0 0 0 0 0 0 0 0 0 0 0 0 0 0 0 0 0 0 0 0 0 0 0 0 0 0 0 0 0 0 0 3269 3269 3269 3269 3269 3269 3269 3269 3269 3269 3269 3269 3300 3300 3300 3300 3300 3269 3269 3269 3269 3300 3300 3300 3300 3300 3333 3300 3300 3269 3269 3300 0 0 0 0 0 1273 1268 1268 1264 1264 1264 1264 1264 1264 1264 1264 1264 1268 1268 1273 1278 1283 1283 1283 1292 1297 1206 1202 1202 1210 1489 1489 1489 1483 1483 1483 1489 1489 1489 1496 1496 1503 1503 1503 1503 1503 1503 1496 1489 1489 1489 1489 1496 1489 1489 1496 1496 1503 1496 1496 1503 1503 1503 1503 1503 1503 1503 1503 1503 1503 1503 1503 1509 1509 1509 1509 1509 1509 1516 1523 1523 1523 1516 1516 1516 1509 1509 1509 1509 1509 1509 1509 1509 1503 1503 1503 1503 1503 1509 1503 1503 1503 1503 1509 1509 1509 1509 1516 1516 1516 1516 1516 1516 1516 1516 1509 1509 1509 1509 1509 1509 1509 1509 1509 1509 1509 1509 1509 1264 1264 1268 1268 1268 1268 1268 1268 1268 1268 1268 1268 1268 1273 1273 1278 1278 1283 1288 1292 1516 1516 1516 1516 1523 1523 1523 1523 1523 1523 1523 1523 1523 1523 1523 1529 1529 1529 1529 1529 1529 1523 1523 1523 1523 1523 1523 1523 1523 1516 1516 1516 1523 1516 1516 1516 1516 1516 1523 1523 1516 1516 1516 1523 1523 1523 1516 1516 1516 1516 1516 1516 1516 1193 1189 1189 1193 1193 1197 1197 1197 1197 1197 1197 1197 1197 1197 1197 1202 1202 1202 1202 1202 1202 1202 1202 1202 1202 1202 1202 1197 1197 1197 1197 1197 1197 1197 1197 1197 1197 1197 1197 1197 1193 1193 1193 1193 1193 1193 1193 1193 1193 1197 1197 1197 1197 1197 1193 1193 1193 1193 1193 1193 1193 1193 1193 1193 1193 1193 1193 1197 1197 1193 1189 1189 1189 1189 1189 1189 1189 1189 1193 1193 1193 1193 1193 1193 1189 1189 1189 1189 1189 1189 1189 1185 1185 1189 1189 1189 1189 1189 1189 1189 1189 1189 1189 1193 1193 1193 1193 1193 1193 1193 1193 1193 1193 1193 1193 1193 1193 1197 1197 1197 1197 1197 1197 1197 1197 1197 1197 1197 1197 1197 1197 1197 1197 1197 1193 1193 1193 1193 1193 1189 1189 1193 1193 1193 1193 1193 1193 1193 1193 1193 1197 1197 1197 1550 1543 1543 1550 1543 1543 1543 1543 1543 1543 1543 1543 1543 1550 1550 1543 1543 1543 1543 1543 1543 1543 1543 1543 1543 1543 1543 1543 1543 1543 1543 1543 1543 1536 1536 1536 1529 1529 1529 1529 1523 1523 1523 1523 1523 1529 1529 1536 1536 1529 1529 1529 1529 1529 1529 1529 1529 1529 1529 1536 1536 1536 1543 1543 1543 1543 1543 1543 1543 1543 1543 1543 1536 1536 1529 1529 0 0 0 0 0 3653 3614 3576 3539 3539 3333 3333 3333 3300 3300 3365 3399 3433 3433 3433 3433 3433 3433 3433 3433 3433 3433 3433 3433 3433 3433 3433 3433 3433 3433 3433 3433 3433 3468 3468 3468 3503 3503 3503 3503 3539 3539 3539 3539 3539 3539 3576 3576 3576 3576 3576 3576 3614 3614 3614 3614 3614 3576 3539 3539 3503 3503 3365 3333 3333 3365 3503 3503 3539 3539 3576 3576 3576 3539 3539 3092 3092 3092 3092 3092 3064 3064 3064 3064 3092 3092 3238 3269 3269 3238 3208 3178 3178 3149 3149 3120 3120 3120 3120 3120 3120 3120 3149 3468 3468 2744 2680 2659 2659 2659 2659 2659 2659 2639 2639 2659 2639 2639 2639 2618 2618 2598 2598 2598 2598 2618 2639 3208 3178 3149 3149 0 0 0 0 0 0 0 0 0 0 0
0 0 0 0 0 0 0 0 0 0 0 0 0 0 0 0 0 0 0 0 0 0 0 0 0 0 0 0 0 0 0 3269 3238 3238 3238 3238 3238 3269 3269 3269 3269 3269 3269 3269 3269 3269 3269 3269 3269 3269 3269 3269 3300 3269 3269 3269 3300 3300 3300 3269 3269 3269 3300 0 0 0 0 0 0 1273 1268 1264 1264 1264 1264 1264 1264 1264 1264 1264 1268 1268 1273 1278 1283 1283 1283 1292 1297 1477 1202 1202 1483 1483 1483 1483 1483 1483 1483 1483 1483 1483 1489 1496 1496 1496 1496 1496 1496 1496 1489 1483 1483 1489 1489 1489 1489 1489 1489 1489 1496 1489 1489 1496 1496 1496 1503 1496 1496 1496 1496 1496 1496 1496 1496 1503 1503 1503 1503 1509 1509 1509 1509 1509 1509 1509 1509 1509 1503 1503 1503 1503 1503 1503 1503 1503 1496 1496 1496 1496 1496 1503 1496 1496 1496 1503 1503 1503 1503 1503 1509 1509 1509 1509 1509 1509 1509 1509 1503 1503 1503 1503 1503 1503 1503 1503 1509 1509 1509 1503 1503 1503 1503 1268 1268 1268 1268 1268 1268 1268 1268 1268 1268 1268 1273 1273 1278 1278 1283 1288 1292 1503 1509 1516 1516 1523 1523 1523 1523 1516 1516 1523 1516 1516 1516 1523 1523 1523 1523 1523 1523 1523 1516 1516 1516 1516 1516 1516 1509 1509 1516 1516 1516 1516 1509 1509 1516 1516 1516 1516 1516 1516 1516 1516 1516 1516 1516 1516 1516 1516 1516 1516 1516 1516 1516 1189 1189 1193 1197 1197 1197 1197 1197 1197 1197 1197 1197 1202 1202 1202 1202 1202 1202 1202 1202 1202 1202 1202 1202 1202 1202 1202 1202 1202 1202 1202 1197 1197 1197 1197 1197 1197 1197 1197 1197 1197 1197 1193 1193 1193 1193 1197 1197 1197 1197 1197 1197 1197 1197 1197 1193 1193 1193 1193 1193 1193 1193 1193 1197 1197 1197 1197 1197 1197 1193 1193 1193 1189 1189 1189 1189 1189 1193 1193 1193 1193 1193 1193 1193 1193 1193 1193 1193 1189 1189 1189 1189 1189 1193 1189 1189 1193 1193 1193 1193 1193 1193 1193 1193 1193 1193 1193 1193 1193 1193 1197 1197 1197 1193 1193 1197 1197 1197 1197 1197 1197 1197 1197 1197 1197 1197 1197 1197 1197 1197 1197 1197 1197 1193 1193 1193 1193 1193 1193 1193 1193 1193 1193 1193 1193 1193 1193 1193 1193 1197 1197 1543 1536 1536 1536 1536 1536 1536 1536 1536 1536 1536 1536 1536 1536 1536 1536 1536 1536 1536 1536 1536 1536 1536 1536 1536 1536 1529 1529 1529 1529 1536 1536 1536 1536 1536 1529 1529 1529 1523 1523 1523 1516 1516 1516 1516 1516 1523 1523 1523 1523 1516 1516 1516 1523 1523 1523 1523 1523 1523 1523 1529 1529 1529 1536 1536 1536 1536 1536 1536 1536 1536 1536 1536 1529 1529 1523 1523 0 0 0 0 0 3653 3614 3576 3539 3539 3300 3300 3300 3300 3300 3365 3399 3399 3433 3433 3433 3433 3433 3433 3433 3433 3433 3433 3433 3433 3433 3433 3433 3433 3468 3468 3468 3468 3503 3539 3539 3539 3539 3539 3539 3539 3539 3539 3539 3539 3539 3576 3576 3576 3539 3539 3576 3576 3614 3576 3576 3576 3576 3539 3539 3503 3468 3365 3333 3333 3365 3433 3468 3503 3539 3539 3539 3576 3539 3539 3092 3092 3092 3092 3092 3064 3064 3064 3064 3092 3092 3238 3269 3269 3238 3208 3178 3178 3149 3149 3120 3120 3120 3120 3092 3092 3092 3092 3092 2723 2723 2680 2659 2659 2659 2659 2659 2659 2639 2639 2659 2639 2639 2639 2618 2618 2598 2598 2598 2598 3178 3178 3178 3178 3149 3149 0 0 0 0 0 0 0 0 0 0 0
0 0 0 0 0 0 0 0 0 0 0 0 0 0 0 0 0 0 0 0 0 0 0 0 0 0 0 0 0 0 0 3238 3238 3238 3238 3238 3238 3238 3238 3238 3238 3238 3238 3238 3238 3238 3238 3238 3238 3238 3269 3269 3269 3269 3269 3269 3300 3300 3300 3269 3269 3269 3300 3300 0 0 0 0 0 1273 1273 1268 1264 1264 1264 1264 1264 1264 1264 1268 1268 1268 1273 1278 1283 1283 1283 1288 1292 1477 1477 1477 1483 1483 1477 1477 1477 1477 1483 1483 1483 1483 1483 1483 1489 1489 1489 1489 1489 1483 1483 1483 1483 1483 1483 1483 1483 1483 1483 1483 1483 1489 1489 1489 1489 1489 1496 1489 1489 1489 1489 1489 1489 1489 1496 1496 1496 1496 1496 1503 1503 1503 1503 1503 1503 1503 1503 1503 1503 1503 1496 1496 1496 1496 1496 1496 1489 1489 1496 1496 1496 1496 1496 1489 1489 1489 1489 1489 1489 1489 1489 1496 1496 1496 1496 1496 1489 1489 1489 1489 1489 1489 1489 1489 1489 1489 1489 1496 1496 1496 1503 1503 1503 1268 1268 1268 1268 1268 1268 1268 1268 1268 1273 1273 1273 1273 1278 1283 1283 1288 1297 1496 1496 1509 1509 1516 1516 1516 1516 1516 1516 1516 1516 1509 1509 1516 1516 1516 1516 1516 1516 1516 1516 1509 1509 1509 1509 1509 1509 1509 1509 1509 1509 1509 1509 1509 1509 1509 1509 1509 1509 1509 1503 1503 1509 1509 1503 1503 1509 1503 1503 1503 1509 1509 1509 1197 1197 1197 1197 1197 1197 1197 1197 1197 1197 1197 1202 1202 1202 1202 1202 1202 1202 1202 1202 1202 1202 1202 1202 1202 1202 1202 1202 1202 1202 1202 1202 1202 1197 1197 1197 1197 1197 1197 1197 1197 1197 1197 1197 1197 1197 1197 1197 1197 1197 1197 1197 1197 1197 1197 1197 1197 1197 1197 1197 1197 1197 1197 1197 1197 1197 1197 1197 1197 1193 1193 1193 1193 1193 1193 1193 1193 1193 1193 1193 1193 1193 1193 1193 1193 1193 1193 1193 1193 1193 1189 1189 1193 1193 1193 1193 1193 1193 1193 1193 1193 1193 1193 1193 1193 1197 1197 1197 1197 1197 1197 1197 1197 1197 1197 1197 1197 1197 1197 1197 1197 1197 1197 1197 1197 1197 1197 1197 1197 1197 1197 1197 1197 1193 1193 1193 1193 1193 1193 1193 1193 1193 1193 1193 1193 1193 1193 1193 1193 1197 1197 1543 1529 1529 1529 1529 1529 1529 1523 1523 1523 1529 1523 1523 1523 1529 1529 1529 1529 1529 1536 1536 1536 1529 1529 1529 1529 1523 1523 1523 1523 1523 1529 1529 1529 1529 1529 1529 1523 1516 1516 1516 1509 1509 1509 1509 1509 1509 1509 1503 1503 1496 1496 1496 1496 1503 1503 1503 1509 1509 1516 1516 1516 1523 1529 1529 1529 1529 1529 1529 1529 1529 1529 1529 1523 1523 1523 1516 1516 1516 1523 1523 0 0 3614 3576 3539 3539 3300 3300 3300 3300 3300 3365 3399 3399 3433 3433 3433 3433 3433 3433 3433 3433 3433 3433 3433 3433 3433 3433 3433 3468 3468 3468 3468 3503 3539 3539 3539 3539 3539 3539 3539 3539 3539 3539 3539 3539 3539 3576 3576 3539 3539 3539 3576 3576 3576 3576 3576 3576 3576 3539 3503 3468 3433 3365 3365 3365 3365 3399 3433 3503 3503 3539 3539 3539 3539 3092 3092 3092 3092 3092 3064 3064 3064 3064 3064 3092 3092 3238 3269 3269 3208 3208 3178 3149 3149 3120 3120 3120 3120 3092 3064 3064 3092 3092 3064 3064 2723 2680 2659 2659 2659 2659 2659 2659 2659 2659 2659 2659 2639 2639 2618 2618 2618 3238 3238 3178 3178 3178 3178 3178 3149 3149 0 0 0 0 0 0 0 0 0 0 0
0 0 0 0 0 0 0 0 0 0 0 0 0 0 0 0 0 0 0 0 0 0 0 0 0 0 0 0 0 0 0 3238 3238 3238 3238 3238 3238 3238 3238 3238 3238 3238 3238 3238 3238 3238 3238 3238 3238 3238 3238 3238 3269 3238 3238 3269 3269 3269 3269 3238 3238 3269 3269 3269 0 0 0 0 0 0 1273 1268 1264 1264 1268 1268 1264 1264 1268 1268 1268 1268 1273 1278 1283 1283 1283 1288 1292 1477 1477 1477 1477 1477 1470 1470 1477 1477 1477 1470 1470 1477 1477 1477 1477 1477 1477 1483 1477 1477 1477 1477 1477 1477 1477 1477 1477 1477 1483 1483 1483 1483 1483 1483 1483 1483 1483 1483 1483 1483 1483 1483 1483 1483 1483 1489 1489 1489 1496 1496 1496 1489 1489 1496 1496 1489 1489 1489 1496 1496 1496 1496 1489 1489 1489 1489 1483 1483 1489 1489 1489 1489 1489 1483 1483 1477 1477 1483 1483 1483 1483 1489 1489 1489 1489 1489 1483 1483 1489 1483 1483 1483 1483 1483 1483 1483 1483 1489 1489 1489 1489 1496 1496 1268 1268 1268 1268 1268 1273 1268 1268 1273 1273 1273 1273 1278 1278 1283 1283 1292 1302 1483 1483 1496 1496 1496 1503 1503 1503 1503 1503 1503 1503 1503 1503 1509 1509 1509 1509 1509 1509 1509 1503 1503 1503 1503 1503 1503 1503 1503 1503 1503 1503 1503 1496 1496 1503 1503 1503 1503 1503 1503 1496 1496 1496 1496 1496 1496 1503 1503 1496 1496 1503 1503 1503 1197 1197 1197 1197 1197 1197 1202 1202 1202 1202 1202 1202 1202 1202 1202 1202 1206 1206 1206 1206 1206 1206 1202 1202 1202 1202 1202 1202 1202 1202 1202 1202 1202 1202 1202 1202 1202 1197 1197 1197 1197 1197 1197 1197 1197 1197 1197 1197 1197 1197 1197 1197 1197 1197 1197 1197 1197 1197 1197 1197 1197 1197 1197 1197 1197 1197 1197 1197 1197 1193 1193 1193 1193 1193 1193 1193 1193 1193 1193 1193 1193 1193 1193 1193 1193 1193 1193 1193 1193 1193 1189 1189 1193 1193 1193 1193 1193 1193 1193 1193 1193 1193 1193 1193 1197 1197 1197 1197 1197 1197 1197 1197 1197 1197 1197 1197 1197 1197 1197 1197 1197 1197 1197 1197 1197 1197 1197 1197 1197 1197 1197 1197 1197 1197 1197 1193 1193 1193 1193 1193 1193 1193 1193 1193 1193 1193 1193 1193 1193 1197 1197 1536 1529 1529 1529 1529 1523 1523 1523 1523 1523 1523 1516 1516 1516 1523 1523 1523 1523 1529 1529 1529 1529 1523 1523 1523 1523 1516 1516 1516 1516 1516 1523 1523 1523 1523 1523 1523 1523 1516 1509 1509 1503 1503 1496 1496 1489 1489 1489 1483 1483 1489 1489 1489 1489 1489 1489 1489 1496 1503 1503 1509 1509 1509 1516 1523 1523 1523 1523 1523 1523 1523 1523 1516 1516 1516 1516 1509 1509 1516 1523 1523 1529 0 0 0 3300 0 3300 3300 3300 3333 3333 3365 3399 3433 3433 3433 3433 3433 3433 3433 3433 3433 3433 3433 3433 3433 3433 3433 3468 3468 3468 3503 3503 3503 3539 3539 3539 3539 3539 3539 3539 3539 3539 3539 3539 3539 3539 3539 3539 3539 3539 3539 3576 3576 3576 3576 3576 3576 3539 3539 3503 3468 3433 3365 3365 3365 3365 3399 3433 3468 3503 3539 3539 3539 3539 3092 3092 3092 3092 3092 3064 3064 3064 3064 3064 3092 3092 3269 3269 3269 3208 3178 3149 3149 3149 3120 3120 3120 3120 3092 3064 3064 3064 3064 3037 2908 2723 2701 2680 2659 2659 2659 2659 2659 2659 2659 2659 2659 2639 2639 2618 2618 3300 3238 3208 3178 3149 3149 3149 3149 3149 3149 0 0 0 0 0 0 0 0 0 0 0
0 0 0 0 0 0 0 0 0 0 0 0 0 0 0 0 0 0 0 0 0 0 0 0 0 0 0 0 0 0 0 3238 3208 3208 3208 3238 3238 3238 3238 3238 3238 3238 3238 3238 3238 3238 3238 3238 3238 3238 3238 3238 3269 3238 3238 3269 3269 3269 3238 3238 3238 3269 3269 3269 0 0 0 0 0 1283 1278 1273 1268 1268 1268 1268 1268 1268 1268 1268 1268 1273 1273 1278 1283 1283 1283 1283 1288 1477 1470 1470 1470 1470 1470 1470 1470 1470 1470 1464 1464 1464 1464 1464 1464 1464 1464 1470 1470 1464 1464 1470 1470 1470 1470 1470 1470 1470 1470 1477 1477 1477 1477 1477 1477 1477 1477 1477 1477 1477 1477 1477 1477 1483 1483 1483 1483 1483 1489 1483 1483 1483 1483 1483 1483 1483 1483 1483 1483 1489 1483 1483 1483 1483 1483 1483 1477 1477 1483 1483 1483 1483 1477 1477 1477 1470 1470 1477 1477 1477 1483 1483 1483 1483 1483 1483 1477 1477 1483 1477 1477 1477 1477 1477 1477 1477 1477 1483 1483 1489 1489 1496 1496 1268 1268 1268 1268 1268 1273 1273 1273 1273 1273 1278 1278 1278 1278 1283 1283 1292 1297 1477 1483 1483 1483 1483 1483 1483 1483 1489 1496 1496 1496 1496 1496 1489 1489 1483 1483 1483 1483 1489 1489 1483 1483 1489 1489 1489 1489 1489 1489 1489 1489 1496 1489 1489 1496 1496 1496 1496 1496 1489 1489 1489 1489 1489 1489 1496 1496 1496 1496 1496 1496 1503 1503 1197 1197 1197 1197 1202 1202 1202 1202 1202 1202 1202 1202 1202 1202 1202 1206 1206 1210 1210 1206 1206 1206 1206 1202 1202 1202 1202 1202 1202 1202 1202 1202 1202 1202 1202 1202 1202 1202 1202 1197 1197 1197 1197 1197 1197 1197 1197 1197 1197 1197 1197 1197 1197 1197 1197 1197 1197 1197 1197 1197 1197 1197 1197 1197 1197 1197 1197 1197 1197 1193 1193 1193 1193 1193 1193 1193 1193 1197 1197 1197 1197 1197 1197 1197 1193 1193 1193 1193 1193 1193 1193 1193 1193 1193 1193 1193 1197 1197 1197 1197 1197 1197 1197 1197 1197 1197 1197 1197 1197 1197 1197 1197 1197 1197 1197 1197 1197 1197 1197 1202 1202 1202 1202 1202 1202 1202 1202 1202 1202 1202 1202 1197 1197 1197 1197 1193 1193 1193 1193 1193 1193 1193 1193 1193 1193 1193 1193 1193 1193 1197 1197 1529 1529 1523 1523 1523 1516 1516 1509 1509 1516 1509 1509 1509 1509 1509 1509 1516 1516 1516 1516 1523 1523 1516 1516 1516 1509 1509 1509 1509 1509 1509 1509 1516 1516 1516 1516 1516 1516 1509 1503 1496 1496 1489 1483 1483 1483 1483 1483 1477 1477 1483 1483 1483 1483 1483 1483 1483 1489 1489 1489 1496 1496 1496 1503 1509 1509 1509 1516 1516 1516 1516 1516 1509 1509 1503 1503 1503 1503 1509 1516 1516 1529 0 0 0 0 0 3300 3300 3300 3333 3333 3399 3399 3433 3433 3433 3433 3433 3433 3433 3433 3433 3433 3433 3433 3468 3468 3468 3468 3468 3503 3503 3503 3539 3539 3539 3539 3539 3503 3503 3539 3539 3539 3539 3539 3539 3539 3539 3539 3539 3539 3539 3539 3539 3539 3539 3576 3539 3539 3539 3503 3468 3433 3399 3365 3365 3365 3399 3433 3468 3503 3503 3503 3539 3539 3092 3092 3092 3092 3092 3064 3064 3064 3064 3064 3092 3092 3092 3269 3269 3178 3178 3149 3149 3149 3120 3120 3120 3120 3092 3064 3064 3064 3064 3037 2908 2723 2701 2680 2680 2680 2659 2659 2659 2659 2659 2659 2659 2659 2639 2618 2618 3300 3238 3178 3149 3149 3149 3149 3149 3149 3149 0 0 0 0 0 0 0 0 0 0 0
0 0 0 0 0 0 0 0 0 0 0 0 0 0 0 0 0 0 0 0 0 0 0 0 0 0 0 0 0 0 0 3208 3208 3208 3208 3238 3238 3238 3238 3238 3238 3238 3238 3208 3208 3208 3208 3208 3208 3208 3238 3238 3238 3238 3238 3238 3269 3269 3238 3238 3238 3269 3300 0 0 0 0 0 0 1283 1278 1273 1268 1268 1268 1268 1268 1268 1268 1268 1268 1273 1273 1278 1283 1283 1283 1283 1283 1283 1470 1464 1464 1458 1458 1458 1458 1458 1458 1458 1458 1458 1458 1458 1458 1458 1458 1458 1458 1458 1458 1464 1464 1464 1464 1464 1464 1464 1464 1464 1470 1470 1470 1470 1470 1470 1470 1470 1464 1464 1464 1470 1470 1477 1477 1470 1470 1477 1477 1477 1470 1470 1477 1477 1477 1477 1477 1477 1477 1477 1470 1470 1470 1470 1470 1470 1470 1470 1477 1477 1477 1477 1470 1470 1464 1464 1464 1464 1464 1470 1470 1470 1477 1477 1477 1477 1477 1477 1477 1470 1470 1470 1470 1470 1470 1470 1470 1470 1470 1477 1477 1496 1273 1273 1273 1273 1273 1273 1278 1278 1278 1278 1278 1278 1278 1283 1283 1283 1288 1292 1297 1470 1470 1477 1477 1477 1477 1477 1477 1477 1477 1483 1483 1483 1483 1477 1477 1477 1477 1477 1477 1477 1477 1477 1477 1483 1483 1483 1483 1477 1477 1477 1477 1477 1477 1470 1470 1470 1477 1477 1477 1477 1477 1477 1477 1477 1477 1483 1483 1483 1483 1483 1489 1489 1489 1202 1202 1202 1202 1202 1202 1202 1202 1202 1202 1202 1202 1202 1202 1206 1206 1206 1210 1210 1206 1206 1210 1206 1202 1202 1206 1202 1202 1202 1202 1202 1202 1202 1202 1202 1202 1202 1202 1202 1202 1197 1197 1197 1197 1197 1197 1197 1197 1197 1197 1197 1202 1202 1202 1202 1197 1197 1197 1197 1197 1197 1197 1197 1202 1202 1202 1197 1197 1202 1197 1197 1197 1197 1193 1193 1197 1197 1197 1197 1197 1197 1197 1197 1197 1197 1197 1197 1193 1193 1193 1193 1193 1193 1197 1197 1197 1197 1197 1197 1197 1197 1197 1197 1197 1197 1197 1197 1197 1197 1202 1202 1202 1202 1197 1197 1197 1197 1197 1202 1202 1202 1206 1206 1206 1206 1202 1202 1202 1202 1202 1202 1202 1202 1197 1197 1197 1193 1193 1193 1193 1193 1193 1193 1193 1193 1193 1193 1193 1193 1197 1197 1516 1509 1503 1503 1503 1503 1503 1503 1503 1503 1503 1503 1503 1503 1503 1503 1503 1503 1509 1509 1509 1516 1509 1509 1503 1503 1503 1503 1503 1503 1503 1509 1509 1509 1509 1516 1509 1509 1503 1496 1496 1489 1483 1477 1477 1477 1477 1477 1477 1477 1477 1477 1477 1477 1477 1477 1483 1483 1483 1489 1489 1489 1489 1496 1503 1503 1503 1509 1509 1509 1503 1503 1503 1496 1496 1496 1496 1496 1503 1509 1516 1516 1523 0 0 0 0 0 3333 3333 3365 3365 3399 3433 3433 3433 3433 3433 3433 3433 3433 3433 3433 3433 3433 3433 3468 3468 3468 3503 3503 3503 3503 3503 3503 3503 3503 3539 3503 3503 3503 3539 3539 3539 3539 3539 3539 3539 3539 3539 3539 3539 3539 3539 3539 3503 3503 3539 3539 3503 3503 3503 3468 3433 3399 3365 3365 3365 3399 3468 3503 3503 3503 3503 3503 3149 3092 3092 3092 3092 3092 3064 3064 3064 3064 3064 3092 3092 3092 3300 3269 3178 3178 3149 3149 3120 3120 3120 3120 3120 3092 3064 3064 3064 3064 3092 3092 2701 2680 2680 2659 2659 2659 2659 2659 2659 2659 2659 2659 2659 2639 2639 3365 3333 3238 3178 3149 3149 3149 3149 3149 3149 3149 0 0 0 0 0 0 0 0 0 0 0
0 0 0 0 0 0 0 0 0 0 0 0 0 0 0 0 0 0 0 0 0 0 0 0 0 0 0 0 0 0 0 3208 3208 3208 3208 3238 3238 3238 3208 3208 3208 3208 3208 3208 3208 3208 3208 3208 3208 3208 3208 3208 3238 3238 3238 3238 3238 3238 3238 3238 3238 3269 3300 0 0 0 0 1288 1288 1283 1278 1273 1273 1268 1268 1273 1268 1268 1273 1268 1268 1278 1278 1278 1283 1283 1283 1283 1283 1283 1288 1292 1458 1452 1452 1452 1452 1445 1445 1452 1452 1452 1452 1445 1445 1452 1452 1452 1452 1458 1458 1458 1458 1458 1458 1458 1458 1458 1458 1464 1464 1464 1464 1464 1464 1470 1464 1464 1464 1464 1464 1464 1464 1464 1464 1464 1464 1464 1464 1464 1464 1464 1464 1464 1464 1470 1470 1470 1470 1464 1464 1464 1464 1464 1464 1464 1464 1464 1464 1470 1464 1464 1464 1464 1458 1458 1458 1458 1458 1458 1464 1464 1470 1470 1470 1470 1470 1470 1470 1470 1464 1464 1464 1464 1464 1464 1458 1458 1458 1458 1458 1458 1273 1273 1273 1273 1273 1278 1278 1278 1278 1278 1278 1278 1283 1283 1283 1288 1288 1292 1302 1470 1470 1470 1470 1470 1470 1470 1470 1470 1470 1470 1470 1470 1464 1464 1464 1464 1470 1470 1470 1470 1470 1470 1470 1477 1477 1477 1477 1477 1477 1477 1477 1477 1470 1470 1470 1470 1470 1470 1470 1470 1470 1470 1470 1470 1470 1477 1470 1470 1477 1477 1483 1483 1489 1489 1202 1202 1202 1202 1202 1202 1202 1202 1202 1202 1202 1206 1206 1206 1206 1210 1210 1210 1210 1210 1210 1206 1206 1206 1206 1202 1202 1202 1202 1202 1202 1202 1202 1202 1202 1202 1202 1202 1202 1202 1202 1202 1202 1197 1197 1197 1197 1197 1197 1197 1202 1202 1202 1202 1202 1202 1202 1202 1202 1202 1202 1202 1202 1202 1202 1202 1202 1202 1197 1197 1197 1197 1197 1197 1197 1197 1197 1197 1197 1197 1197 1197 1197 1197 1197 1197 1197 1197 1193 1193 1197 1197 1197 1197 1197 1197 1197 1197 1197 1197 1197 1197 1197 1197 1197 1202 1202 1202 1202 1202 1202 1202 1197 1197 1197 1202 1202 1202 1202 1206 1206 1210 1210 1206 1206 1206 1206 1206 1206 1206 1206 1206 1202 1202 1197 1197 1197 1197 1193 1193 1193 1193 1193 1193 1193 1193 1193 1193 1197 1197 1516 1503 1489 1489 1489 1489 1496 1496 1496 1496 1496 1496 1496 1496 1489 1489 1489 1489 1489 1496 1496 1496 1496 1496 1496 1489 1489 1489 1489 1496 1496 1503 1503 1503 1503 1503 1503 1503 1496 1496 1489 1489 1483 1477 1470 1470 1477 1470 1470 1470 1470 1470 1477 1477 1477 1477 1477 1477 1483 1483 1483 1483 1483 1489 1489 1489 1496 1503 1503 1503 1503 1496 1496 1496 1489 1489 1489 1489 1489 1496 1509 1509 1523 0 0 0 0 0 0 3365 3365 3365 3399 3433 3433 3433 3433 3433 3433 3433 3433 3433 3433 3433 3433 3468 3468 3468 3468 3468 3468 3503 3468 3468 3503 3503 3503 3503 3503 3503 3503 3503 3503 3539 3539 3539 3539 3539 3539 3539 3539 3503 3503 3503 3503 3468 3468 3503 3503 3468 3468 3468 3468 3433 3399 3399 3399 3433 3433 3433 3468 3468 3503 3503 3503 3149 3120 3092 3092 3092 3092 3064 3064 3064 3064 3064 3092 3092 3365 3333 3300 3178 3149 3149 3149 3120 3120 3120 3120 3120 3092 3064 3064 3092 3092 3120 3120 2701 2680 2680 2659 2659 2659 2659 2659 2659 2659 2659 2659 2659 2639 2639 3365 3333 3178 3178 3149 3149 3149 3149 3149 3149 3149 0 0 0 0 0 0 0 0 0 0 0
0 0 0 0 0 0 0 0 0 0 0 0 0 0 0 0 0 0 0 0 0 0 0 0 0 0 0 0 0 0 0 3208 3208 3208 3208 3208 3208 3208 3208 3208 3208 3208 3208 3208 3208 3208 3208 3208 3208 3208 3208 3208 3238 3238 3238 3238 3238 3238 3238 3238 3238 0 0 0 0 0 0 1288 1288 1283 1278 1278 1273 1273 1273 1273 1273 1273 1273 1273 1278 1278 1278 1278 1283 1283 1283 1283 1283 1283 1288 1292 1439 1439 1439 1439 1439 1439 1439 1439 1439 1439 1439 1439 1439 1445 1439 1439 1445 1452 1452 1452 1452 1452 1452 1452 1452 1452 1452 1452 1458 1458 1458 1458 1458 1458 1458 1458 1458 1458 1458 1458 1458 1458 1458 1458 1458 1458 1458 1452 1452 1452 1452 1452 1458 1458 1464 1464 1464 1458 1458 1458 1458 1458 1458 1458 1458 1458 1458 1458 1458 1458 1458 1458 1452 1452 1452 1452 1452 1458 1458 1464 1464 1464 1464 1464 1464 1464 1458 1458 1458 1458 1458 1464 1464 1458 1458 1458 1458 1452 1452 1452 1268 1268 1278 1278 1278 1278 1278 1278 1278 1278 1278 1283 1283 1283 1283 1288 1292 1297 1302 1464 1464 1464 1464 1464 1464 1464 1464 1464 1458 1458 1458 1458 1458 1458 1458 1458 1458 1458 1458 1458 1458 1458 1458 1464 1470 1470 1470 1470 1470 1470 1470 1470 1464 1464 1464 1464 1464 1464 1464 1464 1464 1464 1464 1464 1464 1464 1464 1464 1464 1470 1470 1477 1489 1210 1210 1206 1206 1206 1206 1206 1206 1206 1206 1206 1206 1206 1210 1210 1210 1210 1210 1210 1210 1210 1210 1210 1206 1206 1206 1206 1202 1202 1202 1206 1206 1206 1202 1202 1202 1202 1202 1202 1202 1202 1202 1197 1197 1202 1197 1197 1197 1197 1197 1197 1202 1202 1202 1202 1202 1202 1202 1202 1202 1202 1202 1202 1202 1202 1202 1202 1202 1202 1197 1197 1197 1197 1197 1197 1197 1197 1197 1197 1197 1197 1197 1197 1197 1197 1197 1197 1197 1197 1197 1197 1197 1197 1197 1197 1197 1197 1197 1197 1202 1197 1197 1197 1197 1202 1202 1202 1206 1202 1202 1206 1202 1202 1202 1197 1197 1202 1202 1202 1202 1206 1210 1210 1210 1210 1210 1210 1210 1210 1210 1210 1210 1206 1206 1202 1197 1197 1197 1197 1197 1197 1193 1193 1193 1197 1197 1197 1197 1197 1197 1197 1489 1489 1483 1483 1483 1483 1483 1483 1489 1483 1483 1483 1483 1483 1483 1483 1483 1483 1483 1489 1489 1483 1483 1483 1489 1483 1483 1489 1489 1489 1489 1496 1496 1496 1496 1496 1496 1496 1496 1489 1489 1483 1477 1470 1470 1470 1470 1470 1464 1464 1464 1464 1470 1470 1470 1470 1470 1470 1470 1477 1477 1477 1477 1483 1483 1483 1489 1496 1496 1496 1496 1489 1483 1483 1483 1483 1483 1483 1483 1489 1496 1509 0 0 0 0 0 0 0 3365 3365 3365 3399 3433 3433 3433 3433 3433 3433 3433 3433 3433 3433 3433 3433 3433 3468 3468 3468 3468 3468 3468 3468 3468 3468 3468 3468 3468 3468 3468 3468 3468 3468 3468 3539 3503 3503 3539 3539 3539 3539 3503 3503 3503 3503 3468 3468 3468 3468 3468 3468 3433 3433 3433 3399 3399 3365 3365 3399 3399 3433 3433 3468 3468 3468 3149 3120 3120 3092 3092 3092 3064 3064 3064 3064 3064 3092 3092 3399 3365 3333 3178 3149 3149 3149 3120 3120 3120 3120 3120 3092 3092 3092 3092 3092 3120 3149 2701 2680 2680 2680 2680 2680 2659 2659 2659 2659 2659 2659 2659 2639 2639 3333 3208 3178 3178 3149 3149 3149 3149 3149 3149 3149 0 0 0 0 0 0 0 0 0 0 0
0 0 0 0 0 0 0 0 0 0 0 0 0 0 0 0 0 0 0 0 0 0 0 0 0 0 0 0 0 0 0 3178 3178 3178 3178 3208 3208 3208 3208 3208 3208 3208 3208 3208 3208 3208 3208 3178 3178 3178 3178 3208 3208 3238 3238 3238 3238 3238 3238 3238 3238 0 0 0 0 0 0 1288 1288 1278 1278 1278 1278 1278 1273 1273 1278 1278 1273 1273 1278 1278 1278 1278 1283 1283 1288 1288 1288 1288 1288 1292 1292 1433 1433 1433 1433 1433 1433 1433 1439 1439 1439 1439 1439 1439 1439 1439 1439 1445 1445 1445 1445 1445 1445 1445 1445 1445 1445 1445 1452 1452 1452 1452 1452 1452 1452 1452 1452 1445 1445 1445 1445 1445 1445 1452 1445 1445 1445 1445 1445 1445 1445 1445 1445 1452 1452 1452 1452 1452 1452 1452 1452 1452 1452 1452 1452 1452 1452 1452 1452 1452 1452 1452 1452 1452 1452 1452 1452 1452 1452 1452 1458 1458 1458 1458 1458 1458 1452 1452 1452 1452 1452 1458 1458 1458 1452 1452 1452 1452 1445 1445 1268 1268 1278 1278 1278 1283 1283 1283 1283 1283 1283 1283 1283 1288 1288 1288 1292 1297 1297 1452 1458 1458 1458 1458 1458 1458 1458 1458 1458 1452 1452 1452 1452 1452 1458 1458 1458 1458 1458 1458 1458 1458 1458 1458 1458 1464 1464 1464 1464 1464 1464 1464 1464 1458 1458 1458 1458 1458 1458 1458 1458 1458 1464 1464 1464 1464 1458 1458 1464 1464 1464 1464 1464 1210 1210 1210 1210 1206 1206 1206 1206 1206 1206 1206 1206 1210 1210 1210 1210 1210 1214 1214 1214 1214 1214 1214 1214 1214 1445 1452 1202 1202 1202 1206 1206 1206 1206 1206 1206 1202 1202 1202 1202 1202 1202 1197 1197 1202 1202 1202 1202 1202 1202 1202 1202 1202 1202 1202 1202 1202 1202 1202 1202 1202 1202 1197 1197 1197 1197 1197 1197 1197 1193 1193 1193 1193 1197 1197 1197 1197 1197 1197 1197 1197 1197 1197 1197 1197 1197 1202 1197 1197 1197 1197 1197 1197 1197 1197 1197 1197 1197 1197 1202 1202 1202 1202 1202 1206 1206 1206 1206 1206 1206 1206 1206 1206 1202 1197 1197 1202 1202 1202 1202 1206 1210 1210 1210 1210 1210 1210 1210 1210 1210 1210 1210 1210 1206 1206 1202 1202 1202 1197 1197 1197 1197 1197 1197 1197 1197 1197 1197 1197 1197 1483 1483 1483 1477 1477 1477 1483 1477 1477 1477 1477 1477 1477 1477 1477 1477 1477 1483 1483 1483 1483 1483 1483 1483 1483 1483 1483 1483 1483 1483 1483 1483 1489 1489 1489 1489 1489 1489 1489 1489 1483 1483 1477 1477 1470 1464 1464 1464 1464 1458 1458 1458 1458 1464 1458 1458 1464 1464 1464 1464 1470 1470 1477 1477 1477 1483 1483 1483 1489 1483 1483 1483 1483 1477 1477 1477 1477 1477 1477 1477 1477 1477 1477 0 0 0 0 0 0 0 0 3365 3365 3399 3433 3433 3433 3433 3433 3433 3433 3433 3433 3433 3433 3433 3433 3433 3433 3433 3433 3433 3468 3433 3433 3468 3433 3433 3433 3433 3433 3433 3433 3468 3468 3503 3503 3503 3539 3539 3539 3503 3468 3468 3468 3468 3433 3433 3433 3433 3433 3433 3433 3433 3399 3399 3399 3365 3365 3365 3399 3399 3433 3433 3433 3399 3149 3120 3120 3092 3092 3092 3064 3064 3064 3064 3092 3092 3300 3365 3399 3365 3208 3178 3149 3149 3120 3120 3120 3120 3120 3092 3092 3092 3092 3092 3120 3149 2701 2680 2680 2680 2680 2680 2659 2659 2659 2659 2659 2659 2659 2659 3333 3333 3208 3178 3178 3149 3149 3149 3149 3149 3149 3149 0 0 0 0 0 0 0 0 0 0 0
0 0 0 0 0 0 0 0 0 0 0 0 0 0 0 0 0 0 0 0 0 0 0 0 0 0 0 0 0 0 0 3149 3149 3149 3178 3178 3178 3178 3178 3178 3178 3178 3178 3178 3178 3178 3178 3149 3149 3149 3178 3208 3208 3208 3208 3238 3238 3238 3238 3238 3238 0 0 0 0 0 0 0 1278 1278 1278 1278 1278 1278 1278 1278 1278 1278 1278 1278 1278 1278 1278 1283 1283 1288 1292 1292 1288 1288 1288 1292 1292 1433 1433 1433 1433 1433 1433 1433 1433 1433 1433 1433 1433 1433 1433 1433 1433 1439 1439 1439 1439 1439 1439 1439 1439 1439 1439 1439 1439 1439 1445 1445 1445 1445 1445 1445 1445 1439 1439 1439 1439 1439 1439 1445 1439 1439 1439 1439 1439 1445 1439 1439 1445 1445 1445 1445 1445 1445 1445 1452 1452 1445 1445 1445 1445 1445 1445 1445 1445 1445 1445 1445 1445 1445 1445 1445 1445 1445 1445 1445 1452 1452 1452 1452 1452 1445 1445 1445 1445 1445 1445 1445 1452 1452 1445 1445 1445 1445 1445 1445 1445 1278 1278 1278 1278 1283 1283 1283 1283 1283 1283 1283 1283 1288 1288 1288 1292 1297 1297 1452 1452 1452 1452 1452 1452 1452 1452 1452 1452 1445 1445 1452 1452 1452 1452 1452 1458 1458 1458 1452 1452 1452 1452 1452 1458 1458 1458 1464 1464 1464 1458 1458 1458 1452 1452 1452 1445 1445 1452 1452 1452 1452 1452 1452 1458 1452 1452 1452 1452 1452 1458 1458 1458 1210 1210 1210 1210 1210 1210 1210 1210 1210 1206 1206 1210 1210 1210 1210 1210 1214 1214 1214 1214 1214 1214 1214 1439 1445 1445 1445 1452 1452 1452 1452 1452 1452 1452 1214 1214 1206 1206 1206 1206 1206 1458 1458 1202 1202 1458 1464 1464 1464 1458 1458 1458 1452 1445 1445 1202 1202 1197 1197 1197 1197 1197 1197 1197 1197 1197 1197 1197 1197 1193 1193 1193 1193 1197 1197 1197 1197 1197 1197 1197 1202 1197 1197 1197 1197 1197 1202 1197 1197 1197 1197 1197 1197 1193 1193 1193 1193 1197 1197 1202 1202 1202 1206 1206 1206 1206 1206 1210 1210 1210 1210 1210 1206 1202 1197 1197 1202 1202 1202 1202 1206 1210 1210 1210 1210 1210 1210 1210 1210 1210 1210 1210 1210 1210 1210 1202 1202 1202 1202 1202 1197 1197 1197 1197 1197 1197 1197 1197 1197 1197 1470 1470 1470 1470 1470 1470 1477 1470 1470 1477 1477 1477 1477 1477 1477 1477 1477 1477 1477 1477 1477 1477 1477 1477 1477 1477 1477 1477 1477 1477 1477 1483 1483 1483 1483 1483 1483 1477 1477 1477 1477 1477 1470 1464 1458 1458 1458 1458 1458 1452 1445 1445 1445 1452 1452 1452 1452 1452 1458 1458 1464 1464 1470 1470 1470 1477 1477 1477 1477 1470 1470 1477 1477 1477 1477 1470 1470 1470 1470 1464 1464 1464 1464 0 0 0 0 0 0 0 0 3399 3399 3399 3433 3433 3433 3433 3433 3433 3433 3433 3433 3433 3433 3433 3433 3433 3433 3433 3433 3433 3433 3433 3433 3433 3433 3433 3433 3433 3433 3433 3433 3433 3433 3468 3468 3468 3503 3503 3503 3468 3468 3468 3468 3433 3433 3433 3433 3433 3433 3433 3433 3399 3399 3365 3365 3333 3333 3333 3365 3399 3399 3433 3399 3399 3149 3120 3120 3092 3092 3092 3092 3092 3092 3092 3092 3238 3333 3365 3365 3365 3238 3149 3149 3120 3120 3120 3120 3120 3120 3092 3092 3092 3092 3092 3092 3149 2701 2680 2659 2659 2680 2659 2659 2659 2659 2659 2659 2659 2659 2659 3333 3333 3208 3178 3178 3149 3149 3149 3149 3149 3149 3149 0 0 0 0 0 0 0 0 0 0 0
0 0 0 0 0 0 0 0 0 0 0 0 0 0 0 0 0 0 0 0 0 0 0 0 0 0 0 0 0 0 0 3149 3149 3149 3149 3149 3149 3149 3149 3149 3149 3178 3178 3149 3149 3149 3149 3120 3120 3120 3149 3178 3208 3208 3208 3208 3208 3238 3269 0 0 0 0 0 0 0 0 0 1410 1283 1283 1278 1278 1278 1278 1278 1278 1278 1278 1278 1278 1278 1283 1283 1288 1288 1292 1292 1292 1292 1292 1297 1427 1427 1427 1427 1427 1427 1427 1427 1433 1427 1427 1427 1427 1427 1427 1427 1433 1433 1433 1433 1433 1433 1439 1433 1433 1433 1433 1433 1433 1433 1433 1433 1439 1439 1439 1439 1439 1439 1439 1433 1433 1433 1433 1439 1433 1433 1439 1439 1439 1439 1439 1439 1439 1439 1439 1439 1439 1439 1445 1445 1445 1445 1445 1445 1439 1433 1433 1433 1433 1433 1439 1439 1439 1439 1439 1439 1439 1439 1439 1445 1445 1445 1445 1445 1439 1439 1439 1439 1439 1439 1439 1445 1445 1445 1445 1445 1445 1445 1439 1439 1439 1283 1283 1278 1278 1283 1283 1283 1283 1283 1283 1283 1288 1288 1288 1288 1292 1297 1297 1445 1445 1445 1445 1445 1445 1445 1445 1445 1445 1445 1445 1445 1445 1445 1452 1452 1452 1452 1452 1445 1445 1445 1445 1445 1452 1452 1452 1452 1452 1458 1452 1452 1452 1445 1445 1445 1445 1445 1445 1445 1445 1445 1445 1445 1445 1445 1445 1445 1445 1445 1452 1452 1452 1206 1206 1210 1210 1210 1210 1210 1210 1210 1210 1210 1210 1214 1214 1214 1214 1214 1214 1219 1214 1214 1214 1214 1439 1439 1445 1445 1445 1445 1445 1445 1452 1452 1452 1452 1445 1445 1452 1452 1452 1452 1452 1452 1452 1452 1452 1452 1452 1452 1452 1452 1452 1452 1445 1445 1445 1445 1197 1197 1197 1197 1193 1193 1193 1193 1193 1193 1193 1193 1193 1193 1193 1197 1197 1197 1197 1202 1197 1197 1197 1202 1202 1202 1197 1197 1197 1202 1197 1197 1197 1197 1197 1197 1193 1193 1193 1193 1197 1197 1202 1206 1206 1206 1206 1206 1206 1210 1210 1210 1210 1210 1210 1210 1202 1197 1197 1202 1202 1202 1202 1206 1210 1210 1210 1210 1210 1210 1210 1214 1214 1214 1214 1210 1210 1210 1206 1206 1206 1206 1206 1202 1202 1202 1202 1202 1202 1202 1202 1210 1210 1464 1464 1464 1464 1464 1464 1464 1464 1464 1464 1464 1464 1470 1470 1470 1470 1470 1470 1470 1470 1470 1477 1477 1477 1470 1470 1470 1470 1470 1470 1470 1477 1477 1477 1477 1470 1470 1470 1470 1464 1464 1464 1464 1458 1458 1458 1452 1452 1445 1439 1439 1439 1439 1439 1439 1439 1439 1439 1439 1445 1452 1452 1452 1458 1464 1470 1464 1464 1458 1452 1452 1458 1464 1464 1464 1464 1464 1464 1464 1464 1458 1458 1464 1470 0 0 0 0 0 0 0 0 3399 3399 3433 3433 3433 3433 3433 3433 3433 3433 3433 3433 3433 3433 3433 3433 3433 3433 3433 3433 3433 3433 3433 3399 3399 3399 3433 3399 3399 3399 3399 3399 3433 3433 3433 3433 3468 3433 3433 3433 3433 3433 3433 3433 3433 3433 3433 3433 3433 3433 3433 3399 3399 3365 3365 3333 3333 3333 3365 3365 3399 3399 3399 3365 3178 3120 3120 3092 3092 3092 3092 3092 3092 3092 3120 3238 3333 3365 3365 3365 3238 3149 3149 3120 3120 3120 3120 3120 3120 3092 3092 3092 3064 3064 3092 2723 2680 2680 2659 2659 2680 2659 2659 2659 2659 2659 2659 2659 2659 2659 3333 3269 3238 3178 3149 3149 3149 3149 3149 3149 3149 3178 0 0 0 0 0 0 0 0 0 0 0
0 0 0 0 0 0 0 0 0 0 0 0 0 0 0 0 0 0 0 0 0 0 0 0 0 0 0 0 0 0 0 3120 3120 3120 3120 3120 3120 3120 3149 3149 3149 3149 3149 3149 3149 3149 3149 3120 3120 3120 3149 3178 3178 3208 3208 3208 3208 3238 0 0 0 0 0 0 0 1415 1410 1410 1410 1410 1283 1278 1278 1283 1278 1278 1278 1278 1278 1278 1278 1278 1283 1283 1288 1292 1292 1297 1297 1297 1297 1421 1421 1421 1421 1421 1421 1421 1421 1421 1421 1421 1421 1421 1421 1421 1421 1421 1427 1427 1427 1427 1427 1427 1427 1427 1427 1427 1427 1427 1427 1427 1427 1427 1433 1433 1433 1433 1433 1433 1433 1433 1433 1433 1433 1433 1433 1433 1433 1433 1433 1439 1433 1433 1439 1433 1433 1433 1433 1433 1439 1439 1439 1433 1433 1433 1427 1427 1427 1427 1427 1427 1427 1433 1433 1433 1433 1433 1433 1433 1433 1433 1433 1439 1439 1433 1433 1433 1433 1433 1433 1433 1433 1439 1439 1439 1439 1439 1439 1439 1433 1433 1433 1283 1283 1278 1278 1283 1283 1283 1283 1283 1283 1283 1288 1288 1288 1292 1297 1297 1302 1439 1439 1439 1439 1439 1439 1439 1439 1439 1439 1439 1439 1439 1445 1445 1445 1445 1445 1445 1445 1445 1445 1445 1439 1439 1445 1445 1439 1439 1445 1445 1445 1439 1439 1439 1433 1433 1433 1433 1433 1433 1439 1439 1433 1433 1439 1439 1439 1439 1439 1439 1439 1439 1439 1206 1206 1210 1210 1210 1210 1210 1210 1210 1210 1210 1214 1214 1214 1214 1214 1214 1219 1219 1421 1421 1427 1433 1433 1439 1439 1445 1445 1445 1445 1445 1445 1445 1445 1445 1445 1445 1445 1445 1445 1445 1452 1445 1445 1445 1445 1445 1445 1445 1445 1445 1445 1445 1445 1445 1445 1445 1445 1445 1445 1445 1193 1193 1189 1189 1189 1189 1189 1189 1189 1189 1193 1439 1439 1439 1439 1439 1439 1439 1433 1433 1433 1433 1439 1197 1197 1439 1197 1197 1197 1445 1445 1445 1445 1439 1439 1439 1439 1439 1439 1439 1439 1439 1445 1445 1445 1214 1214 1214 1210 1210 1210 1214 1458 1458 1458 1452 1445 1445 1445 1210 1210 1210 1210 1445 1210 1210 1452 1452 1219 1214 1214 1210 1210 1210 1206 1206 1206 1206 1206 1206 1206 1202 1202 1202 1202 1206 1206 1210 1210 1439 1439 1452 1452 1452 1452 1458 1458 1458 1458 1458 1458 1458 1458 1464 1458 1458 1464 1458 1458 1458 1458 1458 1458 1464 1464 1464 1464 1464 1464 1464 1464 1464 1464 1464 1464 1464 1458 1458 1464 1464 1458 1458 1458 1458 1452 1445 1439 1439 1433 1433 1433 1433 1433 1433 1433 1433 1433 1439 1439 1439 1445 1445 1445 1445 1452 1452 1433 1433 1439 1439 1452 1452 1452 1452 1458 1458 1464 1458 1458 1452 1452 1452 1452 0 0 0 0 0 0 0 0 3433 3433 3433 3399 3399 3399 3399 3399 3399 3399 3399 3399 3399 3399 3399 3399 3399 3399 3399 3399 3399 3399 3399 3399 3399 3399 3399 3399 3399 3399 3399 3399 3399 3399 3399 3433 3433 3433 3433 3433 3399 3399 3399 3399 3399 3399 3399 3399 3399 3399 3399 3399 3365 3365 3365 3333 3333 3333 3365 3365 3365 3365 3365 3365 3178 3149 3120 3092 3092 3092 3092 3092 3092 3092 3120 3269 3333 3365 3365 3365 3333 3178 3149 3120 3120 3120 3120 3120 3120 3092 3092 3092 3064 3064 3092 2723 2680 2659 2659 2659 2680 2680 2659 2659 2659 2659 2659 2659 2659 2659 3300 3238 3208 3178 3149 3149 3149 3149 3149 3149 3178 3178 0 0 0 0 0 0 0 0 0 0 0
0 0 0 0 0 0 0 0 0 0 0 0 0 0 0 0 0 0 0 0 0 0 0 0 0 0 0 0 0 0 0 3120 3092 3092 3092 3092 3092 3120 3120 3120 3120 3120 3120 3149 3149 3149 3149 3120 3120 3120 3149 3149 3178 3178 3178 3208 3208 0 0 0 0 0 0 0 1410 1410 1410 1410 1410 1410 1410 1278 1278 1283 1283 1283 1283 1283 1283 1283 1283 1283 1283 1283 1288 1292 1292 1297 1297 1297 1297 1415 1415 1415 1415 1415 1415 1415 1415 1415 1415 1415 1415 1415 1415 1415 1415 1415 1415 1415 1415 1415 1421 1421 1421 1421 1421 1421 1421 1421 1421 1421 1421 1421 1427 1427 1427 1427 1427 1427 1427 1427 1427 1427 1427 1427 1427 1427 1433 1433 1433 1433 1433 1433 1433 1433 1433 1433 1433 1433 1433 1433 1433 1433 1433 1433 1421 1421 1421 1421 1421 1421 1421 1427 1427 1427 1427 1427 1427 1427 1427 1427 1427 1427 1427 1427 1427 1427 1427 1427 1427 1427 1427 1433 1433 1433 1433 1433 1439 1433 1427 1427 1427 1283 1283 1283 1283 1283 1288 1288 1288 1288 1288 1288 1288 1292 1292 1292 1297 1297 1302 1433 1433 1433 1433 1433 1433 1433 1433 1433 1439 1439 1439 1439 1439 1439 1439 1439 1439 1439 1439 1439 1439 1439 1439 1439 1439 1439 1433 1433 1433 1433 1433 1433 1427 1427 1427 1427 1427 1427 1427 1427 1427 1427 1427 1427 1433 1433 1433 1433 1433 1439 1433 1433 1433 1206 1206 1210 1210 1210 1214 1214 1214 1210 1210 1214 1214 1214 1214 1214 1214 1219 1219 1219 1415 1421 1421 1427 1427 1433 1433 1439 1439 1439 1439 1439 1439 1439 1439 1439 1439 1439 1439 1439 1439 1445 1445 1439 1439 1439 1439 1439 1439 1439 1439 1439 1439 1439 1439 1445 1445 1445 1445 1445 1445 1439 1439 1439 1189 1189 1189 1189 1189 1189 1189 1189 1439 1439 1439 1439 1439 1439 1439 1439 1433 1433 1433 1433 1433 1433 1439 1439 1439 1445 1445 1445 1439 1439 1439 1439 1439 1439 1439 1439 1439 1439 1439 1439 1439 1439 1445 1445 1445 1445 1452 1452 1458 1452 1452 1452 1452 1452 1445 1445 1445 1445 1445 1445 1445 1445 1445 1452 1452 1452 1452 1452 1219 1214 1214 1210 1210 1210 1210 1210 1210 1210 1210 1210 1210 1206 1206 1210 1210 1210 1427 1427 1433 1445 1439 1439 1445 1452 1452 1452 1452 1452 1452 1452 1452 1452 1452 1452 1452 1445 1445 1445 1445 1445 1439 1439 1445 1452 1452 1452 1452 1452 1452 1452 1452 1452 1452 1452 1452 1452 1452 1452 1452 1452 1452 1445 1439 1433 1433 1427 1427 1427 1427 1427 1433 1433 1433 1433 1433 1433 1433 1433 1439 1439 1433 1433 1439 1439 1433 1433 1433 1433 1439 1439 1445 1445 1452 1452 1452 1458 1452 1452 1452 1445 1445 1439 1439 1439 0 0 0 0 0 0 3399 3399 3399 3399 3399 3399 3399 3399 3399 3399 3399 3399 3399 3399 3399 3399 3365 3365 3365 3399 3365 3365 3365 3365 3365 3399 3399 3399 3399 3399 3399 3399 3365 3365 3399 3399 3399 3399 3399 3399 3399 3399 3399 3399 3399 3399 3399 3399 3399 3399 3399 3365 3365 3333 3333 3333 3333 3333 3333 3365 3333 3333 3178 3178 3149 3120 3092 3092 3092 3092 3092 3092 3092 3149 3269 3333 3333 3365 3365 3300 3178 3149 3120 3120 3120 3120 3120 3092 3092 3092 3064 3064 3064 3064 3064 2659 2659 2659 2659 2659 2659 2659 2659 2659 2659 2659 2659 2659 2659 3300 3208 3178 3149 3149 3149 3149 3149 3149 3149 3178 3178 0 0 0 0 0 0 0 0 0 0 0
0 0 0 0 0 0 0 0 0 0 0 0 0 0 0 0 0 0 0 0 0 0 0 0 0 0 0 0 0 0 0 3120 3092 3092 3092 3092 3092 3092 3120 3120 3120 3120 3120 3120 3120 3120 3120 3120 3120 3120 3120 3120 3120 3120 3120 3178 3208 0 0 0 0 0 1410 1410 1410 1410 1410 1410 1410 1410 1404 1283 1283 1283 1283 1283 1283 1283 1283 1283 1283 1283 1283 1283 1288 1292 1297 1297 1297 1297 1297 1410 1410 1410 1410 1410 1410 1410 1410 1410 1410 1410 1410 1410 1415 1410 1410 1410 1410 1415 1410 1410 1415 1415 1415 1415 1415 1415 1415 1415 1415 1415 1415 1415 1415 1415 1415 1415 1421 1421 1421 1427 1427 1427 1427 1427 1427 1427 1427 1427 1427 1427 1427 1427 1427 1427 1427 1427 1427 1427 1427 1427 1427 1427 1427 1427 1421 1421 1415 1415 1415 1415 1415 1415 1421 1421 1421 1421 1421 1421 1421 1421 1421 1421 1421 1421 1421 1421 1427 1421 1421 1427 1427 1427 1427 1427 1433 1433 1433 1427 1421 1421 1421 1283 1283 1283 1283 1288 1288 1288 1288 1288 1288 1288 1292 1292 1292 1292 1292 1297 1297 1421 1421 1427 1427 1427 1427 1427 1427 1427 1427 1427 1427 1427 1427 1427 1427 1433 1427 1427 1427 1433 1433 1433 1427 1427 1427 1427 1427 1427 1427 1427 1433 1427 1421 1421 1421 1427 1427 1421 1421 1421 1421 1421 1421 1421 1427 1427 1427 1427 1427 1433 1427 1427 1427 1206 1206 1210 1214 1214 1214 1214 1214 1214 1214 1214 1214 1214 1214 1214 1214 1219 1219 1415 1415 1421 1421 1421 1427 1427 1427 1433 1433 1433 1433 1433 1433 1433 1427 1427 1427 1427 1427 1427 1427 1433 1433 1433 1433 1433 1433 1433 1433 1433 1433 1433 1433 1433 1439 1439 1439 1439 1439 1439 1439 1439 1439 1439 1439 1439 1439 1439 1433 1433 1439 1439 1433 1433 1439 1439 1439 1433 1433 1433 1433 1433 1433 1433 1433 1433 1433 1433 1439 1439 1445 1439 1439 1439 1439 1439 1439 1439 1439 1439 1439 1433 1433 1439 1439 1439 1439 1439 1439 1445 1445 1445 1452 1452 1452 1452 1452 1452 1445 1439 1439 1439 1439 1439 1439 1445 1445 1452 1452 1452 1452 1452 1219 1219 1214 1210 1210 1210 1210 1210 1210 1210 1210 1210 1210 1206 1206 1210 1210 1210 1427 1427 1433 1439 1439 1439 1439 1445 1445 1445 1445 1445 1445 1445 1445 1445 1445 1445 1439 1433 1433 1439 1433 1433 1433 1433 1433 1439 1439 1439 1439 1439 1439 1445 1445 1445 1445 1445 1445 1452 1445 1445 1445 1445 1445 1439 1439 1433 1433 1427 1427 1427 1427 1427 1427 1427 1427 1427 1427 1427 1427 1421 1421 1421 1421 1421 1421 1421 1421 1421 1427 1427 1427 1427 1427 1433 1433 1439 1445 1452 1452 1445 1445 1439 1439 1433 1433 1433 1433 0 0 0 0 0 3399 3399 3399 3399 3399 3399 3365 3365 3399 3399 3399 3399 3365 3365 3399 3365 3365 3333 3333 3365 3365 3365 3333 3333 3365 3399 3365 3365 3365 3365 3365 3365 3365 3365 3365 3365 3365 3365 3365 3365 3365 3399 3399 3399 3399 3399 3399 3399 3399 3365 3365 3333 3333 3333 3300 3300 3333 3333 3333 3333 3300 3300 3178 3178 3149 3120 3120 3092 3092 3092 3092 3120 3120 3208 3300 3300 3333 3333 3333 3300 3238 3178 3120 3120 3120 3092 3092 3092 3064 3064 3064 3037 3037 3037 3064 2659 2659 2659 2659 2659 2659 2659 2659 2659 2659 2659 2659 2659 2659 3269 3178 3178 3149 3149 3149 3149 3149 3149 3149 3178 3208 0 0 0 0 0 0 0 0 0 0 0
0 0 0 0 0 0 0 0 0 0 0 0 0 0 0 0 0 0 0 0 0 0 0 0 0 0 0 0 0 0 0 0 3064 3064 3092 3092 3092 3092 3092 3092 3120 3120 3120 3120 3120 3120 3120 3120 3120 3120 3120 3120 3120 3120 3092 3092 0 0 0 0 1404 1404 1410 1410 1410 1410 1410 1410 1410 1410 1404 1398 1283 1283 1283 1283 1283 1283 1283 1283 1283 1283 1283 1283 1288 1288 1292 1297 1297 1297 1297 1410 1410 1404 1404 1404 1410 1410 1410 1410 1410 1410 1410 1410 1410 1410 1410 1410 1410 1410 1410 1410 1410 1410 1410 1410 1410 1410 1410 1410 1410 1410 1410 1410 1410 1415 1415 1415 1415 1415 1415 1415 1415 1415 1421 1421 1421 1421 1421 1421 1421 1421 1421 1421 1421 1421 1421 1421 1427 1427 1427 1427 1427 1427 1427 1421 1421 1415 1410 1410 1410 1410 1410 1410 1410 1410 1410 1415 1415 1415 1415 1415 1415 1421 1421 1421 1421 1421 1421 1415 1415 1415 1415 1421 1421 1421 1421 1421 1421 1421 1421 1415 1415 1278 1278 1283 1283 1288 1288 1288 1288 1288 1292 1292 1292 1292 1292 1292 1292 1297 1297 1421 1421 1421 1421 1421 1421 1421 1421 1421 1421 1421 1421 1421 1421 1415 1415 1421 1421 1421 1421 1421 1427 1427 1421 1421 1421 1427 1427 1427 1427 1427 1427 1427 1415 1415 1421 1421 1421 1421 1415 1415 1415 1421 1415 1415 1415 1415 1421 1415 1415 1421 1415 1415 1415 1206 1206 1210 1214 1214 1214 1214 1214 1214 1214 1214 1214 1214 1214 1214 1219 1219 1219 1415 1415 1415 1421 1421 1421 1421 1427 1427 1427 1421 1421 1427 1427 1421 1421 1421 1421 1421 1421 1421 1421 1427 1427 1427 1427 1427 1427 1427 1427 1427 1427 1427 1427 1427 1433 1433 1433 1433 1433 1433 1439 1433 1433 1433 1433 1433 1439 1439 1433 1433 1433 1433 1433 1433 1433 1433 1433 1433 1433 1433 1433 1433 1433 1433 1433 1433 1433 1433 1433 1433 1433 1433 1433 1433 1433 1433 1433 1433 1433 1427 1427 1427 1427 1433 1439 1439 1439 1439 1439 1439 1439 1439 1439 1439 1439 1439 1439 1439 1439 1433 1433 1439 1439 1439 1439 1439 1439 1439 1439 1439 1439 1439 1219 1219 1214 1210 1210 1210 1210 1210 1210 1210 1210 1210 1210 1210 1210 1210 1210 1210 1427 1427 1427 1433 1433 1433 1433 1433 1433 1439 1433 1433 1439 1439 1439 1439 1433 1433 1433 1433 1433 1433 1433 1433 1433 1433 1433 1433 1433 1433 1433 1433 1433 1433 1439 1439 1439 1439 1439 1439 1439 1439 1439 1439 1439 1439 1433 1433 1427 1421 1421 1421 1421 1421 1421 1421 1421 1421 1421 1421 1421 1415 1415 1415 1415 1415 1415 1415 1415 1415 1415 1421 1421 1421 1421 1427 1427 1433 1433 1433 1433 1433 1433 1427 1427 1427 1427 1427 1421 1421 0 0 0 0 0 0 0 3399 3365 3333 3333 3333 3333 3333 3365 3365 3365 3365 3365 3365 3333 3333 3333 3333 3333 3333 3333 3333 3365 3365 3365 3365 3365 3365 3365 3365 3333 3333 3365 3365 3365 3333 3333 3333 3365 3365 3365 3365 3365 3399 3399 3399 3365 3365 3365 3333 3333 3333 3300 3300 3333 3333 3333 3333 3300 3300 3208 3178 3149 3120 3120 3092 3092 3092 3092 3120 3149 3238 3300 3300 3333 3333 3333 3269 3238 3178 3120 3120 3120 3092 3092 3092 3064 3064 3037 3037 3037 3037 3037 2680 2680 2680 2680 2680 2659 2659 2659 2659 2659 2659 2659 2659 2659 3238 3178 3178 3149 3149 3149 3149 3149 3178 3178 3178 3208 0 0 0 0 0 0 0 0 0 0 0
0 0 0 0 0 0 0 0 0 0 0 0 0 0 0 0 0 0 0 0 0 0 0 0 0 0 0 0 0 0 0 0 3064 3064 3064 3092 3092 3092 3092 3092 3092 3120 3120 3120 3120 3120 3120 3120 3092 3092 3120 3120 3120 3092 3064 3064 0 0 0 0 1404 1404 1410 1410 1410 1404 1404 1404 1404 1404 1404 1398 1398 1288 1283 1283 1283 1283 1283 1283 1283 1283 1283 1283 1288 1288 1292 1297 1297 1297 1297 1404 1404 1404 1404 1404 1404 1410 1410 1404 1404 1404 1404 1404 1404 1404 1404 1404 1404 1404 1404 1404 1410 1410 1410 1410 1410 1410 1410 1410 1410 1410 1410 1410 1410 1410 1410 1410 1410 1410 1410 1415 1415 1415 1415 1415 1415 1421 1415 1415 1415 1415 1415 1415 1415 1415 1415 1421 1421 1421 1421 1421 1421 1421 1421 1415 1415 1410 1410 1410 1410 1410 1410 1410 1410 1410 1410 1410 1410 1410 1410 1410 1410 1415 1415 1415 1415 1415 1415 1415 1415 1415 1415 1415 1415 1415 1415 1421 1421 1415 1415 1415 1415 1278 1278 1283 1288 1288 1292 1292 1292 1292 1292 1292 1292 1292 1292 1292 1292 1297 1415 1415 1415 1415 1415 1415 1415 1415 1415 1415 1415 1415 1415 1415 1415 1410 1410 1410 1415 1415 1415 1415 1421 1421 1421 1421 1421 1427 1421 1421 1421 1421 1421 1421 1415 1415 1415 1415 1415 1415 1415 1415 1415 1415 1415 1415 1415 1415 1415 1415 1415 1415 1410 1410 1410 1206 1206 1210 1214 1214 1214 1214 1214 1214 1214 1214 1214 1214 1214 1219 1219 1219 1219 1415 1415 1415 1415 1421 1421 1421 1421 1421 1421 1421 1421 1421 1421 1421 1421 1421 1421 1421 1421 1421 1421 1421 1421 1421 1421 1421 1421 1421 1421 1421 1421 1421 1421 1421 1421 1421 1427 1427 1427 1427 1427 1427 1433 1427 1427 1427 1433 1433 1427 1427 1427 1427 1427 1427 1427 1427 1427 1427 1427 1427 1427 1427 1427 1427 1427 1427 1427 1427 1427 1427 1427 1427 1427 1427 1433 1427 1427 1427 1427 1427 1427 1421 1421 1427 1433 1433 1433 1433 1433 1433 1433 1433 1433 1427 1427 1427 1421 1421 1427 1427 1427 1433 1433 1433 1433 1433 1433 1433 1433 1433 1427 1427 1219 1219 1214 1210 1210 1210 1210 1210 1210 1210 1210 1210 1210 1210 1210 1210 1210 1210 1421 1421 1421 1427 1427 1427 1427 1427 1427 1433 1427 1427 1427 1427 1433 1427 1427 1427 1427 1427 1427 1427 1427 1427 1427 1427 1427 1427 1427 1427 1427 1427 1427 1427 1427 1433 1433 1433 1433 1433 1433 1433 1433 1433 1433 1433 1427 1427 1421 1421 1421 1415 1415 1415 1415 1415 1415 1415 1415 1415 1415 1410 1410 1410 1410 1410 1410 1410 1410 1415 1415 1415 1415 1415 1415 1421 1421 1421 1421 1427 1427 1427 1421 1421 1421 1421 1421 1421 1415 1415 1415 0 0 0 0 0 0 0 3365 3300 3300 3300 3300 3300 3300 3300 3300 3300 3300 3300 3300 3300 3300 3300 3300 3300 3300 3300 3300 3333 3333 3333 3333 3333 3333 3365 3333 3333 3333 3333 3333 3333 3333 3333 3333 3365 3365 3365 3365 3365 3365 3365 3365 3365 3365 3333 3333 3333 3333 3333 3333 3333 3333 3300 3300 3269 3208 3178 3149 3149 3120 3120 3120 3120 3120 3149 3178 3238 3300 3300 3300 3300 3300 3269 3238 3208 3149 3120 3120 3092 3092 3092 3064 3064 3037 3037 3037 3037 3037 2680 2680 2680 2680 2680 2659 2659 2659 2659 2659 2659 2659 2659 3300 3178 3149 3149 3149 3149 3149 3149 3149 3178 3178 3178 3178 0 0 0 0 0 0 0 0 0 0 0
0 0 0 0 0 0 0 0 0 0 0 0 0 0 0 0 0 0 0 0 0 0 0 0 0 0 0 0 0 0 0 0 3037 3037 3064 3064 3092 3092 3092 3092 3092 3092 3092 3092 3092 3092 3092 3092 3092 3092 3120 3120 3120 3092 3064 3064 0 0 0 1404 1404 1404 1404 1404 1410 1404 1404 1404 1404 1404 1404 1398 1398 1398 1288 1288 1288 1283 1283 1283 1283 1283 1288 1288 1288 1288 1292 1297 1297 1302 1302 1404 1404 1404 1404 1404 1404 1410 1410 1404 1404 1404 1404 1404 1404 1404 1404 1404 1404 1404 1404 1404 1410 1410 1410 1410 1410 1410 1410 1410 1410 1410 1410 1410 1410 1410 1410 1410 1410 1410 1410 1415 1415 1415 1415 1415 1415 1415 1415 1415 1415 1415 1415 1415 1415 1415 1415 1415 1415 1415 1415 1415 1415 1415 1415 1415 1415 1410 1410 1410 1410 1404 1404 1404 1404 1404 1404 1410 1410 1410 1410 1410 1410 1415 1415 1415 1415 1415 1415 1415 1410 1410 1410 1410 1410 1410 1410 1410 1415 1410 1410 1410 1410 1283 1283 1283 1288 1292 1292 1292 1292 1292 1292 1292 1292 1292 1292 1292 1297 1297 1404 1404 1410 1410 1410 1415 1410 1410 1410 1410 1410 1410 1410 1410 1410 1410 1410 1410 1410 1410 1410 1410 1415 1421 1415 1415 1421 1421 1421 1421 1415 1415 1421 1421 1410 1410 1415 1415 1415 1415 1410 1410 1415 1415 1415 1410 1410 1410 1410 1410 1410 1410 1410 1410 1415 1210 1210 1214 1214 1214 1214 1214 1214 1214 1214 1214 1219 1219 1219 1219 1219 1219 1219 1410 1410 1410 1415 1415 1415 1415 1415 1415 1415 1415 1415 1415 1415 1415 1415 1415 1415 1415 1415 1415 1415 1415 1415 1415 1415 1415 1415 1421 1421 1421 1421 1421 1421 1421 1421 1421 1421 1421 1415 1415 1421 1421 1421 1421 1421 1421 1421 1427 1421 1421 1421 1421 1421 1421 1421 1421 1421 1421 1421 1421 1421 1421 1421 1421 1421 1421 1421 1421 1415 1415 1415 1415 1421 1421 1421 1421 1421 1421 1421 1421 1421 1421 1421 1421 1421 1421 1427 1427 1427 1427 1421 1421 1421 1421 1421 1415 1415 1415 1421 1421 1421 1427 1427 1427 1427 1427 1427 1427 1421 1421 1421 1421 1219 1219 1214 1210 1210 1210 1210 1210 1210 1210 1210 1210 1210 1210 1210 1214 1214 1214 1421 1415 1415 1415 1421 1421 1421 1421 1421 1427 1427 1427 1427 1427 1427 1427 1427 1427 1421 1421 1421 1421 1427 1427 1427 1427 1427 1427 1421 1421 1427 1421 1421 1421 1421 1421 1415 1415 1421 1421 1421 1421 1427 1427 1427 1427 1427 1421 1421 1421 1415 1410 1410 1410 1410 1410 1410 1410 1410 1410 1410 1410 1410 1410 1410 1410 1410 1410 1410 1410 1410 1410 1415 1415 1415 1415 1415 1415 1415 1415 1415 1421 1421 1415 1415 1415 1421 1415 1415 1415 1415 1415 0 0 0 0 0 0 3300 3300 3300 3300 3300 3300 3300 3300 3300 3300 3300 3300 3300 3300 3300 3300 3300 3300 3300 3300 3300 3333 3300 3300 3333 3300 3300 3333 3300 3300 3300 3300 3300 3300 3300 3300 3300 3300 3300 3300 3333 3333 3333 3300 3300 3300 3333 3333 3333 3333 3333 3333 3365 3333 3333 3300 3269 3238 3178 3149 3149 3120 3120 3120 3120 3120 3149 3178 3208 3269 3300 3300 3300 3300 3300 3269 3238 3208 3149 3149 3120 3120 3092 3092 3064 3064 3037 3037 3037 3037 3037 2680 2659 2659 2659 2659 2659 2659 2659 2680 2659 2659 2659 3300 3269 3178 3149 3149 3149 3149 3149 3149 3149 3149 3149 3178 3178 0 0 0 0 0 0 0 0 0 0 0
0 0 0 0 0 0 0 0 0 0 0 0 0 0 0 0 0 0 0 0 0 0 0 0 0 0 0 0 0 0 0 0 3037 3037 3064 3064 3092 3092 3092 3092 3092 3092 3092 3092 3092 3092 3092 3092 3092 3092 3120 3120 3092 3092 3064 3064 3064 0 1410 1404 1404 1404 1404 1404 1410 1404 1404 1404 1404 1404 1404 1398 1398 1404 1288 1288 1288 1288 1288 1283 1283 1283 1288 1288 1288 1288 1297 1297 1297 1307 1307 1404 1404 1404 1404 1404 1404 1410 1410 1410 1410 1410 1410 1410 1404 1404 1404 1404 1404 1404 1404 1404 1410 1410 1410 1410 1410 1410 1410 1410 1410 1410 1410 1410 1410 1410 1410 1410 1410 1410 1410 1410 1415 1415 1415 1415 1415 1415 1415 1415 1415 1415 1415 1415 1415 1415 1415 1415 1415 1410 1410 1410 1410 1410 1410 1410 1410 1410 1410 1312 1312 1312 1404 1404 1404 1404 1404 1404 1404 1404 1410 1410 1410 1415 1415 1415 1415 1415 1410 1410 1404 1404 1404 1404 1404 1404 1404 1404 1410 1410 1404 1404 1404 1410 1288 1288 1292 1292 1292 1292 1292 1292 1292 1292 1292 1292 1297 1297 1297 1297 1307 1404 1410 1410 1410 1410 1410 1404 1404 1404 1404 1404 1404 1404 1410 1410 1410 1410 1410 1410 1410 1410 1415 1415 1415 1415 1415 1415 1415 1415 1415 1415 1415 1415 1410 1410 1410 1410 1410 1410 1410 1410 1410 1410 1410 1410 1404 1404 1404 1404 1404 1404 1404 1410 1410 1410 1214 1214 1214 1214 1214 1214 1219 1214 1214 1219 1219 1219 1219 1219 1219 1219 1219 1410 1410 1410 1410 1410 1410 1410 1410 1415 1415 1415 1415 1415 1415 1415 1415 1415 1410 1410 1415 1415 1415 1415 1415 1415 1415 1415 1415 1415 1421 1415 1415 1415 1415 1415 1415 1415 1415 1415 1415 1415 1415 1415 1415 1421 1415 1415 1421 1421 1410 1410 1415 1410 1410 1415 1415 1415 1415 1415 1415 1415 1421 1421 1415 1415 1415 1415 1415 1415 1415 1415 1415 1415 1415 1415 1415 1415 1415 1415 1415 1415 1415 1415 1415 1415 1421 1421 1421 1421 1421 1421 1421 1415 1415 1415 1415 1415 1415 1415 1415 1415 1421 1421 1421 1421 1421 1421 1421 1415 1415 1415 1415 1415 1219 1219 1214 1210 1210 1210 1210 1210 1210 1210 1210 1210 1210 1210 1214 1214 1214 1214 1415 1415 1415 1415 1415 1415 1415 1415 1415 1421 1421 1421 1421 1421 1421 1421 1415 1415 1415 1415 1415 1415 1421 1421 1421 1421 1421 1415 1415 1415 1421 1421 1421 1421 1415 1415 1410 1410 1415 1410 1410 1415 1415 1415 1415 1415 1415 1415 1415 1410 1410 1404 1404 1404 1404 1404 1404 1404 1404 1410 1410 1410 1410 1410 1404 1404 1404 1404 1404 1404 1410 1410 1410 1410 1410 1410 1415 1415 1410 1410 1415 1415 1415 1415 1415 1415 1415 1415 1415 1415 1415 1415 0 0 0 0 0 0 3300 3269 3269 3269 3269 3269 3269 3269 3300 3300 3300 3300 3300 3300 3300 3269 3269 3300 3300 3300 3300 3300 3300 3300 3300 3300 3300 3300 3300 3300 3300 3300 3300 3300 3300 3300 3300 3300 3300 3300 3300 3300 3300 3300 3300 3300 3300 3300 3300 3333 3333 3333 3333 3300 3269 3238 3208 3178 3149 3149 3149 3120 3120 3120 3120 3120 3149 3178 3208 3269 3300 3300 3300 3300 3300 3238 3238 3208 3149 3149 3120 3120 3092 3092 3064 3064 3037 3037 3037 3037 3037 3037 2659 2659 2659 2659 2659 2659 2659 2680 2659 2659 2659 3238 3208 3178 3149 3149 3149 3149 3149 3149 3149 3149 3149 3178 3178 0 0 0 0 0 0 0 0 0 0 0
0 0 0 0 0 0 0 0 0 0 0 0 0 0 0 0 0 0 0 0 0 0 0 0 0 0 0 0 0 0 0 0 3037 3037 3064 3064 3092 3092 3092 3092 3092 3092 3092 3092 3092 3092 3092 3092 3092 3092 3092 3120 3092 3092 3064 3064 3064 0 1410 1410 1404 1404 1404 1404 1410 1404 1404 1404 1404 1404 1404 1398 1398 1404 1292 1292 1288 1288 1288 1288 1288 1288 1288 1288 1288 1292 1297 1297 1297 1307 1307 1307 1404 1398 1398 1404 1404 1404 1410 1410 1410 1410 1410 1410 1404 1404 1410 1410 1404 1404 1410 1410 1410 1410 1410 1410 1410 1410 1410 1410 1410 1410 1410 1410 1410 1410 1410 1410 1410 1410 1410 1410 1302 1302 1302 1302 1302 1302 1312 1415 1415 1415 1421 1415 1415 1415 1415 1415 1415 1410 1410 1410 1410 1410 1410 1410 1410 1410 1307 1307 1307 1307 1307 1404 1398 1398 1404 1404 1404 1404 1410 1410 1410 1415 1415 1415 1410 1410 1410 1404 1404 1404 1404 1404 1404 1404 1404 1404 1404 1404 1404 1404 1297 1297 1292 1292 1292 1292 1297 1297 1297 1297 1297 1297 1297 1297 1297 1297 1302 1302 1302 1404 1404 1410 1410 1410 1410 1404 1404 1404 1404 1404 1404 1404 1404 1404 1410 1410 1410 1410 1410 1410 1415 1410 1410 1410 1415 1415 1415 1415 1415 1415 1415 1415 1410 1410 1410 1410 1410 1410 1404 1404 1410 1410 1404 1404 1404 1404 1398 1398 1398 1398 1404 1404 1410 1410 1214 1214 1214 1214 1219 1219 1219 1219 1219 1219 1219 1219 1219 1219 1219 1223 1223 1404 1404 1404 1404 1404 1404 1410 1410 1410 1410 1410 1410 1410 1410 1410 1410 1410 1410 1410 1415 1415 1415 1415 1415 1415 1415 1415 1415 1415 1415 1415 1415 1415 1415 1410 1410 1410 1410 1415 1410 1410 1410 1415 1415 1415 1410 1410 1415 1415 1404 1404 1410 1404 1404 1410 1410 1410 1415 1415 1415 1415 1415 1415 1415 1410 1410 1410 1410 1410 1410 1410 1410 1410 1415 1415 1415 1415 1415 1415 1415 1415 1415 1415 1415 1415 1415 1415 1415 1415 1415 1415 1415 1410 1410 1410 1410 1410 1410 1410 1415 1415 1415 1415 1415 1415 1415 1415 1415 1415 1415 1415 1415 1415 1219 1214 1214 1210 1210 1210 1210 1210 1210 1210 1210 1210 1210 1210 1214 1214 1214 1427 1415 1415 1415 1415 1410 1410 1410 1410 1415 1415 1415 1415 1415 1415 1410 1410 1410 1410 1410 1410 1410 1410 1415 1415 1415 1415 1415 1415 1415 1415 1415 1415 1415 1415 1410 1410 1410 1410 1410 1410 1410 1410 1410 1410 1410 1410 1410 1410 1410 1410 1404 1404 1404 1404 1404 1404 1404 1404 1404 1404 1404 1404 1404 1404 1404 1404 1404 1404 1404 1404 1404 1410 1410 1410 1410 1410 1410 1410 1410 1410 1410 1410 1410 1410 1410 1410 1410 1410 1410 1410 1410 1410 0 0 0 0 0 0 0 3269 3269 3269 3269 3269 3269 3269 3269 3300 3300 3300 3300 3300 3300 3269 3269 3300 3269 3269 3269 3300 3300 3300 3300 3300 3300 3300 3300 3300 3300 3300 3300 3300 3300 3300 3300 3300 3300 3300 3300 3300 3300 3269 3269 3269 3300 3300 3300 3300 3300 3300 3300 3300 3269 3238 3208 3178 3149 3149 3149 3120 3120 3120 3120 3120 3149 3178 3208 3238 3269 3269 3269 3269 3269 3238 3238 3208 3178 3149 3120 3120 3092 3092 3064 3064 3037 3037 3037 3037 3037 3037 2680 2680 2680 2680 2680 2659 2659 2659 2659 2659 2659 3178 3178 3149 3149 3149 3149 3149 3149 3149 3149 3149 3149 3178 3178 0 0 0 0 0 0 0 0 0 0 0
0 0 0 0 0 0 0 0 0 0 0 0 0 0 0 0 0 0 0 0 0 0 0 0 0 0 0 0 0 0 0 0 3037 3037 3037 3064 3064 3064 3092 3064 3064 3064 3064 3064 3092 3092 3092 3092 3092 3092 3092 3092 3064 3064 3064 3064 3010 0 1404 1404 1404 1404 1404 1404 1410 1404 1404 1404 1404 1404 1404 1398 1398 1404 1292 1292 1292 1288 1288 1288 1288 1288 1292 1292 1292 1292 1297 1297 1302 1307 1307 1307 1410 1398 1398 1404 1404 1404 1410 1410 1410 1410 1410 1410 1410 1410 1410 1410 1410 1410 1410 1410 1415 1415 1415 1302 1302 1302 1302 1302 1302 1302 1297 1297 1292 1292 1292 1292 1292 1297 1297 1302 1302 1302 1302 1302 1302 1302 1302 1302 1302 1302 1302 1433 1302 1302 1302 1302 1302 1307 1307 1307 1410 1307 1307 1312 1307 1307 1307 1307 1307 1307 1302 1302 1302 1302 1404 1404 1404 1404 1410 1410 1410 1415 1415 1415 1410 1312 1312 1312 1312 1404 1404 1404 1404 1404 1404 1404 1404 1404 1404 1404 1297 1297 1292 1292 1297 1297 1297 1297 1297 1297 1297 1297 1297 1297 1297 1297 1302 1302 1302 1404 1404 1410 1410 1410 1410 1404 1404 1404 1404 1404 1404 1404 1404 1404 1404 1404 1410 1410 1410 1410 1410 1410 1410 1410 1410 1415 1410 1410 1410 1410 1415 1415 1404 1404 1404 1404 1404 1404 1404 1404 1404 1404 1404 1404 1398 1398 1398 1398 1398 1398 1398 1404 1404 1404 1214 1214 1219 1219 1219 1219 1219 1219 1219 1219 1219 1219 1219 1219 1223 1223 1227 1232 1398 1404 1404 1404 1404 1404 1404 1410 1410 1410 1410 1410 1410 1410 1410 1410 1410 1410 1410 1410 1410 1410 1415 1415 1415 1415 1415 1415 1415 1410 1410 1410 1410 1410 1410 1410 1410 1410 1410 1410 1410 1410 1410 1410 1410 1410 1410 1415 1404 1404 1404 1404 1404 1404 1410 1410 1410 1410 1410 1410 1410 1410 1410 1410 1410 1410 1410 1410 1410 1410 1410 1410 1410 1410 1415 1415 1415 1415 1415 1415 1415 1415 1415 1415 1415 1415 1415 1415 1410 1410 1410 1410 1410 1410 1410 1410 1410 1410 1410 1410 1415 1415 1415 1415 1415 1415 1410 1410 1410 1410 1410 1410 1410 1214 1214 1210 1210 1210 1210 1210 1210 1210 1210 1210 1214 1214 1214 1214 1214 1421 1415 1415 1415 1415 1410 1410 1410 1410 1410 1415 1410 1410 1410 1410 1410 1404 1404 1410 1410 1410 1410 1410 1410 1410 1410 1410 1410 1410 1410 1410 1410 1410 1410 1410 1410 1410 1404 1404 1410 1404 1404 1404 1410 1410 1410 1410 1410 1410 1404 1404 1404 1404 1404 1404 1404 1404 1404 1404 1404 1404 1404 1404 1404 1404 1404 1404 1404 1404 1404 1404 1404 1404 1404 1404 1404 1404 1404 1404 1404 1404 1404 1404 1404 1404 1404 1410 1410 1410 1410 1410 1410 1410 1410 0 0 0 0 0 0 0 3269 3269 3269 3269 3269 3269 3269 3269 3269 3269 3269 3269 3269 3269 3269 3269 3269 3269 3269 3269 3269 3269 3300 3269 3269 3269 3300 3300 3300 3300 3300 3269 3269 3269 3269 3269 3269 3269 3269 3269 3269 3269 3269 3269 3269 3269 3269 3300 3300 3300 3300 3269 3269 3208 3208 3178 3149 3149 3120 3120 3120 3120 3120 3149 3178 3178 3208 3238 3269 3269 3269 3269 3269 3238 3238 3208 3178 3149 3149 3120 3092 3092 3064 3064 3037 3037 3037 3037 3037 3037 2659 2659 2659 2659 2680 2659 2659 2659 2659 2659 3120 3149 3149 3149 3149 3149 3149 3149 3149 3149 3149 3149 3149 3149 3149 0 0 0 0 0 0 0 0 0 0 0
0 0 0 0 0 0 0 0 0 0 0 0 0 0 0 0 0 0 0 0 0 0 0 0 0 0 0 0 0 0 0 0 3037 3037 3037 3064 3064 3064 3092 3064 3064 3064 3064 3064 3064 3064 3064 3064 3064 3064 3064 3064 3064 3037 3010 3010 3010 3010 1404 1404 1404 1404 1404 1404 1404 1404 1404 1404 1404 1404 1404 1404 1404 1404 1292 1292 1292 1292 1292 1292 1292 1292 1292 1292 1292 1297 1297 1297 1302 1307 1307 1307 1312 1312 1312 1307 1307 1404 1410 1307 1307 1302 1302 1307 1307 1307 1307 1307 1312 1307 1302 1302 1302 1302 1302 1302 1302 1302 1302 1302 1302 1302 1297 1297 1292 1292 1292 1292 1292 1297 1297 1302 1302 1302 1302 1302 1302 1302 1302 1302 1302 1302 1302 1302 1302 1302 1302 1302 1302 1307 1307 1302 1302 1302 1307 1307 1307 1307 1307 1307 1307 1307 1302 1302 1302 1302 1297 1297 1297 1297 1297 1302 1307 1307 1307 1312 1312 1312 1312 1312 1312 1307 1307 1307 1404 1404 1404 1404 1404 1404 1404 1317 1312 1307 1302 1302 1297 1297 1297 1297 1297 1297 1297 1297 1297 1297 1297 1297 1302 1302 1302 1312 1404 1410 1410 1410 1410 1404 1404 1404 1404 1404 1404 1404 1404 1404 1404 1404 1404 1404 1410 1410 1410 1410 1410 1410 1410 1410 1410 1410 1410 1410 1410 1410 1404 1404 1404 1404 1404 1404 1404 1404 1404 1404 1404 1398 1398 1398 1398 1398 1398 1398 1398 1404 1404 1404 1219 1219 1219 1219 1219 1219 1219 1219 1219 1219 1219 1219 1223 1223 1223 1223 1227 1227 1232 1398 1398 1398 1398 1404 1404 1404 1404 1404 1404 1410 1404 1404 1404 1404 1404 1404 1410 1410 1410 1410 1410 1410 1410 1410 1410 1410 1410 1410 1410 1404 1404 1404 1404 1410 1410 1410 1410 1410 1410 1410 1410 1410 1410 1410 1410 1410 1404 1404 1404 1404 1404 1404 1404 1404 1404 1410 1410 1410 1410 1410 1410 1410 1410 1410 1404 1404 1410 1410 1410 1410 1410 1410 1410 1410 1410 1410 1410 1410 1410 1410 1410 1410 1410 1410 1410 1410 1410 1410 1410 1410 1410 1410 1410 1410 1410 1410 1410 1410 1415 1415 1415 1415 1410 1410 1410 1410 1410 1410 1410 1410 1410 1214 1214 1214 1214 1214 1214 1210 1210 1210 1210 1214 1214 1214 1214 1214 1214 1415 1415 1410 1410 1410 1404 1404 1410 1410 1410 1410 1410 1410 1410 1404 1404 1404 1404 1404 1404 1404 1404 1410 1410 1410 1410 1410 1410 1410 1410 1410 1410 1410 1410 1410 1404 1404 1404 1404 1404 1404 1404 1404 1404 1404 1404 1404 1404 1404 1404 1404 1404 1404 1404 1404 1404 1404 1404 1404 1404 1404 1404 1404 1404 1404 1404 1404 1398 1398 1398 1404 1404 1404 1404 1404 1404 1404 1404 1404 1404 1404 1404 1404 1404 1404 1404 1404 1404 1404 1404 1404 1404 1404 1398 1398 0 0 0 0 0 0 0 3269 3269 3269 3269 3269 3269 3269 3269 3269 3269 3269 3269 3269 3269 3269 3269 3269 3269 3269 3269 3269 3269 3269 3269 3269 3269 3269 3269 3269 3269 3269 3269 3269 3269 3269 3269 3269 3269 3269 3238 3238 3238 3269 3269 3269 3269 3269 3269 3269 3269 3269 3238 3208 3178 3178 3149 3149 3120 3120 3120 3120 3120 3149 3178 3178 3208 3238 3269 3269 3269 3238 3238 3208 3208 3208 3208 3178 3178 3149 3092 3092 3064 3064 3037 3037 3037 3037 3037 3037 2659 2659 2659 2659 2680 2659 2659 2659 2659 2659 3120 3149 3149 3149 3149 3149 3149 3149 3149 3149 3149 3149 3149 3149 3149 0 0 0 0 0 0 0 0 0 0 0
0 0 0 0 0 0 0 0 0 0 0 0 0 0 0 0 0 0 0 0 0 0 0 0 0 0 0 0 0 0 0 0 3037 3037 3037 3064 3064 3064 3064 3064 3064 3064 3064 3064 3064 3064 3064 3064 3064 3064 3064 3064 3064 3037 3010 3010 3010 3010 3037 3037 1404 1404 1404 1404 1404 1404 1404 1404 1404 1410 1404 1404 1404 1404 1292 1292 1292 1292 1292 1292 1292 1292 1292 1292 1292 1297 1297 1297 1302 1312 1312 1312 1312 1312 1312 1307 1307 1302 1302 1302 1307 1302 1302 1307 1307 1307 1307 1307 1312 1307 1302 1302 1302 1302 1302 1302 1302 1302 1302 1302 1302 1302 1297 1297 1297 1297 1297 1297 1297 1302 1302 1302 1302 1302 1302 1302 1302 1302 1302 1302 1302 1302 1302 1302 1302 1302 1302 1302 1302 1307 1307 1302 1302 1302 1307 1307 1307 1307 1307 1307 1307 1307 1307 1302 1302 1302 1297 1297 1297 1297 1297 1302 1307 1307 1307 1312 1312 1312 1312 1312 1312 1307 1307 1307 1307 1307 1307 1307 1307 1312 1312 1312 1317 1312 1307 1302 1302 1302 1302 1302 1297 1297 1297 1297 1297 1297 1297 1302 1307 1307 1307 1312 1404 1410 1410 1410 1410 1410 1410 1410 1410 1410 1410 1404 1404 1404 1404 1404 1404 1404 1410 1410 1410 1410 1410 1410 1410 1410 1410 1410 1410 1410 1410 1410 1404 1404 1404 1404 1404 1404 1404 1404 1404 1404 1404 1398 1398 1398 1398 1398 1398 1398 1398 1404 1404 1404 1219 1219 1219 1219 1219 1223 1219 1219 1219 1219 1223 1223 1223 1223 1223 1223 1227 1227 1232 1398 1398 1398 1398 1404 1404 1404 1404 1404 1404 1404 1404 1404 1404 1404 1404 1404 1410 1410 1410 1410 1410 1410 1410 1410 1410 1410 1410 1410 1404 1404 1404 1404 1404 1410 1410 1410 1410 1410 1410 1410 1404 1404 1404 1404 1404 1410 1404 1404 1404 1404 1404 1404 1404 1404 1404 1404 1404 1410 1404 1404 1404 1410 1410 1410 1404 1404 1410 1410 1410 1410 1410 1410 1410 1410 1410 1410 1410 1410 1410 1410 1410 1410 1410 1410 1410 1410 1410 1410 1410 1410 1410 1410 1410 1410 1410 1410 1410 1410 1415 1410 1410 1410 1410 1410 1410 1410 1410 1410 1410 1410 1410 1214 1214 1214 1214 1214 1214 1214 1214 1214 1214 1214 1214 1214 1214 1214 1219 1415 1410 1410 1410 1410 1404 1404 1404 1404 1410 1410 1404 1404 1404 1404 1404 1404 1404 1404 1404 1404 1404 1404 1404 1404 1404 1404 1404 1404 1404 1410 1404 1404 1404 1404 1404 1404 1404 1404 1404 1404 1404 1404 1404 1404 1404 1404 1404 1404 1404 1404 1404 1404 1404 1404 1404 1404 1404 1398 1398 1404 1404 1404 1404 1404 1404 1404 1398 1398 1398 1398 1398 1398 1404 1404 1404 1398 1398 1398 1404 1404 1404 1404 1404 1404 1404 1404 1404 1398 1398 1404 1404 1398 1392 1392 0 0 0 0 0 0 3269 3269 3269 3269 3269 3269 3269 3269 3269 3269 3269 3269 3269 3238 3238 3238 3238 3238 3269 3269 3269 3269 3269 3269 3269 3269 3269 3269 3269 3269 3269 3269 3269 3269 3269 3269 3238 3238 3238 3238 3238 3238 3238 3238 3269 3269 3269 3269 3269 3269 3238 3238 3208 3208 3178 3178 3149 3149 3120 3120 3120 3120 3149 3149 3178 3208 3208 3238 3269 3238 3238 3238 3238 3208 3208 3208 3208 3178 3178 3178 3120 3092 3064 3037 3037 3010 3010 3010 3010 2680 2659 2659 2659 2680 2680 2659 2659 2659 2659 2659 3120 3120 3120 3120 3149 3149 3149 3149 3149 3149 3149 3149 3149 3149 3149 0 0 0 0 0 0 0 0 0 0 0
0 0 0 0 0 0 0 0 0 0 0 0 0 0 0 0 0 0 0 0 0 0 0 0 0 0 0 0 0 0 0 0 3010 3010 3037 3037 3037 3037 3064 3064 3064 3037 3037 3037 3037 3037 3037 3037 3037 3037 3037 3037 3037 3037 3037 3010 3010 3037 3037 3037 0 3037 1404 1404 1404 1404 1404 1404 1410 1410 1410 1410 1410 1410 1292 1292 1292 1292 1292 1292 1292 1292 1297 1297 1297 1297 1297 1302 1302 1312 1312 1312 1312 1312 1312 1307 1307 1302 1302 1302 1307 1307 1307 1307 1307 1307 1307 1307 1307 1307 1302 1302 1302 1302 1302 1302 1302 1302 1302 1302 1302 1302 1302 1302 1302 1297 1297 1297 1297 1302 1302 1302 1302 1302 1302 1302 1302 1302 1302 1302 1302 1302 1302 1302 1302 1302 1302 1302 1302 1307 1307 1307 1307 1307 1312 1312 1312 1307 1307 1307 1302 1302 1307 1302 1302 1307 1302 1302 1302 1302 1302 1307 1307 1307 1307 1312 1312 1312 1312 1312 1312 1312 1307 1307 1307 1307 1307 1307 1307 1312 1312 1312 1317 1317 1312 1307 1307 1302 1302 1302 1302 1302 1302 1302 1302 1302 1302 1302 1307 1307 1307 1312 1410 1410 1415 1415 1415 1415 1415 1415 1410 1410 1415 1415 1415 1415 1415 1415 1415 1415 1415 1415 1415 1410 1410 1410 1415 1415 1415 1415 1410 1410 1410 1410 1404 1404 1404 1404 1404 1404 1404 1404 1404 1404 1404 1404 1404 1404 1398 1398 1398 1398 1398 1404 1404 1404 1410 1223 1223 1223 1223 1223 1219 1219 1219 1223 1223 1223 1223 1223 1227 1227 1227 1232 1232 1398 1398 1398 1398 1404 1404 1404 1404 1404 1404 1404 1404 1404 1404 1404 1404 1404 1410 1410 1410 1410 1410 1410 1410 1410 1410 1410 1410 1410 1404 1404 1404 1404 1404 1410 1404 1404 1404 1404 1410 1410 1404 1404 1404 1404 1404 1410 1404 1404 1404 1404 1404 1404 1404 1404 1404 1404 1404 1410 1404 1404 1404 1410 1410 1410 1404 1404 1410 1410 1410 1410 1410 1410 1410 1410 1410 1410 1410 1410 1410 1410 1410 1410 1410 1410 1410 1410 1410 1410 1410 1410 1410 1410 1410 1410 1410 1410 1410 1410 1410 1410 1410 1410 1410 1410 1410 1410 1410 1410 1410 1410 1410 1214 1214 1214 1214 1214 1214 1214 1214 1214 1214 1214 1214 1219 1219 1219 1219 1410 1410 1410 1410 1410 1404 1404 1404 1404 1404 1404 1404 1404 1404 1404 1404 1404 1404 1404 1404 1404 1404 1404 1404 1404 1404 1404 1404 1404 1404 1404 1404 1404 1404 1404 1404 1404 1404 1404 1404 1404 1404 1404 1404 1404 1404 1404 1404 1404 1404 1404 1404 1404 1404 1404 1404 1404 1404 1398 1398 1404 1404 1404 1404 1404 1398 1398 1398 1398 1398 1398 1398 1398 1398 1398 1398 1398 1398 1398 1398 1404 1404 1404 1404 1404 1404 1404 1404 1398 1398 1404 1404 1398 1392 1392 0 0 0 0 0 0 3269 3238 3238 3238 3238 3238 3238 3238 3238 3238 3238 3238 3238 3238 3238 3238 3238 3238 3238 3238 3269 3269 3269 3269 3269 3269 3269 3238 3238 3238 3238 3238 3238 3238 3238 3238 3238 3238 3238 3238 3238 3238 3238 3238 3269 3269 3269 3238 3238 3208 3208 3208 3208 3178 3178 3149 3149 3149 3120 3120 3120 3120 3149 3149 3178 3178 3208 3238 3238 3238 3238 3238 3238 3208 3208 3178 3178 3178 3178 3178 3120 3092 3064 3037 3037 3010 3010 3010 3010 2680 2680 2659 2659 2680 2680 2659 2659 2659 2659 2659 3120 3120 3120 3120 3120 3120 3149 3149 3149 3149 3149 3149 3149 3149 3149 0 0 0 0 0 0 0 0 0 0 0
0 0 0 0 0 0 0 0 0 0 0 0 0 0 0 0 0 0 0 0 0 0 0 0 0 0 0 0 0 0 0 0 3010 3010 3010 3037 3037 3037 3037 3037 3037 3037 3037 3037 3037 3010 3010 3037 3037 3037 3037 3037 3037 3037 3037 3037 3010 3010 3010 3010 3037 3037 0 1404 1404 1404 1404 1404 1410 1410 1410 1410 1410 1410 1297 1297 1297 1297 1297 1297 1297 1297 1297 1297 1297 1297 1297 1302 1302 1307 1312 1312 1312 1312 1312 1312 1312 1307 1307 1307 1307 1307 1307 1307 1307 1307 1307 1307 1307 1307 1302 1302 1302 1302 1302 1302 1302 1302 1302 1302 1302 1302 1302 1302 1302 1302 1302 1302 1302 1302 1302 1302 1302 1302 1302 1302 1302 1302 1302 1302 1302 1302 1302 1307 1307 1307 1302 1302 1302 1307 1307 1307 1307 1307 1312 1312 1312 1302 1302 1302 1302 1302 1302 1302 1302 1307 1307 1302 1302 1302 1302 1307 1307 1307 1307 1312 1312 1312 1312 1312 1312 1312 1307 1307 1307 1307 1307 1307 1307 1312 1312 1317 1317 1317 1312 1312 1312 1312 1307 1307 1302 1302 1302 1302 1302 1302 1307 1307 1307 1312 1312 1312 1415 1415 1415 1415 1415 1415 1415 1415 1415 1415 1415 1415 1415 1421 1421 1421 1415 1415 1415 1415 1415 1415 1415 1415 1415 1415 1415 1415 1415 1415 1415 1415 1410 1410 1410 1410 1404 1404 1404 1404 1410 1410 1404 1404 1404 1404 1404 1404 1404 1404 1404 1410 1410 1410 1410 1227 1227 1227 1227 1227 1223 1223 1223 1223 1223 1227 1227 1227 1227 1227 1227 1232 1232 1398 1404 1404 1404 1404 1404 1404 1410 1410 1410 1410 1410 1410 1410 1410 1404 1404 1410 1410 1410 1410 1410 1410 1410 1410 1410 1410 1410 1410 1410 1404 1404 1404 1404 1410 1404 1404 1404 1404 1410 1410 1404 1404 1404 1404 1404 1410 1404 1404 1404 1404 1404 1404 1404 1404 1404 1404 1404 1410 1404 1404 1404 1410 1410 1410 1404 1404 1410 1410 1410 1410 1410 1410 1410 1410 1410 1410 1410 1410 1410 1410 1410 1410 1410 1410 1410 1410 1410 1410 1410 1410 1410 1410 1410 1410 1410 1410 1410 1410 1410 1410 1410 1410 1410 1410 1410 1410 1410 1410 1410 1415 1415 1214 1214 1214 1214 1214 1214 1214 1214 1214 1214 1219 1219 1219 1219 1219 1219 1410 1410 1410 1410 1410 1404 1404 1404 1404 1404 1404 1404 1404 1404 1404 1404 1404 1404 1404 1404 1404 1404 1404 1404 1404 1404 1404 1404 1404 1404 1404 1404 1404 1404 1404 1404 1404 1404 1404 1404 1404 1404 1404 1404 1404 1404 1404 1404 1404 1404 1404 1404 1404 1404 1404 1404 1404 1404 1398 1398 1404 1404 1404 1404 1404 1398 1398 1398 1398 1398 1398 1398 1398 1398 1398 1398 1398 1398 1398 1398 1398 1398 1398 1398 1398 1398 1398 1398 1398 1398 1398 1398 1398 1392 1392 0 0 0 0 0 0 0 3238 3208 3208 3208 3208 3208 3208 3238 3238 3238 3238 3238 3238 3238 3238 3238 3238 3238 3238 3238 3238 3238 3238 3238 3238 3238 3238 3238 3238 3238 3238 3238 3238 3238 3238 3238 3238 3238 3238 3238 3238 3238 3238 3269 3269 3269 3238 3238 3208 3208 3178 3178 3178 3178 3149 3149 3149 3120 3120 3120 3120 3149 3149 3178 3178 3178 3208 3238 3238 3238 3208 3208 3178 3178 3178 3178 3178 3178 3178 3120 3092 3064 3037 3037 2984 2984 2984 2723 2680 2680 2659 2659 2680 2680 2659 2659 2659 2659 2659 3120 3149 3120 3120 3120 3120 3120 3149 3149 3149 3149 3149 3149 3149 3149 0 0 0 0 0 0 0 0 0 0 0
0 0 0 0 0 0 0 0 0 0 0 0 0 0 0 0 0 0 0 0 0 0 0 0 0 0 0 0 0 0 0 0 3010 3010 3010 3010 3010 3010 3010 3010 3010 3010 3010 3010 3010 3010 3010 3010 3010 3010 3010 3010 3010 3010 3037 3010 3010 3010 3010 3010 3010 3037 3037 3010 1410 1410 1410 1410 1410 1415 1415 1415 1415 1415 1297 1297 1297 1297 1297 1297 1297 1297 1297 1297 1297 1297 1297 1302 1302 1307 1312 1312 1312 1312 1312 1312 1312 1312 1312 1312 1312 1307 1307 1307 1312 1307 1307 1307 1307 1307 1302 1302 1302 1302 1302 1302 1302 1302 1302 1302 1302 1302 1302 1302 1302 1302 1302 1302 1302 1302 1302 1302 1302 1302 1302 1302 1302 1302 1302 1302 1302 1307 1307 1307 1307 1307 1307 1307 1307 1307 1307 1307 1307 1312 1312 1312 1307 1302 1302 1302 1302 1302 1302 1302 1302 1307 1307 1307 1307 1307 1307 1312 1312 1312 1312 1312 1312 1312 1312 1312 1312 1312 1312 1312 1312 1307 1307 1307 1312 1312 1317 1317 1317 1317 1317 1312 1312 1312 1307 1307 1307 1307 1307 1307 1307 1307 1307 1307 1312 1312 1312 1312 1421 1421 1421 1421 1421 1415 1415 1415 1415 1415 1415 1421 1421 1421 1421 1421 1421 1421 1421 1421 1421 1415 1415 1415 1415 1415 1415 1415 1415 1415 1415 1415 1410 1410 1410 1410 1404 1404 1410 1410 1410 1410 1410 1410 1410 1410 1410 1410 1410 1410 1410 1410 1410 1410 1410 1232 1227 1227 1227 1227 1227 1227 1227 1227 1227 1227 1232 1232 1232 1232 1232 1236 1404 1410 1410 1410 1410 1410 1410 1410 1415 1415 1415 1415 1415 1415 1410 1410 1410 1410 1410 1415 1415 1415 1415 1415 1415 1415 1415 1410 1410 1410 1410 1410 1410 1410 1410 1410 1410 1410 1410 1410 1410 1410 1410 1410 1410 1410 1410 1410 1404 1404 1404 1404 1404 1404 1404 1404 1404 1404 1404 1410 1410 1410 1410 1410 1410 1410 1410 1410 1410 1410 1410 1410 1410 1410 1410 1410 1410 1410 1410 1410 1410 1410 1410 1410 1410 1410 1410 1410 1410 1410 1410 1410 1410 1410 1410 1410 1410 1410 1410 1410 1410 1410 1410 1410 1410 1410 1410 1410 1410 1410 1410 1415 1415 1214 1214 1214 1219 1219 1219 1219 1219 1219 1219 1219 1219 1219 1219 1219 1219 1410 1410 1410 1410 1410 1404 1404 1404 1404 1404 1404 1404 1404 1404 1404 1404 1404 1404 1404 1404 1404 1404 1404 1404 1404 1404 1404 1404 1404 1404 1404 1404 1404 1404 1404 1404 1404 1404 1404 1404 1404 1404 1404 1404 1404 1404 1404 1404 1404 1404 1404 1404 1404 1404 1404 1404 1404 1404 1404 1404 1404 1404 1404 1404 1404 1398 1398 1398 1398 1398 1398 1398 1398 1398 1398 1398 1398 1398 1398 1398 1398 1398 1398 1398 1398 1398 1398 1398 1398 1398 1398 1398 1398 1392 1392 0 0 0 0 0 0 0 0 3178 3178 3178 3178 3208 3208 3208 3208 3208 3208 3208 3208 3208 3208 3208 3208 3208 3208 3208 3208 3208 3208 3208 3208 3208 3208 3208 3208 3208 3208 3208 3208 3208 3208 3208 3208 3208 3208 3208 3208 3238 3238 3238 3238 3238 3208 3208 3178 3178 3178 3178 3178 3178 3149 3149 3149 3149 3149 3120 3120 3149 3149 3149 3178 3178 3178 3208 3208 3208 3208 3208 3178 3178 3178 3178 3178 3178 3178 3149 3120 3064 3037 3037 2984 2984 2723 2723 2680 2680 2680 2680 2680 2659 2659 2659 2659 2659 2659 3120 3092 3092 3092 3120 3120 3120 3120 3149 3149 3120 3120 3120 3120 3149 0 0 0 0 0 0 0 0 0 0 0
0 0 0 0 0 0 0 0 0 0 0 0 0 0 0 0 0 0 0 0 0 0 0 0 0 0 0 0 0 0 0 0 3010 3010 3010 3010 3010 3010 3010 3010 3010 3010 3010 3010 3010 3010 3010 3010 3010 3010 3010 3010 3010 3010 3010 3010 3010 3010 3010 3010 3010 3010 3010 3010 0 1415 1415 1415 1415 1415 1415 1415 1415 1421 1297 1297 1297 1297 1297 1297 1297 1297 1297 1297 1297 1297 1302 1302 1302 1307 1312 1317 1317 1317 1317 1317 1317 1312 1312 1312 1312 1307 1307 1307 1312 1307 1307 1307 1307 1307 1302 1302 1302 1302 1302 1302 1302 1302 1302 1302 1302 1302 1302 1302 1302 1302 1302 1302 1302 1302 1302 1302 1302 1302 1302 1302 1302 1302 1302 1302 1302 1307 1307 1307 1307 1307 1307 1307 1307 1307 1307 1307 1307 1307 1307 1312 1307 1302 1302 1302 1302 1302 1302 1302 1302 1307 1307 1307 1307 1307 1307 1312 1312 1312 1312 1312 1312 1312 1312 1312 1312 1312 1312 1312 1312 1312 1312 1312 1312 1317 1317 1317 1317 1317 1317 1317 1317 1312 1312 1307 1307 1307 1307 1307 1307 1307 1307 1312 1312 1312 1312 1312 1421 1421 1421 1421 1421 1421 1421 1421 1415 1415 1421 1421 1421 1421 1421 1421 1421 1421 1421 1421 1421 1421 1421 1421 1421 1421 1421 1421 1421 1421 1421 1421 1410 1410 1410 1410 1410 1410 1410 1410 1415 1415 1415 1410 1410 1415 1415 1415 1415 1410 1410 1410 1410 1410 1410 1236 1232 1232 1232 1232 1227 1227 1227 1227 1227 1232 1232 1232 1232 1236 1236 1236 1410 1410 1410 1410 1410 1410 1415 1415 1415 1415 1415 1415 1415 1415 1415 1415 1415 1415 1415 1415 1415 1415 1415 1421 1415 1415 1415 1415 1415 1415 1415 1415 1415 1415 1415 1415 1415 1415 1415 1415 1415 1415 1415 1415 1415 1415 1415 1415 1410 1410 1410 1410 1410 1410 1404 1404 1404 1404 1404 1410 1410 1410 1410 1410 1410 1410 1410 1410 1410 1410 1410 1410 1410 1410 1410 1410 1410 1410 1415 1415 1415 1415 1415 1415 1415 1415 1415 1410 1410 1410 1410 1410 1410 1410 1410 1410 1410 1410 1415 1410 1410 1410 1410 1410 1410 1410 1415 1410 1410 1415 1415 1415 1415 1219 1219 1219 1219 1219 1219 1219 1219 1219 1219 1219 1219 1219 1219 1219 1219 1410 1410 1410 1410 1410 1404 1404 1404 1404 1404 1404 1404 1404 1404 1404 1404 1404 1404 1404 1404 1404 1404 1404 1404 1404 1404 1404 1404 1404 1404 1404 1404 1404 1404 1404 1404 1404 1404 1404 1404 1404 1404 1404 1404 1404 1404 1404 1404 1404 1404 1404 1404 1404 1404 1404 1404 1404 1404 1404 1404 1404 1404 1404 1404 1404 1398 1398 1398 1398 1398 1398 1398 1398 1398 1404 1404 1398 1398 1398 1404 1404 1398 1398 1398 1398 1398 1398 1398 1398 1398 1404 1404 1398 1392 1392 0 0 0 0 0 0 0 3120 3120 3149 3149 3178 3178 3178 3178 3178 3178 3178 3178 3178 3178 3178 3178 3178 3208 3208 3208 3208 3178 3178 3178 3178 3178 3178 3178 3178 3178 3178 3178 3178 3178 3208 3208 3208 3208 3208 3208 3208 3208 3208 3238 3208 3208 3178 3178 3178 3178 3178 3178 3178 3178 3149 3149 3149 3149 3149 3120 3120 3149 3149 3149 3149 3178 3178 3178 3178 3178 3178 3178 3149 3149 3149 3149 3149 3149 3149 3149 3120 3092 3037 3037 2984 2984 2723 2723 2680 2680 2680 2680 2680 2659 2659 2659 2659 2659 2659 3092 3092 3092 3092 3092 3092 3120 3120 3120 3120 3120 3120 3120 3120 3120 0 0 0 0 0 0 0 0 0 0 0
0 0 0 0 0 0 0 0 0 0 0 0 0 0 0 0 0 0 0 0 0 0 0 0 0 0 0 0 0 0 0 0 3010 2984 2984 3010 2984 2984 2984 2984 2984 2984 3010 3010 3010 2984 2984 3010 3010 3010 3010 2984 2984 3010 3010 3010 3010 3010 3010 3010 3010 3010 3010 3010 0 0 1439 1439 1427 1421 1421 1421 1421 1421 1297 1297 1297 1297 1297 1297 1297 1297 1297 1297 1302 1302 1302 1302 1302 1307 1312 1317 1317 1317 1317 1317 1317 1312 1312 1312 1312 1307 1307 1307 1312 1312 1307 1307 1307 1307 1307 1307 1307 1302 1302 1302 1302 1302 1302 1302 1302 1302 1302 1302 1302 1302 1302 1302 1302 1302 1302 1302 1302 1302 1302 1302 1302 1302 1302 1302 1307 1307 1307 1307 1312 1312 1307 1307 1307 1307 1307 1307 1307 1307 1307 1312 1307 1302 1302 1302 1302 1307 1307 1302 1302 1307 1307 1307 1307 1307 1312 1312 1312 1312 1312 1312 1312 1312 1312 1312 1312 1312 1312 1312 1312 1312 1312 1317 1317 1317 1317 1317 1317 1317 1317 1317 1317 1312 1312 1312 1312 1312 1312 1312 1307 1307 1312 1312 1312 1312 1312 1312 1421 1421 1421 1421 1421 1421 1421 1421 1421 1421 1421 1427 1427 1427 1427 1427 1427 1427 1421 1421 1421 1421 1421 1421 1427 1427 1421 1421 1421 1421 1421 1421 1415 1415 1415 1415 1415 1415 1415 1415 1415 1415 1415 1415 1415 1415 1415 1415 1415 1415 1415 1415 1415 1415 1415 1236 1232 1232 1232 1232 1232 1232 1232 1232 1232 1232 1232 1232 1232 1236 1236 1241 1410 1415 1415 1415 1415 1415 1415 1415 1421 1421 1421 1421 1421 1415 1415 1415 1415 1415 1415 1415 1415 1415 1421 1421 1421 1421 1421 1415 1415 1415 1415 1415 1415 1415 1415 1415 1415 1415 1415 1415 1415 1421 1415 1415 1415 1415 1415 1415 1410 1410 1410 1410 1410 1410 1410 1410 1410 1410 1410 1410 1410 1410 1410 1410 1410 1415 1415 1415 1415 1415 1415 1415 1415 1415 1415 1415 1415 1415 1415 1415 1415 1415 1415 1415 1415 1415 1415 1415 1415 1415 1415 1415 1415 1415 1415 1415 1415 1415 1415 1415 1415 1415 1415 1415 1415 1415 1415 1415 1415 1415 1415 1415 1415 1223 1223 1223 1223 1223 1223 1223 1223 1223 1223 1223 1223 1223 1223 1223 1223 1404 1410 1410 1410 1410 1404 1404 1404 1404 1404 1404 1404 1404 1404 1404 1404 1404 1404 1404 1404 1404 1404 1404 1404 1404 1404 1410 1410 1410 1410 1410 1404 1404 1410 1410 1404 1404 1410 1410 1410 1404 1404 1404 1404 1404 1404 1404 1404 1404 1404 1404 1410 1410 1410 1410 1410 1410 1410 1404 1404 1404 1404 1404 1404 1404 1404 1404 1404 1404 1404 1398 1398 1398 1404 1404 1404 1404 1404 1404 1404 1404 1398 1398 1398 1398 1398 1398 1398 1398 1398 1404 1404 1404 1392 1392 0 0 0 0 0 0 0 3120 3120 3149 3149 3149 3149 3149 3178 3178 3178 3178 3178 3178 3178 3178 3178 3178 3178 3178 3178 3178 3178 3178 3178 3178 3178 3178 3178 3178 3178 3178 3178 3178 3178 3178 3178 3178 3178 3178 3208 3208 3208 3208 3208 3208 3208 3178 3178 3178 3178 3178 3178 3178 3178 3149 3149 3149 3149 3149 3149 3149 3149 3149 3149 3149 3149 3149 3149 3178 3178 3178 3178 3149 3149 3149 3149 3149 3149 3149 3149 3120 3120 3037 3037 2744 2723 2723 2723 2701 2701 2680 2680 2680 2680 2659 2659 2659 2659 2659 3092 3092 3092 3092 3092 3092 3092 3120 3120 3120 3120 3120 3120 3120 3120 0 0 0 0 0 0 0 0 0 0 0
0 0 0 0 0 0 0 0 0 0 0 0 0 0 0 0 0 0 0 0 0 0 0 0 0 0 0 0 0 0 0 0 2984 2984 2984 2984 2984 2984 2984 2984 2984 2984 2984 2984 2984 2984 2984 2984 2984 2984 2984 2984 2984 3010 3010 3010 3010 3010 3010 3010 3010 3010 3010 3010 0 0 0 1439 1433 1421 1421 1421 1421 1421 1297 1297 1297 1297 1297 1297 1297 1297 1297 1302 1302 1302 1302 1302 1307 1307 1312 1317 1317 1317 1317 1317 1317 1312 1312 1312 1312 1307 1307 1312 1312 1312 1307 1307 1307 1307 1307 1307 1307 1307 1307 1302 1302 1302 1302 1302 1302 1302 1302 1302 1302 1302 1302 1302 1302 1302 1302 1302 1302 1302 1302 1302 1302 1302 1302 1307 1307 1307 1307 1312 1312 1312 1312 1312 1312 1312 1312 1312 1312 1312 1312 1312 1312 1307 1307 1307 1307 1307 1307 1307 1307 1307 1312 1312 1312 1312 1312 1312 1312 1312 1312 1312 1312 1312 1312 1312 1312 1312 1312 1312 1312 1312 1312 1317 1317 1317 1317 1317 1317 1317 1317 1317 1317 1317 1312 1312 1312 1312 1312 1312 1312 1312 1312 1312 1312 1317 1312 1312 1421 1421 1421 1421 1421 1421 1421 1421 1421 1427 1427 1427 1427 1427 1427 1427 1427 1427 1427 1427 1427 1427 1427 1427 1427 1427 1421 1421 1421 1421 1421 1421 1415 1415 1415 1415 1415 1415 1415 1415 1415 1415 1415 1415 1415 1421 1415 1415 1415 1415 1415 1415 1415 1415 1415 1236 1236 1232 1232 1232 1232 1232 1232 1232 1232 1232 1232 1232 1232 1236 1236 1241 1415 1415 1415 1415 1415 1415 1415 1415 1421 1421 1421 1421 1421 1421 1415 1415 1415 1415 1415 1421 1421 1421 1421 1421 1421 1421 1421 1421 1421 1421 1421 1421 1421 1421 1421 1421 1421 1421 1421 1421 1421 1421 1421 1421 1421 1421 1421 1421 1415 1415 1415 1415 1415 1415 1410 1410 1410 1410 1415 1415 1415 1415 1415 1415 1415 1415 1415 1415 1415 1415 1415 1415 1415 1415 1415 1415 1415 1415 1421 1421 1421 1421 1421 1421 1421 1421 1421 1421 1421 1421 1421 1421 1421 1421 1421 1421 1421 1421 1421 1415 1415 1415 1415 1421 1421 1415 1415 1421 1421 1415 1415 1415 1227 1223 1223 1223 1223 1223 1223 1223 1223 1223 1223 1223 1223 1227 1227 1227 1227 1404 1410 1410 1410 1410 1404 1404 1404 1404 1404 1404 1404 1404 1404 1404 1404 1404 1410 1410 1410 1410 1410 1410 1410 1410 1410 1410 1410 1410 1410 1410 1410 1410 1410 1410 1410 1410 1410 1410 1410 1410 1410 1410 1404 1404 1404 1404 1410 1410 1410 1410 1410 1410 1410 1410 1410 1410 1410 1404 1404 1404 1404 1404 1404 1404 1404 1404 1404 1404 1404 1404 1404 1404 1404 1404 1404 1404 1404 1404 1404 1404 1404 1404 1404 1404 1404 1404 1404 1398 1398 1404 1404 1404 1398 1398 0 0 0 0 0 0 3120 3120 3120 3149 3149 3149 3149 3149 3149 3149 3149 3178 3178 3149 3149 3149 3149 3178 3178 3149 3149 3149 3149 3149 3149 3149 3149 3178 3178 3178 3178 3178 3178 3178 3178 3178 3178 3178 3178 3178 3178 3178 3178 3178 3178 3178 3178 3178 3178 3178 3178 3149 3149 3149 3149 3149 3149 3149 3149 3149 3149 3149 3120 3120 3149 3149 3149 3149 3149 3149 3149 3149 3149 3120 3120 3120 3149 3149 3149 3149 3120 3120 3120 3037 3037 2744 2723 2723 2723 2701 2701 2701 2680 2680 2680 2659 2659 2659 2659 2659 3092 3092 3092 3092 3092 3092 3092 3120 3120 3120 3120 3120 3120 3120 3120 0 0 0 0 0 0 0 0 0 0 0
0 0 0 0 0 0 0 0 0 0 0 0 0 0 0 0 0 0 0 0 0 0 0 0 0 0 0 0 0 0 0 0 2984 2984 2984 2984 2984 2984 2984 2984 2984 2984 2984 2984 2984 2984 2984 2984 2984 2984 2984 2984 2984 2984 3010 3010 3010 3010 3010 3010 3010 3010 3010 3010 0 0 0 1445 1433 1421 1421 1421 1421 1421 1302 1297 1297 1297 1302 1302 1302 1302 1302 1302 1302 1302 1302 1302 1307 1312 1312 1317 1317 1317 1317 1317 1317 1317 1312 1312 1312 1312 1312 1312 1312 1312 1312 1312 1312 1307 1307 1307 1307 1307 1307 1307 1307 1307 1307 1307 1307 1307 1302 1302 1307 1307 1307 1307 1307 1307 1307 1307 1302 1302 1302 1302 1302 1302 1302 1307 1307 1312 1312 1312 1312 1312 1312 1312 1312 1312 1312 1312 1312 1312 1317 1317 1312 1307 1307 1307 1307 1307 1307 1307 1307 1312 1312 1312 1312 1312 1312 1312 1312 1312 1312 1317 1317 1317 1312 1312 1312 1312 1312 1312 1312 1317 1317 1317 1317 1317 1317 1317 1317 1317 1317 1317 1317 1317 1312 1312 1312 1312 1312 1312 1312 1312 1312 1312 1312 1317 1312 1312 1421 1421 1421 1421 1421 1427 1427 1427 1427 1427 1427 1427 1427 1427 1427 1427 1427 1427 1427 1427 1427 1427 1427 1427 1427 1427 1427 1427 1427 1427 1427 1427 1421 1421 1421 1421 1421 1421 1415 1415 1421 1421 1421 1421 1421 1421 1421 1421 1421 1421 1415 1415 1415 1415 1415 1236 1236 1236 1236 1232 1232 1232 1232 1232 1232 1232 1232 1236 1236 1236 1236 1241 1259 1415 1415 1415 1415 1415 1421 1421 1427 1427 1427 1427 1427 1427 1421 1421 1421 1421 1421 1421 1427 1427 1421 1421 1421 1421 1421 1421 1421 1421 1421 1421 1421 1421 1421 1421 1421 1421 1421 1421 1421 1421 1421 1421 1421 1421 1421 1421 1415 1415 1415 1415 1415 1415 1415 1415 1415 1415 1415 1415 1415 1415 1415 1415 1415 1415 1415 1415 1421 1421 1421 1421 1421 1421 1421 1421 1421 1421 1421 1427 1421 1421 1421 1421 1427 1427 1421 1421 1427 1427 1427 1421 1421 1427 1427 1427 1421 1421 1427 1421 1421 1421 1427 1427 1427 1427 1427 1427 1427 1427 1421 1421 1227 1227 1227 1227 1227 1227 1227 1227 1227 1227 1227 1227 1227 1227 1227 1227 1227 1410 1410 1415 1410 1410 1410 1410 1410 1404 1404 1404 1404 1404 1404 1410 1410 1410 1410 1410 1410 1410 1410 1410 1410 1410 1410 1410 1410 1410 1410 1410 1410 1410 1410 1410 1410 1410 1410 1410 1410 1410 1410 1410 1410 1410 1410 1410 1410 1410 1410 1410 1410 1410 1410 1410 1410 1410 1410 1410 1410 1410 1410 1410 1410 1410 1410 1404 1404 1404 1404 1404 1404 1404 1404 1404 1404 1410 1410 1410 1410 1404 1404 1404 1404 1404 1404 1404 1404 1404 1404 1404 1404 1404 1398 1398 0 0 0 0 0 3120 3120 3120 3120 3120 3149 3149 3149 3149 3149 3149 3149 3149 3149 3149 3149 3149 3149 3149 3149 3149 3149 3149 3149 3149 3149 3149 3149 3149 3149 3149 3149 3149 3149 3149 3178 3178 3178 3178 3178 3178 3178 3178 3178 3178 3178 3178 3178 3149 3149 3149 3149 3149 3149 3149 3149 3149 3149 3149 3149 3149 3149 3149 3120 3120 3120 3120 3120 3120 3120 3120 3149 3149 3149 3120 3120 3120 3120 3120 3120 3120 3120 3092 3092 3064 3064 2723 2723 2723 2723 2701 2701 2701 2680 2680 2680 2659 2659 2659 2659 2659 3092 3092 3092 3092 3092 3092 3092 3092 3092 3092 3092 3092 3092 3092 3092 0 0 0 0 0 0 0 0 0 0 0
0 0 0 0 0 0 0 0 0 0 0 0 0 0 0 0 0 0 0 0 0 0 0 0 0 0 0 0 0 0 0 0 2958 2958 2958 2958 2958 2958 2958 2958 2958 2958 2958 2958 2958 2958 2958 2958 2958 2958 2958 2958 2958 2984 2984 2984 2984 2984 2984 3010 3010 3010 3010 3010 0 0 0 0 1433 1421 1421 1421 1421 1421 1421 1297 1297 1297 1302 1302 1302 1302 1302 1302 1302 1302 1302 1302 1307 1312 1312 1317 1317 1317 1317 1317 1317 1317 1317 1317 1317 1312 1312 1312 1312 1312 1312 1312 1312 1312 1312 1312 1312 1307 1307 1312 1312 1312 1307 1307 1307 1307 1307 1307 1307 1307 1307 1307 1307 1307 1307 1307 1307 1307 1307 1307 1307 1307 1307 1312 1312 1312 1312 1317 1317 1317 1317 1317 1317 1317 1317 1317 1317 1317 1317 1317 1317 1312 1312 1312 1312 1312 1312 1312 1312 1312 1312 1312 1312 1312 1312 1312 1317 1317 1317 1317 1317 1317 1317 1312 1312 1312 1312 1312 1312 1317 1317 1317 1317 1317 1317 1317 1317 1317 1317 1317 1317 1317 1312 1312 1312 1312 1312 1312 1312 1312 1312 1312 1312 1317 1317 1317 1427 1427 1427 1427 1427 1427 1427 1427 1427 1427 1427 1427 1427 1427 1427 1427 1427 1427 1427 1427 1427 1427 1427 1433 1433 1433 1427 1427 1427 1427 1427 1427 1421 1421 1421 1421 1421 1421 1421 1421 1421 1421 1421 1421 1421 1421 1421 1421 1421 1421 1421 1415 1415 1415 1415 1236 1236 1236 1236 1236 1236 1236 1232 1232 1232 1236 1236 1236 1236 1241 1241 1250 1259 1268 1415 1421 1421 1421 1421 1421 1421 1427 1427 1427 1427 1427 1427 1421 1421 1421 1421 1427 1427 1427 1427 1421 1421 1421 1421 1421 1421 1421 1421 1421 1421 1421 1421 1421 1421 1421 1421 1421 1421 1427 1427 1427 1427 1427 1427 1427 1415 1415 1415 1415 1415 1415 1415 1415 1415 1415 1421 1421 1421 1415 1415 1421 1421 1421 1421 1421 1421 1421 1421 1427 1427 1427 1427 1427 1427 1427 1427 1427 1427 1427 1427 1427 1433 1433 1427 1427 1433 1433 1433 1427 1427 1427 1427 1427 1427 1427 1427 1427 1427 1427 1433 1433 1427 1427 1427 1427 1427 1427 1427 1427 1227 1227 1227 1227 1227 1227 1227 1227 1227 1227 1227 1227 1227 1227 1227 1227 1232 1410 1415 1415 1421 1421 1410 1410 1410 1410 1410 1410 1410 1410 1410 1415 1415 1415 1415 1415 1421 1415 1415 1415 1415 1415 1415 1415 1415 1410 1410 1410 1410 1410 1410 1410 1410 1410 1415 1415 1415 1415 1415 1415 1415 1410 1410 1410 1410 1410 1410 1410 1415 1415 1415 1415 1410 1410 1410 1410 1410 1410 1410 1410 1410 1410 1410 1404 1404 1404 1404 1404 1404 1404 1404 1404 1404 1410 1410 1410 1410 1410 1410 1410 1404 1404 1404 1404 1404 1404 1404 1404 1404 1404 1404 0 0 0 0 0 0 3092 3092 3092 3092 3120 3120 3149 3149 3149 3149 3149 3149 3149 3149 3149 3149 3120 3120 3149 3120 3120 3120 3120 3149 3149 3149 3149 3149 3120 3120 3149 3120 3120 3120 3149 3149 3149 3149 3149 3149 3149 3149 3149 3149 3149 3149 3178 3178 3149 3149 3149 3149 3149 3149 3149 3149 3149 3149 3149 3149 3149 3149 3120 3120 3120 3092 3092 3092 3092 3092 3092 3092 3120 3149 3120 3120 3120 3120 3120 3120 3120 3120 3092 3092 3092 3092 2723 2723 2701 2701 2701 2701 2701 2680 2680 2680 2680 2659 2659 2659 3064 3064 3092 3092 3064 3064 3064 3064 3092 3064 3064 3064 3092 3092 3092 3092 0 0 0 0 0 0 0 0 0 0 0
0 0 0 0 0 0 0 0 0 0 0 0 0 0 0 0 0 0 0 0 0 0 0 0 0 0 0 0 0 0 0 0 2958 2933 2933 2958 2933 2933 2933 2933 2958 2958 2958 2958 2958 2933 2933 2933 2933 2933 2933 2958 2958 2958 2958 2958 2984 2984 2984 2984 2984 2984 2984 2958 2958 0 0 0 1433 1421 1421 1421 1421 1421 1421 1297 1297 1302 1302 1302 1302 1302 1302 1302 1302 1302 1302 1302 1307 1312 1312 1317 1317 1317 1317 1317 1317 1317 1317 1317 1317 1317 1317 1317 1312 1312 1312 1312 1312 1312 1312 1312 1312 1312 1312 1312 1312 1312 1312 1312 1312 1307 1307 1307 1307 1307 1307 1312 1312 1312 1312 1312 1312 1312 1307 1307 1307 1307 1312 1312 1317 1317 1317 1317 1317 1317 1317 1317 1317 1317 1317 1317 1317 1317 1317 1317 1317 1312 1312 1312 1312 1312 1312 1312 1312 1312 1312 1312 1312 1312 1312 1312 1317 1317 1317 1317 1317 1317 1317 1317 1317 1317 1312 1312 1317 1317 1317 1317 1317 1317 1317 1322 1322 1322 1317 1317 1317 1317 1317 1312 1312 1312 1312 1312 1312 1312 1312 1312 1312 1317 1317 1317 1427 1427 1427 1427 1427 1427 1427 1427 1427 1427 1427 1427 1427 1427 1433 1433 1427 1427 1427 1427 1433 1433 1433 1433 1433 1433 1427 1427 1427 1427 1427 1427 1421 1421 1421 1421 1421 1421 1421 1421 1421 1421 1421 1421 1421 1421 1421 1421 1421 1421 1421 1421 1415 1415 1421 1236 1236 1236 1236 1236 1236 1236 1232 1232 1236 1236 1236 1236 1241 1241 1255 1259 1259 1264 1421 1421 1421 1421 1421 1421 1421 1421 1427 1427 1427 1427 1427 1427 1427 1427 1427 1427 1427 1427 1427 1421 1421 1421 1421 1421 1421 1427 1427 1427 1427 1427 1427 1421 1421 1427 1421 1421 1427 1427 1427 1427 1427 1427 1427 1427 1421 1421 1415 1415 1415 1415 1415 1415 1415 1421 1421 1421 1421 1421 1421 1421 1421 1421 1421 1427 1427 1427 1427 1433 1433 1433 1427 1427 1427 1427 1427 1427 1427 1427 1427 1427 1433 1433 1433 1433 1433 1433 1433 1433 1433 1433 1433 1433 1433 1433 1433 1433 1433 1433 1433 1433 1433 1433 1433 1433 1433 1433 1427 1427 1433 1227 1227 1227 1227 1227 1227 1227 1227 1227 1227 1227 1227 1232 1227 1227 1232 1415 1415 1421 1421 1421 1415 1415 1415 1415 1415 1415 1415 1415 1415 1421 1421 1421 1421 1421 1421 1421 1421 1421 1421 1421 1421 1421 1421 1415 1415 1421 1421 1415 1415 1415 1415 1415 1421 1421 1421 1421 1421 1421 1421 1421 1421 1421 1421 1421 1421 1421 1421 1421 1421 1421 1415 1415 1415 1410 1410 1410 1410 1410 1410 1410 1410 1410 1410 1404 1404 1404 1404 1404 1410 1410 1410 1410 1410 1410 1410 1410 1410 1410 1410 1404 1404 1404 1404 1404 1404 1404 1404 1404 1404 0 0 0 0 0 3092 3092 3092 3092 3092 3092 3120 3120 3120 3120 3120 3120 3120 3120 3120 3120 3120 3120 3120 3120 3120 3120 3120 3120 3120 3120 3120 3120 3120 3120 3120 3120 3120 3120 3120 3149 3149 3149 3120 3120 3149 3149 3120 3120 3120 3149 3149 3149 3149 3149 3149 3149 3149 3149 3149 3149 3149 3149 3149 3120 3120 3149 3149 3120 3120 3120 3092 3092 3092 3092 3092 3092 3092 3120 3120 3092 3092 3092 3092 3092 3092 3092 3092 3092 3092 3092 3092 3149 2723 2701 2701 2701 2701 2701 2680 2680 2680 2680 2659 2659 2659 3037 3064 3092 3092 3064 3064 3064 3064 3064 3037 3037 3064 3064 3064 3064 3064 0 0 0 0 0 0 0 0 0 0 0
