0 0 0 0 0 0 0 0 0 0 0 0 0 0 0 0 0 0 0 0 0 0 0 0 0 0 0 0 0 8413 8413 8212 8212 8212 8212 8212 8413 8626 8626 8849 8849 8849 8849 9084 9084 9084 9084 9331 9331 9331 9084 9084 9084 9331 9331 9331 9331 9593 9593 9593 9593 9593 9331 9331 9331 9331 9331 9593 9593 9593 9593 9593 9331 9331 9331 9331 9084 9084 8849 8849 9084 9331 9331 9331 9331 9331 9331 9331 9331 9084 9084 9084 9084 9331 9331 9331 9331 9331 9593 9593 8849 8849 8849 8849 8849 8849 8849 8849 8849 8849 9084 9084 9084 9084 8849 8849 8849 8849 8849 8849 8849 8849 8849 8849 8849 8849 8849 8626 8626 8413 8212 8212 8212 8212 8212 8212 8212 8212 8212 8212 8413 8212 8019 8019 8019 8019 8019 8019 8019 8019 8019 7835 7835 7835 7835 7835 7835 7835 7835 8019 8212 8212 8212 7835 7835 7835 6497 6497 6497 6497 6497 6259 6146 6146 6259 6259 6259 6259 6259 6259 6259 6259 6259 6375 6375 6375 7492 7660 7835 7835 7835 7835 7835 7835 7835 7835 7835 7835 7835 7835 7835 7835 7835 7835 8019 7835 7835 7835 7835 7835 7660 7660 7660 7660 7660 7660 7660 7660 7660 7660 7660 7660 7660 7660 7835 7835 7835 7835 7835 7835 7835 7835 7835 7835 7835 7835 7835 7660 7660 7660 7660 7660 7660 7660 7835 7835 7835 7835 7835 7835 7835 7835 7835 7835 8019 5291 5291 5374 5374 5460 5460 5460 5460 5460 5460 5460 5460 5460 5460 5460 5460 5460 5460 5460 5548 5548 5548 5548 5460 5460 5460 5460 5460 5460 5460 5460 5460 5460 5460 5548 5548 5548 5640 5640 5640 5734 5832 5933 5933 6038 6038 6038 6146 6146 6038 6038 6146 6146 6038 6038 6038 6038 6038 6146 6038 6038 6038 6038 6038 6038 6146 6146 6146 6146 6146 7835 7835 7835 7835 7835 7835 7835 7835 7835 7835 7835 7835 7660 7492 7492 7492 7332 7332 7332 7332 7332 7332 7332 7492 7492 7492 7492 7492 7492 7660 7660 7660 7660 7660 7835 7835 7835 7835 7835 7835 7660 7660 7492 7492 7332 7332 7332 7332 7332 7332 7332 7332 7332 7332 7332 7332 7332 7332 7332 7332 7492 7492 7492 7492 7492 7492 7660 7660 7660 7660 7492 7492 7492 7492 7492 7492 7492 7492 7492 7492 7492 7492 7492 7332 7332 7332 7332 7332 7332 7332 7332 7332 7332 7332 7332 7332 7332 7835 0 0 0 0 0 0 0 0 0 0 0 0 0 0 0 0 0 0 0 0 0 0 3092 3064 3064 3064 3064 3064 3064 3064 3064 3064 3064 3092 3092 3064 3064 3064 3064 3064 3092 3092 3120 3120 3178 3178 3178 3178 3149 3149 3149 3120 3120 3120 3120 3092 3092 3092 3092 3092 3120 0 0 0 1632 1632 1639 1647 1655 1671 1680 1680 1680 1680 1680 1680 1680 1680 1671 1663 1655 1655 1655 1647 1647 1655 1647 1647 1647 1647 1647 1647 1639 1639 1639 1639 1639 1639 1639 1647 1647 1639 1639 1639 1632 1624 1616 1616 1616 1616 1616 1616 1616 1616 1616 1616 1616 1616 1616 1609 1609 1609 1609 1609 1601 1601 1601 1601 1601 1601 1594 1594 1594 1586 1586 1586 1586 1586 1586 1586 1586 1579 1579 1579 1579 1572 1572 1572 1572 1572 1572 1564 1564 1564 1564 1564 1564 1564 1572 1572 1564 1564 1579 0 0 0 6146 6146 6146 6146 6038 6038 6038 6038 5933 5933 5734 5734 5832 5933 6038 6146 6146 6259 6259 6259 6375 6375 6259 6259 6375 6375 6375 6375 6375 6375 6375 6375 6146 6146 6146 6146 6146 6146 0 0 0 0 0 0 0 0 0 0 0 0 0
0 0 0 0 0 0 0 0 0 0 0 0 0 0 0 0 0 0 0 0 0 0 0 0 0 0 0 0 0 8413 8413 8413 8413 8413 8413 8626 8626 8626 8849 8849 8849 8849 8849 9084 9084 9084 9084 9331 9331 9331 9084 9084 9331 9331 9331 9331 9331 9593 9593 9593 9593 9593 9331 9331 9331 9331 9331 9593 9593 9331 9331 9331 9331 9084 9084 9084 8849 8849 8849 8849 8849 9084 9084 9331 9331 9331 9331 9331 9331 9084 9084 9084 9084 9331 9331 9331 9331 9331 9331 9331 9084 8849 8849 8849 8849 8849 8849 8849 8849 8849 9084 9084 9084 9084 8849 8849 8849 8849 8849 8849 8849 8849 8849 8849 8849 8849 8849 8626 8626 8413 8212 8212 8212 8212 8212 8212 8212 8212 8212 8212 8413 8212 8212 8212 8212 8212 8019 8019 8019 8019 8019 7835 7835 7835 7835 7835 7835 7835 7835 8019 8212 8212 8212 8212 8626 8626 6038 6038 6146 6375 6375 6259 6259 6375 6259 6259 6259 6259 6259 6259 6259 6259 6259 6375 6375 6375 7660 7835 7835 7835 7835 7835 7835 7835 7835 7835 7835 7835 7835 7835 7835 7835 7835 7835 8019 8019 7835 7835 7835 7835 7660 7660 7660 7660 7835 7835 7660 7660 7835 7660 7660 7660 7660 7660 7835 7835 7835 7835 7835 7835 7835 7835 7835 7835 7835 7835 7835 7660 7660 7660 7660 7660 7660 7660 7660 7835 7835 7835 7835 7835 7835 7835 7835 7835 8019 5291 5291 5374 5374 5460 5460 5460 5460 5460 5460 5460 5460 5460 5460 5460 5460 5460 5548 5548 5548 5548 5548 5548 5548 5548 5548 5460 5460 5460 5460 5460 5460 5548 5548 5548 5548 5548 5640 5640 5640 5832 5832 5933 5933 6038 6038 6038 6146 6146 6038 6038 6038 6038 6038 6038 6038 6038 6038 6038 6038 6038 6038 6038 6038 6038 6146 6146 6146 6146 6146 6259 7660 7835 7835 7835 7835 7835 7835 7835 7660 7660 7660 7492 7492 7492 7492 7332 7332 7332 7332 7332 7332 7332 7492 7492 7492 7492 7492 7660 7660 7660 7835 7835 7835 7835 7835 7835 7835 7835 7835 7660 7660 7492 7492 7492 7332 7332 7332 7332 7332 7332 7332 7332 7332 7332 7332 7332 7332 7332 7332 7492 7492 7492 7492 7492 7492 7660 7660 7660 7660 7492 7492 7492 7492 7492 7492 7492 7492 7492 7492 7492 7492 7492 7332 7332 7332 7332 7332 7332 7332 7332 7332 7332 7332 7332 7332 7332 7332 0 3333 3333 3333 0 0 0 0 0 0 0 0 0 0 0 0 0 0 0 0 0 0 3092 3064 3064 3064 3064 3064 3064 3064 3064 3064 3064 3064 3064 3064 3064 3092 3092 3092 3092 3120 3149 3178 3178 3178 3178 3178 3149 3149 3149 3120 3120 3120 3120 3120 3092 3092 3092 3120 3120 0 0 0 1632 1632 1647 1647 1655 1671 1680 1680 1680 1680 1680 1680 1680 1671 1663 1663 1655 1655 1655 1647 1647 1655 1647 1647 1647 1647 1647 1639 1639 1639 1639 1639 1639 1639 1639 1639 1647 1639 1639 1632 1632 1624 1624 1616 1616 1616 1616 1616 1616 1616 1616 1616 1616 1616 1616 1609 1609 1609 1609 1609 1601 1601 1601 1601 1601 1601 1594 1594 1594 1586 1586 1586 1586 1586 1586 1586 1586 1579 1579 1579 1579 1579 1579 1579 1572 1572 1572 1564 1564 1564 1564 1564 1564 1564 1572 1572 1564 1564 1579 0 0 0 5832 5832 5832 5933 6038 6038 5933 5933 5933 5933 5734 5734 5832 5832 5933 6038 6146 6259 6259 6259 6259 6259 6146 6146 6146 6146 6259 6259 6259 6259 6259 6146 6146 6146 6038 6038 6038 6038 0 0 0 0 0 0 0 0 0 0 0 0 0
0 0 0 0 0 0 0 0 0 0 0 0 0 0 0 0 0 0 0 0 0 0 0 0 0 0 0 0 0 8413 8413 8413 8413 8626 8626 8626 8626 8849 8849 8849 8849 8849 8849 9084 9084 9084 9084 9331 9331 9331 9331 9331 9331 9331 9331 9593 9593 9593 9593 9593 9593 9593 9870 9870 9593 9593 9593 9593 9331 9331 9331 9331 9084 9084 9084 9084 8849 8849 8849 8849 8849 9084 9084 9084 9084 9331 9331 9331 9084 9084 9084 9331 9331 9331 9331 9331 9331 9331 9331 9331 9331 9084 9084 8849 8849 9084 9084 8849 8849 8849 9084 9084 9084 9084 8849 8849 8849 8849 8849 8849 8849 8849 8849 8849 8849 8849 8849 8626 8626 8626 8413 8212 8212 8212 8212 8212 8212 8212 8212 8212 8413 8212 8212 8212 8212 8212 8019 8019 8019 8019 8019 7835 7835 7835 7835 7835 8019 8019 8019 8212 8413 8212 8212 8626 8626 8626 6038 6038 6146 6375 6375 6375 6375 6375 6259 6259 6146 6146 6146 6146 6146 6259 6259 6259 6259 6259 6259 7835 7835 7835 7835 7835 7835 7835 7835 7835 7835 7835 7835 7835 7835 7835 8019 8019 8019 8019 8019 7835 7835 7835 7835 7835 7835 7835 7835 7835 7835 7835 7835 7660 7660 7660 7660 7660 7835 7835 7835 7835 8019 8019 8019 8019 8019 7835 7835 7835 7835 7660 7660 7660 7660 7660 7660 7660 7660 7835 7835 7835 7835 7835 7835 7835 7835 7835 8019 8019 5374 5374 5374 5374 5460 5460 5460 5460 5460 5548 5548 5548 5548 5548 5548 5548 5548 5548 5548 5548 5640 5548 5548 5548 5548 5460 5460 5548 5548 5548 5548 5548 5548 5548 5548 5548 5640 5640 5734 5832 5832 5933 6038 6038 6038 6038 6146 6146 6038 6038 6038 6038 6038 6038 6038 6038 6038 6038 6038 6038 6038 6038 6146 6146 6146 6146 6146 6038 6038 6146 7660 7835 7835 7835 7835 7835 7835 7835 7660 7660 7492 7492 7492 7332 7332 7332 7332 7332 7332 7332 7332 7332 7492 7492 7492 7492 7492 7660 7660 7835 7835 7835 7835 7835 7835 7835 7835 7835 7660 7660 7492 7492 7492 7332 7332 7332 7332 7332 7332 7332 7332 7332 7332 7332 7332 7332 7332 7332 7332 7492 7492 7492 7492 7492 7492 7660 7492 7492 7660 7492 7492 7492 7492 7492 7492 7492 7492 7492 7492 7492 7492 7492 7332 7332 7332 7332 7332 7332 7332 7332 7332 7332 7332 7332 7332 7332 7332 3300 3300 3300 3300 0 0 0 0 0 0 0 0 0 0 0 0 0 0 0 0 0 3092 3064 3064 3064 3064 3064 3064 3064 3064 3064 3064 3064 3064 3064 3064 3064 3092 3092 3092 3120 3120 3178 3178 3178 3178 3178 3178 3149 3149 3149 3120 3120 3149 3120 3120 3120 3120 3120 3120 3149 0 0 0 1639 1639 1647 1655 1655 1671 1680 1680 1680 1680 1680 1680 1680 1671 1663 1663 1655 1655 1655 1647 1647 1655 1647 1647 1647 1647 1647 1639 1639 1639 1639 1639 1639 1639 1639 1639 1647 1639 1639 1632 1632 1624 1624 1624 1624 1616 1616 1616 1616 1616 1616 1616 1616 1616 1616 1609 1609 1609 1609 1609 1601 1601 1601 1601 1601 1601 1601 1601 1594 1594 1586 1586 1586 1586 1586 1586 1586 1586 1586 1579 1579 1579 1579 1579 1572 1572 1572 1564 1564 1572 1572 1572 1572 1572 1572 1579 1579 1579 1579 0 5548 0 5640 5640 5734 5832 5832 5933 5933 5933 5933 5832 5832 5832 5832 5832 5832 5933 6038 6038 6038 6038 6038 6038 6038 6038 6038 6038 6146 6146 6259 6259 6146 6146 6038 6038 6038 6038 6038 6038 0 0 0 0 0 0 0 0 0 0 0 0 0
0 0 0 0 0 0 0 0 0 0 0 0 0 0 0 0 0 0 0 0 0 0 0 0 0 0 0 0 0 8413 8413 8413 8413 8626 8626 8849 8849 9084 9084 9084 9084 9084 9084 9084 9084 9084 9331 9593 9593 9331 9331 9593 9593 9593 9593 9593 9870 9870 9870 9870 9870 9870 9870 9870 9593 9593 9593 9593 9331 9331 9331 9331 9084 9084 9084 9084 8849 8849 8849 8849 8849 9084 9084 9084 9084 9084 9084 9331 9084 9084 9084 9331 9331 9331 9331 9331 9331 9331 9331 9331 9331 9084 9084 9084 9084 9084 9084 9084 9084 9084 8849 8849 9084 9084 9084 9084 9084 9084 9331 9331 9084 9084 8849 8849 8626 8626 8626 8626 8626 8626 8413 8413 8212 8212 8212 8212 8212 8212 8212 8212 8413 8413 8413 8413 8413 8212 8212 8019 8019 8212 8019 7835 7835 7835 7835 7835 8019 8019 8019 8212 8413 8413 8626 8626 8626 8626 6038 6038 6038 6146 6259 6259 6259 6259 6259 6259 6146 6146 6146 6146 6146 6259 6259 6259 6259 6146 6146 7835 7835 7835 7835 7835 7835 7835 7835 7835 7835 7835 8019 8019 8019 8019 8212 8212 8212 8212 8212 8212 8019 8019 8019 8019 8019 8019 8019 8019 7835 7835 7835 7835 7835 7835 7835 7835 7835 7835 8019 8019 8019 8212 8212 8212 8212 8019 8019 8019 7835 7660 7660 7660 7660 7660 7660 7660 7660 7835 7835 7835 7835 7835 7835 7835 7835 7835 8019 8019 5374 5374 5374 5374 5460 5460 5548 5548 5548 5548 5548 5548 5548 5548 5548 5548 5460 5460 5460 5548 5548 5548 5548 5548 5548 5460 5460 5548 5548 5548 5548 5548 5548 5640 5640 5640 5640 5640 5734 5832 5933 5933 6038 6038 6038 6038 6146 6038 6038 6038 6038 6038 6038 6038 6038 6038 6038 6038 6038 6038 6038 6038 6146 6146 6146 6146 6146 6038 6038 6146 8019 7835 7835 7835 7835 7835 7835 7835 7660 7660 7492 7492 7492 7332 7332 7332 7332 7332 7332 7332 7332 7332 7492 7492 7492 7492 7660 7660 7660 7835 7835 7835 7835 7835 7835 7835 7835 7835 7660 7660 7492 7492 7492 7332 7332 7332 7332 7332 7178 7178 7332 7332 7332 7332 7332 7332 7492 7492 7492 7492 7492 7492 7492 7492 7492 7660 7492 7492 7660 7492 7492 7492 7492 7492 7492 7492 7492 7492 7492 7492 7492 7492 7332 7332 7332 7332 7332 7332 7332 7332 7332 7332 7332 7332 7332 7332 7332 3300 3300 3300 3300 3300 0 0 0 0 0 0 3208 3208 3208 3208 0 0 0 0 0 3092 3092 3064 3064 3064 3064 3064 3064 3064 3064 3064 3064 3064 3064 3064 3064 3064 3092 3092 3092 3120 3120 3120 3149 3178 3149 3149 3149 3149 3149 3149 3149 3149 3178 3178 3149 3149 3178 3149 3149 3178 3178 0 1647 1647 1647 1655 1655 1663 1671 1680 1680 1671 1671 1680 1680 1671 1671 1663 1663 1655 1655 1655 1655 1655 1655 1647 1647 1647 1647 1647 1639 1639 1639 1639 1639 1639 1639 1639 1639 1639 1639 1639 1632 1632 1624 1624 1624 1624 1616 1616 1616 1616 1616 1616 1616 1616 1616 1616 1609 1609 1609 1609 1609 1609 1609 1601 1601 1601 1601 1601 1601 1601 1594 1594 1586 1586 1586 1586 1586 1586 1586 1586 1579 1579 1579 1579 1579 1579 1579 1572 1572 1572 1572 1572 1572 1572 1572 1579 1579 1586 1586 0 0 0 5548 5548 5548 5640 5640 5734 5734 5734 5734 5734 5734 5734 5734 5734 5734 5832 5933 5933 5933 5933 5933 5933 5933 5933 5933 5933 6038 6038 6146 6146 6146 6146 6038 6038 6038 6038 6038 6038 6038 0 0 0 0 0 0 0 0 0 0 0 0 0
0 0 0 0 0 0 0 0 0 0 0 0 0 0 0 0 0 0 0 0 0 0 0 0 0 0 0 0 0 8413 8413 8626 8626 8849 8849 8849 9084 9084 9084 9084 9084 9084 9084 9084 9084 9331 9593 9593 9593 9593 9593 9870 9593 9593 9593 9870 9870 9870 9870 9870 9870 9870 9870 9870 9870 9593 9593 9593 9593 9331 9331 9331 9331 9084 9084 9084 8849 8849 8849 8849 8849 9084 9084 9084 9084 9084 9084 9084 9084 9084 9084 9331 9331 9331 9331 9331 9331 9331 9331 9084 9084 9084 9084 9084 9084 9084 9084 8849 8849 8849 8849 8849 8849 8849 8849 8849 9331 9331 9084 9084 9084 9084 8849 8849 8626 8626 8626 8626 8626 8626 8626 8626 8212 8212 8212 8212 8212 8212 8212 8413 8413 8413 8413 8413 8413 8413 8413 8212 8212 8212 8212 7835 7835 8019 8019 8019 8212 8212 8212 8212 8413 8413 8413 8626 8626 8626 6038 6038 6038 6146 6259 6259 6259 6259 6259 6259 6146 6146 6146 6146 6146 6146 6259 6259 6259 6146 6146 8019 8019 8019 8019 8019 8019 8019 7835 7835 7835 8019 8019 8019 8212 8212 8413 8413 8413 8212 8212 8212 8212 8212 8212 8212 8212 8212 8019 8019 8019 7835 7835 7835 7835 7835 7835 7835 8019 8019 8212 8212 8413 8413 8212 8212 8212 8212 8212 8019 8019 7835 7835 7660 7660 7660 7660 7835 7835 7835 7835 7835 7835 7835 7835 7835 7835 7835 8019 7835 7835 7835 8212 5548 5548 5548 5548 5548 5548 5548 5548 5548 5548 5548 5548 5548 5460 5460 5460 5460 5548 5548 5548 5548 5548 5548 5548 5548 5548 5548 5640 5640 5640 5640 5640 5640 5640 5734 5832 5933 5933 5933 6038 6038 6038 6038 6146 6038 6038 6038 6038 6038 6038 6038 6038 6038 6146 6038 6038 6038 6146 6146 6146 6146 6146 6146 6146 6146 6146 6259 7835 7835 7835 7835 7835 7835 7835 7835 7660 7660 7492 7492 7492 7492 7332 7332 7332 7332 7332 7332 7332 7332 7492 7492 7492 7492 7660 7660 7660 7835 7835 7835 7835 7835 7835 7835 7835 7835 7660 7660 7492 7492 7492 7332 7332 7332 7332 7178 7178 7178 7332 7332 7332 7332 7332 7332 7492 7492 7492 7492 7492 7492 7492 7492 7492 7660 7660 7660 7660 7492 7492 7492 7492 7492 7492 7492 7492 7492 7492 7492 7492 7492 7332 7332 7332 7332 7332 7332 7332 7332 7332 7332 7332 7332 7332 7178 7178 3300 3300 3300 3300 3300 0 0 0 0 0 0 3208 3208 3208 3208 0 0 0 0 0 3092 3092 3092 3064 3064 3064 3064 3064 3064 3064 3064 3064 3064 3064 3064 3064 3064 3064 3092 3092 3120 3120 3120 3149 3178 3149 3149 3149 3149 3149 3149 3149 3149 3178 3178 3178 3178 3178 3178 3178 3178 0 0 1655 1655 1655 1671 1663 1663 1680 1680 1680 1671 1671 1671 1680 1671 1671 1663 1663 1655 1655 1655 1655 1655 1655 1647 1647 1647 1647 1647 1639 1639 1639 1639 1639 1639 1639 1639 1639 1639 1632 1632 1632 1632 1624 1624 1624 1624 1616 1616 1616 1616 1616 1616 1616 1616 1616 1616 1616 1616 1609 1609 1609 1609 1609 1601 1601 1601 1601 1601 1601 1601 1594 1594 1594 1586 1586 1586 1586 1586 1586 1586 1586 1586 1579 1579 1579 1579 1579 1572 1572 1572 1572 1572 1572 1572 1572 1579 1579 1586 0 0 0 0 5460 5460 5548 5640 5640 5640 5640 5640 5640 5734 5734 5734 5734 5734 5734 5734 5832 5832 5832 5832 5832 5933 5933 5933 5933 5933 5933 6038 6038 6038 6038 6038 6038 6038 6038 6038 6038 6038 6038 0 0 0 0 0 0 0 0 0 0 0 0 0
0 0 0 0 0 0 0 0 0 0 0 0 0 0 0 0 0 0 0 0 0 0 0 0 0 0 0 0 0 8413 8413 8626 8626 8849 8849 8849 9084 9084 9084 9084 9084 9084 9084 9331 9331 9593 9593 9870 9870 9870 9870 9870 9870 9593 9593 9870 9870 9870 9870 9870 9870 9870 9870 9870 9870 9593 9593 9593 9593 9593 9593 9331 9331 9084 9084 9084 8849 8849 8849 8849 8849 9084 9084 9084 8849 8849 9084 9084 9084 9084 9084 9331 9331 9331 9331 9331 9331 9331 9331 9084 9084 9084 9084 9084 9084 9084 9084 8849 8849 8849 8849 8849 8849 8849 8849 8849 9084 9084 9084 9084 9084 8849 8849 8849 8849 8626 8626 8626 8626 8626 8626 8626 8413 8413 8413 8413 8413 8212 8212 8413 8413 8413 8413 8626 8626 8413 8413 8212 8212 8413 8413 8019 8019 8019 8212 8212 8212 8212 8212 8212 8413 8413 8413 8626 8626 8849 6038 6038 6038 6146 6259 6259 6259 6259 6259 6259 6146 6146 6146 6146 6146 6146 6259 6259 6259 6375 6375 8413 8212 8212 8212 8212 8212 8212 8019 8019 8019 8212 8212 8212 8212 8212 8413 8413 8413 8413 8413 8413 8413 8413 8413 8413 8413 8413 8413 8413 8212 8019 8019 8019 8019 8019 8019 8019 8212 8413 8413 8413 8413 8413 8413 8413 8413 8413 8413 8413 8212 8019 8019 7835 7835 7835 7835 7835 7835 8019 8019 8019 8019 7835 7835 8019 7835 7835 8019 7835 7835 8212 8212 8212 8212 5548 5548 5548 5548 5640 5640 5640 5548 5548 5640 5548 5460 5460 5460 5460 5548 5548 5548 5640 5640 5548 5548 5640 5640 5640 5640 5640 5640 5640 5734 5734 5734 5832 5933 5933 6038 6038 6038 6146 6146 6146 6146 6146 6146 6146 6146 6146 6146 6146 6146 6146 6146 6146 6146 6146 6146 6146 6259 6259 6259 6146 6146 6038 6038 6038 7835 7835 7835 7835 7835 7835 7835 7835 7660 7660 7492 7492 7332 7332 7332 7332 7332 7332 7332 7332 7332 7332 7332 7332 7492 7492 7660 7660 7835 7835 8019 7835 7835 8019 7835 7835 7835 7835 7660 7660 7492 7492 7492 7332 7332 7332 7332 7178 7178 7178 7332 7332 7332 7332 7332 7492 7492 7492 7492 7492 7660 7660 7492 7492 7492 7660 7660 7660 7660 7660 7660 7660 7492 7492 7492 7492 7492 7492 7492 7492 7492 7492 7492 7332 7332 7332 7332 7332 7332 7332 7332 7332 7332 7332 7178 7178 7178 3300 3300 3300 3300 3300 3300 3269 3269 3238 3238 3208 3208 3178 3178 0 0 0 0 0 3120 3092 3092 3092 3092 3064 3064 3064 3064 3064 3064 3064 3064 3064 3064 3064 3064 3064 3064 3092 3092 3120 3120 3120 3149 3178 3149 3149 3149 3149 3149 3149 3149 3149 3178 3178 3178 3178 3178 3178 3178 3178 0 1647 1655 1655 1655 1671 1671 1671 1680 1680 1671 1671 1671 1671 1680 1671 1671 1663 1663 1655 1655 1655 1655 1655 1655 1647 1647 1647 1647 1639 1639 1639 1639 1639 1639 1639 1639 1639 1639 1639 1632 1632 1632 1632 1624 1624 1624 1624 1616 1616 1616 1616 1616 1616 1616 1616 1616 1616 1616 1616 1609 1609 1609 1609 1609 1601 1601 1609 1609 1601 1601 1601 1594 1594 1594 1586 1586 1586 1586 1586 1586 1586 1586 1586 1579 1579 1579 1579 1579 1572 1572 1572 1572 1572 1572 1572 1579 1579 1586 1594 0 0 0 5460 5460 5460 5548 5640 5640 5640 5640 5640 5640 5734 5734 5734 5734 5734 5734 5734 5832 5832 5832 5832 5832 5832 5832 5933 5933 5933 5933 5933 6038 6038 6038 6038 6038 6038 6038 6038 6038 6038 6038 0 0 0 0 0 0 0 0 0 0 0 0 0
0 0 0 0 0 0 0 0 0 0 0 0 0 0 0 0 0 0 0 0 0 0 0 0 0 0 0 0 0 8626 8626 8626 8849 9084 8849 8849 9084 9084 9331 9084 9084 9084 9331 9331 9331 9593 9593 9870 9870 9870 9870 9870 9870 9870 9870 9870 9870 9870 9870 9870 9870 9870 9870 9870 9593 9331 9331 9331 9331 9331 9331 9331 9084 9084 9084 8849 8849 8849 8849 8849 8849 8849 8849 8849 8849 8849 8849 8849 9084 9084 9084 9084 9331 9331 9331 9331 9331 9331 9331 9084 9084 9331 9084 9084 9084 9084 9084 8849 8849 8849 8849 8849 8849 8849 9084 9084 9084 9084 9084 9084 9084 8849 8849 8849 8849 8849 8626 8626 8626 8626 8626 8626 8413 8413 8413 8413 8413 8413 8413 8413 8413 8413 8626 8626 8626 8413 8413 8413 8413 8626 8626 8413 8413 8413 8413 8413 8413 8212 8212 8212 8413 8413 8413 8626 8626 8626 6038 6038 6038 6038 6146 6259 6259 6259 6259 6259 6375 6375 6146 6146 6259 6259 6259 6259 6146 6146 8413 8413 8413 8413 8413 8413 8413 8212 8212 8212 8212 8212 8413 8413 8413 8413 8413 8413 8413 8413 8413 8626 8626 8626 8626 8626 8626 8413 8413 8413 8413 8413 8413 8212 8212 8212 8212 8212 8413 8413 8413 8626 8626 8626 8626 8626 8626 8626 8626 8413 8413 8212 8212 8212 8019 8019 8212 8019 8019 8212 8212 8212 8019 8019 8019 8019 8019 8019 8212 8019 8019 8212 8212 8212 8212 5548 5548 5548 5548 5640 5640 5640 5548 5548 5640 5640 5640 8212 5460 5460 5640 5640 5640 5640 5734 5640 5640 5640 5640 5640 5734 5640 5640 5734 5734 5734 5832 5933 6038 6038 6038 6038 6038 6038 6146 6146 6146 6146 6146 6146 6146 6146 6146 6146 6259 6259 6259 6259 6259 6259 6259 6259 6259 6259 6259 6146 6146 6038 6038 6038 7835 7835 7835 7835 7835 7660 7660 7660 7660 7492 7492 7332 7332 7332 7332 7332 7332 7332 7332 7332 7332 7332 7332 7332 7332 7492 7492 7492 7660 7835 8019 7835 7835 7835 7835 7835 7660 7660 7660 7660 7492 7492 7492 7332 7332 7332 7178 7030 7030 7178 7178 7332 7332 7332 7332 7492 7492 7492 7492 7660 7660 7660 7660 7660 7660 7660 7660 7660 7660 7660 7660 7660 7492 7492 7492 7492 7492 7492 7492 7492 7492 7492 7332 7332 7332 7332 7332 7332 7332 7332 7332 7332 7332 7332 7178 7178 7178 3300 3300 3300 3300 3300 3300 3269 3269 3238 3238 3208 3208 3178 3178 0 0 0 0 0 3120 3092 3092 3092 3092 3064 3064 3064 3064 3064 3064 3064 3064 3064 3064 3064 3064 3064 3092 3092 3120 3120 3120 3149 3149 3149 3149 3149 3149 3178 3178 3178 3178 3178 3178 3178 3178 3178 3178 3178 3178 3178 0 1647 1647 1647 1655 1671 1671 1671 1680 1680 1671 1671 1671 1671 1671 1671 1671 1663 1663 1663 1663 1663 1663 1655 1655 1655 1655 1655 1647 1639 1639 1639 1639 1639 1639 1639 1639 1639 1639 1639 1632 1632 1632 1632 1624 1624 1624 1624 1624 1624 1616 1616 1616 1616 1616 1616 1616 1616 1616 1616 1609 1609 1609 1609 1609 1609 1609 1609 1609 1601 1601 1601 1601 1601 1594 1586 1586 1586 1586 1586 1586 1586 1579 1579 1579 1579 1579 1579 1579 1579 1579 1572 1572 1572 1572 1572 1579 1579 1586 1601 0 0 0 0 5548 5548 5548 5640 5640 5640 5640 5734 5734 5734 5734 5734 5734 5734 5734 5734 5734 5734 5734 5734 5832 5832 5832 5933 5933 5933 5933 5933 5933 5933 6038 6038 6038 6038 6038 6038 6038 6146 6146 0 0 0 0 0 0 0 0 0 0 0 0 0
0 0 0 0 0 0 0 0 0 0 0 0 0 0 0 0 0 0 0 0 0 0 0 0 0 0 0 0 0 8626 8626 8849 8849 9084 9084 9084 9084 9084 9331 9084 9084 9084 9084 9593 9593 9593 9870 9870 9870 0 0 0 9870 9870 9870 9870 9870 9870 9870 9870 9870 9870 9870 9870 9593 9331 9331 9084 9084 9084 9084 9084 9084 9084 9084 8849 8849 8849 8849 8849 8849 8849 8849 8849 8849 8849 8849 8849 8849 8849 8849 9084 9084 9084 9084 9331 9331 9331 9331 9084 9084 9331 9331 9084 9084 9331 9084 8849 8849 8849 8849 8849 8849 8849 8849 9084 9084 9084 9084 9084 9084 8849 8849 8849 8849 8849 8849 8626 8626 8626 8626 8849 8849 8413 8413 8413 8413 8626 8413 8413 8413 8413 8413 8626 8626 8413 8413 8413 8626 8626 8626 8413 8413 8413 8413 8413 8413 8413 8212 8212 8413 8413 8413 8626 8626 8626 8626 6038 6038 6038 6146 6259 6259 6259 6259 6259 6375 6375 6259 6259 6259 6259 6259 6375 6146 6146 8212 8212 8212 8413 8413 8413 8413 8413 8413 8212 8212 8413 8413 8413 8413 8413 8413 8413 8413 8413 8413 8626 8626 8626 8626 8626 8626 8626 8626 8626 8413 8413 8413 8413 8626 8626 8626 8626 8626 8626 8626 8626 8626 8626 8626 8626 8626 8626 8626 8626 8626 8413 8413 8212 8212 8212 8212 8212 8212 8212 8212 8212 8212 8212 8212 8212 8212 8212 8212 8212 8212 8413 8413 8413 8212 8212 8413 5548 5548 5640 5640 5640 5640 8413 8413 8413 8413 8413 8413 8212 5832 5734 5734 5832 5832 5832 5832 5832 5832 5832 5832 8212 8212 5832 5832 5933 5933 6038 6038 5933 5933 6038 6038 6038 6038 6038 6038 6146 6146 6146 6146 6146 6146 6146 6259 6259 6375 6375 6375 6259 6259 6259 6259 6259 6259 6146 6038 6038 6038 0 7835 7835 7835 7835 7835 7660 7492 7492 7492 7492 7332 7332 7332 7332 7332 7332 7332 7332 7332 7332 7332 7332 7332 7332 7332 7332 7492 7492 7660 7835 8019 7835 7835 7835 7835 7835 7660 7660 7660 7660 7660 7492 7492 7492 7332 7332 7178 7030 7030 7178 7178 7332 7332 7332 7332 7492 7492 7660 7660 7660 7660 7660 7660 7660 7660 7660 7660 7660 7660 7660 7660 7660 7660 7660 7492 7492 7492 7492 7492 7492 7492 7492 7332 7332 7332 7332 7332 7332 7332 7332 7332 7332 7332 7332 7178 7178 7178 3300 3300 3300 3300 3300 3300 3269 3269 3269 3269 3208 3208 3208 3208 0 0 0 0 0 3149 3120 3092 3092 3092 3064 3064 3064 3064 3064 3064 3064 3064 3064 3064 3064 3064 3064 3064 3092 3120 3120 3120 3149 3149 3178 3178 3178 3178 3178 3178 3178 3178 3178 3178 3178 3178 3178 3178 3178 3178 3178 0 0 1647 1647 1663 1671 1671 1671 1680 1680 1671 1671 1671 1671 1671 1671 1671 1671 1671 1663 1663 1663 1663 1655 1655 1655 1655 1655 1647 1639 1639 1647 1647 1647 1639 1639 1639 1639 1639 1639 1632 1632 1624 1624 1624 1624 1624 1624 1624 1624 1616 1616 1616 1616 1616 1616 1616 1616 1616 1616 1609 1609 1609 1609 1609 1609 1609 1609 1609 1609 1609 1601 1601 1601 1594 1594 1594 1594 1586 1586 1586 1586 1579 1579 1579 1579 1579 1579 1579 1579 1579 1579 1572 1572 1572 1572 1579 1579 1586 1632 1632 0 0 5548 5548 5548 5548 5640 5640 5640 5734 5832 5832 5832 5832 5832 5832 5832 5734 5734 5734 5734 5734 5734 5734 5734 5734 5933 5933 5933 5933 5933 5933 5933 6038 6038 6038 6038 6146 6146 6146 6259 6259 0 0 0 0 0 0 0 0 0 0 0 0 0
0 0 0 0 0 0 0 0 0 0 0 0 0 0 0 0 0 0 0 0 0 0 0 0 0 0 0 0 0 8626 8626 8849 8849 9084 9084 9084 9084 9084 9331 9084 9084 9084 9084 9593 9593 9870 9870 9870 9870 0 0 0 0 9870 9870 9870 9870 9870 9870 9870 9870 9870 9870 9870 9331 9331 8849 8849 9084 9084 9084 9084 9084 9084 9084 8849 8849 8849 8849 8849 8849 8849 8849 8849 8626 8626 8849 8849 8849 8849 8849 9084 9084 9084 9084 9084 9331 9331 9084 9084 9084 9084 9084 9084 9084 9084 9084 8849 8849 8849 8849 8849 8849 8849 8849 9084 9084 9084 9084 9084 9084 9084 8849 8849 8849 8849 8849 8849 8849 8849 8849 8849 8849 8626 8626 8626 8626 8626 8413 8413 8413 8413 8413 8626 8626 8626 8626 8626 8626 8626 8626 8413 8413 8413 8413 8413 8413 8413 8413 8413 8413 8413 8626 8626 8626 8626 8849 6038 6038 6146 6146 6259 6259 6259 6259 6259 6375 6375 6259 6259 6259 6259 6259 6375 6375 7835 8019 8019 8212 8413 8413 8413 8413 8413 8413 8413 8413 8413 8413 8413 8413 8413 8413 8413 8626 8626 8626 8626 8626 8626 8626 8626 8626 8626 8626 8626 8626 8626 8626 8626 8626 8626 8626 8626 8626 8626 8626 8626 8626 8626 8626 8626 8626 8626 8626 8626 8626 8413 8413 8413 8413 8413 8413 8212 8212 8413 8413 8212 8212 8212 8212 8212 8413 8413 8413 8413 8413 8413 8413 8413 8413 8413 8413 8413 8413 8413 8212 8212 8212 8212 8212 8212 8212 8212 8212 8212 8212 8212 8212 5933 5933 5933 5933 5933 5933 8212 8212 8212 8019 8019 8019 8019 8019 8212 8212 5933 5933 5933 6038 6038 6038 6038 6038 6146 6146 6146 6146 6146 6146 6146 6259 6259 6375 6375 6375 6375 6259 6259 6259 6259 6259 6146 6038 6038 0 0 8019 7835 7835 7835 7835 7660 7492 7492 7492 7332 7332 7332 7332 7332 7332 7332 7332 7332 7332 7332 7332 7332 7332 7332 7332 7332 7332 7332 7332 7660 7835 8019 7835 7835 7835 7835 7660 7660 7492 7492 7660 7660 7660 7492 7332 7332 7178 7030 7030 7178 7178 7332 7332 7332 7332 7492 7492 7660 7660 7660 7835 7660 7660 7660 7660 7660 7660 7660 7660 7660 7660 7660 7660 7660 7660 7492 7492 7492 7492 7332 7332 7332 7178 7178 7178 7178 7178 7178 7332 7178 7178 7178 7332 7332 7332 3208 3208 3300 3300 3300 3300 3300 3300 3300 3269 3269 3269 3269 3269 3269 3269 3269 0 0 0 3178 3149 3120 3120 3092 3092 3092 3064 3064 3064 3064 3064 3064 3064 3064 3064 3064 3064 3064 3064 3092 3120 3120 3120 3120 3149 3149 3149 3178 3178 3178 3178 3178 3178 3178 3178 3178 3178 3178 3178 3149 3149 0 0 0 1671 1671 1671 1680 1680 1680 1680 1680 1671 1671 1671 1671 1671 1671 1680 1671 1671 1671 1671 1663 1663 1663 1663 1655 1655 1647 1647 1647 1647 1647 1647 1647 1647 1639 1639 1639 1639 1632 1632 1632 1624 1624 1624 1616 1616 1624 1624 1624 1616 1616 1616 1616 1616 1616 1616 1616 1616 1616 1616 1616 1609 1609 1609 1609 1609 1609 1609 1609 1601 1601 1601 1601 1601 1594 1594 1594 1594 1586 1586 1586 1586 1586 1579 1579 1579 1579 1579 1579 1579 1579 1579 1579 1579 1579 1579 1579 1579 1632 0 0 0 6375 0 0 5640 5640 5640 5640 5734 5832 5832 5933 5933 5933 5933 5832 5832 5832 5734 5734 5734 5734 5734 5734 5734 5933 5933 5933 5933 5933 6038 6038 6038 6146 6146 6146 6146 6146 6146 6259 6259 0 0 0 0 0 0 0 0 0 0 0 0 0
0 0 0 0 0 0 0 0 0 0 0 0 0 0 0 0 0 0 0 0 0 0 0 0 0 0 0 0 0 8626 8626 8849 8849 8849 8849 9084 9084 9084 9084 9084 9084 9084 9084 9870 9870 9870 9870 9870 9870 0 0 0 0 9870 9870 9870 9870 9870 9870 9870 9870 9870 9870 9870 9331 9084 8849 8849 9084 9084 9084 9084 9084 9084 8849 8849 8849 8849 8849 8849 8849 8849 8626 8626 8626 8626 8626 8626 8849 8849 8849 8849 9084 9084 8626 8626 8626 8626 9084 8849 8849 8849 8849 8849 8849 8849 8849 8849 8849 8849 8849 8849 8849 8849 8849 9084 9084 8849 8849 8849 8849 8849 8849 8849 8849 8849 8849 8849 8849 8849 8849 8849 8849 8626 8626 8626 8626 8626 8413 8413 8413 8413 8413 8626 8626 8626 8849 8849 8849 8849 8849 8626 8626 8626 8626 8626 8413 8413 8413 8413 8413 8626 8626 8626 8626 8849 6038 6038 6038 6146 6146 6259 6259 6146 6146 6259 6259 6375 6259 6259 6259 6259 6259 6375 6375 7835 8019 8019 8212 8413 8413 8413 8413 8413 8413 8413 8413 8413 8413 8626 8413 8413 8626 8626 8626 8626 8626 8626 8626 8626 8626 8626 8626 8626 8626 8626 8626 8626 8626 8626 8626 8626 8626 8626 8626 8626 8626 8626 8626 8626 8626 8626 8626 8626 8626 8626 8626 8413 8413 8413 8413 8413 8413 8413 8413 8413 8413 8413 8413 8413 8413 8413 8413 8413 8413 8413 8413 8413 8413 8413 8413 8413 8413 8413 8413 8413 8212 8212 8212 8212 8212 8212 8212 8212 8212 8212 8212 8212 8212 8212 8212 8413 8413 8212 8212 8212 8212 8212 8019 8019 8019 8019 8019 8212 8212 8212 8413 8413 8413 8626 6038 6038 6038 6146 6146 6146 6146 6146 6146 6146 6259 6375 6375 6375 6375 6375 6259 6259 6259 6259 6259 6146 6146 0 0 0 0 8019 7835 7835 7835 7835 7492 7492 7492 7332 7332 7332 7332 7332 7332 0 7332 7332 7332 7332 7332 7332 7332 7332 7332 7178 7178 7178 7178 7332 7835 7835 7835 7835 0 0 0 0 7492 7492 7660 7660 7660 7492 7332 7332 7332 7030 7030 7178 7178 7332 7332 7332 7332 7492 7660 7660 7660 7660 7835 7835 7660 7660 7660 7660 7660 7660 7660 7660 7660 7660 7660 7660 7660 7492 7492 7492 7492 7332 7332 7332 7178 7178 7178 7178 7178 7178 7332 7178 7178 7178 7178 7332 7332 3208 3208 3208 3300 3300 3300 3300 3300 3300 3269 3238 3238 3269 3269 3269 0 0 0 0 3208 3178 3178 3149 3120 3120 3092 3092 3092 3092 3064 3064 3064 3064 3064 3064 3064 3064 3064 3064 3064 3092 3092 3092 3120 3120 3149 3149 3149 3149 3149 3178 3178 3178 3178 3178 3178 3178 3178 3178 3149 3149 3149 0 0 0 1680 1680 1680 1680 1680 1680 1680 1680 1680 1671 1671 1671 1680 1680 1680 1671 1671 1671 1671 1671 1671 1663 1663 1655 1655 1647 1647 1647 1647 1647 1647 1647 1647 1639 1639 1639 1639 1632 1632 1632 1624 1624 1624 1616 1616 1624 1624 1616 1616 1616 1616 1616 1616 1616 1616 1616 1616 1616 1616 1616 1609 1609 1609 1609 1609 1609 1609 1609 1601 1601 1601 1601 1601 1594 1594 1594 1594 1586 1586 1586 1586 1586 1579 1579 1579 1579 1579 1579 1579 1579 1579 1579 1579 1579 1586 1579 1579 1609 1639 0 0 0 0 0 5734 5734 5734 5734 5933 5933 5933 5933 5933 5933 5933 5832 5832 5832 5734 5734 5734 5734 5734 5734 5734 5933 5933 5933 5933 6038 6038 6038 6038 6146 6146 6146 6375 6375 6375 6375 6375 0 0 0 0 0 0 0 0 0 0 0 0 0
0 0 0 0 0 0 0 0 0 0 0 0 0 0 0 0 0 0 0 0 0 0 0 0 0 0 0 0 0 8626 8626 8626 8626 8849 8849 9084 9084 9084 9084 9084 9084 9084 9084 9870 9870 9870 9870 9870 9870 9870 0 0 0 9870 9870 9870 9870 9870 9870 9870 9870 9870 9593 9593 9331 9084 8849 8849 8849 8849 8849 8849 8849 8849 8849 8849 8849 8849 8626 8626 8626 8626 8626 8626 8626 8626 8626 8626 8626 8626 8626 8849 9084 8626 8626 8626 8626 8626 8626 8626 8626 8626 8849 8849 8849 8849 8849 8849 8849 8849 8849 8849 8849 8849 8849 8849 8849 8849 8849 8849 8849 8849 8849 8849 8849 8849 8849 8849 8849 8849 8849 8849 8849 8849 8626 8626 8626 8626 8413 8413 8413 8413 8626 8849 8849 8626 8626 8849 8849 8849 8849 8626 8626 8626 8626 8626 8413 8413 8413 8413 8413 8626 8626 8626 8626 8849 6038 6038 6038 6146 6146 6146 6259 6146 6146 6259 6259 6259 6259 6259 6259 6259 6259 6375 6375 8626 8626 8626 8626 8626 8626 8413 8413 8413 8413 8413 8413 8413 8413 8626 8413 8413 8626 8626 8626 8626 8626 8626 8626 8626 8626 8626 8626 8626 8626 8626 8626 8626 8626 8626 8626 8626 8626 8626 8626 8626 8626 8626 8626 8626 8626 8626 8626 8626 8626 8626 8626 8413 8413 8413 8413 8413 8413 8413 8413 8413 8413 8413 8413 8413 8413 8413 8413 8413 8413 8413 8413 8413 8413 8413 8413 8413 8413 8413 8413 8413 8212 8212 8413 8413 8212 8212 8212 8212 8413 8413 8212 8212 8413 8212 8212 8413 8413 8413 8413 8413 8212 8212 8212 8212 8212 8212 8212 8212 8212 8212 8413 8413 8413 8626 8626 8626 8626 8626 6146 6146 6259 6146 6146 6259 6375 6375 6375 6375 6375 6375 6375 6375 6259 6259 6259 6259 0 0 0 0 0 0 8019 8019 0 0 7492 7492 7492 7492 7492 0 0 0 0 0 7332 7332 7332 7332 7332 7332 7332 7332 7178 7178 7030 7030 7030 7030 7030 7030 6889 0 0 0 0 0 0 0 0 0 0 0 0 0 0 0 7332 7332 7332 7332 7332 7332 7492 7492 7660 7660 7660 7660 7835 7660 7492 7492 7660 7660 7660 7660 7660 7660 7660 7835 7835 7660 7660 7492 7492 7492 7492 7332 7332 7332 7178 7178 7178 7178 7178 7178 7332 7178 7178 7178 7178 7332 7332 3178 3178 3208 3238 3238 3333 3333 3300 3300 3269 3238 3238 3269 3269 3269 0 0 3149 0 3208 3178 3178 3149 3149 3120 3120 3092 3092 3092 3064 3064 3064 3064 3064 3064 3064 3064 3064 3064 3064 3092 3092 3092 3092 3120 3149 3149 3149 3149 3149 3178 3178 3178 3178 3178 3178 3178 3178 3178 3149 3149 3149 3149 0 0 1688 1680 1680 1680 1680 1680 1680 1680 1680 1680 1680 1680 1680 1680 1680 1671 1671 1671 1671 1671 1671 1671 1663 1663 1655 1647 1647 1647 1647 1647 1647 1647 1647 1639 1639 1639 1639 1639 1639 1639 1632 1632 1624 1624 1624 1624 1624 1616 1616 1616 1616 1616 1616 1616 1616 1616 1616 1616 1616 1616 1609 1609 1609 1609 1609 1609 1609 1609 1601 1601 1601 1601 1601 1594 1594 1594 1586 1586 1579 1579 1586 1586 1579 1579 1579 1579 1579 1579 1579 1579 1579 1572 1572 1579 1579 1579 1586 1601 1609 0 0 6375 0 6375 6375 6375 6375 6038 6038 6038 6038 6038 5933 5933 5933 5933 5832 5832 5832 5734 5734 5734 5832 5832 5832 6259 6259 6259 6259 6259 6259 6375 6375 6375 6497 6497 6497 6497 6497 6497 6497 0 0 0 0 0 0 0 0 0 0 0 0 0
0 0 0 0 0 0 0 0 0 0 0 0 0 0 0 0 0 0 0 0 0 0 0 0 0 0 0 0 0 8849 8626 8626 8626 8849 8849 8849 8849 9084 9084 9331 9593 9593 9593 9870 9870 9870 9870 9870 9870 9870 9870 0 0 9870 9870 9870 9870 9870 9870 9870 9870 9870 9593 9593 9331 9084 8849 8849 8849 8849 8849 8849 8849 8849 8849 8849 8849 8849 8626 8626 8626 8626 8626 8626 8626 8626 8626 8626 8626 8626 8626 8849 8849 8626 8626 8626 8626 8626 8626 8626 8626 8626 8626 8626 8626 8626 8626 8626 8626 8626 8849 8849 8849 8849 8849 8849 8849 8849 8849 8849 8849 8849 8849 8849 8849 8626 8626 8849 8849 8849 8849 8849 8849 8849 8849 8849 8849 8849 8413 8413 8413 8413 8626 8626 8626 8626 8626 8849 8849 8849 8849 8626 8626 8626 8626 8626 8626 8626 8413 8413 8413 8626 8626 8626 8626 8849 8849 6038 6038 6146 6146 6146 6259 6146 6146 6259 6259 6259 6259 6259 6375 6375 6375 6375 6497 8626 8626 8626 8626 8626 8626 8413 8413 8413 8413 8413 8413 8413 8413 8626 8413 8413 8626 8626 8626 8626 8626 8626 8626 8626 8626 8626 8626 8626 8626 8626 8626 8626 8626 8626 8626 8626 8626 8626 8626 8626 8626 8626 8626 8626 8626 8626 8626 8626 8626 8626 8626 8413 8413 8413 8413 8413 8413 8413 8413 8413 8413 8413 8413 8413 8413 8413 8413 8413 8413 8413 8413 8413 8413 8413 8413 8413 8413 8413 8413 8413 8212 8212 8413 8413 8413 8413 8413 8413 8413 8413 8413 8413 8413 8413 8413 8413 8413 8413 8413 8413 8212 8212 8212 8212 8413 8212 8212 8413 8413 8413 8413 8413 8626 8626 8626 8626 8626 8413 8413 8413 8413 8413 6259 6259 6375 6375 6497 6497 6497 6497 6375 6375 6375 6375 6375 0 0 0 0 0 0 0 0 0 0 0 7492 7492 7492 8019 0 0 0 0 0 0 0 0 0 0 7332 7332 7332 7332 6889 6889 6889 6753 6753 6889 6889 6889 6889 0 0 0 0 0 0 0 0 0 0 0 0 0 0 0 0 0 0 0 0 0 0 0 0 0 0 0 7835 7660 7492 7492 7660 7660 7660 7660 0 0 0 0 0 0 0 7492 7492 7492 7492 7332 7332 7492 7332 7178 7178 7178 7178 7178 7332 7178 7178 3208 3208 3178 3178 3178 3178 3178 3208 3208 3238 3238 3269 3269 3269 3269 3269 3269 3269 3269 3178 3178 3149 3149 3149 3178 3149 3149 3120 3120 3120 3092 3092 3092 3064 3064 3064 3064 3064 3064 3064 3064 3064 3064 3064 3092 3092 3092 3092 3120 3149 3120 3120 3149 3149 3178 3178 3178 3149 3149 3178 3178 3178 3178 3178 0 3178 0 0 1680 1680 1680 1680 1688 1688 1680 1680 1680 1680 1680 1680 1680 1680 1680 1680 1671 1671 1671 1671 1671 1671 1671 1671 1663 1655 1655 1647 1647 1647 1647 1647 1647 1647 1639 1639 1639 1639 1639 1639 1639 1632 1632 1624 1616 1616 1624 1624 1624 1624 1616 1616 1616 1616 1616 1616 1616 1616 1616 1616 1616 1609 1609 1609 1609 1609 1609 1609 1609 1609 1601 1601 1609 1601 1601 1594 1594 1586 1586 1579 1579 1586 1586 1586 1586 1579 1579 1579 1579 1579 1579 1579 1572 1572 1579 1579 1579 1586 1601 1609 1609 6375 6375 6375 6375 6375 6375 6375 6259 6259 6259 6259 6259 6259 6146 5933 5933 6038 5933 5933 5933 5933 5933 6038 6038 6259 6375 6375 6375 6375 6375 6375 6375 6375 6375 6497 6497 6497 6497 6497 6622 6622 0 0 0 0 0 0 0 0 0 0 0 0 0
0 0 0 0 0 0 0 0 0 0 0 0 0 0 0 0 0 0 0 0 0 0 0 0 0 0 0 0 0 8849 8626 8626 8849 8849 8849 8849 8849 9084 9084 9331 9331 9593 9593 9870 9870 9870 9870 9870 9870 9870 9870 9870 0 9870 9870 9870 9870 9870 9870 9870 9870 9870 9870 9593 9331 9084 8849 8849 8849 8849 8849 8849 8849 8849 8849 8849 8849 8849 8626 8626 8626 8626 8626 8626 8626 8626 8626 8626 8626 8626 8626 8849 8849 8849 8626 8626 8626 8626 8413 8413 8413 8413 8413 8413 8413 8626 8626 8626 8626 8626 8626 8626 8849 8849 8849 8849 8849 8849 8626 8626 8626 8626 8626 8626 8849 8626 8626 8626 8849 8849 8849 8849 8849 8849 8849 8849 8849 8849 8849 8626 8413 8413 8626 8626 8626 8849 8849 8849 8849 8849 8849 8626 8626 8626 8626 8626 8626 8626 8626 8626 8626 8626 8626 8626 8626 8849 8849 6038 6038 6146 6146 6146 6146 6146 6146 6259 6259 6259 6259 6375 6375 6375 6375 6375 6497 8626 8626 8626 8626 8626 8626 8413 8413 8413 8413 8413 8413 8413 8413 8413 8413 8626 8626 8626 8626 8626 8626 8626 8626 8626 8626 8413 8413 8626 8626 8626 8626 8626 8626 8626 8626 8626 8626 8626 8626 8626 8626 8626 8626 8626 8626 8626 8626 8626 8626 8626 8626 8626 8413 8413 8413 8413 8413 8413 8413 8413 8413 8413 8413 8413 8413 8413 8413 8413 8413 8413 8413 8413 8413 8413 8413 8413 8413 8413 8413 8413 8413 8413 8413 8413 8413 8413 8413 8413 8413 8413 8413 8413 8413 8413 8413 8413 8413 8413 8413 8413 8413 8413 8413 8413 8413 8413 8413 8413 8413 8413 8413 8626 8626 8626 8626 8413 8413 8413 8413 8413 8413 8413 8413 8413 8413 8626 0 0 0 0 0 0 0 0 0 0 0 0 0 0 0 0 0 0 0 0 0 8019 8019 0 0 0 0 0 0 0 0 0 0 0 0 0 0 0 6889 6889 6889 6753 6753 6889 6889 6889 6889 0 0 0 0 0 0 0 0 0 0 0 0 0 0 0 0 0 0 0 0 0 0 0 0 0 0 0 0 0 0 0 0 0 0 0 0 0 0 0 0 0 0 0 0 0 7492 7332 7332 7492 7332 7332 7332 7178 3238 3238 3238 3208 3208 3208 3208 3178 3178 3178 3178 3178 3178 3208 3208 3208 3208 3208 3208 3208 3208 3208 3208 3208 3178 3178 3178 3149 3149 3149 3149 3120 3120 3120 3092 3092 3092 3092 3092 3064 3064 3064 3064 3064 3064 3064 3064 3064 3064 3092 3092 3092 3092 3092 3092 3092 3092 3092 3092 3120 3149 3149 3120 3120 3149 3092 3092 3092 3092 0 3010 3010 0 1680 1680 1680 1680 1680 1680 1680 1680 1680 1680 1680 1680 1680 1680 1680 1680 1671 1671 1671 1671 1671 1671 1671 1663 1663 1655 1655 1647 1647 1647 1647 1647 1647 1647 1647 1647 1647 1647 1639 1639 1639 1632 1632 1624 1616 1616 1624 1624 1624 1624 1616 1616 1616 1616 1616 1616 1616 1616 1616 1616 1616 1609 1609 1609 1609 1609 1609 1609 1609 1609 1601 1601 1609 1609 1601 1594 1594 1594 1586 1586 1586 1586 1586 1586 1579 1579 1579 1579 1579 1579 1579 1579 1579 1579 1579 1586 1586 1586 1586 1586 0 6259 6259 6259 6259 6259 6259 6259 6259 6259 6259 6259 6259 6259 6146 6146 6038 6038 6038 6038 6038 6038 6038 6146 6146 6259 6259 6259 6259 6375 6375 6375 6375 6375 6375 6497 6497 6497 6497 6497 6622 6622 0 0 0 0 0 0 0 0 0 0 0 0 0
0 0 0 0 0 0 0 0 0 0 0 0 0 0 0 0 0 0 0 0 0 0 0 0 0 0 0 0 0 8413 8413 8626 8849 8849 8849 8849 9084 9331 9331 9331 9331 9593 9593 9870 9870 9870 9870 9870 9870 9870 9870 9870 9870 9870 9870 9870 9870 9870 9870 9870 9870 9870 9870 9593 9331 9084 8849 8849 8849 8849 8849 8849 8849 8849 8849 8849 8849 8849 8626 8626 8626 8626 8626 8626 8626 8626 8626 8626 8626 8626 8626 8849 9084 8849 8626 8626 8626 8626 8212 8212 8413 8413 8413 8413 8413 8413 8413 8626 8413 8413 8413 8413 8626 8626 8626 8626 8626 8626 8626 8626 8626 8626 8626 8626 8626 8626 8626 8626 8626 8626 8626 8626 8849 8849 8849 8849 8849 8849 8849 8849 8626 8626 8849 8849 8849 8849 8849 8849 8849 8849 8849 8626 8626 8626 8626 8626 8626 8626 8626 8626 8626 8626 8626 8626 8849 8849 9084 6038 6038 6146 6146 6146 6146 6146 6146 6146 6146 6259 6259 6375 6375 6375 6375 6375 6375 8626 8626 8626 8626 8626 8626 8413 8413 8413 8413 8413 8413 8413 8413 8413 8413 8626 8626 8626 8626 8626 8626 8626 8626 8626 8626 8413 8413 8626 8626 8626 8626 8626 8626 8626 8626 8626 8626 8626 8626 8626 8626 8626 8626 8626 8626 8626 8626 8626 8626 8626 8626 8626 8413 8413 8413 8413 8413 8413 8413 8413 8413 8413 8413 8413 8413 8413 8413 8413 8413 8413 8413 8413 8413 8413 8413 8413 8413 8413 8413 8413 8413 8413 8413 8413 8413 8413 8413 8413 8413 8413 8413 8413 8413 8413 8413 8413 8413 8413 8413 8413 8413 8413 8413 8413 8413 8413 8413 8413 8413 8413 8626 8626 8626 8626 8626 8413 8413 8413 8413 8413 8413 8413 8413 8413 8413 8626 0 0 0 0 0 0 0 0 0 0 0 0 0 0 0 0 0 0 0 0 0 0 0 0 0 0 0 0 0 0 0 0 0 0 0 0 0 0 0 0 6889 6889 6889 6889 6889 6889 6889 0 0 0 0 0 0 0 0 0 0 0 0 0 0 0 0 0 0 0 0 0 0 0 0 0 0 0 0 0 0 0 0 0 0 0 0 0 0 0 0 0 0 0 0 0 0 0 0 0 0 3238 3208 3208 3208 3208 3208 3208 3208 3208 3178 3178 3178 3178 3178 3178 3178 3208 3208 3208 3208 3208 3208 3208 3208 3208 3178 3178 3149 3149 3149 3149 3149 3120 3120 3120 3120 3120 3092 3092 3092 3092 3092 3092 3092 3064 3064 3064 3064 3064 3064 3064 3064 3064 3064 3064 3092 3092 3092 3092 3092 3092 3092 3092 3092 3092 3092 3092 3092 3092 3092 3064 3037 3010 3010 3010 2984 1680 1680 1680 1680 1680 1680 1680 1680 1680 1680 1680 1680 1680 1680 1680 1680 1671 1671 1671 1671 1671 1671 1663 1663 1663 1655 1655 1647 1647 1647 1647 1647 1647 1647 1647 1647 1647 1647 1639 1639 1639 1632 1632 1624 1624 1624 1624 1624 1624 1624 1624 1624 1616 1616 1616 1616 1616 1616 1616 1616 1616 1616 1616 1616 1616 1616 1616 1609 1609 1616 1609 1609 1609 1609 1601 1601 1594 1594 1586 1586 1586 1586 1586 1586 1579 1579 1579 1579 1579 1579 1579 1579 1579 1579 1586 1586 1594 1609 1609 1601 6259 6259 6259 6259 6259 6259 6259 6259 6259 6259 6375 6259 6259 6259 6259 6259 6259 6259 6146 6146 6146 6146 6146 6146 6259 6259 6259 6259 6259 6375 6375 6375 6375 6375 6375 6497 6497 6497 6497 6497 6622 6622 0 0 0 0 0 0 0 0 0 0 0 0 0
0 0 0 0 0 0 0 0 0 0 0 0 0 0 0 0 0 0 0 0 0 0 0 0 0 0 0 0 0 8413 8413 8626 8626 8849 8849 9084 9084 9331 9331 9331 9331 9593 9593 9870 9870 9870 9870 9870 9870 9870 9870 9870 9870 0 9870 9870 9870 9870 9870 9870 9870 9870 9870 9593 9331 9084 9084 9084 9084 8849 8849 8849 8849 8849 8849 8849 8849 8849 8849 8849 8626 8626 8626 8849 8626 8626 8626 8849 8849 8849 8849 8849 9084 8849 8849 8849 8626 8626 8212 8212 8413 8413 8413 8413 8413 8413 8413 8413 8413 8212 8212 8413 8626 8626 8626 8626 8626 8626 8626 8626 8626 8626 8626 8849 8626 8626 8626 8626 8626 8626 8626 8626 8626 8849 8849 8849 8849 8849 8849 8849 8626 8626 8849 8849 8849 8849 8849 8849 8849 8849 8849 8626 8626 8626 8626 8626 8626 8626 8626 8626 8626 8626 8626 8626 8849 9084 9084 6146 6146 6146 6146 6146 6146 6146 6146 6146 6146 6259 6259 6375 6375 6375 6375 6375 6375 8626 8626 8626 8626 8626 8626 8413 8413 8626 8626 8626 8626 8626 8626 8626 8626 8626 8626 8626 8626 8626 8626 8626 8626 8626 8626 8626 8626 8626 8626 8626 8626 8626 8626 8626 8626 8626 8626 8626 8626 8626 8626 8626 8626 8626 8626 8626 8626 8626 8626 8626 8626 8413 8413 8413 8413 8413 8413 8413 8413 8413 8413 8413 8413 8413 8413 8413 8413 8413 8413 8413 8413 8413 8413 8413 8413 8413 8413 8413 8413 8413 8413 8413 8413 8413 8413 8413 8413 8413 8413 8413 8413 8413 8413 8413 8413 8413 8413 8413 8413 8413 8413 8413 8413 8413 8413 8413 8413 8413 8413 8413 8626 8626 8626 8626 8626 8413 8413 8413 8413 8413 8413 8413 8413 8413 8413 8626 0 0 0 0 0 0 0 0 0 0 0 0 0 0 0 0 0 0 0 0 0 0 0 0 0 0 0 0 0 0 0 0 0 0 0 0 0 0 0 0 0 0 0 0 6889 6889 0 0 0 0 0 0 0 0 0 0 0 0 0 0 0 0 0 0 0 0 0 0 0 0 0 0 0 0 0 0 0 0 0 0 0 0 0 0 0 0 0 0 0 0 0 0 0 0 0 0 3238 3238 3238 3208 3208 3208 3208 3208 3208 3208 3178 3178 3178 3178 3178 3178 3178 3208 3208 3208 3208 3208 3208 3178 3178 3178 3178 3178 3149 3149 3149 3149 3149 3120 3120 3120 3120 3120 3092 3092 3092 3092 3092 3092 3092 3064 3064 3064 3064 3064 3064 3064 3064 3064 3064 3064 3092 3092 3092 3092 3092 3092 3092 3092 3092 3064 3064 3064 3037 3037 3064 3010 2984 2984 2984 2984 2984 2984 1688 1688 1688 1688 1688 1688 1688 1688 1688 1688 1688 1688 1688 1688 1688 1680 1680 1680 1680 1671 1671 1663 1663 1663 1663 1663 1655 1655 1655 1655 1655 1647 1647 1647 1647 1647 1647 1639 1639 1639 1632 1632 1624 1624 1624 1624 1624 1624 1624 1624 1624 1624 1616 1616 1616 1616 1616 1616 1616 1616 1616 1616 1616 1616 1616 1616 1616 1616 1616 1609 1609 1609 1609 1601 1601 1594 1594 1586 1586 1586 1586 1586 1586 1586 1586 1579 1579 1579 1579 1579 1579 1579 1579 1586 1586 1594 1601 1601 0 6146 6146 6259 6259 6259 6259 6259 6259 6259 6259 6259 6259 6259 6259 6375 6375 6259 6259 6259 6259 6259 6259 6259 6259 6259 6259 6259 6259 6259 6375 6375 6375 6375 6375 6497 6497 6497 6497 6622 6622 6622 6622 0 0 0 0 0 0 0 0 0 0 0 0 0
0 0 0 0 0 0 0 0 0 0 0 0 0 0 0 0 0 0 0 0 0 0 0 0 0 0 0 0 0 8413 8413 8626 8626 8849 8849 9084 9084 9331 9331 9331 9331 9593 9593 9593 9593 9870 9870 9870 9870 9870 9870 9870 9870 9870 9870 9870 9870 9870 9870 9593 9593 9870 9870 9593 9331 9084 9084 9084 9084 9084 8849 8849 8849 8849 8849 8849 8849 8849 8849 8849 8849 8849 8849 8849 8849 8849 8849 8849 8849 8849 8849 8849 8849 8849 8849 8849 8626 8626 8626 8413 8413 8413 8413 8413 8413 8413 8413 8413 8413 8212 8212 8413 8626 8626 8626 8626 8626 8626 8626 8626 8626 8626 8626 8849 8626 8626 8626 8626 8626 8626 8626 8626 8626 8849 8849 8849 8849 8849 8849 8849 8626 8626 8849 8849 8849 8849 8849 8849 8849 8849 8849 8626 8626 8626 8626 8626 8626 8626 8626 8626 8626 8626 8626 8626 8626 8849 9084 6146 6146 6146 6146 6146 6146 6146 6146 6259 6259 6259 6259 6375 6375 6375 6375 6375 6375 8626 8626 8626 8626 8626 8413 8413 8413 8626 8413 8413 8626 8626 8626 8849 8849 8849 8849 8849 8626 8626 8626 8626 8626 8626 8626 8626 8626 8626 8626 8626 8626 8626 8626 8626 8626 8626 8626 8626 8626 8626 8626 8626 8626 8413 8413 8413 8626 8626 8626 8626 8626 8413 8413 8413 8413 8413 8413 8413 8413 8413 8413 8413 8413 8413 8413 8413 8413 8413 8413 8413 8413 8413 8413 8413 8413 8413 8413 8413 8413 8413 8413 8413 8413 8413 8413 8413 8413 8413 8413 8413 8413 8413 8413 8413 8413 8413 8413 8413 8413 8413 8413 8413 8413 8413 8413 8413 8413 8413 8413 8413 8626 8626 8626 8626 8626 8413 8413 8413 8413 8413 8413 8413 8413 8413 8413 8413 0 0 0 0 0 0 0 0 0 0 0 0 0 0 0 0 0 0 0 0 0 0 0 0 0 0 0 0 0 0 0 0 0 0 0 0 0 0 0 0 0 0 0 0 0 0 0 0 0 0 0 0 0 0 0 0 0 0 0 0 0 0 0 0 0 0 0 0 0 0 0 0 0 0 0 0 0 0 0 0 0 0 0 0 0 0 0 0 0 0 0 0 0 0 0 0 3238 3238 3208 3208 3208 3208 3208 3208 3208 3208 3178 3178 3178 3178 3178 3178 3178 3178 3178 3178 3178 3178 3178 3178 3178 3178 3178 3149 3149 3149 3149 3120 3120 3120 3120 3120 3120 3120 3092 3092 3092 3092 3092 3092 3092 3064 3064 3064 3064 3064 3064 3064 3064 3064 3064 3064 3064 3064 3092 3092 3092 3092 3092 3092 3092 3064 3064 3064 3037 3037 3037 2984 2984 2984 2984 2984 2984 2984 1688 1688 1688 1688 1688 1688 1688 1688 1688 1688 1688 1688 1688 1688 1688 1680 1680 1680 1680 1671 1671 1663 1663 1663 1663 1663 1655 1655 1655 1655 1655 1655 1647 1647 1647 1647 1647 1639 1639 1639 1639 1632 1632 1632 1632 1632 1632 1632 1632 1632 1632 1624 1624 1616 1616 1616 1616 1616 1616 1616 1616 1616 1616 1616 1616 1616 1616 1616 1616 1616 1609 1609 1609 1601 1601 1594 1594 1586 1586 1586 1586 1586 1586 1586 1586 1586 1586 1579 1579 1579 1579 1579 1579 1579 1579 1594 1601 1601 1601 6146 6146 6259 6259 6146 6146 6146 6146 6146 6146 6259 6259 6259 6259 6375 6375 6375 6375 6375 6375 6375 6259 6259 6259 6259 6375 6259 6259 6259 6375 6375 6375 6375 6375 6497 6497 6497 6497 6622 6622 6622 6753 0 0 0 0 0 0 0 0 0 0 0 0 0
0 0 0 0 0 0 0 0 0 0 0 0 0 0 0 0 0 0 0 0 0 0 0 0 0 0 0 0 0 8413 8413 8626 8626 8849 9084 9084 9084 9331 9331 9331 9331 9593 9593 9593 9593 9870 9870 9870 9870 9870 9870 9870 9870 9870 9870 9593 9593 9593 9593 9593 9593 9593 9593 9593 9593 9331 9084 9084 9084 9084 8849 8849 8849 8849 9084 9084 9084 9084 8849 8849 8849 8849 8849 8849 8849 8849 8849 8849 8849 8849 8849 8849 8849 8849 8849 8849 8626 8626 8626 8626 8626 8626 8626 8413 8413 8413 8413 8413 8413 8212 8212 8626 8626 8626 8626 8626 8626 8626 8626 8413 8413 8626 8849 8849 8626 8626 8626 8626 8626 8626 8626 8626 8626 8626 8626 8849 8626 8626 8849 8849 8849 8849 8849 8849 8626 8626 8849 8849 8849 8849 8849 8626 8626 8626 8626 8626 8626 8626 8626 8626 8626 8626 8626 8626 8626 8626 8626 6146 6146 6146 6146 6146 6146 6146 6259 6259 6259 6259 6259 6375 6375 6375 6375 6375 6375 8626 8626 8626 8626 8413 8413 8413 8413 8626 8413 8413 8626 8626 8626 8849 8849 8849 8849 8849 8626 8626 8626 8626 8626 8626 8626 8626 8626 8626 8626 8626 8626 8626 8626 8626 8626 8626 8626 8626 8626 8626 8626 8626 8626 8413 8413 8413 8413 8626 8626 8626 8626 8413 8413 8413 8413 8413 8413 8413 8413 8413 8413 8413 8413 8413 8413 8413 8413 8413 8413 8413 8413 8413 8413 8413 8413 8413 8413 8413 8413 8413 8413 8413 8413 8413 8413 8413 8413 8413 8413 8413 8413 8413 8413 8413 8413 8626 8626 8626 8626 8626 8626 8413 8413 8413 8413 8413 8413 8413 8413 8413 8413 8626 8626 8626 8413 8413 8413 8413 8413 8413 8413 8413 8413 8413 8413 8413 0 0 0 0 0 0 0 0 0 0 0 0 0 0 0 0 0 0 0 0 0 0 0 0 0 0 0 0 0 0 0 0 0 0 0 0 0 0 0 0 0 0 0 0 0 0 0 0 0 0 0 0 0 0 0 0 0 0 0 0 0 0 0 0 0 0 0 0 0 0 0 0 0 0 0 0 0 0 0 0 0 0 0 0 0 0 0 0 0 0 0 0 0 0 0 0 3238 3238 3208 3208 3208 3208 3208 3208 3208 3208 3178 3178 3178 3178 3178 3178 3178 3178 3178 3178 3178 3178 3178 3178 3178 3178 3178 3149 3149 3149 3149 3120 3120 3120 3120 3120 3120 3120 3092 3092 3092 3092 3092 3092 3092 3064 3064 3092 3092 3064 3064 3064 3064 3064 3064 3064 3064 3064 3092 3092 3092 3092 3064 3064 3064 3064 3037 3037 3010 3010 3010 2984 2984 2984 2984 2984 2984 2984 2984 2984 1688 1688 1688 1688 1688 1688 1688 1688 1688 1688 1688 1688 1688 1680 1680 1680 1671 1671 1671 1663 1663 1663 1663 1663 1663 1663 1663 1663 1663 1655 1647 1647 1647 1647 1647 1647 1639 1639 1639 1632 1632 1632 1632 1632 1632 1632 1632 1632 1632 1624 1624 1624 1624 1624 1616 1616 1616 1616 1616 1616 1616 1616 1616 1616 1616 1616 1616 1616 1616 1609 1609 1609 1601 1601 1601 1586 1586 1586 1586 1586 1586 1586 1586 1586 1586 1579 1579 1579 1579 1579 1579 1579 1579 1601 1601 1601 1601 6259 6259 6146 6146 6146 6146 6146 6146 6146 6146 6259 6259 6259 6259 6375 6375 6375 6375 6375 6375 6375 6375 6375 6375 6375 6375 6375 6375 6375 6375 6375 6375 6375 6375 6497 6497 6497 6497 6622 6622 6622 6753 0 0 0 0 0 0 0 0 0 0 0 0 0
0 0 0 0 0 0 0 0 0 0 0 0 0 0 0 0 0 0 0 0 0 0 0 0 0 0 0 0 0 8413 8413 8626 8849 8849 9084 9084 9331 9331 9593 9331 9331 9593 9593 9593 9593 9870 9870 9870 9870 9870 9870 9870 9870 9870 9870 9593 9593 9593 9593 9593 9593 9593 9593 9593 9593 9331 9331 9331 9084 9084 8849 8849 8849 8849 9084 9084 9084 9084 9084 9084 9084 8849 8849 8849 8849 8849 8849 8849 8849 8849 8849 8849 8849 8849 8849 8849 8849 8849 8626 8626 8626 8626 8626 8413 8413 8413 8413 8413 8413 8413 8413 8626 8626 8626 8626 8626 8626 8626 8626 8413 8413 8626 8849 8849 8849 8626 8626 8626 8849 8849 8626 8626 8626 8626 8626 8849 8626 8626 8849 8849 8849 8849 8849 8849 8626 8626 8849 8849 8849 8849 8849 8413 8413 8413 8413 8413 8413 8413 8626 8626 8626 8626 8626 8626 8626 8626 8626 6146 6146 6146 6146 6146 6146 6146 6259 6259 6259 6259 6259 6375 6375 6375 6375 6375 6375 8626 8413 8413 8413 8413 8413 8413 8413 8626 8626 8626 8626 8626 8626 8849 8849 8849 8849 8849 8626 8626 8626 8626 8626 8626 8626 8626 8626 8626 8626 8626 8626 8626 8626 8626 8626 8626 8626 8626 8626 8626 8626 8626 8626 8413 8413 8413 8413 8626 8626 8626 8626 8413 8413 8413 8413 8413 8413 8413 8413 8413 8413 8413 8413 8413 8413 8413 8413 8413 8413 8413 8413 8413 8413 8413 8413 8413 8413 8413 8413 8413 8413 8413 8413 8413 8413 8626 8413 8413 8413 8413 8413 8413 8413 8413 8413 8626 8626 8626 8626 8626 8626 8413 8413 8413 8413 8413 8413 8413 8413 8413 8413 8413 8413 8413 8413 8413 8413 8413 8413 8413 8413 8413 8413 8212 8212 8212 0 0 0 0 0 0 0 0 0 0 0 0 0 0 0 0 0 0 0 0 0 0 0 0 0 0 0 0 0 0 0 0 0 0 0 0 0 0 0 0 0 0 0 0 0 0 0 0 0 0 0 0 0 0 0 0 0 0 0 0 0 0 0 0 0 0 0 0 0 0 0 0 0 0 0 0 0 0 0 0 0 0 0 0 0 0 0 0 0 0 0 0 0 0 0 3238 3238 3238 3238 3208 3208 3208 3208 3208 3208 3208 3178 3178 3178 3178 3178 3178 3178 3178 3178 3178 3178 3178 3178 3178 3178 3178 3149 3149 3149 3149 3149 3120 3120 3120 3120 3120 3120 3120 3092 3092 3092 3092 3092 3092 3092 3092 3092 3092 3092 3092 3092 3092 3064 3064 3064 3064 3064 3064 3064 3064 3064 3064 3064 3064 3064 3037 3037 3010 3010 2984 2984 2984 2984 2984 2984 2984 2984 2984 2984 2984 1696 1696 1688 1688 1688 1688 1688 1688 1688 1688 1688 1688 1688 1680 1680 1680 1671 1671 1671 1671 1671 1671 1663 1663 1663 1663 1663 1663 1663 1655 1655 1655 1655 1647 1647 1647 1639 1639 1639 1632 1632 1632 1632 1632 1632 1632 1632 1632 1632 1632 1624 1624 1624 1624 1624 1616 1616 1616 1616 1616 1616 1616 1616 1616 1616 1616 1609 1609 1616 1609 1609 1609 1609 1594 1594 1586 1586 1586 1586 1586 1586 1586 1586 1586 1586 1579 1579 1586 1586 1579 1579 1586 1601 1609 1609 1609 0 6259 6259 6146 6146 6146 6146 6146 6146 6146 6146 6259 6259 6259 6259 6375 6375 6375 6375 6375 6375 6375 6375 6375 6375 6375 6375 6375 6375 6375 6375 6375 6375 6375 6375 6497 6497 6497 6497 6622 6622 6753 6753 0 0 0 0 0 0 0 0 0 0 0 0 0
0 0 0 0 0 0 0 0 0 0 0 0 0 0 0 0 0 0 0 0 0 0 0 0 0 0 0 0 0 8626 8626 8626 8849 9084 9084 9084 9331 9331 9593 9593 9593 9593 9593 9593 9593 9870 9870 9870 9870 9870 9870 9870 9870 9870 9870 9870 9593 9593 9593 9593 9593 9593 9593 9593 9593 9331 9331 9331 9084 9084 9084 9084 9084 9084 9084 9084 9084 9084 9084 9084 9084 9084 9084 9084 9084 9084 9084 8849 8849 8849 8849 8849 8849 8849 8849 8849 8849 8849 8849 8849 8849 8626 8626 8413 8413 8626 8626 8413 8413 8626 8626 8626 8626 8626 8626 8626 8626 8626 8626 8413 8413 8626 8849 8849 8849 8849 8849 8849 8849 8849 8626 8626 8626 8626 8626 8849 8626 8626 8849 8849 8849 8849 8626 8626 8626 8626 8849 8849 8849 8849 8849 8413 8413 8413 8413 8413 8413 8413 8626 8626 8626 8626 8626 8626 8626 8626 8626 8626 6146 6146 6146 6146 6146 6259 6259 6259 6259 6259 6375 6375 6375 6375 6375 6375 6375 6375 8413 8413 8413 8413 8413 8413 8626 8626 8626 8626 8626 8626 8626 8849 8849 8849 8626 8626 8626 8626 8626 8626 8626 8626 8626 8626 8626 8626 8626 8626 8626 8626 8626 8626 8626 8626 8626 8626 8626 8626 8626 8626 8626 8413 8413 8413 8413 8626 8626 8626 8626 8413 8413 8413 8413 8413 8413 8413 8413 8413 8413 8413 8413 8413 8413 8413 8413 8413 8413 8413 8413 8413 8413 8413 8413 8413 8413 8413 8413 8413 8413 8413 8626 8626 8626 8626 8413 8413 8413 8413 8413 8413 8413 8413 8413 8626 8626 8626 8626 8626 8626 8413 8413 8413 8413 8413 8413 8413 8413 8413 8413 8413 8413 8413 8413 8413 8413 8413 8413 8413 8413 8413 8212 8212 8212 8212 0 0 0 0 0 0 0 0 0 0 0 0 0 0 0 0 0 0 0 0 0 0 0 0 0 0 0 0 0 0 0 0 0 0 0 0 0 0 0 0 0 0 0 0 0 0 0 0 0 0 0 0 0 0 0 0 0 0 0 0 0 0 0 0 0 0 0 0 0 0 0 0 0 0 0 0 0 0 0 0 0 0 0 0 0 0 0 0 0 0 0 0 0 0 3238 3238 3238 3238 3238 3208 3208 3208 3208 3208 3208 3208 3208 3208 3208 3208 3178 3178 3178 3178 3178 3178 3178 3178 3178 3178 3178 3178 3149 3149 3149 3120 3120 3120 3120 3120 3120 3120 3120 3120 3092 3092 3092 3092 3092 3092 3092 3092 3092 3092 3092 3092 3092 3064 3064 3064 3064 3064 3064 3064 3064 3064 3064 3064 3037 3037 3037 3037 3010 3010 3010 2984 2984 2984 2984 2984 2984 2984 2984 2984 2984 1705 1705 1696 1696 1688 1688 1688 1688 1688 1688 1688 1688 1688 1688 1680 1680 1671 1671 1671 1671 1671 1671 1671 1671 1663 1663 1663 1663 1663 1655 1655 1655 1655 1647 1647 1647 1647 1639 1639 1639 1632 1632 1632 1632 1632 1639 1639 1632 1632 1639 1632 1632 1632 1624 1624 1624 1616 1616 1616 1616 1616 1616 1616 1616 1616 1616 1616 1609 1609 1609 1609 1609 1609 1609 1594 1594 1586 1586 1586 1586 1586 1586 1586 1586 1586 1586 1579 1579 1586 1586 1586 1586 1586 1601 1601 1601 0 0 6038 6038 6038 6038 6038 6038 6146 6146 6146 6259 6259 6259 6259 6259 6259 6259 6375 6375 6259 6259 6259 6375 6375 6375 6375 6375 6375 6375 6375 6375 6375 6375 6375 6375 6497 6497 6497 6497 6622 6622 6622 6622 0 0 0 0 0 0 0 0 0 0 0 0 0
0 0 0 0 0 0 0 0 0 0 0 0 0 0 0 0 0 0 0 0 0 0 0 0 0 0 0 0 0 8626 8626 8626 8849 9084 9084 9331 9331 9331 9593 9593 9593 9593 9593 9593 9593 9870 9870 9870 9870 9593 9593 9870 9870 9870 9870 9870 9870 9593 9593 9593 9593 9593 9593 9593 9593 9331 9331 9331 9331 9331 9084 9084 9084 9084 9084 9084 9084 9084 9084 9084 9084 8849 8849 8849 8849 8849 8849 8849 8849 8849 8849 8849 8849 8849 8849 8849 8849 8849 8849 8849 8849 8849 8849 8626 8626 8849 8849 8849 8849 8849 8849 8849 8849 8849 8626 8626 8626 8626 8626 8413 8413 8626 8849 8849 8849 8849 8849 8849 8849 8849 8626 8626 8849 8849 8849 8849 8626 8626 8849 8849 8849 8626 8626 8626 8849 8849 8849 8849 8849 8849 8626 8413 8413 8413 8413 8413 8413 8413 8626 8626 8626 8626 8626 8626 8626 8626 8626 8626 6146 6146 6146 6146 6146 6259 6259 6375 6375 6375 6375 6375 6375 6375 6375 6375 6375 6375 8626 8626 8413 8413 8626 8626 8626 8626 8626 8626 8626 8626 8626 8849 8849 8849 8626 8626 8626 8626 8626 8626 8626 8626 8626 8626 8626 8626 8626 8626 8626 8626 8626 8626 8626 8626 8626 8626 8626 8626 8626 8626 8626 8413 8413 8413 8413 8626 8626 8626 8626 8413 8413 8413 8413 8413 8413 8413 8413 8413 8413 8413 8413 8413 8413 8413 8413 8413 8413 8413 8413 8413 8413 8413 8413 8413 8413 8212 8212 8212 8413 8626 8849 0 0 0 8413 8413 8413 8413 8413 8413 8413 8413 8413 8626 8626 8626 8626 8626 8626 8413 8413 8413 8413 8413 8413 8413 8413 8413 8413 8413 8413 8413 8413 8413 8413 8413 8413 8413 8413 8413 8212 8212 8212 8212 0 0 0 0 0 0 0 0 0 0 0 0 0 0 0 0 0 0 0 0 0 0 0 0 0 0 0 0 0 0 0 0 0 0 0 0 0 0 0 0 0 0 0 0 0 0 0 0 0 0 0 0 0 0 0 0 0 0 0 0 0 0 0 0 0 0 0 0 0 0 0 0 0 0 0 0 0 0 0 0 0 0 0 0 0 0 0 0 0 0 0 0 0 3269 3238 3238 3238 3238 3238 3208 3208 3208 3208 3208 3208 3208 3208 3208 3208 3208 3178 3178 3178 3178 3178 3178 3178 3178 3178 3178 3178 3178 3149 3149 3149 3120 3120 3120 3120 3120 3120 3120 3120 3120 3120 3092 3092 3092 3092 3092 3092 3092 3092 3092 3092 3092 3092 3064 3064 3064 3064 3064 3064 3064 3064 3064 3064 3064 3037 3037 3037 3037 3010 3010 3010 3010 2984 2984 2984 2984 2984 2984 2984 2984 2984 1705 1705 1705 1696 1696 1688 1688 1688 1688 1688 1688 1688 1688 1688 1680 1671 1671 1671 1671 1671 1671 1671 1671 1671 1663 1663 1663 1663 1663 1655 1655 1655 1655 1647 1647 1647 1647 1639 1632 1632 1632 1632 1632 1632 1632 1639 1639 1632 1632 1639 1639 1632 1632 1624 1624 1624 1616 1616 1616 1616 1616 1616 1616 1616 1616 1616 1609 1609 1609 1609 1609 1609 1609 1586 1586 1586 1586 1586 1586 1586 1586 1586 1586 1586 1586 1586 1586 1586 1586 1586 1586 1586 1586 1586 1594 1594 0 0 6038 6038 6038 6038 6038 6038 6146 6146 6146 6259 6259 6259 6259 6259 6259 6259 6259 6259 6259 6259 6259 6375 6375 6375 6259 6259 6375 6375 6375 6259 6259 6259 6375 6375 6497 6497 6497 6497 6497 6622 6622 6622 0 0 0 0 0 0 0 0 0 0 0 0 0
0 0 0 0 0 0 0 0 0 0 0 0 0 0 0 0 0 0 0 0 0 0 0 0 0 0 0 0 0 8626 8626 8626 9084 9084 9084 9331 9331 9331 9593 9593 9593 9593 9593 9593 9593 9870 9870 9870 9593 9593 9593 9870 9870 9870 9870 9870 9870 9593 9593 9593 9593 9593 9593 9593 9593 9593 9593 9593 9331 9331 9084 9084 9084 9084 9084 9084 9084 9084 9084 9084 9084 8849 8849 8849 8849 8849 8849 8849 8849 8849 8849 8849 8849 8849 8849 8849 9084 9084 9084 9084 8849 8849 8849 8849 8849 8849 8849 8849 8849 8849 8849 8849 8849 8849 8849 8626 8626 8849 8849 8849 8849 8849 8849 8849 8849 8849 8849 8849 8849 8849 8849 8849 8849 8849 8849 8849 8849 8849 8849 8849 8849 8626 8626 8626 8849 8849 8849 8849 8849 8849 8626 8413 8413 8413 8413 8413 8413 8413 8413 8413 8626 8626 8626 8626 8626 8626 8626 8626 6146 6146 6146 6146 6146 6259 6259 6375 6375 6375 6375 6375 6375 6375 6375 6375 6375 6375 8413 8413 8413 8413 8626 8626 8626 8626 8626 8626 8626 8626 8626 8849 8849 8849 8626 8626 8626 8626 8626 8626 8626 8626 8626 8626 8626 8626 8626 8626 8626 8626 8626 8626 8626 8626 8626 8626 8626 8626 8626 8626 8626 8413 8413 8413 8413 8626 8626 8626 8626 8413 8413 8413 8413 8413 8413 8413 8413 8413 8413 8413 8413 8413 8413 8413 8413 8413 8413 8413 8413 8413 8413 8413 8413 8413 8413 8212 8212 8212 0 0 0 0 0 0 0 0 0 8413 8413 8413 8413 8413 8626 8626 8626 8626 8626 8626 8626 8413 8413 8413 8413 8413 8413 8413 8413 8413 8413 8413 8413 8413 8413 8413 8413 8413 8413 8413 8413 8413 8212 8019 8019 8212 0 0 0 0 0 0 0 0 0 0 0 0 0 0 0 0 0 0 0 0 0 0 0 0 0 0 0 0 0 0 0 0 0 0 0 0 0 0 0 0 0 0 0 0 0 0 0 0 0 0 0 0 0 0 0 0 0 0 0 0 0 0 0 0 0 0 0 0 0 0 0 0 0 0 0 0 0 0 0 0 0 0 0 0 0 0 0 0 0 0 0 0 0 3269 3238 3238 3238 3238 3238 3208 3208 3208 3208 3208 3208 3208 3208 3208 3208 3208 3208 3208 3178 3178 3178 3178 3178 3178 3178 3178 3178 3178 3149 3149 3149 3120 3120 3120 3120 3149 3120 3120 3149 3120 3120 3092 3092 3092 3092 3092 3092 3092 3092 3092 3092 3092 3092 3092 3064 3064 3064 3064 3064 3064 3064 3064 3064 3037 3037 3037 3037 3037 3037 3037 3010 3010 3010 2984 2984 2984 2984 2958 2958 2958 2958 1705 1705 1705 1705 1696 1696 1696 1696 1688 1688 1688 1688 1688 1688 1680 1671 1671 1671 1671 1671 1671 1671 1671 1671 1663 1663 1663 1663 1663 1655 1655 1655 1655 1647 1647 1647 1647 1639 1632 1632 1632 1632 1632 1632 1632 1639 1639 1639 1639 1639 1639 1632 1632 1632 1632 1632 1624 1624 1616 1616 1616 1616 1616 1616 1616 1616 1609 1609 1609 1609 1609 1609 1609 1586 1586 1586 1586 1586 1586 1586 1586 1586 1586 1586 1586 1586 1586 1586 1586 1586 1586 1586 1586 1586 1586 0 0 0 0 6038 6038 6038 6038 6038 6146 6146 6146 6259 6259 6259 6146 6146 6146 6259 6259 6259 6146 6146 6259 6259 6375 6375 6259 6259 6375 6375 6375 6259 6259 6259 6375 6375 6497 6497 6497 6497 6497 6622 6622 6622 0 0 0 0 0 0 0 0 0 0 0 0 0
0 0 0 0 0 0 0 0 0 0 0 0 0 0 0 0 0 0 0 0 0 0 0 0 0 0 0 0 0 8626 8626 8626 8849 9084 9084 9331 9331 9331 9593 9593 9593 9593 9870 9870 9870 9870 9870 9870 9593 9593 9593 9593 9593 9593 9593 9593 9593 9870 9593 9593 9593 9593 9593 9593 9593 9593 9593 9593 9331 9331 9084 9084 9084 9084 9331 9331 9331 9331 9331 9084 9084 8626 8626 8626 8849 8849 8849 8849 8849 8849 8849 8849 8849 8849 8849 8849 8849 8849 8849 8849 8849 8849 8849 8849 8849 8849 8849 8849 8849 8849 8849 8849 8849 8849 8849 8849 8849 8849 8626 8626 8626 8849 8849 8849 8849 8849 8849 8849 8849 8849 8849 8849 8849 8849 8849 8849 8849 8626 8626 8626 8849 8626 8626 8626 8626 8849 8849 8849 8849 8849 8626 8413 8413 8413 8413 8413 8413 8413 8413 8413 8626 8626 8626 8626 8413 8413 8413 8413 8626 6259 6259 6146 6146 6259 6259 6375 6375 6375 6375 6375 6375 6375 6375 6375 6375 6375 8019 8413 8413 8413 8626 8626 8626 8626 8626 8626 8626 8626 8626 8626 8626 8626 8626 8626 8626 8626 8626 8626 8626 8626 8626 8626 8626 8626 8626 8626 8626 8626 8626 8626 8626 8626 8626 8626 8626 8626 8626 8626 8626 8626 8626 8626 8626 8626 8626 8626 8626 8413 8413 8413 8413 8413 8413 8413 8413 8413 8413 8413 8413 8626 8626 8626 8413 8413 8413 8413 8413 8413 8413 8413 8413 8413 8413 8626 8212 8212 0 0 0 0 0 0 0 0 0 8413 8413 8413 8413 8413 8413 8413 8413 8413 8413 8413 8413 8413 8413 8413 8413 8413 8413 8413 8413 8413 8413 8413 8413 8413 8413 8413 8413 8413 8413 8413 8413 8413 8212 8019 8019 8019 0 0 0 0 0 0 0 0 0 0 0 0 0 0 0 0 0 0 0 0 0 0 0 0 0 0 0 0 0 0 0 0 0 0 0 0 0 0 0 0 0 0 0 0 0 0 0 0 0 0 0 0 0 0 0 0 0 0 0 0 0 0 0 0 0 0 0 0 0 0 0 0 0 0 0 0 0 0 0 0 0 0 0 0 0 0 0 0 0 0 0 0 0 0 3238 3238 3238 3238 3238 3208 3208 3208 3208 3208 3208 3208 3208 3208 3208 3208 3208 3208 3178 3178 3178 3178 3178 3178 3178 3178 3178 3178 3149 3149 3149 3120 3120 3120 3149 3149 3149 3149 3149 3120 3120 3092 3092 3092 3092 3092 3064 3064 3092 3092 3092 3092 3092 3092 3092 3092 3064 3064 3064 3064 3064 3064 3037 3037 3037 3037 3037 3037 3037 3037 3037 3010 3010 3010 2984 2984 2984 2958 2958 2958 2958 1713 1713 1713 1705 1696 1696 1696 1688 1688 1688 1688 1688 1688 1688 1680 1671 1671 1671 1671 1671 1671 1671 1671 1671 1671 1663 1663 1663 1663 1655 1655 1655 1655 1655 1647 1647 1647 1639 1639 1639 1639 1639 1639 1632 1632 1639 1639 1639 1639 1639 1639 1639 1639 1632 1632 1632 1624 1624 1624 1624 1616 1616 1616 1616 1609 1609 1609 1609 1609 1609 1609 1601 1601 1601 1594 1594 1594 1586 1586 1586 1586 1586 1586 1586 1586 1586 1586 1586 1586 1586 1586 1586 1586 1586 1586 0 0 0 0 6146 6038 6038 6146 6146 6146 6146 6146 6259 6146 6146 6146 6146 6146 6146 6146 6146 6146 6146 6146 6259 6259 6259 6259 6259 6259 6259 6375 6375 6259 6259 6259 6259 6375 6375 6497 6497 6497 6622 6622 6622 0 0 0 0 0 0 0 0 0 0 0 0 0
0 0 0 0 0 0 0 0 0 0 0 0 0 0 0 0 0 0 0 0 0 0 0 0 0 0 0 0 0 8626 8626 8626 8849 9084 9084 9084 9331 9331 9593 9593 9593 9870 9870 9870 9870 9870 9870 9870 9870 9593 9593 9593 9593 9593 9593 9593 9593 9870 9593 9593 9593 9593 9593 9593 9593 9593 9593 9331 9331 9331 9084 9084 9084 9084 9331 9331 9331 9331 9593 9593 8626 8626 8626 8626 8849 8849 8849 8849 8849 8849 8626 8626 8849 8849 8849 8849 8849 8849 8849 8849 8849 8849 8849 8626 8626 8849 8849 8849 8849 8849 8849 8849 8849 8849 8849 8849 8849 8849 8626 8626 8626 8849 8849 8626 8626 8626 8626 8626 8626 8626 8849 8849 8626 8626 8849 8849 8849 8626 8626 8626 8849 8626 8626 8626 8626 8849 8849 8849 8849 8626 8626 8626 8413 8413 8413 8413 8413 8413 8413 8413 8626 8626 8626 8626 8413 8413 8212 8212 6375 6259 6259 6259 6259 6259 6259 6259 6259 6259 6375 6375 6375 6375 6375 6375 6375 8019 8019 8413 8413 8413 8626 8626 8626 8626 8626 8626 8626 8626 8626 8626 8626 8626 8626 8626 8626 8626 8626 8626 8413 8413 8413 8626 8626 8626 8413 8413 8413 8626 8626 8626 8413 8413 8626 8626 8626 8626 8626 8626 8626 8413 8413 8413 8413 8626 8626 8626 8626 8413 8413 8413 8413 8413 8413 8413 8413 8413 8413 8413 8413 8626 8626 8626 8413 8413 8413 8413 8413 8626 8413 8413 8413 8413 8626 0 0 0 0 0 0 0 0 0 0 0 0 0 8413 8413 8413 8413 8413 8413 8413 8413 8413 8413 8413 8413 8413 8413 8413 8413 8413 8413 8413 8413 8413 8413 8413 8413 8413 8413 8413 8413 8413 8413 8413 8413 8212 8019 8019 8019 0 0 0 0 0 0 0 0 0 0 0 0 0 0 0 0 0 0 0 0 0 0 0 0 0 0 0 0 0 0 0 0 0 0 0 0 0 0 0 0 0 0 0 0 0 0 0 0 0 0 0 0 0 0 0 0 0 0 0 0 0 0 0 0 0 0 0 0 0 0 0 0 0 0 0 0 0 0 0 0 0 0 0 0 0 0 0 0 0 0 0 0 0 0 0 3238 3238 3238 3238 3208 3208 3208 3208 3208 3208 3208 3208 3208 3208 3208 3208 3178 3178 3178 3178 3178 3178 3178 3178 3178 3178 3178 3149 3149 3149 3149 3149 3149 3149 3149 3149 3149 3149 3120 3120 3092 3092 3092 3092 3092 3064 3064 3064 3092 3092 3092 3092 3092 3092 3092 3064 3064 3064 3064 3037 3037 3037 3037 3037 3037 3037 3037 3037 3037 3037 3010 3010 3010 2984 2984 2984 2984 2958 2958 2958 1713 1713 1713 1705 1696 1696 1696 1688 1688 1688 1688 1688 1688 1688 1680 1680 1671 1671 1671 1671 1671 1671 1671 1671 1671 1671 1671 1663 1663 1655 1655 1655 1655 1655 1655 1655 1647 1647 1639 1639 1639 1639 1639 1632 1632 1639 1639 1639 1639 1639 1639 1639 1639 1632 1632 1632 1632 1632 1624 1624 1616 1616 1616 1616 1609 1609 1609 1609 1609 1609 1609 1601 1601 1601 1594 1594 1594 1594 1586 1586 1586 1586 1586 1586 1586 1586 1586 1586 1586 1586 1586 1586 1586 1586 0 0 0 0 0 6146 6038 6038 6038 6146 6146 6146 6146 6259 6146 6146 6146 6146 6146 6146 6146 6146 6146 6146 6146 6259 6259 6259 6259 6259 6259 6259 6259 6259 6259 6259 6259 6259 6375 6375 6375 6497 6497 6497 6622 6622 0 0 0 0 0 0 0 0 0 0 0 0 0
0 0 0 0 0 0 0 0 0 0 0 0 0 0 0 0 0 0 0 0 0 0 0 0 0 0 0 0 0 8849 8849 8849 9084 9084 9084 9084 9331 9331 9331 9593 9593 9870 9870 9870 9870 9870 9870 9870 9593 9593 9593 9593 9593 9593 9593 9593 9593 9870 9870 9870 9593 9593 9593 9593 9593 9331 9331 9331 9331 9331 9084 9084 8849 8849 9084 9084 8849 8849 8849 8626 8626 8413 8413 8413 8626 8626 8626 8626 8626 8626 8626 8626 8849 8849 8849 8849 8849 8849 8849 8849 8626 8626 8626 8626 8626 8626 8626 8849 8849 8849 8849 8849 8849 8626 8626 8626 8626 8626 8626 8626 8626 8626 8626 8626 8626 8626 8626 8626 8626 8626 8626 8626 8626 8626 8626 8626 8413 8413 8626 8626 8626 8626 8626 8626 8626 8626 8626 8849 8849 8626 8626 8626 8413 8413 8413 8413 8413 8413 8626 8626 8626 8626 8626 8626 8413 8413 8019 8019 6375 6259 6259 6259 6259 6259 6259 6259 6259 6259 6375 6375 6375 6375 6375 6259 6259 6259 8413 8413 8413 8413 8626 8626 8626 8626 8626 8626 8626 8626 8626 8626 8626 8626 8626 8626 8626 8626 8626 8626 8413 8413 8413 8413 8626 8626 8413 8413 8413 8626 8626 8626 8413 8413 8626 8626 8626 8626 8626 8626 8626 8413 8413 8413 8413 8626 8626 8626 8626 8413 8413 8413 8413 8413 8413 8413 8413 8626 8626 8626 8626 8626 8626 8626 8413 8413 8413 8413 8413 8413 8413 8212 8212 8413 0 0 0 0 0 0 0 0 0 0 0 0 0 0 0 0 8626 8413 8413 8413 8413 8413 8413 8413 8413 8413 8413 8413 8413 8413 8413 8413 8413 8413 8413 8413 8413 8413 8413 8413 8413 8413 8413 8212 8212 8413 8212 8212 8212 8212 8212 0 0 0 0 0 0 0 0 0 0 0 0 0 0 0 0 0 0 0 0 0 0 0 0 0 0 0 0 0 0 0 0 0 0 0 0 0 0 0 0 0 0 0 0 0 0 0 0 0 0 0 0 0 0 0 0 0 0 0 0 0 0 0 0 0 0 0 0 0 0 0 0 0 0 0 0 0 0 0 0 0 0 0 0 0 0 0 0 0 0 0 0 0 0 0 3238 3238 3238 3208 3208 3208 3208 3208 3208 3208 3208 3208 3208 3208 3208 3178 3178 3178 3178 3178 3178 3178 3178 3178 3178 3149 3149 3149 3149 3120 3120 3149 3149 3149 3149 3149 3149 3120 3120 3092 3092 3092 3092 3092 3064 3064 3064 3092 3092 3092 3092 3092 3092 3092 3064 3064 3064 3064 3037 3037 3037 3037 3037 3037 3037 3037 3037 3037 3037 3010 3010 2984 2984 2984 2984 2984 2958 2958 2958 2958 1713 1713 1705 1696 1696 1696 1696 1696 1696 1688 1688 1688 1688 1680 1680 1671 1671 1671 1671 1671 1671 1671 1671 1671 1671 1663 1663 1655 1655 1655 1663 1655 1655 1655 1655 1655 1647 1639 1639 1639 1639 1632 1632 1632 1639 1639 1632 1632 1639 1639 1639 1639 1632 1632 1632 1632 1632 1624 1624 1616 1616 1616 1616 1609 1609 1609 1609 1609 1609 1609 1609 1609 1601 1601 1601 1594 1594 1594 1594 1594 1586 1586 1586 1586 1586 1586 1586 1586 1586 1586 1579 1579 0 0 0 0 0 6146 6146 6038 6038 6038 6146 6146 6146 6146 6259 6146 6146 6146 6146 6146 6146 6038 6038 6146 6146 6146 6146 6259 6259 6259 6259 6259 6259 6259 6259 6259 6259 6259 6259 6375 6375 6375 6497 6497 6497 6497 6497 0 0 0 0 0 0 0 0 0 0 0 0 0
0 0 0 0 0 0 0 0 0 0 0 0 0 0 0 0 0 0 0 0 0 0 0 0 0 0 0 0 0 8849 8849 9084 9084 9084 9084 9084 9331 9331 9331 9331 9593 9593 9593 9593 9870 9870 9870 9870 9593 9593 9593 9870 9870 9870 9870 9870 9870 9870 9870 9870 9593 9593 9593 9593 9593 9331 9331 9331 9331 9331 9331 9084 8849 8849 9084 8849 8849 8849 8626 8626 8626 8413 8413 8413 8626 8626 8626 8626 8626 8626 8626 8626 8626 8626 8849 8849 8849 8849 8849 8849 8626 8626 8626 8626 8626 8626 8626 8626 8626 8626 8849 8626 8626 8413 8413 8413 8413 8626 8626 8626 8626 8626 8413 8413 8413 8413 8413 8413 8413 8626 8626 8626 8413 8413 8626 8413 8212 8212 8413 8626 8626 8626 8626 8626 8626 8626 8626 8849 8849 8849 8849 8849 8626 8626 8626 8626 8626 8626 8626 8626 8626 8413 8413 8413 8413 8212 8019 6375 6375 6259 6259 6259 6259 6259 6259 6259 6259 6259 6375 6375 6375 6375 6375 6259 6259 6259 8212 8413 8413 8413 8626 8626 8626 8626 8626 8626 8413 8413 8626 8626 8626 8626 8626 8626 8626 8626 8626 8413 8413 8413 8413 8413 8413 8413 8413 8413 8413 8626 8626 8626 8626 8626 8626 8626 8626 8626 8626 8626 8626 8626 8626 8626 8626 8626 8626 8626 8626 8413 8413 8413 8413 8413 8413 8413 8413 8413 8413 8413 8626 8626 8626 8626 8413 8413 8413 8413 8413 8413 8413 8212 8212 8413 0 0 0 0 0 0 0 0 0 0 0 0 0 0 0 0 0 8626 8413 8413 8413 8413 8413 8413 8413 8413 8413 8413 8413 8413 8413 8413 8413 8413 8413 8413 8413 8413 8413 8413 8413 8413 8413 8212 8212 8212 8212 8212 8212 8212 8212 0 0 0 0 0 0 0 0 0 0 0 0 0 0 0 0 0 0 0 0 0 0 0 0 0 0 0 0 0 0 0 0 0 0 0 0 0 0 0 0 0 0 0 0 0 0 0 0 0 0 0 0 0 0 0 0 0 0 0 0 0 0 0 0 0 0 0 0 0 0 0 0 0 0 0 0 0 0 0 0 0 0 0 0 0 0 0 0 0 0 0 0 0 0 3238 3238 3238 3238 3208 3208 3208 3208 3208 3208 3208 3208 3208 3208 3208 3208 3208 3178 3178 3178 3178 3178 3178 3178 3178 3178 3149 3149 3149 3149 3120 3120 3149 3149 3149 3149 3149 3149 3120 3120 3092 3092 3092 3092 3092 3064 3064 3064 3064 3092 3092 3092 3092 3092 3092 3064 3064 3064 3064 3037 3037 3037 3037 3037 3037 3037 3037 3037 3037 3037 3037 3037 2984 2984 2984 2984 2984 2958 2958 2958 2958 1713 1713 1705 1696 1696 1696 1696 1696 1696 1696 1696 1688 1688 1680 1680 1671 1671 1671 1671 1671 1671 1671 1671 1671 1671 1663 1655 1655 1655 1655 1663 1663 1655 1655 1655 1655 1647 1639 1639 1639 1632 1632 1632 1632 1639 1639 1632 1632 1639 1639 1639 1639 1632 1632 1632 1632 1632 1624 1624 1616 1616 1616 1616 1609 1609 1609 1609 1609 1609 1609 1609 1609 1601 1601 1601 1601 1601 1594 1594 1594 1594 1586 1586 1586 1586 1586 1586 1586 1586 1586 1579 1579 0 0 0 0 0 6146 6146 6038 6038 6038 6146 6146 6146 6146 6146 6146 6146 6146 6146 6146 6146 6038 6038 6146 6146 6146 6146 6146 6146 6146 6146 6146 6146 6259 6259 6259 6259 6259 6259 6259 6259 6375 6375 6375 6375 6497 6497 0 0 0 0 0 0 0 0 0 0 0 0 0
0 0 0 0 0 0 0 0 0 0 0 0 0 0 0 0 0 0 0 0 0 0 0 0 0 0 0 0 0 8849 8849 9084 9084 9084 9084 9084 9084 9084 9084 9331 9331 9331 9331 9593 9593 9593 9593 9593 9593 9593 9593 9593 9593 9870 9870 9870 9870 9870 9870 9870 9870 9593 9593 9593 9593 9331 9331 9331 9331 9331 9084 9084 8849 8849 8849 8626 8626 8626 8626 8626 8626 8413 8413 8413 8626 8626 8626 8626 8626 8626 8626 8626 8626 8626 8626 8626 8849 8849 8849 8849 8849 8626 8626 8626 8626 8626 8626 8626 8626 8626 8413 8413 8626 8413 8413 8413 8413 8413 8413 8413 8626 8626 8413 8413 8212 8212 8212 8212 8212 8212 8626 8413 8212 8212 8413 8212 8212 8212 8212 8413 8413 8626 8626 8626 8626 8849 8849 8849 8849 8849 8849 8849 8626 8626 8626 8626 8626 8626 8626 8626 8626 8413 8413 8413 8413 8212 8212 6375 6259 6259 6259 6259 6259 6259 6259 6259 6259 6259 6259 6259 6375 6375 6375 6259 6259 6259 8212 8413 8413 8413 8413 8413 8413 8626 8626 8626 8413 8413 8626 8626 8626 8626 8626 8626 8626 8626 8626 8413 8413 8413 8413 8413 8413 8413 8413 8413 8413 8413 8413 8626 8626 8626 8626 8626 8626 8626 8626 8413 8413 8626 8626 8626 8626 8626 8626 8626 8626 8413 8413 8413 8413 8413 8413 8413 8413 8413 8413 8413 8413 8413 8413 8626 8413 8413 8413 8413 8413 8413 8413 8212 8212 8413 8413 0 0 0 0 0 0 0 0 0 0 0 0 0 0 0 0 8413 8413 8413 8413 8413 8413 8413 8413 8413 8413 8413 8413 8212 8212 8212 8212 8413 8413 8413 8413 8413 8413 8413 8413 8413 8413 8413 8413 8212 8212 8212 8212 8212 0 0 0 0 0 0 0 0 0 0 0 0 0 0 0 0 0 0 0 0 0 0 0 0 0 0 0 0 0 0 0 0 0 0 0 0 0 0 0 0 0 0 0 0 0 0 0 0 0 0 0 0 0 0 0 0 0 0 0 0 0 0 0 0 0 0 0 0 0 0 0 0 0 0 0 0 0 0 0 0 0 0 0 0 0 0 0 0 0 0 0 0 0 0 0 3238 3238 3238 3238 3208 3208 3208 3208 3208 3208 3208 3208 3208 3208 3208 3208 3208 3178 3178 3178 3178 3178 3178 3178 3178 3178 3178 3149 3149 3149 3120 3120 3149 3149 3149 3149 3149 3149 3120 3092 3092 3092 3064 3064 3092 3064 3064 3064 3064 3092 3092 3092 3092 3092 3064 3064 3064 3064 3064 3037 3037 3037 3037 3037 3037 3037 3037 3037 3037 3037 3037 3037 3010 3010 2984 2984 2984 2958 2958 2958 2958 1713 1713 1713 1705 1696 1696 1696 1696 1696 1696 1696 1696 1688 1680 1680 1671 1671 1671 1671 1671 1671 1671 1671 1671 1671 1663 1655 1655 1655 1655 1663 1663 1655 1655 1655 1655 1647 1647 1639 1639 1632 1632 1639 1639 1639 1639 1639 1639 1639 1639 1639 1639 1639 1632 1632 1632 1632 1624 1624 1616 1616 1616 1616 1616 1616 1609 1609 1609 1609 1609 1609 1609 1601 1601 1601 1601 1601 1594 1594 1594 1594 1586 1586 1586 1586 1586 1586 1586 1586 1586 1579 1579 0 0 0 0 6259 6146 6146 6146 6146 6146 6146 6146 6146 6146 6146 6146 6146 6146 6146 6146 6146 6146 6146 6146 6146 6146 6146 6038 6038 6146 6146 6146 6146 6259 6259 6259 6259 6259 6259 6259 6259 6375 6375 6375 6375 6497 6497 0 0 0 0 0 0 0 0 0 0 0 0 0
0 0 0 0 0 0 0 0 0 0 0 0 0 0 0 0 0 0 0 0 0 0 0 0 0 0 0 0 0 8849 8849 8849 9084 9084 9084 9084 9084 9084 9084 9331 9331 9331 9331 9331 9593 9593 9593 9593 9593 9593 9593 9593 9593 9870 9870 9870 9870 9870 9870 9870 9870 9870 9870 9593 9593 9331 9331 9084 9084 9084 8849 8849 8849 8849 8849 8626 8626 8626 8626 8626 8626 8413 8413 8413 8626 8626 8626 8626 8626 8413 8413 8626 8626 8626 8626 8626 8626 8626 8626 8626 8626 8626 8626 8626 8626 8626 8626 8626 8626 8626 8413 8413 8626 8413 8413 8413 8413 8413 8413 8413 8413 8413 8212 8019 8019 8019 8019 8019 8019 8212 8413 8212 8212 8212 8212 8019 8019 8019 8019 8212 8413 8413 8626 8626 8626 8849 8849 8849 8849 8849 8849 8626 8626 8626 8626 8626 8626 8626 8626 8626 8626 8626 8626 8413 8413 8413 8413 8413 6259 6259 6259 6259 6259 6259 6259 6259 6259 6259 6259 6259 6375 6375 6375 6259 6259 8212 8212 8413 8413 8413 8413 8413 8413 8413 8413 8413 8413 8413 8626 8626 8626 8626 8626 8626 8626 8626 8626 8626 8413 8413 8413 8413 8626 8413 8413 8413 8413 8413 8413 8626 8626 8626 8626 8626 8626 8626 8626 8413 8413 8626 8626 8626 8626 8626 8626 8626 8626 8413 8413 8413 8413 8413 8413 8413 8413 8413 8413 8413 8413 8413 8413 8626 8413 8413 8413 8413 8413 8413 8413 8212 8212 8413 8413 0 0 0 0 0 0 0 0 0 0 0 0 0 0 0 0 8413 8212 8212 8212 8212 8413 8212 8212 8413 8413 8413 8413 8212 8212 8212 8212 8212 8212 8413 8413 8413 8413 8413 8413 8413 8413 8413 8413 8212 8212 8212 8212 8212 0 0 0 0 0 0 0 0 0 0 0 0 0 0 0 0 0 0 0 0 0 0 0 0 0 0 0 0 0 0 0 0 0 0 0 0 0 0 0 0 0 0 0 0 0 0 0 0 0 0 0 0 0 0 0 0 0 0 0 0 0 0 0 0 0 0 0 0 0 0 0 0 0 0 0 0 0 0 0 0 0 0 0 0 0 0 0 0 0 0 0 0 0 0 0 3238 3238 3238 3238 3208 3208 3208 3208 3208 3208 3208 3208 3208 3208 3208 3208 3208 3178 3178 3178 3178 3178 3178 3178 3178 3178 3178 3149 3149 3149 3149 3149 3149 3149 3149 3149 3149 3149 3120 3092 3092 3092 3064 3064 3064 3064 3064 3064 3092 3092 3092 3092 3092 3092 3064 3064 3064 3064 3064 3037 3037 3037 3064 3037 3037 3037 3037 3037 3037 3037 3037 3037 3037 3010 3010 2984 2984 2958 2958 2958 1713 1713 1713 1705 1696 1696 1696 1696 1696 1696 1696 1688 1688 1688 1680 1680 1671 1671 1671 1671 1671 1671 1671 1671 1671 1671 1663 1663 1655 1655 1655 1663 1663 1655 1655 1655 1655 1655 1647 1647 1647 1639 1639 1639 1639 1639 1639 1639 1639 1639 1639 1639 1639 1639 1639 1639 1639 1632 1624 1624 1616 1616 1616 1616 1616 1616 1609 1609 1609 1609 1609 1609 1609 1601 1601 1601 1601 1601 1594 1594 1594 1594 1594 1586 1586 1586 1586 1586 1579 1579 1579 1586 1586 0 0 0 0 6259 6146 6146 6146 6146 6146 6146 6146 6146 6146 6146 6146 6146 6146 6146 6146 6146 6146 6146 6146 6146 6146 6146 6038 6038 6146 6146 6146 6146 6146 6146 6259 6259 6259 6259 6375 6375 6375 6375 6375 6375 6375 6375 0 0 0 0 0 0 0 0 0 0 0 0 0
0 0 0 0 0 0 0 0 0 0 0 0 0 0 0 0 0 0 0 0 0 0 0 0 0 0 0 0 0 8849 8849 8849 9084 9084 9084 9084 9331 9084 9084 9331 9331 9331 9084 9084 9331 9593 9593 9593 9593 9593 9593 9593 9870 9870 9870 9870 9870 9870 9870 9870 9870 9870 9593 9593 9593 9331 9084 8849 8849 8849 8849 8849 8626 8626 8626 8626 8626 8413 8413 8413 8413 8413 8413 8413 8626 8626 8626 8626 8626 8413 8413 8626 8626 8626 8626 8626 8626 8626 8626 8413 8413 8413 8413 8413 8413 8413 8626 8626 8626 8626 8626 8413 8413 8212 8212 8212 8212 8212 8212 8212 8413 8413 8212 8019 8019 8019 8019 8019 8019 8019 8212 8212 8019 8019 8019 8019 8019 8019 8019 8212 8212 8413 8626 8626 8626 8849 8849 8849 8849 8849 8849 8626 8626 8626 8626 8626 8626 8626 8626 8626 8626 8626 8626 8626 8626 8413 8413 8413 8413 8413 6259 6259 6259 6259 6259 6259 6259 6259 6259 6259 6259 6259 6375 6375 8413 8212 8212 8413 8413 8413 8413 8413 8413 8413 8413 8413 8413 8413 8626 8626 8626 8626 8626 8626 8626 8626 8626 8626 8413 8413 8413 8413 8626 8626 8413 8413 8413 8413 8626 8626 8626 8626 8626 8626 8413 8413 8413 8413 8626 8626 8626 8626 8626 8626 8626 8626 8626 8413 8413 8413 8413 8413 8413 8413 8413 8413 8413 8413 8413 8413 8413 8413 8413 8413 8413 8413 8413 8413 8413 8413 8212 8212 0 0 0 0 0 0 0 0 0 0 0 0 0 0 0 0 0 8212 8212 8212 8212 8212 8212 8212 8212 8413 8413 8413 8413 8212 8212 8212 8212 8212 8212 8413 8413 8413 8413 8413 8413 8413 8413 8413 8413 8212 8212 8212 8212 8212 0 0 0 0 0 0 0 0 0 0 0 0 0 0 0 0 0 0 0 0 0 0 0 0 0 0 0 0 0 0 0 0 0 0 0 0 0 0 0 0 0 0 0 0 0 0 0 0 0 0 0 0 0 0 0 0 0 0 0 0 0 0 0 0 0 0 0 0 0 0 0 0 0 0 0 0 0 0 0 0 0 0 0 0 0 0 0 0 0 0 0 0 0 0 0 3238 3238 3238 3238 3238 3208 3208 3208 3208 3208 3208 3208 3208 3208 3208 3208 3208 3208 3178 3178 3208 3208 3178 3178 3178 3178 3178 3149 3149 3149 3149 3149 3149 3149 3149 3149 3149 3149 3120 3120 3092 3092 3064 3064 3064 3064 3064 3064 3092 3092 3092 3092 3092 3092 3064 3064 3064 3064 3064 3064 3037 3037 3064 3037 3037 3037 3037 3037 3037 3037 3037 3037 3037 3010 3010 2984 2984 2958 2958 2958 1713 1713 1705 1705 1696 1696 1696 1696 1696 1688 1688 1688 1688 1688 1680 1680 1680 1680 1680 1680 1680 1680 1671 1671 1671 1671 1663 1663 1655 1655 1655 1663 1663 1663 1663 1663 1655 1655 1655 1647 1647 1639 1639 1639 1639 1639 1639 1639 1639 1639 1639 1639 1632 1632 1632 1639 1639 1632 1624 1624 1616 1616 1616 1616 1616 1616 1609 1609 1609 1609 1609 1609 1609 1601 1601 1601 1601 1601 1594 1594 1594 1594 1594 1586 1586 1586 1586 1579 1579 1579 1579 1586 1586 0 0 0 0 6259 6038 6038 6038 6038 6038 6038 6038 6038 6038 6146 6038 6038 6038 6146 6146 6146 6146 6146 6146 6146 6146 6146 6146 6146 6146 6146 6146 6146 6146 6146 6259 6259 6259 6375 6375 6375 6375 6375 6375 6375 6375 6375 0 0 0 0 0 0 0 0 0 0 0 0 0
0 0 0 0 0 0 0 0 0 0 0 0 0 0 0 0 0 0 0 0 0 0 0 0 0 0 0 0 0 8849 8849 8849 8849 9084 9084 9084 9084 9084 9084 9084 9084 9084 9084 9084 9331 9331 9331 9331 8849 8849 9593 9593 9870 9870 9870 9870 9870 9870 9870 9870 9870 9870 9593 9593 9593 9331 9084 8849 8849 8849 8849 8849 8626 8626 8626 8413 8413 8413 8212 8212 8212 8413 8413 8413 8413 8413 8626 8626 8626 8413 8413 8626 8413 8413 8413 8413 8626 8626 8413 8413 8413 8413 8413 8413 8413 8413 8413 8626 8626 8626 8413 8413 8413 8212 8212 8212 8212 8212 8212 8019 8019 8019 7835 7835 8019 8019 8019 8019 8019 8019 8212 8019 8019 8019 8019 8019 8019 8019 8019 8212 8212 8413 8626 8626 8626 8849 8849 8849 8849 8849 8849 8626 8626 8626 8626 8626 8626 8626 8626 8626 8626 8626 8626 8626 8626 8413 8413 8413 8413 8626 8626 6259 6259 6259 6259 6259 6259 6259 6259 6259 6259 6259 6259 8413 8413 8413 8413 8413 8413 8413 8413 8413 8413 8413 8413 8626 8626 8626 8626 8626 8626 8626 8626 8626 8626 8626 8626 8413 8413 8413 8413 8413 8413 8626 8413 8413 8413 8413 8626 8626 8626 8626 8626 8626 8413 8413 8413 8413 8626 8626 8626 8626 8626 8626 8626 8626 8626 8413 8413 8413 8413 8413 8413 8413 8413 8413 8413 8413 8413 8413 8413 8413 8413 8413 8413 8413 8413 8413 8413 8413 8212 8212 0 0 0 0 0 0 0 0 0 0 0 0 0 0 0 0 0 8212 8212 8212 8212 8212 8212 8212 8212 8413 8413 8413 8413 8212 8212 8212 8212 8413 8413 8413 8413 8413 8413 8413 8413 8413 8413 8413 8413 8212 8212 8212 8212 8212 0 0 0 0 0 0 0 0 0 0 0 0 0 0 0 0 0 0 0 0 0 0 0 0 0 0 0 0 0 0 0 0 0 0 0 0 0 0 0 0 0 0 0 0 0 0 0 0 0 0 0 0 0 0 0 0 0 0 0 0 0 0 0 0 0 0 0 0 0 0 0 0 0 0 0 0 0 0 0 0 0 0 0 0 0 0 0 0 0 0 0 0 0 0 0 3238 3238 3238 3238 3238 3208 3208 3208 3208 3208 3208 3208 3208 3208 3208 3208 3208 3208 3208 3208 3208 3208 3178 3178 3178 3178 3178 3149 3149 3149 3149 3149 3149 3149 3149 3149 3149 3120 3120 3120 3092 3092 3064 3064 3064 3064 3064 3064 3064 3064 3064 3064 3092 3064 3064 3064 3064 3064 3064 3064 3064 3064 3064 3037 3037 3037 3037 3037 3037 3037 3037 3037 3037 3037 3010 2984 2984 2958 2958 2958 2958 1713 1705 1705 1705 1705 1696 1696 1696 1688 1688 1688 1688 1688 1680 1680 1680 1671 1671 1680 1680 1680 1671 1671 1671 1671 1663 1663 1663 1663 1663 1663 1663 1663 1663 1663 1655 1655 1647 1647 1647 1639 1639 1639 1639 1639 1639 1639 1639 1639 1639 1639 1632 1632 1632 1639 1639 1632 1624 1624 1616 1616 1616 1616 1616 1616 1609 1609 1609 1609 1609 1609 1609 1609 1601 1601 1601 1601 1594 1594 1594 1594 1586 1586 1579 1579 1579 1579 1579 1579 1586 1586 1586 0 0 0 6038 0 6038 6038 6038 6038 6038 6038 6038 6038 6038 6146 6038 6038 6038 6146 6146 6146 6146 6146 6146 6146 6146 6146 6146 6146 6146 6146 6146 6146 6146 6146 6259 6259 6259 6259 6259 6375 6375 6375 6375 6375 6375 6375 0 0 0 0 0 0 0 0 0 0 0 0 0
0 0 0 0 0 0 0 0 0 0 0 0 0 0 0 0 0 0 0 0 0 0 0 0 0 0 0 0 0 8626 8626 8849 8849 8849 8849 9084 9084 9084 9084 9084 9084 9084 9084 9084 9331 9331 9331 8849 8849 8849 9593 9593 9870 9870 9870 9870 0 9870 9870 9870 9870 9870 9870 9593 9593 9331 9084 8849 8849 8849 8849 8849 8626 8626 8626 8413 8413 8212 8212 8212 8212 8212 8212 8212 8413 8413 8626 8626 8626 8413 8413 8413 8413 8413 8413 8413 8626 8626 8413 8413 8413 8413 8413 8413 8413 8413 8413 8413 8413 8413 8019 8019 8019 8212 8212 8212 8212 8212 8212 8019 8019 8019 7835 7835 7835 8019 8019 8019 8019 8019 8019 8019 8019 8019 8019 8019 8019 8019 8019 8212 8212 8413 8413 8626 8626 8849 8849 8849 8849 8849 8849 8626 8626 8626 8626 8626 8626 8626 8626 8626 8626 8626 8626 8626 8626 8626 8413 8413 8626 8626 8626 8626 8413 8413 8413 8413 8413 8413 8413 8413 8626 8626 8849 8413 8413 8413 8626 8413 8413 8413 8413 8413 8413 8413 8413 8626 8626 8626 8626 8626 8626 8626 8849 8849 8626 8626 8626 8413 8413 8413 8413 8413 8413 8413 8413 8413 8626 8626 8626 8626 8626 8626 8626 8626 8626 8626 8413 8413 8626 8626 8626 8626 8626 8626 8626 8626 8626 8413 8413 8413 8413 8413 8413 8413 8626 8413 8413 8413 8413 8413 8413 8413 8413 8413 8413 8413 8413 8413 8413 8413 8413 8413 0 0 0 0 0 0 0 0 0 0 0 0 0 0 0 0 0 8413 8212 8212 8212 8212 8413 8413 8413 8413 8413 8413 8413 8212 8212 8212 8212 8413 8413 8413 8413 8413 8413 8413 8413 8413 8413 8413 8413 8413 8413 8212 8212 0 0 0 0 0 0 0 0 0 0 0 0 0 0 0 0 0 0 0 0 0 0 0 0 0 0 0 0 0 0 0 0 0 0 0 0 0 0 0 0 0 0 0 0 0 0 0 0 0 0 0 0 0 0 0 0 0 0 0 0 0 0 0 0 0 0 0 0 0 0 0 0 0 0 0 0 0 0 0 0 0 0 0 0 0 0 0 0 0 0 0 0 0 0 3269 3269 3238 3238 3238 3238 3238 3208 3208 3208 3208 3208 3208 3208 3208 3208 3208 3208 3208 3208 3208 3208 3208 3208 3178 3178 3178 3178 3178 3149 3149 3149 3149 3149 3149 3149 3149 3149 3120 3120 3120 3120 3092 3092 3064 3064 3064 3064 3064 3064 3064 3064 3064 3064 3064 3064 3064 3064 3064 3064 3064 3064 3064 3064 3064 3037 3037 3037 3010 3010 3037 3037 3037 3037 3037 3037 3010 2984 2984 2958 2958 2958 2958 2958 1713 1705 1705 1705 1688 1688 1688 1688 1688 1688 1688 1688 1680 1680 1680 1671 1671 1663 1663 1663 1663 1663 1663 1663 1663 1663 1663 1663 1663 1663 1663 1663 1663 1655 1655 1647 1647 1647 1647 1639 1639 1639 1639 1632 1632 1639 1632 1632 1639 1639 1639 1632 1632 1632 1632 1632 1624 1624 1624 1624 1616 1616 1616 1616 1609 1609 1609 1609 1609 1609 1609 1609 1601 1601 1601 1601 1594 1594 1594 1594 1586 1586 1579 1579 1579 1579 1579 1579 1586 1586 1586 1586 0 0 6038 6038 6038 6038 6038 6038 6038 6038 6038 6038 6038 6038 6038 6038 6146 6146 6146 6146 6146 6259 6259 6146 6146 6146 6259 6146 6146 6146 6146 6146 6146 6146 6146 6259 6259 6259 6259 6375 6375 6375 6259 6259 6259 6259 0 0 0 0 0 0 0 0 0 0 0 0 0
0 0 0 0 0 0 0 0 0 0 0 0 0 0 0 0 0 0 0 0 0 0 0 0 0 0 0 0 0 8626 8626 8626 8626 8626 8626 8849 8849 9084 9084 9084 9084 9084 9084 9084 9084 9331 9331 8849 8849 9084 9593 9593 9870 9870 9870 0 9870 9870 9870 9870 9870 9870 9593 9593 9593 9331 9084 8849 8849 8626 8626 8849 8626 8626 8413 8413 8413 8212 8212 8212 8212 8212 8212 8212 8212 8212 8413 8413 8626 8413 8413 8413 8413 8413 8413 8413 8626 8626 8626 8413 8413 8413 8413 8413 8019 8019 8019 8019 8019 8019 8019 8019 8019 8212 8212 8212 8212 8212 8212 8212 8019 8019 7835 7835 7835 8019 7835 7835 8019 8019 8019 8019 8019 8019 8019 8019 8019 8019 8019 8212 8212 8413 8413 8626 8626 8849 8849 8849 8849 8849 8849 8413 8413 8626 8626 8626 8626 8626 8626 8626 8626 8626 8626 8626 8626 8626 8626 8626 8626 8626 8626 8626 8413 8413 8413 8413 8413 8413 8413 8413 8626 8626 8626 8849 8626 8626 8626 8626 8413 8413 8413 8413 8413 8626 8626 8626 8626 8626 8626 8626 8626 8849 8849 8849 8849 8626 8626 8626 8626 8413 8413 8413 8413 8413 8413 8413 8413 8413 8413 8413 8626 8626 8626 8626 8626 8626 8626 8626 8626 8626 8626 8626 8626 8626 8626 8626 8626 8413 8413 8413 8413 8413 8413 8413 8626 8413 8413 8413 8413 8413 8413 8413 8413 8413 8413 8413 8413 8413 8413 8413 0 0 0 0 0 0 0 0 0 0 0 0 0 0 0 0 0 0 0 8413 8212 8212 8212 8212 8413 8413 8413 8413 8413 8413 8413 8212 8212 8212 8212 8413 8413 8413 8413 8413 8413 8413 8413 8413 8413 8413 8413 8413 8413 8212 8212 0 0 0 0 0 0 0 0 0 0 0 0 0 0 0 0 0 0 0 0 0 0 0 0 0 0 0 0 0 0 0 0 0 0 0 0 0 0 0 0 0 0 0 0 0 0 0 0 0 0 0 0 0 0 0 0 0 0 0 0 0 0 0 0 0 0 0 0 0 0 0 0 0 0 0 0 0 0 0 0 0 0 0 0 0 0 0 0 0 0 0 0 0 0 3269 3269 3238 3238 3238 3238 3238 3208 3208 3238 3238 3208 3208 3208 3208 3208 3208 3208 3208 3208 3208 3208 3208 3208 3178 3178 3178 3178 3178 3149 3149 3149 3149 3149 3149 3149 3149 3120 3120 3120 3120 3120 3120 3092 3092 3092 3092 3064 3064 3064 3064 3064 3064 3064 3064 3064 3064 3064 3064 3064 3064 3064 3064 3064 3037 3037 3037 3037 3010 3010 3010 3010 3010 3037 3037 3010 3010 2984 2984 2958 2958 2958 2958 2958 2958 1705 1705 1696 1688 1680 1680 1680 1680 1680 1680 1688 1680 1671 1671 1671 1671 1655 1655 1663 1663 1663 1663 1663 1663 1663 1663 1663 1663 1663 1663 1663 1663 1655 1655 1647 1647 1647 1647 1647 1639 1639 1639 1632 1632 1632 1632 1632 1639 1639 1639 1632 1632 1632 1632 1632 1624 1624 1624 1632 1632 1624 1624 1616 1616 1616 1616 1616 1609 1609 1609 1609 1609 1609 1601 1601 1601 1601 1594 1594 1594 1586 1586 1586 1586 1586 1586 1586 1586 1594 1594 1594 6375 6375 6038 6038 6038 6038 6038 6038 6038 6038 6038 6038 6038 6038 6038 6038 6146 6146 6259 6259 6259 6259 6259 6146 6146 6146 6259 6146 6146 6146 6146 6146 6146 6146 6146 6259 6259 6259 6259 6375 6259 6259 6259 6259 6259 6259 0 0 0 0 0 0 0 0 0 0 0 0 0
0 0 0 0 0 0 0 0 0 0 0 0 0 0 0 0 0 0 0 0 0 0 0 0 0 0 0 0 0 8626 8413 8413 8626 8626 8626 8626 8849 9084 9084 9084 9084 9084 9084 9084 9084 9331 9331 9331 9084 9084 9331 9593 9870 9870 9870 9870 9870 9870 9870 9870 9870 9870 9593 9593 9593 9331 9084 8849 8849 8626 8626 8849 8626 8626 8413 8413 8212 8019 8019 8019 8019 8212 8212 8212 8212 8212 8413 8413 8413 8413 8413 8626 8413 8413 8413 8413 8626 8626 8413 8413 8413 8413 8413 8413 8019 8019 8019 8019 8019 8019 8019 8019 8212 8212 8212 8019 8019 8019 8019 8019 8212 8019 7835 7835 7835 8019 7835 7835 7835 8019 8019 8019 8019 8019 8019 8019 8019 8019 8019 8212 8212 8413 8413 8626 8626 8849 8849 8849 8849 8626 8626 8413 8413 8626 8626 8413 8413 8626 8626 8626 8626 8626 8626 8626 8626 8626 8626 8626 8626 8626 8626 8626 8413 8413 8413 8413 8413 8413 8413 8626 8626 8626 8626 8626 8626 8626 8626 8626 8626 8626 8413 8413 8413 8413 8413 8413 8626 8626 8626 8626 8626 8626 8849 8849 8849 8626 8626 8626 8626 8626 8626 8413 8413 8413 8413 8413 8413 8413 8413 8413 8626 8626 8626 8626 8626 8626 8626 8626 8626 8626 8626 8626 8626 8626 8626 8626 8626 8413 8413 8413 8413 8413 8413 8413 8626 8413 8413 8413 8413 8413 8413 8413 8413 8413 8413 8413 8413 8413 8626 0 0 0 0 0 0 0 0 0 0 0 0 0 0 0 0 0 0 0 0 8413 8212 8212 8212 8413 8413 8413 8413 8413 8413 8413 8413 8212 8212 8212 8212 8413 8413 8413 8413 8413 8413 8413 8413 8413 8413 8413 8413 8413 8413 8212 8212 0 0 0 0 0 0 0 0 0 0 0 0 0 0 0 0 0 0 0 0 0 0 0 0 0 0 0 0 0 0 0 0 0 0 0 0 0 0 0 0 0 0 0 0 0 0 0 0 0 0 0 0 0 0 0 0 0 0 0 0 0 0 0 0 0 0 0 0 0 0 0 0 0 0 0 0 0 0 0 0 0 0 0 0 0 0 0 0 0 0 0 0 0 0 3269 3269 3269 3238 3238 3269 3238 3238 3238 3238 3238 3208 3208 3208 3208 3178 3178 3208 3208 3208 3208 3208 3208 3208 3178 3178 3178 3178 3178 3149 3149 3149 3149 3149 3149 3149 3149 3120 3120 3120 3120 3120 3092 3092 3092 3064 3064 3064 3064 3064 3064 3064 3064 3064 3064 3064 3064 3064 3064 3064 3064 3064 3064 3064 3037 3037 3037 3037 3010 3010 3010 3010 3010 3037 3037 3010 3010 3010 3010 2984 2984 2984 2958 2958 2984 2984 2984 1696 1688 1680 1680 1680 1680 1680 1680 1688 1680 1671 1671 1671 1671 1655 1655 1663 1663 1663 1663 1663 1663 1663 1663 1663 1663 1663 1663 1663 4041 4089 4089 1647 1647 1647 1647 1639 1639 1632 1632 1632 1624 1624 1624 1624 1632 1632 1639 1639 1639 1639 1639 1639 1624 1624 1624 1624 1624 1601 1601 1616 1616 1616 1609 1609 1609 1609 1609 1609 1601 1601 1601 1601 1601 1601 1609 1609 1609 1609 1609 1586 1586 1586 1594 1594 1594 1594 6146 6375 6375 6375 6259 6259 6038 6038 6038 6038 6038 6038 6038 6038 6038 6038 6038 6038 6146 6146 6146 6146 6146 6146 6146 6146 6146 6146 6259 6146 6038 6038 6146 6146 6146 6146 6146 6259 6259 6259 6259 6375 6259 6259 6259 6259 6259 6259 0 0 0 0 0 0 0 0 0 0 0 0 0
