0 0 0 0 0 0 0 0 0 0 0 0 0 0 0 0 0 0 0 0 0 0 0 0 0 0 0 0 0 0 0 0 0 2212 2212 2212 2212 2212 2212 2212 2212 2212 2212 2212 2212 2212 2212 2212 2226 2226 2226 2226 2226 2226 2226 2226 2226 2226 2226 2226 2226 2226 2226 2226 2226 2226 2226 2226 2226 2212 2212 2212 2212 2212 2212 2212 2212 2212 2226 2226 2226 2241 2241 2241 2241 2241 2241 2241 2241 2241 2241 2241 2241 2241 2241 2241 2241 2241 2241 2241 2241 2241 2256 2256 2256 2256 2256 2256 2256 2256 2256 2256 2256 2256 2256 2271 2271 2256 2256 2256 2256 2256 2256 2256 2271 2271 2271 2271 2271 2271 2271 2271 2271 2271 2271 2271 2271 2271 2271 2271 2286 2286 2286 2301 2301 2301 2301 2286 2286 2286 2286 2286 2271 2271 1722 1722 1722 1722 1713 1713 1713 1705 1705 1639 1639 1632 1632 1632 1632 1639 1639 1639 1639 1639 1647 1647 1655 1655 1663 1663 1663 2301 2301 2301 2317 2317 2317 2317 2317 2317 2317 2317 2317 2317 2317 2317 2317 2317 2317 2317 2317 2317 2317 2317 2317 2317 2333 2333 2333 2349 2349 2349 2349 2365 2365 2028 2028 1594 1586 1586 1586 1586 1586 1586 1586 1586 1586 1586 1579 1579 1579 1579 1579 1579 1572 1572 1572 1572 1564 1564 1564 1564 1564 1564 1557 1550 1550 1550 1543 1543 1536 1536 1529 1529 1523 1523 1523 1523 1523 1529 1536 1543 1550 1557 1557 1572 1572 1579 1586 1594 1594 1594 1601 2333 2349 2349 2349 2349 2349 2365 2365 2365 2365 2365 2365 2365 2365 2365 2365 2365 2365 2365 2365 2365 2365 2398 2398 0 0 1381 1381 1381 1381 1387 1387 1381 1381 1381 1381 1381 1381 1387 1392 1398 1398 1404 1404 1433 1458 1464 1470 1470 1470 1477 1477 1477 1477 1477 1477 1483 1477 1477 1483 1477 1477 1477 1477 1477 1477 1477 1477 1477 1477 1477 1483 1483 1483 1483 1483 1483 1483 1483 1483 1483 1483 1483 1489 1489 1489 1489 1489 1489 1489 1489 1489 1489 1489 1489 1489 1489 1489 1489 1489 1489 1489 1489 1489 1489 1489 1489 1489 1489 1489 1489 1489 1489 1489 1489 1489 1489 1489 1489 1489 1489 1489 1496 1496 1496 1496 1496 1496 1489 1489 1489 1489 1489 1489 1489 1489 1489 1496 1496 1496 1250 1250 1250 1250 1250 1245 1245 1245 1245 1245 1245 1241 1241 1245 1245 1250 1250 1255 1483 1483 1489 1489 1489 1496 1496 1496 1496 1496 1496 1496 1496 1496 1496 1496 1496 1503 1503 1503 1503 1503 1503 1503 1503 1632 1632 1632 1632 1632 2450 2450 2450 2450 2450 2450 2450 2467 2450 2450 2467 2467 2467 2467 2467 2467 2467 2467 2467 2467 2467 2467 2467 2467 2467 1705 1705 1705 1713 1705 1705 1713 1705 1705 1705 1705 1696 1696 1696 1696 2450 2450 2432 2432 2432 2432 2450 2450 2450 2450 2450 2450 2467 2432 2432 0 0 0 0 1273 1273 1278 1278 1278 1278 1278 1278 1278 1278 1278 1278 1278 1278 1278 1278 1278 1278 1278 1278 1278 1278 1278 1278 1278 1273 1273 1273 1273 1273 1273 1273 1273 1273 1273 1273 1273 1268 1268 1268 1268 1273 1273 0 2450 2450 2450 2450 2467 2467 2485 2485 2485 2467 2467 2467 2467 2467 2467 2467 2467 2467 2467 2467 2467 2467 2467 2450 2450 2450 2450 2450 2450 2450 2450 2450 2450 2450 2450 2432 2432 2432 2432 2432 2450 2450 2450 2450 2450 2450 2450 2450 2432 2432 2432 2415 2415 2415 2415 2432 2432 2432 2432 2432 2432 2432 2432 2432 2432 2432 0 0 0 0 0 0 0 0 0 0
0 0 0 0 0 0 0 0 0 0 0 0 0 0 0 0 0 0 0 0 0 0 0 0 0 0 0 0 0 0 0 0 0 2212 2212 2212 2212 2212 2212 2212 2212 2212 2198 2198 2212 2212 2212 2212 2212 2212 2212 2212 2212 2226 2226 2226 2226 2226 2226 2226 2226 2226 2226 2226 2226 2212 2212 2212 2226 2212 2212 2212 2212 2212 2212 2212 2212 2212 2212 2212 2212 2226 2226 2226 2226 2226 2226 2226 2226 2226 2226 2226 2241 2241 2226 2226 2226 2226 2226 2226 2226 2226 2241 2256 2256 2256 2256 2256 2256 2256 2256 2256 2256 2256 2256 2256 2271 2256 2256 2256 2256 2256 2256 2256 2256 2271 2271 2271 2271 2271 2271 2271 2271 2271 2271 2271 2271 2271 2271 2271 2271 2271 2286 2286 2286 2286 2286 2286 2286 2286 2271 2271 2271 2271 2271 1722 1722 1722 1713 1713 1713 1713 1713 1639 1639 1632 1632 1632 1632 1639 1639 1639 1639 1639 1647 1647 1655 1663 1663 1663 1663 2301 2301 2301 2301 2301 2301 2301 2301 2301 2301 2301 2301 2301 2301 2301 2301 2317 2317 2317 2317 2317 2317 2317 2317 2317 2317 2317 2333 2333 2333 2333 2349 2349 2349 2028 2028 2028 2028 2028 2028 2028 2040 2040 2065 2065 1586 1586 1579 1579 1579 1579 1579 1579 1579 1572 1572 1572 1564 1564 1564 1564 1564 1564 1557 1550 1550 1550 1543 1543 1543 1536 1529 1529 1523 1523 1523 1523 1523 1529 1536 1543 1550 1550 1557 1572 1572 1579 1586 1586 1594 1594 2333 2333 2349 2349 2349 2349 2349 2365 2365 2365 2365 2365 2365 2365 2365 2365 2349 2349 2349 2365 2365 2365 2365 2365 2365 2365 0 1387 1387 1387 1387 1387 1387 1387 1387 1387 1387 1387 1387 1392 1392 1398 1398 1404 1415 1433 1458 1464 1470 1470 1470 1470 1470 1470 1470 1477 1477 1477 1470 1470 1477 1470 1470 1470 1470 1470 1470 1470 1470 1470 1470 1470 1470 1470 1470 1470 1470 1470 1470 1470 1477 1477 1477 1477 1477 1477 1477 1477 1477 1477 1477 1477 1477 1483 1483 1483 1483 1483 1483 1483 1483 1483 1483 1483 1483 1489 1489 1489 1489 1489 1489 1489 1489 1489 1489 1483 1483 1483 1483 1483 1483 1483 1483 1489 1489 1489 1489 1489 1489 1489 1489 1489 1489 1489 1489 1489 1489 1489 1489 1489 1489 1250 1250 1250 1250 1250 1245 1245 1245 1245 1245 1245 1245 1245 1245 1250 1250 1250 1250 1483 1483 1483 1483 1483 1483 1489 1489 1489 1489 1489 1489 1489 1489 1489 1489 1489 1496 1503 1503 1503 1503 1503 1503 1639 1632 1632 1632 1632 1632 2450 2450 2450 2450 2450 2450 2450 2450 2450 2450 2450 2450 2450 2450 2450 2450 2450 2450 2450 2450 2467 2467 2467 2467 2467 1705 1705 1705 1713 1713 1713 1713 1713 1705 1705 1705 1705 1705 1705 1705 1705 1713 2432 2432 2432 2432 2432 2432 2450 2450 2450 2450 2450 2432 2432 0 0 0 0 1278 1278 1278 1278 1278 1278 1278 1278 1278 1278 1278 1278 1278 1278 1278 1278 1278 1278 1278 1278 1278 1278 1278 1278 1278 1278 1278 1278 1278 1278 1273 1273 1273 1273 1273 1273 1273 1273 1268 1268 1273 1273 1273 0 2450 2450 2450 2450 2467 2467 2467 2467 2467 2467 2467 2450 2450 2450 2450 2450 2450 2450 2450 2450 2432 2432 2432 2432 2432 2432 2432 2432 2432 2432 2450 2432 2432 2432 2432 2432 2432 2432 2432 2432 2432 2432 2432 2450 2432 2432 2432 2432 2432 2432 2415 2415 2415 2415 2415 2432 2432 2432 2432 2432 2432 2432 2432 2432 2432 2432 0 0 0 0 0 0 0 0 0 0
0 0 0 0 0 0 0 0 0 0 0 0 0 0 0 0 0 0 0 0 0 0 0 0 0 0 0 0 0 0 0 0 0 2198 2198 2184 2184 2198 2198 2198 2198 2198 2198 2198 2184 2184 2198 2184 2184 2198 2198 2212 2212 2212 2212 2212 2212 2212 2226 2226 2226 2226 2212 2212 2212 2212 2212 2212 2212 2198 2198 2212 2212 2212 2212 2212 2212 2212 2212 2212 2212 2212 2212 2212 2212 2212 2212 2212 2212 2212 2212 2212 2212 2212 2212 2212 2212 2212 2212 2212 2212 2212 2226 2241 2241 2241 2241 2241 2241 2241 2256 2256 2256 2256 2256 2256 2256 2256 2256 2256 2256 2241 2241 2256 2256 2271 2271 2271 2271 2271 2271 2271 2271 2271 2271 2271 2271 2271 2271 2271 2271 2271 2286 2286 2286 2286 2286 2286 2286 2271 2271 2271 2271 2271 2271 1722 1722 1722 1713 1713 1713 1713 1713 1639 1639 1639 1632 1632 1632 1639 1639 1639 1639 1639 1647 1647 1655 1671 1671 1671 1671 1671 2286 2286 2286 2286 2286 2301 2301 2301 2301 2301 2301 2301 2301 2301 2301 2301 2301 2301 2317 2317 2317 2317 2317 2317 2317 2317 2317 2317 2317 2317 2333 2333 2349 2016 2016 2028 2028 2028 2028 2028 2040 2053 2065 2065 2065 2065 2286 1579 1579 1579 1579 1579 1579 1572 1572 1572 1572 1564 1564 1572 1572 1564 1557 1550 1550 1550 1543 1543 1543 1536 1529 1529 1529 1523 1523 1523 1529 1529 1536 1543 1543 1550 1557 1564 1572 1579 1579 1586 1594 2333 2333 2333 2349 2349 2349 2349 2349 2349 2349 2349 2349 2349 2349 2349 2349 2349 2349 2349 2349 2349 2349 2349 2349 2365 2365 2365 0 1387 1387 1387 1392 1392 1392 1387 1387 1387 1387 1387 1387 1392 1392 1398 1398 1404 1421 1439 1452 1458 1464 1464 1464 1470 1470 1470 1470 1470 1470 1470 1464 1464 1464 1464 1464 1464 1464 1464 1464 1464 1464 1464 1464 1464 1464 1464 1464 1464 1464 1464 1464 1470 1470 1470 1470 1470 1470 1470 1470 1470 1470 1470 1470 1470 1470 1470 1464 1464 1464 1470 1464 1464 1464 1470 1470 1470 1477 1477 1477 1477 1477 1477 1477 1477 1477 1477 1477 1477 1477 1477 1483 1483 1483 1483 1483 1483 1483 1483 1483 1483 1483 1483 1483 1483 1483 1483 1483 1483 1483 1489 1489 1489 1489 1250 1250 1255 1255 1255 1250 1250 1245 1245 1245 1245 1245 1245 1250 1250 1250 1250 1250 1477 1477 1477 1477 1477 1483 1483 1483 1483 1483 1483 1483 1483 1483 1483 1483 1483 1489 1496 1496 1496 1503 1503 1503 1632 1632 1632 1632 1632 2450 2450 2432 2432 2450 2432 2432 2432 2450 2432 2432 2432 2450 2450 2450 2450 2450 2450 2450 2450 2450 2450 2450 2450 2450 2450 1722 1713 1713 1713 1713 1713 1713 1713 1713 1705 1705 1705 1705 1705 1705 1705 1713 2432 2432 2432 2432 2432 2432 2432 2432 2432 2432 2432 2432 2432 2432 0 0 0 1278 1278 1283 1278 1278 1283 1278 1278 1278 1278 1278 1278 1278 1278 1278 1278 1283 1283 1283 1283 1278 1278 1278 1278 1278 1278 1278 1278 1278 1278 1278 1273 1273 1273 1273 1273 1273 1273 1268 1268 1273 1273 0 0 2432 2432 2432 2432 2450 2450 2467 2467 2467 2450 2450 2450 2450 2450 2450 2450 2450 2450 2450 2450 2432 2432 2432 2432 2432 2432 2432 2432 2432 2432 2432 2432 2432 2432 2432 2432 2432 2432 2432 2432 2432 2432 2432 2432 2432 2432 2432 2415 2415 2415 2415 2398 2398 2415 2415 2415 2415 2432 2432 2432 2432 2432 2432 2415 2415 2415 0 0 0 0 0 0 0 0 0 0
0 0 0 0 0 0 0 0 0 0 0 0 0 0 0 0 0 0 0 0 0 0 0 0 0 0 0 0 0 0 0 0 0 2184 2184 2184 2184 2184 2184 2184 2184 2184 2184 2184 2184 2184 2184 2184 2184 2184 2184 2198 2198 2198 2198 2212 2212 2212 2212 2212 2212 2212 2212 2212 2212 2212 2212 2212 2212 2198 2198 2212 2198 2198 2198 2198 2198 2198 2198 2198 2212 2212 2212 2212 2212 2212 2212 2212 2212 2212 2212 2212 2212 2212 2212 2212 2198 2198 2212 2212 2212 2212 2226 2241 2241 2241 2241 2241 2241 2241 2241 2256 2256 2256 2256 2256 2256 2241 2241 2241 2241 2241 2241 2241 2256 2256 2256 2256 2256 2256 2256 2256 2271 2271 2271 2256 2256 2271 2256 2256 2271 2271 2271 2286 2286 2286 2286 2271 2271 2271 2271 2271 2271 2271 2271 2271 1731 1722 1713 1713 1713 1713 1713 1639 1639 1632 1632 1632 1632 1639 1639 1639 1639 1639 1647 1647 1655 1671 1671 1671 1671 1671 2271 2286 2286 2286 2286 2286 2301 2301 2286 2286 2286 2286 2301 2301 2301 2286 2286 2301 2301 2301 2301 2301 2301 2301 2317 2317 2317 2317 2317 2317 2317 2317 2016 2016 2016 2028 2028 2040 2040 2040 2053 2053 2065 2065 2065 2065 2286 2286 2286 2286 1586 1586 1579 1579 1572 1572 1572 1564 1564 1572 1572 1572 1557 1557 1550 1550 1550 1543 1543 1536 1529 1529 1529 1523 1523 1529 1529 1529 1536 1543 1543 1550 1550 1557 1572 1572 1579 2333 2317 2317 2333 2333 2333 2333 2333 2333 2333 2349 2349 2349 2349 2349 2349 2349 2333 2333 2333 2333 2333 2349 2349 2349 2349 2349 2365 0 0 0 1392 1392 1392 1392 1392 1392 1387 1387 1387 1387 1392 1392 1392 1398 1398 1410 1421 1445 1445 1452 1458 1464 1464 1464 1464 1464 1464 1470 1470 1470 1458 1458 1458 1458 1458 1458 1458 1458 1458 1458 1458 1458 1458 1458 1458 1458 1464 1464 1464 1464 1464 1464 1464 1464 1464 1464 1464 1464 1464 1464 1464 1464 1464 1470 1470 1464 1464 1464 1464 1464 1464 1464 1464 1464 1464 1464 1470 1470 1470 1470 1470 1470 1470 1470 1470 1470 1470 1477 1470 1470 1470 1477 1477 1470 1470 1470 1470 1470 1470 1470 1470 1470 1470 1470 1470 1470 1470 1477 1477 1477 1483 1483 1483 1255 1255 1255 1259 1255 1250 1250 1250 1250 1250 1245 1245 1250 1250 1255 1250 1250 1255 1470 1470 1470 1470 1477 1477 1477 1477 1477 1477 1477 1477 1477 1477 1477 1477 1483 1483 1483 1489 1489 1496 1503 1632 1632 1632 1632 1632 1632 1632 2450 2432 2432 2432 2432 2432 2432 2432 2432 2432 2432 2432 2432 2432 2432 2432 2432 2450 2432 2432 2450 2450 2450 2450 2450 1722 1713 1713 1713 1713 1713 1713 1713 1713 1705 1705 1705 1705 1705 1705 1705 1713 2415 2415 2415 2415 2432 2432 2432 2432 2432 2432 2432 2415 2415 0 0 0 0 1278 1278 1283 1278 1278 1283 1283 1283 1278 1278 1278 1278 1278 1278 1278 1278 1283 1283 1283 1283 1278 1278 1278 1278 1278 1278 1278 1278 1278 1278 1278 1278 1273 1273 1273 1273 1273 1273 1273 1273 1273 1273 1278 2432 2432 2432 2432 2432 2450 2450 2450 2450 2450 2450 2450 2450 2450 2432 2432 2450 2450 2432 2432 2432 2432 2432 2432 2432 2432 2432 2432 2432 2432 2432 2432 2432 2432 2432 2432 2432 2415 2415 2415 2415 2415 2415 2415 2415 2415 2415 2415 2415 2415 2415 2398 2398 2398 2398 2415 2415 2415 2415 2415 2415 2415 2415 2415 2415 2415 2415 0 0 0 0 0 0 0 0 0 0
0 0 0 0 0 0 0 0 0 0 0 0 0 0 0 0 0 0 0 0 0 0 0 0 0 0 0 0 0 0 0 0 0 2184 2184 2184 2184 2184 2184 2184 2184 2184 2170 2170 2170 2170 2170 2170 2170 2184 2184 2184 2198 2198 2198 2198 2198 2198 2198 2198 2212 2212 2198 2198 2198 2198 2198 2198 2198 2198 2198 2198 2198 2198 2198 2198 2198 2198 2198 2198 2212 2212 2212 2212 2212 2198 2198 2198 2198 2212 2198 2198 2198 2198 2212 2198 2198 2198 2198 2212 2212 2212 2226 2226 2226 2226 2241 2241 2241 2241 2241 2241 2256 2256 2256 2241 2241 2226 2226 2226 2226 2226 2226 2241 2241 2256 2256 2256 2256 2256 2256 2256 2256 2256 2256 2256 2256 2256 2256 2256 2256 2256 2271 2271 2271 2271 2271 2271 2271 2271 2271 2256 2256 2256 2271 2271 1731 1722 1722 1722 1713 1713 1713 1639 1639 1632 1632 1632 1632 1639 1639 1639 1639 1639 1647 1655 1655 1671 1671 1671 1671 1680 2271 2271 2286 2286 2286 2286 2286 2286 2286 2286 2286 2286 2286 2286 2286 2286 2286 2301 2301 2301 2301 2301 2301 2301 2301 2301 2301 2301 2301 2301 2301 2301 2016 2016 2016 2028 2028 2040 2040 2040 2053 2053 2065 2065 2065 2065 2286 2286 2301 2301 2301 2317 2317 1579 1572 1572 1572 1564 1564 1572 1572 1572 1564 1557 1557 1550 1550 1543 1543 1536 1536 1529 1529 1529 1529 1529 1529 1529 1536 1543 1543 1550 1550 1557 1564 1572 2333 2317 2317 2317 2317 2317 2333 2333 2333 2333 2333 2333 2333 2333 2333 2333 2333 2349 2317 2317 2333 2333 2333 2333 2333 2333 2333 2349 2349 0 0 0 1392 1392 1392 1392 1392 1392 1387 1387 1387 1392 1392 1392 1392 1398 1398 1410 1421 1439 1445 1452 1452 1458 1458 1458 1464 1464 1464 1464 1464 1464 1458 1458 1452 1452 1452 1452 1452 1452 1452 1452 1452 1458 1452 1452 1458 1458 1458 1458 1458 1458 1458 1458 1458 1458 1464 1464 1464 1464 1464 1464 1464 1464 1464 1464 1458 1458 1458 1458 1458 1458 1458 1458 1458 1464 1464 1464 1464 1464 1464 1464 1464 1470 1464 1464 1464 1464 1470 1470 1470 1470 1470 1470 1470 1470 1470 1470 1470 1470 1464 1464 1464 1464 1464 1464 1464 1464 1464 1470 1470 1470 1477 1477 1477 1259 1259 1259 1259 1259 1255 1255 1250 1250 1250 1250 1250 1250 1250 1255 1245 1245 1255 1458 1464 1464 1464 1470 1470 1470 1470 1477 1477 1477 1477 1477 1477 1477 1477 1477 1483 1483 1483 1483 1489 1496 1632 1632 1632 1632 1632 1632 1639 2432 2415 2415 2415 2415 2415 2415 2415 2415 2415 2415 2415 2415 2415 2415 2415 2432 2432 2432 2432 2432 2432 2432 2432 2432 1731 1722 1722 1713 1713 1713 1713 1713 1713 1705 1705 1705 1705 1713 1705 1705 1713 2415 2415 2415 2415 2415 2415 2415 2415 2415 2415 2415 2415 2415 0 0 0 0 1278 1278 1283 1283 1283 1283 1283 1283 1283 1278 1278 1278 1278 1278 1278 1278 1283 1283 1283 1283 1278 1278 1278 1278 1278 1278 1278 1278 1278 1278 1278 1278 1278 1273 1273 1273 1273 1273 1273 1273 1278 1278 1278 2432 2432 2432 2432 2432 2432 2432 2432 2432 2432 2432 2432 2432 2432 2432 2432 2432 2432 2432 2432 2432 2415 2415 2415 2415 2415 2415 2415 2415 2415 2415 2415 2415 2415 2415 2415 2415 2415 2415 2415 2415 2415 2415 2415 2415 2415 2415 2415 2415 2415 2398 2398 2381 2381 2398 2398 2398 2415 2415 2415 2415 2415 2415 2415 2415 2398 2398 0 0 0 0 0 0 0 0 0 0
0 0 0 0 0 0 0 0 0 0 0 0 0 0 0 0 0 0 0 0 0 0 0 0 0 0 0 0 0 0 0 0 0 2184 2170 2170 2170 2170 2184 2184 2184 2184 2170 2170 2170 2170 2170 2170 2170 2170 2170 2184 2184 2184 2184 2184 2184 2198 2198 2198 2198 2198 2198 2198 2198 2184 2184 2198 2198 2198 2198 2198 2198 2198 2198 2198 2198 2198 2198 2198 2198 2198 2198 2198 2198 2198 2198 2198 2198 2198 2198 2198 2198 2198 2198 2198 2198 2198 2198 2212 2212 2212 2212 2212 2226 2226 2212 2212 2212 2212 2226 2241 2241 2241 2241 2241 2226 2226 2226 2226 2226 2226 2226 2226 2226 2241 2241 2241 2241 2241 2256 2256 2256 2256 2256 2256 2256 2256 2256 2256 2256 2256 2256 2271 2271 2271 2271 2271 2271 2271 2271 2256 2256 2256 2271 2271 1722 1722 1722 1722 1722 1713 1713 1639 1639 1639 1632 1632 1639 1639 1639 1639 1639 1639 1647 1655 1655 1671 1671 1671 1680 1680 2256 2271 2271 2271 2271 2286 2286 2286 2271 2271 2271 2271 2286 2286 2286 2286 2286 2286 2301 2301 2286 2286 2286 2286 2286 2286 2286 2301 2301 2301 2301 2301 2005 2005 2016 2028 2028 2040 2040 2040 2053 2053 2065 2065 2065 2065 2065 2301 2301 2301 2301 2317 2317 2317 1572 1572 1572 1572 1572 1579 1579 1579 1572 1557 1557 1550 1543 1543 1543 1536 1536 1536 1529 1529 1529 1529 1529 1536 1536 1543 1543 1550 1550 1550 1557 2317 2317 2301 2301 2301 2317 2317 2317 2317 2301 2301 2317 2317 2317 2317 2317 2317 2317 2317 2317 2317 2317 2317 2317 2317 2317 2333 2333 2333 2333 0 0 0 1392 1392 1392 1392 1392 1392 1392 1392 1392 1392 1392 1392 1392 1398 1404 1415 1421 1439 1439 1445 1445 1452 1452 1452 1458 1458 1458 1458 1458 1458 1452 1445 1445 1445 1445 1445 1445 1445 1445 1445 1452 1452 1452 1452 1452 1452 1452 1452 1452 1452 1452 1452 1452 1452 1458 1458 1458 1458 1458 1458 1458 1458 1458 1458 1458 1458 1458 1458 1458 1458 1458 1458 1458 1458 1464 1464 1458 1458 1458 1464 1464 1464 1464 1464 1464 1464 1464 1464 1464 1464 1464 1464 1464 1464 1464 1464 1464 1464 1464 1464 1464 1464 1464 1464 1464 1464 1464 1464 1464 1470 1470 1470 1470 1264 1264 1264 1264 1264 1259 1255 1255 1255 1250 1250 1250 1250 1250 1255 1245 1245 1458 1458 1458 1458 1458 1458 1458 1464 1464 1464 1464 1470 1470 1470 1470 1470 1470 1470 1477 1477 1477 1483 1489 1496 1624 1632 1632 1632 1632 1632 1632 2415 2398 2398 2398 2398 2398 2398 2398 2398 2398 2398 2398 2398 2398 2398 2415 2415 2415 2415 2415 2432 2432 2432 2432 2432 1731 1722 1722 1713 1713 1713 1713 1713 1713 1705 1705 1705 1705 1713 1705 1705 1731 2398 2398 2415 2415 2415 2415 2415 2415 2415 2415 2415 2415 2415 0 0 0 1283 1283 1283 1283 1283 1283 1288 1288 1288 1288 1283 1283 1283 1283 1283 1283 1283 1283 1283 1283 1283 1278 1278 1278 1278 1278 1278 1278 1278 1278 1278 1278 1278 1278 1273 1273 1278 1278 1278 1278 1278 1278 1278 1278 2415 2415 2415 2415 2415 2432 2432 2415 2415 2415 2415 2415 2432 2432 2432 2432 2432 2432 2432 2432 2432 2415 2415 2415 2415 2415 2415 2415 2415 2415 2415 2415 2415 2415 2415 2415 2415 2415 2415 2415 2398 2398 2398 2398 2398 2398 2398 2398 2398 2398 2398 2381 2381 2381 2381 2398 2398 2398 2398 2398 2398 2415 2398 2398 2415 2398 2398 0 0 0 0 0 0 0 0 0 0
0 0 0 0 0 0 0 0 0 0 0 0 0 0 0 0 0 0 0 0 0 0 0 0 0 0 0 0 0 0 0 0 0 2184 2170 2170 2170 2170 2170 2170 2170 2170 2170 2170 2170 2170 2170 2170 2170 2170 2170 2170 2184 2184 2184 2184 2184 2198 2198 2184 2184 2184 2184 2184 2184 2184 2184 2184 2184 2198 2198 2198 2198 2198 2198 2198 2198 2198 2184 2184 2198 2198 2198 2198 2198 2184 2184 2198 2198 2198 2198 2198 2184 2184 2198 2198 2198 2198 2198 2198 2198 2198 2198 2198 2198 2212 2212 2212 2212 2212 2226 2226 2226 2226 2226 2226 2226 2212 2212 2212 2212 2212 2212 2212 2226 2226 2241 2241 2241 2241 2241 2241 2241 2256 2241 2241 2256 2256 2241 2241 2241 2241 2256 2256 2256 2256 2256 2256 2256 2256 2256 2256 2256 2256 2271 2286 1722 1722 1722 1722 1722 1713 1713 1639 1639 1639 1639 1639 1639 1639 1639 1639 1639 1647 1647 1655 1663 1671 1671 1680 1680 1680 2256 2271 2271 2271 2271 2271 2271 2271 2271 2271 2271 2271 2271 2271 2271 2271 2271 2271 2271 2286 2286 2286 2286 2286 2286 2286 2286 2286 2301 2301 1981 1981 1993 1993 2005 2028 2028 2040 2053 2053 2065 2065 2065 2065 2065 2065 2065 2301 2301 2301 2301 2301 2317 2317 2090 1579 1579 1579 1579 1579 1579 1579 1572 1564 1557 1550 1543 1543 1543 1536 1536 1536 1536 1536 1536 1536 1536 1536 1543 1543 1543 1550 1550 1550 1557 2317 2301 2301 2301 2301 2301 2301 2301 2301 2301 2301 2317 2301 2301 2317 2317 2317 2317 2317 2301 2301 2301 2301 2301 2301 2317 2317 2317 2317 2317 2317 0 1392 1392 1392 1392 1398 1392 1392 1392 1392 1392 1392 1392 1392 1398 1404 1410 1415 1421 1439 1439 1439 1445 1445 1445 1445 1445 1445 1452 1452 1452 1452 1452 1445 1445 1445 1445 1445 1445 1445 1445 1445 1445 1445 1445 1445 1445 1445 1445 1445 1445 1445 1445 1445 1445 1452 1452 1452 1452 1452 1452 1452 1452 1452 1452 1452 1452 1452 1445 1445 1452 1452 1452 1452 1452 1458 1458 1458 1458 1458 1458 1458 1458 1458 1458 1458 1458 1458 1458 1458 1458 1458 1458 1458 1458 1458 1458 1458 1458 1458 1458 1458 1458 1458 1458 1458 1458 1464 1464 1464 1464 1464 1464 1470 1268 1268 1264 1264 1264 1264 1259 1259 1259 1259 1255 1255 1255 1255 1255 1259 1259 1458 1458 1458 1458 1458 1458 1458 1458 1458 1464 1458 1458 1464 1464 1464 1464 1464 1464 1464 1470 1470 1470 1483 1489 1624 1624 1632 1632 1632 1632 1632 1632 1647 2381 2381 2381 2381 2398 2398 2398 2398 2398 2398 2398 2398 2398 2398 2398 2398 2415 2415 2415 2415 2415 2415 2415 2415 1722 1722 1722 1713 1713 1713 1713 1713 1713 1705 1705 1705 1713 1713 1722 2381 2381 2381 2381 2398 2398 2398 2398 2398 2398 2398 2398 2398 2415 2415 2415 0 0 0 1283 1283 1283 1283 1288 1288 1288 1288 1288 1283 1283 1288 1288 1288 1288 1288 1288 1283 1283 1283 1278 1278 1278 1278 1278 1278 1278 1278 1278 1278 1278 1278 1278 1278 1278 1278 1278 1278 1278 1278 1278 1292 1302 1302 2415 2415 2415 2415 2415 2415 2415 2415 2415 2415 2415 2432 2432 2432 2432 2432 2432 2432 2432 2432 2415 2415 2415 2415 2415 2415 2398 2398 2415 2398 2398 2398 2398 2415 2415 2398 2398 2398 2398 2381 2381 2381 2381 2381 2398 2398 2398 2398 2398 2381 2381 2365 2365 2381 2381 2381 2398 2398 2398 2398 2398 2398 2398 2398 2398 2398 0 0 0 0 0 0 0 0 0 0
0 0 0 0 0 0 0 0 0 0 0 0 0 0 0 0 0 0 0 0 0 0 0 0 0 0 0 0 0 0 0 0 0 2170 2170 2170 2170 2170 2170 2170 2170 2170 2170 2170 2170 2170 2170 2170 2170 2170 2170 2170 2170 2170 2170 2170 2170 2184 2170 2170 2170 2170 2170 2170 2184 2170 2170 2170 2184 2170 2170 2170 2170 2170 2184 2184 2184 2184 2184 2184 2184 2184 2184 2184 2184 2184 2184 2184 2184 2184 2184 2184 2184 2184 2184 2184 2184 2198 2198 2198 2198 2198 2198 2198 2198 2198 2198 2198 2198 2198 2212 2212 2212 2212 2212 2212 2212 2212 2212 2212 2212 2212 2212 2212 2212 2212 2212 2226 2226 2226 2226 2241 2241 2241 2241 2241 2241 2241 2241 2226 2226 2241 2256 2256 2241 2241 2241 2241 2241 2256 2256 2256 2256 2256 2271 2286 2286 1722 1722 1722 1722 1722 1722 1639 1639 1639 1639 1639 1639 1639 1639 1639 1639 1647 1647 1655 1663 1671 1671 1680 1680 1680 2256 2256 2256 2256 2256 2256 2256 2256 2256 2256 2256 2256 2256 2256 2256 2256 2256 2256 2256 2271 2271 2271 2271 2271 2271 2271 2271 2286 2286 1981 1981 1981 1993 1993 2005 2028 2028 2040 2053 2053 2053 2065 2065 2065 2078 2065 2065 2301 2301 2301 2301 2301 2317 2317 2090 2090 2090 2090 2090 2090 2078 2078 2065 2065 2065 1550 1543 1543 1543 1536 1536 1536 1536 1536 1536 1536 1536 1536 1543 1543 1543 1550 1550 1550 1550 2301 2301 2301 2301 2301 2301 2301 2301 2301 2301 2301 2301 2301 2301 2317 2301 2301 2301 2301 2301 2301 2301 2301 2301 2301 2301 2301 2301 2301 2301 2301 0 1392 1392 1392 1392 1398 1392 1392 1392 1392 1392 1392 1398 1398 1398 1404 1410 1415 1421 1433 1439 1439 1439 1439 1439 1445 1445 1445 1445 1445 1445 1445 1445 1439 1439 1439 1439 1439 1439 1439 1439 1439 1439 1439 1439 1439 1439 1439 1439 1439 1439 1439 1439 1439 1439 1445 1445 1445 1445 1445 1445 1452 1445 1445 1445 1445 1445 1445 1445 1445 1445 1452 1452 1452 1452 1452 1452 1452 1452 1452 1452 1452 1452 1452 1452 1452 1452 1452 1458 1458 1458 1458 1458 1458 1458 1458 1458 1458 1458 1458 1458 1458 1458 1458 1458 1458 1458 1458 1458 1458 1458 1458 1458 1458 1268 1268 1268 1268 1264 1264 1259 1259 1259 1259 1255 1255 1255 1255 1255 1259 1259 1458 1458 1458 1452 1452 1452 1458 1458 1458 1458 1458 1458 1458 1458 1458 1458 1458 1458 1464 1464 1464 1464 1632 1632 1632 1632 1632 1639 1639 1639 1639 1639 1647 2365 2365 2381 2381 2381 2381 2381 2381 2381 2381 2381 2381 2381 2381 2381 2381 2381 2381 2381 2398 2398 2398 2398 2398 1722 1722 1722 1713 1713 1713 1713 1713 1713 1705 1705 1705 1713 1713 1722 2365 2365 2381 2381 2381 2381 2398 2398 2381 2381 2381 2398 2398 2398 2415 2415 0 0 1283 1283 1283 1288 1288 1288 1288 1288 1288 1292 1288 1288 1288 1288 1288 1288 1288 1288 1283 1283 1283 1283 1283 1283 1278 1278 1278 1278 1278 1278 1278 1278 1278 1278 1278 1278 1278 1278 1278 1278 1283 1288 1292 1302 2398 2398 2398 2415 2415 2415 2398 2398 2398 2398 2398 2398 2415 2415 2415 2415 2432 2432 2432 2432 2432 2415 2415 2415 2398 2398 2398 2398 2398 2398 2398 2398 2398 2398 2398 2398 2398 2398 2398 2398 2381 2381 2381 2381 2381 2381 2381 2381 2381 2381 2381 2381 2365 2365 2381 2381 2381 2381 2381 2381 2398 2381 2381 2381 2381 2381 2381 0 0 0 0 0 0 0 0 0 0
0 0 0 0 0 0 0 0 0 0 0 0 0 0 0 0 0 0 0 0 0 0 0 0 0 0 0 0 0 0 0 0 0 2156 2156 2170 2170 2170 2170 2170 2170 2156 2156 2156 2156 2156 2156 2156 2156 2156 2156 2156 2156 2156 2156 2156 2156 2156 2156 2156 2156 2156 2156 2156 2156 2156 2156 2156 2156 2156 2156 2156 2156 2170 2170 2170 2170 2170 2170 2170 2170 2170 2170 2170 2170 2170 2170 2170 2184 2184 2170 2170 2170 2170 2184 2184 2184 2184 2184 2198 2198 2184 2184 2198 2184 2184 2184 2184 2198 2198 2198 2198 2198 2198 2198 2198 2198 2198 2198 2198 2198 2212 2212 2212 2212 2212 2212 2212 2212 2212 2212 2212 2212 2212 2212 2212 2226 2226 2226 2226 2226 2226 2241 2226 2226 2226 2226 2226 2241 2241 2241 2241 2241 2256 2271 2286 2286 1731 1731 1731 1722 1722 1722 1639 1639 1639 1639 1639 1639 1639 1639 1639 1639 1647 1647 1655 1663 1671 1671 1680 1680 1680 2241 2241 2256 2256 2256 2256 2256 2256 2256 2256 2256 2256 2256 2256 2256 2256 2256 2256 2256 2271 2271 2271 2271 2256 2256 2256 2256 2271 1981 1981 1981 1981 1981 1993 2005 2028 2028 2040 2053 2053 2053 2065 2065 2065 2078 2065 2065 2301 2301 2286 2286 2301 2301 2090 2090 2090 2090 2090 2090 2090 2078 2065 2065 2065 2065 2065 1543 1543 1543 1543 1543 1543 1536 1536 1536 1536 1536 1536 1543 1543 1543 1550 1550 1550 1550 2301 2301 2286 2286 2286 2286 2286 2286 2286 2286 2286 2301 2301 2301 2301 2301 2301 2301 2301 2301 2301 2301 2301 2301 2301 2301 2301 2301 2286 2286 2286 0 1392 1392 1392 1398 1398 1398 1392 1392 1398 1392 1392 1398 1398 1398 1404 1410 1415 1421 1433 1433 1433 1439 1439 1439 1439 1439 1439 1439 1439 1439 1439 1439 1433 1433 1433 1439 1439 1439 1439 1439 1439 1439 1433 1433 1433 1433 1433 1433 1433 1433 1439 1439 1439 1439 1439 1439 1439 1439 1439 1439 1439 1439 1439 1439 1439 1439 1439 1439 1439 1439 1445 1445 1445 1445 1445 1445 1445 1445 1445 1439 1439 1445 1445 1445 1445 1445 1445 1452 1452 1452 1452 1452 1452 1452 1452 1452 1452 1452 1452 1452 1452 1458 1458 1458 1458 1458 1458 1458 1452 1452 1458 1452 1452 1268 1268 1268 1264 1264 1264 1259 1259 1259 1259 1259 1259 1259 1259 1259 1259 1264 1264 1452 1452 1452 1452 1452 1452 1452 1452 1452 1452 1452 1452 1458 1458 1458 1458 1458 1458 1458 1458 1464 1632 1639 1639 1639 1639 1639 1639 1647 1647 1655 1663 2365 2365 2365 2381 2381 2381 2381 2381 2381 2381 2381 2381 2381 2381 2381 2381 2381 2381 2381 2381 2381 2398 2398 2398 1722 1722 1722 1713 1713 1713 1713 1713 1713 1713 1713 1713 1713 1713 1722 2365 2365 2365 2381 2381 2381 2381 2381 2381 2381 2381 2381 2381 2398 2398 0 0 0 0 1283 1283 1288 1288 1288 1288 1288 1288 1292 1288 1288 1292 1288 1288 1288 1288 1288 1288 1283 1283 1283 1283 1283 1278 1278 1278 1278 1278 1278 1278 1278 1278 1278 1278 1278 1278 1278 1278 1278 1283 1292 1297 1307 2381 2398 2398 2398 2398 2398 2398 2398 2398 2398 2381 2381 2398 2398 2398 2398 2415 2415 2415 2415 2415 2398 2398 2398 2381 2381 2381 2381 2381 2381 2381 2381 2398 2398 2398 2381 2381 2381 2381 2381 2365 2365 2365 2365 2381 2381 2365 2365 2365 2365 2365 2365 2365 2365 2365 2381 2381 2381 2381 2381 2381 2381 2365 2365 2381 2365 2365 2365 0 0 0 0 0 0 0 0 0
0 0 0 0 0 0 0 0 0 0 0 0 0 0 0 0 0 0 0 0 0 0 0 0 0 0 0 0 0 0 0 0 0 2156 2156 2156 2156 2156 2156 2156 2156 2156 2156 2156 2156 2156 2156 2143 2143 2156 2156 2156 2156 2156 2156 2156 2156 2156 2156 2156 2156 2156 2156 2156 2156 2156 2156 2156 2156 2156 2156 2156 2156 2156 2156 2156 2156 2156 2156 2156 2156 2156 2156 2156 2156 2156 2156 2156 2156 2156 2156 2156 2156 2156 2170 2170 2170 2170 2170 2170 2170 2170 2170 2170 2170 2170 2184 2184 2184 2184 2184 2184 2184 2184 2184 2184 2198 2198 2198 2198 2198 2198 2198 2212 2212 2212 2212 2212 2212 2212 2212 2212 2212 2212 2212 2212 2226 2212 2212 2226 2226 2226 2226 2226 2226 2226 2226 2226 2226 2241 2241 2241 2241 2256 2256 2271 2271 1731 1731 1731 1722 1722 1647 1647 1639 1639 1639 1639 1639 1639 1639 1639 1647 1647 1647 1655 1663 1671 1671 1680 1680 1680 2241 2241 2241 2241 2256 2256 2256 2256 2256 2256 2256 2256 2256 2256 2256 2256 2256 2256 2256 2256 2256 2256 2256 2256 2256 2256 2256 1981 1981 1981 1981 1981 1981 1993 2005 2028 2040 2040 2040 2053 2053 2065 2065 2065 2078 2078 2301 2286 2286 2286 2286 2286 2286 2090 2090 2090 2090 2090 2090 2090 2078 2065 2065 2065 2065 2065 1543 1543 1543 1543 1543 1543 1543 1536 1536 1543 1543 1543 1543 1543 1550 1550 1550 1550 1550 2286 2286 2286 2286 2286 2286 2286 2286 2286 2286 2286 2286 2286 2286 2301 2301 2301 2301 2301 2301 2301 2286 2286 2286 2286 2286 2286 2286 2286 2286 2286 1398 1398 1398 1398 1398 1398 1398 1398 1398 1398 1398 1398 1398 1398 1398 1404 1410 1415 1421 1427 1433 1433 1433 1433 1433 1433 1433 1433 1433 1433 1433 1433 1433 1433 1433 1433 1433 1433 1433 1433 1433 1433 1433 1433 1433 1433 1433 1433 1433 1433 1433 1433 1433 1433 1433 1433 1433 1433 1433 1433 1433 1439 1433 1433 1433 1433 1433 1439 1439 1439 1439 1439 1439 1439 1439 1439 1439 1439 1439 1439 1439 1439 1439 1439 1439 1439 1439 1439 1445 1445 1445 1445 1445 1445 1445 1445 1445 1445 1452 1452 1445 1445 1452 1452 1452 1452 1452 1452 1452 1452 1452 1452 1452 1452 1268 1268 1268 1264 1264 1268 1259 1259 1259 1259 1259 1259 1259 1259 1259 1259 1264 1264 1273 1273 1445 1445 1445 1445 1445 1445 1445 1445 1445 1452 1452 1452 1452 1452 1452 1458 1452 1452 1639 1639 1639 1639 1639 1647 1647 1647 1647 1647 1655 1655 2349 2349 2365 2365 2365 2365 2381 2381 2381 2381 2381 2381 2381 2365 2365 2365 2381 2381 2381 2381 2381 2398 2398 2450 1722 1722 1722 1722 1713 1713 1713 1713 1713 1713 1713 1713 1713 1722 1722 2349 2349 2365 2365 2365 2365 2365 2365 2365 2365 2365 2381 2381 2381 2398 0 0 0 1288 1288 1288 1288 1288 1288 1288 1292 1292 1292 1292 1292 1292 1292 1292 1288 1288 1288 1288 1283 1283 1283 1283 1283 1278 1278 1278 1278 1278 1278 1278 1278 1278 1278 1278 1278 1278 1278 1278 1278 1283 2381 1312 1312 2381 2398 2398 2398 2398 2398 2398 2398 2381 2381 2381 2381 2398 2398 2398 2398 2415 2415 2398 2398 2398 2381 2381 2381 2381 2381 2381 2381 2381 2381 2381 2381 2381 2381 2381 2365 2365 2365 2365 2365 2349 2349 2365 2365 2365 2365 2365 2365 2365 2365 2365 2365 2365 2365 2365 2365 2365 2365 2365 2365 2365 2365 2365 2365 2365 2365 2365 2365 0 0 0 0 0 0 0 0 0
0 0 0 0 0 0 0 0 0 0 0 0 0 0 0 0 0 0 0 0 0 0 0 0 0 0 0 0 0 0 0 0 0 2143 2143 2156 2143 2143 2143 2156 2156 2156 2143 2143 2143 2143 2143 2129 2129 2143 2143 2143 2143 2156 2156 2143 2143 2143 2143 2143 2156 2156 2156 2156 2143 2143 2156 2156 2156 2143 2143 2143 2156 2156 2156 2143 2143 2143 2156 2156 2156 2143 2143 2156 2156 2156 2156 2156 2156 2156 2156 2156 2156 2156 2156 2156 2156 2156 2156 2156 2156 2156 2156 2156 2156 2156 2170 2170 2170 2170 2156 2156 2156 2156 2184 2184 2184 2184 2184 2184 2198 2198 2198 2198 2198 2198 2198 2198 2198 2198 2198 2198 2198 2198 2198 2198 2198 2198 2198 2198 2198 2212 2198 2198 2212 2212 2212 2212 2212 2212 2226 2226 2226 2241 2256 2271 1739 1731 1731 1731 1731 1713 1647 1647 1639 1639 1639 1639 1639 1647 1647 1647 1647 1647 1647 1655 1663 1671 1671 1680 1680 1688 2226 2241 2241 2241 2241 2241 2241 2241 2241 2241 2241 2241 2241 2241 2241 2241 2241 2241 2241 2256 2256 2256 2256 2256 2256 2256 2256 1981 1981 1981 1981 1981 1981 1993 1993 2028 2040 2040 2040 2053 2053 2065 2065 2065 2078 2078 2286 2271 2271 2271 2271 2271 2286 2256 2090 2090 2090 2090 2090 2090 2078 2065 2065 2065 2065 2065 1543 1543 1543 1543 1543 1543 1543 1536 1536 1543 1543 1543 1543 1550 1550 1550 1550 1550 1550 2286 2286 2286 2286 2286 2286 2271 2271 2271 2271 2271 2271 2271 2271 2286 2286 2286 2301 2301 2286 2286 2286 2271 2271 2286 2286 2286 2286 2286 2286 2286 1398 1398 1398 1398 1398 1398 1398 1398 1398 1398 1398 1398 1398 1398 1398 1404 1415 1415 1421 1427 1427 1427 1433 1433 1433 1433 1427 1427 1427 1427 1427 1427 1427 1427 1427 1427 1433 1433 1433 1433 1433 1433 1433 1427 1427 1427 1427 1427 1427 1427 1433 1433 1433 1433 1433 1433 1433 1433 1433 1433 1433 1433 1433 1433 1433 1433 1433 1433 1433 1433 1433 1439 1439 1439 1439 1439 1433 1433 1433 1433 1433 1433 1433 1433 1433 1439 1439 1439 1439 1439 1439 1439 1439 1439 1439 1439 1445 1445 1445 1445 1445 1445 1445 1445 1445 1445 1445 1445 1445 1445 1445 1445 1445 1439 1268 1268 1268 1268 1268 1268 1264 1259 1259 1259 1259 1259 1259 1259 1259 1259 1264 1264 1273 1273 1439 1439 1439 1439 1439 1439 1439 1439 1439 1445 1445 1445 1445 1452 1452 1452 1452 1452 1647 1647 1647 1647 1647 1647 1647 1647 1647 1647 1655 1655 2333 2333 2333 2349 2349 2365 2365 2365 2365 2365 2365 2365 2365 2365 2365 2365 2365 2365 2365 2365 2365 2381 2415 2450 2450 1722 1722 1722 1722 1713 1713 1713 1713 1713 1713 1713 1713 1722 1731 2349 2349 2349 2365 2365 2365 2365 2365 2365 2365 2365 2365 2381 2381 2381 0 1292 1292 1288 1288 1288 1288 1288 1292 1292 1292 1292 1292 1292 1292 1292 1292 1292 1292 1288 1288 1288 1283 1283 1283 1283 1283 1283 1283 1283 1278 1278 1278 1278 1278 1278 1278 1278 1278 1278 1283 1283 1283 1283 2381 2381 2398 2398 2398 2398 2398 2381 2381 2381 2381 2381 2381 2381 2381 2381 2381 2398 2398 2398 2398 2381 2381 2381 2365 2365 2365 2365 2365 2365 2365 2365 2365 2365 2365 2365 2365 2365 2349 2349 2349 2349 2349 2349 2349 2349 2349 2365 2365 2365 2365 2365 2349 2349 2365 2365 2365 2365 2365 2365 2365 2365 2365 2365 2365 2365 2365 2365 2365 2349 2349 0 0 0 0 0 0 0 0 0
0 0 0 0 0 0 0 0 0 0 0 0 0 0 0 0 0 0 0 0 0 0 0 0 0 0 0 0 0 0 0 0 0 2129 2129 2116 2116 2129 2129 2143 2143 2143 2143 2143 2143 2143 2129 2116 2116 2129 2129 2129 2129 2129 2129 2129 2143 2143 2143 2143 2143 2143 2143 2143 2143 2143 2143 2143 2143 2129 2129 2143 2143 2143 2143 2143 2143 2143 2143 2143 2143 2143 2143 2143 2143 2143 2143 2143 2143 2143 2143 2143 2143 2143 2143 2143 2143 2156 2156 2156 2156 2156 2156 2156 2156 2156 2156 2156 2156 2170 2156 2156 2156 2156 2184 2184 2184 2170 2170 2184 2184 2184 2198 2198 2198 2198 2198 2198 2198 2198 2198 2198 2198 2184 2184 2184 2184 2184 2184 2198 2198 2198 2198 2198 2198 2198 2198 2198 2212 2198 2198 2212 2212 2212 2226 2226 1739 1731 1731 1731 1731 1713 1647 1647 1639 1639 1639 1639 1639 1647 1647 1647 1647 1647 1655 1663 1663 1671 1671 1680 1680 2212 2212 2226 2226 2241 2241 2241 2241 2241 2241 2241 2241 2241 2241 2241 2241 2241 2241 2241 2241 2256 2256 2256 2256 2256 2256 2256 1970 1970 1970 1970 1970 1970 1981 1981 1993 2028 2040 2040 2040 2053 2053 2065 2065 2065 2078 2078 2090 2271 2256 2256 2271 2271 2271 2256 2090 2090 2090 2090 2090 2090 2078 2065 2065 2065 2065 1543 1543 1543 1543 1543 1543 1543 1543 1543 1543 1543 1543 1543 1550 1550 1550 1550 1557 1557 1557 2286 2286 2271 2271 2271 2271 2271 2271 2271 2256 2256 2271 2271 2271 2286 2286 2286 2286 2286 2286 2286 2286 2271 2271 2286 2271 2271 2271 2271 2271 2271 1398 1398 1398 1398 1398 1398 1398 1398 1398 1398 1398 1398 1398 1398 1404 1404 1415 1415 1415 1421 1421 1421 1427 1427 1427 1421 1421 1421 1421 1421 1421 1421 1421 1421 1421 1421 1421 1427 1427 1427 1427 1427 1427 1421 1421 1421 1421 1421 1421 1421 1427 1427 1427 1427 1427 1427 1427 1427 1427 1427 1427 1427 1427 1427 1433 1421 1421 1427 1427 1433 1433 1433 1433 1433 1433 1433 1433 1433 1433 1427 1427 1427 1433 1427 1427 1433 1433 1433 1433 1433 1433 1433 1439 1439 1439 1439 1439 1439 1439 1439 1439 1439 1439 1439 1439 1439 1439 1439 1439 1439 1439 1439 1439 1439 1439 1268 1268 1268 1268 1268 1264 1264 1259 1259 1259 1259 1259 1259 1264 1264 1264 1268 1273 1278 1433 1433 1433 1439 1439 1439 1439 1439 1439 1439 1445 1445 1445 1445 1445 1452 1452 1647 1647 1647 1647 1647 1647 1647 1647 1647 1647 1655 1655 1655 2333 2333 2333 2333 2349 2349 2349 2349 2349 2349 2365 2365 2349 2349 2349 2349 2365 2365 2365 2365 2365 2381 2415 2450 1722 1722 1722 1722 1722 1722 1713 1713 1713 1713 1713 1713 1713 1722 1722 2333 2333 2333 2349 2349 2365 2365 2365 2365 2365 2365 2365 2365 0 0 0 0 1292 1292 1292 1292 1288 1288 1292 1292 1292 1292 1292 1292 1292 1292 1292 1292 1292 1288 1288 1288 1283 1283 1283 1283 1283 1283 1283 1283 1283 1283 1278 1278 1278 1278 1278 1278 1278 1278 1283 1283 1283 2381 2381 2381 2381 2381 2381 2381 2381 2381 2381 2381 2381 2381 2381 2381 2381 2381 2381 2381 2381 2381 2381 2381 2381 2381 2365 2365 2365 2365 2365 2365 2365 2365 2365 2365 2365 2365 2349 2349 2333 2333 2349 2349 2349 2333 2333 2349 2349 2349 2349 2349 2349 2349 2349 2349 2365 2365 2365 2365 2365 2365 2365 2365 2365 2365 2365 2365 2365 2349 2349 2349 2349 0 0 0 0 0 0 0 0 0
0 0 0 0 0 0 0 0 0 0 0 0 0 0 0 0 0 0 0 0 0 0 0 0 0 0 0 0 0 0 0 0 0 2129 2116 2116 2116 2116 2116 2116 2129 2129 2129 2129 2129 2129 2129 2116 2116 2129 2129 2129 2129 2129 2129 2129 2143 2129 2129 2129 2143 2143 2143 2143 2129 2129 2143 2143 2143 2129 2129 2129 2143 2143 2143 2143 2143 2143 2143 2143 2143 2143 2143 2143 2143 2143 2143 2143 2143 2143 2143 2143 2143 2143 2143 2143 2143 2143 2143 2156 2156 2156 2156 2156 2143 2143 2156 2156 2156 2156 2170 2170 2170 2156 2156 2156 2170 2170 2170 2170 2184 2184 2184 2184 2184 2184 2184 2198 2198 2198 2184 2184 2184 2170 2170 2170 2170 2170 2184 2184 2184 2198 2198 2198 2198 2198 2198 2198 2198 2198 2198 2198 2212 2212 2226 2226 1739 1731 1731 1731 1731 1655 1647 1647 1639 1639 1639 1639 1639 1647 1647 1647 1647 1647 1655 1663 1663 1671 1671 2184 2184 2198 2198 2198 2212 2212 2212 2226 2226 2226 2226 2226 2226 2241 2241 2241 2241 2226 2226 2226 2226 2241 2241 2241 2241 2256 1959 1959 1959 1959 1959 1959 1959 1970 1970 1981 1993 2040 2040 2040 2053 2053 2053 2065 2065 2078 2078 2078 2090 2256 2256 2256 2256 2256 2256 2256 2103 2090 2090 2090 2090 2090 2078 2065 2065 2065 2065 1543 1543 1543 1543 1543 1543 1543 1543 1543 1543 1543 1543 1543 1543 1550 1550 1550 1557 1557 1557 2241 2241 2256 2256 2271 2271 2271 2256 2256 2256 2256 2256 2256 2271 2271 2271 2286 2286 2286 2286 2271 2271 2256 2256 2256 2271 2271 2256 2256 2256 0 1398 1398 1398 1398 1398 1398 1398 1398 1398 1398 1398 1398 1398 1398 1404 1404 1410 1415 1415 1415 1421 1421 1421 1421 1421 1421 1415 1415 1415 1415 1415 1415 1415 1415 1410 1410 1415 1415 1415 1415 1415 1415 1415 1415 1415 1415 1415 1415 1415 1415 1421 1421 1421 1421 1421 1421 1421 1421 1421 1421 1421 1421 1421 1415 1415 1415 1415 1421 1421 1427 1427 1427 1433 1433 1427 1427 1427 1427 1427 1427 1427 1427 1427 1427 1427 1427 1427 1427 1427 1433 1433 1433 1433 1433 1433 1433 1439 1439 1439 1439 1439 1439 1433 1433 1433 1433 1433 1433 1433 1439 1439 1439 1439 1439 1439 1268 1268 1268 1268 1268 1264 1264 1259 1259 1259 1259 1264 1264 1264 1264 1264 1268 1273 1278 1433 1433 1433 1433 1433 1433 1433 1433 1433 1433 1439 1439 1439 1439 1439 1452 1647 1647 1647 1647 1647 1647 1647 1647 1647 1647 1655 1655 1663 1663 2317 2317 2317 2333 2333 2333 2333 2349 2349 2349 2349 2349 2333 2333 2349 2349 2365 2365 2365 2349 2349 2381 2381 1722 1722 1722 1722 1722 1722 1722 1713 1713 1713 1713 1713 1713 1713 1722 1722 2317 2317 2333 2349 2349 2349 2349 2349 2349 2349 2349 2333 2333 2333 0 0 1297 1297 1292 1292 1292 1292 1292 1292 1292 1292 1292 1292 1292 1292 1292 1292 1292 1292 1288 1288 1288 1288 1288 1283 1283 1283 1283 1283 1283 1283 1283 1278 1278 1278 1278 1278 1278 1278 1278 1283 1283 1283 2381 2381 2365 2365 2365 2365 2381 2381 2381 2381 2381 2381 2381 2381 2365 2365 2365 2365 2365 2381 2381 2381 2381 2381 2381 2365 2365 2365 2349 2349 2349 2365 2365 2349 2349 2349 2349 2349 2349 2333 2333 2349 2349 2349 2333 2333 2333 2349 2349 2349 2349 2349 2349 2349 2349 2349 2349 2349 2349 2349 2349 2349 2349 2349 2349 2349 2349 2365 2349 2349 2349 2349 0 0 0 0 0 0 0 0 0
0 0 0 0 0 0 0 0 0 0 0 0 0 0 0 0 0 0 0 0 0 0 0 0 0 0 0 0 0 0 0 0 0 0 2103 2103 2116 2116 2116 2116 2129 2129 2116 2116 2116 2116 2116 2116 2116 2116 2116 2129 2116 2116 2116 2116 2116 2116 2129 2129 2129 2129 2129 2129 2129 2129 2129 2143 2129 2129 2116 2116 2116 2129 2129 2129 2143 2143 2143 2143 2143 2143 2129 2129 2129 2129 2129 2129 2129 2143 2143 2143 2143 2143 2143 2143 2143 2143 2143 2143 2143 2143 2143 2143 2143 2143 2156 2156 2156 2156 2143 2143 2156 2156 2156 2156 2156 2156 2156 2156 2170 2170 2170 2170 2170 2184 2184 2184 2184 2184 2170 2170 2170 2170 2156 2156 2156 2170 2170 2184 2184 2198 2184 2184 2184 2184 2184 2184 2184 2184 2184 2198 2198 2198 2198 2198 1739 1731 1731 1731 1731 1655 1647 1647 1647 1639 1639 1639 1639 1647 1647 1647 1647 1655 1655 1663 1663 1671 1671 2170 2170 2184 2184 2198 2198 2212 2212 2212 2212 2226 2226 2226 2226 2226 2226 2226 2226 2212 2212 2226 2226 2226 2226 2241 2241 1947 1947 1947 1947 1947 1947 1959 1959 1959 1970 2040 2040 2040 2040 2053 2053 2053 2065 2065 2065 2078 2078 2078 2090 2226 2241 2241 2241 2241 2241 2241 2116 2090 2090 2090 2090 2090 2078 2078 2065 2065 2065 1543 1543 1543 1543 1543 1543 1543 1543 1543 1543 1543 1543 1543 1543 1550 1550 1550 1557 1557 1557 2226 2226 2241 2256 2256 2256 2256 2256 2256 2256 2256 2256 2256 2256 2271 2271 2271 2286 2271 2271 2271 2256 2256 2256 2256 2256 2256 2256 2256 2256 2256 1398 1398 1398 1398 1398 1398 1404 1398 1398 1398 1398 1398 1398 1398 1404 1404 1410 1410 1415 1415 1421 1421 1415 1415 1415 1415 1410 1410 1410 1410 1415 1415 1415 1410 1410 1410 1410 1404 1404 1410 1410 1410 1410 1410 1415 1415 1415 1415 1415 1415 1415 1421 1421 1421 1421 1421 1415 1415 1415 1415 1415 1415 1415 1415 1415 1415 1415 1415 1415 1421 1421 1427 1427 1427 1427 1427 1427 1427 1427 1427 1427 1427 1427 1427 1427 1427 1427 1427 1427 1427 1427 1427 1427 1427 1433 1433 1433 1433 1433 1433 1433 1433 1427 1427 1427 1427 1427 1427 1427 1427 1433 1433 1427 1427 1439 1268 1268 1268 1268 1268 1264 1264 1264 1259 1259 1259 1264 1264 1264 1264 1268 1273 1273 1278 1427 1427 1427 1427 1427 1427 1427 1427 1427 1433 1433 1433 1433 1439 1439 1439 1647 1647 1647 1647 1647 1647 1647 1647 1647 1647 1655 1663 1663 1663 2317 2317 2317 2317 2333 2333 2333 2333 2333 2333 2333 2333 2333 2333 2333 2333 2349 2349 2349 2349 2349 2381 1722 1722 1722 1722 1722 1722 1722 1722 1722 1713 1713 1713 1713 1713 1713 1722 2301 2317 2317 2317 2333 2333 2349 2349 2349 2349 2349 2333 2333 2333 0 0 0 1297 1297 1292 1292 1292 1292 1292 1292 1292 1292 1292 1292 1292 1292 1292 1292 1292 1292 1292 1292 1288 1288 1288 1288 1288 1288 1288 1288 1288 1288 1283 1283 1283 1283 1283 1283 1283 1283 1283 1283 1283 2381 2381 2365 2365 2365 2365 2365 2365 2365 2365 2365 2365 2365 2365 2365 2365 2349 2349 2349 2349 2349 2365 2365 2365 2365 2365 2349 2349 2349 2349 2349 2349 2349 2349 2333 2333 2333 2349 2349 2349 2349 2349 2349 2349 2333 2333 2333 2333 2333 2333 2333 2333 2349 2349 2349 2349 2349 2349 2349 2349 2349 2349 2349 2349 2349 2349 2349 2349 2349 2349 2349 2349 2349 0 0 0 0 0 0 0 0 0
0 0 0 0 0 0 0 0 0 0 0 0 0 0 0 0 0 0 0 0 0 0 0 0 0 0 0 0 0 0 0 0 0 0 2103 2103 2103 2103 2116 2116 2116 2116 2116 2116 2116 2116 2116 2116 2116 2116 2116 2116 2116 2116 2116 2116 2116 2116 2116 2116 2129 2129 2129 2129 2116 2116 2116 2116 2116 2129 2116 2116 2116 2129 2129 2129 2129 2129 2143 2129 2129 2129 2129 2129 2129 2129 2116 2116 2129 2129 2129 2129 2129 2143 2143 2143 2143 2143 2143 2143 2143 2143 2143 2143 2143 2143 2143 2156 2156 2143 2143 2143 2143 2143 2143 2143 2143 2143 2156 2156 2156 2156 2156 2170 2170 2170 2170 2170 2170 2170 2156 2156 2156 2156 2156 2156 2156 2156 2170 2170 2184 2184 2184 2184 2184 2184 2184 2184 2184 2170 2170 2184 2184 2184 2198 2198 1739 1731 1731 1731 1731 1713 1647 1647 1647 1639 1639 1639 1647 1647 1647 1647 1655 1655 1655 1663 1663 1671 1671 2170 2170 2184 2184 2184 2198 2198 2198 2198 2212 2212 2212 2212 2226 2226 2226 2226 2212 2212 2212 2212 2212 2212 2212 1926 1926 1926 1936 1936 1947 1947 1947 1959 1959 1959 1970 2040 2040 2053 2053 2053 2053 2053 2065 2065 2065 2078 2078 2078 2090 2198 2198 2226 2226 2226 2226 2198 2129 2090 2090 2090 2090 2090 2078 2078 2078 2078 1543 1543 1543 1543 1543 1543 1543 1543 1543 1543 1543 1543 1543 1543 1543 1550 1550 1550 1557 1557 2212 2212 2226 2241 2241 2241 2256 2256 2256 2256 2241 2241 2241 2241 2241 2256 2256 2256 2256 2256 2256 2256 2256 2256 2256 2256 2256 2256 2256 2256 2256 2256 2256 1398 1398 1398 1398 1398 1404 1404 1398 1398 1398 1398 1398 1404 1404 1404 1404 1410 1410 1410 1415 1415 1415 1415 1410 1410 1410 1410 1410 1410 1410 1410 1410 1404 1404 1404 1404 1404 1404 1404 1404 1410 1410 1410 1410 1410 1410 1410 1410 1415 1415 1415 1415 1415 1415 1415 1415 1415 1415 1415 1410 1410 1415 1415 1415 1415 1415 1415 1415 1415 1415 1415 1421 1421 1421 1421 1421 1421 1427 1421 1421 1421 1421 1421 1421 1415 1415 1415 1415 1415 1421 1421 1421 1421 1427 1427 1427 1427 1427 1427 1427 1427 1427 1421 1421 1427 1427 1421 1421 1427 1427 1427 1427 1427 1439 1268 1268 1268 1268 1268 1264 1264 1264 1264 1264 1264 1264 1264 1268 1268 1268 1273 1273 1415 1415 1415 1421 1427 1427 1427 1427 1427 1427 1427 1427 1427 1433 1433 1433 1655 1655 1655 1647 1647 1647 1647 1647 1647 1647 1655 1655 1663 1663 1663 2317 2317 2317 2317 2317 2333 2333 2333 2333 2333 2333 2333 2317 2317 2333 2333 2333 2333 2333 2333 2333 1731 1722 1722 1722 1722 1722 1722 1722 1722 1722 1722 1713 1713 1713 1713 1713 1722 2301 2301 2317 2317 2317 2333 2333 2333 2333 2333 2349 2333 2333 2333 2333 0 1297 1297 1297 1297 1297 1292 1292 1292 1292 1292 1292 1292 1292 1292 1292 1292 1292 1292 1292 1292 1292 1292 1292 1288 1288 1288 1288 1288 1288 1288 1288 1288 1283 1283 1283 1283 1283 1283 1283 1283 1283 1283 1283 2365 2365 2349 2349 2349 2349 2349 2349 2349 2349 2349 2349 2349 2349 2349 2349 2333 2333 2333 2349 2349 2349 2365 2365 2365 2333 2333 2333 2333 2317 2317 2317 2317 2317 2333 2333 2333 2333 2333 2333 2349 2349 2333 2333 2333 2333 2333 2333 2333 2333 2333 2333 2333 2349 2349 2349 2349 2349 2333 2333 2333 2333 2333 2333 2349 2349 2349 2349 2349 2349 2349 2349 0 0 0 0 0 0 0 0 0
0 0 0 0 0 0 0 0 0 0 0 0 0 0 0 0 0 0 0 0 0 0 0 0 0 0 0 0 0 0 0 0 0 0 2103 2103 2103 2103 2103 2103 2116 2116 2103 2103 2103 2103 2103 2103 2103 2116 2116 2116 2103 2103 2103 2103 2103 2116 2116 2116 2129 2129 2129 2116 2116 2116 2116 2116 2116 2116 2103 2103 2103 2103 2129 2129 2129 2129 2129 2129 2129 2129 2129 2129 2116 2116 2116 2116 2116 2129 2129 2129 2129 2129 2129 2129 2129 2129 2129 2143 2143 2143 2143 2143 2143 2143 2143 2143 2143 2143 2143 2143 2143 2143 2143 2143 2143 2143 2143 2143 2143 2143 2143 2156 2156 2156 2156 2156 2156 2156 2156 2156 2156 2156 2156 2156 2156 2156 2156 2170 2170 2170 2170 2170 2170 2170 2170 2170 2170 2170 2170 2170 2170 2170 2184 2170 1739 1731 1731 1739 1731 1731 1647 1647 1647 1647 1639 1639 1647 1647 1647 1647 1655 1655 1663 1663 1671 1671 1671 2156 2170 2184 2184 2184 2184 2198 2198 2198 2198 2198 2198 2198 2212 2212 2212 2212 2198 2198 2198 2212 2198 2198 2198 1915 1915 1915 1915 1926 1936 1936 1947 1947 1959 1959 1959 2040 2040 2065 2065 2065 2065 2065 2065 2065 2078 2078 2078 2090 2103 2198 2198 2212 2226 2226 2212 2184 2129 2103 2090 2090 2090 2090 2078 2078 2078 2078 1543 1543 1543 1543 1543 1543 1543 1543 1543 1543 1543 1543 1543 1543 1550 1550 1550 1557 1564 1572 2198 2212 2212 2241 2241 2241 2241 2241 2241 2241 2241 2241 2241 2241 2241 2241 2241 2241 2241 2241 2241 2241 2241 2241 2241 2241 2241 2241 2241 2256 2256 2256 2256 1398 1398 1398 1398 1398 1404 1404 1404 1398 1398 1398 1398 1398 1398 1404 1404 1404 1410 1410 1410 1410 1410 1410 1404 1404 1404 1404 1404 1404 1404 1410 1404 1404 1398 1398 1398 1398 1398 1398 1398 1398 1398 1398 1404 1404 1404 1410 1410 1410 1410 1410 1410 1415 1410 1410 1410 1410 1410 1410 1410 1410 1410 1410 1410 1410 1410 1410 1410 1415 1415 1415 1415 1415 1415 1415 1415 1421 1421 1415 1415 1421 1415 1415 1415 1415 1415 1415 1415 1415 1415 1415 1415 1415 1415 1421 1421 1427 1421 1421 1427 1427 1415 1415 1415 1415 1421 1415 1415 1421 1421 1421 1421 1433 1433 1268 1268 1268 1273 1273 1264 1264 1264 1264 1264 1264 1268 1268 1268 1268 1268 1273 1273 1410 1410 1415 1415 1421 1421 1421 1421 1421 1421 1421 1421 1427 1427 1427 1427 1663 1655 1655 1647 1647 1647 1647 1655 1655 1655 1655 1655 1663 1663 2317 2317 2317 2317 2317 2317 2317 2333 2317 2317 2317 2317 2317 2317 2317 2317 2317 2333 2333 2333 2333 2333 1731 1722 1722 1722 1722 1722 1722 1722 1722 1722 1722 1713 1713 1713 1713 1713 1722 2286 2301 2301 2301 2317 2317 2317 2317 2317 2317 2333 2317 2317 0 2317 0 1297 1297 1297 1297 1297 1292 1292 1292 1292 1292 1292 1292 1292 1292 1292 1292 1292 1292 1292 1292 1292 1292 1292 1288 1288 1292 1292 1288 1288 1288 1288 1292 1288 1288 1288 1288 1288 1288 1288 1288 1292 1292 0 2349 2349 2333 2333 2333 2349 2333 2333 2333 2333 2333 2333 2333 2333 2333 2333 2333 2333 2333 2333 2349 2349 2349 2349 2349 2333 2333 2333 2317 2317 2317 2317 2301 2301 2301 2301 2301 2301 2301 2317 2317 2333 2333 2333 2333 2333 2333 2333 2333 2333 2333 2333 2333 2333 2333 2349 2333 2333 2333 2333 2333 2333 2333 2333 2333 2333 2333 2349 2349 2349 2349 2349 0 0 0 0 0 0 0 0 0
0 0 0 0 0 0 0 0 0 0 0 0 0 0 0 0 0 0 0 0 0 0 0 0 0 0 0 0 0 0 0 0 0 0 2090 2090 2090 2103 2103 2103 2103 2103 2090 2090 2103 2103 2103 2103 2103 2103 2103 2103 2103 2103 2103 2090 2090 2103 2103 2103 2116 2116 2116 2116 2116 2116 2116 2116 2116 2116 2103 2103 2103 2103 2116 2129 2129 2129 2129 2103 2103 2116 2116 2116 2116 2116 2116 2116 2116 2116 2129 2129 2129 2129 2129 2129 2129 2129 2129 2129 2143 2143 2143 2143 2143 2143 2143 2143 2143 2143 2143 2129 2129 2129 2129 2129 2129 2129 2143 2143 2143 2143 2143 2143 2143 2143 2156 2156 2156 2156 2156 2156 2156 2156 2156 2143 2143 2156 2156 2156 2156 2170 2170 2170 2156 2156 2156 2156 2156 2156 2156 2156 2156 2170 2170 2170 2170 1739 1739 1739 1739 1731 1647 1647 1647 1639 1639 1639 1639 1647 1647 1647 1655 1655 1663 1663 1671 1671 1671 2143 2156 2170 2170 2170 2184 2184 2184 2184 2184 2184 2198 2198 2198 2198 2198 2198 2184 2184 2184 2198 2198 2198 2198 1915 1915 1915 1915 1915 1936 1936 1936 1947 1959 1959 2065 2065 2065 2065 2065 2065 2065 2065 2065 2078 2078 2078 2078 2090 2103 2184 2198 2212 2212 2212 2198 2170 2143 2103 2090 2090 2090 2090 2078 2078 2078 2078 1543 1543 1543 1543 1543 1543 1543 1543 1543 1543 1543 1543 1543 1550 1550 1550 1557 1557 1564 1572 2198 2212 2212 2226 2226 2226 2226 2226 2241 2241 2241 2241 2241 2241 2241 2226 2226 2226 2226 2241 2241 2241 2241 2241 2241 2241 2241 2241 2241 2241 2241 2256 2256 2256 1398 1398 1398 1398 1404 1404 1404 1404 1404 1398 1398 1398 1398 1404 1404 1404 1410 1410 1410 1410 1404 1404 1404 1404 1404 1404 1404 1404 1404 1398 1398 1392 1392 1392 1392 1392 1392 1398 1398 1398 1398 1398 1398 1404 1404 1404 1404 1410 1410 1410 1410 1410 1410 1410 1410 1410 1410 1410 1404 1404 1404 1404 1404 1404 1404 1404 1404 1410 1410 1410 1410 1410 1410 1410 1415 1415 1415 1410 1410 1415 1415 1410 1410 1410 1410 1410 1410 1410 1410 1410 1415 1415 1415 1415 1421 1421 1415 1415 1421 1421 1415 1415 1415 1415 1415 1415 1415 1415 1415 1415 1415 1415 1427 1273 1268 1268 1273 1273 1268 1268 1264 1264 1264 1264 1268 1268 1268 1268 1268 1404 1404 1404 1410 1410 1410 1415 1415 1415 1415 1415 1421 1421 1421 1421 1427 1427 1427 1655 1647 1647 1647 1647 1647 1647 1655 1655 1655 1655 1655 1663 1663 2301 2301 2301 2301 2317 2317 2317 2317 2317 2317 2317 2317 2317 2317 2317 2317 2317 2317 2301 2301 2333 1722 1722 1722 1722 1722 1722 1722 1722 1722 1722 1722 1722 1713 1713 1713 1713 1713 1722 2271 2286 2301 2301 2301 2301 2301 2301 2301 2317 2317 2317 2317 2317 0 0 1297 1297 1297 1297 1297 1297 1297 1292 1292 1292 1292 1292 1292 1292 1292 1292 1292 1292 1292 1292 1292 1292 1292 1292 1292 1292 1292 1292 1292 1292 1292 1292 1288 1288 1288 1288 1292 1292 1292 1292 1292 1292 0 2317 2317 2317 2317 2317 2333 2333 2333 2333 2317 2317 2333 2333 2333 2317 2317 2317 2317 2333 2333 2333 2333 2333 2333 2333 2317 2317 2317 2301 2301 2301 2301 2301 2301 2301 2301 2301 2301 2301 2301 2317 2317 2317 2317 2317 2317 2317 2317 2317 2317 2317 2317 2317 2317 2317 2317 2301 2301 2301 2317 2317 2317 2317 2317 2317 2317 2317 2333 2333 2333 2333 2349 0 0 0 0 0 0 0 0 0
0 0 0 0 0 0 0 0 0 0 0 0 0 0 0 0 0 0 0 0 0 0 0 0 0 0 0 0 0 0 0 0 0 0 2090 2090 2090 2090 2090 2090 2103 2090 2090 2090 2090 2090 2090 2090 2103 2103 2103 2103 2103 2103 2103 2090 2090 2103 2103 2103 2116 2116 2116 2116 2116 2116 2116 2116 2116 2116 2103 2103 2103 2103 2116 2116 2116 2116 2116 2103 2103 2103 2103 2103 2103 2103 2103 2103 2116 2116 2116 2116 2129 2129 2116 2116 2116 2116 2116 2116 2116 2116 2116 2116 2129 2129 2129 2129 2129 2129 2129 2116 2116 2116 2116 2129 2129 2129 2143 2143 2143 2129 2129 2129 2143 2143 2143 2143 2143 2143 2143 2143 2143 2143 2143 2143 2143 2143 2156 2156 2156 2156 2156 2156 2156 2156 2156 2156 2156 2156 2156 2156 2156 2156 2170 2170 2170 1739 1739 1739 1739 1739 1647 1647 1647 1639 1639 1639 1639 1639 1647 1647 1655 1655 1663 1663 1671 1671 1671 2143 2156 2156 2156 2170 2170 2184 2184 2184 2184 2184 2184 2184 2184 2184 2184 2184 2184 2184 2184 2184 2184 2198 1915 1915 1915 1915 1915 1915 1926 1936 1936 1936 1947 1947 2090 2078 2078 2078 2078 2078 2078 2078 2078 2078 2078 2078 2078 2090 2103 2184 2184 2198 2198 2198 2184 2170 2129 2103 2090 2090 2090 2090 2078 2078 2078 2078 1543 1543 1543 1543 1543 1543 1543 1543 1543 1543 1543 1543 1543 1550 1550 1550 1557 1564 1572 1579 2198 2212 2226 2226 2226 2226 2226 2226 2226 2226 2226 2226 2226 2226 2226 2226 2226 2226 2226 2226 2226 2226 2226 2226 2226 2241 2241 2241 2241 2241 2241 2256 2256 0 1404 1404 1404 1404 1404 1410 1404 1404 1404 1404 1404 1404 1404 1410 1404 1404 1410 1410 1410 1410 1404 1404 1404 1404 1404 1404 1404 1404 1398 1398 1398 1392 1392 1392 1392 1392 1392 1392 1392 1392 1392 1392 1392 1392 1392 1392 1392 1392 1398 1398 1398 1392 1392 1392 1398 1398 1398 1398 1398 1398 1398 1398 1398 1398 1398 1398 1398 1404 1404 1404 1410 1404 1404 1410 1410 1410 1410 1404 1404 1410 1410 1404 1398 1398 1404 1404 1404 1404 1404 1410 1410 1410 1410 1410 1410 1410 1410 1410 1415 1415 1410 1410 1410 1410 1415 1410 1410 1410 1410 1410 1410 1410 1427 1273 1273 1273 1278 1273 1268 1268 1268 1268 1264 1264 1268 1268 1268 1268 1268 1404 1404 1404 1404 1410 1410 1410 1410 1410 1410 1415 1415 1415 1415 1415 1427 1427 1663 1655 1647 1647 1647 1647 1647 1647 1655 1655 1655 1655 1655 1655 1655 2286 2286 2286 2301 2301 2317 2317 2317 2317 2317 2317 2317 2301 2301 2301 2301 2301 2301 2286 2286 2286 1722 1696 1696 1722 1722 1722 1722 1722 1722 1722 1722 1722 1713 1713 1713 1713 1713 2271 2271 2271 2286 2286 2301 2301 2301 2301 2301 2301 2301 2301 2301 2301 0 0 1297 1297 1297 1297 1297 1297 1297 1292 1292 1292 1292 1292 1292 1292 1292 1292 1292 1292 1292 1292 1292 1292 1292 1292 1292 1292 1292 1292 1292 1292 1292 1292 1292 1292 1288 1288 1292 1292 1292 1292 1297 1297 0 2317 2317 2317 2317 2317 2333 2317 2317 2317 2317 2317 2317 2317 2317 2317 2317 2317 2317 2317 2317 2317 2333 2333 2317 2317 2301 2301 2301 2301 2301 2301 2301 2301 2301 2301 2301 2301 2301 2301 2301 2301 2301 2301 2301 2317 2317 2301 2301 2301 2301 2301 2301 2301 2301 2301 2301 2301 2286 2286 2286 2286 2301 2301 2301 2301 2301 2301 2301 2301 2301 2301 2301 0 0 0 0 0 0 0 0 0
0 0 0 0 0 0 0 0 0 0 0 0 0 0 0 0 0 0 0 0 0 0 0 0 0 0 0 0 0 0 0 0 0 0 2078 2078 2090 2090 2090 2090 2090 2090 2090 2078 2078 2090 2090 2090 2090 2090 2090 2103 2090 2090 2090 2090 2090 2090 2090 2103 2103 2103 2116 2116 2103 2103 2103 2103 2103 2103 2090 2090 2090 2103 2103 2103 2103 2103 2103 2103 2103 2103 2103 2103 2103 2103 2103 2103 2103 2103 2103 2116 2116 2116 2116 2116 2116 2116 2103 2103 2116 2116 2116 2116 2129 2129 2129 2129 2129 2116 2116 2103 2103 2103 2116 2116 2116 2116 2129 2129 2143 2129 2129 2129 2143 2143 2129 2129 2129 2129 2143 2143 2143 2143 2143 2143 2143 2143 2143 2143 2156 2156 2156 2156 2156 2156 2156 2156 2156 2156 2156 2156 2156 2156 2156 2156 2170 1739 1739 1739 1739 1739 1647 1647 1647 1639 1639 1639 1639 1639 1647 1647 1655 1655 1663 1663 1671 1671 1671 2129 2143 2156 2156 2156 2156 2170 2170 2170 2170 2170 2184 2170 2170 2170 2184 2184 2170 2170 2184 2184 2184 1915 1915 1915 1915 1915 1915 1915 1915 1936 1936 1936 1947 1947 2090 2090 2078 2078 2078 2078 2078 2078 2078 2078 2078 2078 2090 2090 2129 2184 2184 2198 2198 2198 2184 2156 2116 2103 2090 2090 2090 2090 2078 2078 2078 2078 1543 1543 1543 1543 1543 1543 1543 1543 1543 1543 1543 1543 1543 1550 1550 1557 1557 1564 1572 1579 2212 2212 2212 2212 2212 2212 2212 2212 2212 2212 2226 2226 2226 2226 2226 2226 2226 2212 2212 2226 2226 2226 2226 2226 2226 2226 2226 2241 2241 2241 2241 2241 2241 1415 1404 1404 1404 1404 1410 1410 1404 1404 1404 1410 1410 1410 1410 1410 1410 1410 1410 1410 1410 1410 1410 1410 1410 1404 1404 1404 1404 1404 1398 1398 1398 1387 1387 1387 1387 1387 1387 1387 1387 1387 1387 1387 1387 1387 1387 1392 1392 1392 1392 1392 1392 1387 1387 1387 1387 1387 1392 1387 1387 1387 1392 1392 1392 1392 1392 1392 1392 1392 1392 1392 1392 1392 1392 1392 1392 1392 1392 1392 1392 1392 1392 1392 1392 1392 1398 1398 1398 1398 1398 1404 1404 1404 1404 1404 1404 1404 1404 1404 1404 1410 1410 1410 1410 1410 1410 1410 1410 1410 1404 1404 1404 1404 1283 1278 1278 1278 1278 1273 1273 1273 1268 1268 1268 1268 1268 1268 1268 1268 1268 1398 1404 1404 1404 1404 1404 1404 1404 1404 1410 1410 1410 1410 1415 1415 1415 1671 1663 1655 1655 1655 1647 1647 1655 1655 1655 1655 1655 1655 1655 1616 1616 2271 2286 2286 2286 2286 2301 2301 2301 2301 2301 2301 2301 2301 2301 2301 2301 2301 2271 2256 2256 2256 1705 1696 1696 1722 1722 1722 1722 1722 1722 1722 1722 1722 1722 1713 1713 1713 1713 2271 2271 2271 2286 2286 2286 2286 2286 2286 2286 2286 2286 2286 2286 2286 0 1312 1297 1297 1297 1297 1297 1297 1297 1292 1292 1292 1292 1292 1292 1292 1292 1292 1292 1292 1292 1292 1292 1292 1292 1292 1292 1292 1292 1292 1292 1292 1292 1292 1292 1292 1288 1288 1292 1292 1292 1292 1297 1297 2301 2317 2317 2317 2317 2317 2317 2317 2317 2317 2317 2301 2301 2317 2317 2301 2301 2317 2317 2317 2317 2317 2317 2317 2317 2317 2301 2301 2301 2301 2301 2301 2301 2286 2286 2286 2286 2286 2286 2286 2286 2301 2301 2301 2301 2317 2301 2301 2301 2301 2301 2286 2286 2286 2286 2286 2286 2286 2286 2286 2286 2286 2286 2286 2286 2286 2286 2286 2286 2286 2301 2301 2301 0 0 0 0 0 0 0 0 0
0 0 0 0 0 0 0 0 0 0 0 0 0 0 0 0 0 0 0 0 0 0 0 0 0 0 0 0 0 0 0 0 0 0 2078 2078 2078 2078 2078 2078 2078 2078 2078 2078 2078 2078 2078 2090 2090 2090 2090 2090 2090 2090 2090 2090 2090 2090 2090 2090 2103 2103 2103 2103 2103 2103 2103 2103 2103 2103 2090 2090 2090 2090 2090 2103 2103 2103 2103 2103 2103 2103 2103 2103 2103 2103 2103 2103 2103 2103 2090 2090 2103 2103 2103 2103 2103 2103 2103 2103 2103 2103 2103 2116 2116 2116 2116 2116 2116 2116 2116 2103 2103 2103 2116 2116 2116 2116 2116 2116 2129 2129 2129 2129 2129 2129 2129 2129 2129 2129 2129 2129 2129 2129 2129 2129 2143 2143 2143 2143 2143 2143 2143 2156 2156 2143 2143 2156 2156 2156 2143 2143 2156 2156 2156 2156 2156 1739 1739 1739 1739 1739 1647 1647 1647 1639 1639 1639 1639 1647 1647 1647 1647 1655 1663 1663 1671 1671 1671 1671 2143 2156 2156 2156 2156 2156 2156 2156 2156 2156 2170 2170 2170 2170 2184 2184 2170 2170 2184 1904 1904 1904 1904 1904 1904 1915 1915 1915 1915 1926 1936 1936 1936 2090 2090 2090 2090 2078 2078 2078 2078 2078 2078 2078 2078 2078 2090 2090 2129 2184 2184 2198 2198 2184 2170 2156 2116 2103 2103 2090 2090 2090 2078 2078 2078 2078 1550 1550 1543 1543 1550 1550 1550 1543 1543 1543 1543 1543 1543 1550 1550 1557 1564 1572 1572 1572 2198 2198 2198 2212 2212 2198 2198 2198 2198 2212 2212 2212 2212 2212 2212 2212 2212 2198 2198 2212 2212 2212 2212 2212 2212 2226 2226 2226 2241 2241 2241 2241 2241 1415 1410 1410 1410 1410 1410 1410 1410 1410 1410 1410 1410 1410 1410 1410 1410 1410 1415 1415 1410 1410 1410 1410 1410 1404 1404 1404 1404 1398 1398 1398 1392 1387 1387 1387 1387 1387 1387 1387 1387 1381 1381 1387 1387 1387 1387 1387 1387 1387 1387 1387 1387 1387 1381 1381 1387 1387 1387 1387 1381 1381 1387 1387 1387 1387 1387 1387 1387 1387 1387 1387 1387 1387 1387 1387 1387 1387 1387 1387 1387 1387 1387 1387 1387 1387 1387 1387 1392 1392 1392 1392 1392 1392 1392 1392 1392 1392 1398 1398 1398 1392 1392 1398 1398 1404 1404 1404 1404 1404 1404 1404 1404 1404 1283 1283 1278 1278 1283 1273 1273 1273 1273 1273 1268 1268 1268 1268 1268 1268 1268 1398 1398 1398 1398 1398 1404 1404 1404 1404 1410 1410 1410 1410 1415 1415 1415 1663 1663 1655 1655 1655 1655 1655 1655 1655 1655 1655 1655 1655 1647 1616 1616 1624 2271 2271 2286 2286 2286 2286 2301 2286 2286 2286 2286 2286 2286 2286 2286 2286 2256 2241 2241 2241 1705 1705 1722 1722 1722 1722 1722 1722 1722 1722 1722 1722 1722 1713 1713 1713 1713 2271 2271 2271 2271 2286 2286 2286 2286 2286 2286 2286 2271 2271 2271 2271 0 1312 1312 1297 1297 1297 1297 1297 1297 1297 1297 1297 1292 1292 1292 1292 1292 1292 1292 1292 1292 1297 1292 1292 1292 1292 1292 1292 1292 1292 1292 1292 1292 1292 1292 1292 1292 1292 1292 1292 1292 1292 1297 1297 2301 2301 2301 2301 2301 2301 2317 2301 2301 2301 2301 2301 2301 2301 2301 2301 2301 2301 2301 2301 2317 2317 2317 2317 2317 2317 2301 2301 2301 2301 2286 2286 2286 2286 2286 2286 2286 2286 2286 2286 2286 2286 2286 2286 2286 2301 2301 2286 2286 2286 2286 2286 2286 2286 2286 2286 2286 2286 2286 2271 2271 2271 2271 2286 2286 2286 2286 2286 2286 2286 2286 2286 2286 0 0 0 0 0 0 0 0 0
0 0 0 0 0 0 0 0 0 0 0 0 0 0 0 0 0 0 0 0 0 0 0 0 0 0 0 0 0 0 0 0 0 0 2078 2078 2078 2078 2078 2065 2065 2065 2065 2065 2078 2078 2078 2078 2090 2090 2090 2090 2090 2090 2090 2090 2090 2090 2090 2090 2090 2090 2090 2090 2090 2090 2103 2090 2090 2090 2090 2090 2090 2090 2090 2090 2090 2090 2103 2090 2090 2103 2090 2090 2090 2090 2090 2090 2090 2090 2090 2090 2090 2090 2090 2090 2090 2090 2090 2090 2103 2090 2090 2103 2103 2103 2103 2103 2103 2103 2103 2103 2103 2103 2103 2103 2103 2103 2116 2116 2116 2116 2116 2116 2116 2116 2116 2116 2116 2116 2129 2129 2129 2116 2116 2129 2129 2129 2129 2129 2129 2143 2143 2143 2143 2143 2143 2143 2143 2143 2143 2143 2143 2143 2143 2143 2143 1748 1748 1748 1739 1739 1647 1647 1647 1639 1639 1639 1639 1647 1647 1647 1647 1655 1663 1671 1671 1671 1671 1671 2143 2156 2156 2156 2156 2156 2156 2156 2156 2156 2156 2156 2170 2170 2170 2170 2170 2170 1904 1904 1904 1904 1904 1904 1904 1915 1915 1915 1926 1926 1936 1936 1936 2116 2103 2090 2090 2078 2078 2078 2078 2078 2078 2078 2078 2078 2090 2090 2156 2170 2184 2184 2184 2184 2170 2156 2116 2103 2103 2103 2090 2090 2078 2078 2078 2078 1550 1550 1543 1543 1550 1550 1550 1543 1543 1543 1543 1543 1550 1550 1550 1557 1564 1572 1572 1572 1572 2184 2198 2198 2198 2198 2184 2184 2198 2198 2198 2198 2198 2198 2212 2212 2212 2198 2198 2198 2198 2198 2198 2212 2212 2212 2212 2212 2226 2226 2226 2226 1415 1415 1410 1410 1410 1410 1410 1410 1410 1410 1410 1410 1410 1410 1410 1415 1415 1415 1415 1415 1415 1410 1410 1410 1410 1410 1404 1404 1404 1398 1398 1398 1392 1387 1387 1387 1387 1387 1387 1381 1381 1381 1381 1381 1381 1381 1381 1381 1381 1381 1376 1376 1381 1376 1376 1381 1381 1381 1381 1387 1376 1376 1381 1381 1381 1381 1381 1381 1381 1387 1387 1387 1387 1387 1381 1381 1381 1381 1381 1381 1387 1387 1387 1387 1387 1387 1387 1387 1387 1387 1387 1387 1392 1392 1392 1392 1392 1392 1392 1392 1392 1392 1392 1392 1392 1392 1398 1392 1392 1392 1392 1392 1398 1278 1278 1283 1283 1283 1283 1278 1273 1273 1273 1273 1268 1268 1268 1268 1268 1268 1392 1392 1398 1398 1398 1398 1398 1398 1398 1398 1404 1404 1404 1404 1410 1410 1663 1663 1663 1655 1655 1655 1655 1655 1655 1655 1655 1655 1655 1655 1624 1624 1624 1624 2271 2271 2271 2271 2271 2271 2286 2286 2286 2286 2286 2286 2286 2271 2271 2271 2241 2241 2226 2226 1713 1713 1722 1722 1722 1722 1722 1722 1722 1722 1722 1722 1722 1722 1722 1713 1713 2256 2256 2256 2271 2271 2271 2271 2271 2271 2271 2271 2271 2256 2256 2256 0 1312 1312 1297 1297 1297 1297 1297 1297 1297 1297 1297 1292 1292 1292 1292 1292 1292 1292 1292 1292 1297 1292 1292 1292 1292 1292 1292 1292 1292 1292 1292 1292 1292 1292 1292 1292 1292 1292 1292 1292 1297 1297 1297 2271 2271 2271 2286 2301 2301 2301 2301 2301 2301 2301 2286 2286 2286 2286 2301 2301 2301 2301 2301 2301 2301 2301 2301 2301 2301 2286 2286 2286 2286 2286 2286 2286 2286 2286 2271 2271 2271 2271 2286 2286 2286 2286 2286 2286 2286 2286 2271 2271 2271 2271 2271 2271 2271 2271 2271 2271 2271 2271 2256 2256 2256 2271 2271 2271 2271 2271 2271 2271 2271 2271 2271 2271 0 0 0 0 0 0 0 0 0
0 0 0 0 0 0 0 0 0 0 0 0 0 0 0 0 0 0 0 0 0 0 0 0 0 0 0 0 0 0 0 0 0 0 2065 2065 2065 2065 2065 2065 2053 2053 2053 2065 2065 2065 2065 2078 2078 2078 2078 2078 2090 2078 2078 2065 2065 2065 2078 2078 2078 2078 2078 2078 2090 2078 2078 2090 2078 2078 2065 2065 2065 2078 2078 2078 2090 2090 2090 2090 2090 2090 2090 2090 2090 2090 2090 2090 2090 2090 2078 2078 2090 2090 2090 2090 2090 2090 2090 2090 2090 2090 2090 2090 2103 2103 2103 2103 2103 2090 2090 2103 2103 2103 2103 2103 2103 2103 2103 2103 2103 2103 2103 2103 2103 2103 2103 2103 2103 2103 2116 2116 2116 2116 2116 2116 2116 2129 2129 2116 2116 2129 2129 2129 2129 2129 2129 2143 2143 2143 2143 2143 2143 2143 2143 2143 2143 1748 1748 1748 1739 1739 1639 1639 1639 1639 1639 1639 1639 1647 1647 1647 1647 1655 1663 1663 1671 1671 1680 1680 2143 2143 2143 2143 2143 2143 2143 2143 2143 2143 2156 2156 2156 2156 2170 2170 2170 1894 1894 1894 1894 1904 1904 1904 1904 1915 1915 1915 1926 1936 1936 2143 2129 2116 2103 2103 2090 2078 2078 2078 2078 2078 2078 2078 2078 2090 2090 2103 2143 2170 2170 2184 2184 2184 2170 2143 2116 2103 2103 2090 2090 2090 2078 2078 2078 2078 1550 1550 1550 1550 1550 1550 1550 1543 1543 1543 1543 1550 1550 1550 1557 1557 1564 1572 1572 1572 1572 2184 2184 2184 2184 2184 2184 2184 2184 2184 2184 2184 2184 2198 2198 2198 2198 2198 2198 2198 2198 2198 2198 2198 2198 2198 2198 2198 2212 2212 2212 0 1415 1415 1415 1415 1415 1415 1415 1415 1410 1410 1410 1410 1415 1415 1415 1415 1415 1415 1415 1415 1415 1410 1410 1410 1410 1410 1404 1404 1404 1404 1404 1398 1392 1387 1387 1387 1387 1387 1387 1381 1381 1381 1381 1381 1381 1376 1376 1376 1376 1376 1376 1376 1376 1376 1376 1376 1376 1376 1376 1376 1376 1376 1376 1381 1381 1381 1381 1381 1381 1381 1381 1381 1381 1381 1381 1376 1376 1376 1376 1381 1381 1381 1387 1387 1387 1387 1387 1387 1387 1387 1387 1387 1387 1387 1387 1387 1387 1387 1392 1387 1387 1387 1387 1392 1392 1392 1392 1392 1392 1392 1392 1392 1392 1278 1278 1283 1283 1283 1283 1278 1278 1273 1273 1273 1268 1268 1268 1268 1264 1264 1387 1387 1387 1387 1387 1387 1387 1387 1392 1392 1392 1392 1392 1404 1410 1410 1671 1663 1663 1655 1655 1655 1655 1655 1655 1655 1655 1655 1655 1655 1616 1616 1624 1624 2256 2256 2256 2256 2271 2271 2271 2271 2271 2271 2271 2271 2271 2271 2271 2256 2241 2212 2212 2212 2212 1731 1722 1722 1722 1731 1722 1722 1722 1722 1722 1722 1722 1722 1722 1722 1722 2256 2256 2256 2256 2256 2256 2271 2271 2271 2271 2256 2256 2256 2241 2241 0 2241 1297 1297 1297 1297 1297 1297 1297 1297 1297 1297 1292 1292 1292 1292 1297 1297 1297 1292 1292 1297 1297 1292 1292 1292 1292 1292 1292 1292 1292 1292 1292 1292 1292 1292 1292 1292 1292 1292 1297 1297 1297 2143 2241 2241 2241 2271 2271 2286 2286 2286 2286 2286 2286 2286 2286 2286 2286 2286 2286 2286 2286 2286 2301 2301 2301 2301 2301 2301 2286 2286 2286 2286 2271 2271 2271 2271 2271 2271 2271 2271 2271 2271 2271 2271 2271 2271 2271 2271 2271 2256 2256 2271 2271 2271 2271 2271 2271 2271 2256 2256 2256 2256 2241 2241 2256 2256 2271 2271 2271 2271 2271 2271 2271 2271 2271 0 0 0 0 0 0 0 0 0
0 0 0 0 0 0 0 0 0 0 0 0 0 0 0 0 0 0 0 0 0 0 0 0 0 0 0 0 0 0 0 0 0 0 2053 2053 2065 2065 2065 2065 2053 2053 2053 2065 2065 2065 2065 2065 2065 2065 2078 2078 2078 2065 2065 2065 2065 2065 2065 2065 2078 2078 2078 2078 2078 2078 2078 2078 2065 2065 2065 2053 2053 2065 2078 2078 2078 2090 2090 2090 2090 2090 2090 2090 2090 2090 2090 2090 2090 2078 2078 2078 2078 2078 2090 2090 2090 2090 2090 2090 2090 2090 2090 2090 2090 2090 2090 2090 2090 2090 2090 2090 2090 2090 2103 2103 2103 2103 2103 2103 2090 2090 2103 2103 2103 2103 2103 2103 2103 2103 2103 2103 2103 2103 2116 2116 2116 2116 2116 2116 2116 2116 2129 2129 2129 2129 2129 2143 2143 2143 2143 2143 2143 2143 2143 2143 2143 1748 1748 1739 1739 1739 1639 1639 1639 1639 1639 1639 1639 1647 1647 1647 1647 1655 1663 1663 1671 1671 1671 1671 2143 2143 2143 2143 2143 2143 2143 2143 2143 2143 2143 2143 2143 2143 2156 1873 1873 1873 1883 1883 1894 1904 1904 1904 1904 1915 1915 1915 1926 1936 1936 2143 2129 2116 2116 2103 2090 2090 2090 2078 2078 2078 2078 2078 2078 2090 2090 2103 2143 2170 2170 2184 2184 2170 2170 2143 2129 2103 2103 2090 2090 2090 2078 2078 2078 2078 1550 1550 1550 1550 1550 1550 1550 1543 1543 1543 1543 1550 1550 1550 1557 1564 1564 1572 1572 1572 1579 2170 2184 2184 2184 2184 2184 2184 2184 2184 2184 2184 2184 2184 2184 2184 2184 2184 2184 2184 2184 2184 2184 2184 2184 2198 2184 2184 2198 2198 2198 2184 1421 1421 1415 1415 1415 1415 1415 1415 1415 1415 1415 1415 1415 1415 1415 1415 1415 1415 1415 1415 1415 1415 1410 1410 1415 1410 1410 1404 1404 1404 1404 1398 1398 1387 1387 1387 1387 1387 1387 1381 1381 1381 1381 1381 1376 1376 1376 1376 1370 1370 1370 1370 1370 1370 1370 1370 1370 1370 1370 1370 1370 1370 1370 1376 1376 1376 1376 1376 1376 1376 1381 1376 1376 1376 1376 1376 1376 1376 1376 1376 1376 1376 1381 1381 1381 1381 1381 1381 1381 1381 1381 1381 1387 1387 1381 1381 1387 1387 1387 1387 1387 1387 1387 1387 1387 1387 1387 1387 1387 1392 1392 1392 1392 1278 1278 1283 1283 1283 1283 1278 1278 1278 1278 1273 1273 1273 1268 1268 1264 1264 1381 1381 1387 1387 1387 1387 1387 1387 1387 1387 1387 1387 1387 1387 1671 1671 1663 1663 1663 1663 1655 1655 1655 1655 1655 1655 1655 1655 1655 1639 1616 1616 1624 1624 2241 2256 2256 2256 2256 2256 2256 2256 2256 2256 2256 2271 2271 2256 2256 2256 2212 2212 2198 2198 1731 1731 1722 1722 1722 1722 1722 1722 1722 1722 1722 1722 1722 1722 1722 1722 1722 2256 2256 2256 2256 2256 2256 2256 2256 2256 2256 2256 2256 2256 2241 2241 0 0 1297 1297 1297 1297 1297 1297 1297 1297 1297 1297 1292 1292 1297 1297 1297 1297 1297 1297 1297 1297 1297 1292 1292 1292 1292 1292 1292 1292 1292 1292 1292 1292 1292 1292 1292 1292 1292 1292 1292 1292 2143 2143 2184 2226 2241 2241 2256 2271 2271 2286 2286 2286 2286 2286 2286 2286 2286 2286 2271 2271 2286 2286 2286 2286 2286 2301 2301 2301 2286 2286 2271 2271 2271 2271 2256 2256 2256 2256 2256 2271 2271 2271 2271 2271 2271 2256 2256 2256 2256 2256 2256 2271 2271 2271 2271 2256 2256 2256 2256 2241 2241 2241 2241 2241 2241 2256 2256 2256 2271 2271 2271 2271 2271 2271 2271 0 0 0 0 0 0 0 0 0
0 0 0 0 0 0 0 0 0 0 0 0 0 0 0 0 0 0 0 0 0 0 0 0 0 0 0 0 0 0 0 0 0 0 2053 2053 2053 2053 2053 2053 2053 2053 2053 2053 2065 2065 2065 2065 2065 2065 2065 2065 2065 2065 2065 2065 2065 2065 2065 2065 2065 2065 2065 2065 2065 2065 2065 2065 2065 2065 2053 2053 2053 2065 2065 2065 2078 2078 2078 2078 2078 2078 2078 2078 2078 2078 2078 2078 2078 2065 2065 2065 2065 2078 2078 2078 2078 2078 2078 2078 2090 2078 2078 2090 2090 2090 2090 2090 2090 2090 2090 2090 2090 2090 2103 2103 2103 2103 2103 2090 2090 2090 2090 2090 2103 2090 2090 2103 2103 2103 2103 2103 2103 2103 2103 2103 2103 2116 2116 2103 2103 2103 2103 2103 2116 2103 2103 2116 2129 2129 2129 2129 2129 2129 2129 2129 2129 1748 1748 1739 1739 1739 1647 1647 1647 1639 1639 1639 1647 1647 1647 1647 1647 1655 1655 1663 1671 1671 1671 1671 2129 2129 2129 2129 2129 2129 2129 2129 2129 2129 2129 2143 2143 2143 2156 1873 1873 1873 1883 1883 1894 1894 1894 1904 1904 1904 1915 1915 1926 1936 2156 2143 2129 2116 2103 2103 2090 2090 2090 2090 2078 2078 2078 2078 2090 2090 2090 2116 2143 2170 2170 2170 2170 2170 2156 2143 2129 2103 2103 2103 2090 2090 2078 2078 2078 2078 1550 1550 1550 1550 1550 1550 1550 1543 1543 1543 1543 1550 1550 1550 1557 1564 1564 1572 1572 1572 1579 2170 2170 2170 2170 2170 2170 2170 2170 2170 2170 2170 2170 2170 2184 2184 2184 2184 2184 2184 2184 2184 2184 2184 2184 2184 2184 2184 2184 2184 2184 2184 1421 1421 1415 1415 1415 1415 1415 1415 1415 1415 1415 1415 1415 1415 1415 1415 1415 1415 1415 1415 1415 1415 1415 1415 1415 1415 1410 1410 1410 1404 1404 1404 1398 1392 1387 1387 1387 1387 1387 1381 1381 1381 1381 1381 1376 1376 1376 1376 1370 1370 1370 1370 1370 1370 1370 1370 1370 1370 1370 1370 1370 1370 1370 1370 1370 1370 1370 1370 1370 1376 1376 1376 1370 1370 1370 1370 1370 1370 1370 1370 1370 1370 1376 1376 1376 1376 1376 1376 1381 1381 1381 1381 1381 1381 1376 1376 1381 1381 1381 1381 1381 1381 1381 1381 1381 1381 1381 1381 1381 1387 1387 1387 1387 1278 1278 1283 1283 1288 1283 1278 1278 1278 1278 1278 1273 1273 1273 1273 1273 1381 1381 1381 1381 1381 1381 1381 1381 1387 1387 1381 1381 1381 1387 1387 1671 1671 1663 1663 1663 1663 1655 1655 1655 1655 1655 1655 1655 1655 1647 1616 1616 1616 1616 1624 2226 2241 2241 2241 2241 2241 2241 2241 2241 2241 2241 2241 2241 2256 2241 2226 2212 2198 2184 2184 1731 1722 1722 1722 1722 1722 1722 1722 1722 1722 1722 1722 1722 1722 1722 1731 2241 2241 2241 2241 2241 2241 2256 2256 2256 2256 2256 2256 2256 2256 2256 2256 2256 0 1297 1297 1297 1297 1297 1297 1297 1297 1297 1297 1292 1292 1297 1297 1297 1297 1297 1297 1297 1297 1297 1292 1292 1292 1292 1292 1292 1292 1292 1292 1292 1292 1292 1292 1292 1292 1292 1292 1292 1292 2143 2143 2184 2226 2241 2241 2256 2256 2256 2256 2271 2271 2271 2271 2271 2271 2271 2271 2271 2271 2271 2271 2286 2286 2286 2286 2286 2286 2271 2271 2271 2256 2256 2256 2256 2256 2256 2256 2256 2256 2256 2256 2256 2256 2256 2256 2256 2256 2256 2256 2256 2256 2256 2256 2256 2256 2256 2256 2241 2241 2241 2241 2241 2241 2241 2241 2256 2256 2256 2256 2256 2256 2271 2271 2271 0 0 0 0 0 0 0 0 0
0 0 0 0 0 0 0 0 0 0 0 0 0 0 0 0 0 0 0 0 0 0 0 0 0 0 0 0 0 0 0 0 0 0 2040 2040 2040 2040 2053 2053 2040 2040 2053 2053 2053 2053 2053 2053 2053 2053 2053 2065 2065 2065 2065 2065 2065 2065 2065 2065 2065 2065 2065 2065 2065 2065 2065 2053 2053 2053 2040 2040 2053 2053 2053 2053 2065 2065 2065 2065 2065 2065 2065 2065 2065 2065 2065 2065 2065 2065 2065 2065 2065 2065 2078 2078 2078 2078 2078 2078 2090 2065 2065 2078 2078 2078 2078 2078 2078 2078 2078 2090 2090 2090 2090 2090 2090 2103 2103 2090 2090 2090 2090 2090 2090 2090 2090 2090 2090 2090 2090 2103 2103 2103 2103 2103 2103 2103 2103 2103 2103 2103 2103 2103 2116 2103 2103 2103 2116 2116 2103 2103 2103 2116 2116 2116 2116 1748 1748 1739 1739 1739 1647 1647 1647 1647 1647 1647 1647 1647 1647 1647 1647 1655 1655 1663 1671 1680 1680 1680 2129 2129 2129 2129 2129 2129 2129 2129 2129 2129 2129 2129 2129 2143 2143 1873 1873 1873 1883 1883 1894 1894 1894 1904 1904 1904 1904 1904 1926 1947 2143 2129 2116 2116 2103 2103 2090 2090 2090 2090 2078 2078 2078 2090 2090 2090 2103 2116 2143 2143 2156 2156 2156 2156 2143 2143 2129 2103 2103 2103 2090 2090 2078 2078 2078 2078 1550 1550 1550 1550 1550 1550 1550 1550 1543 1543 1550 1550 1550 1550 1557 1564 1572 1572 1572 1572 1579 2156 2170 2170 2170 2170 2170 2170 2170 2170 2170 2170 2170 2170 2170 2170 2184 2170 2170 2170 2184 2170 2170 2170 2170 2184 2184 2184 2184 2184 2184 2184 2184 1415 1415 1415 1415 1415 1415 1415 1415 1415 1415 1415 1415 1415 1415 1415 1415 1415 1415 1415 1415 1415 1415 1415 1415 1415 1410 1410 1415 1404 1404 1404 1398 1392 1392 1392 1387 1387 1387 1387 1381 1381 1381 1381 1381 1376 1376 1376 1370 1370 1370 1370 1370 1370 1370 1370 1370 1370 1370 1370 1370 1370 1370 1370 1370 1365 1365 1365 1370 1370 1370 1370 1370 1370 1370 1370 1370 1370 1370 1370 1370 1370 1370 1370 1370 1370 1370 1370 1376 1376 1376 1376 1376 1376 1370 1370 1376 1376 1376 1376 1376 1376 1376 1370 1370 1370 1370 1376 1381 1381 1381 1381 1387 1283 1283 1283 1288 1288 1288 1283 1278 1278 1278 1278 1278 1278 1278 1278 1278 1376 1376 1376 1376 1376 1381 1381 1381 1381 1381 1381 1381 1381 1381 1671 1671 1671 1671 1671 1671 1671 1671 1655 1655 1655 1655 1655 1655 1655 1647 1616 1616 1616 1616 1624 2226 2226 2226 2226 2226 2226 2226 2226 2226 2226 2226 2226 2226 2212 2212 2198 2198 2184 2184 2184 2184 1722 1722 1722 1722 1722 1722 1722 1722 1722 1731 1731 1731 1731 1731 1731 2241 2241 2241 2241 2241 2241 2241 2241 2241 2241 2256 2256 2256 2256 2256 2256 2256 0 1297 1297 1297 1297 1297 1297 1297 1297 1297 1297 1297 1297 1297 1297 1297 1297 1297 1297 1297 1297 1297 1297 1297 1297 1297 1292 1292 1292 1292 1292 1292 1292 1292 1292 1292 1292 1292 1292 1297 1297 1297 2241 2241 2241 2241 2241 2241 2241 2256 2256 2256 2256 2256 2256 2271 2256 2256 2256 2256 2256 2271 2271 2271 2271 2271 2271 2271 2271 2256 2256 2256 2256 2256 2256 2241 2241 2241 2241 2241 2241 2241 2241 2241 2241 2241 2241 2241 2241 2241 2241 2241 2241 2241 2256 2256 2256 2256 2241 2241 2241 2241 2241 2241 2241 2241 2241 2241 2241 2241 2241 2241 2256 2256 2256 2256 0 0 0 0 0 0 0 0 0
0 0 0 0 0 0 0 0 0 0 0 0 0 0 0 0 0 0 0 0 0 0 0 0 0 0 0 0 0 0 0 0 0 0 2040 2040 2040 2040 2040 2040 2040 2040 2040 2040 2040 2053 2053 2053 2053 2053 2053 2053 2053 2053 2053 2053 2053 2053 2053 2053 2053 2053 2053 2053 2053 2053 2053 2053 2053 2053 2040 2040 2040 2040 2040 2053 2053 2053 2053 2053 2053 2053 2053 2053 2065 2053 2053 2053 2053 2053 2053 2053 2053 2053 2065 2065 2065 2078 2078 2078 2065 2065 2065 2065 2065 2065 2065 2078 2078 2078 2078 2078 2078 2090 2090 2090 2090 2090 2090 2090 2090 2090 2090 2090 2078 2078 2078 2090 2090 2090 2090 2090 2090 2103 2103 2103 2103 2103 2103 2103 2103 2103 2103 2103 2103 2103 2103 2103 2103 2103 2103 2103 2103 2103 2103 2090 2090 1748 1748 1739 1739 1739 1655 1647 1647 1647 1647 1647 1647 1647 1647 1647 1655 1655 1663 1663 1671 1671 1680 1680 2129 2129 2129 2116 2116 2129 2129 2129 2129 2129 2116 2116 2129 1863 1863 1863 1863 1873 1873 1873 1883 1894 1894 1894 1894 1904 1904 1904 1926 2143 2143 2129 2116 2103 2090 2090 2090 2090 2090 2090 2078 2078 2090 2090 2090 2103 2116 2116 2143 2143 2156 2156 2156 2143 2143 2129 2129 2116 2103 2103 2103 2103 2090 2090 2090 1550 1550 1550 1550 1550 1550 1550 1550 1550 1550 1550 1550 1550 1550 1557 1557 1564 1572 1572 1572 1572 1579 2143 2156 2170 2170 2170 2156 2156 2170 2170 2170 2170 2170 2170 2170 2170 2170 2170 2170 2170 2170 2170 2170 2170 2170 2170 2170 2170 2170 2170 2170 2170 0 1415 1415 1415 1415 1421 1415 1415 1415 1415 1415 1415 1415 1415 1415 1415 1415 1415 1415 1415 1415 1415 1415 1415 1415 1415 1415 1415 1415 1410 1404 1404 1404 1392 1392 1392 1387 1387 1387 1387 1387 1381 1381 1381 1381 1376 1376 1376 1370 1370 1370 1370 1370 1370 1370 1365 1365 1365 1365 1365 1365 1365 1365 1365 1365 1365 1365 1365 1365 1365 1365 1370 1365 1365 1365 1365 1365 1365 1365 1365 1365 1365 1365 1365 1365 1370 1370 1370 1370 1370 1370 1370 1370 1370 1370 1370 1370 1370 1370 1370 1370 1370 1370 1370 1370 1370 1370 1370 1376 1376 1376 1376 1381 1283 1283 1283 1288 1288 1288 1283 1283 1278 1278 1278 1278 1278 1278 1278 1370 1370 1370 1370 1370 1370 1376 1376 1376 1381 1381 1381 1381 1381 1381 1671 1671 1671 1663 1663 1663 1671 1663 1663 1663 1663 1663 1663 1655 1655 1663 2198 1616 1616 1616 2212 2212 2212 2212 2212 2212 2212 2212 2212 2212 2212 2212 2226 2212 2212 2212 2198 2198 2184 2184 2184 2184 1722 1722 1722 1722 1722 1722 1722 1731 1731 1731 1731 1731 1731 1731 1731 2226 2226 2226 2226 2226 2226 2226 2226 2226 2241 2241 2241 2241 2256 2256 2256 2256 0 1302 1302 1297 1297 1297 1302 1297 1297 1297 1297 1297 1297 1297 1297 1297 1297 1297 1297 1297 1297 1297 1297 1297 1297 1297 1297 1297 1297 1297 1297 1292 1292 1297 1297 1297 1297 1297 1297 1297 1297 0 2241 2241 2241 2241 2241 2241 2241 2241 2241 2256 2256 2256 2256 2256 2256 2256 2256 2256 2256 2256 2256 2256 2256 2256 2256 2271 2271 2256 2241 2241 2241 2241 2241 2241 2241 2241 2241 2241 2241 2241 2241 2241 2241 2241 2241 2241 2241 2241 2241 2241 2241 2241 2241 2241 2241 2241 2241 2241 2241 2241 2241 2241 2226 2226 2226 2226 2241 2241 2241 2241 2241 2241 2241 2241 0 0 0 0 0 0 0 0 0
0 0 0 0 0 0 0 0 0 0 0 0 0 0 0 0 0 0 0 0 0 0 0 0 0 0 0 0 0 0 0 0 0 0 2028 2028 2028 2028 2028 2040 2040 2040 2040 2040 2040 2053 2040 2040 2040 2053 2053 2053 2040 2040 2053 2053 2053 2053 2053 2053 2053 2053 2053 2053 2053 2053 2040 2040 2040 2040 2028 2028 2028 2040 2040 2040 2040 2040 2040 2053 2053 2053 2053 2040 2040 2040 2040 2040 2040 2040 2040 2053 2053 2053 2053 2053 2053 2053 2053 2053 2053 2053 2053 2053 2053 2053 2053 2065 2065 2065 2065 2065 2065 2078 2078 2078 2078 2090 2065 2065 2065 2065 2065 2065 2065 2065 2065 2090 2090 2090 2090 2090 2090 2090 2090 2090 2103 2103 2103 2103 2090 2090 2103 2103 2103 2103 2103 2103 2103 2103 2103 2103 2103 2103 2090 2090 2090 1748 1748 1748 1739 1739 1680 1647 1647 1647 1647 1647 1647 1655 1655 1655 1655 1663 1663 1663 1671 1671 1671 1680 2116 2116 2116 2116 2116 2116 2116 2116 2116 2116 2116 2116 2129 1863 1863 1863 1863 1863 1873 1873 1883 1883 1894 1894 1894 1894 1894 1894 2129 2129 2129 2129 2116 2103 2090 2090 2090 2090 2090 2090 2090 2090 2090 2090 2103 2103 2116 2116 2143 2143 2143 2143 2143 2143 2143 2129 2129 2116 2103 2103 2103 2103 2090 2090 2090 1550 1550 1550 1550 1550 1550 1550 1550 1550 1550 1550 1550 1550 1550 1557 1564 1564 1572 1572 1572 1572 1579 2143 2156 2156 2156 2156 2156 2156 2170 2156 2156 2156 2156 2156 2170 2170 2170 2170 2170 2170 2170 2170 2170 2170 2170 2170 2170 2170 2170 2170 2170 2170 1421 1415 1415 1415 1421 1421 1415 1415 1415 1415 1415 1415 1415 1415 1415 1415 1415 1415 1415 1415 1415 1415 1415 1415 1415 1415 1415 1415 1410 1404 1404 1404 1404 1398 1392 1392 1392 1392 1387 1387 1387 1387 1387 1387 1381 1381 1376 1376 1370 1370 1370 1370 1370 1370 1370 1365 1365 1365 1365 1365 1365 1365 1365 1365 1365 1359 1359 1359 1359 1359 1365 1365 1359 1359 1359 1359 1359 1359 1359 1359 1359 1365 1365 1365 1365 1365 1365 1365 1365 1365 1365 1365 1365 1365 1365 1365 1365 1365 1365 1365 1365 1365 1370 1365 1365 1365 1365 1365 1370 1370 1370 1370 1381 1283 1283 1283 1288 1288 1288 1283 1283 1283 1283 1283 1283 1283 1283 1278 1278 1359 1365 1365 1365 1365 1370 1370 1370 1376 1381 1381 1381 1381 1381 1671 1671 1671 1663 1663 1663 1671 1663 1663 1663 1663 1663 1663 1663 1655 1655 2184 2198 2198 2212 2212 2212 2212 2212 2212 2212 2212 2212 2212 2212 2212 2212 2212 2212 2212 2212 2198 2198 2198 2198 2184 2184 2198 1731 1731 1731 1731 1731 1731 1731 1731 1731 1731 1731 1731 1731 1731 2226 2226 2212 2212 2212 2226 2226 2226 2226 2226 2226 2226 2241 2241 2241 2241 2241 0 1302 1302 1297 1297 1297 1302 1302 1302 1297 1297 1297 1297 1297 1297 1297 1297 1297 1297 1297 1297 1297 1297 1297 1297 1297 1297 1297 1297 1297 1297 1297 1297 1297 1297 1297 1297 1302 1307 1307 1317 0 2226 2226 2226 2226 2226 2241 2241 2241 2241 2241 2256 2256 2256 2256 2256 2256 2256 2256 2256 2256 2256 2256 2256 2256 2256 2256 2256 2241 2241 2241 2241 2241 2241 2226 2226 2226 2241 2241 2241 2241 2241 2241 2241 2241 2241 2226 2226 2226 2226 2226 2241 2241 2241 2241 2241 2241 2241 2226 2226 2226 2226 2226 2226 2226 2226 2226 2226 2226 2241 2241 2241 2241 2241 2241 0 0 0 0 0 0 0 0 0
0 0 0 0 0 0 0 0 0 0 0 0 0 0 0 0 0 0 0 0 0 0 0 0 0 0 0 0 0 0 0 0 0 0 2016 2016 2016 2016 2028 2028 2028 2028 2028 2028 2040 2040 2040 2040 2040 2040 2040 2040 2028 2028 2040 2040 2040 2040 2053 2053 2053 2053 2040 2040 2040 2040 2040 2040 2040 2040 2028 2028 2028 2028 2028 2040 2040 2040 2040 2040 2040 2040 2040 2040 2040 2040 2040 2040 2040 2040 2040 2040 2040 2040 2040 2040 2040 2040 2040 2040 2040 2040 2040 2053 2053 2053 2053 2053 2053 2053 2065 2065 2065 2053 2053 2065 2065 2065 2065 2053 2053 2053 2065 2065 2065 2065 2065 2078 2078 2065 2065 2065 2078 2078 2090 2090 2090 2090 2090 2090 2090 2090 2090 2090 2090 2090 2090 2090 2090 2090 2090 2090 2090 2090 2090 2078 2065 1748 1748 1739 1739 1731 1680 1647 1647 1647 1647 1647 1647 1655 1655 1655 1655 1663 1663 1671 1671 1671 1671 2103 2103 2116 2116 2116 2116 2116 2116 2103 2103 2103 2103 2103 2116 1853 1853 1853 1863 1863 1863 1863 1873 1883 1883 1883 1883 1883 1883 1883 2116 2116 2129 2116 2116 2103 2090 2090 2090 2090 2090 2090 2090 2090 2090 2090 2103 2103 2116 2116 2129 2143 2143 2143 2143 2143 2129 2129 2129 2116 2103 2103 2103 2103 2090 2090 2090 1550 1550 1550 1550 1550 1550 1550 1550 1550 1550 1550 1550 1550 1557 1557 1564 1564 1572 1572 1572 1572 1579 2129 2143 2143 2143 2156 2156 2156 2156 2156 2156 2156 2156 2156 2156 2156 2156 2156 2170 2170 2170 2170 2170 2156 2156 2170 2156 2156 2156 2156 2170 2170 1421 1421 1415 1415 1421 1421 1421 1421 1415 1415 1415 1415 1415 1421 1421 1421 1421 1415 1415 1421 1421 1415 1415 1421 1421 1415 1415 1415 1410 1404 1404 1404 1404 1398 1398 1398 1392 1392 1392 1387 1387 1387 1387 1387 1387 1381 1381 1376 1370 1370 1370 1370 1370 1370 1370 1365 1365 1365 1365 1365 1365 1365 1365 1365 1365 1359 1359 1359 1359 1359 1359 1359 1359 1359 1359 1359 1359 1354 1354 1354 1359 1359 1359 1359 1359 1359 1359 1359 1359 1359 1359 1359 1359 1359 1365 1365 1365 1365 1365 1365 1365 1365 1365 1365 1365 1365 1359 1359 1365 1359 1359 1359 1359 1283 1283 1288 1288 1288 1288 1283 1283 1283 1283 1283 1283 1283 1283 1278 1278 1283 1359 1359 1365 1365 1365 1365 1365 1370 1370 1381 1381 1381 1671 1671 1671 1671 1663 1663 1671 1671 1671 1663 1663 1663 1663 1663 1655 1647 1647 2184 2184 2198 2198 2198 2198 2198 2198 2198 2198 2198 2212 2212 2212 2212 2212 2212 2212 2198 2198 2198 2184 2184 2184 2184 2184 2198 1731 1731 1731 1731 1731 1731 1731 1731 1731 1731 1731 1731 1731 2226 2212 2212 2212 2212 2212 2212 2212 2212 2212 2212 2212 2212 2226 2226 2241 2241 2241 0 1307 1307 1302 1302 1302 1302 1302 1302 1297 1297 1297 1297 1297 1297 1297 1297 1297 1302 1297 1297 1302 1297 1297 1297 1297 1297 1297 1297 1297 1297 1297 1297 1297 1297 1297 1302 1307 1312 1317 1317 2198 2226 2226 2226 2226 2226 2241 2241 2241 2241 2241 2256 2256 2256 2241 2241 2256 2256 2241 2241 2241 2241 2241 2241 2241 2241 2241 2241 2226 2226 2226 2226 2226 2226 2226 2226 2226 2226 2226 2226 2226 2226 2226 2226 2226 2241 2226 2226 2226 2226 2226 2226 2226 2226 2226 2226 2241 2241 2226 2226 2226 2226 2226 2226 2226 2226 2226 2226 2226 2226 2226 2241 2241 2226 2226 0 0 0 0 0 0 0 0 0
0 0 0 0 0 0 0 0 0 0 0 0 0 0 0 0 0 0 0 0 0 0 0 0 0 0 0 0 0 0 0 0 0 0 2016 2016 2016 2016 2016 2016 2016 2016 2028 2028 2028 2040 2028 2028 2028 2040 2028 2028 2028 2028 2028 2028 2028 2028 2028 2040 2040 2040 2040 2040 2040 2040 2028 2028 2028 2028 2016 2016 2016 2016 2016 2016 2016 2028 2040 2040 2040 2040 2040 2028 2028 2028 2028 2028 2028 2028 2040 2040 2040 2040 2040 2040 2040 2040 2040 2040 2040 2040 2040 2040 2053 2053 2053 2053 2053 2053 2053 2053 2053 2053 2053 2053 2053 2065 2053 2053 2053 2053 2053 2053 2053 2053 2053 2065 2065 2065 2065 2065 2065 2065 2065 2065 2078 2078 2078 2078 2078 2078 2078 2078 2078 2090 2090 2078 2078 2078 2090 2090 2090 2090 2090 2078 2065 2065 1748 1739 1739 1731 1680 1647 1647 1655 1647 1647 1647 1655 1655 1655 1663 1663 1663 1671 1671 1671 1671 2090 2090 2090 2090 2090 2103 2103 2103 2090 2078 2078 1833 1833 1833 1843 1843 1853 1863 1863 1863 1863 1863 1873 1873 1883 1873 1873 1873 1873 2116 2116 2116 2116 2116 2103 2090 2090 2090 2090 2090 2090 2090 2090 2090 2090 2103 2103 2116 2116 2129 2129 2129 2129 2129 2129 2129 2129 2116 2116 2116 2103 2103 2103 2103 2103 2103 1550 1550 1550 1550 1550 1550 1550 1550 1550 1550 1550 1550 1550 1557 1557 1564 1564 1572 1572 1572 1572 1572 1572 2129 2129 2143 2143 2143 2143 2143 2143 2143 2143 2143 2143 2156 2156 2156 2156 2156 2156 2156 2156 2156 2156 2156 2156 2156 2156 2156 2156 2156 2156 1421 1421 1421 1421 1421 1421 1421 1421 1415 1415 1415 1415 1421 1421 1421 1421 1421 1421 1421 1421 1421 1421 1421 1421 1421 1415 1415 1415 1415 1410 1410 1410 1410 1404 1398 1398 1398 1392 1392 1392 1392 1387 1387 1387 1387 1387 1381 1381 1376 1376 1376 1376 1370 1370 1370 1370 1370 1365 1365 1365 1365 1365 1365 1359 1359 1359 1359 1359 1359 1359 1359 1359 1354 1354 1354 1354 1354 1354 1349 1349 1354 1354 1354 1354 1354 1354 1354 1354 1354 1354 1354 1354 1354 1354 1354 1354 1359 1359 1359 1359 1359 1359 1359 1359 1359 1359 1354 1354 1359 1359 1354 1349 1349 1349 1288 1288 1292 1288 1288 1283 1283 1283 1283 1283 1283 1283 1283 1283 1283 1283 1359 1359 1359 1365 1365 1365 1365 1365 1365 1365 1365 0 1671 1671 1671 1671 1663 1663 1671 1671 1663 1663 1663 1663 1663 1663 1655 1647 1647 2184 2184 2198 2198 2198 2198 2198 2198 2198 2198 2198 2198 2198 2198 2198 2198 2212 2198 2198 2198 2198 2184 2184 2184 2184 2184 2198 1731 1731 1731 1731 1731 1731 1739 1739 1731 1731 1731 1731 1731 1731 2212 2198 2198 2198 2198 2198 2198 2198 2198 2198 2198 2212 2226 2226 2241 2241 0 1307 1307 1307 1302 1302 1302 1302 1307 1302 1302 1302 1302 1302 1302 1302 1297 1297 1302 1302 1302 1302 1302 1302 1302 1297 1297 1297 1297 1297 1297 1297 1297 1297 1297 1297 1302 1302 1307 1312 1317 1317 2198 2198 2198 2212 2212 2212 2226 2241 2241 2241 2241 2241 2241 2241 2241 2241 2241 2241 2241 2241 2241 2241 2241 2241 2241 2241 2241 2241 2226 2226 2226 2226 2226 2226 2212 2212 2212 2226 2226 2226 2226 2226 2226 2226 2226 2226 2226 2226 2226 2226 2226 2226 2226 2212 2212 2226 2226 2226 2212 2212 2212 2212 2212 2212 2212 2212 2226 2226 2226 2226 2226 2226 2226 2226 2226 0 0 0 0 0 0 0 0 0
0 0 0 0 0 0 0 0 0 0 0 0 0 0 0 0 0 0 0 0 0 0 0 0 0 0 0 0 0 0 0 0 0 0 2016 2016 2005 2005 2005 2005 2016 2016 2016 2016 2028 2028 2028 2028 2028 2028 2028 2016 2016 2016 2016 2028 2028 2028 2028 2028 2028 2028 2028 2028 2028 2028 2016 2016 2016 2016 2005 2005 2005 2005 2005 2005 2005 2028 2028 2040 2040 2040 2028 2028 2028 2028 2028 2028 2028 2028 2028 2028 2028 2028 2028 2040 2040 2040 2040 2040 2040 2040 2040 2040 2040 2053 2040 2040 2040 2053 2053 2053 2053 2053 2053 2053 2053 2053 2053 2053 2053 2053 2053 2053 2053 2053 2053 2053 2053 2053 2053 2053 2053 2053 2053 2053 2065 2065 2065 2065 2065 2078 2065 2065 2078 2078 2078 2078 2078 2078 2078 2078 2078 2078 2078 2078 2065 2065 1748 1748 1739 1731 1688 1655 1655 1655 1647 1647 1647 1655 1655 1655 1663 1663 1671 1671 1671 1671 1671 2078 2078 2078 2078 2078 2090 2090 2078 2078 2078 2078 1823 1823 1833 1833 1833 1843 1853 1853 1863 1863 1863 1873 1873 1873 1863 1863 1863 1873 2103 2103 2103 2103 2103 2103 2090 2090 2090 2090 2090 2090 2090 2090 2090 2103 2103 2103 2103 2116 2116 2129 2129 2129 2129 2129 2116 2116 2116 2116 2116 2103 2103 2103 2103 2103 2103 1550 1550 1550 1550 1550 1550 1550 1550 1550 1550 1550 1550 1550 1557 1557 1564 1572 1572 1579 1579 1579 1572 1572 2129 2129 2129 2143 2129 2129 2143 2143 2143 2143 2143 2143 2143 2143 2143 2143 2143 2143 2143 2143 2143 2143 2143 2143 2143 2143 2143 2143 2143 2143 1421 1421 1421 1421 1421 1421 1421 1421 1415 1415 1415 1415 1421 1421 1421 1421 1421 1421 1421 1421 1421 1421 1421 1421 1421 1421 1415 1415 1415 1410 1410 1410 1410 1404 1404 1404 1398 1398 1392 1392 1392 1392 1392 1392 1392 1387 1387 1387 1381 1381 1381 1376 1376 1376 1370 1370 1370 1365 1365 1365 1365 1365 1365 1359 1359 1359 1359 1359 1359 1359 1359 1359 1354 1354 1354 1354 1349 1349 1349 1349 1349 1349 1349 1349 1349 1354 1349 1349 1349 1349 1349 1349 1349 1349 1349 1354 1354 1354 1354 1354 1354 1354 1354 1354 1354 1354 1354 1354 1354 1354 1349 1349 1349 1349 1297 1297 1292 1292 1292 1288 1288 1288 1283 1283 1283 1288 1283 1283 1283 1283 1283 1354 1359 1359 1359 1359 1359 1365 1365 1365 0 1671 1671 1671 1671 1671 1663 1663 1671 1671 1663 1663 1663 1663 1663 1663 1655 1655 1655 2184 2184 2198 2198 2198 2198 2198 2198 2198 2198 2198 2198 2198 2198 2198 2198 2198 2198 2198 2198 2184 2184 2184 2184 2184 2184 1739 1731 1731 1731 1731 1731 1739 1739 1739 1739 1731 1731 1731 1731 1731 2212 2198 2184 2184 2198 2198 2198 2184 2184 2184 2198 2198 2212 2212 2226 2241 2241 1307 1307 1307 1302 1302 1302 1302 1307 1302 1302 1307 1307 1307 1302 1302 1302 1302 1302 1302 1302 1302 1302 1302 1302 1302 1297 1297 1302 1297 1297 1297 1297 1297 1297 1297 1302 1302 1307 1312 1317 1317 2198 2198 2198 2198 2198 2212 2212 2226 2226 2226 2226 2241 2241 2226 2226 2226 2241 2241 2226 2226 2226 2226 2226 2226 2226 2212 2212 2226 2212 2212 2212 2212 2212 2212 2198 2198 2212 2212 2212 2212 2212 2212 2226 2226 2226 2226 2226 2212 2212 2212 2212 2212 2212 2198 2198 2198 2212 2212 2198 2198 2198 2198 2198 2198 2198 2198 2198 2212 2212 2212 2212 2212 2212 2198 2198 0 0 0 0 0 0 0 0 0
0 0 0 0 0 0 0 0 0 0 0 0 0 0 0 0 0 0 0 0 0 0 0 0 0 0 0 0 0 0 0 0 0 0 2005 2005 2005 2005 1993 1993 2005 2005 2005 2016 2016 2016 2016 2016 2016 2028 2028 2016 2016 2016 2016 2016 2016 2016 2016 2016 2016 2016 2016 2016 2016 2016 2016 2016 2016 2016 2005 2005 2005 2005 2005 2005 2005 2005 2016 2016 2028 2028 2028 2028 2028 2028 2028 2016 2016 2016 2016 2016 2016 2028 2028 2040 2040 2040 2040 2040 2040 2040 2040 2040 2040 2040 2040 2040 2040 2040 2040 2040 2040 2040 2040 2040 2040 2040 2040 2040 2040 2040 2040 2040 2053 2053 2053 2053 2053 2053 2053 2053 2053 2053 2053 2053 2053 2065 2065 2065 2065 2065 2065 2065 2065 2065 2078 2065 2065 2065 2078 2078 2078 2078 2065 2065 2065 2065 1748 1748 1748 1731 1696 1655 1655 1655 1647 1647 1647 1655 1655 1655 1663 1663 1671 1680 1680 1680 1680 1688 2065 2078 2078 2078 2078 2078 2065 2065 2065 1823 1823 1823 1833 1833 1833 1843 1853 1853 1853 1863 1863 1873 1873 1873 1863 1863 1863 1873 2103 2103 2103 2103 2090 2090 2090 2090 2090 2090 2090 2090 2090 2090 2090 2103 2103 2103 2103 2116 2116 2116 2116 2116 2116 2116 2116 2116 2116 2116 2116 2103 2103 2103 2090 2090 2090 1557 1550 1550 1550 1550 1550 1550 1550 1550 1550 1550 1550 1557 1557 1564 1572 1572 1579 1579 1579 1579 1572 1572 2129 2129 2129 2129 2129 2129 2129 2129 2129 2143 2143 2143 2143 2143 2143 2143 2143 2143 2143 2143 2143 2143 2143 2143 2143 2143 2143 2129 2129 2129 1421 1421 1421 1421 1421 1421 1421 1421 1421 1421 1421 1421 1421 1421 1421 1421 1421 1421 1421 1421 1421 1421 1421 1421 1421 1421 1415 1415 1415 1415 1415 1410 1410 1410 1404 1404 1404 1398 1398 1392 1392 1392 1392 1392 1392 1387 1387 1387 1387 1387 1387 1381 1381 1381 1376 1376 1376 1370 1370 1365 1365 1365 1365 1365 1365 1359 1359 1359 1359 1359 1359 1359 1354 1354 1354 1354 1349 1349 1349 1349 1349 1349 1349 1349 1349 1349 1349 1349 1349 1349 1349 1349 1349 1349 1349 1349 1349 1349 1349 1349 1349 1349 1354 1354 1354 1354 1349 1349 1349 1349 1349 1343 1343 1312 1297 1297 1297 1292 1292 1288 1288 1288 1283 1283 1283 1288 1288 1283 1283 1283 1283 1343 1354 1354 1354 1354 1354 1365 1365 1365 0 1671 1671 1671 1671 1671 1671 1671 1671 1671 1663 1663 1663 1663 1663 1663 1663 1663 1663 2184 2184 2198 2198 2198 2198 2198 2198 2198 2198 2198 2198 2198 2198 2198 2198 2198 2198 2198 2198 2184 2184 2184 2184 2184 2184 1739 1739 1739 1739 1739 1739 1739 1739 1739 1739 1731 1722 1722 1722 1722 2212 2184 2184 2184 2184 2184 2184 2184 2184 2184 2198 2198 2212 2212 2226 2226 1307 1307 1307 1307 1307 1307 1307 1307 1307 1307 1307 1307 1307 1307 1307 1307 1302 1302 1302 1302 1302 1302 1302 1302 1302 1302 1302 1302 1302 1302 1302 1302 1302 1297 1297 1302 1302 1307 1307 1312 1317 1317 2184 2184 2198 2198 2198 2198 2212 2212 2212 2212 2198 2198 2212 2198 2198 2212 2212 2226 2226 2226 2226 2226 2226 2226 2212 2212 2212 2212 2212 2198 2198 2198 2198 2198 2198 2198 2198 2212 2198 2198 2198 2198 2212 2212 2198 2198 2198 2212 2198 2198 2198 2198 2198 2198 2198 2198 2198 2198 2184 2184 2184 2184 2184 2184 2184 2184 2198 2212 2212 2212 2212 2212 2212 2198 2198 0 0 0 0 0 0 0 0 0
