0 0 0 0 0 0 0 0 0 0 0 0 0 0 0 0 0 0 0 0 0 0 0 0 0 0 0 0 0 0 5832 5832 5832 5832 5832 5933 5933 5933 5933 5933 5933 5933 5933 5933 5933 5933 5933 6038 6038 6038 6146 6146 6146 6038 6038 6038 5933 5933 5933 5933 5933 5933 6038 6038 5933 5933 5832 5832 5374 5210 5132 5132 5132 5132 5132 5132 5132 5132 5132 5132 5132 5132 5132 5056 5056 5132 5132 5132 5132 5132 5132 5132 5132 5132 5132 5132 5210 5210 5210 5210 5210 5210 5210 5210 5210 5210 5210 5210 5291 5291 5291 5291 5374 5374 5374 5374 5374 5374 5374 5374 5374 5460 5460 5640 5832 6146 6259 6375 6375 6497 6497 6497 6497 6497 6497 6497 6497 6497 6622 6622 6622 6622 6622 3300 3300 3269 3149 3149 3037 3037 3037 3010 3010 3010 3010 3010 2984 2984 2984 2984 2984 2984 2984 2984 2984 2984 2984 3010 3010 3010 3010 3010 3010 3010 3010 3010 3037 3037 3037 3037 3037 3037 3037 3037 3064 3064 3064 3064 3064 3064 3064 3064 3092 3092 3092 3092 3092 3092 3092 3120 3120 3120 3120 3120 3120 3120 3120 3120 3149 3149 3149 3149 3149 3149 3149 3149 3149 3149 3178 3178 3178 3178 3178 3178 3208 3208 3208 3208 3208 3208 3208 3208 3208 3208 3208 3238 3269 3238 3238 3238 3238 3208 3208 3208 3208 3208 3208 3238 3238 3238 3238 3238 3238 3238 3238 3269 3269 3269 3269 3269 3269 3269 3269 3300 3333 3365 7332 7332 7332 7332 7332 7332 7332 7332 7332 7492 7492 7332 7332 7332 7332 7178 7030 7030 7030 7030 7030 7030 7030 7030 7178 7178 7492 5374 5374 5374 5291 5291 5291 5291 5291 5291 5291 5291 5291 5291 5291 5291 5291 5291 5291 5291 5291 5291 5291 5210 5210 5210 5210 5210 5210 5210 5210 5210 5132 5132 5132 5132 5132 5132 5132 5132 5132 5132 5056 5056 5056 4983 4983 5056 5056 5056 5056 5132 5132 5132 5132 5132 5132 5132 5132 5132 5132 5132 5132 7030 7030 7030 7030 7030 7178 7178 7178 7178 7178 7178 7178 7332 7332 7332 7332 7332 7178 7178 7178 7178 7178 7178 7178 7178 7332 7178 7178 7178 7332 7332 7332 7178 7178 7492 7492 7492 0 3859 3903 3903 3903 3859 3859 3859 3859 3859 3859 3859 3859 3903 3948 3948 3948 3948 4522 4522 4522 4522 4522 4522 0 0 0 0 0 0 0 0 0 0 0 0 0 0 0 0 0 4582 4582 4522 4522 4522 4522 4522 4463 4463 4349 4349 4295 4295 4295 4295 4295 5374 5374 5374 5374 5291 5210 5210 5210 0 5291 5291 5291 5374 5374 5374 5374 5374 5374 5374 5291 5210 5210 5291 5291 5210 5210 5374 5460 5460 5460 5460 5460 5460 5374 5374 5374 5374 5374 5374 5374 5374 5460 5460 5460 5460 5460 5374 5374 5374 5374 5374 5374 5374 5374 5374 5374 5291 5291 5374 5460 5460 5460 5460 5460 5548 5548 5548 5548 5548 5548 5640 5548 5548 0 0 0 5548 5548 5548 5548 3178 3178 3208 3269 3269 3269 3269 3269 3269 3269 3238 3238 3238 3238 3269 3269 3269 3269 3269 3269 3269 3269 3300 3300 3269 3269 3300 3300 3300 3269 3269 3300 3269 3269 3269 3269 3269 3269 3269 3269 3269 3269 3300 3300 3269 3269 3300 3300 3300 3300 3300 3300 3300 3269 3269 3269 3269 3269 4911 4911 4911 4911 4911 4911 0 5291 5291 5291 5291 5374 5132 5056 5056 4983 4983 4983 4983 4983 4983 4983 4983 4983 4983 0 0 0 0 0 0 0 0 0 0 0 0 0 0 0 0 0 0 0 0 0 0 0 0 0 0 0 0
0 0 0 0 0 0 0 0 0 0 0 0 0 0 0 0 0 0 0 0 0 0 0 0 0 0 0 0 0 0 5832 5832 5832 5832 5832 5832 5933 5933 5933 5933 5933 5933 5933 5933 5933 5933 5933 6038 6038 6146 6038 6038 6038 6038 5933 5933 5933 5933 5933 5933 5933 5933 6038 6038 5933 5933 5832 5832 5374 5210 5132 5132 5132 5132 5132 5132 5210 5132 5132 5132 5132 5132 5132 5132 5132 5132 5132 5132 5132 5210 5210 5210 5132 5132 5132 5132 5210 5210 5210 5210 5291 5291 5210 5210 5210 5210 5291 5291 5374 5374 5374 5374 5374 5374 5374 5374 5374 5374 5374 5374 5374 5460 5548 5734 6038 6146 6259 6375 6497 6497 6497 6497 6497 6497 6497 6497 6497 6497 6622 6622 6622 6622 6622 3300 3269 3269 3149 3092 3064 3037 3037 3010 3010 3010 3010 3010 2984 2984 2984 2984 2984 2984 2984 2984 2984 2984 2984 3010 3010 3010 3010 3010 3010 3010 3010 3037 3037 3037 3037 3037 3037 3037 3037 3037 3064 3064 3064 3064 3064 3064 3064 3064 3092 3092 3092 3092 3092 3092 3092 3120 3120 3120 3120 3120 3120 3149 3120 3120 3149 3149 3149 3149 3149 3149 3149 3149 3149 3178 3178 3178 3178 3178 3178 3178 3208 3208 3208 3208 3208 3208 3208 3208 3208 3208 3208 3238 3238 3269 3238 3238 3238 3208 3208 3208 3208 3208 3208 3238 3238 3238 3238 3238 3238 3238 3238 3269 3269 3269 3269 3269 3269 3269 3269 3300 3333 3365 3399 7332 7178 7178 7332 7332 7332 7332 7332 7332 7492 7332 7332 7332 7332 7178 7030 7030 7030 7030 7030 7030 7030 7030 7030 7178 7332 5291 5291 5291 5291 5291 5291 5291 5291 5291 5291 5291 5291 5291 5291 5291 5291 5291 5291 5291 5291 5210 5210 5210 5210 5210 5210 5210 5210 5210 5210 5210 5132 5132 5132 5132 5132 5132 5132 5132 5132 5132 5056 5056 5056 4983 4983 5056 5056 5056 5056 5056 5056 5132 5132 5132 5132 5132 5132 5132 5132 5132 5132 7030 7030 7030 7030 7030 7030 7030 7178 7178 7178 7178 7178 7332 7332 7332 7332 7178 7178 7178 7178 7178 7178 7178 7178 7178 7332 7178 7178 7178 7332 7332 7332 7178 7178 7492 7492 7492 0 3859 3859 3859 3859 3859 3859 3859 3859 3859 3859 3859 3859 3903 3948 3948 3948 3903 3903 3903 3859 3859 3859 0 0 0 0 0 0 0 0 0 0 0 0 0 0 0 0 0 0 0 0 4522 4522 4522 4522 4522 4463 4463 4349 4349 4295 4241 4241 4241 4241 5460 5460 4139 4139 4190 0 0 0 0 0 0 0 0 0 5460 5374 5374 5460 5374 5374 5374 5291 5210 5210 5210 5210 5374 5460 5460 5460 5460 5460 5460 5374 5374 5374 5291 5291 5374 5291 5291 5374 5374 5374 5460 5374 5374 5374 5374 5374 5374 5374 5374 5374 5374 5374 5291 5291 5374 5374 5460 5460 5460 5460 5548 5548 5548 5548 5548 5548 5640 5640 0 0 0 0 0 5548 5548 3178 3178 3178 3208 3269 3269 3269 3269 3269 3269 3269 3269 3269 3269 3269 3269 3269 3269 3269 3269 3269 3269 3269 3269 3269 3269 3269 3269 3269 3300 3300 3300 3300 3300 3300 3300 3300 3269 3269 3269 3269 3269 3269 3300 3300 3300 3300 3300 3300 3300 3300 3300 3300 3300 3269 3269 3269 3269 3269 3269 4911 4911 4911 4911 4911 0 4911 4190 0 0 0 5132 5056 5056 4911 4911 4911 4911 4911 4911 4983 4983 4911 4911 0 0 0 0 0 0 0 0 0 0 0 0 0 0 0 0 0 0 0 0 0 0 0 0 0 0 0 0
0 0 0 0 0 0 0 0 0 0 0 0 0 0 0 0 0 0 0 0 0 0 0 0 0 0 0 0 0 0 5832 5832 5832 5832 5832 5832 5832 5933 5933 5933 5933 5933 5933 5933 5933 6038 6038 6038 6146 6146 6038 6038 6038 6038 5933 5933 6038 6038 5933 5933 5933 5933 6038 6038 6038 5933 5933 5832 5460 5210 5210 5210 5132 5132 5132 5132 5210 5132 5132 5132 5210 5210 5210 5132 5132 5210 5210 5210 5210 5291 5291 5291 5210 5210 5210 5210 5210 5210 5210 5210 5291 5291 5291 5291 5291 5291 5374 5374 5374 5374 5374 5374 5374 5374 5374 5374 5374 5374 5374 5374 5374 5460 5548 5734 5832 6146 6259 6375 6497 6497 6497 6497 6497 6497 6497 6497 6497 6497 6622 6622 6622 6622 6622 3300 3269 3269 3149 3092 3064 3037 3037 3037 3010 3010 3010 3010 2984 2984 2984 2984 2984 2984 2984 2984 2984 2984 2984 2984 3010 3010 3010 3010 3010 3010 3010 3037 3037 3037 3037 3037 3037 3037 3037 3037 3037 3037 3064 3064 3064 3064 3064 3064 3092 3092 3092 3092 3092 3092 3092 3120 3120 3120 3149 3149 3149 3149 3120 3120 3149 3149 3149 3149 3149 3149 3149 3149 3149 3178 3178 3178 3178 3178 3178 3178 3208 3208 3208 3178 3178 3178 3208 3208 3208 3208 3208 3238 3238 3269 3238 3238 3238 3208 3208 3208 3208 3208 3208 3238 3238 3238 3238 3238 3238 3238 3238 3269 3269 3269 3269 3269 3269 3269 3269 3300 3333 3365 3399 7332 7178 7178 7332 7332 7332 7332 7332 7332 7332 7332 7332 7332 7332 7178 7030 7030 7030 7030 7030 7030 7030 7030 7030 7178 7178 5291 5291 5291 5291 5291 5291 5291 5291 5291 5291 5291 5291 5291 5291 5291 5291 5291 5291 5210 5210 5210 5210 5210 5210 5210 5210 5210 5210 5210 5210 5210 5132 5132 5132 5132 5132 5132 5132 5132 5132 5132 5132 5132 5056 5056 5056 5056 5056 5056 5056 5056 5056 5132 5132 5132 5132 5132 5132 5132 5132 5132 7030 7030 7030 7030 7030 7030 7030 7030 7178 7178 7178 7178 7178 7332 7332 7332 7332 7178 7178 7178 7178 7178 7178 7178 7332 7332 7332 7332 7332 7332 7332 7332 7332 7178 7178 7332 7492 7492 0 3859 3859 3859 3859 3859 3859 3859 3859 3859 3859 3859 3859 3903 3903 3903 3903 3903 3859 3859 3859 3859 3859 0 0 0 0 0 0 0 0 0 0 0 0 0 0 0 0 0 0 0 0 0 0 0 0 0 4349 4349 4349 4349 4349 4241 4190 4139 4139 4139 4139 4139 4139 4190 0 0 0 0 0 0 0 0 0 0 0 0 0 5374 5374 5374 5291 5210 5210 5210 5210 5460 5460 5460 5460 5460 5548 5548 5460 5460 5374 5291 5291 5374 5291 5291 5374 5374 5374 5460 5374 5374 5374 5374 5374 5374 5374 5374 5374 5374 5374 5291 5291 5374 5374 5460 5460 5460 5460 5548 5548 5548 5548 5548 5548 5640 0 0 0 0 0 0 0 0 3178 3178 3208 3208 3269 3269 3269 3269 3269 3269 3269 3269 3269 3269 3269 3269 3269 3269 3269 3269 3269 3269 3269 3269 3269 3269 3269 3269 3269 3300 3300 3300 3300 3300 3300 3300 3300 3269 3269 3269 3269 3269 3269 3300 3300 3300 3300 3300 3300 3300 3300 3300 3300 3300 3269 3269 3269 3269 3269 3269 4911 4911 4911 4241 0 0 0 0 0 0 4089 4911 4911 0 4911 4911 4911 4911 4911 4911 4911 4911 4911 4911 0 0 0 0 0 0 0 0 0 0 0 0 0 0 0 0 0 0 0 0 0 0 0 0 0 0 0 0
0 0 0 0 0 0 0 0 0 0 0 0 0 0 0 0 0 0 0 0 0 0 0 0 0 0 0 0 0 0 5832 5832 5832 5832 5832 5832 5832 5933 5933 5933 5933 5933 5933 5933 6038 6038 6038 6038 6038 6038 6038 6038 6038 6038 5933 5933 6038 6038 6038 5933 5933 5933 6038 6038 6038 5933 5933 5933 5548 5291 5210 5210 5132 5132 5132 5210 5210 5210 5210 5210 5210 5210 5210 5210 5210 5291 5291 5374 5374 5374 5291 5291 5210 5210 5210 5210 5210 5210 5210 5291 5291 5291 5291 5291 5291 5374 5374 5374 5374 5460 5460 5374 5374 5374 5374 5374 5374 5374 5374 5374 5374 5460 5460 5640 5832 6146 6259 6375 6497 6497 6497 6497 6497 6497 6497 6497 6622 6622 6622 6622 6622 6622 6622 3300 3269 3269 3149 3149 3064 3037 3037 3010 3010 3010 3010 3010 2984 2984 2984 2984 2984 2984 2984 2984 2984 2984 2984 2984 3010 3010 3010 3010 3010 3037 3037 3037 3037 3037 3037 3037 3037 3037 3037 3037 3037 3037 3064 3064 3064 3064 3064 3064 3092 3092 3092 3092 3092 3092 3092 3120 3120 3120 3149 3149 3149 3149 3149 3149 3149 3149 3149 3149 3149 3149 3149 3149 3149 3178 3178 3178 3178 3178 3178 3178 3178 3208 3208 3178 3178 3178 3208 3208 3208 3208 3208 3238 3238 3269 3238 3238 3238 3208 3208 3208 3208 3208 3238 3238 3238 3238 3238 3238 3269 3269 3269 3269 3269 3269 3269 3269 3269 3269 3269 3300 3300 3365 3399 7492 7332 7332 7332 7332 7332 7332 7332 7492 7332 7332 7332 7332 7332 7332 7178 7178 7030 7030 7030 7030 7030 7030 7030 7030 7178 5374 5374 5291 5291 5291 5291 5291 5291 5291 5291 5291 5210 5210 5210 5291 5291 5291 5291 5210 5210 5210 5210 5210 5210 5210 5210 5210 5210 5210 5210 5210 5132 5132 5132 5132 5132 5132 5132 5132 5132 5132 5132 5132 5132 5056 5056 5056 5056 5056 5056 5056 5056 5132 5132 5132 5132 5132 5132 5132 5132 5132 7030 7030 7030 7030 7030 7030 7030 7178 7178 7178 7178 7178 7178 7178 7332 7332 7332 7332 7178 7178 7178 7178 7178 7178 7332 7332 7332 7332 7332 7332 7332 7332 7332 7178 7178 7332 7332 7332 0 3859 3859 3859 3859 3859 3859 3859 3859 3859 3859 3859 3859 3903 3903 3903 3903 3903 3859 3859 3859 3859 3859 0 0 0 0 0 0 0 0 0 0 0 0 0 0 0 0 0 0 0 0 0 0 0 0 0 0 0 3653 4190 4190 4190 4190 4139 4139 4139 4139 4139 4139 4190 0 0 0 0 0 0 0 0 0 0 0 0 0 0 0 0 0 0 0 0 0 0 0 0 0 0 0 0 0 0 0 0 0 0 5291 5291 5374 5374 5374 5460 5374 5374 5374 5291 5291 5374 5374 5374 5374 5374 5374 5291 5291 5374 5374 5460 5460 5460 5460 5548 5548 5548 5548 5548 5548 0 0 0 0 0 0 0 0 0 0 3208 3208 3238 3269 3269 3269 3269 3269 3269 3269 3269 3269 3269 3269 3269 3300 3269 3269 3269 3269 3269 3269 3269 3269 3269 3269 3269 3300 3300 3300 3300 3300 3300 3300 3300 3300 3300 3269 3269 3269 3269 3269 3300 3300 3300 3300 3300 3300 3300 3300 3300 3300 3300 3269 3269 3269 3269 3269 3269 3269 3269 4241 4241 0 0 0 4190 0 0 0 0 0 4911 4911 4911 4842 4842 4911 4911 4911 4911 4911 0 0 0 0 0 0 0 0 0 0 0 0 0 0 0 0 0 0 0 0 0 0 0 0 0 0 0 0 0
0 0 0 0 0 0 0 0 0 0 0 0 0 0 0 0 0 0 0 0 0 0 0 0 0 0 0 0 0 0 5832 5832 5832 5832 5933 5933 5933 5933 5933 5933 5933 5933 5933 6038 6038 6038 6038 6038 6038 6038 6038 6038 6038 6038 6038 6038 6038 6038 6038 6038 6038 6038 6038 6038 6038 5933 5933 5933 5640 5291 5210 5210 5210 5210 5210 5210 5210 5291 5291 5291 5374 5374 5460 5460 5548 5548 5640 5640 5734 5832 5933 5832 5640 5640 5640 5460 5460 5460 5460 5460 5460 5460 5460 5460 5460 5460 5548 5548 5548 5548 5460 5460 5374 5374 5374 5374 5374 5291 5291 5374 5374 5460 5460 5640 5832 6146 6259 6375 6497 6497 6497 6622 6497 6497 6497 6622 6622 6622 6622 6622 6622 6753 6753 6753 3269 3269 3120 3120 3037 3037 3010 3010 3010 3010 3010 3010 2984 2984 2984 2984 2984 2984 2984 2984 2984 2984 2984 2984 3010 3010 3010 3010 3010 3037 3037 3037 3037 3037 3037 3037 3037 3037 3037 3037 3037 3037 3064 3064 3064 3064 3064 3064 3092 3092 3092 3092 3092 3092 3120 3120 3120 3120 3149 3149 3149 3149 3149 3149 3149 3149 3149 3149 3149 3149 3149 3149 3149 3178 3178 3178 3178 3178 3178 3178 3178 3178 3208 3208 3208 3208 3208 3208 3208 3208 3208 3238 3238 3269 3238 3238 3238 3238 3208 3208 3208 3208 3238 3238 3238 3238 3238 3238 3269 3269 3269 3269 3269 3269 3269 3269 3269 3269 3269 3300 3300 3333 7332 7492 7332 7332 7332 7332 7332 7332 7492 7492 7492 7332 7332 7332 7332 7332 7332 7178 7178 7178 7178 7030 7030 7030 7030 7030 7178 5374 5374 5374 5291 5291 5291 5291 5291 5210 5210 5210 5210 5210 5210 5210 5210 5291 5291 5210 5210 5210 5210 5210 5210 5210 5210 5210 5210 5210 5210 5210 5132 5132 5132 5132 5132 5132 5132 5132 5132 5132 5132 5132 5132 5056 5056 5056 5132 5132 5132 5056 5056 5132 5132 5132 5132 5132 5132 5132 5132 5132 7030 7030 7030 7030 7030 7030 7030 7178 7178 7178 7178 7178 7178 7178 7178 7332 7178 7178 7332 7178 7178 7178 7178 7178 7332 7332 7332 7332 7332 7332 7332 7332 7332 7332 7332 7332 0 0 3816 3816 3816 3816 3859 3903 3903 3903 3859 3859 3859 3859 3859 3903 3903 3903 3948 3903 3859 3859 3859 3859 3859 3859 3816 3816 3816 0 0 0 0 0 0 0 0 0 0 0 0 0 0 0 0 0 0 0 0 0 0 0 0 0 0 4139 4139 4139 4139 4139 4139 4139 4139 4139 0 0 0 0 0 0 0 0 0 0 0 0 0 0 0 0 0 0 0 0 0 0 0 0 0 0 0 0 0 0 0 0 0 0 0 0 0 0 5460 5460 5374 5374 5374 5291 5291 5374 5374 5374 5374 5374 5374 5374 5374 5374 5460 5460 5460 5460 5460 5548 5548 5548 5548 5548 5548 0 0 0 0 0 0 0 0 0 0 0 0 3269 3269 3269 3269 3269 3269 3269 3269 3269 3269 3269 3269 3269 3269 3269 3269 3269 3269 3269 3269 3269 3269 3269 3269 3300 3300 3300 3300 3300 3300 3300 3300 3300 3300 3300 3300 3300 3269 3269 3300 3300 3300 3300 3300 3300 3300 3300 3300 3300 3300 3300 3269 3269 3269 3269 3269 3269 3269 3269 4241 4241 4241 4241 4190 4190 0 0 4089 0 4089 0 4842 4842 4842 4842 4911 4842 4842 0 0 0 0 0 0 0 0 0 0 0 0 0 0 0 0 0 0 0 0 0 0 0 0 0 0 0 0 0 0 0
0 0 0 0 0 0 0 0 0 0 0 0 0 0 0 0 0 0 0 0 0 0 0 0 0 0 0 0 0 0 5832 5832 5832 5832 5933 5933 5933 5933 5933 5933 5933 5933 5933 6038 6038 6038 6038 6038 6038 6038 6038 6038 6038 6038 6038 6038 6038 6146 6146 6038 6038 6038 6038 6146 6038 5933 5933 5933 5734 5374 5210 5210 5210 5210 5210 5210 5291 5291 5374 5374 5460 5548 5548 5640 5832 5832 5832 5933 6038 6038 6146 6146 6146 6146 6038 6038 6146 6146 5933 5933 5734 5734 5734 5832 5933 6038 6038 6146 6146 6146 6146 5460 5374 5374 5374 5374 5374 5291 5291 5374 5374 5460 5460 5640 5832 6146 6259 6375 6375 6497 6497 6622 6497 6497 6497 6622 6497 6497 6622 6622 6622 6622 6622 6622 3238 3149 3120 3092 3037 3037 3010 3010 3010 3010 3010 3010 2984 2984 2984 2984 2984 2984 2984 2984 2984 2984 2984 3010 3010 3010 3010 3010 3010 3037 3037 3037 3037 3037 3037 3037 3037 3037 3064 3064 3064 3064 3064 3064 3064 3064 3064 3064 3092 3092 3092 3092 3092 3092 3120 3120 3120 3120 3149 3149 3149 3149 3149 3149 3149 3149 3149 3149 3149 3149 3149 3149 3178 3178 3178 3178 3178 3178 3178 3178 3178 3178 3208 3208 3208 3208 3208 3208 3208 3208 3238 3238 3238 3269 3238 3238 3238 3238 3208 3208 3208 3238 3238 3238 3238 3238 3238 3269 3269 3269 3269 3269 3269 3269 3269 3269 3269 3269 3269 3300 3300 3333 7332 7492 7332 7332 7332 7332 7332 7492 7492 7492 7492 7332 7332 7332 7332 7332 7332 7178 7030 7030 7030 7030 7030 7030 7030 7030 7178 5460 5374 5374 5291 5291 5291 5291 5291 5210 5210 5210 5210 5210 5210 5210 5210 5291 5291 5210 5210 5210 5210 5210 5210 5210 5210 5210 5210 5210 5210 5210 5132 5132 5132 5132 5132 5132 5132 5132 5056 5056 5132 5132 5132 5132 5056 5056 5132 5132 5056 5056 5056 5132 5132 5132 5132 5132 5132 5132 5132 5132 6889 6889 6889 7030 7030 7030 7178 7178 7178 7030 7030 7178 7030 7030 7178 7030 7030 7030 7178 7178 7178 7178 7178 7178 7332 7332 7332 7332 7332 7332 7332 7332 7332 7332 7332 7332 7332 3774 3816 3816 3816 3816 3859 3903 3903 3903 3948 3903 3903 3903 3903 3903 3903 3903 3903 3948 3903 3903 3859 3859 3859 3859 3816 3816 3816 3816 3903 3903 3903 3903 0 0 0 0 0 0 0 0 0 0 0 0 0 0 0 0 0 0 3653 3692 3692 4089 4089 4089 4089 4089 4089 4089 4089 4139 0 0 0 0 0 0 0 0 0 0 0 0 0 0 0 0 0 0 0 0 0 0 0 0 0 0 0 0 0 0 0 0 0 0 0 0 0 0 0 0 0 0 0 0 0 0 0 0 0 5374 5374 5291 5291 5374 5374 5374 5460 5548 5548 5548 5548 5640 5640 5548 5548 0 0 0 0 0 0 0 0 0 0 0 3238 3238 3269 3269 3269 3269 3269 3269 3269 3269 3269 3269 3269 3269 3269 3269 3269 3269 3269 3269 3269 3269 3269 3269 3269 3300 3300 3300 3300 3300 3300 3300 3300 3300 3300 3300 3300 3300 3300 3300 3300 3300 3300 3300 3300 3300 3300 3300 3300 3300 3300 3300 3269 3269 3269 3269 3269 3269 3269 4241 4241 4241 4190 4139 4139 4139 4139 4089 4089 4089 4089 3774 0 3774 0 0 4842 4842 4842 0 0 0 0 0 0 0 0 0 0 0 0 0 0 0 0 0 0 0 0 0 0 0 0 0 0 0 0 0 0 0
0 0 0 0 0 0 0 0 0 0 0 0 0 0 0 0 0 0 0 0 0 0 0 0 0 0 0 0 0 0 5832 5832 5832 5832 5933 5933 5933 5933 5933 5933 5933 5933 5933 5933 6038 6038 6038 6038 6038 6038 6038 6038 6146 6146 6038 6038 6038 6146 6146 6146 6146 6146 6146 6146 6146 6038 6038 6038 5832 5374 5210 5210 5291 5291 5291 5291 5291 5374 5460 5460 5548 5548 5734 5832 6038 6038 6038 6146 6146 6146 6146 6146 6146 6146 6146 6146 6146 6146 6038 6038 6038 6038 6038 6038 6146 6146 6146 6146 6146 6146 6146 5548 5460 5460 5374 5374 5374 5374 5374 5374 5374 5460 5460 5640 5832 6146 6259 6375 6375 6497 6497 6497 6497 6497 6497 6622 6497 6497 6622 6622 6622 6622 6622 6622 3208 3149 3120 3092 3037 3010 3010 3010 3010 3010 3010 3010 2984 2984 2984 2984 2984 2984 2984 2984 2984 2984 2984 3010 3010 3010 3010 3010 3010 3010 3037 3037 3037 3037 3037 3037 3037 3037 3064 3064 3064 3064 3064 3064 3064 3064 3064 3064 3092 3092 3092 3092 3092 3092 3120 3120 3120 3120 3120 3120 3120 3120 3149 3149 3149 3149 3149 3149 3149 3149 3149 3149 3178 3178 3178 3178 3178 3178 3178 3178 3178 3178 3178 3208 3208 3208 3208 3208 3208 3238 3238 3238 3238 3269 3269 3238 3238 3238 3238 3238 3238 3238 3238 3238 3238 3238 3238 3269 3269 3269 3269 3269 3269 3269 3269 3269 3269 3269 3269 3300 3300 7332 7332 7492 7332 7332 7332 7332 7332 7492 7332 7332 7332 7332 7332 7332 7332 7332 7178 7178 7030 7030 7030 7030 7030 7030 7030 7030 7178 5374 5374 5374 5374 5291 5291 5291 5291 5291 5291 5291 5291 5291 5210 5210 5291 5291 5291 5210 5210 5210 5210 5210 5210 5210 5210 5210 5210 5210 5210 5210 5132 5132 5132 5132 5132 5132 5132 5132 5056 5056 5132 5132 5132 5132 5056 5056 5132 5132 5056 5056 5056 5132 5132 5132 5132 5132 5132 5132 5132 5132 6889 6889 6889 6889 6889 7178 7178 7178 7178 7030 7030 7178 7030 7030 7030 7030 7030 7030 7178 7178 7178 7178 7178 7178 7332 7332 7332 7332 7332 7332 7332 7332 7332 7332 7332 7332 7332 0 3774 3774 3816 3816 3903 3903 3903 3903 3903 3903 3903 3903 3903 3903 3903 3903 3903 3948 3903 3903 3903 3903 3903 3859 3859 3816 3816 3816 3774 3774 3816 3816 3816 3816 3816 0 0 0 0 0 0 0 0 0 3732 3732 3732 3732 3653 3653 3653 3692 3692 3692 4089 3948 3948 3994 3994 4041 4089 4139 0 0 0 0 0 0 0 0 0 0 0 0 0 0 0 0 0 0 0 0 0 0 0 0 0 0 0 0 0 0 0 0 0 0 0 0 0 0 0 0 0 0 0 0 0 0 0 0 0 0 0 5291 5291 5374 5374 5374 5374 5548 5548 5640 5640 5640 5640 5640 5640 0 0 0 0 0 0 0 0 0 0 0 3238 3238 3269 3269 3269 3269 3269 3269 3269 3269 3269 3269 3269 3269 3269 3269 3269 3269 3269 3269 3269 3269 3269 3269 3269 3269 3300 3300 3300 3300 3300 3300 3300 3300 3300 3300 3300 3300 3300 3300 3300 3300 3300 3300 3300 3300 3300 3300 3300 3300 3300 3300 3269 3269 3269 3269 3269 3269 3269 4190 4190 4139 4139 4139 4139 4139 4089 4089 4089 4041 4041 3774 3774 3774 0 0 0 0 0 0 0 0 0 0 0 0 0 0 0 0 0 0 0 0 0 0 0 0 0 0 0 0 0 0 0 0 0 0 0 0
0 0 0 0 0 0 0 0 0 0 0 0 0 0 0 0 0 0 0 0 0 0 0 0 0 0 0 0 0 0 5832 5832 5832 5933 5933 5933 5933 5933 5933 5933 5933 5933 5933 5933 6038 6038 6038 6038 6038 6038 6038 6038 6146 6146 6146 6146 6146 6146 6146 6146 6146 6146 6146 6146 6146 6146 6038 6038 5832 5460 5291 5291 5291 5291 5291 5291 5291 5460 5548 5548 5640 5734 5832 5933 6038 6038 6038 6146 6146 6146 6146 6146 6146 6146 6146 6146 6146 6146 6146 6146 6146 6146 6146 6146 6146 6146 6146 6146 6146 6146 6146 6146 5548 5460 5460 5374 5374 5374 5374 5374 5374 5460 5460 5640 5832 6146 6259 6259 6375 6497 6497 6497 6497 6497 6497 6497 6497 6497 6622 6622 6622 6497 6497 6497 3208 3208 3120 3120 3064 3010 3010 3010 3010 3010 3010 3010 2984 2984 2984 2984 2984 2984 2984 2984 2984 2984 2984 3010 3010 3010 3010 3010 3010 3010 3037 3037 3037 3037 3037 3037 3037 3037 3064 3064 3064 3064 3064 3064 3064 3064 3064 3064 3092 3092 3092 3092 3092 3120 3120 3120 3120 3120 3120 3120 3120 3120 3149 3149 3149 3149 3149 3149 3149 3149 3149 3149 3178 3178 3178 3178 3178 3178 3178 3178 3178 3178 3178 3208 3208 3208 3208 3238 3238 3238 3238 3238 3269 3269 3269 3238 3238 3238 3238 3238 3238 3238 3238 3238 3238 3269 3269 3269 3269 3269 3269 3269 3269 3269 3269 3269 3269 3269 3269 3269 3300 7492 7492 7492 7492 7332 7332 7332 7492 7492 7332 7332 7332 7332 7332 7178 7178 7178 7178 7178 7030 7030 7030 7030 7030 7030 7030 7030 7178 5374 5374 5374 5374 5374 5291 5291 5291 5291 5291 5291 5291 5291 5210 5210 5291 5291 5291 5291 5291 5291 5291 5210 5210 5210 5210 5210 5210 5210 5210 5210 5132 5132 5132 5132 5132 5132 5132 5132 5132 5132 5132 5132 5132 5132 5132 5132 5132 5132 5056 5056 5056 5132 5132 5132 5132 5132 5132 5132 5132 5132 6889 6889 6889 6889 6889 7178 7332 7332 7178 7178 7178 7178 7030 7030 7030 7030 7030 7030 7030 7030 7030 7178 7178 7178 7332 7332 7332 7332 7332 7332 7332 7332 7332 7332 7332 7332 7332 3774 3774 3774 3816 3816 3903 3903 3903 3903 3903 3903 3903 3903 3903 3903 3903 3903 3903 3948 3903 3903 3903 3903 3903 3859 3859 3859 3816 3816 3774 3774 3816 3816 3816 3816 3816 3774 3774 0 0 0 0 0 0 3692 3692 3692 3692 3692 3653 3653 3653 3653 3653 3653 3653 3816 3816 3903 3948 3732 3732 3614 3614 0 0 0 0 0 0 0 0 0 0 0 0 0 0 0 0 0 3774 3774 0 0 0 0 0 3948 3948 0 0 0 0 0 0 0 0 0 0 0 3948 3948 3948 3948 0 0 0 0 0 0 0 0 0 0 0 0 5374 5374 5374 0 0 0 0 0 0 0 0 0 0 0 0 0 0 0 0 0 0 0 3269 3269 3269 3269 3269 3269 3269 3269 3269 3269 3269 3269 3269 3269 3269 3269 3269 3269 3269 3300 3269 3269 3300 3269 3269 3269 3300 3300 3300 3300 3300 3300 3300 3300 3300 3300 3300 3300 3300 3300 3300 3300 3300 3300 3300 3300 3300 3300 3300 3300 3300 3300 3269 3269 3269 3269 3269 3238 3238 4190 4190 4139 4139 4139 4139 4139 4089 4089 4089 4041 4041 3774 3774 3816 3774 3774 0 0 0 0 0 0 0 0 0 0 0 0 0 0 0 0 0 0 0 0 0 0 0 0 0 0 0 0 0 0 0 0 0 0
0 0 0 0 0 0 0 0 0 0 0 0 0 0 0 0 0 0 0 0 0 0 0 0 0 0 0 0 0 0 5933 5832 5832 5933 5933 5933 5933 5933 5933 5933 5933 5933 5933 6038 6038 6038 6038 6038 6038 6038 6038 6038 6038 6146 6146 6146 6146 6146 6146 6146 6146 6146 6146 6146 6146 6146 6146 6038 5832 5460 5291 5291 5291 5291 5291 5291 5291 5460 5548 5734 5832 5832 6038 6038 6146 6146 6146 6146 6146 6146 6146 6146 6259 6259 6259 6259 6259 6259 6259 6146 6146 6146 6146 6146 6146 6146 6146 6146 6146 6146 6146 6259 6259 5548 5548 5460 5460 5374 5374 5374 5460 5460 5548 5640 5734 6146 6146 6259 6375 6375 6375 6497 6497 6497 6497 6497 6497 6497 6497 6497 6497 6375 6375 6375 3208 3208 3208 3064 3064 3010 3010 3037 3010 3010 3010 3010 3010 3010 2984 2984 2984 2984 3010 3010 3010 3010 3010 3010 3010 3010 3010 3010 3010 3010 3037 3037 3037 3037 3037 3037 3064 3064 3064 3064 3064 3064 3064 3064 3064 3064 3064 3064 3092 3092 3092 3092 3092 3120 3120 3120 3120 3120 3120 3120 3120 3120 3149 3149 3149 3149 3149 3149 3149 3149 3178 3178 3178 3178 3178 3178 3178 3178 3178 3208 3208 3208 3208 3208 3208 3238 3238 3238 3238 3238 3238 3238 3269 3269 3269 3269 3269 3238 3238 3238 3238 3238 3238 3238 3269 3269 3269 3269 3269 3269 3269 3269 3269 3269 3269 3269 3269 3269 3269 3269 3300 7492 7492 7492 7492 7492 7492 7492 7492 7492 7332 7332 7332 7332 7332 7178 7178 7178 7178 7178 7030 7030 7030 7030 7030 7030 7030 7030 7030 5374 5374 5374 5374 5374 5374 5374 5374 5291 5291 5291 5291 5291 5291 5291 5291 5291 5291 5291 5291 5291 5291 5291 5210 5210 5210 5210 5210 5210 5210 5210 5132 5132 5132 5132 5132 5132 5132 5132 5132 5132 5056 5056 5132 5132 5132 5132 5132 5132 5132 5056 5056 5132 5132 5132 5132 5132 5132 5132 5132 5132 6889 6889 6889 6889 6889 7178 7332 7332 7332 7332 7178 7178 7030 7030 7030 7030 7030 7030 7030 7030 7030 7178 7178 7332 7332 7332 7332 7492 7492 7332 7332 7332 7332 7332 7332 7332 7332 7332 3816 3816 3816 3859 3903 3903 3948 3948 3948 3948 3948 3948 3903 3903 3948 3948 3948 3948 3903 3903 3903 3903 3903 3903 3903 3903 3859 3816 3816 3816 3816 3816 3816 3816 3816 3774 3774 0 0 0 0 0 0 3692 3692 3692 3692 3692 3653 3653 3653 3653 3653 3653 3653 3774 3774 3732 3732 3692 3653 3614 3614 3614 0 0 0 0 0 0 0 0 0 0 0 0 0 0 0 0 3774 3774 0 0 0 0 0 3948 3948 0 0 0 0 0 0 0 0 0 0 3903 3903 3903 3903 3903 3903 3903 0 0 0 0 0 0 0 0 0 0 0 0 0 0 0 0 0 0 0 0 0 0 0 0 0 0 0 0 0 0 0 0 3269 3269 3269 3269 3269 3269 3269 3269 3269 3269 3269 3269 3269 3269 3269 3269 3269 3300 3300 3300 3300 3300 3300 3300 3300 3300 3300 3300 3300 3300 3300 3300 3300 3300 3300 3300 3300 3333 3333 3333 3333 3333 3333 3333 3333 3333 3333 3300 3300 3333 3333 3300 3300 3269 3269 3269 3269 3238 3238 4190 4190 4139 4139 4089 4089 4139 4089 4089 4089 4089 4041 4041 4041 3816 3774 3774 0 0 0 0 0 0 0 0 0 0 0 0 0 0 0 0 0 0 0 0 0 0 0 0 0 0 0 0 0 0 0 0 0 0
0 0 0 0 0 0 0 0 0 0 0 0 0 0 0 0 0 0 0 0 0 0 0 0 0 0 0 0 0 0 5832 5832 5832 5933 5933 5933 5933 5933 5933 5933 5933 5933 5933 6038 5933 5933 6038 6038 6038 6038 6038 6038 6038 6146 6146 6146 6146 6146 6146 6146 6146 6146 6146 6146 6146 6146 6146 6146 5933 5460 5374 5291 5291 5210 5210 5291 5291 5460 5640 5734 5832 5832 6038 6038 6146 6146 6146 6146 6146 6146 6146 6146 6259 6259 6259 6259 6259 6146 6146 6146 6146 6146 6259 6259 6259 6146 6146 6259 6259 6259 6259 6259 6259 6038 5734 5640 5548 5460 5460 5460 5460 5460 5548 5548 5640 6038 6146 6259 6375 6375 6375 6497 6497 6497 6497 6497 6497 6497 6497 6497 6375 6375 6375 6375 6375 3208 3208 3064 3064 3010 3010 3037 3037 3010 3010 3037 3010 3010 2984 2984 2984 2984 3010 3010 3010 3010 3010 3010 3010 3010 3010 3010 3010 3010 3037 3037 3037 3037 3037 3064 3064 3064 3064 3064 3064 3064 3064 3064 3064 3064 3064 3092 3092 3120 3120 3120 3120 3120 3120 3120 3120 3120 3120 3120 3120 3120 3149 3149 3149 3149 3149 3149 3149 3178 3178 3178 3178 3178 3178 3178 3178 3178 3178 3208 3208 3208 3208 3238 3238 3238 3238 3238 3238 3269 3269 3269 3269 3269 3269 3269 3269 3238 3238 3238 3238 3238 3238 3269 3269 3269 3269 3269 3269 3269 3269 3269 3269 3269 3269 3269 3269 3269 3269 3269 3269 7492 7492 7492 7492 7492 7332 7332 7492 7492 7332 7332 7332 7332 7332 7178 7178 7332 7332 7178 7030 7030 7030 7030 7030 7030 7030 7030 7030 5374 5374 5460 5374 5374 5374 5374 5374 5291 5291 5291 5291 5291 5291 5291 5291 5291 5291 5291 5291 5291 5291 5291 5291 5291 5210 5210 5210 5210 5210 5210 5132 5132 5132 5132 5132 5132 5132 5132 5132 5132 5056 5056 5132 5132 5132 5132 5132 5132 5132 5132 5132 5132 5132 5132 5132 5132 5132 5132 5132 5132 6889 6889 6889 6889 7030 7332 7332 7332 7332 7178 7178 7178 7178 7178 7030 7030 7030 7030 7030 7030 7030 7178 7178 7332 7332 7332 7332 7492 7492 7332 7332 7332 7332 7332 7332 7332 7332 0 2467 2467 2467 2467 2467 2467 2467 2467 3948 3948 3948 3948 3948 3948 3903 3903 3948 3948 3903 3903 3903 3903 3903 3903 3903 3903 3903 3816 3816 3816 3816 3816 3816 3816 3816 3774 3774 3816 0 0 0 0 0 3692 3692 3692 3653 3653 3653 3653 3653 3653 3653 3653 3653 3692 3732 3692 3692 3692 3653 3614 3614 3614 3614 3576 3576 3653 3653 3692 3692 3614 3614 3774 0 0 0 3433 3433 3468 3468 3732 3732 0 0 0 0 3948 3948 0 0 0 0 0 0 0 0 0 0 3903 3903 3903 3903 3859 3859 3903 3903 3903 0 0 0 0 0 0 0 0 0 0 0 0 0 0 0 0 0 0 0 0 0 0 0 0 0 0 0 0 0 3300 3300 3300 3300 3269 3269 3269 3269 3269 3269 3269 3269 3269 3269 3269 3269 3269 3269 3300 3300 3300 3300 3300 3300 3300 3300 3300 3300 3300 3300 3300 3300 3300 3300 3300 3333 3300 3300 3333 3333 3333 3333 3333 3333 3365 3365 3333 3333 3333 3333 3333 3365 3300 3300 3300 3300 3300 3269 3238 3238 4190 4190 4190 4089 4089 4089 4089 4089 4089 4041 4041 4041 4041 4041 4041 3816 3816 4041 0 0 0 0 0 0 0 0 0 0 0 0 0 0 0 0 0 0 0 0 0 0 0 0 0 0 0 0 0 0 0 0 0
0 0 0 0 0 0 0 0 0 0 0 0 0 0 0 0 0 0 0 0 0 0 0 0 0 0 0 0 0 0 5832 5832 5832 5933 5933 5933 5933 5933 5933 5933 5933 5933 5933 5933 5933 5933 6038 6038 6038 6038 6038 6038 6146 6146 6146 6146 6146 6146 6146 6146 6146 6146 6146 6146 6146 6146 6146 6146 6038 5548 5374 5291 5291 5210 5210 5291 5291 5460 5640 5734 5832 5832 5933 6038 6146 6146 6146 6146 6146 6146 6146 6146 6259 6259 6259 6259 6259 6146 6146 6146 6146 6146 6259 6259 6259 6259 6259 6259 6259 6259 6259 6259 6259 6259 6038 5832 5640 5460 5460 5460 5460 5460 5548 5548 5640 5832 6146 6375 6497 6497 6497 6497 6497 6497 6497 6497 6497 6497 6497 6375 6375 6375 6375 6375 3300 3208 3208 3120 3064 3010 3010 3037 3037 3037 3037 3037 3010 3010 3010 3010 3010 3010 3010 3010 3010 3010 3010 3010 3010 3010 3010 3010 3010 3037 3037 3037 3037 3037 3064 3064 3064 3064 3064 3064 3064 3064 3064 3064 3064 3064 3092 3092 3120 3120 3120 3120 3120 3120 3120 3120 3120 3120 3120 3120 3149 3149 3149 3149 3149 3149 3149 3149 3178 3178 3178 3178 3178 3178 3178 3178 3178 3178 3178 3208 3208 3208 3208 3238 3238 3238 3238 3238 3238 3269 3269 3269 3269 3269 3269 3269 3269 3238 3238 3238 3238 3238 3269 3269 3269 3269 3269 3269 3269 3269 3269 3269 3269 3269 3269 3269 3269 3269 3269 3269 3269 7660 7660 7332 7332 7332 7332 2170 2170 7492 7332 7332 7332 7332 7332 7332 7332 7332 7332 7178 7030 6889 6889 2198 2198 7030 7178 7178 7178 2226 2226 2241 2226 2226 2226 5374 5374 5291 5291 5291 5291 5291 5291 5291 5291 5374 5374 5291 5291 5291 5291 5291 5291 5291 5291 5291 5210 5210 5210 5210 5132 5132 5132 5132 5132 5132 5132 5132 5132 5132 5132 5132 5132 5132 5132 5132 5132 5132 5132 5132 5132 5132 5132 5132 5132 5132 5056 5056 5056 5056 6889 6889 6889 6889 7030 7178 7178 7178 7178 7178 7178 7178 7178 7178 7030 7030 7030 7030 7030 7178 7178 7178 7332 7332 7332 7332 7332 7492 7492 7332 7332 7332 7332 7332 7332 7332 7332 2467 2467 2467 2467 2467 2467 2467 2467 2467 3948 2467 2467 3948 3948 3948 2485 2485 2485 2485 2485 3903 3903 3903 3903 3903 3903 3903 3903 3859 3859 3859 3859 3816 3816 3816 3816 3774 3774 3816 3774 3774 0 0 0 3692 3692 3692 3653 3653 3653 3653 3653 3653 3653 3653 3653 3692 3692 3692 3692 3653 3653 3614 3614 3614 3614 3576 3576 3653 3653 3653 3614 3614 3614 3614 0 0 3503 3433 3433 3468 3468 3653 3653 3692 3692 0 0 3903 3903 0 0 0 0 0 0 0 0 0 0 3903 3903 3903 3903 3859 3859 3903 3903 3903 3903 0 0 0 0 0 0 0 0 0 0 0 0 0 0 0 0 0 0 0 0 0 0 0 0 0 0 0 0 3300 3300 3300 3300 3300 3300 3300 3269 3269 3269 3269 3269 3269 3269 3269 3269 3269 3300 3300 3300 3300 3300 3300 3300 3300 3300 3300 3300 3300 3300 3300 3300 3300 3300 3300 3333 3300 3300 3333 3333 3333 3333 3333 3365 3365 3365 3333 3333 3333 3333 3333 3333 3300 3300 3300 3300 3300 3269 3238 3238 4190 4190 4190 4089 4089 4089 4089 4089 4089 4041 4041 4041 4041 4041 4041 3816 3816 4041 4089 4089 0 0 0 0 0 0 0 0 4041 4041 4041 0 0 0 0 0 0 0 0 0 0 0 0 0 0 0 0 0 0 0 0
0 0 0 0 0 0 0 0 0 0 0 0 0 0 0 0 0 0 0 0 0 0 0 0 0 0 0 0 0 0 5832 5832 5832 5933 5933 5933 5933 5933 5933 5933 5933 5933 5933 5933 5933 5933 5933 6038 6038 6038 6038 6038 6146 6146 6038 6038 6146 6146 6146 6146 6146 6146 6146 6259 6146 6146 6146 6146 6038 5734 5374 5374 5291 5210 5210 5291 5291 5460 5640 5734 5832 5832 5933 6038 6146 6146 6146 6146 6146 6146 6146 6259 6259 6259 6259 6259 6259 6259 6259 6259 6259 6259 6259 6259 6259 6259 6259 6259 6259 6259 6259 6259 6259 6259 6146 5933 5832 5548 5548 5548 5548 5548 5548 5548 5640 5832 6146 6375 6497 6497 6497 6497 6497 6497 6497 6497 6497 6375 6375 6375 6375 6375 6375 6375 3300 3238 3208 3120 3064 3037 3037 3037 3037 3037 3037 3037 3010 3010 3010 3010 3010 3010 3010 3010 3010 3010 3010 3037 3010 3010 3010 3010 3010 3037 3037 3037 3037 3037 3064 3064 3064 3064 3064 3064 3092 3092 3092 3092 3092 3092 3092 3120 3120 3120 3120 3120 3120 3120 3120 3120 3120 3120 3120 3120 3149 3149 3149 3149 3149 3149 3149 3149 3178 3178 3178 3178 3178 3178 3178 3178 3178 3208 3208 3208 3208 3208 3208 3238 3238 3238 3238 3238 3269 3269 3269 3269 3269 3269 3269 3269 3269 3238 3238 3238 3238 3238 3269 3269 3269 3269 3269 3269 3269 3269 3269 3269 3269 3269 3269 3269 3269 3269 3269 3269 3269 3269 7332 7332 7332 7332 2170 2170 2170 2156 2156 7332 7332 7178 2170 2170 2184 2212 2212 2212 2212 2212 2212 2198 2198 2198 2212 2212 2226 2226 2226 2241 2226 2226 2226 2226 5374 5291 5291 5291 5291 5291 5291 5291 5291 5291 5291 5291 5291 5291 5291 5291 5291 5291 5291 5210 5210 5210 5210 5210 5132 5132 5132 5132 5132 5132 5132 5132 5132 5132 5132 5132 5132 5132 5132 5132 5132 5132 5132 5132 5132 5132 5132 5056 5056 5056 5056 5056 5056 5056 6889 6889 6889 7030 7030 7178 7178 7178 7178 7178 7178 7178 7178 7178 7030 7030 2398 2398 2398 2398 2398 2415 2415 2415 2415 7332 7332 7332 7492 7332 7332 2432 2432 7178 7178 7332 7332 2467 2467 2467 2450 2450 2450 2467 2467 2467 2467 2467 2467 2467 2485 2485 2485 2485 2485 2485 2485 2485 2485 3903 3903 3903 3903 3903 3903 3859 3859 3816 3816 3816 3816 3816 3816 3774 3774 3816 3774 3774 3774 3774 3732 3692 3692 3653 3653 3653 3614 3614 3653 3653 3653 3653 3653 3653 3653 3653 3653 3653 3653 3614 3614 3614 3614 3614 3614 3653 3653 3653 3576 3576 3576 3576 3539 3539 3503 3503 3503 3539 3576 3614 3614 3653 3653 3653 3732 3774 3614 3614 3614 3653 3732 0 0 0 0 0 0 3903 3903 3859 3859 3816 3816 3859 3859 3859 3859 0 0 0 0 0 0 0 0 0 0 0 0 0 3903 3903 3859 3859 3859 3816 3816 0 0 0 0 0 0 0 0 0 3300 3300 3300 3300 3300 3300 3300 3269 3269 3300 3269 3269 3269 3269 3269 3269 3300 3300 3300 3300 3300 3300 3300 3300 3300 3300 3300 3300 3300 3333 3333 3333 3333 3333 3333 3333 3333 3333 3333 3365 3333 3333 3365 3365 3365 3333 3333 3333 3333 3333 3333 3300 3300 3300 3300 3300 3269 3238 3238 4190 4190 4190 4139 4139 4139 4139 4089 4089 4089 4089 4089 4089 4089 4089 4089 4089 4089 4041 4041 4041 4041 4041 4041 4041 4041 4041 4041 4041 4041 4041 0 0 0 0 0 0 0 0 0 0 0 0 0 0 0 0 0 0 0 0
0 0 0 0 0 0 0 0 0 0 0 0 0 0 0 0 0 0 0 0 0 0 0 0 0 0 0 0 0 0 5832 5832 5832 5832 5933 5933 5933 5933 5933 5933 5933 5933 5933 5933 5933 5933 5933 6038 6038 6038 6038 6038 6146 6146 6038 6038 6146 6146 6146 6146 6146 6146 6146 6259 6146 6146 6259 6146 6038 6038 5460 5374 5210 5210 5210 5210 5210 5291 5640 5734 5832 5832 5933 6038 6146 6146 6146 6146 6146 6146 6146 6146 6259 6259 6259 6259 6146 6146 6259 6259 6259 6259 6259 6259 6259 6259 6259 6259 6259 6259 6259 6259 6259 6259 6146 6038 5933 5734 5548 5548 5548 5548 5548 5548 5548 5734 6146 6375 6497 6497 6497 6497 6497 6497 6497 6497 6497 6375 6259 6259 6259 6259 6375 3365 3300 3238 3208 3149 3092 3064 3064 3064 3037 3037 3037 3037 3010 3010 3010 3010 3010 3010 3010 3010 3010 3010 3010 3037 3010 3010 3010 3010 3037 3037 3037 3037 3037 3064 3064 3064 3064 3064 3064 3064 3092 3092 3092 3092 3092 3092 3120 3120 3120 3120 3120 3120 3120 3120 3120 3120 3120 3120 3120 3120 3149 3149 3149 3149 3149 3149 3178 3178 3178 3178 3178 3178 3178 3178 3178 3178 3178 3208 3208 3208 3208 3208 3208 3238 3238 3238 3238 3238 3269 3269 3269 3269 3269 3269 3269 3269 3269 3238 3238 3238 3238 3238 3269 3269 3269 3269 3269 3269 3269 3269 3269 3269 3269 3269 3269 3269 3269 3300 3300 3300 3300 2170 2170 2170 2184 2184 2170 2170 2170 2156 2156 2170 2170 2170 2170 2170 2184 2212 2212 2212 2212 2212 2212 2212 2198 2198 2212 2212 2226 2226 2226 2241 2241 2241 2226 2226 2226 5374 5291 5291 5291 5291 5291 5291 5291 2256 2256 2256 2256 2256 2256 2256 2256 2271 2286 2286 5210 5210 5210 5210 5132 5132 5132 5132 5132 5132 5132 5132 5132 5132 5132 5132 5132 5132 5132 5132 5132 5132 5132 5132 5132 5132 5132 5056 5056 5056 5056 5056 5056 5056 6889 6889 6889 7030 7178 7178 7178 7178 7178 7178 7178 7178 7178 7178 2398 2398 2398 2398 2398 2398 2398 2398 2398 2415 2415 2415 2415 2415 7492 2432 2415 2415 2432 2432 2432 2432 2432 2450 2450 2467 2450 2450 2450 2467 2467 2467 2467 2467 2467 2467 2485 2485 2485 2485 2485 2485 2485 2485 2467 2467 2467 2467 3903 3903 3903 3859 3816 3774 3774 3816 2503 2503 2485 2485 2485 2485 2485 2485 2485 3774 3732 3692 3692 3653 3653 3653 3614 3614 3653 3653 3653 3653 3653 3653 3653 3653 3653 3653 3614 3614 3614 3614 3614 3614 3614 3653 3614 3614 3576 3576 3576 3576 3539 3539 3539 3503 3503 3539 3576 3614 3614 3614 3614 3614 3576 3576 3576 3576 3576 3614 3732 0 0 0 0 0 0 3539 3816 3816 3816 3774 3774 3816 3816 3816 3816 3816 0 0 0 0 0 0 0 0 0 0 0 0 3903 3903 3859 3816 3816 3774 3774 3816 0 0 0 0 0 0 0 0 3300 3300 3300 3300 3300 3300 3300 3300 3300 3300 3300 3300 3269 3269 3269 3269 3300 3300 3300 3300 3300 3300 3300 3300 3300 3300 3300 3300 3300 3300 3333 3333 3333 3333 3333 3333 3333 3333 3333 3333 3333 3333 3365 3365 3365 3365 3365 3365 3365 3365 3365 3333 3333 3300 3300 3300 3269 3238 3238 4190 4190 4190 4139 4139 4139 4089 4089 4089 4089 4089 4089 4089 4089 4089 4089 4089 4089 4041 4041 4041 4041 4041 4041 4041 4041 4041 4041 4041 4041 4041 0 0 0 0 0 0 0 0 0 0 0 0 0 0 0 0 0 0 0 0
0 0 0 0 0 0 0 0 0 0 0 0 0 0 0 0 0 0 0 0 0 0 0 0 0 0 0 0 0 0 5832 5832 5832 5832 5933 5933 5933 5933 5933 5933 5933 5933 5933 5933 5933 5933 5933 6038 6038 6038 6146 6146 6146 6038 6038 6038 6038 6038 6038 6146 6146 6146 6146 6146 6146 6146 6259 6146 6038 6038 5460 5374 5210 5210 5210 5210 5210 5291 5548 5640 5832 5832 5933 6038 6146 6146 6146 6146 6146 6146 6146 6146 6259 6259 6259 6259 6146 6146 6259 6259 6259 6259 6259 6259 6259 6259 6259 6259 6259 6259 6259 6259 6259 6146 6146 6038 5933 5832 5640 5548 5548 5548 5460 5460 5548 5640 5832 6497 6497 6497 6622 6622 6622 6497 6497 6497 6497 6375 6259 6259 6259 6259 6259 3365 3333 3269 3208 3178 3149 3092 3064 3064 3064 3037 3037 3037 3010 3010 3010 3010 3010 3010 3010 3010 3010 3010 3037 3037 3037 3037 3037 3037 3037 3037 3037 3037 3064 3064 3064 3064 3064 3064 3064 3064 3092 3092 3092 3092 3120 3120 3120 3149 3149 3149 3149 3149 3120 3120 3120 3120 3120 3120 3120 3149 3149 3149 3149 3149 3149 3178 3178 3178 3178 3178 3178 3178 3178 3178 3178 3208 3208 3208 3208 3208 3208 3208 3208 3238 3238 3238 3238 3238 3238 3269 3269 3269 3269 3269 3269 3269 3269 3238 3238 3238 3238 3238 3238 3269 3269 3269 3269 3269 3269 3269 3269 3269 3269 3269 3269 3269 3269 3300 3300 3300 3300 2170 2170 2170 2170 2170 2170 2170 2170 2170 2170 2170 2170 2170 2170 2184 2198 2212 2212 2212 2212 2212 2212 2212 2212 2212 2226 2226 2226 2241 2241 2241 2241 2241 2241 2226 2226 2226 2226 2226 2241 2241 2256 2271 2271 2256 2256 2256 2256 2256 2256 2256 2256 2271 2286 2286 2301 5210 5210 5210 5132 5132 5132 5132 5132 5132 5132 5132 5132 5132 5132 5132 5132 5132 5132 5132 5132 5132 5132 5132 5132 5132 5132 5132 5132 5056 5056 5056 5056 5056 7178 7030 7030 7030 7030 7030 7030 7030 7030 7030 7030 7178 7178 2398 2398 2398 2398 2398 2398 2398 2398 2398 2398 2398 2415 2415 2415 2415 2415 2415 2415 2415 2432 2432 2432 2432 2432 2450 2450 2467 2467 2467 2467 2467 2467 2467 2467 2467 2467 2467 2467 2467 2485 2485 2485 2485 2485 2485 2467 2467 2467 2467 2485 3948 3903 3859 2485 2485 2485 2485 2485 2485 2485 2485 2485 2485 2485 2485 2485 2503 2503 3692 3692 3692 3653 3653 3653 3653 3653 3653 3653 3653 3653 3653 3653 3653 3653 3653 3614 3614 3614 3614 3614 3614 3653 3653 3614 3614 3576 3576 3576 3614 3576 3576 3576 3539 3539 3576 3576 3614 3614 3614 3614 3614 3576 3576 3576 3576 3576 3614 3614 3614 3614 3614 0 3539 3539 3539 3732 3732 3732 3774 3774 3774 3732 3732 3692 3692 3576 3576 3503 3503 0 0 0 0 0 0 0 0 3614 3732 3732 3732 3774 3774 3774 3816 0 0 0 0 0 0 0 0 3333 3333 3300 3300 3300 3300 3300 3300 3300 3300 3300 3300 3300 3269 3269 3269 3300 3300 3300 3300 3300 3300 3300 3300 3300 3300 3300 3300 3300 3300 3333 3333 3333 3333 3333 3333 3333 3333 3333 3333 3333 3333 3365 3365 3365 3365 3365 3365 3365 3365 3365 3333 3333 3333 3300 3300 3269 3238 3238 4190 4190 4190 4139 4139 4139 4089 4089 4089 4089 4089 4089 4089 4089 4139 4089 4089 4089 4089 4041 4041 4041 4041 4041 4041 4041 4041 4041 4041 3994 3994 3994 3994 3994 0 0 0 0 0 0 0 0 0 0 0 0 0 0 0 0 0
0 0 0 0 0 0 0 0 0 0 0 0 0 0 0 0 0 0 0 0 0 0 0 0 0 0 0 0 0 0 5933 5933 5933 5933 5933 5933 5933 5933 5933 5933 5933 5933 5933 5933 5933 5933 5933 6038 6038 6038 6146 6146 6146 6038 6038 6038 6038 6038 6038 6038 6038 6038 6146 6146 6146 6146 6259 6146 6038 6038 5548 5374 5210 5210 5210 5291 5291 5460 5548 5640 5832 5832 6038 6038 6146 6146 6146 6146 6146 6146 6146 6259 6259 6259 6259 6259 6146 6146 6259 6259 6259 6259 6259 6259 6259 6259 6259 6259 6259 6259 6259 6259 6259 6146 6146 6038 5832 5832 5640 5548 5548 5460 5460 5460 5548 5548 5734 6497 6497 6497 6622 6622 6622 6497 6497 6497 6497 6375 6259 6146 6146 6259 3433 3365 3365 3300 3238 3178 3149 3092 3092 3064 3064 3037 3037 3037 3010 3010 3010 3010 3010 3010 3037 3037 3037 3037 3037 3037 3037 3037 3037 3037 3037 3037 3037 3037 3064 3064 3064 3064 3064 3064 3064 3092 3092 3092 3120 3120 3120 3120 3120 3149 3149 3120 3120 3120 3120 3120 3120 3120 3120 3120 3120 3149 3149 3149 3149 3149 3149 3178 3178 3178 3178 3178 3178 3178 3178 3178 3178 3208 3208 3208 3208 3208 3208 3208 3208 3238 3238 3238 3238 3238 3238 3269 3269 3269 3269 3269 3269 3269 3269 3238 3238 3238 3238 3238 3238 3269 3269 3269 3269 3269 3269 3269 3269 3269 3269 3269 3269 3269 3269 3300 3300 2170 2170 2170 2170 2170 2170 2170 2170 2170 2170 2170 2170 2170 2170 2170 2184 2184 2184 2198 2212 2212 2212 2226 2226 2212 2212 2226 2226 2226 2226 2241 2241 2241 2241 2241 2241 2226 2226 2226 2226 2226 2241 2241 2256 2271 2271 2256 2256 2256 2256 2256 2256 2256 2271 2271 2286 2286 2301 2301 5210 5210 5132 5132 5132 5132 5132 5132 5132 5132 5132 5132 5132 5132 5132 5132 5132 5132 5132 5132 5132 5132 5132 5132 5132 5132 5132 5132 5056 5056 5056 7178 7178 7030 7030 7030 7030 7030 7030 7030 7030 7030 7030 7178 7178 2398 2398 2398 2398 2398 2398 2398 2398 2398 2398 2398 2415 2415 2415 2415 2415 2415 2415 2415 2415 2432 2432 2432 2432 2432 2432 2450 2450 2450 2450 2467 2467 2467 2467 2467 2467 2467 2467 2467 2467 2467 2485 2485 2485 2485 2467 2467 2467 2467 2485 2485 2485 2485 2485 2485 2485 2485 2485 2485 2485 2485 2485 2503 2503 2503 2503 2503 2503 3692 3692 3692 3692 3692 3653 3653 3653 3653 3653 3653 3653 3653 3653 3653 3653 3653 3653 3653 3614 3614 3653 3614 3614 3653 3614 3614 3576 3576 3576 3614 3576 3576 3576 3576 3576 3576 3614 3614 3614 3614 3614 3614 3576 3576 3576 3576 3576 3614 3614 3614 3614 3576 3576 3539 3539 3576 3614 3614 3614 3732 3732 3732 3692 3692 3653 3653 3576 3576 3503 3503 3503 3503 0 3468 3468 3503 0 0 3614 3614 3692 3692 3692 3692 3692 3692 3692 3692 3692 3692 3692 3732 3732 3576 3333 3333 3300 3300 3300 3300 3300 3300 3300 3300 3300 3300 3300 3269 3269 3269 3300 3300 3300 3300 3300 3300 3300 3300 3300 3300 3300 3300 3300 3333 3333 3333 3333 3333 3333 3333 3333 3333 3333 3333 3333 3333 3365 3365 3365 3365 3365 3365 3365 3365 3365 3333 3333 3333 3333 3300 3300 3269 3269 4190 4190 4190 4139 4139 4139 4139 4139 4139 4089 4089 4089 4089 4089 4139 4089 4089 4089 4089 4041 4041 4041 4041 4041 4041 4041 4041 4041 4041 3994 3994 3994 3994 3994 3994 3994 3994 0 0 0 0 0 0 0 0 0 0 0 0 0 0
0 0 0 0 0 0 0 0 0 0 0 0 0 0 0 0 0 0 0 0 0 0 0 0 0 0 0 0 0 0 5832 5832 5832 5832 5933 5933 5933 5933 5933 5933 5933 5933 5933 5933 5933 5933 5933 5933 5933 5933 6038 6146 6146 6038 6038 6038 6038 6038 6038 6038 6038 6038 6146 6146 6146 6146 6259 6146 6038 6038 5548 5460 5291 5291 5291 5291 5291 5460 5460 5548 5734 5832 6038 6038 6146 6146 6146 6146 6146 6146 6146 6259 6259 6259 6259 6259 6259 6259 6259 6259 6259 6259 6259 6259 6259 6259 6259 6259 6259 6259 6259 6259 6259 6146 6038 5933 5832 5832 5640 5548 5460 5460 5460 5460 5548 5548 5548 6375 6497 6497 6622 6622 6622 6497 6497 6497 6497 6375 6259 6146 6146 6146 3433 3399 3365 3333 3269 3208 3149 3092 3064 3064 3064 3037 3037 3037 3010 3010 3010 3010 3010 3010 3037 3037 3037 3037 3037 3037 3037 3037 3037 3037 3037 3037 3064 3064 3064 3064 3064 3064 3064 3092 3092 3092 3092 3120 3120 3120 3120 3120 3120 3149 3149 3120 3120 3120 3120 3120 3120 3120 3120 3120 3149 3149 3149 3149 3149 3149 3178 3178 3178 3178 3178 3178 3178 3178 3178 3178 3178 3208 3208 3208 3208 3208 3208 3208 3238 3238 3238 3238 3238 3238 3238 3238 3269 3269 3269 3269 3269 3269 3269 3238 3238 3238 3238 3238 3238 3238 2143 2143 3269 3269 3300 3300 3269 3269 3269 3269 3269 3269 3269 3300 3333 2170 2156 2156 2170 2170 2184 2184 2184 2184 2184 2184 2184 2184 2184 2184 2184 2184 2184 2198 2212 2212 2212 2226 2226 2226 2226 2226 2226 2226 2226 2226 2241 2241 2241 2241 2241 2241 2241 2241 2241 2241 2241 2256 2256 2271 2271 2256 2256 2256 2256 2256 2256 2256 2271 2271 2286 2286 2286 2301 2301 5132 5132 5132 5132 5132 5132 5132 5132 5132 5132 5132 5132 5132 5132 5132 5132 5132 5132 5132 5132 5132 5132 5132 5132 5132 5132 5132 5132 5056 5056 5132 7178 7030 7030 7030 7030 7030 7030 7030 7030 7030 7030 7030 7030 2398 2398 2398 2398 2398 2398 2398 2398 2398 2398 2398 2415 2415 2415 2415 2415 2415 2415 2415 2415 2432 2432 2432 2432 2432 2432 2450 2450 2450 2450 2450 2450 2450 2450 2467 2467 2467 2467 2467 2467 2467 2485 2485 2485 2485 2467 2467 2467 2467 2467 2485 2485 2485 2485 2485 2485 2485 2485 2485 2485 2485 2485 2503 2503 2503 2503 2503 2503 2503 3692 3692 3692 3692 3653 3653 3653 3653 3653 3692 3653 3653 3653 3653 3653 3653 3653 3653 3653 3653 3653 3614 3614 3653 3614 3614 3576 3576 3614 3614 3614 3614 3614 3576 3576 3614 3614 3614 3614 3614 3614 3614 3614 3614 3614 3576 3576 3614 3614 3614 3614 3576 3576 3576 3576 3576 3614 3614 3614 3614 3614 3614 3614 3614 3614 3614 3576 3576 3539 3503 3503 3503 3539 3468 3468 3503 3539 3576 3576 3576 3614 3614 3653 3653 3653 3653 3576 3576 3653 3614 3614 3653 3614 3576 3333 3333 3300 3300 3300 3300 3300 3300 3300 3300 3300 3300 3300 3269 3269 3269 3300 3300 3300 3300 3300 3300 3300 3300 3300 3300 3300 3300 3300 3333 3333 3333 3333 3333 3333 3333 3333 3333 3333 3333 3333 3333 3365 3399 3399 3365 3365 3365 3365 3365 3365 3365 3365 3365 3333 3333 3300 3300 3300 4190 4190 4190 4139 4139 4139 4139 4139 4139 4139 4089 4089 4139 4139 4139 4089 4089 4089 4089 4089 4089 4041 4041 4041 4041 4041 4041 4041 3994 3994 3994 3994 3994 3994 3994 3994 3994 3994 3994 0 0 0 0 0 0 0 0 0 0 0 0
0 0 0 0 0 0 0 0 0 0 0 0 0 0 0 0 0 0 0 0 0 0 0 0 0 0 0 0 0 0 5832 5832 5832 5832 5832 5832 5832 5832 5933 5933 5933 5933 5933 5933 5933 5933 5933 5933 5933 5933 6038 6146 6146 6038 6038 6038 5933 5933 5933 5933 5933 5933 6038 6146 6146 6146 6259 6146 5933 5933 5548 5460 5374 5291 5291 5291 5291 5374 5460 5460 5548 5734 5933 6038 6146 6146 6146 6146 6146 6146 6146 6259 6146 6146 6146 6259 6259 6259 6259 6259 6259 6259 6259 6259 6259 6259 6259 6259 6259 6259 6259 6259 6259 6146 6038 5933 5832 5832 5640 5548 5460 5460 5460 5460 5548 5548 5548 6259 6375 6497 6622 6622 6622 6497 6497 6497 6497 6375 6259 6259 6622 6753 3433 3433 3399 3365 3269 3120 3120 3092 3064 3064 3064 3037 3037 3037 3010 3010 3037 3010 3010 3010 3037 3037 3037 3037 3037 3037 3037 3037 3037 3037 3064 3064 3064 3064 3064 3064 3064 3064 3064 3092 3092 3092 3092 3120 3120 3120 3120 3120 3120 3120 3120 3120 3120 3120 3120 3120 3120 3120 3120 3120 3120 3120 3149 3149 3149 3149 3149 3149 3178 3178 3178 3178 3178 3178 3178 3178 3178 3208 3208 3208 3208 3208 3208 3208 3238 3238 3238 3238 3238 3238 3238 3238 3269 3269 3269 3269 3269 3269 3269 3238 3238 3238 3238 2129 2129 2129 2129 2143 2143 2143 3300 3300 3300 3300 3300 3300 3300 3300 3300 3300 3333 2170 2156 2156 2170 2170 2184 2184 2184 2184 2184 2184 2184 2184 2184 2184 2184 2184 2198 2198 2212 2212 2212 2226 2226 2226 2226 2226 2226 2226 2226 2226 2241 2241 2241 2241 2241 2241 2241 2241 2241 2241 2256 2256 2271 2271 2256 2256 2256 2256 2256 2256 2256 2256 2271 2271 2286 2286 2286 2301 2301 5132 5132 5132 5132 5132 5132 5132 5132 5132 5132 5132 5132 5132 5132 5132 5132 5132 5132 5132 5132 5132 5132 5132 5132 5132 5132 5132 5132 5132 5132 5132 7178 7030 7030 7030 7030 6889 6889 7030 7030 7030 7030 7030 7178 2398 2398 2398 2398 2398 2398 2398 2398 2398 2398 2398 2415 2415 2415 2415 2415 2415 2415 2415 2415 2415 2432 2432 2432 2432 2432 2432 2432 2450 2450 2450 2450 2450 2450 2467 2467 2467 2467 2467 2467 2467 2485 2485 2485 2485 2467 2467 2467 2467 2467 2467 2485 2485 2485 2485 2485 2485 2485 2485 2485 2485 2485 2503 2503 2503 2503 2503 2503 2503 3692 3692 3692 3692 3692 3653 3653 3692 3692 3692 3653 3653 3653 3653 3653 3653 3653 3653 3653 3653 3653 3614 3614 3614 3614 3614 3576 3576 3614 3614 3614 3614 3614 3576 3576 3614 3614 3614 3614 3614 3614 3614 3614 3576 3576 3576 3576 3614 3614 3614 3614 3576 3576 3576 3576 3576 3576 3576 3614 3576 3576 3576 3576 3576 3576 3614 3576 3576 3539 3539 3539 3539 3539 3539 3539 3539 3539 3576 3576 3576 3614 3614 3614 3653 3653 3614 3576 3576 3614 3614 3614 3653 3614 3539 3300 3300 3300 3300 3300 3300 3300 3300 3300 3333 3300 3300 3300 3300 3300 3300 3300 3300 3300 3300 3300 3300 3300 3300 3300 3300 3300 3300 3300 3300 3300 3333 3333 3333 3333 3333 3333 3365 3365 3365 3365 3365 3365 3399 3399 3399 3399 3399 3365 3365 3399 3365 3365 3365 3333 3300 3300 3300 3300 4190 4190 4190 4139 4139 4139 4139 4139 4139 4139 4089 4089 4139 4139 4190 4139 4139 4139 4139 4089 4089 4089 4089 4089 4041 4041 4041 4041 3994 3994 3994 3994 3994 3994 3994 3994 3994 3994 3994 0 0 0 0 0 0 0 0 0 0 0 0
0 0 0 0 0 0 0 0 0 0 0 0 0 0 0 0 0 0 0 0 0 0 0 0 0 0 0 0 0 0 5832 5832 5832 5832 5832 5832 5832 5832 5933 5933 5933 5933 5933 5933 5933 5933 5933 5933 5933 5933 6038 6146 6146 6038 6038 6038 5933 5933 5933 5933 5933 5933 5933 6038 6038 6146 6146 6146 5933 5832 5460 5374 5291 5291 5291 5291 5291 5374 5374 5460 5548 5734 5832 6038 6146 6146 6146 6146 6146 6146 6146 6146 6146 6146 6146 6259 6146 6146 6146 6146 6146 6259 6259 6259 6259 6259 6259 6259 6259 6259 6259 6259 6146 6146 6038 5933 5832 5832 5734 5640 5548 5548 5460 5460 5460 5460 5548 6259 2859 2859 2859 6622 6622 6622 6622 6622 6622 6753 6753 6753 6753 6753 7030 3468 3433 3365 3269 3120 3092 3064 3064 3064 3037 3037 3037 3037 3010 3010 3037 3010 3010 3037 3037 3037 3037 3037 3037 3037 3037 3037 3037 3064 3064 3064 3064 3064 3064 3064 3064 3064 3064 3092 3092 3092 3092 3092 3120 3120 3120 3120 3120 3120 3120 3120 3120 3120 3120 3092 3092 3120 3120 3120 3120 3120 3120 3149 3149 3149 3149 3149 3149 3149 3149 3178 3178 3178 3178 3178 3178 3208 3208 3208 3208 3238 3208 3208 3238 3238 3238 3238 3238 3238 3238 3238 3269 3269 3269 3269 3269 3269 3269 3238 3238 3238 3238 2129 2129 2129 2129 2129 2129 2143 2143 2143 2143 2143 2143 2143 2156 2156 2156 2156 2156 2170 2156 2156 2170 2170 2170 2184 2184 2184 2184 2184 2184 2184 2184 2184 2198 2198 2198 2212 2226 2226 2226 2226 2226 2226 2226 2226 2226 2226 2226 2226 2241 2241 2241 2241 2241 2241 2241 2241 2241 2256 2256 2256 2256 2271 2256 2256 2256 2256 2256 2256 2256 2256 2271 2271 2286 2286 2286 2301 2286 2286 5132 5132 5132 5132 5132 5132 5132 5132 5132 5132 5132 5132 5132 5132 5132 5132 5132 5132 5132 5132 5132 5132 5132 5132 5132 5132 5132 5132 5132 5132 5210 7178 7030 7030 6889 6889 6889 6889 6889 7030 7178 7178 7178 2398 2398 2398 2398 2398 2398 2398 2398 2398 2398 2398 2415 2415 2415 2415 2415 2415 2415 2415 2415 2415 2415 2415 2432 2432 2432 2432 2432 2450 2450 2450 2450 2450 2450 2467 2467 2467 2467 2467 2467 2467 2485 2485 2485 2485 2467 2467 2467 2467 2467 2467 2467 2467 2467 2485 2485 2485 2485 2485 2485 2485 2485 2485 2503 2503 2503 2503 2503 2503 2503 3692 3692 3732 3692 3653 3653 3692 3692 3692 3653 3653 3653 3653 3653 3653 3653 3653 3653 3653 3653 3614 3614 3614 3614 3614 3614 3614 3614 3614 3614 3614 3614 3614 3614 3614 3614 3614 3614 3614 3614 3614 3614 3576 3576 3576 3576 3614 3614 3614 3576 3576 3576 3576 3576 3576 3576 3576 3576 3576 3576 3576 3576 3576 3576 3576 3576 3576 3539 3539 3539 3539 3539 3539 3539 3539 3539 3576 3576 3576 3576 3576 3614 3614 3614 3614 3576 3576 3614 3614 3614 3653 3653 3539 3300 3300 3300 3300 3300 3300 3300 3333 3333 3333 3333 3333 3300 3300 3300 3300 3300 3300 3300 3300 3300 3300 3300 3300 3300 3300 3300 3300 3300 3300 3300 3333 3333 3333 3333 3333 3333 3365 3365 3365 3365 3365 3365 3399 3399 3399 3399 3399 3399 3399 3399 3365 3365 3365 3333 3300 3300 3269 3269 4190 4190 4190 4139 4139 4139 4139 4139 4089 4089 4089 4139 4190 4190 4190 4190 4190 4190 4139 4089 4089 4089 4089 4089 4041 4041 4041 4041 3994 3994 3994 3994 3994 3994 3994 3994 4041 3994 3994 0 0 0 0 0 0 0 0 0 0 0 0
0 0 0 0 0 0 0 0 0 0 0 0 0 0 0 0 0 0 0 0 0 0 0 0 0 0 0 0 0 0 5832 5832 5832 5832 5832 5832 5832 5832 5832 5933 6038 5933 5933 5933 5933 5933 5933 5933 5933 5933 6038 6146 6146 6038 6038 6038 5933 5933 5832 5832 5832 5832 5933 5933 5933 6038 6146 6146 6146 5734 5374 5291 5210 5210 5210 5291 5291 5374 5374 5374 5460 5640 5832 6038 6146 6146 6146 6146 6146 6038 6038 6146 6146 6146 6146 6146 6146 6146 6146 6146 6146 6146 6259 6146 6146 6259 6259 6259 6259 6146 6146 6146 6146 6146 6038 5933 5832 5832 5734 5640 5548 5460 5460 5460 5460 5460 5460 6259 2835 2835 2859 2883 2883 2883 2883 2883 2883 2883 2883 2883 2883 7030 7030 7030 7030 7030 3120 3120 3092 3064 3037 3010 3010 3010 3010 3037 3010 3010 3010 3037 3037 3037 3037 3037 3037 3037 3037 3037 3037 3037 3037 3064 3064 3064 3064 3064 3064 3064 3064 3064 3064 3092 3092 3092 3092 3092 3092 3092 3092 3120 3120 3120 3120 3120 3120 3120 3092 3092 3092 3092 3120 3120 3120 3120 3120 3120 3149 3149 3149 3149 3149 3149 3149 3178 3178 3178 3178 3178 3178 3208 3208 3208 3208 3238 3238 3238 3238 3238 3238 3238 3238 3238 3238 3238 3269 3269 3269 3269 3269 3269 3269 3238 3238 3238 2129 2129 2129 2129 2129 2129 2129 2129 2129 2129 2143 2143 2143 2143 2156 2156 2156 2156 2156 2170 2170 2170 2170 2170 2170 2184 2184 2184 2184 2184 2184 2184 2184 2184 2198 2198 2198 2212 2226 2226 2226 2226 2226 2212 2212 2226 2226 2226 2226 2226 2241 2241 2241 2241 2241 2241 2241 2241 2241 2256 2256 2256 2256 2271 2256 2256 2256 2256 2256 2256 2271 2271 2271 2271 2286 2286 2286 2301 2286 2286 2301 5132 5132 5132 5132 5132 5132 5132 5132 5132 5132 5132 5132 5132 5132 5132 5132 5132 5132 5132 5132 5132 5132 5132 5132 5132 5132 5132 5132 5132 5210 5291 7178 7178 6889 6889 6889 6889 6889 7030 7030 7030 7030 7030 2398 2398 2398 2398 2398 2398 2398 2398 2398 2398 2415 2415 2415 2415 2415 2415 2415 2415 2415 2415 2415 2415 2432 2432 2432 2432 2432 2450 2450 2450 2450 2450 2450 2450 2450 2467 2467 2467 2467 2467 2485 2485 2485 2485 2467 2467 2467 2467 2467 2467 2467 2467 2467 2485 2485 2485 2485 2485 2485 2485 2485 2485 2485 2485 2503 2503 2503 2503 2503 2503 3692 3692 3692 3653 3653 3692 3692 3692 3653 3653 3653 3653 3653 3653 3653 3653 3653 3653 3653 3614 3614 3614 3653 3653 3653 3653 3614 3614 3614 3614 3614 3614 3614 3614 3614 3614 3614 3614 3614 3614 3614 3614 3614 3614 3614 3614 3614 3576 3576 3576 3576 3576 3576 3576 3576 3576 3576 3539 3539 3539 3576 3576 3576 3576 3576 3576 3576 3539 3539 3539 3539 3576 3576 3576 3576 3576 3576 3576 3576 3576 3614 3614 3614 3614 3614 3614 3614 3614 3614 3614 3576 3576 3503 3399 3333 3333 3333 3300 3300 3333 3333 3333 3333 3333 3300 3300 3300 3300 3300 3333 3333 3333 3333 3300 3300 3300 3300 3300 3300 3300 6146 6146 6146 3365 3333 3333 3333 3333 3333 3365 3365 3365 3365 3365 3399 3399 3399 3399 3399 3399 3399 3399 3399 3365 3365 3365 3333 3300 3300 3269 3269 4190 4190 4139 4139 4139 4139 4139 4139 4089 4089 4089 4139 4190 4190 4241 4241 4190 4190 4190 4139 4089 4089 4089 4089 4041 4041 4041 4041 3994 3994 3994 3994 3994 3994 3994 3994 4041 3994 3994 0 0 0 0 0 0 0 0 0 0 0 0
0 0 0 0 0 0 0 0 0 0 0 0 0 0 0 0 0 0 0 0 0 0 0 0 0 0 0 0 0 0 5832 5832 5832 5832 5832 5734 5734 5832 5832 5933 6038 5933 5933 5933 6038 6038 5933 5832 5832 5832 5933 6038 6038 6038 6038 6038 5933 5832 5832 5832 5832 5832 5832 5832 5933 5933 6038 6038 6038 5548 5374 5210 5210 5210 5210 5210 5291 5291 5374 5374 5460 5548 5734 5933 6038 6146 6038 6038 5933 5933 5832 5832 6038 6038 6038 6146 6146 6146 6146 6146 6146 6146 6259 6146 6146 6259 6259 6259 6146 6146 6146 6146 6038 6038 5933 5933 5832 5734 5734 5640 5548 5460 5460 5460 5460 5460 5460 2835 2835 2835 2859 2883 2883 2883 2883 2883 2883 2883 2883 2883 2883 2883 2883 2883 2883 2883 2908 2958 2958 2958 2984 2984 3010 3010 3010 3010 3010 3010 3010 3010 3010 3010 3037 3037 3037 3037 3037 3037 3037 3037 3064 3064 3064 3064 3064 3064 3064 3064 3064 3064 3064 3092 3092 3092 3092 3092 3092 3092 3092 3092 3092 3092 3120 3092 3092 3092 3092 3092 3092 3092 3092 3092 3092 3092 3120 3120 3120 3120 3120 3120 3149 3149 3149 3178 3178 3178 3178 3178 3178 3178 3208 3208 3208 3238 3238 3238 3238 3238 3269 3238 3238 3238 3238 3238 3269 3269 3269 3269 3269 3269 3269 3238 3238 3238 2116 2116 2129 2129 2129 2129 2129 2129 2129 2129 2143 2143 2143 2143 2156 2156 2156 2156 2170 2170 2170 2170 2170 2170 2170 2184 2184 2184 2184 2184 2184 2184 2184 2198 2198 2198 2198 2212 2226 2226 2226 2226 2226 2212 2212 2226 2226 2226 2226 2226 2241 2241 2241 2241 2241 2241 2241 2241 2241 2256 2256 2256 2256 2256 2271 2271 2271 2271 2271 2271 2271 2271 2271 2286 2286 2286 2286 2301 2301 2301 2301 5132 5132 5132 5132 5132 5132 5132 5132 5132 5132 5132 5132 5132 5132 5132 5132 5132 5132 5132 5132 5132 5132 5210 5210 5132 5132 5132 5210 5210 5210 5291 5374 5460 5548 6889 6889 6889 6889 7030 7030 7030 7030 2415 2398 2398 2398 2398 2398 2398 2398 2398 2398 2398 2398 2415 2415 2415 2415 2415 2415 2415 2415 2415 2432 2432 2432 2432 2432 2432 2432 2450 2450 2450 2450 2450 2467 2450 2450 2467 2467 2467 2467 2467 2485 2485 2485 2485 2467 2467 2467 2467 2467 2467 2467 2467 2467 2485 2485 2485 2485 2485 2485 2485 2485 2485 2485 2485 2503 2503 2503 2503 2503 2503 3692 3692 3692 3692 3692 3692 3692 3692 3692 3653 3653 3692 3653 3653 3653 3653 3653 3653 3653 3653 3653 3653 3653 3653 3653 3653 3614 3614 3614 3614 3614 3614 3614 3614 3614 3614 3614 3614 3614 3614 3614 3614 3614 3614 3614 3614 3614 3576 3576 3576 3576 3576 3576 3576 3576 3576 3576 3539 3539 3539 3576 3576 3576 3576 3576 3576 3576 3576 3576 3576 3576 3576 3576 3576 3576 3576 3576 3576 3576 3576 3614 3614 3614 3614 3614 3614 3614 3576 3576 3576 3576 3576 3503 3433 3333 3333 3333 3300 3300 3333 3333 3333 3333 3333 3333 3333 3333 3333 3333 3333 3333 3333 3333 3333 3300 3300 3300 3300 3300 6038 6038 6146 6146 6259 3333 3333 3333 3333 3333 3365 3365 3365 3365 3365 3399 3399 3399 3399 3399 3399 3399 3399 3399 3365 3365 3365 3333 3300 3300 3269 3269 4190 4190 4139 4139 4139 4139 4139 4139 4089 4089 4089 4139 4241 4241 4295 4295 4295 4241 4241 4139 4139 4089 4089 4089 4041 4041 4041 4041 4041 4041 3994 3994 3994 3994 3994 3994 4041 4041 4041 0 0 0 0 0 0 0 0 0 0 0 0
0 0 0 0 0 0 0 0 0 0 0 0 0 0 0 0 0 0 0 0 0 0 0 0 0 0 0 0 0 0 5832 5832 5832 5832 5734 5640 5640 5640 0 0 6146 6038 6038 6038 5933 5933 5832 5832 5832 5832 5933 5933 5933 5933 5933 5933 5832 5832 5832 5832 5734 5734 5832 5832 5933 5933 6038 6038 6038 5548 5374 5210 5210 5210 5210 5210 5291 5291 5374 5374 5460 5548 5734 5832 6038 6038 6038 5933 5933 5832 5832 5832 5832 6038 6038 6038 6146 6146 6146 6146 6259 6259 6259 6146 6146 6146 6146 6146 6146 6146 6146 6146 5933 5933 5933 5832 5832 5734 5734 5640 5548 5460 5460 5460 5374 5374 5374 2835 2835 2835 2859 2883 2883 2883 2883 2883 2883 2883 2883 2883 2883 2883 2883 2883 2883 2883 2908 2908 2933 2933 2958 2958 2984 3010 3010 3010 3010 3010 3010 3010 3010 3010 3010 3010 3037 3037 3037 3037 3037 3064 3064 3064 3064 3064 3064 3064 3064 3064 3064 3064 3064 3064 3064 3092 3092 3092 3092 3092 3092 3092 3092 3092 3092 3092 3092 3092 3092 3064 3064 3092 3092 3092 3092 3092 3092 3120 3120 3120 3120 3120 3120 3149 3149 3149 3149 3149 3149 3178 3178 3178 3178 3178 3178 3208 3238 3238 3238 3238 3269 3269 3238 3238 3238 3238 3269 3269 3269 3269 3269 3269 3269 3269 3269 2129 2116 2116 2129 2129 2129 2129 2129 2129 2129 2129 2129 2143 2143 2143 2156 2156 2156 2156 2170 2170 2170 2170 2170 2170 2170 2184 2184 2184 2184 2184 2184 2184 2184 2198 2198 2198 2212 2212 2226 2226 2226 2226 2226 2226 2226 2226 2226 2226 2226 2226 2241 2241 2241 2241 2241 2241 2241 2241 2241 2256 2256 2256 2256 2256 2271 2271 2271 2271 2271 2271 2271 2271 2271 2286 2286 2286 2301 2301 2301 2301 2301 5056 5132 5132 5132 5132 5132 5132 5132 5132 5132 5132 5132 5132 5132 5132 5132 5132 5132 5132 5132 5132 5210 5210 5210 5210 5210 5210 5210 5210 5291 5291 5374 5460 5460 6889 6889 6889 6889 7030 7030 7030 7030 2415 2415 2415 2398 2398 2398 2398 2398 2398 2398 2398 2398 2415 2415 2415 2415 2415 2415 2415 2415 2415 2432 2432 2432 2432 2432 2432 2432 2450 2450 2450 2450 2450 2467 2467 2467 2467 2467 2467 2467 2467 2485 2485 2485 2485 2467 2467 2467 2467 2467 2485 2467 2467 2467 2485 2467 2467 2485 2485 2485 2485 2485 2485 2485 2485 2503 2503 2503 2503 2503 2503 3732 3732 3692 3692 3692 3692 3692 3692 3692 3653 3653 3692 3653 3653 3653 3653 3653 3653 3653 3614 3614 3653 3653 3653 3653 3653 3614 3614 3614 3614 3614 3614 3614 3614 3614 3614 3614 3614 3614 3614 3614 3614 3614 3614 3614 3614 3614 3614 3576 3576 3576 3576 3576 3576 3576 3576 3576 3539 3539 3539 3539 3539 3576 3576 3576 3576 3576 3576 3576 3576 3576 3576 3576 3576 3576 3576 3576 3576 3576 3576 3614 3614 3614 3614 3614 3614 3614 3576 3576 3576 3576 3576 3503 3433 3399 3365 3333 3333 3333 3333 3333 3333 3333 3333 3333 3333 3333 3333 3333 3333 3333 3333 3333 3300 3300 3269 3269 3269 6038 6038 6038 6038 6146 6259 6259 3333 3333 3333 3365 3365 3365 3399 3399 3399 3399 3399 3399 3399 3399 3399 3399 3399 3399 3365 3365 3365 3365 3300 3300 3269 3269 4190 4190 4139 4139 4139 4139 4139 4139 4089 4089 4089 4139 4241 4295 4349 4405 4349 4349 4241 4190 4190 4139 4089 4089 4089 4089 4089 4089 4089 4041 4041 4041 4041 4041 4041 4041 4041 4041 4041 0 0 0 0 0 0 0 0 0 0 0 0
0 0 0 0 0 0 0 0 0 0 0 0 0 0 0 0 0 0 0 0 0 0 0 0 0 0 0 0 0 0 5832 5734 5734 5734 5734 5640 5640 5640 0 0 0 0 6038 6038 5933 5832 5832 5734 5734 5734 5832 5832 5933 5933 5933 5933 5832 5832 5734 5734 5734 5734 5734 5734 5832 5933 6038 6038 6146 5374 5210 5210 5132 5132 5210 5210 5291 5291 5374 5460 5460 5548 5640 5734 5832 5933 5933 5832 5832 5832 5832 5832 5832 6038 6038 6038 6146 6146 6146 6146 6146 6259 6146 6146 6146 6146 6146 6146 6146 6146 6146 6038 5933 5933 5933 5832 5832 5734 5734 5734 5548 5460 5460 5460 5374 5374 2812 2812 2835 2859 2859 2883 2883 2883 2883 2883 2883 2883 2883 2883 2883 2883 2883 2883 2883 2883 2908 2908 2933 2933 2958 2958 2958 2984 2984 2984 2984 2984 3010 3010 2984 2984 3010 3010 3010 3037 3037 3037 3037 3064 3064 3064 3064 3064 3064 3064 3064 3064 3064 3064 3064 3064 3064 3092 3092 3092 3092 3092 3092 3092 3092 3092 3092 3092 3092 3064 3064 3064 3064 3064 3092 3092 3092 3092 3092 3092 3092 3092 3092 3120 3120 3149 3149 3149 3149 3149 3149 3149 3149 3149 3178 3178 3178 3208 3238 3238 3238 3238 3269 3269 3269 3269 3269 3269 3269 3269 3269 3269 3300 3300 3300 3300 2129 2129 2116 2116 2129 2129 2129 2129 2129 2129 2129 2129 2129 2143 2143 2143 2156 2156 2156 2156 2170 2170 2170 2170 2170 2170 2170 2184 2184 2184 2184 2184 2184 2184 2184 2198 2198 2198 2212 2212 2226 2212 2212 2226 2226 2226 2226 2226 2226 2226 2226 2226 2241 2241 2241 2241 2241 2241 2241 2241 2241 2241 2256 2256 2256 2256 2271 2271 2271 2271 2271 2286 2271 2271 2271 2286 2286 2286 2301 2301 2301 2301 2301 2317 5132 5132 5132 5132 5132 5132 5132 5132 5132 5132 5132 5132 5132 5132 5132 5132 5132 5132 5132 5132 5210 5210 5210 5210 5210 5210 5210 5210 5291 5291 5374 5374 5374 6889 6889 6889 6889 7030 7030 7030 2415 2415 2415 2415 2398 2398 2398 2398 2398 2398 2398 2398 2415 2415 2415 2415 2415 2415 2415 2415 2415 2415 2432 2432 2432 2432 2432 2450 2450 2450 2450 2450 2450 2467 2467 2467 2467 2467 2467 2467 2467 2467 2485 2485 2485 2485 2467 2467 2467 2467 2467 2485 2467 2467 2467 2485 2467 2467 2485 2485 2485 2485 2485 2485 2485 2503 2503 2503 2503 2503 2503 2503 3692 3692 3692 3692 3692 3692 3692 3692 3692 3692 3692 3692 3692 3692 3692 3653 3653 3653 3653 3614 3614 3653 3653 3653 3653 3653 3614 3614 3614 3614 3614 3614 3614 3614 3614 3614 3614 3614 3614 3614 3614 3614 3614 3614 3614 3614 3614 3614 3576 3576 3576 3576 3576 3576 3576 3576 3576 3539 3539 3539 3539 3539 3576 3576 3576 3576 3576 3576 3576 3576 3576 3576 3576 3576 3576 3576 3576 3576 3576 3614 3614 3614 3614 3614 3614 3614 3614 3614 3614 3614 3614 3576 3539 3468 3399 3365 3333 3333 3333 3333 3333 3333 3333 3333 3365 3365 3365 3365 3333 3333 3333 3333 3333 3300 3300 3269 3269 3269 6038 6038 6038 6038 6146 6146 6146 3365 3333 3333 3365 3365 3399 3399 3399 3399 3399 3399 3399 3399 3399 3399 3399 3399 3399 3365 3365 3365 3365 3300 3300 4190 4190 4190 4190 4139 4139 4139 4139 4139 4139 4139 4139 4139 4190 4405 4645 4645 4522 4463 4463 4295 4190 4190 4139 4139 4139 4139 4139 4139 4089 4089 4089 4089 4089 4089 4089 4089 4089 4089 4089 4089 0 0 0 0 0 0 0 0 0 0 0 0
0 0 0 0 0 0 0 0 0 0 0 0 0 0 0 0 0 0 0 0 0 0 0 0 0 0 0 0 0 0 5832 5734 5734 5734 5734 5640 5548 5548 0 0 0 0 0 0 5640 5640 5640 5640 5640 5640 5734 5832 5832 5832 5933 5933 5832 5832 5734 5734 5734 5734 5640 5640 5734 5832 5832 5832 6146 5374 5210 5132 5132 5132 5132 5132 5210 5210 5291 5374 5460 5548 5640 5640 5734 5734 5832 5734 5734 5734 5734 5734 5832 5832 5933 5933 6038 6038 6038 6038 6146 6146 6146 6146 6146 6038 6038 6038 5933 5933 5832 5832 5933 5933 5933 5933 5832 5832 5832 5734 5640 5460 5460 2767 2767 2789 2789 2812 2835 2859 2859 2883 2883 2883 2883 2883 2883 2883 2883 2883 2883 2883 2883 2883 2883 2883 2908 2908 2933 2933 2933 2958 2958 2984 2984 2984 2958 2958 2984 2984 2958 2958 2984 2984 3010 3010 3010 3037 3037 3037 3037 3064 3064 3064 3064 3064 3064 3064 3064 3064 3064 3064 3064 3064 3064 3064 3064 3092 3092 3092 3092 3092 3092 3092 3092 3064 3064 3064 3064 3064 3064 3064 3064 3064 3064 3092 3092 3092 3092 3092 3092 3120 3120 3120 3120 3120 3149 3120 3120 3120 3149 3149 3149 3178 3238 3238 3238 3238 3269 3269 3238 3238 3269 3269 3269 3269 3269 3269 3300 3300 3300 2129 2129 2129 2129 2129 2129 2129 2129 2129 2129 2129 2129 2129 2143 2143 2143 2156 2156 2156 2170 2170 2170 2170 2170 2170 2170 2170 2170 2184 2184 2184 2184 2184 2184 2184 2184 2198 2198 2198 2212 2226 2226 2212 2212 2226 2226 2226 2226 2226 2226 2226 2226 2241 2241 2241 2241 2241 2241 2241 2241 2241 2241 2241 2241 2241 2256 2256 2271 2271 2286 2286 2286 2286 2286 2286 2286 2286 2286 2286 2301 2301 2301 2301 2301 2317 5132 5132 5132 5132 5132 5132 5132 5132 5132 5132 5132 5132 5132 5132 5132 5132 5132 5132 5132 5132 5210 5210 5210 5210 5210 5210 5291 5291 5291 5374 5374 5374 5374 5374 7030 7030 7030 7030 7030 7030 0 2415 2415 2415 2398 2398 2398 2398 2398 2398 2398 2398 2415 2415 2415 2415 2415 2415 2415 2415 2415 2432 2432 2432 2432 2432 2432 2450 2450 2450 2450 2450 2467 2467 2467 2467 2467 2467 2485 2467 2467 2467 2485 2485 2485 2485 2467 2467 2467 2467 2467 2467 2467 2467 2467 2467 2467 2467 2467 2485 2485 2485 2503 2503 2503 2503 2503 2503 2503 2503 2522 2522 2541 3692 3692 3692 3692 3692 3692 3692 3692 3692 3692 3692 3692 3692 3692 3692 3653 3653 3653 3653 3653 3653 3653 3653 3653 3653 3653 3653 3653 3653 3653 3653 3653 3614 3614 3614 3614 3614 3614 3614 3614 3614 3614 3614 3614 3614 3614 3614 3614 3614 3576 3576 3576 3614 3576 3576 3614 3539 3539 3539 3539 3539 3576 3576 3576 3576 3576 3576 3576 3576 3576 3576 3576 3576 3576 3576 3576 3576 3576 3614 3614 3614 3614 3614 3614 3614 3614 3614 3614 3614 3576 3576 3503 3433 3399 3365 3333 3333 3333 3333 3333 3333 3333 3333 3365 3365 3365 3365 3365 3365 3365 3333 3333 3300 3300 3269 3269 6038 6038 6038 5933 5933 6038 6146 3365 3365 3365 3365 3365 3365 3399 3399 3399 3399 3399 3399 3399 3399 3399 3399 3399 3399 3433 3365 3365 3365 3365 4241 4241 4190 4190 4190 4139 4139 4139 4139 4139 4139 4139 4139 4139 4190 4190 4522 4774 4774 4708 4645 4645 4405 4405 4190 4139 4089 4089 4139 4139 4139 4139 4139 4139 4139 4139 4190 4190 4190 4190 4190 4139 4139 0 0 0 0 0 0 0 0 0 0 0 0
0 0 0 0 0 0 0 0 0 0 0 0 0 0 0 0 0 0 0 0 0 0 0 0 0 0 0 0 0 0 0 0 0 0 0 0 5548 5548 0 0 0 0 0 0 5548 5548 5548 5548 5548 5548 5640 5734 5832 5832 5832 5832 5832 5832 5734 5734 5734 5734 5640 5640 5734 5832 5832 5832 5832 5132 5132 5132 5132 5132 5132 5132 5210 5210 5291 5374 5460 5548 5640 5640 5734 5734 5832 5734 5734 5734 5640 5640 5640 5640 5734 5832 5734 5734 5933 5933 6038 6038 6146 6146 6146 6038 5933 5933 5933 5933 5832 5832 5933 5933 5933 5933 5832 5832 5832 5832 5832 5832 2767 2767 2767 2789 2789 2812 2835 2859 2859 2859 2859 2859 2883 2883 2883 2883 2883 2883 2883 2883 2883 2883 2883 2908 2908 2908 2933 2933 2933 2958 2958 2958 2984 2984 2958 2958 2958 2958 2958 2958 2958 2958 2984 3010 3010 3037 3037 3037 3037 3064 3064 3064 3064 3064 3064 3064 3064 3064 3064 3064 3064 3064 3064 3064 3064 3064 3064 3064 3092 3092 3064 3064 3064 3064 3037 3037 3037 3064 3064 3064 3064 3064 3064 3064 3064 3092 3092 3092 3092 3092 3120 3120 3092 3092 3120 3092 3092 3120 3120 3120 3149 3178 3208 3208 3238 3238 3238 3269 3238 3238 3238 3269 3269 3269 3269 3269 3300 3300 2129 2129 2129 2129 2129 2129 2129 2129 2129 2129 2129 2129 2129 2129 2143 2143 2143 2156 2156 2156 2170 2170 2170 2170 2170 2170 2170 2170 2184 2184 2184 2184 2184 2184 2184 2184 2184 2198 2198 2198 2212 2226 2212 2212 2212 2226 2226 2226 2226 2226 2226 2226 2226 2241 2241 2241 2241 2241 2241 2241 2241 2241 2241 2241 2241 2241 2256 2256 2271 2271 2271 2286 2286 2286 2286 2286 2286 2286 2286 2286 2301 2301 2301 2301 2317 2317 5132 5132 5132 5132 5132 5132 5132 5132 5132 5132 5132 5132 5132 5132 5132 5132 5132 5132 5132 5132 5210 5210 5210 5210 5291 5291 5374 5374 5374 5374 5374 5374 5374 5374 5460 5460 5460 5460 2415 2432 2432 2415 2415 2415 2398 2398 2415 2398 2398 2415 2398 2398 2415 2415 2415 2415 2415 2415 2432 2432 2432 2432 2432 2450 2450 2450 2450 2450 2450 2450 2450 2467 2467 2467 2467 2467 2467 2467 2467 2485 2485 2485 2485 2485 2485 2485 2467 2467 2467 2467 2467 2467 2467 2467 2467 2467 2467 2467 2467 2485 2485 2503 2503 2503 2503 2503 2503 2503 2503 2503 2522 2522 2541 3692 3692 3692 3692 3692 3692 3692 3692 3692 3692 3692 3692 3692 3692 3692 3653 3614 3614 3653 3653 3653 3653 3653 3653 3653 3653 3653 3653 3653 3653 3653 3653 3614 3614 3614 3614 3614 3614 3614 3614 3614 3614 3614 3614 3614 3614 3614 3614 3614 3614 3614 3614 3614 3614 3614 3614 3576 3539 3539 3539 3539 3576 3576 3576 3576 3576 3576 3576 3576 3576 3576 3576 3576 3576 3576 3576 3576 3614 3614 3614 3614 3614 3614 3614 3614 3614 3614 3614 3614 3576 3576 3503 3433 3399 3365 3333 3333 3333 3333 3333 3333 3333 3365 3365 3365 3365 3365 3365 3365 3365 3365 3333 3300 3300 5933 5933 5933 5933 5933 5933 5933 6038 3433 3365 3365 3365 3365 3365 3399 3399 3399 3399 3399 3399 3433 3433 3433 3399 3399 3399 3399 3433 3365 3365 3365 3365 4241 4241 4190 4190 4190 4139 4139 4139 4139 4139 4139 4139 4139 4190 4190 4241 4911 4911 4911 4911 4842 4842 4842 4842 4190 4139 4089 4089 4139 4139 4139 4139 4139 4190 4241 4241 4241 4241 4241 4241 4241 4190 4190 0 0 0 0 0 0 0 0 0 0 0 0
0 0 0 0 0 0 0 0 0 0 0 0 0 0 0 0 0 0 0 0 0 0 0 0 0 0 0 0 0 0 0 0 0 0 0 0 0 0 0 0 0 0 0 0 5548 5548 5548 5548 5548 5548 5640 5734 5832 5832 5832 5832 5832 5832 5734 5734 5734 5640 5640 5640 5734 5832 5832 5832 5832 5132 5132 5132 5132 5132 5132 5132 5210 5210 5291 5374 5460 5548 5640 5640 5640 5734 5734 5734 5734 5640 5640 5640 5640 5640 5734 5832 5734 5734 5832 5832 5832 6038 6038 6038 6146 6038 5933 5933 5933 5933 5933 5933 5933 5933 6038 6038 6038 6038 6038 2701 2701 2767 2767 2767 2767 2767 2789 2812 2835 2859 2859 2859 2859 2859 2859 2859 2883 2883 2883 2883 2883 2883 2883 2883 2883 2908 2908 2908 2933 2933 2933 2958 2958 2958 2958 2984 2958 2958 2958 2933 2933 2933 2958 2958 2958 2958 2958 3010 3037 3037 3037 3037 3037 3064 3064 3037 3037 3064 3064 3037 3037 3037 3037 3037 3037 3037 3037 3064 3064 3064 3064 3064 3064 3064 3037 3037 3010 3010 3010 3037 3037 3037 3037 3037 3037 3064 3064 3064 3092 3092 3092 3092 3120 3092 3092 3092 3064 3064 3064 3092 3092 3092 3120 3149 3178 3208 3238 3238 3238 3269 3238 3238 3238 3269 3269 3269 3269 3269 3300 3300 2129 2129 2129 2129 2129 2129 2129 2129 2129 2129 2129 2129 2129 2129 2143 2143 2143 2156 2156 2156 2170 2170 2170 2170 2170 2170 2170 2184 2184 2184 2184 2184 2184 2184 2184 2184 2184 2198 2198 2198 2198 2226 2212 2212 2212 2226 2226 2226 2226 2226 2226 2226 2241 2241 2241 2241 2241 2241 2241 2241 2241 2241 2241 2241 2241 2241 2241 2256 2271 2271 2271 2286 2286 2286 2286 2286 2286 2286 2286 2286 2301 2301 2301 2301 2317 2317 2365 5132 5132 5132 5132 5132 5132 5132 5132 5132 5132 5132 5132 5132 5132 5132 5132 5132 5132 5132 5210 5210 5210 5210 5291 5291 5374 5374 5460 5460 5460 5374 5374 5374 5460 5460 5460 0 2415 2415 2415 2415 2415 2398 2398 2398 2415 2398 2398 2415 2398 2398 2415 2415 2415 2415 2415 2415 2432 2432 2432 2432 2450 2450 2450 2450 2450 2450 2467 2450 2450 2467 2467 2467 2467 2467 2467 2467 2467 2485 2485 2485 2485 2485 2485 2485 2467 2467 2467 2485 2485 2467 2467 2467 2467 2467 2467 2467 2467 2485 2503 2503 2503 2503 2522 2522 2522 2522 2503 2503 2522 2522 2541 4774 3692 3692 3692 3732 3732 3732 3774 3774 3774 3732 3732 3732 3692 3692 3653 3614 3614 3653 3653 3653 3653 3653 3653 3692 3692 3653 3653 3653 3653 3653 3653 3653 3653 3653 3653 3653 3653 3653 3653 3614 3614 3614 3614 3614 3614 3614 3614 3614 3614 3614 3614 3614 3614 3614 3614 3576 3576 3576 3539 3539 3576 3576 3576 3576 3576 3576 3576 3576 3576 3576 3576 3576 3576 3576 3576 3576 3614 3614 3614 3614 3614 3614 3614 3614 3614 3614 3614 3614 3614 3576 3503 3468 3399 3365 3365 3333 3333 3333 3333 3333 3333 3365 3365 3365 3365 3365 3365 3365 3365 3365 3365 3300 3300 3300 5933 5933 5933 5933 5933 5933 6038 3433 3399 3365 3365 3365 3365 3399 3399 3399 3399 3399 3433 3433 3433 3433 3433 3433 3399 3399 3433 3365 3365 3365 3365 4295 4241 4190 4190 4190 4139 4139 4139 4139 4190 4139 4139 4139 4190 4190 4295 4911 4983 4911 4911 4911 4911 4911 4911 5056 0 0 0 4139 4139 4139 4190 4190 4241 4295 4295 4295 4295 4241 4241 4241 4190 4190 0 0 0 0 0 0 0 0 0 0 0 0
0 0 0 0 0 0 0 0 0 0 0 0 0 0 0 0 0 0 0 0 0 0 0 0 0 0 0 0 0 0 0 0 0 0 0 0 0 0 0 0 0 0 0 0 5460 5460 5460 5548 5640 0 5734 5734 5832 5832 5832 5832 5933 5933 5933 5734 5734 5640 5548 5548 5640 5734 5832 5832 0 5210 5210 5132 5132 5132 5132 5132 5210 5210 5291 5374 5460 5548 5640 5640 5640 5734 5734 5734 5734 5734 5640 5640 5640 5640 5734 5734 5734 5734 5734 5734 5832 5832 6038 6038 6146 6038 6038 5832 5832 5832 5832 5832 5832 5832 6038 6038 6038 6038 2723 2701 2701 2723 2723 2723 2723 2723 2723 2812 2835 2835 2835 2835 2859 2859 2859 2859 2859 2883 2883 2883 2883 2883 2883 2883 2883 2908 2908 2908 2933 2933 2958 2958 2958 2958 2958 2958 2933 2933 2933 2933 2933 2933 2933 2958 2958 2958 2958 2958 3037 3037 3037 3037 3037 3037 3037 3037 3037 3037 3037 3010 3010 3010 3010 3037 3037 3037 3037 3037 2789 2789 2789 2812 2835 2859 2859 2859 2933 2933 2958 3010 3010 3037 3010 3010 3037 3064 3064 3064 3092 3092 3092 3092 3120 3092 3092 3092 3064 3064 3064 3064 3092 3092 3120 3149 3178 3208 3208 3208 3208 3238 3208 3208 3208 3238 3238 3269 3269 3269 3269 3269 2129 2129 2129 2129 2129 2129 2129 2129 2129 2129 2129 2129 2129 2129 2129 2143 2143 2156 2156 2156 2156 2170 2170 2170 2170 2170 2170 2184 2184 2184 2184 2184 2184 2184 2184 2184 2184 2198 2198 2198 2198 2226 2226 2226 2226 2226 2226 2226 2226 2226 2226 2226 2241 2241 2241 2241 2241 2241 2241 2241 2241 2241 2241 2241 2241 2241 2241 2256 2271 2271 2271 2286 2286 2286 2286 2286 2286 2286 2286 2286 2301 2301 2301 2301 2301 2317 2365 5132 5132 5132 5132 5132 5132 5132 5132 5132 5132 5132 5132 5132 5132 5132 5132 5132 5132 5132 5210 5210 5210 5210 5291 5374 5374 5460 5460 5460 5460 5374 5374 5374 5460 5460 5460 0 2398 2398 2398 2415 2415 2398 2398 2398 2415 2398 2398 2415 2415 2415 2415 2415 2415 2415 2432 2432 2432 2450 2450 2450 2450 2450 2450 2450 2467 2467 2467 2467 2467 2467 2467 2467 2467 2467 2467 2467 2467 2467 2485 2485 2485 2485 2485 2485 2467 2467 2467 2485 2485 2485 2485 2485 2485 2485 2485 2485 2503 2503 2503 2503 2503 2522 2522 2522 2522 2522 2522 2522 2522 2522 2541 4774 4842 5056 3732 3732 5291 5374 5374 3774 3774 3774 3774 3732 3692 3692 3653 3614 3614 3653 3653 3653 3653 3653 3692 3692 3732 3692 3692 3692 3692 3692 3692 3653 3653 3653 3653 3653 3653 3653 3653 3653 3653 3653 3614 3614 3614 3614 3614 3614 3614 3614 3614 3614 3614 3614 3614 3576 3576 3576 3576 3576 3576 3576 3576 3576 3576 3576 3576 3576 3576 3576 3576 3576 3576 3576 3576 3576 3576 3614 3614 3614 3614 3614 3614 3614 3614 3614 3614 3614 3576 3576 3503 3468 3399 3365 3365 3365 3365 3365 3365 3365 3365 3365 3365 3365 3399 3365 3365 3365 3365 3365 3333 3300 3300 3300 3365 5933 5933 5933 3468 3468 3433 3433 3399 3399 3399 3365 3365 3399 3399 3399 3399 3399 3433 3433 3433 3433 3433 3433 3399 3399 3433 3399 3365 3365 3365 4405 4349 4295 4241 4241 4190 4190 4190 4190 4190 4190 4190 4190 4190 4190 4295 4983 4983 4983 4983 4983 4983 4983 5056 0 0 0 0 0 0 4190 4190 4241 4241 4295 4295 4295 4295 4241 4241 4241 4241 0 0 0 0 0 0 0 0 0 0 0 0 0
0 0 0 0 0 0 0 0 0 0 0 0 0 0 0 0 0 0 0 0 0 0 0 0 0 0 0 0 0 0 0 0 0 0 0 0 0 0 0 0 0 0 0 0 5374 5374 5460 0 0 0 0 5832 5832 5832 5933 5933 6038 5933 5933 5832 5832 0 5548 5548 5548 5548 5548 5548 0 5132 5132 5132 5132 5132 5132 5132 5210 5210 5210 5374 5374 5460 5460 5460 5460 5548 5734 5734 5734 5734 5640 5640 5640 5640 5640 5734 5734 5734 5734 5734 5734 5734 5734 6038 6038 6038 6038 5832 5832 5832 5734 5734 5832 5832 5832 2701 2701 2701 2701 2701 2701 2701 2701 2701 2701 2701 2701 2767 2789 2744 2744 2767 2812 2812 2835 2835 2835 2859 2859 2859 2859 2859 2859 2859 2883 2883 2908 2908 2908 2933 2933 2958 2958 2958 2958 2958 2933 2908 2908 2908 2908 2933 2933 2933 2933 2933 2933 2958 2958 3037 3037 3037 3037 3037 3037 3010 3010 3010 2958 2933 2933 2908 2883 2883 2859 2859 2859 2835 2835 2789 2789 2812 2835 2859 2859 2859 2883 2883 2908 2933 2933 2958 2933 2933 2984 3037 3037 3064 3064 3064 3092 3092 3120 3092 3064 3064 3064 3064 3064 3064 3064 3064 3149 3149 3149 3238 3178 3178 3208 3208 3178 3178 3208 3238 3238 3064 3010 3010 3010 3010 2143 2143 2143 2143 2129 2129 2129 2129 2129 2129 2129 2129 2129 2129 2129 2143 2143 2156 2156 2156 2156 2170 2170 2170 2170 2170 2170 2184 2184 2184 2184 2184 2184 2184 2184 2184 2198 2198 2198 2198 2198 2212 2212 2212 2212 2226 2226 2226 2226 2226 2226 2226 2241 2241 2241 2241 2241 2241 2241 2241 2241 2241 2241 2241 2241 2241 2241 2256 2271 2271 2271 2286 2286 2286 2286 2286 2286 2286 2286 2286 2301 2301 2301 2301 2301 2301 5132 5132 5132 5132 5132 5132 5132 5132 5132 5132 5132 5132 5132 5132 5132 5132 5132 5132 5132 5132 5132 5132 5210 5210 5291 5291 5374 5460 5460 5460 5460 5460 5460 5460 5460 5460 5460 0 2398 2398 2398 2398 2398 2398 2398 2398 2415 2415 2415 2415 2415 2415 2415 2415 2415 2415 2415 2415 2432 2450 2450 2450 2450 2450 2450 2450 2467 2467 2467 2467 2450 2450 2467 2467 2467 2467 2467 2467 2467 2467 2485 2485 2485 2485 2485 2485 2467 2467 2467 2485 2485 2485 2485 2485 2485 2485 2485 2503 2503 2503 2522 2522 2522 2522 2522 2522 2522 2522 2522 2522 2522 2522 2541 4774 4842 5056 5132 5291 5291 5374 5374 5374 5374 5374 5374 3774 3732 3692 3692 3614 3614 3653 3653 3653 3653 5460 3732 3732 3732 3732 3732 3732 3732 3692 3692 3653 3653 3653 3653 3653 3692 3692 3692 3653 3653 3653 3653 3653 3614 3614 3653 3614 3614 3614 3614 3614 3614 3614 3614 3576 3576 3576 3576 3576 3576 3576 3576 3576 3576 3576 3576 3614 3576 3576 3576 3576 3576 3576 3576 3576 3576 3614 3576 3576 3576 3614 3614 3614 3614 3614 3614 3614 3576 3576 3539 3468 3399 3365 3365 3365 3365 3365 3365 3365 3365 3365 3365 3365 3399 3365 3365 3365 3365 3365 3333 3300 3300 3300 3365 3433 3399 3399 3399 3433 3399 3399 3399 3399 3399 3365 3365 3365 3399 3399 3399 3399 3399 3433 3433 3433 3433 3433 3433 3433 3433 3365 3365 3365 3365 4349 4295 4295 4295 4241 4241 4190 4190 4190 4190 4190 4190 4190 4190 4190 4241 4983 4983 4983 4983 4983 4983 4983 5056 5056 5056 0 0 0 0 0 0 0 0 4405 4349 4349 4349 0 0 0 0 0 0 0 0 0 0 0 0 0 0 0 0 0
0 0 0 0 0 0 0 0 0 0 0 0 0 0 0 0 0 0 0 0 0 0 0 0 0 0 0 0 0 0 0 0 0 0 0 0 0 0 0 0 0 0 0 0 5374 5374 0 0 0 0 0 5832 5832 5832 5933 5933 6038 5933 5933 0 0 0 5548 5548 5548 5548 5548 0 5132 5132 5132 5132 5132 5132 5132 5132 5132 5210 5210 5374 5374 5460 5460 5374 5374 5460 5460 5734 5734 5734 5640 5640 5640 5640 5640 5734 5734 5734 5734 5734 5734 5734 5640 0 6038 6038 6038 5933 5933 5832 5734 5734 5734 5734 5734 2701 2701 2680 2680 2701 2701 2701 2701 2701 2701 2680 2680 2723 2723 2723 2723 2723 2767 2767 2789 2789 2789 2812 2812 2812 2812 2812 2812 2835 2835 2859 2859 2883 2883 2908 2933 2933 2933 2933 2933 2933 2908 2908 2908 2908 2908 2908 2908 2908 2908 2908 2883 2883 2958 2958 3037 3037 3010 3010 3010 2984 2984 2984 2933 2908 2908 2883 2883 2859 2859 2835 2835 2835 2835 2812 2812 2835 2835 2835 2859 2859 2859 2859 2883 2883 2883 2883 2883 2883 2908 2933 2958 2984 3010 3037 3064 3064 3092 3064 3064 3037 3010 3010 2984 2984 3010 3010 2958 2958 2958 3178 3178 3178 3178 3178 3178 3178 3178 3178 3064 3037 3010 3010 3010 3010 2143 2143 2143 2143 2129 2129 2129 2129 2129 2129 2129 2129 2129 2129 2143 2143 2156 2156 2156 2156 2156 2170 2170 2170 2170 2170 2170 2184 2184 2184 2184 2184 2184 2184 2184 2184 2198 2198 2198 2198 2198 2212 2212 2212 2212 2226 2226 2226 2226 2226 2226 2226 2241 2241 2241 2241 2241 2241 2241 2241 2241 2241 2241 2241 2256 2256 2256 2256 2271 2271 2271 2286 2286 2286 2286 2286 2286 2286 2286 2286 2301 2301 2301 2301 2301 2301 5132 5132 5132 5132 5132 5132 5132 5132 5132 5132 5132 5132 5132 5132 5132 5132 5132 5132 5132 5132 5132 5132 5210 5210 5210 5291 5374 5460 5460 5460 5460 5460 5460 5460 5460 5460 0 0 0 2415 2415 2398 2398 2398 2398 2398 2415 2415 2415 2415 2398 2398 2415 2415 2415 2415 2415 2415 2432 2450 2432 2432 2432 2450 2450 2450 2450 2450 2467 2467 2450 2450 2450 2450 2467 2467 2467 2467 2467 2467 2485 2485 2485 2485 2485 2485 2467 2467 2467 2485 2467 2467 2485 2485 2485 2503 2503 2503 2503 2522 2522 2522 2522 2522 2522 2522 2522 2522 2522 2522 2522 2522 2541 4774 4842 5056 5210 5291 5291 5374 5374 5374 5374 5374 5374 5374 5374 5374 5374 5374 5374 5374 5374 5460 5460 5460 5548 3816 3816 3816 3816 3774 3774 3732 3692 3692 3692 3653 3653 3692 3732 3732 3692 3692 3692 3692 3653 3653 3614 3614 3653 3614 3614 3614 3614 3614 3614 3614 3614 3576 3576 3576 3576 3576 3576 3576 3576 3576 3576 3576 3576 3614 3576 3576 3614 3614 3576 3576 3576 3576 3576 3614 3576 3576 3576 3614 3614 3614 3614 3614 3614 3576 3576 3539 3539 3468 3399 3365 3365 3365 3365 3365 3365 3365 3365 3365 3399 3399 3399 3399 3365 3365 3365 3365 3365 3333 3333 3365 3365 3399 3399 3399 3399 3433 3399 3399 3399 3399 3399 3365 3365 3365 3399 3399 3399 3399 3399 3433 3433 3433 3433 3433 3433 3433 3433 3365 3365 3365 3365 4349 4295 4295 4295 4241 4241 4241 4190 4190 4190 4190 4190 4190 4241 4241 4241 4241 4983 4983 4983 4983 4983 4983 5056 5056 0 0 0 0 0 0 0 0 0 0 0 0 0 0 0 0 0 0 0 0 0 0 0 0 0 0 0 0 0 0
0 0 0 0 0 0 0 0 0 0 0 0 0 0 0 0 0 0 0 0 0 0 0 0 0 0 0 0 0 0 0 0 0 0 0 0 0 0 0 0 0 0 0 0 0 0 0 0 0 0 0 5832 5832 5832 5933 5933 6038 5933 5933 0 0 0 0 5548 5548 0 0 0 5132 5132 5056 5056 5056 5132 5132 5132 5132 5210 5210 5291 5374 5374 5460 5374 5374 5460 5460 5460 5460 5548 5548 5548 5548 5640 5640 5640 5640 5640 5640 5640 5640 5640 5640 0 5933 5933 5933 5933 5933 5832 5734 5734 5734 5734 5734 2680 2680 2680 2680 2701 2701 2701 2701 2701 2701 2680 2680 2680 2701 2701 2701 2701 2723 2723 2723 2723 2744 2723 2723 2723 2723 2744 2767 2767 2767 2812 2835 2859 2859 2883 2908 2933 2933 2908 2908 2933 2908 2883 2883 2883 2883 2883 2883 2859 2835 2835 2812 2812 2812 2812 2812 3037 3010 3010 3010 2984 2984 2984 2933 2908 2883 2859 2859 2859 2835 2835 2835 2835 2835 2835 2835 2835 2835 2835 2835 2835 2859 2859 2859 2859 2859 2859 2859 2859 2883 2883 2908 2908 2933 2958 3010 3037 3010 3010 2984 2984 2958 2958 2958 2958 2958 2958 2958 2958 2958 3178 3178 3178 3178 3149 3120 3120 3120 3120 3064 3037 3037 3010 3010 3037 3037 2156 2143 2143 2129 2129 2129 2129 2129 2129 2129 2129 2129 2129 2143 2143 2156 2156 2156 2156 2156 2170 2170 2170 2170 2170 2170 2184 2184 2184 2184 2184 2184 2184 2184 2184 2198 2198 2198 2184 2184 2212 2212 2212 2212 2226 2226 2226 2226 2226 2226 2226 2241 2241 2241 2241 2241 2241 2241 2241 2241 2241 2241 2241 2256 2256 2256 2256 2271 2286 2286 2286 2286 2286 2286 2286 2286 2286 2286 2286 2301 2301 2301 2301 2301 2301 5132 5132 5132 5132 5132 5132 5132 5132 5132 5132 5210 5132 5132 5210 5132 5132 5132 5132 5132 5132 5132 5132 5132 5210 5210 5210 5460 5460 5460 5460 5460 5460 5460 5460 5460 5460 0 0 0 2415 2415 2398 2398 2398 2398 2398 2415 2415 2415 2415 2398 2398 2415 2415 2415 2415 2415 2415 2432 2450 2432 2432 2432 2450 2450 2450 2450 2450 2450 2467 2467 2467 2450 2450 2450 2450 2467 2467 2467 2467 2485 2485 2485 2485 2503 2485 2467 2467 2467 2467 2467 2467 2467 2485 2485 2503 2503 2503 2522 2522 2522 2522 2522 2522 2522 2522 2522 2522 2522 2522 2522 2522 2618 4774 4842 5056 5291 5291 5374 5374 5374 5374 5374 5460 5460 5460 5460 5460 5460 5374 5374 5374 5374 5460 5460 5460 5460 4139 3903 3903 4089 3816 3816 3816 3774 3732 3732 3732 3732 3732 3774 3774 3774 3732 3692 3692 3653 3653 3653 3653 3653 3614 3614 3614 3614 3614 3614 3614 3614 3576 3576 3576 3576 3576 3614 3614 3614 3576 3576 3576 3576 3576 3576 3576 3576 3576 3576 3576 3576 3576 3576 3576 3576 3576 3576 3614 3614 3614 3576 3576 3576 3576 3539 3503 3503 3468 3433 3399 3365 3365 3365 3365 3365 3365 3365 3365 3399 3399 3399 3399 3399 3399 3365 3365 3365 3365 3365 3399 3399 3399 3399 3399 3433 3433 3433 3433 3399 3399 3399 3399 3399 3399 3399 3399 3399 3433 3433 3433 3433 3433 3433 3433 3433 3433 3433 3365 3365 3365 3365 4349 4349 4295 4295 4241 4241 4241 4241 4190 4190 4190 4190 4190 4241 4190 4190 4241 4983 4983 4911 4911 4911 4911 4911 4911 0 0 0 0 0 0 0 0 0 0 0 0 0 0 0 0 0 0 0 0 0 0 0 0 0 0 0 0 0 0
0 0 0 0 0 0 0 0 0 0 0 0 0 0 0 0 0 0 0 0 0 0 0 0 0 0 0 0 0 0 0 0 0 0 0 0 0 0 0 0 0 0 0 0 0 0 0 0 0 0 0 0 0 0 0 0 0 0 0 0 0 0 0 0 0 0 0 0 5210 5056 5056 5056 5056 5132 5132 5132 5132 5210 5210 5291 5374 5374 5460 5374 5374 5460 5460 5460 5460 5548 5548 5548 5548 5640 5640 5640 5640 5640 5640 5640 5640 5640 5640 0 0 5933 5933 5832 5734 5734 5640 5640 5734 5734 2701 2680 2680 2680 2680 2701 2701 2680 2680 2701 2680 2680 2680 2680 2680 2701 2701 2701 2701 2701 2723 2723 2723 2701 2701 2701 2701 2723 2723 2723 2723 2767 2789 2812 2835 2859 2859 2859 2883 2883 2883 2883 2859 2859 2859 2859 2859 2859 2835 2835 2812 2812 2789 2789 2789 2789 2789 2812 2812 3010 3010 2984 2984 2958 2908 2883 2883 2859 2859 2859 2835 2835 2835 2835 2835 2835 2835 2835 2835 2835 2835 2835 2835 2859 2859 2859 2859 2859 2859 2859 2859 2859 2883 2883 2883 2908 2933 2958 2933 2933 2933 2933 2933 2933 2933 2933 2933 2933 2933 2958 2958 2958 2958 2958 2984 3037 3064 3064 3064 3092 3064 3037 3037 3037 3037 3037 3064 2156 2143 2143 2129 2129 2129 2129 2129 2129 2129 2129 2129 2129 2143 2143 2156 2156 2156 2156 2156 2156 2170 2170 2170 2170 2170 2184 2184 2184 2184 2184 2184 2184 2184 2184 2198 2198 2198 2184 2184 2198 2212 2212 2212 2226 2226 2226 2226 2226 2226 2226 2226 2241 2241 2241 2241 2241 2241 2241 2241 2241 2241 2241 2256 2256 2256 2256 2271 2286 2286 2286 2286 2286 2286 2286 2286 2286 2286 2286 2301 2301 2301 2301 2301 2301 5132 5132 5132 5132 5132 5132 5132 5132 5132 5132 5210 5210 5210 5210 5132 5132 5132 5132 5132 5132 5132 5132 5132 5210 5210 5210 5460 5460 5460 5460 5460 5460 5460 5460 5374 5374 0 0 0 2398 2398 2398 2398 2398 2415 2415 2415 2415 2415 2398 2398 2398 2415 2415 2415 2415 2415 2415 2432 2432 2432 2432 2432 2450 2450 2450 2450 2450 2450 2450 2467 2450 2450 2450 2450 2450 2450 2467 2467 2467 2467 2467 2485 2485 2503 2485 2467 2467 2467 2467 2467 2467 2467 2485 2485 2503 2503 2503 2522 2522 2522 2522 2522 2522 2522 2522 2522 2522 2522 2522 2522 2522 2541 4774 4842 5132 5291 5374 5374 5374 5374 5374 5460 5460 5460 5460 5460 5460 5460 5374 5374 5460 5460 5460 5460 5460 4190 4139 4041 4041 4089 4089 4089 4089 4089 3994 3994 3859 3859 3859 3903 3903 3859 3816 3774 3732 3692 3653 3653 3653 3653 3614 3614 3614 3614 3614 3614 3614 3614 3614 3576 3576 3576 3576 3614 3614 3614 3576 3576 3576 3576 3576 3576 3576 3576 3576 3576 3576 3576 3576 3576 3576 3576 3576 3576 3614 3614 3614 3576 3576 3576 3539 3503 3468 3468 3433 3433 3399 3399 3399 3399 3365 3365 3365 3399 3399 3399 3399 3399 3399 3399 3399 3365 3365 3365 3365 3365 3399 3399 3399 3399 3399 3399 3433 3399 3399 3399 3399 3399 3399 3399 3399 3399 3433 3433 3433 3433 3433 3433 3433 3433 3433 3433 3433 3433 3365 3365 3365 4405 4349 4349 4295 4295 4241 4241 4241 4241 4190 4190 4190 4190 4190 4241 4190 4190 4241 4241 4241 4241 4295 4582 4842 4842 4708 4708 0 0 0 0 0 0 0 0 0 0 0 0 0 0 0 0 0 0 0 0 0 0 0 0 0 0 0 0 0
0 0 0 0 0 0 0 0 0 0 0 0 0 0 0 0 0 0 0 0 0 0 0 0 0 0 0 0 0 0 0 0 0 0 0 0 0 0 0 0 0 0 0 0 0 0 0 0 0 0 0 0 0 0 0 0 0 0 0 0 0 0 0 0 0 0 0 5210 5210 5056 5056 5056 5056 5132 5132 5132 5132 5210 5210 5291 5291 5374 5460 5374 5374 5460 5460 5460 5460 5548 5460 5460 5548 5640 5640 5734 5640 5640 5640 5640 5640 5640 5460 5460 5460 5460 5734 5734 5734 5734 5640 5640 5640 2701 2701 2701 2701 2701 2701 2701 2701 2680 2680 2680 2680 2680 2680 2680 2680 2680 2680 2680 2701 2701 2701 2701 2701 2701 2701 2701 2701 2701 2723 2723 2723 2744 2767 2767 2767 2789 2789 2812 2812 2859 2859 2859 2835 2835 2835 2835 2835 2812 2812 2812 2789 2789 2767 2767 2789 2789 2789 2789 2789 3010 3010 2984 2984 2958 2883 2883 2883 2859 2859 2859 2835 2835 2835 2835 2835 2835 2835 2835 2835 2835 2835 2835 2835 2859 2859 2859 2859 2835 2835 2835 2859 2859 2859 2859 2883 2883 2883 2908 2908 2908 2908 2908 2908 2908 2908 2933 2933 2933 2933 2958 2958 2958 2958 2958 2984 3010 3037 3037 3037 3064 3064 3037 3037 3037 3037 3037 3064 3064 2143 2143 2129 2129 2129 2129 2129 2129 2129 2129 2129 2129 2143 2143 2143 2143 2156 2156 2156 2156 2156 2170 2170 2170 2170 2184 2184 2184 2184 2184 2184 2198 2198 2198 2198 2198 2184 2184 2184 2198 2212 2212 2212 2226 2226 2226 2226 2226 2226 2226 2226 2241 2241 2226 2226 2241 2241 2241 2241 2241 2241 2241 2256 2256 2256 2256 2271 2286 2286 2286 2286 2286 2286 2286 2286 2286 2286 2286 2301 2301 2301 2301 2301 2301 5132 5132 5132 5132 5132 5132 5132 5132 5132 5132 5132 5210 5210 5132 5132 5132 5132 5132 5132 5132 5132 5132 5132 5210 5210 5210 5291 5374 5374 5460 5460 5460 5460 5460 5374 5374 0 0 0 2398 2398 2398 2398 2398 2415 2415 2415 2415 2415 2398 2398 2398 2415 2415 2415 2415 2415 2432 2432 2432 2432 2450 2450 2450 2450 2450 2450 2450 2450 2450 2467 2450 2450 2450 2450 2450 2450 2467 2467 2467 2467 2467 2503 2503 2503 2503 2485 2467 2467 2467 2467 2467 2485 2485 2503 2503 2503 2522 2522 2522 2522 2522 2522 2522 2522 2522 2522 2522 2522 2522 2522 2522 2503 2503 4842 5056 5291 5374 5374 5374 5374 5374 5460 5460 5460 5460 5460 5460 5460 5374 5374 5460 5460 5460 5460 4295 4190 4190 4089 4089 4089 4089 4089 4089 4089 4089 4089 4041 4041 4041 4041 3994 3994 3948 3774 3774 3692 3653 3653 3653 3653 3653 3653 3653 3653 3653 3653 3614 3614 3614 3614 3614 3614 3614 3614 3614 3614 3614 3576 3576 3576 3576 3576 3576 3576 3576 3576 3576 3576 3576 3576 3576 3576 4349 4295 3614 3614 3614 3576 3539 3503 3468 3468 3433 3433 3399 3399 3399 3399 3399 3399 3399 3399 3399 3399 3399 3399 3399 3399 3399 3399 3399 3365 3365 3365 3365 3365 3399 3399 3399 3399 3399 3399 3399 3399 3399 3399 3399 3399 3399 3399 3399 3399 3433 3433 3433 3433 3433 3433 3433 3433 3433 3433 3433 3399 3365 3365 3365 4405 4349 4349 4295 4295 4241 4241 4241 4241 4241 4241 4190 4190 4190 4190 4190 4190 4190 4190 4190 4190 4190 4241 4708 4842 4645 4645 4522 4522 4241 4241 4241 4241 0 0 0 0 0 0 0 0 0 0 0 0 0 0 0 0 0 0 0 0 0 0 0
0 0 0 0 0 0 0 0 0 0 0 0 0 0 0 0 0 0 0 0 0 0 0 0 0 0 0 0 0 0 0 0 0 0 0 0 0 0 0 0 0 0 0 0 0 0 0 0 0 0 0 0 0 0 0 0 0 0 0 0 0 0 0 0 0 0 5291 5210 5210 5056 5056 5056 5132 5132 5132 5132 5132 5210 5210 5291 5291 5374 5460 5460 5374 5374 5374 5460 5460 5374 5210 5210 5548 5640 5640 5734 5734 5734 5734 5734 5734 5460 5460 5460 5460 5460 5734 5734 5734 5640 5548 5548 5548 2701 2701 2701 2701 2701 2701 2701 2701 2701 2701 2680 2680 2680 2680 2680 2680 2680 2680 2680 2680 2680 2701 2701 2701 2701 2701 2701 2701 2701 2701 2701 2701 2723 2744 2744 2744 2744 2767 2767 2789 2789 2789 2812 2789 2789 2789 2789 2789 2789 2789 2789 2789 2767 2767 2767 2767 2767 2789 2789 2789 2812 3010 3010 2984 2958 2883 2883 2883 2859 2859 2859 2835 2835 2859 2859 2835 2835 2835 2835 2835 2835 2835 2835 2835 2835 2859 2859 2835 2835 2835 2835 2859 2859 2859 2859 2859 2859 2883 2883 2883 2883 2883 2883 2883 2883 2908 2908 2933 2933 2933 2958 2958 2958 2958 2984 2984 3010 3010 3037 3037 3037 3064 3037 3037 3037 3037 3037 3064 3064 2143 2143 2129 2129 2129 2129 2129 2129 2129 2129 2129 2129 2143 2143 2143 2143 2156 2156 2156 2156 2156 2170 2156 2156 2170 2170 2184 2184 2184 2184 2184 2184 2184 2184 2184 2184 2184 2184 2184 2198 2212 2212 2212 2212 2226 2226 2226 2226 2226 2226 2226 2241 2226 2226 2226 2226 2241 2241 2241 2241 2241 2241 2241 2256 2256 2256 2271 2286 2286 2286 2286 2286 2286 2286 2286 2286 2286 2286 2301 2301 2301 2301 2301 2301 5132 5132 5132 5132 5132 5132 5132 5132 5132 5132 5132 5210 5132 5132 5132 5132 5132 5132 5132 5132 5132 5132 5132 5210 5210 5210 5291 5374 5374 5460 5460 5460 5460 5460 5460 0 0 0 0 2398 2398 2398 2398 2398 2415 2415 2415 2415 2415 2415 2415 2415 2415 2415 2415 2415 2415 2432 2432 2432 2432 2450 2450 2450 2432 2432 2432 2415 2415 2450 2450 2450 2450 2450 2450 2467 2467 2467 2467 2467 2485 2503 2503 2503 2503 2503 2485 2485 2467 2467 2467 2467 2467 2485 2503 2503 2522 2522 2522 2522 2522 2522 2522 2522 2522 2522 2522 2522 2522 2522 2522 2522 2503 2503 4983 4983 5291 5374 5374 5374 5374 5374 5460 5460 5460 5460 5460 5460 5460 5374 5374 5374 5374 5460 5460 4241 4190 4190 4089 4089 4089 4089 4089 4089 4089 4089 4089 4089 4089 4041 4041 4041 4041 4041 4041 0 0 0 0 0 0 0 3653 3653 3653 4295 4295 4241 4241 3653 3653 3653 3653 3653 3653 3653 3614 3614 3576 3539 3539 3576 3576 3576 3576 3576 3576 3576 3576 3576 3576 4349 4349 4295 4295 4241 4241 3614 3576 3468 3468 3433 3433 3433 3433 3399 3399 3399 3399 3399 3399 3399 3399 3399 3399 3399 3399 3399 3399 3399 3399 3399 3365 3365 3399 3399 3399 3399 3399 3399 3433 3399 3399 3399 3399 3399 3399 3399 3399 3399 3399 3399 3399 3433 3433 3433 3433 3433 3433 3433 3433 3433 3433 3399 3399 3333 3333 4405 4405 4349 4349 4295 4295 4241 4241 4241 4241 4241 4241 4190 4190 4190 4190 4190 4190 4190 4190 4190 4190 4190 4241 4522 4522 4645 4405 4405 4295 4241 4241 4241 4241 0 0 0 0 0 0 0 0 0 0 0 0 0 0 0 0 0 0 0 0 0 0 0
