0 0 0 0 0 0 0 0 0 0 0 0 0 0 0 0 0 0 0 0 0 0 0 0 0 0 0 0 0 0 0 0 2908 2883 2883 2883 2908 2908 2908 2908 2908 2908 2908 2908 2908 2908 2908 2933 2933 0 0 0 0 1415 1415 1415 1415 1415 1415 1415 1415 1415 1415 1415 1302 1302 1302 1302 1302 1302 1302 1302 1302 1302 1302 1307 1307 1307 1312 1312 1312 1312 1317 1317 1317 1317 1317 1312 1312 1312 1312 1312 1317 1317 1317 1317 1317 1317 1317 1317 1317 1317 1317 1317 1317 1317 1317 1317 1317 1317 1317 1317 1317 1317 1317 1317 1317 1317 1317 1317 1317 1317 1317 1317 1317 1317 1317 1317 1322 1322 1322 1322 1322 1322 1322 1322 1322 1322 1322 1322 1322 1328 1328 1328 1328 1328 1328 1328 1328 1328 1328 1328 1328 1333 1333 1333 1333 1328 1328 1328 1328 1328 1328 1328 1333 1333 1333 1333 1333 1333 1333 1333 1333 1338 1338 1338 1338 1338 1338 1338 1338 1338 1338 1338 1338 1338 1338 1333 1333 1333 1333 1333 1333 1333 1333 1333 1333 1333 1333 1333 1333 1333 1452 1452 1452 1452 1452 1452 1452 1452 1452 1452 1452 1452 1452 1452 1452 1452 1452 1452 1452 1452 1452 1452 1458 1458 1458 1458 1458 1458 1458 1458 1458 1458 1458 1458 1458 1458 1458 1458 1464 1464 1464 1464 1458 1458 1458 1452 1452 1452 1452 1452 1452 1458 1458 1458 1452 1452 1268 1268 1268 1268 1268 1273 1273 1273 1273 1273 1273 1273 1278 1278 1283 1283 1288 1288 1288 1288 1288 1288 1288 1288 1288 1288 1288 1288 1288 1288 1288 1288 1288 1288 1283 1283 1283 1283 1283 1283 1283 1283 1283 1288 1288 1288 1288 1288 1288 1283 1283 1288 1288 1283 1283 1283 1283 1283 1283 1283 1283 1283 1283 1283 1283 1283 1283 1283 1288 1288 1288 1288 1288 1288 1288 1283 1283 1283 1283 1283 1283 1283 1283 1283 1288 1288 1288 1288 1288 1288 1288 1288 1288 1288 1288 1288 1288 1288 1288 1292 1292 1297 1297 1297 1297 1297 1302 1302 1302 1302 1302 1307 1307 1307 1302 1302 1302 1302 1302 1302 1302 1302 1302 1302 1297 1297 1292 1292 1288 1288 1288 1288 1288 1288 1288 1288 1288 1288 1288 1288 1489 1489 1489 1489 1489 1489 1489 1489 1489 1489 1489 1489 1489 1496 1496 1496 1496 1496 1496 1496 1489 1489 1489 1489 1489 1489 1489 1489 1489 1489 1489 1489 1489 1489 1489 1489 1489 1489 1496 1496 1489 1489 1489 1489 1496 1496 1496 1496 1496 1496 1496 1496 1496 1489 1489 1496 1496 1496 1496 1496 1489 1489 1489 1489 1489 1489 1489 1489 1489 1489 1489 1489 1489 1489 1489 1489 1489 1489 1489 1489 1489 1496 1496 1503 1503 1509 3064 3064 3064 3092 3092 3092 3092 3092 3092 3120 3120 3120 3120 3120 3120 3120 3092 3064 3064 3092 3092 3092 3064 3064 3092 3092 3092 3092 3092 3092 3092 3092 3092 3092 3092 3092 3092 3092 3092 3092 3092 3092 3092 3092 3092 3092 3092 3092 3092 3092 3092 3092 3092 3092 3092 3092 3092 3092 3092 3092 3092 3092 3092 3092 3092 3064 3064 3064 3064 3092 3064 3064 3064 3037 3010 3010 2958 2958 2933 2933 2933 2908 2908 2908 2908 2908 2908 2908 2908 2933 3010 3037 3064 3064 3092 3092 3092 3092 3092 3092 3092 3092 3092 3064 3064 3064 3064 3064 3064 3064 3092 3092 3092 3092 3092 3092 3092 3092 3092 3092 3092 3064 3064 3064 3037 3037 3037 3037 3037 3010 2984 2933 2933 2908 2859 2859 2835 2835 2812 2812 2812 2812 2812 2812 2812 2812 0 0 0 0 0 0 0 0 0 0
0 0 0 0 0 0 0 0 0 0 0 0 0 0 0 0 0 0 0 0 0 0 0 0 0 0 0 0 0 0 0 0 2883 2883 2883 2883 2883 2908 2908 2908 2908 2908 2908 2908 2908 2908 2908 2933 2933 0 0 0 0 0 1415 1415 1415 1415 1415 1415 1421 1415 1415 1415 1421 1302 1302 1302 1302 1302 1302 1302 1302 1302 1302 1307 1307 1312 1312 1312 1317 1317 1317 1317 1317 1317 1317 1317 1317 1317 1317 1317 1317 1317 1317 1317 1317 1317 1317 1317 1317 1317 1317 1317 1317 1317 1317 1317 1317 1317 1317 1317 1317 1317 1317 1317 1322 1322 1322 1317 1317 1317 1317 1322 1322 1322 1322 1322 1322 1322 1322 1322 1322 1322 1322 1322 1322 1322 1322 1328 1328 1328 1328 1328 1328 1328 1328 1328 1328 1328 1328 1333 1333 1333 1333 1333 1338 1333 1333 1333 1333 1333 1333 1333 1333 1333 1333 1333 1333 1333 1333 1333 1338 1338 1338 1338 1338 1338 1343 1343 1343 1343 1343 1343 1343 1343 1338 1338 1333 1333 1333 1333 1333 1333 1333 1333 1338 1338 1338 1338 1338 1338 1343 1452 1452 1452 1452 1452 1452 1452 1452 1452 1452 1458 1458 1458 1458 1458 1458 1458 1458 1452 1452 1452 1458 1458 1458 1458 1458 1458 1458 1464 1464 1458 1458 1458 1464 1464 1464 1464 1464 1464 1464 1464 1458 1458 1458 1458 1458 1458 1458 1458 1458 1458 1458 1458 1458 1458 1268 1268 1268 1268 1273 1273 1273 1273 1273 1273 1273 1273 1278 1283 1283 1288 1288 1288 1288 1288 1288 1288 1288 1288 1288 1288 1288 1288 1288 1288 1288 1288 1288 1288 1283 1283 1283 1283 1283 1283 1283 1283 1283 1288 1288 1288 1288 1288 1288 1288 1288 1288 1288 1283 1283 1283 1283 1283 1283 1283 1283 1283 1283 1283 1283 1283 1283 1283 1288 1288 1288 1288 1288 1288 1288 1283 1283 1283 1283 1283 1283 1283 1283 1283 1283 1283 1283 1288 1288 1288 1288 1288 1288 1288 1288 1288 1292 1292 1292 1292 1292 1292 1292 1297 1297 1297 1302 1302 1302 1302 1302 1302 1302 1302 1302 1302 1302 1302 1302 1302 1302 1302 1302 1302 1297 1297 1292 1292 1292 1288 1288 1288 1288 1288 1288 1288 1288 1288 1288 1496 1496 1489 1489 1489 1489 1489 1489 1489 1489 1489 1489 1489 1489 1496 1496 1496 1496 1496 1496 1503 1489 1489 1489 1489 1496 1496 1496 1496 1496 1489 1489 1489 1489 1489 1489 1489 1489 1489 1496 1496 1496 1496 1489 1489 1496 1496 1496 1496 1496 1496 1496 1496 1496 1496 1496 1496 1496 1496 1496 1496 1496 1496 1496 1496 1496 1489 1489 1496 1496 1489 1489 1489 1489 1489 1489 1489 1489 1489 1489 1489 1489 1496 1496 1496 1496 1503 3037 3037 3064 3064 3092 3092 3092 3092 3092 3092 3092 3092 3092 3092 3092 3092 3064 3064 3064 3064 3064 3064 3064 3064 3064 3064 3064 3064 3064 3064 3092 3092 3092 3092 3092 3092 3092 3092 3092 3092 3092 3092 3092 3064 3064 3064 3064 3064 3064 3064 3092 3092 3064 3064 3092 3064 3064 3092 3064 3064 3064 3092 3092 3092 3064 3064 3064 3064 3064 3064 3064 3064 3064 3037 3037 3010 2984 2958 2933 2933 2908 2908 2908 2908 2908 2908 2908 2908 2908 2933 2984 3037 3037 3064 3064 3064 3092 3092 3092 3064 3064 3064 3064 3037 3037 3037 3037 3037 3037 3037 3037 3037 3064 3064 3064 3064 3064 3064 3064 3064 3064 3037 3037 3037 3037 3037 3010 3010 3010 2984 2958 2933 2908 2908 2883 2859 2859 2835 2835 2812 2812 2812 2812 2812 2812 2812 0 0 0 0 0 0 0 0 0 0
0 0 0 0 0 0 0 0 0 0 0 0 0 0 0 0 0 0 0 0 0 0 0 0 0 0 0 0 0 0 0 0 2883 2883 2883 2883 2883 2883 2883 2908 2908 2908 2883 2883 2908 2908 2908 2933 2933 0 0 0 0 0 1415 1415 1415 1421 1415 1415 1421 1421 1421 1421 1421 1302 1302 1302 1307 1307 1302 1302 1307 1307 1307 1307 1312 1312 1312 1312 1317 1317 1317 1317 1317 1317 1317 1317 1317 1317 1317 1317 1317 1317 1317 1317 1317 1317 1317 1317 1322 1322 1322 1322 1322 1322 1322 1322 1322 1322 1322 1322 1322 1322 1322 1322 1322 1322 1322 1322 1317 1317 1322 1322 1322 1322 1322 1322 1322 1322 1322 1322 1322 1322 1322 1322 1322 1322 1322 1328 1328 1333 1328 1328 1328 1328 1328 1328 1328 1328 1333 1333 1333 1333 1338 1338 1338 1333 1333 1333 1333 1333 1333 1333 1333 1333 1333 1333 1333 1333 1333 1333 1338 1338 1338 1338 1338 1343 1343 1343 1343 1343 1349 1343 1343 1343 1343 1338 1338 1338 1338 1333 1333 1333 1338 1338 1338 1338 1338 1338 1338 1338 1343 1452 1452 1452 1452 1452 1458 1458 1458 1458 1458 1458 1464 1464 1464 1458 1458 1458 1458 1458 1458 1458 1458 1458 1458 1464 1458 1458 1458 1464 1464 1464 1464 1464 1464 1464 1464 1464 1464 1464 1464 1464 1458 1458 1458 1458 1458 1458 1458 1458 1458 1458 1458 1458 1458 1458 1268 1268 1268 1273 1273 1273 1273 1273 1273 1273 1278 1278 1283 1283 1288 1288 1288 1288 1288 1288 1288 1288 1288 1288 1288 1288 1288 1288 1288 1288 1288 1288 1288 1288 1288 1288 1283 1283 1288 1288 1283 1283 1283 1288 1288 1288 1288 1288 1288 1288 1288 1288 1288 1283 1283 1283 1283 1283 1283 1283 1283 1283 1283 1283 1283 1283 1283 1283 1288 1288 1288 1288 1288 1288 1288 1283 1283 1283 1283 1283 1283 1283 1283 1283 1283 1283 1283 1288 1288 1288 1288 1288 1288 1288 1288 1288 1288 1292 1292 1292 1292 1292 1292 1297 1297 1297 1302 1302 1302 1302 1302 1302 1302 1302 1302 1302 1302 1302 1302 1302 1302 1307 1302 1302 1302 1297 1297 1292 1292 1288 1288 1288 1288 1288 1288 1288 1288 1288 1292 1503 1496 1496 1496 1496 1496 1496 1489 1489 1489 1489 1489 1496 1496 1496 1503 1503 1503 1496 1496 1503 1496 1496 1496 1496 1496 1496 1496 1496 1496 1489 1489 1489 1489 1489 1489 1496 1496 1496 1496 1496 1496 1496 1496 1496 1496 1496 1496 1496 1496 1496 1496 1496 1496 1496 1496 1496 1503 1503 1496 1496 1496 1496 1496 1496 1496 1496 1496 1496 1496 1496 1496 1496 1496 1496 1496 1496 1496 1496 1496 1496 1496 1496 1496 1496 1496 1503 1503 3037 3064 3064 3064 3064 3064 3064 3064 3092 3092 3064 3064 3092 3092 3064 3037 3037 3064 3064 3064 3064 3064 3064 3064 3064 3064 3064 3064 3064 3064 3064 3064 3064 3064 3064 3064 3064 3064 3064 3064 3064 3064 3064 3064 3064 3064 3064 3064 3064 3064 3064 3064 3064 3064 3064 3064 3064 3064 3064 3064 3064 3064 3064 3064 3064 3064 3064 3064 3064 3064 3064 3037 3037 3037 3010 2984 2958 2933 2908 2908 2908 2908 2908 2908 2908 2883 2883 2908 2933 2984 3010 3037 3064 3064 3064 3064 3064 3064 3064 3064 3064 3064 3037 3037 3037 3037 3037 3037 3037 3037 3037 3037 3037 3037 3037 3037 3037 3064 3037 3037 3037 3010 3010 3010 3010 3010 3010 3010 2984 2958 2933 2908 2908 2883 2859 2859 2835 2835 2812 2812 2812 2812 2812 2812 2812 0 0 0 0 0 0 0 0 0 0
0 0 0 0 0 0 0 0 0 0 0 0 0 0 0 0 0 0 0 0 0 0 0 0 0 0 0 0 0 0 0 0 2883 2883 2859 2859 2883 2883 2883 2908 2908 2908 2883 2883 2883 2883 2883 2908 2908 0 0 0 0 0 1415 1415 1415 1415 1415 1415 1421 1421 1415 1415 1421 1302 1302 1302 1307 1307 1307 1312 1312 1312 1312 1312 1312 1312 1312 1312 1317 1317 1317 1317 1322 1317 1317 1317 1317 1317 1317 1317 1317 1317 1317 1317 1317 1317 1317 1317 1322 1322 1322 1322 1322 1322 1322 1322 1322 1322 1322 1322 1322 1322 1322 1322 1322 1322 1322 1322 1322 1322 1322 1322 1322 1322 1322 1322 1322 1322 1322 1322 1322 1322 1322 1322 1322 1322 1322 1328 1333 1333 1328 1328 1333 1333 1333 1333 1333 1333 1333 1333 1333 1338 1338 1338 1338 1333 1333 1333 1333 1333 1333 1333 1333 1333 1333 1333 1333 1333 1338 1338 1338 1338 1338 1338 1343 1343 1343 1349 1349 1349 1349 1349 1343 1343 1343 1338 1338 1338 1338 1338 1338 1338 1338 1338 1338 1338 1338 1338 1338 1338 1343 1458 1452 1452 1458 1458 1458 1458 1458 1458 1458 1458 1464 1458 1458 1458 1458 1458 1458 1458 1458 1458 1464 1464 1464 1464 1464 1464 1464 1464 1464 1464 1464 1464 1464 1464 1464 1464 1464 1464 1470 1470 1464 1464 1464 1458 1458 1458 1458 1458 1464 1464 1464 1464 1464 1464 1273 1273 1273 1273 1273 1273 1273 1273 1273 1273 1278 1278 1283 1283 1288 1288 1288 1288 1288 1288 1288 1288 1288 1288 1288 1288 1288 1288 1288 1288 1288 1288 1288 1288 1288 1288 1288 1288 1288 1288 1288 1288 1288 1288 1288 1288 1288 1288 1288 1288 1288 1288 1288 1288 1288 1283 1283 1283 1283 1283 1288 1288 1288 1288 1288 1283 1283 1288 1288 1288 1288 1288 1288 1288 1288 1283 1283 1283 1283 1283 1283 1283 1283 1283 1283 1283 1283 1288 1288 1288 1288 1288 1288 1288 1288 1288 1288 1292 1292 1292 1292 1292 1292 1297 1297 1297 1302 1302 1302 1302 1302 1302 1302 1302 1302 1302 1302 1302 1302 1302 1302 1302 1302 1302 1302 1297 1297 1297 1292 1292 1288 1288 1292 1292 1292 1292 1292 1292 1292 1503 1503 1503 1503 1496 1496 1496 1496 1489 1489 1496 1496 1496 1496 1503 1503 1503 1503 1503 1503 1503 1496 1496 1496 1496 1496 1496 1496 1496 1496 1496 1496 1496 1496 1496 1496 1496 1496 1496 1496 1496 1496 1496 1496 1496 1496 1496 1496 1496 1496 1496 1496 1496 1503 1496 1496 1503 1503 1503 1496 1496 1496 1496 1496 1496 1496 1496 1496 1503 1503 1503 1496 1496 1496 1496 1496 1489 1489 1496 1496 1496 1496 1496 1496 1496 1496 1496 1503 3037 3037 3064 3064 3064 3064 3064 3064 3064 3064 3064 3064 3064 3064 3064 3037 3037 3037 3037 3037 3064 3064 3064 3064 3064 3064 3064 3037 3037 3037 3064 3064 3064 3064 3064 3064 3064 3064 3064 3064 3064 3064 3064 3064 3064 3064 3064 3064 3064 3064 3064 3064 3064 3064 3037 3037 3037 3037 3037 3037 3064 3064 3064 3064 3064 3064 3064 3064 3064 3064 3064 3037 3037 3037 3010 2984 2958 2933 2908 2908 2908 2908 2908 2908 2908 2883 2883 2908 2958 2984 3010 3037 3037 3064 3064 3064 3064 3064 3064 3064 3064 3064 3037 3010 3010 3037 3037 3037 3010 3010 3010 3010 3037 3037 3037 3037 3037 3037 3037 3037 3010 3010 3010 3010 3010 3010 2984 2984 2958 2933 2933 2908 2908 2883 2859 2859 2835 2835 2835 2812 2812 2812 2812 2812 2812 0 0 0 0 0 0 0 0 0 0
0 0 0 0 0 0 0 0 0 0 0 0 0 0 0 0 0 0 0 0 0 0 0 0 0 0 0 0 0 0 0 0 2859 2859 2859 2859 2883 2883 2883 2883 2883 2883 2883 2883 2883 2883 2883 2883 2908 2908 2908 0 0 0 1415 1415 1415 1415 1415 1415 1421 1421 1415 1415 1421 1302 1302 1307 1307 1312 1312 1312 1312 1312 1312 1312 1317 1317 1317 1317 1317 1317 1317 1322 1322 1317 1317 1322 1322 1322 1322 1322 1322 1322 1317 1317 1317 1317 1317 1317 1322 1322 1322 1322 1322 1322 1322 1322 1322 1328 1322 1322 1322 1322 1322 1322 1322 1322 1322 1322 1322 1322 1322 1322 1322 1322 1322 1322 1322 1322 1322 1322 1322 1322 1322 1328 1328 1328 1328 1333 1333 1333 1333 1333 1333 1333 1333 1333 1333 1333 1338 1338 1338 1338 1338 1338 1338 1333 1333 1333 1333 1338 1338 1333 1333 1333 1333 1333 1333 1338 1338 1338 1338 1338 1338 1338 1343 1343 1343 1349 1349 1349 1349 1349 1349 1343 1343 1338 1338 1338 1338 1338 1338 1338 1338 1338 1338 1338 1343 1343 1338 1338 1343 1458 1458 1458 1458 1458 1464 1458 1458 1464 1458 1458 1464 1458 1458 1458 1458 1458 1458 1458 1458 1464 1464 1464 1470 1470 1464 1464 1470 1470 1464 1464 1464 1464 1470 1464 1464 1464 1464 1464 1470 1470 1464 1464 1464 1464 1464 1464 1464 1464 1464 1464 1464 1464 1464 1464 1278 1278 1278 1278 1278 1278 1273 1273 1278 1278 1278 1283 1283 1288 1288 1288 1288 1288 1288 1288 1288 1288 1288 1288 1288 1288 1288 1288 1288 1288 1288 1288 1288 1288 1288 1288 1288 1288 1288 1288 1288 1288 1288 1288 1288 1288 1288 1288 1288 1288 1288 1288 1288 1288 1288 1288 1288 1288 1288 1288 1288 1288 1288 1288 1288 1288 1288 1288 1288 1288 1288 1288 1288 1288 1288 1283 1283 1283 1288 1283 1283 1283 1283 1288 1288 1288 1288 1288 1288 1288 1288 1288 1288 1288 1288 1288 1292 1292 1292 1297 1297 1297 1297 1297 1297 1297 1302 1302 1302 1302 1302 1302 1302 1302 1302 1302 1302 1302 1302 1302 1302 1302 1302 1302 1302 1297 1297 1297 1292 1292 1292 1292 1292 1292 1292 1292 1292 1292 1292 1503 1503 1503 1503 1503 1503 1503 1496 1496 1496 1496 1496 1503 1503 1503 1503 1503 1503 1503 1503 1503 1496 1496 1496 1496 1496 1496 1496 1496 1496 1496 1496 1496 1496 1496 1496 1496 1496 1496 1496 1496 1496 1496 1496 1503 1496 1496 1496 1496 1496 1503 1503 1503 1503 1503 1503 1503 1503 1503 1503 1496 1496 1496 1496 1496 1496 1496 1496 1503 1503 1503 1503 1503 1496 1496 1496 1489 1489 1496 1496 1496 1496 1496 1496 1489 1489 1483 1483 3037 3037 3037 3037 3037 3064 3064 3064 3064 3064 3064 3064 3064 3064 3064 3037 3037 3037 3037 3037 3037 3037 3037 3037 3037 3037 3037 3037 3037 3037 3037 3037 3037 3037 3037 3037 3037 3037 3037 3064 3064 3064 3064 3064 3037 3037 3037 3037 3064 3064 3064 3037 3037 3037 3037 3037 3037 3037 3037 3037 3037 3064 3064 3064 3037 3037 3064 3064 3064 3037 3037 3037 3037 3037 3010 2958 2933 2933 2908 2908 2908 2908 2908 2908 2908 2883 2883 2908 2958 2984 3010 3037 3037 3064 3064 3064 3064 3064 3064 3064 3064 3064 3037 3010 3010 3010 3010 3010 3010 3010 3010 3010 3010 3010 3010 3010 3010 3037 3037 3037 3010 3010 3010 3010 3010 3010 2984 2984 2933 2933 2908 2908 2883 2859 2859 2859 2835 2835 2835 2812 2812 2812 2812 2812 2812 0 0 0 0 0 0 0 0 0 0
0 0 0 0 0 0 0 0 0 0 0 0 0 0 0 0 0 0 0 0 0 0 0 0 0 0 0 0 0 0 0 0 2859 2859 2859 2859 2859 2859 2883 2859 2859 2883 2859 2859 2859 2859 2859 2883 2883 2883 0 0 0 0 1415 1415 1415 1415 1415 1415 1415 1421 1415 1415 1421 1302 1302 1307 1312 1312 1312 1312 1312 1312 1312 1312 1317 1317 1317 1317 1317 1317 1317 1322 1317 1317 1317 1322 1322 1322 1322 1322 1322 1322 1317 1317 1317 1317 1317 1317 1322 1322 1322 1322 1322 1322 1328 1328 1328 1328 1322 1322 1322 1322 1322 1322 1322 1322 1322 1322 1322 1322 1322 1322 1322 1322 1322 1322 1322 1322 1322 1322 1322 1322 1322 1328 1322 1322 1333 1333 1333 1333 1333 1333 1333 1333 1333 1333 1333 1333 1338 1338 1338 1338 1338 1338 1338 1338 1338 1338 1333 1333 1333 1333 1333 1333 1333 1333 1333 1338 1338 1338 1338 1338 1338 1338 1343 1343 1343 1349 1349 1349 1349 1349 1349 1343 1343 1343 1343 1338 1338 1343 1343 1338 1338 1343 1343 1343 1343 1343 1343 1343 1343 1458 1458 1458 1458 1458 1464 1464 1464 1464 1464 1464 1464 1464 1464 1458 1458 1458 1458 1458 1458 1464 1464 1470 1470 1470 1470 1470 1470 1470 1470 1464 1464 1464 1470 1464 1464 1470 1470 1470 1470 1470 1464 1464 1464 1464 1464 1464 1464 1464 1464 1464 1464 1464 1464 1464 1278 1278 1278 1278 1278 1278 1278 1278 1278 1278 1283 1283 1283 1288 1288 1288 1288 1288 1288 1292 1292 1292 1292 1288 1288 1292 1288 1288 1288 1288 1288 1288 1292 1292 1288 1288 1288 1288 1288 1288 1288 1288 1288 1288 1288 1288 1288 1288 1288 1288 1288 1288 1288 1288 1288 1288 1288 1288 1288 1288 1288 1288 1288 1288 1288 1288 1288 1288 1288 1288 1288 1288 1288 1288 1288 1288 1288 1288 1288 1288 1283 1283 1288 1288 1288 1288 1288 1288 1288 1288 1288 1288 1288 1288 1288 1288 1292 1292 1292 1297 1297 1297 1297 1297 1297 1302 1302 1302 1302 1302 1302 1302 1302 1302 1302 1302 1302 1302 1302 1307 1307 1307 1307 1302 1302 1302 1297 1297 1297 1297 1292 1292 1292 1297 1297 1297 1297 1297 1509 1509 1503 1503 1503 1503 1503 1503 1503 1496 1496 1503 1503 1503 1503 1503 1509 1509 1509 1503 1503 1503 1496 1496 1496 1496 1496 1496 1496 1496 1496 1496 1496 1496 1496 1496 1496 1496 1503 1503 1503 1503 1503 1503 1503 1503 1503 1503 1503 1503 1503 1503 1503 1503 1503 1503 1503 1503 1503 1503 1503 1496 1496 1496 1496 1496 1496 1503 1503 1503 1503 1503 1503 1503 1496 1496 1496 1496 1496 1496 1496 1496 1496 1496 1496 1489 1489 1477 1477 3010 3037 3037 3037 3037 3037 3037 3064 3037 3037 3037 3037 3064 3064 3037 3037 3037 3037 3037 3037 3037 3037 3037 3037 3037 3037 3037 3037 3037 3037 3037 3037 3037 3037 3037 3037 3037 3037 3037 3037 3037 3037 3037 3037 3037 3037 3037 3037 3037 3037 3037 3037 3010 3010 3037 3010 3010 3037 3010 3010 3037 3037 3037 3037 3037 3037 3037 3037 3037 3037 3037 3037 3037 3037 3010 2958 2933 2933 2908 2908 2908 2908 2908 2908 2908 2908 2908 2933 2958 2984 3010 3010 3037 3037 3037 3037 3037 3064 3064 3064 3064 3064 3037 3010 3010 3010 3010 3010 3010 3010 3010 3010 3010 3010 3010 3010 3010 3010 3010 3010 3010 3010 3010 3010 3010 2984 2984 2958 2933 2933 2908 2883 2859 2859 2859 2859 2835 2812 2812 2812 2812 2812 2812 2812 2812 0 0 0 0 0 0 0 0 0 0
0 0 0 0 0 0 0 0 0 0 0 0 0 0 0 0 0 0 0 0 0 0 0 0 0 0 0 0 0 0 0 0 2835 2835 2835 2835 2835 2859 2859 2835 2835 2835 2835 2835 2835 2835 2835 2859 2859 2859 0 0 0 0 1415 1415 1415 1415 1415 1415 1415 1421 1421 1421 1421 1421 1312 1312 1317 1317 1317 1317 1317 1317 1317 1317 1317 1317 1317 1317 1317 1317 1317 1317 1317 1317 1317 1322 1322 1322 1322 1322 1322 1317 1317 1317 1317 1317 1317 1317 1317 1322 1322 1322 1322 1322 1328 1328 1328 1328 1322 1322 1322 1322 1322 1322 1322 1322 1322 1322 1322 1322 1322 1322 1322 1322 1322 1322 1322 1322 1322 1322 1322 1322 1322 1328 1322 1322 1333 1333 1333 1333 1333 1333 1338 1338 1338 1338 1338 1338 1338 1338 1338 1338 1338 1338 1338 1338 1338 1333 1333 1333 1333 1333 1333 1333 1338 1333 1333 1333 1338 1338 1338 1338 1338 1338 1343 1343 1343 1349 1349 1349 1349 1349 1349 1349 1343 1343 1343 1343 1343 1343 1343 1343 1343 1343 1343 1349 1349 1349 1349 1349 1349 1464 1464 1464 1464 1464 1464 1464 1464 1464 1464 1464 1464 1464 1464 1458 1458 1458 1458 1458 1464 1464 1464 1470 1470 1470 1470 1470 1470 1470 1470 1464 1464 1464 1470 1470 1470 1470 1470 1470 1470 1470 1464 1464 1464 1464 1464 1464 1464 1464 1464 1464 1464 1464 1464 1464 1278 1278 1278 1278 1278 1278 1278 1278 1283 1283 1283 1283 1283 1288 1288 1288 1288 1292 1292 1292 1292 1292 1292 1292 1292 1292 1292 1292 1292 1292 1292 1292 1292 1292 1292 1292 1292 1292 1288 1288 1288 1288 1288 1288 1288 1288 1288 1288 1288 1292 1292 1292 1292 1292 1292 1288 1288 1288 1288 1288 1288 1288 1288 1288 1288 1288 1288 1288 1288 1288 1292 1292 1292 1292 1292 1288 1288 1288 1288 1288 1288 1288 1288 1288 1288 1288 1288 1288 1288 1288 1288 1288 1288 1292 1292 1292 1292 1297 1297 1297 1297 1297 1302 1302 1302 1302 1302 1302 1302 1307 1307 1307 1302 1302 1302 1302 1302 1302 1302 1307 1307 1307 1307 1307 1302 1302 1297 1297 1297 1297 1297 1297 1297 1297 1297 1297 1297 1297 1302 1509 1503 1503 1503 1503 1503 1503 1503 1503 1503 1503 1503 1503 1503 1503 1509 1509 1509 1503 1503 1503 1496 1496 1496 1496 1496 1496 1496 1496 1496 1496 1496 1496 1496 1496 1496 1503 1503 1503 1503 1503 1503 1503 1503 1503 1503 1503 1503 1503 1503 1503 1503 1503 1503 1503 1503 1503 1503 1503 1503 1503 1503 1496 1496 1503 1503 1503 1503 1503 1503 1503 1503 1503 1496 1496 1496 1496 1496 1496 1496 1496 1496 1496 1496 1489 1489 1477 1470 1470 3037 3037 3037 3010 3010 3037 3037 3037 3037 3037 3037 3064 3037 3037 3010 3010 3037 3010 3010 3010 3010 3037 3037 3037 3010 3010 3010 3010 3010 3010 3010 3010 3010 3010 3010 3010 3010 3037 3037 3037 3037 3037 3037 3010 3010 3010 3010 3037 3037 3010 3010 3010 3010 3010 3010 3010 3010 3010 3010 3010 3037 3037 3037 3037 3037 3037 3037 3037 3037 3037 3037 3037 3010 2984 2958 2933 2933 2908 2908 2908 2908 2908 2908 2908 2908 2908 2933 2958 2984 3010 3010 3037 3037 3037 3037 3037 3037 3037 3037 3037 3037 3010 3010 3010 3010 3010 3010 3010 3010 3010 3010 3010 3010 2984 2984 2984 2984 2984 3010 3010 2984 2984 3010 3010 2984 2984 2958 2933 2933 2908 2883 2859 2859 2859 2859 2835 2812 2812 2812 2812 2812 2812 2812 2812 0 0 0 0 0 0 0 0 0 0
0 0 0 0 0 0 0 0 0 0 0 0 0 0 0 0 0 0 0 0 0 0 0 0 0 0 0 0 0 0 0 0 2835 2835 2812 2812 2835 2835 2835 2812 2812 2812 2812 2812 2812 2812 2812 2835 2812 2812 0 0 0 0 1415 1415 1415 1421 1415 1415 1421 1421 1421 1421 1421 1421 1312 1312 1317 1322 1317 1317 1317 1317 1317 1317 1317 1317 1317 1317 1317 1317 1317 1317 1322 1322 1322 1322 1322 1322 1322 1322 1322 1317 1317 1317 1317 1317 1317 1317 1317 1322 1322 1322 1322 1322 1328 1328 1328 1328 1322 1322 1322 1322 1322 1322 1322 1322 1322 1322 1328 1328 1328 1322 1322 1322 1322 1322 1322 1322 1322 1322 1322 1328 1328 1328 1328 1328 1333 1333 1333 1338 1338 1338 1338 1338 1338 1338 1338 1338 1338 1338 1338 1338 1338 1338 1338 1333 1333 1333 1333 1333 1333 1333 1333 1333 1333 1333 1333 1333 1333 1338 1338 1338 1338 1343 1343 1343 1349 1349 1349 1349 1349 1349 1349 1349 1349 1349 1349 1349 1349 1349 1349 1343 1343 1349 1349 1349 1349 1349 1349 1349 1349 1464 1464 1464 1464 1464 1464 1464 1464 1464 1464 1464 1464 1464 1464 1464 1464 1464 1464 1464 1464 1464 1464 1470 1470 1470 1470 1470 1470 1470 1470 1470 1470 1470 1470 1470 1470 1470 1470 1470 1470 1470 1464 1464 1464 1464 1464 1464 1464 1464 1464 1464 1464 1464 1470 1477 1278 1278 1278 1283 1278 1278 1283 1283 1283 1283 1283 1288 1288 1288 1288 1292 1292 1292 1292 1292 1292 1292 1292 1292 1292 1292 1292 1292 1292 1292 1292 1292 1292 1292 1292 1292 1292 1292 1292 1292 1292 1288 1288 1288 1288 1292 1292 1292 1292 1292 1292 1292 1292 1292 1292 1292 1292 1288 1288 1288 1288 1288 1288 1288 1292 1292 1292 1292 1292 1292 1292 1292 1292 1292 1292 1288 1288 1288 1288 1288 1288 1288 1288 1288 1288 1288 1288 1288 1288 1292 1292 1292 1292 1297 1297 1297 1297 1297 1302 1302 1302 1302 1302 1302 1302 1302 1302 1302 1302 1307 1307 1307 1302 1302 1302 1307 1307 1307 1307 1307 1307 1307 1307 1307 1302 1302 1302 1297 1297 1297 1297 1297 1302 1302 1302 1302 1302 1302 1302 1302 1503 1503 1503 1503 1503 1503 1503 1503 1503 1503 1503 1503 1503 1509 1509 1509 1509 1503 1503 1503 1496 1496 1496 1496 1496 1496 1496 1496 1496 1496 1503 1503 1503 1503 1503 1503 1503 1503 1503 1503 1503 1503 1503 1503 1503 1503 1503 1503 1503 1503 1503 1503 1503 1503 1503 1503 1503 1503 1503 1503 1503 1503 1503 1503 1503 1503 1503 1503 1503 1503 1503 1503 1503 1503 1496 1496 1496 1496 1496 1496 1496 1496 1496 1489 1489 1477 1470 1470 3010 3010 3010 3010 3010 3010 3037 3037 3010 3010 3037 3037 3037 3037 3010 3010 3010 3010 2984 2984 3010 3010 3010 3010 3010 3010 3010 2984 2984 2984 2984 2984 2984 2984 2984 3010 3010 3010 3010 3010 3010 3010 3010 2984 2984 3010 3010 3010 3010 3010 3010 2984 2984 3010 2984 2984 2984 2984 2984 2984 3010 3010 3010 3010 3010 3037 3037 3037 3037 3010 3010 3010 3010 2984 2933 2933 2933 2933 2908 2908 2908 2908 2908 2908 2908 2933 2933 2984 2984 3010 3010 3010 3037 3037 3010 3010 3010 3037 3037 3037 3037 3010 3010 3010 3010 3010 3010 3010 3010 3010 3010 2958 2958 2984 2958 2958 2958 2958 2958 2958 2984 2958 2958 2984 2984 2958 2933 2933 2933 2908 2883 2859 2859 2835 2835 2835 2812 2812 2812 2812 2812 2812 2812 2812 0 0 0 0 0 0 0 0 0 0
0 0 0 0 0 0 0 0 0 0 0 0 0 0 0 0 0 0 0 0 0 0 0 0 0 0 0 0 0 0 0 0 2835 2812 2812 2812 2835 2812 2812 2812 2812 2812 2812 2812 2812 2812 2812 2812 2812 2812 2812 0 0 0 1415 1415 1415 1421 1421 1421 1421 1421 1421 1421 1427 1427 1317 1317 1322 1322 1317 1317 1317 1317 1317 1317 1317 1317 1317 1317 1317 1317 1317 1322 1322 1322 1322 1322 1322 1322 1322 1322 1322 1322 1317 1317 1317 1317 1317 1317 1317 1317 1317 1317 1317 1322 1322 1322 1328 1328 1328 1322 1322 1322 1322 1322 1322 1322 1322 1322 1328 1328 1322 1322 1322 1322 1322 1322 1322 1322 1322 1322 1322 1328 1328 1328 1322 1322 1333 1333 1333 1338 1338 1338 1338 1338 1338 1338 1338 1338 1338 1338 1338 1338 1338 1338 1338 1333 1333 1333 1333 1333 1333 1333 1333 1333 1333 1333 1333 1333 1333 1333 1338 1338 1338 1343 1343 1343 1349 1349 1349 1349 1349 1349 1349 1349 1349 1349 1349 1349 1349 1349 1349 1349 1349 1349 1349 1349 1349 1354 1349 1349 1349 1349 1464 1464 1464 1464 1464 1464 1464 1464 1464 1464 1464 1464 1464 1458 1458 1464 1464 1464 1464 1464 1464 1470 1470 1470 1470 1470 1470 1470 1470 1470 1470 1470 1470 1470 1470 1470 1470 1470 1470 1470 1464 1464 1464 1464 1464 1464 1464 1464 1464 1464 1464 1470 1470 1477 1477 1283 1283 1283 1283 1283 1283 1283 1283 1283 1288 1288 1288 1288 1288 1292 1292 1292 1292 1292 1292 1292 1292 1292 1292 1292 1292 1292 1292 1292 1292 1292 1292 1292 1292 1292 1292 1292 1292 1292 1292 1292 1292 1292 1292 1292 1292 1292 1292 1292 1292 1292 1292 1292 1292 1292 1292 1292 1292 1292 1292 1292 1292 1292 1292 1292 1292 1292 1292 1292 1292 1292 1292 1292 1292 1288 1288 1288 1288 1292 1288 1288 1292 1292 1288 1288 1292 1292 1292 1292 1292 1297 1297 1297 1297 1297 1302 1302 1302 1302 1302 1302 1302 1302 1302 1307 1307 1307 1307 1307 1307 1307 1307 1307 1307 1307 1307 1307 1307 1307 1312 1312 1312 1307 1307 1307 1302 1302 1302 1302 1302 1302 1302 1302 1302 1302 1302 1302 1302 1302 1503 1503 1503 1503 1503 1503 1503 1503 1496 1496 1503 1503 1503 1503 1503 1503 1503 1503 1503 1503 1496 1496 1489 1489 1496 1496 1496 1496 1496 1496 1503 1503 1503 1503 1503 1503 1503 1503 1503 1503 1503 1503 1503 1503 1503 1503 1503 1503 1503 1503 1503 1503 1503 1503 1503 1503 1503 1503 1503 1503 1503 1503 1503 1503 1503 1503 1503 1503 1503 1503 1503 1503 1503 1503 1496 1496 1503 1503 1503 1496 1496 1496 1496 1489 1489 1477 1470 1470 2984 2984 2984 2984 3010 3010 3010 3010 3010 3010 3010 3037 3010 3010 2984 2984 2984 2984 2984 2984 2984 3010 2984 2984 2984 2984 2984 2984 2984 2984 2984 2984 2984 2984 2984 2984 2984 2984 2984 3010 3010 2984 2984 2984 2984 2984 2984 2984 2984 2984 2984 2984 2984 2984 2984 2984 2984 2984 2958 2958 2984 2984 2984 2984 2984 3010 3010 3010 3010 3010 2984 2984 2984 2958 2933 2933 2933 2933 2908 2908 2908 2908 2908 2908 2908 2933 2933 2958 2984 2984 2984 3010 3010 3010 3010 3010 3010 3010 3010 3037 3037 3010 2984 2984 3010 2984 2984 2984 2984 2984 2984 2958 2958 2958 2958 2958 2958 2958 2958 2958 2958 2958 2958 2958 2958 2958 2933 2933 2933 2908 2883 2859 2859 2835 2835 2835 2812 2812 2812 2812 2812 2812 2812 2812 0 0 0 0 0 0 0 0 0 0
0 0 0 0 0 0 0 0 0 0 0 0 0 0 0 0 0 0 0 0 0 0 0 0 0 0 0 0 0 0 0 0 2812 2812 2812 2812 2812 2812 2812 2789 2789 2789 2789 2789 2812 2812 2812 2812 2812 2812 2812 0 0 0 0 1415 1415 1421 1421 1421 1421 1421 1421 1421 1427 1427 1322 1322 1322 1322 1317 1317 1317 1317 1317 1317 1317 1317 1317 1317 1322 1322 1322 1322 1322 1322 1322 1322 1322 1333 1433 1433 1439 1322 1317 1317 1317 1317 1317 1317 1317 1317 1317 1317 1317 1322 1322 1322 1328 1328 1322 1322 1322 1322 1322 1322 1322 1317 1317 1322 1328 1328 1322 1322 1322 1322 1317 1317 1317 1322 1322 1322 1322 1328 1328 1328 1322 1322 1333 1333 1333 1338 1338 1338 1338 1338 1338 1338 1338 1338 1338 1338 1338 1338 1338 1338 1338 1333 1333 1333 1333 1333 1333 1464 1333 1333 1333 1333 1333 1333 1333 1333 1338 1338 1338 1343 1343 1343 1464 1458 1458 1458 1458 1458 1458 1349 1349 1349 1349 1349 1349 1349 1349 1349 1349 1349 1354 1354 1354 1354 1349 1349 1349 1349 1464 1464 1464 1464 1464 1464 1464 1464 1464 1464 1464 1464 1464 1458 1458 1464 1464 1464 1464 1464 1464 1470 1470 1470 1470 1470 1470 1470 1470 1470 1470 1470 1470 1470 1470 1470 1470 1470 1470 1470 1464 1464 1464 1464 1464 1464 1464 1464 1470 1470 1470 1470 1470 1477 1477 1283 1283 1283 1283 1283 1283 1288 1288 1288 1288 1288 1288 1288 1292 1292 1292 1292 1292 1292 1292 1292 1292 1292 1292 1292 1292 1292 1292 1292 1292 1292 1292 1292 1292 1292 1292 1292 1292 1292 1292 1292 1292 1292 1292 1292 1292 1292 1292 1292 1292 1292 1292 1292 1292 1292 1292 1292 1292 1292 1292 1292 1292 1292 1292 1292 1292 1292 1292 1292 1292 1292 1292 1292 1297 1292 1292 1292 1292 1292 1292 1292 1292 1292 1292 1292 1292 1292 1292 1292 1297 1297 1297 1302 1302 1302 1302 1302 1302 1302 1302 1302 1307 1307 1307 1307 1307 1307 1307 1307 1307 1307 1307 1307 1307 1307 1307 1307 1307 1312 1312 1312 1312 1312 1307 1307 1307 1302 1302 1302 1302 1302 1302 1302 1302 1302 1302 1302 1302 1302 1302 1503 1503 1503 1503 1503 1503 1503 1496 1496 1503 1503 1503 1503 1503 1503 1503 1503 1503 1503 1496 1496 1489 1489 1489 1489 1489 1496 1496 1503 1503 1503 1503 1503 1503 1503 1503 1503 1503 1503 1503 1503 1503 1503 1503 1503 1503 1503 1503 1503 1503 1503 1503 1503 1503 1503 1503 1503 1503 1503 1503 1503 1503 1503 1503 1503 1503 1503 1503 1503 1503 1503 1503 1503 1503 1503 1503 1503 1503 1503 1503 1503 1503 1496 1496 1477 1477 2984 2984 2984 2984 2984 2984 2984 3010 3010 2984 2984 3010 3010 3010 2984 2984 2984 2984 2958 2958 2958 2958 2984 2984 2984 2984 2958 2958 2958 2958 2958 2958 2958 2958 2958 2984 2984 2984 2984 2984 2984 2984 2958 2958 2958 2958 2958 2958 2958 2958 2958 2984 2984 2984 2984 2984 2958 2958 2958 2958 2958 2958 2958 2958 2984 2984 2984 3010 3010 3010 2984 2984 2984 2958 2958 2933 2933 2933 2933 2908 2908 2908 2908 2908 2908 2908 2933 2933 2958 2984 2984 2984 2984 2984 2984 2984 2984 2984 3010 3010 3010 3010 2984 2984 2958 2958 2984 2958 2958 2984 2984 2984 2958 2958 2958 2958 2958 2933 2933 2933 2958 2933 2933 2933 2958 2958 2933 2933 2933 2933 2908 2883 2859 2859 2835 2835 2835 2812 2812 2812 2812 2812 2812 2812 2812 0 0 0 0 0 0 0 0 0 0
0 0 0 0 0 0 0 0 0 0 0 0 0 0 0 0 0 0 0 0 0 0 0 0 0 0 0 0 0 0 0 0 2812 2789 2789 2789 2789 2789 2789 2789 2789 2789 2789 2789 2789 2789 2789 2812 2789 2789 2812 0 0 0 0 1421 1421 1421 1421 1421 1421 1421 1427 1427 1427 1427 1427 1322 1322 1322 1317 1317 1317 1317 1317 1317 1317 1317 1317 1317 1322 1322 1322 1322 1322 1322 1322 1322 1333 1433 1433 1433 1439 1445 1317 1317 1317 1445 1445 1445 1445 1445 1445 1445 1322 1322 1322 1322 1452 1328 1322 1322 1322 1322 1322 1322 1322 1317 1317 1322 1322 1322 1322 1322 1322 1322 1317 1317 1317 1322 1322 1322 1458 1458 1458 1458 1458 1458 1333 1333 1333 1338 1338 1338 1338 1338 1338 1338 1338 1338 1338 1338 1338 1458 1458 1458 1452 1452 1458 1458 1458 1458 1458 1458 1458 1333 1333 1333 1452 1333 1333 1333 1458 1464 1464 1464 1464 1464 1464 1458 1458 1458 1458 1464 1464 1349 1349 1349 1349 1349 1349 1349 1349 1349 1349 1349 1354 1354 1354 1354 1354 1349 1349 1349 1464 1464 1464 1464 1470 1464 1464 1464 1464 1464 1464 1464 1464 1458 1458 1464 1464 1464 1464 1464 1470 1470 1470 1470 1470 1470 1470 1470 1470 1470 1470 1470 1470 1470 1470 1470 1470 1470 1470 1470 1464 1464 1464 1464 1470 1464 1464 1470 1470 1470 1470 1470 1470 1477 1477 1283 1283 1288 1288 1288 1288 1288 1288 1288 1288 1288 1288 1292 1292 1292 1297 1297 1297 1297 1297 1297 1297 1297 1297 1292 1292 1292 1292 1292 1292 1292 1292 1292 1292 1297 1292 1292 1292 1292 1292 1292 1292 1292 1292 1297 1297 1292 1292 1292 1292 1292 1292 1292 1292 1292 1292 1292 1292 1292 1292 1292 1292 1297 1292 1292 1292 1292 1297 1297 1297 1297 1297 1297 1297 1292 1292 1292 1292 1292 1292 1292 1297 1297 1292 1292 1292 1292 1292 1297 1297 1297 1297 1302 1302 1302 1302 1302 1302 1302 1302 1307 1307 1307 1307 1307 1307 1307 1307 1307 1307 1307 1312 1312 1312 1312 1307 1307 1307 1312 1312 1312 1312 1312 1312 1307 1307 1307 1307 1302 1302 1302 1302 1302 1302 1302 1302 1302 1302 1302 1302 1503 1503 1503 1496 1496 1503 1496 1496 1496 1496 1496 1496 1503 1503 1503 1503 1503 1503 1503 1496 1496 1489 1489 1489 1489 1489 1496 1496 1503 1503 1503 1503 1503 1503 1503 1503 1503 1503 1503 1503 1503 1503 1503 1503 1503 1503 1503 1503 1503 1503 1503 1503 1503 1503 1503 1503 1503 1503 1503 1503 1503 1503 1503 1503 1503 1503 1503 1503 1503 1503 1503 1503 1503 1503 1503 1503 1503 1503 1503 1503 1503 1496 1496 1483 1483 2984 2984 2984 2984 2984 2984 2984 2984 2984 2984 2984 2984 2984 3010 3010 2984 2984 2984 2984 2958 2958 2958 2958 2958 2958 2958 2958 2958 2958 2958 2958 2958 2958 2958 2958 2958 2958 2984 2984 2984 2984 2984 2984 2958 2958 2958 2958 2958 2958 2958 2958 2958 2958 2958 2958 2958 2958 2958 2958 2958 2958 2958 2958 2958 2958 2958 2958 2958 2984 2984 2984 2984 2984 2984 2958 2958 2933 2933 2933 2933 2908 2908 2908 2908 2908 2933 2933 2933 2933 2958 2958 2958 2984 2984 2984 2984 2984 2984 2984 2984 2984 2984 2984 2984 2958 2958 2958 2958 2958 2958 2958 2958 2984 2958 2958 2958 2958 2933 2933 2933 2933 2933 2933 2908 2908 2908 2933 2933 2908 2908 2908 2908 2883 2859 2859 2835 2835 2835 2812 2812 2812 2812 2812 2812 2812 2812 0 0 0 0 0 0 0 0 0 0
0 0 0 0 0 0 0 0 0 0 0 0 0 0 0 0 0 0 0 0 0 0 0 0 0 0 0 0 0 0 0 0 2789 2789 2789 2789 2789 2789 2789 2789 2789 2789 2789 2789 2789 2789 2789 2789 2789 2789 2812 0 0 0 0 1421 1421 1421 1427 1427 1427 1427 1427 1427 1427 1433 1433 1433 1322 1322 1317 1317 1317 1317 1317 1317 1317 1317 1317 1322 1322 1328 1328 1328 1328 1328 1328 1328 1433 1433 1433 1433 1439 1439 1445 1445 1445 1445 1445 1445 1445 1445 1439 1439 1445 1445 1445 1445 1445 1452 1452 1452 1452 1452 1452 1452 1445 1445 1445 1445 1322 1322 1452 1452 1452 1458 1458 1458 1458 1458 1452 1452 1458 1458 1458 1458 1458 1458 1458 1458 1458 1458 1458 1458 1458 1458 1458 1458 1458 1458 1458 1458 1458 1458 1458 1458 1452 1452 1458 1458 1458 1458 1458 1458 1452 1452 1452 1452 1452 1452 1452 1452 1452 1464 1464 1464 1464 1464 1464 1458 1458 1458 1458 1464 1464 1464 1354 1349 1349 1349 1349 1349 1354 1349 1349 1354 1354 1354 1354 1354 1354 1349 1349 1349 1464 1464 1464 1464 1464 1464 1464 1464 1464 1464 1464 1464 1464 1464 1464 1464 1464 1464 1464 1470 1470 1470 1470 1470 1470 1470 1470 1470 1470 1470 1470 1470 1470 1470 1470 1470 1470 1470 1470 1470 1464 1464 1464 1464 1470 1470 1470 1470 1470 1470 1470 1470 1477 1477 1283 1283 1283 1288 1288 1288 1288 1288 1288 1288 1288 1292 1292 1292 1292 1292 1297 1297 1297 1302 1302 1302 1297 1297 1297 1297 1297 1297 1292 1292 1292 1292 1292 1297 1297 1297 1297 1297 1297 1297 1297 1297 1297 1297 1297 1297 1297 1292 1292 1292 1292 1292 1292 1292 1292 1297 1297 1297 1297 1297 1292 1292 1297 1297 1297 1297 1297 1297 1297 1297 1297 1302 1302 1302 1302 1297 1297 1297 1297 1297 1297 1297 1297 1297 1297 1297 1297 1297 1297 1297 1297 1302 1302 1302 1302 1302 1302 1302 1307 1307 1307 1307 1307 1307 1307 1307 1307 1307 1307 1307 1312 1312 1312 1312 1312 1312 1312 1312 1312 1312 1312 1317 1317 1312 1312 1312 1307 1307 1307 1307 1307 1307 1307 1307 1307 1307 1307 1307 1302 1302 1302 1503 1503 1503 1496 1496 1496 1496 1489 1489 1489 1496 1496 1496 1496 1496 1496 1496 1496 1496 1489 1489 1489 1489 1489 1489 1489 1489 1489 1503 1503 1503 1503 1503 1503 1503 1503 1503 1503 1503 1503 1503 1503 1503 1503 1503 1503 1503 1503 1503 1503 1503 1503 1503 1503 1503 1503 1503 1503 1503 1503 1503 1503 1503 1503 1503 1503 1503 1503 1503 1503 1503 1503 1503 1503 1503 1503 1503 1503 1503 1503 1503 1496 1496 1483 1483 2958 2958 2958 2958 2958 2958 2958 2958 2958 2958 2958 2958 2958 2984 2984 2984 2984 2958 2958 2958 2958 2958 2958 2958 2958 2958 2958 2958 2958 2958 2958 2958 2958 2958 2958 2958 2958 2958 2958 2958 2958 2958 2958 2958 2958 2958 2958 2958 2958 2958 2958 2958 2958 2958 2958 2958 2958 2958 2958 2958 2933 2933 2958 2958 2958 2958 2958 2958 2958 2958 2958 2958 2958 2958 2958 2958 2933 2933 2933 2933 2933 2908 2908 2908 2908 2933 2933 2933 2933 2958 2958 2958 2958 2958 2958 2958 2958 2958 2958 2984 2984 2984 2984 2984 2958 2933 2933 2933 2933 2933 2933 2958 2958 2933 2933 2933 2933 2933 2933 2933 2933 2933 2908 2908 2908 2908 2908 2908 2908 2908 2908 2908 2883 2859 2859 2859 2835 2835 2812 2812 2812 2812 2812 2812 2812 2812 0 0 0 0 0 0 0 0 0 0
0 0 0 0 0 0 0 0 0 0 0 0 0 0 0 0 0 0 0 0 0 0 0 0 0 0 0 0 0 0 0 0 2789 2767 2767 2767 2767 2767 2767 2767 2767 2767 2767 2767 2767 2767 2789 2789 2789 2789 2812 2812 0 0 1421 1421 1421 1427 1427 1427 1427 1433 1433 1433 1433 1433 1433 1433 1322 1322 1317 1317 1317 1317 1317 1317 1317 1317 1322 1322 1328 1333 1333 1333 1333 1333 1328 1328 1433 1433 1433 1433 1433 1439 1439 1439 1439 1445 1445 1445 1445 1439 1439 1439 1439 1439 1439 1445 1445 1445 1445 1445 1445 1445 1452 1445 1445 1445 1445 1445 1445 1452 1452 1452 1452 1452 1452 1452 1452 1452 1452 1452 1452 1452 1452 1452 1452 1452 1458 1458 1458 1458 1458 1458 1458 1458 1458 1458 1458 1458 1458 1458 1458 1458 1458 1458 1452 1452 1458 1458 1458 1458 1458 1452 1452 1452 1452 1452 1452 1452 1452 1452 1452 1458 1464 1464 1464 1470 1464 1464 1464 1464 1464 1464 1464 1464 1464 1349 1349 1349 1349 1354 1354 1354 1354 1354 1354 1354 1354 1354 1354 1354 1354 1354 1464 1464 1464 1464 1464 1464 1464 1464 1464 1464 1464 1464 1464 1464 1464 1464 1464 1470 1470 1470 1470 1470 1470 1470 1470 1470 1470 1470 1470 1470 1470 1470 1470 1470 1470 1470 1470 1470 1470 1470 1470 1464 1464 1470 1470 1470 1470 1470 1470 1470 1470 1470 1477 1483 1283 1283 1283 1288 1288 1288 1288 1288 1288 1288 1292 1292 1292 1292 1292 1292 1297 1297 1302 1302 1302 1302 1302 1302 1302 1302 1297 1297 1297 1297 1297 1297 1297 1297 1297 1297 1297 1297 1297 1297 1297 1297 1297 1297 1297 1297 1297 1297 1292 1292 1292 1297 1297 1297 1297 1297 1297 1297 1297 1297 1297 1297 1297 1297 1302 1297 1297 1297 1302 1302 1302 1302 1302 1302 1302 1297 1297 1297 1297 1297 1297 1297 1302 1297 1297 1297 1297 1297 1297 1302 1302 1302 1302 1302 1302 1307 1307 1307 1307 1307 1307 1307 1307 1307 1307 1307 1307 1307 1312 1312 1312 1312 1317 1317 1312 1312 1312 1312 1312 1317 1317 1317 1317 1312 1312 1312 1312 1307 1307 1307 1307 1307 1307 1307 1307 1307 1307 1307 1307 1302 1302 1503 1503 1496 1496 1489 1489 1489 1489 1489 1489 1489 1489 1496 1496 1496 1496 1496 1496 1496 1489 1489 1489 1489 1489 1489 1489 1489 1489 1503 1503 1503 1503 1509 1509 1503 1503 1503 1503 1503 1503 1503 1503 1503 1503 1503 1503 1503 1503 1503 1503 1503 1503 1496 1496 1503 1503 1503 1503 1503 1503 1509 1503 1503 1503 1503 1503 1503 1503 1503 1503 1503 1503 1509 1503 1503 1503 1503 1503 1503 1503 1503 1503 1503 1503 1503 2958 2958 2958 2933 2933 2933 2933 2933 2933 2933 2933 2958 2958 2958 2958 2984 2984 2958 2958 2958 2933 2933 2933 2933 2933 2933 2933 2933 2933 2933 2933 2933 2933 2933 2933 2933 2933 2933 2933 2933 2933 2933 2933 2933 2933 2958 2958 2958 2958 2958 2958 2958 2958 2958 2958 2958 2958 2958 2958 2958 2933 2933 2933 2933 2933 2933 2933 2933 2933 2958 2958 2958 2958 2958 2958 2958 2933 2933 2933 2933 2933 2908 2908 2908 2908 2933 2933 2933 2933 2958 2958 2958 2958 2958 2958 2958 2958 2958 2958 2958 2958 2958 2958 2958 2933 2933 2933 2908 2908 2908 2933 2933 2933 2933 2933 2933 2933 2933 2933 2908 2908 2908 2908 2883 2883 2883 2908 2908 2908 2908 2908 2908 2883 2859 2859 2859 2835 2835 2812 2812 2812 2812 2812 2812 2812 2812 0 0 0 0 0 0 0 0 0 0
0 0 0 0 0 0 0 0 0 0 0 0 0 0 0 0 0 0 0 0 0 0 0 0 0 0 0 0 0 0 0 0 2767 2767 2767 2767 2767 2767 2767 2767 2767 2767 2744 2744 2744 2767 2767 2767 2789 2789 2812 0 0 0 0 1427 1427 1427 1427 1433 1433 1433 1433 1433 1433 1433 1433 1433 1317 1317 1322 1322 1322 1322 1322 1322 1322 1322 1322 1328 1333 1333 1338 1343 1343 1343 1433 1433 1433 1433 1433 1433 1433 1433 1439 1439 1439 1439 1439 1439 1439 1439 1439 1439 1439 1439 1439 1445 1445 1445 1445 1445 1445 1445 1452 1445 1445 1445 1445 1445 1445 1452 1452 1452 1452 1452 1452 1452 1452 1452 1452 1452 1452 1452 1452 1452 1452 1452 1458 1458 1458 1458 1458 1458 1458 1458 1458 1458 1458 1458 1458 1458 1458 1458 1458 1458 1452 1452 1458 1458 1458 1458 1458 1452 1452 1452 1452 1452 1452 1452 1452 1452 1452 1458 1464 1464 1464 1464 1470 1464 1464 1464 1464 1464 1464 1464 1464 1464 1354 1354 1354 1354 1354 1354 1354 1354 1354 1354 1354 1354 1354 1354 1354 1359 1464 1464 1458 1458 1464 1458 1458 1464 1464 1464 1464 1464 1464 1464 1464 1464 1470 1470 1470 1470 1470 1470 1470 1470 1470 1470 1470 1464 1464 1470 1470 1470 1470 1470 1470 1470 1470 1470 1470 1470 1470 1470 1470 1470 1470 1470 1470 1470 1470 1470 1470 1470 1477 1477 1288 1288 1288 1288 1288 1288 1288 1288 1288 1292 1292 1292 1292 1292 1292 1297 1297 1302 1302 1302 1302 1302 1302 1302 1302 1302 1302 1302 1297 1297 1297 1297 1297 1297 1297 1302 1297 1297 1302 1302 1302 1302 1302 1297 1297 1297 1297 1297 1297 1297 1297 1297 1297 1297 1297 1297 1297 1297 1297 1297 1297 1297 1302 1302 1302 1302 1302 1302 1302 1302 1302 1302 1302 1307 1307 1302 1302 1302 1302 1302 1302 1302 1302 1302 1302 1302 1302 1297 1297 1302 1302 1302 1302 1302 1302 1307 1307 1307 1307 1307 1307 1307 1307 1307 1307 1307 1307 1312 1312 1312 1317 1317 1317 1317 1317 1317 1317 1317 1317 1317 1317 1317 1317 1317 1317 1312 1312 1307 1307 1307 1307 1307 1307 1307 1307 1307 1307 1307 1307 1307 1503 1503 1503 1496 1496 1489 1489 1489 1489 1489 1489 1489 1489 1496 1496 1496 2256 2256 2241 1483 1483 1483 1489 1489 1489 1489 1489 1489 1489 1503 1503 1503 1503 1503 1503 1503 1503 1503 1503 1503 1503 1503 1503 1503 1503 1503 1503 1503 1503 1503 1503 1503 1503 1496 1496 1496 1503 1503 1503 1503 1503 1509 1503 1503 1503 1503 1503 1503 1503 1503 1503 1503 1503 1503 1503 1503 1503 1503 1503 1503 1503 1503 1509 1509 1503 1503 2933 2933 2933 2933 2933 2933 2908 2908 2908 2933 2933 2933 2958 2958 2958 2958 2958 2933 2933 2933 2933 2933 2908 2908 2933 2933 2933 2933 2933 2933 2933 2933 2933 2933 2933 2933 2933 2933 2908 2908 2933 2933 2933 2933 2933 2933 2933 2933 2933 2933 2933 2933 2933 2933 2933 2933 2933 2933 2933 2933 2933 2933 2933 2908 2908 2908 2908 2908 2933 2933 2933 2933 2933 2958 2958 2933 2933 2933 2933 2933 2933 2933 2933 2933 2933 2933 2933 2933 2933 2958 2958 2958 2958 2958 2958 2958 2958 2958 2958 2958 2958 2958 2958 2958 2933 2908 2908 2908 2908 2908 2908 2908 2908 2908 2908 2908 2908 2908 2908 2908 2908 2908 2883 2883 2883 2883 2883 2883 2908 2908 2908 2908 2883 2859 2859 2835 2835 2835 2812 2812 2812 2812 2812 2812 2812 2812 0 0 0 0 0 0 0 0 0 0
0 0 0 0 0 0 0 0 0 0 0 0 0 0 0 0 0 0 0 0 0 0 0 0 0 0 0 0 0 0 0 0 2767 2744 2744 2744 2744 2767 2767 2744 2744 2744 2744 2744 2744 2744 2767 2767 2789 2789 2812 0 0 0 0 1427 1427 1433 1433 1433 1433 1433 1433 1433 1439 1439 1439 1439 1317 1317 1317 1317 1322 1322 1322 1322 1322 1322 1322 1328 1333 1333 1338 1343 1343 1343 1427 1427 1433 1433 1433 1433 1433 1433 1439 1439 1439 1439 1439 1439 1439 1439 1439 1439 1439 1439 1439 1439 1439 1439 1445 1445 1445 1445 1445 1445 1445 1445 1445 1445 1445 1445 1452 1452 1452 1452 1452 1452 1452 1452 1452 1452 1452 1452 1452 1452 1452 1452 1458 1458 1458 1458 1458 1458 1458 1458 1458 1458 1458 1458 1458 1458 1458 1458 1458 1458 1452 1452 1452 1452 1452 1458 1458 1452 1452 1452 1452 1452 1452 1452 1452 1452 1452 1458 1464 1464 1464 1464 1470 1464 1464 1464 1464 1464 1464 1464 1464 1464 1354 1354 1354 1354 1354 1354 1354 1354 1354 1354 1354 1354 1354 1359 1359 1359 1359 1458 1458 1458 1464 1458 1458 1464 1464 1464 1464 1464 1464 1464 1464 1470 1470 1470 1470 1470 1470 1470 1470 1470 1470 1470 1470 1464 1464 1470 1470 1470 1470 1470 1470 1470 1470 1470 1470 1470 1470 1470 1470 1470 1470 1470 1470 1477 1470 1470 1470 1470 1470 1470 1292 1292 1292 1292 1292 1292 1292 1292 1292 1292 1292 1292 1292 1292 1292 1297 1302 1302 1307 1307 1307 1307 1307 1307 1307 1307 1302 1302 1302 1302 1302 1302 1302 1302 1302 1302 1302 1302 1302 1302 1302 1302 1302 1297 1297 1297 1297 1297 1297 1297 1297 1297 1297 1297 1297 1297 1297 1302 1302 1297 1297 1302 1302 1302 1302 1302 1302 1302 1302 1302 1302 1307 1307 1307 1307 1302 1302 1302 1302 1302 1302 1302 1302 1302 1302 1302 1302 1302 1302 1302 1302 1302 1302 1302 1307 1307 1307 1307 1307 1307 1307 1307 1307 1307 1307 1307 1307 1312 1312 1312 1317 1317 1322 1322 1317 1317 1317 1317 1317 1317 1317 1317 1317 1317 1317 1317 1317 1312 1312 1312 1312 1312 1312 1312 1312 1312 1307 1307 1307 1307 1926 1926 1926 1915 1915 1915 1915 1926 1489 1489 1496 1496 1496 1503 2256 2256 2241 2241 2241 1483 1483 1483 1489 1489 1489 1489 1489 1489 1489 1503 1503 1503 1503 1503 1503 1503 1503 1503 2933 2933 1503 1503 1503 1503 1503 1503 1503 2933 2933 2958 2958 2908 2908 1496 1496 1496 1503 1503 1503 1503 1503 1509 1503 1503 1503 1503 1503 1503 1503 1503 1503 1503 1503 1503 1503 1503 1503 1503 1503 1503 1503 1503 1509 1509 1509 1509 2883 2883 2908 2908 2908 2908 2883 2883 2908 2908 2933 2933 2933 2933 2933 2933 2933 2908 2908 2908 2908 2908 2908 2908 2908 2908 2908 2908 2908 2908 2908 2933 2933 2933 2908 2908 2908 2908 2908 2908 2908 2933 2933 2933 2933 2933 2933 2933 2933 2933 2933 2933 2933 2933 2933 2933 2933 2933 2933 2933 2933 2908 2908 2908 2908 2908 2883 2883 2908 2908 2908 2908 2933 2933 2933 2933 2933 2933 2933 2933 2908 2908 2908 2908 2933 2933 2933 2933 2933 2933 2933 2933 2933 2933 2933 2933 2958 2933 2933 2958 2958 2958 2958 2933 2908 2908 2908 2908 2908 2908 2908 2908 2908 2908 2908 2883 2883 2883 2883 2883 2883 2883 2883 2859 2859 2883 2883 2883 2883 2883 2908 2908 2883 2859 2835 2835 2835 2835 2835 2812 2812 2812 2812 2812 2812 2812 0 0 0 0 0 0 0 0 0 0
0 0 0 0 0 0 0 0 0 0 0 0 0 0 0 0 0 0 0 0 0 0 0 0 0 0 0 0 0 0 0 0 2744 2744 2744 2744 2744 2744 2744 2744 2723 2723 2744 2723 2723 2744 2744 2744 2744 2744 2789 0 0 0 0 1427 1427 1433 1433 1433 1433 1433 1433 1433 1439 1439 1439 1439 1317 1317 1317 1317 1322 1322 1322 1322 1322 1322 1322 1328 1333 1333 1338 1343 1343 1343 1427 1427 1433 1427 1427 1427 1433 1433 1433 1433 1433 1439 1439 1439 1433 1433 1433 1433 1433 1433 1433 1439 1439 1439 1439 1439 1439 1445 1445 1439 1439 1445 1445 1445 1445 1445 1452 1452 1452 1445 1445 1445 1445 1445 1445 1445 1452 1452 1452 1452 1452 1458 1458 1452 1452 1458 1458 1458 1458 1458 1458 1458 1458 1458 1458 1458 1458 1458 1458 1458 1452 1452 1452 1452 1452 1458 1458 1452 1452 1452 1452 1452 1452 1452 1452 1452 1452 1458 1458 1458 1464 1464 1464 1464 1458 1458 1464 1464 1464 1464 1464 1470 1354 1354 1354 1354 1354 1354 1354 1354 1354 1354 1354 1359 1359 1359 1359 1359 1359 1458 1458 1458 1458 1458 1458 1464 1464 1464 1464 1464 1464 1464 1464 1470 1470 1470 1470 1470 1470 1470 1470 1477 1470 1470 1470 1470 1470 1470 1470 1470 1470 1470 1470 1470 1470 1470 1470 1470 1470 1470 1470 1470 1470 1470 1477 1883 1883 1883 1470 1470 1470 1470 1292 1292 1292 1292 1292 1292 1292 1292 1292 1292 1292 1292 1292 1297 1297 1302 1302 1302 1307 1307 1307 1307 1307 1307 1307 1307 1307 1302 1302 1302 1302 1302 1302 1302 1302 1302 1302 1302 1302 1302 1302 1302 1302 1297 1297 1297 1297 1297 1297 1297 1297 1302 1302 1302 1302 1302 1302 1302 1297 1297 1297 1302 1302 1302 1302 1302 1302 1302 1302 1302 1302 1307 1307 1307 1307 1302 1302 1302 1302 1302 1302 1302 1302 1302 1302 1302 1302 1302 1302 1302 1302 1302 1302 1307 1307 1307 1307 1307 1307 1307 1307 1307 1307 1307 1307 1307 1312 1312 1312 1312 1317 1317 1322 1322 1317 1317 1317 1317 1317 1317 1317 1317 1317 1317 1317 1317 1317 1317 1317 1312 1312 1312 1312 1312 1312 1317 1312 1312 1317 1926 1926 1926 1915 1915 1915 1915 1915 1926 1926 1926 1926 2256 2271 2256 2256 2256 2241 2241 2241 2241 2908 2883 2883 1489 1489 1489 1489 1489 1489 1503 1503 1503 2883 2883 2883 2883 2908 2908 2908 2933 2933 2933 2933 2958 2933 2933 2933 2933 2933 2933 2908 2908 2908 2908 1503 1503 1496 1496 1496 1503 1503 1503 1503 1503 1503 1503 1503 1503 1503 1503 1503 1503 1503 1503 1503 1503 1509 1503 1503 1509 1509 1509 1509 1509 1509 1509 2859 2859 2883 2883 2883 2883 2883 2883 2883 2908 2908 2908 2908 2908 2908 2933 2933 2883 2883 2883 2908 2908 2908 2908 2908 2908 2908 2908 2908 2908 2908 2908 2908 2908 2908 2883 2883 2908 2883 2883 2908 2908 2933 2933 2933 2933 2933 2933 2933 2933 2933 2933 2933 2933 2933 2933 2933 2933 2933 2908 2908 2908 2908 2883 2883 2883 2883 2883 2883 2908 2908 2908 2933 2933 2933 2908 2908 2908 2908 2908 2908 2908 2908 2908 2908 2908 2908 2908 2908 2908 2908 2908 2908 2908 2908 2933 2933 2908 2908 2933 2933 2933 2933 2908 2908 2908 2883 2883 2908 2908 2908 2908 2908 2883 2883 2859 2859 2859 2859 2883 2859 2859 2859 2859 2859 2859 2859 2859 2883 2883 2908 2908 2883 2859 2835 2835 2835 2835 2835 2812 2812 2812 2812 2812 2812 2812 0 0 0 0 0 0 0 0 0 0
0 0 0 0 0 0 0 0 0 0 0 0 0 0 0 0 0 0 0 0 0 0 0 0 0 0 0 0 0 0 0 0 2744 2723 2723 2723 2723 2744 2723 2723 2723 2723 2723 2723 2723 2723 2744 2744 2744 2744 2767 2812 0 0 0 1427 1427 1433 1433 1433 1433 1433 1439 1439 1439 1439 1445 1445 1317 1317 1322 1322 1322 1322 1322 1322 1322 1322 1328 1328 1333 1338 1338 1343 1349 1349 1365 1427 1427 1427 1427 1427 1433 1433 1433 1433 1433 1439 1439 1439 1433 1433 1433 1433 1433 1433 1433 1439 1433 1433 1433 1433 1433 1439 1439 1439 1439 1439 1439 1445 1445 1445 1452 1452 1452 1445 1445 1445 1445 1445 1445 1445 1452 1452 1452 1452 1452 1458 1458 1452 1452 1458 1458 1458 1458 1458 1458 1458 1458 1458 1458 1458 1458 1458 1458 1843 1843 1843 1843 1843 1853 1853 1458 1452 1452 1452 1452 1452 1452 1452 1452 1452 1452 1458 1458 1458 1464 1464 1464 1464 1458 1458 1464 1464 1464 1843 1843 1843 1354 1354 1354 1354 1354 1354 1354 1354 1354 1354 1359 1359 1359 1359 1365 1370 1381 1398 1452 1452 1458 1458 1458 1458 1464 1464 1464 1470 1470 1863 1863 1863 1863 1863 1863 1863 1873 1873 1873 1873 1873 1873 1873 1873 1470 1470 1470 1894 1894 1894 1894 1894 1894 1883 1873 1863 1863 1873 1873 1873 1873 1883 1883 1883 1883 1883 1883 1883 1883 1292 1292 1292 1292 1292 1292 1292 1292 1292 1292 1292 1292 1292 1297 1297 1297 1302 1302 1307 1307 1307 1307 1307 1307 1307 1307 1307 1307 1307 1307 1302 1302 1302 1302 1302 1302 1302 1302 1302 1302 1302 1302 1302 1302 1302 1297 1297 1302 1302 1302 1302 1302 1302 1302 1302 1302 1302 1302 1302 1297 1297 1297 1302 1302 1302 1302 1302 1302 1302 1302 1302 1302 1302 1307 1307 1307 1302 1302 1302 1302 1302 1302 1302 1302 1302 1302 1302 1302 1302 1302 1302 1302 1302 1307 1307 1307 1307 1307 1307 1307 1307 1307 1312 1312 1312 1312 1312 1312 1312 1317 1317 1317 1322 1322 1322 1317 1317 1317 1317 1317 1317 1317 1317 1317 1317 1317 1317 1317 1317 1317 1317 1317 1317 1317 1317 1317 1317 1317 1317 1317 1915 1915 1926 1915 1915 1915 1915 1915 1926 1926 1926 1926 2271 2271 2271 2271 2256 2241 2241 2241 2256 2883 2883 2883 2883 1489 1489 2908 2883 2883 2908 2908 2883 2883 2883 2883 2883 2908 2908 2908 2908 2908 2908 2933 2933 2933 2933 2933 2933 2933 2908 2908 2908 2908 2908 2908 1496 1496 1496 1496 1503 1503 1503 1503 1503 1503 1503 1503 1503 1503 1503 1503 1503 1503 1503 1503 1503 1509 1509 1509 1509 1509 1509 1509 1509 1509 1509 1516 2859 2859 2883 2883 2883 2883 2883 2883 2883 2908 2908 2908 2908 2908 2908 2908 2883 2859 2859 2883 2883 2883 2883 2908 2908 2908 2908 2908 2908 2908 2908 2908 2883 2883 2883 2883 2883 2859 2859 2883 2908 2908 2933 2933 2908 2908 2933 2908 2908 2908 2908 2908 2908 2908 2908 2908 2908 2908 2908 2883 2883 2883 2883 2883 2883 2883 2883 2883 2883 2883 2908 2908 2908 2908 2883 2883 2883 2883 2883 2883 2883 2883 2883 2883 2883 2883 2883 2883 2883 2883 2883 2883 2908 2908 2908 2908 2883 2883 2908 2908 2908 2908 2883 2859 2859 2859 2859 2859 2859 2859 2883 2859 2859 2859 2835 2835 2835 2835 2835 2835 2835 2835 2835 2835 2835 2859 2859 2859 2859 2883 2883 2859 2835 2835 2835 2835 2835 2835 2812 2812 2812 2812 2812 2812 2812 0 0 0 0 0 0 0 0 0 0
0 0 0 0 0 0 0 0 0 0 0 0 0 0 0 0 0 0 0 0 0 0 0 0 0 0 0 0 0 0 0 0 2744 2723 2723 2723 2723 2744 2723 2723 2723 2723 2723 2723 2723 2723 2723 2723 2723 2723 2744 2812 0 0 0 0 1433 1433 1433 1433 1439 1439 1439 1439 1439 1439 1445 1445 1312 1312 1322 1322 1328 1328 1328 1328 1328 1328 1328 1333 1333 1338 1343 1349 1354 1354 1365 1370 1427 1415 1415 1421 1427 1433 1439 1439 1439 1439 1439 1439 1433 1433 1433 1433 2767 2767 2767 2767 1433 1433 1433 1433 1433 1439 1439 1439 1439 1439 1439 1445 1445 1445 1452 1452 1452 1452 1452 1452 1445 1445 1445 1813 1813 1823 1823 1823 1833 1833 1843 1833 1833 1833 1843 1843 1843 1843 1843 1843 1853 1853 1843 1458 1458 1458 1843 1833 1833 1833 1833 1843 1843 1843 1843 1843 1843 1843 1843 1843 1833 1833 1843 1843 1843 1843 1843 1843 1843 1843 1843 1853 1853 1853 1853 1853 1853 1843 1843 1843 1354 1354 1354 1354 1359 1359 1359 1359 1359 1359 1359 1365 1365 1365 1365 1376 1381 1392 1445 1445 1458 1458 1458 1458 1464 1863 1863 1863 1863 1863 1863 1863 1863 1863 1863 1863 1863 1863 1863 1863 1863 1873 1873 1873 1873 1873 1883 1894 1894 1894 1894 1894 1894 1894 1873 1873 1873 1873 1873 1873 1883 1883 1883 1883 1883 1883 1883 1883 1883 1297 1292 1292 1292 1292 1292 1292 1297 1292 1292 1292 1297 1297 1297 1297 1297 1297 1302 1302 1307 1307 1307 1307 1307 1307 1307 1307 1307 1307 1307 1307 1302 1302 1302 1302 1302 1302 1302 1302 1302 1302 1302 1302 1302 1302 1297 1297 1302 1302 1302 1302 1302 1302 1302 1302 1302 1302 1302 1302 1302 1302 1302 1302 1302 1302 1307 1302 1302 1302 1302 1302 1302 1302 1302 1307 1307 1302 1302 1302 1307 1307 1307 1307 1307 1307 1302 1302 1302 1302 1302 1302 1307 1307 1307 1307 1307 1307 1312 1312 1307 1307 1312 1312 1312 1312 1312 1312 1312 1317 1317 1317 1322 1322 1322 1317 1317 1317 1317 1317 1317 1322 1322 1322 1322 1322 1317 1317 1317 1317 1317 1317 1317 1317 1317 1317 1317 1317 1317 1317 1322 1915 1915 1915 1915 1915 1915 1915 1915 1915 1915 1915 1926 2286 2286 2271 2271 2271 2241 2241 2256 2256 2883 2883 2883 2883 2883 2883 2883 2883 2883 2883 2883 2883 2883 2883 2883 2883 2883 2883 2908 2908 2908 2908 2933 2933 2908 2908 2908 2908 2908 2908 2883 2883 2883 2908 2908 1496 1496 1496 1496 1503 1503 1503 1503 1503 1503 1503 1503 1503 1503 1503 1503 1503 1503 1509 1503 1503 1509 1509 1509 1509 1509 1509 1509 1509 1509 1509 1516 1516 1516 2883 2883 2883 2883 2883 2883 2883 2883 2908 2908 2908 2908 2908 2883 2859 2859 2859 2859 2859 2883 2883 2883 2883 2883 2883 2883 2883 2883 2883 2883 2883 2859 2859 2859 2859 2859 2859 2859 2883 2883 2908 2908 2883 2883 2908 2883 2883 2883 2883 2883 2908 2908 2908 2908 2908 2908 2883 2883 2859 2859 2859 2859 2859 2859 2859 2883 2883 2883 2883 2883 2883 2883 2883 2883 2859 2859 2883 2883 2883 2883 2883 2883 2883 2859 2859 2859 2859 2859 2859 2883 2883 2883 2883 2883 2883 2883 2883 2883 2883 2883 2859 2859 2859 2859 2859 2859 2859 2859 2859 2859 2835 2835 2835 2835 2835 2835 2835 2835 2835 2835 2835 2835 2835 2835 2835 2835 2835 2835 2835 2835 2835 2812 2812 2812 2835 2835 2835 2835 2812 2812 2812 2812 2812 0 0 0 0 0 0 0 0 0 0
0 0 0 0 0 0 0 0 0 0 0 0 0 0 0 0 0 0 0 0 0 0 0 0 0 0 0 0 0 0 0 0 2744 2723 2723 2723 2723 2723 2723 2723 2701 2701 2723 2701 2701 2723 2723 2723 2723 2723 2723 2723 0 0 0 0 1427 1427 1433 1433 1439 1439 1439 1439 1439 1439 1445 1445 1307 1307 1322 1322 1328 1328 1328 1328 1328 1328 1333 1333 1333 1338 1343 1349 1354 1359 1365 1370 1370 1404 1404 1415 1421 1427 1439 1433 1433 1439 1439 1445 2744 2744 2744 2767 2767 2767 2767 2767 2767 2767 2767 2767 2767 2767 2767 1804 1804 1804 1804 1804 1813 1823 1823 1813 1452 1452 1452 1452 1452 1804 1813 1813 1813 1823 1823 1823 1833 1833 1833 1833 1833 1833 1833 1833 1833 1833 1833 1843 1843 1843 1843 1843 1853 1853 1833 1833 1833 1833 1833 1833 1843 1843 1843 1843 1843 1843 1843 1833 1833 1833 1833 1833 1833 1833 1833 1833 1833 1843 1843 1843 1843 1853 1853 1853 1853 1853 1853 1853 1853 1354 1354 1354 1359 1359 1359 1359 1359 1359 1365 1365 1370 1370 1376 1381 1387 1392 1445 1445 1458 1458 1853 1853 1853 1853 1853 1853 1853 1853 1853 1863 1863 1863 1863 1863 1863 1863 1863 1863 1863 1863 1863 1863 1873 1873 1883 1883 1894 1894 1894 1894 1894 1894 1883 1883 1883 1883 1883 1883 1883 1883 1883 1894 1883 1883 1883 1883 1297 1297 1292 1292 1297 1297 1297 1297 1297 1297 1297 1297 1297 1297 1297 1297 1297 1297 1302 1302 1302 1302 1307 1307 1307 1307 1307 1307 1307 1307 1307 1307 1307 1307 1302 1302 1302 1302 1302 1302 1307 1307 1307 1307 1307 1307 1302 1302 1302 1302 1302 1302 1302 1302 1302 1302 1302 1302 1302 1302 1302 1302 1302 1302 1302 1302 1307 1302 1302 1302 1302 1302 1302 1302 1302 1302 1307 1302 1302 1307 1307 1307 1307 1307 1307 1307 1307 1302 1302 1307 1302 1302 1307 1307 1307 1307 1307 1307 1312 1312 1312 1312 1312 1312 1312 1312 1312 1312 1317 1317 1317 1317 1926 1915 1915 1317 1317 1317 1322 1322 1322 1322 1322 1322 1322 1322 1322 1322 1322 1322 1322 1317 1317 1317 1317 1317 1317 1322 1322 1317 1317 1915 1915 1915 1915 1915 1915 1915 1915 1915 1915 1915 1926 2286 2286 2271 2271 2271 2256 2256 2256 2256 2883 2883 2883 2883 2883 2883 2883 2883 2883 2883 2883 2883 2883 2883 2883 2883 2883 2883 2908 2908 2908 2908 2908 2933 2908 2908 2908 2908 2908 2883 2883 2883 2883 2883 2883 1496 1496 1496 1496 1496 1503 1503 1503 1503 1503 1503 1503 1503 1503 1503 1503 1503 1509 1509 1509 1509 1509 1509 1509 1509 1509 1509 1509 1509 1509 1509 1516 1516 1516 2883 2883 2883 2883 2883 2883 2883 2883 2883 2908 2883 2883 2883 2883 2859 2859 2859 2859 2859 2859 2859 2859 2859 2859 2859 2859 2859 2883 2883 2859 2859 2859 2859 2859 2859 2859 2859 2859 2883 2883 2883 2883 2859 2859 2883 2859 2859 2859 2883 2883 2883 2883 2883 2883 2883 2883 2859 2859 2859 2859 2859 2859 2859 2859 2859 2859 2859 2883 2883 2883 2883 2883 2883 2859 2859 2859 2883 2883 2883 2883 2883 2883 2883 2859 2859 2859 2859 2859 2859 2859 2883 2883 2883 2883 2883 2883 2883 2883 2859 2859 2859 2835 2835 2835 2835 2835 2835 2835 2859 2835 2835 2835 2835 2835 2835 2835 2835 2835 2835 2835 2835 2835 2835 2835 2835 2835 2812 2812 2812 2812 2812 2812 2812 2812 2812 2812 2835 2812 2812 2812 2812 2789 2789 0 0 0 0 0 0 0 0 0 0
0 0 0 0 0 0 0 0 0 0 0 0 0 0 0 0 0 0 0 0 0 0 0 0 0 0 0 0 0 0 0 0 2744 2723 2723 2723 2723 2723 2723 2723 2701 2701 2701 2701 2701 2701 2701 2701 2701 2701 2701 2723 0 0 0 0 1427 1427 1433 1433 1439 1439 1439 1439 1439 1439 1439 1445 1307 1307 1317 1328 1328 1328 1328 1333 1333 1333 1333 1333 1338 1338 1343 1349 1354 1359 1365 1370 1370 1404 1404 1415 1421 1427 2723 1433 1433 1439 1439 2744 2744 2744 2744 2744 2744 2744 2744 2744 2767 2767 2767 2744 2744 2767 2767 1794 1794 1804 1804 1804 1813 1823 1823 1813 1813 1813 1813 1813 1813 1813 1813 1813 1813 1823 1823 1823 1823 1823 1823 1823 1823 1823 1833 1833 1833 1833 1833 1833 1833 1833 1843 1843 1843 1843 1833 1823 1823 1823 1823 1823 1823 1833 1833 1833 1833 1843 1833 1833 1833 1823 1823 1833 1833 1833 1833 1833 1833 1833 1833 1833 1843 1843 1853 1853 1853 1853 1843 1843 1843 1359 1359 1359 1359 1359 1359 1359 1359 1359 1365 1370 1370 1376 1376 1381 1387 1398 1404 1843 1843 1843 1843 1843 1853 1853 1853 1853 1853 1853 1853 1853 1853 1853 1853 1853 1853 1853 1853 1853 1853 1863 1863 1863 1863 1873 1873 1883 1883 1894 1894 1894 1894 1894 1883 1883 1883 1883 1883 1883 1894 1894 1894 1894 1894 1894 1894 1894 1297 1297 1292 1292 1297 1297 1297 1297 1297 1297 1297 1297 1297 1297 1297 1297 1297 1302 1302 1302 1302 1302 1307 1307 1307 1307 1307 1307 1307 1307 1302 1302 1302 1302 1297 1297 1302 1302 1302 1302 1307 1307 1307 1307 1307 1307 1302 1302 1302 1302 1307 1302 1302 1302 1302 1302 1307 1302 1302 1302 1302 1302 1302 1302 1302 1302 1307 1302 1302 1297 1297 1297 1297 1302 1302 1302 1307 1307 1307 1307 1307 1307 1307 1307 1307 1307 1307 1302 1302 1307 1302 1302 1307 1307 1307 1307 1307 1307 1312 1312 1312 1312 1312 1312 1312 1312 1317 1317 1317 1317 1322 1322 1926 1926 1915 1915 1915 1915 1322 1322 1322 1322 1328 1322 1322 1322 1322 1322 1322 1322 1322 1322 1322 1322 1322 1322 1322 1322 1322 1317 1317 1322 1915 1915 1915 1915 1915 1915 1915 1915 1915 1915 1926 2286 2286 2286 2271 2271 2256 2256 2256 2256 2883 2883 2883 2883 2883 2883 2883 2883 2883 2883 2883 2883 2883 2883 2883 2883 2883 2883 2883 2883 2883 2883 2883 2908 2883 2883 2883 2883 2883 2883 2883 2883 2883 2883 0 1496 1496 1496 1496 1496 1503 1503 1503 1503 1503 1503 1503 1503 1503 1503 1503 1503 1509 1509 1509 1509 1509 1509 1509 1509 1509 1509 1509 1516 1509 1509 1509 1509 1509 2859 2859 2859 2883 2883 2883 2883 2883 2883 2883 2883 2883 2883 2859 2835 2835 2835 2835 2835 2835 2859 2859 2859 2859 2859 2859 2859 2859 2859 2859 2859 2835 2835 2835 2859 2859 2859 2859 2859 2859 2859 2859 2859 2859 2859 2859 2859 2859 2859 2859 2859 2859 2859 2859 2859 2859 2859 2859 2859 2859 2859 2859 2859 2859 2859 2859 2859 2859 2859 2883 2883 2883 2859 2859 2859 2859 2859 2859 2859 2859 2859 2859 2859 2859 2859 2859 2859 2859 2859 2859 2883 2883 2883 2883 2883 2883 2883 2859 2859 2859 2859 2835 2835 2835 2835 2835 2835 2835 2835 2835 2835 2835 2835 2835 2835 2835 2812 2812 2812 2812 2812 2812 2812 2812 2812 2812 2812 2812 2812 2812 2812 2812 2812 2812 2812 2812 2812 2812 2812 2812 2812 2789 2789 0 0 0 0 0 0 0 0 0 0
0 0 0 0 0 0 0 0 0 0 0 0 0 0 0 0 0 0 0 0 0 0 0 0 0 0 0 0 0 0 0 0 2723 2723 2723 2723 2723 2723 2701 2701 2701 2701 2701 2701 2701 2701 2701 2701 2701 2701 2701 2723 2723 2723 0 0 0 1439 1439 1439 1439 1439 1439 1439 1439 1439 1439 1445 1445 1317 1317 1328 1333 1333 1333 1333 1333 1333 1333 1338 1338 1338 1343 1354 1359 1359 1365 1365 1365 1370 1370 1370 2723 2723 2723 2723 2723 2723 2723 2723 2744 2723 2723 2744 2723 2723 2744 2744 2744 2744 2744 2744 2744 2744 1794 1794 1794 1804 1804 1804 1804 1813 1813 1813 1813 1813 1813 1813 1813 1813 1813 1813 1813 1813 1813 1813 1813 1823 1823 1823 1823 1823 1833 1833 1833 1833 1833 1833 1833 1833 1833 1833 1833 1833 1823 1823 1823 1813 1813 1813 1813 1823 1823 1823 1823 1823 1823 1823 1823 1823 1823 1833 1823 1823 1823 1833 1833 1833 1833 1833 1833 1833 1843 1843 1843 1843 1843 1843 1843 1359 1359 1359 1359 1359 1365 1365 1365 1365 1370 1370 1376 1376 1381 1387 1387 1398 1404 1823 1823 1833 1833 1833 1843 1843 1843 1843 1853 1853 1853 1853 1853 1853 1853 1853 1853 1853 1853 1853 1853 1853 1853 1853 1863 1873 1873 1883 1883 1894 1894 1894 1894 1894 1883 1883 1883 1883 1894 1894 1894 1894 1894 1894 1894 1894 1894 1894 1297 1297 1297 1297 1297 1302 1302 1302 1302 1302 1302 1302 1302 1302 1302 1302 1302 1302 1302 0 1302 1302 1804 0 1307 1307 1307 1307 1307 1307 1302 1302 1297 1297 1297 1297 1297 1297 1297 1302 1302 1307 1307 1307 1307 1307 1307 1894 1904 1904 1904 1904 1904 1904 1904 1904 1904 1302 1302 1915 1915 1307 1307 1307 1307 1302 1302 1297 1297 1297 1297 1297 1297 1302 1904 1307 1307 1307 1307 1307 1312 1312 1312 1307 1307 1307 1307 1926 1926 1926 1926 1926 1926 1915 1307 1307 1307 1307 1915 1915 1915 1312 1312 1915 1915 1915 1915 1915 1926 1926 1926 1926 1926 1926 1915 1915 1915 1915 1926 1926 1328 1328 1328 1328 1328 1322 1322 1322 1322 1322 1322 1322 1322 1322 1322 1322 1322 1322 1322 1322 1322 1322 1915 1915 1915 1915 1915 1915 1915 1915 1915 1915 1926 2286 2286 2286 2271 2271 2256 2256 2256 2256 2859 2883 2883 2883 2883 2883 2883 2883 2883 2883 2883 2883 2883 2883 2883 2883 2859 2859 2883 2883 2883 2883 2883 2883 2883 2883 2883 2883 2883 2883 2883 2883 2883 2883 0 1489 1489 1489 1496 1503 1503 1503 1503 1503 1503 1503 1503 1503 1503 1503 1503 1509 1509 1509 1509 1509 1509 1509 1509 1509 1509 1509 1516 1516 1509 1509 1509 1509 1509 2859 2859 2859 2883 2883 2883 2859 2859 2883 2883 2883 2859 2859 2859 2835 2835 2835 2835 2835 2835 2835 2859 2859 2859 2859 2859 2859 2859 2859 2835 2835 2835 2835 2835 2835 2835 2835 2859 2859 2859 2859 2859 2859 2835 2835 2859 2859 2859 2859 2859 2859 2859 2859 2835 2835 2859 2859 2859 2859 2859 2859 2859 2859 2859 2859 2859 2859 2859 2859 2859 2859 2859 2859 2859 2859 2859 2859 2859 2859 2859 2859 2859 2859 2859 2859 2859 2859 2859 2859 2859 2859 2859 2859 2859 2859 2859 2859 2859 2859 2859 2859 2835 2835 2835 2835 2835 2835 2835 2835 2835 2835 2835 2812 2812 2812 2812 2812 2812 2812 2812 2812 2812 2812 2812 2812 2812 2812 2812 2812 2812 2812 2812 2812 2812 2812 2812 2812 2812 2812 2789 2789 2789 2789 0 0 0 0 0 0 0 0 0 0
0 0 0 0 0 0 0 0 0 0 0 0 0 0 0 0 0 0 0 0 0 0 0 0 0 0 0 0 0 0 0 0 2701 2701 2701 2701 2701 2701 2701 2701 2701 2701 2701 2701 2680 2680 2701 2701 2701 2701 2701 2701 2723 0 2680 0 0 0 1439 1439 1439 1439 1439 1439 1439 1439 1439 1439 1445 1489 1328 1328 1333 1333 1333 1333 1333 1333 1338 1338 1338 1338 1343 1354 1359 1359 1365 1365 1365 1370 1370 0 2701 2701 2701 2723 2723 2723 2723 2723 2723 2723 2723 2723 2723 2723 2723 2744 2744 2744 2744 2744 2744 1794 1794 1794 1794 1804 1804 1804 1804 1813 1813 1804 1804 1804 1804 1813 1813 1813 1813 1813 1813 1813 1804 1804 1804 1813 1813 1813 1813 1813 1823 1823 1823 1823 1823 1823 1833 1833 1833 1833 1833 1833 1823 1813 1813 1813 1813 1813 1813 1813 1823 1823 1823 1823 1823 1823 1823 1823 1823 1823 1823 1823 1823 1823 1823 1823 1823 1823 1823 1833 1833 1833 1843 1843 1843 1843 1843 1359 1359 1359 1359 1359 1365 1365 1365 1365 1370 1370 1376 1376 1381 1381 1387 1398 1404 1813 1823 1823 1823 1823 1833 1833 1833 1843 1843 1843 1853 1853 1843 1843 1843 1843 1843 1843 1843 1843 1843 1853 1853 1853 1863 1863 1873 1883 1883 1894 1894 1894 1894 1894 1883 1883 1883 1883 1894 1894 1894 1894 1894 1894 1894 1894 1894 1894 1307 1302 1302 1302 1302 1302 1302 1302 1302 1307 1307 1307 1307 1307 1307 1302 1302 1302 1302 1302 0 0 0 0 1804 1804 1794 1794 1794 1804 1804 1297 1297 1292 1292 1292 1292 1297 1297 1302 1302 1307 1312 1894 1894 1894 1894 1894 1904 1904 1904 1904 1904 1904 1904 1904 1904 1904 1915 1915 1915 1915 1915 1915 1926 1302 1302 1297 1297 1297 1297 1915 1915 1904 1904 1904 1904 1904 1894 1894 1894 1904 1904 1307 1307 1915 1915 1915 1915 1915 1915 1915 1915 1915 1915 1915 1915 1915 1915 1915 1915 1915 1915 1915 1915 1915 1915 1915 1926 1926 1926 1926 1926 1926 1915 1915 1915 1915 1926 1926 1926 1328 1328 1328 1328 1328 1322 1322 1322 1322 1322 1322 1322 1322 1322 1322 1322 1322 1322 1322 1322 1322 1915 1915 1915 1915 1915 1915 1915 1915 1915 1915 2286 2286 2286 2286 2286 2286 2256 2256 2256 2271 2835 2859 2859 2859 2859 2883 2883 2859 2859 2859 2859 2859 2859 2859 2859 2859 2859 2859 2859 2859 2859 2859 2859 2883 2859 2859 2883 2883 2883 2883 2883 2883 2883 2883 1496 1489 1489 1489 1496 1503 1503 1503 1503 1503 1503 1503 1503 1503 1503 1503 1509 1509 1509 1509 1509 1509 1509 1509 1509 1509 1509 1516 1516 1516 1509 1509 1509 1509 2835 2859 2859 2859 2859 2859 2859 2859 2859 2859 2883 2859 2859 2859 2859 2835 2835 2835 2835 2835 2835 2835 2835 2835 2835 2859 2859 2835 2835 2835 2835 2835 2835 2835 2835 2835 2835 2835 2835 2835 2835 2835 2835 2835 2835 2835 2835 2835 2859 2859 2859 2859 2859 2835 2835 2835 2835 2835 2835 2835 2835 2835 2859 2859 2835 2835 2835 2859 2859 2859 2859 2859 2859 2859 2835 2835 2835 2859 2835 2835 2835 2835 2835 2835 2835 2835 2835 2835 2835 2859 2859 2859 2859 2835 2835 2835 2859 2835 2835 2835 2835 2835 2812 2812 2812 2812 2835 2835 2835 2835 2835 2835 2812 2812 2812 2812 2789 2789 2789 2789 2789 2789 2789 2789 2789 2789 2789 2789 2789 2789 2789 2812 2812 2812 2812 2812 2812 2812 2812 2812 2789 2789 2767 2767 0 0 0 0 0 0 0 0 0 0
0 0 0 0 0 0 0 0 0 0 0 0 0 0 0 0 0 0 0 0 0 0 0 0 0 0 0 0 0 0 0 0 2680 2680 2701 2701 2701 2701 2701 2701 2701 2680 2680 2680 2680 2680 2680 2680 2680 2680 2680 2701 2680 2680 2680 0 0 0 1445 1445 1439 1439 1439 1439 1439 1439 1439 1439 1445 1343 1328 1328 1333 1333 1333 1333 1333 1333 1338 1338 1338 1343 1343 1349 1359 1359 1365 1365 1365 1365 1365 0 2701 2701 2701 2701 2701 2701 2701 2701 2701 2701 2701 2701 2701 2701 2723 2723 2723 2723 2744 2744 1794 1785 1785 1794 1794 1794 1804 1804 1804 1804 1813 1804 1804 1804 1804 1804 1804 1804 1804 1804 1804 1804 1804 1804 1804 1804 1804 1804 1813 1813 1813 1813 1813 1823 1823 1823 1823 1823 1833 1833 1833 1823 1813 1813 1813 1813 1804 1804 1804 1813 1813 1813 1813 1813 1813 1813 1813 1813 1813 1813 1813 1813 1813 1813 1823 1823 1823 1823 1823 1823 1823 1833 1833 1833 1843 1843 1843 1370 1359 1359 1365 1365 1365 1365 1370 1370 1370 1370 1376 1376 1381 1381 1387 1398 1404 1813 1813 1823 1823 1823 1823 1823 1823 1833 1833 1833 1843 1843 1833 1833 1833 1833 1843 1843 1833 1833 1833 1843 1843 1843 1853 1863 1863 1883 1883 1894 1894 1894 1904 1904 1894 1894 1894 1894 1894 1894 1894 1894 1894 1894 1894 1894 1894 1307 1307 1302 1302 1302 1302 1307 1307 1307 1307 1307 1307 1307 1307 1307 1307 1302 1302 1302 1302 1307 0 0 1804 1804 1804 1804 1804 1794 1794 1804 1804 1813 1813 1292 1292 1292 1292 1297 1297 1302 1302 1307 1894 1894 1894 1894 1894 1894 1904 1904 1904 1904 1904 1904 1915 1904 1904 1904 1915 1915 1915 1915 1915 1915 1915 1915 1915 1915 1915 1915 1915 1915 1915 1904 1904 1904 1904 1904 1894 1894 1904 1904 1904 1904 1915 1915 1915 1915 1915 1915 1915 1915 1915 1915 1915 1915 1915 1915 1915 1915 1915 1915 1915 1915 1915 1915 1915 1915 1926 1926 1915 1915 1926 1915 1915 1915 1915 1915 1915 1915 1926 1926 1328 1328 1328 1328 1322 1322 1328 1328 1328 1328 1328 1328 1328 1328 1328 1322 1322 1322 1322 1322 1926 1926 1915 1915 1926 1926 1926 1926 1915 1915 2286 2286 2286 2286 2286 2286 2271 2271 2271 2271 2835 2835 2859 2859 2859 2859 2859 2859 2859 2859 2859 2859 2859 2859 2859 2859 2859 2859 2859 2859 2859 2835 2835 2859 2859 2859 2859 2883 2883 2883 2883 2883 2883 0 1496 1496 1496 1496 1496 1503 1503 1503 1503 1503 1503 1503 1503 1503 1503 1509 1509 1509 1509 1509 1509 1509 1509 1509 1509 1509 1516 1516 1516 1516 1516 1516 1516 2835 2835 2835 2835 2835 2859 2859 2859 2859 2859 2859 2859 2859 2859 2859 2859 2835 2812 2812 2812 2812 2812 2835 2835 2835 2835 2835 2835 2835 2835 2812 2812 2812 2812 2812 2812 2812 2812 2812 2812 2812 2812 2812 2812 2812 2835 2835 2835 2835 2835 2835 2835 2835 2835 2835 2835 2835 2835 2835 2835 2835 2835 2835 2835 2835 2835 2835 2835 2835 2835 2835 2835 2835 2835 2835 2835 2835 2835 2859 2835 2835 2835 2835 2835 2835 2835 2835 2835 2835 2835 2835 2859 2859 2835 2835 2835 2835 2835 2835 2835 2835 2835 2835 2812 2812 2812 2812 2812 2812 2812 2812 2812 2812 2812 2812 2789 2789 2789 2789 2789 2789 2789 2789 2789 2789 2789 2789 2789 2767 2767 2789 2789 2789 2789 2812 2812 2812 2812 2812 2812 2812 2789 2789 2767 2767 0 0 0 0 0 0 0 0 0 0
0 0 0 0 0 0 0 0 0 0 0 0 0 0 0 0 0 0 0 0 0 0 0 0 0 0 0 0 0 0 0 0 2659 2659 2680 2680 2701 2680 2680 2680 2680 2680 2680 2680 2659 2659 2680 2680 2680 2680 2680 2680 2659 2618 2618 0 0 0 1445 1439 1439 1439 1439 1439 1439 1439 1439 1439 1445 1338 1333 1333 1333 1333 1333 1338 1338 1338 1338 1338 1338 1343 1343 1349 1354 1359 1365 1370 1370 1370 0 0 2701 2701 2701 2701 2701 2701 2701 2701 2701 2701 2701 2701 2701 2701 2701 2701 2723 2723 2723 1785 1785 1785 1785 1785 1794 1794 1794 1794 1804 1804 1804 1804 1804 1804 1804 1794 1794 1794 1794 1794 1804 1804 1794 1794 1794 1794 1794 1794 1804 1804 1804 1813 1813 1813 1813 1813 1813 1823 1823 1823 1823 1823 1813 1804 1804 1804 1794 1794 1804 1804 1813 1813 1813 1813 1813 1813 1813 1813 1813 1813 1813 1813 1813 1813 1813 1813 1813 1813 1813 1813 1813 1823 1823 1813 1813 1813 1370 1370 1365 1365 1370 1370 1370 1370 1370 1370 1376 1376 1376 1381 1381 1387 1392 1398 1804 1804 1813 1813 1813 1813 1823 1823 1823 1823 1823 1823 1833 1833 1833 1833 1833 1833 1833 1833 1833 1833 1833 1833 1833 1833 1843 1853 1863 1873 1883 1894 1894 1894 1904 1904 1894 1894 1894 1894 1894 1894 1894 1894 1894 1894 1894 1894 1894 1307 1307 1307 1307 1307 1307 1307 1307 1307 1307 1307 1307 1307 1307 1307 1307 1307 1307 1307 1307 1307 0 1804 1804 1804 1804 1804 1804 1804 1804 1804 1804 1804 1804 1804 1297 1297 1297 1297 1297 1302 1302 1312 1894 1894 1894 1894 1894 1894 1904 1904 1904 1904 1904 1904 1904 1904 1904 1904 1904 1904 1915 1915 1915 1915 1915 1915 1915 1915 1915 1915 1915 1915 1915 1904 1894 1894 1904 1904 1894 1894 1904 1904 1904 1904 1915 1915 1915 1915 1915 1915 1915 1915 1915 1915 1915 1915 1915 1915 1915 1915 1915 1915 1915 1915 1915 1915 1915 1915 1915 1915 1915 1915 1915 1915 1915 1915 1915 1915 1915 1915 1926 1926 1333 1328 1328 1328 1328 1328 1328 1328 1328 1328 1328 1328 1328 1328 1328 1328 1328 1322 1322 1926 1926 1926 1926 1926 1926 1926 1926 1926 1926 1926 2286 2286 2286 2286 2286 2286 2271 2271 2271 2271 2835 2835 2835 2859 2859 2859 2859 2859 2859 2859 2859 2859 2859 2859 2859 2835 2835 2835 2835 2835 2835 2812 2812 2812 2835 2835 2859 2859 2859 2883 2883 2883 2883 0 1496 1496 1496 1496 1496 1503 1503 1503 1503 1503 1503 1503 1503 1503 1503 1503 1509 1509 1509 1509 1509 1509 1509 1509 1509 1509 1516 1516 1516 1516 1516 1516 1523 2835 2835 2835 2835 2835 2835 2835 2835 2835 2835 2859 2859 2835 2835 2835 2835 2812 2789 2789 2812 2812 2812 2812 2812 2812 2812 2812 2812 2812 2812 2812 2789 2789 2789 2789 2789 2789 2789 2789 2812 2812 2812 2789 2789 2812 2812 2812 2812 2835 2835 2835 2835 2835 2835 2835 2835 2812 2812 2835 2835 2835 2835 2835 2835 2835 2835 2812 2812 2835 2835 2835 2835 2835 2835 2835 2835 2835 2835 2835 2835 2835 2835 2835 2835 2835 2835 2835 2835 2835 2835 2835 2835 2835 2835 2835 2835 2835 2835 2835 2835 2835 2835 2835 2812 2812 2812 2812 2812 2812 2812 2812 2812 2789 2789 2789 2789 2789 2789 2789 2789 2789 2767 2767 2767 2767 2767 2767 2767 2767 2767 2767 2789 2789 2789 2789 2789 2812 2812 2812 2789 2789 2767 2767 2744 2744 0 0 0 0 0 0 0 0 0 0
0 0 0 0 0 0 0 0 0 0 0 0 0 0 0 0 0 0 0 0 0 0 0 0 0 0 0 0 0 0 0 0 2639 2639 2659 2659 2680 2659 2659 2680 2680 2680 2680 2680 2659 2659 2680 2680 2680 2680 2680 2680 2598 2579 2579 0 0 0 0 1439 1439 1439 1439 1439 1439 1439 1439 1439 1445 1338 1333 1333 1333 1333 1338 1338 1338 1338 1338 1338 1338 1343 1343 1349 1354 1365 1365 1370 1370 1376 1381 1381 0 2701 2701 2680 2680 2680 2680 2680 2680 2680 2701 2701 2701 2701 2701 2701 2723 2723 1766 1766 1776 1776 1776 1785 1785 1794 1794 1794 1794 1794 1804 1794 1794 1794 1794 1794 1794 1794 1794 1794 1794 1794 1794 1794 1794 1794 1794 1794 1794 1794 1794 1794 1794 1804 1804 1804 1804 1813 1823 1823 1813 1813 1804 1804 1794 1794 1794 1794 1794 1804 1804 1804 1804 1804 1804 1804 1804 1804 1804 1804 1804 1804 1804 1804 1804 1804 1804 1804 1813 1813 1813 1813 1823 1813 1813 1813 1370 1370 1370 1370 1370 1370 1370 1370 1376 1376 1376 1376 1376 1381 1381 1387 1398 1398 1776 1804 1804 1813 1813 1813 1823 1823 1823 1823 1823 1823 1823 1823 1823 1823 1823 1823 1823 1823 1823 1823 1823 1823 1823 1833 1843 1853 1863 1873 1883 1894 1894 1904 1904 1904 1894 1894 1894 1894 1894 1894 1894 1904 1894 1894 1894 1894 1894 1307 1307 1307 1307 1307 1307 1307 1307 1307 1307 1307 1307 1307 1307 1307 1307 1307 1307 1307 1307 0 1804 0 1804 1794 1794 1804 1804 1804 1804 1804 1804 1804 1804 1804 1813 1297 1297 1297 1297 1297 1883 1894 1894 1894 1894 1894 1894 1894 1894 1904 1904 1904 1904 1904 1904 1904 1904 1904 1904 1904 1915 1915 1915 1915 1904 1904 1915 1904 1904 1904 1904 1915 1915 1904 1894 1894 1904 1894 1894 1894 1894 1894 1904 1904 1904 1904 1904 1915 1915 1915 1915 1915 1915 1915 1915 1915 1915 1915 1915 1915 1915 1915 1915 1915 1915 1904 1904 1915 1915 1915 1915 1915 1915 1915 1915 1915 1915 1915 1915 1915 1926 1926 1333 1333 1328 1328 1328 1328 1328 1328 1328 1333 1333 1333 1328 1328 1328 1328 1328 1322 1322 1926 1926 1926 1926 1926 1926 1926 1926 1926 1926 2271 2271 2286 2286 2286 2286 2286 2271 2271 2271 2271 2812 2812 2835 2812 2812 2835 2835 2835 2835 2859 2859 2835 2835 2835 2835 2812 2812 2812 2835 2812 2812 2812 2812 2812 2812 2812 2835 2859 2859 2859 2859 2859 2859 0 1496 1496 1496 1496 1503 1503 1503 1503 1503 1503 1503 1503 1503 1503 1503 1503 1509 1509 1509 1509 1509 1509 1509 1509 1509 1509 1516 1516 1516 1516 1516 1516 1516 2835 2835 2812 2812 2812 2812 2835 2835 2835 2835 2859 2859 2835 2835 2835 2835 2789 2789 2789 2789 2789 2789 2789 2789 2812 2812 2812 2812 2812 2812 2789 2789 2789 2789 2789 2789 2789 2789 2789 2789 2789 2789 2789 2789 2812 2789 2789 2812 2812 2812 2812 2812 2835 2835 2812 2812 2812 2812 2812 2812 2812 2812 2812 2812 2812 2812 2812 2812 2812 2812 2812 2812 2812 2812 2835 2835 2835 2835 2835 2835 2835 2835 2835 2835 2835 2812 2812 2812 2835 2835 2835 2835 2835 2835 2812 2812 2812 2835 2812 2812 2812 2812 2835 2812 2789 2789 2789 2812 2789 2789 2789 2789 2789 2789 2789 2789 2789 2789 2789 2789 2789 2767 2767 2767 2767 2767 2767 2767 2744 2744 2767 2767 2767 2767 2767 2767 2789 2789 2789 2767 2767 2744 2744 2744 2744 0 0 0 0 0 0 0 0 0 0
0 0 0 0 0 0 0 0 0 0 0 0 0 0 0 0 0 0 0 0 0 0 0 0 0 0 0 0 0 0 0 0 2639 2639 2639 2639 2659 2659 2659 2659 2659 2659 2659 2659 2659 2659 2680 2680 2680 2680 2680 2659 2598 2579 2579 0 0 0 1445 1439 1439 1439 1439 1439 1439 1439 1439 1439 1452 1338 1333 1333 1333 1333 1338 1338 1338 1338 1338 1338 1338 1343 1343 1349 1354 1365 1370 1370 1370 1376 1381 1381 0 2659 2659 2659 2659 2659 2659 2680 2680 2680 2680 2680 2680 2701 2680 2680 2680 1757 1757 1757 1766 1766 1776 1776 1785 1785 1794 1794 1794 1794 1794 1794 1794 1785 1785 1785 1785 1794 1794 1794 1794 1794 1785 1785 1785 1785 1785 1785 1794 1794 1794 1794 1794 1804 1804 1804 1804 1813 1813 1804 1804 1804 1794 1794 1794 1785 1785 1785 1785 1794 1794 1794 1804 1804 1804 1804 1794 1794 1804 1804 1794 1794 1804 1804 1804 1804 1804 1804 1804 1804 1804 1813 1813 1813 1813 1813 1376 1376 1370 1370 1376 1376 1376 1376 1376 1376 1376 1376 1381 1381 1387 1392 1398 1398 1410 1804 1804 1813 1813 1813 1813 1813 1813 1813 1813 1813 1813 1813 1813 1823 1823 1823 1823 1823 1813 1813 1813 1823 1823 1823 1833 1843 1863 1873 1883 1894 1894 1904 1904 1904 1894 1894 1894 1894 1894 1894 1894 1904 1894 1894 1894 1894 1894 1312 1312 1307 1307 1307 1307 1307 1312 1312 1312 1312 1312 1312 1312 1312 1312 1312 1307 1307 1307 1312 1804 1794 1794 1794 1794 1794 1794 1804 1804 1804 1804 1804 1804 1804 1813 1813 1813 1813 1297 1297 1873 1883 1883 1883 1883 1883 1883 1894 1894 1894 1904 1904 1904 1904 1904 1894 1894 1894 1894 1904 1915 1904 1904 1894 1894 1894 1894 1894 1894 1894 1894 1894 1894 1894 1883 1883 1904 1894 1894 1894 1894 1894 1894 1894 1904 1883 1883 1904 1904 1904 1904 1904 1915 1915 1915 1904 1904 1904 1904 1904 1904 1915 1915 1904 1904 1904 1904 1904 1904 1894 1894 1904 1904 1904 1904 1904 1915 1904 1904 1915 1915 1333 1333 1333 1328 1328 1328 1328 1328 1328 1328 1333 1333 1333 1333 1333 1333 1328 1328 1328 1926 1926 1926 1926 1926 1936 1936 1936 1936 1936 1947 2271 2271 2286 2286 2286 2286 2301 2286 2286 2271 2271 2812 2812 2812 2812 2812 2835 2835 2835 2835 2835 2835 2812 2812 2812 2812 2812 2812 2812 2789 2789 2789 2789 2789 2789 2789 2789 2812 2812 2812 2812 2812 2812 0 0 1496 1496 1496 1503 1503 1503 1503 1503 1503 1503 1503 1509 1503 1503 1503 1503 1509 1509 1509 1509 1509 1509 1509 1509 1509 1516 1516 1516 1516 1516 1516 1516 2789 2789 2789 2812 2812 2812 2812 2812 2835 2835 2835 2835 2835 2812 2812 2812 2812 2789 2767 2767 2767 2767 2767 2767 2767 2789 2789 2789 2789 2789 2789 2789 2789 2789 2789 2789 2789 2789 2789 2789 2789 2789 2789 2789 2789 2789 2767 2767 2789 2789 2812 2812 2812 2812 2812 2812 2789 2789 2789 2789 2789 2789 2789 2789 2812 2789 2789 2789 2789 2789 2789 2789 2789 2789 2789 2812 2835 2835 2835 2835 2812 2812 2812 2812 2812 2812 2812 2812 2812 2812 2812 2812 2835 2835 2835 2812 2812 2812 2812 2812 2812 2812 2812 2812 2789 2789 2789 2789 2789 2789 2789 2767 2767 2767 2767 2789 2767 2767 2767 2767 2767 2767 2767 2767 2767 2767 2767 2744 2744 2744 2744 2744 2744 2767 2767 2767 2767 2767 2767 2767 2744 2744 2744 2744 2744 2744 0 0 0 0 0 0 0 0 0 0
0 0 0 0 0 0 0 0 0 0 0 0 0 0 0 0 0 0 0 0 0 0 0 0 0 0 0 0 0 0 0 0 2618 2618 2639 2639 2639 2639 2639 2639 2639 2639 2639 2639 2639 2639 2639 2639 2659 2659 2659 2659 2618 2618 2618 0 0 0 1445 1445 1439 1439 1439 1439 1439 1439 1439 1439 1445 1458 1333 1333 1333 1333 1338 1338 1338 1338 1338 1338 1343 1343 1343 1349 1354 1365 1370 1370 1370 1376 1381 1381 1387 0 2639 2639 2639 2639 2659 2659 2659 2659 2680 2680 2680 2680 2680 2680 2680 1757 1757 1757 1757 1766 1766 1776 1785 1785 1785 1785 1794 1794 1785 1785 1785 1785 1785 1785 1785 1785 1785 1785 1785 1785 1785 1785 1785 1785 1785 1785 1785 1785 1794 1794 1794 1804 1804 1794 1794 1804 1804 1804 1804 1794 1794 1785 1785 1785 1785 1785 1785 1785 1785 1785 1794 1794 1794 1794 1794 1794 1804 1804 1794 1794 1804 1794 1794 1804 1804 1804 1804 1804 1804 1804 1813 1813 1813 1376 1376 1376 1376 1376 1376 1376 1376 1376 1376 1376 1376 1376 1381 1381 1387 1392 1398 1404 1410 1804 1804 1813 1813 1813 1813 1813 1804 1804 1804 1804 1813 1813 1813 1813 1813 1823 1823 1813 1813 1813 1813 1813 1813 1813 1823 1833 1863 1883 1894 1894 1904 1904 1904 1904 1894 1894 1894 1894 1894 1894 1894 1904 1904 1904 1894 1894 1894 1317 1317 1312 1312 1312 1312 1312 1312 1312 1312 1312 1312 1312 1312 1312 1312 1312 1312 1312 1312 1312 1312 1794 1794 1794 1794 1794 1794 1794 1794 1804 1804 1804 1804 1804 1804 1804 1804 1813 1813 1813 1813 1813 1813 1883 1883 1883 1883 1883 1883 1894 1904 1904 1823 1823 1863 1853 1853 1853 1853 1883 1915 1904 1904 1883 1883 1883 1894 1894 1823 1823 1843 1873 1823 1813 1813 1843 1843 1894 1894 1894 1873 1873 1863 1863 1863 1853 1853 1873 1833 1813 1813 1804 1804 1804 1804 1804 1804 1813 1904 1843 1843 1853 1904 1843 1843 1843 1853 1853 1853 1853 1843 1843 1853 1873 1873 1883 1915 1904 1904 1915 1915 1333 1333 1333 1333 1328 1328 1328 1333 1333 1333 1333 1333 1333 1333 1333 1333 1333 1333 1328 1328 1926 1926 1926 1936 1936 1936 1936 1936 1947 2271 2271 2271 2286 2286 2286 2286 2301 2301 2286 2286 2812 2812 2812 2812 2812 2812 2812 2812 2812 2812 2812 2812 2812 2812 2812 2812 2812 2789 2789 2789 2789 2789 2789 2789 2789 2789 2789 2789 2789 2789 2789 2789 2789 0 0 1496 1496 1496 1503 1503 1503 1503 1503 1503 1503 1509 1509 1509 1509 1509 1509 1509 1509 1509 1509 1509 1509 1516 1516 1516 1516 1516 1516 1516 1516 1516 2789 2789 2789 2789 2812 2789 2789 2812 2812 2812 2812 2812 2812 2812 2812 2812 2789 2789 2767 2767 2767 2767 2767 2767 2767 2767 2767 2767 2767 2767 2789 2789 2789 2789 2767 2767 2767 2767 2767 2767 2767 2767 2767 2767 2767 2767 2767 2767 2767 2767 2789 2789 2789 2789 2789 2789 2789 2767 2767 2767 2789 2789 2789 2789 2789 2789 2789 2767 2767 2767 2789 2789 2789 2789 2789 2789 2812 2812 2835 2835 2812 2812 2812 2812 2812 2812 2812 2812 2812 2812 2812 2812 2812 2812 2812 2812 2789 2789 2812 2812 2789 2789 2789 2812 2812 2789 2789 2789 2789 2789 2789 2767 2767 2767 2767 2767 2767 2767 2767 2767 2767 2767 2767 2767 2744 2744 2744 2744 2744 2744 2744 2744 2744 2744 2744 2744 2744 2744 2744 2744 2744 2744 2744 2744 2744 2723 2723 0 0 0 0 0 0 0 0 0 0
0 0 0 0 0 0 0 0 0 0 0 0 0 0 0 0 0 0 0 0 0 0 0 0 0 0 0 0 0 0 0 0 2618 2618 2618 2618 2618 2618 2618 2639 2639 2639 2639 2639 2639 2639 2639 2639 2639 2639 2639 2639 2618 2618 2618 0 0 0 1445 1439 1439 1439 1439 1439 1439 1439 1439 1439 1445 1458 1333 1333 1333 1333 1338 1338 1338 1338 1343 1343 1343 1343 1343 1349 1354 1365 1370 1370 1370 1381 1381 1387 1387 1381 2618 2618 2618 2639 2659 2659 2659 2659 2659 2659 2680 2680 2680 2680 2680 1757 1757 1757 1757 1757 1766 1766 1776 1785 1785 1785 1785 1785 1785 1785 1785 1785 1785 1785 1785 1785 1785 1785 1785 1785 1785 1785 1785 1785 1785 1785 1785 1785 1785 1785 1785 1794 1794 1794 1794 1794 1794 1804 1794 1794 1785 1785 1785 1785 1785 1785 1785 1785 1785 1785 1794 1794 1794 1794 1794 1794 1794 1794 1794 1794 1794 1794 1794 1794 1794 1794 1804 1804 1804 1804 1804 1813 1813 1398 1381 1381 1376 1376 1376 1376 1376 1376 1376 1376 1376 1381 1381 1381 1387 1392 1398 1398 1404 1794 1804 1804 1804 1804 1804 1804 1804 1794 1794 1794 1794 1804 1813 1813 1813 1813 1813 1813 1813 1804 1804 1804 1813 1813 1823 1833 1863 1883 1894 1894 1904 1904 1904 1904 1894 1894 1894 1894 1894 1894 1894 1904 1904 1904 1894 1894 1894 1317 1317 1317 1312 1312 1312 1312 1312 1312 1312 1312 1312 1312 1312 1312 1312 1312 1312 1312 1312 1312 1312 1794 1794 1794 1794 1794 1794 1794 1794 1804 1804 1804 1804 1804 1804 1804 1804 1804 1804 1804 1804 1804 1804 1804 1813 1813 1813 1813 1813 1813 1813 1813 1813 1813 1813 1813 1813 1813 1813 1804 1804 1794 1785 1785 1794 1804 1804 1804 1813 1813 1813 1813 1823 1813 1813 1813 1804 1804 1813 1804 1804 1804 1804 1804 1813 1813 1813 1813 1813 1813 1813 1804 1804 1804 1804 1804 1804 1813 1813 1813 1823 1813 1813 1813 1823 1823 1833 1833 1833 1833 1833 1833 1833 1833 1833 1833 1833 1833 1833 1843 1843 1328 1328 1333 1333 1328 1328 1328 1333 1333 1333 1333 1333 1333 1333 1333 1333 1333 1333 1328 1328 1926 1926 1926 1936 1936 1936 1936 1936 1947 1947 2271 2271 2286 2286 2286 2301 2317 2301 2286 2286 2812 2812 2812 2789 2789 2789 2789 2789 2789 2789 2789 2789 2789 2789 2789 2789 2789 2789 2789 2789 2789 2789 2789 2789 2789 2789 2789 2789 2789 2789 2789 2789 2789 0 0 0 1503 1503 1503 1509 1509 1509 1509 1509 1509 1509 1509 1509 1509 1509 1509 1509 1509 1509 1509 1509 1509 1516 1516 1516 1516 1516 1516 1516 1516 1516 2789 2789 2767 2767 2767 2789 2789 2789 2789 2789 2789 2789 2789 2789 2789 2789 2789 2789 2767 2767 2767 2767 2767 2767 2767 2767 2767 2767 2767 2767 2767 2767 2767 2767 2767 2767 2767 2767 2767 2767 2767 2767 2767 2767 2767 2767 2767 2767 2767 2767 2767 2767 2767 2767 2767 2767 2767 2767 2767 2767 2767 2767 2767 2767 2767 2767 2767 2767 2767 2767 2767 2767 2767 2767 2789 2789 2789 2812 2812 2812 2812 2812 2812 2812 2812 2789 2789 2789 2789 2789 2789 2789 2789 2789 2789 2789 2789 2789 2789 2789 2789 2789 2789 2789 2789 2767 2767 2767 2767 2767 2767 2744 2744 2744 2744 2744 2767 2767 2767 2744 2744 2744 2744 2744 2744 2744 2744 2744 2744 2744 2723 2723 2744 2744 2723 2723 2723 2723 2744 2744 2744 2744 2744 2744 2723 2723 2723 0 0 0 0 0 0 0 0 0 0
0 0 0 0 0 0 0 0 0 0 0 0 0 0 0 0 0 0 0 0 0 0 0 0 0 0 0 0 0 0 0 0 2618 2618 2598 2598 2598 2598 2618 2618 2618 2618 2618 2639 2639 2639 2639 2639 2639 2639 2639 2618 2618 2618 0 0 0 0 1433 1433 1439 1439 1439 1439 1439 1439 1439 1439 1445 1452 1333 1333 1333 1333 1338 1338 1338 1338 1343 1343 1343 1343 1343 1349 1354 1365 1370 1370 1376 1381 1381 1381 1381 1381 1381 1381 1381 1381 1381 1381 1381 1381 2659 2659 2659 2659 2680 2680 1757 1757 1757 1757 1757 1757 1757 1766 1776 1776 1776 1776 1776 1776 1776 1776 1776 1776 1776 1776 1776 1785 1785 1785 1785 1785 1785 1785 1785 1785 1785 1785 1785 1785 1785 1785 1785 1785 1785 1785 1785 1785 1794 1794 1794 1794 1785 1785 1785 1785 1785 1785 1785 1785 1785 1785 1785 1785 1785 1785 1794 1794 1794 1785 1785 1785 1794 1794 1794 1794 1794 1794 1804 1804 1804 1804 1804 1398 1398 1398 1398 1381 1381 1381 1381 1376 1376 1376 1376 1381 1381 1381 1381 1387 1387 1392 1398 1398 1404 1415 1785 1785 1794 1794 1804 1804 1794 1794 1794 1794 1794 1794 1804 1804 1813 1804 1804 1804 1794 1794 1794 1804 1804 1804 1813 1823 1843 1883 1894 1904 1904 1904 1904 1904 1894 1894 1894 1894 1904 1904 1904 1904 1904 1904 1904 1904 1904 1904 1317 1317 1312 1312 1312 1312 1312 1312 1312 1312 1312 1312 1312 1312 1312 1312 1312 1312 1312 1312 1785 1794 1785 1785 1785 1794 1794 1794 1794 1794 1794 1804 1794 1794 1804 1804 1804 1804 1804 1804 1804 1804 1804 1804 1794 1794 1804 1804 1804 1794 1794 1794 1804 1804 1804 1804 1804 1804 1804 1804 1804 1794 1785 1785 1794 1794 1804 1804 1804 1804 1813 1813 1813 1804 1804 1804 1804 1804 1804 1804 1804 1804 1794 1794 1804 1804 1804 1813 1804 1804 1804 1804 1804 1804 1804 1804 1804 1804 1804 1804 1804 1804 1804 1804 1813 1813 1813 1823 1823 1823 1823 1823 1813 1813 1813 1813 1813 1813 1804 1804 1804 1328 1328 1328 1328 1333 1333 1333 1333 1333 1333 1333 1333 1333 1333 1333 1333 1333 1333 1333 1936 1926 1926 1926 1936 1936 1936 1936 1936 1947 1947 2271 2271 2286 2286 2286 2301 2301 2301 2286 2286 2812 2812 2789 2789 2789 2789 2789 2789 2789 2789 2789 2789 2789 2789 2789 2789 2789 2789 2789 2789 2789 2789 2789 2789 2767 2767 2767 2767 2789 2767 2767 2767 0 0 0 0 1503 1503 1503 1509 1509 1509 1509 1509 1509 1509 1509 1509 1509 1509 1509 1509 1509 1509 1516 1516 1516 1516 1516 1516 1516 1516 1516 1516 1516 1516 2744 2744 2767 2767 2767 2767 2767 2767 2789 2789 2789 2789 2789 2789 2789 2789 2789 2767 2744 2744 2744 2744 2744 2744 2744 2744 2744 2744 2744 2744 2744 2744 2744 2744 2744 2744 2744 2744 2767 2767 2767 2767 2767 2767 2767 2767 2767 2767 2767 2767 2767 2767 2744 2744 2767 2767 2767 2767 2767 2767 2767 2767 2767 2767 2767 2767 2767 2767 2767 2767 2767 2767 2767 2767 2767 2789 2789 2789 2789 2789 2789 2789 2789 2789 2789 2767 2767 2789 2789 2789 2789 2789 2789 2789 2767 2767 2767 2767 2767 2767 2767 2767 2767 2789 2789 2767 2767 2767 2767 2767 2767 2744 2744 2744 2744 2744 2744 2744 2744 2744 2744 2744 2744 2744 2744 2744 2744 2744 2744 2744 2723 2723 2723 2723 2723 2723 2723 2723 2723 2723 2723 2723 2723 2723 2723 2723 2723 0 0 0 0 0 0 0 0 0 0
0 0 0 0 0 0 0 0 0 0 0 0 0 0 0 0 0 0 0 0 0 0 0 0 0 0 0 0 0 0 0 0 2598 2598 2598 2598 2598 2598 2598 2618 2618 2618 2618 2618 2618 2618 2618 2618 2618 2618 2618 2618 2618 2618 2618 0 0 0 1433 1433 1439 1439 1439 1439 1445 1445 1445 1445 1445 1452 1333 1333 1338 1338 1338 1343 1343 1343 1343 1343 1343 1343 1343 1349 1359 1359 1370 1370 1370 1381 1381 1381 1381 1381 1381 1381 1381 1381 1381 1381 1381 1381 1381 1381 1381 1381 2680 2680 1381 1381 1381 1381 1381 1381 1381 1757 1766 1766 1766 1387 1387 1766 1757 1757 1757 1757 1766 1766 1766 1387 1387 1392 1392 1392 1392 1776 1776 1776 1776 1776 1785 1776 1776 1776 1785 1785 1785 1785 1785 1785 1794 1794 1794 1794 1785 1785 1785 1785 1785 1785 1776 1776 1776 1776 1785 1785 1785 1785 1785 1794 1392 1392 1392 1398 1398 1398 1398 1404 1794 1398 1398 1398 1398 1398 1398 1398 1398 1398 1398 1387 1387 1381 1381 1381 1381 1381 1381 1381 1381 1381 1381 1387 1392 1398 1398 1404 1404 1410 1785 1785 1785 1794 1794 1794 1785 1785 1785 1785 1785 1785 1794 1794 1794 1794 1794 1794 1785 1785 1785 1794 1794 1804 1813 1823 1843 1883 1894 1904 1904 1904 1915 1904 1894 1894 1894 1904 1904 1904 1904 1904 1904 1915 1915 1904 1904 1904 1317 1317 1312 1312 1312 1312 1312 1317 1317 1312 1312 1317 1317 1317 1312 1312 1317 1312 1312 1785 1785 1785 1785 1785 1785 1785 1785 1785 1785 1785 1785 1794 1785 1785 1794 1794 1794 1804 1794 1794 1794 1794 1794 1794 1794 1794 1794 1794 1794 1794 1794 1785 1785 1785 1785 1785 1794 1794 1804 1804 1794 1794 1785 1785 1785 1785 1794 1794 1794 1804 1804 1804 1804 1804 1794 1794 1794 1794 1794 1794 1794 1794 1794 1794 1794 1794 1794 1804 1804 1804 1794 1794 1794 1794 1794 1794 1794 1804 1794 1794 1804 1804 1804 1804 1804 1804 1813 1813 1813 1813 1813 1813 1804 1804 1804 1804 1804 1804 1804 1804 1804 1328 1328 1328 1328 1333 1333 1333 1333 1333 1333 1333 1333 1333 1333 1333 1333 1333 1333 1338 1936 1926 1926 1926 1936 1936 1936 1947 1947 1947 1947 2271 2271 2286 2286 2286 2301 2301 2301 2271 2271 2789 2789 2789 2789 2767 2767 2767 2767 2767 2767 2767 2767 2789 2789 2789 2767 2767 2767 2767 2767 2767 2767 2767 2767 2767 2767 2767 2767 2767 2767 2767 2767 0 0 0 0 1503 1503 1509 1509 1509 1509 1509 1509 1509 1509 1509 1509 1509 1509 1509 1509 1509 1516 1516 1516 1516 1516 1516 1516 1516 1516 1516 1516 1516 1516 2744 2744 2744 2744 2744 2767 2767 2767 2767 2767 2789 2789 2767 2767 2767 2767 2767 2767 2744 2744 2744 2744 2744 2744 2744 2744 2744 2744 2744 2744 2744 2744 2744 2744 2744 2744 2744 2744 2744 2767 2767 2767 2767 2767 2767 2767 2744 2744 2744 2744 2744 2744 2744 2744 2744 2744 2744 2744 2744 2744 2744 2744 2744 2744 2767 2767 2767 2767 2767 2767 2767 2767 2767 2767 2767 2767 2789 2789 2789 2789 2789 2789 2789 2789 2789 2767 2767 2767 2767 2767 2767 2767 2767 2767 2767 2767 2767 2767 2767 2767 2767 2767 2767 2767 2767 2744 2744 2744 2744 2744 2744 2744 2744 2744 2744 2744 2744 2744 2744 2744 2744 2744 2744 2744 2723 2723 2744 2744 2723 2723 2723 2723 2701 2701 2701 2701 2701 2723 2723 2723 2723 2723 2723 2723 2723 2723 2723 0 0 0 0 0 0 0 0 0 0
0 0 0 0 0 0 0 0 0 0 0 0 0 0 0 0 0 0 0 0 0 0 0 0 0 0 0 0 0 0 0 0 2579 2579 2579 2579 2579 2579 2598 2598 2598 2598 2598 2598 2618 2618 2618 2618 2618 2618 2618 2618 2618 2618 0 0 0 0 1433 1433 1439 1439 1439 1445 1445 1445 1445 1445 1445 1452 1333 1333 1338 1338 1338 1343 1343 1343 1343 1343 1343 1349 1349 1349 1359 1359 1365 1370 1370 1381 1381 1381 1381 1381 1381 1381 1381 1381 1381 1381 1381 1381 1381 1381 1381 1381 1381 1381 1381 1381 1381 1381 1381 1381 1381 1381 1381 1381 1381 1381 1381 1387 1381 1381 1381 1381 1757 1757 1766 1387 1387 1387 1387 1387 1387 1392 1392 1398 1398 1398 1398 1398 1766 1766 1766 1766 1766 1766 1776 1398 1398 1392 1392 1398 1398 1398 1398 1392 1392 1392 1392 1392 1392 1392 1392 1387 1387 1392 1392 1392 1392 1392 1392 1398 1398 1398 1398 1398 1398 1398 1398 1398 1398 1398 1398 1404 1404 1404 1398 1398 1392 1387 1381 1381 1381 1381 1381 1381 1381 1381 1387 1387 1392 1398 1398 1404 1404 1410 1776 1776 1776 1785 1785 1785 1785 1776 1776 1785 1785 1785 1785 1785 1785 1785 1785 1785 1785 1785 1785 1785 1794 1804 1813 1823 1843 1883 1894 1904 1904 1904 1915 1915 1904 1904 1904 1904 1904 1904 1904 1904 1904 1915 1915 1904 1904 1904 1322 1322 1317 1312 1312 1317 1317 1317 1317 1317 1317 1317 1317 1317 1317 1317 1317 1312 1312 1776 1776 1776 1776 1776 1776 1785 1785 1785 1785 1785 1785 1785 1785 1785 1794 1794 1794 1794 1794 1794 1794 1785 1785 1785 1785 1785 1794 1794 1785 1785 1785 1785 1785 1785 1785 1785 1785 1794 1794 1794 1794 1785 1785 1785 1785 1785 1785 1785 1794 1794 1794 1794 1804 1804 1794 1794 1794 1794 1794 1785 1785 1785 1785 1785 1785 1785 1785 1794 1794 1794 1794 1794 1794 1794 1794 1794 1794 1794 1794 1794 1794 1794 1804 1804 1804 1804 1804 1804 1804 1804 1804 1804 1804 1794 1794 1794 1794 1794 1794 1794 1794 1794 1338 1338 1338 1338 1333 1333 1333 1333 1333 1338 1338 1338 1338 1338 1338 1333 1333 1338 1338 1338 1349 1936 1936 1936 1947 1947 1947 1947 1947 2271 2271 2286 2286 2286 2286 2301 2286 2271 2271 2767 2767 2767 2767 2767 2767 2767 2767 2767 2767 2767 2767 2767 2767 2767 2767 2767 2767 2767 2767 2767 2767 2767 2767 2767 2767 2767 2767 2767 2744 2744 2744 2744 0 0 0 1503 1503 1509 1509 1509 1509 1509 1509 1509 1509 1509 1509 1516 1516 1516 1516 1516 1516 1516 1516 1516 1516 1523 1516 1516 1516 1516 1516 1516 1516 2744 2744 2744 2744 2744 2744 2767 2767 2767 2767 2767 2767 2767 2767 2767 2767 2767 2767 2744 2744 2744 2744 2744 2744 2744 2744 2744 2744 2744 2744 2723 2723 2723 2744 2744 2744 2744 2744 2744 2744 2744 2744 2767 2767 2767 2767 2744 2744 2744 2744 2744 2723 2723 2744 2744 2744 2744 2744 2744 2744 2744 2744 2744 2744 2744 2744 2744 2744 2744 2744 2744 2744 2744 2744 2744 2767 2767 2789 2789 2789 2789 2767 2767 2767 2767 2767 2767 2767 2767 2767 2767 2767 2767 2767 2744 2744 2767 2767 2767 2767 2767 2767 2767 2767 2767 2744 2744 2744 2723 2723 2723 2723 2723 2744 2723 2723 2744 2723 2723 2723 2723 2723 2723 2723 2723 2723 2723 2723 2723 2723 2701 2701 2701 2701 2701 2701 2701 2701 2701 2701 2701 2723 2723 2723 2723 2723 2723 0 0 0 0 0 0 0 0 0 0
