0 0 0 0 0 0 0 0 0 0 0 0 0 0 0 0 0 0 0 0 0 0 0 0 0 0 0 0 0 0 0 3208 3208 3238 3178 3178 3178 3178 3208 3208 3178 3178 3208 3300 3300 3333 3333 1415 1415 1421 1421 0 0 1433 0 0 0 3503 3503 3468 1410 1410 1398 1398 1398 1398 1404 0 0 0 0 0 0 0 0 0 0 0 0 0 0 0 0 0 0 0 0 0 0 0 0 4645 4645 4645 4774 4708 4708 4708 0 0 0 0 0 0 0 0 0 0 0 4645 4645 4645 1359 1359 1359 1365 1365 1365 1370 1370 1381 1381 1381 0 0 0 0 0 0 0 0 0 1970 1981 1981 1981 2005 2016 2016 2028 2028 2028 2028 2028 2028 2028 2028 2028 2040 2040 2040 2040 2040 2028 2028 2028 2005 2005 2005 2005 2016 2016 2016 2016 2016 2028 2028 2016 2016 2028 2016 2016 2028 2028 2028 2028 2016 2016 2016 2016 2016 2005 2005 2005 2005 2005 2005 2005 2016 2016 2016 2016 2016 2016 2016 2005 2005 1993 1993 1981 1981 1981 1981 1981 1981 1993 1993 1993 1981 1981 1981 1981 1970 1970 1970 1970 1970 1981 1981 1981 1993 1981 1981 1981 1981 1970 1970 1970 1970 1970 1959 1959 1959 1959 1970 1959 1959 1959 1959 1959 1959 1959 1947 1947 1947 1947 1947 1947 1947 1947 1959 1970 1970 1970 1970 1970 1970 1959 1959 1959 1959 1959 1947 1947 1959 1959 1959 1947 1947 1959 1947 1947 1936 1936 1936 1936 1936 1936 1936 1936 1936 1947 1959 1947 1947 1936 1936 1936 1936 1936 1936 1936 1936 1936 1936 1936 1936 1926 1926 1926 1926 1915 1915 1915 1915 1926 1926 1926 1926 1926 1926 1926 1926 1926 1904 1904 1904 1904 1904 1904 1904 1904 1904 1915 1915 1915 1904 1904 1894 1894 1894 1883 1883 1883 1883 1873 1873 1873 1873 1873 1883 1883 1883 1883 1883 1883 1883 1883 1883 1883 1883 1883 1883 1883 1883 1883 1873 1873 1873 1873 1873 1873 1873 1873 1873 1873 1863 1863 1863 1863 1863 1873 1873 1883 1873 1873 1873 1873 1873 1873 1873 1873 1873 1873 1873 1863 1863 1863 1863 1853 1853 1853 1853 1853 1853 1853 1863 1863 1873 1873 1873 1863 1863 1853 1853 1843 1833 1833 1833 1843 1843 1843 1843 1843 1833 1833 1833 1833 1833 1833 1823 1823 1823 1823 1823 1813 1813 1813 1813 1823 1823 1823 1823 1823 1823 1823 1813 1813 1813 1804 1804 1804 1804 1804 1804 1813 1804 1804 1813 1813 4582 4522 4522 4463 4463 4405 4405 4405 4405 4349 4349 4349 4349 4349 4349 4349 4349 4349 4349 4349 4349 4349 4349 4349 4349 4295 4295 4295 4295 4295 4295 4295 4295 4349 4349 4349 4349 4349 4349 4295 4295 4295 4241 4241 4241 4190 4190 4190 4190 4190 4190 4241 4241 4241 4241 4241 4295 4295 4295 4295 4295 4295 4295 4241 4241 4241 4241 4190 4190 4139 4139 4139 4139 4139 4139 4139 4139 4139 4139 4139 4139 4089 4089 4089 4089 4089 4139 4089 4089 4139 4139 4139 4139 4139 4139 4139 4190 4190 4139 4139 4139 4089 4089 4089 4041 4041 4041 4089 4089 4089 4089 4089 4089 4089 4089 4139 4139 4139 4089 4089 0 0 0 0 0 4139 4089 4089 4089 4089 0 0 0 0 0 0 0 0 0 0 0 0 0 0 0 0 0 3859 3859 3859 0 3903 3903 3948 3948 3903 3903 3903 3903 0 0 0 0 3300 3300 3300 3269 3269 3238 3238 0 0 0 0 0 0 0 0 0 0 0 0 0 0 0 0 0 0 0 0
0 0 0 0 0 0 0 0 0 0 0 0 0 0 0 0 0 0 0 0 0 0 0 0 0 0 0 0 0 0 0 3208 3208 3238 3178 3178 3178 3178 3208 3208 3208 3208 3208 3300 3300 1415 1415 1415 1415 1421 1421 1421 1433 0 1410 0 1404 0 1410 1410 1410 1410 1410 1404 1404 1404 1404 0 0 0 0 0 0 0 0 0 0 1381 1381 1381 1381 1381 1376 1376 1381 1381 0 0 0 0 0 4645 4645 4708 4774 4708 4708 4708 0 0 0 0 0 0 0 0 0 0 1359 1359 1359 1359 1359 1359 1365 1365 1365 1365 1365 1370 1370 1376 1370 1370 0 0 0 0 0 0 1970 0 1970 1970 1970 1981 1993 2005 2005 2005 2016 2016 2016 2016 2005 2005 2005 2005 2016 2028 2028 2028 2016 2016 2016 2016 1993 1993 1993 1993 2005 2005 2005 2005 2005 2016 2016 2005 2005 2005 2005 2005 2005 2005 2005 2005 2005 2005 2005 1993 1993 1993 1981 1981 1981 1981 1981 1981 1993 1993 1993 2005 2005 1993 1993 1981 1981 1981 1970 1970 1970 1970 1970 1959 1959 1959 1959 1970 1959 1959 1959 1970 1959 1959 1959 1959 1959 1970 1970 1970 1970 1970 1970 1970 1970 1959 1959 1959 1959 1959 1947 1947 1947 1947 1947 1947 1947 1947 1947 1947 1936 1936 1926 1926 1926 1926 1936 1926 1926 1936 1936 1936 1936 1926 1926 1936 1926 1926 1926 1926 1926 1926 1926 1926 1926 1926 1926 1926 1926 1926 1926 1926 1926 1915 1915 1915 1915 1915 1915 1926 1926 1936 1936 1936 1926 1926 1926 1926 1915 1915 1926 1926 1926 1926 1926 1926 1926 1915 1915 1915 1915 1904 1904 1904 1904 1915 1915 1915 1915 1926 1915 1915 1915 1904 1894 1894 1894 1894 1894 1894 1894 1894 1894 1894 1894 1894 1894 1894 1883 1883 1883 1873 1873 1873 1873 1863 1863 1863 1863 1863 1863 1873 1873 1873 1873 1873 1873 1873 1863 1863 1863 1863 1863 1873 1873 1873 1863 1863 1863 1863 1863 1863 1863 1863 1853 1853 1853 1853 1853 1853 1853 1853 1853 1863 1863 1863 1863 1863 1863 1863 1863 1863 1863 1863 1863 1863 1863 1853 1843 1833 1833 1833 1833 1833 1833 1843 1843 1843 1853 1853 1853 1853 1843 1833 1833 1833 1823 1823 1823 1823 1833 1823 1823 1823 1813 1813 1813 1813 1813 1813 1813 1813 1804 1804 1804 1804 1804 1804 1804 1813 1813 1813 1813 1813 1813 1813 1804 1804 1794 1794 1794 1794 1794 1794 1794 1794 1794 1794 1794 1794 4522 4522 4463 4463 4405 4349 4349 4349 4349 4349 4349 4349 4349 4349 4349 4349 4349 4349 4295 4295 4295 4295 4295 4295 4295 4295 4295 4295 4295 4295 4295 4295 4295 4295 4295 4295 4295 4295 4295 4295 4241 4241 4241 4241 4190 4190 4139 4139 4139 4190 4190 4241 4241 4241 4241 4241 4241 4241 4241 4295 4241 4241 4241 4241 4241 4241 4190 4190 4190 4139 4139 4089 4089 4089 4139 4139 4139 4139 4139 4089 4089 4089 4089 4089 4089 4089 4089 4089 4089 4089 4089 4089 4089 4089 4139 4139 4139 4139 4089 4089 4089 4089 4041 4041 4041 4041 4041 4041 4041 4089 4089 4089 4089 4089 4089 4139 4190 4190 4089 4089 0 0 0 0 4089 4089 4041 4041 4041 3994 3994 3994 0 0 0 0 0 0 0 0 0 0 0 0 0 0 3816 3816 3859 3859 3903 3859 3859 3903 3903 3903 3903 3859 3859 3903 0 0 0 3300 3300 3300 3269 3269 3238 3238 3238 0 0 0 0 0 0 0 0 0 0 0 0 0 0 0 0 0 0 0
0 0 0 0 0 0 0 0 0 0 0 0 0 0 0 0 0 0 0 0 0 0 0 0 0 0 0 0 0 0 0 3238 3178 3178 3178 3178 3178 3208 3208 3208 3208 1415 1415 1415 1415 1415 1415 1415 1415 1421 1415 1415 1410 1410 0 1398 0 1404 1404 1410 1410 1410 1404 1404 1404 1398 1392 1392 0 0 0 0 0 0 0 0 1387 1381 1381 1381 1381 1381 1376 1376 1376 1376 0 0 0 0 0 4645 4645 4708 4774 4774 1359 1359 0 0 0 0 0 0 0 0 0 0 0 0 1359 1359 1359 1359 1359 1365 1365 1365 1365 1365 1370 1370 1370 1370 1370 1370 0 0 0 0 0 1970 1970 1970 1970 1981 1981 1993 2005 2005 2005 2005 2005 2005 1993 1993 1993 1993 2005 2005 2005 2005 2005 2005 2005 2005 1993 1993 1993 1993 1993 1993 1993 1981 1981 1981 1981 1993 1993 1981 1981 1981 1981 1981 1981 1981 1981 1970 1970 1970 1970 1970 1970 1970 1970 1970 1970 1970 1970 1970 1970 1981 1981 1981 1981 1959 1959 1959 1959 1959 1959 1959 1959 1947 1947 1947 1947 1947 1947 1947 1947 1947 1947 1947 1947 1947 1947 1947 1959 1936 1936 1947 1947 1947 1947 1947 1947 1936 1936 1936 1936 1936 1936 1936 1936 1936 1936 1936 1936 1936 1926 1926 1915 1915 1915 1915 1915 1915 1915 1926 1926 1915 1915 1915 1915 1915 1904 1904 1904 1904 1915 1915 1915 1915 1915 1915 1904 1904 1904 1904 1904 1904 1904 1915 1915 1915 1904 1904 1904 1904 1904 1894 1894 1894 1894 1894 1894 1894 1894 1894 1904 1904 1904 1904 1904 1904 1894 1883 1883 1894 1894 1894 1894 1894 1894 1894 1904 1904 1904 1904 1904 1894 1894 1894 1883 1883 1883 1883 1883 1883 1883 1883 1883 1883 1883 1883 1883 1883 1873 1873 1873 1873 1873 1863 1863 1853 1853 1853 1853 1853 1843 1843 1873 1863 1863 1863 1853 1853 1853 1853 1853 1853 1853 1853 1853 1853 1853 1843 1843 1853 1853 1853 1843 1843 1843 1843 1843 1843 1843 1843 1843 1843 1843 1843 1843 1843 1843 1853 1853 1853 1853 1853 1853 1863 1853 1853 1843 1843 1833 1823 1823 1823 1823 1823 1823 1823 1823 1833 1833 1833 1833 1833 1823 1823 1823 1823 1823 1823 1823 1823 1823 1813 1813 1813 1804 1794 1794 1794 1794 1804 1804 1804 1794 1794 1794 1794 1794 1794 1804 1813 1813 1804 1804 1804 1804 1794 1785 1785 1776 1776 1785 1776 1776 1776 1785 1785 1785 1785 1785 1785 1785 4463 4463 4463 4405 4349 4349 4349 4349 4295 4295 4295 4295 4295 4349 4295 4295 4295 4295 4295 4295 4295 4295 4295 4295 4295 4295 4295 4241 4241 4241 4295 4295 4295 4295 4295 4295 4295 4295 4241 4241 4190 4190 4190 4190 4139 4139 4139 4139 4139 4139 4190 4190 4190 4190 4190 4190 4190 4190 4190 4190 4190 4190 4190 4190 4190 4190 4139 4139 4139 4139 4089 4089 4089 4139 4139 4139 4089 4089 4089 4089 4041 4041 4041 4041 4041 4041 4041 4041 4041 4041 4041 4089 4089 4089 4089 4089 4089 4089 4089 4041 4041 4041 4041 4041 4041 4041 4041 4041 4089 4089 4089 4089 4089 4089 0 0 0 0 0 0 0 0 4041 4041 4041 4041 4041 3994 3994 3994 3994 0 0 0 0 0 0 0 0 0 0 0 3859 3816 3816 3816 3816 3816 3816 3859 3859 3859 3859 3903 3859 3859 3859 3859 3859 3859 0 3300 3300 3300 3300 3269 3269 3269 3238 3208 3208 0 0 0 0 0 0 0 0 0 0 0 0 0 0 0 0 0 0
0 0 0 0 0 0 0 0 0 0 0 0 0 0 0 0 0 0 0 0 0 0 0 0 0 0 0 0 0 0 0 3238 3178 3178 3010 2984 2984 2984 1415 1415 1415 1415 1415 1415 1415 1415 1415 1415 1415 1415 1415 1410 1404 1404 1404 1398 1398 1398 1404 1404 1404 1404 1404 1404 1398 1398 1392 1381 1381 1381 0 0 1392 1387 1387 1387 1387 1381 1381 1381 1381 1381 1376 1376 1376 1376 1376 1376 1376 1376 0 1370 1370 1376 1376 1370 1359 1359 1370 0 0 0 0 0 0 0 0 0 0 1359 1359 1359 1354 1354 1359 1359 1359 1359 1365 1365 1365 1365 1370 1370 1370 1370 1376 0 1947 1947 1959 1959 1970 1970 1970 1981 1981 1993 1993 1993 1993 1993 1993 1993 1981 1981 1981 1981 1981 1970 1970 1981 1993 1993 1993 1993 1981 1981 1981 1981 1981 1981 1981 1970 1970 1970 1981 1981 1970 1970 1959 1959 1959 1959 1947 1947 1959 1947 1947 1947 1959 1959 1959 1959 1947 1947 1947 1947 1947 1947 1947 1959 1959 1947 1947 1947 1947 1947 1947 1947 1947 1947 1947 1936 1936 1936 1936 1936 1936 1936 1936 1936 1936 1936 1936 1936 1936 1936 1926 1926 1926 1926 1926 1926 1915 1915 1926 1926 1926 1926 1926 1926 1926 1926 1926 1926 1926 1926 1926 1926 1915 1915 1904 1904 1904 1904 1904 1904 1904 1904 1904 1904 1894 1894 1894 1894 1894 1894 1894 1894 1894 1894 1894 1894 1894 1894 1894 1883 1883 1894 1883 1883 1894 1894 1894 1894 1894 1894 1894 1894 1894 1883 1883 1883 1883 1883 1873 1873 1873 1873 1883 1883 1883 1883 1883 1883 1883 1873 1873 1873 1873 1873 1873 1873 1873 1873 1863 1863 1863 1853 1853 1853 1853 1853 1853 1863 1863 1863 1873 1863 1863 1863 1863 1863 1863 1853 1853 1863 1843 1843 1853 1853 1853 1853 1853 1843 1843 1843 1843 1843 1843 1843 1843 1853 1833 1833 1843 1843 1843 1843 1843 1843 1843 1843 1843 1843 1833 1833 1833 1833 1833 1833 1833 1833 1833 1833 1833 1833 1823 1823 1823 1833 1833 1823 1823 1833 1833 1833 1833 1833 1833 1843 1843 1843 1843 1833 1823 1823 1823 1813 1813 1813 1813 1813 1813 1813 1813 1813 1813 1813 1804 1804 1804 1804 1804 1804 1804 1804 1813 1813 1813 1804 1804 1804 1794 1785 1785 1785 1785 1785 1794 1794 1785 1785 1785 1785 1785 1785 1785 1785 1785 1785 1776 1776 1776 1766 1766 1766 1766 1766 1766 1766 1776 1776 1776 1776 1776 1785 1785 1785 0 4463 4463 4405 4349 4349 4349 4295 4295 4295 4295 4295 4295 4295 4295 4295 4241 4241 4241 4241 4241 4241 4241 4295 4295 4241 4241 4241 4241 4241 4241 4241 4241 4295 4295 4295 4295 4241 4241 4241 4190 4190 4139 4139 4139 4139 4089 4089 4089 4139 4139 4139 4139 4139 4139 4139 4139 4139 4190 4190 4139 4139 4139 4139 4139 4139 4139 4139 4139 4139 4139 4139 4139 4139 4089 4089 4089 4089 4089 4041 4041 4041 4041 4041 4041 4041 4041 4041 4041 4041 4041 4041 4041 4089 4089 4089 4089 4089 4089 4041 4041 4041 4041 4041 4041 4041 4041 4041 4041 4041 4041 4041 4041 4089 4089 4089 0 0 0 0 0 0 0 4041 4041 4041 4041 4041 3994 3994 3994 3948 3948 0 0 0 0 0 0 0 0 0 3859 3859 3816 3816 3816 3816 3816 3816 3816 3816 3816 3774 3774 3774 3774 3816 3816 3816 3816 3816 3300 3300 3300 3269 3269 3269 3269 3238 3208 3208 3208 0 0 0 0 0 0 0 0 0 0 0 0 0 0 0 0 0
0 0 0 0 0 0 0 0 0 0 0 0 0 0 0 0 0 0 0 0 0 0 0 0 0 0 0 0 0 0 0 3300 3300 3333 3010 2984 2984 2984 1415 1415 1415 1415 1415 1415 1415 1415 1415 1415 1415 1415 1410 1410 1404 1404 1404 1398 1398 1398 1398 1398 1398 1398 1398 1398 1398 1392 1387 1381 1381 1381 1387 1387 1387 1387 1387 1387 1387 1381 1381 1381 1381 1381 1376 1376 1376 1376 1376 1376 1376 1365 1365 1370 1370 1376 1376 1370 1370 1370 1370 1376 1376 1376 0 0 0 0 0 0 0 1359 1359 1354 1354 1354 1359 1359 1359 1359 1359 1365 1365 1365 1365 1365 1370 1370 1370 1370 1947 1947 1947 1959 1959 1959 1970 1970 1970 1970 1981 1981 1981 1981 1981 1970 1970 1970 1970 1970 1970 1959 1959 1970 1981 1981 1981 1993 1981 1981 1970 1970 1970 1970 1959 1947 1947 1947 1947 1947 1936 1936 1947 1947 1947 1947 1947 1947 1947 1947 1947 1947 1947 1947 1947 1947 1936 1936 1926 1926 1926 1926 1915 1915 1915 1915 1915 1926 1926 1926 1926 1936 1936 1936 1936 1936 1936 1936 1936 1936 1936 1936 1936 1936 1936 1926 1926 1926 1926 1926 1915 1915 1904 1904 1904 1904 1904 1904 1915 1915 1915 1915 1915 1926 1915 1915 1915 1915 1926 1915 1915 1904 1904 1904 1894 1894 1894 1894 1894 1894 1894 1894 1894 1894 1894 1894 1894 1894 1894 1883 1883 1883 1883 1883 1894 1894 1883 1883 1883 1883 1883 1873 1873 1873 1873 1883 1883 1883 1883 1873 1873 1873 1873 1873 1873 1863 1863 1873 1863 1853 1853 1853 1873 1873 1853 1853 1873 1863 1853 1853 1853 1853 1853 1853 1853 1863 1853 1853 1853 1853 1853 1843 1843 1843 1843 1843 1843 1843 1843 1843 1843 1843 1843 1843 1843 1843 1843 1843 1843 1853 1843 1843 1843 1843 1843 1833 1833 1833 1833 1833 1833 1833 1833 1823 1823 1813 1813 1813 1823 1823 1823 1823 1823 1823 1833 1813 1813 1813 1813 1813 1833 1833 1833 1833 1833 1823 1823 1823 1813 1813 1813 1813 1813 1813 1813 1813 1813 1833 1823 1823 1823 1823 1813 1813 1813 1813 1804 1804 1785 1785 1804 1794 1794 1804 1804 1804 1804 1804 1794 1794 1794 1794 1794 1794 1785 1785 1794 1794 1804 1804 1804 1804 1804 1794 1794 1794 1785 1785 1776 1776 1776 1785 1785 1785 1785 1776 1776 1785 1776 1776 1776 1766 1766 1757 1757 1757 1757 1757 1757 1757 1757 1757 1757 1757 1757 1766 1766 1766 1766 1776 1776 1776 0 4405 4405 4349 4349 4295 4295 4295 4295 4295 4295 4295 4295 4295 4295 4295 4241 4241 4241 4241 4241 4241 4241 4241 4241 4241 4241 4241 4241 4241 4241 4241 4241 4241 4241 4241 4241 4241 4241 4190 4139 4139 4139 4139 4139 4089 4089 4089 4089 4089 4089 4139 4139 4139 4139 4139 4139 4139 4139 4139 4089 4089 4089 4089 4089 4089 4089 4089 4139 4139 4139 4139 4089 4089 4089 4089 4089 4041 4041 4041 4041 4041 4041 4041 3994 3994 3994 3994 3994 3994 3994 3994 4041 4041 4041 4041 4041 4089 4041 4041 4041 4041 4041 4041 4041 4041 4041 4041 4041 4041 4041 3994 3994 3994 3994 4041 0 0 0 0 0 0 0 4041 3994 3994 3994 3994 3994 3948 3948 3948 3903 3816 3816 0 0 0 0 0 0 0 3859 3859 3816 3816 3816 3816 3816 3816 3816 3816 3816 3774 3774 3774 3774 3816 3774 3774 3816 3816 3300 3300 3300 3269 3269 3269 3269 3238 3238 3208 3208 3300 3300 0 0 0 0 0 0 0 0 0 0 0 0 0 0 0
0 0 0 0 0 0 0 0 0 0 0 0 0 0 0 0 0 0 0 0 0 0 0 0 0 0 0 0 0 0 0 3333 3333 3365 0 0 0 1415 1415 1415 1410 1410 1410 1410 1415 1415 1415 1415 1410 1410 1410 1404 1404 1404 1398 1398 1398 1398 1398 1398 1398 1398 1398 1398 1398 1392 1387 1387 1387 1387 1387 1387 1387 1387 1387 1387 1381 1381 1381 1381 1381 1381 1376 1376 1376 1376 1376 1376 1376 1365 1365 1370 1376 1381 1376 1376 1376 1376 1376 1376 1370 1365 1365 1370 1370 1365 1365 1359 1354 1354 1354 1354 1354 1354 1359 1359 1359 1359 1359 1365 1359 1359 1365 1365 1370 1370 1370 1370 1947 1947 1947 1947 1959 1959 1959 1959 1959 1959 1959 1970 1970 1970 1970 1970 1970 1970 1959 1959 1959 1959 1959 1959 1981 1970 1970 1981 1970 1970 1970 1959 1959 1947 1947 1936 1936 1936 1926 1926 1936 1936 1936 1936 1936 1926 1926 1926 1926 1926 1926 1926 1926 1926 1926 1915 1915 1915 1915 1915 1915 1915 1904 1904 1904 1904 1904 1904 1904 1904 1915 1926 1926 1936 1926 1926 1926 1926 1926 1926 1926 1915 1915 1915 1915 1915 1915 1915 1915 1915 1904 1904 1894 1894 1894 1894 1894 1894 1904 1904 1904 1904 1904 1915 1915 1915 1915 1915 1915 1904 1904 1904 1894 1894 1883 1883 1883 1883 1883 1883 1883 1883 1883 1883 1883 1883 1883 1873 1873 1873 1873 1873 1873 1873 1883 1883 1873 1873 1873 1873 1873 1863 1863 1863 1863 1863 1863 1863 1863 1863 1863 1853 1853 1853 1853 1853 1853 1853 1853 1843 1843 1853 1853 1843 1843 1843 1843 1833 1833 1843 1843 1843 1843 1843 1843 1853 1843 1843 1843 1833 1833 1833 1833 1833 1823 1823 1833 1833 1833 1833 1823 1823 1823 1843 1833 1823 1813 1813 1823 1843 1833 1833 1833 1833 1833 1813 1813 1813 1813 1813 1813 1813 1813 1813 1813 1804 1804 1804 1813 1813 1813 1813 1813 1813 1804 1804 1794 1794 1794 1794 1794 1794 1794 1804 1794 1794 1794 1794 1794 1794 1794 1785 1785 1785 1785 1794 1785 1785 1785 1785 1785 1785 1804 1804 1804 1794 1766 1766 1766 1766 1776 1785 1785 1794 1794 1794 1794 1785 1785 1785 1785 1785 1785 1785 1785 1785 1785 1785 1785 1785 1785 1785 1785 1785 1776 1776 1776 1766 1766 1766 1766 1766 1766 1766 1776 1766 1766 1766 1757 1757 1748 1748 1748 1739 1739 1739 1739 1739 1739 1739 1739 1739 1739 1748 1748 1757 1757 1757 1757 1766 1776 1776 0 4349 4349 4295 4295 4241 4241 4241 4241 4241 4241 4241 4241 4295 4241 4241 4241 4241 4241 4190 4190 4190 4190 4190 4241 4190 4190 4241 4190 4190 4190 4190 4190 4241 4241 4241 4190 4190 4190 4190 4139 4139 4139 4139 4139 4089 4089 4089 4089 4089 4089 4089 4089 4089 4089 4089 4089 4089 4089 4089 4089 4089 4089 4089 4089 4089 4089 4089 4089 4139 4139 4089 4089 4089 4089 4089 4041 4041 4041 4041 4041 4041 3994 3994 3994 3994 3994 3994 3994 3994 3994 3994 4041 4041 4041 3994 3994 4041 4041 4041 4041 4041 4041 4041 4041 4041 4041 4041 4041 4041 4041 3994 3948 3948 3948 4041 0 0 0 0 0 0 0 4041 3994 3994 3948 3948 3948 3948 3948 3948 3859 3816 3816 0 0 0 0 0 0 0 3903 3859 3859 3816 3816 3816 3816 3774 3774 3774 3774 3774 3774 3774 3774 3774 3774 3774 3816 3816 3816 3300 3300 3269 3269 3269 3269 3238 3238 3238 3238 3269 3269 0 0 0 0 0 0 0 0 0 0 0 0 0 0 0
0 0 0 0 0 0 0 0 0 0 0 0 0 0 0 0 0 0 0 0 0 0 0 0 0 0 0 0 0 0 0 0 0 0 0 0 0 1415 1415 1415 1410 1410 1410 1410 1415 1415 1410 1410 1410 1410 1410 1404 1404 1404 1398 1398 1398 1398 1398 1398 1398 1398 1392 1392 1392 1392 1387 1387 1392 1392 1387 1387 1387 1387 1387 1387 1381 1381 1381 1381 1381 1381 1376 1376 1376 1376 1376 1381 1376 1376 1376 1376 1376 1376 1376 1376 1376 1376 1376 1376 1370 1365 1365 1370 1370 1365 1365 1359 1354 1354 1354 1354 1354 1354 1354 1354 1354 1359 1359 1359 1359 1359 1365 1365 1365 1365 1365 1365 1947 1947 1947 1947 1947 1947 1959 1959 1959 1959 1959 1959 1959 1959 1959 1959 1959 1959 1947 1947 1947 1947 1947 1947 1959 1959 1959 1959 1959 1947 1947 1947 1936 1926 1926 1926 1926 1926 1915 1915 1915 1915 1915 1915 1915 1915 1904 1904 1915 1915 1915 1915 1915 1915 1904 1904 1904 1904 1904 1904 1904 1904 1904 1904 1894 1894 1904 1894 1894 1894 1904 1915 1915 1915 1904 1904 1904 1904 1904 1915 1915 1904 1904 1904 1904 1904 1904 1894 1894 1904 1894 1894 1883 1883 1894 1883 1883 1883 1894 1894 1894 1894 1894 1904 1904 1904 1904 1904 1894 1894 1894 1894 1883 1883 1873 1873 1873 1873 1873 1873 1873 1873 1873 1873 1873 1873 1863 1863 1863 1863 1863 1863 1863 1863 1873 1873 1863 1863 1863 1863 1853 1853 1843 1843 1843 1843 1843 1843 1833 1833 1843 1843 1843 1843 1843 1843 1833 1833 1833 1833 1833 1833 1833 1833 1833 1833 1823 1823 1823 1823 1823 1833 1833 1833 1833 1843 1833 1833 1823 1823 1823 1823 1823 1823 1813 1813 1823 1823 1823 1813 1813 1813 1813 1813 1804 1804 1804 1804 1804 1813 1804 1804 1804 1804 1804 1804 1804 1804 1804 1804 1804 1804 1804 1804 1804 1804 1794 1794 1794 1794 1804 1794 1794 1794 1794 1785 1785 1785 1785 1785 1785 1785 1785 1785 1785 1776 1776 1776 1776 1776 1776 1776 1776 1776 1776 1776 1776 1776 1776 1776 1766 1766 1766 1766 1766 1766 1757 1757 1757 1757 1757 1766 1766 1766 1766 1776 1776 1766 1766 1766 1766 1766 1766 1776 1776 1766 1766 1776 1776 1776 1776 1776 1776 1776 1766 1766 1757 1757 1757 1757 1757 1757 1757 1757 1757 1748 1748 1748 1748 1739 1739 1739 1731 1731 1731 1731 1731 1731 1731 1731 1731 1731 1731 1739 1739 1748 1748 1748 1757 1757 1757 0 0 0 4295 4295 4241 4241 4241 4241 4241 4190 4190 4190 4241 4241 4241 4241 4241 4241 4190 4190 4190 4190 4190 4190 4190 4190 4190 4190 4190 4190 4190 4190 4190 4190 4190 4190 4139 4139 4139 4139 4089 4089 4089 4139 4139 4089 4089 4089 4089 4089 4089 4089 4089 4041 4041 4089 4089 4089 4041 4041 4089 4089 4089 4089 4089 4089 4089 4089 4089 4139 4139 4089 4089 4089 4089 4089 4041 4041 4041 4041 4041 4041 3994 3994 3994 3948 3948 3948 3948 3948 3948 3994 3994 3994 3948 3948 3948 3994 3994 3994 3994 3994 4041 4041 4041 4041 4041 4041 3994 3994 3948 3948 3948 3903 3903 3903 0 0 0 0 0 4041 4041 3994 3948 3948 3948 3903 3903 3903 3903 3903 3859 3816 3816 0 0 0 0 0 0 0 0 3859 3816 3816 3816 3816 3774 3732 3732 3732 3732 3732 3732 3732 3732 3732 3732 3732 3732 3732 3732 3300 3300 3269 3269 3269 3269 3238 3238 3238 3238 3238 3238 0 0 0 0 0 0 0 0 0 0 0 0 0 0 0
0 0 0 0 0 0 0 0 0 0 0 0 0 0 0 0 0 0 0 0 0 0 0 0 0 0 0 0 0 0 0 0 0 0 0 0 0 1415 1415 1415 1410 1410 1410 1410 1410 1410 1410 1410 1410 1410 1410 1404 1404 1404 1404 1404 1398 1398 1398 1398 1398 1392 1392 1392 1392 1392 1387 1387 1392 1392 1392 1387 1387 1381 1381 1381 1381 1381 1381 1381 1381 1381 1376 1376 1376 1376 1376 1381 1376 1376 1376 1376 1376 1376 1370 1370 1376 1376 1376 1376 1370 1370 1370 1370 1365 1365 1365 1359 1354 1354 1354 1354 1354 1354 1354 1354 1354 1354 1354 1354 1354 1354 1359 1359 1365 1365 1365 1365 1370 1915 1926 1936 1936 1936 1947 1947 1947 1936 1936 1947 1947 1947 1947 1947 1947 1947 1936 1936 1936 1926 1926 1936 1936 1936 1936 1936 1926 1915 1915 1926 1915 1915 1915 1926 1926 1926 1915 1915 1915 1915 1915 1915 1915 1904 1904 1904 1904 1904 1904 1904 1904 1904 1904 1894 1894 1894 1894 1894 1894 1894 1894 1894 1894 1894 1894 1894 1894 1894 1894 1904 1904 1904 1894 1894 1904 1904 1904 1904 1904 1904 1894 1894 1894 1894 1883 1883 1883 1883 1883 1883 1873 1873 1883 1873 1873 1873 1873 1883 1883 1883 1883 1883 1894 1894 1894 1894 1883 1873 1873 1873 1873 1873 1863 1863 1863 1863 1863 1863 1853 1853 1863 1863 1863 1853 1853 1853 1853 1853 1853 1853 1853 1853 1853 1853 1853 1853 1853 1843 1843 1833 1833 1833 1833 1833 1833 1833 1823 1823 1823 1823 1823 1823 1823 1823 1823 1823 1823 1823 1823 1823 1823 1813 1813 1813 1813 1813 1813 1813 1823 1823 1823 1813 1813 1823 1813 1813 1813 1813 1813 1813 1813 1813 1813 1813 1813 1813 1813 1813 1813 1813 1813 1804 1794 1794 1794 1794 1794 1804 1804 1804 1804 1804 1804 1794 1794 1794 1785 1776 1776 1785 1766 1766 1766 1785 1785 1785 1785 1785 1785 1785 1785 1785 1776 1776 1776 1776 1776 1785 1785 1776 1776 1766 1766 1766 1766 1766 1766 1766 1766 1766 1766 1766 1766 1766 1766 1766 1766 1766 1757 1757 1757 1766 1757 1757 1757 1757 1757 1757 1757 1757 1757 1757 1757 1757 1757 1757 1757 1757 1757 1748 1748 1748 1739 1739 1748 1748 1748 1748 1757 1757 1757 1757 1757 1748 1739 1739 1739 1739 1739 1731 1731 1731 1739 1739 1739 1731 1731 1731 1731 1731 1731 1731 1731 1722 1722 1722 1722 1722 1722 1722 1722 1731 1731 1731 1731 1739 1748 1748 1748 0 0 0 4295 4241 4241 4241 4241 4241 4190 4139 4139 4139 4190 4190 4190 4190 4190 4190 4139 4139 4139 4139 4139 4139 4139 4139 4139 4139 4139 4139 4139 4139 4139 4139 4139 4139 4139 4139 4089 4089 4089 4089 4089 4089 4089 4041 4041 4041 4089 4089 4089 4089 4041 4041 4041 4041 4041 4041 4041 4041 4041 4041 4041 4041 4089 4089 4089 4089 4089 4139 4139 4089 4089 4089 4041 4041 4041 4041 3994 3994 3994 3994 3994 3948 3948 3948 3948 3948 3948 3948 3948 3948 3994 3994 3948 3948 3903 3903 3948 3948 3948 3994 3994 3994 3994 3994 3994 3994 3948 3948 3948 3903 3903 3903 3903 3859 3859 0 0 0 0 3994 3948 3948 3948 3903 3903 3903 3903 3903 3903 3903 3859 3859 3859 0 0 0 0 0 0 0 3859 3816 3816 3774 3774 3774 3774 3732 3732 3692 3692 3692 3692 3692 3692 3732 3732 3692 3692 3692 3692 3300 3300 3269 3269 3269 3269 3238 3238 3238 3238 3238 3238 0 0 0 0 0 0 0 0 0 0 0 0 0 0 0
0 0 0 0 0 0 0 0 0 0 0 0 0 0 0 0 0 0 0 0 0 0 0 0 0 0 0 0 0 0 0 0 0 0 0 0 0 1415 1415 1415 1410 1410 1410 1410 1410 1410 1410 1410 1410 1410 1410 1404 1404 1404 1404 1404 1398 1398 1398 1398 1392 1392 1392 1392 1392 1392 1387 1387 1392 1392 1392 1387 1387 1381 1381 1381 1381 1381 1381 1381 1381 1381 1376 1376 1376 1376 1376 1376 1376 1370 1370 1370 1370 1376 1370 1370 1370 1370 1370 1376 1370 1365 1365 1365 1365 1365 1359 1359 1359 1354 1354 1354 1354 1354 1354 1354 1354 1354 1354 1354 1354 1354 1359 1359 1365 1365 1365 1370 1370 1915 1926 1926 1926 1936 1936 1936 1936 1926 1926 1936 1936 1926 1926 1936 1936 1936 1926 1915 1915 1915 1915 1926 1926 1926 1926 1926 1915 1915 1904 1904 1915 1915 1915 1915 1915 1915 1915 1915 1904 1264 1264 1915 1915 1904 1904 1904 1904 1894 1894 1894 1894 1894 1894 1883 1883 1883 1894 1894 1894 1894 1894 1883 1883 1883 1883 1883 1883 1883 1883 1894 1894 1894 1894 1894 1894 1894 1894 1894 1894 1883 1883 1883 1883 1873 1873 1863 1863 1863 1873 1873 1863 1863 1873 1863 1863 1863 1863 1873 1873 1873 1873 1873 1873 1873 1863 1863 1863 1863 1863 1863 1863 1863 1863 1853 1853 1853 1853 1853 1843 1843 1843 1843 1833 1833 1833 1833 1833 1843 1843 1833 1833 1833 1843 1843 1833 1833 1833 1833 1823 1823 1823 1823 1823 1823 1813 1813 1813 1813 1823 1823 1823 1823 1813 1813 1823 1823 1813 1813 1813 1813 1813 1813 1813 1813 1804 1804 1804 1813 1813 1813 1813 1804 1804 1804 1804 1804 1804 1804 1804 1804 1804 1804 1804 1804 1804 1804 1813 1804 1804 1804 1804 1794 1785 1785 1785 1785 1785 1794 1794 1794 1794 1794 1794 1785 1776 1776 1776 1776 1776 1776 1766 1766 1766 1766 1776 1776 1776 1776 1776 1766 1766 1766 1766 1766 1766 1766 1766 1766 1766 1766 1766 1766 1757 1757 1757 1757 1757 1766 1766 1766 1766 1766 1766 1766 1757 1757 1757 1757 1757 1757 1757 1757 1757 1757 1757 1748 1748 1748 1739 1739 1748 1748 1748 1748 1748 1748 1748 1748 1748 1748 1739 1739 1739 1739 1739 1739 1739 1739 1739 1739 1739 1739 1739 1748 1731 1731 1731 1731 1731 1722 1722 1722 1722 1722 1722 1722 1722 1722 1722 1713 1713 1713 1713 1713 1713 1713 1713 1705 1705 1705 1705 1722 1722 1722 1722 1731 1739 1739 1748 0 0 0 4295 4190 4190 4190 4190 4190 4139 4139 4139 4139 4139 4139 4139 4139 4139 4139 4139 4139 4139 4139 4139 4139 4139 4089 4089 4139 4139 4139 4139 4139 4139 4139 4139 4139 4139 4139 4089 4089 4089 4089 4089 4089 4089 4041 4041 4041 4041 4041 4041 4041 4041 4041 4041 4041 4041 4041 3994 3994 4041 4041 4041 4041 4041 4089 4089 4089 4089 4089 4089 4041 4041 4041 3994 3994 3994 3994 3994 3994 3948 3948 3948 3948 3903 3903 3948 3903 3903 3903 3903 3948 3948 3948 3903 3903 3903 3903 3903 3903 3903 3948 3948 3948 3948 3948 3948 3948 3903 3903 3903 3903 3903 3903 3859 3859 3859 0 0 0 3994 3994 3948 3948 3948 3903 3903 3903 3903 3903 3903 3903 3859 3859 3859 0 0 0 0 0 0 0 3859 3816 3774 3774 3774 3774 3732 3732 3692 3692 3692 3692 3692 3692 3653 3653 3692 3653 3653 3692 3692 3300 3300 3269 3269 3269 3269 3269 3269 3238 3238 3238 3238 0 0 0 0 0 0 0 0 0 0 0 0 0 0 0
0 0 0 0 0 0 0 0 0 0 0 0 0 0 0 0 0 0 0 0 0 0 0 0 0 0 0 0 0 0 0 0 0 0 0 0 0 1415 1415 1415 1410 1410 1410 1410 1410 1410 1410 1410 1410 1410 1404 1404 1404 1404 1404 1398 1398 1398 1398 1392 1392 1392 1392 1392 1392 1392 1387 1387 1392 1392 1392 1387 1387 1381 1381 1381 1381 1381 1381 1381 1381 1376 1376 1376 1376 1376 1376 1376 1370 1370 1370 1370 1370 1370 1370 1370 1370 1370 1370 1370 1370 1365 1365 1365 1365 1365 1359 1359 1359 1359 1354 1354 1354 1354 1354 1349 1349 1354 1354 1354 1354 1354 1359 1359 1365 1365 1370 1370 1376 1904 1904 1904 1904 1915 1915 1915 1904 1904 1904 1904 1904 1904 1904 1904 1904 1904 1904 1904 1915 1915 1915 1915 1915 1926 1926 1915 1904 1904 1904 1904 1904 1904 1904 1915 1915 1915 1264 1264 1259 1259 1259 1259 1264 1904 1894 1894 1894 1883 1883 1883 1883 1873 1873 1873 1873 1873 1883 1883 1883 1883 1883 1873 1873 1873 1873 1863 1863 1873 1873 1883 1883 1883 1883 1883 1883 1873 1873 1873 1883 1873 1863 1863 1863 1863 1853 1853 1853 1853 1863 1863 1853 1853 1863 1863 1863 1853 1853 1863 1863 1853 1853 1853 1853 1853 1853 1843 1843 1853 1843 1843 1843 1843 1853 1843 1843 1843 1833 1833 1833 1833 1833 1823 1823 1823 1823 1823 1823 1823 1823 1813 1813 1823 1833 1833 1813 1813 1823 1813 1813 1813 1813 1813 1813 1813 1813 1813 1804 1804 1813 1813 1813 1813 1813 1813 1813 1813 1813 1813 1813 1813 1804 1804 1804 1804 1804 1794 1794 1804 1804 1794 1794 1794 1794 1794 1794 1785 1785 1794 1794 1794 1794 1794 1794 1794 1804 1804 1804 1804 1794 1794 1785 1785 1776 1776 1776 1776 1776 1776 1785 1785 1785 1785 1785 1766 1766 1766 1766 1766 1766 1766 1757 1757 1766 1766 1766 1766 1766 1776 1766 1757 1757 1757 1757 1757 1757 1757 1757 1757 1757 1757 1757 1757 1748 1748 1748 1748 1748 1757 1748 1748 1757 1757 1757 1748 1748 1748 1748 1748 1748 1748 1748 1748 1739 1739 1739 1739 1739 1731 1731 1739 1739 1739 1739 1739 1739 1739 1739 1739 1731 1731 1731 1731 1731 1731 1731 1731 1731 1731 1739 1731 1731 1739 1739 1739 1722 1722 1722 1722 1713 1713 1713 1713 1713 1713 1713 1713 1713 1713 1713 1705 1705 1705 1705 1705 1705 1705 1705 1705 1705 1696 1696 1705 1705 1705 1713 1713 1722 1731 1748 0 0 0 4295 4190 4139 4139 4139 4139 4139 4089 4089 4089 4089 4089 4139 4139 4089 4089 4139 4139 4139 4139 4089 4089 4089 4089 4089 4089 4089 4089 4089 4089 4089 4089 4089 4041 4041 4041 4041 4041 4041 4041 4041 4041 4041 3994 3994 4041 4041 4041 4041 3994 3994 3994 3994 3994 3994 3994 3994 3994 3994 4041 4041 4041 4041 4041 4041 4041 4041 3994 3994 3994 3994 3994 3948 3948 3948 3948 3948 3948 3948 3948 3903 3903 3903 3903 3903 3903 3903 3903 3903 3948 3948 3903 3903 3903 3903 3903 3903 3903 3903 3903 3948 3948 3903 3903 3948 3903 3903 3903 3903 3903 3903 3859 3859 3859 0 0 0 0 3994 3994 3948 3948 3948 3903 3903 3903 3903 3903 3903 3903 3859 3859 3859 0 0 0 0 0 0 0 3816 3774 3732 3732 3732 3732 3732 3692 3692 3692 3692 3692 3692 3692 3653 3653 3692 3653 3653 3614 3614 3300 3300 3269 3269 3269 3269 3269 3269 3238 3238 3238 3238 3238 0 0 0 0 0 0 0 0 0 0 0 0 0 0
0 0 0 0 0 0 0 0 0 0 0 0 0 0 0 0 0 0 0 0 0 0 0 0 0 0 0 0 0 0 0 0 0 0 0 0 0 1415 1415 1415 1415 1415 1410 1410 1410 1410 1410 1410 1410 1410 1404 1404 1404 1404 1404 1398 1398 1398 1392 1392 1392 1392 1392 1392 1392 1392 1387 1387 1392 1392 1392 1387 1387 1381 1381 1381 1381 1381 1376 1376 1376 1376 1376 1376 1376 1376 1376 1376 1370 1370 1370 1370 1370 1370 1365 1365 1370 1370 1370 1370 1365 1365 1365 1365 1365 1365 1359 1359 1359 1359 1354 1354 1354 1349 1349 1349 1349 1349 1349 1354 1354 1354 1359 1359 1365 1365 1370 1376 1381 1381 1883 1883 1894 1894 1894 1894 1894 1894 1894 1894 1894 1894 1894 1894 1894 1894 1894 1894 1904 1904 1904 1904 1915 1915 1915 1915 1894 1894 1894 1894 1904 1904 1904 1904 1259 1259 1259 1259 1259 1259 1259 1259 1259 1259 1259 1883 1883 1873 1873 1873 1873 1863 1863 1863 1863 1863 1873 1873 1873 1873 1873 1873 1863 1863 1863 1863 1863 1863 1863 1873 1863 1863 1863 1863 1873 1863 1863 1863 1863 1863 1853 1853 1843 1843 1843 1843 1853 1853 1853 1853 1843 1843 1853 1853 1853 1853 1853 1853 1843 1843 1843 1843 1843 1843 1833 1833 1833 1833 1833 1833 1833 1833 1833 1833 1833 1833 1823 1823 1823 1823 1813 1813 1813 1813 1813 1813 1813 1804 1804 1804 1804 1804 1804 1804 1804 1804 1804 1804 1804 1804 1804 1794 1794 1804 1804 1804 1804 1804 1813 1813 1804 1804 1804 1804 1804 1804 1804 1804 1804 1804 1794 1794 1794 1794 1794 1794 1794 1794 1794 1785 1785 1785 1776 1776 1776 1776 1776 1785 1785 1785 1785 1785 1785 1785 1794 1794 1794 1794 1785 1785 1776 1776 1776 1776 1776 1776 1776 1776 1776 1766 1766 1766 1766 1757 1757 1757 1757 1757 1757 1757 1757 1757 1757 1757 1757 1757 1757 1757 1757 1748 1748 1748 1748 1748 1748 1748 1748 1748 1748 1748 1748 1748 1739 1739 1739 1739 1739 1739 1739 1739 1739 1748 1748 1748 1739 1739 1739 1739 1731 1731 1731 1731 1731 1731 1731 1731 1731 1722 1722 1731 1731 1731 1731 1731 1731 1731 1731 1731 1722 1722 1722 1722 1722 1722 1722 1722 1722 1722 1722 1722 1722 1731 1731 1722 1713 1705 1705 1705 1696 1696 1696 1696 1696 1696 1705 1705 1705 1705 1705 1696 1696 1696 1696 1696 1696 1696 1696 1696 1696 1696 1696 1696 1696 1705 1705 1705 1722 1731 1748 0 0 0 4139 4139 4089 4089 4089 4089 4089 4089 4089 4089 4089 4089 4089 4089 4089 4089 4089 4089 4089 4089 4089 4089 4089 4089 4089 4089 4089 4089 4089 4089 4089 4089 4041 3994 3994 4041 4041 3994 3994 3994 3994 4041 4041 3994 3994 3994 4041 4041 3994 3994 3948 3948 3948 3948 3948 3948 3948 3948 3948 3994 3994 3994 3994 3994 3994 3948 3948 3948 3948 3948 3948 3903 3903 3903 3948 3948 3948 3948 3948 3903 3903 3903 3859 3859 3859 3859 3859 3903 3903 3903 3903 3903 3903 3903 3903 3903 3903 3903 3903 3903 3903 3903 3903 3903 3903 3903 3903 3903 3903 3903 3903 3859 3859 0 0 0 0 0 3994 3994 3948 3948 3948 3903 3903 3903 3903 3859 3859 3859 3816 3816 2812 2812 2812 2789 2789 2789 2767 2767 3816 3774 3732 3732 3732 3732 3732 3692 3692 3692 3692 3692 3692 3692 3692 3692 3653 3653 3653 3614 3614 3300 3300 3269 3269 3269 3269 3269 3269 3238 3238 3238 3238 3238 0 0 0 0 0 0 0 0 0 0 0 0 0 0
0 0 0 0 0 0 0 0 0 0 0 0 0 0 0 0 0 0 0 0 0 0 0 0 0 0 0 0 0 0 0 0 0 0 0 0 0 1415 1415 1415 1415 1415 1415 1415 1410 1410 1410 1410 1410 1404 1404 1404 1404 1404 1404 1398 1398 1398 1392 1392 1392 1392 1392 1392 1392 1392 1392 1392 1387 1387 1392 1387 1387 1381 1381 1381 1381 1381 1376 1376 1376 1376 1376 1376 1376 1376 1376 1376 1370 1370 1370 1370 1370 1370 1365 1365 1370 1370 1370 1370 1365 1365 1365 1365 1365 1365 1359 1359 1359 1359 1354 1354 1354 1349 1349 1349 1349 1349 1349 1354 1354 1359 1359 1365 1365 1365 1376 1376 1381 1381 1387 1873 1883 1883 1883 1883 1883 1883 1883 1873 1873 1883 1873 1873 1873 1873 1873 1873 1883 1883 1883 1894 1894 1904 1904 1904 1894 1894 1894 1255 1255 1255 1255 1255 1259 1259 1259 1259 1259 1259 1259 1259 1259 1259 1259 1264 1264 1268 1863 1863 1863 1863 1863 1863 1863 1863 1863 1863 1863 1863 1863 1863 1863 1863 1863 1863 1863 1863 1863 1863 1853 1853 1853 1853 1853 1843 1843 1843 1843 1843 1843 1843 1833 1833 1833 1843 1843 1843 1843 1843 1843 1843 1843 1843 1843 1843 1843 1833 1833 1823 1823 1823 1823 1823 1823 1823 1823 1833 1823 1823 1823 1823 1833 1813 1813 1813 1813 1813 1804 1804 1804 1804 1794 1794 1794 1794 1794 1794 1794 1794 1794 1794 1785 1785 1785 1785 1794 1794 1794 1794 1785 1785 1785 1794 1804 1804 1804 1804 1813 1804 1804 1794 1794 1804 1794 1794 1794 1785 1785 1794 1776 1776 1776 1785 1785 1776 1776 1776 1776 1766 1766 1766 1766 1766 1766 1766 1766 1776 1776 1776 1776 1776 1776 1776 1776 1776 1776 1766 1766 1766 1766 1766 1766 1766 1766 1766 1766 1766 1766 1757 1757 1757 1757 1748 1748 1748 1748 1739 1739 1748 1739 1739 1739 1739 1748 1748 1748 1739 1739 1731 1731 1731 1731 1731 1739 1739 1739 1739 1739 1731 1731 1731 1731 1731 1731 1731 1731 1731 1731 1731 1731 1739 1739 1739 1739 1731 1731 1731 1722 1722 1722 1722 1722 1722 1722 1722 1722 1722 1722 1722 1731 1722 1722 1722 1722 1722 1713 1713 1705 1705 1705 1705 1705 1705 1705 1705 1696 1696 1705 1705 1713 1713 1713 1713 1713 1696 1696 1688 1688 1688 1688 1688 1688 1688 1688 1696 1688 1688 1688 1688 1688 1688 1688 1688 1688 1688 1688 1688 1688 1680 1680 1688 1688 1688 1688 1705 1705 0 1705 0 0 0 4089 4089 4089 4089 4089 4089 4089 4041 4041 4041 4041 4041 4041 4089 4041 4041 4041 4041 4041 4041 3994 3994 3994 3994 3994 3994 4041 4041 3994 3994 3994 3994 3994 3948 3948 3948 3994 3994 3948 3948 3994 3994 3994 3948 3948 3994 3994 3994 3948 3948 3903 3903 3903 3903 3903 3903 3903 3903 3948 3948 3948 3948 3994 3994 3948 3903 3903 3903 3903 3903 3903 3903 3903 3903 3903 3903 3903 3903 3903 3903 3859 3859 3859 3859 3859 3859 3859 3859 3859 3903 3903 3903 3903 3903 3859 3859 3859 3859 3859 3859 3859 3859 3859 3859 3903 3859 3859 3859 3859 3859 3859 3859 3859 0 0 0 0 0 0 3994 3948 3903 3903 3903 3859 3859 3859 3859 3859 3859 3816 3816 2812 2812 2789 2789 2767 2767 2767 2767 3859 3816 3732 3732 3732 3692 3692 3692 3692 3692 3692 3692 3692 3692 3692 3653 3653 3653 3653 3614 3614 3333 3300 3300 3269 3269 3238 3238 3269 3238 3238 3238 3238 3269 0 0 0 0 0 0 0 0 0 0 0 0 0 0
0 0 0 0 0 0 0 0 0 0 0 0 0 0 0 0 0 0 0 0 0 0 0 0 0 0 0 0 0 0 0 0 0 0 0 0 0 1415 1415 1415 1415 1410 1410 1410 1410 1410 1410 1410 1410 1404 1404 1404 1404 1404 1404 1398 1398 1398 1398 1392 1392 1392 1392 1392 1392 1392 1387 1387 1387 1387 1387 1387 1387 1381 1381 1381 1381 1381 1381 1381 1381 1376 1376 1376 1376 1370 1370 1370 1370 1370 1370 1365 1365 1370 1365 1365 1370 1370 1370 1370 1365 1365 1365 1365 1365 1365 1359 1359 1359 1359 1359 1359 1354 1354 1354 1354 1354 1354 1354 1354 1354 1359 1359 1365 1365 1365 1376 1376 1381 1381 1387 1863 1873 1873 1873 1873 1873 1873 1873 1863 1863 1873 1863 1863 1863 1863 1863 1863 1863 1873 1873 1873 1873 1883 1883 1883 1883 1259 1255 1255 1255 1255 1255 1255 1259 1255 1255 1259 1259 1259 1259 1259 1259 1259 1259 1264 1264 1264 1853 1853 1853 1853 1853 1853 1853 1853 1853 1853 1853 1853 1863 1863 1863 1863 1853 1853 1853 1853 1863 1853 1853 1853 1853 1853 1843 1843 1843 1843 1833 1823 1823 1823 1823 1823 1833 1833 1833 1833 1823 1823 1823 1823 1823 1823 1823 1823 1823 1823 1813 1813 1813 1813 1813 1813 1804 1804 1813 1813 1813 1813 1813 1823 1823 1804 1804 1804 1804 1804 1794 1785 1785 1785 1785 1785 1785 1785 1785 1785 1785 1785 1785 1785 1785 1785 1776 1776 1785 1785 1785 1785 1785 1785 1785 1785 1785 1804 1794 1794 1804 1804 1794 1785 1785 1794 1794 1785 1785 1776 1776 1776 1766 1766 1766 1776 1776 1766 1766 1766 1757 1757 1757 1748 1748 1757 1757 1757 1757 1766 1766 1766 1766 1766 1766 1757 1757 1757 1739 1739 1739 1739 1748 1748 1748 1748 1748 1748 1757 1757 1757 1757 1757 1757 1757 1748 1748 1739 1739 1739 1739 1739 1731 1731 1731 1731 1731 1731 1722 1722 1722 1722 1722 1722 1722 1722 1731 1731 1731 1731 1731 1731 1731 1722 1722 1722 1722 1722 1722 1722 1722 1722 1722 1722 1722 1722 1722 1713 1713 1705 1705 1705 1705 1705 1705 1705 1713 1713 1713 1713 1713 1722 1722 1713 1713 1713 1713 1705 1705 1705 1696 1696 1705 1696 1696 1696 1688 1688 1688 1688 1696 1696 1696 1705 1705 1705 1696 1688 1680 1680 1680 1680 1680 1671 1671 1680 1680 1671 1671 1671 1671 1671 1671 1671 1671 1671 1671 1671 1671 1671 1671 1671 1671 1680 1680 1680 1680 1680 1915 0 0 0 0 4139 4139 4089 4089 4089 4041 4041 4041 4041 3994 3994 3994 3994 3994 4041 4041 4041 4041 4041 4041 3994 3994 3994 3994 3994 3994 3994 3994 3994 3948 3948 3948 3948 3948 3948 3948 3948 3948 3948 3948 3948 3948 3948 3948 3948 3903 3903 3903 3903 3903 3903 3903 3903 3903 3903 3903 3903 3903 3903 3903 3948 3948 3948 3994 3994 3948 3903 3903 3903 3903 3903 3903 3859 3859 3859 3859 3859 3859 3859 3859 3859 3859 3859 3859 3859 3859 3859 3859 3859 3859 3903 3903 3903 3903 3859 3859 3859 3859 3859 3859 3859 3859 3859 3859 3859 3859 3859 3859 3859 3859 3859 3859 3859 0 0 0 0 0 0 0 0 3903 3903 3859 3859 3816 3816 3816 3816 3816 3816 3816 3816 3816 2812 2789 2789 2767 2767 2767 2767 3816 3774 3692 3692 3692 3692 3692 3692 3692 3692 3692 3692 3692 3692 3653 3653 3614 3614 3614 3539 3539 3365 3300 3300 3269 3269 3238 3238 3238 3238 3238 3238 3238 3238 0 0 0 0 0 0 0 0 0 0 0 0 0 0
0 0 0 0 0 0 0 0 0 0 0 0 0 0 0 0 0 0 0 0 0 0 0 0 0 0 0 0 0 0 0 0 0 0 0 0 0 1421 1415 1415 1415 1410 1410 1410 1410 1410 1410 1410 1410 1410 1404 1404 1404 1404 1404 1398 1398 1398 1398 1398 1392 1392 1392 1392 1392 1392 1387 1387 1387 1387 1387 1387 1387 1381 1381 1381 1381 1381 1381 1381 1381 1376 1376 1376 1376 1370 1370 1370 1370 1365 1365 1365 1365 1365 1365 1365 1370 1370 1370 1370 1365 1365 1365 1365 1365 1365 1359 1359 1359 1359 1359 1359 1359 1354 1354 1354 1354 1354 1354 1354 1359 1359 1359 1365 1365 1370 1381 1381 1381 1381 1387 1387 1863 1863 1863 1863 1863 1863 1863 1863 1863 1863 1853 1853 1853 1843 1843 1843 1843 1843 1853 1853 1853 1863 1873 1883 1883 1259 1259 1259 1255 1255 1255 1255 1255 1255 1255 1255 1255 1255 1255 1259 1259 1259 1259 1259 1259 1264 1268 1853 1853 1853 1853 1853 1853 1853 1853 1853 1853 1853 1863 1863 1863 1853 1853 1853 1853 1853 1863 1853 1853 1853 1843 1843 1833 1833 1823 1823 1823 1813 1813 1813 1813 1813 1823 1823 1823 1823 1823 1823 1823 1823 1823 1823 1823 1823 1823 1823 1813 1813 1813 1813 1804 1804 1804 1804 1804 1813 1813 1813 1813 1813 1813 1804 1804 1794 1794 1785 1785 1776 1776 1776 1776 1776 1776 1776 1776 1776 1776 1776 1776 1776 1776 1776 1766 1766 1776 1776 1776 1776 1776 1776 1785 1785 1785 1804 1794 1794 1804 1804 1785 1177 1177 1177 1173 1173 1776 1177 1177 1173 1173 1766 1766 1766 1766 1757 1757 1748 1748 1748 1748 1748 1748 1748 1748 1748 1748 1748 1757 1757 1757 1757 1757 1748 1748 1739 1739 1731 1731 1731 1731 1731 1731 1739 1739 1739 1739 1739 1748 1739 1739 1722 1722 1731 1731 1731 1722 1722 1722 1731 1731 1731 1722 1722 1722 1722 1713 1713 1713 1722 1722 1722 1722 1722 1722 1722 1722 1722 1722 1713 1713 1705 1705 1713 1705 1705 1705 1713 1705 1705 1705 1705 1705 1696 1696 1696 1696 1696 1696 1696 1696 1696 1696 1696 1696 1705 1705 1705 1705 1705 1705 1705 1696 1696 1696 1696 1696 1696 1696 1696 1696 1696 1688 1688 1680 1680 1671 1671 1671 1671 1671 1671 1671 1671 1671 1671 1671 1671 1671 1671 1671 1663 1663 1671 1671 1663 1663 1663 1663 1663 1655 1655 1663 1663 1663 1663 1663 1663 1663 1671 1671 1671 1671 1671 1680 1915 1915 0 1915 1915 0 0 4139 4041 4041 4041 4041 3994 3994 3994 3994 3994 3994 3994 3994 3994 3994 3994 3994 3994 3994 3994 3948 3948 3948 3948 3948 3948 3948 3948 3948 3948 3948 3948 3948 3948 3948 3948 3948 3948 3903 3903 3903 3948 3948 3948 3903 3903 3903 3903 3903 3859 3859 3859 3859 3859 3859 3859 3859 3859 3903 3903 3903 3903 3903 3859 3859 3859 3859 3903 3903 3859 3859 3859 3859 3859 3859 3859 3859 3859 3859 3859 3816 3816 3816 3816 3816 3816 3816 3859 3859 3859 3859 3859 3859 3859 3859 3859 3816 3816 3816 3816 3816 3816 3816 3859 3859 3859 3859 3859 3859 3859 3859 3859 3859 0 0 0 0 0 0 0 3903 3774 3774 3774 3774 3774 3774 3774 3774 3816 3774 3774 2812 2812 2789 2789 2767 2767 2767 2767 3774 3732 3692 3692 3692 3653 3653 3653 3653 3653 3653 3653 3653 3653 3614 3614 3576 3576 3539 3503 3503 3399 3300 3300 3269 3269 3238 3238 3238 3238 3238 3238 3238 3238 0 0 0 0 0 0 0 0 0 0 0 0 0 0
0 0 0 0 0 0 0 0 0 0 0 0 0 0 0 0 0 0 0 0 0 0 0 0 0 0 0 0 0 0 0 0 0 0 0 0 0 1421 1421 1415 1415 1415 1415 1415 1415 1415 1415 1415 1410 1410 1410 1410 1404 1404 1404 1398 1398 1398 1398 1392 1392 1392 1392 1392 1392 1387 1387 1387 1387 1387 1387 1387 1387 1387 1381 1381 1381 1381 1381 1381 1381 1376 1376 1376 1376 1370 1370 1370 1370 1365 1365 1365 1365 1365 1365 1365 1370 1370 1370 1370 1365 1365 1365 1365 1365 1365 1359 1359 1359 1359 1359 1359 1359 1354 1354 1354 1354 1354 1354 1354 1359 1359 1359 1365 1365 1370 1381 1381 1381 1381 1387 1387 1863 1853 1853 1853 1853 1853 1853 1843 1833 1833 1833 1833 1833 1833 1823 1823 1823 1823 1823 1823 1823 1823 1873 1873 1259 1259 1259 1259 1250 1250 1250 1250 1250 1250 1250 1250 1250 1255 1255 1255 1259 1259 1259 1259 1259 1264 1268 1273 1843 1843 1843 1843 1843 1853 1853 1853 1853 1853 1863 1863 1863 1853 1853 1853 1853 1853 1863 1232 1232 1843 1833 1833 1823 1823 1823 1823 1813 1813 1813 1813 1813 1813 1813 1813 1813 1813 1813 1813 1813 1813 1813 1813 1813 1813 1813 1813 1813 1813 1804 1804 1794 1794 1794 1794 1804 1813 1813 1813 1206 1206 1206 1206 1794 1776 1776 1776 1776 1776 1776 1776 1776 1776 1776 1776 1776 1776 1766 1766 1766 1766 1766 1766 1757 1757 1766 1766 1776 1776 1776 1776 1785 1794 1794 1804 1804 1804 1804 1177 1177 1177 1177 1173 1173 1173 1173 1177 1173 1173 1173 1177 1757 1757 1748 1748 1748 1739 1739 1739 1739 1739 1739 1739 1739 1739 1739 1739 1739 1739 1739 1739 1739 1739 1731 1731 1722 1722 1722 1731 1722 1722 1731 1731 1731 1731 1731 1713 1713 1722 1705 1705 1705 1713 1722 1713 1713 1713 1713 1713 1722 1713 1705 1705 1705 1705 1713 1705 1705 1713 1713 1713 1713 1713 1713 1705 1705 1713 1713 1705 1705 1696 1696 1705 1696 1696 1696 1688 1688 1696 1696 1696 1696 1696 1696 1688 1688 1688 1688 1688 1688 1688 1688 1688 1688 1688 1688 1688 1688 1688 1688 1688 1688 1688 1688 1688 1688 1688 1688 1688 1688 1688 1680 1671 1671 1671 1663 1663 1663 1663 1663 1663 1663 1663 1663 1655 1655 1655 1663 1663 1663 1655 1655 1663 1655 1655 1655 1655 1655 1655 1655 1655 1655 1655 1655 1655 1647 1647 1647 1647 1647 1647 1647 1655 1655 1915 1915 1915 1915 1915 0 3994 3994 3994 3994 3994 3994 3994 3948 3948 3948 3948 3948 3948 3948 3948 3948 3948 3948 3948 3948 3948 3948 3948 3903 3903 3903 3903 3903 3903 3903 3903 3903 3903 3903 3903 3903 3903 3948 3903 3903 3903 3903 3903 3903 3903 3859 3859 3859 3859 3859 3859 3859 3859 3859 3859 3859 3859 3859 3859 3859 3859 3859 3859 3859 3859 3816 3816 3816 3816 3816 3816 3816 3816 3816 3816 3816 3816 3816 3816 3816 3816 3816 3816 3816 3816 3774 3774 3816 3816 3816 3859 3859 3859 3859 3859 3816 3816 3774 3774 3774 3774 3816 3816 3816 3816 3859 3859 3859 3859 3859 3859 3859 3859 3859 0 0 0 0 0 0 0 3732 3732 3732 3732 3732 3732 3732 3732 3732 3774 3732 3732 2812 2812 2789 2789 2789 2789 2767 2767 3732 3692 3653 3653 3653 3653 3653 3653 3653 3653 3653 3653 3653 3653 3614 3576 3576 3539 3539 3503 3503 3399 3365 3365 3269 3269 3238 3238 3238 3238 3238 3238 3238 3238 0 0 0 0 0 0 0 0 0 0 0 0 0 0
0 0 0 0 0 0 0 0 0 0 0 0 0 0 0 0 0 0 0 0 0 0 0 0 0 0 0 0 0 0 0 0 0 0 0 0 0 1421 1421 1415 1415 1415 1415 1415 1415 1415 1415 1415 1410 1410 1410 1410 1404 1404 1404 1398 1398 1398 1398 1392 1392 1392 1392 1392 1392 1387 1387 1387 1387 1387 1392 1387 1387 1387 1387 1381 1381 1381 1381 1381 1381 1376 1376 1376 1376 1376 1370 1370 1370 1365 1365 1365 1365 1370 1370 1370 1370 1370 1370 1370 1370 1365 1365 1365 1365 1365 1365 1365 1365 1359 1359 1359 1354 1354 1354 1354 1354 1354 1354 1359 1359 1359 1359 1365 1365 1370 1381 1381 1387 1387 1387 1387 1853 1853 1833 1833 1833 1833 1833 1833 1823 1813 1813 1813 1813 1813 1813 1813 1813 1813 1813 1813 1813 1823 1823 1259 1259 1259 1259 1259 1250 1250 1250 1250 1250 1250 1250 1250 1250 1255 1255 1255 1255 1255 1259 1259 1259 1255 1255 1255 1250 1250 1250 1245 1245 1245 1245 1245 1245 1241 1241 1241 1236 1236 1236 1236 1236 1232 1232 1232 1227 1227 1223 1223 1223 1223 1223 1223 1223 1227 1227 1227 1227 1227 1227 1813 1813 1813 1813 1223 1219 1219 1219 1219 1813 1214 1210 1206 1206 1206 1202 1202 1202 1202 1202 1794 1202 1202 1202 1202 1202 1202 1202 1206 1206 1206 1206 1766 1766 1766 1766 1766 1766 1766 1766 1766 1766 1766 1757 1757 1757 1757 1757 1757 1748 1748 1757 1757 1757 1766 1776 1776 1776 1785 1804 1813 1813 1173 1173 1173 1173 1173 1173 1173 1173 1173 1173 1173 1173 1173 1173 1177 1748 1739 1739 1731 1731 1731 1731 1731 1731 1731 1731 1731 1731 1731 1722 1722 1731 1731 1731 1722 1722 1722 1722 1722 1713 1713 1713 1713 1713 1705 1705 1722 1713 1713 1705 1705 1705 1696 1696 1696 1696 1705 1705 1705 1696 1696 1696 1696 1696 1696 1696 1696 1696 1696 1696 1696 1696 1696 1696 1696 1696 1696 1696 1696 1696 1696 1705 1696 1688 1688 1688 1688 1688 1680 1680 1671 1671 1680 1688 1688 1688 1688 1688 1688 1680 1680 1680 1680 1680 1680 1680 1680 1680 1680 1671 1671 1671 1671 1671 1671 1680 1671 1671 1671 1671 1680 1680 1671 1671 1671 1663 1663 1663 1663 1663 1663 1663 1655 1655 1655 1655 1655 1655 1647 1647 1647 1655 1655 1655 1655 1655 1647 1647 1647 1647 1647 1647 1647 1647 1647 1647 1647 1647 1647 1639 1639 1639 1632 1632 1632 1632 1632 1639 1904 1915 1915 1915 1915 0 1915 3994 3994 3994 3994 3948 3948 3948 3948 3948 3948 3948 3948 3948 3948 3948 3948 3948 3948 3948 3948 3948 3948 3903 3903 3903 3903 3903 3903 3903 3903 3903 3903 3903 3903 3903 3903 3903 3903 3903 3903 3903 3903 3903 3903 3859 3859 3859 3859 3859 3816 3816 3816 3816 3816 3816 3816 3816 3816 3859 3816 3816 3816 3816 3816 3816 3774 3774 3774 3774 3774 3774 3774 3774 3774 3774 3816 3816 3816 3774 3774 3774 3774 3774 3774 3774 3774 3774 3774 3774 3816 3816 3816 3816 3816 3774 3774 3774 3774 3774 3774 3774 3774 3774 3816 3816 3816 3816 3816 3816 3816 3816 3816 3859 0 0 0 0 0 0 0 3692 3692 3692 3692 3692 3692 3692 3692 3692 3692 3653 3653 3774 2812 2789 2789 2789 2789 2789 2789 3692 3653 3653 3614 3614 3614 3614 3614 3653 3614 3614 3653 3653 3653 3614 3576 3576 3539 3503 3503 3503 3399 3365 3365 3269 3269 3238 3238 3238 3238 3238 3238 3238 3238 0 0 0 0 0 0 0 0 0 0 0 0 0 0
0 0 0 0 0 0 0 0 0 0 0 0 0 0 0 0 0 0 0 0 0 0 0 0 0 0 0 0 0 0 0 0 0 0 0 0 0 1421 1421 1421 1421 1415 1415 1415 1415 1415 1415 1415 1410 1410 1410 1410 1410 1410 1404 1404 1404 1398 1398 1392 1392 1392 1392 1392 1392 1392 1392 1387 1387 1387 1392 1392 1392 1387 1387 1387 1387 1381 1381 1381 1381 1376 1376 1376 1376 1376 1376 1376 1370 1370 1370 1365 1365 1370 1370 1370 1370 1376 1376 1370 1370 1370 1370 1365 1365 1365 1365 1365 1365 1359 1359 1359 1354 1354 1354 1354 1354 1354 1354 1359 1359 1359 1359 1365 1365 1370 1381 1381 1387 1387 1387 1387 1794 1794 1794 1813 1813 1813 1813 1813 1804 1804 1804 1804 1804 1804 1813 1813 1804 1804 1794 1794 1794 1794 1794 1259 1259 1255 1255 1255 1250 1250 1250 1250 1250 1250 1250 1250 1250 1255 1255 1255 1255 1255 1255 1255 1255 1255 1255 1250 1245 1245 1245 1245 1245 1245 1241 1241 1241 1236 1236 1236 1236 1236 1236 1236 1232 1232 1227 1227 1227 1227 1223 1223 1223 1223 1223 1223 1223 1223 1223 1223 1223 1223 1219 1219 1219 1219 1219 1214 1214 1214 1214 1210 1210 1206 1206 1206 1206 1206 1202 1202 1202 1202 1202 1202 1202 1202 1202 1202 1202 1202 1202 1202 1202 1202 1202 1202 1757 1766 1766 1766 1766 1766 1766 1197 1197 1206 1748 1748 1757 1748 1748 1748 1739 1739 1748 1748 1748 1748 1776 1776 1776 1785 1785 1173 1173 1173 1169 1169 1169 1169 1169 1169 1169 1169 1169 1173 1173 1173 1173 1177 1181 1731 1731 1722 1722 1722 1722 1722 1722 1722 1722 1722 1713 1713 1713 1713 1713 1713 1713 1713 1713 1713 1713 1713 1705 1705 1705 1705 1705 1696 1696 1705 1705 1705 1705 1696 1696 1696 1696 1696 1696 1696 1696 1696 1688 1688 1688 1688 1688 1688 1688 1688 1688 1688 1688 1688 1688 1688 1688 1688 1688 1688 1680 1680 1680 1688 1688 1680 1680 1680 1680 1680 1671 1671 1671 1671 1671 1671 1671 1671 1680 1680 1680 1680 1680 1671 1671 1671 1671 1671 1671 1663 1663 1663 1663 1663 1663 1663 1663 1663 1663 1663 1663 1663 1663 1663 1671 1663 1655 1655 1655 1655 1655 1655 1655 1655 1655 1655 1647 1647 1639 1639 1639 1639 1639 1639 1639 1647 1647 1647 1647 1639 1632 1632 1632 1632 1632 1632 1632 1639 1639 1639 1639 1632 1624 1624 1624 1624 1624 1624 1624 1624 1632 1904 1904 1915 1915 1915 1915 1915 1915 3948 3948 3948 3948 3903 3903 3903 3903 3903 3903 3903 3903 3903 3903 3948 3948 3903 3903 3903 3903 3903 3859 3859 3903 3903 3903 3859 3859 3859 3859 3903 3903 3859 3859 3903 3903 3903 3903 3903 3903 3903 3859 3859 3859 3859 3859 3816 3816 3816 3816 3816 3816 3816 3816 3816 3816 3816 3816 3816 3816 3774 3774 3774 3774 3774 3774 3774 3774 3774 3774 3774 3732 3732 3774 3774 3774 3774 3774 3774 3774 3774 3774 3774 3774 3774 3774 3774 3774 3774 3774 3774 3816 3774 3774 3774 3732 3732 3732 3732 3774 3732 3732 3774 3774 3774 3774 3774 3774 3774 3774 3774 0 0 0 0 0 0 0 3692 3653 3653 3653 3653 3653 3692 3692 3692 3692 3653 3653 3653 3653 2812 2789 2789 2789 2789 2789 2789 3692 3653 3614 3614 3614 3614 3614 3614 3614 3614 3614 3614 3614 3614 3614 3614 3576 3576 3503 3503 3468 3399 3365 3365 3269 3269 3238 3238 3238 3238 3238 3238 3238 3238 0 0 0 0 0 0 0 0 0 0 0 0 0 0
0 0 0 0 0 0 0 0 0 0 0 0 0 0 0 0 0 0 0 0 0 0 0 0 0 0 0 0 0 0 0 0 0 0 0 0 0 1421 1421 1421 1421 1421 1421 1421 1421 1421 1415 1410 1410 1410 1410 1410 1410 1410 1404 1404 1404 1404 1404 1392 1392 1392 1392 1392 1392 1392 1392 1392 1392 1392 1392 1392 1392 1387 1387 1387 1387 1387 1381 1381 1381 1376 1376 1376 1376 1376 1376 1376 1376 1370 1370 1370 1370 1370 1376 1376 1376 1376 1376 1376 1370 1370 1370 1370 1370 1365 1365 1365 1365 1359 1359 1359 1359 1359 1359 1354 1354 1354 1359 1359 1359 1359 1365 1365 1365 1370 1381 1381 1387 1387 1387 1387 1794 1794 1794 1804 1804 1804 1804 1794 1794 1794 1785 1785 1785 1785 1785 1785 1785 1785 1785 1785 1794 1794 0 1255 1255 1255 1255 1255 1245 1245 1245 1245 1245 1250 1250 1250 1250 1250 1255 1255 1255 1255 1255 1255 1255 1250 1250 1245 1245 1245 1245 1245 1241 1241 1241 1241 1241 1236 1236 1236 1236 1232 1232 1232 1232 1227 1227 1227 1223 1223 1223 1223 1223 1223 1223 1223 1223 1223 1223 1223 1219 1219 1219 1214 1214 1214 1210 1210 1210 1210 1210 1206 1206 1206 1206 1206 1206 1202 1202 1202 1202 1202 1202 1197 1197 1197 1202 1202 1197 1197 1197 1197 1197 1197 1197 1193 1193 1193 1193 1193 1185 1185 1185 1189 1189 1189 1189 1189 1748 1739 1739 1739 1731 1731 1731 1731 1731 1739 1776 1776 1776 1776 1169 1169 1169 1169 1169 1169 1169 1169 1169 1169 1169 1169 1169 1169 1173 1173 1173 1177 1177 1731 1731 1713 1713 1713 1713 1713 1713 1713 1713 1713 1705 1705 1705 1705 1705 1705 1705 1705 1705 1705 1705 1696 1696 1696 1696 1696 1696 1696 1696 1696 1688 1688 1688 1688 1688 1696 1680 1680 1688 1688 1688 1688 1680 1680 1680 1680 1680 1680 1688 1688 1688 1688 1688 1688 1688 1688 1688 1680 1680 1680 1671 1671 1671 1671 1663 1663 1663 1663 1671 1671 1663 1663 1663 1663 1663 1663 1663 1663 1671 1671 1671 1663 1663 1663 1663 1663 1663 1663 1663 1663 1663 1655 1655 1655 1655 1655 1647 1647 1655 1655 1655 1655 1655 1655 1655 1655 1647 1647 1647 1647 1655 1655 1655 1647 1647 1647 1647 1639 1632 1632 1632 1624 1624 1632 1632 1632 1632 1639 1639 1624 1624 1616 1616 1616 1616 1616 1616 1624 1624 1632 1624 1624 1616 1616 1616 1616 1616 1616 1609 1609 1632 1904 1904 1915 1915 1915 1915 1915 3903 3903 3903 3903 3903 3903 3903 3903 3903 3903 3903 3903 3903 3903 3903 3903 3903 3903 3903 3903 3903 3859 3859 3859 3859 3859 3859 3859 3859 3859 3859 3859 3859 3859 3859 3859 3859 3859 3859 3859 3859 3859 3859 3859 3816 3816 3774 3774 3816 3816 3774 3774 3774 3774 3774 3774 3774 3774 3774 3774 3774 3774 3774 3774 3774 3732 3732 3732 3732 3732 3732 3732 3732 3732 3732 3732 3774 3774 3774 3774 3732 3732 3732 3732 3732 3732 3732 3774 3774 3774 3774 3774 3774 3774 3774 3732 3732 3732 3732 3732 3732 3732 3732 3732 3732 3732 3732 3732 3732 3732 3732 3732 0 0 0 0 0 0 0 3653 3653 3653 3653 3653 3653 3692 3692 3692 3692 3653 3653 3653 3653 2789 2789 2789 2789 2789 2789 2789 2789 3653 3614 3576 3576 3576 3614 3614 3614 3576 3576 3614 3614 3576 3539 3539 3539 3539 3503 3468 3433 3365 3333 3333 3269 3269 3238 3238 3238 3238 3238 3238 3238 3238 0 0 0 0 0 0 0 0 0 0 0 0 0 0
0 0 0 0 0 0 0 0 0 0 0 0 0 0 0 0 0 0 0 0 0 0 0 0 0 0 0 0 0 0 0 0 0 0 0 0 0 1421 1421 1421 1421 1421 1421 1421 1421 1415 1415 1410 1410 1410 1410 1410 1410 1410 1410 1410 1404 1404 1404 1398 1398 1398 1398 1398 1398 1392 1392 1392 1392 1392 1392 1392 1392 1387 1387 1387 1387 1387 1387 1381 1381 1381 1376 1376 1381 1376 1376 1376 1376 1376 1376 1376 1376 1376 1376 1376 1376 1376 1376 1376 1376 1370 1370 1370 1370 1370 1365 1365 1365 1359 1359 1359 1359 1359 1359 1359 1354 1354 1359 1359 1359 1359 1359 1365 1365 1370 1376 1381 1387 1387 1387 1387 1794 1794 1794 1794 1794 1794 1794 1785 1785 1785 1776 1776 1776 1776 1785 1785 1785 1776 1776 1776 1785 1785 0 1250 1250 1250 1250 1250 1245 1245 1245 1245 1245 1245 1245 1250 1250 1250 1250 1255 1255 1255 1250 1250 1250 1245 1245 1245 1245 1245 1245 1241 1241 1241 1241 1241 1241 1236 1236 1236 1232 1232 1232 1227 1227 1223 1223 1223 1223 1223 1223 1223 1223 1219 1219 1223 1219 1219 1219 1219 1214 1214 1214 1214 1214 1210 1210 1210 1210 1206 1206 1206 1206 1206 1206 1206 1206 1202 1202 1202 1202 1202 1197 1197 1197 1197 1197 1197 1197 1197 1197 1197 1197 1197 1197 1193 1193 1193 1193 1189 1185 1185 1185 1185 1185 1185 1185 1185 1185 1185 1181 1181 1181 1185 1185 1185 1185 1185 1185 1177 1173 1169 1169 1165 1165 1165 1165 1165 1165 1165 1165 1165 1165 1165 1165 1169 1169 1169 1169 1169 1173 1173 1173 1705 1705 1705 1705 1705 1705 1705 1705 1705 1705 1705 1705 1696 1696 1696 1696 1696 1696 1696 1696 1696 1696 1696 1696 1696 1688 1688 1688 1688 1688 1688 1688 1688 1688 1688 1680 1680 1680 1680 1680 1680 1671 1671 1671 1671 1671 1671 1680 1688 1688 1688 1688 1688 1688 1663 1663 1663 1663 1663 1663 1663 1663 1663 1663 1663 1663 1663 1663 1655 1655 1655 1655 1655 1655 1655 1655 1655 1655 1655 1647 1639 1639 1647 1647 1647 1647 1655 1655 1655 1647 1647 1647 1647 1639 1639 1639 1639 1647 1647 1647 1647 1647 1647 1647 1639 1639 1639 1639 1639 1639 1647 1647 1647 1647 1639 1639 1632 1632 1632 1632 1624 1624 1624 1624 1624 1624 1624 1624 1624 1609 1609 1609 1601 1601 1609 1609 1609 1609 1609 1609 1609 1601 1601 1601 1601 1609 1609 1609 1609 1915 1915 1915 1915 1926 1915 1915 1915 3903 3903 3903 3903 3903 3903 3903 3903 3903 3903 3903 3903 3903 3903 3903 3903 3903 3903 3903 3859 3859 3859 3816 3816 3816 3859 3859 3859 3859 3859 3859 3816 3816 3816 3816 3816 3859 3859 3859 3859 3859 3859 3859 3816 3816 3774 3774 3774 3774 3774 3774 3732 3732 3732 3732 3732 3732 3732 3732 3732 3732 3732 3732 3732 3732 3732 3732 3732 3732 3732 3732 3732 3732 3732 3732 3732 3732 3732 3732 3732 3732 3732 3732 3732 3732 3732 3732 3732 3774 3774 3774 3774 3774 3732 3732 3732 3692 3692 3692 3692 3692 3692 3692 3692 3692 3692 3692 3732 3732 3732 3732 3692 3692 0 0 0 0 0 0 3653 3653 3653 3653 3653 3653 3653 3653 3653 3653 3653 3653 3653 2789 2789 2789 2789 2789 2789 2789 2789 2789 3653 3614 3576 3576 3576 3614 3653 3614 3576 3576 3614 3614 3576 3539 3503 3503 3503 3503 3433 3433 3365 3333 3333 3269 3269 3238 3238 3238 3238 3238 3238 3238 3238 0 0 0 0 0 0 0 0 0 0 0 0 0 0
0 0 0 0 0 0 0 0 0 0 0 0 0 0 0 0 0 0 0 0 0 0 0 0 0 0 0 0 0 0 0 0 0 0 0 0 0 1427 1427 1427 1421 1421 1421 1421 1421 1415 1415 1415 1415 1410 1410 1410 1410 1410 1410 1410 1404 1404 1404 1404 1398 1398 1398 1398 1398 1392 1392 1392 1392 1392 1392 1392 1392 1387 1387 1387 1387 1387 1387 1387 1381 1381 1376 1376 1381 1376 1376 1376 1376 1376 1376 1376 1376 1376 1376 1376 1376 1376 1376 1376 1376 1370 1370 1370 1370 1370 1365 1365 1365 1359 1359 1359 1359 1359 1359 1359 1359 1359 1359 1359 1359 1359 1359 1365 1365 1370 1376 1381 1387 1387 1387 1381 1381 1387 1785 1785 1785 1776 1776 1776 1776 1766 1766 1766 1766 1766 1766 1766 1766 1766 1776 1776 1776 1776 0 1250 1250 1250 1250 1250 1245 1245 1245 1245 1245 1245 1245 1245 1245 1250 1250 1250 1250 1250 1250 1250 1245 1245 1245 1245 1241 1241 1241 1241 1241 1241 1241 1241 1236 1236 1236 1236 1232 1232 1227 1227 1227 1223 1223 1223 1223 1223 1223 1223 1219 1219 1219 1219 1219 1214 1214 1214 1210 1210 1214 1210 1210 1210 1206 1206 1206 1206 1206 1206 1206 1206 1206 1206 1202 1202 1202 1202 1202 1202 1197 1197 1197 1197 1197 1197 1197 1193 1193 1197 1193 1193 1193 1189 1189 1193 1189 1189 1185 1185 1185 1185 1185 1185 1185 1185 1185 1185 1181 1181 1181 1185 1185 1185 1185 1181 1181 1177 1173 1169 1169 1165 1165 1165 1161 1161 1165 1161 1161 1165 1165 1165 1165 1169 1169 1169 1169 1169 1173 1173 1173 1705 1688 1688 1688 1688 1688 1688 1680 1680 1680 1688 1688 1688 1688 1688 1680 1671 1671 1671 1671 1671 1671 1671 1663 1663 1663 1663 1663 1680 1680 1671 1671 1680 1680 1663 1663 1663 1663 1663 1671 1663 1663 1663 1663 1663 1663 1663 1663 1680 1680 1680 1680 1680 1680 1655 1647 1647 1655 1655 1655 1655 1655 1655 1655 1655 1655 1655 1655 1655 1655 1647 1647 1655 1647 1647 1647 1647 1647 1639 1632 1632 1632 1632 1639 1632 1632 1639 1639 1639 1639 1639 1639 1639 1632 1632 1632 1632 1639 1639 1639 1639 1639 1632 1632 1632 1632 1632 1632 1632 1632 1632 1632 1632 1632 1632 1632 1624 1624 1624 1624 1616 1616 1616 1616 1616 1616 1616 1616 1616 1601 1601 1601 1601 1601 1601 1601 1601 1601 1601 1601 1594 1594 1594 1594 1601 1601 1601 1601 1609 1609 1915 1915 1926 1926 1926 1926 3859 3859 3859 3859 3859 3859 3859 3859 3859 3859 3859 3859 3903 3903 3903 3903 3903 3903 3859 3859 3816 3816 3816 3816 3816 3816 3816 3816 3816 3816 3816 3816 3816 3816 3816 3816 3816 3816 3816 3816 3816 3816 3816 3816 3816 3774 3774 3732 3732 3774 3732 3732 3732 3732 3732 3732 3732 3732 3732 3732 3732 3732 3732 3732 3732 3732 3732 3732 3732 3732 3732 3692 3692 3692 3692 3692 3692 3732 3732 3692 3692 3732 3732 3692 3692 3692 3732 3732 3732 3732 3732 3732 3732 3732 3732 3732 3692 3692 3692 3692 3692 3692 3653 3653 3653 3653 3653 3692 3692 3692 3692 3692 3692 3692 0 0 0 0 0 0 3653 3653 3653 3653 3614 3614 3614 3614 3576 3576 3653 3653 2789 2789 2789 2789 2789 2789 2789 2789 2789 0 3653 3653 3576 3576 3576 3614 3653 3653 3614 3614 3614 3614 3614 3539 3503 3503 3503 3503 3433 3433 3365 3300 3300 3269 3269 3238 3238 3269 3238 3238 3238 3208 3208 0 0 0 0 0 0 0 0 0 0 0 0 0 0
0 0 0 0 0 0 0 0 0 0 0 0 0 0 0 0 0 0 0 0 0 0 0 0 0 0 0 0 0 0 0 0 0 0 0 0 0 1427 1427 1427 1427 1421 1421 1421 1421 1415 1415 1415 1415 1415 1410 1410 1410 1410 1410 1410 1410 1404 1404 1404 1398 1398 1398 1398 1398 1392 1392 1392 1392 1392 1392 1392 1392 1387 1387 1387 1387 1387 1387 1387 1381 1381 1376 1376 1381 1381 1376 1376 1381 1381 1381 1376 1376 1376 1376 1376 1376 1376 1376 1376 1376 1376 1376 1376 1376 1370 1370 1365 1365 1365 1359 1359 1359 1359 1359 1359 1359 1359 1359 1359 1359 1359 1365 1365 1365 1370 1376 1381 1381 1387 1387 1381 1381 1387 1776 1766 1766 1766 1766 1766 1766 1757 1757 1757 1757 1757 1757 1757 1757 1757 1757 1748 1748 1748 0 1250 1250 1250 1250 1250 1245 1245 1245 1245 1245 1245 1245 1245 1245 1250 1250 1250 1250 1250 1245 1245 1245 1245 1241 1241 1241 1241 1241 1241 1241 1241 1236 1236 1236 1236 1236 1232 1232 1232 1227 1223 1223 1223 1223 1223 1223 1223 1219 1219 1219 1219 1219 1219 1214 1214 1214 1214 1210 1210 1210 1210 1210 1210 1206 1206 1206 1206 1206 1206 1206 1206 1206 1202 1202 1202 1202 1202 1202 1197 1197 1197 1197 1197 1197 1193 1193 1193 1193 1193 1193 1193 1193 1189 1189 1189 1189 1185 1185 1185 1185 1185 1185 1181 1181 1181 1181 1181 1181 1181 1181 1181 1181 1181 1181 1177 1177 1173 1173 1169 1169 1165 1165 1165 1161 1161 1161 1161 1161 1161 1161 1165 1165 1165 1169 1169 1169 1169 1173 1173 1173 1680 1680 1680 1680 1680 1680 1680 1671 1671 1671 1680 1680 1671 1671 1671 1663 1655 1655 1663 1663 1655 1655 1655 1647 1647 1647 1647 1647 1663 1663 1663 1663 1663 1647 1639 1639 1639 1639 1647 1647 1647 1647 1639 1639 1639 1639 1639 1639 1639 1639 1639 1639 1639 1639 1639 1639 1639 1639 1639 1647 1647 1647 1647 1647 1647 1647 1647 1647 1647 1647 1647 1647 1639 1639 1639 1639 1632 1632 1632 1624 1624 1624 1632 1632 1632 1632 1632 1632 1639 1632 1632 1632 1632 1624 1624 1624 1624 1624 1624 1624 1624 1624 1624 1624 1624 1624 1624 1624 1624 1624 1624 1624 1624 1624 1624 1624 1616 1616 1616 1616 1609 1609 1609 1609 1601 1601 1609 1609 1601 1594 1594 1594 1594 1594 1594 1594 1586 1586 1586 1586 1586 1586 1586 1586 1594 1594 1601 1601 1601 1609 1915 1915 1926 1926 1926 1926 3816 3816 3816 3859 3859 3859 3859 3859 3859 3859 3859 3859 3859 3859 3859 3859 3859 3859 3859 3816 3816 3816 3816 3774 3774 3816 3816 3816 3816 3816 3816 3816 3774 3774 3774 3774 3816 3774 3774 3774 3774 3774 3774 3774 3774 3732 3732 3732 3732 3732 3732 3732 3692 3692 3692 3692 3692 3692 3692 3692 3692 3732 3732 3732 3692 3692 3692 3692 3692 3692 3692 3692 3692 3692 3653 3653 3692 3692 3692 3692 3692 3692 3692 3692 3692 3692 3692 3692 3692 3732 3732 3732 3732 3692 3692 3692 3692 3692 3692 3692 3692 3692 3653 3653 3653 3614 3614 3653 3692 3692 3692 3692 3692 3692 3692 0 0 0 0 0 3653 3614 3614 3614 3576 3576 3576 3576 3539 3539 3539 2789 2789 2789 2789 2789 2789 2789 2789 2789 2789 0 0 0 0 3576 3576 3614 3653 3653 3614 3614 3653 3653 3653 3539 3503 3503 3503 3503 3468 3468 3300 3300 3300 3269 3269 3269 3269 3269 3238 3238 3238 3208 3208 0 0 0 0 0 0 0 0 0 0 0 0 0 0
0 0 0 0 0 0 0 0 0 0 0 0 0 0 0 0 0 0 0 0 0 0 0 0 0 0 0 0 0 0 0 0 0 0 0 0 0 1427 1427 1427 1427 1421 1421 1421 1421 1415 1415 1415 1415 1415 1410 1410 1410 1410 1410 1410 1410 1404 1404 1404 1398 1398 1398 1398 1398 1392 1392 1392 1392 1392 1392 1392 1392 1387 1387 1387 1387 1381 1381 1381 1381 1381 1381 1381 1381 1381 1381 1381 1381 1381 1381 1381 1381 1381 1376 1376 1376 1381 1381 1381 1381 1376 1376 1376 1376 1376 1370 1370 1370 1365 1359 1359 1359 1359 1359 1359 1359 1359 1359 1359 1359 1359 1365 1365 1365 1370 1376 1381 1381 1387 1387 1387 1387 1766 1766 1757 1757 1757 1757 1757 1748 1748 1748 1748 1748 1748 1739 1739 1739 1739 1739 1731 1731 1731 0 1245 1245 1245 1250 1250 1245 1245 1245 1245 1245 1245 1245 1245 1245 1245 1250 1250 1250 1250 1245 1245 1245 1245 1241 1241 1241 1241 1241 1241 1241 1236 1236 1236 1236 1236 1232 1232 1232 1227 1227 1223 1223 1223 1223 1223 1223 1223 1219 1219 1219 1219 1219 1214 1214 1214 1214 1214 1210 1210 1210 1210 1210 1206 1206 1206 1206 1206 1206 1202 1202 1202 1202 1202 1202 1202 1202 1202 1197 1197 1197 1193 1193 1193 1193 1193 1189 1189 1189 1189 1189 1189 1189 1185 1185 1185 1185 1185 1185 1185 1185 1181 1181 1181 1181 1181 1181 1181 1181 1181 1181 1181 1181 1181 1181 1177 1177 1173 1173 1169 1165 1165 1165 1161 1161 1161 1161 1161 1161 1161 1161 1161 1165 1165 1165 1169 1169 1169 1177 1181 1181 1181 1663 1663 1663 1663 1663 1663 1663 1663 1663 1663 1655 1655 1655 1647 1647 1647 1647 1647 1655 1647 1647 1647 1639 1639 1639 1639 1639 1639 1639 1639 1632 1632 1632 1624 1624 1632 1632 1632 1632 1632 1639 1632 1632 1632 1632 1632 1624 1624 1624 1624 1624 1624 1624 1624 1624 1632 1632 1632 1632 1624 1624 1624 1624 1624 1624 1624 1624 1624 1624 1624 1624 1624 1624 1632 1632 1624 1624 1624 1624 1624 1624 1624 1624 1624 1624 1632 1624 1624 1624 1624 1624 1624 1616 1616 1616 1616 1616 1616 1609 1609 1609 1616 1616 1616 1616 1616 1616 1616 1616 1616 1616 1616 1616 1616 1609 1609 1609 1609 1609 1594 1594 1594 1594 1594 1594 1594 1594 1594 1586 1586 1594 1594 1594 1586 1586 1579 1579 1579 1579 1579 1579 1579 1579 1586 1594 1594 1594 1594 1609 1915 1926 1926 1936 1936 3816 3816 3816 3816 3816 3816 3816 3816 3816 3816 3816 3816 3816 3816 3816 3816 3816 3859 3816 3816 3816 3816 3816 3774 3774 3774 3774 3816 3774 3774 3774 3774 3774 3774 3774 3774 3774 3774 3774 3732 3732 3732 3732 3732 3732 3732 3692 3692 3692 3732 3732 3692 3692 3692 3692 3692 3692 3692 3692 3692 3692 3692 3692 3692 3692 3692 3692 3692 3692 3653 3653 3692 3692 3653 3653 3653 3653 3653 3653 3653 3653 3653 3692 3692 3692 3692 3692 3692 3692 3692 3692 3692 3692 3692 3692 3692 3692 3692 3692 3692 3653 3653 3653 3653 3653 3653 3614 3614 3653 3653 3653 3692 3692 3692 3692 3692 0 0 0 0 0 3614 3576 3576 3539 3539 3539 3539 3539 3539 3539 3539 2789 2789 2789 2812 2789 2789 2789 2789 2789 0 0 0 0 0 0 0 0 3653 3653 3614 3614 3653 3653 3653 3614 3614 3539 3503 3503 3468 3468 3300 3269 3269 3269 3269 3269 3269 3269 3269 3238 3238 3238 3238 0 0 0 0 0 0 0 0 0 0 0 0 0 0
0 0 0 0 0 0 0 0 0 0 0 0 0 0 0 0 0 0 0 0 0 0 0 0 0 0 0 0 0 0 0 0 0 0 0 0 0 1427 1427 1427 1427 1421 1421 1421 1421 1415 1415 1415 1415 1415 1410 1410 1410 1410 1410 1410 1410 1404 1404 1404 1398 1398 1398 1398 1398 1398 1392 1392 1392 1392 1392 1392 1392 1387 1387 1387 1387 1381 1381 1381 1381 1381 1381 1381 1381 1381 1381 1381 1381 1381 1381 1381 1381 1381 1381 1381 1381 1381 1381 1381 1381 1376 1376 1376 1376 1376 1370 1370 1370 1365 1365 1359 1359 1359 1359 1359 1359 1359 1359 1359 1359 1359 1365 1365 1365 1370 1376 1381 1381 1387 1387 1387 1392 1757 1757 1757 1757 1748 1748 1748 1739 1739 1731 1731 1731 1739 1731 1731 1731 1731 1731 1722 1722 1722 1713 1245 1245 1245 1250 1250 1250 1250 1250 1245 1245 1245 1245 1245 1245 1245 1250 1250 1250 1250 1245 1245 1245 1241 1241 1241 1241 1241 1241 1241 1236 1236 1236 1236 1236 1236 1232 1232 1232 1227 1227 1223 1223 1223 1223 1219 1219 1219 1219 1219 1219 1219 1219 1214 1214 1214 1214 1214 1210 1210 1210 1210 1206 1206 1206 1206 1206 1206 1206 1202 1202 1202 1202 1202 1202 1202 1202 1197 1197 1197 1197 1193 1193 1193 1193 1189 1189 1189 1189 1189 1189 1189 1189 1185 1185 1185 1185 1185 1181 1181 1181 1181 1181 1181 1181 1181 1181 1181 1181 1181 1181 1181 1181 1181 1181 1177 1177 1173 1173 1169 1165 1165 1161 1161 1161 1161 1161 1161 1161 1161 1161 1161 1165 1165 1165 1169 1169 1177 1181 1181 1181 1181 1655 1655 1655 1655 1655 1655 1655 1655 1655 1647 1647 1639 1639 1639 1639 1639 1639 1639 1639 1639 1639 1632 1632 1632 1632 1632 1632 1624 1624 1624 1616 1616 1624 1616 1616 1616 1616 1624 1624 1624 1624 1624 1624 1624 1624 1624 1616 1616 1609 1609 1609 1616 1616 1616 1624 1624 1624 1616 1609 1609 1609 1609 1609 1616 1616 1616 1616 1616 1624 1616 1616 1616 1616 1616 1616 1609 1609 1609 1609 1609 1609 1609 1609 1609 1609 1609 1609 1609 1609 1601 1601 1609 1601 1601 1609 1609 1609 1609 1601 1601 1601 1601 1601 1601 1601 1609 1609 1609 1609 1609 1616 1609 1601 1601 1601 1601 1594 1594 1601 1586 1586 1586 1579 1579 1579 1579 1586 1586 1579 1579 1586 1586 1586 1579 1579 1572 1572 1572 1572 1572 1572 1572 1572 1579 1586 1586 1586 1586 1586 1915 1915 1926 1936 1936 3774 3774 3774 3816 3816 3816 3816 3816 3816 3816 3816 3816 3816 3816 3816 3816 3816 3816 3816 3816 3816 3816 3816 3774 3774 3774 3774 3774 3774 3774 3774 3774 3774 3774 3732 3732 3732 3732 3732 3732 3732 3732 3732 3732 3732 3732 3692 3692 3692 3692 3692 3692 3692 3653 3653 3653 3653 3653 3653 3692 3692 3692 3692 3692 3692 3692 3653 3653 3653 3653 3653 3653 3653 3653 3653 3614 3614 3614 3614 3614 3614 3614 3653 3653 3653 3653 3653 3653 3653 3692 3692 3692 3692 3653 3653 3653 3614 3614 3614 3653 3614 3614 3653 3614 3614 3614 3614 3614 3653 3653 3653 3653 3692 3692 0 0 0 0 0 0 0 3576 3576 3576 3539 3539 3539 3468 3468 3539 3539 3539 2789 2789 2789 2789 2789 2789 2767 2767 2789 0 0 0 0 0 0 0 0 0 0 0 0 0 0 0 0 0 3433 3433 3399 3399 3399 3300 3269 3269 3269 3269 3269 3269 3269 3269 3238 3238 3238 3238 0 0 0 0 0 0 0 0 0 0 0 0 0 0
0 0 0 0 0 0 0 0 0 0 0 0 0 0 0 0 0 0 0 0 0 0 0 0 0 0 0 0 0 0 0 0 0 0 0 0 0 1433 1433 1427 1427 1421 1421 1421 1421 1415 1415 1415 1415 1415 1415 1410 1410 1410 1410 1410 1410 1404 1404 1404 1404 1404 1398 1398 1404 1398 1398 1398 1398 1398 1392 1392 1392 1387 1387 1387 1381 1381 1381 1381 1381 1381 1381 1381 1381 1381 1381 1381 1381 1381 1381 1381 1381 1381 1381 1381 1381 1381 1381 1381 1381 1376 1376 1376 1376 1370 1370 1370 1370 1365 1365 1365 1359 1359 1359 1359 1359 1359 1359 1359 1359 1365 1365 1365 1365 1376 1376 1381 1387 1387 1387 1387 1392 1392 1739 1739 1739 1739 1739 1731 1731 1722 1722 1722 1722 1722 1722 1722 1722 1722 1722 1722 1713 1713 1713 1245 1245 1245 1250 1250 1250 1250 1250 1250 1250 1250 1250 1250 1250 1250 1250 1250 1250 1250 1245 1245 1245 1241 1241 1241 1241 1241 1241 1241 1236 1236 1236 1236 1236 1232 1232 1232 1232 1232 1227 1223 1223 1223 1223 1219 1219 1219 1219 1219 1219 1219 1214 1214 1214 1214 1214 1214 1210 1210 1210 1210 1206 1206 1206 1206 1206 1206 1206 1206 1206 1206 1202 1202 1202 1202 1202 1197 1197 1197 1197 1193 1193 1193 1193 1189 1189 1189 1189 1189 1189 1189 1189 1185 1185 1185 1185 1181 1181 1181 1181 1181 1181 1181 1181 1177 1177 1181 1181 1181 1181 1181 1181 1181 1181 1177 1177 1173 1173 1169 1165 1165 1161 1161 1161 1161 1161 1161 1161 1161 1161 1161 1165 1165 1165 1169 1169 1177 1181 1181 1181 1185 1639 1639 1639 1639 1639 1639 1639 1639 1639 1639 1639 1632 1632 1632 1632 1632 1632 1632 1632 1632 1632 1624 1624 1624 1624 1624 1624 1624 1616 1616 1616 1616 1616 1609 1609 1616 1616 1616 1616 1616 1616 1616 1616 1609 1609 1609 1609 1601 1601 1601 1601 1609 1609 1609 1609 1609 1609 1601 1601 1601 1601 1601 1601 1601 1601 1609 1601 1601 1609 1609 1609 1609 1609 1601 1601 1601 1601 1601 1601 1601 1601 1601 1601 1601 1601 1601 1601 1601 1601 1601 1601 1601 1601 1601 1594 1594 1594 1594 1586 1579 1579 1572 1572 1572 1572 1572 1572 1572 1572 1579 1572 1572 1572 1572 1594 1586 1586 1586 1586 1579 1579 1564 1564 1564 1564 1564 1572 1572 1572 1572 1579 1579 1579 1572 1572 1572 1564 1564 1564 1564 1564 1564 1564 1572 1572 1579 1579 1586 1586 1915 1915 1926 1926 1926 3774 3774 3774 3774 3774 3774 3774 3774 3774 3774 3774 3774 3774 3774 3816 3774 3774 3774 3774 3774 3774 3774 3774 3774 3774 3774 3774 3774 3774 3774 3774 3774 3774 3732 3732 3732 3732 3732 3692 3692 3692 3692 3692 3692 3692 3692 3692 3692 3692 3692 3692 3653 3653 3653 3653 3653 3653 3653 3653 3692 3692 3692 3692 3653 3653 3653 3653 3653 3653 3614 3614 3653 3614 3614 3614 3614 3614 3614 3614 3614 3614 3614 3614 3614 3614 3614 3614 3653 3653 3653 3653 3653 3653 3614 3614 3614 3614 3614 3614 3614 3614 3614 3614 3614 3614 3614 3614 3614 3614 3614 3614 3653 3653 3692 0 0 0 0 0 0 0 3576 3576 3576 3539 3503 3503 3468 3468 3468 3468 0 2789 2789 2789 2789 2767 2744 2744 2744 0 0 0 0 0 0 0 0 0 0 0 0 0 0 0 0 0 0 3433 3399 3399 3365 3365 3300 3300 3300 3269 3269 3269 3269 3269 3269 3238 3238 3238 3238 0 0 0 0 0 0 0 0 0 0 0 0 0 0
0 0 0 0 0 0 0 0 0 0 0 0 0 0 0 0 0 0 0 0 0 0 0 0 0 0 0 0 0 0 0 0 0 0 0 0 0 1433 1433 1427 1421 1421 1421 1421 1421 1415 1415 1415 1415 1415 1410 1410 1410 1410 1410 1410 1410 1404 1404 1404 1404 1404 1398 1398 1404 1398 1398 1398 1398 1398 1398 1392 1392 1387 1387 1387 1381 1381 1381 1381 1381 1381 1381 1381 1381 1381 1381 1381 1381 1381 1381 1381 1381 1381 1381 1381 1381 1381 1381 1381 1381 1376 1376 1376 1376 1370 1370 1370 1370 1365 1365 1365 1365 1365 1359 1359 1359 1359 1359 1359 1359 1365 1365 1365 1370 1376 1376 1381 1387 1387 1387 1387 1392 1392 1731 1731 1731 1722 1722 1722 1713 1713 1713 1713 1713 1713 1713 1713 1713 1713 1713 1713 1713 1713 1713 1713 1250 1250 1250 1250 1250 1250 1250 1250 1250 1250 1250 1250 1250 1250 1250 1250 1250 1250 1245 1245 1245 1241 1241 1241 1241 1241 1241 1241 1236 1236 1236 1236 1236 1232 1232 1232 1232 1232 1227 1223 1223 1223 1223 1223 1219 1219 1219 1219 1219 1219 1214 1214 1214 1214 1214 1210 1210 1210 1210 1210 1206 1206 1206 1206 1206 1206 1206 1206 1206 1206 1206 1202 1202 1202 1202 1197 1197 1197 1193 1193 1193 1193 1193 1189 1189 1189 1189 1189 1189 1189 1189 1185 1185 1181 1181 1181 1181 1181 1181 1181 1181 1181 1181 1177 1177 1181 1181 1181 1181 1177 1177 1177 1177 1177 1177 1173 1169 1169 1165 1165 1161 1161 1157 1157 1157 1161 1161 1161 1161 1161 1165 1165 1165 1169 1169 1177 1181 1185 1185 1185 1632 1632 1632 1632 1632 1632 1632 1632 1632 1632 1632 1632 1624 1624 1624 1624 1624 1624 1616 1616 1616 1616 1616 1616 1616 1616 1616 1616 1616 1616 1616 1609 1609 1609 1609 1609 1609 1609 1609 1609 1616 1609 1609 1609 1609 1601 1601 1601 1594 1594 1594 1601 1601 1601 1601 1601 1601 1594 1594 1594 1594 1594 1594 1594 1594 1594 1594 1594 1601 1601 1601 1601 1601 1601 1601 1579 1579 1579 1579 1594 1594 1594 1594 1594 1594 1601 1601 1601 1594 1594 1594 1594 1594 1594 1586 1586 1586 1579 1572 1572 1564 1564 1557 1557 1572 1564 1564 1557 1557 1564 1564 1564 1557 1557 1557 1557 1557 1550 1550 1543 1543 1536 1536 1543 1543 1543 1543 1543 1550 1550 1550 1550 1550 1564 1564 1557 1557 1557 1557 1557 1557 1557 1557 1564 1564 1564 1543 1543 1915 1915 1915 1926 1926 1926 3816 3816 3774 3774 3774 3774 3774 3774 3774 3774 3774 3774 3774 3774 3774 3774 3774 3774 3774 3774 3774 3732 3732 3732 3732 3732 3732 3732 3732 3732 3732 3732 3732 3732 3732 3732 3732 3732 3692 3692 3692 3692 3692 3692 3692 3692 3653 3653 3692 3692 3653 3653 3653 3653 3653 3653 3653 3653 3653 3653 3653 3692 3653 3653 3653 3653 3614 3614 3614 3614 3614 3614 3614 3614 3614 3614 3614 3614 3576 3576 3576 3614 3614 3614 3614 3614 3614 3614 3614 3614 3614 3614 3614 3614 3614 3614 3614 3614 3614 3614 3614 3614 3576 3576 3576 3576 3576 3576 3576 3576 3576 3576 3576 3576 0 0 0 0 0 3539 3539 3539 3539 3539 3503 3503 3468 3468 3468 3468 3468 3468 2812 2812 2789 2789 2767 2744 2744 2744 0 0 0 0 0 0 0 0 0 0 0 0 0 0 0 0 0 0 3399 3399 3399 3365 3365 3300 3300 3300 3269 3269 3269 3269 3269 3269 3238 3238 3238 3238 0 0 0 0 0 0 0 0 0 0 0 0 0 0
0 0 0 0 0 0 0 0 0 0 0 0 0 0 0 0 0 0 0 0 0 0 0 0 0 0 0 0 0 0 0 0 0 0 0 0 0 1433 1433 1427 1421 1421 1421 1421 1421 1415 1415 1415 1415 1415 1410 1410 1410 1410 1410 1410 1410 1404 1404 1404 1404 1404 1404 1404 1404 1404 1398 1398 1398 1398 1398 1392 1392 1387 1387 1387 1381 1381 1381 1381 1381 1381 1381 1381 1381 1381 1381 1381 1381 1381 1381 1381 1381 1381 1381 1381 1381 1381 1381 1381 1381 1381 1381 1381 1376 1370 1370 1370 1370 1365 1365 1365 1365 1365 1359 1359 1359 1359 1359 1359 1359 1365 1365 1365 1370 1376 1381 1381 1387 1387 1387 1392 1392 1392 1722 1722 1722 1713 1713 1705 1705 1696 1696 1696 1696 1696 1696 1705 1705 1705 1705 1705 1705 1705 1705 1245 1250 1250 1250 1255 1250 1250 1250 1255 1255 1250 1250 1250 1250 1250 1250 1250 1250 1250 1245 1245 1245 1245 1241 1241 1241 1241 1241 1241 1236 1236 1236 1236 1236 1236 1236 1232 1232 1232 1227 1227 1223 1223 1223 1223 1223 1219 1219 1219 1219 1219 1214 1214 1214 1214 1214 1210 1210 1210 1210 1210 1206 1206 1206 1206 1206 1206 1206 1206 1206 1206 1206 1202 1202 1202 1202 1197 1197 1197 1193 1193 1193 1193 1193 1189 1189 1189 1189 1189 1189 1189 1189 1185 1185 1181 1181 1181 1181 1181 1181 1181 1181 1181 1181 1181 1181 1181 1177 1177 1177 1177 1177 1177 1177 1177 1173 1173 1169 1169 1165 1165 1161 1161 1157 1157 1157 1161 1161 1161 1161 1161 1165 1165 1165 1169 1169 1177 1181 1185 1185 1185 1189 1616 1616 1616 1616 1624 1624 1624 1624 1624 1624 1624 1616 1616 1616 1616 1616 1616 1616 1616 1616 1609 1609 1609 1609 1609 1609 1609 1609 1609 1609 1609 1609 1601 1601 1601 1601 1601 1601 1601 1609 1601 1601 1601 1594 1594 1594 1594 1594 1594 1594 1594 1594 1594 1594 1594 1594 1594 1594 1594 1594 1586 1586 1586 1586 1586 1586 1594 1594 1594 1594 1586 1579 1572 1572 1572 1572 1572 1572 1572 1572 1572 1572 1572 1594 1594 1586 1586 1586 1586 1586 1586 1586 1579 1579 1572 1572 1572 1557 1557 1550 1550 1543 1543 1550 1550 1557 1557 1557 1557 1550 1550 1550 1550 1543 1543 1543 1543 1543 1536 1536 1536 1536 1536 1536 1536 1536 1536 1543 1543 1543 1536 1536 1536 1536 1536 1536 1543 1543 1543 1543 1543 1543 1536 1536 1536 1543 1543 1915 1915 1915 1915 1915 1915 3774 3774 3774 3774 3774 3774 3732 3732 3732 3732 3732 3732 3732 3732 3732 3732 3732 3732 3732 3732 3732 3732 3692 3692 3692 3692 3692 3732 3732 3732 3732 3732 3732 3732 3732 3692 3692 3692 3692 3692 3692 3692 3692 3692 3653 3653 3653 3653 3653 3653 3653 3653 3614 3614 3614 3614 3653 3653 3653 3653 3653 3653 3653 3614 3614 3614 3614 3614 3614 3576 3576 3614 3576 3576 3576 3576 3576 3576 3576 3576 3576 3576 3614 3576 3576 3576 3576 3576 3614 3614 3614 3614 3614 3614 3614 3614 3614 3576 3576 3614 3576 3576 3576 3576 3576 3576 3576 3576 3576 3576 3576 3576 3576 3576 3576 0 0 0 3503 3503 3539 3539 3539 3539 3503 3468 3468 3433 3433 3468 3468 3468 2835 2835 2812 2812 2789 2789 2789 0 0 0 0 0 0 0 0 0 0 0 0 0 0 0 0 0 0 0 3399 3365 3365 3365 3333 3300 3300 3300 3269 3269 3269 3269 3269 3269 3238 3238 3269 0 0 0 0 0 0 0 0 0 0 0 0 0 0 0
0 0 0 0 0 0 0 0 0 0 0 0 0 0 0 0 0 0 0 0 0 0 0 0 0 0 0 0 0 0 0 0 0 0 0 0 0 1439 1433 1433 1427 1421 1421 1421 1421 1415 1415 1410 1410 1410 1410 1410 1410 1410 1410 1410 1410 1404 1404 1404 1404 1404 1404 1404 1404 1398 1398 1398 1398 1398 1398 1392 1392 1387 1387 1387 1381 1381 1381 1381 1381 1381 1381 1381 1387 1387 1387 1387 1387 1387 1387 1381 1381 1381 1381 1381 1381 1381 1381 1381 1381 1381 1381 1381 1376 1376 1370 1370 1370 1365 1365 1365 1365 1365 1359 1359 1359 1359 1359 1359 1359 1365 1365 1365 1370 1376 1381 1381 1387 1387 1387 1387 1392 1392 1713 1713 1713 1705 1705 1696 1696 1688 1688 1688 1688 1688 1696 1688 1688 1696 1696 1696 1696 1696 1696 1245 1245 1245 1250 1255 1255 1255 1255 1255 1255 1255 1255 1250 1250 1250 1250 1250 1250 1250 1245 1245 1245 1245 1241 1241 1241 1241 1241 1241 1236 1236 1236 1236 1236 1236 1236 1236 1236 1232 1232 1227 1227 1223 1223 1223 1223 1223 1219 1219 1219 1219 1219 1214 1214 1214 1214 1214 1210 1210 1210 1210 1210 1210 1206 1206 1206 1206 1206 1206 1206 1206 1206 1206 1202 1202 1202 1202 1202 1197 1193 1193 1193 1193 1193 1189 1189 1189 1189 1189 1189 1189 1189 1185 1185 1185 1181 1181 1181 1181 1181 1181 1181 1181 1181 1181 1181 1177 1177 1177 1177 1177 1177 1177 1177 1177 1173 1173 1169 1169 1165 1165 1161 1161 1161 1161 1161 1161 1161 1161 1161 1161 1165 1165 1165 1169 1169 1181 1181 1185 1185 1185 1189 1609 1609 1616 1616 1616 1616 1616 1616 1616 1624 1616 1616 1616 1609 1609 1609 1609 1609 1609 1609 1609 1601 1601 1601 1601 1601 1601 1601 1601 1601 1601 1601 1601 1601 1594 1594 1594 1586 1586 1601 1594 1594 1579 1579 1579 1579 1586 1586 1586 1586 1586 1586 1586 1586 1586 1586 1579 1579 1579 1579 1579 1579 1579 1579 1579 1579 1579 1572 1572 1572 1564 1564 1564 1564 1564 1564 1564 1564 1564 1557 1557 1564 1564 1564 1564 1564 1572 1572 1572 1572 1572 1572 1564 1564 1564 1557 1557 1543 1529 1529 1536 1536 1536 1536 1536 1557 1557 1557 1557 1543 1543 1543 1536 1536 1536 1536 1536 1529 1529 1523 1523 1529 1529 1529 1529 1536 1536 1536 1536 1536 1529 1529 1529 1529 1529 1529 1536 1536 1529 1529 1536 1536 1529 1529 1529 1915 1915 1915 1915 1915 1915 1915 1915 3732 3732 3732 3732 3732 3732 3732 3732 3732 3732 3692 3692 3732 3732 3732 3732 3732 3732 3692 3692 3692 3692 3653 3653 3653 3653 3692 3732 3732 3732 3732 3692 3692 3692 3692 3692 3692 3653 3653 3653 3653 3653 3653 3653 3614 3614 3653 3653 3653 3653 3653 3614 3614 3614 3614 3614 3614 3614 3614 3614 3653 3614 3614 3614 3614 3576 3576 3576 3576 3576 3576 3576 3576 3576 3576 3576 3576 3576 3576 3576 3576 3576 3576 3576 3576 3576 3576 3576 3576 3576 3576 3576 3576 3576 3576 3614 3614 3576 3576 3576 3576 3576 3576 3539 3539 3539 3539 3539 3539 3539 3539 3576 3539 3539 3539 0 0 0 3468 3468 3539 3503 3503 3503 3539 3468 3468 3433 3433 3468 3468 3468 2835 2835 2789 2789 2789 2767 2767 2767 0 0 0 0 0 0 0 0 0 0 0 0 0 0 0 0 0 0 0 3365 3365 3333 3300 3300 3300 3300 3269 3269 3269 3269 3269 3269 3238 3238 3238 3238 0 0 0 0 0 0 0 0 0 0 0 0 0 0
0 0 0 0 0 0 0 0 0 0 0 0 0 0 0 0 0 0 0 0 0 0 0 0 0 0 0 0 0 0 0 0 0 0 0 0 0 1439 1439 1433 1427 1421 1421 1421 1421 1415 1415 1410 1410 1410 1410 1410 1410 1410 1410 1410 1410 1410 1410 1404 1404 1404 1404 1404 1404 1398 1398 1398 1398 1398 1398 1398 1398 1387 1387 1387 1387 1387 1387 1387 1381 1381 1387 1387 1387 1387 1387 1387 1387 1387 1387 1381 1381 1381 1381 1381 1381 1381 1381 1387 1387 1387 1381 1381 1376 1376 1370 1365 1365 1365 1365 1365 1359 1359 1359 1359 1359 1359 1359 1359 1365 1359 1359 1365 1370 1376 1381 1381 1387 1387 1387 1387 1392 1392 1398 1705 1696 1696 1688 1688 1688 1688 1688 1688 1688 1688 1688 1688 1688 1688 1688 1688 1688 1688 1688 1245 1245 1245 1250 1259 1255 1255 1255 1255 1255 1255 1255 1255 1255 1255 1250 1250 1250 1250 1250 1245 1245 1245 1245 1241 1241 1241 1241 1241 1241 1236 1236 1236 1236 1236 1236 1236 1236 1232 1232 1227 1227 1227 1223 1223 1223 1223 1219 1219 1219 1219 1219 1219 1214 1214 1214 1214 1210 1210 1210 1210 1210 1210 1206 1206 1206 1206 1206 1206 1206 1206 1206 1206 1202 1202 1202 1202 1202 1197 1193 1193 1193 1193 1193 1193 1193 1189 1189 1189 1189 1189 1189 1185 1185 1185 1185 1181 1181 1181 1181 1181 1181 1181 1181 1181 1181 1177 1177 1177 1177 1177 1177 1177 1177 1177 1177 1173 1173 1169 1169 1165 1161 1161 1161 1161 1161 1161 1161 1161 1161 1165 1165 1165 1165 1169 1169 1181 1181 1185 1185 1185 1189 1609 1609 1609 1609 1609 1609 1609 1601 1601 1609 1601 1601 1609 1609 1609 1609 1601 1601 1601 1601 1601 1601 1601 1601 1601 1601 1594 1594 1594 1594 1601 1601 1594 1594 1586 1579 1579 1572 1572 1579 1572 1572 1572 1572 1579 1579 1579 1579 1572 1572 1579 1572 1572 1579 1572 1572 1572 1572 1572 1572 1572 1572 1572 1572 1572 1572 1564 1564 1564 1564 1564 1564 1557 1557 1557 1557 1557 1550 1550 1550 1550 1557 1557 1557 1557 1557 1557 1564 1557 1557 1557 1557 1550 1550 1550 1543 1536 1529 1523 1523 1523 1516 1516 1523 1523 1523 1523 1523 1536 1536 1536 1536 1529 1529 1529 1529 1523 1523 1523 1516 1516 1523 1523 1523 1529 1529 1529 1529 1529 1523 1523 1523 1523 1523 1523 1523 1523 1523 1516 1516 1523 1529 1516 1516 1523 1529 1915 1915 1915 1915 1915 1915 1915 3692 3692 3692 3692 3692 3692 3692 3653 3653 3692 3653 3653 3692 3692 3692 3692 3692 3692 3692 3653 3653 3653 3653 3653 3653 3653 3653 3692 3692 3692 3692 3692 3653 3653 3653 3653 3653 3653 3653 3653 3653 3653 3653 3653 3614 3614 3614 3614 3614 3614 3614 3614 3576 3576 3576 3614 3614 3614 3614 3614 3614 3576 3576 3576 3576 3576 3576 3576 3576 3539 3539 3539 3539 3539 3539 3539 3576 3576 3576 3576 3576 3576 3576 3576 3576 3576 3539 3539 3576 3576 3576 3576 3576 3576 3576 3614 3576 3576 3576 3576 3539 3539 3539 3503 3503 3539 3539 3503 3503 3503 3503 3539 3539 3539 3539 0 0 0 3468 3468 3503 3503 3503 3503 3503 3468 3468 3433 3433 3468 3468 3468 2835 2835 2789 2789 2789 2767 2767 2767 0 0 0 0 0 0 0 0 0 0 0 0 0 0 0 0 0 0 0 3365 3365 3333 3300 3300 3300 3300 3269 3269 3269 3269 3269 3269 3269 3269 3238 3238 0 0 0 0 0 0 0 0 0 0 0 0 0 0
0 0 0 0 0 0 0 0 0 0 0 0 0 0 0 0 0 0 0 0 0 0 0 0 0 0 0 0 0 0 0 0 0 0 0 0 1458 1445 1445 1439 1427 1421 1421 1421 1421 1415 1415 1415 1410 1410 1410 1410 1410 1410 1410 1410 1410 1410 1410 1404 1404 1404 1404 1404 1404 1404 1398 1398 1398 1398 1398 1398 1398 1387 1387 1387 1387 1387 1387 1387 1387 1387 1387 1387 1387 1387 1387 1392 1387 1387 1387 1381 1381 1381 1381 1381 1381 1381 1381 1381 1387 1381 1381 1376 1370 1365 1365 1359 1359 1359 1359 1359 1359 1359 1359 1359 1359 1359 1359 1359 1365 1359 1359 1365 1365 1376 1381 1381 1387 1387 1387 1392 1392 1398 1398 1688 1688 1680 1680 1680 1680 1680 1680 1680 1680 1680 1680 1671 1671 1671 1671 1671 1680 1671 1671 1671 1250 1250 1259 1259 1255 1255 1255 1255 1255 1255 1255 1255 1255 1255 1255 1250 1250 1250 1250 1245 1245 1245 1245 1245 1245 1245 1245 1241 1241 1241 1236 1236 1236 1236 1236 1236 1236 1236 1232 1232 1227 1227 1227 1223 1223 1223 1223 1219 1219 1219 1219 1219 1219 1214 1214 1210 1210 1210 1210 1210 1210 1210 1206 1206 1206 1206 1206 1206 1206 1206 1206 1206 1206 1202 1202 1202 1202 1197 1197 1197 1193 1193 1193 1193 1193 1193 1193 1193 1193 1189 1189 1185 1185 1185 1185 1185 1181 1181 1181 1181 1181 1181 1181 1181 1181 1177 1177 1177 1177 1177 1177 1177 1177 1177 1177 1173 1173 1169 1169 1165 1161 1161 1161 1161 1161 1161 1161 1161 1161 1165 1165 1165 1165 1169 1177 1181 1181 1181 1185 1185 1601 1601 1601 1601 1601 1601 1601 1594 1594 1586 1586 1586 1586 1601 1601 1601 1601 1594 1594 1594 1594 1594 1586 1586 1586 1586 1586 1586 1586 1586 1586 1586 1579 1579 1579 1572 1572 1572 1564 1564 1572 1572 1572 1572 1572 1572 1572 1572 1572 1572 1572 1572 1564 1564 1564 1564 1564 1557 1557 1564 1564 1564 1564 1564 1557 1557 1557 1557 1557 1557 1557 1557 1557 1550 1550 1543 1543 1543 1543 1543 1543 1543 1550 1550 1550 1550 1550 1543 1543 1543 1543 1543 1543 1536 1536 1543 1536 1529 1523 1516 1516 1516 1509 1509 1509 1509 1516 1516 0 1529 1529 1529 1529 1523 1523 1523 1523 1516 1516 1516 1509 1509 1516 1516 1516 1523 1523 1523 1516 1516 1516 1516 1516 1516 1516 1516 1516 1516 1516 1509 1509 1516 1516 1509 1509 1516 1529 1915 1915 1915 1915 1915 1915 1915 3653 3653 3653 3653 3653 3653 3653 3653 3653 3653 3653 3653 3653 3653 3653 3692 3692 3692 3653 3653 3653 3653 3614 3614 3614 3614 3614 3653 3653 3653 3653 3653 3614 3614 3614 3614 3614 3614 3614 3614 3653 3614 3614 3614 3614 3614 3614 3614 3576 3576 3576 3576 3576 3576 3576 3576 3614 3614 3576 3576 3576 3576 3576 3576 3576 3576 3576 3539 3539 3539 3539 3539 3539 3539 3539 3539 3539 3539 3539 3539 3539 3539 3539 3576 3576 3576 3539 3539 3539 3576 3576 3576 3576 3576 3576 3576 3576 3576 3539 3539 3503 3503 3503 3503 3503 3503 3503 3503 3503 3503 3503 3539 0 0 3539 0 0 0 3468 3468 3503 3503 3503 3503 3503 3468 3468 3433 3433 3468 3468 3468 3433 2789 2789 2789 2789 2789 2767 2767 0 0 0 0 0 0 0 0 0 0 0 0 0 0 0 0 0 0 0 3365 3365 3300 3300 3300 3300 3300 3269 3269 3269 3269 3269 3269 3269 3269 3238 3238 0 0 0 0 0 0 0 0 0 0 0 0 0 0
0 0 0 0 0 0 0 0 0 0 0 0 0 0 0 0 0 0 0 0 0 0 0 0 0 0 0 0 0 0 0 0 0 0 0 0 1458 1458 1458 1452 1427 1427 1421 1421 1421 1415 1415 1415 1410 1410 1410 1410 1410 1410 1410 1410 1410 1410 1410 1404 1404 1404 1404 1398 1398 1398 1398 1398 1398 1398 1398 1398 1398 1387 1387 1387 1387 1387 1387 1387 1387 1387 1387 1387 1387 1387 1387 1392 1392 1387 1387 1387 1387 1387 1381 1381 1381 1381 1381 1381 1387 1381 1381 1376 1365 1365 1365 1359 1359 1359 1359 1359 1359 1359 1359 1359 1359 1359 1359 1359 1365 1365 1365 1365 1365 1376 1376 1381 1387 1387 1387 1392 1392 1398 1398 1663 1663 1671 1671 1671 1671 1663 1663 1663 1663 1663 1663 1663 1663 1663 1663 1663 1671 1663 1663 1663 1663 1259 1259 1259 1255 1255 1255 1255 1255 1255 1255 1255 1255 1255 1255 1255 1255 1250 1250 1250 1250 1245 1245 1245 1245 1245 1245 1241 1241 1241 1241 1241 1236 1236 1236 1236 1236 1236 1232 1232 1227 1227 1227 1223 1223 1223 1223 1223 1223 1219 1219 1219 1219 1214 1214 1210 1210 1210 1210 1210 1210 1210 1210 1210 1206 1206 1206 1206 1206 1206 1206 1206 1206 1206 1202 1202 1202 1202 1197 1197 1197 1197 1197 1193 1193 1193 1193 1193 1193 1193 1189 1185 1185 1185 1185 1185 1185 1185 1185 1181 1181 1181 1181 1181 1181 1181 1181 1181 1177 1177 1177 1177 1177 1177 1177 1173 1173 1173 1169 1169 1161 1161 1161 1161 1161 1161 1161 1161 1161 1165 1165 1165 1165 1169 1177 1181 1181 1181 1185 1185 1185 1594 1594 1594 1586 1586 1586 1586 1579 1579 1579 1579 1579 1594 1594 1594 1586 1586 1586 1579 1579 1579 1579 1579 1579 1572 1572 1572 1572 1579 1579 1572 1572 1572 1564 1564 1564 1564 1557 1557 1564 1564 1557 1557 1564 1564 1564 1564 1557 1557 1557 1564 1564 1557 1557 1557 1557 1550 1550 1557 1550 1550 1550 1543 1543 1543 1543 1536 1536 1543 1543 1543 1550 1543 1543 1543 1543 1536 1536 1536 1536 1543 1543 1543 1543 1543 1536 1536 1529 1529 1529 1529 1536 1536 1536 1536 1529 1523 1516 1516 1516 1509 1503 1503 1503 1503 1509 1509 0 1529 1529 1523 1523 1516 1516 1516 1516 1509 1509 1509 1503 1503 1509 1509 1509 1509 1509 1509 1509 1509 1509 1509 1509 1509 1509 1509 1509 1509 1509 1509 1509 1509 1516 1503 1503 1516 1915 1915 1915 1915 1915 1915 1915 1915 3614 3614 3614 3614 3653 3653 3614 3614 3614 3614 3614 3614 3614 3653 3653 3653 3653 3653 3653 3614 3614 3614 3614 3614 3614 3614 3614 3614 3614 3614 3614 3614 3614 3614 3614 3614 3614 3614 3614 3614 3614 3614 3614 3614 3576 3576 3539 3539 3539 3539 3539 3539 3539 3576 3576 3576 3576 3576 3576 3576 3576 3576 3539 3539 3539 3539 3539 3539 3539 3539 3539 3539 3539 3503 3503 3539 3539 3539 3539 3539 3539 3539 3539 3539 3539 3503 3503 3503 3539 3576 3576 3576 3539 3539 3576 3576 3539 3539 3539 3503 3503 3503 3503 3468 3468 3468 3468 3468 3468 3468 3468 3503 3503 0 0 0 0 3503 3468 3468 3503 3503 3468 3468 3468 3468 3433 3433 3433 3433 3433 3433 3433 2789 2789 2789 2789 2789 2767 2767 0 0 0 0 0 0 0 0 0 0 0 0 0 0 0 0 0 0 0 0 3365 3300 3300 3300 3300 3300 3269 3269 3269 3269 3269 3269 3269 3238 3178 3178 0 0 0 0 0 0 0 0 0 0 0 0 0 0
0 0 0 0 0 0 0 0 0 0 0 0 0 0 0 0 0 0 0 0 0 0 0 0 0 0 0 0 0 0 0 0 0 0 0 0 1458 1458 1464 1458 1458 1470 1470 1470 1470 0 0 0 0 0 0 1410 1410 1410 1410 1410 1410 1415 1410 1410 1410 1410 1410 1398 1398 1398 1398 1398 1398 1398 1398 1655 1655 1655 1655 1398 1392 1392 1392 1387 1387 1387 1655 1655 1663 1655 1655 1398 1398 1392 1392 1387 1387 1387 1387 1381 1381 1381 1381 1381 1381 1376 1376 1376 1365 1365 1365 1359 1359 1359 1359 1359 1359 1359 1359 1359 1359 1359 1365 1365 1365 1365 1365 1365 1365 1370 1370 1376 1381 1387 1387 1387 1387 1392 1392 1663 1663 1655 1655 1663 1663 1655 1655 1663 1663 1663 1655 1655 1655 1655 1655 1655 1655 1655 1655 1655 1655 1655 1259 1259 1255 1255 1255 1255 1255 1255 1255 1255 1255 1255 1255 1255 1255 1255 1255 1250 1250 1245 1245 1245 1245 1245 1245 1241 1241 1241 1241 1241 1236 1236 1236 1236 1236 1236 1236 1232 1232 1227 1227 1227 1223 1223 1223 1223 1223 1219 1219 1219 1219 1214 1214 1214 1214 1210 1210 1210 1210 1210 1210 1210 1206 1206 1206 1206 1206 1206 1206 1206 1206 1206 1202 1202 1202 1202 1202 1202 1197 1197 1197 1197 1197 1193 1193 1193 1193 1193 1189 1185 1185 1185 1185 1185 1185 1185 1185 1185 1185 1185 1181 1181 1181 1181 1181 1181 1181 1177 1177 1177 1177 1177 1177 1177 1173 1173 1169 1169 1165 1165 1165 1161 1161 1161 1161 1161 1161 1165 1165 1165 1165 1169 1177 1181 1181 1181 1185 1185 1185 1579 1579 1579 1579 1579 1579 1579 1572 1572 1572 1572 1572 1579 1579 1579 1579 1579 1579 1572 1572 1564 1564 1564 1572 1564 1564 1564 1564 1564 1564 1557 1557 1557 1550 1550 1550 1550 1550 1550 1557 1550 1550 1550 1550 1550 1550 1550 1550 1550 1550 1550 1550 1550 1550 1550 1550 1543 1543 1550 1543 1543 1543 1543 1543 1543 1536 1529 1529 1536 1536 1536 1543 1536 1536 1536 1536 1536 1536 1536 1536 1536 1536 1536 1536 1536 1529 1529 1523 1523 1523 1523 1523 1523 1523 1523 1523 1516 1509 1509 1509 1496 1496 1496 1496 1496 1503 1503 0 1516 1516 1516 1516 1516 1516 1516 1516 1509 1503 1503 1496 1496 1496 1496 1496 1503 1503 1503 1503 1503 1503 1509 1509 1509 1503 1503 1503 1503 1503 1503 1503 1503 1503 1496 1496 1516 1915 1915 1915 1915 1915 1915 1915 1915 3614 3614 3614 3614 3614 3614 3614 3614 3614 3614 3614 3614 3614 3614 3614 3614 3653 3614 3614 3614 3614 3614 3614 3614 3614 3614 3614 3614 3614 3614 3614 3614 3614 3614 3614 3614 3614 3614 3614 3614 3614 3576 3576 3576 3576 3576 3539 3503 3503 3503 3539 3539 3539 3539 3539 3539 3539 3539 3539 3539 3539 3539 3503 3503 3503 3503 3503 3539 3539 3539 3539 3539 3539 3503 3503 3503 3503 3503 3503 3503 3539 3539 3539 3539 3539 3468 3468 3468 3503 3539 3539 3539 3539 3539 3539 3539 3539 3503 3503 3468 3468 3468 3468 3468 3433 3433 3433 3433 3468 3468 3468 3503 3503 0 0 3468 0 3468 3468 3468 3468 3468 3468 3468 3468 3433 3433 3433 3433 3433 3433 3433 3433 2789 2789 2789 2789 2789 2789 2789 2812 0 0 0 0 0 0 0 0 0 0 0 0 0 0 0 0 0 0 0 0 0 3300 3300 3300 3300 3269 3269 3269 3269 3269 3238 3238 3208 3178 2933 2908 2883 2883 2883 0 0 0 0 0 0 0 0 0 0
0 0 0 0 0 0 0 0 0 0 0 0 0 0 0 0 0 0 0 0 0 0 0 0 0 0 0 0 0 0 0 0 0 0 0 0 1464 1464 1464 1464 1470 1470 1470 1470 1470 0 0 0 0 0 0 0 0 0 0 1410 1410 1415 1415 1415 1655 1663 1663 1655 1655 1663 1663 1663 1663 1663 1663 1655 1655 1655 1655 1655 1655 1655 1655 1655 1655 1655 1655 1655 1647 1647 1647 1647 1647 1647 1647 1647 1647 1387 1387 1647 1647 1647 1647 1647 1381 1376 1376 1376 1365 1365 1639 1639 1359 1359 1359 1359 1359 1359 1359 1359 1359 1359 1365 1365 1365 1365 1365 1365 1365 1370 1370 1370 1381 1381 1381 1381 1387 1387 1392 1655 1655 1639 1639 1639 1639 1639 1639 1647 1647 1639 1639 1639 1639 1639 1639 1639 1639 1639 1647 1647 1647 1647 1264 1259 1255 1255 1255 1255 1255 1255 1255 1255 1255 1255 1255 1255 1255 1255 1255 1250 1250 1250 1245 1245 1245 1245 1245 1241 1241 1241 1241 1241 1236 1236 1236 1236 1236 1236 1236 1236 1232 1232 1227 1227 1227 1227 1223 1223 1223 1223 1219 1219 1219 1219 1214 1214 1214 1214 1210 1210 1214 1214 1210 1210 1210 1210 1206 1206 1206 1206 1206 1206 1206 1206 1206 1206 1202 1202 1202 1202 1197 1197 1197 1197 1197 1197 1193 1193 1193 1193 1193 1185 1185 1185 1185 1185 1185 1185 1185 1185 1185 1185 1185 1185 1181 1181 1181 1181 1181 1181 1181 1177 1177 1181 1181 1177 1177 1173 1173 1169 1165 1165 1165 1165 1165 1161 1161 1161 1161 1165 1165 1165 1165 1169 1177 1181 1181 1185 1185 1185 1185 1564 1564 1564 1564 1564 1564 1564 1564 1564 1564 1564 1564 1564 1564 1564 1564 1564 1564 1564 1564 1557 1557 1557 1557 1557 1557 1557 1557 1557 1550 1550 1550 1550 1543 1543 1543 1543 1543 1543 1543 1543 1543 1543 1543 1543 1543 1543 1543 1543 1543 1543 1543 1543 1543 1543 1543 1543 1543 1543 1536 1536 1529 1516 1516 1516 1516 1523 1529 1529 1529 1536 1529 1529 1529 1529 1529 1529 1529 1523 1523 1529 1529 1523 1523 1523 1516 1516 1516 1516 1516 1516 1516 1516 1516 1523 1516 1516 1509 1503 1503 1496 1489 1489 1489 1489 1503 1503 0 0 1516 1516 1516 1509 1509 1509 1496 1496 1489 1489 1489 1489 1489 1489 1489 1489 1496 1496 1496 1496 1496 1503 1503 1496 1496 1496 1496 1496 1496 1496 1496 1503 1503 1496 1496 1509 1915 1915 1915 1915 1915 1915 1915 1915 3614 3614 3614 3614 3614 3614 3614 3614 3576 3576 3614 3614 3614 3614 3614 3614 3614 3614 3614 3614 3614 3614 3614 3614 3614 3614 3614 3614 3614 3614 3614 3576 3576 3576 3576 3576 3576 3576 3576 3576 3576 3576 3576 3576 3539 3539 3503 3503 3503 3503 3503 3503 3503 3503 3503 3503 3503 3503 3503 3468 3468 3468 3468 3468 3468 3468 3468 3468 3503 3503 3503 3503 3503 3468 3468 3468 3468 3468 3468 3468 3468 3468 3468 3468 3433 3433 3433 3433 3468 3468 3468 3468 3503 3503 3503 3503 3468 3468 3468 3433 3433 3433 3433 3433 3433 3433 3433 3433 3433 3433 3433 3433 3433 0 3433 0 3468 3433 3433 3433 3433 3433 3433 3433 3433 3433 3433 3399 3399 3399 3399 3399 3399 2767 2767 2789 2789 2789 2789 2789 2812 0 0 0 0 0 0 0 0 0 0 0 0 0 0 0 0 0 0 0 0 0 3300 3300 3300 3300 3269 3269 3269 3269 3269 3238 3238 3208 3208 2933 2883 2859 2859 2859 0 0 0 0 0 0 0 0 0 0
