0 0 0 0 0 0 0 0 0 0 0 0 0 0 0 0 0 0 0 0 0 0 0 0 0 0 0 0 0 0 0 0 0 2198 2198 2198 2198 2198 2198 2198 2198 2198 2198 2198 2198 2198 2198 2198 2198 2198 2198 2198 2212 2212 2212 2212 2212 2212 2212 2198 2198 2198 2198 2212 2212 2212 2212 2212 2212 2198 2198 2198 2198 2198 2198 2198 2198 2198 2198 2198 2198 2212 2212 2212 2212 2212 2212 2212 2212 2212 2212 2212 2212 2212 2212 2212 2212 2212 2212 2212 2226 2226 2226 2226 2226 2226 2226 2226 2226 2226 2241 2241 2241 2241 2241 2241 2241 2241 2241 2241 2241 2241 2241 2241 2241 2241 2241 2241 2256 2256 2256 2256 2256 2256 2256 2256 2256 2271 2271 2256 2256 2256 2256 2256 2271 2271 2271 2271 2271 2271 2286 2286 2286 2286 2286 2271 2271 2271 2271 2271 2271 2271 2271 2271 1731 1731 1739 1731 1731 1731 1639 1639 1647 1647 1647 1647 1647 1647 1647 1647 1647 1647 1647 1647 1655 1655 1663 1663 1671 1680 1680 2286 2286 2286 2286 2301 2301 2301 2301 2301 2301 2301 2301 2301 2301 2301 2301 2301 2301 2317 2317 2317 2317 2317 2317 2317 2317 2317 2317 2333 2333 2333 2333 2016 2016 2016 2016 2016 2028 2028 2040 2028 2028 2040 2053 2053 2053 2053 1579 1579 1579 1579 1579 1579 1572 1572 1572 1572 1564 1564 1557 1550 1550 1550 1550 1543 1543 1543 1536 1529 1529 1523 1523 1523 1523 1523 1523 1529 1536 1536 1543 1543 1550 1557 1564 1564 1572 1572 1579 2333 2333 2333 2333 2333 2333 2333 2333 2333 2333 2333 2349 2349 2349 2349 2349 2349 2349 2349 2365 2365 2365 2365 2365 0 1398 1398 1392 1392 1387 1387 1387 1381 1381 1381 1381 1381 1381 1381 1381 1387 1392 1398 1404 1410 1439 1452 1458 1464 1464 1470 1458 1458 1458 1458 1458 1458 1458 1458 1458 1458 1458 1458 1458 1458 1458 1458 1458 1458 1458 1458 1464 1464 1464 1464 1464 1464 1464 1464 1464 1464 1464 1464 1464 1464 1470 1470 1464 1464 1464 1464 1464 1464 1464 1464 1470 1470 1477 1470 1470 1470 1470 1464 1464 1470 1470 1470 1477 1477 1477 1477 1477 1477 1470 1470 1477 1477 1477 1477 1470 1470 1470 1470 1470 1470 1477 1477 1477 1477 1477 1477 1477 1477 1483 1483 1483 1483 1477 1477 1470 1470 1470 1241 1241 1241 1241 1241 1236 1236 1232 1232 1232 1232 1227 1227 1227 1227 1232 1232 1232 1232 1236 1477 1477 1477 1477 1477 1477 1477 1477 1477 1477 1477 1477 1477 1477 1477 1477 1477 1477 1483 1483 1483 1483 1483 1496 1616 1616 1616 1609 1609 1609 1609 1609 1609 1609 2432 2432 2432 2432 2432 2432 2432 2432 2432 2432 2432 2432 2432 2432 2432 2432 2432 2432 2432 2432 1713 1713 1705 1696 1688 1688 1680 1671 1671 1671 1671 1671 1671 1671 1671 1671 1663 1663 1655 1647 1647 2432 2432 2432 2432 2432 2432 2432 2432 2432 2432 0 0 0 0 0 1264 1264 1268 1268 1264 1259 1259 1259 1259 1259 1255 1255 1259 1255 1255 1255 1255 1255 1255 1255 1255 1255 1255 1255 1255 1255 1255 1255 1250 1250 1250 1250 1250 1250 1250 1245 1245 1241 1241 1241 1241 1241 2398 2398 2415 2432 2432 2450 2450 2450 2450 2450 2450 2432 2432 2432 2432 2432 2432 2432 2432 2432 2432 2432 2432 2432 2432 2432 2450 2450 2432 2432 2432 2432 2415 2415 2415 2415 2415 2415 2415 2415 2415 2398 2398 2398 2415 2415 2415 2415 2415 2415 2415 2432 2432 2432 2432 2415 2415 0 0 0 0 0 0 0 0 0 0
0 0 0 0 0 0 0 0 0 0 0 0 0 0 0 0 0 0 0 0 0 0 0 0 0 0 0 0 0 0 0 0 0 2184 2184 2184 2184 2184 2198 2184 2184 2184 2184 2184 2184 2184 2184 2184 2184 2184 2184 2198 2198 2198 2198 2198 2212 2212 2198 2198 2198 2198 2198 2198 2198 2212 2212 2212 2198 2198 2198 2198 2184 2184 2198 2198 2198 2198 2198 2198 2198 2198 2198 2198 2198 2198 2198 2198 2198 2198 2198 2198 2198 2198 2212 2212 2212 2212 2212 2212 2212 2212 2226 2226 2212 2212 2212 2212 2212 2212 2212 2212 2212 2212 2212 2226 2226 2226 2226 2226 2226 2226 2226 2226 2241 2241 2226 2226 2226 2241 2241 2241 2241 2241 2256 2256 2256 2256 2256 2256 2256 2256 2256 2256 2256 2256 2256 2256 2271 2271 2271 2271 2271 2271 2271 2256 2256 2256 2256 2256 2256 2256 2256 2256 1731 1731 1739 1731 1731 1731 1639 1639 1639 1647 1647 1647 1647 1647 1647 1647 1647 1647 1647 1647 1655 1663 1663 1671 1671 1680 1680 2271 2271 2271 2271 2286 2286 2286 2301 2301 2301 2301 2301 2301 2301 2301 2301 2301 2301 2301 2317 2317 2317 2301 2301 2317 2317 2317 2317 2317 2317 1993 1993 1993 2005 2016 2016 2028 2028 2028 2040 2028 2028 2040 2053 2053 2053 2078 2317 2333 2333 2317 2317 2317 2317 1572 1572 1572 1572 1557 1557 1550 1550 1543 1543 1543 1543 1543 1536 1536 1529 1529 1523 1523 1529 1523 1523 1529 1536 1536 1543 1543 1550 1557 1557 1564 1564 1572 1579 2317 2317 2333 2333 2333 2333 2333 2333 2333 2333 2333 2333 2333 2333 2349 2349 2349 2349 2349 2349 2365 2365 2365 2365 0 1398 1398 1392 1392 1392 1392 1387 1387 1387 1387 1381 1381 1381 1387 1387 1392 1392 1398 1410 1421 1433 1445 1452 1458 1464 1464 1458 1452 1452 1452 1452 1452 1452 1458 1458 1458 1458 1458 1458 1458 1458 1452 1452 1452 1452 1458 1458 1458 1458 1458 1458 1458 1464 1458 1458 1458 1458 1458 1458 1458 1458 1464 1464 1464 1464 1464 1464 1464 1464 1464 1464 1464 1464 1464 1464 1464 1464 1464 1464 1464 1464 1464 1470 1470 1470 1470 1470 1470 1470 1470 1470 1470 1470 1470 1464 1464 1470 1464 1464 1470 1470 1470 1470 1470 1470 1470 1470 1470 1477 1477 1477 1477 1470 1470 1470 1470 1470 1241 1241 1241 1241 1241 1241 1236 1232 1232 1232 1232 1232 1232 1232 1232 1232 1232 1232 1232 1470 1470 1477 1477 1477 1477 1470 1470 1470 1470 1470 1470 1470 1470 1470 1470 1470 1470 1470 1477 1477 1477 1477 1483 1616 1616 1616 1616 1609 1609 1609 1609 1609 1609 1609 2398 2398 2398 2398 2398 2398 2415 2398 2398 2398 2415 2432 2432 2415 2415 2415 2415 2415 2415 2415 1713 1713 1705 1696 1688 1688 1680 1680 1671 1671 1671 1671 1671 1671 1671 1671 1663 1663 1663 1655 1655 2415 2432 2432 2432 2415 2415 2415 2415 2415 2415 0 0 0 0 0 1268 1268 1268 1268 1264 1264 1264 1259 1259 1259 1255 1255 1259 1255 1255 1259 1259 1259 1259 1255 1255 1255 1255 1255 1255 1255 1255 1255 1255 1250 1250 1250 1250 1250 1250 1245 1245 1241 1241 1241 1241 1241 2381 2381 2415 2432 2432 2450 2450 2432 2432 2432 2432 2415 2415 2415 2415 2415 2415 2415 2415 2415 2415 2432 2432 2432 2432 2432 2432 2432 2432 2432 2415 2415 2415 2415 2415 2415 2415 2415 2415 2415 2415 2398 2398 2398 2398 2415 2415 2415 2415 2415 2415 2415 2415 2415 2415 2415 2415 0 0 0 0 0 0 0 0 0 0
0 0 0 0 0 0 0 0 0 0 0 0 0 0 0 0 0 0 0 0 0 0 0 0 0 0 0 0 0 0 0 0 0 2170 2170 2170 2170 2170 2170 2170 2170 2170 2170 2170 2170 2170 2184 2184 2184 2184 2184 2184 2184 2184 2184 2184 2184 2184 2184 2184 2184 2184 2184 2184 2184 2198 2198 2198 2198 2184 2170 2170 2170 2170 2170 2184 2184 2184 2184 2184 2184 2198 2198 2198 2198 2198 2198 2198 2198 2198 2198 2198 2198 2198 2198 2198 2198 2212 2212 2212 2212 2212 2212 2212 2212 2212 2212 2212 2212 2212 2212 2212 2212 2212 2212 2212 2226 2212 2212 2226 2226 2226 2226 2226 2226 2226 2226 2226 2226 2226 2226 2226 2226 2226 2226 2241 2241 2256 2256 2256 2256 2256 2256 2256 2241 2241 2256 2256 2256 2271 2271 2271 2271 2271 2271 2256 2256 2256 2256 2256 2256 2256 2256 2256 2256 1739 1739 1739 1739 1739 1639 1639 1639 1647 1647 1647 1647 1647 1647 1647 1647 1647 1647 1647 1655 1663 1671 1671 1671 1680 1680 2256 2271 2271 2271 2271 2271 2271 2271 2286 2286 2286 2286 2286 2286 2286 2286 2301 2301 2301 2301 2301 2301 2301 2301 2301 2301 2301 2317 2317 2317 1993 1993 1993 2005 2016 2016 2016 2028 2028 2040 2040 2040 2053 2053 2065 2078 2078 2317 2317 2317 2301 2301 2317 2317 2317 2065 2065 2078 1557 1557 1550 1550 1543 1543 1543 1543 1543 1536 1536 1536 1529 1529 1529 1529 1529 1529 1529 1536 1536 1536 1543 1550 1557 1557 1557 1564 1572 2301 2301 2317 2317 2333 2333 2333 2333 2333 2333 2333 2333 2333 2333 2333 2333 2333 2333 2333 2349 2349 2349 2349 2349 2349 0 1398 1398 1392 1392 1392 1392 1387 1387 1387 1387 1387 1387 1387 1387 1387 1392 1398 1398 1415 1427 1433 1439 1445 1452 1452 1452 1452 1445 1445 1445 1445 1452 1452 1452 1452 1452 1452 1452 1452 1452 1452 1452 1452 1445 1445 1452 1452 1452 1452 1458 1458 1458 1458 1458 1452 1452 1458 1452 1452 1458 1458 1458 1458 1458 1458 1458 1458 1458 1458 1458 1458 1458 1458 1458 1458 1458 1458 1458 1458 1458 1464 1464 1464 1464 1464 1464 1464 1464 1464 1464 1464 1464 1464 1464 1464 1464 1464 1464 1464 1464 1464 1464 1464 1464 1464 1464 1464 1464 1470 1470 1470 1470 1464 1464 1464 1464 1464 1245 1245 1245 1241 1241 1241 1236 1236 1232 1232 1232 1232 1232 1232 1232 1232 1232 1232 1232 1464 1464 1470 1470 1470 1470 1464 1464 1470 1470 1464 1464 1464 1464 1464 1464 1464 1464 1470 1470 1477 1477 1477 1616 1624 1624 1624 1624 1616 1616 1616 1609 1609 1609 2398 2398 2398 2398 2398 2398 2398 2398 2398 2398 2398 2398 2415 2398 2398 2398 2415 2415 2415 2415 2415 1705 1705 1705 1696 1688 1688 1680 1680 1671 1671 1671 1671 1671 1671 1671 1671 1663 1663 1663 1663 2398 2415 2415 2415 2415 2415 2415 2398 2398 2415 2415 0 0 0 0 0 1268 1268 1268 1268 1264 1264 1264 1259 1259 1259 1259 1259 1259 1259 1259 1259 1259 1259 1259 1255 1255 1259 1255 1255 1255 1255 1255 1255 1255 1255 1255 1255 1250 1250 1250 1245 1245 1241 1241 1241 1245 1245 2381 2381 2415 2432 2432 2450 2450 2432 2432 2432 2432 2415 2398 2398 2415 2415 2415 2415 2415 2415 2415 2415 2415 2415 2415 2415 2415 2415 2415 2415 2415 2398 2398 2415 2415 2415 2415 2398 2398 2398 2398 2398 2398 2398 2398 2415 2415 2415 2415 2415 2415 2415 2415 2415 2415 2398 2398 0 0 0 0 0 0 0 0 0 0
0 0 0 0 0 0 0 0 0 0 0 0 0 0 0 0 0 0 0 0 0 0 0 0 0 0 0 0 0 0 0 0 0 2156 2156 2156 2170 2170 2170 2170 2170 2170 2170 2170 2170 2170 2170 2170 2170 2170 2170 2170 2170 2170 2184 2184 2184 2184 2170 2170 2170 2170 2170 2170 2184 2184 2184 2198 2184 2170 2170 2170 2170 2170 2170 2170 2170 2170 2170 2170 2170 2170 2170 2170 2170 2170 2170 2184 2184 2184 2184 2184 2184 2184 2184 2184 2184 2198 2198 2184 2184 2184 2184 2198 2198 2198 2198 2198 2198 2198 2198 2198 2198 2198 2198 2198 2212 2212 2212 2212 2212 2212 2226 2226 2226 2226 2212 2212 2212 2226 2212 2212 2212 2212 2226 2226 2226 2241 2241 2241 2241 2241 2241 2241 2241 2241 2241 2256 2256 2256 2256 2256 2256 2271 2256 2241 2241 2256 2256 2256 2256 2256 2256 2256 2256 1748 1739 1739 1739 1739 1647 1647 1647 1647 1647 1647 1647 1647 1647 1647 1647 1647 1655 1655 1663 1671 1671 1671 1671 1680 1680 2256 2256 2256 2256 2256 2256 2271 2271 2286 2286 2286 2271 2271 2286 2286 2286 2286 2286 2301 2301 2301 2301 2301 2301 2301 2301 2301 2301 2317 2317 1993 1993 1993 2005 2016 2016 2016 2028 2028 2040 2040 2040 2065 2065 2065 2065 2065 2065 2065 2317 2301 2301 2301 2317 2065 2065 2065 2078 2078 2078 2090 2090 1550 1543 1543 1543 1543 1543 1536 1536 1529 1529 1529 1529 1529 1529 1536 1536 1536 1536 1543 1550 1550 1550 1550 1564 2301 2301 2301 2301 2317 2317 2317 2317 2317 2317 2317 2317 2317 2317 2317 2317 2317 2333 2333 2333 2333 2349 2349 2349 2349 0 0 0 1392 1392 1392 1392 1392 1387 1387 1387 1387 1387 1387 1387 1387 1387 1392 1398 1398 1415 1427 1433 1439 1439 1445 1445 1445 1445 1445 1445 1445 1445 1445 1445 1445 1445 1452 1452 1452 1445 1445 1445 1445 1445 1445 1445 1445 1452 1452 1452 1452 1452 1452 1452 1445 1445 1445 1452 1445 1445 1452 1452 1452 1452 1452 1458 1458 1458 1458 1458 1452 1452 1452 1452 1452 1452 1452 1452 1452 1452 1458 1458 1458 1458 1458 1458 1458 1464 1458 1458 1458 1464 1464 1464 1464 1464 1464 1464 1464 1464 1458 1458 1464 1464 1464 1464 1464 1464 1464 1464 1464 1464 1470 1464 1458 1458 1458 1458 1245 1245 1245 1241 1241 1241 1241 1236 1236 1232 1232 1232 1232 1232 1232 1232 1232 1232 1232 1458 1458 1464 1464 1464 1464 1458 1458 1464 1464 1464 1464 1458 1458 1458 1464 1464 1464 1464 1464 1470 1470 1477 1616 1624 1624 1624 1624 1616 1616 1609 1609 1609 1616 2398 2398 2381 2381 2398 2398 2398 2381 2381 2381 2381 2398 2398 2398 2398 2398 2398 2398 2415 2415 2415 1696 1696 1696 1696 1688 1688 1680 1680 1680 1680 1671 1671 1671 1671 1671 1671 1663 1663 1663 1663 2381 2381 2381 2398 2398 2398 2398 2381 2381 2381 2381 0 0 0 0 0 1268 1268 1268 1268 1268 1264 1264 1259 1259 1259 1259 1259 1259 1259 1259 1259 1259 1259 1259 1259 1259 1259 1255 1255 1255 1255 1255 1255 1255 1255 1255 1255 1255 1250 1250 1250 1245 1245 1245 1245 1245 2381 2381 2381 2415 2432 2432 2432 2432 2432 2432 2432 2415 2398 2398 2398 2398 2398 2398 2398 2398 2415 2415 2415 2415 2415 2415 2415 2398 2398 2398 2398 2381 2381 2381 2398 2398 2398 2398 2398 2381 2381 2381 2398 2398 2398 2398 2398 2415 2415 2415 2415 2415 2398 2398 2398 2398 2381 2381 0 0 0 0 0 0 0 0 0 0
0 0 0 0 0 0 0 0 0 0 0 0 0 0 0 0 0 0 0 0 0 0 0 0 0 0 0 0 0 0 0 0 0 2143 2143 2156 2156 2156 2156 2156 2170 2170 2170 2170 2170 2170 2170 2156 2156 2156 2170 2170 2170 2170 2184 2184 2184 2170 2170 2170 2170 2170 2170 2170 2170 2170 2170 2170 2170 2156 2156 2156 2170 2170 2170 2170 2156 2156 2156 2156 2170 2170 2170 2170 2170 2170 2170 2170 2170 2170 2170 2170 2170 2170 2170 2170 2184 2184 2170 2170 2170 2170 2170 2184 2184 2184 2198 2198 2198 2198 2198 2198 2198 2198 2198 2198 2198 2198 2198 2198 2198 2198 2198 2212 2212 2212 2212 2212 2212 2212 2212 2212 2212 2212 2212 2212 2212 2212 2212 2212 2212 2212 2212 2212 2226 2226 2226 2226 2241 2241 2256 2256 2256 2256 2256 2241 2241 2241 2241 2241 2241 2241 2241 2256 1757 1748 1748 1739 1739 1739 1647 1647 1647 1647 1647 1647 1647 1647 1647 1647 1647 1655 1655 1663 1663 1671 1671 1671 1671 1680 1680 2256 2256 2256 2256 2256 2256 2256 2256 2256 2271 2271 2271 2271 2271 2286 2286 2286 2286 2286 2301 2301 2301 2301 2286 2286 2301 2301 2301 2317 1981 1981 1993 1993 2005 2005 2005 2016 2028 2028 2040 2040 2065 2065 2065 2065 2065 2065 2065 2065 2317 2301 2301 2301 2053 2053 2065 2065 2065 2078 2078 2078 2078 2078 1543 1543 1543 1543 1543 1536 1536 1536 1529 1529 1529 1529 1529 1536 1536 1536 1543 1543 1550 1550 1550 1550 2286 2286 2286 2286 2301 2301 2317 2317 2317 2317 2317 2317 2301 2301 2301 2301 2301 2317 2317 2317 2317 2333 2333 2333 2333 2333 0 0 0 1392 1392 1392 1392 1392 1392 1392 1387 1387 1387 1387 1387 1392 1392 1392 1398 1410 1415 1427 1427 1433 1433 1439 1439 1445 1445 1439 1439 1439 1439 1439 1445 1445 1445 1445 1445 1445 1439 1439 1439 1439 1439 1439 1439 1439 1445 1445 1445 1445 1445 1445 1445 1439 1439 1445 1445 1445 1445 1445 1445 1452 1452 1452 1452 1452 1452 1452 1452 1445 1445 1445 1445 1445 1445 1445 1445 1452 1452 1452 1452 1452 1458 1458 1458 1458 1458 1458 1458 1458 1458 1458 1458 1458 1458 1458 1458 1458 1458 1458 1458 1458 1458 1458 1458 1458 1458 1458 1464 1464 1464 1464 1458 1458 1458 1458 1241 1241 1245 1245 1245 1245 1241 1241 1241 1236 1236 1236 1232 1232 1236 1232 1232 1232 1232 1232 1458 1458 1458 1458 1458 1458 1458 1458 1458 1458 1458 1458 1458 1458 1458 1458 1458 1458 1458 1464 1464 1470 1616 1616 1624 1624 1624 1624 1616 1616 1609 1609 1609 1609 2381 2381 2381 2381 2381 2381 2381 2381 2381 2381 2381 2381 2398 2398 2398 2398 2398 2398 2415 2415 2415 1688 1688 1688 1688 1696 1688 1680 1680 1680 1680 1680 1671 1671 1671 1671 1671 1663 1663 1671 1671 2365 2365 2365 2381 2381 2381 2381 2381 2381 2381 2381 0 0 0 0 1268 1268 1268 1268 1268 1268 1264 1264 1259 1259 1259 1259 1259 1259 1259 1259 1259 1259 1259 1259 1259 1259 1259 1259 1259 1259 1259 1255 1255 1255 1255 1255 1255 1255 1250 1250 1250 1250 1245 1245 1245 1255 2365 2365 2381 2415 2415 2415 2432 2415 2415 2415 2415 2415 2398 2381 2381 2381 2381 2381 2381 2398 2398 2398 2398 2415 2415 2398 2398 2381 2381 2381 2381 2381 2381 2381 2381 2381 2398 2381 2381 2381 2381 2381 2381 2381 2381 2398 2398 2398 2415 2415 2415 2415 2398 2398 2398 2398 2381 2381 2381 0 0 0 0 0 0 0 0 0
0 0 0 0 0 0 0 0 0 0 0 0 0 0 0 0 0 0 0 0 0 0 0 0 0 0 0 0 0 0 0 0 0 2129 2129 2143 2143 2143 2156 2156 2156 2170 2156 2156 2170 2156 2156 2156 2156 2156 2156 2156 2156 2170 2170 2170 2170 2170 2170 2170 2170 2170 2170 2170 2170 2170 2170 2170 2156 2156 2156 2156 2156 2156 2156 2156 2156 2156 2156 2156 2156 2156 2156 2156 2156 2156 2156 2156 2156 2156 2156 2156 2156 2156 2156 2170 2170 2170 2170 2170 2170 2170 2170 2170 2170 2170 2184 2184 2184 2198 2198 2198 2198 2198 2198 2198 2198 2198 2184 2184 2184 2198 2198 2198 2198 2212 2212 2212 2212 2212 2212 2212 2212 2212 2198 2198 2198 2198 2198 2198 2212 2212 2212 2212 2212 2212 2212 2212 2226 2226 2226 2226 2226 2226 2226 2212 2212 2226 2226 2226 2226 2226 2226 2226 1757 1757 1748 1748 1748 1739 1739 1647 1647 1647 1647 1647 1647 1647 1647 1647 1647 1655 1655 1663 1671 1671 1671 1680 1680 1680 1680 2241 2256 2256 2256 2256 2256 2256 2256 2256 2256 2256 2256 2256 2271 2271 2271 2271 2271 2271 2286 2286 2286 2286 2286 2286 2301 2301 2301 1981 1981 1981 1993 1993 1993 2005 2005 2016 2028 2028 2040 2053 2065 2065 2065 2065 2065 2065 2301 2301 2301 2286 2286 2301 2053 2053 2065 2065 2065 2065 2078 2078 2078 2090 1543 1543 1543 1543 1543 1536 1536 1536 1529 1529 1529 1529 1529 1536 1536 1536 1543 1543 1550 1550 1550 1550 2271 2286 2286 2286 2286 2301 2301 2301 2317 2317 2301 2301 2301 2301 2301 2301 2301 2301 2301 2301 2317 2317 2333 2317 2317 2333 0 0 0 1392 1392 1392 1392 1392 1392 1392 1392 1392 1387 1387 1387 1392 1392 1392 1398 1410 1415 1421 1421 1427 1427 1433 1433 1439 1439 1433 1433 1433 1433 1433 1433 1433 1433 1439 1439 1439 1433 1433 1433 1433 1439 1439 1439 1439 1439 1439 1439 1439 1439 1439 1439 1439 1439 1439 1439 1439 1439 1439 1439 1439 1445 1445 1445 1445 1445 1445 1445 1439 1439 1439 1439 1439 1439 1439 1439 1439 1439 1445 1445 1445 1445 1452 1452 1452 1458 1452 1452 1458 1458 1458 1458 1458 1458 1458 1458 1452 1452 1452 1452 1452 1452 1452 1458 1458 1452 1452 1458 1458 1458 1458 1452 1452 1458 1458 1241 1241 1245 1245 1245 1245 1241 1241 1241 1241 1241 1236 1236 1236 1241 1236 1232 1232 1232 1452 1452 1452 1452 1452 1452 1452 1452 1452 1452 1452 1452 1452 1452 1452 1452 1452 1458 1458 1458 1458 1458 1470 1616 1624 1624 1624 1624 1624 1624 1616 1609 1609 1609 1609 2381 2381 2381 2381 2381 2381 2381 2365 2365 2381 2381 2381 2381 2381 2381 2398 2398 2398 2398 2415 2415 1688 1688 1688 1688 1696 1688 1680 1680 1680 1680 1680 1680 1680 1671 1671 1671 1680 1680 1680 1680 2365 2365 2365 2365 2365 2365 2365 2381 2381 2381 2381 0 0 0 0 1268 1268 1268 1268 1268 1268 1264 1264 1264 1259 1259 1259 1259 1259 1259 1259 1259 1259 1259 1259 1259 1259 1259 1259 1259 1259 1259 1259 1255 1255 1255 1255 1255 1255 1250 1250 1250 1250 1250 1245 1245 2333 2349 2349 2381 2398 2415 2415 2415 2415 2398 2398 2398 2398 2398 2381 2381 2381 2381 2381 2381 2398 2398 2398 2398 2398 2398 2381 2381 2365 2365 2365 2365 2365 2365 2365 2381 2381 2381 2381 2381 2365 2365 2365 2365 2381 2381 2381 2381 2398 2398 2398 2398 2398 2398 2398 2398 2381 2381 2365 2365 0 0 0 0 0 0 0 0 0
0 0 0 0 0 0 0 0 0 0 0 0 0 0 0 0 0 0 0 0 0 0 0 0 0 0 0 0 0 0 0 0 0 2129 2129 2129 2143 2143 2143 2143 2156 2156 2156 2156 2156 2156 2156 2143 2143 2143 2143 2156 2156 2156 2170 2170 2170 2156 2156 2156 2156 2156 2156 2156 2156 2156 2156 2156 2156 2143 2143 2156 2156 2156 2156 2156 2156 2156 2156 2156 2156 2156 2156 2156 2156 2156 2156 2156 2156 2156 2156 2156 2156 2156 2156 2156 2156 2156 2156 2156 2156 2156 2156 2156 2156 2156 2170 2184 2184 2184 2184 2184 2184 2184 2184 2184 2184 2184 2184 2184 2184 2184 2184 2198 2198 2198 2198 2198 2198 2198 2198 2198 2198 2198 2198 2198 2198 2198 2198 2198 2198 2212 2212 2212 2212 2212 2212 2212 2212 2212 2212 2226 2226 2212 2212 2212 2212 2212 2212 2212 2212 2212 2226 2226 2226 1757 1748 1748 1748 1739 1739 1647 1647 1647 1647 1647 1647 1647 1647 1647 1647 1655 1655 1663 1671 1671 1671 1680 1680 1680 1680 2241 2241 2241 2241 2241 2241 2241 2241 2241 2241 2241 2256 2256 2256 2256 2256 2256 2256 2256 2256 2256 2256 2256 2256 2271 2271 2271 2301 1981 1981 1981 1993 1993 1993 2005 2005 2016 2028 2028 2040 2065 2065 2065 2078 2078 2065 2065 2301 2301 2301 2286 2286 2286 2053 2053 2065 2065 2065 2065 2078 2078 2078 2078 2078 1543 1543 1543 1543 1543 1536 1536 1536 1536 1536 1536 1536 1536 1536 1543 1543 1550 1550 1550 1550 1550 2271 2271 2286 2286 2286 2301 2301 2301 2301 2301 2301 2301 2301 2286 2286 2301 2301 2301 2301 2301 2301 2317 2317 2317 2317 2317 0 0 0 1392 1392 1392 1392 1392 1392 1392 1392 1392 1392 1392 1392 1392 1392 1392 1398 1410 1415 1421 1421 1427 1427 1433 1433 1433 1433 1427 1427 1427 1427 1427 1427 1427 1427 1433 1433 1427 1427 1427 1427 1427 1433 1433 1433 1433 1439 1439 1439 1433 1433 1433 1433 1433 1433 1433 1433 1433 1433 1433 1433 1439 1439 1439 1439 1439 1439 1445 1439 1439 1439 1439 1439 1439 1439 1439 1439 1439 1439 1439 1439 1439 1445 1445 1445 1445 1452 1452 1452 1452 1452 1452 1452 1452 1452 1452 1452 1445 1445 1445 1445 1445 1445 1445 1445 1445 1445 1445 1452 1452 1452 1452 1452 1452 1452 1452 1245 1245 1245 1245 1245 1245 1245 1245 1245 1241 1241 1241 1241 1241 1241 1241 1236 1236 1445 1445 1445 1445 1445 1445 1445 1445 1445 1445 1445 1445 1452 1452 1452 1452 1452 1452 1452 1452 1452 1452 1452 1616 1624 1624 1624 1624 1624 1624 1624 1616 1609 1609 1609 1609 2365 2365 2365 2365 2365 2365 2365 2365 2365 2365 2365 2381 2381 2381 2381 2381 2398 2398 2398 2415 2415 1680 1680 1680 1688 1688 1696 1688 1680 1680 1680 1680 1680 1680 1680 1680 1680 1680 1680 1680 1688 2349 2349 2349 2365 2365 2365 2365 2365 2381 2381 0 0 0 0 0 1268 1268 1268 1268 1268 1268 1264 1264 1264 1264 1259 1259 1259 1259 1259 1259 1259 1259 1259 1259 1259 1259 1259 1259 1259 1259 1259 1259 1259 1255 1255 1255 1255 1255 1250 1250 1250 1250 1250 1250 1250 2333 2349 2349 2365 2398 2398 2398 2398 2398 2398 2398 2398 2398 2381 2381 2381 2381 2381 2381 2381 2381 2381 2381 2381 2398 2381 2381 2381 2365 2365 2365 2365 2365 2365 2365 2365 2365 2365 2365 2365 2365 2365 2365 2365 2381 2381 2381 2381 2381 2381 2381 2381 2381 2381 2381 2381 2381 2365 2365 2365 0 0 0 0 0 0 0 0 0
0 0 0 0 0 0 0 0 0 0 0 0 0 0 0 0 0 0 0 0 0 0 0 0 0 0 0 0 0 0 0 0 0 2129 2116 2116 2129 2129 2129 2129 2143 2143 2143 2143 2143 2143 2143 2129 2129 2129 2143 2143 2143 2143 2156 2156 2156 2156 2156 2156 2156 2156 2156 2156 2156 2156 2156 2156 2143 2143 2143 2143 2143 2143 2156 2156 2143 2143 2156 2156 2156 2156 2156 2156 2156 2143 2143 2143 2143 2143 2156 2156 2156 2156 2156 2156 2156 2156 2156 2156 2156 2156 2156 2156 2156 2156 2170 2170 2170 2184 2184 2184 2184 2184 2170 2170 2170 2170 2170 2170 2170 2170 2170 2184 2184 2184 2184 2198 2198 2198 2198 2198 2198 2198 2184 2184 2184 2184 2184 2198 2198 2198 2198 2198 2198 2198 2198 2198 2198 2198 2198 2212 2212 2212 2212 2212 2198 2198 2212 2212 2212 2212 2212 2226 2226 1748 1748 1748 1748 1748 1739 1647 1647 1647 1647 1647 1647 1647 1647 1647 1647 1655 1655 1663 1671 1671 1680 1680 1680 1680 1680 2241 2241 2241 2241 2241 2241 2226 2226 2226 2226 2226 2241 2241 2241 2241 2241 2256 2256 2256 2256 2256 2256 2256 2256 2256 2271 2271 1970 1970 1981 1981 1981 1993 1993 1993 2005 2016 2028 2028 2040 2065 2065 2078 2078 2078 2065 2065 2078 2286 2286 2271 2271 2271 2065 2065 2065 2065 2078 2078 2078 2078 2078 2078 2078 1543 1543 1543 1543 1543 1536 1536 1536 1536 1536 1536 1536 1536 1536 1543 1543 1550 1550 1550 1550 2256 2256 2271 2271 2271 2286 2286 2286 2301 2301 2301 2286 2286 2286 2286 2286 2286 2286 2286 2286 2301 2301 2301 2301 2301 2301 2301 0 0 0 1392 1392 1398 1392 1392 1392 1392 1392 1392 1392 1392 1392 1392 1392 1398 1398 1410 1415 1421 1421 1421 1421 1427 1427 1427 1427 1421 1421 1421 1421 1421 1421 1421 1421 1433 1433 1421 1421 1427 1427 1427 1433 1433 1433 1433 1433 1433 1433 1433 1433 1433 1433 1433 1433 1433 1433 1433 1433 1433 1433 1433 1433 1433 1439 1439 1439 1439 1439 1439 1439 1439 1439 1439 1439 1439 1439 1439 1439 1439 1439 1439 1439 1439 1439 1439 1439 1439 1439 1445 1445 1445 1445 1445 1445 1445 1445 1439 1439 1439 1439 1439 1439 1439 1445 1445 1445 1445 1445 1445 1445 1445 1445 1445 1452 1452 1245 1245 1245 1250 1245 1245 1245 1245 1245 1245 1241 1241 1241 1241 1241 1241 1241 1433 1439 1439 1439 1439 1439 1445 1439 1439 1445 1445 1445 1445 1445 1445 1445 1445 1445 1445 1452 1452 1452 1452 1452 1616 1624 1624 1624 1624 1624 1624 1624 1616 1609 1609 1609 1609 2349 2349 2349 2349 2365 2349 2349 2349 2349 2365 2365 2365 2365 2381 2381 2381 2381 2398 2398 2415 2415 1680 1680 1680 1688 1688 1696 1688 1688 1680 1680 1680 1680 1680 1680 1680 1680 1680 1680 1688 1688 2333 2333 2333 2349 2349 2365 2365 2365 2365 2381 0 0 0 0 0 1268 1268 1268 1268 1268 1268 1268 1268 1268 1264 1264 1264 1264 1264 1264 1264 1264 1264 1264 1259 1259 1259 1259 1259 1259 1259 1259 1259 1259 1259 1255 1255 1255 1255 1255 1255 1255 1250 1250 1255 1259 2333 2349 2349 2365 2381 2381 2381 2381 2381 2381 2381 2381 2381 2365 2365 2365 2365 2365 2365 2365 2365 2365 2365 2365 2381 2365 2365 2365 2365 2365 2365 2365 2365 2365 2365 2349 2349 2365 2365 2365 2365 2365 2365 2365 2365 2365 2365 2365 2365 2365 2365 2365 2381 2365 2365 2381 2365 2365 2365 2365 0 0 0 0 0 0 0 0 0
0 0 0 0 0 0 0 0 0 0 0 0 0 0 0 0 0 0 0 0 0 0 0 0 0 0 0 0 0 0 0 0 0 0 2116 2116 2116 2129 2129 2129 2143 2143 2143 2143 2143 2143 2143 2129 2129 2129 2129 2129 2129 2143 2143 2143 2143 2143 2143 2143 2143 2143 2143 2143 2143 2143 2143 2143 2143 2143 2143 2143 2143 2143 2143 2143 2143 2143 2143 2143 2143 2143 2156 2156 2143 2143 2143 2143 2143 2143 2143 2143 2156 2143 2143 2143 2143 2143 2143 2156 2156 2156 2156 2156 2156 2156 2170 2170 2170 2184 2184 2184 2184 2184 2170 2170 2170 2170 2156 2156 2156 2170 2170 2170 2170 2170 2184 2184 2184 2198 2198 2198 2184 2184 2170 2170 2170 2170 2184 2184 2184 2184 2198 2198 2198 2198 2198 2198 2198 2198 2198 2198 2198 2198 2212 2212 2198 2198 2198 2198 2198 2198 2212 2226 2226 1748 1748 1748 1748 1739 1739 1655 1655 1655 1655 1647 1647 1647 1647 1655 1655 1663 1663 1671 1671 1671 1680 1680 1680 1680 1680 2226 2226 2226 2226 2226 2212 2212 2212 2226 2226 2226 2226 2241 2241 2241 2241 2241 2241 2241 2241 2241 2256 2256 2256 2256 1947 1947 1959 1959 1970 1981 1981 1993 1993 1993 2005 2016 2028 2040 2040 2065 2065 2078 2078 2078 2078 2078 2078 2271 2271 2256 2241 2241 2065 2065 2065 2078 2078 2078 2078 2078 2078 2090 2090 1543 1543 1543 1543 1543 1536 1536 1536 1536 1536 1536 1536 1543 1543 1543 1550 1550 1557 1557 1557 2256 2256 2256 2271 2271 2271 2286 2286 2301 2286 2286 2286 2286 2271 2271 2286 2286 2286 2286 2286 2301 2301 2301 2301 2301 2301 2301 0 0 0 1398 1398 1398 1392 1392 1392 1392 1392 1392 1392 1392 1392 1392 1398 1398 1398 1410 1415 1415 1421 1421 1421 1421 1421 1421 1421 1415 1415 1415 1415 1415 1415 1421 1421 1421 1421 1421 1421 1421 1421 1421 1427 1427 1427 1433 1433 1433 1427 1427 1427 1427 1427 1427 1427 1427 1427 1427 1427 1427 1427 1433 1433 1433 1433 1433 1433 1433 1433 1433 1433 1433 1439 1439 1439 1433 1433 1433 1433 1433 1433 1427 1427 1427 1433 1433 1433 1433 1433 1439 1439 1439 1439 1439 1439 1439 1439 1439 1439 1439 1439 1439 1439 1439 1439 1439 1439 1439 1439 1439 1439 1439 1439 1439 1452 1255 1250 1250 1250 1250 1250 1245 1245 1245 1245 1245 1241 1241 1241 1241 1241 1241 1241 1427 1427 1433 1433 1433 1433 1439 1433 1433 1439 1439 1439 1439 1439 1439 1439 1439 1439 1439 1445 1445 1445 1445 1452 1624 1624 1624 1624 1624 1624 1624 1624 1616 1609 1609 1601 1601 2333 2333 2333 2349 2349 2349 2349 2349 2349 2365 2365 2365 2365 2365 2365 2365 2365 2398 2415 2415 2415 1680 1680 1680 1688 1688 1696 1688 1688 1680 1680 1680 1680 1680 1680 1680 1680 1680 1680 1688 1688 2333 2333 2333 2349 2349 2349 2365 2365 2365 2381 0 0 0 0 1273 1268 1268 1268 1273 1273 1273 1268 1268 1268 1264 1264 1264 1264 1264 1264 1264 1264 1264 1264 1264 1264 1264 1259 1259 1259 1259 1259 1259 1259 1259 1259 1259 1259 1259 1255 1255 1255 1255 1255 1259 1259 2349 2349 2349 2349 2349 2365 2365 2365 2365 2381 2381 2381 2381 2365 2349 2349 2349 2349 2349 2349 2349 2365 2365 2365 2365 2365 2365 2365 2365 2365 2365 2365 2349 2349 2349 2349 2349 2349 2349 2349 2365 2365 2365 2365 2365 2365 2365 2365 2365 2365 2365 2365 2365 2365 2365 2365 2365 2365 2365 2365 0 0 0 0 0 0 0 0 0
0 0 0 0 0 0 0 0 0 0 0 0 0 0 0 0 0 0 0 0 0 0 0 0 0 0 0 0 0 0 0 0 0 0 2116 2116 2116 2116 2116 2116 2129 2129 2129 2116 2116 2129 2129 2129 2116 2116 2129 2129 2129 2129 2129 2129 2143 2129 2129 2129 2129 2143 2143 2143 2143 2143 2143 2143 2129 2129 2129 2129 2143 2143 2143 2143 2143 2143 2143 2143 2143 2143 2143 2143 2143 2143 2143 2143 2143 2143 2143 2143 2143 2143 2143 2143 2143 2143 2143 2143 2143 2143 2143 2143 2156 2170 2170 2170 2170 2184 2184 2184 2170 2170 2170 2170 2170 2156 2156 2156 2156 2156 2156 2156 2156 2170 2170 2184 2184 2184 2184 2184 2170 2170 2170 2170 2170 2170 2170 2184 2184 2184 2184 2198 2198 2184 2184 2198 2198 2198 2198 2184 2184 2198 2198 2184 2184 2198 2198 2198 2198 2198 2198 2226 1748 1748 1739 1739 1739 1739 1739 1655 1655 1655 1655 1647 1647 1647 1655 1655 1655 1663 1663 1671 1671 1671 1671 1671 1671 1680 2212 2212 2212 2212 2212 2212 2212 2212 2212 2212 2212 2212 2226 2226 2226 2226 2226 2226 2226 2241 2241 2241 2241 2256 1936 1936 1947 1947 1959 1959 1970 1981 1981 1993 2005 2005 2016 2028 2040 2040 2065 2078 2078 2078 2078 2078 2078 2078 2078 2256 2271 2241 2241 2226 2078 2078 2078 2078 2078 2078 2078 2078 2078 2090 2090 1543 1543 1543 1543 1543 1536 1536 1536 1536 1536 1536 1543 1543 1543 1543 1550 1557 1557 1564 1564 2256 2256 2256 2256 2256 2271 2271 2271 2271 2271 2271 2271 2271 2256 2256 2256 2256 2271 2271 2271 2286 2286 2286 2286 2286 2286 2286 0 0 0 1398 1398 1398 1398 1398 1392 1392 1392 1392 1392 1392 1392 1392 1398 1398 1398 1404 1410 1415 1415 1415 1415 1421 1421 1421 1421 1415 1415 1415 1415 1415 1415 1415 1415 1415 1415 1415 1415 1415 1415 1415 1421 1421 1421 1427 1427 1427 1421 1421 1421 1421 1421 1421 1421 1421 1427 1427 1427 1427 1427 1427 1427 1427 1427 1427 1433 1433 1433 1433 1433 1433 1433 1433 1433 1433 1433 1433 1427 1427 1427 1427 1427 1427 1427 1427 1427 1427 1427 1427 1433 1433 1433 1433 1433 1433 1433 1433 1433 1433 1433 1433 1433 1433 1439 1439 1433 1433 1433 1433 1433 1433 1433 1433 1433 1255 1255 1250 1250 1250 1250 1245 1245 1245 1245 1245 1241 1241 1241 1241 1245 1245 1245 1427 1427 1427 1427 1433 1433 1433 1433 1433 1433 1433 1433 1433 1433 1433 1433 1439 1439 1439 1439 1439 1439 1445 1624 1624 1624 1624 1624 1624 1624 1624 1616 1616 1609 1609 1601 1601 2333 2333 2333 2333 2349 2349 2349 2349 2349 2349 2349 2349 2349 2349 2349 2349 2365 2381 2398 2398 1680 1680 1680 1680 1688 1688 1696 1688 1688 1680 1680 1680 1680 1680 1680 1680 1680 1680 1680 1680 2333 2333 2333 2333 2349 2349 2349 2349 2365 2365 2365 0 0 0 1273 1273 1273 1273 1273 1273 1273 1273 1268 1268 1268 1264 1264 1264 1264 1264 1264 1264 1264 1264 1264 1264 1264 1264 1264 1264 1259 1259 1259 1259 1259 1259 1259 1259 1259 1259 1255 1255 1255 1255 1255 1255 1259 2349 2349 2349 2349 2349 2349 2365 2365 2365 2365 2381 2381 2381 2365 2349 2349 2349 2349 2349 2349 2349 2349 2349 2349 2349 2349 2349 2349 2349 2349 2349 2349 2349 2349 2349 2349 2349 2349 2349 2349 2349 2349 2349 2349 2365 2365 2365 2365 2365 2365 2365 2365 2365 2365 2365 2365 2365 2365 2365 2365 0 0 0 0 0 0 0 0 0
0 0 0 0 0 0 0 0 0 0 0 0 0 0 0 0 0 0 0 0 0 0 0 0 0 0 0 0 0 0 0 0 0 0 2103 2103 2103 2116 2116 2116 2116 2116 2116 2116 2116 2116 2116 2116 2116 2116 2116 2116 2116 2116 2116 2116 2116 2129 2129 2129 2129 2129 2129 2129 2129 2129 2129 2129 2116 2116 2103 2103 2103 2129 2129 2143 2143 2143 2143 2143 2143 2143 2143 2143 2143 2143 2143 2143 2143 2143 2143 2143 2143 2143 2143 2129 2129 2143 2143 2143 2143 2143 2143 2143 2143 2156 2156 2156 2170 2170 2170 2170 2170 2170 2170 2170 2170 2156 2156 2156 2156 2156 2156 2156 2156 2156 2170 2170 2170 2170 2184 2170 2170 2170 2156 2156 2156 2170 2170 2170 2170 2184 2184 2184 2184 2184 2184 2184 2184 2184 2184 2184 2184 2198 2198 2184 2184 2198 2198 2198 2198 2198 2198 2198 1748 1748 1739 1739 1739 1739 1739 1655 1655 1655 1655 1647 1647 1647 1655 1655 1655 1663 1663 1671 1671 1671 1671 1671 1671 1671 2198 2198 2198 2198 2198 2198 2198 2198 2198 2212 2212 2212 2212 2212 2212 2212 2212 2212 2226 2226 2241 2241 2241 1936 1936 1936 1936 1947 1959 1959 1970 1981 1981 1993 2005 2005 2016 2028 2040 2053 2065 2078 2078 2078 2078 2078 2078 2090 2090 2241 2256 2226 2226 2226 2090 2078 2078 2078 2078 2078 2078 2078 2090 2090 2090 1543 1543 1543 1543 1543 1536 1536 1536 1536 1536 1536 1543 1543 1543 1550 1550 1557 1564 1564 1564 2241 2241 2241 2256 2256 2256 2256 2256 2256 2256 2256 2256 2256 2256 2256 2256 2256 2256 2256 2256 2271 2271 2271 2271 2271 2286 2286 0 0 0 1398 1398 1398 1398 1398 1392 1392 1392 1392 1392 1392 1392 1398 1398 1398 1398 1404 1410 1415 1415 1415 1415 1415 1415 1410 1410 1410 1410 1410 1404 1404 1410 1410 1410 1410 1410 1410 1410 1410 1410 1410 1415 1415 1421 1421 1421 1421 1415 1415 1415 1415 1415 1415 1415 1415 1421 1421 1415 1415 1421 1421 1421 1421 1421 1421 1427 1427 1427 1427 1427 1427 1427 1427 1427 1427 1427 1427 1421 1421 1421 1421 1421 1421 1421 1421 1421 1421 1421 1421 1427 1427 1427 1433 1433 1427 1427 1427 1427 1427 1433 1433 1433 1433 1433 1433 1433 1433 1427 1427 1427 1427 1427 1427 1427 1255 1255 1250 1250 1250 1250 1245 1245 1245 1245 1245 1241 1241 1241 1241 1245 1245 1421 1427 1427 1427 1427 1427 1427 1427 1427 1427 1427 1427 1427 1427 1427 1427 1433 1433 1433 1433 1433 1433 1433 1452 1624 1624 1624 1624 1624 1624 1624 1624 1616 1616 1609 1609 1601 1601 2333 2333 2333 2333 2333 2333 2333 2333 2333 2349 2349 2349 2349 2349 2349 2349 2365 2365 2398 2398 1680 1680 1680 1688 1688 1696 1696 1688 1688 1680 1680 1680 1680 1680 1680 1680 1680 1680 1680 1680 2333 2333 2333 2333 2333 2333 2349 2349 2349 2365 2365 0 0 0 0 1273 1273 1273 1273 1273 1273 1273 1273 1268 1268 1268 1268 1268 1264 1264 1264 1264 1264 1268 1268 1268 1268 1268 1264 1264 1264 1264 1259 1259 1259 1259 1259 1259 1259 1259 1255 1255 1255 1255 1255 1255 1259 2333 2333 2333 2349 2349 2349 2365 2365 2365 2365 2365 2365 2365 2349 2349 2349 2333 2333 2333 2333 2349 2333 2333 2349 2349 2349 2349 2349 2349 2349 2349 2349 2349 2349 2349 2333 2333 2333 2333 2333 2333 2333 2333 2333 2333 2333 2365 2349 2349 2349 2349 2349 2349 2349 2349 2349 2349 2349 2349 2349 0 0 0 0 0 0 0 0 0
0 0 0 0 0 0 0 0 0 0 0 0 0 0 0 0 0 0 0 0 0 0 0 0 0 0 0 0 0 0 0 0 0 0 2103 2103 2103 2103 2103 2103 2116 2116 2103 2103 2103 2103 2116 2116 2116 2116 2116 2116 2116 2116 2116 2116 2116 2116 2116 2116 2116 2129 2129 2129 2116 2116 2116 2116 2116 2116 2103 2103 2103 2103 2129 2129 2129 2129 2129 2129 2129 2129 2129 2129 2129 2129 2129 2143 2143 2143 2143 2143 2143 2143 2129 2129 2129 2129 2129 2129 2129 2129 2143 2143 2143 2156 2156 2156 2156 2156 2156 2156 2156 2156 2156 2156 2156 2156 2156 2156 2156 2156 2143 2143 2156 2156 2156 2156 2156 2156 2156 2156 2156 2156 2156 2156 2156 2156 2170 2170 2170 2170 2170 2184 2170 2170 2170 2184 2184 2184 2184 2184 2184 2184 2198 2184 2184 2184 2184 2184 2184 2184 2198 2198 1748 1739 1739 1739 1739 1739 1739 1655 1655 1655 1655 1647 1647 1655 1655 1655 1655 1663 1663 1671 1671 1671 1671 1671 1671 1671 2198 2198 2198 2198 2198 2198 2198 2198 2198 2198 2198 2198 2198 2212 2212 2212 2212 2212 2212 2212 2226 1926 1926 1926 1936 1936 1936 1947 1947 1959 1970 1981 1981 1993 2005 2005 2016 2040 2040 2065 2065 2078 2078 2078 2078 2078 2078 2090 2090 2241 2241 2226 2212 2212 2184 2116 2090 2078 2078 2078 2078 2090 2090 2090 2090 1543 1543 1543 1543 1543 1543 1543 1543 1543 1543 1543 1543 1543 1543 1550 1550 1557 1564 1564 1564 2241 2241 2241 2241 2241 2241 2241 2241 2241 2241 2241 2241 2241 2241 2241 2241 2241 2256 2256 2241 2241 2241 2256 2256 2256 2241 2241 0 0 0 1398 1398 1398 1398 1398 1398 1398 1398 1398 1392 1392 1398 1398 1398 1398 1404 1404 1410 1410 1410 1410 1410 1410 1415 1410 1410 1404 1404 1404 1404 1404 1404 1404 1404 1404 1398 1398 1404 1404 1404 1404 1404 1404 1410 1410 1410 1398 1398 1404 1404 1410 1410 1410 1410 1410 1415 1415 1415 1415 1415 1415 1415 1415 1415 1415 1421 1421 1421 1421 1421 1421 1421 1421 1421 1421 1421 1421 1415 1415 1415 1415 1415 1415 1415 1415 1415 1415 1415 1415 1415 1421 1421 1427 1427 1427 1427 1427 1421 1421 1427 1427 1427 1427 1427 1421 1421 1427 1427 1427 1427 1427 1427 1427 1427 1259 1259 1255 1255 1255 1250 1245 1245 1245 1245 1245 1245 1245 1245 1245 1245 1245 1421 1421 1421 1421 1421 1427 1427 1427 1427 1427 1427 1421 1421 1421 1427 1427 1427 1427 1427 1433 1433 1433 1433 1624 1624 1624 1624 1624 1624 1624 1624 1624 1616 1616 1616 1609 1609 2317 2317 2317 2333 2333 2333 2333 2333 2333 2333 2349 2333 2333 2333 2333 2333 2333 2349 2349 2349 1680 1680 1680 1688 1688 1688 1696 1696 1688 1688 1680 1680 1680 1680 1680 1680 1680 1680 1680 2317 2317 2317 2317 2317 2317 2317 2317 2333 2333 2349 2349 2349 0 0 0 0 1273 1273 1273 1273 1273 1273 1273 1273 1273 1268 1268 1268 1268 1264 1264 1264 1264 1264 1268 1268 1268 1268 1268 1268 1264 1264 1264 1264 1259 1259 1259 1259 1259 1259 1259 1255 1255 1255 1255 1255 1255 1255 2333 2333 2333 2349 2349 2349 2349 2349 2349 2349 2365 2349 2349 2333 2333 2333 2333 2333 2333 2333 2333 2333 2333 2333 2333 2333 2333 2333 2333 2333 2317 2317 2333 2333 2317 2317 2317 2317 2333 2333 2333 2333 2317 2317 2317 2317 2349 2317 2317 2317 2317 2317 2317 2317 2317 2317 2317 2317 2317 2333 0 0 0 0 0 0 0 0 0
0 0 0 0 0 0 0 0 0 0 0 0 0 0 0 0 0 0 0 0 0 0 0 0 0 0 0 0 0 0 0 0 0 0 2103 2103 2103 2103 2103 2103 2116 2103 2103 2103 2103 2103 2103 2116 2103 2103 2103 2116 2116 2116 2116 2116 2116 2116 2116 2116 2116 2116 2116 2116 2116 2116 2116 2116 2116 2116 2103 2103 2103 2103 2103 2116 2103 2103 2116 2116 2116 2116 2116 2116 2129 2129 2129 2129 2143 2116 2116 2116 2143 2116 2116 2116 2116 2116 2116 2129 2129 2129 2143 2143 2143 2143 2143 2143 2143 2143 2143 2156 2143 2143 2143 2143 2143 2143 2143 2143 2143 2143 2143 2143 2143 2156 2143 2143 2143 2156 2156 2156 2156 2156 2156 2156 2156 2156 2156 2156 2156 2170 2170 2170 2170 2170 2170 2170 2170 2170 2170 2170 2170 2170 2170 2170 2170 2184 2184 2170 2170 2184 2184 2170 2170 1739 1739 1739 1739 1739 1739 1655 1655 1655 1655 1647 1647 1655 1655 1655 1655 1663 1663 1671 1671 1671 1671 1671 1671 1671 2184 2184 2184 2184 2184 2184 2184 2184 2184 2184 2198 2198 2198 2198 2198 2198 2212 2212 2212 2212 1904 1904 1926 1926 1936 1936 1936 1947 1947 1959 1959 1981 1981 1993 2005 2016 2028 2040 2065 2065 2078 2078 2078 2078 2078 2090 2090 2090 2103 2241 2241 2226 2212 2212 2170 2116 2090 2078 2078 2078 2078 2078 2078 2078 2078 1543 1543 1543 1543 1543 1536 1536 1536 1536 1536 1543 1543 1543 1543 1550 1550 1557 1564 1564 2226 2226 2226 2226 2226 2226 2241 2241 2241 2241 2241 2241 2241 2241 2241 2241 2241 2241 2241 2241 2241 2241 2241 2241 2241 2241 2241 2241 0 0 0 1404 1404 1398 1398 1398 1398 1398 1398 1398 1398 1398 1398 1398 1404 1398 1398 1404 1404 1410 1410 1410 1410 1410 1410 1404 1404 1398 1398 1398 1398 1398 1398 1398 1398 1398 1398 1398 1398 1398 1398 1398 1398 1398 1404 1398 1398 1392 1392 1398 1398 1398 1398 1398 1398 1404 1404 1404 1404 1404 1410 1410 1410 1410 1404 1404 1410 1410 1410 1410 1410 1410 1410 1410 1410 1410 1410 1410 1410 1410 1410 1415 1415 1415 1415 1415 1415 1415 1415 1415 1415 1415 1415 1415 1421 1421 1421 1421 1421 1421 1421 1421 1421 1421 1421 1421 1421 1421 1421 1421 1421 1421 1421 1421 1421 1259 1259 1255 1255 1255 1250 1245 1245 1245 1245 1245 1245 1245 1245 1245 1245 1245 1415 1415 1415 1415 1415 1421 1421 1421 1421 1421 1421 1421 1415 1415 1415 1421 1421 1421 1427 1427 1433 1433 1632 1624 1624 1624 1624 1624 1624 1624 1624 1624 1616 1616 1616 1616 1616 2317 2317 2317 2317 2317 2333 2333 2333 2333 2333 2333 2333 2333 2333 2333 2333 2333 2333 2333 2333 1688 1688 1688 1688 1688 1696 1696 1696 1688 1688 1680 1680 1680 1680 1680 1680 1680 1680 1680 2317 2317 2317 2317 2317 2317 2317 2317 2317 2333 2349 2333 2333 0 0 0 0 1273 1273 1273 1273 1273 1273 1273 1273 1273 1273 1268 1268 1268 1264 1264 1264 1264 1264 1268 1268 1268 1268 1268 1268 1268 1264 1264 1264 1264 1259 1259 1259 1259 1259 1259 1255 1255 1255 1255 1255 1255 1255 2349 2333 2333 2333 2333 2349 2349 2349 2349 2349 2349 2333 2333 2317 2317 2317 2317 2317 2317 2317 2333 2333 2333 2333 2317 2317 2317 2317 2317 2317 2317 2317 2317 2317 2317 2301 2301 2317 2317 2317 2301 2301 2301 2301 2301 2301 2301 2301 2301 2317 2317 2317 2317 2317 2317 2317 2317 2317 2317 2317 0 0 0 0 0 0 0 0 0
0 0 0 0 0 0 0 0 0 0 0 0 0 0 0 0 0 0 0 0 0 0 0 0 0 0 0 0 0 0 0 0 0 0 2090 2090 2103 2103 2103 2103 2103 2103 2090 2090 2103 2103 2103 2103 2103 2103 2103 2103 2103 2103 2103 2103 2103 2116 2103 2103 2116 2116 2116 2116 2116 2116 2116 2116 2116 2116 2103 2103 2103 2103 2103 2103 2103 2103 2103 2103 2116 2116 2116 2116 2116 2116 2116 2116 2116 2103 2103 2103 2103 2103 2116 2116 2103 2103 2103 2103 2116 2143 2143 2143 2143 2143 2143 2143 2143 2143 2143 2143 2143 2143 2143 2143 2143 2143 2143 2143 2143 2143 2143 2143 2143 2143 2143 2143 2143 2143 2143 2156 2156 2156 2156 2156 2156 2156 2156 2156 2156 2156 2156 2156 2156 2156 2156 2170 2170 2170 2170 2156 2156 2170 2170 2170 2170 2170 2170 2170 2170 2170 2170 2156 2156 2156 1739 1739 1748 1748 1739 1655 1655 1647 1647 1647 1647 1655 1655 1655 1655 1663 1663 1671 1671 1671 1671 1680 1680 2184 2184 2184 2184 2184 2184 2184 2184 2184 2184 2184 2184 2184 2184 2198 2198 2198 2198 2198 2198 1904 1904 1904 1926 1926 1936 1936 1936 1947 1947 1947 1959 1970 1970 1993 2005 2016 2040 2053 2065 2065 2078 2078 2078 2078 2078 2090 2090 2090 2103 2226 2226 2226 2212 2198 2170 2129 2090 2078 2078 2078 2078 2078 2078 2078 1543 1543 1543 1543 1543 1543 1536 1536 1536 1536 1536 1543 1543 1543 1543 1550 1550 1557 1564 1564 2226 2226 2212 2212 2212 2226 2226 2226 2226 2226 2226 2241 2241 2241 2226 2226 2226 2226 2226 2226 2226 2226 2241 2241 2241 2241 2241 2241 0 0 0 1404 1404 1404 1404 1404 1404 1398 1398 1398 1398 1398 1404 1404 1404 1398 1398 1404 1404 1404 1404 1404 1404 1404 1404 1398 1398 1392 1392 1392 1392 1392 1392 1392 1392 1392 1392 1392 1392 1392 1392 1392 1392 1392 1392 1392 1392 1392 1392 1392 1392 1392 1392 1392 1398 1398 1398 1398 1404 1404 1404 1404 1404 1398 1398 1398 1398 1398 1398 1398 1404 1404 1398 1398 1404 1404 1404 1404 1404 1404 1404 1404 1404 1410 1410 1410 1410 1410 1410 1410 1410 1410 1410 1410 1410 1410 1410 1410 1415 1415 1415 1415 1415 1415 1415 1415 1415 1415 1415 1415 1415 1415 1410 1410 1410 1259 1259 1259 1259 1255 1250 1250 1245 1245 1245 1245 1245 1245 1245 1245 1245 1245 1410 1410 1410 1415 1415 1415 1415 1415 1415 1415 1415 1415 1410 1410 1415 1415 1415 1421 1421 1421 1433 1632 1632 1632 1632 1624 1624 1624 1624 1624 1624 1624 1624 1624 1616 1616 1616 2317 2317 2317 2317 2317 2317 2317 2317 2317 2317 2317 2317 2317 2317 2317 2317 2317 2317 2317 2317 1688 1688 1688 1688 1688 1696 1696 1696 1688 1688 1680 1680 1680 1680 1680 1680 1680 1680 2301 2301 2301 2301 2317 2317 2317 2317 2317 2317 2317 2333 2333 2333 0 0 0 1273 1273 1273 1273 1273 1273 1273 1273 1273 1273 1273 1268 1268 1268 1268 1268 1268 1268 1268 1268 1268 1268 1268 1268 1268 1268 1264 1264 1264 1264 1264 1264 1259 1259 1259 1259 1259 1255 1255 1259 1259 1259 1259 2317 2317 2317 2333 2333 2333 2333 2333 2333 2333 2333 2333 2333 2317 2317 2317 2317 2317 2317 2317 2317 2317 2317 2317 2317 2317 2317 2317 2301 2301 2301 2317 2317 2317 2301 2301 2301 2301 2301 2301 2301 2301 2301 2301 2301 2286 2286 2286 2301 2301 2301 2301 2301 2301 2301 2301 2301 2301 2301 2301 0 0 0 0 0 0 0 0 0
0 0 0 0 0 0 0 0 0 0 0 0 0 0 0 0 0 0 0 0 0 0 0 0 0 0 0 0 0 0 0 0 0 0 2090 2090 2103 2103 2103 2103 2103 2090 2090 2090 2090 2103 2103 2103 2103 2103 2103 2103 2103 2103 2103 2103 2103 2103 2103 2103 2103 2103 2116 2116 2116 2116 2116 2116 2116 2116 2103 2090 2090 2090 2090 2103 2090 2090 2103 2103 2103 2103 2103 2103 2103 2103 2103 2103 2103 2103 2103 2103 2103 2103 2116 2103 2103 2103 2103 2103 2103 2103 2103 2116 2116 2129 2129 2116 2116 2116 2129 2129 2129 2129 2143 2143 2143 2143 2129 2129 2129 2129 2129 2129 2129 2129 2129 2129 2129 2129 2143 2143 2143 2143 2143 2156 2156 2156 2143 2143 2143 2156 2156 2156 2156 2156 2156 2156 2156 2156 2156 2156 2156 2156 2156 2156 2156 2143 2143 2143 2143 2156 2156 2143 2143 2143 1757 1748 1748 1748 1739 1647 1647 1647 1647 1647 1647 1655 1655 1655 1655 1663 1663 1671 1671 1671 1680 1680 1680 2184 2184 2184 2184 2184 2184 2184 2184 2184 2184 2184 2184 2184 2184 2184 2184 2184 2198 1904 1904 1904 1904 1915 1926 1926 1926 1936 1936 1947 1947 1947 1959 1959 1970 1993 2005 2040 2053 2065 2078 2078 2078 2078 2078 2078 2090 2090 2090 2103 2103 2184 2212 2198 2198 2184 2170 2143 2090 2090 2090 2078 2078 2078 2078 2078 1543 1543 1543 1543 1543 1543 1543 1543 1543 1543 1543 1543 1543 1543 1543 1550 1557 1557 1564 1564 2212 2212 2198 2198 2198 2212 2226 2226 2226 2226 2226 2226 2226 2226 2226 2226 2226 2226 2226 2226 2226 2226 2226 2226 2241 2241 2226 2226 0 0 0 1404 1404 1404 1404 1404 1404 1404 1404 1404 1404 1404 1404 1404 1404 1398 1398 1398 1404 1404 1404 1404 1404 1398 1398 1398 1398 1387 1387 1387 1387 1387 1387 1387 1387 1387 1387 1387 1387 1387 1387 1387 1387 1387 1387 1387 1387 1392 1392 1392 1392 1392 1392 1392 1392 1392 1398 1398 1398 1398 1398 1398 1398 1398 1398 1398 1398 1398 1398 1398 1398 1398 1398 1398 1398 1398 1398 1398 1398 1398 1398 1398 1404 1404 1404 1404 1404 1404 1410 1404 1404 1404 1410 1410 1404 1404 1410 1410 1410 1410 1410 1410 1410 1410 1410 1410 1410 1410 1410 1410 1410 1410 1398 1398 1398 1259 1259 1259 1259 1255 1255 1250 1250 1245 1245 1245 1245 1245 1245 1245 1245 1245 1410 1410 1410 1410 1410 1410 1410 1410 1410 1410 1410 1410 1410 1410 1410 1410 1410 1415 1415 1421 1639 1639 1632 1632 1632 1632 1632 1624 1624 1624 1624 1624 1624 1624 1616 1616 2301 2301 2317 2317 2317 2317 2317 2317 2317 2301 2301 2317 2301 2301 2301 2301 2301 2301 2301 2301 2301 1696 1696 1696 1696 1696 1696 1696 1696 1688 1688 1688 1688 1688 1688 1688 1688 1688 2301 2301 2301 2301 2301 2301 2301 2301 2301 2301 2301 2301 2301 2317 0 2317 0 1273 1273 1273 1273 1273 1273 1273 1273 1273 1273 1273 1273 1273 1268 1268 1268 1268 1268 1268 1268 1268 1268 1268 1268 1268 1268 1268 1268 1268 1268 1264 1264 1264 1259 1259 1259 1259 1259 1255 1255 1259 1259 1259 1259 2301 2317 2317 2317 2317 2317 2317 2317 2317 2317 2317 2317 2317 2301 2301 2301 2301 2301 2301 2301 2301 2301 2301 2301 2301 2301 2301 2301 2301 2301 2301 2301 2301 2301 2301 2286 2286 2301 2301 2301 2286 2286 2286 2286 2286 2286 2286 2286 2286 2286 2301 2286 2286 2301 2301 2301 2301 2301 2301 2301 0 0 0 0 0 0 0 0 0
0 0 0 0 0 0 0 0 0 0 0 0 0 0 0 0 0 0 0 0 0 0 0 0 0 0 0 0 0 0 0 0 0 0 2078 2078 2090 2090 2090 2090 2090 2090 2090 2090 2090 2090 2090 2090 2090 2090 2103 2103 2103 2103 2103 2103 2103 2103 2103 2103 2103 2103 2103 2116 2103 2103 2116 2103 2103 2103 2090 2078 2078 2090 2090 2090 2090 2090 2103 2103 2103 2103 2103 2103 2103 2103 2103 2103 2103 2090 2090 2090 2103 2103 2103 2103 2090 2090 2090 2090 2103 2103 2103 2103 2103 2116 2116 2116 2103 2103 2116 2116 2116 2129 2129 2129 2129 2129 2129 2129 2129 2116 2116 2116 2116 2116 2116 2116 2129 2129 2143 2143 2143 2143 2143 2143 2143 2143 2143 2143 2143 2143 2143 2143 2156 2143 2143 2156 2156 2156 2156 2156 2156 2156 2156 2143 2143 2143 2143 2143 2143 2143 2143 2143 2143 2143 1757 1757 1757 1739 1739 1647 1647 1647 1647 1647 1647 1647 1655 1655 1655 1663 1663 1671 1671 1680 1680 1680 1680 2170 2170 2184 2184 2184 2184 2184 2184 2184 2184 2184 2184 2184 2184 2184 2184 2184 1894 1894 1904 1904 1904 1904 1915 1926 1926 1926 1926 1936 1947 1947 1959 1959 1970 1993 2005 2053 2065 2065 2078 2078 2078 2078 2078 2078 2090 2090 2090 2103 2129 2170 2198 2184 2184 2184 2170 2143 2103 2103 2090 2090 2078 2078 2078 2078 1543 1543 1543 1543 1543 1543 1543 1543 1543 1543 1543 1543 1543 1543 1550 1550 1557 1557 1564 1564 2184 2198 2184 2184 2198 2198 2212 2226 2226 2226 2226 2226 2226 2226 2226 2226 2226 2226 2212 2212 2212 2212 2226 2226 2226 2226 2226 2226 2226 0 1410 1410 1410 1410 1410 1404 1404 1404 1404 1404 1404 1404 1404 1404 1404 1398 1398 1398 1404 1404 1404 1404 1404 1398 1398 1398 1398 1387 1387 1387 1387 1387 1387 1387 1387 1387 1387 1387 1387 1387 1387 1387 1387 1387 1387 1387 1387 1387 1387 1387 1387 1387 1387 1387 1392 1392 1392 1392 1392 1392 1398 1398 1392 1392 1392 1392 1392 1392 1392 1392 1392 1392 1392 1392 1398 1398 1398 1398 1398 1398 1398 1398 1398 1398 1398 1398 1404 1404 1404 1404 1404 1404 1404 1404 1404 1404 1404 1404 1410 1410 1410 1410 1410 1410 1410 1410 1404 1404 1404 1404 1404 1404 1392 1392 1392 1259 1259 1259 1259 1255 1255 1250 1250 1245 1245 1245 1245 1245 1245 1245 1245 1245 1398 1398 1398 1404 1404 1404 1404 1410 1410 1410 1410 1410 1410 1410 1410 1410 1410 1410 1410 1421 1639 1639 1639 1639 1632 1632 1632 1624 1624 1624 1624 1624 1624 1624 1616 1616 2301 2301 2301 2301 2301 2301 2301 2301 2301 2286 2286 2286 2286 2286 2286 2286 2286 2286 2286 2286 2286 1705 1705 1705 1705 1705 1705 1705 1705 1688 1688 1688 1688 1688 1688 1688 1688 1688 2286 2301 2286 2286 2301 2301 2286 2286 2301 2301 2301 2301 2301 2301 0 0 0 0 1273 1273 1273 1273 1273 1273 1273 1273 1273 1273 1273 1273 1273 1273 1273 1268 1268 1268 1268 1268 1268 1268 1268 1268 1268 1268 1264 1264 1264 1264 1264 1264 1259 1259 1259 1259 1259 1255 1255 1259 1259 1259 1259 2286 2301 2301 2317 2317 2317 2317 2317 2317 2317 2317 2317 2317 2301 2301 2301 2301 2301 2301 2301 2301 2301 2301 2301 2301 2301 2301 2301 2286 2286 2286 2286 2301 2301 2286 2286 2286 2301 2286 2286 2286 2286 2286 2286 2286 2286 2286 2271 2271 2271 2286 2286 2286 2286 2286 2286 2286 2286 2286 2286 0 0 0 0 0 0 0 0 0
0 0 0 0 0 0 0 0 0 0 0 0 0 0 0 0 0 0 0 0 0 0 0 0 0 0 0 0 0 0 0 0 0 0 2065 2065 2078 2090 2090 2090 2090 2090 2078 2078 2078 2078 2078 2078 2090 2090 2090 2090 2090 2090 2103 2103 2103 2103 2103 2103 2103 2103 2103 2103 2103 2103 2103 2103 2103 2103 2078 2078 2078 2078 2078 2090 2090 2090 2090 2090 2103 2103 2090 2090 2103 2103 2103 2090 2090 2090 2090 2090 2090 2103 2090 2090 2090 2090 2090 2090 2090 2090 2090 2103 2103 2103 2103 2103 2103 2103 2103 2116 2116 2116 2116 2103 2103 2103 2103 2116 2116 2116 2116 2116 2116 2116 2116 2116 2116 2129 2129 2129 2129 2129 2143 2143 2143 2143 2143 2143 2143 2143 2143 2143 2143 2143 2143 2143 2143 2143 2143 2156 2156 2156 2156 2143 2143 2143 2143 2143 2143 2143 2143 2143 2129 2129 2129 2129 1757 1739 1739 1647 1647 1647 1647 1647 1647 1647 1655 1655 1655 1663 1663 1671 1671 1680 1680 1680 1680 2143 2156 2170 2170 2170 2184 2184 2184 2170 2170 2170 2170 2170 2170 2184 2170 2170 1894 1894 1904 1904 1904 1904 1915 1926 1904 1904 1915 1936 1936 1947 1959 1959 1981 1993 2078 2078 2078 2078 2078 2078 2078 2078 2090 2090 2090 2090 2103 2116 2143 2170 2184 2184 2184 2170 2170 2156 2103 2103 2090 2090 2078 2078 2078 2078 1543 1543 1543 1543 1543 1543 1543 1543 1543 1543 1543 1543 1543 1543 1550 1550 1557 1564 1564 1557 1550 1550 2184 2184 2184 2198 2212 2212 2212 2212 2212 2212 2212 2226 2226 2226 2212 2212 2212 2212 2212 2212 2226 2226 2226 2226 2226 2226 2226 0 1410 1410 1410 1410 1410 1410 1410 1404 1404 1404 1404 1404 1404 1404 1404 1404 1404 1404 1404 1404 1404 1404 1404 1398 1398 1398 1398 1387 1387 1387 1387 1387 1387 1387 1387 1387 1387 1387 1381 1381 1381 1381 1381 1381 1381 1381 1381 1381 1381 1381 1381 1387 1387 1387 1387 1387 1387 1387 1387 1392 1392 1392 1392 1392 1392 1387 1387 1387 1387 1392 1387 1387 1392 1392 1392 1392 1392 1392 1392 1392 1392 1392 1392 1392 1392 1392 1398 1398 1398 1398 1398 1398 1398 1398 1398 1398 1398 1404 1404 1404 1404 1404 1404 1404 1404 1404 1398 1398 1398 1398 1398 1398 1387 1387 1387 1387 1264 1264 1259 1259 1255 1250 1250 1250 1245 1245 1245 1245 1245 1245 1250 1250 1398 1398 1398 1398 1398 1398 1404 1404 1404 1404 1398 1398 1404 1404 1404 1404 1404 1410 1410 1639 1639 1639 1639 1639 1632 1632 1632 1632 1624 1624 1624 1624 1624 1624 1624 2286 2286 2286 2286 2286 2286 2286 2286 2286 2286 2286 2286 2271 2271 2271 2271 2286 2271 2271 2271 2271 2271 1705 1705 1705 1705 1705 1705 1705 1705 1688 1688 1688 1688 1688 1688 1688 1688 2271 2271 2271 2271 2271 2286 2286 2271 2271 2286 2286 2286 2286 2286 2286 2286 0 0 1273 1273 1273 1273 1273 1273 1273 1273 1273 1273 1273 1273 1273 1273 1273 1273 1268 1268 1268 1268 1268 1268 1268 1268 1268 1268 1268 1264 1264 1264 1264 1264 1264 1259 1259 1259 1259 1259 1259 1259 1259 1259 1259 1259 2286 2286 2301 2301 2317 2317 2317 2317 2317 2317 2317 2317 2317 2301 2301 2301 2301 2301 2301 2301 2301 2301 2301 2301 2286 2286 2301 2301 2286 2286 2286 2286 2286 2286 2286 2286 2286 2286 2286 2286 2286 2286 2286 2286 2286 2286 2271 2271 2271 2271 2286 2286 2286 2286 2286 2286 2286 2286 2286 2286 0 0 0 0 0 0 0 0 0
0 0 0 0 0 0 0 0 0 0 0 0 0 0 0 0 0 0 0 0 0 0 0 0 0 0 0 0 0 0 0 0 0 0 2065 2065 2078 2078 2078 2090 2090 2078 2065 2065 2065 2065 2065 2065 2078 2078 2078 2078 2078 2090 2090 2090 2090 2090 2090 2090 2090 2090 2090 2103 2103 2103 2103 2090 2090 2090 2078 2065 2065 2065 2078 2078 2090 2090 2090 2090 2090 2090 2090 2090 2090 2090 2090 2078 2078 2078 2078 2090 2090 2090 2090 2090 2090 2090 2090 2090 2090 2090 2090 2090 2090 2090 2090 2103 2103 2103 2103 2103 2103 2116 2116 2103 2103 2103 2103 2103 2103 2103 2103 2116 2116 2116 2103 2103 2116 2116 2116 2129 2129 2129 2129 2129 2129 2129 2129 2129 2129 2129 2143 2143 2143 2143 2143 2143 2143 2143 2143 2143 2143 2143 2143 2129 2129 2129 2129 2129 2129 2129 2129 2129 2129 2129 2116 2116 1757 1757 1655 1647 1647 1647 1647 1647 1647 1647 1655 1663 1663 1663 1671 1671 1680 1680 1680 1680 1680 2143 2156 2156 2170 2170 2170 2170 2170 2170 2170 2170 2170 2170 2170 2170 2170 2170 1894 1894 1894 1904 1904 1904 1915 1915 1904 1904 1915 1936 1936 1936 1947 1947 2156 2156 2090 2090 2078 2078 2078 2078 2090 2090 2090 2090 2090 2103 2103 2116 2143 2170 2184 2170 2170 2170 2170 2143 2116 2116 2090 2090 2078 2078 2078 2078 1543 1543 1543 1550 1543 1543 1543 1543 1543 1543 1543 1543 1543 1550 1550 1550 1557 1564 1564 1557 1550 1550 2184 2184 2184 2184 2198 2198 2198 2198 2198 2198 2212 2212 2212 2212 2212 2212 2212 2212 2212 2212 2212 2212 2212 2212 2226 2226 2226 0 1415 1415 1410 1410 1410 1410 1410 1410 1410 1404 1404 1404 1404 1404 1404 1404 1404 1404 1404 1404 1404 1404 1404 1404 1398 1398 1398 1387 1387 1387 1387 1387 1387 1381 1381 1387 1387 1387 1381 1381 1381 1381 1376 1376 1376 1376 1381 1381 1381 1381 1381 1381 1381 1381 1381 1381 1387 1387 1387 1387 1387 1387 1387 1387 1387 1387 1387 1387 1387 1387 1387 1387 1387 1387 1387 1387 1387 1387 1387 1387 1387 1387 1392 1392 1392 1392 1392 1392 1392 1392 1392 1392 1392 1392 1392 1392 1392 1398 1392 1392 1398 1398 1398 1398 1398 1398 1398 1392 1392 1392 1392 1392 1387 1387 1387 1387 1264 1264 1259 1259 1259 1255 1255 1255 1255 1250 1250 1250 1250 1250 1250 1250 1392 1392 1392 1392 1398 1398 1398 1398 1398 1398 1398 1398 1398 1398 1398 1404 1404 1410 1647 1639 1639 1639 1639 1639 1632 1632 1632 1632 1632 1624 1624 1624 1624 1624 2256 2256 2271 2271 2271 2271 2271 2286 2286 2271 2271 2271 2271 2271 2271 2271 2271 2271 2271 2256 2256 2256 2256 1722 1705 1705 1705 1705 1705 1705 1705 1688 1688 1688 1688 1688 1688 1688 1688 2256 2256 2256 2271 2271 2271 2271 2271 2271 2271 2271 2271 2286 2271 2271 2271 0 1278 0 1273 1273 1273 1273 1273 1273 1273 1273 1273 1273 1273 1273 1273 1273 1273 1273 1273 1268 1268 1268 1268 1268 1268 1268 1268 1268 1268 1268 1268 1268 1264 1264 1264 1259 1259 1259 1259 1259 1259 1259 1259 1259 1264 2271 2286 2286 2301 2301 2301 2301 2317 2301 2301 2301 2301 2301 2286 2286 2286 2286 2286 2286 2286 2286 2286 2286 2286 2286 2286 2286 2286 2286 2286 2286 2286 2286 2286 2271 2271 2286 2286 2286 2286 2286 2286 2286 2271 2271 2271 2271 2271 2271 2271 2271 2271 2271 2286 2271 2271 2286 2286 2286 2286 0 0 0 0 0 0 0 0 0
0 0 0 0 0 0 0 0 0 0 0 0 0 0 0 0 0 0 0 0 0 0 0 0 0 0 0 0 0 0 0 0 0 0 2065 2065 2065 2078 2078 2078 2078 2065 2065 2065 2065 2065 2065 2065 2065 2065 2065 2078 2078 2078 2078 2078 2078 2078 2090 2090 2090 2090 2090 2090 2090 2090 2090 2090 2090 2078 2065 2065 2065 2065 2065 2078 2078 2078 2078 2078 2078 2090 2078 2078 2078 2065 2065 2065 2065 2065 2065 2078 2090 2090 2090 2090 2090 2090 2078 2078 2090 2090 2090 2090 2090 2090 2090 2090 2090 2103 2103 2103 2103 2103 2103 2116 2090 2090 2103 2103 2103 2103 2103 2103 2103 2103 2103 2103 2116 2103 2103 2116 2116 2116 2116 2116 2116 2116 2116 2116 2116 2116 2129 2129 2129 2129 2129 2129 2129 2129 2129 2143 2143 2143 2143 2129 2129 2129 2129 2129 2129 2129 2129 2129 2129 2129 2116 2116 1757 1757 1655 1647 1647 1647 1647 1647 1647 1655 1655 1663 1663 1663 1671 1671 1680 1680 1680 1680 1680 2143 2143 2156 2156 2156 2170 2170 2170 2156 2156 2156 2170 2170 2170 2170 2170 2170 1894 1894 1894 1904 1904 1904 1915 1915 1915 1915 1915 1926 1936 1936 1936 1936 2143 2129 2116 2103 2090 2090 2090 2090 2090 2090 2090 2090 2090 2103 2103 2116 2143 2170 2184 2170 2170 2170 2156 2143 2116 2116 2090 2090 2078 2078 2078 2078 1550 1550 1550 1550 1550 1543 1543 1543 1543 1543 1543 1543 1550 1550 1550 1550 1557 1564 1557 1557 1557 2184 2170 2170 2184 2184 2184 2184 2184 2198 2198 2198 2198 2198 2198 2212 2212 2212 2198 2198 2212 2212 2212 2212 2212 2212 2212 2212 2212 2198 1415 1415 1410 1410 1410 1410 1410 1410 1410 1404 1404 1404 1404 1404 1404 1404 1404 1404 1404 1404 1410 1404 1404 1404 1398 1398 1398 1387 1387 1387 1387 1387 1387 1381 1381 1381 1381 1381 1381 1376 1376 1376 1376 1376 1376 1376 1376 1376 1376 1376 1376 1381 1381 1381 1381 1381 1381 1381 1381 1381 1387 1381 1381 1381 1381 1381 1381 1381 1381 1381 1381 1381 1381 1381 1387 1387 1387 1387 1387 1387 1387 1387 1387 1387 1387 1387 1387 1387 1387 1387 1387 1387 1387 1387 1387 1387 1387 1387 1387 1387 1387 1392 1392 1392 1392 1392 1392 1392 1392 1387 1387 1387 1387 1381 1381 1381 1264 1264 1264 1259 1259 1259 1259 1255 1255 1255 1255 1250 1250 1250 1250 1250 1259 1387 1387 1392 1392 1392 1392 1392 1392 1392 1392 1392 1392 1398 1398 1398 1404 1647 1647 1639 1639 1639 1639 1639 1632 1632 1632 1632 1632 1624 1624 1624 1624 1624 2241 2256 2256 2256 2256 2256 2256 2256 2271 2256 2256 2256 2256 2256 2256 2256 2256 2256 2256 2256 2256 2256 2256 1722 1713 1713 1705 1705 1705 1705 1705 1696 1688 1688 1688 1688 1696 1696 1688 1688 2256 2256 2256 2256 2256 2256 2256 2256 2256 2256 2271 2271 2271 2271 0 0 1278 1278 1278 1278 1278 1278 1278 1278 1273 1273 1273 1273 1273 1273 1273 1273 1273 1273 1273 1273 1273 1273 1273 1268 1268 1268 1268 1268 1268 1268 1268 1268 1268 1268 1264 1264 1259 1259 1259 1259 1259 1259 1259 1259 2256 2256 2271 2271 2286 2286 2301 2301 2301 2301 2301 2301 2301 2301 2286 2286 2286 2286 2286 2286 2286 2286 2286 2286 2286 2271 2271 2286 2286 2271 2271 2271 2271 2271 2271 2271 2271 2271 2271 2286 2286 2271 2271 2271 2271 2271 2271 2271 2271 2271 2256 2256 2256 2256 2271 2271 2271 2271 2271 2271 2286 0 0 0 0 0 0 0 0 0
0 0 0 0 0 0 0 0 0 0 0 0 0 0 0 0 0 0 0 0 0 0 0 0 0 0 0 0 0 0 0 0 0 0 2053 2053 2065 2065 2065 2065 2053 2053 2053 2053 2053 2053 2053 2053 2053 2065 2065 2065 2065 2065 2065 2065 2065 2065 2065 2065 2065 2065 2065 2065 2065 2078 2078 2065 2065 2078 2065 2065 2053 2053 2065 2065 2065 2065 2065 2065 2065 2065 2065 2065 2065 2053 2053 2053 2053 2065 2065 2078 2078 2078 2078 2078 2078 2078 2078 2078 2078 2078 2078 2090 2090 2090 2090 2090 2090 2090 2090 2090 2090 2103 2103 2103 2090 2090 2090 2090 2090 2090 2090 2090 2090 2090 2103 2103 2103 2103 2103 2103 2116 2116 2116 2103 2103 2103 2103 2103 2103 2116 2116 2116 2129 2129 2129 2129 2129 2129 2116 2116 2129 2129 2129 2129 2129 2129 2129 2116 2116 2129 2129 2129 2129 2129 2116 1776 1757 1757 1757 1647 1647 1647 1647 1647 1647 1655 1655 1663 1663 1663 1671 1671 1680 1680 1688 1680 1680 2129 2143 2143 2143 2156 2156 2156 2156 2156 2156 2156 2156 2156 2156 2156 2170 1883 1883 1894 1894 1894 1894 1904 1904 1915 1915 1915 1915 1926 1926 1926 1936 1936 2143 2129 2129 2116 2090 2090 2090 2090 2090 2090 2090 2090 2090 2103 2103 2116 2143 2156 2184 2170 2170 2156 2156 2143 2116 2116 2090 2090 2078 2078 2078 2078 1550 1550 1550 1550 1550 1550 1543 1543 1543 1543 1543 1543 1550 1550 1550 1550 1557 1564 1557 1557 1557 2170 2170 2170 2170 2184 2184 2184 2184 2184 2184 2184 2184 2184 2184 2184 2198 2198 2198 2198 2198 2198 2198 2198 2198 2198 2198 2198 2198 2198 1415 1415 1415 1410 1410 1410 1410 1410 1410 1404 1404 1404 1404 1404 1404 1404 1404 1404 1404 1410 1410 1404 1404 1404 1398 1398 1398 1387 1387 1387 1387 1387 1387 1381 1381 1381 1381 1381 1381 1376 1376 1376 1370 1370 1370 1370 1376 1376 1370 1370 1370 1376 1376 1376 1376 1376 1376 1376 1376 1376 1376 1376 1376 1376 1381 1381 1376 1376 1381 1376 1376 1376 1376 1376 1381 1381 1381 1381 1381 1381 1381 1381 1387 1387 1381 1381 1381 1381 1381 1381 1381 1381 1381 1381 1381 1387 1387 1381 1381 1381 1381 1387 1387 1387 1387 1387 1387 1387 1387 1387 1387 1387 1387 1381 1381 1381 1264 1264 1264 1264 1259 1259 1259 1259 1259 1259 1255 1255 1255 1250 1250 1255 1259 1381 1381 1387 1387 1387 1387 1387 1387 1387 1387 1387 1392 1392 1392 1398 1647 1647 1647 1639 1639 1639 1639 1639 1639 1632 1632 1632 1632 1632 1624 1624 1624 1624 2226 2241 2241 2256 2256 2256 2256 2256 2256 2256 2256 2256 2256 2256 2256 2256 2256 2256 2241 2241 2241 2241 2241 1713 1713 1713 1713 1705 1705 1705 1705 1696 1688 1688 1688 1696 1696 1688 1688 1688 2256 2256 2256 2256 2256 2256 2256 2256 2256 2256 2256 2256 2271 0 1283 1283 1278 1278 1278 1278 1278 1278 1278 1278 1278 1278 1278 1273 1273 1273 1273 1273 1273 1273 1273 1273 1273 1273 1273 1273 1273 1268 1268 1268 1268 1268 1268 1268 1268 1268 1264 1264 1259 1259 1259 1259 1259 1259 1259 2256 2256 2256 2256 2256 2271 2271 2286 2286 2286 2286 2301 2286 2286 2286 2271 2271 2271 2271 2271 2271 2271 2271 2271 2271 2256 2256 2256 2271 2271 2256 2256 2256 2256 2256 2256 2256 2256 2256 2271 2271 2271 2271 2271 2271 2271 2271 2256 2256 2256 2256 2256 2256 2256 2256 2256 2256 2256 2256 2256 2271 2271 0 0 0 0 0 0 0 0 0
0 0 0 0 0 0 0 0 0 0 0 0 0 0 0 0 0 0 0 0 0 0 0 0 0 0 0 0 0 0 0 0 0 2053 2053 2053 2053 2053 2053 2065 2053 2053 2053 2053 2053 2053 2053 2053 2053 2053 2053 2053 2053 2065 2065 2065 2065 2065 2065 2065 2065 2065 2065 2053 2053 2053 2053 2053 2053 2065 2053 2053 2053 2053 2053 2053 2053 2053 2053 2065 2053 2053 2053 2053 2053 2053 2053 2053 2053 2053 2053 2053 2053 2053 2065 2053 2053 2053 2053 2053 2065 2065 2065 2065 2065 2065 2065 2065 2065 2078 2090 2090 2090 2090 2090 2090 2090 2090 2090 2090 2090 2090 2090 2090 2090 2090 2090 2103 2103 2103 2103 2103 2103 2103 2103 2103 2103 2103 2103 2103 2103 2103 2103 2116 2116 2116 2116 2116 2116 2116 2116 2116 2116 2129 2129 2129 2116 2103 2103 2116 2116 2116 2116 2129 2116 2116 2116 1766 1766 1766 1655 1647 1647 1647 1647 1647 1647 1655 1655 1663 1663 1663 1671 1671 1680 1680 1688 1680 1680 2129 2143 2143 2143 2143 2143 2143 2143 2143 2143 2156 2143 2143 2156 2156 2156 1883 1883 1883 1894 1894 1894 1904 1904 1904 1904 1904 1904 1915 1915 1915 1915 2156 2143 2129 2129 2129 2090 2090 2090 2090 2090 2090 2090 2090 2090 2103 2103 2116 2129 2143 2170 2170 2156 2156 2156 2129 2129 2116 2090 2090 2090 2078 2078 2078 1550 1550 1550 1550 1550 1550 1550 1550 1543 1543 1543 1550 1550 1550 1550 1550 1557 1564 1564 1564 1564 2170 2170 2170 2170 2184 2184 2184 2184 2184 2184 2184 2184 2184 2184 2184 2184 2184 2184 2184 2184 2198 2198 2198 2184 2184 2198 2184 2184 2184 1415 1415 1415 1415 1415 1415 1410 1410 1410 1404 1404 1404 1404 1404 1404 1404 1404 1410 1410 1410 1410 1404 1404 1404 1398 1398 1398 1392 1387 1387 1387 1387 1387 1387 1387 1387 1381 1381 1381 1376 1376 1376 1370 1370 1370 1370 1370 1370 1370 1370 1370 1370 1370 1370 1370 1370 1370 1370 1370 1365 1365 1370 1370 1370 1370 1376 1370 1370 1370 1370 1370 1370 1370 1370 1376 1376 1376 1376 1376 1381 1381 1381 1381 1376 1376 1376 1376 1376 1376 1376 1376 1381 1381 1376 1376 1381 1381 1376 1376 1376 1376 1376 1376 1381 1381 1381 1381 1381 1381 1381 1381 1381 1381 1381 1381 1381 1268 1268 1264 1264 1259 1259 1259 1259 1259 1259 1259 1259 1259 1259 1259 1259 1259 1381 1381 1381 1381 1381 1381 1381 1387 1387 1387 1387 1387 1387 1387 1647 1647 1647 1647 1647 1639 1639 1639 1639 1639 1632 1632 1632 1632 1632 1624 1624 1624 1624 2226 2226 2241 2241 2241 2241 2241 2256 2256 2256 2241 2241 2256 2256 2256 2256 2256 2241 2241 2226 2226 2226 2226 1713 1713 1713 1713 1705 1705 1705 1705 1696 1688 1688 1696 1696 1688 1688 1680 1680 1688 2241 2241 2241 2241 2241 2241 2241 2241 2241 2241 2256 2271 0 0 1283 1278 1278 1278 1278 1278 1278 1278 1278 1278 1278 1278 1278 1278 1278 1273 1273 1273 1273 1273 1273 1273 1273 1273 1273 1273 1273 1268 1268 1268 1268 1268 1268 1268 1268 1264 1264 1259 1259 1259 1259 1259 1259 1264 2256 2256 2256 2256 2256 2256 2271 2271 2271 2271 2271 2271 2271 2271 2271 2256 2256 2256 2256 2256 2241 2241 2256 2256 2256 2256 2256 2256 2256 2256 2256 2241 2241 2241 2241 2241 2241 2256 2256 2256 2256 2256 2256 2256 2256 2256 2256 2256 2256 2256 2256 2241 2241 2241 2241 2241 2256 2256 2256 2256 2256 2256 0 0 0 0 0 0 0 0 0
0 0 0 0 0 0 0 0 0 0 0 0 0 0 0 0 0 0 0 0 0 0 0 0 0 0 0 0 0 0 0 0 0 2053 2040 2040 2040 2040 2040 2040 2028 2028 2028 2040 2053 2053 2053 2053 2053 2053 2053 2053 2053 2065 2065 2065 2065 2065 2065 2065 2053 2053 2053 2053 2053 2053 2053 2053 2053 2065 2053 2053 2053 2053 2053 2053 2053 2053 2053 2053 2053 2053 2053 2053 2053 2053 2053 2053 2053 2053 2053 2053 2053 2053 2053 2053 2053 2053 2053 2053 2053 2053 2053 2053 2053 2053 2053 2053 2053 2053 2078 2078 2078 2090 2090 2090 2090 2090 2090 2090 2090 2090 2090 2090 2090 2090 2090 2090 2103 2090 2090 2090 2103 2103 2103 2090 2090 2090 2090 2090 2090 2103 2103 2103 2103 2103 2103 2103 2103 2103 2103 2103 2103 2103 2103 2103 2090 2090 2090 2103 2103 2103 2103 2103 2103 2103 1766 1766 1766 1766 1655 1647 1647 1647 1647 1655 1655 1655 1663 1663 1663 1663 1671 1671 1680 1680 1688 1680 1680 2129 2129 2143 2143 2143 2143 2143 2143 2143 2143 2143 2143 2143 2156 2156 2156 1883 1883 1883 1894 1894 1894 1904 1904 1904 1904 1904 1904 1915 1915 1915 1915 2143 2143 2129 2129 2129 2103 2090 2090 2090 2090 2090 2090 2090 2090 2103 2103 2116 2129 2143 2156 2143 2143 2143 2143 2129 2116 2116 2103 2090 2090 2090 2090 2090 1543 1543 1550 1550 1550 1550 1550 1550 1550 1550 1550 1550 1550 1550 1557 1557 1557 1564 1564 1564 1564 2156 2156 2170 2170 2170 2170 2170 2170 2170 2184 2184 2184 2184 2184 2184 2184 2184 2184 2184 2184 2184 2184 2184 2184 2184 2184 2184 2184 2184 1421 1421 1415 1415 1415 1415 1415 1415 1410 1404 1404 1404 1404 1410 1410 1410 1410 1415 1415 1410 1410 1410 1404 1404 1404 1398 1398 1392 1392 1392 1392 1387 1387 1387 1387 1387 1387 1381 1381 1376 1376 1376 1370 1370 1370 1370 1370 1370 1370 1370 1370 1370 1370 1365 1365 1365 1365 1365 1365 1365 1365 1365 1365 1370 1370 1370 1370 1370 1370 1370 1370 1370 1370 1370 1370 1370 1370 1370 1370 1376 1376 1376 1376 1370 1370 1370 1370 1370 1370 1370 1376 1376 1376 1370 1370 1376 1376 1370 1370 1370 1370 1370 1370 1370 1370 1370 1370 1370 1376 1376 1376 1376 1376 1376 1376 1264 1264 1268 1264 1264 1264 1259 1259 1259 1259 1259 1259 1259 1259 1259 1259 1259 1264 1370 1370 1376 1376 1376 1376 1376 1381 1381 1381 1381 1387 1387 1387 1647 1647 1647 1647 1647 1639 1639 1639 1639 1639 1639 1632 1632 1632 1632 1624 1624 1624 2212 2212 2226 2226 2226 2226 2226 2226 2241 2241 2241 2241 2241 2241 2241 2241 2241 2241 2241 2241 2226 2226 2226 2226 1713 1713 1713 1713 1713 1713 1713 1705 1696 1696 1696 1688 1688 1688 1680 1680 1680 1680 2226 2241 2241 2241 2241 2241 2241 2241 2241 2241 2256 2256 0 0 1283 1278 1278 1278 1278 1278 1278 1278 1278 1278 1278 1278 1278 1278 1278 1273 1273 1273 1273 1273 1273 1273 1273 1273 1273 1273 1273 1268 1268 1268 1268 1268 1268 1268 1268 1264 1264 1259 1259 1259 1259 1259 1259 2256 2256 2241 2241 2256 2256 2256 2256 2256 2256 2256 2256 2256 2256 2256 2256 2241 2241 2241 2241 2241 2241 2241 2241 2241 2241 2241 2241 2241 2241 2241 2241 2241 2241 2241 2241 2241 2241 2241 2241 2241 2256 2241 2241 2256 2256 2241 2241 2241 2241 2241 2241 2241 2241 2241 2241 2241 2241 2241 2241 2256 2241 2241 0 0 0 0 0 0 0 0 0
0 0 0 0 0 0 0 0 0 0 0 0 0 0 0 0 0 0 0 0 0 0 0 0 0 0 0 0 0 0 0 0 0 0 2040 2040 2040 2040 2040 2040 2028 2028 2028 2040 2040 2040 2040 2040 2040 2053 2040 2040 2040 2040 2040 2053 2053 2053 2053 2053 2040 2040 2053 2053 2053 2053 2053 2053 2053 2053 2040 2040 2040 2040 2028 2028 2040 2040 2053 2040 2040 2040 2040 2040 2040 2040 2040 2040 2053 2053 2053 2053 2053 2053 2053 2053 2053 2040 2040 2053 2053 2053 2053 2053 2053 2053 2053 2053 2053 2053 2053 2053 2053 2065 2065 2065 2078 2078 2078 2078 2078 2078 2078 2090 2078 2078 2090 2090 2090 2090 2090 2090 2090 2090 2090 2090 2090 2090 2090 2090 2090 2090 2090 2090 2090 2090 2103 2103 2090 2090 2090 2090 2103 2103 2103 2103 2090 2090 2090 2090 2090 2103 2103 2103 1766 1766 1766 1766 1766 1766 1776 1655 1655 1655 1655 1655 1655 1655 1663 1663 1663 1671 1671 1671 1680 1680 1680 1671 1671 2129 2129 2129 2129 2129 2129 2129 2129 2129 2129 2143 2143 2143 2156 2156 2156 1873 1873 1873 1883 1894 1894 1894 1904 1904 1904 1904 1904 1904 1904 2143 2156 2143 2143 2129 2129 2129 2103 2090 2090 2090 2090 2090 2090 2090 2090 2103 2103 2116 2129 2143 2143 2143 2143 2129 2129 2129 2116 2116 2103 2090 2090 2090 2090 2090 1543 1543 1550 1550 1550 1550 1550 1550 1550 1550 1550 1550 1550 1550 1557 1557 1564 1564 1572 1572 1572 2156 2156 2170 2170 2170 2170 2170 2170 2170 2170 2170 2170 2170 2170 2170 2170 2170 2184 2184 2184 2184 2184 2184 2184 2184 2170 2170 2184 2184 1421 1421 1415 1415 1415 1415 1415 1415 1410 1410 1404 1404 1410 1410 1410 1410 1410 1415 1415 1415 1415 1410 1410 1404 1404 1404 1404 1398 1392 1392 1392 1392 1387 1387 1387 1387 1387 1381 1381 1381 1381 1376 1376 1370 1370 1370 1370 1370 1370 1370 1370 1365 1365 1365 1365 1365 1365 1365 1365 1359 1359 1359 1365 1365 1365 1365 1365 1365 1365 1365 1365 1365 1365 1365 1365 1365 1365 1365 1370 1370 1370 1370 1370 1365 1365 1370 1370 1370 1370 1370 1370 1370 1370 1365 1365 1370 1370 1370 1370 1370 1370 1370 1370 1370 1370 1370 1370 1370 1370 1370 1370 1370 1370 1370 1370 1264 1264 1268 1264 1264 1264 1264 1264 1264 1264 1264 1264 1259 1259 1264 1264 1264 1365 1365 1365 1370 1370 1370 1370 1370 1376 1376 1376 1381 1381 1387 1387 1655 1655 1647 1647 1647 1647 1647 1647 1647 1639 1639 1639 1632 1632 1632 1632 1624 1624 2212 2212 2212 2226 2226 2226 2226 2226 2226 2226 2226 2226 2226 2241 2241 2241 2241 2226 2226 2226 2212 2212 2212 2212 1713 1713 1713 1713 1713 1713 1713 1705 1696 1696 1696 1688 1688 1688 1680 1680 1680 1680 2226 2226 2226 2226 2226 2226 2241 2226 2226 2226 2226 0 1288 1283 1283 1278 1278 1278 1278 1278 1278 1278 1278 1278 1278 1278 1278 1278 1278 1273 1273 1278 1278 1273 1273 1273 1273 1273 1273 1273 1273 1273 1273 1273 1273 1268 1268 1268 1268 1268 1264 1264 1259 1259 1259 1259 1259 2241 2241 2241 2241 2256 2256 2256 2256 2256 2256 2256 2256 2256 2256 2256 2256 2241 2241 2241 2241 2241 2241 2226 2226 2226 2226 2226 2226 2241 2241 2241 2241 2241 2241 2241 2241 2241 2241 2241 2241 2241 2241 2241 2241 2241 2241 2226 2226 2226 2241 2241 2226 2226 2226 2241 2241 2241 2241 2241 2241 2241 2241 2241 0 0 0 0 0 0 0 0 0
0 0 0 0 0 0 0 0 0 0 0 0 0 0 0 0 0 0 0 0 0 0 0 0 0 0 0 0 0 0 0 0 0 0 2028 2028 2028 2028 2028 2016 2016 2016 2028 2040 2040 2040 2040 2040 2040 2040 2040 2028 2028 2040 2040 2040 2040 2040 2040 2040 2028 2028 2028 2040 2040 2040 2040 2040 2040 2040 2028 2028 2028 2028 2028 2028 2028 2040 2040 2040 2040 2040 2040 2040 2040 2040 2040 2040 2040 2040 2040 2040 2053 2053 2053 2053 2040 2040 2040 2053 2053 2053 2053 2053 2053 2053 2053 2053 2053 2053 2053 2053 2053 2053 2053 2053 2065 2078 2078 2078 2078 2078 2078 2078 2078 2078 2078 2090 2078 2078 2078 2078 2078 2078 2078 2078 2078 2078 2078 2078 2078 2078 2090 2090 2090 2090 2090 2090 2090 2090 2090 2090 2090 2090 2090 2090 2090 2090 2090 2090 2090 2090 2090 2090 1766 1766 1766 1766 1757 1757 1766 1655 1655 1655 1655 1655 1655 1655 1663 1663 1663 1671 1671 1671 1671 1680 1680 1671 1671 2116 2116 2116 2116 2116 2116 2116 2116 2129 2129 2129 2129 2143 2156 1863 1863 1863 1863 1863 1883 1883 1883 1894 1894 1894 1894 1894 1894 1904 1904 2143 2143 2129 2129 2129 2129 2129 2103 2090 2090 2090 2090 2090 2090 2090 2090 2103 2103 2116 2129 2129 2143 2129 2129 2129 2129 2129 2116 2116 2103 2090 2090 2090 2090 2090 1543 1543 1550 1550 1550 1550 1550 1550 1550 1550 1550 1550 1550 1550 1557 1557 1564 1564 1564 1564 2156 2156 2156 2156 2156 2156 2156 2156 2156 2156 2170 2170 2170 2170 2170 2170 2170 2170 2170 2170 2170 2170 2170 2170 2170 2170 2170 2170 2170 2184 2184 1421 1415 1415 1415 1415 1415 1415 1410 1410 1410 1410 1410 1410 1410 1415 1415 1415 1415 1415 1415 1410 1410 1410 1410 1410 1404 1398 1398 1398 1398 1392 1392 1387 1387 1387 1387 1387 1387 1381 1381 1381 1376 1376 1376 1370 1370 1370 1370 1370 1370 1365 1365 1365 1365 1365 1365 1359 1359 1359 1359 1359 1359 1359 1359 1359 1359 1359 1365 1365 1365 1365 1365 1365 1365 1365 1365 1365 1365 1365 1365 1365 1359 1359 1359 1359 1365 1365 1365 1365 1365 1365 1365 1359 1359 1365 1365 1365 1365 1365 1365 1365 1365 1365 1365 1365 1365 1365 1370 1370 1370 1370 1370 1370 1370 1264 1264 1268 1268 1264 1264 1264 1264 1264 1264 1264 1264 1264 1264 1264 1264 1264 1359 1359 1359 1365 1370 1370 1370 1370 1370 1376 1376 1381 1381 1387 1387 1655 1655 1655 1647 1647 1647 1647 1647 1647 1639 1639 1639 1632 1632 1632 1632 1624 1624 2212 2212 2212 2212 2212 2212 2212 2212 2212 2212 2226 2212 2212 2226 2226 2226 2226 2226 2226 2212 2212 2212 2212 2212 1713 1713 1713 1713 1713 1713 1713 1713 1696 1696 1696 1688 1688 1688 1680 1680 1680 1680 2198 2212 2212 2212 2212 2226 2226 2226 2226 2226 2226 0 0 1288 1288 1283 1283 1283 1283 1283 1283 1278 1278 1278 1278 1278 1278 1278 1278 1278 1278 1278 1278 1278 1278 1278 1278 1278 1278 1273 1273 1273 1273 1273 1273 1268 1268 1268 1268 1268 1264 1264 1264 1264 1259 1259 1259 2241 2241 2241 2241 2241 2241 2256 2256 2256 2241 2241 2241 2241 2241 2241 2241 2226 2226 2226 2226 2226 2226 2226 2226 2226 2226 2226 2226 2226 2226 2226 2241 2241 2241 2226 2226 2226 2226 2226 2226 2226 2226 2226 2226 2226 2241 2226 2226 2226 2226 2226 2226 2226 2226 2226 2241 2241 2241 2241 2241 2241 2226 2226 0 0 0 0 0 0 0 0 0
0 0 0 0 0 0 0 0 0 0 0 0 0 0 0 0 0 0 0 0 0 0 0 0 0 0 0 0 0 0 0 0 0 0 2016 2016 2016 2016 2016 2016 2016 2016 2016 2028 2040 2040 2028 2028 2040 2040 2028 2016 2016 2028 2028 2028 2040 2028 2028 2028 2028 2028 2028 2028 2028 2028 2028 2028 2028 2040 2028 2016 2016 2016 2016 2016 2028 2040 2040 2040 2040 2040 2040 2040 2040 2040 2040 2040 2040 2040 2040 2040 2040 2040 2040 2053 2040 2040 2040 2040 2053 2053 2053 2053 2053 2053 2053 2053 2053 2053 2053 2053 2053 2053 2053 2053 2053 2053 2053 2065 2065 2065 2078 2078 2065 2065 2065 2065 2065 2065 2065 2065 2065 2065 2065 2078 2078 2078 2078 2078 2078 2078 2078 2078 2078 2090 2090 2090 2090 2090 2090 2090 2090 2090 2090 2090 2090 2090 2090 2090 2090 2090 2090 2090 2090 1766 1766 1766 1757 1757 1766 1663 1663 1663 1655 1655 1663 1663 1663 1663 1663 1671 1671 1671 1671 1680 1680 1671 1671 1671 2116 2116 2116 2103 2103 2116 2116 2116 2129 2129 2129 1853 1853 1853 1863 1863 1863 1863 1873 1883 1883 1894 1894 1894 1894 1894 1894 2129 2129 2129 2129 2129 2129 2129 2129 2116 2103 2090 2090 2090 2090 2090 2090 2090 2090 2103 2103 2116 2129 2129 2129 2129 2129 2116 2116 2116 2116 2116 2103 2090 2090 2090 2090 2103 1543 1543 1550 1550 1550 1550 1550 1550 1550 1550 1550 1550 1550 1550 1557 1557 1564 1564 1564 1564 2156 2143 2143 2156 2156 2156 2156 2156 2156 2156 2156 2156 2156 2156 2156 2156 2170 2170 2170 2170 2170 2170 2170 2170 2170 2170 2170 2170 2170 2184 2184 1421 1421 1415 1415 1415 1415 1415 1415 1410 1410 1410 1410 1410 1410 1415 1415 1415 1415 1415 1415 1415 1415 1410 1410 1410 1410 1404 1398 1398 1398 1392 1392 1392 1392 1387 1387 1387 1387 1387 1387 1381 1381 1376 1376 1376 1370 1370 1370 1370 1370 1365 1365 1365 1365 1365 1365 1359 1359 1359 1359 1359 1359 1359 1359 1359 1359 1359 1359 1359 1359 1359 1359 1359 1359 1359 1359 1359 1354 1354 1354 1354 1354 1354 1354 1354 1359 1359 1359 1359 1365 1359 1359 1359 1359 1359 1365 1365 1365 1365 1365 1365 1365 1365 1365 1365 1365 1365 1365 1365 1365 1365 1365 1365 1273 1268 1268 1268 1268 1268 1268 1264 1264 1264 1264 1264 1264 1264 1264 1264 1264 1264 1359 1359 1359 1359 1365 1365 1365 1365 1365 1370 1370 1376 1381 1387 1655 1655 1655 1655 1647 1647 1647 1647 1647 1647 1639 1639 1639 1632 1632 1632 1632 1624 1624 2198 2198 2198 2212 2212 2212 2212 2212 2212 2212 2212 2212 2212 2212 2212 2212 2212 2212 2212 2212 2212 2212 2212 2212 1713 1713 1713 1713 1713 1713 1713 1705 1696 1696 1696 1696 1696 1688 1688 1688 1688 2198 2198 2198 2198 2198 2212 2212 2212 2212 2212 0 2212 0 1288 1288 1288 1288 1288 1288 1283 1283 1283 1278 1278 1278 1278 1278 1278 1278 1278 1278 1278 1278 1278 1278 1278 1278 1278 1278 1278 1278 1273 1273 1273 1273 1273 1273 1268 1268 1268 1268 1264 1264 1264 1264 1264 1264 2226 2226 2241 2226 2226 2241 2241 2241 2241 2241 2241 2241 2241 2241 2241 2241 2241 2226 2212 2212 2212 2212 2212 2212 2212 2212 2226 2226 2226 2226 2226 2226 2226 2226 2226 2226 2226 2212 2212 2212 2212 2226 2226 2226 2226 2226 2226 2212 2212 2212 2212 2212 2212 2212 2212 2226 2226 2226 2226 2226 2226 2226 2226 2226 0 0 0 0 0 0 0 0 0
0 0 0 0 0 0 0 0 0 0 0 0 0 0 0 0 0 0 0 0 0 0 0 0 0 0 0 0 0 0 0 0 0 0 2016 2016 2016 2016 2005 2005 2005 2016 2016 2028 2028 2028 2028 2028 2028 2028 2028 2016 2016 2028 2028 2028 2016 2016 2016 2016 2016 2016 2016 2016 2016 2016 2016 2016 2028 2028 2016 2005 2005 2016 2016 2016 2016 2016 2028 2028 2040 2040 2040 2040 2040 2040 2040 2040 2040 2040 2040 2040 2040 2040 2040 2040 2040 2040 2040 2040 2040 2040 2040 2040 2040 2040 2040 2040 2040 2040 2040 2040 2040 2053 2053 2053 2053 2053 2053 2065 2065 2065 2065 2065 2065 2065 2065 2053 2053 2065 2065 2065 2065 2065 2065 2078 2078 2078 2065 2065 2078 2078 2065 2065 2078 2078 2090 2090 2090 2090 2090 2090 2090 2090 2090 2090 2090 2078 2078 2090 2090 2090 2090 2078 2078 1766 1766 1766 1757 1757 1766 1671 1663 1663 1655 1655 1663 1663 1663 1663 1663 1671 1671 1671 1671 1680 1680 1671 1671 1671 2090 2103 2103 2103 2103 2116 2116 2116 2116 2116 1843 1843 1843 1853 1853 1863 1863 1863 1873 1883 1883 1894 1894 1894 1894 2129 2129 2129 2129 2129 2129 2129 2129 2129 2116 2116 2103 2090 2090 2090 2090 2090 2090 2090 2090 2103 2103 2116 2129 2129 2129 2129 2116 2116 2116 2116 2116 2116 2103 2103 2103 2103 2103 2103 1543 1543 1543 1550 1550 1550 1550 1550 1550 1550 1550 1550 1550 1557 1557 1564 1564 1572 1572 2116 2129 2129 2129 2143 2143 2143 2143 2129 2129 2129 2129 2129 2143 2143 2143 2143 2143 2156 2156 2156 2170 2170 2170 2170 2170 2156 2156 2170 2170 2184 2184 1421 1421 1421 1415 1415 1415 1415 1415 1410 1410 1410 1410 1410 1415 1415 1415 1421 1421 1415 1415 1415 1415 1410 1410 1410 1410 1404 1404 1404 1398 1392 1392 1392 1392 1392 1387 1387 1387 1387 1387 1387 1381 1381 1381 1376 1376 1370 1370 1370 1370 1365 1365 1365 1365 1365 1365 1359 1359 1359 1359 1359 1359 1354 1354 1354 1354 1354 1354 1354 1354 1354 1354 1354 1354 1354 1354 1354 1349 1349 1349 1349 1349 1349 1349 1349 1354 1354 1354 1354 1359 1354 1354 1354 1354 1354 1359 1359 1359 1359 1365 1359 1359 1359 1359 1359 1359 1359 1359 1359 1359 1365 1365 1278 1273 1273 1273 1273 1273 1268 1268 1264 1264 1264 1264 1264 1264 1264 1264 1264 1264 1264 1354 1354 1354 1359 1359 1365 1365 1365 1365 1365 1365 1376 1376 1655 1655 1655 1655 1647 1647 1647 1647 1647 1647 1647 1647 1647 1639 1639 1639 1632 1632 1632 1632 2198 2198 2198 2198 2198 2212 2198 2198 2212 2212 2212 2212 2212 2212 2212 2212 2212 2212 2212 2212 2212 2212 2212 2212 1713 1713 1713 1713 1713 1713 1713 1705 1696 1696 1696 1696 1688 1688 1688 1688 1688 2184 2198 2198 2198 2198 2198 2198 2212 2198 2198 2198 0 0 1288 1288 1288 1288 1288 1288 1283 1283 1283 1278 1278 1278 1278 1278 1278 1278 1278 1278 1278 1278 1278 1278 1278 1278 1278 1278 1278 1278 1278 1273 1273 1273 1273 1273 1268 1268 1268 1268 1264 1264 1264 1264 1264 1264 2226 2226 2226 2226 2226 2226 2241 2241 2241 2241 2241 2241 2241 2241 2241 2226 2226 2212 2212 2198 2198 2198 2212 2212 2212 2212 2212 2212 2212 2212 2212 2212 2226 2212 2212 2212 2212 2212 2212 2212 2212 2212 2212 2212 2212 2212 2212 2212 2212 2212 2212 2212 2212 2212 2212 2226 2226 2226 2226 2226 2226 2226 2212 2212 0 0 0 0 0 0 0 0 0
0 0 0 0 0 0 0 0 0 0 0 0 0 0 0 0 0 0 0 0 0 0 0 0 0 0 0 0 0 0 0 0 0 0 2005 2005 2016 2016 2005 2005 2005 2016 2016 2016 2016 2016 2016 2016 2016 2028 2016 2016 2016 2016 2016 2016 2016 2016 2016 2016 2016 2016 2016 2016 2016 2016 2016 2016 2016 2016 2005 2005 2005 2005 2005 2016 2016 2016 2016 2016 2028 2016 2016 2016 2016 2028 2028 2028 2028 2028 2028 2028 2028 2040 2040 2040 2040 2040 2040 2040 2040 2040 2040 2040 2040 2040 2040 2040 2040 2040 2040 2040 2040 2040 2040 2040 2040 2040 2040 2040 2065 2065 2065 2065 2053 2053 2053 2053 2053 2053 2053 2053 2065 2065 2065 2065 2065 2065 2065 2065 2065 2065 2065 2065 2065 2065 2065 2078 2078 2078 2078 2078 2078 2078 2090 2090 2078 2078 2078 2078 2078 2078 2078 2065 2065 2078 1766 1766 1757 1757 1766 1671 1671 1663 1663 1663 1663 1663 1663 1663 1671 1671 1671 1680 1680 1680 1680 1680 2090 2090 2090 2090 2103 2103 2103 2103 2103 2116 1823 1823 1833 1833 1833 1843 1853 1853 1863 1863 1873 1873 1883 1883 1894 1894 1894 2116 2116 2116 2116 2116 2116 2116 2116 2116 2116 2103 2103 2090 2090 2090 2090 2090 2090 2090 2090 2103 2103 2116 2129 2129 2129 2129 2116 2116 2116 2116 2116 2116 2103 2103 2103 2103 2103 2103 2103 1543 1543 1550 1550 1550 1550 1550 1550 1550 1550 1550 1557 1557 1564 1564 1564 1572 1579 2116 2129 2129 2129 2129 2129 2129 2129 2129 2129 2129 2129 2129 2129 2129 2129 2143 2143 2143 2143 2143 2143 2143 2143 2143 2143 2143 2143 2143 2156 2170 2170 1421 1421 1421 1415 1415 1415 1415 1415 1415 1415 1415 1415 1415 1415 1415 1415 1421 1415 1415 1415 1415 1415 1415 1415 1415 1415 1410 1404 1404 1398 1398 1392 1392 1392 1392 1387 1387 1387 1387 1387 1387 1381 1381 1381 1381 1376 1370 1370 1370 1370 1365 1365 1365 1365 1365 1365 1359 1359 1359 1359 1359 1359 1354 1354 1354 1354 1354 1354 1349 1349 1349 1349 1349 1354 1354 1349 1349 1349 1349 1349 1349 1349 1349 1349 1349 1349 1349 1349 1349 1349 1349 1349 1349 1349 1349 1354 1354 1354 1354 1359 1359 1359 1359 1354 1354 1354 1354 1359 1359 1359 1359 1359 1278 1278 1278 1273 1273 1273 1273 1273 1268 1268 1268 1268 1264 1264 1264 1264 1264 1264 1264 1349 1349 1349 1354 1354 1354 1359 1359 1359 1365 1365 1365 1647 1655 1655 1655 1655 1647 1647 1647 1647 1647 1647 1647 1647 1647 1639 1639 1639 1632 1632 1632 1632 2198 2198 2198 2198 2198 2198 2198 2198 2198 2198 2198 2198 2198 2198 2212 2212 2212 2212 2198 2198 2198 2198 2198 2198 1713 1713 1713 1713 1713 1713 1713 1705 1696 1696 1696 1696 1688 1688 1688 2184 2184 2184 2184 2184 2184 2198 2198 2198 2198 2198 2198 0 0 0 0 1288 1288 1288 1288 1288 1283 1283 1278 1278 1278 1278 1278 1278 1278 1278 1278 1278 1278 1278 1278 1278 1278 1278 1278 1278 1278 1278 1278 1273 1273 1273 1273 1273 1268 1268 1268 1268 1268 1264 1264 1264 1264 2226 2212 2212 2212 2212 2212 2212 2226 2226 2226 2226 2226 2226 2226 2226 2226 2226 2226 2212 2198 2198 2198 2198 2198 2212 2198 2198 2212 2212 2212 2198 2198 2198 2212 2212 2212 2212 2212 2212 2212 2198 2198 2198 2198 2198 2198 2198 2212 2198 2198 2212 2212 2212 2212 2212 2212 2212 2212 2212 2212 2212 2212 2212 2198 2198 0 0 0 0 0 0 0 0 0
0 0 0 0 0 0 0 0 0 0 0 0 0 0 0 0 0 0 0 0 0 0 0 0 0 0 0 0 0 0 0 0 0 0 2005 2005 2005 2005 2005 2005 2005 2016 2016 2016 2016 2016 2016 2016 2016 2016 2016 2005 2005 2016 2016 2016 2016 2016 2016 2016 2016 2016 2016 2005 2005 2005 2016 2005 2005 2005 2005 2005 2005 2005 2005 2005 2005 2016 2016 2016 2016 2016 2016 2016 2016 2016 2016 2016 2016 2016 2016 2016 2016 2028 2028 2028 2040 2040 2040 2040 2040 2040 2040 2040 2040 2040 2040 2028 2028 2028 2040 2040 2040 2040 2040 2040 2040 2040 2040 2040 2053 2053 2053 2053 2053 2053 2053 2053 2053 2053 2053 2053 2053 2053 2053 2053 2053 2053 2053 2065 2065 2065 2065 2053 2053 2053 2065 2053 2053 2053 2065 2078 2078 2078 2078 2078 2078 2078 2065 2065 2078 2078 2065 2065 2065 2078 2078 1766 1766 1766 1766 1671 1671 1663 1663 1663 1663 1663 1671 1671 1671 1671 1680 1680 1680 1680 1680 1680 2078 2090 2090 2090 2090 2090 2103 2103 2103 2103 1823 1823 1833 1833 1833 1843 1853 1853 1853 1863 1863 1873 1873 1883 1894 2103 2103 2103 2103 2103 2116 2103 2103 2103 2103 2103 2103 2103 2103 2090 2090 2090 2090 2090 2090 2090 2090 2103 2103 2116 2116 2116 2129 2129 2116 2116 2116 2116 2116 2103 2103 2103 2103 2103 2103 2103 2103 2103 1550 1550 1550 1550 1550 1550 1550 1550 1550 1550 1557 1557 1564 1572 1572 1572 1579 2116 2116 2116 2129 2129 2129 2129 2129 2116 2116 2129 2129 2129 2129 2129 2129 2129 2143 2143 2143 2143 2143 2143 2143 2143 2129 2129 2143 2143 2156 2170 2170 1421 1421 1421 1415 1415 1415 1415 1415 1415 1415 1415 1415 1415 1415 1415 1415 1421 1415 1415 1415 1415 1415 1415 1415 1415 1415 1410 1404 1404 1404 1398 1398 1392 1392 1392 1392 1392 1392 1387 1387 1387 1387 1387 1381 1381 1376 1376 1376 1370 1370 1370 1365 1365 1365 1365 1365 1359 1359 1359 1359 1354 1354 1354 1354 1354 1349 1349 1349 1349 1349 1349 1349 1349 1349 1349 1349 1349 1349 1349 1343 1343 1343 1343 1343 1343 1343 1343 1343 1349 1349 1349 1349 1349 1349 1349 1349 1349 1349 1354 1354 1354 1354 1354 1354 1354 1349 1349 1354 1354 1354 1354 1359 1278 1278 1278 1278 1278 1273 1273 1273 1273 1268 1268 1268 1264 1264 1264 1264 1264 1264 1264 1343 1343 1343 1349 1349 1354 1354 1354 1354 1359 1359 1359 1647 1647 1647 1655 1655 1655 1647 1647 1647 1647 1647 1647 1647 1647 1639 1639 1639 1632 1632 1632 1632 2198 2198 2198 2198 2198 2198 2198 2198 2198 2198 2198 2198 2198 2198 2198 2198 2198 2198 2198 2198 2184 2184 2198 1713 1713 1713 1713 1713 1713 1713 1713 1705 1696 1696 1696 1696 1696 1696 1696 2184 2184 2184 2184 2184 2184 2184 2198 2198 2198 2198 2212 2212 0 0 0 1288 1288 1288 1288 1283 1283 1283 1278 1278 1278 1278 1278 1278 1278 1278 1278 1278 1278 1278 1278 1278 1278 1278 1278 1278 1278 1278 1278 1278 1278 1273 1273 1273 1273 1273 1273 1273 1268 1268 1268 1268 1268 2212 2212 2212 2198 2198 2198 2212 2212 2212 2212 2212 2226 2226 2226 2226 2226 2212 2212 2212 2198 2198 2198 2198 2198 2198 2198 2198 2198 2198 2198 2198 2198 2198 2198 2198 2198 2198 2198 2198 2184 2184 2184 2184 2198 2198 2198 2198 2198 2198 2198 2212 2198 2198 2212 2198 2198 2198 2212 2212 2212 2212 2212 2198 2198 2198 0 0 0 0 0 0 0 0 0
0 0 0 0 0 0 0 0 0 0 0 0 0 0 0 0 0 0 0 0 0 0 0 0 0 0 0 0 0 0 0 0 0 0 1993 1993 1993 1993 1993 1993 2005 2005 2005 2005 2005 2005 2005 2005 2005 2005 2005 2005 2005 2005 2005 2005 2016 2016 2016 2016 2016 2016 2005 2005 2005 2005 2005 2005 2005 2005 1993 1993 1993 1993 1993 2005 2005 2005 2005 2005 2005 2005 2005 2005 2005 2005 2005 2005 2005 2016 2016 2016 2016 2016 2028 2028 2028 2028 2028 2028 2040 2040 2040 2028 2028 2028 2028 2028 2028 2028 2028 2028 2028 2040 2040 2040 2040 2040 2040 2040 2040 2040 2053 2053 2040 2040 2040 2040 2040 2040 2053 2053 2053 2053 2053 2053 2053 2053 2053 2053 2053 2053 2053 2053 2053 2053 2053 2053 2053 2053 2053 2053 2053 2065 2065 2065 2065 2065 2053 2053 2065 2065 2065 2065 2065 2065 2065 1766 1766 1766 1766 1671 1671 1663 1663 1663 1663 1663 1671 1671 1671 1671 1680 1680 1680 1680 1680 1680 1680 2090 2090 2090 2090 2090 2103 2103 1813 1813 1823 1823 1833 1833 1833 1843 1843 1853 1853 1863 1863 1863 1873 2090 2090 2090 2090 2103 2103 2103 2103 2103 2103 2103 2103 2103 2103 2103 2103 2078 2078 2090 2090 2090 2090 2090 2090 2103 2103 2103 2116 2116 2116 2116 2103 2103 2103 2103 2103 2103 2103 2103 2103 2103 2103 2103 2103 1550 1550 1550 1550 1550 1550 1550 1550 1550 1550 1550 1557 1564 1564 1572 1572 1572 1586 2103 2116 2116 2116 2116 2116 2116 2116 2116 2116 2116 2116 2129 2129 2129 2129 2129 2129 2143 2129 2129 2129 2129 2129 2129 2129 2129 2129 2129 2143 2143 1421 1421 1421 1421 1415 1415 1415 1415 1415 1415 1415 1415 1415 1415 1415 1415 1421 1421 1415 1415 1415 1415 1415 1415 1415 1415 1415 1410 1410 1404 1404 1398 1398 1392 1392 1392 1392 1392 1392 1387 1387 1387 1387 1387 1387 1387 1387 1381 1381 1381 1370 1370 1370 1370 1370 1365 1365 1365 1359 1359 1359 1354 1354 1354 1354 1354 1349 1349 1349 1349 1349 1349 1349 1349 1349 1349 1349 1343 1343 1343 1343 1343 1343 1343 1343 1343 1343 1343 1343 1343 1343 1343 1343 1343 1343 1343 1343 1349 1349 1349 1349 1349 1349 1349 1349 1349 1349 1349 1349 1349 1349 1349 1354 1283 1278 1278 1278 1278 1278 1273 1273 1273 1268 1268 1268 1264 1264 1264 1264 1264 1264 1343 1343 1343 1343 1343 1349 1349 1349 1349 1349 1359 1359 0 1647 1647 1647 1655 1655 1655 1655 1647 1647 1647 1647 1647 1647 1647 1639 1639 1639 1639 1639 1639 1639 2184 2184 2184 2184 2184 2184 2184 2184 2184 2184 2184 2184 2198 2198 2198 2198 2184 2184 2184 2184 2170 2170 2170 1713 1713 1722 1713 1713 1713 1713 1713 1705 1705 1705 1705 1696 1696 1696 1696 2184 2184 2184 2184 2184 2184 2184 2184 2184 2184 2198 2198 2198 0 0 0 1288 1288 1288 1288 1283 1283 1283 1278 1278 1278 1278 1278 1278 1283 1283 1283 1278 1278 1278 1278 1278 1278 1278 1278 1278 1278 1278 1278 1278 1278 1278 1273 1273 1273 1273 1273 1273 1273 1273 1273 1273 1273 2198 2198 2198 2198 2198 2198 2198 2198 2198 2212 2212 2212 2212 2212 2212 2212 2212 2212 2212 2184 2184 2184 2184 2184 2184 2184 2184 2184 2184 2184 2184 2184 2184 2184 2184 2184 2184 2184 2184 2184 2184 2184 2184 2184 2184 2184 2184 2198 2198 2198 2184 2184 2184 2184 2184 2184 2184 2198 2198 2198 2198 2198 2184 2184 2198 0 0 0 0 0 0 0 0 0
0 0 0 0 0 0 0 0 0 0 0 0 0 0 0 0 0 0 0 0 0 0 0 0 0 0 0 0 0 0 0 0 0 0 1981 1981 1981 1993 1993 1993 2005 2005 2005 2005 2005 2005 2005 2005 2005 2005 1993 1993 2005 2005 2005 2005 2005 2005 2005 2005 2005 2005 2005 2005 2005 2005 2005 2005 2005 2005 1993 1993 1993 1993 1993 1993 1993 2005 2005 2005 2005 2005 2005 2005 2005 2005 2005 2005 2005 2005 2005 2005 2016 2016 2016 2016 2016 2016 2016 2016 2016 2016 2016 2016 2016 2016 2016 2016 2016 2028 2028 2028 2028 2040 2040 2040 2028 2028 2028 2028 2040 2040 2040 2040 2040 2040 2040 2040 2040 2040 2040 2040 2053 2053 2053 2053 2053 2053 2053 2053 2053 2040 2040 2040 2040 2040 2040 2040 2040 2040 2040 2053 2053 2053 2065 2065 2053 2053 2053 2053 2065 2053 2053 2053 2053 2065 2065 2065 2078 1776 1776 1671 1671 1663 1663 1663 1663 1663 1671 1671 1671 1671 1680 1680 1680 1688 1688 1680 1680 2078 2090 2090 2090 2090 2103 2103 1813 1813 1823 1823 1823 1833 1833 1843 1843 1853 1853 1853 1863 1863 2078 2078 2078 2090 2090 2090 2090 2090 2090 2090 2090 2090 2090 2090 2090 2090 2090 2078 2078 2090 2090 2090 2090 2090 2090 2090 2103 2103 2103 2103 2116 2116 2103 2103 2103 2103 2103 2103 2103 2103 2103 2103 2103 2116 2116 1550 1550 1550 1550 1550 1550 1550 1550 1550 1550 1557 1557 1564 1564 1572 1572 1579 1594 2090 2103 2103 2116 2116 2116 2116 2116 2116 2116 2116 2116 2116 2116 2116 2129 2129 2129 2129 2129 2129 2129 2129 2129 2129 2129 2129 2129 2129 2143 2143 1421 1421 1421 1421 1421 1421 1421 1415 1415 1415 1415 1415 1415 1415 1415 1415 1421 1421 1421 1421 1415 1415 1415 1415 1415 1415 1415 1410 1410 1410 1404 1404 1398 1398 1398 1398 1398 1392 1392 1392 1392 1392 1387 1387 1387 1387 1387 1387 1381 1381 1381 1370 1370 1370 1370 1370 1365 1365 1365 1365 1359 1359 1359 1354 1354 1354 1349 1349 1349 1349 1349 1349 1349 1349 1349 1343 1343 1343 1343 1343 1343 1343 1343 1338 1338 1338 1338 1338 1338 1338 1338 1338 1338 1338 1343 1343 1343 1343 1343 1343 1343 1343 1343 1343 1343 1343 1343 1343 1343 1343 1343 1343 1343 1283 1278 1278 1278 1278 1278 1278 1278 1273 1273 1273 1268 1268 1264 1264 1264 1264 1264 1338 1338 1338 1338 1343 1343 1343 1343 1343 1343 0 0 0 0 1655 1655 1655 1655 1647 1647 1647 1647 1647 1647 1647 1647 1647 1639 1639 1639 1639 1639 1639 1639 1647 2184 2184 2184 2184 2184 2184 2184 2184 2184 2184 2184 2184 2184 2184 2184 2184 2184 2170 2170 2170 2170 2170 1722 1722 1722 1713 1713 1713 1713 1713 1705 1705 1705 1705 1696 1696 1696 1696 2170 2170 2170 2170 2170 2170 2170 2184 2184 2184 2198 2198 2198 0 0 0 1288 1288 1288 1288 1288 1283 1283 1283 1278 1278 1278 1278 1283 1283 1283 1283 1278 1278 1278 1278 1278 1278 1278 1278 1278 1278 1278 1278 1278 1278 1278 1273 1273 1273 1273 1273 1273 1273 1273 1273 1273 2198 2198 2198 2198 2184 2184 2184 2198 2198 2198 2198 2198 2212 2212 2212 2212 2212 2198 2198 2198 2184 2184 2184 2184 2184 2184 2184 2184 2184 2184 2170 2170 2184 2184 2184 2184 2184 2184 2184 2184 2170 2170 2184 2184 2184 2184 2184 2184 2184 2184 2184 2184 2184 2184 2184 2184 2184 2184 2184 2184 2184 2184 2184 2184 2184 2184 0 0 0 0 0 0 0 0 0
0 0 0 0 0 0 0 0 0 0 0 0 0 0 0 0 0 0 0 0 0 0 0 0 0 0 0 0 0 0 0 0 0 0 1981 1981 1981 1981 1981 1981 1993 1993 2005 1993 1993 1993 1993 1993 1993 1993 1993 1993 2005 2005 2005 2005 2005 2005 2005 2005 2005 2005 2005 2005 2005 2005 2005 2005 2005 2005 1993 1993 1993 1993 1993 1993 1993 1993 1993 1993 1993 1993 1993 2005 2005 2005 2005 2005 2005 2005 2005 2005 2005 2005 2016 2016 2016 2016 2016 2016 2005 2005 2016 2016 2005 2005 2016 2016 2016 2016 2028 2028 2016 2016 2028 2028 2028 2016 2016 2028 2028 2028 2028 2028 2028 2028 2040 2040 2040 2040 2040 2040 2040 2040 2040 2040 2040 2040 2053 2053 2040 2040 2040 2040 2040 2040 2040 2040 2040 2040 2040 2040 2040 2053 2053 2053 2040 2040 2053 2053 2053 2053 2040 2040 2040 2053 2053 1776 1776 1766 1766 1671 1671 1663 1663 1663 1671 1671 1671 1671 1671 1671 1680 1680 1680 1688 1688 1688 1688 2078 2090 2090 2090 2090 1813 1813 1813 1813 1823 1823 1823 1833 1833 1833 1843 1843 1853 1853 1853 1853 2065 2078 2078 2078 2078 2078 2090 2090 2090 2090 2090 2090 2090 2090 2090 2090 2078 2078 2078 2078 2078 2090 2090 2090 2090 2090 2103 2103 2103 2103 2103 2103 2090 2090 2078 2078 2090 2090 2090 2103 2103 2103 2103 2116 2116 1550 1550 1550 1550 1550 1550 1550 1557 1557 1557 1557 1557 1564 1572 1572 1579 1579 1594 2090 2090 2090 2103 2103 2103 2116 2103 2103 2103 2116 2116 2116 2116 2116 2116 2116 2116 2116 2116 2129 2129 2129 2129 2129 2116 2116 2116 2129 2156 2156 1421 1421 1421 1421 1421 1421 1421 1421 1421 1415 1415 1415 1415 1415 1415 1415 1421 1421 1421 1421 1415 1415 1415 1415 1415 1415 1415 1410 1410 1410 1404 1404 1398 1398 1398 1398 1398 1392 1392 1392 1392 1392 1392 1392 1387 1387 1387 1387 1381 1381 1381 1376 1376 1376 1376 1370 1370 1370 1370 1370 1365 1365 1359 1354 1354 1354 1354 1354 1354 1349 1349 1349 1349 1349 1349 1343 1343 1343 1343 1343 1343 1338 1338 1338 1338 1338 1333 1333 1333 1333 1333 1333 1333 1333 1333 1333 1328 1328 1333 1333 1333 1333 1333 1333 1333 1333 1333 1338 1338 1338 1338 1328 1328 1283 1283 1278 1278 1278 1278 1278 1278 1273 1273 1273 1268 1268 1268 1268 1264 1264 1264 1338 1338 1338 1338 1338 1343 1343 1343 1343 1343 0 0 0 0 1647 1647 1647 1655 1647 1647 1647 1647 1647 1647 1647 1647 1647 1639 1639 1639 1639 1639 1639 1639 1639 2170 2170 2170 2170 2170 2170 2170 2170 2170 2170 2170 2170 2170 2170 2170 2170 2170 2170 2170 2170 2170 2170 1722 1722 1722 1722 1713 1713 1713 1713 1705 1705 1705 1705 1705 1705 1705 1705 2170 2170 2170 2156 2156 2156 2170 2170 2170 2184 2184 2198 2198 0 0 0 1288 1288 1288 1288 1288 1288 1288 1283 1283 1283 1283 1283 1283 1283 1283 1283 1283 1278 1278 1278 1278 1278 1278 1278 1278 1278 1278 1278 1278 1278 1278 1273 1273 1273 1273 1273 1273 1273 1273 1273 1273 2198 2198 2198 2198 2184 2184 2184 2198 2198 2198 2198 2198 2198 2198 2198 2198 2198 2198 2198 2184 2170 2170 2170 2170 2170 2170 2170 2170 2184 2170 2170 2170 2170 2170 2170 2170 2170 2170 2170 2170 2170 2170 2170 2170 2170 2170 2170 2170 2170 2170 2170 2170 2170 2170 2170 2170 2170 2184 2170 2170 2184 2184 2184 2184 2184 2184 0 0 0 0 0 0 0 0 0
