0 0 0 0 0 0 0 0 0 0 0 0 0 0 0 0 0 0 0 0 0 0 0 0 0 0 0 0 0 0 0 0 0 2415 2415 2415 2415 2415 2415 2398 2398 2398 2398 2398 2398 2398 2398 2415 2415 2415 2415 2415 2415 2415 2415 2415 2415 2415 2415 2415 2415 2415 2415 2415 2415 2398 2398 2398 2398 2398 2398 2398 2398 2398 2398 2415 2415 2415 2415 2415 2432 2432 2432 2432 2432 2432 2432 2415 2415 2432 2432 2432 2432 2432 2415 2415 2415 2415 2432 2432 2432 2450 2450 2450 2450 2450 2450 2450 2450 1616 1616 1616 1616 1624 1624 1616 1616 1616 1572 1557 1550 1543 1543 1543 1543 1543 1543 1550 1550 1557 1557 1557 1557 1557 1564 1564 1564 1564 1564 1564 1564 1564 1564 1564 1572 1572 1572 1572 1572 1572 1572 1572 1572 1572 1572 1572 1564 1557 1557 1557 1557 1557 1557 1557 1557 1557 1557 1557 1557 1557 1557 1564 1564 1564 1564 1564 1572 1572 1564 1564 1564 1564 1564 1564 1564 1564 1564 1564 1564 1564 1557 1557 1557 1564 1564 1564 1564 1564 1564 1564 1564 1564 1564 1564 1564 1564 1564 1564 1564 1564 1557 1557 1564 1564 1557 1503 1503 1503 1496 1496 1503 1503 1503 1503 1503 1503 1503 1509 1509 1516 1523 1536 1543 1550 1557 1572 1579 1579 1594 1601 1609 1609 1616 1632 1632 1639 1663 1671 1671 1680 1688 1696 1696 2467 2467 2467 2485 2485 2485 2485 2485 2485 2485 2485 1904 1894 1894 1904 1904 1904 1904 1904 1392 1392 1392 1387 1387 1392 1392 1392 1392 1392 1392 1392 1398 1398 1398 1404 1398 1398 1557 1550 1550 1550 1550 1550 1550 1550 1550 1550 1550 1550 1550 1550 1557 1557 1557 1557 1557 1557 1550 1550 1557 1557 1557 1557 1557 1557 1557 1557 1557 1557 1557 1557 1557 1564 1564 1564 1564 1557 1557 1550 1550 1550 1550 1550 1550 1550 1550 1550 1550 1550 1550 1550 1550 1550 1543 1543 1543 1543 1543 1550 1550 1550 1550 1550 1557 1557 1557 1557 1557 1557 1557 1557 1557 1557 1557 1557 1557 1557 1557 1557 1557 1557 1557 1557 1557 1557 1557 1557 1557 1557 1564 1564 1557 1557 1557 1557 1328 1328 1328 1328 1328 1328 1328 1328 1328 1328 1328 1328 1328 1328 1333 1550 1550 1550 1550 1550 1557 1564 1564 1564 1572 1572 1766 1766 2485 2485 2485 2485 2467 2467 2467 2485 2467 2467 2467 2271 2256 2212 2212 2198 2184 2184 2184 2184 2184 1863 1863 1853 1853 1853 1853 1853 1853 1853 1853 1843 1833 1833 2450 2450 2450 2450 2467 2467 2467 2156 2156 2156 2156 2156 2156 2156 2156 2156 2156 2156 2156 2170 2467 2467 2467 2467 2467 2485 2485 2485 0 0 1421 1415 1415 1415 1415 1415 1421 1415 1415 1415 1421 1421 1415 1415 1415 1415 1421 1415 1415 1415 1415 1415 1415 1415 1415 1415 1410 1410 1415 1421 1421 1421 1421 1427 2415 2415 2415 2432 2432 2432 2432 2432 2432 2432 2432 2432 2432 2450 2450 2450 2450 2450 2450 2450 2450 2450 2450 2450 2450 2450 2450 2450 2450 2450 2450 2432 2432 2432 2432 2432 2432 2432 2432 2432 2432 2432 2450 2450 2450 2450 2450 2450 2450 2450 2450 2450 2450 2450 2450 2450 2450 2450 2450 2450 2450 2450 2450 2450 2450 2450 2450 2450 2450 2450 2450 2450 2450 2450 2450 2432 2415 2415 2415 2415 2415 2415 2415 2415 2415 2415 2415 2415 2415 2415 2415 2398 2398 2415 2415 2415 2415 2415 2415 2415 2415 2415 2415 2415 2415 2415 2398 2398 2415 2398 2398 2398 2398 2398 2398 2398 0 0 0 0 0 0 0 0 0 0
0 0 0 0 0 0 0 0 0 0 0 0 0 0 0 0 0 0 0 0 0 0 0 0 0 0 0 0 0 0 0 0 0 2415 2415 2415 2415 2415 2415 2398 2398 2398 2381 2381 2398 2398 2398 2398 2398 2415 2415 2415 2415 2415 2415 2415 2415 2415 2415 2415 2398 2398 2415 2415 2415 2398 2398 2398 2398 2398 2398 2398 2398 2398 2398 2398 2398 2398 2415 2415 2415 2415 2415 2415 2415 2415 2415 2415 2415 2415 2415 2415 2415 2415 2415 2415 2415 2415 2432 2432 2432 2432 2450 2432 2432 2432 2432 2432 2432 1616 1616 1616 1616 1624 1624 1624 1624 1616 1616 1564 1550 1543 1543 1550 1550 1550 1550 1557 1557 1557 1557 1557 1557 1557 1564 1564 1564 1564 1564 1564 1564 1564 1564 1564 1564 1564 1564 1564 1564 1564 1564 1564 1564 1564 1564 1564 1557 1557 1557 1557 1557 1557 1550 1550 1557 1550 1550 1550 1550 1550 1550 1550 1550 1550 1557 1557 1557 1557 1557 1557 1557 1557 1557 1557 1557 1557 1557 1557 1557 1557 1550 1550 1550 1550 1557 1557 1557 1557 1557 1557 1557 1557 1557 1557 1557 1557 1564 1564 1557 1557 1557 1557 1557 1557 1557 1509 1503 1503 1496 1496 1503 1503 1503 1503 1503 1503 1503 1509 1509 1516 1523 1536 1543 1550 1557 1564 1572 1579 1594 1601 1609 1616 1624 1632 1632 1639 1663 1671 1671 1671 1671 2432 2432 2450 2467 2467 2467 2467 2467 2467 2467 2467 2467 2467 1904 1904 1904 1904 1904 1904 1904 1904 1392 1392 1392 1392 1392 1392 1392 1392 1392 1392 1392 1398 1398 1398 1404 1404 1398 1398 1550 1550 1550 1550 1550 1550 1550 1550 1550 1550 1550 1550 1550 1550 1550 1550 1550 1550 1550 1550 1550 1550 1550 1550 1550 1557 1557 1557 1557 1550 1550 1550 1550 1550 1550 1557 1557 1557 1557 1557 1550 1543 1543 1543 1543 1543 1543 1543 1550 1550 1550 1550 1550 1550 1550 1543 1543 1543 1543 1543 1543 1543 1543 1543 1543 1550 1550 1550 1557 1557 1557 1557 1550 1550 1550 1550 1550 1550 1557 1557 1557 1550 1550 1550 1550 1550 1550 1550 1550 1550 1550 1550 1557 1557 1550 1550 1550 1550 1333 1333 1333 1333 1333 1333 1328 1328 1328 1328 1328 1328 1328 1328 1333 1543 1543 1543 1543 1543 1550 1550 1550 1550 1557 1766 1766 1766 1766 2467 2467 2467 2467 2467 2467 2467 2450 2450 2450 2317 2212 2212 2212 2184 2184 2184 2184 2184 2198 1863 1863 1853 1853 1853 1853 1853 1853 1853 1853 1853 1833 1833 2198 2450 2450 2450 2450 2467 2467 2170 2170 2170 2156 2156 2156 2156 2156 2170 2156 2156 2156 2170 2467 2467 2467 2467 2467 2467 2467 2485 2485 0 1421 1421 1415 1415 1415 1415 1421 1415 1415 1421 1421 1421 1421 1421 1421 1421 1421 1415 1415 1415 1415 1415 1415 1415 1415 1415 1410 1410 1415 1415 1421 1421 1421 1421 2398 2398 2398 2415 2415 2432 2432 2432 2432 2432 2432 2432 2432 2432 2432 2450 2450 2432 2432 2432 2432 2432 2432 2432 2432 2450 2450 2450 2432 2432 2450 2432 2432 2432 2432 2432 2432 2432 2432 2432 2432 2432 2432 2432 2432 2432 2432 2432 2432 2432 2432 2432 2450 2432 2432 2432 2432 2432 2432 2432 2432 2432 2432 2432 2432 2432 2432 2432 2432 2432 2432 2432 2432 2432 2432 2415 2415 2415 2415 2415 2415 2415 2415 2415 2415 2415 2415 2415 2398 2398 2398 2398 2398 2398 2398 2398 2398 2398 2415 2415 2415 2415 2398 2398 2398 2398 2381 2381 2398 2398 2381 2381 2381 2381 2381 2381 0 0 0 0 0 0 0 0 0 0
0 0 0 0 0 0 0 0 0 0 0 0 0 0 0 0 0 0 0 0 0 0 0 0 0 0 0 0 0 0 0 0 0 2398 2398 2398 2398 2398 2398 2398 2381 2381 2381 2381 2398 2398 2398 2398 2398 2398 2398 2398 2398 2415 2415 2398 2398 2398 2398 2398 2398 2398 2415 2415 2415 2398 2398 2398 2398 2398 2398 2398 2398 2381 2381 2381 2381 2398 2398 2398 2398 2398 2415 2398 2398 2398 2398 2398 2398 2398 2398 2398 2398 2398 2398 2398 2415 2415 2415 2415 2415 2432 2432 2432 2432 2432 2432 2432 2450 2450 1616 1616 1616 1624 1624 1624 1624 1624 1616 1616 1550 1543 1543 1550 1550 1550 1550 1557 1557 1557 1557 1557 1557 1557 1557 1564 1564 1564 1564 1564 1564 1564 1564 1564 1564 1564 1564 1564 1564 1564 1564 1564 1564 1564 1564 1564 1557 1557 1557 1557 1557 1557 1550 1550 1550 1550 1550 1550 1550 1550 1550 1550 1550 1550 1550 1550 1550 1550 1550 1557 1550 1550 1550 1550 1550 1550 1550 1550 1550 1550 1550 1550 1550 1550 1550 1550 1550 1550 1550 1550 1550 1550 1550 1550 1550 1550 1557 1557 1557 1557 1550 1550 1550 1550 1543 1529 1509 1503 1503 1503 1503 1503 1503 1503 1503 1503 1503 1509 1509 1516 1529 1536 1543 1550 1557 1564 1572 1579 1594 1609 1616 1616 1632 1632 1632 1639 1663 1663 1663 1671 2415 2415 2432 2450 2450 2467 2467 2450 2450 2450 2450 2450 2450 2450 1904 1904 1904 1904 1904 1904 1904 1904 1398 1398 1398 1392 1392 1392 1392 1392 1392 1392 1398 1398 1398 1398 1404 1404 1404 1404 1550 1550 1550 1550 1550 1550 1550 1543 1543 1543 1543 1543 1543 1543 1543 1543 1550 1550 1550 1550 1550 1550 1550 1550 1550 1550 1550 1550 1550 1550 1543 1543 1543 1550 1550 1550 1550 1550 1550 1550 1550 1543 1536 1536 1536 1543 1543 1543 1543 1543 1543 1543 1543 1543 1543 1543 1543 1543 1543 1543 1543 1543 1543 1543 1543 1543 1543 1543 1550 1550 1550 1550 1543 1543 1543 1543 1543 1543 1550 1550 1543 1543 1543 1543 1543 1543 1543 1543 1543 1543 1543 1543 1543 1543 1543 1543 1543 1543 1543 1333 1333 1333 1333 1333 1328 1328 1328 1328 1328 1328 1328 1328 1543 1543 1543 1543 1543 1543 1543 1543 1543 1543 1543 1766 1766 1766 2485 2467 2467 2467 2467 2467 2467 2450 2450 2349 2333 2317 2286 2212 2184 2170 2170 2170 2170 2170 2184 1863 1853 1853 1853 1863 1853 1853 1853 1853 1853 1853 1843 1843 2198 2450 2450 2450 2450 2450 2450 2170 2170 2170 2170 2170 2170 2170 2170 2170 2170 2170 2170 2170 2450 2450 2450 2467 2467 2467 2467 2467 2467 0 1421 1421 1421 1421 1421 1421 1421 1421 1421 1421 1421 1421 1421 1421 1421 1421 1421 1415 1415 1415 1415 1415 1415 1415 1415 1415 1410 1410 1415 1415 1415 1415 1421 1421 2398 2398 2398 2415 2415 2415 2415 2415 2432 2432 2432 2432 2432 2432 2432 2432 2432 2432 2432 2432 2432 2432 2432 2432 2432 2432 2450 2432 2432 2432 2432 2432 2432 2415 2415 2415 2415 2415 2415 2432 2432 2432 2432 2432 2432 2432 2432 2432 2432 2432 2432 2432 2432 2432 2415 2415 2432 2415 2415 2415 2432 2432 2432 2432 2432 2432 2432 2432 2432 2432 2432 2415 2415 2415 2415 2398 2398 2398 2398 2398 2398 2398 2398 2381 2381 2381 2365 2365 2365 2365 2365 2365 2365 2365 2381 2381 2381 2398 2398 2398 2398 2398 2398 2398 2381 2381 2381 2381 2381 2365 2365 2365 2365 2365 2365 2365 2365 0 0 0 0 0 0 0 0 0
0 0 0 0 0 0 0 0 0 0 0 0 0 0 0 0 0 0 0 0 0 0 0 0 0 0 0 0 0 0 0 0 0 2398 2398 2398 2398 2398 2398 2381 2381 2381 2381 2381 2398 2398 2398 2398 2398 2398 2398 2398 2398 2398 2398 2398 2398 2398 2398 2398 2398 2398 2415 2415 2415 2398 2398 2398 2398 2398 2398 2381 2381 2381 2381 2381 2381 2381 2398 2398 2398 2398 2398 2398 2398 2398 2398 2398 2398 2398 2398 2398 2398 2398 2398 2398 2398 2398 2398 2398 2415 2415 2415 2415 2415 2432 2432 2432 2432 2432 1624 1624 1624 1624 1624 1624 1624 1624 1616 1616 1550 1543 1543 1550 1550 1550 1550 1557 1557 1557 1557 1557 1557 1557 1557 1557 1557 1557 1557 1557 1557 1557 1557 1557 1564 1564 1564 1564 1564 1564 1564 1564 1564 1564 1564 1564 1557 1550 1550 1550 1550 1550 1550 1550 1550 1550 1550 1550 1550 1550 1550 1543 1543 1550 1550 1550 1550 1550 1550 1550 1550 1550 1550 1550 1550 1550 1550 1550 1550 1550 1550 1550 1550 1550 1550 1550 1550 1550 1550 1550 1550 1550 1550 1550 1550 1550 1550 1550 1550 1550 1543 1543 1543 1543 1536 1523 1509 1503 1503 1503 1503 1503 1503 1503 1503 1503 1509 1509 1509 1516 1529 1536 1543 1550 1557 1557 1564 1579 1594 1609 1616 1624 1632 1639 1639 1639 1647 1663 1663 1671 2415 2415 2432 2432 2450 2450 2450 2450 2450 2450 2450 2432 2432 2432 1904 1904 1904 1904 1904 1904 1915 1915 1398 1398 1398 1392 1392 1398 1392 1392 1392 1392 1398 1398 1398 1398 1404 1404 1404 1404 1404 1543 1543 1543 1543 1543 1543 1536 1536 1536 1536 1543 1543 1543 1543 1543 1543 1543 1543 1543 1543 1543 1543 1543 1543 1543 1543 1543 1543 1543 1543 1543 1543 1543 1543 1543 1543 1543 1543 1543 1543 1536 1536 1536 1536 1536 1536 1536 1536 1543 1543 1543 1543 1543 1543 1543 1543 1543 1543 1543 1543 1543 1536 1536 1536 1543 1543 1543 1543 1543 1543 1543 1543 1543 1543 1543 1543 1543 1543 1543 1543 1543 1543 1536 1536 1536 1536 1536 1543 1543 1536 1536 1543 1543 1543 1543 1543 1543 1543 1333 1333 1333 1333 1333 1333 1333 1328 1328 1328 1328 1333 1333 1338 1543 1543 1543 1543 1543 1543 1543 1536 1536 1543 1766 1766 1766 2485 2467 2467 2467 2467 2467 2450 2432 2415 2333 2333 2317 2286 2286 2170 2170 2156 2156 2170 2170 2184 2184 1853 1853 1853 1863 1863 1853 1853 1863 1863 1863 1863 1863 2450 2450 2450 2450 2450 2450 2450 2184 2184 2170 2170 2170 2170 2170 2170 2170 2170 2170 2170 2170 2450 2450 2450 2450 2467 2450 2450 2450 0 1421 1421 1415 1415 1421 1421 1421 1421 1421 1421 1421 1421 1421 1421 1421 1421 1421 1415 1415 1415 1415 1421 1421 1421 1421 1421 1421 1415 1415 1415 1415 1415 1415 1415 1421 2398 2398 2398 2398 2415 2415 2415 2415 2415 2415 2415 2432 2432 2432 2432 2432 2432 2432 2415 2415 2432 2432 2432 2432 2432 2432 2432 2432 2432 2432 2432 2415 2415 2415 2415 2415 2415 2415 2415 2415 2415 2415 2415 2415 2415 2415 2415 2415 2415 2415 2415 2415 2415 2415 2415 2415 2415 2398 2398 2398 2415 2432 2432 2432 2432 2415 2415 2415 2415 2415 2398 2398 2398 2398 2415 2398 2398 2398 2398 2398 2398 2381 2381 2381 2381 2381 2365 2365 2365 2365 2365 2365 2365 2365 2365 2365 2365 2365 2365 2381 2381 2365 2365 2365 2365 2365 2365 2365 2365 2365 2365 2365 2365 2365 2365 2365 2365 0 0 0 0 0 0 0 0 0
0 0 0 0 0 0 0 0 0 0 0 0 0 0 0 0 0 0 0 0 0 0 0 0 0 0 0 0 0 0 0 0 0 2398 2381 2381 2381 2381 2381 2381 2381 2381 2381 2381 2381 2381 2381 2398 2398 2398 2398 2398 2398 2398 2398 2381 2381 2381 2381 2398 2398 2398 2398 2398 2415 2398 2398 2398 2398 2381 2381 2381 2381 2381 2381 2381 2381 2381 2381 2381 2381 2381 2398 2381 2381 2381 2381 2381 2381 2381 2381 2381 2381 2381 2381 2398 2398 2398 2398 2398 2398 2398 2398 2398 2398 2415 2415 2415 2432 2432 1624 1624 1624 1624 1624 1632 1632 1624 1624 1609 1550 1550 1550 1550 1550 1557 1557 1557 1557 1557 1557 1557 1557 1557 1557 1557 1557 1557 1557 1557 1557 1557 1557 1557 1564 1564 1564 1564 1564 1564 1564 1564 1564 1564 1564 1564 1557 1550 1550 1550 1550 1550 1550 1550 1550 1550 1550 1550 1543 1543 1543 1543 1543 1543 1543 1543 1550 1550 1550 1550 1550 1550 1550 1550 1550 1550 1550 1550 1550 1550 1543 1543 1543 1543 1543 1543 1543 1543 1550 1543 1543 1543 1543 1543 1543 1543 1543 1543 1543 1543 1536 1536 1536 1536 1529 1523 1523 1509 1509 1509 1509 1509 1509 1509 1509 1509 1509 1516 1516 1516 1529 1536 1543 1550 1557 1557 1564 1579 1601 1609 1616 1632 1639 1639 1639 1639 1647 1663 1663 1671 2415 2415 2432 2432 2432 2432 2432 2432 2432 2432 2432 2432 2432 2432 1904 1904 1904 1904 1904 1904 1915 1915 1392 1392 1392 1398 1398 1398 1398 1398 1398 1398 1398 1398 1398 1398 1404 1404 1404 1404 1404 1543 1543 1543 1543 1543 1543 1536 1536 1536 1536 1536 1536 1536 1536 1536 1536 1536 1536 1536 1536 1536 1543 1543 1543 1536 1536 1536 1536 1536 1536 1536 1536 1543 1543 1543 1543 1536 1536 1536 1536 1529 1529 1529 1529 1529 1536 1536 1536 1536 1536 1536 1536 1536 1536 1536 1536 1536 1536 1536 1536 1536 1536 1536 1536 1536 1536 1536 1536 1536 1536 1536 1536 1536 1536 1536 1536 1536 1536 1536 1536 1536 1536 1536 1536 1536 1536 1536 1536 1536 1536 1536 1536 1536 1536 1536 1536 1536 1536 1338 1338 1338 1338 1338 1333 1333 1333 1333 1333 1333 1333 1333 1338 1536 1536 1536 1536 1536 1536 1536 1536 1536 1536 1766 1766 1766 2485 2467 2467 2450 2450 2450 2450 2415 2381 2333 2333 2317 2301 2301 2156 2156 2156 2156 2156 2156 2170 1863 1853 1853 1853 1863 1863 1863 1863 1863 1863 1863 1863 1863 2450 2450 2450 2450 2450 2450 2450 2467 2184 2170 2170 2170 2170 2170 2170 2170 2170 2170 2170 2170 2450 2450 2450 2450 2450 2450 2450 2450 0 1421 1415 1415 1415 1421 1421 1421 1421 1427 1427 1421 1421 1421 1415 1415 1415 1415 1415 1415 1415 1415 1421 1421 1421 1421 1421 1421 1415 1415 1415 1415 1415 1415 1415 1421 2398 2398 2398 2398 2398 2398 2398 2398 2415 2415 2415 2415 2415 2415 2415 2415 2415 2415 2415 2415 2415 2415 2415 2415 2415 2432 2432 2432 2415 2415 2415 2415 2415 2415 2398 2398 2398 2415 2415 2415 2415 2415 2415 2415 2415 2398 2398 2415 2415 2415 2415 2415 2415 2415 2398 2398 2398 2398 2398 2398 2415 2415 2432 2432 2432 2415 2415 2415 2415 2398 2398 2398 2398 2398 2398 2398 2398 2381 2381 2398 2381 2381 2381 2381 2381 2381 2365 2365 2365 2365 2365 2365 2365 2365 2365 2365 2365 2365 2365 2365 2365 2365 2365 2365 2365 2365 2365 2365 2365 2349 2349 2349 2349 2349 2349 2349 2349 0 0 0 0 0 0 0 0 0
0 0 0 0 0 0 0 0 0 0 0 0 0 0 0 0 0 0 0 0 0 0 0 0 0 0 0 0 0 0 0 0 0 2398 2381 2381 2381 2381 2381 2381 2365 2365 2365 2365 2365 2365 2381 2381 2381 2381 2381 2381 2381 2381 2381 2381 2381 2381 2381 2381 2381 2398 2398 2398 2398 2381 2381 2381 2381 2365 2365 2365 2365 2365 2365 2365 2365 2365 2365 2365 2381 2381 2381 2381 2381 2381 2381 2381 2365 2365 2365 2381 2381 2381 2381 2398 2381 2381 2381 2381 2381 2381 2381 2398 2398 2398 2398 2415 2415 2415 1624 1624 1624 1624 1624 1632 1632 1624 1624 1609 1609 1557 1557 1557 1557 1557 1557 1557 1557 1557 1557 1557 1557 1557 1557 1557 1557 1557 1557 1564 1557 1557 1557 1557 1564 1564 1564 1564 1564 1564 1564 1564 1564 1564 1564 1564 1557 1550 1550 1550 1550 1550 1550 1550 1550 1550 1550 1550 1543 1543 1543 1543 1543 1543 1543 1543 1543 1543 1543 1550 1550 1550 1550 1550 1550 1543 1543 1543 1543 1543 1543 1543 1543 1543 1543 1543 1543 1543 1543 1543 1543 1536 1536 1543 1543 1543 1536 1536 1536 1536 1529 1529 1536 1529 1529 1523 1523 1516 1509 1509 1509 1509 1509 1509 1509 1509 1509 1516 1516 1523 1529 1536 1543 1550 1557 1564 1572 1579 1609 1616 1624 1639 1639 1639 1639 1647 1647 1663 2415 2415 2415 2415 2432 2432 2432 2432 2432 2432 2432 2432 2432 2415 2415 2415 1915 1904 1904 1904 1904 1904 1915 1915 1392 1392 1392 1398 1398 1398 1398 1398 1398 1398 1398 1398 1398 1398 1404 1404 1404 1404 1404 1523 1523 1523 1523 1523 1523 1523 1523 1523 1523 1523 1523 1523 1523 1523 1523 1523 1523 1523 1523 1523 1529 1529 1529 1529 1529 1529 1529 1529 1529 1529 1529 1536 1536 1536 1536 1536 1536 1536 1529 1523 1523 1523 1523 1523 1529 1529 1529 1529 1529 1529 1529 1529 1536 1529 1529 1529 1529 1529 1529 1536 1536 1529 1529 1529 1529 1529 1529 1529 1529 1536 1536 1536 1536 1529 1529 1529 1529 1529 1529 1529 1536 1536 1536 1536 1529 1529 1529 1529 1529 1529 1529 1529 1529 1536 1529 1529 1529 1338 1338 1338 1338 1338 1333 1333 1333 1333 1333 1333 1333 1333 1338 1536 1536 1536 1536 1536 1536 1536 1536 1536 1536 1766 1766 1766 2485 2467 2450 2450 2450 2450 2432 2398 2381 2349 2333 2333 2317 2317 2156 2143 2143 2143 2143 2156 2170 1863 1863 1863 1863 1863 1863 1863 1863 1863 1863 1863 1863 1863 2432 2432 2432 2432 2432 2450 2450 2170 2170 2170 2170 2170 2170 2170 2170 2170 2170 2170 2170 2170 2450 2432 2432 2450 2450 2432 2432 2432 0 1421 1421 1415 1415 1421 1421 1427 1427 1427 1427 1421 1421 1421 1415 1415 1415 1415 1415 1415 1421 1421 1421 1421 1427 1427 1427 1427 1415 1415 1415 1421 1415 1415 1421 2398 2381 2381 2381 2398 2398 2398 2381 2381 2398 2398 2398 2398 2398 2398 2398 2398 2398 2398 2398 2398 2398 2398 2398 2398 2398 2415 2415 2415 2415 2415 2415 2398 2398 2398 2381 2381 2381 2398 2398 2398 2398 2398 2398 2398 2398 2398 2398 2398 2398 2398 2398 2398 2398 2398 2398 2398 2398 2398 2398 2398 2415 2415 2415 2415 2415 2415 2415 2398 2398 2398 2381 2381 2381 2381 2381 2381 2381 2381 2381 2381 2381 2365 2365 2365 2365 2365 2365 2365 2365 2365 2365 2365 2365 2365 2365 2365 2365 2349 2349 2365 2365 2365 2365 2365 2365 2365 2365 2365 2365 2349 2349 2349 2349 2349 2349 2349 2349 0 0 0 0 0 0 0 0 0
0 0 0 0 0 0 0 0 0 0 0 0 0 0 0 0 0 0 0 0 0 0 0 0 0 0 0 0 0 0 0 0 0 2381 2365 2365 2365 2365 2365 2365 2349 2349 2349 2349 2349 2349 2365 2365 2365 2365 2381 2381 2381 2381 2381 2381 2381 2365 2365 2365 2365 2381 2381 2381 2398 2365 2365 2365 2365 2349 2349 2349 2349 2349 2349 2365 2365 2365 2365 2365 2365 2365 2381 2381 2381 2381 2365 2365 2365 2365 2365 2381 2381 2381 2381 2381 2381 2381 2381 2381 2381 2365 2365 2381 2381 2381 2381 2398 2398 2398 1624 1624 1624 1624 1624 1632 1632 1632 1624 1616 1616 1564 1557 1557 1557 1557 1557 1557 1557 1557 1557 1557 1557 1557 1557 1557 1557 1557 1564 1564 1564 1564 1564 1564 1564 1564 1564 1564 1564 1564 1564 1564 1564 1564 1564 1564 1557 1550 1550 1550 1550 1550 1550 1550 1550 1550 1550 1550 1543 1543 1543 1543 1543 1543 1543 1543 1543 1543 1543 1550 1543 1543 1543 1543 1543 1543 1543 1543 1543 1543 1543 1543 1543 1536 1536 1536 1536 1536 1536 1536 1536 1536 1536 1536 1536 1536 1536 1529 1529 1529 1529 1529 1529 1529 1529 1523 1523 1516 1516 1516 1516 1516 1509 1509 1509 1509 1516 1516 1516 1523 1529 1543 1550 1550 1557 1564 1579 1586 1609 1616 1624 1639 1639 1647 1647 1647 1663 2415 2415 2415 2415 2415 2415 2432 2432 2415 2415 2415 2415 2415 2415 2415 2415 2415 2415 1915 1915 1915 1915 1915 1915 1915 1398 1398 1398 1398 1398 1398 1398 1398 1398 1398 1398 1398 1398 1398 1404 1404 1404 1404 1404 1523 1523 1516 1516 1516 1516 1516 1516 1523 1523 1523 1523 1523 1523 1523 1523 1523 1523 1523 1523 1523 1523 1516 1516 1523 1523 1523 1523 1523 1523 1523 1523 1523 1523 1523 1523 1523 1523 1523 1523 1516 1516 1516 1516 1516 1516 1516 1516 1516 1523 1523 1523 1523 1529 1523 1523 1523 1523 1529 1529 1529 1529 1529 1523 1523 1523 1523 1523 1523 1523 1529 1529 1529 1529 1529 1529 1523 1523 1523 1523 1523 1523 1529 1529 1529 1529 1529 1523 1523 1523 1523 1523 1523 1523 1529 1529 1529 1529 1338 1338 1343 1343 1338 1338 1338 1338 1333 1333 1333 1338 1338 1343 1529 1529 1529 1529 1536 1536 1529 1529 1529 1536 1766 1766 1766 2467 2450 2432 2432 2432 2432 2432 2398 2381 2349 2333 2333 2317 2317 2317 2129 2129 2129 2129 2143 2156 1863 1863 1863 1863 1863 1863 1863 1863 1863 1863 1863 1863 1863 2415 2415 2432 2432 2432 2450 2450 2170 2170 2170 2170 2170 2170 2170 2170 2170 2170 2170 2170 2184 2415 2415 2432 2432 2432 2415 2415 2415 1421 1421 1421 1421 1421 1427 1427 1427 1427 1427 1427 1427 1421 1421 1421 1421 1421 1421 1421 1421 1421 1427 1427 1427 1427 1427 1427 1427 1415 1415 1415 1421 1421 1421 1421 2398 2381 2381 2381 2381 2381 2381 2381 2381 2381 2381 2381 2398 2398 2381 2381 2381 2398 2398 2398 2398 2398 2398 2398 2381 2381 2398 2398 2398 2398 2381 2381 2381 2381 2381 2381 2381 2381 2381 2381 2381 2381 2381 2381 2398 2381 2381 2381 2398 2381 2381 2381 2381 2381 2381 2381 2381 2381 2381 2381 2381 2398 2398 2398 2398 2415 2398 2398 2381 2381 2381 2381 2381 2381 2381 2381 2365 2365 2365 2365 2365 2365 2365 2365 2365 2365 2365 2349 2349 2349 2349 2349 2349 2349 2349 2349 2349 2349 2349 2349 2349 2349 2349 2349 2349 2349 2349 2349 2349 2349 2349 2349 2349 2349 2349 2349 2349 2349 0 0 0 0 0 0 0 0 0
0 0 0 0 0 0 0 0 0 0 0 0 0 0 0 0 0 0 0 0 0 0 0 0 0 0 0 0 0 0 0 0 0 2365 2365 2365 2365 2365 2365 2365 2349 2349 2349 2349 2349 2349 2349 2349 2349 2365 2365 2381 2381 2381 2365 2365 2365 2365 2365 2365 2365 2365 2365 2381 2381 2365 2365 2349 2349 2349 2349 2333 2333 2349 2349 2349 2349 2349 2349 2349 2365 2365 2365 2365 2365 2365 2365 2365 2365 2365 2365 2365 2365 2365 2381 2381 2381 2381 2365 2365 2365 2365 2365 2365 2365 2365 2365 2381 2381 2381 1624 1624 1624 1624 1624 1632 1632 1632 1624 1616 1616 1564 1564 1557 1557 1557 1557 1557 1557 1557 1557 1564 1564 1564 1564 1564 1564 1564 1564 1564 1564 1564 1564 1564 1564 1564 1564 1564 1564 1564 1572 1572 1564 1564 1564 1564 1557 1550 1550 1550 1550 1550 1550 1550 1550 1550 1550 1550 1543 1543 1543 1543 1543 1543 1543 1543 1543 1543 1543 1543 1543 1543 1543 1543 1543 1543 1543 1543 1543 1543 1536 1536 1536 1536 1536 1536 1536 1536 1536 1536 1536 1536 1536 1536 1536 1529 1529 1529 1529 1529 1529 1529 1529 1529 1529 1523 1523 1523 1516 1516 1516 1516 1516 1516 1509 1509 1516 1516 1516 1523 1529 1543 1543 1550 1557 1572 1579 1594 1616 1624 1632 1639 1647 1647 1647 1655 1663 2398 2398 2415 2415 2415 2415 2415 2415 2415 2415 2415 2415 2415 2415 2415 2415 2415 2415 1915 1915 1915 1915 1915 1926 1926 1398 1398 1398 1398 1398 1398 1398 1398 1398 1398 1398 1398 1398 1398 1404 1404 1529 1523 1523 1516 1516 1516 1516 1516 1509 1509 1516 1516 1516 1516 1516 1516 1516 1516 1516 1516 1516 1516 1516 1516 1516 1516 1516 1516 1516 1516 1516 1516 1516 1516 1516 1516 1523 1523 1523 1523 1523 1523 1523 1509 1509 1509 1509 1509 1516 1516 1516 1516 1509 1509 1509 1509 1509 1509 1509 1509 1509 1516 1516 1516 1516 1516 1516 1516 1516 1516 1516 1516 1516 1523 1523 1523 1523 1516 1516 1523 1523 1523 1523 1523 1523 1523 1523 1523 1523 1523 1523 1523 1516 1516 1516 1516 1523 1523 1523 1523 1523 1343 1343 1343 1343 1338 1338 1338 1338 1338 1338 1338 1338 1343 1343 1523 1523 1523 1529 1529 1529 1529 1529 1529 1529 1766 1766 2415 2415 2432 2415 2415 2432 2432 2415 2381 2381 2349 2333 2333 2317 2317 2317 2129 2129 2129 2129 2129 2156 1863 1863 1863 1863 1863 1863 1863 1863 1863 1863 1863 1873 1873 2398 2398 2415 2415 2415 2450 2184 2170 2170 2170 2170 2170 2170 2170 2170 2170 2170 2170 2184 2184 2415 2415 2415 2415 2415 2415 2415 2415 1421 1421 1421 1421 1427 1427 1427 1427 1427 1427 1427 1427 1427 1421 1421 1421 1421 1421 1421 1421 1421 1427 1427 1427 1427 1427 1427 1427 1421 1421 1421 1421 1427 1427 2381 2381 2365 2365 2365 2365 2381 2381 2381 2381 2381 2381 2381 2381 2381 2381 2381 2381 2381 2381 2381 2381 2381 2381 2381 2381 2381 2381 2381 2381 2381 2381 2381 2381 2381 2381 2381 2381 2381 2381 2381 2381 2381 2381 2381 2381 2381 2381 2381 2381 2381 2381 2381 2381 2381 2381 2365 2365 2381 2381 2381 2381 2381 2381 2398 2381 2381 2381 2381 2381 2381 2381 2381 2381 2381 2381 2381 2365 2365 2365 2365 2365 2365 2365 2365 2365 2349 2349 2349 2349 2349 2349 2349 2349 2349 2349 2349 2349 2349 2349 2349 2349 2349 2349 2349 2349 2349 2349 2349 2349 2349 2349 2333 2333 2333 2333 2333 2333 2333 0 0 0 0 0 0 0 0 0
0 0 0 0 0 0 0 0 0 0 0 0 0 0 0 0 0 0 0 0 0 0 0 0 0 0 0 0 0 0 0 0 0 2365 2349 2349 2349 2349 2349 2349 2349 2349 2349 2349 2349 2349 2349 2349 2349 2349 2365 2365 2365 2365 2365 2365 2365 2365 2365 2365 2365 2365 2365 2365 2365 2349 2349 2349 2349 2333 2333 2333 2333 2333 2333 2349 2349 2333 2333 2349 2349 2349 2349 2365 2365 2365 2349 2349 2349 2349 2349 2349 2349 2349 2365 2365 2365 2365 2365 2365 2365 2349 2349 2365 2365 2365 2365 2381 2381 2381 1624 1624 1624 1624 1624 1632 1632 1632 1632 1624 1624 1564 1564 1564 1557 1557 1557 1557 1564 1564 1564 1564 1564 1564 1564 1564 1564 1564 1564 1564 1564 1564 1564 1564 1564 1564 1564 1564 1564 1564 1572 1572 1572 1564 1564 1564 1557 1550 1550 1550 1550 1550 1550 1550 1550 1550 1550 1550 1550 1550 1550 1550 1543 1543 1543 1543 1543 1543 1543 1543 1543 1543 1543 1550 1543 1543 1543 1543 1543 1543 1536 1536 1536 1536 1536 1536 1536 1536 1536 1536 1536 1536 1536 1536 1529 1529 1529 1529 1529 1529 1529 1529 1529 1529 1529 1523 1523 1523 1523 1516 1516 1516 1516 1516 1516 1516 1516 1516 1523 1523 1529 1543 1543 1550 1557 1572 1586 1601 1616 1624 1632 1639 1647 1647 1655 1663 2381 2398 2398 2398 2415 2415 2415 2415 2415 2415 2415 2398 2398 2398 2398 2398 2415 2415 2415 1915 1915 1915 1926 1926 1926 1926 1398 1398 1398 1398 1404 1404 1398 1398 1398 1398 1398 1404 1404 1404 1404 1404 1404 1523 1516 1516 1509 1509 1509 1509 1509 1509 1509 1509 1516 1516 1516 1516 1516 1516 1516 1516 1516 1516 1516 1516 1516 1516 1516 1516 1516 1516 1516 1516 1516 1516 1516 1516 1516 1516 1516 1516 1516 1516 1516 1509 1509 1509 1509 1509 1509 1509 1509 1509 1509 1509 1509 1509 1509 1509 1509 1509 1509 1509 1509 1509 1509 1509 1509 1509 1516 1516 1516 1516 1516 1516 1516 1516 1516 1516 1516 1516 1516 1516 1516 1516 1516 1516 1516 1516 1516 1516 1516 1516 1516 1516 1516 1516 1516 1516 1516 1516 1343 1343 1343 1343 1343 1343 1343 1343 1343 1343 1343 1343 1343 1343 1343 1516 1516 1516 1523 1529 1529 1529 1529 1529 1529 1766 1766 2398 2398 2398 2398 2398 2415 2415 2398 2381 2381 2349 2333 2333 2317 2317 2317 2333 2116 2116 2116 2129 2129 2143 1863 1863 1863 1863 1863 1863 1863 1873 1873 1873 1873 2398 2398 2398 2398 2398 2398 2415 2184 2184 2184 2184 2170 2170 2170 2170 2170 2170 2170 2170 2184 2184 2398 2398 2415 2415 2415 2415 2415 0 1421 1421 1421 1421 1427 1427 1427 1427 1427 1427 1427 1427 1427 1427 1427 1421 1421 1421 1421 1427 1427 1427 1427 1427 1427 1427 1427 1427 1421 1421 1421 1421 1427 1427 2365 2365 2365 2365 2365 2365 2365 2365 2365 2365 2365 2365 2365 2365 2365 2365 2365 2365 2381 2381 2381 2381 2381 2381 2381 2381 2381 2381 2381 2381 2381 2381 2365 2365 2365 2365 2365 2365 2365 2365 2381 2365 2365 2365 2365 2381 2381 2381 2381 2381 2381 2381 2381 2381 2365 2365 2365 2365 2365 2381 2381 2381 2381 2381 2381 2381 2381 2381 2381 2381 2381 2365 2365 2365 2365 2365 2365 2365 2365 2365 2365 2365 2365 2349 2349 2349 2349 2349 2349 2349 2349 2349 2349 2349 2349 2349 2349 2333 2333 2333 2333 2349 2349 2349 2349 2349 2349 2349 2349 2349 2333 2333 2333 2333 2333 2333 2333 2317 2317 0 0 0 0 0 0 0 0 0
0 0 0 0 0 0 0 0 0 0 0 0 0 0 0 0 0 0 0 0 0 0 0 0 0 0 0 0 0 0 0 0 0 2349 2349 2349 2349 2349 2349 2349 2349 2349 2349 2349 2333 2333 2333 2349 2349 2349 2349 2349 2365 2365 2349 2349 2365 2349 2349 2349 2349 2349 2349 2349 2349 2333 2333 2333 2333 2333 2333 2333 2333 2333 2333 2333 2333 2333 2333 2349 2349 2349 2349 2349 2349 2349 2349 2349 2349 2333 2333 2333 2333 2349 2349 2349 2349 2349 2349 2349 2349 2349 2349 2365 2365 2365 2365 2381 2381 2381 1624 1624 1624 1624 1624 1632 1632 1632 1624 1624 1624 1564 1564 1564 1564 1557 1557 1564 1564 1564 1564 1564 1564 1564 1564 1564 1564 1564 1564 1564 1564 1564 1564 1564 1564 1564 1564 1564 1564 1564 1572 1572 1572 1564 1564 1564 1557 1557 1550 1550 1557 1557 1557 1557 1557 1557 1550 1550 1550 1550 1550 1550 1550 1550 1550 1550 1550 1543 1543 1550 1543 1543 1550 1550 1543 1543 1543 1543 1543 1543 1543 1543 1543 1543 1543 1543 1536 1536 1536 1536 1536 1536 1536 1536 1529 1529 1529 1529 1529 1529 1529 1529 1529 1529 1529 1529 1523 1523 1523 1523 1523 1516 1516 1516 1516 1516 1516 1516 1523 1523 1536 1543 1550 1557 1564 1579 1594 1616 1616 1624 1632 1639 1647 1655 1663 2349 2349 2381 2381 2398 2398 2398 2415 2398 2398 2398 2398 2398 2398 2381 2381 2381 2398 2398 2398 1926 1926 1926 1926 1926 1926 1936 1936 1398 1398 1398 1404 1404 1404 1404 1404 1404 1404 1404 1404 1404 1404 1415 1415 1509 1509 1503 1503 1503 1509 1503 1503 1503 1509 1509 1509 1509 1509 1509 1509 1509 1509 1509 1509 1509 1509 1509 1509 1509 1509 1509 1509 1509 1509 1509 1509 1509 1509 1509 1509 1509 1509 1509 1509 1509 1509 1503 1503 1503 1503 1503 1503 1503 1503 1503 1503 1503 1503 1503 1503 1503 1503 1503 1503 1503 1503 1509 1509 1509 1509 1509 1509 1509 1509 1509 1516 1509 1509 1516 1516 1509 1509 1509 1509 1509 1509 1509 1509 1509 1509 1509 1509 1509 1509 1509 1509 1509 1509 1509 1509 1516 1516 1516 1343 1343 1343 1343 1349 1343 1343 1343 1343 1343 1343 1343 1343 1343 1503 1509 1516 1516 1516 1523 1523 1523 1529 1529 1536 1776 1776 1794 2398 2398 2398 2398 2398 2398 2381 2381 2381 2349 2333 2333 2317 2317 2317 2333 2103 2103 2103 2103 2116 2116 1863 1863 1863 1863 1863 1873 1873 1873 1873 1873 1873 2398 2398 2398 2398 2398 2398 2398 2184 2184 2184 2184 2170 2170 2170 2184 2184 2184 2184 2184 2184 2381 2381 2381 2398 2398 2398 2398 2398 0 1421 1421 1421 1421 1427 1427 1427 1427 1427 1427 1427 1427 1427 1427 1427 1427 1421 1421 1427 1427 1427 1427 1427 1427 1427 1427 1427 1427 1421 1421 1421 1421 1427 1427 2365 2365 2365 2365 2365 2365 2365 2365 2365 2365 2365 2365 2365 2365 2365 2365 2365 2365 2365 2365 2365 2365 2365 2365 2365 2365 2365 2365 2365 2381 2365 2365 2365 2365 2365 2365 2365 2365 2365 2365 2365 2365 2365 2365 2365 2365 2365 2365 2381 2381 2381 2365 2365 2365 2365 2365 2365 2365 2365 2365 2365 2365 2365 2365 2365 2365 2365 2365 2365 2365 2365 2365 2365 2365 2365 2365 2365 2349 2349 2349 2349 2349 2349 2333 2333 2333 2333 2333 2349 2349 2333 2333 2349 2333 2333 2333 2333 2317 2317 2333 2333 2333 2333 2333 2333 2349 2349 2333 2333 2333 2333 2333 2333 2317 2317 2317 2317 2301 2301 0 0 0 0 0 0 0 0 0
0 0 0 0 0 0 0 0 0 0 0 0 0 0 0 0 0 0 0 0 0 0 0 0 0 0 0 0 0 0 0 0 0 2333 2333 2333 2333 2333 2333 2333 2333 2333 2333 2333 2333 2333 2333 2349 2349 2349 2349 2349 2349 2349 2349 2349 2349 2349 2349 2349 2349 2349 2349 2349 2349 2333 2333 2333 2333 2317 2317 2317 2317 2317 2333 2333 2333 2333 2333 2333 2333 2333 2333 2333 2333 2333 2333 2333 2333 2333 2333 2333 2333 2333 2333 2333 2333 2333 2333 2349 2349 2349 2349 2349 2349 2349 2349 2365 2365 2365 1632 1632 1632 1632 1632 1639 1639 1632 1624 1624 1572 1564 1564 1564 1564 1557 1557 1564 1564 1564 1564 1564 1564 1564 1564 1564 1564 1564 1564 1572 1564 1564 1572 1572 1572 1572 1572 1572 1572 1572 1572 1572 1572 1572 1564 1564 1557 1557 1557 1557 1557 1557 1557 1557 1557 1557 1557 1557 1550 1550 1550 1550 1550 1550 1550 1550 1550 1550 1550 1550 1543 1543 1550 1550 1550 1550 1550 1550 1550 1543 1543 1543 1543 1543 1543 1543 1543 1543 1543 1536 1536 1536 1536 1536 1536 1529 1529 1529 1529 1529 1529 1529 1529 1529 1529 1529 1523 1523 1523 1523 1523 1523 1523 1523 1516 1516 1523 1523 1523 1529 1536 1543 1550 1550 1564 1579 1594 1616 1616 1624 1632 1639 1647 1647 2349 2349 2349 2365 2381 2381 2398 2398 2398 2398 2398 2398 2398 2398 2398 2381 2381 2381 2381 2398 1926 1926 1926 1926 1926 1926 1936 1936 1936 1404 1404 1404 1404 1404 1404 1404 1404 1404 1404 1404 1404 1410 1410 1415 1415 1415 1503 1496 1496 1496 1503 1503 1503 1503 1503 1503 1503 1503 1503 1503 1503 1503 1503 1503 1503 1503 1509 1509 1503 1503 1503 1503 1509 1509 1503 1503 1503 1503 1503 1503 1503 1503 1503 1503 1503 1503 1503 1496 1496 1496 1496 1496 1503 1503 1496 1496 1503 1503 1496 1496 1496 1496 1503 1503 1496 1496 1503 1503 1503 1503 1503 1503 1503 1503 1503 1509 1509 1509 1509 1509 1509 1509 1509 1509 1509 1509 1509 1503 1503 1503 1503 1503 1503 1509 1509 1509 1509 1509 1509 1509 1509 1503 1503 1509 1349 1349 1349 1349 1349 1349 1349 1349 1349 1349 1343 1343 1343 1343 1503 1509 1509 1509 1516 1516 1523 1523 1529 1536 1536 1785 1785 1794 2398 2381 2381 2381 2381 2398 2381 2381 2365 2349 2333 2333 2317 2317 2317 2090 2090 2090 2090 2090 2090 1863 1863 1863 1863 1863 1873 1873 1873 1873 1873 1873 1873 2381 2381 2381 2381 2381 2381 2381 2184 2184 2184 2184 2170 2170 2184 2184 2184 2184 2184 2184 2184 2381 2381 2381 2381 2398 2398 2398 2398 0 1427 1427 1421 1421 1427 1427 1427 1427 1427 1427 1427 1427 1427 1427 1427 1427 1427 1427 1427 1427 1427 1427 1427 1427 1427 1427 1427 1427 1421 1421 1421 1427 1427 1427 2365 2365 2349 2349 2349 2349 2349 2349 2349 2365 2349 2349 2349 2365 2365 2349 2349 2349 2365 2365 2365 2365 2365 2365 2365 2365 2365 2365 2365 2365 2365 2365 2365 2365 2365 2349 2349 2349 2349 2365 2365 2365 2365 2365 2365 2365 2365 2365 2365 2365 2365 2365 2365 2365 2365 2365 2365 2365 2365 2365 2365 2365 2365 2365 2365 2365 2365 2365 2365 2365 2365 2365 2365 2365 2365 2365 2365 2349 2349 2349 2349 2349 2349 2333 2333 2333 2333 2333 2333 2333 2333 2333 2333 2333 2333 2317 2317 2301 2301 2317 2317 2317 2317 2317 2333 2333 2333 2333 2317 2317 2317 2317 2317 2317 2301 2301 2301 2301 2301 0 0 0 0 0 0 0 0 0
0 0 0 0 0 0 0 0 0 0 0 0 0 0 0 0 0 0 0 0 0 0 0 0 0 0 0 0 0 0 0 0 0 2333 2333 2333 2333 2333 2333 2333 2333 2333 2333 2333 2333 2333 2333 2349 2349 2349 2349 2349 2349 2349 2349 2349 2333 2333 2333 2333 2333 2333 2333 2333 2349 2317 2317 2317 2317 2317 2317 2317 2317 2317 2317 2317 2317 2317 2317 2317 2317 2317 2317 2333 2333 2333 2333 2333 2333 2333 2317 2317 2333 2333 2333 2333 2333 2333 2333 2333 2333 2333 2333 2333 2349 2349 2349 2349 2349 2349 1632 1632 1632 1632 1632 1639 1639 1632 1624 1624 1572 1572 1572 1564 1564 1564 1564 1564 1564 1564 1564 1564 1564 1572 1572 1572 1572 1572 1572 1572 1572 1572 1572 1572 1572 1572 1572 1572 1572 1572 1572 1572 1572 1572 1572 1572 1557 1557 1557 1557 1557 1557 1557 1557 1557 1557 1557 1557 1557 1557 1557 1557 1550 1550 1550 1550 1550 1550 1550 1550 1550 1550 1550 1550 1550 1550 1550 1550 1550 1550 1543 1543 1543 1543 1543 1543 1543 1543 1543 1543 1543 1536 1536 1536 1536 1536 1536 1536 1536 1536 1536 1536 1536 1536 1529 1529 1529 1529 1523 1523 1523 1523 1523 1523 1523 1523 1523 1523 1523 1529 1536 1543 1550 1550 1557 1579 1594 1616 1624 1632 1632 1639 1655 1655 2349 2349 2349 2365 2365 2365 2365 2381 2381 2381 2381 2381 2381 2381 2381 2381 2381 2365 2365 2365 1926 1926 1926 1926 1926 1926 1936 1936 1936 1404 1404 1404 1404 1404 1404 1404 1404 1404 1404 1404 1410 1410 1410 1415 1415 1415 1489 1489 1496 1496 1496 1496 1496 1496 1496 1496 1496 1496 1496 1496 1496 1496 1496 1496 1496 1496 1503 1503 1503 1503 1503 1503 1503 1496 1496 1496 1496 1496 1496 1496 1496 1496 1496 1496 1496 1496 1496 1496 1496 1496 1496 1489 1489 1496 1489 1489 1496 1496 1496 1489 1489 1496 1496 1496 1496 1496 1496 1503 1503 1503 1503 1503 1503 1503 1503 1503 1503 1503 1503 1503 1503 1503 1503 1503 1503 1503 1503 1503 1496 1496 1496 1496 1496 1496 1496 1496 1503 1503 1503 1496 1496 1496 1496 1503 1349 1349 1349 1349 1349 1349 1349 1349 1349 1349 1349 1349 1349 1349 1503 1509 1509 1509 1516 1516 1523 1523 1529 1536 1785 1785 1785 1794 1804 2381 2381 2381 2381 2381 2381 2381 2365 2333 2333 2333 2333 2333 2333 2090 2090 2090 2090 2090 2090 1863 1863 1863 1873 1873 1873 1873 1873 1873 1873 1883 1883 2381 2381 2381 2365 2365 2365 2349 2198 2198 2184 2184 2170 2170 2184 2184 2184 2184 2184 2184 2381 2381 2381 2381 2381 2381 2398 2398 2398 1415 1415 1415 1415 1427 1427 1427 1427 1427 1427 1427 1427 1427 1427 1427 1427 1427 1427 1427 1427 1427 1427 1427 1427 1427 1427 1427 1433 1433 1427 1427 1427 1427 1433 1433 2349 2349 2349 2349 2349 2349 2349 2349 2349 2349 2349 2349 2349 2349 2349 2333 2333 2333 2349 2349 2349 2349 2349 2349 2349 2349 2349 2365 2365 2349 2349 2349 2349 2349 2349 2349 2333 2333 2349 2349 2349 2349 2349 2349 2349 2365 2365 2365 2365 2365 2365 2365 2365 2365 2349 2349 2349 2349 2349 2349 2349 2349 2365 2365 2365 2349 2349 2349 2365 2365 2365 2365 2365 2365 2365 2365 2365 2349 2349 2349 2349 2349 2333 2333 2333 2333 2317 2317 2333 2333 2317 2317 2317 2317 2317 2301 2301 2301 2301 2301 2301 2317 2317 2317 2317 2317 2317 2317 2301 2301 2301 2301 2301 2301 2301 2301 2301 2286 2286 0 0 0 0 0 0 0 0 0
0 0 0 0 0 0 0 0 0 0 0 0 0 0 0 0 0 0 0 0 0 0 0 0 0 0 0 0 0 0 0 0 0 2301 2301 2301 2301 2317 2317 2317 2317 2317 2333 2317 2317 2317 2317 2333 2333 2333 2333 2333 2333 2333 2333 2333 2333 2333 2333 2333 2333 2333 2333 2333 2333 2317 2317 2317 2317 2317 2317 2301 2301 2317 2317 2317 2317 2317 2317 2317 2317 2317 2317 2317 2317 2317 2317 2317 2317 2317 2317 2317 2317 2317 2317 2317 2317 2317 2333 2333 2333 2333 2333 2333 2333 2333 2333 2333 2333 2333 2333 1632 1632 1632 1632 1639 1639 1639 1632 1624 1572 1572 1572 1564 1564 1564 1564 1564 1564 1564 1564 1564 1564 1572 1572 1572 1572 1572 1572 1572 1572 1572 1572 1579 1579 1572 1572 1579 1579 1579 1572 1572 1572 1572 1572 1572 1564 1557 1557 1557 1557 1557 1557 1557 1557 1557 1557 1557 1557 1557 1557 1557 1557 1557 1557 1557 1550 1550 1550 1550 1550 1550 1557 1557 1557 1557 1550 1550 1550 1550 1550 1550 1550 1550 1550 1550 1550 1550 1543 1543 1543 1543 1543 1543 1543 1536 1536 1536 1536 1536 1536 1536 1536 1536 1536 1529 1529 1529 1529 1529 1529 1523 1523 1523 1523 1523 1523 1523 1523 1529 1536 1543 1550 1550 1557 1579 1601 1616 1624 1624 1632 1639 1639 2349 2349 2349 2349 2365 2365 2365 2365 2365 2381 2381 2381 2381 2381 2381 2365 2365 2365 2365 2365 2365 1926 1926 1926 1926 1926 1936 1936 1936 1936 1404 1404 1404 1404 1404 1410 1410 1410 1410 1410 1410 1410 1415 1415 1421 1421 1470 1470 1483 1489 1489 1489 1489 1489 1496 1496 1496 1496 1496 1496 1496 1496 1496 1496 1496 1496 1496 1496 1496 1496 1496 1496 1496 1496 1496 1496 1489 1489 1496 1496 1496 1496 1496 1496 1496 1496 1496 1496 1489 1489 1489 1489 1489 1489 1489 1489 1489 1489 1489 1489 1489 1489 1489 1489 1489 1489 1489 1489 1496 1496 1496 1496 1496 1496 1496 1496 1496 1496 1496 1496 1496 1496 1496 1496 1496 1496 1496 1496 1496 1489 1489 1489 1489 1489 1489 1489 1489 1489 1496 1489 1489 1496 1496 1496 1503 1349 1349 1349 1349 1354 1349 1349 1349 1349 1349 1349 1349 1349 1349 1503 1509 1509 1509 1509 1516 1516 1523 1523 1785 1785 1785 1785 1794 1804 1833 2381 2365 2365 2381 2365 2365 2349 2333 2333 2333 2333 2333 2333 2333 2090 2090 2103 2103 2090 1863 1863 1863 1873 1873 1873 1873 1873 1873 1873 1883 1883 2365 2365 2365 2365 2365 2333 2301 2198 2198 2184 2184 2170 2170 2184 2184 2184 2184 2184 2184 2226 2365 2365 2381 2381 2381 2381 2381 2381 1415 1415 1415 1415 1427 1427 1427 1427 1427 1433 1427 1427 1427 1427 1427 1427 1427 1427 1427 1427 1427 1427 1433 1433 1433 1433 1433 1433 1433 1427 1427 1427 1427 1433 1433 2301 2301 2333 2333 2333 2333 2333 2333 2333 2333 2333 2333 2333 2333 2333 2333 2333 2333 2333 2333 2333 2333 2333 2333 2333 2349 2349 2349 2349 2349 2333 2333 2333 2333 2333 2333 2333 2333 2333 2333 2333 2333 2333 2333 2349 2349 2365 2365 2365 2365 2365 2365 2365 2349 2349 2349 2349 2349 2349 2349 2349 2349 2349 2349 2349 2333 2333 2349 2349 2349 2349 2349 2349 2349 2365 2365 2365 2349 2349 2333 2333 2333 2333 2317 2317 2317 2317 2317 2317 2317 2301 2301 2301 2301 2301 2301 2301 2286 2286 2301 2301 2301 2301 2301 2301 2301 2301 2301 2301 2301 2301 2301 2301 2301 2286 2286 2286 2286 2286 0 0 0 0 0 0 0 0 0
0 0 0 0 0 0 0 0 0 0 0 0 0 0 0 0 0 0 0 0 0 0 0 0 0 0 0 0 0 0 0 0 0 2286 2286 2286 2301 2301 2301 2301 2317 2317 2317 2317 2317 2317 2317 2317 2317 2317 2317 2317 2317 2317 2301 2301 2301 2301 2317 2317 2317 2317 2317 2317 2317 2286 2286 2286 2286 2286 2286 2286 2286 2301 2301 2301 2301 2301 2317 2317 2301 2301 2317 2317 2317 2317 2317 2317 2317 2317 2317 2317 2317 2317 2317 2317 2317 2317 2317 2317 2317 2317 2317 2333 2333 2333 2333 2333 2333 2333 2333 1632 1632 1632 1632 1639 1639 1639 1639 1632 1572 1572 1564 1564 1564 1564 1564 1564 1564 1564 1564 1564 1572 1572 1579 1572 1572 1572 1579 1572 1572 1572 1579 1579 1579 1579 1579 1579 1579 1579 1572 1572 1572 1572 1572 1572 1564 1557 1557 1557 1557 1557 1557 1557 1564 1564 1564 1564 1564 1564 1557 1557 1557 1557 1557 1557 1557 1557 1557 1557 1550 1550 1557 1557 1557 1557 1550 1550 1550 1550 1550 1550 1550 1550 1550 1550 1550 1550 1550 1550 1550 1550 1550 1550 1543 1543 1543 1543 1543 1543 1543 1543 1543 1543 1543 1536 1529 1529 1529 1529 1529 1529 1523 1523 1523 1523 1523 1523 1529 1529 1536 1543 1550 1557 1564 1579 1601 1616 1616 1624 1624 2349 2349 2349 2349 2349 2349 2349 2349 2349 2365 2365 2365 2365 2365 2365 2365 2365 2365 2365 2365 2365 2365 2365 1936 1936 1936 1936 1936 1936 1936 1936 1936 1404 1404 1404 1410 1410 1410 1410 1410 1410 1410 1415 1415 1415 1415 1421 1427 1452 1464 1470 1477 1483 1483 1489 1489 1489 1489 1489 1489 1489 1489 1489 1489 1489 1489 1489 1489 1489 1489 1489 1489 1496 1489 1489 1489 1489 1489 1489 1489 1489 1489 1489 1489 1489 1489 1489 1489 1489 1496 1489 1489 1483 1483 1483 1483 1483 1483 1483 1483 1483 1483 1483 1483 1483 1483 1483 1489 1489 1489 1489 1489 1489 1489 1489 1489 1489 1489 1489 1489 1489 1489 1489 1489 1489 1489 1489 1489 1489 1489 1489 1489 1483 1483 1489 1489 1483 1483 1483 1489 1489 1489 1489 1489 1489 1489 1496 1349 1349 1349 1354 1354 1354 1349 1349 1349 1349 1349 1349 1349 1349 1489 1503 1503 1503 1503 1516 1516 1523 1523 1785 1785 1785 1785 1794 1804 1823 2365 2365 2365 2365 2365 2365 2349 2333 2333 2333 2333 2333 2333 2333 2090 2090 2090 2103 2090 1863 1863 1863 1873 1873 1873 1873 1873 1873 1883 1883 1883 2349 2349 2349 2349 2333 2317 2286 2198 2198 2198 2198 2184 2184 2184 2184 2184 2184 2198 2198 2226 2317 2349 2365 2381 2381 2381 2381 0 1415 1415 1415 1421 1427 1427 1427 1427 1427 1433 1427 1427 1427 1427 1427 1427 1427 1427 1427 1427 1427 1433 1433 1433 1433 1433 1433 1433 1433 1427 1427 1427 1427 1427 1427 2301 2301 2317 2333 2333 2333 2333 2333 2333 2333 2333 2333 2333 2333 2333 2317 2317 2317 2317 2333 2333 2333 2333 2333 2333 2333 2333 2333 2333 2333 2333 2333 2333 2333 2333 2317 2317 2317 2317 2333 2317 2317 2317 2333 2333 2349 2349 2349 2365 2365 2365 2349 2349 2349 2349 2333 2333 2333 2333 2333 2333 2333 2333 2333 2333 2333 2333 2333 2333 2333 2333 2333 2333 2349 2349 2349 2349 2333 2333 2333 2317 2317 2317 2317 2317 2317 2317 2317 2301 2301 2301 2301 2301 2286 2286 2286 2286 2286 2286 2301 2301 2301 2301 2301 2301 2301 2301 2301 2301 2301 2286 2286 2301 2301 2286 2286 2286 2271 2271 0 0 0 0 0 0 0 0 0
0 0 0 0 0 0 0 0 0 0 0 0 0 0 0 0 0 0 0 0 0 0 0 0 0 0 0 0 0 0 0 0 0 2286 2286 2286 2286 2286 2286 2286 2301 2301 2301 2301 2301 2301 2301 2301 2317 2317 2317 2317 2301 2301 2301 2301 2301 2301 2301 2301 2301 2301 2301 2301 2301 2286 2271 2271 2271 2271 2286 2286 2286 2286 2286 2301 2301 2301 2286 2286 2301 2301 2301 2301 2301 2301 2301 2317 2317 2317 2317 2317 2317 2317 2317 2317 2317 2317 2301 2301 2301 2301 2317 2317 2317 2317 2317 2317 2333 2333 2333 1632 1632 1632 1632 1639 1647 1639 1639 1639 1572 1572 1564 1564 1564 1564 1564 1564 1564 1564 1564 1564 1572 1579 1579 1572 1572 1579 1579 1579 1579 1579 1579 1579 1586 1579 1579 1579 1579 1579 1572 1572 1572 1572 1572 1572 1564 1557 1557 1564 1557 1557 1564 1564 1564 1564 1564 1564 1564 1564 1557 1557 1557 1557 1557 1557 1557 1557 1557 1557 1557 1557 1557 1557 1557 1557 1557 1557 1557 1557 1550 1550 1550 1550 1550 1550 1550 1550 1550 1550 1550 1550 1550 1550 1550 1550 1550 1550 1550 1550 1543 1543 1543 1543 1543 1536 1536 1536 1529 1529 1529 1529 1529 1523 1523 1523 1523 1523 1529 1536 1536 1543 1550 1557 1564 1579 1601 1609 1616 1616 2349 2349 2349 2349 2349 2349 2349 2349 2349 2349 2349 2365 2365 2365 2365 2365 2365 2365 2365 2365 2365 2349 2349 2349 1936 1936 1936 1936 1936 1936 1936 1936 1936 1404 1404 1404 1410 1410 1410 1410 1410 1410 1410 1415 1415 1415 1415 1427 1433 1445 1464 1470 1477 1483 1483 1483 1483 1483 1483 1483 1489 1483 1483 1483 1483 1483 1483 1483 1483 1489 1489 1489 1489 1489 1489 1483 1483 1483 1483 1483 1483 1483 1489 1489 1489 1489 1489 1489 1489 1489 1489 1483 1483 1483 1483 1483 1483 1483 1483 1483 1483 1483 1483 1483 1483 1483 1483 1483 1483 1483 1483 1489 1489 1489 1489 1489 1489 1489 1489 1489 1489 1483 1483 1489 1489 1489 1483 1483 1483 1483 1483 1483 1483 1483 1483 1483 1483 1483 1483 1483 1483 1483 1483 1483 1489 1489 1489 1496 1349 1349 1349 1354 1354 1354 1354 1349 1349 1349 1349 1349 1349 1349 1489 1496 1489 1489 1503 1509 1516 1523 1794 1785 1785 1785 1785 1794 1804 1823 2365 2365 2365 2365 2365 2349 2349 2333 2333 2333 2333 2333 2333 2333 2078 2078 2090 2090 2090 1873 1873 1873 1873 1873 1873 1873 1873 1873 1873 1873 1883 2333 2333 2333 2333 2333 2317 2226 2212 2198 2198 2198 2184 2184 2184 2184 2184 2184 2184 2184 2212 2317 2333 2349 2365 2365 2365 2365 0 1415 1415 1415 1421 1427 1427 1433 1433 1433 1433 1427 1427 1427 1427 1427 1433 1427 1427 1427 1427 1427 1433 1433 1433 1433 1433 1433 1433 1433 1427 1427 1427 1427 1427 1427 2301 2301 2317 2317 2317 2317 2317 2317 2317 2317 2317 2317 2317 2317 2317 2317 2317 2317 2317 2317 2317 2317 2317 2317 2317 2317 2317 2317 2317 2317 2317 2317 2317 2317 2317 2317 2317 2317 2317 2317 2317 2317 2317 2317 2333 2333 2333 2349 2349 2349 2349 2349 2349 2333 2333 2333 2333 2333 2333 2333 2333 2333 2333 2333 2317 2317 2317 2317 2317 2317 2317 2317 2333 2333 2333 2333 2333 2317 2317 2317 2317 2317 2317 2301 2301 2301 2301 2301 2301 2301 2301 2286 2286 2286 2286 2286 2286 2286 2286 2286 2286 2286 2286 2286 2286 2286 2286 2301 2301 2301 2286 2286 2301 2286 2286 2286 2286 2271 2271 0 0 0 0 0 0 0 0 0
0 0 0 0 0 0 0 0 0 0 0 0 0 0 0 0 0 0 0 0 0 0 0 0 0 0 0 0 0 0 0 0 0 2271 2271 2271 2271 2271 2271 2271 2286 2286 2286 2286 2286 2286 2286 2301 2301 2301 2301 2301 2301 2286 2286 2286 2286 2286 2301 2301 2301 2301 2301 2301 2301 2286 2271 2271 2271 2271 2286 2286 2286 2286 2286 2286 2286 2286 2286 2286 2286 2286 2286 2286 2286 2286 2301 2301 2301 2301 2301 2301 2317 2317 2317 2317 2301 2301 2301 2301 2286 2286 2301 2301 2317 2317 2317 2317 2317 2333 2333 1639 1639 1639 1639 1639 1647 1639 1639 1639 1639 1572 1572 1564 1564 1557 1557 1564 1564 1564 1564 1564 1572 1579 1579 1579 1579 1579 1579 1579 1579 1579 1579 1586 1586 1579 1579 1579 1579 1579 1572 1572 1579 1572 1572 1572 1564 1564 1564 1564 1564 1564 1564 1564 1572 1572 1572 1564 1564 1564 1564 1557 1557 1557 1557 1557 1557 1557 1557 1557 1557 1557 1557 1557 1557 1557 1557 1557 1557 1557 1557 1550 1550 1557 1550 1550 1550 1550 1550 1550 1550 1550 1550 1557 1557 1557 1550 1550 1550 1550 1550 1550 1550 1543 1543 1543 1543 1536 1536 1529 1529 1529 1529 1529 1529 1529 1529 1529 1529 1536 1543 1550 1550 1557 1564 1579 1586 1601 1616 1616 2349 2349 2349 2349 2349 2349 2349 2349 2349 2349 2349 2349 2349 2349 2365 2365 2365 2365 2365 2365 2365 2349 2349 2349 1947 1936 1936 1936 1936 1936 1936 1936 1936 1404 1404 1404 1410 1410 1415 1415 1415 1415 1415 1415 1415 1415 1421 1427 1433 1445 1464 1470 1470 1477 1477 1483 1483 1483 1483 1483 1483 1483 1483 1483 1483 1483 1483 1483 1483 1483 1483 1483 1483 1483 1483 1477 1477 1477 1477 1477 1483 1483 1483 1483 1483 1483 1483 1483 1483 1483 1483 1477 1477 1477 1477 1477 1477 1477 1477 1477 1477 1477 1477 1477 1477 1477 1477 1477 1477 1477 1483 1483 1483 1483 1483 1483 1483 1483 1483 1483 1483 1483 1483 1483 1483 1483 1483 1483 1477 1477 1477 1477 1477 1477 1477 1483 1477 1477 1477 1477 1477 1477 1477 1483 1483 1483 1489 1496 1349 1349 1349 1354 1354 1354 1354 1354 1354 1354 1354 1354 1349 1349 1483 1489 1483 1483 1489 1503 1509 1523 1794 1785 1785 1785 1785 1794 1804 2333 2333 2349 2349 2349 2349 2349 2333 2333 2333 2333 2333 2333 2333 2349 2065 2065 2065 2065 2078 1873 1873 1873 1873 1873 1873 1873 1873 1873 1873 1873 2333 2333 2333 2333 2333 2317 2317 2212 2212 2198 2198 2198 2184 2184 2184 2184 2184 2184 2184 2184 2212 2271 2317 2333 2349 2349 2349 2349 0 1421 1421 1421 1427 1427 1433 1433 1433 1433 1433 1433 1433 1433 1433 1433 1433 1433 1433 1433 1433 1433 1433 1433 1433 1433 1433 1433 1439 1433 1427 1427 1427 1427 1427 1427 2301 2301 2301 2317 2317 2317 2317 2317 2317 2317 2317 2317 2317 2317 2317 2301 2301 2317 2317 2317 2317 2317 2317 2317 2301 2301 2301 2301 2301 2301 2317 2317 2317 2317 2317 2317 2317 2317 2317 2317 2317 2317 2317 2317 2317 2317 2333 2333 2333 2349 2333 2333 2333 2333 2333 2317 2317 2317 2317 2317 2317 2317 2317 2317 2317 2317 2317 2317 2317 2317 2317 2317 2317 2317 2317 2317 2317 2317 2301 2301 2301 2301 2301 2301 2301 2301 2301 2301 2286 2286 2286 2286 2286 2286 2286 2286 2286 2286 2286 2286 2286 2286 2286 2271 2271 2286 2286 2286 2286 2286 2286 2286 2286 2286 2286 2286 2286 2271 2271 0 0 0 0 0 0 0 0 0
0 0 0 0 0 0 0 0 0 0 0 0 0 0 0 0 0 0 0 0 0 0 0 0 0 0 0 0 0 0 0 0 0 2271 2271 2271 2271 2271 2271 2271 2271 2271 2286 2271 2271 2286 2286 2286 2286 2286 2301 2286 2286 2286 2286 2286 2286 2286 2286 2286 2301 2301 2301 2286 2286 2286 2271 2271 2271 2271 2271 2271 2271 2271 2286 2286 2286 2286 2271 2271 2286 2286 2286 2286 2286 2286 2286 2286 2286 2301 2301 2301 2301 2301 2301 2301 2301 2286 2286 2286 2286 2286 2286 2301 2301 2301 2301 2317 2317 2333 2333 1639 1639 1639 1639 1647 1647 1647 1647 1639 1639 1572 1564 1564 1564 1557 1557 1564 1564 1564 1564 1564 1572 1579 1579 1579 1579 1579 1579 1579 1579 1579 1586 1586 1586 1586 1586 1586 1579 1579 1579 1579 1579 1579 1579 1572 1572 1564 1564 1564 1564 1564 1564 1572 1572 1572 1572 1572 1564 1564 1564 1557 1557 1557 1557 1557 1557 1557 1557 1557 1557 1557 1557 1557 1557 1557 1557 1557 1557 1557 1557 1557 1557 1557 1557 1557 1557 1557 1557 1557 1557 1557 1557 1557 1557 1557 1557 1557 1550 1550 1550 1550 1550 1550 1550 1543 1543 1536 1536 1529 1529 1529 1529 1529 1529 1529 1529 1529 1529 1536 1543 1550 1550 1557 1564 1572 1586 1601 1601 2333 2333 2333 2333 2333 2349 2349 2333 2333 2349 2349 2349 2349 2349 2349 2349 2349 2349 2365 2365 2365 2365 2349 2349 2349 1936 1936 1936 1936 1936 1936 1936 1936 1936 1410 1410 1410 1410 1415 1415 1415 1415 1415 1415 1415 1415 1415 1421 1427 1439 1445 1458 1464 1470 1470 1477 1477 1477 1477 1477 1477 1477 1477 1477 1477 1477 1477 1477 1477 1477 1477 1477 1477 1477 1477 1477 1470 1470 1470 1477 1477 1477 1477 1477 1477 1483 1483 1483 1483 1483 1483 1483 1470 1470 1470 1470 1470 1470 1470 1470 1470 1470 1470 1470 1470 1470 1470 1470 1470 1470 1470 1477 1477 1477 1477 1477 1483 1477 1477 1477 1477 1477 1477 1477 1477 1477 1477 1477 1477 1470 1470 1470 1470 1470 1470 1470 1477 1470 1470 1470 1470 1470 1470 1470 1477 1477 1477 1483 1489 1354 1354 1354 1359 1359 1354 1354 1354 1354 1354 1354 1349 1349 1349 1483 1483 1477 1477 1477 1489 1509 1794 1794 1794 1794 1794 1794 1794 1804 2317 2317 2333 2333 2333 2333 2333 2333 2333 2333 2333 2333 2333 2333 2349 2053 2053 2053 2053 2078 1873 1873 1873 1873 1873 1873 1873 1873 1873 1873 1863 1863 2317 2317 2333 2333 2317 2301 2212 2212 2198 2198 2198 2184 2184 2184 2184 2184 2184 2198 2198 2226 2271 2317 2317 2333 2349 2349 2349 1421 1421 1421 1427 1427 1433 1433 1433 1433 1433 1433 1433 1433 1433 1433 1433 1433 1433 1433 1433 1433 1433 1433 1433 1433 1433 1433 1439 1439 1439 1433 1433 1433 1433 1433 2301 2301 2301 2301 2301 2317 2317 2317 2317 2317 2317 2317 2317 2317 2301 2301 2301 2301 2301 2301 2301 2301 2301 2301 2301 2301 2301 2301 2301 2301 2301 2301 2301 2301 2301 2301 2317 2301 2301 2301 2301 2301 2301 2301 2301 2301 2301 2301 2301 2301 2333 2317 2317 2317 2317 2317 2317 2317 2317 2317 2317 2317 2317 2317 2317 2317 2301 2301 2301 2301 2301 2301 2317 2317 2317 2317 2317 2317 2301 2301 2301 2301 2301 2301 2301 2301 2301 2286 2286 2286 2286 2286 2286 2286 2286 2286 2286 2286 2271 2271 2271 2271 2271 2271 2271 2271 2271 2271 2286 2286 2286 2286 2286 2286 2286 2286 2286 2271 2271 2271 0 0 0 0 0 0 0 0 0
0 0 0 0 0 0 0 0 0 0 0 0 0 0 0 0 0 0 0 0 0 0 0 0 0 0 0 0 0 0 0 0 0 2256 2256 2256 2256 2256 2256 2256 2271 2271 2271 2271 2271 2271 2286 2286 2286 2286 2286 2286 2286 2286 2271 2271 2286 2286 2286 2286 2286 2286 2286 2286 2286 2286 2271 2271 2271 2271 2271 2271 2271 2271 2271 2271 2271 2271 2271 2271 2271 2271 2271 2271 2271 2271 2286 2286 2286 2286 2286 2286 2301 2301 2301 2301 2286 2286 2286 2271 2271 2286 2286 2301 2301 2301 2301 2317 2317 2317 2317 1639 1639 1639 1647 1647 1647 1647 1647 1647 1647 1639 1564 1564 1564 1564 1564 1564 1572 1572 1572 1572 1579 1579 1579 1579 1579 1579 1586 1579 1579 1579 1586 1586 1586 1586 1586 1586 1586 1579 1579 1579 1579 1579 1579 1572 1572 1572 1572 1572 1572 1572 1572 1572 1572 1572 1572 1572 1572 1572 1564 1564 1564 1564 1557 1557 1557 1557 1564 1557 1557 1564 1557 1557 1557 1557 1557 1557 1557 1557 1557 1557 1557 1557 1557 1557 1557 1557 1557 1557 1557 1557 1557 1557 1557 1557 1557 1557 1557 1550 1550 1550 1550 1550 1550 1550 1543 1543 1536 1536 1536 1529 1529 1529 1529 1529 1529 1529 1529 1536 1543 1543 1550 1557 1557 1572 1572 1572 2333 2333 2333 2333 2333 2333 2333 2333 2333 2333 2333 2333 2333 2333 2349 2349 2349 2349 2349 2349 2349 2349 2349 2349 2349 2349 1936 1936 1936 1936 1936 1936 1936 1936 1936 1415 1415 1415 1415 1415 1415 1415 1415 1415 1415 1415 1415 1421 1427 1433 1439 1445 1452 1458 1464 1470 1470 1470 1470 1470 1470 1470 1477 1477 1477 1477 1477 1477 1477 1470 1470 1477 1477 1477 1470 1470 1470 1470 1470 1470 1470 1470 1470 1470 1477 1477 1477 1477 1477 1477 1477 1477 1477 1470 1464 1464 1464 1464 1464 1464 1464 1470 1470 1470 1470 1470 1470 1470 1470 1464 1464 1470 1470 1477 1470 1470 1470 1477 1477 1477 1477 1470 1470 1470 1470 1470 1477 1470 1470 1470 1470 1464 1464 1464 1464 1464 1464 1470 1470 1470 1470 1470 1470 1470 1470 1470 1470 1477 1483 1483 1354 1354 1354 1359 1359 1359 1359 1354 1354 1354 1359 1349 1349 1349 1477 1470 1470 1470 1470 1483 1794 1785 1785 1785 1794 1794 1794 1794 2333 2317 2317 2333 2333 2333 2333 2333 2333 2333 2333 2333 2333 2333 2333 2333 2053 2053 2053 2053 1873 1873 1873 1873 1873 1873 1873 1873 1873 1873 1863 1863 1863 2317 2317 2333 2317 2301 2256 2212 2212 2198 2198 2198 2198 2198 2198 2198 2198 2198 2198 2198 2226 2271 2301 2317 2333 2333 2333 2333 1421 1421 1421 1427 1427 1433 1433 1433 1433 1439 1439 1433 1433 1433 1433 1433 1433 1433 1433 1433 1433 1433 1433 1433 1433 1433 1439 1439 1439 1439 1433 1433 1433 1433 2286 2286 2286 2286 2286 2301 2301 2301 2317 2317 2317 2317 2301 2301 2301 2301 2301 2301 2301 2301 2301 2301 2301 2301 2301 2301 2301 2301 2301 2301 2301 2301 2301 2301 2301 2301 2301 2301 2301 2301 2301 2301 2301 2301 2301 2301 2301 2301 2301 2301 2301 2301 2301 2301 2301 2317 2317 2301 2301 2301 2301 2301 2301 2301 2301 2301 2301 2301 2301 2301 2301 2301 2301 2301 2301 2301 2301 2301 2301 2286 2286 2286 2286 2286 2286 2286 2286 2286 2286 2286 2286 2286 2271 2271 2271 2271 2271 2271 2271 2256 2256 2256 2256 2256 2256 2256 2256 2256 2256 2271 2271 2271 2271 2271 2271 2271 2271 2271 2271 2256 2256 0 0 0 0 0 0 0 0 0
0 0 0 0 0 0 0 0 0 0 0 0 0 0 0 0 0 0 0 0 0 0 0 0 0 0 0 0 0 0 0 0 0 2256 2256 2256 2256 2241 2241 2256 2271 2271 2271 2271 2271 2271 2271 2271 2271 2271 2271 2271 2271 2271 2271 2271 2271 2286 2286 2286 2286 2286 2286 2286 2271 2271 2271 2271 2271 2271 2271 2271 2271 2271 2271 2271 2271 2271 2271 2271 2271 2271 2271 2271 2271 2271 2271 2271 2286 2286 2286 2286 2286 2286 2286 2286 2286 2286 2286 2271 2271 2286 2286 2286 2301 2301 2301 2301 2317 2317 2317 1639 1639 1639 1647 1655 1647 1647 1647 1655 1647 1647 1564 1564 1564 1564 1564 1572 1572 1572 1579 1579 1579 1586 1579 1579 1579 1586 1586 1586 1586 1586 1586 1586 1586 1586 1586 1586 1586 1586 1579 1579 1586 1586 1586 1579 1572 1572 1572 1572 1572 1572 1572 1572 1579 1579 1579 1572 1572 1572 1572 1564 1564 1564 1564 1564 1557 1557 1564 1557 1557 1564 1557 1557 1557 1557 1557 1557 1557 1557 1557 1557 1557 1557 1557 1557 1557 1557 1557 1557 1557 1557 1557 1557 1557 1557 1557 1557 1557 1557 1557 1550 1550 1550 1550 1550 1550 1543 1543 1536 1536 1529 1529 1529 1529 1529 1529 1529 1529 1536 1543 1543 1550 1557 1557 1557 1557 2317 2317 2333 2333 2333 2333 2333 2333 2333 2333 2333 2333 2333 2333 2333 2333 2333 2333 2333 2349 2333 2333 2349 2349 2349 2349 2349 1936 1936 1936 1936 1936 1936 1936 1936 1936 1415 1415 1415 1415 1415 1415 1415 1415 1415 1415 1415 1415 1421 1427 1433 1439 1445 1452 1458 1464 1470 1470 1470 1470 1470 1470 1470 1470 1470 1470 1470 1470 1470 1470 1470 1470 1470 1470 1470 1470 1470 1470 1464 1464 1470 1470 1470 1470 1470 1470 1470 1470 1470 1470 1470 1470 1470 1470 1464 1464 1464 1464 1464 1464 1464 1464 1464 1464 1464 1464 1464 1464 1464 1464 1464 1464 1464 1464 1464 1464 1464 1464 1470 1464 1464 1464 1464 1464 1464 1464 1464 1464 1464 1464 1464 1464 1464 1464 1464 1464 1464 1464 1464 1464 1464 1464 1464 1464 1464 1464 1464 1470 1470 1477 1477 1359 1359 1359 1359 1359 1359 1359 1359 1359 1359 1359 1359 1349 1349 1464 1470 1464 1464 1470 1477 1785 1785 1785 1785 1794 1794 1794 1794 2317 2317 2317 2317 2317 2317 2333 2333 2333 2317 2317 2317 2333 2333 2333 2333 2333 2333 2053 2053 1873 1873 1873 1873 1873 1873 1873 1873 1873 1873 1863 1863 1863 2317 2317 2317 2317 2301 2226 2212 2212 2198 2198 2198 2198 2198 2198 2198 2198 2198 2198 2198 2226 2271 2301 2317 2317 2333 2333 0 1421 1421 1421 1427 1427 1433 1433 1433 1439 1439 1439 1439 1433 1433 1433 1433 1433 1433 1433 1433 1433 1433 1439 1439 1439 1439 1439 1439 1439 1439 1433 1433 1439 1439 2286 2286 2286 2286 2286 2286 2301 2301 2301 2301 2301 2301 2301 2301 2301 2286 2286 2286 2286 2301 2301 2301 2301 2301 2301 2301 2301 2301 2286 2286 2286 2286 2286 2286 2286 2286 2301 2301 2301 2301 2301 2301 2301 2301 2286 2286 2286 2286 2286 2286 2286 2286 2301 2301 2301 2301 2301 2301 2301 2301 2301 2301 2301 2301 2286 2286 2286 2286 2286 2286 2286 2301 2301 2286 2286 2286 2301 2301 2286 2271 2271 2286 2286 2286 2286 2286 2286 2286 2271 2271 2271 2271 2271 2271 2271 2271 2271 2256 2256 2241 2241 2241 2241 2241 2241 2241 2256 2256 2256 2256 2256 2256 2256 2256 2256 2271 2256 2256 2256 2241 2241 0 0 0 0 0 0 0 0 0
0 0 0 0 0 0 0 0 0 0 0 0 0 0 0 0 0 0 0 0 0 0 0 0 0 0 0 0 0 0 0 0 0 2256 2256 2256 2256 2241 2241 2256 2256 2271 2271 2256 2256 2256 2271 2271 2271 2271 2271 2271 2271 2271 2271 2271 2271 2271 2271 2271 2271 2271 2271 2271 2271 2271 2256 2256 2256 2271 2271 2271 2271 2256 2256 2256 2256 2256 2256 2256 2256 2256 2256 2256 2271 2271 2271 2271 2271 2271 2271 2271 2271 2271 2271 2271 2271 2271 2271 2271 2271 2271 2271 2271 2271 2286 2286 2286 2286 2301 2301 1647 1647 1647 1647 1655 1647 1647 1647 1655 1655 1647 1647 1564 1564 1564 1564 1572 1572 1572 1579 1579 1579 1586 1579 1579 1586 1586 1586 1586 1586 1586 1586 1586 1586 1586 1586 1586 1586 1586 1579 1579 1586 1586 1586 1579 1572 1572 1572 1572 1572 1572 1572 1572 1579 1579 1579 1572 1572 1572 1572 1564 1564 1564 1564 1564 1557 1557 1564 1564 1564 1564 1564 1564 1564 1564 1557 1557 1557 1557 1557 1557 1557 1557 1557 1557 1557 1557 1557 1557 1557 1557 1557 1557 1557 1557 1557 1557 1557 1557 1557 1550 1550 1550 1550 1550 1550 1543 1543 1536 1536 1529 1529 1529 1529 1529 1529 1529 1529 1536 1543 1550 1557 1557 1557 1557 1564 2317 2317 2317 2301 2301 2301 2317 2317 2317 2317 2317 2317 2317 2317 2317 2317 2317 2301 2301 2333 2317 2317 2333 2333 2333 2333 2333 2333 1936 1936 1936 1936 1936 1936 1936 1936 1415 1415 1415 1415 1415 1415 1415 1415 1415 1415 1415 1421 1421 1427 1433 1439 1445 1452 1452 1458 1458 1464 1464 1464 1464 1464 1464 1464 1464 1464 1464 1464 1464 1464 1464 1464 1470 1464 1464 1464 1464 1464 1464 1464 1464 1464 1464 1464 1464 1464 1464 1464 1464 1464 1464 1464 1464 1464 1458 1458 1458 1458 1458 1458 1464 1464 1464 1464 1464 1464 1464 1464 1464 1464 1464 1458 1458 1464 1464 1458 1458 1458 1458 1458 1458 1458 1458 1458 1458 1458 1464 1464 1464 1464 1464 1458 1458 1458 1458 1458 1458 1458 1458 1458 1458 1458 1458 1458 1458 1458 1458 1458 1458 1464 1464 1359 1359 1365 1365 1365 1365 1359 1359 1359 1359 1359 1359 1359 1359 1464 1464 1464 1464 1464 1464 1464 1785 1785 1785 1794 1804 1804 2317 2317 2317 2317 2317 2317 2317 2317 2317 2317 2317 2317 2317 2317 2317 2333 2333 2333 2333 2053 1894 1894 1883 1883 1873 1873 1873 1873 1873 1873 1873 1863 1863 2317 2317 2317 2317 2317 2301 2226 2212 2212 2198 2198 2198 2198 2198 2198 2198 2198 2198 2198 2212 2241 2271 2286 2301 2317 2333 2333 0 1427 1427 1427 1427 1433 1433 1433 1433 1439 1439 1439 1439 1439 1439 1433 1433 1433 1433 1433 1433 1433 1439 1439 1439 1439 1439 1439 1439 1439 1439 1439 1439 1439 1439 2286 2286 2271 2271 2271 2286 2286 2301 2301 2301 2301 2301 2286 2286 2286 2271 2271 2271 2286 2286 2286 2286 2286 2286 2301 2286 2286 2286 2286 2286 2286 2286 2286 2286 2286 2286 2286 2286 2286 2286 2286 2286 2286 2286 2286 2286 2286 2271 2271 2271 2271 2271 2286 2286 2286 2301 2301 2286 2286 2301 2301 2301 2286 2286 2286 2286 2286 2286 2271 2271 2286 2286 2286 2271 2271 2271 2286 2286 2271 2271 2271 2271 2271 2271 2271 2271 2271 2256 2256 2256 2256 2256 2271 2271 2256 2256 2256 2256 2241 2241 2241 2241 2241 2241 2241 2241 2241 2256 2256 2256 2256 2256 2256 2256 2256 2256 2256 2256 2241 2241 2241 0 0 0 0 0 0 0 0 0
0 0 0 0 0 0 0 0 0 0 0 0 0 0 0 0 0 0 0 0 0 0 0 0 0 0 0 0 0 0 0 0 0 2241 2241 2241 2241 2241 2241 2241 2256 2256 2256 2256 2256 2256 2256 2256 2256 2256 2271 2271 2271 2271 2271 2271 2271 2271 2271 2256 2256 2256 2256 2256 2256 2256 2256 2256 2256 2256 2256 2256 2256 2256 2256 2256 2256 2256 2256 2256 2256 2241 2241 2256 2256 2256 2256 2256 2256 2256 2271 2271 2271 2256 2256 2271 2271 2271 2271 2271 2271 2271 2271 2271 2271 2271 2271 2286 2286 2286 2286 2286 1655 1655 1655 1655 1655 1655 1655 1655 1655 1647 1647 1647 1564 1564 1564 1572 1572 1572 1579 1579 1579 1579 1586 1586 1586 1586 1586 1586 1579 1579 1579 1579 1579 1586 1586 1586 1586 1586 1586 1586 1586 1586 1586 1579 1579 1579 1579 1579 1572 1572 1572 1572 1579 1579 1579 1579 1579 1579 1572 1572 1572 1564 1564 1564 1557 1557 1564 1564 1564 1564 1564 1564 1564 1564 1557 1557 1557 1557 1557 1557 1557 1557 1557 1557 1557 1557 1557 1557 1557 1557 1557 1557 1557 1557 1564 1564 1557 1557 1557 1557 1550 1550 1550 1550 1550 1550 1543 1543 1536 1529 1529 1529 1529 1529 1529 1536 1536 1543 1543 1550 1557 1557 1557 1564 1564 2301 2301 2301 2286 2286 2301 2301 2301 2301 2301 2301 2301 2301 2301 2301 2301 2301 2301 2301 2301 2301 2301 2301 2301 2317 2317 2317 2317 1936 1936 1936 1936 1936 1936 1936 1936 1936 1415 1415 1421 1421 1421 1421 1421 1421 1421 1421 1421 1421 1427 1433 1439 1439 1445 1452 1452 1452 1452 1458 1458 1458 1458 1452 1452 1458 1458 1458 1464 1464 1464 1464 1464 1464 1464 1464 1458 1458 1464 1458 1458 1464 1464 1464 1464 1464 1464 1464 1458 1458 1458 1458 1458 1458 1458 1458 1458 1458 1458 1458 1458 1458 1458 1458 1458 1458 1458 1458 1458 1458 1458 1458 1458 1458 1458 1458 1458 1458 1458 1452 1452 1452 1458 1458 1458 1458 1458 1458 1458 1458 1458 1458 1458 1458 1458 1458 1458 1458 1458 1458 1458 1458 1458 1458 1458 1458 1458 1458 1458 1458 1452 1452 1365 1365 1365 1365 1365 1365 1365 1359 1359 1359 1359 1365 1359 1359 1458 1464 1464 1464 1464 1464 1464 1785 1785 1794 1794 1804 1804 2317 2317 2317 2317 2317 2317 2317 2317 2317 2317 2317 2317 2317 2317 2317 2333 2333 2333 2333 2333 1894 1894 1883 1883 1883 1883 1873 1873 1873 1873 1873 1863 1863 2301 2301 2317 2317 2301 2301 2226 2212 2212 2198 2198 2198 2198 2198 2198 2198 2198 2198 2198 2226 2256 2271 2286 2301 2317 2333 2333 0 1427 1427 1427 1427 1433 1433 1433 1439 1439 1439 1439 1439 1439 1439 1439 1439 1439 1439 1439 1439 1439 1439 1439 1439 1439 1439 1439 1439 1445 1445 1439 1439 1445 1445 1445 2271 2271 2271 2271 2271 2286 2286 2286 2286 2286 2286 2286 2271 2271 2271 2271 2271 2271 2271 2271 2271 2271 2286 2286 2286 2286 2286 2271 2271 2286 2271 2271 2271 2271 2271 2271 2271 2271 2271 2286 2271 2271 2271 2271 2271 2271 2271 2271 2271 2271 2271 2271 2271 2271 2286 2286 2286 2286 2286 2286 2286 2271 2271 2271 2271 2286 2271 2271 2271 2271 2271 2271 2271 2271 2271 2271 2271 2256 2256 2256 2256 2256 2256 2256 2256 2241 2241 2241 2241 2241 2241 2256 2256 2256 2241 2241 2241 2241 2226 2226 2226 2226 2241 2241 2241 2241 2241 2241 2241 2241 2241 2241 2241 2256 2256 2256 2256 2241 2241 2241 0 0 0 0 0 0 0 0 0
0 0 0 0 0 0 0 0 0 0 0 0 0 0 0 0 0 0 0 0 0 0 0 0 0 0 0 0 0 0 0 0 0 2241 2241 2241 2241 2241 2241 2241 2241 2241 2256 2241 2241 2241 2241 2241 2241 2241 2256 2256 2256 2256 2256 2256 2271 2256 2256 2241 2241 2241 2241 2241 2241 2256 2241 2241 2256 2256 2256 2256 2256 2256 2256 2256 2256 2256 2256 2256 2256 2241 2241 2241 2256 2256 2256 2256 2256 2256 2256 2256 2256 2241 2241 2256 2256 2256 2256 2256 2256 2256 2256 2256 2256 2271 2271 2271 2271 2271 2286 2286 1655 1655 1655 1655 1655 1655 1655 1655 1655 1647 1647 1647 1586 1564 1564 1572 1572 1579 1579 1579 1579 1579 1586 1586 1586 1586 1586 1586 1579 1579 1579 1579 1579 1586 1586 1586 2256 1594 1594 1586 1586 1594 1594 1579 1579 1579 1579 1579 1572 1572 1572 1572 1579 1579 1579 1579 1579 1579 1572 1572 1572 1564 1564 1564 1557 1557 1564 1564 1557 1557 1557 1557 1564 1564 1564 1557 1557 1557 1557 1557 1557 1557 1557 1557 1557 1557 1557 1557 1557 1557 1557 1557 1557 1564 1564 1564 1557 1557 1557 1557 1557 1557 1557 1557 1557 1550 1543 1543 1536 1529 1529 1529 1529 1529 1536 1536 1536 1543 1550 1550 1557 1557 1557 1564 1564 2286 2286 2286 2286 2286 2286 2286 2286 2286 2301 2301 2301 2301 2301 2301 2301 2301 2301 2301 2301 2301 2301 2301 2301 2301 2317 2301 2301 1936 1936 1936 1936 1936 1936 1936 1936 1936 1415 1415 1421 1421 1421 1421 1421 1421 1421 1421 1421 1427 1433 1433 1439 1439 1439 1445 1439 1439 1445 1445 1445 1445 1445 1445 1445 1445 1445 1445 1452 1452 1452 1452 1452 1452 1452 1445 1445 1445 1445 1452 1452 1458 1458 1458 1458 1458 1458 1458 1452 1452 1452 1452 1458 1458 1458 1458 1452 1452 1452 1452 1452 1452 1452 1452 1452 1452 1452 1452 1452 1452 1452 1458 1452 1452 1452 1452 1452 1452 1452 1445 1445 1445 1452 1452 1452 1452 1452 1458 1458 1458 1458 1458 1458 1458 1458 1452 1452 1452 1452 1452 1452 1452 1452 1452 1452 1452 1452 1452 1452 1452 1445 1445 1370 1365 1365 1365 1365 1365 1365 1365 1365 1365 1365 1365 1359 1359 1452 1458 1458 1458 1464 1464 1464 1785 1785 1794 1794 1804 1804 2317 2301 2301 2317 2317 2317 2317 2317 2317 2317 2317 2317 2317 2317 2317 2317 2317 2317 2317 2317 1894 1883 1883 1883 1873 1873 1873 1873 1873 1873 1873 1863 1863 2301 2301 2301 2301 2301 2271 2226 2212 2212 2198 2198 2198 2198 2198 2198 2198 2198 2198 2212 2226 2256 2271 2286 2301 2301 2317 2317 0 1433 1433 1433 1433 1433 1433 1433 1439 1439 1439 1445 1445 1439 1439 1439 1439 1439 1439 1439 1439 1439 1439 1439 1439 1439 1439 1439 1439 1445 1445 1445 1445 1445 1445 0 2256 2256 2256 2256 2256 2271 2271 2271 2271 2271 2271 2271 2256 2256 2256 2256 2256 2256 2271 2271 2271 2271 2271 2271 2271 2271 2286 2271 2271 2271 2271 2256 2256 2256 2256 2256 2271 2271 2271 2271 2256 2256 2256 2256 2256 2256 2256 2256 2256 2256 2256 2256 2271 2271 2271 2271 2271 2271 2271 2271 2271 2271 2271 2271 2271 2271 2271 2271 2271 2271 2271 2271 2256 2256 2256 2256 2256 2256 2241 2241 2241 2241 2241 2241 2241 2241 2241 2241 2226 2226 2241 2241 2241 2241 2241 2241 2241 2241 2226 2226 2226 2226 2241 2241 2241 2241 2241 2241 2241 2241 2241 2241 2241 2241 2241 2226 2226 2226 2198 2198 0 0 0 0 0 0 0 0 0
0 0 0 0 0 0 0 0 0 0 0 0 0 0 0 0 0 0 0 0 0 0 0 0 0 0 0 0 0 0 0 0 0 2226 2226 2226 2226 2241 2241 2241 2241 2241 2241 2241 2241 2241 2241 2226 2226 2226 2241 2241 2241 2241 2241 2241 2256 2241 2241 2226 2226 2226 2226 2226 2226 2241 2241 2241 2241 2241 2256 2256 2256 2256 2256 2256 2256 2256 2241 2241 2241 2241 2241 2241 2241 2241 2256 2256 2256 2256 2256 2256 2256 2226 2226 2241 2241 2256 2256 2256 2256 2256 2256 2256 2256 2256 2256 2271 2271 2271 2271 2286 1655 1655 1655 1655 1655 1655 1655 1655 1655 1647 1647 1639 1586 1579 1579 1579 1579 1579 1579 1579 1586 1586 1586 1586 1586 1586 1586 1586 1586 1586 1586 2271 2271 2256 2256 2271 2271 2271 2271 2271 2271 2271 2271 2271 2271 2271 2271 2256 1579 1579 1579 1579 1586 1579 1579 1579 1579 1579 1572 1572 1572 1564 1564 1564 1557 1557 1557 1557 1557 1557 1557 1557 1557 1557 1564 1557 1557 1557 1557 1557 1557 1557 1557 1557 1557 1557 1550 1550 1557 1557 1557 1557 1564 1564 1564 1564 1557 1557 1557 1557 1557 1557 1557 1557 1557 1550 1543 1543 1536 1529 1529 1529 1529 1529 1536 1536 1543 1543 1550 1550 1550 1557 1557 1557 1557 2271 2271 2271 2271 2271 2286 2286 2286 2286 2286 2301 2286 2286 2286 2286 2286 2286 2286 2286 2286 2286 2286 2286 2286 2286 2301 2301 2301 1936 1936 1947 1936 1936 1936 1936 1936 1936 1421 1421 1421 1421 1427 1421 1421 1421 1421 1427 1427 1427 1433 1433 1439 1439 1439 1439 1439 1439 1439 1445 1445 1445 1445 1439 1439 1445 1445 1445 1445 1445 1445 1439 1439 1445 1445 1445 1445 1445 1445 1445 1445 1445 1445 1445 1445 1445 1445 1445 1445 1445 1445 1445 1445 1445 1445 1445 1439 1439 1439 1439 1439 1439 1439 1439 1439 1445 1445 1445 1445 1445 1452 1452 1452 1445 1445 1445 1445 1445 1445 1445 1445 1445 1445 1445 1445 1445 1445 1445 1452 1452 1445 1445 1452 1452 1452 1452 1452 1452 1452 1445 1445 1445 1445 1445 1445 1445 1452 1445 1445 1445 1445 1445 1370 1370 1365 1365 1365 1365 1365 1365 1365 1365 1365 1365 1370 1370 1445 1452 1452 1458 1458 1458 1785 1785 1785 1794 1804 1804 1804 1833 2301 2301 2301 2301 2301 2301 2317 2317 2317 2317 2317 2317 2317 2317 2317 2317 2317 2317 1883 1883 1883 1883 1883 1873 1873 1873 1873 1873 1873 1873 1863 1863 2286 2286 2286 2286 2271 2256 2226 2226 2212 2198 2198 2198 2198 2198 2198 2198 2198 2212 2226 2241 2256 2271 2271 2271 2286 2301 2301 1427 1433 1433 1433 1433 1433 1439 1439 1439 1439 1439 1445 1445 1439 1439 1439 1439 1439 1439 1439 1439 1439 1439 1439 1439 1439 1439 1439 1439 1445 1445 1445 1445 1452 1452 2241 2256 2256 2256 2256 2256 2256 2256 2256 2256 2256 2256 2256 2256 2256 2256 2256 2256 2256 2256 2256 2256 2256 2256 2256 2256 2256 2271 2271 2271 2271 2271 2256 2256 2256 2256 2256 2256 2256 2256 2256 2256 2256 2256 2256 2256 2241 2241 2256 2256 2256 2256 2256 2256 2256 2271 2271 2271 2271 2256 2256 2256 2256 2256 2256 2256 2256 2256 2256 2256 2256 2256 2256 2256 2256 2256 2256 2256 2256 2241 2241 2241 2241 2241 2241 2241 2241 2226 2226 2226 2226 2226 2226 2226 2226 2226 2226 2226 2226 2226 2226 2226 2226 2226 2226 2226 2241 2241 2241 2226 2226 2241 2241 2241 2241 2226 2226 2226 2212 2198 2198 0 0 0 0 0 0 0 0 0
0 0 0 0 0 0 0 0 0 0 0 0 0 0 0 0 0 0 0 0 0 0 0 0 0 0 0 0 0 0 0 0 0 2226 2226 2226 2226 2226 2226 2241 2241 2241 2241 2241 2226 2226 2226 2226 2226 2226 2226 2226 2241 2241 2241 2241 2241 2226 2226 2226 2226 2226 2226 2226 2226 2241 2226 2226 2241 2241 2241 2241 2241 2241 2241 2241 2241 2241 2241 2226 2226 2226 2226 2226 2241 2241 2256 2256 2256 2256 2256 2241 2241 2226 2226 2226 2226 2241 2241 2241 2241 2256 2256 2256 2256 2256 2256 2256 2256 2256 2271 2271 2271 1655 1655 1655 1655 1655 1655 1647 1647 1647 1647 1639 1594 1586 1586 1579 1579 1579 1586 1586 1586 1586 1586 1586 1586 1586 1586 1586 1594 1594 2256 2256 2256 2256 2256 2256 2271 2271 2271 2271 2271 2271 2256 2256 2256 2256 2256 2256 2241 2241 2256 2256 2256 2256 1586 1586 2256 2256 2256 1572 1572 1564 1564 1981 1557 1557 1557 1557 1550 1550 1557 1557 1557 1557 1557 1557 1557 1557 1557 1557 1550 1550 1557 1557 1557 1557 1550 1550 1557 1557 1557 1557 1557 1564 1564 1564 1557 1557 1557 1557 1557 1557 1557 1557 1557 1550 1543 1543 1536 1529 1529 1529 1536 1536 1536 1536 1543 1550 1550 1550 1550 1557 1557 1557 1557 1557 2256 2256 2256 2256 2271 2271 2271 2286 2286 2286 2286 2286 2286 2286 2286 2286 2286 2286 2286 2286 2286 2286 2286 2286 2286 2301 2301 2301 1947 1947 1947 1947 1936 1936 1936 1936 1936 1427 1427 1427 1427 1427 1427 1427 1427 1427 1427 1433 1433 1433 1433 1439 1439 1439 1439 1439 1439 1439 1439 1439 1439 1439 1439 1439 1439 1439 1439 1439 1439 1439 1439 1439 1439 1439 1439 1439 1439 1439 1445 1439 1439 1445 1445 1445 1445 1445 1445 1439 1439 1439 1439 1439 1439 1439 1433 1433 1433 1439 1439 1433 1433 1439 1439 1439 1439 1439 1439 1439 1439 1439 1439 1439 1439 1439 1439 1439 1439 1439 1439 1439 1439 1439 1433 1433 1439 1439 1439 1439 1439 1439 1445 1445 1445 1445 1445 1439 1439 1439 1439 1439 1439 1439 1439 1445 1445 1445 1445 1445 1445 1439 1370 1370 1370 1370 1370 1370 1365 1365 1365 1365 1365 1370 1370 1370 1439 1445 1452 1452 1458 1458 1785 1785 1794 1794 1804 1804 1813 1833 2286 2286 2301 2301 2301 2301 2317 2317 2317 2301 2301 2301 2301 2301 2301 2317 2317 2317 1873 1873 1883 1883 1883 1873 1873 1873 1883 1873 1873 1873 1873 1873 2271 2271 2271 2271 2256 2241 2226 2226 2212 2212 2198 2198 2198 2198 2198 2212 2212 2212 2226 2241 2256 2271 2271 2271 2286 2301 2301 1427 1427 1427 1433 1433 1439 1439 1439 1439 1439 1439 1445 1445 1445 1439 1439 1439 1439 1439 1439 1439 1439 1439 1439 1445 1445 1445 1445 1445 1445 1445 1445 1445 1445 1445 2241 2241 2241 2256 2256 2256 2256 2256 2256 2256 2256 2256 2256 2256 2256 2256 2256 2256 2256 2256 2256 2256 2256 2256 2256 2256 2256 2256 2256 2256 2256 2256 2256 2256 2256 2256 2256 2256 2256 2256 2256 2256 2256 2241 2241 2241 2241 2241 2241 2256 2256 2256 2256 2256 2256 2256 2256 2256 2256 2256 2256 2256 2256 2256 2256 2256 2256 2256 2256 2256 2256 2256 2241 2241 2256 2241 2241 2256 2256 2241 2241 2241 2241 2241 2241 2241 2226 2226 2226 2226 2226 2226 2226 2226 2226 2226 2226 2226 2226 2212 2212 2226 2226 2226 2226 2226 2226 2226 2226 2226 2226 2226 2226 2226 2226 2212 2212 2212 2198 2184 2184 0 0 0 0 0 0 0 0 0
0 0 0 0 0 0 0 0 0 0 0 0 0 0 0 0 0 0 0 0 0 0 0 0 0 0 0 0 0 0 0 0 0 2226 2226 2226 2226 2226 2226 2226 2226 2241 2226 2226 2226 2226 2226 2212 2212 2212 2226 2226 2226 2226 2226 2226 2226 2226 2226 2226 2226 2226 2226 2226 2226 2226 2212 2212 2212 2226 2226 2226 2226 2226 2226 2241 2241 2226 2226 2226 2212 2212 2212 2212 2226 2226 2241 2241 2256 2256 2241 2241 2241 2212 2212 2226 2226 2241 2241 2241 2241 2241 2241 2241 2241 2256 2256 2256 2256 2256 2256 2271 2271 1655 1655 1655 1655 1655 1655 1647 1647 1647 1647 1639 1594 1586 1586 1579 1579 1579 1586 1586 1586 1586 1586 1586 1586 1594 1594 1594 1594 1594 2256 2256 2256 2256 2256 2256 2271 2271 2271 2271 2271 2256 2256 2256 2256 2256 2256 2256 2241 2241 2241 2256 2256 2256 2256 2256 2256 2256 2256 1959 1959 1970 1981 1981 1993 1993 1557 1557 1550 1550 1557 1557 1557 1557 1557 1557 1557 1557 1557 1557 1550 1550 1557 2040 2040 2040 2040 2053 1557 1557 1557 1557 1557 1564 1564 1564 1557 1557 1557 1557 1557 1557 1557 1557 1557 1550 1543 1543 1536 1529 1529 1536 1536 1536 1536 1543 1543 1550 1550 1550 1557 1557 1557 1557 1543 1543 1543 1543 2256 2256 2256 2271 2271 2271 2286 2286 2286 2286 2286 2271 2271 2271 2271 2271 2271 2286 2286 2286 2286 2286 2286 2286 2286 1959 1947 1947 1947 1947 1947 1936 1936 1936 1936 1427 1427 1427 1433 1427 1427 1427 1427 1427 1427 1433 1433 1433 1433 1439 1439 1439 1439 1439 1439 1439 1439 1439 1439 1439 1439 1439 1439 1439 1439 1439 1439 1439 1439 1439 1439 1439 1439 1439 1439 1439 1439 1439 1439 1439 1439 1439 1439 1439 1439 1439 1439 1439 1439 1439 1439 1439 1433 1433 1433 1433 1433 1433 1433 1433 1433 1433 1433 1433 1433 1433 1433 1433 1433 1433 1433 1433 1433 1433 1433 1433 1433 1433 1433 1433 1433 1433 1433 1433 1433 1433 1433 1439 1439 1439 1433 1433 1433 1433 1433 1433 1433 1433 1433 1433 1433 1433 1439 1439 1439 1439 1433 1427 1376 1370 1370 1370 1370 1370 1370 1370 1365 1365 1370 1370 1370 1376 1439 1439 1445 1452 1452 1458 1785 1785 1794 1794 1804 1804 1813 1823 2286 2286 2286 2301 2301 2301 2301 2301 2301 2301 2286 2286 2286 2286 2286 2256 2256 2256 1873 1873 1883 1883 1883 1883 1883 1883 1883 1883 1883 1873 1873 2271 2271 2271 2271 2271 2256 2241 2226 2212 2212 2212 2212 2212 2198 2198 2198 2198 2212 2212 2226 2241 2256 2256 2271 2271 2286 2286 2286 1427 1427 1427 1433 1439 1439 1439 1439 1439 1439 1439 1445 1445 1445 1445 1445 1439 1439 1445 1445 1445 1445 1439 1439 1445 1445 1445 1445 1445 1445 1452 1445 1445 1445 1445 2241 2241 2241 2241 2256 2256 2241 2241 2241 2241 2241 2241 2241 2241 2241 2241 2241 2256 2256 2256 2256 2256 2256 2256 2256 2256 2256 2256 2256 2256 2256 2256 2256 2256 2241 2241 2241 2241 2241 2241 2241 2241 2241 2241 2241 2241 2241 2241 2241 2241 2241 2241 2241 2256 2256 2256 2256 2256 2256 2241 2241 2256 2256 2256 2256 2256 2256 2241 2241 2241 2241 2241 2241 2241 2241 2241 2241 2241 2241 2226 2226 2226 2226 2226 2226 2226 2226 2226 2226 2226 2212 2212 2212 2212 2212 2198 2198 2198 2198 2198 2198 2212 2212 2212 2226 2226 2226 2226 2226 2226 2226 2226 2226 2226 2212 2198 2198 2198 2198 2184 2184 0 0 0 0 0 0 0 0 0
0 0 0 0 0 0 0 0 0 0 0 0 0 0 0 0 0 0 0 0 0 0 0 0 0 0 0 0 0 0 0 0 0 2226 2226 2226 2226 2226 2226 2226 2226 2226 2226 2226 2212 2212 2212 2212 2212 2212 2212 2212 2226 2212 2212 2226 2226 2212 2212 2212 2212 2212 2226 2226 2226 2212 2212 2212 2212 2212 2212 2212 2212 2226 2226 2226 2226 2226 2226 2212 2212 2212 2212 2212 2226 2226 2241 2241 2241 2241 2226 2226 2226 2212 2212 2212 2212 2226 2226 2226 2226 2241 2241 2241 2241 2241 2241 2241 2241 2241 2241 2256 2256 2256 1655 1655 1655 1655 1655 1647 1647 1647 1647 1639 1594 1586 1586 1579 1579 1579 1586 1586 1586 1586 1586 1586 1594 1594 1594 1594 1594 0 2241 2241 2241 2256 2256 2256 2256 2256 2256 2271 2271 2256 2256 2256 2256 2256 2241 2241 2241 2241 2241 2256 2256 2256 2256 2256 2241 2241 2256 1970 1970 1970 1981 1981 1993 1993 2005 2028 2028 2040 2040 1557 1557 1557 2241 2241 2256 2271 2271 2028 2028 2040 2040 2040 2040 2040 2040 2053 2053 2053 1557 1557 1557 1564 1564 1564 1557 1557 1557 1557 1550 1550 1557 1550 1550 1550 1550 1543 1543 1536 1536 1536 1536 1536 1543 1543 1550 1550 1550 1557 1557 1557 1557 1557 1543 1543 1543 1543 2256 2256 2256 2271 2271 2271 2286 2286 2286 2271 2271 2271 2271 2271 2271 2271 2271 2271 2271 2271 2271 2271 2286 2286 2286 1959 1959 1947 1947 1947 1947 1936 1936 1936 1936 1439 1439 1439 1433 1433 1433 1433 1433 1433 1433 1433 1433 1433 1439 1439 1439 1439 1439 1439 1439 1439 1439 1439 1439 1439 1433 1433 1439 1439 1439 1439 1439 1433 1433 1439 1439 1433 1433 1439 1439 1439 1439 1439 1439 1439 1439 1439 1433 1433 1433 1433 1433 1433 1433 1433 1433 1433 1427 1427 1427 1427 1427 1427 1427 1433 1433 1433 1433 1433 1433 1433 1433 1427 1427 1427 1427 1427 1427 1427 1427 1427 1427 1427 1433 1427 1427 1433 1427 1427 1433 1433 1433 1433 1433 1433 1433 1433 1433 1433 1427 1427 1427 1433 1433 1433 1433 1433 1439 1433 1433 1433 1427 1398 1376 1370 1370 1370 1370 1370 1370 1370 1370 1370 1370 1370 1370 1376 1433 1439 1439 1452 1452 1776 1785 1794 1794 1794 1804 1804 1813 1823 2271 2271 2286 2286 2286 2286 2286 2286 2286 2286 2286 2286 2271 2271 2271 2256 2256 2256 1873 1873 1883 1883 1883 1883 1883 1883 1883 1883 1883 1873 1873 2256 2256 2256 2256 2256 2256 2241 2226 2212 2212 2212 2212 2212 2198 2198 2198 2198 2212 2212 2226 2241 2256 2256 2271 2271 2271 2271 0 1427 1427 1427 1433 1439 1439 1439 1439 1445 1439 1439 1445 1445 1445 1445 1445 1445 1445 1445 1445 1445 1445 1445 1445 1445 1445 1445 1445 1445 1445 1452 1445 1445 1445 2241 2241 2241 2241 2241 2241 2241 2241 2241 2241 2241 2241 2241 2241 2241 2241 2241 2241 2241 2241 2241 2241 2241 2241 2241 2241 2241 2241 2241 2241 2241 2241 2241 2241 2241 2241 2241 2241 2241 2241 2241 2241 2226 2226 2241 2226 2226 2226 2241 2241 2241 2241 2241 2241 2241 2241 2241 2241 2241 2241 2241 2241 2241 2241 2241 2241 2241 2241 2241 2241 2241 2226 2226 2226 2241 2241 2241 2241 2241 2241 2226 2226 2226 2226 2226 2226 2226 2226 2226 2212 2212 2212 2212 2198 2198 2198 2198 2198 2198 2198 2198 2198 2198 2212 2212 2212 2212 2212 2212 2212 2212 2212 2226 2212 2212 2198 2198 2198 2198 2184 2184 2184 0 0 0 0 0 0 0 0 0
0 0 0 0 0 0 0 0 0 0 0 0 0 0 0 0 0 0 0 0 0 0 0 0 0 0 0 0 0 0 0 0 0 2226 2226 2226 2226 2226 2226 2226 2226 2226 2212 2212 2212 2212 2212 2212 2212 2212 2212 2212 2212 2212 2212 2226 2226 2212 2212 2212 2212 2212 2226 2212 2212 2212 2212 2212 2212 2212 2212 2212 2212 2212 2212 2226 2212 2212 2212 2212 2212 2212 2212 2212 2212 2212 2226 2226 2226 2226 2226 2226 2226 2212 2212 2212 2212 2226 2226 2226 2226 2226 2226 2226 2226 2226 2226 2241 2241 2241 2241 2241 2241 2241 1655 1655 1655 1655 1655 1655 1655 1647 1647 1639 1594 1594 1586 1586 1586 1586 1586 1586 1586 1586 1586 1586 1594 1594 1601 1601 1601 0 2241 2241 2241 2241 2241 2256 2256 2256 2256 2256 2271 2241 2241 2241 2241 2241 2241 2241 2241 2241 2241 2241 2241 2241 2241 2241 2241 2241 1970 1970 1970 1970 1981 1981 1993 1993 2016 2028 2028 2028 2028 2040 2241 2241 2241 2241 2256 2256 2271 2028 2028 2028 2028 2028 2040 2040 2040 2053 2053 2053 2040 2040 2040 2256 2256 2256 2256 2256 2256 2256 1550 1550 1557 1550 1550 1550 1550 1550 1543 1536 1536 1536 1536 1543 1543 1543 1550 1550 1550 1557 1557 1557 1557 1557 1543 1543 2241 2256 2241 2241 2256 2256 2271 2271 2271 2271 2271 2271 2271 2271 2271 2271 2271 2256 2256 2271 2271 2271 2271 2271 2271 2271 2271 1959 1947 1947 1947 1947 1947 1936 1936 1936 1936 1439 1439 1439 1433 1433 1433 1433 1433 1433 1433 1433 1433 1433 1439 1439 1439 1439 1439 1439 1439 1439 1439 1439 1439 1439 1433 1433 1439 1439 1439 1439 1433 1433 1433 1433 1433 1433 1433 1433 1433 1433 1433 1433 1433 1433 1433 1433 1433 1433 1433 1433 1433 1433 1427 1427 1427 1433 1421 1421 1421 1421 1421 1421 1421 1427 1427 1427 1427 1427 1427 1427 1427 1427 1421 1421 1421 1421 1421 1427 1427 1427 1427 1427 1421 1421 1421 1427 1421 1421 1427 1427 1427 1427 1427 1427 1427 1427 1427 1427 1427 1427 1427 1427 1427 1427 1433 1433 1433 1433 1433 1433 1421 1398 1387 1381 1376 1376 1376 1370 1370 1370 1370 1370 1370 1370 1376 1387 1427 1433 1439 1445 1445 1776 1785 1794 1794 1794 1804 1804 1813 1833 2271 2271 2271 2271 2271 2271 2271 2271 2271 2271 2271 2271 2256 2256 2256 2256 2241 2241 1873 1873 1883 1883 1883 1883 1883 1883 1894 1883 1883 1863 1863 2256 2256 2256 2256 2256 2241 2241 2226 2226 2212 2212 2212 2212 2212 2212 2212 2212 2212 2226 2226 2241 2241 2256 2256 2256 2256 2256 2256 1427 1427 1427 1433 1439 1439 1439 1439 1445 1445 1445 1445 1445 1452 1452 1452 1452 1452 1452 1452 1445 1445 1445 1445 1445 1445 1445 1445 1445 1452 1452 1445 1445 1445 2241 2241 2241 2241 2241 2241 2241 2241 2241 2226 2226 2226 2226 2226 2226 2241 2241 2241 2241 2241 2241 2241 2241 2241 2241 2241 2241 2241 2241 2241 2241 2241 2241 2241 2241 2241 2226 2226 2241 2226 2226 2226 2212 2212 2226 2226 2226 2226 2226 2241 2241 2241 2241 2241 2241 2241 2241 2241 2241 2241 2241 2241 2241 2241 2241 2241 2241 2226 2226 2226 2226 2226 2226 2226 2226 2241 2241 2241 2241 2241 2226 2226 2212 2212 2212 2226 2226 2212 2212 2212 2212 2212 2198 2198 2198 2198 2184 2184 2184 2184 2198 2198 2198 2198 2198 2198 2198 2198 2198 2198 2198 2198 2198 2212 2198 2198 2184 2184 2184 2184 2184 2184 0 0 0 0 0 0 0 0 0
0 0 0 0 0 0 0 0 0 0 0 0 0 0 0 0 0 0 0 0 0 0 0 0 0 0 0 0 0 0 0 0 0 2212 2212 2212 2212 2212 2212 2212 2212 2212 2212 2212 2212 2212 2212 2212 2212 2212 2212 2212 2212 2212 2212 2226 2212 2212 2212 2212 2212 2212 2212 2212 2212 2212 2212 2212 2212 2212 2212 2212 2212 2212 2212 2212 2212 2212 2212 2212 2212 2212 2212 2212 2212 2212 2226 2226 2226 2226 2212 2212 2212 2212 2212 2212 2212 2226 2226 2212 2212 2212 2212 2212 2212 2212 2212 2226 2212 2212 2226 2226 2226 2226 1655 1655 1655 1655 1655 1655 1655 1647 1647 1639 1594 1594 1586 1586 1586 1586 1586 1586 1586 1586 1586 1594 1594 1594 1601 1601 1601 1609 2226 2226 2226 2241 2241 2241 2241 2241 2241 2256 2256 2241 2241 2241 2241 2241 2226 2226 2226 2226 2226 2226 2226 2241 2241 2241 2241 2241 1959 1959 1959 1970 1970 1981 1981 1993 2016 2028 2028 2028 2028 2028 2028 2241 2241 2241 2241 2256 2256 2028 2028 2028 2028 2028 2040 2040 2040 2053 2053 2053 2040 2040 2040 2256 2256 2256 2256 2256 2256 2256 2256 2256 2256 2256 2256 1557 1550 1550 1543 1536 1536 1543 1543 1543 1543 1543 1550 1550 1550 1557 1557 1557 1557 1550 1543 1543 2256 2256 2241 2241 2241 2241 2256 2256 2256 2256 2256 2256 2256 2256 2256 2256 2256 2256 2256 2256 2256 2256 2256 2256 2256 2256 2256 2256 1947 1947 1947 1947 1947 1947 1936 1936 1936 1439 1439 1439 1433 1433 1433 1433 1433 1433 1433 1433 1433 1439 1439 1439 1439 1439 1439 1439 1439 1439 1439 1439 1439 1439 1433 1433 1439 1439 1439 1433 1433 1433 1433 1433 1433 1433 1433 1433 1433 1433 1433 1433 1433 1433 1433 1427 1427 1427 1427 1427 1427 1427 1427 1427 1427 1427 1421 1421 1421 1421 1421 1421 1421 1421 1421 1421 1421 1421 1421 1421 1421 1421 1421 1415 1415 1415 1421 1421 1421 1421 1421 1421 1421 1421 1421 1421 1421 1421 1421 1421 1421 1421 1421 1421 1421 1421 1421 1421 1421 1421 1421 1421 1421 1421 1427 1427 1427 1427 1427 1427 1398 1392 1387 1381 1381 1376 1376 1376 1376 1376 1376 1376 1376 1381 1392 1398 1421 1427 1433 1439 1445 1785 1794 1794 1794 1804 1804 1813 1813 1833 2256 2256 2256 2271 2271 2271 2271 2271 2271 2271 2256 2256 2256 2256 2256 2256 2241 2241 2256 1883 1883 1883 1883 1883 1883 1883 1894 1894 1873 1863 1863 1863 2241 2241 2241 2241 2226 2226 2226 2226 2212 2212 2212 2212 2212 2212 2212 2212 2212 2226 2226 2241 2241 2256 2256 2256 2256 2256 2256 2256 1427 1427 1433 1439 1439 1439 1445 1445 1445 1445 1445 1452 1452 1452 1452 1452 1452 1452 1452 1452 1445 1445 1445 1445 1445 1445 1445 1445 1452 1452 1452 1452 2226 2226 2226 2226 2226 2226 2226 2226 2226 2226 2226 2226 2226 2226 2226 2226 2226 2226 2241 2241 2241 2241 2226 2226 2226 2226 2226 2226 2226 2241 2241 2241 2241 2241 2241 2241 2241 2226 2226 2226 2212 2212 2212 2212 2212 2212 2212 2212 2212 2226 2226 2226 2226 2226 2241 2241 2241 2241 2241 2241 2241 2241 2241 2241 2241 2241 2226 2226 2226 2226 2226 2226 2226 2226 2226 2226 2241 2226 2226 2226 2226 2212 2212 2212 2198 2198 2212 2212 2212 2198 2198 2198 2198 2198 2198 2184 2184 2184 2184 2184 2184 2184 2184 2184 2184 2184 2184 2184 2184 2184 2198 2184 2184 2198 2198 2184 2184 2184 2184 2184 2184 2170 2170 0 0 0 0 0 0 0 0 0
0 0 0 0 0 0 0 0 0 0 0 0 0 0 0 0 0 0 0 0 0 0 0 0 0 0 0 0 0 0 0 0 0 2198 2198 2198 2198 2198 2212 2212 2198 2198 2198 2198 2198 2198 2198 2198 2198 2198 2198 2212 2212 2212 2212 2212 2212 2212 2212 2212 2212 2212 2212 2212 2212 2212 2198 2198 2198 2198 2198 2198 2212 2198 2198 2198 2198 2198 2198 2198 2198 2198 2198 2198 2198 2212 2212 2212 2212 2212 2212 2212 2212 2212 2212 2212 2212 2212 2212 2212 2212 2212 2212 2212 2212 2212 2212 2212 2212 2212 2212 2212 2226 2226 1655 1655 1655 1655 1655 1655 1655 1655 1647 1647 1594 1594 1586 1586 1586 1586 1586 1586 1586 1586 1586 1594 1594 1594 1601 1601 1609 1609 2212 2212 2212 2226 2226 2212 2212 2241 2241 2241 2256 2241 2226 2226 2241 2226 2226 2226 2226 2226 2226 2226 2226 2226 2226 2241 2241 2241 1959 1959 1959 1959 1970 1981 1981 1993 2016 2028 2028 2028 2028 2028 2028 2226 2226 2241 2241 2256 2256 2256 2028 2028 2028 2028 2040 2040 2040 2053 2053 2065 2040 2040 2040 2241 2241 2241 2241 2241 2256 2256 2256 2256 2256 2256 2256 1543 1543 1543 1543 1536 1536 1543 1543 1543 1543 1543 1550 1550 1550 1550 1557 1557 1557 1550 1536 1536 2256 2241 2241 2241 2241 2241 2241 2241 2256 2256 2256 2241 2241 2241 2241 2241 2256 2256 2256 2256 2256 2256 2256 2256 2256 2256 2256 2241 2241 1947 1947 1947 1947 1947 1947 1947 1947 1433 1433 1433 1439 1439 1439 1433 1433 1433 1433 1433 1439 1439 1439 1439 1439 1439 1439 1439 1439 1439 1439 1439 1439 1439 1439 1439 1439 1439 1439 1433 1433 1433 1433 1433 1433 1433 1433 1433 1433 1433 1433 1433 1433 1427 1427 1427 1427 1427 1427 1427 1427 1427 1421 1421 1421 1427 1415 1415 1415 1415 1415 1415 1415 1415 1415 1415 1421 1421 1421 1415 1415 1415 1415 1415 1415 1415 1415 1415 1415 1415 1415 1415 1415 1415 1415 1415 1415 1415 1415 1415 1415 1415 1415 1415 1415 1415 1421 1421 1415 1415 1415 1421 1421 1421 1421 1421 1427 1427 1421 1415 1398 1392 1387 1381 1381 1376 1376 1376 1376 1376 1376 1376 1381 1381 1392 1398 1421 1427 1427 1439 1776 1794 1794 1804 1804 1804 1804 1813 2256 2256 2256 2256 2256 2256 2256 2256 2256 2256 2256 2256 2256 2256 2256 2256 2256 2256 2241 2241 2256 1894 1894 1894 1883 1883 1883 1894 1894 1894 1873 1863 1863 1863 2241 2241 2241 2226 2226 2226 2212 2212 2212 2212 2212 2212 2212 2212 2212 2212 2226 2226 2226 2226 2241 2241 2241 2241 2226 2226 2241 2241 2241 1433 1433 1433 1439 1445 1445 1445 1445 1445 1452 1452 1452 1452 1452 1452 1452 1452 1452 1452 1445 1445 1445 1445 1445 1445 1445 1445 1452 1452 1452 2212 2212 2198 2198 2198 2198 2212 2212 2226 2212 2212 2212 2226 2226 2226 2226 2226 2226 2226 2226 2226 2226 2226 2226 2226 2212 2212 2226 2226 2226 2226 2226 2226 2226 2226 2241 2241 2226 2226 2226 2226 2212 2212 2212 2212 2212 2212 2212 2212 2212 2212 2226 2226 2226 2226 2226 2226 2226 2226 2226 2226 2226 2226 2226 2226 2226 2226 2226 2226 2212 2212 2212 2212 2212 2212 2212 2212 2226 2212 2212 2212 2212 2198 2198 2184 2184 2198 2198 2198 2198 2198 2198 2198 2198 2184 2184 2184 2184 2184 2184 2184 2184 2184 2184 2184 2184 2184 2184 2184 2184 2184 2184 2184 2184 2184 2184 2184 2184 2184 2184 2184 2184 2170 2170 0 0 0 0 0 0 0 0 0
0 0 0 0 0 0 0 0 0 0 0 0 0 0 0 0 0 0 0 0 0 0 0 0 0 0 0 0 0 0 0 0 0 2184 2184 2184 2184 2184 2184 2184 2184 2184 2184 2184 2184 2184 2184 2184 2184 2184 2184 2184 2198 2198 2198 2198 2198 2198 2198 2198 2184 2184 2198 2198 2212 2212 2198 2198 2198 2198 2198 2198 2198 2198 2198 2198 2184 2184 2184 2184 2184 2184 2184 2198 2198 2198 2212 2212 2212 2198 2198 2198 2198 2198 2198 2198 2212 2212 2212 2212 2212 2212 2198 2198 2198 2198 2198 2198 2212 2212 2212 2212 2226 2226 2241 1655 1655 1655 1655 1655 1655 1655 1647 1647 1594 1594 1586 1586 1586 1586 1586 1586 1586 1586 1586 1594 1594 1594 1601 1601 1609 1609 2226 2212 2212 2212 2212 2212 2212 2226 2226 2241 2241 2226 2226 2226 2226 2226 2212 2212 2212 2212 2212 2212 2212 2212 2212 2226 2241 1947 1947 1959 1959 1959 1970 1970 1981 2005 2016 2028 2028 2028 2028 2040 2040 2226 2226 2241 2241 2241 2256 2256 2028 2028 2028 2028 2028 2040 2053 2053 2065 2065 2065 2078 2226 2226 2226 2226 2241 2241 2241 2241 2241 2256 2256 2256 2256 2256 1543 1543 1543 1543 1543 1543 1543 1543 1543 1543 1550 1550 1550 1550 1557 1557 1550 1550 1536 1536 2241 2241 2226 2226 2241 2241 2241 2241 2241 2241 2241 2241 2241 2241 2241 2241 2241 2241 2241 2241 2241 2241 2241 2241 2241 2241 2241 2226 2226 1947 1947 1947 1947 1947 1947 1947 1947 1433 1433 1433 1439 1439 1439 1439 1439 1439 1433 1433 1439 1439 1439 1439 1445 1445 1445 1439 1439 1439 1439 1439 1439 1439 1439 1439 1439 1439 1439 1439 1433 1433 1433 1433 1433 1433 1433 1433 1433 1433 1433 1427 1427 1427 1427 1427 1427 1427 1421 1421 1427 1427 1421 1421 1421 1421 1415 1415 1415 1415 1415 1415 1415 1415 1415 1415 1415 1415 1415 1415 1415 1415 1415 1415 1415 1415 1415 1415 1415 1415 1415 1415 1415 1415 1415 1415 1415 1415 1415 1415 1415 1415 1415 1415 1415 1415 1415 1415 1415 1415 1415 1415 1415 1415 1421 1421 1421 1421 1410 1404 1398 1392 1392 1381 1381 1381 1376 1376 1376 1376 1376 1376 1381 1381 1387 1392 1415 1427 1427 1785 1785 1794 1794 1804 1804 1804 1804 1804 2241 2241 2256 2256 2256 2256 2256 2256 2256 2256 2256 2256 2241 2241 2256 2256 2256 2256 2256 2256 2256 1894 1894 1894 1894 1894 1894 1894 1894 1894 1883 1873 1863 1863 2226 2226 2226 2226 2226 2226 2212 2212 2212 2212 2212 2212 2212 2212 2212 2212 2226 2226 2226 2226 2226 2226 2226 2226 2226 2226 2226 2226 2212 2212 1433 1433 1439 1445 1445 1452 1452 1452 1452 1452 1458 1452 1452 1458 1458 1458 1452 1452 1452 1445 1445 1445 1452 1445 1445 1445 1452 1452 2198 2198 2198 2198 2184 2184 2198 2198 2198 2198 2212 2212 2212 2212 2212 2212 2212 2212 2212 2226 2226 2212 2212 2212 2212 2212 2212 2212 2212 2212 2212 2212 2226 2226 2226 2226 2226 2226 2212 2212 2212 2198 2198 2198 2198 2198 2198 2198 2198 2212 2212 2212 2212 2212 2226 2226 2226 2212 2212 2212 2212 2212 2212 2212 2212 2212 2212 2212 2212 2212 2198 2198 2198 2198 2198 2198 2198 2198 2212 2212 2212 2198 2198 2184 2184 2184 2184 2184 2198 2198 2198 2198 2184 2184 2184 2184 2184 2170 2170 2170 2170 2170 2170 2170 2170 2170 2184 2184 2184 2184 2184 2184 2184 2170 2170 2184 2170 2170 2170 2170 2170 2170 2170 2170 2170 0 0 0 0 0 0 0 0 0
0 0 0 0 0 0 0 0 0 0 0 0 0 0 0 0 0 0 0 0 0 0 0 0 0 0 0 0 0 0 0 0 0 2170 2170 2170 2170 2170 2170 2170 2170 2170 2170 2184 2170 2170 2170 2170 2170 2170 2184 2184 2184 2198 2198 2184 2184 2184 2184 2184 2184 2184 2184 2198 2198 2198 2184 2184 2184 2184 2184 2184 2184 2184 2184 2184 2170 2170 2170 2170 2170 2184 2184 2170 2170 2184 2184 2184 2184 2184 2184 2198 2198 2198 2198 2198 2198 2212 2212 2198 2198 2198 2198 2198 2198 2198 2198 2198 2198 2198 2212 2212 2212 2226 2226 2226 1655 1655 1655 1655 1655 1655 1655 1647 1601 1594 1594 1586 1586 1586 1586 1586 1586 1586 1586 1594 1594 1601 1601 1609 1609 1616 2212 2212 2212 2212 2212 2212 2212 2226 2226 2226 2226 2212 2212 2212 2212 2212 2212 2212 2212 2212 2212 2212 2212 2212 2212 2226 2241 1947 1947 1959 1959 1959 1970 1970 1993 2005 2016 2028 2028 2028 2028 2040 2040 2198 2212 2212 2226 2241 2241 2241 2028 2028 2016 2016 2028 2040 2065 2065 2065 2078 2078 2078 2090 2212 2226 2226 2226 2226 2226 2226 2241 2241 2241 2241 2256 2256 1543 1543 1543 1543 1543 1543 1543 1543 1543 1550 1550 1550 1550 1550 1557 1557 1550 1550 1550 2241 2241 2241 2226 2226 2226 2226 2226 2226 2226 2226 2241 2241 2241 2241 2241 2241 2241 2241 2241 2241 2241 2241 2241 2241 2241 2241 2226 2226 2226 2241 1959 1959 1959 1947 1947 1947 1947 1439 1439 1439 1439 1439 1439 1439 1439 1439 1439 1439 1439 1439 1439 1445 1445 1445 1445 1445 1445 1439 1439 1439 1439 1439 1439 1439 1439 1439 1439 1439 1439 1439 1433 1433 1439 1433 1433 1433 1433 1433 1433 1427 1427 1427 1427 1427 1427 1427 1421 1421 1427 1427 1421 1421 1421 1421 1415 1415 1415 1415 1415 1415 1415 1415 1415 1415 1415 1415 1415 1415 1415 1415 1415 1415 1415 1415 1415 1415 1415 1415 1415 1415 1415 1410 1410 1415 1415 1415 1415 1415 1415 1415 1415 1415 1415 1415 1415 1415 1415 1415 1415 1415 1415 1415 1415 1415 1415 1415 1404 1398 1398 1392 1392 1387 1387 1381 1381 1381 1381 1381 1381 1381 1381 1381 1387 1392 1415 1415 1794 1794 1794 1794 1804 1804 1804 1804 1804 1804 2241 2241 2256 2256 2256 2256 2256 2256 2241 2241 2241 2241 2241 2241 2241 2241 2241 2256 2256 2256 2256 1904 1904 1904 1904 1904 1904 1904 1904 1894 1883 1873 1863 1863 2226 2226 2226 2226 2212 2212 2212 2212 2212 2212 2212 2212 2212 2212 2212 2212 2212 2212 2212 2212 2212 2226 2212 2212 2212 2212 2212 2212 2212 2212 2212 1439 1439 1445 1452 1452 1452 1452 1452 1458 1458 1458 1458 1458 1458 1458 1458 1458 1452 1452 1452 1452 1452 1452 1452 1452 1452 1452 2198 2184 2184 2184 2184 2184 2198 2198 2198 2198 2198 2198 2198 2198 2212 2212 2212 2212 2212 2212 2212 2198 2198 2212 2212 2198 2198 2198 2198 2198 2212 2212 2212 2212 2212 2212 2212 2212 2212 2198 2198 2198 2198 2198 2198 2198 2198 2198 2198 2198 2198 2212 2212 2212 2212 2212 2212 2212 2212 2198 2198 2198 2198 2212 2212 2212 2212 2198 2198 2198 2198 2198 2198 2198 2198 2198 2198 2198 2198 2198 2198 2198 2198 2184 2184 2184 2184 2184 2184 2184 2184 2184 2184 2184 2184 2170 2170 2170 2170 2170 2170 2170 2170 2170 2170 2170 2170 2170 2170 2184 2170 2170 2170 2170 2170 2170 2170 2170 2170 2170 2170 2170 2170 2170 2170 0 0 0 0 0 0 0 0 0
