0 0 0 0 0 0 0 0 0 0 0 0 0 0 0 0 0 0 0 0 0 0 0 0 0 0 0 0 0 0 0 3816 3816 3816 3774 3774 3774 3774 3816 3816 3816 3816 3816 3816 3816 3816 3859 3859 3816 3816 3816 3816 3774 3774 3774 3774 3774 3816 3859 3859 3903 3903 3903 3903 3903 3903 3903 3859 3859 3903 3859 3859 3903 3903 3948 3948 0 3903 3903 3903 3903 3903 3903 3903 3948 3948 3948 3948 3948 3903 3903 3903 3903 3903 3903 3903 3903 0 0 0 0 0 0 1557 1557 1557 1557 1557 1557 1557 1557 1557 1557 1557 1564 1564 1564 1564 1557 1557 1557 1550 1550 1550 1543 1543 1543 1543 1536 1536 1536 1536 1536 1529 1529 1529 1529 1529 1529 1529 1529 1529 1523 1523 1523 1516 1516 1516 1516 1516 1516 1509 1509 1509 1509 1509 1503 1503 1503 1496 1496 1496 1496 1496 1496 1496 1496 1489 1489 1489 1489 1483 1483 1483 1483 1489 1489 1483 1483 1609 1477 1477 1477 1464 1458 1458 1458 1452 1452 1452 1452 1452 1452 1452 1452 1452 1458 1464 1470 1477 1477 1464 1458 1458 1616 1616 1601 1601 1594 1594 1594 1601 1601 1601 1601 1601 1609 1609 1609 1609 1609 1609 1609 1609 1601 1601 1601 1317 1317 1322 1322 1328 1317 1317 1322 1322 1322 1322 1322 1322 1322 1333 1333 1333 1338 1338 1338 1338 1616 1616 1616 1616 1624 1624 1632 1632 1632 1632 1632 1639 1624 1624 1624 1624 1616 1616 1609 1609 1601 1601 1601 1601 1609 1609 1609 1609 1616 1616 1616 1616 1236 1236 1236 1236 1236 1241 1245 1245 1250 1250 1245 1245 1241 1236 1232 1232 1232 1236 1236 1236 1236 1236 1236 1232 1232 1227 1227 1227 1223 1223 1223 1223 1223 1223 1223 1219 1219 1219 1219 1219 1214 1214 1214 1214 1210 1210 1210 1210 1206 1206 1206 1206 1206 1197 1197 1197 1197 1197 1193 1193 1189 1189 1185 1185 1181 1181 1181 1181 1177 1177 1181 1181 1181 1181 1181 1189 1189 1189 0 0 1696 0 1696 1696 1696 1696 1696 1705 1705 1696 1696 1705 1705 1713 1713 1713 1722 1722 1722 1722 1722 1722 1722 1722 1722 1731 1731 1731 1731 1731 1731 1731 1722 1722 1722 1731 1731 1731 1731 1731 1731 1731 1722 1722 1722 1731 1731 1731 1731 1739 1739 1739 1739 1739 1739 1722 1722 1722 1722 1722 1731 1739 1748 1748 1748 1757 1757 1757 1757 1757 1748 1748 1757 1757 1757 1757 1757 1757 1757 1757 1757 1757 1757 1757 1757 1757 1757 1757 1757 1757 1757 1757 1757 1757 1776 1776 1776 1776 1776 1776 1776 1785 1785 1785 1785 1785 1785 1785 1785 1785 1785 1776 1776 1776 1776 1776 1785 1785 1794 1794 1813 1813 1804 1804 1794 1794 1794 1794 1794 1794 1794 1794 1794 1794 1794 1794 1804 1804 1804 1813 1813 1813 1813 1813 1813 1813 1804 1804 1813 1813 1813 1813 1823 1823 1843 1863 1894 1894 1904 0 0 0 0 0 0 0 0 5291 5291 5132 5056 5056 5056 0 0 0 0 0 0 0 5132 5132 5132 5132 5132 5056 5056 5056 5056 4983 4983 4983 4983 4983 0 5056 5056 5210 5291 5291 5210 5132 5132 5132 5056 5056 4983 4983 4983 5056 5056 5056 0 0 0 0 4983 4983 4983 5132 5132 0 0 0 0 0 0 0 0 0 0 0 0 0 0 4295 4295 4295 4241 4241 4241 4241 4241 4241 4190 4190 4190 4190 4190 4139 4139 4089 4089 4041 4041 4041 4041 4041 4041 4041 4041 4041 4041 3994 3994 3994 3994 4041 0 0 0 0 0 0 0 0 0 0 0 0
0 0 0 0 0 0 0 0 0 0 0 0 0 0 0 0 0 0 0 0 0 0 0 0 0 0 0 0 0 0 0 3816 3774 3774 3774 3732 3732 3732 3774 3774 3774 3774 3816 3816 3816 3816 3816 3816 3816 3816 3816 3816 3816 3816 3816 3816 3816 3859 3859 3859 3859 3859 3859 3859 3859 3859 3859 3859 3859 3859 3859 3859 3859 3903 3948 3948 0 3859 3859 3859 3859 3859 3859 3903 3903 3903 3903 3903 3903 3903 3903 3903 3903 3903 3903 3859 3859 0 0 0 0 0 0 1557 1557 1557 1564 1564 1564 1564 1564 1564 1564 1564 1564 1564 1564 1564 1564 1557 1557 1557 1550 1550 1550 1543 1543 1543 1536 1536 1536 1536 1536 1536 1529 1529 1529 1529 1529 1529 1529 1529 1529 1529 1523 1523 1523 1516 1516 1516 1516 1509 1509 1509 1509 1509 1503 1503 1503 1496 1496 1496 1496 1496 1496 1496 1496 1496 1496 1489 1489 1483 1483 1483 1483 1489 1489 1483 1483 1483 1477 1477 1477 1470 1464 1464 1458 1458 1452 1452 1452 1452 1452 1452 1452 1452 1458 1464 1470 1477 1477 1470 1470 1616 1616 1594 1594 1594 1586 1586 1586 1586 1586 1594 1594 1594 1594 1594 1594 1594 1601 1601 1601 1601 1594 1594 1594 1322 1322 1328 1328 1328 1322 1322 1322 1322 1322 1322 1322 1322 1328 1333 1333 1333 1338 1338 1338 1338 1601 1601 1609 1609 1609 1609 1609 1609 1609 1609 1609 1616 1616 1616 1624 1624 1616 1616 1609 1609 1601 1601 1601 1601 1609 1609 1609 1609 1609 1609 1609 1609 1609 1236 1236 1236 1236 1241 1245 1245 1250 1250 1250 1245 1241 1236 1232 1232 1232 1232 1232 1236 1236 1236 1236 1236 1232 1227 1227 1227 1223 1223 1223 1223 1223 1223 1223 1223 1219 1219 1219 1219 1214 1214 1214 1214 1210 1210 1210 1210 1206 1206 1206 1206 1206 1197 1197 1197 1197 1197 1193 1193 1193 1189 1189 1185 1181 1181 1181 1181 1181 1181 1181 1181 1185 1181 1181 1189 1189 1189 0 0 1680 0 1688 1688 1688 1688 1688 1696 1696 1696 1696 1696 1696 1705 1705 1713 1713 1722 1722 1722 1722 1722 1722 1722 1722 1722 1722 1722 1722 1713 1713 1713 1705 1705 1713 1722 1722 1722 1722 1722 1731 1722 1722 1722 1722 1722 1722 1722 1731 1731 1731 1731 1731 1731 1731 1713 1713 1722 1713 1713 1722 1722 1722 1731 1731 1731 1739 1739 1739 1731 1731 1731 1739 1739 1739 1739 1739 1722 1722 1739 1739 1739 1748 1748 1748 1748 1748 1757 1748 1748 1757 1757 1757 1757 1757 1757 1748 1748 1757 1757 1757 1766 1766 1766 1766 1766 1776 1766 1766 1766 1776 1766 1766 1766 1766 1766 1766 1766 1766 1776 1776 1776 1776 1776 1776 1776 1785 1785 1785 1785 1785 1785 1785 1785 1785 1785 1785 1794 1794 1794 1776 1776 1794 1794 1794 1785 1785 1785 1794 1794 1804 1804 1813 1813 0 0 0 0 0 0 0 0 0 0 0 0 0 5132 5056 5056 5056 5056 5056 5056 5056 5056 4842 4842 4911 4911 5056 5056 5056 5056 5132 5056 5056 5056 5056 4983 4983 4983 4983 4983 4983 4983 4983 4983 4983 4983 5210 5132 5132 5132 5056 5056 4983 4983 4983 4983 4983 5056 0 0 0 4983 4983 4983 4983 5132 5132 5132 4983 4983 5132 0 0 0 0 0 0 0 0 0 0 4295 4295 4295 4241 4241 4241 4241 4241 4190 4190 4190 4190 4190 4190 4139 4139 4089 4089 4041 4041 4041 4041 4041 4041 3994 3994 3994 3994 3994 3994 3994 3994 4041 0 0 0 0 0 0 0 0 0 0 0 0
0 0 0 0 0 0 0 0 0 0 0 0 0 0 0 0 0 0 0 0 0 0 0 0 0 0 0 0 0 0 0 3774 3774 3732 3692 3653 3653 3653 3732 3774 3774 3774 3816 3816 3816 3816 3816 3816 3816 3816 3816 3816 3816 3816 3816 3816 3816 3816 3816 3816 3816 3816 3816 3816 3816 3859 3859 3859 3859 3859 3859 3859 3859 3903 3903 3903 0 3859 3859 3816 3816 3816 3816 3859 3859 3859 3859 3859 3859 3859 3859 3859 3859 3903 3859 3859 3859 0 0 0 0 0 0 0 1564 1564 1564 1564 1564 1564 1564 1564 1564 1564 1564 1564 1564 1564 1564 1557 1557 1557 1557 1550 1550 1550 1543 1543 1543 1536 1536 1536 1536 1536 1536 1529 1529 1536 1536 1536 1529 1529 1529 1529 1529 1523 1523 1523 1523 1516 1516 1516 1509 1509 1509 1509 1503 1503 1503 1496 1496 1496 1496 1496 1496 1496 1496 1496 1496 1489 1489 1489 1489 1489 1489 1489 1489 1489 1489 1483 1483 1489 1477 1477 1477 1477 1470 1464 1464 1458 1452 1452 1452 1452 1452 1452 1458 1458 1470 1470 1477 1470 1470 1470 1579 1579 1579 1579 1579 1579 1579 1579 1579 1586 1586 1586 1586 1579 1579 1586 1586 1594 1586 1586 1586 1586 1328 1322 1322 1328 1328 1328 1322 1322 1322 1328 1322 1322 1322 1322 1328 1333 1333 1338 1338 1338 1338 1579 1594 1579 1579 1601 1594 1594 1601 1601 1601 1601 1601 1601 1601 1609 1609 1616 1609 1609 1601 1601 1594 1594 1601 1601 1601 1601 1609 1609 1609 1609 1609 1609 1609 1609 1609 1236 1236 1241 1241 1245 1250 1250 1250 1245 1241 1232 1232 1232 1232 1232 1232 1236 1236 1236 1236 1232 1232 1227 1227 1232 1227 1227 1227 1227 1227 1227 1227 1223 1223 1219 1219 1219 1219 1219 1214 1214 1214 1214 1210 1210 1210 1210 1210 1210 1210 1202 1202 1202 1202 1197 1197 1193 1193 1193 1189 1189 1185 1185 1181 1181 1181 1181 1181 1185 1185 1189 1189 1193 1193 0 1655 1655 1680 1680 1680 1680 1680 1680 1688 1688 1688 1688 1688 1688 1688 1696 1696 1696 1705 1713 1713 1722 1722 1722 1722 1722 1722 1722 1722 1713 1713 1696 1696 1696 1696 1696 1705 1722 1722 1722 1722 1722 1722 1713 1713 1713 1713 1713 1713 1722 1722 1722 1722 1722 1713 1713 1713 1705 1705 1705 1705 1705 1713 1713 1713 1713 1713 1722 1722 1722 1722 1722 1722 1722 1722 1722 1731 1731 1731 1722 1722 1722 1722 1731 1731 1739 1731 1731 1739 1748 1748 1748 1748 1748 1748 1748 1748 1739 1739 1739 1739 1739 1739 1731 1731 1739 1748 1748 1748 1757 1757 1757 1757 1757 1757 1757 1757 1757 1757 1757 1757 1757 1757 1757 1766 1766 1766 1766 1766 1766 1776 1766 1766 1766 1766 1776 1776 1776 1776 1785 1785 1785 1776 1776 1776 1776 1776 1766 1766 1776 1776 1785 1794 1804 1813 1813 0 0 0 0 0 0 0 0 0 0 0 0 5056 5056 4983 4983 5056 4983 4983 5056 4983 4983 4842 4842 4911 4911 4983 4983 4983 5056 5132 5056 5056 5056 5056 4983 4983 4911 4911 4911 4911 4911 4911 4983 4983 4983 4983 4911 4911 4911 4911 4983 4983 4983 4983 4983 4983 4983 4983 0 4983 4983 4983 4983 4983 5056 5056 4983 4911 4911 4983 0 0 0 0 0 0 0 0 0 0 4405 4295 4295 4241 4241 4241 4241 4241 4190 4190 4190 4190 4190 4190 4139 4139 4089 4089 4089 4041 4041 4041 4041 3994 3994 3994 3994 3994 3994 3994 3994 3994 3994 0 0 0 0 0 0 0 0 0 0 0 0
0 0 0 0 0 0 0 0 0 0 0 0 0 0 0 0 0 0 0 0 0 0 0 0 0 0 0 0 0 0 0 3732 3732 3732 3692 3653 3653 3653 3692 3732 3774 3774 3774 3774 3774 3774 3774 3774 3816 3816 3816 3816 3816 3816 3816 3816 3816 3816 3816 3816 3816 3816 3816 3816 3816 3816 3816 3816 3816 3816 3816 3816 3816 3859 3903 3903 3816 3859 3859 3774 3774 3816 3816 3816 3859 3859 3859 3859 3859 3859 3859 3859 3859 3859 3859 3859 3859 0 0 0 0 0 0 0 1564 1564 1572 1564 1564 1572 1572 1572 1572 1564 1564 1572 1572 1572 1572 1564 1564 1564 1557 1557 1557 1550 1550 1543 1543 1543 1536 1536 1543 1543 1536 1536 1536 1536 1536 1536 1536 1536 1529 1529 1529 1523 1523 1523 1523 1516 1516 1516 1516 1509 1509 1509 1509 1509 1509 1496 1496 1496 1496 1496 1496 1496 1496 1496 1496 1489 1489 1489 1489 1489 1489 1489 1489 1496 1489 1489 1489 1489 1489 1483 1477 1477 1477 1477 1470 1458 1458 1452 1452 1452 1452 1452 1458 1458 1470 1470 1477 1470 1470 1470 1572 1572 1579 1579 1579 1579 1579 1579 1579 1579 1586 1586 1586 1579 1579 1579 1579 1586 1586 1586 1586 1328 1328 1322 1322 1328 1328 1328 1328 1328 1328 1328 1322 1322 1328 1328 1328 1338 1338 1338 1338 1338 1343 1343 1586 1579 1579 1579 1579 1586 1594 1586 1586 1594 1594 1594 1594 1601 1601 1601 1601 1601 1594 1594 1594 1594 1594 1594 1601 1601 1601 1609 1601 1601 1601 1601 1601 1601 1601 1601 1601 1241 1241 1245 1250 1250 1594 1594 1594 1232 1232 1232 1232 1232 1236 1236 1236 1236 1236 1232 1232 1232 1232 1232 1232 1232 1227 1227 1227 1227 1227 1223 1223 1223 1219 1219 1219 1219 1219 1214 1214 1214 1214 1210 1210 1210 1210 1210 1210 1202 1202 1202 1202 1197 1197 1193 1193 1193 1193 1189 1185 1185 1185 1181 1181 1181 1181 1185 1185 1189 1193 1193 1197 1197 1655 1655 1655 1663 1663 1671 1671 1680 1680 1680 1680 1688 1688 1688 1688 1688 1688 1688 1688 1696 1696 1688 1688 1696 1705 1713 1713 1713 1713 1705 1696 1688 1688 1688 1688 1696 1696 1696 1713 1713 1713 1713 1713 1705 1705 1705 1705 1705 1696 1696 1713 1705 1705 1696 1696 1696 1696 1696 1696 1696 1696 1696 1705 1705 1705 1696 1696 1705 1705 1705 1705 1696 1696 1705 1705 1705 1713 1713 1722 1713 1713 1713 1713 1713 1722 1722 1722 1722 1722 1731 1731 1739 1731 1731 1731 1739 1731 1722 1722 1722 1731 1731 1731 1731 1731 1731 1739 1748 1748 1748 1748 1748 1748 1748 1748 1748 1748 1748 1748 1748 1757 1757 1757 1748 1748 1757 1757 1757 1757 1757 1766 1757 1757 1757 1766 1766 1766 1766 1766 1776 1776 1776 1757 1757 1757 1757 1757 1757 1757 1757 1757 1766 1776 1785 1794 1813 0 0 0 0 0 0 0 0 0 0 0 0 5056 5056 4983 4983 4983 4983 4983 4983 4911 4911 4911 4911 4911 4911 4983 4983 4983 5056 5056 5056 5056 5056 5056 4983 4911 4911 4911 4911 4842 4842 4842 4842 4911 4911 4842 4842 4842 4911 4911 4983 4983 4983 4983 4983 4983 4983 4983 4983 4983 4911 4911 4983 4983 4983 5056 4983 4911 4911 4983 0 0 0 0 0 0 0 0 0 4463 4405 4295 4295 4241 4241 4241 4241 4241 4190 4190 4190 4190 4190 4190 4139 4139 4089 4089 4089 4041 4041 4041 4041 3994 3994 3994 3994 3994 3948 3948 3948 3948 3994 0 0 0 0 0 0 0 0 0 0 0 0
0 0 0 0 0 0 0 0 0 0 0 0 0 0 0 0 0 0 0 0 0 0 0 0 0 0 0 0 0 0 0 3732 3732 3692 3653 3614 3614 3614 3653 3692 3732 3732 3774 3774 3774 3774 3774 3774 3774 3774 3816 3816 3816 3816 3816 3816 3816 3816 3774 3774 3774 3774 3774 3816 3816 3816 3816 3774 3774 3774 3774 3774 3774 3816 3816 3816 3816 3774 3774 3774 3774 3774 3774 3774 3816 3816 3816 3816 3816 3816 3816 3816 3859 3859 3859 3859 3859 0 0 0 0 0 0 0 1564 1564 1572 1572 1572 1572 1572 1572 1572 1572 1572 1572 1572 1572 1572 1564 1564 1564 1564 1564 1557 1557 1557 1550 1550 1550 1543 1543 1543 1543 1543 1536 1536 1543 1536 1536 1536 1536 1536 1536 1529 1523 1523 1529 1523 1523 1516 1516 1516 1516 1509 1509 1509 1509 1509 1496 1496 1496 1496 1496 1496 1496 1496 1496 1496 1489 1489 1489 1489 1489 1489 1489 1489 1489 1496 1489 1489 1489 1489 1483 1483 1477 1477 1477 1470 1464 1458 1452 1452 1452 1452 1452 1458 1458 1470 1470 1477 1477 1477 1496 1557 1557 1572 1572 1572 1572 1572 1572 1572 1572 1579 1572 1572 1579 1579 1572 1572 1572 1579 1579 1579 1328 1328 1328 1328 1333 1328 1328 1328 1328 1328 1328 1322 1322 1328 1328 1333 1338 1338 1338 1343 1343 1338 1338 1579 1572 1572 1579 1579 1586 1586 1586 1586 1586 1586 1586 1586 1586 1586 1594 1586 1586 1586 1586 1586 1594 1594 1594 1594 1594 1601 1601 1594 1594 1594 1594 1594 1594 1601 1594 1594 1594 1594 1250 1250 1586 1586 1586 1586 1586 1586 1232 1232 1232 1236 1236 1236 1236 1232 1232 1232 1227 1227 1232 1232 1232 1232 1232 1227 1227 1227 1223 1223 1223 1223 1219 1219 1219 1219 1214 1214 1214 1214 1210 1210 1210 1210 1210 1210 1206 1202 1202 1202 1197 1197 1193 1193 1193 1193 1189 1185 1185 1185 1181 1181 1181 1181 1185 1185 1189 1193 1197 1202 0 1655 1655 1655 1663 1663 1663 1671 1671 1680 1680 1680 1680 1680 1680 1680 1680 1680 1680 1671 1671 1663 1663 1671 1680 1688 1688 1688 1688 1688 1688 1680 1671 1671 1671 1680 1688 1688 1688 1696 1705 1705 1705 1705 1696 1696 1696 1696 1696 1696 1696 1696 1696 1696 1696 1696 1696 1696 1688 1688 1688 1688 1688 1696 1696 1696 1688 1688 1696 1696 1696 1696 1688 1688 1696 1696 1696 1696 1696 1705 1705 1705 1696 1696 1696 1705 1705 1705 1705 1713 1713 1722 1722 1713 1713 1722 1722 1713 1713 1713 1713 1722 1722 1722 1722 1722 1722 1731 1731 1731 1731 1731 1739 1731 1731 1739 1739 1739 1739 1739 1739 1748 1748 1748 1748 1748 1748 1748 1748 1748 1748 1757 1748 1748 1757 1757 1757 1757 1757 1757 1757 1757 1757 1739 1739 1748 1748 1748 1748 1748 1748 1748 1757 1766 1776 1776 0 0 0 0 0 0 0 0 0 0 0 0 0 4983 4983 4983 4911 4911 4983 4983 4911 4911 4842 4842 4842 4842 4842 4911 4911 4983 4983 5056 5056 5056 4983 4983 4911 4911 4911 4842 4842 4774 4774 4842 4842 4911 4842 4842 4842 4842 4911 4911 4983 4983 4983 4983 4983 4983 4983 4983 4983 4983 4911 4911 4911 4911 4983 4983 5056 0 0 0 0 0 0 0 0 0 0 0 0 4405 4405 4349 4349 4295 4295 4241 4241 4241 4241 4190 4190 4190 4190 4190 4190 4139 4139 4089 4089 4089 4041 4041 3994 3994 3994 3994 3948 3948 3948 3948 3948 3903 3903 0 0 0 0 0 0 0 0 0 0 0 0
0 0 0 0 0 0 0 0 0 0 0 0 0 0 0 0 0 0 0 0 0 0 0 0 0 0 0 0 0 0 0 3692 3692 3653 3614 3614 3614 3614 3653 3653 3692 3692 3732 3732 3732 3732 3774 3774 3774 3774 3774 3816 3816 3816 3816 3816 3816 3774 3774 3774 3774 3774 3774 3816 3816 3774 3774 3774 3774 3774 3732 3732 3774 3774 3774 3774 3468 3468 3732 3732 3732 3732 3774 3774 3774 3774 3774 3774 3774 3774 3816 3816 3816 3816 3859 3859 3859 0 0 0 0 0 0 0 0 1579 1579 1572 1572 1572 1572 1579 1572 1572 1572 1579 1579 1579 1579 1572 1572 1564 1564 1564 1564 1557 1557 1557 1557 1550 1550 1550 1543 1543 1543 1543 1543 1543 1536 1536 1536 1536 1536 1536 1529 1529 1529 1529 1523 1523 1523 1523 1516 1516 1516 1509 1509 1503 1503 1496 1496 1496 1496 1503 1496 1496 1496 1496 1496 1496 1496 1489 1489 1489 1489 1496 1489 1489 1489 1489 1489 1489 1489 1483 1483 1477 1477 1477 1470 1470 1458 1458 1458 1452 1452 1458 1458 1464 1470 1470 1477 1477 1477 1496 1529 1550 1564 1564 1557 1557 1557 1557 1557 1557 1564 1564 1564 1564 1564 1564 1564 1564 1572 1572 1572 1328 1322 1322 1322 1328 1328 1328 1328 1328 1328 1328 1328 1328 1328 1333 1333 1338 1338 1338 1343 1343 1338 1338 1579 1572 1572 1572 1572 1579 1579 1579 1579 1579 1579 1579 1579 1579 1579 1579 1579 1579 1579 1579 1579 1579 1579 1579 1586 1579 1579 1586 1586 1586 1586 1586 1594 1594 1594 1586 1586 1586 1586 1594 1579 1579 1579 1586 1586 1586 1586 1586 1236 1236 1236 1236 1232 1232 1232 1232 1232 1227 1227 1232 1232 1232 1232 1232 1227 1227 1227 1223 1223 1223 1223 1223 1219 1219 1219 1214 1214 1214 1214 1214 1210 1210 1210 1210 1210 1206 1202 1202 1202 1202 1197 1193 1193 1193 1193 1189 1189 1189 1185 1185 1181 1181 1181 1185 1189 1193 1197 1202 1202 1202 1655 1655 1655 1655 1655 1655 1663 1663 1655 1655 1663 1663 1663 1663 1663 1663 1663 1663 1655 1655 1647 1647 1655 1663 1663 1663 1671 1671 1671 1671 1663 1663 1663 1663 1663 1671 1680 1680 1688 1688 1688 1688 1688 1688 1688 1688 1688 1680 1680 1680 1680 1688 1680 1680 1688 1688 1688 1680 1680 1680 1688 1688 1688 1688 1688 1680 1680 1680 1680 1680 1680 1680 1680 1680 1680 1680 1680 1688 1688 1688 1688 1688 1688 1688 1696 1696 1696 1696 1705 1705 1705 1705 1705 1705 1705 1705 1705 1705 1705 1705 1713 1713 1713 1713 1713 1713 1722 1722 1722 1722 1722 1722 1722 1722 1722 1731 1731 1731 1739 1739 1739 1739 1739 1739 1739 1739 1739 1739 1739 1739 1739 1739 1739 1739 1739 1748 1748 1748 1748 1748 1748 1748 1731 1731 1739 1739 1739 1739 1739 1739 1748 1748 1757 1766 1776 0 0 0 0 0 0 0 0 0 0 0 0 0 4983 4983 4983 4911 4911 4911 4911 4911 4842 4842 4842 4842 4842 4842 4842 4911 4911 4983 4983 4983 4983 4983 4983 4911 4911 4842 4842 4842 4774 4774 4842 4842 4842 4842 4842 4842 4842 4911 4911 4911 4983 4983 4983 4983 4983 4983 4911 4911 4911 4911 4911 4842 4842 4842 4983 0 0 0 0 0 0 0 0 0 0 0 0 4522 4405 4405 4349 4349 4349 4349 4295 4295 4241 4241 4241 4190 4190 4190 4190 4190 4190 4139 4089 4089 4041 4041 4041 3994 3994 3994 3994 3948 3948 3948 3948 3948 3903 3903 0 0 0 0 0 0 0 0 0 0 0 0
0 0 0 0 0 0 0 0 0 0 0 0 0 0 0 0 0 0 0 0 0 0 0 0 0 0 0 0 0 0 0 3692 3692 3653 3614 3614 3614 3614 3614 3614 3653 3653 3692 3692 3692 3732 3732 3732 3732 3774 3774 3816 3816 3816 3816 3816 3816 3774 3774 3774 3774 3774 3774 3774 3774 3774 3774 3732 3732 3732 3732 3732 3732 3732 3732 3732 3468 3468 3732 3732 3732 3732 3732 3774 3774 3774 3774 3774 3774 3774 3774 3774 3816 3816 3859 3859 3859 0 0 0 0 0 0 0 0 1586 1586 1579 1579 1579 1579 1579 1579 1579 1579 1579 1579 1579 1579 1579 1572 1572 1572 1564 1564 1564 1557 1557 1557 1557 1550 1550 1550 1550 1557 1550 1543 1543 1543 1536 1536 1536 1536 1536 1529 1529 1529 1529 1529 1529 1523 1523 1523 1523 1516 1516 1509 1503 1503 1496 1496 1496 1503 1503 1503 1503 1503 1503 1503 1496 1496 1496 1496 1496 1496 1496 1496 1496 1489 1489 1489 1489 1489 1483 1483 1477 1477 1477 1470 1470 1458 1458 1458 1458 1458 1458 1458 1464 1470 1477 1477 1477 1477 1496 1529 1543 1557 1557 1557 1557 1557 1557 1557 1557 1557 1564 1564 1557 1557 1564 1564 1564 1564 1564 1564 1564 1322 1322 1322 1328 1328 1328 1328 1328 1328 1328 1328 1328 1328 1333 1333 1338 1338 1338 1338 1338 1338 1338 1343 1572 1564 1564 1564 1564 1564 1564 1564 1564 1557 1557 1557 1564 1564 1572 1572 1579 1579 1579 1579 1579 1579 1579 1579 1579 1579 1579 1579 1579 1586 1586 1586 1586 1586 1586 1586 1586 1586 1586 1572 1572 1572 1579 1579 1579 1579 1579 1586 1586 1236 1236 1232 1232 1232 1232 1232 1232 1232 1232 1236 1232 1232 1232 1227 1227 1227 1223 1223 1223 1223 1223 1223 1219 1219 1214 1214 1214 1214 1214 1214 1210 1210 1210 1210 1206 1206 1197 1197 1197 1197 1197 1193 1193 1193 1189 1189 1189 1189 1185 1185 1185 1185 1189 1189 1193 1197 1202 1206 1206 1655 1655 1647 1647 1655 1655 1647 1647 1647 1647 1647 1647 1647 1647 1647 1647 1647 1647 1647 1639 1639 1639 1639 1647 1647 1655 1655 1655 1663 1663 1655 1655 1655 1655 1655 1663 1663 1671 1671 1680 1680 1680 1680 1680 1680 1671 1671 1663 1663 1663 1663 1663 1663 1663 1671 1671 1671 1671 1671 1671 1671 1680 1680 1680 1680 1680 1680 1680 1680 1671 1671 1671 1671 1671 1671 1671 1671 1671 1680 1680 1680 1671 1671 1680 1680 1680 1688 1688 1688 1688 1696 1696 1696 1696 1696 1688 1688 1696 1696 1696 1705 1705 1705 1705 1705 1713 1713 1713 1713 1713 1713 1705 1705 1705 1705 1705 1713 1713 1722 1722 1722 1722 1722 1722 1722 1722 1722 1722 1722 1722 1722 1722 1722 1722 1731 1731 1731 1739 1739 1739 1739 1731 1722 1722 1731 1731 1731 1731 1739 1739 1748 1748 1757 1766 1776 0 0 0 0 0 0 0 0 0 0 0 0 0 4983 4983 4983 4911 4911 4911 4911 4911 4842 4842 4842 4842 4842 4842 4842 4911 4911 4911 4983 4983 4983 4911 4911 4911 4911 4842 4842 4842 4774 4774 4842 4774 4774 4842 4774 4774 4774 4842 4842 4911 4911 4911 4983 4983 4911 4911 4911 4911 4911 4911 4842 4842 4842 4842 4842 0 0 0 0 0 0 0 0 0 0 4522 4463 4463 4405 4405 4405 4349 4349 4349 4349 4295 4295 4241 4241 4190 4190 4190 4190 4190 4139 4089 4089 4089 4041 4041 4041 3994 3994 3948 3948 3948 3948 3948 3948 3903 3903 3903 0 0 0 0 0 0 0 0 0 0 0 0
0 0 0 0 0 0 0 0 0 0 0 0 0 0 0 0 0 0 0 0 0 0 0 0 0 0 0 0 0 0 0 3653 3653 3653 3614 3614 3614 3614 3614 3614 3653 3653 3653 3653 3653 3692 3692 3692 3732 3732 3774 3774 3774 3816 3816 3816 3774 3774 3774 3774 3774 3774 3774 3774 3774 3774 3774 3732 3732 3732 3732 3732 3732 3732 3732 3614 3503 3503 3692 3692 3732 3732 3732 3732 3732 3732 3732 3732 3774 3774 3774 3774 3774 3816 3816 3816 3816 0 0 0 0 0 0 0 0 1586 1586 1586 1586 1586 1586 1586 1586 1586 1586 1586 1586 1586 1586 1586 1579 1579 1572 1572 1564 1564 1557 1557 1557 1557 1557 1557 1557 1557 1557 1557 1557 1550 1543 1543 1536 1536 1536 1536 1536 1529 1529 1529 1529 1529 1529 1523 1523 1523 1516 1516 1516 1509 1509 1503 1503 1503 1503 1503 1503 1503 1503 1503 1503 1496 1496 1496 1496 1496 1496 1496 1496 1496 1496 1496 1496 1496 1489 1483 1483 1477 1477 1477 1470 1470 1464 1464 1458 1458 1458 1464 1464 1470 1470 1477 1477 1483 1483 1503 1536 1543 1557 1557 1557 1557 1557 1557 1557 1557 1557 1557 1557 1557 1557 1557 1557 1557 1550 1550 1543 1543 1543 1550 1328 1328 1328 1328 1328 1328 1333 1333 1328 1328 1328 1333 1333 1338 1338 1338 1338 1338 1338 1338 1343 1349 1543 1550 1550 1543 1543 1550 1550 1550 1550 1550 1550 1550 1557 1550 1550 1572 1572 1572 1579 1579 1579 1579 1572 1572 1572 1572 1572 1572 1572 1572 1572 1579 1579 1579 1579 1572 1572 1572 1572 1572 1572 1572 1572 1572 1572 1572 1572 1579 1579 1579 1579 1579 1579 1236 1236 1241 1586 1594 1586 1586 1586 1586 1586 1579 1579 1227 1227 1227 1227 1223 1223 1219 1219 1214 1214 1214 1214 1214 1214 1210 1210 1210 1210 1206 1202 1197 1197 1197 1197 1193 1193 1193 1193 1193 1189 1189 1189 1185 1185 1185 1185 1189 1193 1197 1202 1202 1206 1206 1206 1655 1639 1639 1647 1639 1639 1639 1639 1632 1632 1632 1632 1632 1632 1632 1632 1632 1632 1632 1632 1632 1632 1632 1632 1647 1647 1655 1655 1655 1647 1647 1647 1647 1647 1647 1647 1655 1663 1663 1663 1663 1663 1655 1655 1655 1655 1655 1655 1655 1655 1655 1655 1655 1663 1663 1663 1663 1663 1663 1663 1671 1671 1671 1671 1671 1671 1671 1663 1663 1663 1663 1663 1663 1663 1663 1663 1663 1663 1663 1671 1663 1663 1671 1671 1680 1680 1680 1680 1680 1688 1680 1680 1680 1680 1680 1680 1688 1688 1688 1696 1696 1696 1696 1696 1696 1705 1705 1696 1696 1696 1696 1696 1696 1696 1696 1696 1696 1696 1696 1696 1696 1705 1705 1705 1705 1705 1705 1705 1705 1705 1705 1713 1713 1713 1713 1722 1722 1722 1731 1731 1731 1722 1722 1722 1722 1722 1722 1731 1731 1739 1739 1748 1766 1776 0 0 0 0 0 0 0 0 0 0 0 0 0 4983 4911 4842 4842 4842 4842 4842 4911 4842 4842 4842 4842 4911 4911 4911 4911 4842 4842 4983 4983 4911 4842 4842 4842 4842 4774 4774 4774 4774 4774 4708 4708 4708 4708 4708 4708 4708 4774 4774 4842 4911 4911 4983 4911 4911 4911 4911 4842 4842 4842 4842 4774 4774 4774 4774 4774 0 0 0 0 0 0 0 0 4582 4522 4463 4463 4405 4405 4405 4349 4349 4349 4295 4295 4295 4241 4241 4190 4190 4190 4190 4190 4139 4089 4089 4041 4041 4041 4041 3994 3994 3948 3948 3948 3948 3948 3948 3903 3903 3903 0 0 0 0 0 0 0 0 0 0 0 0
0 0 0 0 0 0 0 0 0 0 0 0 0 0 0 0 0 0 0 0 0 0 0 0 0 0 0 0 0 0 0 3653 3653 3614 3614 3576 3576 3614 3614 3614 3614 3614 3653 3653 3653 3653 3653 3653 3692 3692 3732 3774 3774 3774 3774 3774 3732 3732 3732 3732 3732 3774 3774 3774 3774 3774 3774 3732 3732 3732 3732 3732 3732 3732 3692 3539 3468 3468 3503 3539 3614 3692 3692 3732 3732 3732 3732 3732 3732 3732 3774 3774 3774 3774 3816 3774 3774 0 0 0 0 0 0 0 0 1586 1586 1586 1586 1586 1586 1586 1586 1586 1586 1586 1586 1586 1586 1586 1586 1579 1579 1579 1579 1564 1557 1557 1557 1557 1557 1557 1557 1557 1557 1557 1557 1550 1543 1543 1536 1536 1536 1536 1536 1529 1529 1529 1529 1529 1529 1529 1523 1523 1516 1516 1516 1509 1509 1509 1509 1503 1503 1509 1509 1509 1503 1503 1503 1496 1496 1496 1496 1496 1496 1496 1496 1496 1496 1496 1496 1496 1496 1489 1489 1483 1477 1477 1477 1477 1470 1470 1464 1464 1464 1464 1464 1470 1470 1477 1477 1483 1483 1516 1550 1550 1557 1564 1564 1557 1557 1557 1557 1557 1557 1557 1557 1557 1557 1557 1557 1557 1550 1550 1543 1543 1543 1543 1328 1328 1328 1328 1333 1333 1333 1333 1333 1333 1333 1333 1333 1338 1338 1338 1343 1343 1343 1343 1343 1349 1523 1529 1529 1536 1536 1543 1543 1543 1543 1543 1543 1543 1543 1543 1550 1550 1564 1572 1572 1572 1564 1564 1557 1550 1550 1564 1564 1572 1572 1572 1572 1564 1564 1572 1572 1564 1564 1564 1564 1557 1557 1564 1564 1564 1564 1564 1564 1564 1564 1564 1564 1564 1564 1564 1572 1572 1579 1586 1586 1579 1579 1579 1586 1579 1579 1579 1572 1572 1572 1223 1223 1219 1219 1214 1214 1214 1214 1214 1214 1210 1210 1210 1210 1206 1202 1197 1197 1197 1197 1193 1193 1193 1193 1193 1189 1189 1189 1189 1189 1185 1185 1193 1193 1197 1202 1202 1202 1202 1202 1202 1639 1639 1647 1632 1624 1624 1624 1624 1624 1624 1616 1616 1624 1624 1624 1624 1624 1624 1624 1624 1632 1632 1632 1632 1647 1647 1639 1639 1639 1639 1632 1632 1632 1639 1639 1639 1639 1647 1647 1647 1647 1647 1647 1647 1647 1647 1647 1647 1647 1647 1647 1647 1647 1655 1655 1655 1655 1655 1655 1655 1655 1663 1663 1663 1663 1663 1655 1655 1655 1655 1655 1655 1655 1655 1655 1655 1663 1663 1663 1655 1655 1663 1663 1663 1663 1663 1663 1663 1663 1663 1663 1663 1663 1663 1671 1671 1671 1680 1680 1688 1688 1688 1688 1688 1688 1688 1688 1688 1688 1688 1688 1688 1688 1688 1688 1688 1688 1688 1688 1688 1688 1696 1696 1696 1696 1696 1696 1696 1696 1696 1696 1705 1696 1696 1705 1713 1722 1713 1713 1713 1705 1705 1705 1705 1705 1713 1713 1713 1722 1722 1748 0 0 0 0 0 0 0 0 0 0 0 4842 4842 4842 4842 4842 4842 4774 4774 4774 4774 4774 4774 4774 4774 4774 4774 4911 4842 4842 4842 4842 4842 4911 4842 4842 4842 4774 4774 4842 4774 4774 4774 4774 4774 4708 4708 4708 4708 4708 4708 4708 4774 4774 4842 4911 4911 4911 4911 4842 4842 4842 4842 4842 4842 4842 4774 4774 4774 4774 4774 0 0 0 0 0 0 0 0 4582 4522 4463 4463 4405 4405 4405 4405 4349 4349 4295 4295 4295 4241 4241 4241 4190 4190 4190 4190 4139 4139 4089 4041 4041 4041 4041 3994 3994 3948 3948 3948 3948 3948 3948 3903 3903 3903 0 0 0 0 0 0 0 0 0 0 0 0
0 0 0 0 0 0 0 0 0 0 0 0 0 0 0 0 0 0 0 0 0 0 0 0 0 0 0 0 0 0 0 3653 3653 3614 3614 3576 3576 3614 3614 3614 3614 3614 3653 3653 3653 3653 3653 3653 3653 3692 3732 3732 3732 3732 3692 3653 3653 3653 3653 3692 3692 3732 3774 3774 3774 3732 3732 3692 3692 3692 3692 3692 3692 3692 3692 3539 3468 3468 3503 3503 3503 3692 3692 3732 3732 3732 3732 3732 3732 3732 3732 3732 3732 3774 3774 3732 3732 0 0 0 0 0 0 0 0 1586 1586 1586 1586 1586 1586 1586 1586 1586 1586 1586 1586 1594 1594 1594 1586 1586 1586 1586 1586 1564 1557 1557 1557 1557 1557 1557 1557 1557 1557 1557 1557 1550 1543 1543 1543 1536 1536 1536 1536 1536 1536 1536 1529 1529 1529 1529 1523 1523 1523 1523 1516 1509 1509 1509 1509 1503 1503 1503 1503 1503 1503 1509 1503 1503 1503 1496 1496 1503 1503 1503 1503 1503 1503 1503 1496 1496 1496 1496 1496 1489 1489 1477 1477 1477 1470 1470 1470 1470 1470 1470 1470 1470 1470 1477 1477 1483 1483 1536 1550 1557 1564 1564 1564 1564 1564 1564 1564 1557 1557 1557 1557 1557 1557 1557 1557 1557 1550 1550 1550 1550 1543 1536 1536 1333 1333 1333 1333 1333 1333 1333 1333 1333 1333 1333 1338 1338 1338 1343 1343 1343 1343 1343 1343 1343 1523 1523 1523 1523 1529 1529 1529 1529 1529 1529 1529 1529 1529 1529 1543 1543 1543 1529 1529 1529 1529 1536 1536 1536 1536 1543 1543 1550 1550 1550 1557 1557 1557 1557 1557 1557 1557 1557 1557 1557 1557 1557 1557 1557 1557 1557 1557 1557 1557 1557 1557 1557 1557 1557 1564 1564 1564 1572 1579 1579 1579 1579 1579 1579 1572 1572 1572 1564 1557 1557 1223 1219 1219 1214 1214 1214 1214 1214 1214 1214 1214 1214 1210 1210 1202 1197 1197 1197 1197 1193 1193 1193 1193 1193 1193 1189 1189 1189 1189 1189 1189 1193 1197 1197 1202 1202 1202 1202 1202 1202 1647 1647 1647 1609 1609 1609 1609 1609 1609 1609 1609 1609 1609 1609 1616 1616 1616 1616 1624 1624 1624 1624 1624 1624 1632 1632 1624 1624 1632 1632 1632 1624 1624 1624 1624 1632 1632 1632 1632 1632 1632 1632 1632 1639 1639 1639 1639 1632 1632 1639 1639 1639 1647 1655 1655 1647 1647 1647 1647 1647 1647 1647 1655 1655 1655 1655 1655 1647 1647 1647 1647 1647 1647 1647 1647 1655 1655 1655 1655 1655 1655 1655 1655 1655 1655 1655 1655 1655 1655 1655 1655 1655 1655 1655 1655 1663 1663 1663 1671 1671 1680 1680 1680 1680 1680 1680 1680 1680 1680 1680 1680 1680 1680 1680 1680 1680 1680 1680 1680 1680 1680 1688 1688 1688 1688 1688 1688 1688 1688 1688 1688 1688 1688 1688 1696 1696 1705 1696 1696 1705 1705 1696 1688 1688 1688 1688 1696 1705 1705 1705 0 0 0 0 0 0 0 0 0 0 0 0 4842 4842 4842 4842 4842 4842 4774 4774 4774 4774 4774 4774 4774 4774 4774 4774 4911 4842 4842 4842 4774 4774 4842 4842 4774 4774 4774 4774 4774 4708 4708 4708 4708 4708 4645 4645 4645 4708 4708 4708 4774 4774 4774 4842 4842 4842 4842 4911 4842 4774 4774 4774 4842 4842 4774 4708 4708 4708 0 0 0 0 0 0 0 0 0 0 0 4522 4463 4405 4405 4405 4405 4405 4349 4349 4349 4295 4295 4295 4295 4241 4241 4241 4190 4190 4190 4139 4139 4089 4041 4041 4041 3994 3994 3948 3948 3948 3948 3948 3948 3903 3903 3903 0 0 0 0 0 0 0 0 0 0 0 0
0 0 0 0 0 0 0 0 0 0 0 0 0 0 0 0 0 0 0 0 0 0 0 0 0 0 0 0 0 0 0 3614 3614 3614 3614 3576 3576 3614 3614 3614 3614 3614 3614 3614 3653 3653 3653 3653 3653 3653 3653 3653 3653 3614 3614 3614 3653 3653 3653 3653 3692 3732 3732 3732 3732 3732 3692 3653 3653 3653 3653 3653 3653 3653 3653 3539 3468 3468 3503 3503 3503 3653 3653 3692 3732 3692 3692 3732 3732 3732 3732 3732 3732 3774 3774 3692 3653 3653 3468 3433 3433 3468 0 0 0 1594 1586 1586 1586 1586 1586 1586 1586 1594 1586 1586 1586 1594 1594 1594 1594 1594 1594 1601 1680 1680 1557 1557 1564 1564 1557 1557 1557 1557 1557 1557 1557 1550 1536 1536 1543 1543 1536 1536 1536 1536 1536 1536 1529 1529 1529 1529 1523 1523 1523 1523 1516 1516 1516 1509 1509 1509 1509 1503 1503 1503 1503 1503 1503 1503 1503 1503 1503 1503 1503 1503 1503 1503 1503 1503 1503 1496 1496 1496 1496 1496 1489 1489 1489 1483 1477 1477 1470 1470 1470 1470 1470 1470 1477 1477 1483 1489 1496 1536 1550 1557 1564 1572 1572 1572 1572 1572 1564 1564 1564 1557 1557 1557 1557 1557 1557 1557 1550 1550 1550 1550 1543 1536 1536 1333 1333 1333 1333 1338 1338 1338 1338 1338 1338 1338 1338 1338 1338 1343 1349 1349 1343 1343 1343 1343 1516 1523 1523 1523 1523 1523 1523 1523 1516 1516 1516 1516 1523 1523 1523 1523 1529 1529 1523 1523 1523 1523 1523 1529 1529 1529 1536 1543 1543 1543 1543 1543 1543 1543 1543 1543 1543 1536 1536 1543 1536 1536 1543 1543 1543 1543 1543 1543 1543 1543 1550 1550 1550 1550 1557 1557 1557 1557 1557 1564 1564 1572 1572 1572 1564 1564 1564 1564 1557 1557 1557 1557 1557 1564 1572 1572 1214 1214 1572 1572 1214 1214 1214 1214 1202 1202 1202 1202 1197 1193 1193 1197 1193 1193 1193 1193 1189 1189 1193 1193 1193 1197 1197 1202 1202 1206 1206 1202 1202 1202 1202 1594 1594 1594 1594 1601 1601 1601 1601 1601 1601 1601 1601 1601 1609 1609 1609 1609 1616 1616 1616 1616 1616 1616 1624 1609 1609 1609 1616 1616 1616 1616 1624 1624 1624 1624 1624 1624 1624 1624 1624 1624 1624 1624 1632 1632 1624 1624 1624 1632 1632 1632 1632 1639 1647 1639 1639 1639 1639 1616 1616 1616 1624 1647 1647 1647 1647 1639 1639 1639 1639 1639 1647 1647 1647 1647 1647 1647 1647 1647 1647 1647 1647 1647 1647 1647 1655 1655 1647 1647 1647 1647 1647 1647 1655 1655 1655 1655 1663 1671 1671 1671 1663 1663 1663 1655 1655 1663 1663 1671 1671 1671 1671 1671 1671 1663 1663 1663 1671 1671 1671 1671 1671 1680 1680 1680 1680 1680 1680 1680 1680 1680 1680 1680 1688 1688 1688 1688 1688 1688 1688 1680 1680 1680 1680 1680 1688 1688 1696 1705 0 0 0 0 0 0 0 0 0 0 0 0 4842 4842 4842 4842 4842 4774 4774 4774 4774 4774 4774 4774 4774 4774 4774 4842 4911 4842 4842 4774 4774 4774 4774 4774 4708 4708 4708 4708 4774 4708 4708 4708 4708 4708 4645 4645 4522 4522 4708 4708 4708 4774 4774 4774 4842 4842 4842 4842 4774 4774 4708 4708 4708 4645 4582 4522 4522 4708 0 0 0 0 0 0 0 0 0 0 0 4463 4463 4405 4405 4405 4405 4405 4349 4349 4349 4295 4295 4295 4295 4241 4241 4241 4190 4190 4190 4139 4139 4089 4041 4041 4041 3994 3994 3994 3948 3948 3948 3948 3948 3903 3903 3903 0 0 0 0 0 0 0 0 0 0 0 0
0 0 0 0 0 0 0 0 0 0 0 0 0 0 0 0 0 0 0 0 0 0 0 0 0 0 0 0 0 0 0 3576 3576 3576 3576 3539 3539 3576 3576 3576 3576 3614 3614 3614 3653 3653 3614 3614 3614 3614 3614 3614 3614 3614 3576 3576 3614 3614 3614 3653 3692 3692 3692 3692 3692 3692 3692 3614 3614 3614 3653 3653 3653 3653 3614 3576 3503 3503 3503 3503 3503 3539 3614 3653 3692 3692 3692 3692 3692 3732 3732 3732 3732 3732 3692 3614 3576 3576 3468 3433 3433 3468 0 0 0 0 1586 1586 1586 1586 1586 1586 1586 1594 1586 1586 1594 1594 1594 1594 1601 1601 1601 1616 1655 1680 1705 1564 1564 1564 1564 1557 1557 1557 1557 1713 1557 1550 1536 1536 1543 1543 1543 1543 1536 1536 1536 1536 1536 1536 1529 1529 1529 1529 1523 1523 1523 1516 1516 1516 1516 1509 1509 1509 1509 1509 1503 1503 1503 1503 1503 1503 1503 1503 1503 1503 1503 1503 1503 1503 1503 1503 1496 1496 1496 1496 1489 1489 1489 1483 1477 1477 1477 1477 1477 1470 1470 1470 1477 1477 1483 1489 1496 1496 1557 1557 1572 1572 1579 1579 1579 1572 1572 1564 1564 1557 1557 1557 1557 1557 1557 1557 1550 1550 1550 1550 1543 1543 1543 1333 1333 1333 1333 1338 1338 1338 1338 1338 1338 1338 1338 1343 1343 1343 1349 1349 1349 1349 1349 1349 1516 1516 1516 1523 1516 1516 1516 1516 1516 1516 1516 1516 1516 1516 1516 1516 1516 1516 1509 1509 1509 1509 1509 1516 1523 1523 1536 1536 1529 1529 1529 1529 1536 1536 1536 1536 1536 1529 1529 1536 1529 1529 1536 1536 1536 1536 1536 1536 1536 1536 1543 1543 1543 1543 1543 1543 1543 1543 1543 1543 1543 1550 1550 1550 1550 1543 1543 1550 1550 1550 1550 1550 1550 1557 1557 1557 1557 1557 1557 1557 1550 1550 1564 1564 1210 1210 1206 1206 1197 1193 1193 1197 1197 1197 1193 1193 1193 1193 1193 1193 1193 1197 1202 1206 1206 1206 1206 1206 1206 1210 0 1557 1586 1586 1586 1594 1594 1594 1594 1594 1594 1594 1594 1594 1601 1601 1601 1601 1609 1609 1609 1601 1601 1601 1609 1601 1601 1601 1601 1609 1609 1609 1609 1609 1616 1616 1616 1616 1616 1616 1616 1616 1616 1616 1616 1624 1616 1616 1616 1616 1624 1624 1624 1632 1632 1616 1616 1624 1609 1609 1609 1609 1616 1632 1639 1639 1639 1639 1639 1639 1639 1639 1639 1639 1639 1639 1647 1639 1639 1639 1639 1639 1632 1632 1639 1639 1639 1639 1632 1632 1639 1639 1639 1639 1639 1647 1647 1647 1655 1663 1663 1655 1655 1647 1647 1639 1639 1647 1647 1655 1655 1655 1663 1663 1663 1655 1655 1663 1663 1663 1663 1663 1663 1671 1671 1671 1671 1671 1671 1671 1671 1671 1671 1671 1680 1680 1680 1680 1680 1680 1680 1671 1671 1671 1671 1671 1671 1671 1671 0 0 0 0 0 0 0 0 0 0 0 0 0 0 0 4842 4842 4774 4774 4708 4708 4774 4774 4774 4774 4774 4774 4774 4774 4911 4911 4911 4774 4708 4708 4708 4708 4645 4645 4645 4708 4708 4708 4708 4708 4708 4708 4522 4522 4522 4522 4522 4645 4708 4708 4774 4774 4842 4842 4842 4842 4774 4708 4708 4708 4708 4645 4522 4522 4522 4522 4463 0 0 0 0 0 0 0 0 0 0 4463 4463 4405 4405 4405 4405 4405 4349 4349 4349 4349 4349 4295 4295 4241 4241 4190 4190 4139 4139 4139 4139 4089 4089 4041 4041 3994 3994 3994 3994 3994 3994 3948 3948 3903 3903 3903 0 0 0 0 0 0 0 0 0 0 0 0
0 0 0 0 0 0 0 0 0 0 0 0 0 0 0 0 0 0 0 0 0 0 0 0 0 0 0 0 0 0 0 3576 3539 3539 3539 3539 3539 3539 3539 3539 3576 3576 3614 3614 3614 3614 3576 3576 3576 3576 3576 3576 3614 3614 3576 3576 3614 3614 3614 3614 3653 3653 3653 3692 3692 3692 3692 3614 3614 3614 3653 3653 3653 3614 3614 3576 3539 3539 3539 3503 3503 3539 3576 3614 3692 3692 3692 3692 3692 3692 3692 3692 3692 3692 3653 3614 3576 3576 3503 3468 3468 3468 0 0 0 0 1594 1594 1586 1586 1586 1594 1594 1594 1594 1594 1594 1594 1594 1594 1601 1601 1609 1616 1655 1680 1705 1713 1713 1713 1713 1713 1705 1705 1705 1705 1705 1696 1536 1536 1550 1550 1543 1543 1543 1536 1536 1536 1536 1536 1529 1529 1529 1529 1529 1529 1529 1523 1523 1516 1516 1516 1516 1516 1509 1509 1509 1509 1503 1503 1503 1503 1503 1503 1503 1503 1503 1503 1503 1503 1503 1503 1496 1496 1496 1496 1489 1489 1489 1483 1483 1477 1477 1477 1477 1470 1470 1470 1477 1477 1483 1489 1496 1509 1557 1557 1564 1572 1579 1579 1579 1579 1572 1572 1572 1564 1564 1557 1557 1557 1557 1557 1557 1557 1557 1557 1550 1550 1550 1550 1333 1333 1338 1338 1338 1338 1338 1338 1338 1338 1338 1343 1343 1349 1354 1354 1349 1349 1349 1354 1516 1516 1516 1516 1516 1516 1516 1516 1509 1509 1509 1509 1516 1516 1516 1516 1509 1503 1503 1503 1503 1503 1503 1509 1509 1503 1503 1516 1523 1523 1523 1523 1523 1523 1523 1523 1523 1516 1516 1523 1523 1523 1529 1529 1529 1529 1529 1529 1529 1529 1536 1536 1536 1536 1543 1543 1543 1536 1536 1536 1536 1529 1529 1529 1536 1536 1536 1543 1543 1543 1543 1550 1550 1543 1543 1543 1550 1550 1550 1550 1543 1543 1543 1550 1550 1214 1210 1210 1206 1193 1193 1193 1197 1197 1193 1193 1193 1193 1193 1197 1197 1202 1202 1206 1206 1210 1210 1210 1210 1210 1543 1557 1557 1557 1564 1579 1579 1586 1586 1586 1579 1579 1579 1579 1579 1594 1594 1594 1594 1594 1594 1594 1594 1594 1594 1594 1594 1594 1594 1594 1594 1601 1601 1601 1601 1601 1601 1601 1601 1601 1601 1601 1601 1601 1601 1601 1601 1609 1616 1616 1616 1616 1616 1616 1616 1601 1594 1594 1594 1594 1594 1601 1609 1624 1632 1632 1632 1632 1632 1632 1632 1632 1632 1632 1639 1639 1632 1624 1624 1624 1624 1624 1624 1624 1624 1632 1632 1632 1632 1632 1632 1632 1632 1632 1632 1632 1639 1647 1647 1647 1647 1647 1639 1639 1632 1632 1632 1639 1639 1639 1639 1647 1647 1655 1655 1647 1647 1655 1655 1655 1655 1655 1655 1655 1663 1663 1663 1663 1663 1655 1655 1663 1663 1671 1671 1671 1663 1663 1663 1663 1663 1663 1663 1663 1663 1663 1663 1663 1663 1671 0 0 0 0 0 0 0 0 0 0 0 0 0 0 4842 4774 4774 4774 4708 4708 4774 4774 4774 4708 4708 4774 4774 4774 4911 4842 4774 4708 4708 4708 4645 4645 4582 4582 4582 4582 4645 4645 4645 4645 4645 4645 4522 4522 4522 4522 4522 4582 4582 4645 4708 4708 4774 4774 4842 4842 4708 4645 4645 4645 4645 4582 4522 4522 4463 4463 4463 4463 4463 0 0 0 0 0 0 4774 4522 4463 4463 4405 4405 4405 4405 4349 4349 4295 4295 4295 4295 4241 4241 4241 4190 4190 4190 4139 4139 4139 4139 4089 4089 4041 4041 3994 3994 3994 3994 3994 3994 3948 3948 3948 3903 3903 0 0 0 0 0 0 0 0 0 0 0 0
0 0 0 0 0 0 0 0 0 0 0 0 0 0 0 0 0 0 0 0 0 0 0 0 0 0 0 0 0 0 0 3539 3539 3539 3539 3539 3539 3503 3503 3539 3539 3539 3576 3576 3576 3576 3576 3576 3576 3576 3576 3576 3576 3576 3576 3576 3539 3539 3576 3576 3576 3614 3614 3653 3653 3653 3653 3614 3614 3614 3614 3614 3614 3614 3614 3576 3576 3576 3539 3539 3539 3539 3576 3614 3653 3653 3653 3653 3692 3692 3653 3653 3653 3614 3614 3576 3576 3576 3539 3468 3468 3433 3433 0 0 0 1594 1594 1586 1586 1586 1594 1594 1594 1594 1594 1594 1594 1594 1594 1601 1601 1609 1616 1647 1680 1696 1705 1705 1705 1713 1705 1705 1696 1696 1696 1705 1688 1688 1688 1550 1550 1536 1536 1536 1536 1536 1536 1536 1536 1529 1529 1529 1529 1529 1529 1529 1529 1529 1516 1516 1516 1516 1516 1516 1509 1509 1509 1503 1503 1503 1503 1503 1503 1503 1503 1503 1503 1503 1503 1503 1503 1503 1503 1496 1496 1496 1489 1489 1483 1483 1477 1477 1477 1477 1477 1470 1470 1477 1477 1483 1489 1496 1509 1557 1557 1564 1572 1579 1579 1579 1579 1579 1572 1572 1572 1564 1564 1557 1557 1557 1557 1557 1557 1557 1557 1550 1550 1550 1557 1338 1338 1338 1338 1338 1338 1338 1338 1338 1338 1338 1343 1349 1349 1354 1354 1354 1349 1343 1343 1516 1516 1516 1516 1516 1516 1516 1509 1509 1503 1503 1503 1509 1509 1509 1509 1503 1503 1496 1496 1496 1496 1496 1496 1496 1496 1496 1496 1496 1503 1509 1516 1516 1516 1516 1516 1509 1509 1509 1516 1516 1516 1516 1516 1516 1523 1516 1516 1516 1523 1523 1523 1529 1529 1529 1529 1529 1529 1529 1523 1523 1529 1529 1523 1523 1529 1529 1536 1536 1536 1536 1543 1543 1536 1536 1536 1536 1536 1536 1543 1536 1536 1536 1543 1543 1543 1210 1210 1206 1193 1193 1193 1197 1197 1197 1197 1197 1197 1197 1197 1197 1202 1206 1206 1210 1210 1210 1210 1210 1210 1543 1543 1543 1550 1557 1557 1564 1564 1564 1564 1564 1564 1564 1564 1564 1564 1564 1564 1564 1572 1572 1572 1572 1572 1572 1572 1572 1572 1572 1572 1572 1579 1579 1579 1579 1586 1586 1586 1586 1586 1586 1579 1579 1579 1586 1586 1594 1601 1601 1601 1609 1601 1601 1601 1601 1594 1586 1586 1586 1586 1586 1594 1594 1601 1616 1616 1624 1624 1624 1624 1624 1624 1616 1616 1616 1616 1609 1609 1609 1609 1616 1616 1616 1616 1616 1616 1624 1624 1624 1624 1624 1624 1624 1624 1624 1624 1624 1632 1639 1639 1639 1647 1639 1639 1632 1632 1632 1632 1632 1632 1632 1632 1639 1639 1639 1639 1639 1647 1647 1647 1639 1639 1647 1647 1647 1647 1647 1647 1647 1647 1647 1647 1647 1655 1647 1647 1655 1655 1655 1655 1655 1655 1655 1655 1655 1655 1655 1655 1655 1671 0 0 0 0 0 0 0 0 0 0 0 0 0 0 4774 4774 4708 4708 4708 4708 4708 4708 4708 4708 4708 4708 4708 4708 4774 4774 4774 4708 4645 4645 4582 4522 4463 4463 4522 4522 4522 4582 4582 4582 4582 4522 4522 4522 4463 4463 4522 4582 4582 4645 4645 4708 4774 4774 4774 4842 4708 4645 4582 4582 4645 4582 4522 4522 4463 4463 4463 4463 4463 0 0 0 0 0 0 4774 4463 4463 4463 4405 4405 4405 4405 4349 4349 4295 4295 4295 4295 4241 4241 4241 4190 4190 4190 4139 4139 4139 4139 4089 4089 4041 4041 4041 4041 4041 4041 3994 3994 3994 3994 3948 3948 3948 0 0 0 0 0 0 0 0 0 0 0 0
0 0 0 0 0 0 0 0 0 0 0 0 0 0 0 0 0 0 0 0 0 0 0 0 0 0 0 0 0 0 0 3503 3503 3503 3503 3503 3503 3503 3503 3503 3503 3503 3503 3503 3539 3539 3539 3539 3539 3576 3576 3576 3576 3576 3539 3539 3539 3539 3539 3539 3539 3576 3576 3614 3614 3614 3614 3576 3576 3576 3576 3576 3576 3576 3576 3614 3614 3576 3576 3576 3576 3576 3576 3576 3614 3614 3653 3653 3653 3653 3653 3653 3653 3614 3614 3576 3576 3576 3539 3503 3468 3433 3433 0 0 0 0 1601 1594 1594 1594 1594 1594 1594 1594 1594 1594 1594 1594 1601 1601 1609 1616 1616 1632 1671 1688 1696 1705 1705 1705 1705 1696 1696 1696 1696 1688 1688 1688 1688 1688 1688 1536 1536 1529 1529 1536 1536 1536 1536 1536 1536 1529 1529 1529 1529 1529 1529 1529 1516 1516 1516 1516 1509 1509 1509 1509 1509 1503 1503 1503 1509 1503 1503 1503 1503 1503 1503 1503 1503 1503 1503 1503 1503 1496 1496 1496 1489 1489 1489 1483 1477 1477 1477 1477 1477 1470 1470 1477 1477 1483 1489 1496 1503 1503 1557 1572 1579 1586 1586 1586 1586 1579 1579 1579 1572 1572 1564 1564 1564 1557 1557 1557 1557 1557 1557 1550 1550 1550 1557 1338 1338 1338 1338 1338 1338 1338 1338 1338 1338 1343 1343 1349 1354 1354 1354 1354 1343 1343 1343 1516 1516 1516 1516 1516 1516 1509 1509 1503 1503 1503 1503 1503 1503 1503 1503 1496 1496 1496 1496 1496 1496 1496 1496 1496 1489 1489 1489 1496 1496 1496 1496 1496 1509 1503 1503 1503 1503 1503 1509 1503 1503 1503 1509 1509 1509 1503 1503 1509 1509 1509 1509 1516 1516 1516 1516 1523 1523 1523 1516 1516 1523 1523 1516 1516 1523 1523 1523 1523 1529 1529 1536 1529 1523 1523 1529 1523 1523 1523 1523 1536 1536 1536 1536 1543 1543 1214 1214 1210 1197 1197 1197 1197 1197 1197 1202 1197 1197 1197 1202 1202 1206 1206 1210 1210 1210 1210 1210 1210 1516 1529 1529 1529 1536 1550 1550 1550 1550 1557 1557 1557 1557 1557 1557 1557 1557 1557 1557 1564 1564 1564 1564 1564 1564 1564 1564 1564 1564 1564 1564 1572 1572 1572 1572 1572 1579 1572 1572 1579 1579 1572 1572 1572 1572 1572 1572 1572 1572 1579 1579 1586 1586 1586 1586 1586 1579 1579 1572 1572 1579 1579 1579 1579 1586 1594 1601 1616 1616 1609 1609 1601 1601 1594 1594 1594 1594 1594 1594 1594 1594 1594 1594 1594 1594 1601 1594 1594 1601 1609 1609 1609 1601 1601 1609 1609 1601 1601 1594 1594 1594 1594 1639 1632 1632 1624 1624 1624 1632 1632 1624 1624 1624 1632 1632 1632 1632 1632 1639 1632 1632 1632 1632 1632 1632 1632 1632 1632 1632 1639 1632 1632 1632 1632 1632 1632 1632 1639 1647 1647 1647 1647 1647 1647 1647 1647 1647 1655 1655 1655 0 0 0 0 0 0 0 0 0 0 0 0 0 0 0 4645 4645 4708 4708 4708 4708 4708 4708 4645 4582 4582 4582 4582 4582 4582 4708 4645 4645 4522 4522 4522 4463 4463 4463 4463 4463 4463 4522 4522 4522 4463 4463 4522 4463 4463 4463 4463 4522 4522 4582 4582 4645 4774 4774 4774 4774 4645 4645 4522 4522 4522 4522 4522 4522 4463 4463 4463 4463 4463 0 0 0 0 0 0 4645 4463 4463 4463 4405 4405 4405 4405 4349 4349 4349 4295 4295 4295 4295 4241 4241 4241 4190 4190 4190 4190 4190 4139 4089 4089 4041 4041 4041 4041 4041 4041 3994 3994 3994 3994 3948 3948 3948 0 0 0 0 0 0 0 0 0 0 0 0
0 0 0 0 0 0 0 0 0 0 0 0 0 0 0 0 0 0 0 0 0 0 0 0 0 0 0 0 0 0 0 3503 3468 3468 3503 3503 3503 3468 3468 3503 3468 3468 3503 3503 3503 3503 3539 3539 3539 3539 3539 3539 3539 3539 3503 3503 3503 3503 3503 3503 3503 3539 3539 3576 3614 3614 3614 3576 3576 3576 3576 3576 3576 3576 3576 3614 3614 3576 3576 3576 3576 3576 3433 3433 3539 3539 3576 3576 3614 3614 3614 3614 3653 3614 3614 3576 3576 3576 3539 3503 3468 3433 3433 0 0 0 0 0 1594 1594 1594 1594 1594 1594 1594 1594 1594 1594 1594 1601 1601 1609 1616 1616 1632 1663 1688 1696 1705 1705 1705 1705 1696 1696 1696 1696 1688 1688 1696 1696 1696 1696 1688 1688 1529 1529 1536 1536 1536 1536 1536 1536 1529 1529 1529 1529 1529 1529 1529 1516 1516 1516 1516 1509 1509 1509 1509 1509 1503 1503 1503 1509 1509 1509 1509 1509 1509 1503 1503 1503 1503 1503 1503 1503 1496 1496 1496 1496 1489 1489 1483 1483 1477 1477 1477 1477 1477 1477 1477 1477 1483 1489 1489 1503 1503 1586 1586 1586 1586 1586 1586 1586 1586 1579 1579 1579 1572 1572 1572 1564 1564 1564 1557 1557 1557 1557 1557 1557 1557 1557 1338 1338 1338 1338 1338 1343 1343 1343 1343 1343 1343 1349 1349 1354 1354 1359 1354 1343 1343 1343 1516 1516 1516 1516 1516 1516 1509 1503 1503 1503 1503 1503 1503 1503 1503 1496 1496 1496 1496 1496 1496 1489 1489 1489 1489 1489 1489 1489 1489 1489 1489 1489 1489 1489 1496 1496 1496 1496 1496 1496 1496 1496 1496 1496 1489 1489 1496 1496 1496 1496 1496 1496 1503 1503 1509 1509 1516 1516 1516 1516 1516 1516 1516 1509 1503 1503 1503 1509 1509 1516 1516 1523 1516 1516 1516 1516 1516 1516 1516 1516 1523 1529 1529 1529 1543 1543 1210 1210 1210 1202 1202 1202 1197 1197 1197 1202 1202 1202 1202 1202 1202 1206 1206 1210 1210 1210 1210 1214 1214 1516 1516 1516 1523 1529 1536 1543 1543 1543 1543 1543 1550 1543 1543 1550 1550 1550 1550 1550 1557 1557 1557 1557 1557 1557 1557 1557 1557 1557 1557 1557 1557 1557 1564 1564 1564 1564 1564 1564 1564 1564 1564 1564 1564 1564 1564 1572 1572 1572 1572 1572 1579 1579 1579 1579 1579 1572 1572 1572 1564 1564 1572 1572 1572 1572 1579 1586 1579 1564 1564 1564 1564 1572 1579 1579 1579 1586 1586 1586 1579 1579 1579 1579 1579 1579 1572 1572 1579 1579 1579 1586 1586 1586 1586 1586 1586 1586 1586 1586 1586 1579 1579 1586 1632 1616 1616 1616 1616 1616 1616 1616 1616 1616 1616 1616 1616 1616 1616 1616 1616 1616 1616 1624 1624 1624 1624 1624 1624 1624 1624 1616 1616 1616 1624 1616 1616 1624 1624 1624 1624 1624 1624 1624 1624 1624 1624 1632 1632 1647 1655 0 0 0 0 0 0 0 0 0 0 0 4522 4522 4522 4522 4522 4522 4582 4645 4645 4645 4645 4645 4582 4522 4522 4522 4522 4522 4463 4463 4645 4582 4522 4522 4522 4463 4463 4463 4463 4463 4463 4522 4522 4522 4463 4463 4463 4463 4463 4463 4463 4463 4522 4522 4522 4582 4582 4582 4582 4582 4522 4522 4522 4522 4522 4522 4522 4522 4463 4463 4463 4463 4463 0 0 0 0 0 0 4582 4463 4463 4463 4405 4405 4405 4405 4349 4349 4349 4295 4295 4295 4295 4241 4241 4241 4241 4190 4190 4190 4190 4190 4139 4139 4089 4041 4041 4041 4041 4041 3994 3994 3994 3994 3994 3948 3948 0 0 0 0 0 0 0 0 0 0 0 0
0 0 0 0 0 0 0 0 0 0 0 0 0 0 0 0 0 0 0 0 0 0 0 0 0 0 0 0 0 0 0 0 3468 3468 3468 3468 3468 3468 3468 3468 3468 3468 3503 3503 3503 3503 3503 3539 3539 3539 3539 3539 3539 3503 3503 3468 3468 3468 3503 3503 3503 3503 3539 3539 3576 3576 3576 3539 3539 3539 3539 3539 3576 3576 3576 3576 3614 3614 3614 3614 3576 3576 3433 3433 3468 3503 3503 3539 3576 3614 3614 3614 3614 3614 3576 3576 3576 3576 3576 3539 3468 3468 0 0 0 0 0 0 1594 1594 1594 1594 1594 1594 1594 1594 1594 1594 1594 1601 1609 1609 1616 1616 1632 1655 1688 1696 1705 1705 1705 1705 1696 1696 1696 1696 1696 1696 1696 1696 1696 1696 1688 1688 1688 1688 1688 1688 1696 1536 1536 1529 1523 1523 1523 1529 1529 1529 1529 1516 1516 1516 1516 1509 1509 1509 1509 1509 1509 1509 1509 1509 1509 1509 1509 1509 1509 1509 1509 1509 1503 1503 1503 1503 1503 1496 1496 1496 1496 1489 1489 1483 1477 1477 1477 1477 1477 1477 1477 1477 1483 1489 1489 1503 1503 1594 1586 1586 1586 1586 1586 1586 1586 1579 1579 1579 1579 1579 1579 1572 1572 1564 1564 1564 1564 1557 1557 1557 1557 1557 1338 1338 1338 1338 1343 1343 1343 1343 1343 1343 1343 1349 1349 1354 1354 1359 1354 1349 1349 1516 1516 1516 1516 1516 1516 1509 1509 1503 1503 1503 1503 1503 1503 1503 1503 1496 1496 1496 1496 1496 1489 1489 1489 1489 1489 1483 1483 1483 1489 1483 1483 1483 1489 1489 1489 1489 1489 1489 1489 1489 1483 1483 1483 1483 1483 1483 1483 1489 1489 1489 1489 1489 1489 1496 1496 1496 1503 1503 1509 1509 1509 1509 1503 1496 1496 1496 1496 1496 1496 1496 1503 1503 1509 1509 1509 1509 1509 1503 1503 1509 1509 1509 1509 1529 1529 1489 1210 1210 1210 1202 1202 1202 1202 1202 1206 1206 1202 1202 1202 1202 1206 1206 1210 1210 1210 1214 1214 1214 1509 1509 1509 1509 1516 1523 1523 1529 1536 1536 1536 1536 1536 1536 1543 1543 1543 1543 1543 1543 1543 1543 1543 1550 1550 1550 1550 1550 1550 1550 1550 1550 1550 1550 1550 1557 1557 1557 1557 1557 1557 1557 1557 1557 1557 1557 1564 1564 1564 1564 1564 1564 1564 1564 1564 1564 1572 1572 1564 1564 1557 1557 1564 1564 1564 1564 1564 1564 1564 1564 1564 1564 1564 1564 1564 1564 1564 1572 1579 1579 1572 1572 1572 1572 1572 1572 1572 1572 1572 1572 1572 1572 1579 1579 1579 1579 1579 1579 1579 1579 1572 1572 1572 1586 1632 1616 1616 1616 1616 1616 1609 1609 1609 1609 1609 1609 1609 1609 1609 1609 1609 1616 1616 1616 1616 1616 1616 1616 1616 1616 1616 1609 1609 1609 1616 1616 1609 1609 1616 1616 1616 1616 1616 1609 1609 1609 1616 1616 1632 1647 0 0 0 0 0 0 0 0 0 4708 4522 4522 4522 4463 4463 4463 4463 4522 4522 4522 4522 4582 4582 4522 4463 4405 4405 4463 4349 4349 4405 4405 4463 4463 4463 4463 4522 4522 4522 4522 4463 4463 4463 4522 4522 4522 4463 4463 4463 4463 4463 4463 4463 4463 4522 4522 4522 4522 4582 4522 4522 4522 4522 4522 4522 4522 4582 4522 4522 4522 4405 4405 4463 4405 4405 4405 4522 4522 4522 4522 4582 4522 4463 4463 4405 4405 4405 4405 4405 4349 4349 4349 4349 4295 4295 4295 4241 4241 4241 4241 4241 4190 4190 4190 4190 4139 4139 4139 4089 4041 4041 4041 4041 3994 3994 3994 3994 3994 3948 3948 0 0 0 0 0 0 0 0 0 0 0 0
0 0 0 0 0 0 0 0 0 0 0 0 0 0 0 0 0 0 0 0 0 0 0 0 0 0 0 0 0 0 0 0 3468 3468 3468 3468 3468 3468 3468 3468 3468 3468 3468 3468 3468 3503 3503 3503 3539 3539 3503 3503 3503 3503 3468 3468 3468 3468 3468 3468 3503 3503 3503 3539 3539 3539 3576 3539 3503 3503 3503 3539 3539 3539 3539 3576 3576 3614 3614 3614 3614 0 3468 3468 3468 3468 3468 3468 3539 3576 3576 3576 3576 3576 3576 3576 3576 3576 3576 3539 3539 0 0 0 0 0 0 0 1594 1594 1594 1594 1594 1594 1594 1594 1594 1594 1594 1601 1609 1609 1616 1624 1632 1655 1688 1705 1705 1705 1705 1705 1705 1705 1696 1696 1696 1696 1696 1696 1688 1688 1688 1688 1688 1688 1688 1688 1688 1688 1688 1529 1523 1523 1523 1529 1529 1680 1671 1671 1671 1516 1516 1503 1503 1503 1503 1503 1503 1503 1509 1509 1509 1509 1516 1516 1509 1509 1509 1509 1503 1503 1503 1503 1503 1503 1496 1496 1496 1496 1489 1483 1477 1477 1477 1477 1477 1477 1477 1483 1483 1489 1489 1503 1503 1601 1594 1594 1594 1586 1586 1586 1586 1586 1586 1586 1586 1579 1579 1579 1579 1572 1564 1564 1564 1564 1564 1564 1564 1564 1338 1338 1338 1343 1343 1343 1343 1343 1343 1343 1349 1354 1354 1354 1354 1359 1354 1349 1349 1354 1516 1516 1516 1516 1516 1509 1509 1503 1503 1503 1503 1503 1503 1503 1503 1496 1496 1496 1496 1496 1489 1489 1489 1483 1483 1483 1483 1483 1483 1483 1483 1483 1483 1483 1483 1483 1483 1483 1483 1483 1483 1477 1477 1477 1477 1477 1477 1477 1483 1483 1483 1483 1483 1489 1489 1489 1496 1496 1496 1489 1489 1489 1496 1496 1496 1496 1489 1489 1489 1496 1496 1496 1503 1503 1503 1503 1503 1496 1496 1503 1496 1496 1496 1489 1489 1489 1206 1206 1206 1206 1206 1206 1210 1206 1206 1206 1206 1206 1206 1206 1206 1206 1210 1210 1214 1214 1214 1219 1509 1509 1509 1509 1516 1516 1523 1523 1529 1529 1529 1536 1536 1536 1536 1536 1536 1536 1529 1529 1523 1523 1536 1543 1543 1543 1543 1536 1536 1536 1536 1536 1543 1543 1543 1550 1550 1543 1543 1543 1543 1543 1543 1543 1543 1550 1557 1557 1557 1550 1550 1550 1550 1550 1550 1550 1550 1557 1557 1557 1550 1550 1550 1557 1557 1557 1536 1536 1536 1536 1557 1557 1550 1550 1557 1557 1557 1564 1564 1564 1564 1564 1564 1564 1564 1564 1564 1564 1564 1564 1564 1564 1564 1572 1572 1572 1572 1572 1564 1564 1564 1557 1557 1557 0 0 1616 1616 1616 1616 1609 1609 1609 1609 1609 1609 1609 1594 1594 1594 1594 1601 1609 1609 1609 1616 1616 1609 1609 1609 1609 1601 1601 1601 1609 1601 1601 1609 1601 1601 1601 1601 1609 1601 1601 1601 1601 1609 0 0 0 0 0 0 0 0 0 0 0 4645 4463 4463 4463 4405 4405 4463 4463 4463 4522 4522 4522 4522 4522 4463 4405 4349 4349 4405 4349 4349 4405 4405 4463 4463 4463 4463 4463 4463 4463 4463 4463 4463 4463 4522 4522 4463 4463 4463 4463 4463 4405 4405 4463 4463 4522 4522 4522 4522 4522 4522 4463 4463 4463 4463 4522 4522 4582 4522 4522 4582 4405 4405 4463 4405 4405 4463 4463 4463 4463 4463 4463 4463 4463 4463 4405 4405 4405 4405 4405 4349 4349 4349 4349 4349 4349 4295 4241 4241 4241 4241 4241 4241 4190 4190 4190 4139 4139 4139 4089 4041 4041 4041 4041 3994 3994 3994 3994 3994 3948 3948 0 0 0 0 0 0 0 0 0 0 0 0
0 0 0 0 0 0 0 0 0 0 0 0 0 0 0 0 0 0 0 0 0 0 0 0 0 0 0 0 0 0 0 0 3468 3468 3468 3468 3468 3468 3468 3468 3468 3468 3468 3468 3468 3468 3468 3503 3503 3503 3503 3468 3468 3468 3468 3468 3468 3468 3468 3468 3503 3503 3503 3539 3539 3539 3539 3503 3503 3468 3468 3503 3503 3539 3539 3539 3576 3614 3614 3614 3614 0 3614 3468 3468 3468 3468 3468 3503 3539 3539 3576 3576 3576 3576 3576 3576 3576 3576 3576 3576 0 0 0 0 0 0 0 0 1601 1594 1594 1594 1594 1601 1601 1594 1594 1601 1609 1609 1609 1616 1624 1632 1655 1688 1705 1713 1713 1713 1705 1705 1705 1696 1696 1696 1696 1696 1688 1688 1688 1688 1688 1688 1688 1688 1688 1688 1688 1680 1680 1680 1671 1671 1671 1671 1680 1671 1671 1671 1671 1671 1503 1503 1503 1503 1503 1503 1503 1503 1509 1516 1516 1516 1516 1509 1509 1509 1509 1503 1503 1503 1503 1503 1503 1496 1496 1496 1496 1489 1489 1483 1483 1477 1477 1477 1477 1477 1483 1483 1489 1496 1503 1503 1594 1594 1594 1594 1594 1586 1586 1586 1586 1586 1586 1586 1579 1579 1579 1579 1579 1572 1564 1564 1564 1564 1564 1564 1564 1354 1349 1343 1343 1349 1349 1349 1343 1343 1349 1349 1354 1354 1354 1354 1359 1354 1354 1354 1354 1516 1516 1516 1516 1516 1509 1509 1503 1503 1503 1503 1503 1503 1503 1503 1496 1496 1496 1496 1496 1489 1489 1489 1483 1483 1483 1483 1483 1483 1483 1477 1477 1483 1477 1477 1477 1477 1483 1483 1477 1477 1477 1470 1470 1470 1470 1470 1477 1477 1477 1483 1477 1477 1483 1483 1483 1483 1477 1477 1477 1477 1477 1477 1477 1477 1489 1489 1483 1483 1489 1489 1489 1489 1496 1496 1496 1496 1496 1496 1496 1496 1489 1489 1489 1489 1489 1206 1206 1206 1206 1206 1206 1210 1210 1210 1210 1206 1206 1206 1206 1206 1210 1210 1210 1214 1214 1214 1219 1219 1509 1509 1509 1509 1509 1516 1516 1516 1516 1523 1523 1529 1529 1529 1523 1523 1523 1516 1516 1516 1516 1516 1529 1529 1536 1536 1529 1529 1523 1523 1523 1523 1523 1523 1523 1536 1536 1536 1529 1529 1529 1529 1536 1536 1543 1550 1550 1550 1550 1550 1550 1550 1550 1550 1550 1543 1543 1543 1543 1543 1543 1543 1543 1550 1550 1536 1529 1529 1536 1550 1550 1543 1543 1543 1550 1550 1550 1550 1550 1550 1550 1550 1557 1557 1557 1557 1557 1557 1557 1557 1564 1564 1564 1564 1564 1572 1564 1557 1557 1557 1550 1536 1536 0 0 0 0 0 0 0 0 0 0 0 0 0 1594 1586 1586 1594 1601 1594 1594 1601 1601 1601 1594 1594 1594 1594 1594 1594 1594 1594 1594 1594 1594 1594 1594 1594 1594 1601 1594 1594 1594 1594 1594 0 0 0 0 0 0 0 0 0 0 4645 4582 4463 4463 4463 4405 4405 4463 4463 4463 4463 4463 4463 4463 4463 4405 4405 4349 4349 4405 4349 4349 4349 4405 4405 4405 4405 4405 4405 4463 4463 4463 4463 4463 4463 4463 4463 4463 4405 4405 4405 4405 4405 4405 4463 4522 4522 4522 4522 4522 4522 4463 4463 4463 4463 4463 4522 4522 4522 4522 4522 4582 4463 4463 4463 4405 4405 4463 4405 4405 4405 4405 4405 4463 4405 4405 4405 4405 4405 4405 4405 4349 4349 4349 4349 4349 4349 4295 4241 4241 4241 4241 4241 4241 4241 4241 4190 4190 4139 4139 4089 4089 4089 4041 4041 4041 4041 4041 3994 3994 3994 3994 0 0 0 0 0 0 0 0 0 0 0 0
0 0 0 0 0 0 0 0 0 0 0 0 0 0 0 0 0 0 0 0 0 0 0 0 0 0 0 0 0 0 0 0 3468 3468 3468 3468 3468 3433 3433 3433 3433 3433 3433 3433 3433 3468 3468 3468 3468 3468 3468 3468 3433 3433 3433 3433 3468 3468 3468 3468 3468 3468 3503 3503 3503 3503 3503 3503 3468 3468 3468 3468 3468 3503 3503 3503 3576 3576 3614 3614 3614 0 0 0 3433 0 3433 3433 3468 3503 3539 3539 3539 3576 3576 3576 3576 3576 3576 3576 3576 0 0 0 0 0 0 0 0 1601 1601 1601 1609 1601 1601 1601 1601 1609 1609 1609 1616 1616 1624 1624 1632 1655 1671 1705 1713 1713 1713 1713 1713 1713 1696 1696 1696 1696 1696 1688 1688 1688 1688 1688 1688 1688 1688 1688 1680 1680 1680 1671 1671 1671 1671 1671 1671 1671 1671 1671 1671 1671 1671 1671 1655 1655 1655 1503 1503 1503 1503 1516 1516 1516 1516 1516 1509 1509 1509 1509 1503 1503 1503 1503 1503 1503 1503 1496 1496 1496 1489 1489 1483 1483 1483 1483 1477 1477 1483 1483 1489 1496 1496 1503 1503 1594 1594 1594 1594 1594 1594 1586 1586 1586 1586 1586 1586 1586 1586 1586 1579 1579 1572 1572 1572 1564 1564 1564 1564 1359 1354 1354 1349 1349 1349 1349 1349 1349 1349 1349 1349 1349 1354 1354 1354 1354 1354 1354 1349 1349 1349 1523 1516 1516 1516 1509 1509 1509 1503 1503 1503 1503 1503 1503 1503 1503 1503 1496 1496 1496 1496 1496 1496 1489 1483 1483 1483 1483 1483 1483 1477 1477 1477 1477 1477 1477 1477 1477 1477 1477 1477 1470 1470 1470 1470 1470 1470 1470 1470 1470 1477 1470 1470 1477 1477 1477 1470 1470 1470 1470 1470 1470 1470 1470 1470 1470 1470 1477 1477 1483 1483 1483 1489 1489 1489 1489 1489 1489 1489 1489 1489 1483 1483 1477 1477 1477 1210 1210 1210 1210 1210 1210 1210 1210 1210 1210 1210 1206 1206 1206 1206 1210 1210 1210 1214 1214 1214 1219 1219 1503 1503 1503 1503 1503 1509 1509 1509 1509 1509 1516 1516 1516 1516 1516 1516 1509 1509 1509 1509 1509 1509 1516 1523 1523 1523 1523 1523 1516 1516 1516 1516 1516 1516 1516 1523 1523 1523 1523 1523 1523 1523 1529 1536 1536 1543 1543 1543 1543 1543 1543 1543 1543 1543 1543 1536 1536 1529 1529 1536 1529 1529 1536 1536 1536 1536 1529 1529 1536 1543 1543 1543 1543 1543 1543 1543 1543 1543 1543 1543 1543 1543 1550 1543 1543 1550 1550 1550 1550 1550 1550 1550 1557 1557 1557 1564 1557 1550 1550 1550 1550 1536 1536 0 0 0 0 0 0 0 0 0 0 0 0 0 0 1586 1586 1586 1586 1586 1586 1572 1572 1579 1579 1579 1579 1579 1579 1586 1586 1586 1586 1586 1586 1586 1586 1586 1586 1594 1586 1586 1586 1586 1586 1586 0 0 0 0 0 0 0 0 0 4645 4582 4463 4463 4463 4405 4405 4463 4463 4463 4463 4463 4463 4463 4405 4405 4349 4349 4349 4295 4295 4295 4349 4349 4405 4405 4405 4405 4405 4405 4405 4463 4463 4463 4463 4463 4463 4405 4405 4405 4405 4405 4405 4405 4405 4463 4463 4522 4522 4522 4522 4463 4463 4463 4463 4463 4522 4522 4522 4522 4522 4522 4463 4463 4405 4405 4405 4405 4405 4405 4349 4349 4405 4405 4405 4405 4405 4405 4405 4405 4349 4349 4349 4349 4349 4349 4349 4295 4295 4295 4241 4241 4241 4241 4241 4241 4190 4190 4190 4139 4089 4089 4089 4041 4041 4041 4041 4041 3994 3994 3994 3994 0 0 0 0 0 0 0 0 0 0 0 0
0 0 0 0 0 0 0 0 0 0 0 0 0 0 0 0 0 0 0 0 0 0 0 0 0 0 0 0 0 0 0 0 3433 3433 3433 3468 3433 3433 3433 3433 3433 3433 3433 3399 3399 3433 3433 3468 3468 3468 3468 3433 3433 3433 3433 3433 3468 3433 3433 3468 3468 3468 3468 3468 3468 3468 3468 3503 3468 3433 3433 3433 3433 3468 3468 3468 3468 3468 3503 3576 3576 3576 0 0 0 3433 3433 3433 3468 3503 3539 3539 3539 3539 3576 3576 3576 3576 3539 3539 3539 0 0 0 0 0 0 0 0 1601 1601 1601 1609 1601 1601 1601 1609 1609 1609 1616 1616 1616 1624 1624 1632 1655 1671 1705 1713 1713 1713 1722 1722 1722 1722 1713 1713 1705 1696 1696 1696 1688 1688 1688 1688 1688 1688 1688 1680 1680 1680 1671 1671 1671 1671 1671 1671 1671 1663 1663 1663 1663 1663 1663 1655 1655 1655 1655 1655 1503 1503 1516 1516 1516 1516 1516 1509 1509 1509 1503 1503 1503 1509 1509 1509 1503 1503 1496 1496 1496 1496 1489 1489 1489 1483 1483 1483 1483 1483 1483 1489 1496 1496 1503 1509 1594 1594 1586 1586 1594 1586 1586 1586 1586 1586 1586 1586 1586 1586 1586 1586 1579 1572 1572 1572 1564 1564 1564 1564 1354 1354 1354 1354 1349 1349 1349 1349 1349 1349 1349 1349 1349 1354 1354 1354 1354 1354 1354 1349 1349 1349 1349 1523 1516 1516 1516 1509 1503 1503 1503 1503 1503 1509 1509 1509 1503 1503 1503 1496 1496 1496 1496 1496 1489 1489 1483 1483 1483 1483 1483 1477 1477 1477 1477 1477 1477 1477 1470 1470 1470 1470 1470 1470 1470 1464 1464 1464 1470 1470 1470 1470 1470 1470 1470 1470 1470 1464 1464 1464 1464 1464 1464 1464 1464 1464 1470 1470 1470 1470 1470 1470 1477 1477 1483 1483 1483 1483 1483 1483 1483 1483 1470 1470 1464 1464 1464 1210 1210 1210 1210 1210 1210 1210 1210 1210 1210 1210 1210 1210 1210 1210 1210 1210 1214 1214 1214 1214 1219 1219 1496 1496 1496 1496 1496 1503 1503 1503 1503 1503 1509 1503 1496 1496 1496 1496 1496 1496 1496 1496 1503 1509 1509 1509 1509 1509 1509 1509 1509 1503 1503 1509 1509 1509 1509 1516 1516 1516 1516 1516 1516 1523 1523 1529 1529 1516 1516 1536 1536 1529 1529 1529 1529 1529 1529 1523 1523 1516 1516 1523 1523 1523 1523 1529 1529 1529 1529 1529 1536 1536 1536 1536 1536 1536 1536 1536 1536 1536 1536 1536 1536 1536 1536 1536 1536 1536 1543 1543 1543 1543 1543 1543 1550 1550 1550 1550 1543 1536 1529 1529 1550 1536 1536 0 0 0 0 0 0 0 0 0 0 0 0 0 0 0 0 0 0 1586 1586 1550 1550 1550 1557 1564 1564 1564 1572 1579 1579 1572 1572 1579 1579 1579 1579 1579 1579 1586 1579 1579 1579 1579 1586 1586 0 0 0 0 0 0 0 0 0 0 4349 4349 4405 4463 4405 4405 4405 4405 4463 4463 4405 4405 4463 4405 4349 4295 4295 4295 4295 4295 4295 4295 4349 4349 4405 4405 4405 4405 4405 4405 4463 4463 4463 4463 4463 4463 4405 4349 4349 4349 4349 4349 4349 4405 4405 4405 4405 4405 4405 4463 4463 4405 4405 4463 4463 4463 4522 4522 4522 4349 4349 4349 4349 4349 4349 4349 4349 4349 4349 4349 4349 4405 4405 4405 4405 4405 4405 4405 4405 4349 4349 4349 4349 4349 4349 4349 4295 4295 4241 4241 4241 4241 4241 4241 4241 4190 4190 4190 4190 4139 4089 4089 4041 4041 4041 4041 4041 3994 3994 3994 3994 0 0 0 0 0 0 0 0 0 0 0 0
0 0 0 0 0 0 0 0 0 0 0 0 0 0 0 0 0 0 0 0 0 0 0 0 0 0 0 0 0 0 0 0 3433 3433 3433 3433 3433 3433 3433 3433 3433 3399 3399 3399 3399 3433 3433 3433 3399 3399 3433 3399 3399 3399 3399 3433 3433 3433 3433 3433 3433 3433 3468 3468 3468 3468 3468 3468 3433 3399 3399 3399 3399 3433 3433 3433 3468 3468 3503 3503 3576 3576 0 0 0 0 3433 3433 3468 3468 3503 3503 3503 3539 3539 3539 3539 3539 3539 3503 3503 0 0 0 0 0 0 0 0 1601 1601 1601 1609 1601 1601 1601 1609 1609 1609 1616 1616 1616 1624 1624 1632 1655 1680 1705 1713 1713 1722 1722 1731 1731 1722 1722 1722 1713 1705 1705 1696 1696 1696 1688 1688 1688 1688 1688 1688 1688 1688 1680 1680 1680 1671 1671 1671 1671 1663 1663 1663 1663 1663 1663 1655 1655 1655 1655 1655 1655 1647 1647 1647 1647 1647 1647 1647 1647 1509 1503 1503 1509 1509 1509 1509 1503 1496 1496 1496 1496 1489 1489 1489 1489 1489 1489 1489 1483 1483 1489 1496 1496 1496 1503 1509 1523 1594 1586 1586 1594 1586 1586 1586 1586 1586 1586 1586 1586 1586 1586 1586 1586 1572 1572 1572 1564 1564 1564 1564 1354 1354 1354 1354 1354 1354 1349 1349 1349 1349 1349 1349 1354 1354 1354 1354 1359 1354 1354 1354 1349 1349 1349 1349 1349 1516 1349 1349 1349 1503 1503 1503 1503 1509 1509 1509 1503 1503 1503 1496 1496 1496 1496 1496 1496 1489 1489 1483 1483 1483 1483 1477 1477 1477 1477 1477 1477 1477 1470 1470 1470 1470 1470 1464 1464 1464 1464 1464 1464 1464 1464 1464 1464 1464 1464 1464 1464 1464 1464 1464 1464 1464 1464 1464 1464 1464 1464 1464 1464 1464 1464 1464 1464 1464 1464 1470 1470 1470 1470 1470 1470 1470 1458 1458 1458 1458 1458 1210 1210 1210 1210 1210 1210 1210 1210 1210 1210 1210 1210 1210 1210 1210 1210 1210 1214 1214 1214 1214 1223 1223 1489 1489 1489 1489 1489 1489 1489 1489 1489 1496 1496 1496 1489 1489 1489 1489 1489 1489 1489 1489 1489 1496 1496 1503 1503 1496 1496 1496 1496 1496 1489 1489 1489 1489 1503 1503 1509 1509 1509 1509 1516 1516 1516 1516 1516 1516 1516 1516 1523 1523 1523 1523 1523 1523 1523 1516 1516 1509 1509 1516 1516 1516 1516 1516 1523 1523 1523 1523 1523 1529 1529 1529 1529 1529 1529 1529 1529 1529 1529 1529 1529 1529 1529 1529 1529 1529 1536 1536 1536 1543 1543 1543 1543 1543 1543 1543 1529 1523 1516 1516 0 0 0 0 0 0 0 0 0 0 0 0 0 0 0 0 0 0 0 0 0 1503 1529 1529 1529 1536 1536 1557 1557 1564 1572 1579 1572 1572 1572 1572 1572 1572 1572 1572 1572 1579 1579 1579 1579 1579 1579 1579 0 0 0 0 0 0 0 0 0 4295 4295 4349 4349 4405 4349 4349 4349 4405 4463 4405 4405 4405 4405 4349 4349 4295 4295 4241 4241 4295 4295 4295 4349 4349 4349 4349 4349 4349 4349 4405 4405 4405 4405 4463 4463 4405 4349 4349 4349 4295 4295 4295 4349 4349 4405 4405 4463 4349 4349 4463 4405 4405 4405 4405 4405 4463 4463 4463 4463 4349 4349 4349 4349 4295 4295 4295 4295 4295 4349 4349 4349 4349 4405 4405 4405 4405 4349 4349 4349 4349 4349 4349 4349 4349 4349 4349 4295 4241 4241 4241 4241 4241 4241 4190 4190 4190 4190 4190 4139 4139 4089 4089 4089 4041 4041 4041 4041 3994 3994 3994 3994 0 0 0 0 0 0 0 0 0 0 0 0
0 0 0 0 0 0 0 0 0 0 0 0 0 0 0 0 0 0 0 0 0 0 0 0 0 0 0 0 0 0 0 0 3433 3433 3433 3433 3433 3433 3433 3399 3399 3399 3399 3399 3399 3399 3433 3399 3399 3399 3399 3399 3399 3399 3399 3399 3433 3433 3399 3399 3433 3433 3433 3433 3433 3433 3433 3433 3399 3399 3399 3365 3365 3399 3399 3399 3433 3468 3468 3503 3503 0 0 0 3433 0 3433 3433 3468 3468 3468 3468 3503 3539 3539 3539 3539 3539 3539 3503 3468 3433 3433 0 0 0 0 0 0 1601 1601 1609 1609 1609 1609 1609 1609 1616 1616 1616 1616 1616 1624 1624 1632 1647 1671 1713 1713 1722 1722 1731 1739 1739 1739 1739 1739 1722 1713 1713 1705 1696 1696 1696 1696 1696 1688 1688 1696 1696 1696 1688 1688 1688 1680 1680 1671 1671 1663 1663 1663 1663 1663 1663 1655 1655 1655 1655 1655 1655 1655 1655 1647 1647 1647 1647 1647 1647 1647 1647 1647 1647 1509 1509 1509 1503 1496 1496 1496 1496 1489 1489 1489 1489 1489 1489 1489 1489 1489 1496 1496 1496 1496 1503 1509 1509 1536 1586 1586 1594 1594 1594 1586 1586 1586 1586 1586 1586 1586 1586 1586 1586 1572 1572 1572 1572 1564 1564 1564 1564 1354 1354 1354 1354 1354 1349 1349 1349 1349 1349 1349 1354 1354 1354 1354 1359 1354 1349 1349 1349 1349 1349 1349 1349 1349 1349 1349 1343 1343 1343 1343 1343 1509 1509 1509 1509 1509 1503 1503 1496 1496 1496 1496 1496 1489 1489 1489 1489 1483 1483 1477 1477 1477 1477 1477 1477 1477 1470 1470 1470 1470 1470 1464 1464 1464 1464 1464 1464 1464 1464 1464 1464 1464 1464 1464 1464 1464 1464 1458 1458 1458 1458 1458 1458 1458 1458 1458 1458 1458 1458 1452 1452 1458 1458 1464 1464 1458 1458 1458 1458 1464 1458 1452 1452 1452 1452 1452 1210 1210 1210 1210 1210 1214 1210 1210 1210 1210 1210 1210 1210 1210 1210 1210 1214 1214 1214 1214 1223 1223 1489 1483 1483 1483 1483 1483 1477 1477 1477 1477 1477 1483 1483 1477 1477 1483 1483 1483 1483 1483 1483 1489 1489 1489 1489 1489 1489 1489 1496 1489 1483 1483 1483 1489 1489 1489 1503 1503 1503 1503 1509 1509 1503 1503 1503 1503 1503 1503 1503 1509 1509 1509 1509 1516 1516 1516 1516 1509 1509 1509 1509 1509 1509 1516 1516 1516 1509 1509 1516 1523 1523 1523 1523 1523 1523 1523 1523 1523 1523 1523 1516 1516 1523 1523 1523 1529 1529 1529 1536 1536 1536 1536 1536 1536 1529 1529 1529 1509 1509 1516 0 0 0 0 0 0 0 0 0 0 0 0 0 0 0 0 0 0 0 0 1503 1503 1503 1503 1509 1509 1509 1509 1523 1550 1557 1564 1564 1564 1564 1564 1564 1564 1564 1557 1557 1557 1572 1572 1579 1579 1579 1579 0 0 0 0 0 0 0 0 4295 4295 4295 4295 4295 4349 4349 4349 4349 4349 4405 4405 4405 4405 4405 4349 4295 4295 4295 4241 4241 4295 4295 4295 4349 4295 4295 4295 4295 4295 4349 4349 4405 4405 4405 4405 4405 4405 4349 4349 4349 4295 4295 4295 4349 4349 4349 4349 4349 4295 4295 4349 4405 4349 4349 4405 4405 4405 4405 4349 4349 4295 4295 4295 4295 4295 4295 4295 4295 4295 4349 4349 4349 4349 4405 4405 4405 4405 4241 4241 4241 4295 4295 4295 4349 4349 4349 4349 4295 4241 4241 4241 4241 4190 4190 4190 4190 4190 4190 4190 4139 4089 4089 4089 4089 4041 4041 4041 4041 3994 3994 3994 3994 0 0 0 0 0 0 0 0 0 0 0 0
0 0 0 0 0 0 0 0 0 0 0 0 0 0 0 0 0 0 0 0 0 0 0 0 0 0 0 0 0 0 0 0 3399 3399 3399 3399 3399 3399 3399 3399 3399 3399 3365 3365 3365 3399 3399 3399 3365 3365 3365 3365 3365 3365 3365 3399 3399 3399 3399 3399 3399 3433 3433 3433 3433 3399 3399 3433 3365 3365 3399 3365 3365 3399 3399 3399 3433 3433 3468 3503 3539 0 3468 3468 3433 3433 3433 3433 3433 3468 3468 3468 3468 3468 3503 3503 3503 3503 3503 3468 3468 3433 3433 0 0 0 0 0 0 1609 1609 1609 1609 1609 1609 1609 1609 1616 1616 1616 1616 1616 1624 1624 1632 1647 1663 1705 1713 1722 1731 1739 1739 1748 1748 1748 1757 1748 1748 1722 1713 1705 1705 1713 3576 3576 3576 3576 3576 3576 3576 3614 3614 3614 1671 1671 1671 1671 1663 1663 1663 1663 1663 1663 1663 1663 1663 1655 1655 1655 1655 1655 1647 1647 1647 1647 1647 1647 1647 1647 1647 1639 1639 1639 1632 1632 1624 1624 1496 1496 1496 1496 1496 1496 1496 1489 1489 1496 1496 1496 1496 1496 1503 1503 1509 1509 1536 1594 1594 1594 1594 1594 1594 1586 1586 1586 1586 1586 1586 1586 1586 1586 1579 1579 1579 1572 1564 1564 1572 1572 1359 1359 1359 1354 1354 1349 1349 1354 1354 1354 1354 1354 1354 1354 1354 1354 1349 1349 1349 1349 1349 1349 1349 1349 1349 1349 1343 1338 1338 1338 1338 1333 1333 1509 1509 1509 1509 1503 1496 1496 1489 1489 1496 1489 1489 1489 1489 1483 1483 1483 1477 1477 1477 1477 1477 1477 1470 1470 1470 1470 1470 1470 1464 1464 1464 1464 1464 1464 1464 1464 1464 1464 1464 1464 1464 1458 1458 1458 1458 1458 1452 1452 1452 1452 1452 1452 1452 1452 1452 1452 1452 1445 1445 1445 1452 1452 1445 1445 1452 1452 1452 1445 1445 1445 1445 1439 1439 1210 1210 1210 1214 1214 1214 1214 1214 1214 1210 1210 1210 1210 1210 1210 1214 1214 1214 1214 1223 1223 1227 1445 1452 1458 1464 1464 1464 1464 1464 1470 1477 1470 1470 1470 1470 1477 1477 1477 1477 1477 1477 1477 1483 1483 1483 1483 1483 1483 1483 1483 1477 1470 1470 1477 1483 1483 1483 1489 1496 1496 1496 1503 1503 1496 1496 1489 1489 1496 1483 1483 1483 1483 1483 1496 1503 1509 1509 1509 1503 1503 1509 1509 1503 1503 1509 1509 1509 1503 1503 1503 1509 1509 1509 1509 1509 1509 1509 1509 1509 1509 1509 1509 1509 1516 1516 1516 1523 1523 1523 1529 1529 1529 1529 1529 1529 1523 1523 1516 1509 1509 0 0 0 0 0 0 0 0 0 0 0 0 0 0 0 0 0 0 0 0 0 1489 1489 1496 1496 1496 1496 1503 1503 1516 1536 1550 1557 1557 1557 1557 1557 1557 1550 1550 1550 1550 1550 1557 1557 1572 1579 1579 1586 0 0 0 0 0 4241 4241 4241 4241 4241 4295 4295 4295 4295 4349 4349 4349 4349 4349 4349 4295 4295 4295 4241 4241 4190 4190 4241 4241 4295 4295 4295 4295 4295 4295 4295 4295 4295 4295 4349 4349 4349 4405 4405 4405 4349 4349 4349 4349 4295 4295 4295 4295 4295 4295 4295 4295 4241 4241 4295 4295 4295 4295 4295 4295 4349 4349 4295 4295 4295 4295 4295 4295 4295 4295 4295 4295 4349 4190 4190 4241 4405 4089 4089 4089 4089 4241 4190 4190 4190 4241 4295 4295 4349 4405 4349 4241 4241 4241 4190 4190 4190 4190 4190 4190 4190 4190 4190 4139 4089 4089 4089 4089 4041 4041 4041 4041 3994 3994 3994 3994 0 0 0 0 0 0 0 0 0 0 0 0
0 0 0 0 0 0 0 0 0 0 0 0 0 0 0 0 0 0 0 0 0 0 0 0 0 0 0 0 0 0 0 0 3365 3365 3365 3365 3365 3365 3365 3365 3365 3365 3365 3365 3365 3365 3365 3365 3365 3365 3365 3333 3333 3333 3365 3365 3365 3399 3399 3399 3399 3399 3399 3399 3399 3365 3365 3399 3365 3365 3365 3365 3365 3365 3365 3365 3365 3365 3468 3468 3539 3468 3468 3468 3468 3433 3433 3433 3433 3433 3433 3433 3433 3433 3468 3468 3468 3468 3468 3468 3468 3433 3433 3468 0 0 0 0 0 1609 1609 1609 1609 1609 1609 1609 1609 1616 1616 1616 1616 1616 1624 1632 1632 1647 1663 1705 1713 1722 1731 1739 1739 1748 1748 1757 1757 1748 1748 1748 1748 3503 3539 3539 3503 3503 3539 3539 3576 3576 3576 3576 3614 3614 1671 1671 1671 1671 1663 1663 1663 1663 1663 1663 1663 1663 1663 1655 1655 1655 1655 1647 1647 1647 1647 1647 1647 1647 1647 1647 1647 1639 1639 1639 1639 1639 1632 1632 1496 1496 1496 1496 1496 1496 1496 1496 1496 1496 1496 1496 1496 1496 1503 1509 1509 1516 1529 1601 1601 1601 1601 1601 1594 1594 1586 1586 1586 1586 1586 1586 1586 1586 1579 1579 1579 1572 1572 1572 1572 1572 1572 1359 1359 1359 1354 1349 1349 1354 1354 1354 1354 1354 1354 1354 1354 1354 1349 1349 1349 1349 1349 1349 1349 1343 1343 1338 1338 1338 1333 1333 1333 1328 1328 1328 1328 1328 1322 1322 1317 1317 1489 1489 1496 1489 1489 1489 1489 1483 1483 1477 1477 1477 1483 1477 1477 1477 1470 1470 1470 1470 1470 1470 1470 1464 1464 1464 1464 1464 1464 1464 1464 1464 1464 1464 1464 1458 1458 1458 1458 1452 1452 1452 1452 1452 1445 1445 1445 1445 1445 1445 1445 1445 1445 1445 1445 1445 1445 1445 1445 1445 1445 1439 1439 1439 1439 1439 1439 1439 1210 1210 1214 1214 1214 1214 1214 1214 1214 1210 1210 1210 1210 1210 1214 1214 1214 1214 1223 1223 1227 1439 1445 1445 1452 1458 1464 1464 1464 1464 1464 1464 1464 1464 1464 1470 1470 1477 1477 1477 1470 1470 1477 1477 1477 1470 1470 1477 1477 1470 1464 1464 1470 1470 1470 1470 1477 1477 1489 1483 1483 1483 1483 1483 1483 1483 1483 1483 1483 1483 1483 1483 1483 1489 1489 1496 1503 1503 1503 1503 1503 1503 1503 1503 1496 1496 1496 1496 1496 1489 1489 1489 1489 1489 1489 1489 1489 1496 1496 1496 1503 1503 1503 1503 1509 1509 1509 1509 1509 1509 1523 1523 1529 1523 1523 1523 1523 1516 1509 1509 0 0 0 0 0 0 0 0 0 0 0 0 0 0 0 0 0 0 0 0 1489 1483 1483 1489 1489 1489 1489 1496 1496 1509 1516 1523 1523 1543 1543 1543 1543 1543 1543 1543 1543 1543 1543 1543 1557 1572 0 0 0 0 0 0 0 0 4190 4190 4190 4190 4241 4241 4241 4295 4295 4295 4295 4295 4295 4295 4295 4241 4241 4241 4190 4190 4190 4190 4241 4241 4241 4295 4295 4295 4295 4241 4241 4241 4241 4295 4295 4295 4295 4295 4349 4349 4295 4295 4295 4295 4295 4295 4295 4295 4295 4295 4295 4295 4241 4241 4241 4241 4295 4295 4295 4295 4295 4295 4295 4295 4295 4295 4295 4295 4295 4295 4295 4295 4295 4190 4190 4089 4089 4089 4089 4089 4089 4089 4139 4190 4190 4241 4241 4295 4295 4349 4241 4241 4190 4190 4190 4190 4190 4190 4190 4190 4190 4139 4139 4089 4089 4089 4089 4041 4041 4041 4041 4041 4041 3994 3994 3994 0 0 0 0 0 0 0 0 0 0 0 0
0 0 0 0 0 0 0 0 0 0 0 0 0 0 0 0 0 0 0 0 0 0 0 0 0 0 0 0 0 0 0 0 3365 3365 3365 3365 3365 3365 3365 3365 3365 3365 3365 3365 3365 3365 3365 3365 3333 3333 3333 3333 3333 3333 3333 3365 3365 3365 3365 3399 3365 3365 3365 3365 3365 3365 3365 3365 3333 3333 3365 3365 3365 3365 3365 3365 3365 3365 3399 3433 3433 3433 3433 3468 3468 3433 3433 3433 3433 3433 3399 3399 3399 3399 3433 3433 3433 3433 3468 3468 3468 3433 3433 3433 3433 0 0 0 0 1609 1609 1609 1609 1609 1609 1609 1609 1616 1616 1616 1616 1616 1624 1632 1632 1639 1663 1705 1713 1722 1731 1739 1748 1748 1748 1757 1757 1757 1757 1757 0 0 3503 3503 3503 3503 3539 3539 3539 3576 3576 3576 3576 3539 3539 3539 1680 1680 1663 1663 1663 1663 1663 1663 1663 1663 1663 1655 1655 1655 1647 1647 1647 1647 1647 1647 1647 1647 1639 1639 1639 1639 1639 1639 1639 1639 1639 1639 1639 1496 1496 1496 1496 1496 1496 1496 1496 1496 1496 1496 1496 1496 1503 1509 1509 1523 1529 1601 1601 1601 1601 1601 1594 1594 1594 1594 1594 1594 1586 1586 1586 1586 1579 1579 1579 1572 1572 1572 1572 1572 1572 1359 1359 1359 1359 1354 1354 1354 1354 1354 1354 1359 1359 1359 1354 1354 1349 1349 1349 1349 1349 1343 1343 1343 1343 1338 1333 1333 1333 1333 1328 1328 1328 1328 1322 1322 1312 1312 1312 1312 1312 1312 1312 1312 1312 1312 1307 1307 1307 1307 1307 1307 1302 1297 1297 1302 1470 1470 1470 1464 1464 1464 1464 1470 1464 1464 1464 1464 1464 1464 1464 1464 1458 1458 1458 1458 1458 1458 1452 1452 1452 1445 1445 1445 1445 1445 1445 1445 1445 1445 1445 1445 1439 1439 1439 1439 1439 1439 1439 1445 1445 1439 1439 1439 1439 1433 1433 1433 1210 1210 1214 1214 1214 1214 1214 1214 1214 1210 1210 1210 1210 1210 1214 1223 1214 1214 1223 1223 1433 1433 1439 1439 1445 1445 1452 1452 1458 1458 1452 1452 1452 1452 1452 1464 1464 1464 1464 1464 1458 1458 1464 1464 1464 1464 1464 1464 1464 1464 1464 1464 1464 1464 1470 1470 1470 1470 1477 1477 1470 1470 1470 1470 1470 1470 1470 1477 1477 1483 1483 1483 1483 1483 1483 1483 1496 1496 1496 1496 1496 1496 1489 1489 1489 1489 1489 1489 1489 1483 1483 1483 1483 1483 1483 1483 1483 1483 1483 1489 1489 1489 1496 1496 1496 1496 1489 1489 1489 1496 1503 1516 1523 1523 1523 1523 1433 1433 1439 0 0 0 0 0 0 0 0 0 0 0 0 0 0 0 0 0 0 0 0 0 1483 1483 1483 1483 1483 1483 1483 1489 1489 1496 1503 1503 1503 1543 1516 1516 1529 1529 1529 1529 1529 1536 1529 1529 1503 1503 0 0 0 0 0 0 0 4139 4139 4139 4190 4190 4190 4241 4241 4295 4295 4295 4295 4295 4295 4241 4241 4241 4190 4190 4190 4190 4190 4190 4241 4241 4241 4241 4241 4241 4241 4241 4241 4241 4241 4295 4295 4241 4241 4241 4295 4295 4295 4295 4295 4295 4295 4295 4295 4241 4241 4241 4241 4241 4241 4241 4241 4241 4295 4295 4295 4295 4295 4295 4295 4295 4295 4295 4295 4295 4295 4241 4241 4241 4241 4190 4139 4089 4089 4089 4089 4089 4089 4089 4139 4190 4190 4241 4241 4241 4241 4349 4241 4241 4190 4190 4190 4190 4190 4190 4190 4190 4190 4139 4139 4089 4089 4089 4089 4041 4041 4041 4041 4041 4041 3994 3994 3994 0 0 0 0 0 0 0 0 0 0 0 0
0 0 0 0 0 0 0 0 0 0 0 0 0 0 0 0 0 0 0 0 0 0 0 0 0 0 0 0 0 0 0 0 3333 3333 3333 3333 3365 3365 3365 3333 3333 3333 3365 3333 3333 3333 3333 3333 3333 3333 3333 3333 3333 3333 3333 3333 3365 3365 3365 3365 3365 3365 3365 3365 3365 3365 3365 3365 3333 3333 3365 3365 3365 3365 3333 3333 3365 3365 3365 3399 3399 3433 3433 3433 3433 3433 3433 3399 3399 3399 3365 3365 3365 3365 3365 3365 3399 3433 3433 3433 3433 3433 3433 3433 3433 0 0 0 0 1601 1601 1601 1609 1609 1616 1616 1616 1616 1616 1616 1616 1616 1624 1632 1632 1632 1632 1705 1722 1731 1739 1748 1748 1748 1757 1757 1757 1757 0 0 0 0 3468 3468 3468 3468 3503 3503 3539 3576 3576 3576 3576 3539 3539 3539 3576 3576 1663 1663 1663 1663 1663 1663 1663 1663 1663 1655 1655 1647 1647 1647 1647 1647 1647 1647 1647 1647 1639 1639 1639 1639 1639 1639 1639 1639 1639 1639 1639 1496 1496 1496 1496 1496 1496 1496 1496 1496 1496 1496 1496 1496 1503 1509 1509 1523 1523 1609 1609 1601 1601 1601 1601 1594 1594 1594 1594 1594 1586 1586 1586 1586 1586 1586 1579 1579 1579 1572 1572 1572 1579 1359 1359 1359 1359 1359 1359 1359 1359 1359 1359 1359 1359 1359 1354 1354 1349 1349 1349 1349 1349 1343 1343 1343 1338 1333 1333 1333 1333 1328 1328 1328 1328 1328 1322 1322 1312 1312 1312 1312 1312 1312 1312 1312 1312 1312 1307 1307 1307 1307 1302 1302 1302 1297 1297 1297 1297 1297 1297 1297 1292 1292 1464 1470 1464 1464 1464 1464 1464 1464 1458 1458 1458 1458 1458 1458 1458 1458 1452 1452 1452 1445 1445 1445 1445 1445 1445 1445 1445 1445 1445 1439 1439 1439 1439 1439 1439 1439 1439 1439 1439 1439 1439 1433 1433 1427 1427 1433 1210 1210 1214 1214 1214 1214 1214 1214 1214 1214 1210 1210 1214 1214 1214 1219 1214 1214 1227 1433 1433 1433 1433 1439 1445 1445 1445 1445 1445 1445 1445 1439 1439 1439 1445 1445 1445 1445 1445 1439 1439 1445 1445 1445 1452 1452 1458 1458 1458 1458 1458 1458 1458 1458 1458 1464 1464 1464 1464 1464 1464 1464 1464 1464 1464 1464 1464 1470 1470 1477 1477 1477 1477 1477 1477 1483 1483 1483 1483 1483 1483 1483 1483 1483 1477 1477 1477 1477 1477 1477 1477 1477 1477 1477 1477 1477 1477 1477 1477 1483 1483 1483 1483 1483 1489 1489 1483 1483 1483 1489 1489 1496 1523 1523 1392 1433 1433 1433 1439 0 0 0 0 0 0 0 0 0 0 0 0 0 0 0 0 0 0 0 0 1477 1477 1477 1477 1477 1477 1483 1483 1483 1483 1496 1496 1503 1503 1503 1503 1509 1523 1523 1523 1523 1529 1529 1529 1523 1503 1503 0 0 0 0 0 0 0 4089 4089 4139 4139 4139 4190 4190 4241 4241 4241 4295 4241 4241 4241 4241 4241 4190 4139 4139 4139 4139 4190 4190 4241 4241 4241 4241 4241 4241 4241 4241 4241 4241 4241 4241 4241 4241 4241 4241 4295 4241 4241 4241 4295 4295 4241 4241 4241 4241 4241 4241 4241 4241 4241 4241 4241 4241 4241 4241 4241 4241 4241 4241 4241 4241 4241 4241 4241 4241 4295 4241 4241 4241 4241 4190 4139 4139 4089 4089 4089 4089 4089 4089 4139 4190 4190 4241 4241 4241 4241 4349 4349 4190 4190 4190 4139 4139 4190 4190 4190 4190 4190 4139 4139 4089 4089 4089 4089 4041 4041 4041 4041 4041 4041 3994 3994 3994 0 0 0 0 0 0 0 0 0 0 0 0
0 0 0 0 0 0 0 0 0 0 0 0 0 0 0 0 0 0 0 0 0 0 0 0 0 0 0 0 0 0 0 0 3300 3300 3300 3333 3333 3333 3333 3333 3333 3333 3333 3333 3333 3333 3300 3300 3300 3300 3300 3300 3300 3300 3300 3300 3333 3365 3365 3333 3333 3365 3365 3365 3365 3365 3365 3365 3333 3333 3365 3333 3333 3333 3333 3333 3365 3365 3365 3365 3365 3433 3433 3433 3433 3433 3399 3399 3399 3365 3365 3365 3365 3365 3365 3365 3399 3399 3433 3433 3433 3399 3399 3433 3433 0 0 0 0 1601 1601 1601 1609 1609 1616 1616 1616 1616 1616 1616 1616 1616 1624 1624 1632 1632 1632 1655 1722 1731 1739 1748 1748 1748 1757 1757 1757 0 0 0 0 0 3468 3468 3468 3468 3503 3503 3539 3576 3576 3576 3576 3539 3539 3539 3539 3539 3539 3539 3539 1663 1663 1663 1663 1663 1663 1655 1655 1647 1647 1647 1647 1647 1647 1647 1647 1647 1639 1639 1639 1639 1639 1639 1639 1639 1639 1639 1496 1496 1496 1496 1496 1496 1496 1496 1496 1496 1496 1496 1496 1496 1503 1509 1516 1523 1523 1609 1609 1609 1609 1609 1609 1601 1601 1594 1594 1594 1594 1594 1586 1586 1586 1586 1586 1579 1579 1579 1579 1579 1579 1586 1359 1359 1359 1359 1359 1359 1359 1359 1359 1359 1359 1359 1359 1359 1354 1349 1349 1349 1349 1349 1343 1343 1338 1333 1333 1333 1333 1328 1328 1328 1328 1328 1322 1322 1322 1317 1317 1317 1317 1317 1312 1312 1312 1312 1307 1307 1302 1302 1302 1302 1302 1297 1297 1297 1297 1297 1297 1297 1292 1292 1297 1297 1297 1292 1292 1292 1464 1288 1288 1288 1458 1458 1458 1458 1458 1458 1452 1452 1452 1445 1445 1445 1445 1445 1445 1445 1445 1445 1445 1439 1439 1439 1433 1433 1433 1439 1439 1439 1439 1433 1433 1427 1427 1421 1421 1427 1427 1214 1214 1219 1219 1219 1214 1214 1214 1214 1214 1214 1214 1214 1214 1214 1219 1223 1227 1433 1427 1427 1427 1433 1433 1433 1433 1433 1433 1433 1433 1433 1433 1433 1433 1427 1427 1433 1433 1433 1433 1433 1439 1439 1439 1439 1439 1452 1452 1452 1452 1452 1452 1452 1452 1452 1452 1458 1452 1452 1458 1458 1458 1458 1458 1458 1464 1464 1464 1464 1470 1464 1464 1464 1464 1464 1477 1477 1470 1470 1470 1470 1470 1470 1452 1452 1452 1452 1470 1470 1470 1470 1477 1470 1470 1470 1470 1477 1477 1477 1477 1477 1477 1477 1477 1470 1470 1477 1477 1483 1483 1483 1483 1392 1392 1427 1427 1433 1433 1433 1433 1433 0 0 0 0 0 0 0 0 0 0 0 0 0 0 0 0 0 1477 1477 1477 1477 1477 1477 1483 1483 1483 1483 1489 1496 1503 1503 1489 1489 1489 1503 1509 1509 1509 1516 1523 1523 1523 1516 1516 0 0 0 0 0 0 0 4089 4089 4139 4139 4139 4139 4190 4190 4190 4190 4241 4241 4241 4241 4190 4190 4190 4139 4139 4139 4139 4139 4190 4190 4241 4241 4190 4190 4241 4241 4190 4190 4190 4190 4241 4241 4241 4241 4241 4241 4190 4190 4190 4190 4241 4190 4190 4241 4241 4241 4241 4241 4241 4241 4241 4241 4241 4241 4241 4241 4241 4241 4190 4190 4241 4241 4241 4241 4241 4295 4241 4241 4241 4241 4241 4190 4190 4190 4139 4139 4139 4139 4139 4139 4190 4190 4241 4241 4241 4241 4295 4295 4139 4139 4139 4139 4139 4139 4139 4139 4139 4139 4139 4139 4089 4089 4089 4089 4041 4041 4041 4041 4041 4041 4041 3994 3994 0 0 0 0 0 0 0 0 0 0 0 0
0 0 0 0 0 0 0 0 0 0 0 0 0 0 0 0 0 0 0 0 0 0 0 0 0 0 0 0 0 0 0 0 3300 3300 3300 3300 3333 3333 3333 3300 3300 3300 3333 3300 3300 3269 3269 3269 3269 3269 3269 3300 3300 3300 3300 3300 3333 3333 3333 3333 3333 3333 3333 3333 3333 3333 3333 3365 3333 3333 3333 3333 3333 3333 3333 3333 3333 3333 3333 3365 3365 3399 3399 3399 3399 3433 3399 3399 3399 3365 3365 3365 3365 3365 3365 3365 3365 3365 3399 3399 3399 3399 3399 3399 3399 3399 0 0 0 1601 1601 1601 1609 1609 1616 1616 1616 1616 1616 1616 1616 1616 1624 1624 1632 1632 1632 1632 1722 1739 1739 1748 1748 1757 1757 1766 1766 0 0 0 0 0 0 3468 3468 3468 3503 3503 3576 3576 3576 3576 3576 3539 3539 3539 3539 3539 3539 3539 3539 3539 3539 1663 1663 3576 3576 3576 3576 3576 3614 3614 1647 1647 1647 1647 1647 1647 1639 1639 1647 1639 1639 1639 1639 1639 1647 1647 1496 1496 1496 1496 1496 1496 1496 1496 1496 1496 1496 1496 1496 1496 1503 1509 1516 1523 1529 1609 1609 1609 1609 1609 1609 1601 1601 1601 1594 1594 1594 1594 1586 1586 1586 1586 1586 1586 1579 1579 1579 1579 1579 1586 1586 1359 1359 1359 1359 1359 1359 1359 1359 1359 1359 1359 1359 1354 1354 1354 1349 1349 1343 1343 1338 1338 1333 1333 1333 1333 1333 1328 1328 1328 1328 1328 1322 1322 1322 1317 1317 1317 1317 1317 1312 1312 1312 1312 1307 1307 1302 1302 1302 1302 1302 1297 1297 1297 1297 1297 1297 1297 1292 1292 1297 1297 1292 1288 1288 1292 1288 1288 1288 1288 1288 1288 1464 1464 1464 1464 1464 1464 1458 1445 1445 1445 1445 1445 1445 1445 1445 1445 1445 1439 1439 1439 1433 1433 1433 1439 1439 1439 1439 1433 1427 1427 1427 1421 1421 1421 1421 1214 1214 1219 1219 1219 1214 1214 1214 1214 1214 1214 1214 1214 1214 1214 1219 1227 1227 1232 1410 1415 1415 1415 1421 1421 1421 1421 1421 1421 1421 1421 1421 1421 1415 1415 1415 1421 1421 1421 1421 1427 1433 1433 1433 1433 1433 1439 1439 1439 1439 1439 1439 1439 1445 1445 1445 1445 1445 1445 1445 1452 1452 1452 1452 1452 1458 1458 1458 1458 1458 1452 1452 1452 1452 1452 1452 1452 1452 1458 1458 1458 1464 1458 1452 1452 1452 1452 1458 1458 1458 1458 1464 1464 1464 1464 1464 1470 1470 1470 1470 1470 1470 1470 1464 1464 1464 1464 1470 1470 1477 1392 1392 1392 1392 1410 1421 1427 1433 1433 1433 1433 0 0 0 0 0 0 0 0 0 0 0 0 0 0 0 0 0 1470 1470 1470 1470 1477 1477 1477 1477 1483 1483 1489 1489 1483 1483 1483 1483 1483 1489 1496 1503 1503 1509 1516 1516 1523 0 0 0 0 0 0 0 0 0 4089 4089 4089 4089 4089 4139 4139 4190 4190 4190 4190 4190 4190 4139 4139 4139 4139 4139 4139 4139 4139 4139 4190 4190 4241 4190 4190 4190 4241 4241 4190 4190 4190 4190 4241 4190 4190 4190 4190 4139 4139 4139 4139 4139 4190 4139 4139 4190 4190 4190 4190 4190 4190 4241 4241 4241 4241 4241 4190 4190 4241 4190 4190 4190 4190 4190 4241 4241 4241 4241 4241 4241 4241 4241 4241 4190 4190 4190 4139 4139 4139 4139 4139 4139 4139 4190 4190 4190 4190 4295 4295 4190 4139 4139 4139 4139 4139 4139 4139 4139 4139 4139 4139 4089 4089 4089 4089 4041 4041 4041 4041 4041 4041 4041 4041 3994 3994 0 0 0 0 0 0 0 0 0 0 0 0
0 0 0 0 0 0 0 0 0 0 0 0 0 0 0 0 0 0 0 0 0 0 0 0 0 0 0 0 0 0 0 0 3269 3269 3269 3269 3300 3300 3300 3300 3300 3300 3300 3269 3238 3238 3238 3238 3238 3238 3238 3269 3269 3269 3300 3269 3269 3300 3269 3269 3269 3269 3300 3300 3300 3300 3300 3333 3300 3300 3333 3333 3333 3300 3300 3300 3300 3300 3333 3333 3333 3365 3365 3365 3365 3399 3365 3365 3365 3365 3333 3333 3333 3333 3333 3333 3365 3365 3365 3365 3365 3365 3365 3399 3399 3399 0 0 0 0 1616 1616 1616 1616 1616 1616 1616 1616 1616 1616 1616 1624 1624 1624 1632 1624 1624 1624 1624 1739 1739 1748 1748 1757 1757 1757 1766 0 0 0 0 0 0 3468 3468 3468 3576 3576 3576 3576 3576 3576 3539 3539 3503 3503 3503 3503 3503 3539 3539 3539 3539 3539 3576 3576 3576 3576 3576 3576 3576 3576 3576 3576 3576 1647 1647 1647 1639 1639 1639 1647 1647 1639 1639 1639 1647 1647 1496 1496 1496 1496 1496 1496 1496 1496 1496 1496 1496 1496 1496 1503 1503 1516 1516 1516 1523 1609 1609 1609 1609 1609 1609 1609 1609 1601 1601 1601 1594 1586 1586 1586 1586 1586 1586 1586 1586 1579 1579 1579 1579 1586 1586 1359 1359 1359 1359 1359 1359 1359 1359 1359 1359 1359 1359 1354 1354 1354 1349 1349 1343 1343 1338 1338 1333 1333 1333 1333 1333 1328 1328 1328 1328 1328 1322 1322 1322 1317 1317 1317 1317 1317 1312 1312 1312 1312 1307 1307 1302 1302 1302 1302 1302 1302 1302 1302 1297 1297 1297 1297 1292 1292 1297 1297 1292 1288 1288 1288 1288 1288 1288 1288 1288 1288 1288 1288 1464 1464 1464 1464 1445 1445 1445 1445 1445 1445 1445 1445 1445 1445 1445 1439 1439 1439 1439 1439 1439 1439 1439 1439 1439 1433 1427 1427 1427 1421 1421 1421 1421 1219 1219 1219 1219 1219 1219 1219 1214 1214 1214 1214 1214 1214 1223 1227 1227 1227 1232 1232 1404 1410 1410 1410 1415 1415 1415 1415 1415 1415 1415 1415 1415 1415 1410 1410 1410 1415 1415 1415 1415 1415 1415 1421 1415 1415 1421 1421 1421 1421 1421 1421 1427 1427 1427 1427 1427 1427 1427 1427 1427 1433 1433 1433 1433 1439 1439 1439 1439 1439 1439 1439 1439 1439 1439 1439 1439 1439 1445 1445 1445 1445 1452 1452 1452 1452 1445 1445 1445 1445 1445 1452 1452 1458 1458 1458 1458 1464 1464 1458 1458 1458 1458 1464 1458 1458 1458 1458 1464 1464 1464 1392 1392 1392 1398 1404 1421 1427 1427 1433 1433 1433 0 0 0 0 0 0 0 0 0 0 0 0 0 0 0 0 0 1452 1452 1470 1470 1477 1477 1477 1477 1477 1477 1477 1483 1483 1477 1477 1483 1483 1483 1489 1496 1503 1509 1509 1509 1523 0 0 0 0 0 0 0 0 0 4041 4041 4089 4089 4089 4089 4139 4139 4139 4139 4139 4139 4139 4139 4139 4139 4139 4139 4139 4139 4139 4139 4139 4190 4190 4139 4139 4190 4190 4190 4190 4190 4190 4190 4190 4139 4139 4139 4139 4089 4089 4089 4089 4089 4139 4139 4139 4139 4139 4139 4139 4190 4190 4190 4190 4190 4190 4190 4190 4190 4241 4190 4190 4190 4190 4190 4241 4190 4190 4241 4190 4190 4241 4241 4241 4190 4139 4139 4089 4089 4089 4089 4089 4089 4089 4139 4190 4190 4190 4190 4190 4190 4139 4139 4139 4139 4139 4139 4139 4139 4089 4089 4139 4089 4089 4041 4041 4041 4041 4041 3994 3994 3994 3994 4041 3994 3994 0 0 0 0 0 0 0 0 0 0 0 0
0 0 0 0 0 0 0 0 0 0 0 0 0 0 0 0 0 0 0 0 0 0 0 0 0 0 0 0 0 0 0 0 3238 3238 3238 3238 3269 3300 3300 3269 3269 3269 3238 3238 3238 3238 3238 3238 3238 3238 3238 3269 3269 3269 3269 3269 3269 3269 3269 3269 3269 3269 3269 3269 3269 3269 3269 3300 3300 3300 3300 3300 3300 3300 3300 3300 3300 3300 3300 3333 3333 3333 3333 3333 3333 3333 3333 3333 3333 3333 3333 3333 3333 3333 3333 3333 3333 3333 3333 3365 3365 3365 3365 3399 3399 3399 3399 0 0 1616 1616 1609 1609 1616 1616 1616 1616 1616 1616 1616 1616 1624 1624 1624 1632 1624 1624 1624 1624 1624 1739 1748 1748 1748 1748 1757 0 0 0 0 0 0 0 3503 3503 3503 3576 3576 3576 3576 3539 3539 3503 3503 3503 3503 3503 3503 3503 3539 3539 3539 3539 3539 3576 3576 3576 3576 3576 3576 3576 3576 3539 3539 3539 3576 3576 1639 1639 1639 1639 1647 1647 1639 1639 1639 1647 1647 1496 1496 1496 1496 1503 1496 1496 1496 1496 1496 1496 1496 1503 1503 1503 1516 1516 1516 1523 1609 1609 1609 1609 1616 1609 1609 1609 1609 1601 1601 1601 1586 1586 1586 1586 1586 1586 1586 1586 1586 1586 1586 1586 1586 1594 1365 1359 1359 1359 1359 1359 1359 1359 1359 1359 1359 1359 1359 1359 1354 1354 1349 1349 1349 1343 1343 1338 1333 1333 1333 1333 1333 1328 1328 1328 1328 1322 1322 1322 1317 1317 1317 1317 1312 1312 1312 1312 1312 1307 1307 1302 1302 1302 1302 1302 1302 1302 1302 1302 1297 1297 1297 1292 1292 1292 1292 1292 1288 1288 1288 1288 1288 1288 1288 1288 1288 1288 1283 1283 1288 1283 1283 1283 1288 1288 1445 1445 1445 1445 1445 1445 1445 1445 1445 1439 1439 1439 1439 1439 1439 1439 1439 1439 1433 1427 1427 1427 1421 1421 1421 1223 1223 1223 1223 1223 1223 1219 1219 1219 1219 1214 1214 1219 1219 1227 1227 1232 1232 1232 1236 1241 1398 1404 1410 1410 1410 1410 1410 1410 1410 1415 1410 1410 1410 1404 1404 1404 1410 1410 1410 1410 1410 1410 1415 1415 1415 1415 1415 1415 1415 1415 1415 1421 1421 1421 1415 1415 1415 1421 1421 1421 1421 1427 1427 1427 1433 1433 1433 1433 1427 1427 1433 1433 1433 1433 1433 1433 1439 1433 1433 1433 1433 1433 1433 1433 1433 1433 1433 1433 1433 1433 1433 1433 1433 1433 1439 1439 1439 1439 1439 1439 1439 1439 1445 1458 1452 1452 1458 1458 1458 1392 1392 1392 1392 1398 1398 1410 1415 1421 1427 1427 0 0 0 0 0 0 0 0 0 0 1458 1458 0 0 0 0 0 0 1439 1439 1445 1470 1470 1470 1470 1470 1464 1464 1464 1464 1483 1464 1464 1470 1470 1470 1477 1483 1489 1503 1503 1503 0 0 0 0 0 0 0 0 0 0 4041 4041 4041 4041 4041 4041 4089 4089 4139 4139 4139 4139 4139 4139 4139 4139 4139 4089 4089 4139 4139 4139 4139 4139 4139 4139 4139 4139 4139 4139 4139 4139 4139 4139 4139 4089 4089 4089 4089 4041 4041 4041 4041 4041 4089 4089 4089 4089 4089 4139 4139 4139 4139 4139 4139 4139 4139 4139 4139 4139 4190 4190 4190 4190 4190 4190 4190 4190 4190 4190 4190 4190 4190 4190 4190 4139 4089 4089 4089 4089 4089 4089 4089 4089 4089 4139 4139 4139 4041 4089 4089 4089 4089 4139 4139 4139 4139 4089 4089 4089 4089 4089 4089 4089 4089 4041 4041 4041 3994 3994 3994 3994 3994 3994 3994 3994 3994 0 0 0 0 0 0 0 0 0 0 0 0
0 0 0 0 0 0 0 0 0 0 0 0 0 0 0 0 0 0 0 0 0 0 0 0 0 0 0 0 0 0 0 0 3238 3238 3238 3238 3269 3238 3238 3238 3238 3238 3208 3208 3208 3208 3238 3238 3238 3238 3238 3238 3238 3238 3238 3238 3269 3269 3238 3238 3238 3238 3238 3269 3269 3269 3269 3300 3269 3269 3300 3300 3300 3300 3300 3300 3300 3300 3300 3300 3333 3333 3333 3300 3300 3300 3300 3300 3300 3300 3333 3333 3333 3333 3333 3333 3333 3333 3333 3365 3365 3333 3333 3365 3365 3399 3399 3399 3300 1609 0 1609 1609 1616 1624 1624 1624 1624 1624 1624 1624 1624 1624 1624 1632 1624 1624 1624 1624 1616 1609 1609 1748 1748 1748 1757 0 0 0 0 0 0 0 3468 3468 3503 3576 3576 3576 3539 3539 3503 3503 3503 3468 3468 3468 3503 3503 3539 3539 3539 3539 3539 3576 3576 3576 3576 3576 3576 3576 3539 3539 3539 3539 3576 3576 3576 3576 3576 1647 1647 1647 1647 1647 1647 1647 1647 1496 1496 1496 1496 1503 1496 1496 1496 1496 1496 1496 1496 1503 1503 1503 1516 1516 1516 1523 1609 1609 1609 1616 1616 1616 1609 1609 1601 1601 1601 1586 1586 1586 1586 1586 1586 1586 1586 1586 1586 1586 1586 1586 1594 1594 1594 1359 1359 1359 1359 1359 1359 1359 1359 1365 1365 1365 1365 1359 1359 1354 1354 1349 1349 1343 1343 1338 1333 1333 1333 1333 1333 1328 1328 1328 1328 1322 1322 1322 1317 1317 1317 1317 1312 1312 1312 1312 1312 1307 1307 1302 1302 1302 1302 1302 1302 1302 1302 1302 1297 1297 1297 1292 1292 1292 1292 1292 1288 1288 1292 1288 1288 1288 1288 1288 1283 1283 1283 1283 1288 1283 1283 1283 1288 1288 1288 1288 1452 1445 1445 1445 1445 1445 1445 1439 1439 1439 1439 1439 1439 1439 1439 1439 1433 1433 1433 1427 1427 1421 1421 1223 1223 1223 1223 1223 1223 1223 1223 1219 1219 1219 1219 1219 1219 1227 1227 1232 1232 1236 1236 1241 1398 1404 1404 1404 1410 1410 1410 1410 1410 1410 1410 1410 1410 1398 1398 1398 1398 1404 1404 1404 1404 1410 1410 1410 1410 1410 1410 1415 1415 1415 1415 1415 1415 1415 1410 1410 1410 1410 1410 1415 1415 1421 1421 1421 1421 1421 1421 1421 1421 1421 1421 1421 1421 1427 1427 1427 1433 1427 1427 1427 1427 1427 1427 1427 1433 1427 1427 1427 1427 1427 1427 1427 1427 1427 1427 1427 1427 1427 1427 1427 1427 1427 1433 1445 1452 1452 1452 1452 1452 1392 1392 1392 1392 1398 1398 1398 1404 1410 1410 1410 0 0 0 0 0 0 0 0 1458 1452 1452 1458 1452 1452 0 1433 1433 1433 1433 1439 1439 1439 1458 1458 1458 1452 1445 1445 1445 1439 1439 1445 1445 1452 1458 1458 1458 1464 1470 1489 1503 1503 0 0 0 0 0 0 0 0 0 0 4041 4041 4041 4041 4041 4041 4041 4089 4089 4089 4089 4089 4089 4089 4089 4089 4089 4089 4089 4089 4089 4139 4089 4089 4139 4089 4089 4089 4089 4089 4089 4089 4089 4139 4139 4089 4089 4089 4089 4041 4041 3994 3994 3994 4041 4041 4041 4041 4041 4089 4089 4089 4089 4089 4089 4089 4089 4139 4139 4139 4139 4139 4139 4139 4139 4139 4139 4139 4139 4139 4139 4139 4190 4190 4190 4139 4089 4089 4089 4089 4089 4089 4089 4089 4089 4139 4139 0 0 4041 4041 4041 4041 4089 4139 4139 4089 4089 4089 4089 4041 4041 4041 4041 4041 4041 4041 3994 3994 3994 3994 3994 3994 3994 3994 3994 3994 0 0 0 0 0 0 0 0 0 0 0 0
