0 0 0 0 0 0 0 0 0 0 0 0 0 0 0 0 0 0 0 0 0 0 0 0 0 0 0 0 0 0 0 0 2859 2859 2859 2859 2859 2859 2835 2835 2835 2835 2835 2812 2812 2812 2812 2812 2812 2812 2835 2835 2859 2859 2859 2859 2859 2859 2859 2859 2859 2883 2883 0 0 0 1427 1427 1427 1427 1427 1427 1433 1433 1433 1439 1297 1297 1302 1307 1312 1312 1317 1317 1317 1317 1317 1322 1322 1322 1322 1322 1328 1328 1328 1328 1328 1328 1328 1322 1317 1312 1312 1312 1312 1312 1317 1317 1317 1317 1317 1322 1322 1322 1322 1322 1322 1322 1322 1322 1322 1322 1322 1322 1322 1322 1322 1322 1322 1322 1322 1322 1322 1322 1322 1322 1322 1322 1322 1322 1328 1328 1328 1328 1328 1328 1333 1333 1333 1338 1333 1333 1333 1333 1328 1328 1333 1328 1328 1328 1328 1328 1328 1328 1328 1328 1328 1328 1322 1322 1328 1328 1322 1322 1328 1333 1333 1333 1333 1333 1333 1333 1333 1333 1333 1338 1338 1338 1338 1338 1338 1333 1333 1333 1333 1333 1333 1333 1333 1333 1333 1333 1333 1333 1333 1333 1333 1333 1333 1338 1338 1338 1445 1445 1445 1445 1445 1445 1445 1445 1445 1445 1445 1445 1445 1445 1445 1445 1445 1445 1445 1452 1452 1452 1452 1452 1452 1445 1445 1445 1445 1452 1445 1445 1445 1445 1445 1445 1445 1445 1445 1439 1439 1439 1439 1439 1439 1439 1445 1445 1445 1445 1445 1445 1445 1445 1445 1255 1255 1255 1255 1255 1255 1255 1255 1255 1259 1259 1259 1259 1264 1264 1264 1264 1268 1268 1268 1268 1268 1264 1264 1264 1264 1259 1259 1259 1264 1264 1264 1264 1264 1264 1264 1259 1259 1259 1259 1259 1259 1264 1259 1259 1259 1259 1259 1255 1255 1255 1255 1255 1255 1255 1255 1255 1255 1255 1255 1255 1255 1255 1255 1259 1259 1250 1250 1250 1250 1250 1250 1250 1250 1255 1250 1250 1250 1255 1255 1255 1255 1255 1255 1259 1259 1259 1259 1259 1259 1259 1259 1259 1264 1264 1264 1264 1264 1264 1259 1259 1259 1264 1264 1264 1264 1264 1264 1264 1264 1264 1264 1264 1268 1268 1268 1268 1268 1268 1268 1268 1268 1268 1268 1268 1268 1264 1259 1259 1259 1259 1259 1255 1255 1259 1259 1259 1259 1259 1259 1259 1264 1452 1458 1458 1458 1458 1458 1458 1458 1458 1452 1452 1452 1452 1452 1452 1452 1452 1452 1452 1452 1452 1452 1445 1445 1452 1452 1452 1452 1452 1452 1452 1452 1452 1452 1452 1452 1452 1452 1452 1445 1445 1452 1445 1445 1445 1445 1445 1452 1452 1445 1445 1452 1452 1452 1452 1452 1452 1452 1452 1452 1452 1452 1452 1452 1452 1452 1452 1445 1445 1445 1445 1445 1445 1445 1445 1445 1445 1445 1445 1439 1439 1439 1439 1433 1433 1433 1433 1433 1433 1433 1433 1433 1433 2933 2933 2933 2958 2958 2984 2984 2984 2984 2984 2984 2984 2984 2984 2984 2984 2984 2984 2984 2984 2984 2984 2984 2984 2984 2984 2958 2958 2958 2958 2958 2984 2984 2984 2984 2984 2984 2984 2984 2984 2984 2984 2984 2984 2984 2984 2984 2984 2984 2984 2984 2984 2984 2984 2984 2984 2984 2984 3010 2984 2984 2984 2984 2984 2958 2958 2958 2958 2958 2958 2958 2958 2984 2984 2984 2984 2984 2984 2984 2984 2984 2984 2958 2933 2908 2883 2812 2789 2789 2789 2767 2744 2744 2744 2744 2767 2767 2789 2812 2835 2883 2908 2908 2933 2933 2933 2933 2933 2933 2933 2933 2933 2933 2933 2933 2933 2933 2933 2958 2958 2958 2958 2958 2958 2933 2933 2933 0 0 0 0 0 0 0 0 0 0 0
0 0 0 0 0 0 0 0 0 0 0 0 0 0 0 0 0 0 0 0 0 0 0 0 0 0 0 0 0 0 0 0 2812 2812 2812 2835 2835 2835 2835 2835 2835 2835 2812 2812 2812 2812 2812 2812 2812 2812 2812 2812 2835 2835 2835 2835 2835 2835 2859 2859 2859 2859 0 0 0 0 1433 1427 1427 1427 1427 1427 1433 1433 1433 1433 1464 1470 1312 1312 1312 1317 1317 1317 1317 1317 1317 1322 1322 1322 1322 1328 1328 1328 1333 1333 1328 1328 1328 1328 1317 1312 1312 1307 1307 1307 1312 1317 1317 1317 1317 1322 1322 1322 1322 1322 1322 1322 1322 1322 1322 1322 1322 1322 1322 1322 1322 1322 1322 1322 1322 1322 1322 1322 1322 1322 1322 1322 1322 1322 1322 1322 1328 1322 1322 1328 1328 1333 1333 1333 1333 1333 1333 1328 1328 1328 1333 1328 1328 1328 1328 1328 1328 1328 1328 1328 1328 1328 1322 1322 1328 1328 1322 1322 1328 1333 1333 1333 1333 1333 1333 1333 1333 1333 1333 1338 1338 1452 1338 1338 1338 1333 1333 1333 1333 1333 1333 1333 1333 1333 1333 1333 1333 1333 1333 1333 1333 1333 1333 1338 1338 1338 1452 1445 1445 1445 1445 1445 1445 1445 1445 1445 1445 1445 1445 1445 1445 1445 1452 1452 1452 1452 1452 1452 1452 1452 1452 1452 1452 1452 1452 1452 1445 1445 1445 1445 1445 1445 1445 1445 1445 1445 1445 1445 1445 1445 1445 1445 1445 1445 1445 1445 1445 1445 1445 1445 1445 1255 1255 1255 1259 1259 1259 1259 1259 1259 1259 1259 1259 1264 1264 1264 1268 1268 1268 1268 1268 1268 1268 1268 1268 1264 1264 1264 1264 1264 1264 1264 1264 1264 1264 1264 1264 1259 1259 1259 1259 1259 1264 1264 1264 1264 1264 1259 1259 1259 1259 1259 1259 1259 1259 1259 1259 1259 1259 1259 1259 1259 1259 1264 1259 1259 1259 1255 1255 1255 1255 1255 1255 1255 1255 1259 1255 1255 1255 1259 1259 1259 1259 1259 1259 1259 1259 1259 1259 1259 1259 1259 1264 1264 1264 1264 1264 1264 1264 1264 1264 1264 1264 1264 1264 1264 1264 1264 1264 1264 1264 1264 1264 1264 1268 1268 1268 1268 1268 1268 1268 1268 1268 1273 1273 1268 1268 1264 1264 1264 1259 1259 1259 1259 1259 1259 1259 1259 1259 1259 1264 1264 1452 1452 1458 1458 1458 1458 1458 1458 1458 1458 1452 1452 1452 1452 1452 1452 1452 1452 1452 1452 1452 1452 1452 1445 1445 1452 1452 1452 1452 1452 1452 1452 1452 1452 1452 1452 1452 1452 1452 1452 1452 1452 1452 1452 1452 1452 1452 1452 1452 1452 1452 1452 1452 1452 1452 1452 1452 1452 1452 1452 1452 1452 1452 1452 1452 1452 1452 1452 1445 1445 1445 1445 1445 1445 1445 1445 1445 1445 1445 1445 1445 1439 1439 1439 1439 1439 1433 1433 1433 1439 1433 1433 1433 2933 2933 2933 2933 2933 2958 2958 2958 2958 2958 2958 2958 2984 2984 2984 2958 2958 2958 2958 2958 2958 2958 2958 2984 2958 2958 2958 2958 2958 2958 2958 2958 2958 2958 2958 2958 2958 2984 2958 2958 2958 2958 2984 2984 2984 2984 2984 2984 2984 2984 2984 2984 2958 2958 2958 2958 2958 2958 2958 2984 2958 2958 2958 2958 2958 2958 2958 2933 2933 2958 2958 2958 2958 2958 2958 2958 2958 2984 2958 2958 2958 2958 2958 2933 2908 2883 2859 2812 2789 2789 2789 2767 2767 2767 2767 2767 2767 2767 2789 2812 2835 2883 2908 2908 2933 2933 2933 2933 2933 2933 2933 2933 2933 2933 2933 2933 2933 2933 2933 2958 2958 2958 2958 2933 2933 2933 2908 2908 0 0 0 0 0 0 0 0 0 0 0
0 0 0 0 0 0 0 0 0 0 0 0 0 0 0 0 0 0 0 0 0 0 0 0 0 0 0 0 0 0 0 0 2812 2812 2812 2812 2812 2812 2812 2812 2812 2812 2812 2812 2812 2812 2812 2812 2812 2812 2812 2812 2812 2835 2835 2835 2835 2835 2835 2835 2835 2835 2835 0 0 0 1433 1433 1433 1427 1427 1427 1433 1433 1433 1433 1439 1452 1312 1312 1317 1317 1317 1317 1317 1317 1317 1322 1322 1328 1328 1328 1328 1333 1333 1333 1333 1433 1433 1433 1433 1439 1439 1307 1307 1307 1312 1312 1312 1317 1317 1317 1317 1322 1317 1317 1322 1322 1322 1322 1322 1322 1322 1322 1322 1322 1322 1445 1322 1322 1322 1322 1322 1322 1317 1317 1317 1317 1317 1317 1322 1322 1322 1322 1322 1328 1328 1333 1333 1333 1333 1333 1333 1328 1328 1328 1333 1328 1322 1322 1322 1322 1322 1322 1328 1328 1328 1328 1328 1328 1452 1452 1445 1445 1452 1452 1452 1452 1458 1452 1452 1452 1452 1452 1452 1452 1452 1452 1452 1452 1452 1452 1458 1333 1333 1333 1333 1333 1333 1333 1333 1333 1333 1333 1333 1333 1333 1338 1338 1338 1338 1338 1452 1445 1445 1445 1445 1445 1452 1452 1452 1452 1445 1445 1452 1452 1452 1452 1452 1452 1452 1452 1452 1452 1452 1452 1452 1452 1452 1452 1452 1452 1452 1452 1445 1445 1445 1445 1445 1445 1445 1445 1445 1445 1445 1445 1445 1445 1445 1445 1445 1445 1445 1445 1445 1445 1445 1255 1255 1259 1259 1259 1259 1259 1259 1259 1259 1264 1264 1264 1268 1268 1268 1268 1268 1268 1268 1268 1268 1268 1268 1268 1268 1268 1264 1264 1268 1268 1268 1264 1264 1264 1264 1264 1264 1264 1264 1264 1264 1264 1264 1264 1264 1264 1264 1264 1264 1259 1259 1259 1259 1259 1259 1259 1259 1259 1264 1264 1264 1264 1264 1264 1264 1255 1255 1255 1255 1255 1255 1259 1259 1259 1259 1259 1259 1259 1264 1264 1264 1264 1264 1264 1264 1264 1264 1264 1264 1264 1264 1264 1264 1264 1264 1264 1264 1264 1264 1264 1264 1264 1264 1264 1264 1264 1264 1264 1264 1264 1264 1264 1268 1268 1268 1268 1268 1268 1268 1268 1268 1273 1273 1268 1268 1268 1264 1264 1264 1259 1259 1259 1259 1259 1259 1259 1259 1264 1264 1268 1452 1458 1458 1458 1458 1458 1458 1458 1458 1458 1452 1452 1452 1452 1452 1452 1452 1452 1452 1452 1452 1452 1452 1452 1452 1452 1452 1452 1452 1452 1452 1452 1452 1452 1452 1452 1452 1452 1452 1452 1452 1452 1452 1452 1452 1452 1452 1452 1452 1452 1452 1452 1452 1452 1452 1452 1452 1452 1452 1452 1452 1452 1452 1452 1452 1452 1452 1452 1452 1452 1445 1445 1445 1445 1445 1445 1445 1445 1445 1445 1445 1445 1439 1439 1439 1439 1433 1433 1439 1439 1439 1439 1439 2908 2908 2908 2933 2933 2933 2958 2958 2958 2958 2958 2958 2958 2958 2958 2958 2958 2958 2958 2958 2958 2958 2958 2958 2958 2958 2958 2958 2958 2958 2958 2958 2958 2958 2958 2958 2958 2958 2958 2958 2958 2958 2958 2958 2958 2958 2958 2958 2958 2958 2958 2958 2958 2958 2958 2958 2958 2958 2958 2958 2958 2958 2958 2958 2958 2958 2958 2933 2933 2933 2933 2933 2958 2958 2958 2958 2958 2958 2958 2958 2958 2958 2958 2933 2908 2883 2859 2812 2789 2789 2789 2789 2767 2767 2767 2767 2767 2767 2789 2812 2835 2883 2908 2908 2933 2933 2933 2908 2908 2908 2908 2933 2908 2908 2908 2908 2908 2908 2933 2933 2933 2933 2933 2933 2933 2908 2908 2908 0 0 0 0 0 0 0 0 0 0 0
0 0 0 0 0 0 0 0 0 0 0 0 0 0 0 0 0 0 0 0 0 0 0 0 0 0 0 0 0 0 0 0 2789 2789 2789 2812 2812 2812 2812 2812 2812 2812 2812 2812 2812 2812 2812 2812 2812 2812 2812 2812 2812 2812 2812 2812 2812 2812 2812 2812 2812 2812 2812 0 0 0 1433 1433 1433 1427 1427 1427 1427 1433 1433 1433 1439 1312 1312 1312 1312 1317 1317 1317 1317 1317 1317 1322 1322 1328 1328 1328 1328 1333 1338 1338 1433 1433 1433 1433 1433 1439 1439 1445 1445 1445 1312 1312 1312 1317 1317 1317 1317 1322 1317 1317 1317 1317 1322 1452 1452 1452 1452 1452 1452 1452 1452 1445 1445 1445 1452 1452 1452 1452 1317 1317 1317 1317 1317 1317 1322 1322 1322 1458 1458 1458 1458 1458 1452 1452 1452 1452 1452 1445 1445 1445 1452 1452 1322 1322 1322 1322 1322 1322 1328 1328 1328 1452 1452 1452 1452 1452 1445 1445 1452 1452 1452 1452 1452 1452 1452 1452 1452 1452 1452 1452 1452 1452 1452 1452 1452 1452 1452 1333 1328 1328 1333 1333 1333 1333 1333 1333 1333 1333 1333 1333 1338 1338 1338 1343 1343 1343 1452 1452 1452 1452 1452 1452 1452 1452 1452 1452 1452 1452 1452 1452 1452 1452 1452 1452 1452 1452 1452 1452 1452 1452 1452 1452 1452 1452 1452 1452 1452 1452 1445 1445 1445 1445 1445 1445 1445 1445 1445 1445 1445 1445 1445 1445 1445 1445 1445 1445 1445 1445 1445 1445 1445 1259 1259 1259 1259 1259 1259 1259 1259 1264 1264 1264 1264 1264 1268 1268 1268 1268 1268 1273 1273 1273 1268 1268 1268 1268 1268 1268 1268 1268 1268 1268 1268 1268 1268 1264 1264 1264 1264 1264 1264 1264 1264 1264 1264 1264 1264 1264 1264 1264 1264 1264 1264 1264 1264 1264 1264 1264 1264 1264 1264 1264 1264 1264 1264 1264 1264 1259 1259 1259 1259 1259 1259 1259 1259 1264 1259 1259 1259 1264 1264 1264 1264 1264 1264 1264 1264 1264 1264 1264 1264 1264 1264 1264 1264 1264 1264 1264 1264 1264 1264 1264 1264 1264 1264 1264 1264 1264 1264 1264 1264 1268 1268 1268 1268 1268 1268 1268 1268 1273 1273 1273 1273 1273 1278 1273 1268 1268 1264 1264 1264 1264 1259 1259 1259 1259 1259 1264 1264 1264 1264 1268 1458 1458 1458 1458 1458 1458 1458 1458 1458 1458 1452 1452 1452 1452 1452 1452 1452 1452 1452 1452 1452 1452 1452 1452 1452 1452 1452 1452 1452 1452 1452 1452 1452 1452 1452 1452 1452 1452 1452 1452 1452 1452 1452 1452 1452 1452 1452 1452 1452 1452 1452 1452 1452 1452 1452 1452 1452 1452 1452 1452 1452 1452 1452 1452 1452 1452 1452 1452 1452 1452 1452 1452 1452 1452 1452 1445 1445 1445 1445 1445 1445 1445 1445 1445 1439 1439 1439 1439 1439 1445 1445 1452 1452 2908 2908 2908 2933 2933 2933 2933 2933 2933 2933 2933 2933 2958 2933 2933 2933 2933 2933 2933 2933 2933 2958 2958 2958 2958 2958 2958 2958 2933 2933 2933 2933 2933 2958 2958 2958 2958 2958 2958 2958 2958 2958 2958 2958 2958 2958 2958 2958 2958 2958 2958 2958 2933 2933 2933 2933 2933 2933 2958 2958 2958 2958 2958 2958 2933 2933 2933 2933 2933 2933 2933 2933 2933 2958 2958 2958 2958 2958 2958 2958 2958 2958 2933 2933 2883 2859 2859 2812 2789 2789 2789 2789 2789 2767 2767 2767 2767 2767 2789 2812 2835 2883 2908 2908 2933 2933 2908 2908 2908 2908 2908 2908 2908 2908 2908 2908 2908 2908 2908 2908 2908 2908 2908 2933 2908 2908 2883 2883 0 0 0 0 0 0 0 0 0 0 0
0 0 0 0 0 0 0 0 0 0 0 0 0 0 0 0 0 0 0 0 0 0 0 0 0 0 0 0 0 0 0 0 2789 2789 2789 2789 2789 2789 2789 2812 2812 2812 2789 2789 2812 2812 2789 2789 2812 2812 2812 2812 2812 2812 2812 2812 2812 2812 2812 2812 2812 2789 2789 0 0 0 1433 1433 1433 1427 1427 1427 1427 1427 1433 1433 1433 1312 1312 1312 1312 1317 1317 1317 1317 1317 1317 1322 1322 1328 1328 1328 1333 1333 1338 1338 1433 1433 1433 1433 1433 1439 1439 1445 1439 1439 1439 1439 1445 1439 1439 1439 1439 1445 1445 1445 1317 1317 1452 1452 1452 1452 1452 1452 1452 1452 1452 1445 1445 1452 1452 1452 1452 1452 1452 1452 1452 1452 1452 1452 1452 1452 1452 1452 1458 1458 1458 1452 1452 1452 1452 1452 1452 1445 1445 1445 1452 1452 1452 1452 1452 1452 1452 1452 1445 1445 1445 1445 1445 1445 1445 1452 1445 1445 1452 1452 1452 1452 1452 1445 1445 1445 1445 1445 1445 1445 1445 1452 1452 1452 1452 1452 1452 1458 1328 1328 1328 1328 1333 1333 1333 1333 1333 1333 1338 1338 1338 1338 1338 1343 1343 1343 1452 1452 1452 1452 1452 1452 1452 1452 1452 1452 1452 1452 1452 1452 1452 1452 1452 1452 1452 1452 1452 1452 1452 1452 1452 1452 1452 1452 1452 1452 1452 1452 1445 1445 1445 1445 1445 1445 1445 1445 1445 1445 1445 1445 1445 1445 1445 1445 1445 1445 1445 1445 1445 1452 1452 1259 1259 1264 1264 1264 1264 1264 1264 1264 1264 1264 1264 1268 1268 1268 1273 1273 1273 1273 1273 1273 1273 1268 1268 1268 1268 1268 1268 1268 1268 1268 1268 1268 1268 1268 1268 1268 1268 1264 1264 1268 1268 1268 1268 1268 1264 1264 1264 1264 1264 1264 1264 1264 1264 1268 1268 1268 1268 1268 1268 1268 1268 1268 1264 1264 1264 1259 1259 1259 1259 1259 1259 1259 1259 1264 1264 1264 1264 1264 1264 1264 1264 1264 1264 1264 1264 1264 1264 1264 1264 1264 1264 1264 1264 1268 1268 1268 1268 1268 1268 1268 1268 1268 1268 1268 1268 1268 1264 1264 1268 1268 1268 1268 1268 1268 1268 1268 1273 1273 1273 1273 1273 1273 1278 1273 1268 1268 1268 1268 1264 1264 1264 1264 1264 1264 1264 1264 1264 1268 1268 1273 1458 1458 1458 1458 1458 1458 1458 1458 1458 1458 1452 1452 1452 1452 1452 1452 1452 1452 1452 1452 1452 1452 1452 1452 1452 1452 1452 1452 1452 1452 1452 1452 1452 1452 1452 1452 1452 1452 1452 1452 1452 1452 1452 1452 1452 1452 1452 1452 1452 1452 1452 1452 1452 1452 1452 1452 1452 1452 1452 1452 1452 1452 1452 1452 1452 1452 1452 1452 1452 1452 1452 1452 1452 1452 1452 1445 1445 1445 1445 1445 1445 1445 1445 1445 1445 1445 1439 1439 1445 1445 1445 1452 1452 2883 2883 2883 2908 2908 2908 2908 2933 2933 2933 2933 2933 2933 2933 2933 2933 2933 2933 2933 2933 2933 2933 2933 2933 2933 2933 2933 2933 2933 2933 2933 2933 2933 2933 2933 2933 2933 2933 2933 2933 2933 2933 2933 2933 2933 2933 2933 2933 2933 2933 2933 2933 2933 2933 2933 2933 2933 2933 2933 2933 2958 2958 2958 2933 2933 2933 2933 2933 2908 2908 2933 2933 2933 2933 2933 2933 2933 2958 2933 2933 2933 2933 2933 2908 2883 2859 2859 2812 2789 2789 2789 2789 2767 2767 2767 2767 2789 2789 2812 2812 2859 2883 2908 2908 2908 2908 2908 2908 2908 2908 2908 2908 2908 2908 2908 2883 2883 2883 2883 2883 2908 2908 2908 2908 2908 2908 2883 2883 0 0 0 0 0 0 0 0 0 0 0
0 0 0 0 0 0 0 0 0 0 0 0 0 0 0 0 0 0 0 0 0 0 0 0 0 0 0 0 0 0 0 0 2767 2767 2767 2767 2767 2767 2767 2767 2767 2767 2767 2767 2789 2789 2789 2789 2789 2789 2789 2789 2789 2789 2789 2789 2789 2789 2789 2789 2789 2789 2789 0 0 0 1433 1433 1433 1427 1427 1427 1427 1427 1427 1433 1433 1433 1312 1312 1317 1317 1317 1317 1322 1322 1322 1322 1322 1328 1333 1333 1333 1338 1343 1343 1433 1433 1433 1433 1433 1439 1439 1439 1439 1439 1439 1439 1439 1439 1439 1439 1439 1445 1445 1445 1445 1445 1452 1445 1445 1445 1445 1452 1452 1452 1452 1445 1445 1452 1452 1452 1452 1452 1452 1452 1452 1452 1452 1452 1452 1452 1452 1452 1452 1452 1458 1452 1452 1452 1452 1452 1452 1452 1452 1452 1452 1452 1452 1452 1452 1452 1452 1452 1445 1445 1445 1445 1445 1445 1445 1445 1445 1445 1452 1452 1452 1452 1445 1445 1445 1445 1445 1445 1445 1445 1445 1445 1445 1445 1452 1452 1452 1458 1458 1464 1328 1328 1333 1333 1333 1338 1338 1338 1338 1338 1338 1338 1343 1343 1349 1349 1349 1354 1452 1452 1452 1452 1452 1452 1452 1452 1452 1452 1452 1452 1452 1452 1452 1452 1452 1452 1452 1452 1452 1452 1452 1452 1452 1452 1452 1452 1452 1452 1452 1445 1445 1445 1445 1445 1445 1445 1445 1445 1445 1445 1445 1445 1445 1445 1445 1445 1445 1452 1452 1452 1452 1264 1264 1264 1264 1264 1264 1264 1264 1264 1264 1268 1268 1268 1268 1273 1273 1273 1273 1278 1278 1273 1273 1273 1273 1273 1268 1268 1268 1268 1268 1268 1268 1268 1268 1268 1268 1268 1268 1268 1268 1268 1268 1268 1268 1268 1268 1268 1264 1264 1264 1264 1264 1264 1268 1268 1268 1268 1268 1268 1268 1268 1268 1268 1268 1268 1264 1264 1264 1259 1259 1264 1264 1264 1264 1264 1264 1264 1264 1264 1264 1264 1264 1264 1264 1264 1264 1264 1264 1264 1264 1264 1268 1268 1268 1268 1268 1268 1268 1268 1268 1268 1268 1268 1268 1268 1268 1268 1268 1268 1268 1268 1268 1268 1268 1268 1273 1273 1273 1278 1278 1278 1278 1278 1278 1273 1273 1268 1268 1268 1264 1264 1264 1264 1264 1264 1264 1268 1268 1268 1273 1273 1458 1458 1458 1458 1458 1458 1458 1458 1458 1458 1452 1452 1452 1452 1452 1452 1452 1452 1458 1458 1458 1458 1458 1458 1452 1452 1452 1452 1452 1452 1452 1452 1452 1452 1452 1452 1452 1452 1452 1452 1452 1452 1452 1452 1452 1452 1452 1452 1452 1452 1452 1452 1452 1452 1452 1452 1452 1452 1452 1452 1452 1452 1452 1452 1452 1452 1452 1452 1452 1452 1452 1452 1452 1452 1452 1452 1452 1452 1452 1452 1445 1445 1445 1445 1445 1445 1445 1445 1445 1452 1452 1458 1458 2908 2883 2883 2908 2908 2908 2908 2908 2908 2908 2908 2908 2908 2908 2908 2908 2908 2908 2933 2933 2933 2933 2933 2933 2933 2933 2933 2933 2933 2933 2933 2933 2933 2933 2933 2933 2933 2933 2933 2933 2933 2933 2933 2933 2933 2933 2933 2933 2933 2933 2933 2933 2933 2933 2933 2933 2933 2933 2933 2933 2958 2933 2933 2933 2933 2933 2933 2933 2908 2908 2908 2908 2933 2933 2933 2933 2933 2933 2933 2933 2933 2933 2908 2883 2883 2859 2859 2812 2789 2789 2789 2789 2767 2767 2767 2789 2789 2789 2812 2835 2859 2883 2908 2908 2908 2908 2908 2883 2883 2883 2883 2883 2883 2883 2883 2859 2859 2859 2859 2859 2859 2859 2883 2883 2883 2883 2859 2859 0 0 0 0 0 0 0 0 0 0 0
0 0 0 0 0 0 0 0 0 0 0 0 0 0 0 0 0 0 0 0 0 0 0 0 0 0 0 0 0 0 0 0 2767 2767 2767 2744 2744 2744 2744 2767 2767 2767 2767 2767 2767 2767 2767 2767 2767 2767 2767 2767 2767 2767 2789 2789 2789 2789 2789 2789 2789 2789 2789 2789 0 0 0 1433 1433 1427 1427 1427 1427 1427 1427 1433 1433 1433 1317 1317 1317 1317 1317 1322 1322 1322 1322 1322 1328 1333 1333 1338 1338 1338 1343 1343 1427 1427 1433 1433 1433 1433 1439 1439 1439 1439 1433 1433 1439 1439 1439 1439 1439 1445 1445 1445 1445 1445 1445 1445 1439 1439 1445 1445 1445 1445 1452 1452 1452 1452 1452 1452 1452 1452 1452 1452 1452 1445 1445 1445 1452 1452 1452 1452 1452 1452 1458 1452 1452 1452 1452 1452 1452 1452 1452 1452 1452 1452 1452 1452 1452 1452 1452 1452 1445 1445 1445 1445 1445 1445 1445 1445 1445 1445 1445 1445 1445 1445 1445 1445 1445 1445 1445 1445 1445 1445 1445 1445 1445 1445 1445 1445 1452 1452 1458 1464 1464 1477 1333 1333 1333 1338 1338 1338 1338 1338 1338 1343 1343 1349 1349 1349 1349 1354 1452 1458 1458 1452 1452 1458 1452 1452 1452 1452 1452 1452 1452 1452 1452 1452 1452 1452 1452 1452 1452 1452 1452 1452 1452 1452 1452 1452 1452 1452 1452 1452 1452 1452 1452 1452 1452 1452 1452 1452 1445 1445 1445 1445 1445 1445 1445 1445 1445 1452 1452 1452 1452 1264 1264 1264 1264 1268 1268 1268 1268 1268 1268 1268 1268 1268 1273 1273 1278 1278 1278 1278 1278 1278 1273 1273 1273 1273 1273 1268 1268 1268 1268 1273 1268 1268 1268 1268 1268 1268 1268 1268 1268 1268 1268 1268 1268 1268 1268 1268 1268 1268 1268 1268 1268 1268 1268 1268 1268 1268 1268 1268 1268 1268 1268 1268 1268 1268 1268 1264 1264 1264 1264 1264 1264 1264 1264 1264 1264 1264 1264 1264 1264 1264 1264 1264 1264 1264 1264 1268 1264 1264 1268 1268 1268 1268 1268 1268 1268 1268 1268 1268 1268 1268 1268 1268 1268 1268 1268 1268 1268 1268 1268 1268 1268 1268 1273 1273 1273 1273 1278 1278 1278 1278 1278 1278 1278 1278 1273 1268 1268 1268 1264 1264 1264 1264 1268 1268 1268 1268 1268 1273 1278 1464 1464 1464 1464 1458 1458 1464 1464 1464 1464 1458 1458 1458 1458 1458 1452 1452 1452 1452 1458 1458 1458 1458 1458 1458 1452 1452 1452 1452 1452 1452 1452 1452 1452 1458 1452 1452 1452 1452 1452 1458 1452 1452 1452 1452 1452 1452 1452 1452 1452 1452 1452 1458 1458 1452 1452 1452 1452 1452 1452 1452 1452 1452 1452 1452 1452 1452 1452 1452 1452 1452 1452 1452 1452 1452 1452 1452 1452 1452 1452 1452 1445 1445 1445 1452 1445 1445 1445 1445 1452 1452 1458 1458 1458 2908 2883 2883 2883 2883 2883 2883 2908 2908 2908 2908 2908 2908 2908 2908 2908 2908 2908 2908 2908 2908 2933 2933 2933 2933 2933 2933 2933 2933 2908 2908 2908 2908 2908 2908 2908 2908 2908 2908 2908 2908 2908 2908 2908 2908 2908 2908 2908 2908 2908 2908 2908 2933 2908 2908 2933 2933 2933 2933 2933 2933 2933 2933 2933 2933 2933 2933 2908 2908 2908 2908 2908 2908 2908 2908 2908 2933 2933 2908 2908 2933 2933 2908 2883 2859 2859 2859 2812 2812 2789 2789 2767 2767 2767 2767 2789 2789 2789 2835 2835 2859 2883 2908 2908 2908 2908 2883 2859 2859 2859 2859 2859 2859 2859 2859 2859 2859 2859 2859 2859 2859 2859 2883 2883 2883 2859 2835 2835 0 0 0 0 0 0 0 0 0 0 0
0 0 0 0 0 0 0 0 0 0 0 0 0 0 0 0 0 0 0 0 0 0 0 0 0 0 0 0 0 0 0 0 2744 2744 2744 2723 2723 2723 2723 2744 2744 2744 2744 2744 2767 2767 2767 2767 2767 2767 2767 2767 2767 2767 2767 2767 2767 2767 2767 2767 2789 2767 2767 2789 2789 0 1433 0 1433 1427 1427 1427 1427 1427 1427 1433 1433 1433 1439 1317 1317 1322 1322 1322 1322 1322 1322 1328 1328 1333 1333 1338 1338 1343 1343 1343 1427 1427 1433 1433 1433 1433 1439 1439 1439 1439 1433 1433 1439 1439 1439 1439 1439 1445 1445 1445 1445 1445 1445 1445 1439 1439 1445 1445 1445 1445 1445 1445 1452 1452 1452 1452 1452 1452 1452 1452 1452 1445 1445 1445 1452 1452 1452 1452 1452 1458 1458 1458 1452 1452 1452 1452 1452 1452 1452 1452 1452 1452 1452 1452 1452 1452 1452 1452 1445 1445 1445 1445 1445 1445 1445 1445 1445 1445 1445 1445 1445 1445 1445 1439 1439 1445 1445 1445 1445 1445 1445 1445 1445 1445 1445 1445 1452 1452 1458 1464 1470 1333 1333 1333 1333 1338 1338 1338 1343 1343 1343 1343 1349 1349 1349 1349 1354 1354 1452 1458 1458 1458 1458 1458 1458 1452 1452 1452 1452 1452 1452 1452 1452 1452 1452 1452 1452 1452 1452 1452 1452 1452 1452 1452 1458 1458 1458 1458 1452 1452 1452 1452 1452 1452 1452 1452 1452 1452 1445 1445 1445 1445 1445 1445 1445 1445 1445 1452 1452 1452 1452 1264 1264 1268 1268 1268 1268 1268 1268 1268 1268 1268 1268 1268 1273 1273 1278 1278 1278 1283 1283 1278 1278 1273 1273 1273 1273 1273 1273 1273 1273 1273 1273 1273 1273 1273 1273 1273 1268 1268 1268 1268 1268 1268 1268 1268 1268 1268 1268 1268 1268 1268 1268 1268 1268 1268 1268 1268 1268 1268 1268 1268 1268 1268 1268 1268 1268 1264 1264 1264 1264 1264 1264 1268 1268 1268 1264 1264 1264 1264 1264 1268 1268 1268 1268 1268 1268 1268 1268 1268 1268 1268 1268 1268 1268 1268 1268 1268 1268 1268 1268 1268 1268 1273 1268 1268 1268 1268 1268 1268 1268 1268 1268 1273 1273 1273 1278 1278 1278 1283 1278 1278 1283 1278 1278 1278 1273 1273 1268 1268 1268 1268 1268 1268 1268 1268 1268 1268 1268 1273 1268 1268 1458 1464 1464 1458 1458 1464 1464 1464 1464 1458 1458 1458 1458 1458 1458 1452 1452 1452 1458 1458 1458 1458 1458 1458 1458 1458 1458 1458 1458 1458 1458 1458 1458 1458 1458 1458 1452 1452 1458 1458 1452 1452 1452 1452 1452 1452 1452 1452 1452 1452 1452 1452 1452 1452 1452 1452 1452 1452 1452 1452 1452 1452 1452 1452 1452 1452 1452 1452 1452 1452 1452 1452 1452 1452 1452 1452 1452 1452 1452 1452 1445 1445 1445 1452 1452 1452 1452 1452 1452 1458 1458 1458 2883 2883 2859 2859 2859 2859 2859 2859 2859 2883 2883 2883 2883 2883 2883 2883 2883 2883 2883 2883 2883 2908 2908 2908 2908 2908 2908 2908 2908 2908 2908 2908 2883 2883 2883 2883 2883 2883 2883 2883 2883 2908 2908 2908 2883 2883 2908 2908 2883 2883 2908 2908 2908 2908 2908 2908 2908 2908 2933 2933 2933 2933 2933 2933 2933 2933 2908 2908 2908 2883 2883 2883 2883 2908 2908 2908 2908 2908 2908 2908 2908 2908 2908 2883 2883 2859 2859 2859 2812 2812 2789 2789 2767 2767 2767 2767 2789 2789 2812 2835 2835 2859 2883 2883 2883 2883 2859 2859 2859 2859 2859 2859 2859 2859 2859 2859 2835 2835 2835 2835 2835 2859 2859 2859 2859 2859 2859 2835 2835 0 0 0 0 0 0 0 0 0 0 0
0 0 0 0 0 0 0 0 0 0 0 0 0 0 0 0 0 0 0 0 0 0 0 0 0 0 0 0 0 0 0 0 2744 2723 2723 2723 2723 2723 2723 2723 2723 2723 2723 2723 2744 2744 2744 2767 2767 2767 2767 2767 2744 2744 2767 2767 2767 2767 2767 2767 2767 2767 2767 2789 2789 0 0 0 1433 1427 1427 1427 1427 1427 1427 1433 1433 1433 1439 1322 1322 1322 1322 1322 1322 1328 1328 1328 1328 1333 1333 1338 1338 1343 1343 1343 1354 1433 1433 1433 1433 1433 1439 1439 1433 1433 1439 1439 1439 1439 1439 1439 1439 1439 1439 1445 1445 1445 1452 1445 1439 1439 1439 1445 1445 1445 1445 1445 1445 1445 1445 1452 1452 1452 1445 1445 1452 1452 1445 1445 1452 1452 1452 1452 1452 1452 1458 1458 1458 1458 1452 1452 1452 1452 1452 1452 1452 1452 1452 1452 1452 1452 1452 1452 1452 1452 1445 1445 1445 1445 1445 1445 1445 1445 1445 1445 1452 1445 1445 1439 1439 1445 1439 1439 1445 1445 1445 1445 1445 1445 1445 1445 1452 1458 1458 1328 1328 1328 1333 1333 1338 1338 1343 1343 1343 1343 1349 1349 1349 1354 1354 1354 1354 1359 1458 1458 1458 1458 1464 1464 1458 1458 1452 1452 1452 1452 1452 1452 1452 1452 1452 1452 1452 1452 1452 1452 1452 1452 1452 1452 1458 1458 1458 1458 1458 1458 1458 1458 1458 1458 1458 1458 1458 1452 1445 1445 1439 1439 1445 1445 1445 1445 1445 1445 1452 1452 1452 1268 1268 1268 1268 1268 1268 1268 1268 1268 1268 1268 1268 1273 1273 1278 1278 1278 1283 1283 1283 1283 1278 1278 1273 1273 1273 1273 1273 1273 1273 1273 1273 1273 1273 1273 1273 1273 1273 1273 1273 1273 1268 1268 1268 1268 1268 1268 1268 1268 1268 1268 1268 1268 1268 1268 1268 1268 1268 1268 1268 1268 1273 1273 1268 1268 1268 1264 1264 1264 1264 1268 1268 1268 1268 1268 1264 1264 1264 1264 1264 1268 1268 1268 1268 1268 1268 1268 1268 1268 1268 1268 1268 1268 1268 1268 1273 1273 1273 1268 1268 1268 1268 1273 1273 1273 1273 1273 1273 1268 1268 1268 1268 1273 1273 1278 1278 1278 1283 1283 1283 1283 1283 1278 1278 1278 1273 1273 1268 1268 1268 1268 1268 1268 1268 1268 1268 1268 1273 1273 1268 1268 1458 1458 1458 1458 1458 1458 1464 1464 1464 1458 1452 1452 1452 1452 1458 1458 1458 1458 1458 1458 1458 1458 1458 1458 1458 1458 1458 1458 1458 1458 1458 1458 1458 1458 1458 1458 1458 1458 1458 1458 1458 1458 1458 1458 1458 1458 1452 1452 1452 1452 1452 1452 1452 1452 1452 1452 1452 1445 1445 1445 1452 1452 1452 1452 1452 1452 1452 1452 1452 1452 1452 1452 1452 1452 1452 1452 1452 1452 1452 1452 1452 1452 1452 1452 1452 1452 1452 1452 1452 1458 1458 1458 2883 2883 2859 2859 2859 2859 2859 2859 2859 2859 2859 2859 2859 2859 2859 2859 2859 2859 2859 2859 2883 2883 2883 2908 2908 2883 2883 2883 2883 2883 2859 2859 2859 2859 2859 2859 2859 2859 2859 2859 2859 2883 2883 2883 2859 2859 2883 2883 2859 2859 2883 2883 2883 2883 2883 2883 2908 2908 2908 2933 2933 2933 2933 2933 2933 2908 2908 2908 2908 2883 2883 2883 2883 2883 2883 2883 2883 2883 2883 2883 2883 2883 2883 2883 2883 2859 2859 2835 2812 2789 2789 2789 2767 2767 2767 2767 2789 2812 2812 2835 2835 2859 2859 2859 2859 2859 2835 2835 2859 2859 2859 2859 2859 2835 2835 2835 2835 2835 2835 2835 2835 2835 2835 2835 2859 2859 2835 2835 2835 0 0 0 0 0 0 0 0 0 0 0
0 0 0 0 0 0 0 0 0 0 0 0 0 0 0 0 0 0 0 0 0 0 0 0 0 0 0 0 0 0 0 0 2723 2723 2723 2723 2723 2723 2723 2723 2723 2723 2723 2723 2723 2723 2744 2744 2744 2744 2744 2744 2744 2744 2744 2744 2744 2744 2744 2767 2767 2767 2767 2789 0 0 0 0 1433 1427 1427 1427 1427 1427 1427 1433 1433 1433 1433 1322 1322 1322 1322 1322 1328 1328 1328 1328 1328 1333 1338 1338 1338 1343 1343 1349 1354 1365 1365 1365 1370 1439 1439 1439 1433 1433 1433 1433 1433 1439 1439 1439 1439 1439 1439 1445 2789 2789 1452 1452 1452 1439 1439 1445 1445 1445 1445 1445 1445 1445 1445 1452 1452 1452 1445 1445 1452 1452 2812 2812 2812 2812 1452 1452 1452 1452 1458 1458 1458 1458 1458 1458 1452 1452 1452 1843 1843 1843 1843 1843 1843 1843 1843 1843 1843 1843 1445 1445 1833 1445 1445 1445 1445 1445 1445 1452 1452 1452 1445 1445 1445 1445 1439 1439 1445 1853 1853 1853 1863 1863 1863 1863 1863 1464 1464 1328 1328 1328 1333 1333 1338 1338 1343 1349 1349 1349 1349 1349 1354 1354 1354 1354 1354 1359 1359 1464 1458 1458 1464 1458 1458 1458 1452 1452 1452 1452 1452 1452 1452 1452 1452 1452 1445 1445 1452 1452 1452 1452 1470 1470 1464 1464 1863 1464 1458 1458 1458 1458 1458 1458 1458 1458 1458 1452 1445 1445 1439 1439 1445 1445 1445 1445 1445 1445 1445 1853 1268 1268 1268 1268 1268 1268 1268 1268 1268 1268 1273 1273 1273 1273 1273 1278 1278 1283 1283 1283 1283 1283 1283 1278 1278 1273 1273 1273 1273 1273 1273 1273 1273 1273 1273 1273 1273 1273 1273 1273 1273 1273 1273 1273 1273 1273 1268 1268 1268 1268 1268 1268 1268 1268 1268 1273 1273 1273 1273 1273 1273 1273 1273 1273 1268 1268 1268 1268 1268 1264 1264 1268 1268 1268 1268 1268 1268 1268 1268 1268 1268 1268 1268 1268 1268 1268 1268 1268 1268 1268 1268 1268 1268 1268 1273 1273 1273 1273 1273 1273 1273 1273 1273 1273 1273 1273 1273 1273 1273 1273 1273 1273 1273 1278 1278 1278 1278 1278 1283 1283 1283 1283 1283 1283 1283 1283 1278 1273 1273 1268 1268 1268 1268 1268 1268 1268 1268 1273 1273 1273 1268 1268 1264 1255 1250 1250 1250 1250 1458 1464 1458 1458 1452 1452 1452 1452 1452 1452 1452 1452 1458 1458 1458 1458 1458 1458 1464 1464 1464 1458 1458 1458 1458 1458 1458 1452 1452 1458 1458 1458 1458 1458 1458 1458 1458 1458 1458 1458 1458 1458 1452 1452 1452 1452 1452 1452 1452 1452 1452 1445 1445 1445 1452 1452 1452 1452 1452 1452 1452 1452 1452 1452 1452 1452 1452 1458 1458 1458 1458 1458 1458 1452 1452 1452 1452 1452 1452 1452 1452 1458 1458 1458 1458 0 2883 2883 2859 2859 2859 2859 2859 2859 2859 2859 2859 2859 2859 2859 2859 2859 2859 2859 2859 2859 2859 2883 2883 2883 2883 2883 2883 2883 2883 2859 2859 2859 2859 2859 2859 2859 2859 2859 2859 2859 2859 2859 2859 2859 2859 2859 2859 2859 2859 2859 2859 2859 2859 2859 2859 2859 2859 2859 2883 2908 2908 2908 2908 2908 2908 2908 2908 2908 2883 2883 2883 2883 2883 2883 2883 2883 2883 2859 2859 2883 2883 2859 2859 2859 2859 2859 2835 2835 2812 2789 2789 2767 2767 2767 2767 2767 2789 2812 2812 2835 2835 2835 2835 2835 2835 2835 2835 2835 2835 2835 2835 2835 2835 2835 2835 2835 2835 2835 2835 2835 2835 2835 2835 2835 2835 2835 2835 2812 2812 2812 0 0 0 0 0 0 0 0 0 0
0 0 0 0 0 0 0 0 0 0 0 0 0 0 0 0 0 0 0 0 0 0 0 0 0 0 0 0 0 0 0 0 2723 2723 2701 2701 2701 2701 2701 2701 2701 2701 2701 2701 2723 2723 2723 2723 2744 2723 2723 2723 2723 2723 2723 2723 2723 2744 2744 2744 2744 2767 2767 2789 2789 0 1433 1433 1433 1427 1427 1427 1427 1427 1427 1433 1433 1433 1433 1439 1328 1328 1328 1328 1333 1333 1333 1333 1333 1338 1338 1338 1343 1343 1349 1354 1359 1365 1365 1370 0 0 2767 2767 2767 2767 1433 1433 1433 2767 2767 2767 2789 2789 2789 2789 2789 2789 2789 2789 2789 2789 2789 2789 2789 2789 2789 2767 2767 2789 1452 1452 1452 2812 2812 2812 2812 2812 2812 2812 2812 2812 1823 1823 1823 1458 1458 1458 1458 1458 1458 1843 1843 1843 1843 1843 1833 1833 1833 1833 1833 1833 1843 1843 1833 1833 1833 1833 1833 1833 1833 1833 1833 1833 1833 1833 1843 1833 1833 1843 1843 1843 1843 1843 1843 1843 1853 1853 1853 1853 1853 1853 1853 1853 1853 1328 1328 1333 1333 1338 1338 1343 1349 1349 1349 1349 1349 1349 1354 1354 1354 1354 1359 1359 1376 1376 1458 1458 1464 1458 1458 1458 1452 1452 1452 1452 1445 1445 1452 1445 1445 1445 1445 1445 1445 1445 1445 1452 1863 1863 1863 1863 1853 1843 1464 1464 1464 1464 1464 1464 1464 1458 1458 1853 1863 1445 1439 1439 1863 1863 1863 1863 1853 1853 1853 1853 1268 1268 1268 1268 1268 1268 1273 1273 1273 1273 1273 1273 1273 1273 1278 1278 1283 1283 1283 1288 1283 1283 1283 1283 1278 1273 1273 1278 1273 1273 1273 1273 1273 1273 1273 1273 1273 1273 1273 1273 1273 1273 1273 1273 1273 1273 1273 1273 1273 1273 1268 1268 1273 1273 1273 1273 1273 1273 1273 1273 1273 1273 1273 1273 1268 1268 1268 1268 1268 1268 1268 1268 1268 1268 1268 1268 1268 1268 1268 1268 1268 1268 1268 1268 1268 1273 1273 1268 1268 1268 1273 1273 1273 1273 1273 1273 1273 1273 1273 1273 1273 1273 1273 1273 1273 1273 1273 1278 1278 1278 1278 1278 1278 1278 1283 1283 1283 1283 1283 1283 1283 1283 1283 1283 1283 1283 1278 1273 1273 1273 1268 1268 1268 1268 1268 1268 1268 1273 1273 1273 1268 1268 1264 1255 1250 1250 1250 1250 1458 1464 1458 1458 1452 1452 1452 1452 1452 1452 1452 1452 1452 1452 1458 1458 1464 1464 1464 1470 1477 1477 2212 2859 1458 1458 1458 1452 1452 2883 2883 2883 2883 2883 2883 2883 1458 1458 1458 1458 1458 1458 1452 1452 1452 1452 1452 1445 1445 1452 1452 1445 1445 1445 1452 1452 1452 1452 1452 1452 1458 1452 1452 1452 1452 1452 1452 1458 1458 1458 1458 1458 1458 1458 1452 1452 1452 1452 1452 1452 1458 1458 1458 1458 1458 1458 2859 2859 2835 2835 2859 2835 2835 2859 2859 2859 2859 2859 2859 2859 2859 2835 2835 2835 2859 2859 2859 2859 2883 2883 2883 2883 2859 2859 2859 2859 2859 2859 2859 2835 2835 2835 2859 2859 2859 2859 2859 2859 2859 2859 2859 2859 2859 2859 2859 2859 2859 2859 2859 2859 2859 2859 2859 2859 2859 2859 2859 2859 2859 2859 2859 2859 2859 2859 2859 2859 2859 2859 2859 2859 2859 2859 2859 2859 2859 2859 2859 2859 2859 2859 2859 2859 2835 2835 2789 2789 2767 2767 2767 2767 2767 2767 2789 2812 2812 2835 2835 2835 2835 2835 2812 2812 2812 2812 2835 2835 2835 2835 2835 2835 2835 2835 2812 2812 2812 2812 2812 2835 2812 2812 2812 2812 2812 2812 2812 2812 0 0 0 0 0 0 0 0 0 0
0 0 0 0 0 0 0 0 0 0 0 0 0 0 0 0 0 0 0 0 0 0 0 0 0 0 0 0 0 0 0 0 2701 2701 2701 2701 2701 2701 2701 2701 2701 2701 2701 2701 2701 2723 2723 2723 2723 2723 2723 2723 2723 2723 2723 2723 2723 2723 2744 2744 2744 2767 2767 2767 2767 0 1433 1433 1433 1427 1427 1427 1427 1433 1433 1433 1433 1433 1433 1439 1328 1328 1328 1328 1333 1333 1333 1333 1333 1338 1338 1338 1343 1349 1354 1354 1359 1365 1370 1370 0 2723 2744 2744 2744 2767 2767 2767 2767 2767 2767 2767 2767 2767 2767 2789 2767 2767 2767 2767 2767 2767 2789 2789 2789 2789 2789 2789 2789 2789 2812 2812 2812 1823 1813 1813 2812 2812 1813 1813 1823 1823 1823 1823 1823 1823 1833 1833 1833 1833 1833 1833 1843 1843 1833 1833 1833 1833 1833 1833 1833 1833 1833 1833 1833 1833 1833 1833 1833 1833 1833 1833 1833 1823 1823 1833 1833 1833 1833 1833 1833 1833 1843 1843 1843 1843 1843 1843 1843 1843 1843 1853 1853 1853 1853 1333 1333 1333 1338 1338 1343 1343 1349 1349 1354 1354 1354 1354 1354 1354 1354 1359 1359 1359 1376 1381 1853 1843 1843 1843 1843 1843 1843 1843 1853 1853 1445 1445 1452 1445 1445 1445 1445 1445 1445 1445 1445 1863 1863 1863 1863 1863 1853 1843 1843 1853 1843 1843 1843 1843 1853 1853 1853 1853 1863 1873 1873 1863 1863 1863 1863 1863 1853 1853 1853 1853 1853 1268 1268 1268 1273 1273 1273 1273 1273 1273 1273 1273 1273 1273 1278 1278 1283 1283 1283 1288 1283 1283 1283 1283 1278 1278 1278 1278 1278 1278 1273 1273 1278 1278 1278 1278 1273 1273 1273 1273 1273 1273 1273 1273 1273 1273 1273 1273 1273 1273 1273 1273 1273 1273 1273 1273 1273 1273 1273 1273 1273 1273 1273 1273 1273 1273 1273 1268 1268 1268 1268 1268 1268 1268 1268 1268 1268 1268 1268 1268 1268 1268 1268 1268 1273 1273 1273 1273 1273 1273 1273 1273 1273 1273 1278 1278 1278 1278 1278 1278 1273 1273 1273 1273 1273 1278 1278 1278 1278 1278 1278 1278 1278 1283 1283 1283 1283 1283 1283 1283 1283 1283 1283 1283 1283 1283 1278 1278 1273 1273 1268 1268 1268 1268 1268 1268 1268 1273 1273 1273 1268 1268 1264 1255 1255 1255 1255 1255 1458 1464 1458 1458 1452 1452 1452 1452 1452 1452 1452 1452 1452 1452 1458 1464 1470 1470 1477 1477 2212 2212 2212 2212 2859 2883 2883 2883 2883 2883 2883 2883 2883 2883 2859 2859 2859 2883 2883 1458 1458 1458 1452 1445 1445 1445 1445 1445 1445 1452 2859 2859 1452 1452 1452 1452 1452 1452 1452 1452 1458 1458 1458 1452 1452 1452 1452 1458 1458 1458 1458 1458 1458 1458 1458 1452 1452 1458 1452 1452 1458 1458 1458 1458 1458 1458 2859 2859 2835 2835 2859 2835 2835 2859 2859 2859 2859 2859 2859 2835 2835 2835 2835 2835 2835 2835 2859 2859 2859 2859 2859 2859 2859 2859 2859 2835 2835 2835 2835 2835 2835 2835 2835 2835 2859 2835 2835 2859 2859 2859 2859 2859 2859 2859 2859 2859 2859 2859 2859 2859 2859 2859 2859 2859 2859 2859 2859 2859 2859 2859 2859 2859 2859 2859 2859 2859 2859 2859 2859 2859 2859 2859 2859 2859 2859 2859 2859 2859 2859 2859 2835 2835 2812 2812 2789 2789 2767 2767 2767 2767 2767 2789 2789 2812 2812 2812 2812 2812 2812 2812 2812 2812 2812 2812 2812 2812 2812 2812 2812 2812 2812 2812 2812 2812 2812 2812 2812 2812 2812 2812 2812 2812 2789 2789 2789 2789 0 0 0 0 0 0 0 0 0 0
0 0 0 0 0 0 0 0 0 0 0 0 0 0 0 0 0 0 0 0 0 0 0 0 0 0 0 0 0 0 0 0 2701 2701 2701 2701 2701 2701 2701 2701 2701 2701 2701 2701 2701 2723 2723 2723 2723 2723 2723 2723 2723 2723 2723 2723 2723 2723 2723 2744 2744 2744 2744 2744 0 0 1433 1433 1433 1427 1427 1427 1427 1433 1433 1433 1433 1433 1433 1439 1333 1333 1328 1328 1333 1333 1333 1333 1333 1338 1338 1338 1343 1349 1354 1359 1365 1365 1370 1370 0 2723 2723 2723 2723 2744 2744 2744 2744 2744 2767 2767 2767 2767 2767 2767 2767 2767 2767 2767 2767 2767 2767 2767 2767 2789 2789 2789 1813 1813 1813 1813 1813 1813 1813 1813 2812 2812 1813 1813 1823 1813 1813 1823 1823 1823 1823 1823 1823 1833 1833 1833 1833 1833 1833 1833 1823 1823 1823 1833 1833 1823 1823 1823 1823 1823 1823 1823 1823 1823 1833 1833 1833 1823 1823 1823 1823 1823 1823 1823 1823 1823 1833 1833 1833 1833 1833 1843 1843 1833 1833 1843 1843 1843 1843 1338 1338 1338 1343 1343 1343 1349 1349 1354 1354 1354 1354 1354 1354 1354 1359 1359 1359 1365 1376 1381 1853 1843 1843 1843 1843 1843 1843 1843 1853 1853 1853 1853 1853 1853 1853 1853 1853 1863 1863 1853 1853 1853 1853 1853 1853 1853 1843 1843 1843 1843 1843 1843 1853 1853 1853 1853 1853 1853 1863 1873 1873 1873 1873 1863 1863 1863 1863 1863 1863 1863 1883 1268 1268 1268 1273 1273 1273 1273 1273 1273 1273 1273 1273 1278 1278 1283 1283 1283 1288 1288 1283 1283 1283 1283 1278 1278 1278 1278 1278 1278 1278 1278 1278 1278 1278 1278 1273 1273 1273 1273 1273 1273 1273 1273 1273 1273 1273 1273 1273 1273 1273 1273 1273 1273 1273 1273 1273 1273 1273 1273 1273 1273 1273 1273 1273 1273 1273 1268 1268 1268 1268 1268 1268 1268 1268 1268 1273 1273 1273 1273 1273 1273 1273 1273 1273 1273 1273 1273 1273 1273 1273 1273 1273 1273 1278 1278 1278 1278 1278 1278 1273 1273 1273 1273 1273 1278 1278 1278 1278 1278 1278 1283 1283 1283 1283 1283 1283 1283 1283 1283 1288 1288 1288 1283 1283 1283 1283 1278 1278 1278 1273 1273 1268 1268 1268 1268 1273 1273 1273 1273 1273 1273 1278 1259 1255 1255 1458 1458 1458 1873 1863 1853 1853 1853 1863 1863 1873 1883 1883 1883 1894 1894 1904 2198 2198 2198 2198 2198 2212 2212 2212 2212 2859 2883 2883 2883 2859 2859 2859 2883 2859 2859 2859 2859 2859 2883 2883 2883 2859 2859 2859 1445 1445 1445 1445 2859 2859 2859 2859 2859 2859 2859 1452 1452 1452 1452 1452 1458 1458 1458 1458 1458 1452 1452 1452 1458 1458 1458 1458 1458 1458 1458 1458 1452 1452 1452 1452 1452 1458 1458 1452 1452 1452 1452 2859 2859 2835 2835 2835 2835 2835 2835 2835 2835 2835 2835 2835 2835 2835 2835 2835 2835 2835 2835 2835 2859 2859 2859 2859 2859 2835 2835 2835 2835 2835 2835 2835 2835 2835 2835 2835 2835 2835 2835 2835 2835 2835 2835 2835 2835 2835 2835 2835 2835 2835 2859 2859 2859 2835 2835 2835 2835 2835 2835 2835 2835 2835 2835 2835 2835 2835 2835 2835 2835 2835 2859 2835 2835 2835 2835 2835 2835 2835 2835 2835 2835 2835 2835 2835 2812 2812 2812 2767 2767 2744 2744 2744 2767 2767 2767 2789 2789 2812 2789 2789 2789 2789 2789 2789 2789 2789 2812 2812 2812 2812 2812 2812 2812 2812 2812 2812 2812 2812 2812 2812 2812 2812 2812 2789 2789 2767 2767 2789 2789 0 0 0 0 0 0 0 0 0 0
0 0 0 0 0 0 0 0 0 0 0 0 0 0 0 0 0 0 0 0 0 0 0 0 0 0 0 0 0 0 0 0 2701 2701 2701 2701 2701 2701 2701 2680 2680 2701 2701 2701 2701 2701 2701 2701 2701 2701 2701 2701 2723 2723 2723 2723 2723 2723 2723 2723 2723 2723 2723 2723 2680 2680 0 1433 1433 1427 1427 1427 1433 1433 1433 1433 1433 1433 1439 1333 1333 1333 1333 1333 1338 1338 1338 1333 1333 1338 1338 1338 1343 1349 1354 1359 1365 1365 1370 1370 0 2723 2723 2723 2723 2723 2723 2723 2723 2723 2744 2744 2744 2744 2744 2767 2767 2767 2767 2744 2744 2744 2744 2744 2744 2789 2789 1804 1804 1804 1804 1804 1804 1804 1813 1804 1804 1804 1804 1804 1804 1804 1804 1804 1813 1813 1813 1813 1823 1823 1823 1823 1833 1833 1823 1823 1823 1823 1823 1823 1823 1823 1823 1823 1823 1823 1823 1823 1823 1823 1823 1823 1823 1823 1823 1823 1823 1823 1823 1823 1823 1823 1833 1833 1833 1833 1833 1833 1833 1823 1823 1833 1833 1833 1833 1343 1343 1343 1343 1343 1349 1349 1354 1354 1354 1354 1354 1354 1354 1359 1359 1359 1365 1370 1376 1381 1853 1843 1843 1843 1843 1843 1843 1843 1843 1843 1843 1843 1853 1853 1853 1853 1853 1853 1853 1853 1853 1853 1853 1853 1853 1853 1833 1833 1843 1843 1843 1843 1853 1853 1853 1853 1853 1863 1873 1873 1873 1873 1873 1873 1873 1873 1873 1873 1873 1883 1883 1273 1273 1273 1273 1273 1273 1273 1273 1273 1273 1273 1278 1278 1283 1283 1283 1288 1288 1288 1288 1283 1283 1283 1278 1278 1278 1278 1278 1278 1273 1273 1278 1278 1278 1278 1278 1278 1273 1273 1273 1273 1273 1273 1273 1273 1273 1273 1273 1273 1273 1273 1273 1273 1273 1273 1273 1273 1273 1273 1273 1273 1273 1273 1273 1273 1273 1268 1268 1268 1268 1273 1273 1273 1273 1273 1273 1273 1273 1273 1273 1273 1273 1273 1273 1273 1278 1278 1278 1278 1278 1278 1278 1278 1278 1278 1278 1278 1278 1278 1278 1273 1273 1273 1273 1273 1278 1278 1278 1278 1283 1283 1283 1283 1283 1283 1283 1283 1283 1283 1288 1288 1288 1283 1283 1283 1283 1278 1278 1278 1273 1273 1273 1273 1273 1273 1273 1273 1273 1273 1273 1273 1278 1883 1873 1873 1873 1873 1873 1873 1863 1863 1863 1863 1863 1863 1873 1873 1883 1883 1883 2198 2198 2198 2198 2198 2198 2198 2212 2212 2212 2859 2859 2883 2883 2883 2859 2859 2859 2859 2859 2859 2859 2859 2859 2859 2883 2859 2859 2859 2859 2859 2859 2859 2859 2859 2859 2859 2859 2859 2859 2859 1452 1452 1452 1452 1452 1458 1458 1458 1458 1458 1452 1452 1452 1458 1458 1458 1458 1458 1458 1458 1458 1452 1452 1452 1452 1452 1458 1458 1452 1452 1452 1458 1458 2835 2835 2835 2835 2835 2835 2835 2835 2835 2835 2835 2835 2835 2812 2812 2812 2812 2812 2812 2835 2835 2835 2835 2835 2835 2835 2835 2835 2835 2835 2835 2835 2835 2835 2835 2835 2835 2835 2835 2835 2835 2835 2835 2835 2835 2835 2835 2835 2835 2835 2835 2835 2835 2835 2835 2835 2835 2835 2812 2812 2835 2835 2835 2835 2835 2835 2835 2835 2835 2835 2835 2835 2835 2835 2835 2835 2835 2835 2835 2835 2835 2835 2835 2812 2812 2789 2789 2767 2767 2744 2744 2744 2767 2767 2767 2789 2789 2789 2789 2767 2767 2767 2767 2789 2789 2789 2789 2812 2812 2812 2812 2812 2789 2789 2789 2789 2789 2789 2789 2789 2789 2789 2767 2767 2789 2767 2767 2767 2789 0 0 0 0 0 0 0 0 0 0
0 0 0 0 0 0 0 0 0 0 0 0 0 0 0 0 0 0 0 0 0 0 0 0 0 0 0 0 0 0 0 0 2680 2680 2680 2680 2680 2680 2680 2680 2680 2680 2680 2701 2701 2701 2701 2701 2701 2701 2701 2701 2701 2701 2701 2701 2701 2701 2701 2723 2701 2701 2701 2680 2680 2680 0 1433 1433 1433 1433 1433 1433 1433 1433 1433 1433 1439 1439 1333 1333 1333 1333 1333 1338 1338 1338 1338 1338 1338 1343 1343 1349 1349 1354 1359 1365 1365 1370 1370 0 2723 2723 2701 2701 2701 2701 2701 2723 2723 2723 2723 2744 2744 2744 2767 2767 2767 2744 2723 2723 2723 2723 2723 2744 2744 1794 1794 1804 1804 1804 1804 1804 1804 1804 1804 1804 1794 1794 1804 1804 1804 1804 1804 1804 1804 1813 1813 1823 1823 1823 1823 1823 1823 1823 1823 1813 1813 1813 1813 1813 1813 1813 1813 1813 1813 1813 1813 1813 1813 1813 1813 1813 1813 1813 1813 1813 1813 1813 1823 1823 1823 1823 1823 1823 1823 1823 1823 1823 1823 1823 1823 1823 1833 1833 1343 1343 1343 1349 1349 1349 1354 1354 1354 1354 1354 1354 1354 1354 1359 1359 1359 1365 1365 1376 1381 1833 1833 1833 1833 1833 1833 1833 1833 1833 1833 1833 1833 1833 1843 1843 1843 1843 1843 1833 1833 1833 1833 1833 1833 1843 1833 1823 1823 1823 1833 1833 1833 1853 1853 1863 1863 1863 1873 1873 1873 1873 1873 1873 1873 1873 1873 1883 1883 1883 1883 1883 1278 1278 1273 1273 1273 1273 1273 1273 1273 1273 1278 1278 1278 1283 1283 1288 1288 1292 1292 1292 1288 1283 1283 1273 1273 1278 1278 1278 1278 1273 1273 1273 1273 1273 1273 1278 1278 1273 1273 1273 1273 1278 1278 1278 1278 1273 1273 1273 1273 1273 1273 1273 1273 1273 1278 1273 1273 1273 1273 1273 1273 1273 1273 1273 1268 1268 1268 1268 1268 1268 1268 1268 1268 1273 1273 1278 1278 1278 1278 1273 1273 1273 1273 1278 1278 1278 1278 1278 1278 1278 1278 1278 1278 1278 1278 1278 1278 1278 1278 1278 1278 1273 1273 1273 1273 1278 1278 1278 1278 1283 1283 1283 1283 1283 1283 1283 1283 1283 1283 1288 1288 1288 1288 1283 1283 1283 1283 1278 1278 1278 1278 1273 1273 1273 1273 1273 1273 1273 1278 1278 1278 1283 1883 1873 1873 1873 1873 1873 1873 1863 1863 1863 1863 1863 1863 1873 1873 1883 1883 1883 2198 2198 2198 2198 2198 2198 2198 2212 2212 2859 2859 2859 2859 2859 2859 2859 2859 2859 2859 2859 2859 2859 2859 2859 2859 2859 2859 2859 2859 2859 2859 2859 2859 2859 2859 2859 2859 2859 2859 2859 2859 2883 1452 1452 1452 1452 1458 1458 1458 1458 1458 1452 1452 1452 1458 1458 1458 1458 1458 1458 1458 1458 1452 1452 1452 1452 1452 1452 1452 1452 1452 1452 1458 1458 1458 2835 2835 2835 2835 2835 2835 2835 2835 2835 2835 2812 2812 2812 2812 2812 2812 2812 2812 2812 2812 2812 2835 2835 2835 2812 2812 2812 2812 2812 2812 2812 2812 2812 2812 2812 2835 2835 2835 2835 2835 2835 2835 2835 2812 2812 2812 2812 2812 2812 2835 2835 2835 2835 2835 2835 2812 2812 2789 2789 2812 2812 2812 2835 2835 2835 2835 2835 2835 2835 2835 2835 2835 2835 2835 2835 2835 2835 2835 2835 2835 2835 2812 2812 2789 2789 2789 2744 2744 2744 2744 2744 2767 2767 2767 2789 2789 2767 2767 2767 2767 2767 2767 2767 2767 2767 2789 2789 2789 2789 2789 2789 2767 2767 2767 2767 2789 2789 2789 2789 2789 2767 2767 2744 2744 2744 2744 2744 2744 0 0 0 0 0 0 0 0 0 0
0 0 0 0 0 0 0 0 0 0 0 0 0 0 0 0 0 0 0 0 0 0 0 0 0 0 0 0 0 0 0 0 2680 2680 2659 2659 2680 2680 2680 2680 2680 2680 2680 2701 2701 2701 2701 2680 2680 2680 2680 2680 2680 2680 2680 2680 2680 2701 2701 2701 2701 2680 2680 2659 2659 2659 0 1439 1439 1433 1433 1433 1433 1439 1439 1433 1433 1439 1445 1338 1333 1333 1338 1338 1338 1338 1338 1338 1338 1338 1343 1343 1343 1354 1354 1359 1365 1365 1370 1370 0 2680 2680 2680 2680 2680 2680 2701 2701 2701 2723 2723 2723 2723 2744 2744 2744 2744 2701 2701 2701 2701 2701 2701 2701 1794 1794 1794 1794 1794 1804 1804 1804 1804 1804 1804 1804 1794 1794 1794 1794 1794 1794 1794 1794 1804 1804 1804 1813 1823 1823 1823 1823 1823 1813 1813 1804 1804 1813 1813 1813 1813 1804 1804 1813 1813 1813 1813 1813 1813 1813 1813 1813 1813 1813 1813 1813 1813 1813 1813 1813 1813 1813 1823 1813 1813 1813 1813 1813 1813 1813 1813 1813 1823 1823 1343 1343 1343 1349 1349 1354 1354 1354 1354 1354 1359 1354 1354 1354 1359 1359 1359 1365 1365 1376 1823 1823 1823 1823 1823 1823 1823 1823 1823 1823 1823 1823 1823 1823 1833 1833 1833 1833 1823 1823 1823 1823 1823 1823 1823 1823 1823 1823 1823 1823 1823 1833 1833 1853 1863 1863 1863 1863 1873 1873 1873 1873 1873 1873 1883 1883 1883 1883 1883 1883 1883 1883 1278 1278 1273 1273 1273 1273 1273 1273 1273 1273 1278 1283 1283 1288 1288 1292 1297 1297 1297 1297 1273 1273 1273 1273 1273 1273 1273 1273 1268 1268 1268 1273 1273 1273 1273 1278 1278 1278 1278 1278 1278 1278 1278 1278 1278 1273 1273 1273 1273 1273 1273 1273 1273 1273 1273 1273 1273 1273 1273 1273 1268 1268 1268 1268 1268 1268 1268 1264 1264 1264 1268 1268 1268 1268 1273 1278 1278 1278 1278 1278 1273 1273 1273 1278 1278 1278 1278 1278 1278 1278 1278 1273 1273 1278 1278 1278 1278 1278 1278 1278 1278 1278 1278 1278 1278 1278 1278 1283 1283 1283 1283 1283 1283 1288 1283 1283 1283 1283 1283 1288 1288 1288 1288 1288 1283 1283 1283 1283 1278 1278 1278 1273 1273 1278 1278 1278 1278 1278 1278 1283 1283 1883 1883 1873 1873 1873 1873 1873 1873 1863 1863 1863 1863 1863 1863 1873 1873 1873 1873 1883 2198 2198 2198 2198 2198 2198 2198 2212 2212 2835 2835 2835 2859 2835 2835 2835 2835 2835 2835 2835 2835 2835 2835 2835 2859 2859 2835 2835 2835 2835 2835 2835 2835 2835 2835 2859 2859 2859 2859 2859 2883 2883 2883 1452 1452 1452 1452 1458 1458 1458 1458 1458 1452 1452 1452 1452 1452 1458 1458 1452 1452 1452 1452 1452 1452 1452 1452 1452 1452 1452 1452 1452 1458 1458 1458 2835 2835 2835 2835 2812 2812 2812 2812 2812 2812 2812 2812 2812 2789 2789 2789 2789 2789 2789 2789 2789 2812 2812 2812 2812 2812 2812 2812 2812 2812 2812 2812 2789 2789 2812 2812 2812 2812 2812 2812 2812 2812 2812 2812 2812 2812 2789 2789 2789 2812 2812 2812 2812 2812 2812 2812 2789 2789 2789 2789 2789 2812 2812 2812 2812 2812 2812 2812 2812 2812 2812 2812 2812 2812 2812 2812 2812 2812 2812 2812 2812 2812 2789 2767 2767 2789 2744 2744 2744 2744 2744 2744 2744 2767 2767 2767 2767 2767 2744 2744 2744 2744 2744 2767 2767 2789 2789 2789 2789 2767 2767 2744 2744 2744 2744 2767 2767 2767 2767 2767 2767 2767 2744 2744 2744 2744 2744 2744 0 0 0 0 0 0 0 0 0 0
0 0 0 0 0 0 0 0 0 0 0 0 0 0 0 0 0 0 0 0 0 0 0 0 0 0 0 0 0 0 0 0 2659 2659 2659 2659 2659 2659 2659 2659 2659 2680 2680 2680 2680 2680 2680 2659 2659 2659 2659 2659 2659 2659 2680 2680 2680 2680 2680 2680 2680 2659 2659 2659 2639 2639 0 2639 1433 1433 1433 1433 1433 1439 1439 1433 1433 1439 1445 1338 1338 1338 1338 1338 1338 1338 1338 1338 1338 1338 1343 1343 1343 1354 1359 1365 1365 1365 1370 1370 2680 2680 2680 2680 2680 2659 2659 2680 2680 2701 2701 2701 2701 2701 2723 2723 2701 2701 2680 2680 2680 2680 2680 2680 2680 1794 1794 1794 1794 1794 1794 1794 1794 1794 1804 1794 1794 1794 1794 1794 1794 1794 1794 1794 1794 1794 1794 1794 1804 1813 1813 1813 1813 1813 1804 1804 1794 1794 1804 1804 1804 1794 1794 1804 1804 1804 1804 1804 1804 1804 1804 1804 1804 1804 1804 1804 1804 1804 1813 1813 1813 1813 1813 1813 1813 1813 1813 1804 1804 1804 1804 1804 1804 1813 1813 1343 1343 1343 1349 1349 1354 1354 1354 1354 1359 1359 1359 1359 1359 1359 1359 1365 1365 1365 1370 1823 1823 1823 1823 1823 1823 1823 1823 1823 1823 1823 1823 1823 1823 1823 1823 1823 1823 1823 1823 1823 1813 1813 1813 1813 1823 1823 1813 1813 1813 1823 1823 1823 1853 1863 1873 1873 1873 1873 1873 1883 1883 1883 1883 1883 1883 1883 1883 1883 1883 1883 0 1283 1283 1278 1278 1278 1278 1278 1278 1278 1278 1283 1283 1283 1288 1292 1292 1292 1297 0 0 0 0 1273 1273 1273 1273 1273 1268 1268 1268 1268 2789 2789 2789 2789 2789 2789 2789 2789 2812 2812 1863 1863 1873 1873 1873 1883 1883 1883 1883 1273 1273 1273 1273 1273 1273 1273 1273 1273 1273 1268 1268 1268 1268 1268 1268 1268 1264 1264 1264 1268 1268 1268 1268 1273 1278 1273 1273 1278 1278 1278 1278 1278 1278 1278 1283 1278 1278 1278 1278 1278 1273 1273 1278 1278 1278 1278 1278 1278 1278 1278 1278 1278 1278 1278 1278 1278 1283 1283 1283 1283 1283 1288 1288 1283 1283 1283 1283 1283 1288 1288 1288 1288 1288 1288 1283 1283 1283 1283 1278 1278 1278 1278 1278 1278 1278 1278 1278 1278 1283 1283 1883 1873 1873 1873 1873 1873 1873 1873 1863 1863 1863 1863 1863 1863 1873 1873 1873 1873 2198 2198 2198 2198 2198 2198 2198 2212 2212 2212 2835 2835 2835 2835 2835 2835 2812 2812 2835 2835 2835 2835 2835 2835 2835 2835 2859 2835 2835 2835 2835 2835 2835 2835 2835 2835 2835 2835 2859 2859 2859 2883 0 0 0 0 1452 1452 1458 1458 1458 1458 1458 1452 1452 1452 1452 1452 1452 1452 1452 1452 1452 1452 1452 1452 1452 1452 1452 1458 1458 1458 1458 1458 1458 1458 2835 2812 2812 2812 2812 2812 2812 2812 2812 2812 2812 2812 2812 2789 2789 2789 2789 2789 2789 2789 2789 2789 2789 2789 2812 2789 2789 2812 2812 2812 2812 2789 2789 2789 2789 2789 2789 2789 2789 2789 2789 2789 2789 2789 2789 2789 2789 2789 2789 2789 2812 2812 2812 2812 2812 2789 2789 2789 2789 2789 2789 2789 2789 2789 2789 2812 2789 2789 2789 2812 2812 2789 2789 2789 2789 2789 2789 2789 2789 2789 2812 2789 2789 2767 2767 2767 2744 2744 2744 2744 2744 2744 2744 2744 2767 2767 2744 2744 2744 2744 2744 2744 2744 2744 2767 2767 2767 2767 2767 2744 2744 2744 2744 2744 2744 2744 2744 2744 2744 2767 2744 2744 2744 2744 2744 2744 2744 2744 0 0 0 0 0 0 0 0 0 0
0 0 0 0 0 0 0 0 0 0 0 0 0 0 0 0 0 0 0 0 0 0 0 0 0 0 0 0 0 0 0 0 2639 2639 2639 2639 2639 2659 2659 2659 2659 2659 2659 2680 2659 2659 2680 2659 2659 2659 2659 2659 2659 2659 2659 2659 2659 2659 2659 2680 2680 2659 2659 2659 2639 2639 2639 0 1433 1433 1433 1439 1439 1439 1439 1439 1439 1439 1445 1338 1338 1338 1338 1338 1338 1338 1338 1338 1338 1338 1343 1343 1343 1354 1359 1365 1365 1365 1370 1370 2680 2680 2680 2680 2680 2659 2659 2680 2680 2680 2701 2701 2701 2701 2701 2701 2701 2701 2680 2680 2659 2659 2680 2680 2680 1785 1785 1785 1794 1794 1794 1794 1794 1794 1794 1794 1794 1794 1794 1794 1785 1785 1785 1785 1785 1794 1794 1794 1794 1804 1804 1804 1804 1804 1794 1794 1785 1785 1785 1794 1794 1794 1794 1794 1794 1794 1794 1794 1794 1794 1794 1794 1794 1794 1794 1794 1804 1804 1804 1813 1813 1804 1804 1813 1804 1804 1804 1794 1794 1794 1794 1794 1794 1804 1804 1804 1343 1343 1349 1349 1354 1354 1354 1359 1359 1359 1359 1359 1359 1359 1365 1365 1365 1365 1370 1823 1823 1823 1813 1813 1823 1823 1813 1813 1813 1813 1813 1813 1813 1813 1813 1813 1813 1813 1813 1813 1813 1813 1813 1813 1813 1813 1813 1813 1813 1813 1823 1823 1853 1863 1873 1873 1883 1883 1883 1883 1883 1883 1883 1883 1883 1883 1883 1883 1883 1883 1288 1283 1283 1283 1283 1283 1283 1283 1283 1283 1283 1283 1288 1288 1288 1292 1292 1297 1297 0 0 0 0 2812 2812 2812 2789 2789 1268 1268 2812 2789 2789 2789 2789 2789 2789 2789 2789 2789 2812 2812 1863 1863 1873 1873 1873 1883 1883 1883 1883 1883 1883 1883 1883 1894 1894 1883 1883 1883 1883 1883 1883 1873 1873 1873 1873 1873 1873 1873 1863 1863 1863 1268 1268 1863 1863 1273 1273 1278 1278 1278 1278 1278 1278 1283 1283 1283 1283 1873 1873 1873 1873 1873 1873 1283 1278 1278 1278 1278 1283 1283 1278 1278 1283 1283 1278 1278 1283 1283 1288 1288 1288 1288 1288 1873 1873 1863 1863 1863 1863 1863 1288 1288 1288 1288 1283 1283 1283 1283 1283 1283 1278 1278 1278 1278 1283 1283 1283 1283 1283 1883 1883 1873 1873 1873 1873 1873 1873 1873 1863 1863 1863 1863 1863 1863 1863 1863 1873 2198 2198 2198 2198 2198 2198 2198 2198 2212 2212 2835 2812 2812 2812 2812 2812 2812 2812 2812 2812 2812 2812 2812 2835 2812 2812 2835 2835 2835 2812 2812 2812 2812 2812 2812 2812 2812 2812 2812 2835 2859 2859 2883 2883 0 0 1452 1452 1452 1452 1452 1452 1452 1452 1452 1452 1452 1452 1452 1452 1452 1452 1452 1452 1452 1452 1452 1452 1452 1452 1458 1458 1458 1458 1458 1458 1458 1458 2812 2789 2789 2789 2789 2789 2789 2812 2812 2789 2789 2812 2789 2789 2767 2767 2767 2767 2767 2767 2767 2767 2767 2789 2789 2789 2789 2789 2789 2789 2789 2789 2789 2789 2789 2789 2789 2789 2789 2789 2789 2767 2767 2767 2767 2767 2767 2767 2789 2789 2789 2789 2789 2789 2789 2767 2767 2767 2767 2767 2789 2789 2789 2789 2789 2789 2789 2789 2812 2812 2789 2789 2789 2789 2789 2789 2789 2789 2767 2767 2767 2767 2744 2744 2767 2744 2744 2744 2744 2744 2744 2744 2744 2744 2744 2744 2744 2744 2744 2744 2744 2744 2744 2744 2744 2744 2744 2744 2744 2744 2723 2723 2723 2723 2723 2744 2744 2744 2744 2744 2744 2744 2744 2744 2744 2744 2744 0 0 0 0 0 0 0 0 0 0
0 0 0 0 0 0 0 0 0 0 0 0 0 0 0 0 0 0 0 0 0 0 0 0 0 0 0 0 0 0 0 0 2639 2639 2639 2639 2639 2639 2639 2639 2639 2659 2659 2659 2659 2659 2659 2659 2639 2639 2639 2639 2639 2639 2659 2659 2659 2659 2659 2659 2639 2639 2659 2659 2659 2659 2659 0 1433 1433 1433 1439 1439 1439 1439 1439 1439 1445 1445 1338 1338 1338 1338 1338 1338 1338 1338 1338 1338 1343 1343 1343 1343 1354 1359 1359 1365 1365 1370 1370 2659 2659 2659 2659 2639 2639 2639 2659 2659 2680 2680 2680 2680 2680 2680 2680 2701 2701 2680 2680 2659 2659 2680 2680 1785 1785 1785 1785 1785 1785 1794 1794 1794 1794 1794 1794 1785 1785 1785 1785 1785 1785 1785 1785 1785 1785 1785 1785 1794 1794 1794 1794 1794 1794 1785 1785 1785 1785 1785 1785 1785 1785 1785 1785 1785 1785 1785 1794 1794 1785 1785 1785 1785 1785 1785 1794 1794 1794 1804 1804 1804 1804 1804 1804 1804 1794 1794 1794 1794 1794 1794 1794 1794 1794 1804 1804 1349 1349 1349 1354 1354 1354 1359 1359 1359 1359 1359 1359 1359 1359 1365 1365 1370 1370 1376 1398 1813 1813 1804 1804 1813 1813 1813 1804 1804 1804 1804 1804 1804 1804 1804 1804 1804 1804 1804 1813 1804 1804 1813 1813 1813 1813 1813 1813 1813 1813 1823 1823 1853 1873 1873 1883 1883 1883 1883 1883 1883 1883 1883 1883 1883 1883 1883 1883 1883 1883 1288 1288 1283 1283 1283 1283 1283 1283 1283 1288 1288 1288 1288 1288 1288 1288 1292 1292 1292 1292 1776 1776 1776 2812 2812 2812 1804 1804 1804 2789 2812 2789 2789 2789 2789 2789 2789 2789 2789 2789 2812 2812 1863 1863 1873 1873 1883 1883 1883 1883 1883 1883 1883 1883 1883 1883 1883 1883 1883 1883 1883 1883 1883 1873 1873 1873 1873 1873 1873 1873 1873 1873 1873 1873 1873 1873 1873 1873 1873 1873 1873 1873 1883 1883 1883 1883 1883 1883 1883 1873 1873 1883 1883 1873 1873 1873 1883 1883 1883 1883 1883 1883 1883 1883 1883 1883 1883 1883 1883 1883 1883 1883 1883 1873 1873 1873 1873 1873 1873 1863 1863 1863 1863 1288 1288 1288 1288 1283 1283 1283 1283 1283 1283 1283 1283 1283 1283 1283 1283 1288 1288 1883 1883 1873 1873 1873 1873 1883 1873 1873 1863 1863 1863 1863 1863 1863 1863 1863 1873 2212 2212 2198 2198 2198 2198 2198 2212 2212 2212 2835 2812 2789 2789 2789 2789 2789 2789 2789 2789 2789 2789 2789 2812 2789 2789 2812 2812 2812 2812 2812 2789 2789 2789 2812 2812 2812 2812 2812 2835 2835 2859 2859 2859 0 1452 1452 1452 1452 1452 1452 1452 1452 1452 1452 1452 1452 1452 1452 1452 1452 1452 1452 1452 1452 1452 1452 1452 1452 1452 1458 1458 1458 1458 1458 1458 1458 2767 2767 2767 2744 2744 2767 2767 2789 2789 2789 2789 2789 2812 2789 2789 2767 2767 2767 2767 2767 2767 2767 2767 2767 2767 2767 2767 2789 2789 2789 2789 2789 2767 2767 2789 2767 2767 2767 2767 2767 2767 2767 2767 2767 2767 2767 2767 2767 2767 2789 2789 2789 2767 2767 2767 2767 2767 2767 2767 2767 2767 2767 2767 2767 2767 2767 2767 2767 2789 2789 2789 2789 2789 2789 2767 2767 2767 2767 2767 2767 2767 2767 2744 2744 2744 2767 2744 2744 2744 2744 2744 2744 2744 2744 2744 2744 2744 2744 2723 2723 2723 2723 2723 2723 2723 2744 2744 2744 2744 2744 2723 2723 2723 2723 2723 2723 2744 2744 2744 2744 2744 2744 2744 2744 2723 2723 2723 2723 0 0 0 0 0 0 0 0 0 0
0 0 0 0 0 0 0 0 0 0 0 0 0 0 0 0 0 0 0 0 0 0 0 0 0 0 0 0 0 0 0 0 2618 2618 2639 2639 2639 2639 2639 2639 2639 2639 2639 2659 2639 2639 2639 2639 2639 2639 2639 2639 2639 2639 2639 2639 2639 2659 2659 2659 2639 2639 2639 2659 2639 2639 2639 0 1439 1439 1439 1439 1439 1439 1439 1439 1439 1445 1445 1338 1338 1338 1338 1338 1343 1338 1338 1338 1338 1343 1343 1343 1349 1354 1359 1359 1365 1365 1365 1365 2659 2659 2659 2659 2639 2639 2639 2659 2659 2680 2680 2680 2680 2680 2680 2680 2680 2680 2680 2680 2659 2659 2680 2680 1776 1776 1776 1776 1785 1785 1785 1785 1785 1785 1785 1785 1785 1785 1785 1785 1776 1776 1776 1776 1785 1785 1785 1785 1785 1794 1794 1794 1794 1794 1785 1776 1776 1776 1776 1776 1776 1776 1776 1785 1785 1785 1785 1785 1785 1785 1785 1785 1785 1785 1785 1785 1785 1785 1794 1804 1794 1794 1794 1794 1794 1794 1785 1785 1785 1785 1785 1785 1785 1794 1794 1794 1354 1354 1354 1354 1354 1359 1359 1359 1359 1359 1359 1359 1359 1359 1365 1365 1370 1370 1381 1398 1404 1794 1794 1794 1804 1804 1804 1794 1794 1794 1794 1794 1794 1794 1794 1804 1804 1804 1804 1804 1804 1804 1804 1813 1813 1813 1804 1804 1804 1813 1823 1823 1853 1873 1873 1883 1883 1883 1883 1883 1883 1883 1883 1883 1883 1883 1883 1883 1883 1883 1288 1288 1283 1283 1283 1288 1288 1288 1288 1288 1288 1288 1288 1288 1288 1288 1288 1292 1292 1292 1776 1776 1776 1776 1776 1785 1785 1785 1804 2789 2789 2812 2812 2812 2812 2789 2789 2812 2789 2789 2812 2812 1863 1863 1873 1883 1883 1883 1883 1883 1883 1883 1883 1883 1883 1883 1883 1883 1883 1883 1883 1883 1883 1873 1873 1873 1873 1873 1873 1873 1873 1873 1873 1873 1873 1873 1873 1873 1873 1873 1873 1873 1883 1883 1883 1883 1883 1883 1883 1873 1873 1883 1883 1873 1873 1883 1883 1883 1883 1883 1883 1883 1883 1883 1883 1883 1883 1883 1883 1883 1883 1883 1883 1883 1883 1883 1883 1883 1883 1873 1873 1873 1873 1288 1288 1288 1288 1288 1283 1283 1283 1283 1283 1283 1283 1283 1283 1283 1283 1288 1288 1883 1883 1883 1883 1883 1883 1883 1883 1873 1873 1863 1863 1863 1863 1863 1853 1853 2212 2198 2198 2198 2198 2198 2198 2212 2212 2212 2212 2812 2789 2789 2789 2789 2789 2789 2789 2789 2789 2789 2789 2789 2789 2789 2789 2789 2789 2789 2789 2789 2789 2789 2789 2789 2789 2789 2812 2812 2812 2835 2859 2859 0 1445 1445 1445 1452 1452 1452 1452 1452 1452 1452 1452 1452 1452 1452 1452 1452 1452 1452 1452 1458 1452 1452 1458 1458 1458 1458 1458 1458 1458 1458 1458 1458 1458 2767 2767 2744 2744 2744 2744 2767 2767 2767 2767 2767 2767 2789 2767 2767 2767 2767 2767 2767 2767 2767 2767 2767 2767 2767 2767 2767 2767 2767 2767 2767 2767 2767 2767 2767 2767 2767 2767 2767 2767 2767 2767 2767 2767 2767 2767 2767 2767 2767 2767 2767 2767 2767 2767 2767 2767 2767 2767 2767 2767 2767 2767 2767 2767 2767 2767 2767 2767 2767 2767 2767 2767 2767 2767 2767 2767 2767 2767 2767 2744 2744 2744 2744 2744 2744 2767 2723 2723 2723 2723 2744 2744 2723 2723 2744 2744 2744 2744 2723 2723 2723 2723 2723 2723 2723 2744 2744 2744 2723 2723 2723 2723 2723 2723 2723 2723 2723 2744 2744 2744 2744 2744 2723 2723 2723 2723 2723 2723 0 0 0 0 0 0 0 0 0 0
0 0 0 0 0 0 0 0 0 0 0 0 0 0 0 0 0 0 0 0 0 0 0 0 0 0 0 0 0 0 0 0 2618 2618 2618 2618 2618 2618 2639 2639 2639 2639 2639 2639 2639 2639 2639 2639 2639 2639 2639 2639 2639 2639 2639 2639 2639 2639 2659 2639 2639 2639 2639 2639 2639 2639 0 0 0 1439 1439 1445 1445 1445 1445 1445 1445 1445 1452 1452 1343 1343 1343 1343 1343 1343 1343 1343 1343 1343 1343 1349 1349 1354 1359 1359 1365 1365 1365 1381 1381 2659 2659 2659 2639 2639 2639 2659 2659 2680 2680 2680 2680 2680 2680 2680 2680 2680 2680 2680 2680 2680 2680 1776 1776 1766 1766 1766 1776 1776 1776 1776 1776 1776 1776 1776 1776 1776 1776 1776 1776 1776 1776 1776 1776 1776 1776 1785 1785 1785 1794 1785 1785 1785 1776 1776 1776 1776 1776 1776 1766 1766 1776 1776 1776 1776 1776 1776 1776 1776 1776 1776 1776 1776 1776 1776 1776 1776 1785 1785 1785 1785 1785 1785 1785 1785 1785 1785 1785 1785 1785 1785 1785 1785 1794 1794 1794 1354 1354 1354 1354 1359 1359 1359 1359 1359 1359 1359 1359 1365 1365 1370 1370 1370 1381 1398 1404 1785 1785 1785 1785 1785 1794 1794 1794 1794 1794 1794 1794 1794 1794 1794 1794 1794 1794 1794 1794 1794 1804 1804 1804 1804 1804 1804 1804 1813 1823 1853 1873 1873 1883 1883 1883 1883 1883 1883 1883 1883 1883 1883 1883 1883 1883 1883 1883 0 1288 1288 1288 1288 1288 1288 1288 1288 1288 1288 1288 1288 1288 1288 1288 1288 1288 1288 1292 1776 1776 1776 1776 1776 1776 1776 1785 1785 1785 1785 2789 2812 2812 2812 2789 2789 2812 2812 2812 2812 2835 2835 1863 1853 1853 1873 1883 1883 1883 1883 1883 1883 1883 1883 1883 1883 1883 1883 1883 1883 1883 1883 1883 1873 1873 1873 1873 1873 1873 1873 1873 1873 1873 1873 1873 1873 1873 1873 1873 1873 1873 1873 1883 1883 1873 1873 1873 1873 1873 1873 1873 1883 1883 1873 1873 1883 1873 1873 1873 1873 1873 1873 1873 1873 1873 1883 1883 1883 1883 1883 1883 1883 1883 1883 1883 1883 1883 1883 1883 1873 1873 1873 1873 1288 1288 1288 1288 1288 1288 1288 1288 1283 1283 1283 1283 1283 1283 1288 1288 1288 1288 1883 1883 1883 1883 1883 1883 1883 1883 1883 1873 1873 1873 1863 1863 1863 1853 1853 2198 2198 2198 2198 2198 2198 2198 2212 2212 2212 2212 2789 2767 2767 2767 2767 2767 2767 2767 2767 2767 2767 2789 2789 2767 2767 2767 2767 2789 2789 2767 2767 2789 2789 2789 2789 2789 2789 2789 2812 2812 2835 2835 0 1445 0 1445 1445 1452 1452 1452 1452 1452 1452 1452 1452 1452 1452 1452 1452 1452 1452 1452 1458 1458 1458 1458 1458 1458 1458 1458 1458 1458 1458 1458 1458 1458 1458 1458 2767 2744 2744 2744 2744 2744 2767 2767 2767 2767 2767 2767 2767 2744 2744 2744 2744 2744 2744 2744 2744 2744 2744 2767 2767 2767 2767 2767 2767 2767 2767 2767 2767 2767 2767 2767 2767 2767 2767 2767 2767 2767 2767 2767 2767 2767 2767 2767 2767 2767 2767 2767 2767 2744 2744 2744 2744 2744 2767 2767 2767 2767 2767 2767 2767 2767 2767 2767 2767 2767 2767 2767 2767 2744 2744 2744 2744 2744 2744 2744 2744 2744 2744 2744 2767 2723 2723 2723 2723 2723 2723 2723 2723 2723 2723 2723 2723 2723 2723 2723 2723 2723 2723 2723 2723 2723 2723 2723 2723 2723 2701 2701 2701 2701 2723 2723 2723 2723 2744 2744 2744 2723 2723 2723 2723 2723 2723 0 0 0 0 0 0 0 0 0 0
0 0 0 0 0 0 0 0 0 0 0 0 0 0 0 0 0 0 0 0 0 0 0 0 0 0 0 0 0 0 0 0 2618 2618 2618 2618 2618 2618 2618 2618 2618 2618 2618 2639 2618 2618 2618 2618 2618 2618 2618 2618 2639 2639 2639 2639 2639 2639 2639 2639 2639 2639 2639 2639 2639 2639 2639 0 1439 1439 1439 1445 1445 1445 1445 1445 1445 1445 1452 1452 1343 1343 1343 1343 1343 1343 1343 1343 1343 1343 1343 1349 1349 1354 1359 1359 1365 1365 1370 1376 1376 1381 1381 1381 2680 2680 2680 2659 2659 2659 2659 2659 2659 2680 2680 2680 2680 2680 2659 2659 2680 2680 1776 1776 1766 1343 1343 1359 1766 1776 1776 1776 1776 1776 1776 1776 1766 1766 1766 1766 1776 1776 1776 1776 1776 1776 1776 1776 1785 1785 1785 1785 1785 1785 1776 1776 1766 1766 1766 1766 1766 1766 1766 1776 1776 1776 1776 1776 1776 1766 1766 1776 1776 1776 1776 1776 1776 1776 1776 1776 1776 1776 1776 1785 1785 1776 1776 1785 1785 1785 1785 1785 1785 1785 1785 1794 1794 1359 1359 1359 1359 1359 1359 1359 1359 1359 1359 1359 1359 1365 1365 1370 1370 1370 1381 1392 1785 1785 1785 1785 1785 1785 1785 1785 1785 1785 1785 1785 1785 1785 1785 1785 1785 1785 1794 1794 1794 1794 1794 1794 1794 1794 1794 1794 1794 1804 1813 1873 1873 1883 1883 1883 1883 1883 1883 1883 1883 1883 1883 1883 1883 1883 1873 1873 1873 0 1288 1288 1288 1288 1288 1288 1288 1288 1288 1288 1288 1288 1288 1288 1288 1283 1283 1278 1278 1766 1766 1766 1766 1776 1776 1776 1776 1776 1776 1776 1776 1776 1766 1766 1766 1766 1766 1766 1766 1766 1776 1776 1776 1853 1853 1873 1883 1883 1883 1883 1883 1883 1883 1883 1873 1873 1873 1883 1883 1883 1883 1883 1883 1873 1873 1873 1873 1873 1873 1873 1873 1873 1873 1873 1873 1873 1873 1873 1873 1873 1873 1873 1873 1883 1873 1873 1873 1288 1288 1873 1873 1873 1873 1863 1863 1873 1873 1863 1863 1863 1863 1873 1873 1873 1873 1873 1883 1883 1883 1883 1883 1883 1883 1883 1883 1883 1883 1873 1873 1873 1873 1873 1288 1288 1288 1288 1288 1292 1288 1288 1288 1288 1288 1288 1288 1288 1288 1288 1288 1288 1292 1883 1883 1883 1883 1883 1883 1883 1883 1883 1873 1873 1873 1873 1873 1863 1853 1853 2198 2198 2198 2198 2198 2198 2198 2212 2212 2212 2212 2767 2767 2767 2767 2767 2767 2767 2767 2767 2767 2767 2767 2767 2767 2767 2767 2767 2767 2767 2767 2767 2767 2767 2767 2767 2767 2767 2789 2789 2812 2859 0 0 0 1445 1445 1445 1452 1452 1452 1452 1452 1452 1452 1452 1452 1452 1452 1452 1452 1452 1452 1458 1458 1458 1458 1458 1458 1458 1458 1458 1458 1458 1458 1458 1458 1458 1458 2723 2723 2723 2723 2744 2744 2744 2744 2744 2744 2744 2744 2744 2744 2744 2744 2744 2744 2744 2744 2744 2744 2744 2744 2744 2744 2744 2744 2767 2767 2744 2744 2744 2744 2744 2744 2744 2744 2744 2744 2744 2744 2744 2767 2767 2744 2744 2744 2744 2744 2744 2744 2744 2744 2744 2744 2744 2744 2744 2744 2744 2744 2744 2767 2744 2744 2744 2744 2744 2744 2744 2744 2744 2744 2744 2744 2744 2744 2744 2744 2723 2723 2723 2744 2744 2723 2723 2723 2723 2723 2723 2723 2723 2723 2723 2723 2723 2723 2723 2723 2723 2723 2723 2723 2723 2723 2701 2701 2701 2701 2701 2701 2701 2701 2701 2701 2723 2723 2723 2723 2723 2723 2701 2701 2701 2701 2701 0 0 0 0 0 0 0 0 0 0
0 0 0 0 0 0 0 0 0 0 0 0 0 0 0 0 0 0 0 0 0 0 0 0 0 0 0 0 0 0 0 0 2598 2598 2598 2598 2598 2598 2598 2598 2598 2598 2598 2598 2618 2618 2618 2618 2618 2618 2618 2618 2618 2618 2618 2618 2618 2618 2618 2618 2618 2598 2598 2618 2618 2618 2618 0 1439 1439 1439 1445 1445 1445 1445 1445 1445 1445 1452 1452 1452 1343 1343 1343 1343 1343 1343 1343 1343 1343 1349 1349 1349 1354 1359 1359 1365 1365 1370 1376 1381 1381 1381 1376 0 2680 2680 2659 2659 2639 2639 2639 2659 2659 2680 2680 2680 2680 2659 2659 2659 2659 1365 1354 1354 1343 1343 1359 1766 1766 1766 1766 1766 1766 1766 1766 1766 1766 1766 1766 1766 1766 1766 1766 1776 1766 1766 1776 1776 1776 1776 1776 1776 1776 1766 1766 1766 1766 1766 1766 1757 1757 1766 1766 1766 1766 1766 1766 1766 1766 1766 1766 1766 1776 1766 1766 1776 1776 1776 1776 1776 1776 1776 1776 1776 1776 1776 1776 1785 1785 1785 1785 1785 1785 1785 1794 1794 1359 1359 1359 1359 1359 1359 1359 1365 1365 1365 1365 1365 1370 1370 1376 1376 1376 1381 1392 1785 1776 1776 1776 1776 1776 1785 1785 1785 1785 1785 1785 1785 1785 1785 1785 1785 1785 1785 1785 1785 1785 1785 1785 1785 1785 1785 1785 1794 1804 1813 1873 1873 1883 1883 1883 1883 1883 1883 1883 1883 1883 1883 1883 1883 1883 1873 1873 1873 0 1288 1288 1288 1288 1288 1288 1288 1288 1288 1288 1288 1288 1288 1288 1288 1283 1278 1278 1278 1766 1766 1766 1766 1776 1776 1776 1776 1776 1776 1776 1776 1776 1766 1766 1766 1766 1766 1766 1766 1766 1776 1776 1776 1776 1863 1873 1883 1883 1883 1883 1883 1883 1883 1883 1794 1785 1785 1794 1785 1785 1804 1883 1883 1883 1873 1219 1219 1219 1214 1214 1214 1210 1206 1202 1197 1197 1853 1785 1785 1785 1785 1794 1873 1883 1283 1283 1288 1288 1288 1853 1853 1873 1873 1813 1813 1873 1776 1776 1833 1813 1785 1785 1863 1863 1853 1853 1863 1863 1863 1883 1883 1883 1883 1883 1883 1883 1883 1873 1873 1873 1873 1873 1288 1288 1288 1288 1288 1292 1292 1288 1288 1288 1288 1288 1288 1288 1288 1288 1288 1292 1292 1292 1894 1883 1883 1883 1883 1883 1883 1883 1873 1873 1873 1873 1873 1863 1853 1853 2212 2198 2198 2198 2198 2198 2198 2212 2212 2212 2212 2767 2767 2767 2767 2767 2767 2767 2767 2767 2767 2767 2767 2767 2767 2767 2767 2767 2767 2767 2767 2767 2767 2767 2767 2767 2767 2767 2789 2789 2812 0 0 0 0 1445 1445 1452 1452 1452 1452 1452 1452 1452 1452 1452 1452 1458 1458 1458 1458 1458 1458 1458 1458 1458 1458 1458 1458 1458 1458 1458 1458 1458 1458 1458 1458 1458 2701 2701 2701 2701 2701 2723 2723 2723 2723 2723 2723 2723 2723 2723 2723 2723 2744 2744 2744 2744 2744 2744 2744 2744 2744 2744 2744 2744 2744 2744 2744 2744 2744 2744 2744 2744 2744 2744 2744 2744 2744 2744 2744 2744 2744 2744 2744 2744 2744 2744 2744 2744 2744 2744 2744 2744 2744 2744 2744 2744 2744 2744 2744 2744 2744 2744 2744 2744 2744 2744 2744 2744 2744 2744 2744 2744 2744 2744 2744 2744 2744 2723 2723 2723 2723 2723 2701 2701 2701 2701 2723 2723 2701 2701 2723 2723 2723 2723 2723 2723 2723 2701 2701 2701 2701 2701 2701 2701 2680 2680 2680 2680 2680 2680 2680 2680 2701 2723 2723 2723 2723 2723 2701 2680 2680 2680 2680 2680 0 0 0 0 0 0 0 0 0 0
0 0 0 0 0 0 0 0 0 0 0 0 0 0 0 0 0 0 0 0 0 0 0 0 0 0 0 0 0 0 0 0 2598 2598 2598 2598 2598 2598 2598 2598 2598 2598 2598 2598 2598 2598 2598 2598 2598 2598 2598 2598 2598 2598 2598 2618 2618 2618 2618 2618 2618 2598 2598 2618 2598 2598 2598 0 1439 1439 1439 1439 1445 1445 1445 1445 1445 1445 1452 1452 1452 1343 1343 1343 1343 1343 1343 1343 1343 1349 1349 1349 1354 1354 1359 1365 1365 1365 1370 1370 1376 1376 1376 1376 1359 1359 1359 1376 1376 1376 1381 1381 1381 1381 1387 1387 2680 2680 2680 2680 1381 1381 1365 1365 1354 1343 1343 1359 1370 1757 1757 1766 1766 1766 1766 1766 1766 1766 1766 1766 1766 1766 1766 1766 1766 1766 1766 1776 1776 1766 1766 1776 1776 1776 1766 1766 1766 1766 1757 1757 1757 1757 1766 1766 1766 1766 1766 1766 1766 1766 1766 1766 1766 1766 1766 1766 1766 1776 1776 1776 1776 1776 1776 1776 1766 1766 1776 1776 1776 1785 1785 1785 1785 1785 1785 1794 1381 1376 1365 1365 1365 1365 1365 1365 1365 1365 1365 1365 1370 1370 1370 1376 1376 1376 1381 1392 1776 1776 1776 1776 1776 1776 1776 1776 1776 1785 1785 1785 1785 1785 1776 1776 1776 1776 1785 1785 1776 1776 1785 1785 1785 1785 1776 1776 1785 1794 1813 1873 1873 1883 1883 1883 1883 1883 1883 1883 1883 1883 1883 1883 1883 1883 1873 1873 1873 1883 1288 1288 1288 1288 1288 1292 1288 1288 1292 1292 1292 1288 1288 1288 1288 1283 1278 1278 1278 1757 1757 1766 1766 1766 1766 1776 1776 1776 1776 1776 1776 1776 1766 1766 1766 1766 1766 1766 1766 1776 1776 1776 1776 1776 1776 1766 1766 1766 1766 1766 1776 1776 1776 1776 1776 1776 1776 1776 1776 1776 1776 1776 1785 1785 1766 1219 1219 1219 1214 1214 1214 1210 1206 1202 1197 1197 1776 1776 1776 1776 1776 1776 1776 1283 1283 1283 1288 1288 1288 1297 1794 1785 1766 1766 1766 1766 1766 1776 1785 1794 1776 1776 1776 1776 1776 1776 1785 1794 1794 1804 1873 1873 1883 1894 1883 1873 1785 1776 1766 1766 1766 1288 1288 1288 1288 1292 1292 1292 1292 1288 1288 1288 1288 1288 1288 1288 1288 1288 1292 1292 1292 1292 1894 1883 1883 1883 1883 1883 1883 1883 1873 1873 1873 1873 1873 1863 1863 1863 2212 2212 2212 2212 2212 2212 2212 2212 2212 2212 2212 2767 2767 2767 2767 2767 2767 2767 2767 2767 2767 2767 2767 2744 2744 2744 2744 2744 2744 2744 2744 2744 2744 2744 2744 2767 2767 2767 2767 2789 2812 0 0 0 1452 1452 1452 1452 1452 1452 1452 1452 1458 1458 1458 1458 1458 1458 1458 1458 1458 1458 1458 1458 1458 1458 1458 1458 1458 1458 1464 1464 1458 1458 1458 1458 1458 1458 2701 2680 2680 2680 2701 2701 2701 2701 2701 2701 2701 2723 2701 2701 2723 2723 2723 2723 2723 2723 2723 2744 2723 2723 2744 2744 2744 2744 2744 2744 2744 2744 2744 2744 2744 2744 2744 2744 2744 2744 2744 2744 2744 2744 2744 2744 2744 2744 2744 2744 2723 2723 2723 2723 2744 2723 2723 2723 2744 2744 2744 2744 2744 2744 2744 2744 2744 2744 2744 2744 2744 2723 2723 2723 2723 2723 2723 2723 2723 2723 2723 2723 2723 2723 2723 2723 2701 2701 2701 2701 2701 2701 2701 2701 2701 2701 2701 2701 2701 2701 2701 2701 2701 2680 2680 2680 2680 2680 2680 2680 2680 2659 2659 2659 2680 2680 2680 2680 2701 2701 2723 2701 2680 2680 2680 2680 2680 2680 0 0 0 0 0 0 0 0 0 0
0 0 0 0 0 0 0 0 0 0 0 0 0 0 0 0 0 0 0 0 0 0 0 0 0 0 0 0 0 0 0 0 2579 2579 2579 2579 2579 2579 2579 2579 2579 2579 2579 2579 2579 2598 2579 2579 2579 2579 2579 2579 2579 2579 2598 2598 2598 2618 2618 2618 2618 2598 2598 2618 2598 2598 2598 2541 1439 1439 1439 1439 1445 1445 1445 1445 1445 1445 1452 1452 1452 1349 1349 1343 1343 1343 1343 1343 1349 1349 1349 1354 1354 1354 1359 1365 1365 1365 1370 1370 1370 1370 1365 1359 1359 1359 1359 1365 1370 1370 1370 1376 1381 1381 1381 1381 1381 1381 1381 1381 1381 1381 1381 1365 1365 1343 1343 1359 1370 1376 1376 1376 1376 1376 1766 1766 1766 1766 1757 1757 1757 1757 1766 1766 1766 1757 1757 1766 1757 1757 1766 1381 1381 1387 1387 1387 1387 1381 1381 1381 1757 1757 1766 1766 1381 1381 1757 1757 1381 1381 1381 1757 1757 1766 1757 1757 1766 1766 1776 1381 1381 1381 1387 1392 1392 1392 1392 1392 1392 1392 1785 1785 1785 1392 1392 1392 1381 1381 1370 1370 1365 1365 1365 1365 1365 1370 1370 1370 1370 1370 1370 1376 1376 1376 1387 1392 1766 1766 1766 1766 1766 1766 1766 1776 1776 1776 1776 1776 1776 1776 1776 1776 1776 1776 1776 1776 1776 1776 1776 1776 1776 1776 1776 1776 1776 1785 1804 1873 1873 1873 1883 1883 1883 1883 1883 1883 1894 1883 1883 1883 1883 1883 1883 1883 1883 1883 1292 1292 1292 1292 1292 1292 1292 1292 1292 1292 1292 1292 1288 1288 1288 1283 1278 1278 1278 1757 1757 1757 1757 1766 1766 1766 1766 1766 1766 1776 1766 1766 1766 1766 1766 1766 1766 1766 1766 1766 1766 1766 1766 1766 1757 1757 1757 1757 1757 1766 1766 1766 1766 1766 1766 1766 1766 1776 1776 1776 1776 1776 1776 1776 1757 1757 1757 1757 1757 1757 1757 1757 1757 1766 1766 1766 1766 1766 1766 1766 1766 1766 1757 1757 1283 1283 1288 1288 1288 1297 1766 1766 1766 1766 1766 1766 1766 1776 1785 1785 1776 1776 1776 1776 1776 1776 1776 1776 1776 1785 1785 1785 1776 1776 1776 1776 1776 1766 1766 1766 1766 1766 1288 1288 1288 1292 1292 1292 1292 1292 1292 1292 1292 1292 1292 1288 1288 1292 1292 1292 1292 1292 1904 1894 1894 1894 1894 1894 1894 1883 1873 1873 1873 1873 1873 1863 1863 1863 2212 2212 2212 2212 2212 2212 2212 2212 2212 2212 2212 2744 2744 2744 2744 2744 2744 2744 2744 2744 2744 2744 2744 2744 2744 2744 2744 2744 2744 2744 2744 2744 2744 2744 2744 2744 2744 2744 2744 2767 2812 0 0 0 1452 1452 1452 1452 1452 1452 1458 1458 1458 1458 1458 1458 1458 1458 1458 1458 1458 1458 1458 1458 1458 1458 1464 1464 1464 1464 1464 1464 1458 1458 1458 1458 1458 1458 2701 2680 2680 2680 2680 2680 2680 2680 2680 2680 2680 2680 2701 2701 2701 2701 2701 2701 2701 2701 2701 2701 2701 2701 2701 2701 2701 2723 2723 2723 2723 2723 2723 2723 2723 2723 2723 2723 2723 2723 2723 2723 2723 2723 2723 2723 2723 2723 2723 2723 2701 2701 2701 2701 2723 2723 2723 2723 2723 2744 2744 2723 2723 2723 2723 2723 2723 2723 2723 2723 2723 2723 2723 2701 2701 2701 2723 2723 2723 2723 2723 2723 2723 2701 2701 2701 2680 2680 2680 2680 2680 2680 2680 2680 2680 2680 2680 2680 2680 2680 2680 2680 2680 2659 2659 2659 2659 2659 2659 2659 2659 2659 2659 2659 2659 2659 2659 2659 2680 2680 2701 2680 2680 2680 2659 2659 2659 2659 0 0 0 0 0 0 0 0 0 0
0 0 0 0 0 0 0 0 0 0 0 0 0 0 0 0 0 0 0 0 0 0 0 0 0 0 0 0 0 0 0 0 2579 2579 2579 2579 2579 2579 2579 2579 2579 2579 2579 2579 2579 2579 2579 2579 2560 2560 2560 2579 2560 2560 2579 2579 2579 2579 2598 2598 2598 2579 2579 2598 2579 2541 2541 2541 2541 1439 1439 1439 1445 1445 1445 1445 1445 1445 1452 1452 1452 1452 1349 1349 1349 1349 1349 1349 1354 1354 1354 1354 1359 1359 1359 1365 1365 1365 1370 1370 1370 1370 1365 1359 1359 1359 1359 1365 1365 1370 1370 1376 1376 1376 1376 1376 1376 1376 1376 1381 1381 1381 1381 1376 1376 1376 1370 1370 1376 1376 1376 1376 1376 1376 1376 1370 1370 1376 1376 1381 1381 1381 1381 1387 1387 1387 1387 1387 1387 1381 1381 1381 1381 1381 1381 1381 1381 1376 1376 1376 1376 1376 1376 1376 1376 1381 1381 1381 1381 1381 1381 1381 1381 1381 1381 1381 1381 1381 1381 1381 1381 1381 1387 1387 1392 1392 1392 1392 1387 1387 1387 1387 1387 1387 1387 1392 1387 1381 1376 1376 1370 1370 1370 1370 1370 1370 1370 1370 1370 1376 1376 1376 1376 1381 1387 1398 1748 1748 1757 1757 1757 1757 1757 1766 1766 1766 1766 1766 1766 1766 1766 1766 1776 1776 1776 1776 1766 1766 1766 1766 1766 1776 1766 1766 1776 1785 1804 1843 1863 1873 1883 1883 1883 1883 1883 1883 1894 1883 1883 1883 1883 1883 1883 1883 1883 1883 1883 1292 1292 1292 1292 1292 1292 1292 1292 1292 1292 1292 1292 1292 1288 1288 1278 1278 1278 1757 1757 1757 1757 1757 1757 1757 1757 1766 1766 1766 1766 1766 1766 1766 1766 1766 1766 1766 1766 1766 1766 1757 1757 1757 1757 1757 1757 1757 1757 1757 1757 1757 1757 1757 1757 1766 1766 1766 1766 1766 1766 1766 1766 1766 1757 1757 1757 1757 1757 1757 1757 1757 1757 1766 1757 1757 1766 1766 1766 1766 1757 1757 1757 1757 1766 1766 1766 1766 1766 1766 1766 1766 1766 1766 1766 1766 1766 1776 1776 1776 1766 1766 1766 1766 1766 1766 1766 1766 1766 1776 1766 1766 1766 1766 1766 1766 1766 1766 1757 1757 1757 1757 1292 1292 1292 1292 1292 1297 1297 1297 1297 1292 1292 1292 1292 1288 1288 1292 1292 1292 1292 1292 1904 1894 1894 1894 1894 1894 1894 1883 1873 1873 1883 1873 1873 1873 1863 1863 2212 2212 2212 2212 2212 2212 2212 2212 2212 2198 2198 2723 2723 2723 2723 2723 2744 2744 2744 2744 2744 2744 2744 2744 2744 2744 2744 2744 2744 2723 2723 2723 2723 2723 2723 2723 2723 2723 2723 2723 0 2723 0 1452 1452 1452 1452 1452 1458 1458 1458 1458 1458 1458 1458 1458 1458 1458 1458 1458 1458 1458 1458 1458 1458 1464 1464 1464 1464 1464 1464 1464 1458 1458 1458 1458 1458 1458 2701 2680 2680 2680 2680 2680 2680 2680 2680 2680 2680 2680 2680 2701 2701 2701 2701 2701 2701 2680 2680 2701 2701 2680 2680 2701 2701 2701 2701 2701 2701 2701 2701 2701 2701 2701 2701 2701 2701 2701 2701 2701 2701 2701 2701 2701 2701 2701 2701 2701 2701 2701 2701 2701 2701 2701 2701 2701 2723 2723 2723 2723 2723 2723 2701 2701 2701 2701 2723 2701 2701 2701 2701 2701 2701 2701 2701 2701 2701 2701 2701 2701 2701 2701 2701 2701 2680 2680 2680 2680 2680 2680 2680 2680 2680 2680 2680 2680 2680 2659 2659 2659 2659 2659 2659 2659 2659 2659 2659 2659 2659 2659 2659 2659 2659 2659 2659 2659 2659 2680 2680 2639 2639 2659 2659 2659 2659 2659 0 0 0 0 0 0 0 0 0 0
0 0 0 0 0 0 0 0 0 0 0 0 0 0 0 0 0 0 0 0 0 0 0 0 0 0 0 0 0 0 0 0 2560 2560 2560 2560 2560 2560 2560 2560 2560 2560 2560 2560 2560 2560 2560 2560 2560 2560 2560 2560 2560 2560 2579 2579 2579 2579 2579 2579 2560 2560 2579 2579 2560 2522 2522 2522 2522 2522 1445 1445 1445 1445 1445 1452 1452 1452 1452 1452 1452 1452 1349 1349 1349 1349 1349 1354 1354 1354 1354 1354 1359 1359 1359 1365 1365 1365 1370 1370 1370 1370 1370 1365 1365 1365 1365 1365 1365 1370 1370 1376 1376 1376 1376 1376 1376 1376 1376 1376 1376 1376 1376 1376 1376 1376 1376 1376 1376 1376 1376 1376 1376 1376 1376 1370 1370 1376 1376 1376 1376 1381 1381 1381 1387 1387 1387 1381 1381 1381 1381 1381 1381 1381 1381 1381 1381 1376 1376 1376 1376 1370 1370 1376 1376 1376 1376 1381 1381 1381 1381 1381 1381 1381 1381 1381 1381 1381 1381 1381 1381 1381 1387 1387 1387 1387 1387 1387 1387 1387 1387 1381 1381 1381 1387 1387 1387 1387 1381 1381 1376 1370 1370 1370 1370 1370 1370 1370 1370 1376 1376 1376 1376 1376 1376 1731 1731 1748 1748 1748 1748 1748 1748 1757 1757 1757 1757 1757 1757 1757 1766 1766 1766 1766 1766 1766 1757 1757 1766 1766 1766 1766 1766 1766 1776 1785 1794 1823 1843 1863 1873 1883 1883 1883 1883 1894 1894 1894 1894 1883 1883 1883 1883 1883 1894 1894 0 1292 1292 1292 1292 1292 1292 1292 1292 1292 1292 1292 1292 1292 1288 1288 1283 1283 1739 1748 1748 1748 1748 1748 1748 1748 1748 1757 1757 1757 1757 1757 1757 1757 1757 1757 1757 1757 1757 1757 1757 1757 1757 1757 1757 1757 1757 1757 1757 1757 1757 1757 1757 1757 1757 1757 1757 1766 1766 1766 1766 1766 1766 1766 1757 1748 1748 1757 1757 1757 1757 1757 1757 1757 1757 1757 1757 1757 1757 1757 1757 1757 1757 1757 1757 1757 1766 1766 1766 1766 1766 1766 1766 1766 1766 1766 1766 1766 1766 1766 1766 1766 1766 1766 1766 1766 1766 1766 1766 1766 1766 1766 1766 1766 1766 1766 1766 1766 1757 1757 1757 1757 1297 1297 1297 1297 1297 1297 1297 1297 1297 1297 1297 1292 1292 1292 1292 1292 1292 1292 1292 1904 1904 1894 1894 1894 1894 1894 1894 1894 1883 1883 1883 1883 1883 1883 1883 2212 2212 2212 2212 2212 2212 2212 2212 2212 2212 2198 2198 2723 2701 2701 2701 2723 2723 2723 2723 2723 2723 2723 2723 2723 2723 2723 2723 2723 2723 2723 2723 2723 2701 2701 2701 2701 2701 2701 2701 2701 0 0 0 0 1452 1452 1452 1452 1458 1458 1458 1458 1458 1458 1458 1458 1458 1458 1458 1458 1458 1458 1458 1458 1464 1464 1464 1464 1464 1464 1464 1464 1458 1458 1458 1458 1458 1458 2701 2680 2680 2680 2680 2680 2680 2680 2680 2680 2680 2680 2680 2701 2701 2701 2701 2680 2680 2680 2680 2680 2680 2680 2680 2680 2680 2680 2701 2701 2701 2701 2701 2701 2701 2701 2680 2680 2680 2680 2680 2680 2680 2680 2680 2680 2680 2680 2680 2680 2680 2680 2680 2680 2680 2680 2680 2680 2680 2701 2701 2701 2701 2701 2701 2701 2701 2701 2701 2701 2701 2680 2680 2701 2680 2680 2680 2680 2701 2701 2701 2701 2701 2680 2680 2680 2680 2659 2659 2659 2659 2659 2659 2659 2659 2659 2680 2659 2659 2659 2659 2659 2659 2639 2639 2659 2639 2639 2639 2639 2639 2639 2639 2639 2659 2659 2659 2659 2659 2659 2659 2639 2639 2639 2659 2659 2659 2659 0 0 0 0 0 0 0 0 0 0
0 0 0 0 0 0 0 0 0 0 0 0 0 0 0 0 0 0 0 0 0 0 0 0 0 0 0 0 0 0 0 0 2560 2560 2560 2560 2560 2560 2560 2560 2560 2560 2560 2560 2560 2560 2560 2560 2560 2560 2560 2560 2560 2560 2579 2579 2579 2579 2579 2579 2560 2560 2560 2560 2560 2522 2522 2522 2522 2522 1445 1445 1445 1445 1445 1452 1452 1452 1452 1452 1452 1458 1349 1349 1349 1354 1354 1354 1354 1359 1359 1359 1359 1359 1359 1365 1365 1370 1370 1370 1370 1370 1370 1370 1370 1370 1370 1370 1370 1370 1376 1376 1376 1376 1376 1376 1376 1376 1376 1376 1376 1376 1376 1376 1376 1376 1376 1376 1376 1376 1376 1376 1376 1376 1376 1376 1376 1376 1376 1376 1376 1376 1376 1381 1381 1381 1387 1381 1381 1381 1381 1381 1381 1381 1381 1381 1381 1376 1376 1376 1376 1370 1370 1376 1376 1376 1376 1381 1381 1381 1381 1381 1381 1381 1381 1381 1381 1381 1381 1381 1381 1381 1381 1381 1381 1381 1381 1381 1381 1381 1381 1381 1381 1381 1387 1387 1387 1381 1381 1381 1376 1376 1376 1370 1370 1370 1370 1370 1370 1376 1376 1376 1376 1376 1376 1731 1731 1739 1748 1748 1748 1748 1748 1748 1748 1748 1748 1748 1748 1748 1757 1757 1757 1757 1757 1757 1757 1757 1757 1757 1757 1757 1766 1766 1776 1776 1794 1823 1833 1853 1873 1863 1863 1883 1883 1894 1894 1894 1894 1894 1894 1894 1894 1894 1894 1894 0 1297 1297 1297 1297 1297 1297 1297 1297 1297 1297 1297 1297 1297 1297 1297 1297 1739 1739 1739 1739 1739 1748 1748 1748 1748 1748 1748 1748 1757 1748 1748 1748 1748 1757 1757 1748 1748 1748 1748 1748 1748 1748 1748 1748 1748 1748 1748 1748 1748 1748 1748 1748 1748 1748 1757 1757 1757 1757 1757 1757 1757 1757 1766 1757 1748 1748 1757 1757 1748 1748 1748 1748 1757 1748 1748 1757 1757 1757 1757 1748 1748 1757 1757 1757 1757 1757 1757 1757 1766 1766 1766 1766 1766 1766 1766 1766 1766 1766 1766 1766 1766 1766 1766 1766 1766 1766 1766 1766 1766 1766 1766 1766 1766 1766 1766 1766 1766 1757 1757 1757 1757 1302 1302 1297 1297 1297 1297 1297 1297 1297 1297 1297 1297 1297 1292 1292 1292 1292 1292 1292 1915 1904 1894 1894 1894 1894 1894 1894 1894 1873 1873 1883 1883 1883 1883 2212 2212 2212 2212 2212 2212 2212 2212 2212 2212 2212 2198 2198 2701 2701 2701 2701 2701 2701 2701 2701 2701 2701 2701 2701 2701 2701 2723 2723 2701 2701 2701 2701 2701 2701 2701 2701 2701 2701 2701 2701 2701 2701 0 0 0 1452 1452 1452 1458 1458 1458 1458 1458 1458 1458 1458 1458 1458 1458 1458 1458 1458 1458 1458 1458 1464 1464 1464 1464 1464 1464 1464 1464 1458 1458 1452 1452 1452 2701 2680 2680 2680 2680 2680 2680 2680 2680 2680 2680 2680 2680 2680 2701 2701 2701 2701 2680 2680 2680 2680 2680 2680 2680 2680 2680 2680 2680 2680 2680 2680 2680 2680 2680 2680 2680 2680 2680 2680 2680 2680 2680 2680 2680 2680 2680 2680 2680 2680 2680 2680 2680 2680 2680 2680 2680 2680 2680 2680 2680 2680 2680 2680 2680 2680 2680 2680 2680 2680 2680 2680 2659 2659 2680 2659 2659 2659 2680 2680 2680 2680 2680 2680 2680 2680 2680 2659 2659 2659 2659 2659 2659 2659 2659 2659 2659 2659 2639 2639 2639 2639 2639 2639 2639 2639 2639 2639 2639 2639 2639 2639 2639 2639 2639 2639 2639 2639 2639 2659 2659 2639 2639 2639 2639 2639 2639 2639 2639 0 0 0 0 0 0 0 0 0 0
0 0 0 0 0 0 0 0 0 0 0 0 0 0 0 0 0 0 0 0 0 0 0 0 0 0 0 0 0 0 0 0 2541 2541 2560 2560 2560 2560 2560 2560 2560 2560 2560 2560 2560 2560 2560 2560 2560 2560 2560 2560 2560 2560 2560 2560 2560 2560 2579 2579 2579 2560 2560 2560 2560 2541 2541 2522 2522 2522 2522 1445 1445 1445 1445 1452 1452 1452 1452 1452 1452 1458 1458 1343 1343 1349 1354 1354 1354 1359 1359 1359 1359 1359 1365 1365 1365 1370 1370 1370 1370 1370 1370 1370 1370 1370 1370 1370 1370 1370 1376 1376 1376 1376 1376 1376 1376 1376 1376 1376 1381 1376 1376 1376 1376 1376 1376 1376 1376 1376 1376 1376 1376 1381 1376 1376 1376 1376 1376 1376 1376 1376 1376 1376 1381 1381 1381 1381 1381 1381 1381 1381 1381 1381 1381 1381 1381 1376 1376 1376 1376 1376 1376 1376 1376 1381 1381 1381 1381 1381 1381 1381 1381 1381 1381 1381 1381 1381 1381 1381 1381 1381 1381 1381 1381 1381 1381 1381 1381 1381 1381 1381 1381 1381 1381 1387 1387 1381 1381 1381 1381 1376 1376 1376 1376 1376 1376 1376 1376 1376 1376 1376 1376 1376 1376 1705 1705 1713 1731 1731 1739 1739 1739 1739 1739 1739 1739 1748 1748 1748 1748 1748 1748 1748 1748 1748 1748 1748 1748 1748 1748 1748 1766 1766 1776 1776 1804 1813 1813 1843 1873 1863 1863 1883 1883 1894 1894 1894 1894 1894 1894 1894 1894 1894 1904 1904 1915 1297 1297 1297 1297 1297 1297 1302 1297 1297 1297 1297 1297 1297 1297 1302 1302 1302 1731 1731 1739 1739 1739 1739 1739 1739 1739 1739 1739 1748 1748 1748 1748 1748 1748 1748 1748 1748 1739 1739 1739 1739 1748 1748 1748 1748 1748 1748 1748 1748 1748 1748 1748 1748 1748 1748 1748 1748 1748 1748 1757 1757 1757 1757 1748 1748 1748 1748 1748 1748 1748 1748 1748 1748 1748 1748 1748 1748 1748 1748 1748 1748 1748 1748 1748 1748 1757 1757 1748 1748 1757 1757 1757 1757 1757 1757 1757 1757 1757 1757 1757 1757 1757 1757 1757 1757 1757 1757 1757 1757 1757 1757 1757 1757 1757 1757 1757 1757 1757 1757 1757 1757 1302 1302 1302 1302 1302 1297 1297 1297 1297 1297 1297 1297 1297 1292 1292 1292 1297 1297 1297 1915 1904 1894 1894 1894 1894 1894 1894 1894 1873 1873 1883 1873 1873 1873 2212 2212 2212 2212 2212 2212 2212 2212 2212 2212 2212 2198 2198 2680 2680 2680 2680 2701 2701 2701 2701 2701 2701 2701 2701 2701 2701 2701 2701 2701 2701 2701 2701 2701 2701 2701 2701 2701 2701 2701 2680 2680 2701 0 0 0 1452 1452 1452 1458 1458 1458 1458 1458 1458 1458 1458 1458 1458 1458 1458 1458 1458 1464 1464 1464 1464 1464 1464 1464 1464 1464 1464 1464 1458 1458 1452 1452 2701 2680 2680 2680 2680 2659 2659 2680 2680 2680 2680 2680 2680 2680 2680 2680 2680 2680 2680 2680 2680 2659 2659 2659 2659 2659 2659 2659 2659 2659 2680 2680 2680 2680 2680 2680 2680 2680 2680 2680 2659 2659 2659 2659 2659 2659 2659 2680 2680 2680 2680 2680 2680 2680 2680 2680 2680 2680 2680 2680 2680 2680 2680 2680 2680 2680 2680 2680 2680 2680 2680 2680 2659 2659 2659 2680 2659 2659 2659 2659 2680 2659 2659 2659 2659 2659 2659 2659 2659 2639 2639 2639 2639 2639 2639 2659 2639 2639 2639 2639 2639 2618 2618 2639 2639 2639 2639 2639 2639 2639 2639 2639 2639 2639 2639 2639 2639 2639 2639 2639 2639 2639 2639 2639 2618 2618 2618 2618 2618 2618 0 0 0 0 0 0 0 0 0 0
0 0 0 0 0 0 0 0 0 0 0 0 0 0 0 0 0 0 0 0 0 0 0 0 0 0 0 0 0 0 0 0 2541 2541 2541 2541 2541 2541 2541 2541 2541 2541 2541 2541 2541 2541 2560 2560 2560 2560 2560 2560 2541 2541 2560 2560 2560 2560 2560 2560 2560 2579 2579 2560 2560 2541 2541 2522 2522 2522 0 1445 1445 1445 1452 1452 1452 1452 1452 1452 1458 1458 1458 1343 1343 1349 1354 1354 1354 1359 1359 1359 1359 1365 1365 1365 1365 1370 1370 1370 1370 1370 1370 1370 1370 1370 1370 1370 1370 1370 1376 1376 1376 1376 1376 1376 1376 1376 1376 1376 1381 1376 1376 1376 1376 1376 1376 1376 1376 1376 1376 1376 1376 1376 1376 1376 1376 1376 1376 1376 1376 1376 1376 1376 1381 1381 1381 1381 1381 1381 1381 1381 1381 1381 1381 1381 1381 1376 1376 1376 1376 1376 1376 1376 1376 1381 1381 1381 1381 1381 1381 1381 1381 1381 1381 1381 1381 1381 1381 1381 1381 1381 1381 1381 1381 1381 1381 1387 1387 1381 1381 1381 1381 1381 1381 1387 1387 1381 1381 1381 1381 1381 1381 1376 1376 1376 1376 1376 1376 1376 1376 1376 1381 1381 1381 1705 1705 1713 1722 1722 1731 1731 1739 1739 1739 1739 1739 1739 1739 1739 1739 1739 1739 1739 1739 1739 1739 1739 1739 1748 1748 1748 1757 1766 1776 1785 1804 1813 1813 1843 2618 2618 2618 2618 1894 1894 1894 1894 1894 1894 1894 1894 1894 1894 1904 1915 1915 1297 1297 1297 1302 1302 1302 1302 1302 1302 1302 1302 1302 1302 1302 1302 1302 1302 1722 1722 1722 1731 1731 1739 1739 1739 1739 1739 1739 1739 1739 1739 1739 1739 1739 1739 1739 1739 1739 1739 1739 1739 1739 1739 1739 1739 1739 1739 1739 1739 1739 1739 1739 1739 1739 1739 1739 1739 1739 1739 1748 1748 1748 1757 1748 1739 1739 1748 1748 1739 1739 1739 1739 1739 1739 1739 1739 1739 1739 1739 1748 1748 1748 1748 1748 1739 1739 1748 1748 1748 1748 1748 1748 1748 1748 1748 1748 1757 1757 1757 1757 1757 1757 1757 1757 1757 1748 1748 1748 1757 1757 1757 1757 1757 1757 1757 1757 1757 1757 1757 1757 1757 1307 1307 1302 1302 1302 1297 1297 1297 1297 1297 1297 1297 1297 1297 1297 1297 1297 1307 1307 1894 1894 1894 1894 1894 1894 1894 1894 1894 1873 1873 1883 1873 1873 1873 2212 2212 2212 2212 2212 2212 2212 2212 2212 2212 2212 2198 2198 2680 2680 2680 2680 2680 2680 2680 2680 2680 2680 2701 2701 2701 2701 2701 2701 2680 2680 2701 2701 2701 2701 2680 2680 2680 2680 2680 2680 2680 2680 0 0 0 0 1458 1458 1458 1458 1458 1458 1458 1458 1458 1458 1458 1458 1458 1458 1458 1458 1464 1464 1464 1470 1470 1470 1470 1470 1464 1464 1464 1458 1458 1452 1452 2680 2659 2659 2659 2659 2659 2659 2659 2659 2659 2659 2659 2659 2680 2680 2680 2680 2659 2659 2659 2659 2659 2659 2659 2659 2659 2659 2659 2659 2659 2680 2680 2680 2680 2680 2680 2659 2659 2659 2659 2659 2659 2659 2659 2659 2659 2659 2680 2680 2680 2680 2680 2680 2680 2659 2659 2680 2680 2680 2659 2659 2680 2680 2659 2659 2659 2659 2659 2659 2659 2659 2659 2659 2659 2659 2659 2659 2659 2659 2659 2659 2659 2659 2659 2659 2659 2659 2659 2639 2639 2639 2639 2639 2639 2639 2639 2618 2618 2618 2618 2618 2598 2598 2598 2618 2618 2618 2618 2618 2639 2639 2618 2618 2618 2618 2618 2639 2639 2639 2639 2639 2639 2639 2618 2618 2618 2618 2618 2598 2598 0 0 0 0 0 0 0 0 0 0
0 0 0 0 0 0 0 0 0 0 0 0 0 0 0 0 0 0 0 0 0 0 0 0 0 0 0 0 0 0 0 0 2541 2541 2541 2541 2541 2541 2541 2541 2541 2541 2541 2541 2541 2541 2541 2541 2541 2541 2541 2541 2541 2541 2541 2541 2541 2560 2560 2560 2560 2560 2560 2560 2560 2541 2541 2522 2522 2522 0 1452 1452 1452 1452 1452 1452 1452 1452 1458 1458 1458 1458 1349 1349 1354 1354 1354 1359 1359 1359 1359 1365 1365 1365 1365 1370 1370 1370 1370 1370 1370 1376 1370 1370 1370 1370 1370 1370 1370 1376 1376 1376 1376 1376 1376 1376 1376 1376 1381 1381 1376 1376 1376 1376 1376 1376 1376 1376 1376 1376 1376 1376 1376 1376 1376 1376 1376 1376 1376 1376 1376 1376 1376 1381 1381 1381 1381 1381 1381 1381 1381 1381 1381 1381 1381 1381 1376 1376 1376 1376 1376 1376 1376 1376 1381 1381 1381 1381 1381 1381 1381 1381 1381 1381 1381 1381 1381 1381 1381 1381 1381 1381 1381 1381 1381 1381 1387 1387 1381 1381 1381 1381 1381 1381 1387 1387 1381 1381 1381 1381 1381 1381 1381 1381 1376 1376 1376 1376 1376 1376 1381 1381 1381 1381 1705 1705 1713 1713 1722 1722 1731 1731 1739 1739 1739 1739 1739 1739 1739 1739 1739 1739 1739 1739 1739 1739 1739 1739 1739 1748 1748 1757 1766 1794 1804 1813 1813 1813 2618 2618 2618 2639 2639 1894 1894 1894 1894 1894 1894 1894 1894 1894 1894 1904 1904 1904 0 1302 1302 1302 1302 1302 1307 1302 1302 1302 1302 1302 1302 1302 1307 1307 1307 1312 1713 1722 1722 1731 1731 1731 1731 1731 1731 1731 1731 1731 1731 1731 1731 1731 1731 1731 1731 1731 1731 1731 1731 1731 1731 1731 1731 1731 1731 1731 1731 1731 1739 1739 1739 1739 1739 1739 1739 1739 1739 1739 1739 1739 1739 1731 1731 1731 1739 1739 1739 1739 1739 1739 1739 1739 1739 1731 1731 1739 1739 1739 1739 1739 1739 1739 1739 1739 1739 1739 1739 1739 1739 1739 1748 1739 1739 1748 1748 1748 1748 1748 1748 1748 1748 1748 1748 1748 1748 1748 1748 1748 1748 1757 1748 1748 1748 1748 1748 1748 1748 1757 1757 1307 1307 1302 1302 1302 1297 1297 1297 1297 1297 1297 1297 1297 1297 1297 1297 1302 1307 1307 1894 1894 1894 1894 1894 1894 1894 1894 1894 1883 1883 1883 1883 1883 1883 2212 2212 2212 2212 2212 2212 2212 2212 2212 2212 2212 2198 2198 2680 2680 2680 2680 2680 2680 2680 2680 2680 2680 2680 2680 2680 2680 2680 2680 2680 2680 2680 2680 2680 2680 2680 2680 2680 2680 2680 2680 2659 2659 0 0 0 0 1458 1458 1458 1458 1458 1458 1458 1458 1458 1458 1458 1458 1458 1458 1458 1458 1464 1464 1464 1470 1470 1470 1470 1470 1464 1464 1464 1464 1458 1458 1458 2680 2659 2659 2659 2659 2639 2639 2659 2639 2639 2639 2659 2659 2659 2659 2659 2659 2659 2659 2659 2659 2659 2639 2639 2659 2659 2659 2659 2659 2659 2659 2659 2680 2680 2680 2680 2659 2659 2659 2659 2659 2659 2659 2659 2659 2659 2659 2659 2659 2659 2659 2659 2659 2659 2659 2659 2659 2659 2659 2659 2659 2659 2659 2659 2659 2659 2659 2659 2659 2659 2659 2659 2659 2659 2659 2659 2659 2659 2659 2659 2659 2639 2639 2639 2639 2639 2639 2639 2639 2639 2618 2618 2618 2618 2618 2639 2618 2618 2598 2598 2598 2598 2598 2598 2598 2598 2598 2598 2598 2598 2598 2598 2598 2618 2618 2618 2618 2618 2618 2618 2618 2618 2598 2598 2598 2598 2598 2598 2598 2598 0 0 0 0 0 0 0 0 0 0
