0 0 0 0 0 0 0 0 0 0 0 0 0 0 0 0 0 0 0 0 0 0 0 0 0 0 0 0 0 0 0 0 3120 3120 3120 3120 3120 3149 3149 3149 3149 3149 3149 3149 3149 3149 3149 3149 3149 3120 3120 3120 3120 3092 3092 3092 3092 3092 3092 3092 3120 3149 3149 3178 3178 3149 3149 3178 3178 3178 3149 3149 3149 3178 3178 3178 3178 3178 3178 3208 2812 2812 2812 2812 2812 2789 2789 2789 2789 2789 2789 2789 2789 2789 2789 2789 2789 2789 2789 2812 2812 2789 2789 2789 2789 2789 2789 2812 2812 2812 2812 2835 2835 2835 2835 2835 2859 2859 2859 2859 2859 2859 2859 2883 2883 2883 2883 2908 2908 2908 2933 2958 2958 2958 2984 2984 2984 2984 3010 3010 3010 2984 2984 2984 2984 2984 2984 2984 2984 2984 2984 2984 2984 2984 2016 2016 2016 2028 2028 2028 2028 2028 2028 2028 2040 2040 2040 2040 2040 2040 2040 0 1421 1421 1421 1421 1421 1415 1410 1404 1404 1404 1404 1404 1404 1404 1404 1404 1404 1404 1398 1398 1398 1398 1398 1398 1398 1398 1404 1404 1404 1404 1404 1404 1404 1404 1404 1404 1404 1410 1410 1410 1410 1410 1415 1415 1415 1415 1415 1415 1421 1421 1427 1297 1297 1297 1297 1302 1302 1302 1307 1312 1312 1312 1312 1317 1317 1317 1322 1433 1433 1439 1439 1445 1445 1452 1452 1343 1343 1343 1343 1343 1343 1343 1343 1343 1343 1343 1343 1349 1349 1349 1354 1354 1354 1354 1354 1354 1359 1359 1359 1365 1365 1365 1365 1365 1365 1365 1370 1370 1370 1370 1376 1376 1376 1376 1376 1376 1381 1381 1381 1387 1387 1387 1392 1392 1392 1392 1398 1398 1398 1398 1398 1398 1398 1404 1404 1410 1410 1410 1415 1415 1415 1421 1421 1421 1421 1427 1427 1433 1433 1439 1439 1439 1439 1445 1445 1445 1445 1452 1458 1458 1452 1445 1445 1445 1445 1452 1452 1458 1458 1458 1458 1458 1594 1594 1594 1594 1594 1601 1601 1601 1601 1601 1609 1609 1609 1616 1616 1616 1616 1616 1624 1624 1624 1624 1632 1632 1632 1632 1632 1632 1639 1639 1639 1647 1647 1655 1655 1655 1655 1655 1655 1655 1663 1663 1663 1663 1663 1663 1671 1671 1671 1680 1680 1680 1489 1489 1489 1489 1489 1483 1483 1483 1483 1483 1483 1483 1483 1483 1483 1489 1496 1496 1503 1503 1503 1503 1503 1503 1503 1503 1503 1503 1509 1509 1509 1509 1509 1509 1509 1509 1509 1509 1516 1516 1516 1516 1523 1523 1523 1523 1523 1529 1529 1529 1529 1536 1536 1536 1536 1536 1536 1536 1536 3433 3433 3433 3433 3433 3433 3433 3433 1550 1550 1557 3468 3468 3468 3468 3468 3468 3468 3433 3433 3433 3433 1616 1616 1616 1616 1616 1616 1616 1616 1609 1601 1601 1601 1601 1601 1601 1601 1601 1601 1601 1601 0 0 0 0 0 1894 1894 1894 1883 1883 1873 1873 1863 1853 1853 1853 1853 1853 1853 1853 1853 1863 1863 1863 1863 1863 1863 1873 1873 1873 3433 3433 3433 3399 3399 3399 3433 3399 3399 3399 3433 3433 3433 3433 3433 3433 3433 3433 3433 3433 3433 3433 3433 3433 3399 3399 3399 3399 3399 3399 3433 3433 3433 3433 3433 3433 3433 3433 3433 3433 3433 3433 3399 3399 3433 3433 3433 3433 3433 3433 3433 3433 3433 3399 3365 3365 3399 3399 3399 3399 3399 3399 3399 3399 3399 3399 3399 3365 3365 3365 3365 3365 3399 3399 3399 3399 3399 3399 3399 3399 3399 3399 3399 3399 3399 3365 3365 3365 3399 3399 3399 3365 3365 3365 3333 3333 3333 3333 3333 3333 3333 3333 0 0 0 0 0 0 0 0 0 0 0
0 0 0 0 0 0 0 0 0 0 0 0 0 0 0 0 0 0 0 0 0 0 0 0 0 0 0 0 0 0 0 0 3120 3120 3120 3120 3120 3120 3149 3149 3120 3120 3149 3149 3120 3120 3120 3120 3120 3120 3120 3120 3092 3092 3092 3092 3092 3092 3092 3092 3092 3120 3120 3149 3149 3149 3149 3149 3149 3149 3149 3149 3149 3149 3149 3149 3149 3178 3178 3178 2835 2812 2812 2812 2812 2812 2812 2812 2812 2812 2812 2812 2812 2812 2812 2812 2812 2812 2812 2812 2812 2812 2812 2812 2789 2789 2789 2812 2812 2812 2835 2835 2835 2835 2835 2835 2859 2859 2859 2859 2859 2859 2859 2883 2883 2883 2883 2908 2908 2933 2933 2958 2958 2958 2984 2984 2984 2984 3120 3010 3010 2984 2984 2984 2984 2984 2984 2984 2984 2984 2984 2984 2984 2984 2016 2016 2016 2028 2028 2028 2028 2028 2028 2028 2040 2040 2040 2040 2040 2040 2040 2040 0 1421 1421 1421 1421 1415 1410 1404 1404 1404 1398 1398 1398 1398 1398 1398 1398 1398 1398 1398 1398 1398 1398 1398 1398 1398 1398 1398 1404 1404 1404 1404 1404 1404 1404 1404 1404 1404 1404 1404 1404 1410 1410 1410 1410 1410 1415 1415 1415 1421 1427 1297 1297 1297 1302 1302 1307 1307 1307 1312 1312 1312 1317 1317 1317 1322 1322 1433 1433 1439 1445 1445 1445 1338 1338 1338 1338 1338 1343 1343 1343 1343 1343 1343 1343 1343 1349 1349 1349 1349 1354 1354 1354 1354 1354 1354 1354 1359 1359 1359 1359 1365 1365 1365 1365 1365 1370 1370 1370 1370 1376 1376 1376 1376 1376 1381 1381 1387 1387 1387 1387 1392 1392 1392 1392 1392 1398 1398 1398 1398 1398 1398 1404 1404 1404 1410 1415 1415 1415 1421 1421 1421 1421 1421 1421 1427 1427 1433 1433 1439 1439 1439 1445 1445 1445 1445 1452 1452 1458 1458 1452 1452 1452 1452 1452 1452 1458 1458 1458 1458 1458 1458 1594 1594 1594 1594 1594 1601 1601 1601 1601 1609 1609 1609 1609 1616 1616 1616 1616 1624 1624 1624 1624 1632 1632 1632 1632 1632 1632 1639 1639 1639 1639 1647 1647 1655 1655 1655 1655 1655 1655 1655 1663 1663 1663 1663 1663 1671 1671 1680 1680 1680 1680 1688 1496 1489 1489 1489 1489 1489 1483 1483 1483 1483 1483 1483 1483 1483 1489 1489 1496 1503 1503 1503 1503 1503 1503 1503 1503 1509 1509 1509 1509 1509 1509 1509 1509 1509 1509 1509 1509 1509 1509 1516 1516 1516 1523 1523 1523 1523 1523 1529 1529 1529 1536 1536 1536 1536 1536 1536 1536 3433 3433 3433 3433 3433 3433 3433 3433 3433 3433 3433 3433 3433 3468 3468 3468 3468 3468 3468 3468 3468 3468 3468 1616 1616 1616 1616 1616 1616 1616 1616 1616 1609 1609 1601 1601 1601 1609 1609 1601 1601 1601 1601 1601 0 0 0 0 0 1894 1894 1894 1883 1883 1873 1863 1863 1853 1853 1853 1853 1853 1853 1853 1853 1863 1863 1873 1863 1863 1863 1873 1873 1873 3399 3399 3399 3399 3399 3399 3399 3399 3399 3399 3399 3399 3433 3433 3433 3433 3433 3399 3399 3399 3399 3399 3399 3399 3399 3399 3365 3365 3399 3399 3399 3399 3399 3399 3433 3433 3433 3433 3433 3433 3433 3433 3399 3399 3399 3399 3399 3399 3399 3399 3399 3399 3399 3399 3365 3365 3365 3365 3365 3365 3399 3399 3399 3365 3365 3365 3333 3333 3333 3333 3333 3333 3365 3365 3365 3365 3365 3365 3365 3365 3365 3365 3333 3333 3365 3333 3333 3333 3333 3365 3365 3365 3365 3333 3333 3333 3300 3300 3333 3300 3300 3300 0 0 0 0 0 0 0 0 0 0 0
0 0 0 0 0 0 0 0 0 0 0 0 0 0 0 0 0 0 0 0 0 0 0 0 0 0 0 0 0 0 0 0 3120 3120 3120 3120 3120 3120 3149 3149 3120 3120 3120 3120 3120 3120 3120 3120 3120 3120 3120 3092 3092 3092 3092 3092 3092 3092 3092 3092 3092 3120 3120 3149 3149 3149 3149 3149 3149 3149 3120 3120 3120 3120 3120 3149 3149 3149 3149 3149 2835 2835 2835 2812 2812 2812 2812 2812 2812 2812 2812 2812 2812 2812 2812 2812 2812 2812 2812 2812 2812 2812 2812 2812 2789 2789 2812 2812 2812 2812 2812 2835 2835 2835 2835 2859 2859 2859 2859 2859 2859 2859 2859 2883 2883 2883 2883 2908 2908 2933 2933 2958 2958 2958 2984 2984 2984 3010 3120 3037 3010 3010 2984 2984 2984 2984 2984 2984 2984 2984 2984 2984 2984 2984 2053 2028 2028 2028 2028 2028 2028 2028 2028 2028 2040 2040 2040 2040 2040 2040 2040 0 0 1421 1421 1421 1415 1410 1410 1404 1398 1398 1398 1398 1392 1392 1392 1392 1392 1392 1392 1392 1392 1392 1398 1398 1398 1398 1398 1398 1398 1398 1398 1398 1398 1398 1398 1398 1398 1404 1404 1404 1404 1404 1410 1410 1410 1410 1415 1415 1415 1421 1427 1297 1297 1297 1302 1307 1307 1307 1312 1312 1312 1312 1317 1317 1317 1322 1328 1333 1333 1338 1338 1338 1338 1338 1338 1338 1338 1338 1343 1343 1343 1343 1343 1349 1349 1349 1349 1349 1349 1349 1354 1354 1354 1354 1354 1354 1354 1359 1359 1359 1359 1365 1365 1365 1365 1365 1370 1370 1370 1376 1376 1376 1376 1381 1381 1381 1387 1387 1387 1387 1392 1392 1392 1392 1392 1398 1398 1398 1398 1404 1404 1404 1404 1410 1410 1410 1415 1415 1421 1421 1421 1421 1421 1421 1427 1427 1433 1433 1439 1439 1439 1445 1445 1445 1445 1445 1452 1458 1458 1458 1452 1452 1452 1452 1452 1452 1458 1458 1458 1458 1458 1458 1594 1594 1594 1594 1601 1601 1601 1601 1601 1609 1609 1609 1609 1616 1616 1616 1624 1624 1624 1624 1624 1632 1632 1632 1632 1632 1632 1639 1639 1639 1647 1647 1655 1655 1655 1655 1655 1655 1655 1663 1663 1663 1663 1663 1671 1671 1671 1680 1680 1680 1680 1503 1496 1496 1496 1489 1489 1489 1489 1483 1483 1483 1483 1483 1489 1489 1489 1489 1503 1503 1509 1509 1503 1503 1503 1503 1503 1509 1509 1509 1509 1509 1509 1509 1509 1509 1509 1509 1509 1509 1509 1516 1516 1516 1523 1523 1523 1523 1523 1523 1529 1529 1529 1536 1536 1536 1536 1536 3399 3399 3399 3399 3399 3399 3399 3433 3433 3433 3433 3433 3433 3433 3433 3433 3433 3433 3468 3468 3468 3468 3468 3468 1616 1616 1616 1616 1616 1616 1616 1616 1616 1609 1609 1601 1601 1601 1609 1609 1601 1601 1601 1601 1601 0 0 0 0 0 1894 1894 1894 1883 1883 1873 1863 1863 1863 1853 1853 1853 1853 1853 1863 1863 1863 1873 1873 1873 1873 1873 1873 1873 1873 3333 3333 3333 3365 3365 3365 3365 3365 3365 3365 3365 3365 3399 3399 3399 3399 3399 3399 3399 3399 3399 3399 3399 3399 3365 3333 3333 3333 3365 3365 3365 3399 3399 3399 3399 3399 3399 3399 3399 3399 3399 3399 3399 3365 3365 3399 3399 3399 3399 3399 3399 3399 3399 3399 3365 3365 3365 3365 3365 3365 3365 3399 3399 3365 3365 3365 3333 3333 3300 3300 3300 3300 3333 3333 3365 3365 3365 3365 3365 3365 3333 3333 3300 3300 3333 3333 3300 3300 3300 3333 3333 3333 3333 3333 3333 3333 3300 3300 3333 3300 3300 3300 0 0 0 0 0 0 0 0 0 0 0
0 0 0 0 0 0 0 0 0 0 0 0 0 0 0 0 0 0 0 0 0 0 0 0 0 0 0 0 0 0 0 0 3092 3092 3092 3120 3120 3120 3149 3149 3120 3120 3092 3092 3092 3092 3092 3092 3092 3120 3092 3092 3092 3092 3092 3092 3092 3092 3092 3120 3120 3120 3120 3120 3120 3120 3120 3120 3120 3120 3120 3120 3092 3092 3092 3120 3120 3149 3149 3120 2859 2835 2835 2835 2812 2812 2812 2812 2812 2812 2812 2812 2812 2812 2812 2812 2812 2812 2812 2812 2812 2812 2812 2812 2789 2789 2812 2812 2812 2812 2812 2835 2835 2835 2835 2859 2859 2859 2859 2859 2859 2883 2883 2883 2883 2883 2883 2908 2933 2933 2933 2958 2958 2958 2984 3010 3037 3092 3149 3149 3092 3037 3010 3010 2984 2984 3010 2984 2984 2984 2984 2984 2984 2984 2053 2040 2040 2040 2028 2028 2028 2028 2028 2040 2040 2040 2040 2040 2040 2040 2040 2040 0 1415 1415 1415 1415 1410 1404 1398 1392 1387 1387 1387 1387 1387 1387 1387 1387 1387 1387 1387 1387 1392 1392 1392 1392 1392 1392 1392 1398 1398 1398 1398 1398 1398 1398 1398 1398 1404 1404 1404 1404 1404 1410 1410 1410 1410 1415 1415 1415 1421 1427 1297 1297 1302 1302 1307 1307 1307 1312 1312 1312 1312 1317 1317 1322 1322 1328 1333 1333 1338 1338 1338 1338 1338 1343 1343 1343 1343 1343 1343 1343 1343 1349 1349 1349 1349 1349 1349 1349 1354 1354 1354 1354 1354 1354 1354 1354 1359 1365 1365 1365 1365 1365 1365 1370 1370 1370 1370 1376 1376 1376 1376 1376 1381 1381 1387 1387 1387 1392 1392 1392 1392 1392 1392 1398 1398 1398 1404 1404 1404 1404 1410 1410 1410 1410 1415 1415 1415 1421 1421 1421 1427 1427 1427 1427 1433 1433 1439 1439 1439 1445 1445 1445 1445 1452 1452 1458 1458 1458 1458 1452 1452 1452 1452 1452 1458 1458 1458 1458 1458 1458 1458 1594 1594 1594 1601 1601 1601 1601 1601 1609 1609 1616 1616 1616 1616 1616 1624 1624 1624 1624 1624 1632 1632 1632 1632 1632 1632 1639 1639 1639 1647 1647 1655 1655 1655 1655 1655 1655 1655 1663 1663 1663 1663 1671 1671 1671 1680 1680 1680 1680 1680 1680 1503 1496 1496 1496 1489 1489 1489 1489 1483 1483 1483 1483 1483 1489 1489 1489 1503 1503 1509 1509 1509 1503 1503 1503 1503 1503 1503 1509 1509 1509 1509 1509 1509 1509 1509 1509 1509 1509 1509 1509 1509 1523 1523 1523 1523 1523 1523 1516 1516 1529 1529 1529 1536 1536 1543 1543 3399 3399 3399 3365 3365 3365 3399 3399 3399 3399 3399 3433 3399 3399 3433 3433 3433 3433 3433 3433 3433 3433 3433 3433 3433 1616 1616 1616 1624 1624 1616 1616 1616 1616 1609 1609 1609 1609 1609 1609 1601 1601 1601 1594 1594 1594 0 0 0 0 1904 1894 1894 1894 1894 1883 1873 1863 1863 1863 1853 1853 1853 1853 1853 1863 1863 1863 1873 1873 1873 1873 1873 1873 1873 1873 3300 3300 3333 3333 3333 3333 3333 3333 3333 3333 3333 3333 3365 3365 3399 3399 3399 3399 3399 3365 3365 3365 3365 3365 3333 3333 3333 3333 3365 3365 3365 3365 3365 3399 3399 3399 3365 3365 3365 3365 3399 3365 3365 3365 3365 3365 3365 3365 3365 3365 3365 3365 3365 3365 3333 3333 3333 3365 3365 3365 3365 3365 3365 3365 3333 3333 3300 3300 3300 3300 3300 3300 3333 3333 3333 3333 3333 3333 3333 3333 3333 3333 3300 3300 3300 3300 3300 3300 3300 3300 3300 3300 3300 3300 3300 3300 3300 3300 3300 3300 3300 3300 0 0 0 0 0 0 0 0 0 0 0
0 0 0 0 0 0 0 0 0 0 0 0 0 0 0 0 0 0 0 0 0 0 0 0 0 0 0 0 0 0 0 0 3092 3092 3092 3092 3092 3092 3120 3120 3092 3092 3092 3092 3092 3092 3092 3092 3092 3092 3092 3092 3092 3092 3092 3092 3092 3092 3092 3092 3120 3120 3120 3120 3120 3120 3120 3120 3120 3120 3120 3092 3092 3092 3092 3092 3120 3120 3149 3120 2859 2835 2835 2835 2812 2812 2812 2835 2835 2835 2835 2835 2812 2812 2812 2812 2812 2812 2812 2812 2812 2812 2812 2812 2812 2812 2812 2812 2812 2812 2835 2835 2859 2859 2859 2859 2859 2859 2859 2883 2883 2883 2883 2883 2883 2883 2908 2908 2933 2933 2933 2958 2958 2958 3010 3010 3064 3092 3120 3120 3092 3092 3064 3010 3010 3010 3010 3010 3010 2984 2984 2984 2984 2984 2984 2040 2040 2040 2028 2028 2028 2040 2040 2040 2040 2040 2053 2053 2053 2053 2053 2053 0 1415 1415 1415 1415 1410 1404 1392 1387 1387 1381 1381 1381 1381 1381 1381 1387 1387 1387 1387 1387 1387 1392 1392 1392 1392 1392 1392 1398 1398 1398 1398 1398 1398 1398 1398 1398 1404 1404 1404 1404 1404 1410 1410 1410 1415 1415 1415 1415 1421 1427 1297 1297 1302 1307 1307 1307 1307 1312 1312 1312 1317 1317 1322 1322 1322 1328 1333 1333 1338 1338 1338 1338 1343 1343 1343 1343 1343 1343 1343 1343 1349 1349 1349 1349 1349 1349 1349 1354 1354 1354 1354 1354 1354 1354 1354 1354 1365 1365 1365 1365 1370 1370 1370 1370 1370 1370 1370 1376 1376 1376 1376 1381 1381 1381 1387 1387 1392 1392 1392 1392 1392 1398 1398 1398 1398 1404 1404 1404 1410 1410 1410 1410 1415 1415 1415 1415 1421 1421 1421 1427 1427 1427 1433 1433 1433 1439 1439 1439 1445 1445 1445 1445 1452 1458 1458 1458 1458 1458 1458 1452 1452 1452 1452 1452 1458 1458 1458 1458 1458 1458 1458 1594 1594 1594 1601 1601 1601 1601 1601 1609 1609 1616 1616 1616 1616 1624 1624 1624 1624 1624 1624 1632 1632 1632 1632 1632 1632 1639 1639 1647 1647 1647 1655 1655 1655 1655 1655 1663 1663 1663 1663 1671 1671 1671 1671 1671 1671 1671 1680 1680 1680 1509 1503 1503 1496 1496 1496 1489 1489 1489 1483 1483 1483 1483 1483 1489 1489 1489 1503 1503 1509 1509 1509 1503 1503 1503 1503 1503 1503 1509 1509 2212 2212 2212 2212 2212 2212 2212 2212 2212 3468 3433 3365 3365 1523 1523 1523 1523 1516 1516 1516 3365 3365 3365 3365 3365 3365 3365 3365 3365 3365 3365 3365 3365 3365 3365 3365 3399 3399 3399 3365 3365 3399 3399 3399 3399 3399 3433 3433 3433 3433 3433 1624 1624 1624 1624 1624 1624 1616 1616 1616 1616 1609 1609 1609 1609 1609 1609 1601 1601 1601 1594 1594 1594 0 0 0 0 1904 1894 1894 1894 1894 1883 1873 1863 1863 1863 1853 1853 1853 1853 1853 1863 1863 1863 1873 1873 1883 1873 1873 1894 1894 3300 3300 3300 3300 3300 3300 3300 3300 3300 3300 3300 3300 3333 3333 3365 3365 3399 3399 3365 3365 3365 3365 3365 3365 3365 3333 3333 3333 3333 3333 3365 3365 3365 3365 3365 3365 3365 3333 3333 3333 3333 3365 3365 3365 3365 3365 3365 3365 3365 3365 3365 3365 3365 3365 3333 3300 3300 3333 3333 3365 3365 3365 3365 3365 3333 3300 3300 3300 3269 3269 3300 3300 3300 3300 3333 3333 3333 3333 3333 3333 3333 3333 3333 3300 3300 3300 3300 3300 3300 3300 3300 3300 3300 3300 3300 3300 3300 3300 3300 3300 3300 3300 3300 0 0 0 0 0 0 0 0 0 0 0
0 0 0 0 0 0 0 0 0 0 0 0 0 0 0 0 0 0 0 0 0 0 0 0 0 0 0 0 0 0 0 0 3092 3092 3092 3092 3092 3092 3092 3092 3092 3064 3064 3064 3064 3064 3064 3064 3092 3092 3092 3092 3092 3092 3092 3092 3092 3092 3092 3092 3092 3092 3092 3092 3092 3120 3120 3120 3120 3120 3120 3092 3092 3092 3092 3092 3092 3120 3120 3120 2883 2859 2835 2835 2835 2835 2835 2835 2835 2835 2835 2835 2812 2812 2812 2812 2812 2812 2812 2812 2812 2812 2812 2812 2812 2812 2812 2835 2835 2835 2835 2859 2859 2859 2859 2859 2859 2883 2883 2883 2883 2883 2883 2883 2883 2883 2908 2908 2933 2933 2958 2958 2958 2958 2984 3010 3037 3092 3120 3120 3092 3092 3064 3037 3010 3010 3010 3010 3010 2984 2984 2984 2984 3010 3010 2053 2040 2040 2028 2028 2028 2040 2040 2040 2040 2040 2053 2053 2053 2053 2053 2040 0 0 1421 1421 1421 1415 1410 1387 1387 1381 1381 1381 1381 1381 1381 1381 1387 1387 1387 1387 1387 1387 1392 1392 1392 1392 1392 1398 1398 1398 1398 1398 1398 1398 1398 1404 1404 1404 1404 1404 1404 1404 1410 1410 1410 1415 1415 1415 1421 1421 1427 1302 1302 1302 1307 1307 1312 1312 1312 1312 1317 1317 1317 1322 1322 1328 1333 1333 1333 1338 1338 1338 1343 1343 1343 1343 1343 1343 1343 1343 1349 1349 1349 1349 1349 1349 1349 1354 1354 1354 1354 1354 1354 1354 1354 1354 1359 1365 1365 1370 1370 1370 1370 1370 1370 1370 1370 1370 1376 1376 1376 1376 1381 1381 1381 1387 1387 1392 1392 1392 1392 1392 1398 1398 1398 1404 1404 1410 1410 1410 1410 1410 1415 1415 1415 1415 1421 1421 1427 1427 1427 1433 1433 1433 1433 1439 1439 1439 1439 1445 1445 1445 1452 1458 1458 1464 1464 1464 1464 1458 1458 1452 1452 1452 1452 1458 1458 1458 1458 1464 1464 1464 1594 1594 1601 1601 1601 1601 1601 1609 1616 1616 1616 1616 1616 1624 1624 1624 1624 1624 1624 1624 1632 1632 1632 1632 1639 1639 1639 1647 1647 1647 1647 1655 1655 1655 1655 1655 1663 1663 1663 1663 1671 1671 1671 1671 1671 1671 1671 1680 1680 1509 1509 1509 1503 1496 1496 1496 1489 1489 1489 1489 1483 1483 1489 1489 1489 1489 1489 1503 1509 1509 1509 1509 1503 1503 1503 1503 1503 1503 1509 2198 2212 2212 2212 2212 2212 2212 2212 2212 2212 3365 3365 3365 3333 3333 3333 3333 3333 1516 1516 3333 3365 3365 3365 3365 3365 3365 3365 3365 3365 3333 3333 3333 3333 3365 3365 3365 3365 3365 3365 3365 3365 3365 3365 3365 3365 3365 3365 3365 3399 3433 3433 1624 1624 1624 1624 1624 1624 1616 1616 1616 1616 1609 1609 1609 1609 1609 1609 1609 1609 1609 1594 1594 0 0 0 0 0 1894 1883 1883 1894 1894 1883 1873 1863 1863 1863 1853 1853 1853 1853 1853 1863 1863 1863 1873 1873 1883 1873 1873 1873 3300 3300 3300 3300 3300 3300 3300 3300 3300 3300 3300 3300 3300 3300 3300 3333 3365 3365 3365 3365 3365 3333 3333 3333 3333 3333 3333 3333 3333 3333 3333 3333 3333 3333 3333 3333 3333 3333 3333 3333 3300 3300 3333 3333 3333 3300 3300 3333 3333 3333 3333 3333 3333 3333 3333 3333 3300 3300 3300 3300 3333 3333 3333 3333 3333 3333 3300 3269 3269 3269 3269 3269 3269 3269 3269 3300 3300 3300 3333 3333 3333 3333 3333 3333 3300 3300 3300 3300 3300 3269 3269 3269 3269 3269 3300 3300 3300 3300 3300 3300 3269 3269 3269 3269 0 0 0 0 0 0 0 0 0 0 0
0 0 0 0 0 0 0 0 0 0 0 0 0 0 0 0 0 0 0 0 0 0 0 0 0 0 0 0 0 0 0 0 3064 3064 3064 3064 3064 3064 3064 3064 3064 3037 3037 3037 3037 3037 3037 3037 3064 3092 3092 3092 3092 3092 3092 3092 3092 3064 3064 3092 3092 3092 3092 3092 3092 3092 3120 3092 3092 3092 3120 3092 3064 3064 3064 3092 3092 3092 3092 3092 2883 2859 2835 2835 2835 2835 2835 2835 2835 2835 2835 2835 2835 2835 2835 2812 2812 2812 2812 2835 2835 2835 2812 2812 2835 2835 2835 2835 2835 2835 2859 2859 2859 2859 2859 2859 2883 2883 2883 2883 2883 2883 2883 2883 2883 2883 2908 2908 2933 2958 2958 2958 2958 2958 2984 3010 3037 3064 3092 3092 3092 3092 3064 3037 3010 3010 3010 3010 3010 2984 2984 2984 2984 3010 3010 3010 2053 2040 2028 2028 2040 2040 2040 2040 2040 2053 2053 2053 2053 2040 2040 2040 2028 0 0 0 0 1410 1410 1387 1387 1381 1381 1381 1381 1381 1381 1381 1387 1387 1387 1387 1387 1387 1392 1392 1392 1392 1398 1398 1398 1398 1398 1398 1398 1398 1404 1404 1404 1404 1404 1404 1410 1410 1415 1415 1415 1421 1421 1421 1427 1427 1433 1439 1307 1307 1307 1312 1312 1312 1312 1317 1317 1317 1322 1328 1328 1328 1333 1333 1338 1338 1338 1343 1343 1343 1343 1349 1343 1343 1343 1349 1349 1349 1349 1349 1354 1354 1354 1354 1354 1354 1354 1354 1354 1359 1359 1365 1365 1370 1370 1370 1370 1370 1370 1370 1370 1370 1376 1376 1376 1376 1376 1381 1381 1387 1387 1392 1392 1392 1392 1392 1392 1398 1398 1398 1404 1404 1410 1410 1410 1410 1410 1415 1415 1415 1415 1421 1421 1421 1427 1427 1433 1433 1433 1433 1433 1439 1439 1439 1445 1445 1445 1445 1452 1452 1458 1464 1464 1464 1464 1458 1458 1452 1452 1452 1452 1458 1458 1458 1458 1464 1464 1464 1601 1601 1601 1601 1601 1601 1601 1609 1616 1616 1624 1624 1624 1624 1624 1624 1624 1624 1624 1632 1632 1632 1632 1632 1639 1639 1639 1647 1647 1647 1655 1655 1655 1655 1655 1655 1655 1663 1663 1663 1671 1671 1671 1671 1671 1671 2143 2156 2170 2170 1509 1509 1503 1503 1503 1496 1496 1489 1489 1489 1489 1489 1489 1489 1489 1489 1496 1503 1509 1509 1509 1509 1503 1503 1503 1503 1503 2198 2198 2198 2212 2212 2212 2212 2212 2212 2212 2212 2212 3333 3333 3365 3333 3333 3333 3333 3333 3333 3333 3333 3333 3365 3365 3365 3333 3333 3333 3333 3333 3333 3333 3333 3333 3333 3333 3365 3333 3333 3365 3333 3333 3333 3333 3365 3365 3365 3365 3365 3399 3399 1639 1639 1624 1624 1624 1624 1624 1616 1616 1616 1616 1609 1609 1609 1609 1609 1609 1609 1609 1609 1586 1586 0 0 0 0 0 1894 1883 1883 1894 1894 1883 1873 1863 1863 1863 1853 1853 1853 1853 1863 1863 1863 1863 1873 1873 1883 1883 1883 3300 3300 3300 3300 3300 3300 3300 3300 3300 3300 3300 3300 3300 3300 3300 3300 3300 3333 3333 3333 3333 3333 3300 3300 3300 3300 3300 3300 3300 3300 3300 3300 3300 3333 3333 3333 3300 3300 3333 3300 3300 3300 3300 3300 3300 3300 3300 3300 3300 3300 3333 3333 3333 3333 3333 3333 3333 3269 3269 3300 3300 3300 3300 3300 3300 3333 3300 3300 3269 3269 3269 3269 3269 3269 3269 3269 3269 3269 3269 3269 3269 3300 3300 3300 3300 3269 3269 3300 3300 3269 3269 3269 3269 3269 3269 3269 3269 3269 3269 3300 3269 3269 3269 3269 3269 0 0 0 0 0 0 0 0 0 0 0
0 0 0 0 0 0 0 0 0 0 0 0 0 0 0 0 0 0 0 0 0 0 0 0 0 0 0 0 0 0 0 0 3064 3037 3037 3064 3037 3037 3037 3037 3037 3010 3010 3010 3010 3037 3037 3037 3064 3064 3092 3092 3092 3064 3064 3064 3064 3064 3064 3064 3064 3064 3064 3092 3092 3092 3092 3092 3092 3092 3092 3064 3064 3064 3064 3064 3064 3064 3092 3064 2908 2859 2859 2835 2835 2835 2835 2835 2835 2835 2835 2835 2835 2835 2835 2835 2812 2812 2812 2835 2835 2835 2812 2812 2835 2835 2835 2835 2835 2859 2859 2859 2859 2859 2859 2859 2883 2883 2883 2883 2883 2883 2883 2883 2883 2883 2908 2908 2933 2933 2958 2958 2958 2984 2984 3010 3037 3064 3092 3092 3092 3092 3092 3064 3037 3037 3037 3037 3010 3010 3010 2984 2984 3010 3010 3010 2053 2053 2040 2040 2040 2040 2040 2040 2053 2053 2053 2053 2053 2040 2028 2028 2028 2933 2933 2933 0 1387 1387 1387 1381 1381 1381 1381 1381 1381 1381 1387 1387 1387 1387 1387 1387 1387 1392 1392 1392 1398 1398 1398 1398 1398 1398 1398 1404 1404 1404 1404 1404 1410 1410 1410 1410 1415 1415 1421 1421 1421 1427 1427 1427 1433 1439 1445 1312 1312 1312 1312 1312 1317 1317 1317 1317 1322 1322 1328 1328 1328 1333 1338 1338 1338 1343 1343 1343 1343 1349 1349 1349 1349 1349 1349 1349 1349 1349 1349 1354 1354 1354 1354 1354 1354 1354 1354 1359 1359 1365 1365 1370 1370 1370 1370 1370 1370 1370 1376 1376 1376 1376 1376 1376 1381 1381 1381 1387 1387 1392 1392 1392 1392 1392 1392 1398 1398 1398 1398 1404 1404 1410 1410 1415 1415 1415 1415 1415 1415 1421 1421 1421 1427 1427 1433 1433 1433 1433 1439 1439 1439 1439 1439 1445 1445 1445 1445 1445 1452 1458 1464 1464 1464 1464 1458 1458 1458 1458 1458 1458 1458 1458 1458 1458 1464 1464 1464 1601 1601 1601 1601 1601 1601 1601 1609 1616 1616 1616 1616 1616 1624 1624 1624 1624 1624 1624 1624 1632 1632 1632 1632 1639 1639 1639 1647 1647 1647 1647 1647 1647 1655 1655 1655 1655 1663 1663 1663 1671 2129 2143 2143 2143 2143 2156 2170 2170 2170 1509 1509 1509 1509 1509 1503 1496 1496 1489 1489 1489 1489 1489 1489 1489 1496 1503 1503 1509 1516 1516 1516 1503 1503 1503 1509 2198 2198 2198 2198 2212 2212 2212 2212 2212 2212 2212 2212 2212 3333 3333 3333 3333 3333 3333 3333 3333 3333 3333 3333 3333 3333 3333 3333 3333 3333 3333 3333 3333 3333 3333 3333 3333 3333 3333 3333 3333 3333 3333 3333 3333 3333 3333 3333 3333 3333 3333 3365 3365 1647 1639 1639 1632 1632 1632 1624 1624 1624 1616 1616 1616 1609 1609 1609 1609 1609 1609 1609 1609 1616 1586 1586 0 0 0 0 0 1894 1894 1894 1894 1894 1883 1873 1863 1863 1863 1853 1853 1853 1853 1863 1863 1863 1863 1873 1883 1883 1883 1883 3300 3300 3300 3300 3300 3300 3300 3300 3300 3300 3300 3300 3300 3269 3269 3300 3300 3300 3300 3300 3300 3300 3300 3300 3300 3300 3300 3300 3300 3300 3300 3300 3300 3300 3333 3333 3300 3300 3300 3300 3300 3300 3300 3300 3300 3300 3300 3300 3300 3300 3300 3300 3300 3300 3300 3300 3300 3269 3269 3269 3269 3269 3300 3300 3300 3300 3269 3269 3269 3269 3269 3269 3269 3269 3238 3238 3269 3269 3269 3269 3269 3269 3269 3269 3269 3269 3269 3269 3269 3269 3269 3269 3269 3269 3269 3269 3269 3269 3269 3269 3269 3269 3269 3269 3269 0 0 0 0 0 0 0 0 0 0 0
0 0 0 0 0 0 0 0 0 0 0 0 0 0 0 0 0 0 0 0 0 0 0 0 0 0 0 0 0 0 0 0 3037 3037 3037 3037 3010 3010 3010 3010 3010 3010 3010 3010 3010 3037 3037 3037 3037 3037 3064 3064 3064 3064 3064 3064 3064 3064 3064 3064 3064 3064 3064 3064 3092 3092 3092 3092 3092 3092 3092 3064 3064 3064 3064 3064 3064 3064 3064 3037 2908 2883 2859 2859 2835 2835 2835 2835 2835 2859 2835 2835 2835 2835 2835 2835 2835 2812 2812 2835 2835 2835 2835 2835 2835 2835 2859 2859 2859 2859 2859 2859 2859 2859 2859 2859 2883 2883 2883 2883 2883 2883 2883 2883 2883 2883 2908 2908 2933 2933 2958 2958 2958 2984 2984 3010 3037 3064 3092 3092 3092 3092 3092 3064 3064 3037 3037 3010 3010 3010 3010 3010 3010 3010 3010 3010 2053 2053 2040 2040 2040 2040 2040 2040 2053 2053 2053 2053 2053 2040 2028 2028 2958 2933 2933 2958 2958 2933 1381 1381 1381 1381 1381 1381 1381 1387 1387 1387 1387 1387 1387 1392 1392 1392 1392 1398 1398 1398 1398 1398 1398 1404 1404 1404 1404 1404 1410 1410 1410 1410 1410 1410 1415 1415 1421 1421 1421 1427 1427 1427 1433 1439 1445 1445 1312 1312 1312 1317 1317 1317 1317 1317 1322 1322 1328 1328 1328 1333 1338 1338 1338 1338 1343 1343 1343 1349 1349 1349 1349 1349 1349 1349 1349 1349 1354 1354 1354 1354 1354 1354 1359 1359 1359 1359 1365 1365 1370 1370 1370 1370 1370 1370 1376 1376 1376 1376 1376 1376 1376 1381 1381 1381 1381 1387 1387 1392 1392 1392 1392 1392 1392 1398 1398 1398 1398 1404 1404 1410 1410 1410 1415 1415 1415 1415 1415 1415 1421 1421 1427 1427 1433 1433 1433 1433 1439 1439 1439 1439 1439 1439 1439 1445 1445 1445 1445 1452 1458 1464 1464 1464 1464 1458 1458 1458 1458 1458 1458 1458 1458 1458 1464 1464 1464 1601 1601 1601 1601 1601 1601 1601 1601 1609 1616 1616 1616 1616 1616 1624 1624 1624 1624 1624 1624 1624 1624 1632 1632 1632 1639 1639 1639 1647 1647 1647 1647 1647 1647 1655 1655 1655 1655 1663 1663 2116 2129 2129 2143 2143 2143 2156 2156 2170 2170 1509 1509 1509 1509 1509 1509 1503 1496 1496 1489 1489 1489 1489 1489 1489 1496 1496 1503 1503 1509 1509 2198 2198 1503 1503 2198 2198 2198 2198 2198 2212 2212 2212 2212 2212 2212 2212 2212 3269 3269 3300 3300 3333 3333 3333 3333 3333 3333 3333 3333 3333 3333 3333 3333 3333 3333 3333 3333 3333 3333 3333 3333 3333 3333 3333 3333 3333 3333 3333 3333 3333 3333 3333 3333 3333 3333 3333 3333 3365 3365 1647 1647 1639 1639 1639 1632 1632 1624 1624 1624 1616 1616 1616 1616 1616 1616 1616 1616 1609 1609 1616 0 0 0 0 0 0 0 1894 1894 1894 1894 1894 1883 1873 1863 1863 1863 1853 1853 1853 1853 1863 1863 1863 1863 1873 1883 1883 1883 1883 3300 3300 3269 3269 3269 3269 3300 3300 3269 3269 3269 3269 3269 3269 3269 3300 3300 3300 3300 3300 3300 3300 3269 3269 3269 3300 3300 3300 3300 3300 3300 3300 3300 3300 3300 3300 3300 3300 3300 3300 3300 3300 3300 3300 3300 3300 3300 3300 3300 3300 3300 3300 3300 3300 3300 3300 3300 3269 3269 3269 3269 3269 3269 3269 3269 3269 3269 3269 3269 3269 3269 3269 3269 3269 3238 3238 3238 3238 3238 3238 3238 3269 3269 3269 3269 3269 3269 3269 3269 3269 3269 3269 3269 3269 3269 3269 3269 3269 3269 3269 3269 3269 3269 3269 3269 0 0 0 0 0 0 0 0 0 0 0
0 0 0 0 0 0 0 0 0 0 0 0 0 0 0 0 0 0 0 0 0 0 0 0 0 0 0 0 0 0 0 0 3037 3010 3010 3037 3010 3010 3010 3010 3010 3010 3010 3010 3010 3010 3037 3037 3037 3037 3037 3037 3037 3037 3037 3064 3037 3037 3037 3037 3064 3037 3037 3037 3064 3064 3092 3092 3092 3092 3092 3037 3037 3037 3037 3037 3064 3064 3064 3037 2908 2883 2859 2859 2835 2835 2859 2835 2835 2835 2835 2835 2835 2835 2835 2835 2835 2835 2835 2835 2835 2835 2835 2835 2859 2859 2859 2859 2859 2859 2859 2859 2859 2859 2859 2883 2883 2883 2883 2883 2883 2883 2883 2883 2883 2883 2908 2908 2933 2933 2958 2958 2958 2984 2984 2984 3010 3037 3064 3064 3092 3092 3092 3064 3064 3037 3037 3010 3010 3010 3010 3010 3010 3010 3010 3010 2053 2053 2040 2040 2040 2040 2053 2053 2053 2053 2053 2053 2053 2040 2040 2040 2040 2933 2933 2933 2933 2933 2908 1381 1381 1381 1381 1381 1381 1387 1387 1387 1387 1392 1392 1392 1392 1392 1392 1398 1398 1398 1398 1404 1404 1404 1404 1410 1410 1410 1410 1415 1415 1415 1415 1415 1421 1421 1427 1427 1427 1427 1433 1433 1439 1439 1445 1445 1312 1312 1317 1317 1317 1317 1317 1317 1322 1328 1328 1328 1333 1333 1338 1338 1338 1343 1343 1343 1349 1349 1349 1354 1349 1349 1349 1349 1349 1349 1354 1354 1354 1354 1354 1359 1359 1359 1365 1365 1365 1365 1370 1370 1370 1370 1376 1376 1376 1376 1376 1376 1381 1381 1381 1381 1387 1387 1387 1392 1392 1392 1392 1392 1392 1398 1398 1398 1398 1398 1404 1404 1410 1410 1415 1415 1415 1415 1415 1415 1415 1421 1421 1421 1427 1433 1433 1433 1433 1433 1439 1439 1439 1439 1439 1439 1439 1445 1445 1445 1586 1464 1464 1470 1470 1470 1464 1458 1458 1458 1458 1458 1458 1458 1464 1464 1464 1464 1464 1601 1601 1601 1601 1601 1601 1609 1609 1609 1616 1616 1616 1624 1624 1624 1624 1624 1624 1624 1624 1624 1624 1632 1632 1632 1639 1639 1639 1647 1647 1647 2116 1647 1647 2116 2116 2116 2116 2116 2129 2129 2129 2129 2143 2143 2156 2156 2156 2170 2170 1516 1516 1509 1509 1509 1509 1503 1496 1496 1496 1496 1496 1496 1496 1496 1496 1496 1503 1509 1509 2212 2198 2198 2198 2198 2198 2198 2198 2212 2212 2212 2212 2212 2212 2212 2212 2212 2212 2226 2226 3300 3300 3300 3300 3300 3300 3300 3333 3300 3300 3333 3333 3333 3333 3333 3333 3333 3333 3333 3333 3333 3333 3333 3333 3333 3333 3333 3300 3300 3300 3300 3300 3333 3333 3333 3333 3333 3333 3333 3333 1647 1647 1639 1639 1639 1632 1632 1624 1624 1624 1624 1616 1616 1616 1616 1616 1616 1616 1616 1616 1616 0 0 0 0 0 0 0 1894 1894 1894 1894 1883 1883 1873 1863 1863 1863 1853 1853 1853 1853 1863 1863 1863 1863 1873 1883 1894 1894 1894 3269 3269 3269 3269 3269 3269 3269 3269 3269 3269 3269 3269 3269 3269 3269 3269 3269 3269 3269 3269 3269 3269 3269 3269 3269 3269 3269 3300 3300 3300 3300 3300 3300 3300 3300 3300 3300 3300 3300 3300 3300 3300 3300 3269 3269 3269 3269 3269 3269 3300 3300 3300 3300 3300 3300 3300 3300 3238 3238 3238 3238 3238 3269 3238 3238 3238 3238 3238 3238 3238 3238 3238 3238 3238 3208 3208 3208 3208 3208 3208 3238 3238 3238 3238 3238 3238 3238 3238 3238 3238 3238 3238 3238 3238 3238 3238 3238 3238 3238 3238 3238 3238 3238 3238 3238 0 0 0 0 0 0 0 0 0 0 0
0 0 0 0 0 0 0 0 0 0 0 0 0 0 0 0 0 0 0 0 0 0 0 0 0 0 0 0 0 0 0 0 3010 3010 3010 3010 2984 2984 3010 3010 3010 3010 3010 3010 3010 3010 3010 3010 3010 3010 3037 3037 3010 3010 3037 3037 3010 3010 3010 3037 3037 3037 3037 3037 3037 3037 3064 3037 3037 3064 3064 3037 3037 3037 3037 3037 3037 3064 3037 3010 2908 2883 2859 2859 2859 2859 2859 2835 2835 2835 2835 2835 2835 2835 2835 2835 2835 2835 2835 2835 2835 2835 2835 2835 2859 2859 2859 2859 2859 2859 2859 2859 2859 2859 2859 2883 2883 2883 2883 2883 2883 2883 2883 2883 2883 2883 2908 2908 2933 2933 2958 2958 2958 2984 2984 2984 3010 3037 3064 3064 3092 3092 3092 3064 3064 3064 3037 3037 3010 3010 3010 3010 3010 3010 3010 3010 2053 2053 2040 2040 2040 2040 2053 2053 2053 2053 2053 2053 2053 2040 2040 2040 2040 2933 2933 2933 2908 2908 2908 0 1387 1381 1381 1381 1381 1387 1387 1392 1392 1392 1392 1398 1398 1398 1398 1398 1398 1404 1404 1404 1404 1410 1410 1410 1415 1415 1415 1415 1421 1421 1421 1421 1427 1427 1427 1427 1427 1433 1433 1439 1439 1445 1445 1445 1312 1312 1317 1317 1317 1317 1322 1322 1328 1328 1328 1333 1333 1333 1338 1338 1338 1343 1349 1349 1349 1349 1349 1354 1349 1349 1349 1349 1354 1354 1354 1354 1354 1359 1359 1359 1365 1365 1365 1365 1370 1370 1370 1370 1370 1370 1376 1376 1376 1376 1376 1381 1381 1387 1387 1387 1392 1392 1392 1392 1392 1392 1392 1392 1398 1398 1398 1398 1398 1404 1410 1410 1410 1410 1415 1415 1415 1415 1415 1415 1415 1427 1427 1433 1433 1439 1439 1433 1433 1433 1433 1439 1439 1439 1439 1439 1439 1579 1579 1579 1586 1586 1586 1470 1470 1470 1470 1464 1458 1458 1458 1458 1458 1464 1464 1464 1464 1464 1464 1601 1601 1601 1601 1601 1601 1609 1609 1609 1616 1616 1616 1624 1624 1624 1624 1624 1624 1624 1624 1624 1624 1632 1632 2103 2103 2103 2103 2103 2116 2116 2116 2116 2116 2129 2129 2129 2129 2129 2129 2129 2129 2143 2143 2143 2156 2156 2156 2170 2170 1516 1516 1509 1509 1509 1509 1503 1503 1496 1496 1496 1496 1496 1496 1496 1496 1503 1503 1509 1509 2212 2212 2212 2198 2198 2198 2198 2198 2198 2212 2212 2212 2212 2212 2212 2212 2212 2226 2226 2226 3269 3300 3300 3300 3300 3300 3300 3300 3300 3300 3300 3300 3333 3333 3333 3333 3333 3333 3300 3300 3300 3300 3333 3333 3333 3333 3300 3300 3300 3300 3300 3300 3333 3333 3333 3333 3333 3333 3333 1639 1647 1647 1639 1639 1639 1639 1632 1624 1624 1624 1624 1616 1616 1616 1616 1616 1616 1616 1616 1616 0 0 0 0 0 0 0 0 1894 1894 1894 1883 1883 1883 1873 1863 1863 1863 1853 1853 1853 1853 1863 1863 1863 1873 1873 1883 1894 1894 0 0 3269 3269 3269 3269 3269 3269 3269 3269 3269 3269 3269 3269 3238 3238 3269 3269 3238 3238 3238 3238 3269 3238 3238 3269 3269 3269 3300 3300 3300 3300 3300 3300 3300 3300 3300 3300 3300 3300 3300 3269 3269 3269 3269 3269 3269 3269 3269 3269 3300 3300 3300 3300 3300 3300 3269 3269 3238 3238 3238 3238 3238 3238 3238 3238 3238 3238 3238 3238 3238 3238 3238 3238 3238 3208 3208 3208 3208 3208 3208 3208 3208 3208 3238 3238 3238 3238 3238 3238 3238 3238 3238 3238 3238 3238 3238 3238 3238 3238 3238 3238 3238 3238 3238 3238 0 0 0 0 0 0 0 0 0 0 0
0 0 0 0 0 0 0 0 0 0 0 0 0 0 0 0 0 0 0 0 0 0 0 0 0 0 0 0 0 0 0 0 2984 2984 2984 2984 2984 2984 2984 2984 3010 3010 3010 3010 3010 3010 3010 3010 3010 3010 3010 3010 3010 3010 3010 3010 3010 3010 3010 3010 3010 3010 3010 3010 3037 3037 3037 3037 3037 3037 3037 3010 3010 3010 3010 3010 3037 3037 3010 2984 2908 2883 2883 2859 2859 2859 2859 2835 2835 2835 2835 2835 2835 2835 2835 2835 2835 2835 2835 2835 2835 2835 2835 2859 2859 2859 2859 2859 2859 2859 2859 2859 2859 2859 2859 2883 2883 2883 2883 2908 2908 2883 2883 2883 2883 2883 2908 2908 2933 2933 2958 2958 2958 2984 2984 2984 3010 3037 3037 3064 3092 3092 3092 3064 3064 3064 3037 3037 3010 3010 3010 3010 3010 3010 3010 3010 2065 2053 2040 2040 2053 2053 2053 2053 2053 2053 2053 2053 2053 2040 2040 2040 2040 2933 2933 2933 2908 2908 0 0 1387 1387 1387 1387 1387 1392 1392 1392 1392 1392 1398 1398 1398 1398 1404 1404 1404 1404 1404 1410 1410 1410 1410 1415 1415 1421 1421 1421 1421 1421 1421 1427 1427 1427 1427 1433 1433 1433 1439 1439 1445 1445 1445 1445 1312 1312 1317 1317 1317 1317 1322 1322 1328 1328 1333 1333 1333 1338 1338 1338 1343 1349 1349 1349 1354 1354 1354 1354 1354 1354 1354 1354 1354 1354 1354 1359 1359 1359 1365 1365 1365 1370 1370 1370 1370 1370 1370 1370 1376 1376 1376 1376 1376 1376 1381 1381 1381 1387 1387 1392 1392 1392 1392 1392 1392 1392 1392 1398 1398 1398 1398 1404 1404 1404 1410 1410 1415 1415 1415 1415 1415 1415 1415 1415 1415 1557 1550 1433 1433 1439 1439 1433 1433 1433 1433 1439 1439 1439 1439 1572 1579 1579 1579 1579 1579 1579 1586 1470 1470 1477 1477 1464 1464 1464 1464 1464 1464 1464 1470 1477 1477 1477 1477 1483 1601 1601 1601 1601 1601 1609 1609 1609 1616 1616 1624 1624 2065 2078 2090 2090 2090 1624 1624 2103 2103 2103 2103 2103 2103 2103 2103 2103 2116 2116 2116 2116 2116 2129 2129 2129 2129 2129 2143 2143 2143 2143 2143 2143 2156 2156 2156 2170 2170 1516 1516 1509 1509 1509 1509 1503 1503 1503 1496 1496 1496 1496 1496 1496 1503 1503 1509 1509 1509 2212 2212 2212 2198 2198 2198 2198 2198 2198 2212 2212 2212 2212 2212 2212 2212 2212 2212 2212 2226 3269 3269 3300 3300 3300 3300 3300 3300 3300 3300 3300 3300 3300 3300 3333 3333 3333 3333 3300 3300 3300 3300 3333 3333 3333 3333 3300 3300 3300 3300 3300 3300 3333 3333 3333 3333 3333 3333 1639 1639 1639 1647 1639 1639 1639 1639 1632 1624 1624 1624 1624 1624 1616 1616 1616 1616 1624 1616 1616 1624 0 0 0 0 0 0 0 1894 1894 1894 1894 1883 1883 1873 1863 1863 1863 1863 1853 1853 1853 1863 1863 1863 1873 1873 1883 1894 1894 1894 0 3208 3269 3269 3269 3269 3269 3269 3269 3269 3269 3269 3269 3238 3238 3238 3238 3238 3238 3238 3238 3238 3238 3238 3238 3269 3269 3269 3269 3269 3269 3300 3300 3300 3300 3300 3269 3269 3269 3269 3269 3269 3269 3269 3269 3269 3269 3269 3269 3269 3269 3269 3269 3269 3269 3269 3269 3269 3238 3238 3238 3208 3208 3238 3238 3238 3238 3238 3238 3238 3238 3208 3208 3208 3208 3178 3178 3178 3208 3208 3208 3208 3208 3208 3238 3238 3238 3238 3238 3238 3208 3208 3208 3208 3208 3208 3208 3208 3238 3238 3238 3238 3238 3238 3238 3238 0 0 0 0 0 0 0 0 0 0 0
0 0 0 0 0 0 0 0 0 0 0 0 0 0 0 0 0 0 0 0 0 0 0 0 0 0 0 0 0 0 0 0 2984 2984 2958 2958 2984 2984 2984 2984 3010 3010 3010 3010 3010 3010 3010 3010 3010 3010 3010 3010 3010 3010 3010 3010 3010 3010 3010 3010 3010 3010 3010 3010 3010 3010 3010 3010 3037 3037 3037 2984 2984 2984 2984 2984 3010 3010 2984 2984 2933 2908 2883 2883 2859 2859 2859 2835 2835 2835 2835 2835 2835 2835 2835 2835 2835 2835 2835 2835 2835 2835 2835 2835 2859 2859 2859 2859 2859 2859 2859 2859 2859 2859 2859 2883 2883 2883 2883 2908 2908 2883 2883 2883 2883 2883 2908 2908 2933 2958 2958 2958 2958 2984 2984 2984 3010 3037 3037 3064 3092 3092 3092 3092 3064 3064 3064 3037 3037 3010 3010 3010 3010 3010 3010 3010 2065 2065 2053 2053 2053 2053 2053 2053 2053 2053 2053 2053 2053 2053 2053 2053 2933 2933 2933 2933 2933 2933 2933 0 0 1387 1387 1387 1387 1392 1392 1392 1392 1398 1398 1398 1398 1398 1404 1404 1404 1410 1410 1410 1410 1415 1415 1415 1421 1421 1421 1421 1421 1421 1427 1427 1427 1427 1433 1433 1439 1439 1439 1445 1445 1445 1445 1445 1312 1312 1317 1317 1317 1322 1322 1322 1328 1328 1333 1333 1333 1338 1343 1343 1343 1349 1349 1349 1354 1354 1354 1354 1354 1354 1354 1354 1354 1354 1359 1359 1359 1365 1365 1365 1370 1370 1370 1370 1370 1370 1376 1376 1376 1376 1376 1376 1376 1376 1381 1381 1381 1387 1392 1392 1392 1392 1392 1392 1392 1398 1398 1398 1398 1398 1404 1404 1404 1410 1410 1410 1415 1415 1415 1415 1415 1550 1557 1557 1557 1557 1550 1550 1550 1557 1564 1564 1564 1572 1572 1572 1572 1572 1572 1572 1572 1579 1579 1579 1579 1579 1586 1489 1483 1477 1477 1464 1464 1464 1464 1464 1464 1470 1470 1477 1483 1483 1483 1483 2116 1601 1601 1601 1601 1609 1609 1609 2065 2065 2065 2065 2065 2078 2090 2090 2090 2103 2103 2103 2103 2103 2103 2116 2116 2116 2116 2116 2116 2116 2116 2129 2129 2143 2143 2143 2143 2143 2143 2143 2143 2156 2156 2156 2156 2170 2170 2170 2170 1516 1516 1516 1509 1509 1509 1503 1503 1503 1496 1496 1496 1496 1503 1503 1509 1509 1509 1516 1516 2212 2212 2212 2198 2198 2198 2198 2198 2198 2198 2198 2212 2212 2212 2212 2212 2212 2212 2212 3238 3238 3269 3269 3269 3269 3269 3269 3269 3300 3300 3300 3300 3300 3300 3300 3300 3300 3300 3300 3300 3300 3300 3333 3300 3300 3300 3300 3300 3300 3300 3300 3300 3333 3333 3333 3333 1632 1632 1632 1639 1639 1647 1639 1639 1639 1639 1632 1624 1624 1624 1624 1624 1624 1624 1624 1624 1624 1624 1624 1624 1624 0 0 0 0 0 0 1894 1894 1883 1883 1883 1873 1873 1863 1863 1863 1863 1853 1853 1853 1863 1863 1873 1873 1883 1883 1894 1894 1894 3120 3208 3208 3208 3238 3269 3269 3269 3269 3269 3269 3238 3238 3208 3208 3208 3208 3238 3208 3208 3208 3208 3238 3208 3208 3238 3238 3238 3269 3269 3269 3269 3269 3269 3269 3269 3269 3269 3269 3238 3238 3238 3238 3238 3238 3238 3238 3238 3238 3238 3238 3269 3269 3269 3269 3269 3238 3238 3208 3208 3208 3208 3208 3208 3208 3208 3208 3208 3208 3208 3208 3208 3178 3178 3178 3149 3149 3178 3178 3178 3208 3208 3208 3208 3208 3208 3208 3208 3238 3238 3208 3208 3208 3178 3178 3178 3178 3178 3208 3208 3208 3208 3208 3208 3208 3208 0 0 0 0 0 0 0 0 0 0 0
0 0 0 0 0 0 0 0 0 0 0 0 0 0 0 0 0 0 0 0 0 0 0 0 0 0 0 0 0 0 0 0 2984 2984 2958 2958 2958 2958 2958 2984 2984 3010 2984 2984 2984 2984 2984 2984 2984 2984 2984 2984 2984 2984 2984 2984 2984 2984 2984 2984 2984 2984 2984 2984 2984 2984 2984 3010 3010 3010 3010 2984 2984 2984 2984 2984 2984 2984 2984 2958 2933 2908 2883 2883 2859 2859 2859 2835 2835 2835 2835 2835 2835 2835 2835 2835 2835 2835 2835 2835 2835 2835 2835 2835 2835 2859 2859 2859 2859 2859 2859 2859 2859 2859 2883 2883 2883 2883 2883 2908 2908 2883 2883 2883 2883 2883 2908 2908 2933 2958 2958 2958 2958 2984 2984 2984 3010 3037 3037 3064 3064 3092 3092 3092 3064 3064 3064 3037 3037 3037 3037 3037 3037 3010 3010 3010 2065 2065 2053 2053 2053 2053 2053 2053 2053 2053 2053 2053 2053 2053 2065 2078 2078 2933 2933 2933 2933 2933 2933 0 0 1387 1387 1387 1392 1392 1392 1398 1398 1398 1398 1404 1404 1404 1404 1404 1404 1410 1410 1415 1415 1415 1421 1421 1421 1421 1421 1421 1421 1427 1427 1427 1427 1433 1433 1439 1439 1439 1445 1445 1445 1445 1445 1445 1317 1317 1317 1317 1322 1322 1322 1328 1328 1333 1333 1333 1338 1338 1343 1349 1349 1349 1354 1354 1354 1354 1354 1354 1354 1354 1354 1354 1354 1354 1359 1359 1359 1365 1365 1365 1370 1370 1370 1370 1370 1370 1376 1376 1376 1376 1376 1376 1376 1376 1381 1381 1381 1387 1392 1392 1392 1392 1392 1398 1398 1398 1398 1398 1398 1398 1404 1404 1410 1410 1410 1410 1415 1415 1415 1415 1550 1550 1550 1550 1557 1557 1557 1557 1557 1557 1564 1564 1564 1572 1572 1572 1572 1572 1572 1572 1572 1572 1579 1579 1579 1579 1496 1489 1489 1483 1483 1470 1470 1464 1464 1464 1470 1470 1477 1483 1483 1483 1483 1489 2078 2078 1601 1601 1601 1609 1609 1609 2065 2078 2078 2078 2078 2090 2090 2090 2090 2103 2103 2103 2103 2116 2116 2116 2116 2116 2116 2116 2116 2129 2129 2129 2129 2143 2143 2156 2156 2156 2156 2156 2156 2156 2156 2156 2156 2170 2170 2170 1516 1516 1516 1516 1516 1509 1509 1509 1503 1503 1496 1496 1503 1503 1503 1509 1509 1516 1516 1516 1516 2053 2053 2053 2053 2053 2078 2198 2198 2198 2198 2198 2198 2212 2212 2212 2212 2226 2226 3238 3238 3238 3238 3269 3269 3269 3269 3269 3269 3300 3300 3300 3300 3300 3300 3300 3300 3300 3300 3300 3300 3300 3300 1586 1586 1586 1594 1594 1601 1624 1624 1624 1624 1624 1624 1624 1624 1624 1624 1624 1624 1639 1639 1639 1639 1639 1639 1632 1632 1624 1624 1624 1624 1624 1624 1624 1624 1624 1624 1624 1624 1624 0 0 0 0 0 0 1894 1894 1883 1883 1883 1873 1873 1863 1863 1863 1863 1863 1863 1863 1863 1863 1873 1883 1883 1883 1894 1894 1904 3120 3120 3178 3178 3208 3208 3238 3238 3238 3238 3238 3238 3208 3178 3178 3178 3208 3208 3208 3208 3208 3208 3208 3208 3208 3208 3238 3238 3238 3238 3238 3269 3269 3238 3238 3238 3238 3238 3238 3208 3208 3208 3208 3208 3208 3208 3208 3208 3208 3208 3208 3238 3238 3238 3238 3238 3238 3208 3178 3178 3178 3178 3178 3178 3178 3178 3178 3178 3208 3208 3178 3178 3178 3178 3178 3149 3149 3178 3178 3178 3178 3178 3208 3208 3208 3208 3208 3208 3208 3208 3208 3178 3178 3178 3178 3149 3149 3149 3178 3178 3178 3178 3208 3208 3208 3208 0 0 0 0 0 0 0 0 0 0 0
0 0 0 0 0 0 0 0 0 0 0 0 0 0 0 0 0 0 0 0 0 0 0 0 0 0 0 0 0 0 0 0 2984 2958 2958 2958 2958 2958 2958 2958 2984 2984 2984 2984 2984 2984 2984 2984 2958 2958 2958 2984 2984 2984 2984 2984 2984 2984 2984 2984 2984 2984 2984 2984 2984 2984 2984 2984 2984 2984 2984 2958 2958 2984 2984 2984 2984 2984 2984 2958 2933 2908 2908 2883 2883 2859 2859 2835 2835 2835 2835 2835 2835 2835 2835 2835 2835 2835 2835 2835 2835 2835 2835 2835 2835 2859 2859 2859 2859 2859 2859 2859 2859 2859 2883 2883 2883 2883 2883 2908 2908 2883 2883 2883 2883 2883 2908 2908 2933 2933 2958 2958 2958 2984 2984 2984 3010 3010 3037 3064 3064 3064 3092 3064 3064 3064 3037 3037 3037 3037 3037 3037 3037 3037 3037 3037 2065 2065 2053 2053 2053 2053 2053 2053 2053 2053 2053 2053 2053 2065 2065 2078 2078 2933 2933 2958 2933 2933 2933 0 0 1392 1392 1392 1392 1392 1398 1398 1398 1398 1404 1404 1404 1404 1410 1410 1410 1415 1415 1415 1415 1421 1421 1421 1421 1427 1421 1421 1427 1427 1427 1427 1427 1433 1433 1439 1439 1439 1445 1445 1445 1445 1445 1445 1445 1322 1322 1322 1322 1322 1328 1328 1328 1333 1333 1333 1338 1338 1343 1349 1349 1354 1354 1354 1354 1359 1359 1359 1354 1354 1354 1354 1354 1354 1359 1359 1359 1365 1370 1370 1370 1370 1376 1376 1370 1370 1376 1376 1376 1376 1376 1376 1381 1381 1381 1381 1387 1392 1392 1392 1392 1392 1392 1398 1398 1398 1398 1398 1404 1404 1410 1410 1410 1415 1415 1415 1415 1415 1415 1415 1550 1550 1550 1550 1557 1557 1557 1557 1557 1564 1564 1564 1564 1564 1572 1572 1572 1572 1572 1572 1572 1572 1579 1579 1579 1579 1496 1496 1489 1489 1483 1470 1470 1470 1470 1470 1470 1477 1477 1483 1483 1489 1489 1489 2078 2078 2078 2078 2065 2065 2065 2078 2078 2078 2078 2078 2078 2090 2090 2103 2103 2103 2103 2116 2116 2116 2116 2116 2116 2129 2129 2129 2129 2129 2129 2129 2143 2143 2156 2156 2156 2156 2156 2156 2156 2156 2156 2156 2156 2156 2156 2156 1523 1523 1516 1516 1516 1509 1509 1509 1503 1503 1503 1503 1503 1503 1509 1509 1509 1516 1516 1516 2040 2040 2040 2053 2053 2053 2065 2065 2065 2065 2198 2198 2198 2212 2212 2212 2212 2226 2226 3238 3238 3238 1609 1601 1601 1609 3269 3269 3269 3300 3300 3300 3300 3300 3300 3300 3300 3300 3300 3300 3300 1594 1594 1586 1586 1586 1594 1594 1601 1616 1624 1624 1624 1624 1624 1624 1624 1624 1624 1624 1624 1632 1639 1639 1639 1639 1639 1639 1632 1632 1624 1624 1624 1624 1624 1624 1624 1624 1624 1624 1624 0 0 0 0 0 0 0 1894 1883 1883 1883 1883 1873 1863 1863 1863 1863 1863 1863 1863 1863 1863 1873 1873 1883 1894 1894 1894 1904 1904 3120 3120 3178 3178 3208 3208 3238 3238 3238 3208 3208 3208 3178 3178 3178 3178 3178 3208 3208 3208 3208 3208 3208 3208 3208 3208 3208 3208 3238 3208 3208 3238 3238 3208 3208 3208 3208 3208 3208 3178 3178 3208 3208 3208 3178 3178 3178 3178 3178 3178 3178 3178 3208 3208 3208 3208 3208 3208 3149 3149 3149 3149 3178 3178 3178 3178 3178 3178 3178 3178 3178 3178 3178 3178 3149 3149 3149 3149 3149 3149 3178 3178 3178 3178 3208 3208 3208 3178 3178 3178 3178 3149 3149 3149 3149 3149 3149 3149 3149 3149 3149 3178 3178 3178 3178 3178 0 0 0 0 0 0 0 0 0 0 0
0 0 0 0 0 0 0 0 0 0 0 0 0 0 0 0 0 0 0 0 0 0 0 0 0 0 0 0 0 0 0 0 2958 2958 2933 2933 2958 2958 2958 2958 2958 2984 2984 2958 2958 2958 2958 2958 2958 2958 2958 2958 2958 2984 2984 2958 2958 2958 2984 2984 2984 2958 2958 2984 2984 2984 2984 2984 2984 2984 2984 2958 2958 2958 2958 2958 2958 2958 2958 2958 2933 2908 2908 2908 2883 2859 2859 2859 2835 2835 2835 2835 2835 2835 2835 2835 2835 2835 2835 2835 2835 2835 2835 2859 2859 2859 2859 2859 2859 2859 2859 2859 2859 2859 2883 2883 2883 2883 2883 2908 2908 2908 2883 2883 2908 2908 2908 2908 2933 2933 2958 2958 2958 2984 2984 2984 3010 3010 3037 3064 3064 3064 3064 3064 3064 3037 3037 3037 3010 3010 3010 3037 3010 3010 3010 3037 3037 2065 2053 2053 2053 2053 2053 2053 2053 2053 2053 2065 2065 2078 2078 2090 3010 2958 2958 2958 2958 2933 2933 2933 0 0 1392 1392 1392 1392 1398 1398 1398 1398 1404 1404 1404 1404 1410 1415 1415 1415 1415 1415 1421 1421 1421 1421 1421 1427 1427 1427 1427 1427 1427 1427 1433 1433 1433 1439 1439 1439 1445 1445 1445 1445 1445 1445 1328 1328 1328 1328 1328 1328 1328 1333 1333 1333 1333 1338 1338 1343 1349 1349 1354 1354 1354 1354 1359 1359 1359 1359 1359 1359 1354 1354 1359 1359 1365 1365 1365 1370 1370 1370 1370 1370 1376 1376 1370 1370 1376 1376 1376 1376 1376 1381 1381 1381 1381 1387 1387 1392 1392 1392 1392 1392 1392 1398 1398 1398 1398 1398 1404 1404 1410 1410 1410 1415 1415 1415 1415 1415 1550 1550 1543 1543 1550 1550 1550 1550 1550 1557 1557 1557 1564 1564 1564 1564 1564 1572 1572 1572 1572 1572 1572 1572 1579 1579 1579 1579 1496 1496 1489 1489 1489 1470 1470 1470 1470 1470 1470 1477 1477 1483 1489 1489 1489 1489 2065 2065 2065 2065 2065 2065 2065 2078 2078 2078 2078 2078 2078 2090 2103 2103 2103 2103 2103 2116 2116 2116 2116 2116 2116 2129 2129 2129 2129 2143 2143 2143 2143 2156 2156 2156 2156 2156 2156 2156 2156 2156 2156 2156 2156 2156 2156 2156 1529 1523 1516 1516 1516 1509 1509 1509 1509 1503 1503 1503 1509 1509 1509 1509 1516 1516 1523 1523 2040 2040 2040 2040 2053 2053 2053 2053 2053 2065 2065 2065 2198 2198 2212 2212 2212 2226 2226 1572 1572 1579 1586 1586 1594 1601 1601 1601 1601 3300 3300 3300 3300 1586 1586 1594 1594 1594 1594 1594 1594 1594 1594 1586 1586 1586 1594 1594 1609 1616 1616 1616 1624 1624 1624 1624 1624 1624 1624 1624 1624 1632 1639 1639 1639 1639 1639 1639 1639 1632 1632 1632 1624 1624 1624 1624 1624 1624 1624 1624 1624 0 0 0 0 0 0 0 1894 1883 1883 1883 1883 1873 1863 1863 1863 1863 1863 1863 1863 1863 1873 1883 1883 1894 1894 1894 1894 1904 1904 3149 3149 3178 3178 3178 3178 3208 3208 3178 3178 3178 3178 3178 3178 3178 3178 3178 3178 3178 3178 3178 3178 3178 3178 3178 3178 3208 3208 3208 3208 3208 3208 3208 3208 3178 3178 3178 3178 3208 3178 3178 3178 3208 3178 3178 3178 3178 3178 3178 3178 3178 3178 3178 3178 3178 3178 3178 3178 3149 3149 3149 3149 3149 3149 3149 3149 3149 3149 3178 3178 3178 3178 3149 3149 3149 3149 3149 3149 3149 3149 3149 3149 3178 3178 3178 3178 3178 3178 3178 3178 3178 3149 3149 3149 3149 3149 3120 3120 3149 3149 3149 3149 3149 3149 3149 3149 0 0 0 0 0 0 0 0 0 0 0
0 0 0 0 0 0 0 0 0 0 0 0 0 0 0 0 0 0 0 0 0 0 0 0 0 0 0 0 0 0 0 0 2933 2933 2933 2933 2933 2933 2933 2958 2958 2958 2958 2958 2958 2958 2958 2933 2933 2933 2933 2958 2958 2958 2958 2933 2933 2933 2958 2958 2958 2958 2958 2958 2958 2958 2958 2984 2984 2984 2984 2958 2958 2958 2958 2958 2958 2958 2958 2958 2933 2933 2908 2908 2883 2883 2859 2859 2835 2835 2835 2835 2835 2859 2835 2835 2835 2835 2835 2835 2835 2835 2835 2859 2859 2859 2859 2859 2859 2859 2859 2859 2859 2859 2883 2883 2883 2883 2883 2883 2908 2908 2908 2908 2933 2933 2933 2933 2958 2958 2958 2958 2958 2984 2984 3010 3010 3010 3037 3064 3064 3064 3064 3064 3064 3037 3037 3037 3010 3010 3010 3037 3010 3010 3010 3037 3037 2065 2053 2053 2053 2053 2053 2053 2053 2053 2065 2065 2065 2078 2090 2090 3037 3037 3037 2984 2984 2958 2958 2958 0 0 1398 1398 1398 1398 1398 1398 1404 1404 1404 1404 1404 1410 1410 1415 1415 1415 1415 1421 1421 1421 1421 1421 1427 1427 1427 1427 1427 1427 1427 1427 1433 1433 1433 1439 1439 1439 1445 1445 1445 1445 1445 1445 1328 1328 1328 1328 1328 1328 1328 1333 1333 1333 1338 1338 1343 1343 1349 1349 1354 1354 1354 1359 1359 1359 1359 1359 1359 1359 1359 1359 1359 1365 1365 1365 1365 1370 1370 1370 1370 1370 1376 1376 1376 1376 1376 1376 1376 1376 1381 1381 1381 1381 1387 1387 1387 1392 1392 1392 1392 1392 1392 1398 1529 1536 1536 1404 1404 1410 1410 1410 1410 1543 1543 1550 1550 1550 1550 1550 1543 1543 1550 1550 1550 1550 1550 1557 1557 1557 1564 1564 1564 1564 1564 1572 1572 1572 1572 1572 1572 1579 1579 1579 1503 1503 1496 1496 1489 1489 1483 1477 1477 1470 1470 1477 1477 1483 1483 1483 1489 1489 1489 1489 2053 2065 2065 2065 2065 2078 2078 2078 2078 2090 2090 2090 2090 2090 2103 2103 2103 2116 2116 2116 2116 2116 2116 2116 2129 2129 2129 2129 2143 2143 2143 2143 2143 2143 2143 2143 2156 2156 2156 2156 2156 2156 2156 2143 2143 2143 2143 1529 1529 1523 1516 1516 1516 1509 1509 1509 1509 1509 1509 1509 1509 1509 1509 1509 1516 1516 1516 2028 2028 2040 2040 2040 2040 2053 2053 2053 2053 2053 2053 2053 2065 2198 2212 2212 2212 2226 1564 1564 1572 1579 1586 1586 1594 1594 1594 1594 1594 1586 1586 1586 1586 1586 1586 1594 1594 1594 1594 1594 1594 1594 1594 1594 1594 1594 1594 1601 1609 1616 1616 1616 1616 1616 1616 1624 1624 1624 1624 1624 1624 1632 1639 1639 1639 1647 1639 1639 1639 1632 1632 1632 1632 1632 1632 1632 1632 1632 1632 1632 0 0 0 0 0 0 0 0 1894 1883 1883 1883 1883 1873 1873 1863 1863 1863 1863 1863 1873 1873 1883 1883 1894 1894 1894 1894 1894 1904 1904 3149 3149 3178 3178 3178 3178 3178 3178 3178 3178 3178 3178 3178 3178 3178 3178 3178 3178 3178 3178 3178 3178 3178 3178 3178 3178 3178 3178 3178 3178 3178 3178 3178 3178 3178 3149 3149 3178 3178 3149 3149 3149 3178 3178 3149 3149 3149 3149 3178 3178 3178 3178 3178 3178 3178 3178 3178 3178 3149 3149 3149 3149 3149 3149 3149 3149 3149 3149 3149 3149 3149 3149 3149 3120 3120 3120 3120 3120 3149 3149 3149 3149 3149 3149 3149 3149 3149 3149 3149 3149 3149 3120 3120 3120 3120 3120 3120 3120 3149 3149 3149 3149 3149 3149 3149 3149 0 0 0 0 0 0 0 0 0 0 0
0 0 0 0 0 0 0 0 0 0 0 0 0 0 0 0 0 0 0 0 0 0 0 0 0 0 0 0 0 0 0 0 2933 2933 2933 2933 2908 2908 2908 2933 2933 2933 2933 2933 2958 2933 2933 2933 2908 2908 2908 2933 2933 2933 2933 2933 2933 2933 2933 2933 2933 2933 2933 2933 2933 2933 2958 2958 2984 2984 2984 2958 2958 2958 2958 2933 2933 2958 2958 2958 2958 2933 2908 2908 2883 2883 2859 2859 2859 2859 2859 2859 2859 2859 2859 2859 2835 2835 2835 2835 2835 2835 2859 2859 2859 2859 2859 2859 2859 2859 2859 2859 2859 2859 2883 2883 2883 2883 2883 2883 2883 2883 2908 2908 2933 2933 2933 2933 2958 2958 2958 2984 2984 2984 2984 3010 3010 3037 3037 3037 3037 3064 3064 3064 3064 3037 3037 3037 3010 3010 3037 3037 3010 3010 3010 3010 3010 2078 2065 2065 2065 2053 2053 2053 2053 2053 2065 2065 2065 2090 2090 2090 2090 3037 3037 3010 2984 2984 3037 3037 0 0 1398 1398 1398 1398 1398 1398 1404 1404 1404 1404 1410 1410 1415 1415 1415 1421 1421 1421 1421 1421 1421 1427 1427 1427 1427 1427 1427 1427 1427 1427 1433 1433 1433 1439 1439 1445 1445 1445 1445 1445 1445 1333 1333 1333 1328 1328 1333 1333 1333 1333 1338 1338 1338 1338 1343 1349 1354 1354 1354 1354 1359 1359 1359 1359 1359 1359 1359 1359 1359 1359 1365 1365 1365 1365 1365 1370 1370 1370 1370 1370 1376 1376 1376 1376 1376 1381 1381 1381 1381 1381 1387 1387 1387 1387 1392 1392 1392 1516 1516 1523 1529 1529 1529 1536 1536 1536 1536 1536 1536 1543 1543 1543 1543 1543 1550 1550 1550 1550 1550 1550 1550 1550 1550 1550 1550 1557 1557 1557 1557 1557 1564 1564 1564 1572 1572 1572 2485 2503 2503 2503 2503 2503 1503 1503 1496 1496 1489 1489 1483 1477 1477 1477 1477 1477 1477 1483 1483 1489 1489 1489 1489 1496 2053 2065 2065 2065 2065 2078 2078 2078 2090 2090 2090 2090 2090 2103 2103 2103 2103 2103 2103 2116 2116 2116 2116 2116 2129 2129 2129 2129 2129 2143 2129 2129 2143 2143 2143 2143 2143 2143 2143 2143 2143 2143 2143 2143 2143 2143 2143 1529 1529 1523 1523 1523 1516 1516 1509 1509 1509 1509 1509 1509 1509 1509 1509 1509 1516 1516 2016 2016 2016 2040 2040 2040 2040 2040 2053 2053 2053 2053 2053 2053 2053 2053 1564 1564 1564 1564 1564 1564 1579 1579 1586 1586 1594 1594 1594 1594 1594 1586 1586 1586 1586 1586 1594 1594 1594 1594 1594 1594 1594 1594 1594 1594 1594 1594 1601 1601 1609 1616 1616 1616 1616 1616 1616 1624 1624 1624 1624 1624 1632 1632 1639 1639 1639 1639 1639 1639 1639 1632 1632 1632 1632 1632 1632 1632 1632 1632 1632 1632 0 0 0 0 0 0 0 0 1894 1894 1883 1883 1883 1873 1873 1863 1863 1863 1863 1863 1873 1873 1883 1883 1894 1894 1894 1894 1894 1904 1904 3149 3149 3149 3149 3149 3149 3149 3149 3149 3149 3149 3149 3149 3149 3149 3178 3178 3178 3178 3178 3178 3178 3178 3178 3149 3149 3149 3178 3178 3178 3178 3178 3178 3178 3149 3149 3149 3149 3149 3149 3149 3149 3178 3178 3149 3149 3149 3149 3149 3149 3149 3149 3149 3149 3149 3149 3149 3149 3120 3120 3120 3120 3120 3120 3120 3120 3120 3120 3120 3120 3120 3120 3120 3120 3120 3120 3120 3120 3120 3120 3149 3149 3149 3149 3149 3149 3149 3120 3120 3120 3092 3092 3120 3092 3092 3092 3092 3120 3120 3120 3120 3120 3149 3149 3149 3149 0 0 0 0 0 0 0 0 0 0 0
0 0 0 0 0 0 0 0 0 0 0 0 0 0 0 0 0 0 0 0 0 0 0 0 0 0 0 0 0 0 0 0 2908 2908 2908 2908 2908 2883 2883 2908 2908 2908 2908 2908 2933 2908 2908 2908 2908 2908 2908 2908 2908 2933 2908 2908 2908 2933 2908 2908 2908 2908 2908 2908 2908 2908 2933 2933 2958 2958 2958 2933 2933 2933 2933 2933 2933 2933 2933 2933 2933 2933 2933 2933 2908 2883 2883 2859 2859 2859 2859 2859 2859 2859 2859 2859 2859 2859 2835 2835 2859 2859 2859 2859 2859 2859 2859 2859 2859 2859 2859 2859 2883 2883 2883 2883 2883 2883 2883 2883 2883 2883 2908 2908 2933 2933 2933 2933 2958 2958 2958 2984 2984 2984 2984 3010 3010 3010 3037 3037 3037 3037 3037 3037 3037 3037 3037 3010 3010 3010 3010 3010 3010 3010 3010 3010 2078 2078 2078 2065 2065 2053 2053 2065 2065 2065 2065 2065 2078 2090 2090 2090 2090 3037 3037 3037 3010 3010 3037 3037 0 0 0 1398 1398 1398 1398 1404 1404 1404 1404 1404 1410 1410 1415 1415 1421 1421 1421 1421 1421 1421 1427 1427 1427 1427 1427 1427 1427 1427 1427 1433 1433 1433 1439 1439 1439 1445 1445 1445 1452 1452 1452 1333 1333 1333 1333 1333 1333 1333 1333 1338 1338 1338 1338 1343 1343 1349 1354 1354 1354 1359 1359 1359 1359 1365 1365 1365 1359 1359 1359 1359 1365 1365 1365 1365 1365 1370 1370 1370 1370 1370 1376 1370 1370 1376 1381 1381 1381 1381 1387 1387 1392 1392 1516 1516 1516 1516 1516 1516 1523 1523 1523 1529 1529 1536 1529 1529 1536 1536 1536 1543 1543 1543 1543 1543 1550 1543 1543 1550 1550 1550 1550 1550 1550 1550 1550 1557 1557 1557 1557 1557 1564 1564 1564 2485 2485 2485 2503 2503 2503 2503 2503 2485 1503 1503 1496 1496 1489 1489 1483 1477 1477 1477 1477 1483 1483 1483 1483 1489 1489 1489 1489 1496 2053 2065 2065 2065 2078 2078 2078 2090 2090 2103 2103 2103 2103 2103 2103 2103 2103 2103 2103 2116 2116 2116 2116 2116 2116 2116 2129 2129 2129 2129 2116 2103 2103 2129 2129 2129 2143 2053 2053 2065 2065 2065 2065 2065 2065 2065 1529 1529 1529 1523 1523 1523 1516 1516 1516 1509 1509 1509 1509 1509 1509 1516 1516 1516 1523 1523 2016 2016 2016 2040 2040 2040 2040 2040 2040 2040 2040 2053 2053 2053 2053 2053 1564 1564 1564 1564 1564 1564 1564 1579 1579 1586 1586 1594 1586 1586 1586 1586 1586 1586 1586 1586 1586 1594 1594 1594 1594 1594 1594 1594 1594 1594 1594 1594 1601 1601 1609 1609 1616 1616 1616 1616 1616 1624 1624 1624 1624 1624 1632 1639 1639 1639 1639 1639 1639 1639 1639 1632 1632 1632 1632 1632 1632 1632 1632 1632 1639 1639 0 0 0 0 0 0 0 0 1894 1894 1883 1883 1883 1873 1873 1863 1863 1863 1863 1873 1873 1883 1883 1894 1894 1894 1904 1904 1904 1915 1915 3149 3149 3149 3149 3149 3149 3149 3149 3149 3149 3149 3149 3149 3149 3149 3149 3149 3178 3178 3178 3178 3178 3149 3149 3149 3149 3149 3149 3149 3149 3149 3149 3149 3149 3149 3149 3149 3149 3149 3149 3149 3149 3149 3149 3149 3149 3149 3149 3149 3149 3149 3149 3149 3149 3149 3149 3149 3149 3120 3120 3120 3120 3120 3120 3120 3120 3120 3120 3120 3120 3120 3120 3120 3120 3120 3120 3092 3092 3092 3092 3092 3092 3092 3120 3120 3120 3120 3092 3092 3092 3064 3064 3092 3064 3064 3064 3092 3092 3092 3092 3092 3120 3120 3120 3120 3120 0 0 0 0 0 0 0 0 0 0 0
0 0 0 0 0 0 0 0 0 0 0 0 0 0 0 0 0 0 0 0 0 0 0 0 0 0 0 0 0 0 0 0 2908 2883 2883 2883 2883 2883 2883 2883 2883 2883 2883 2883 2883 2883 2883 2908 2908 2908 2908 2908 2908 2908 2908 2908 2908 2908 2908 2908 2908 2908 2908 2908 2908 2908 2908 2933 2933 2933 2933 2908 2908 2908 2908 2908 2908 2908 2933 2933 2933 2908 2908 2908 2908 2883 2883 2859 2859 2859 2859 2859 2859 2859 2859 2859 2859 2859 2859 2859 2859 2859 2859 2859 2859 2859 2859 2859 2859 2859 2883 2883 2883 2883 2883 2883 2883 2883 2883 2883 2883 2908 2908 2908 2933 2933 2933 2933 2958 2958 2958 2984 2984 2984 2984 2984 3010 3010 3010 3010 3010 3037 3037 3037 3037 3037 3010 3010 3010 3010 3010 3010 3010 2984 2984 2984 2078 2078 2078 2065 2065 2065 2065 2065 2065 2065 2065 2065 2078 2090 2090 2090 2090 3037 3037 3037 3037 3037 3037 3092 0 0 0 0 1404 1404 1404 1404 1404 1404 1404 1404 1410 1410 1415 1415 1421 1421 1421 1421 1421 1421 1427 1427 1427 1427 1427 1427 1427 1427 1433 1433 1433 1439 1439 1439 1445 1445 1445 1445 1452 1452 1452 1333 1333 1333 1333 1333 1333 1333 1333 1338 1338 1338 1338 1343 1349 1349 1354 1354 1359 1359 1359 1359 1365 1365 1365 1365 1359 1359 1359 1359 1359 1365 1365 1365 1365 1370 1370 1370 1370 1370 1376 1370 1370 1376 1381 1381 1381 1387 1387 1392 1392 1516 1516 1516 1516 1516 1516 1516 1523 1523 1523 1523 1529 1529 1529 1529 1536 1536 1536 1536 1543 1543 1543 1543 1550 1543 1543 1550 1550 1550 2016 2016 2016 1557 1557 1557 1557 1557 1564 1564 1564 1564 2485 2485 2485 2485 2485 2503 2503 2485 2485 2485 1503 1503 1496 1496 1496 1489 1489 1483 1477 1477 1483 1483 1483 1489 1489 1489 1489 1496 1496 1503 2053 2065 2065 2065 2078 2090 2090 2090 2103 2103 2103 2103 2103 2103 2103 2116 2116 2116 2116 2116 2116 2116 2103 2103 2116 2116 2103 2028 2028 2016 2016 2016 2016 2016 2016 2016 2016 2028 2028 2040 2040 2040 2040 2040 2028 2028 1529 1529 1529 1529 1523 1523 1523 1516 1516 1516 1509 1509 1509 1509 1509 1516 1516 1516 1523 1523 2028 2028 2028 2028 2028 2028 2040 2040 2040 2040 2040 2040 2053 2053 1564 1564 1564 1564 1564 1564 1564 1564 1564 1579 1579 1579 1586 1586 1586 1586 1586 1586 1586 1586 1586 1586 1586 1594 1594 1594 1594 1594 1594 1594 1594 1594 1594 1594 1601 1601 1609 1609 1616 1616 1616 1616 1616 1624 1624 1624 1624 1624 1632 1639 1639 1639 1647 1647 1647 1639 1639 1639 1639 1632 1632 1639 1639 1639 1639 1639 1639 1639 0 0 0 0 0 0 0 0 1894 1894 1883 1883 1883 1883 1873 1873 1873 1873 1873 1873 1883 1883 1883 1894 1894 1894 1904 1904 1904 1904 1904 3149 3149 3120 3120 3120 3149 3149 3149 3149 3149 3149 3149 3149 3149 3149 3149 3149 3149 3149 3149 3149 3149 3149 3149 3149 3149 3149 3149 3149 3149 3149 3149 3149 3149 3149 3149 3149 3149 3149 3149 3149 3149 3149 3149 3149 3149 3149 3149 3149 3149 3149 3149 3149 3149 3149 3149 3149 3149 3120 3120 3120 3120 3120 3120 3120 3120 3120 3120 3120 3120 3120 3120 3120 3120 3120 3092 3092 3092 3092 3092 3092 3092 3092 3092 3092 3092 3092 3092 3092 3092 3064 3064 3064 3064 3064 3064 3064 3064 3092 3092 3092 3092 3092 3092 3092 3092 0 0 0 0 0 0 0 0 0 0 0
0 0 0 0 0 0 0 0 0 0 0 0 0 0 0 0 0 0 0 0 0 0 0 0 0 0 0 0 0 0 0 0 2883 2883 2883 2883 2883 2883 2883 2883 2883 2883 2883 2883 2883 2883 2883 2883 2883 2883 2908 2883 2883 2908 2908 2908 2908 2908 2883 2883 2883 2883 2883 2883 2883 2908 2908 2908 2908 2908 2908 2883 2883 2908 2908 2908 2908 2908 2908 2908 2908 2908 2908 2908 2883 2883 2883 2883 2859 2859 2859 2859 2859 2859 2859 2859 2859 2859 2859 2859 2859 2859 2859 2859 2859 2859 2859 2859 2859 2859 2883 2883 2883 2883 2883 2883 2883 2883 2883 2883 2908 2908 2933 2933 2933 2933 2958 2958 2958 2958 2958 2984 2984 2984 2984 2984 3010 3010 3010 3010 3010 3010 3010 3010 3010 3010 3010 3010 3010 3010 3010 2984 2984 2984 2984 2984 2984 2078 2065 2065 2065 2065 2065 2065 2065 2065 2065 2078 2078 2090 2090 2090 2090 3037 3010 3010 3010 3010 3010 3092 0 0 0 0 1410 1404 1404 1404 1404 1404 1404 1410 1410 1415 1415 1415 1421 1421 1421 1421 1421 1427 1427 1427 1427 1427 1427 1433 1433 1433 1433 1433 1433 1439 1439 1439 1445 1445 1445 1452 1452 1452 1452 1333 1333 1333 1333 1333 1333 1333 1338 1338 1338 1338 1343 1343 1349 1349 1354 1354 1354 1359 1359 1359 1359 1365 1365 1365 1359 1359 1359 1359 1359 1365 1365 1489 1489 1496 1496 1496 1496 1496 1496 1496 1376 1376 1381 1387 1387 1509 1516 1516 1516 1516 1516 1516 1516 1516 1516 1516 1523 1523 1523 1523 1529 1529 1529 1529 1529 1529 1536 1536 1536 1543 1543 1543 1970 1981 1993 1993 1993 2005 2005 2016 2016 2016 1564 1550 1550 1557 1557 1572 1572 2467 2485 2485 2485 2485 2485 2485 2503 2485 2485 2485 1509 1496 1496 1496 1496 1496 1489 1483 1483 1483 1483 1483 1483 1489 1489 1489 1489 1496 1496 2053 2053 2053 2065 2065 2078 2078 2078 2090 2103 2103 2103 2103 2103 2103 2103 2103 2103 2103 2103 2103 2103 2103 2103 2103 2028 2016 2016 2016 2016 2016 2016 2016 2016 2016 2016 2016 2016 2016 2016 2028 2028 2028 2028 2028 2016 2016 2016 1536 1529 1529 1529 1523 1523 1516 1516 1516 1509 1509 1509 1509 1516 1516 1516 1516 1529 1550 1550 2028 2028 2028 2028 2028 2040 2040 2040 2040 2040 2040 1564 1564 1564 1564 1564 1564 1564 1564 1564 1564 1564 1572 1579 1579 1586 1586 1586 1586 1586 1586 1586 1586 1586 1586 1586 1594 1594 1594 1594 1594 1594 1594 1594 1594 1594 1601 1609 1609 1609 1616 1616 1616 1616 1616 1624 1624 1624 1624 1624 1624 1632 1639 1639 1639 1647 1647 1647 1647 1639 1639 1639 1639 1639 1639 1639 1639 1639 1639 1647 0 0 0 0 0 0 0 0 1915 1904 1904 1894 1894 1894 1883 1873 1873 1873 1873 1873 1873 1883 1883 1894 1894 1894 1894 1894 1894 1904 1904 1904 3092 3092 3092 3092 3092 3120 3120 3120 3120 3120 3149 3149 3149 3149 3149 3149 3149 3149 3149 3149 3149 3149 3149 3149 3149 3120 3120 3149 3120 3120 3120 3120 3120 3149 3120 3120 3120 3120 3120 3120 3092 3092 3120 3149 3120 3120 3120 3149 3149 3149 3149 3149 3149 3149 3149 3149 3149 3149 3120 3120 3092 3092 3092 3092 3092 3092 3092 3092 3120 3120 3092 3092 3092 3092 3092 3092 3092 3092 3092 3092 3092 3064 3064 3092 3064 3064 3064 3064 3064 3064 3064 3064 3064 3064 3064 3064 3064 3064 3064 3064 3092 3092 3092 3092 3092 3092 0 0 0 0 0 0 0 0 0 0 0
0 0 0 0 0 0 0 0 0 0 0 0 0 0 0 0 0 0 0 0 0 0 0 0 0 0 0 0 0 0 0 0 2883 2883 2883 2883 2883 2883 2883 2883 2859 2859 2859 2859 2859 2883 2883 2883 2883 2883 2883 2883 2883 2883 2883 2883 2883 2883 2883 2883 2883 2883 2883 2883 2883 2883 2908 2908 2908 2908 2908 2883 2883 2883 2883 2883 2883 2883 2883 2883 2908 2908 2908 2908 2883 2883 2883 2859 2859 2859 2859 2859 2859 2859 2859 2859 2859 2859 2859 2859 2859 2859 2859 2859 2859 2859 2859 2859 2859 2859 2883 2883 2883 2883 2883 2883 2883 2883 2883 2908 2908 2908 2933 2933 2958 2958 2958 2958 2958 2958 2958 2958 2958 2958 2984 2984 2984 3010 3010 3010 3010 3010 3010 3010 3010 3010 2984 2984 2984 2984 2984 2984 2984 2958 2958 2958 2958 2078 2065 2065 2065 2065 2065 2065 2065 2065 2078 2078 2078 2090 2090 2078 2078 2078 3010 3010 3010 3010 3010 0 0 0 0 1415 1410 1410 1410 1404 1404 1404 1404 1410 1410 1415 1415 1421 1421 1421 1421 1421 1427 1427 1427 1427 1427 1433 1433 1433 1433 1433 1433 1439 1439 1439 1439 1445 1445 1445 1445 1452 1452 1452 1452 1333 1333 1333 1333 1333 1338 1338 1338 1338 1338 1338 1343 1343 1349 1349 1354 1354 1354 1359 1359 1359 1359 1365 1365 1365 1359 1359 1359 1483 1483 1489 1489 1489 1489 1496 1496 1496 1496 1496 1503 1503 1503 1503 1509 1509 1509 1509 1516 1516 1516 1516 1516 1516 1516 1516 1516 1516 1523 1523 1523 1523 1529 1529 1529 1529 1529 1529 1536 1536 1536 1543 1970 1970 1981 1981 1993 1993 1993 1993 2005 2016 2016 2016 1550 1550 1550 1557 1557 2485 2467 2467 2485 2485 2485 2485 2485 2485 2503 2485 2485 2485 1509 1509 1496 1496 1496 1496 1489 1483 1483 1483 1483 1483 1483 1489 1489 1489 1496 1496 1496 2053 2040 2040 2053 2053 2065 2065 2065 2065 2090 2090 2090 2103 2103 2103 2103 2103 2103 2090 2090 2090 2053 2053 2016 2016 2016 2016 2016 2016 2016 2016 2016 2016 2016 2016 2016 2016 2016 2016 2016 2016 2016 2016 2016 2016 2016 2016 2016 1536 1536 1529 1529 1529 1523 1523 1516 1516 1516 1516 1516 1516 1516 1523 1523 1523 1543 1550 1564 1564 1564 1572 2028 2028 2040 2040 2040 1564 1564 1564 1564 1564 1564 1564 1564 1564 1564 1564 1564 1564 1564 1572 1579 1579 1586 1586 1586 1586 1586 1586 1586 1586 1586 1586 1586 1586 1594 1594 1594 1594 1594 1594 1594 1594 1601 1601 1609 1609 1616 1616 1616 1616 1616 1624 1624 1624 1624 1624 1624 1632 1632 1639 1639 1639 1647 1647 1647 1647 1639 1639 1639 1639 1639 1639 1639 1639 1639 1647 1647 0 0 0 0 0 0 0 1926 1915 1904 1904 1894 1894 1894 1883 1873 1873 1873 1873 1883 1883 1883 1883 1894 1894 1894 1894 1894 1894 1904 1904 1904 3092 3092 3092 3092 3092 3092 3092 3120 3092 3092 3092 3120 3120 3120 3120 3120 3120 3149 3149 3120 3120 3120 3120 3120 3120 3120 3120 3092 3092 3092 3092 3092 3092 3092 3092 3120 3120 3120 3120 3120 3092 3092 3092 3120 3120 3120 3120 3120 3120 3120 3120 3120 3120 3120 3120 3120 3120 3120 3120 3092 3092 3092 3092 3092 3092 3064 3064 3064 3092 3092 3092 3092 3092 3092 3092 3064 3064 3064 3064 3064 3064 3037 3037 3064 3064 3064 3064 3037 3037 3064 3064 3037 3037 3037 3037 3037 3037 3037 3064 3064 3064 3064 3064 3064 3064 3064 0 0 0 0 0 0 0 0 0 0 0
0 0 0 0 0 0 0 0 0 0 0 0 0 0 0 0 0 0 0 0 0 0 0 0 0 0 0 0 0 0 0 0 2883 2883 2883 2883 2883 2883 2859 2859 2859 2859 2859 2859 2859 2859 2883 2883 2883 2883 2883 2883 2883 2883 2883 2883 2883 2883 2883 2883 2883 2883 2883 2883 2883 2883 2883 2883 2883 2883 2908 2883 2883 2883 2883 2883 2883 2883 2883 2883 2883 2883 2883 2883 2883 2883 2883 2859 2859 2859 2859 2859 2859 2859 2859 2859 2859 2859 2859 2859 2859 2859 2859 2859 2859 2859 2859 2883 2883 2883 2883 2883 2883 2883 2883 2883 2883 2883 2883 2908 2908 2908 2933 2933 2933 2933 2958 2958 2958 2958 2958 2958 2958 2958 2958 2984 2984 2984 2984 2984 2984 2984 2984 2984 2984 2984 2984 2984 2984 2984 2984 2984 2984 2958 2958 2958 2958 2078 2065 2065 2065 2065 2065 2065 2065 2065 2078 2078 2078 2090 2090 2078 2078 2078 2984 2984 2984 2984 0 0 0 0 0 1415 1410 1410 1410 1410 1404 1404 1404 1410 1410 1415 1415 1421 1421 1421 1421 1421 1427 1427 1427 1427 1427 1433 1433 1439 1439 1439 1439 1445 1445 1445 1445 1445 1445 1445 1445 1452 1452 1452 1452 1333 1333 1333 1338 1338 1338 1338 1338 1338 1338 1343 1343 1343 1349 1349 1354 1354 1359 1359 1359 1359 1359 1489 1483 1483 1483 1489 1483 1483 1483 1489 1489 1489 1489 1496 1496 1496 1496 1496 1503 1503 1503 1503 1509 1509 1509 1509 1516 1516 1516 1516 1516 1516 1516 1516 1516 1516 1516 1516 1516 1523 1529 1529 1529 1529 1529 1529 1536 1536 1970 1981 1981 1981 1981 1981 1993 1993 1993 1993 2005 2005 2005 2005 2503 2503 2503 2485 2485 2485 2485 2485 2485 2485 2485 2485 2485 2503 2503 2503 2503 1523 1509 1509 1496 1496 1496 1496 1489 1483 1483 1483 1483 1483 1489 1489 1489 1496 1496 1503 1503 1503 2028 2028 2040 2040 2040 2040 2028 2016 1993 1993 2016 2090 2090 2090 2016 2005 2005 2016 2016 2016 2016 2016 2016 2016 2016 2005 2005 2005 2005 2005 2005 2005 2005 2005 2005 2005 2005 2005 2005 2016 2016 2016 2016 2016 2016 2016 2016 1536 1536 1529 1529 1523 1523 1523 1516 1516 1516 1516 1516 1516 1523 1523 1523 1536 1550 1557 1564 1564 1564 1572 1564 1564 2040 1557 1557 1564 1564 1564 1564 1564 1564 1564 1564 1564 1564 1564 1564 1564 1572 1572 1579 1579 1586 1586 1579 1579 1586 1586 1586 1586 1586 1586 1586 1586 1594 1594 1594 1594 1594 1594 1594 1601 1601 1609 1609 1609 1616 1616 1616 1616 1616 1624 1624 1624 1624 1624 1632 1632 1632 1639 1639 1639 1647 1647 1647 1647 1647 1639 1639 1639 1639 1647 1647 1647 1647 1647 0 0 0 0 0 0 0 1947 1926 1926 1915 1915 1904 1894 1894 1883 1883 1883 1883 1883 1883 1883 1883 1883 1894 1894 1894 1894 1894 1904 1904 1904 1904 3064 3064 3064 3064 3064 3092 3092 3092 3092 3092 3092 3092 3092 3092 3092 3092 3092 3120 3120 3120 3120 3120 3120 3120 3092 3092 3092 3092 3092 3092 3092 3092 3092 3092 3092 3092 3092 3092 3092 3092 3064 3064 3092 3092 3092 3092 3092 3120 3120 3120 3120 3120 3120 3120 3092 3092 3092 3092 3092 3064 3064 3064 3064 3064 3064 3064 3064 3064 3092 3092 3064 3064 3064 3064 3064 3064 3064 3064 3064 3064 3037 3037 3037 3037 3037 3037 3037 3037 3037 3037 3037 3037 3037 3037 3037 3037 3037 3037 3037 3037 3064 3064 3064 3064 3037 3037 0 0 0 0 0 0 0 0 0 0 0
0 0 0 0 0 0 0 0 0 0 0 0 0 0 0 0 0 0 0 0 0 0 0 0 0 0 0 0 0 0 0 0 2883 2883 2883 2883 2883 2859 2859 2859 2835 2835 2859 2835 2835 2859 2859 2859 2883 2883 2883 2859 2859 2883 2883 2883 2883 2883 2883 2883 2883 2883 2883 2883 2883 2883 2883 2883 2883 2883 2883 2883 2883 2859 2859 2859 2859 2859 2859 2859 2883 2883 2883 2883 2883 2883 2883 2859 2859 2859 2859 2859 2859 2859 2859 2859 2859 2859 2859 2859 2859 2859 2859 2859 2859 2859 2883 2883 2883 2883 2883 2883 2883 2883 2883 2883 2883 2883 2883 2908 2908 2908 2933 2933 2933 2933 2933 2933 2933 2933 2933 2958 2958 2958 2958 2958 2984 2984 2984 2984 2984 2984 2984 2984 2984 2984 2984 2984 2958 2958 2958 2958 2958 2958 2958 2958 2933 2933 2065 2053 2053 2065 2065 2065 2065 2078 2078 2078 2078 2090 2090 2090 2078 2078 2958 2958 2984 2984 2984 0 0 0 0 1415 1415 1410 1410 1410 1410 1404 1404 1410 1410 1415 1415 1421 1421 1421 1421 1421 1427 1427 1427 1427 1427 1433 1433 1439 1439 1439 1439 1445 1445 1445 1445 1445 1445 1445 1445 1452 1452 1452 1452 1338 1338 1338 1338 1338 1338 1338 1338 1343 1343 1343 1349 1349 1349 1349 1354 1483 1483 1483 1483 1483 1483 1489 1489 1483 1483 1483 1483 1483 1489 1489 1489 1489 1496 1496 1496 1503 1503 1503 1503 1503 1503 1503 1509 1509 1509 1509 1516 1516 1516 1516 1516 1516 1516 1516 1516 1516 1516 1516 1516 1970 1970 1970 1970 1970 1970 1970 1970 1981 1981 1981 1981 1981 1981 1981 1993 1993 1993 1993 2005 2005 2005 2005 2485 2485 2485 2485 2485 2485 2485 2485 2485 2485 2485 2485 2485 2503 2503 2503 2503 1523 1523 1516 1503 1496 1496 1496 1496 1483 1483 1483 1483 1489 1489 1489 1496 1496 1496 1503 1509 1509 1993 1993 1981 1981 2005 1981 1970 1970 1970 1970 1981 1981 1981 1981 1981 1981 1981 1981 1993 1981 1981 2005 2005 2005 2005 2005 2005 2005 2005 2005 2005 2005 2005 2005 2005 2005 2005 2005 2005 2005 2005 2005 2005 2005 2005 2005 2005 1536 1536 1529 1529 1523 1523 1523 1516 1516 1516 1516 1516 1523 1529 1536 1536 1543 1550 1557 1564 1564 1564 1572 1564 1564 1557 1557 1557 1564 1564 1564 1564 1564 1564 1564 1564 1564 1564 1564 1564 1572 1572 1579 1579 1579 1586 1586 1579 1579 1586 1586 1586 1586 1586 1586 1586 1586 1594 1594 1594 1594 1594 1594 1601 1601 1601 1609 1609 1609 1616 1616 1616 1616 1616 1624 1624 1624 1624 1624 1632 1632 1632 1639 1639 1647 1647 1647 1647 1647 1647 1647 1647 1647 1647 1647 1647 1647 1647 1647 0 0 0 0 0 0 0 1936 1926 1926 1915 1915 1904 1894 1894 1883 1883 1883 1883 1883 1883 1883 1894 1894 1894 1894 1894 1894 1904 1904 1904 1904 3064 3064 3064 3064 3064 3064 3064 3064 3064 3064 3064 3064 3092 3092 3064 3064 3092 3092 3092 3092 3092 3092 3092 3092 3092 3092 3092 3092 3092 3064 3064 3092 3092 3092 3092 3092 3092 3092 3092 3092 3092 3064 3064 3092 3092 3092 3092 3092 3092 3092 3092 3092 3092 3092 3092 3092 3092 3092 3092 3092 3064 3037 3037 3064 3064 3064 3064 3037 3037 3064 3064 3064 3064 3064 3064 3064 3064 3037 3037 3037 3037 3037 3037 3037 3037 3037 3037 3037 3037 3037 3037 3037 3037 3037 3037 3037 3037 3037 3037 3037 3037 3037 3037 3037 3037 3037 3037 0 0 0 0 0 0 0 0 0 0 0
0 0 0 0 0 0 0 0 0 0 0 0 0 0 0 0 0 0 0 0 0 0 0 0 0 0 0 0 0 0 0 0 2859 2859 2859 2859 2859 2859 2835 2835 2835 2835 2835 2835 2835 2835 2859 2859 2859 2859 2859 2859 2859 2859 2859 2883 2883 2883 2883 2883 2883 2883 2859 2859 2859 2883 2883 2859 2859 2883 2883 2859 2859 2859 2859 2859 2859 2859 2859 2859 2859 2883 2883 2859 2859 2859 2859 2859 2859 2859 2859 2859 2859 2859 2859 2859 2859 2859 2859 2859 2859 2859 2859 2859 2859 2859 2883 2883 2883 2883 2883 2883 2883 2883 2883 2883 2883 2883 2908 2908 2908 2933 2933 2933 2933 2933 2933 2933 2933 2933 2933 2933 2933 2933 2933 2958 2958 2958 2958 2958 2984 2984 2984 2984 2958 2958 2958 2958 2958 2958 2958 2958 2958 2933 2933 2933 2933 2933 2933 2053 2053 2065 2065 2065 2065 2078 2078 2078 2078 2090 2090 2090 2078 2078 2958 2958 2958 2958 2984 0 0 0 0 0 1415 1410 1410 1410 1410 1410 1410 1410 1415 1415 1415 1421 1421 1421 1421 1421 1427 1427 1427 1433 1433 1433 1439 1439 1439 1439 1445 1445 1445 1445 1445 1445 1445 1445 1445 1452 1452 1452 1458 1338 1338 1338 1343 1343 1343 1338 1338 1343 1343 1343 1349 1349 1349 1349 1354 1477 1477 1483 1483 1483 1483 1489 1489 1483 1483 1483 1483 1483 1489 1489 1489 1489 1496 1496 1503 1503 1509 1509 1503 1503 1503 1503 1509 1509 1509 1936 1947 1947 1947 1947 1947 1947 1947 1947 1947 1947 1947 1959 1959 1959 1959 1959 1959 1970 1970 1970 1970 1970 1970 1981 1981 1981 1993 1993 1993 1993 1993 1993 2005 2005 2016 2016 2485 2485 2485 2485 2485 2485 2485 2485 2485 2485 2485 2485 2485 2503 2503 2503 1536 1536 1523 1516 1503 1503 1503 1496 1496 1489 1483 1483 1489 1489 1489 1496 1496 1503 1503 1509 1509 1509 1936 1947 1959 1970 1970 1959 1959 1970 1970 1970 1970 1970 1970 1970 1970 1981 1981 1981 1981 1981 1981 1981 1981 1981 1993 1993 1993 1993 1993 1993 1993 1993 1993 1993 1993 1993 1993 1993 1993 2005 1993 1993 2005 2005 1993 1993 1993 1543 1536 1536 1529 1529 1523 1523 1523 1516 1516 1516 1523 1529 1536 1536 1543 1550 1550 1557 1564 1564 1564 1572 1564 1564 1557 1557 1557 1564 1564 1564 1564 1564 1564 1564 1564 1564 1564 1564 1564 1572 1579 1579 1579 1579 1586 1586 1579 1579 1586 1586 1586 1586 1586 1586 1586 1586 1594 1594 1594 1594 1594 1594 1601 1601 1609 1609 1609 1609 1616 1616 1616 1616 1616 1624 1624 1624 1632 1632 1632 1639 1639 1639 1639 1647 1647 1647 1647 1647 1647 1647 1647 1647 1647 1647 1655 1655 1647 1647 0 0 0 0 0 0 0 1936 1926 1926 1915 1915 1904 1894 1894 1883 1883 1883 1883 1883 1883 1894 1894 1894 1894 1894 1904 1904 1904 1894 1894 1894 3064 3064 3064 3064 3064 3064 3064 3064 3064 3064 3064 3064 3064 3064 3064 3064 3064 3064 3064 3064 3064 3064 3064 3064 3064 3064 3064 3064 3064 3064 3064 3064 3064 3064 3064 3064 3064 3064 3092 3092 3092 3064 3064 3092 3092 3092 3092 3092 3092 3092 3092 3092 3092 3092 3092 3064 3064 3064 3064 3064 3037 3037 3037 3037 3037 3064 3037 3037 3037 3064 3064 3037 3037 3037 3037 3037 3064 3037 3037 3037 3037 3037 3037 3037 3037 3037 3037 3037 3037 3037 3037 3037 3037 3037 3037 3037 3037 3037 3037 3037 3037 3037 3037 3037 3037 3010 3010 0 0 0 0 0 0 0 0 0 0 0
0 0 0 0 0 0 0 0 0 0 0 0 0 0 0 0 0 0 0 0 0 0 0 0 0 0 0 0 0 0 0 0 2859 2859 2859 2859 2859 2859 2835 2835 2812 2812 2835 2835 2835 2835 2835 2835 2835 2835 2835 2835 2835 2835 2859 2859 2859 2859 2859 2859 2859 2859 2835 2835 2859 2859 2859 2835 2835 2859 2859 2859 2835 2835 2835 2835 2859 2859 2859 2859 2859 2859 2859 2859 2859 2859 2859 2859 2859 2859 2859 2859 2859 2859 2859 2859 2859 2859 2859 2859 2859 2859 2859 2859 2883 2883 2883 2883 2883 2883 2883 2883 2883 2883 2883 2883 2883 2883 2908 2908 2908 2933 2933 2933 2933 2933 2933 2933 2933 2908 2908 2933 2933 2933 2933 2933 2958 2958 2958 2958 2958 2958 2958 2958 2958 2958 2958 2958 2958 2958 2958 2958 2933 2933 2933 2933 2933 2933 2933 2065 2065 2065 2065 2065 2065 2078 2078 2078 2090 2090 2090 2090 2078 2078 2933 2933 2958 2958 2958 0 2958 0 0 0 1415 1415 1415 1415 1415 1410 1410 1410 1415 1415 1421 1421 1421 1421 1427 1427 1427 1427 1427 1433 1433 1439 1439 1439 1445 1445 1445 1445 1445 1445 1445 1445 1445 1445 1445 1452 1452 1452 1458 1338 1338 1338 1343 1343 1343 1343 1343 1343 1343 1349 1349 1354 1354 1354 1359 1477 1477 1483 1483 1483 1483 1489 1489 1483 1483 1483 1483 1483 1489 1489 1489 1489 1496 1503 1503 1509 1516 1516 1509 1509 1509 1509 1936 1936 1936 1936 1936 1936 1936 1936 1947 1947 1936 1936 1947 1947 1947 1959 1959 1959 1959 1959 1959 1959 1959 1959 1959 1970 1970 1970 1981 1981 1981 1993 1993 1993 2005 2005 2016 2016 2016 2028 2485 2485 2485 2485 2467 2467 2467 2485 2485 2485 2485 2485 2485 2503 2503 2503 1536 1529 1529 1523 1509 1503 1503 1496 1496 1489 1489 1489 1489 1489 1496 1503 1503 1509 1509 1509 1516 1516 1926 1936 1947 1959 1959 1959 1959 1959 1959 1959 1959 1959 1959 1959 1970 1970 1970 1970 1970 1970 1970 1970 1970 1970 1981 1970 1970 1981 1981 1981 1981 1981 1981 1981 1993 1993 1993 1993 1993 1993 1993 1993 1993 1993 1993 1993 1543 1543 1543 1536 1536 1529 1529 1523 1523 1516 1516 1516 1523 1536 1536 1536 1543 1550 1550 1557 1564 1564 1564 1564 1564 1564 1557 1557 1557 1564 1564 1564 1564 1564 1564 1564 1564 1564 1564 1564 1564 1572 1579 1579 1579 1579 1586 1586 1586 1586 1586 1586 1586 1586 1586 1586 1586 1594 1594 1594 1594 1601 1601 1601 1601 1601 1609 1609 1616 1616 1616 1616 1616 1616 1616 1624 1624 1632 1632 1639 1639 1639 1639 1647 1647 1647 1647 1647 1647 1655 1647 1647 1647 1647 1647 1655 1655 1655 1655 0 0 0 0 0 0 0 0 1947 1926 1926 1915 1915 1904 1894 1894 1883 1883 1883 1883 1883 1883 1894 1894 1894 1904 1904 1904 1904 1904 1894 1894 3064 3064 3037 3037 3064 3064 3064 3064 3064 3064 3064 3064 3064 3064 3064 3037 3037 3064 3064 3064 3064 3064 3064 3064 3064 3064 3064 3064 3064 3064 3064 3064 3064 3064 3064 3064 3064 3064 3064 3064 3064 3064 3064 3064 3064 3064 3064 3064 3064 3064 3064 3064 3064 3064 3064 3064 3064 3064 3064 3064 3064 3037 3037 3037 3037 3037 3037 3037 3037 3037 3037 3037 3037 3037 3037 3037 3037 3037 3037 3037 3037 3037 3037 3037 3037 3037 3010 3010 3010 3037 3037 3037 3037 3037 3037 3037 3037 3010 3010 3010 3010 3010 3010 3010 3010 3010 3010 3010 0 0 0 0 0 0 0 0 0 0 0
0 0 0 0 0 0 0 0 0 0 0 0 0 0 0 0 0 0 0 0 0 0 0 0 0 0 0 0 0 0 0 0 2835 2835 2835 2835 2835 2835 2812 2812 2812 2812 2835 2835 2812 2812 2835 2835 2835 2835 2835 2835 2835 2835 2835 2859 2859 2859 2859 2859 2859 2859 2835 2835 2859 2859 2835 2835 2835 2835 2859 2835 2812 2812 2812 2812 2835 2835 2835 2835 2835 2835 2859 2835 2835 2859 2859 2859 2859 2859 2859 2859 2859 2859 2859 2859 2859 2859 2859 2859 2859 2859 2859 2859 2859 2859 2883 2883 2883 2883 2883 2883 2883 2883 2883 2883 2883 2883 2908 2908 2908 2908 2933 2933 2933 2908 2908 2908 2908 2908 2908 2908 2908 2908 2908 2933 2933 2933 2933 2933 2958 2958 2958 2933 2933 2958 2958 2933 2933 2933 2933 2933 2933 2908 2908 2908 2908 2908 2908 2065 2065 2065 2065 2065 2078 2078 2078 2078 2090 2090 2090 2090 2078 2078 2933 2933 2933 2958 2958 2958 0 0 0 0 1410 1410 1410 1410 1415 1415 1415 1415 1415 1415 1421 1421 1421 1421 1427 1427 1427 1427 1427 1433 1433 1439 1439 1445 1445 1445 1445 1445 1445 1445 1445 1445 1445 1445 1445 1452 1452 1452 1458 1343 1343 1343 1343 1349 1349 1343 1343 1343 1349 1349 1354 1354 1354 1359 1359 1477 1477 1477 1483 1483 1483 1489 1489 1483 1483 1483 1489 1489 1489 1496 1496 1496 1496 1509 1516 1523 1523 1523 1516 1516 1926 1926 1926 1926 1926 1926 1936 1936 1936 1936 1936 1936 1936 1936 1936 1936 1936 1947 1947 1947 1947 1947 1947 1947 1947 1947 1959 1959 1959 1970 1970 1981 1981 1993 1993 2005 2005 2016 2016 2016 2028 2028 2028 2485 2485 2485 2467 2467 2467 2485 2485 2467 2467 2485 2485 2503 2503 1529 1529 1529 1529 1523 1509 1503 1503 1496 1496 1489 1489 1489 1496 1496 1503 1509 1509 1509 1509 1516 1516 1926 1926 1936 1947 1947 1947 1947 1959 1959 1959 1959 1959 1959 1959 1959 1959 1959 1959 1959 1959 1959 1970 1970 1970 1970 1970 1970 1970 1970 1970 1970 1959 1959 1970 1970 1970 1970 1970 1970 1981 1981 1981 1981 1981 1981 1981 1981 1543 1543 1543 1536 1536 1529 1529 1529 1523 1523 1523 1523 1523 1536 1536 1543 1543 1550 1550 1557 1564 1564 1564 1564 1564 1564 1557 1557 1557 1564 1564 1564 1564 1564 1564 1564 1564 1564 1564 1564 1564 1572 1579 1579 1579 1586 1586 1586 1586 1586 1586 1586 1586 1586 1594 1594 1594 1594 1594 1594 1601 1601 1601 1601 1609 1609 1616 1616 1616 1616 1616 1616 1624 1624 1624 1624 1632 1639 1639 1639 1639 1647 1647 1647 1647 1647 1647 1655 1655 1655 1655 1655 1647 1647 1655 1655 1655 1655 1655 0 0 0 0 0 0 0 0 1947 1926 1926 1915 1915 1904 1894 1894 1894 1883 1883 1883 1883 1883 1894 1894 1894 1904 1904 1904 1904 1904 1894 1894 3064 3037 3037 3037 3037 3037 3037 3037 3037 3064 3064 3037 3037 3037 3037 3037 3037 3037 3037 3037 3037 3037 3037 3064 3064 3064 3064 3064 3064 3064 3064 3064 3064 3064 3064 3064 3064 3064 3064 3064 3064 3037 3037 3037 3064 3064 3037 3037 3037 3064 3064 3064 3064 3064 3064 3064 3064 3064 3064 3064 3064 3037 3010 3010 3037 3037 3037 3037 3037 3037 3037 3037 3037 3037 3037 3010 3010 3037 3010 3010 3010 3010 3010 3010 3010 3010 3010 3010 3010 3010 3037 3037 3037 3010 3010 3010 3010 3010 3010 3010 3010 3010 3010 3010 3010 3010 3010 3010 0 0 0 0 0 0 0 0 0 0 0
0 0 0 0 0 0 0 0 0 0 0 0 0 0 0 0 0 0 0 0 0 0 0 0 0 0 0 0 0 0 0 0 2835 2835 2835 2835 2835 2835 2812 2812 2812 2812 2812 2812 2812 2812 2812 2812 2812 2812 2812 2812 2812 2812 2812 2835 2835 2835 2835 2835 2859 2859 2835 2835 2835 2835 2835 2835 2835 2835 2835 2812 2812 2812 2812 2812 2812 2812 2812 2835 2835 2835 2835 2812 2812 2835 2835 2835 2835 2859 2859 2859 2859 2859 2859 2859 2859 2859 2859 2859 2859 2859 2859 2859 2859 2859 2859 2883 2883 2883 2883 2883 2883 2883 2883 2883 2883 2883 2883 2908 2908 2908 2908 2933 2908 2908 2908 2908 2908 2883 2883 2883 2883 2883 2908 2908 2908 2908 2908 2933 2933 2933 2933 2933 2933 2933 2933 2933 2933 2933 2908 2908 2908 2908 2908 2908 2908 2908 2908 2065 2065 2065 2065 2078 2078 2078 2078 2078 2090 2090 2090 2090 2078 2078 2908 2908 2933 2933 2958 2958 0 0 0 0 1410 1410 1410 1410 1415 1415 1415 1415 1415 1415 1421 1421 1421 1421 1427 1427 1427 1427 1433 1433 1433 1439 1439 1445 1445 1445 1445 1452 1452 1452 1452 1452 1452 1452 1452 1452 1452 1458 1464 1349 1349 1349 1349 1349 1349 1349 1349 1349 1349 1354 1354 1354 1359 1359 1359 1477 1477 1477 1483 1483 1483 1489 1489 1489 1489 1489 1489 1489 1496 1496 1496 1496 1503 1915 1904 1523 1523 1915 1915 1915 1915 1915 1926 1926 1926 1926 1926 1926 1926 1926 1936 1936 1936 1936 1936 1936 1936 1936 1936 1936 1936 1936 1936 1936 1936 1936 1936 1947 1947 1959 1959 1970 1981 1993 1993 2005 2016 2016 2028 2028 2028 2028 2028 2485 2485 2485 2467 2467 1516 1516 1516 2467 2467 2485 2485 2503 2503 1529 1529 1529 1529 1523 1516 1509 1503 1503 1503 1496 1496 1496 1496 1503 1503 1509 1509 1509 1516 1516 1516 1926 1926 1936 1936 1947 1947 1947 1947 1947 1947 1947 1959 1959 1959 1959 1959 1959 1959 1959 1959 1959 1959 1959 1959 1959 1959 1959 1959 1959 1959 1959 1959 1959 1959 1959 1970 1970 1970 1970 1970 1970 1970 1970 1970 1970 1970 1970 1543 1543 1543 1536 1536 1529 1529 1529 1529 1529 1529 1529 1529 1536 1543 1543 1543 1557 1557 1557 1564 1564 1564 1564 1564 1564 1564 1557 1557 1564 1557 1557 1557 1564 1564 1564 1564 1564 1564 1564 1572 1579 1579 1586 1586 1586 1586 1586 1586 1586 1586 1586 1594 1594 1594 1594 1594 1594 1594 1601 1601 1609 1609 1609 1609 1616 1616 1616 1616 1624 1624 1624 1624 1624 1624 1632 1632 1639 1639 1647 1647 1647 1647 1647 1647 1655 1655 1655 1655 1655 1655 1655 1655 1655 1655 1655 1655 1655 1655 0 0 0 0 0 0 0 0 1947 1926 1926 1926 1915 1904 1894 1894 1894 1883 1883 1883 1883 1883 1894 1894 1894 1904 1904 1904 1904 1904 1904 3037 3037 3037 3010 3010 3037 3037 3037 3037 3037 3037 3037 3037 3037 3037 3037 3010 3010 3037 3037 3037 3037 3037 3037 3037 3037 3037 3037 3037 3037 3037 3037 3037 3064 3064 3064 3064 3064 3064 3064 3064 3037 3037 3037 3037 3037 3037 3037 3037 3037 3037 3037 3037 3037 3037 3037 3037 3064 3064 3064 3064 3064 3037 3010 3010 3010 3010 3010 3010 3010 3010 3037 3037 3037 3037 3037 3010 3010 3010 3010 3010 3010 3010 3010 3010 3010 3010 3010 3010 3010 3010 3010 3010 3010 3010 3010 3010 3010 3010 3010 3010 2984 2984 2984 2984 2984 2984 2958 2958 0 0 0 0 0 0 0 0 0 0 0
0 0 0 0 0 0 0 0 0 0 0 0 0 0 0 0 0 0 0 0 0 0 0 0 0 0 0 0 0 0 0 0 2812 2812 2812 2812 2812 2812 2812 2812 2789 2789 2812 2812 2812 2812 2789 2789 2789 2812 2812 2812 2812 2812 2812 2812 2835 2835 2835 2835 2835 2835 2835 2835 2835 2835 2835 2812 2812 2835 2835 2812 2812 2812 2789 2789 2812 2812 2812 2812 2812 2812 2812 2812 2812 2812 2812 2812 2812 2835 2859 2859 2859 2859 2859 2859 2859 2859 2859 2859 2859 2859 2859 2859 2859 2859 2859 2859 2859 2883 2883 2883 2883 2883 2883 2883 2883 2883 2883 2883 2883 2883 2908 2908 2883 2883 2883 2883 2883 2883 2883 2883 2883 2883 2883 2883 2908 2908 2908 2908 2908 2908 2933 2908 2908 2933 2933 2933 2933 2908 2908 2908 2908 2908 2908 2908 2908 2908 2078 2065 2065 2078 2078 2078 2078 2078 2078 2090 2090 2090 2090 2090 2078 2078 2883 2908 2908 2933 2933 2958 0 0 0 0 1410 1410 1410 1410 1415 1415 1415 1415 1421 1421 1421 1421 1421 1427 1427 1427 1427 1427 1433 1433 1433 1439 1439 1445 1445 1452 1452 1452 1452 1452 1452 1452 1452 1452 1452 1452 1458 1458 1354 1354 1349 1349 1354 1349 1349 1349 1349 1349 1354 1354 1354 1359 1359 1359 1365 1477 1477 1483 1483 1483 1483 1489 1496 1489 1489 1894 1904 1904 1904 1904 1904 1904 1904 1904 1904 1904 1904 1904 1904 1904 1915 1915 1915 1926 1915 1915 1926 1926 1926 1926 1926 1926 1926 1926 1926 1926 1926 1926 1926 1926 1926 1926 1936 1936 1936 1936 1936 1936 1936 1947 1947 1959 1970 1981 1993 2005 2016 2016 2016 2028 2028 2028 2028 2028 2467 2467 2467 1516 1516 1516 1516 1516 1523 2485 2485 2485 1529 1529 1523 1523 1523 1523 1516 1509 1509 1503 1503 1496 1496 1496 1496 1503 1509 1509 1509 1509 1516 1516 1516 1926 1926 1926 1936 1936 1936 1936 1947 1936 1936 1936 1947 1947 1947 1947 1947 1959 1959 1959 1959 1959 1959 1959 1959 1959 1959 1959 1959 1959 1959 1947 1947 1947 1959 1959 1959 1959 1959 1959 1970 1959 1959 1959 1959 1947 1947 1947 1550 1550 1550 1543 1536 1536 1536 1536 1536 1536 1536 1536 1536 1536 1543 1543 1550 1557 1557 1557 1564 1564 1564 1564 1564 1564 1564 1557 1557 1564 1557 1557 1557 1564 1564 1564 1564 1564 1564 1572 1572 1586 1586 1586 1586 1586 1586 1594 1586 1586 1594 1594 1594 1594 1594 1594 1594 1601 1601 1601 1609 1609 1609 1616 1616 1616 1616 1616 1616 1624 1624 1624 1624 1624 1624 1632 1632 1639 1647 1647 1647 1655 1655 1655 1655 1655 1655 1655 1655 1655 1655 1655 1655 1655 1655 1655 1655 1655 1655 0 0 0 0 0 0 0 0 1947 1936 1926 1926 1915 1904 1904 1894 1894 1894 1883 1883 1883 1894 1894 1894 1904 1904 1904 1904 1904 1904 1904 3037 3037 3010 3010 3010 3010 3010 3010 3010 3010 3010 3010 3010 3010 3010 3010 3010 3010 3010 3037 3037 3037 3037 3037 3037 3037 3037 3037 3037 3037 3037 3037 3037 3037 3037 3037 3037 3037 3037 3037 3064 3037 3037 3037 3037 3037 3037 3037 3037 3037 3037 3037 3037 3037 3037 3037 3037 3064 3064 3064 3037 3037 3010 3010 3010 3010 3010 3010 3010 3010 3010 3010 3010 3010 3010 3010 2984 2984 2984 2984 2984 2958 2958 2984 2984 3010 3010 3010 3010 3010 3010 3010 3010 3010 3010 3010 3010 3010 2984 2984 2984 2958 2958 2958 2958 2958 2958 2958 2958 0 0 0 0 0 0 0 0 0 0 0
0 0 0 0 0 0 0 0 0 0 0 0 0 0 0 0 0 0 0 0 0 0 0 0 0 0 0 0 0 0 0 0 2812 2812 2812 2812 2812 2812 2789 2789 2789 2789 2789 2789 2789 2789 2789 2789 2789 2789 2789 2789 2812 2812 2812 2812 2812 2812 2812 2812 2812 2812 2812 2812 2812 2812 2812 2812 2812 2812 2835 2812 2812 2789 2789 2789 2789 2789 2789 2789 2812 2812 2812 2812 2812 2812 2812 2812 2812 2835 2835 2859 2859 2835 2835 2859 2859 2859 2859 2859 2859 2859 2859 2859 2859 2859 2859 2859 2859 2859 2859 2859 2859 2859 2883 2883 2883 2883 2883 2883 2883 2883 2883 2883 2883 2883 2883 2883 2883 2883 2883 2883 2883 2883 2883 2883 2883 2883 2883 2883 2883 2908 2908 2908 2908 2908 2908 2908 2908 2908 2908 2908 2908 2883 2883 2883 2883 2883 2065 2065 2065 2078 2078 2078 2078 2078 2078 2090 2090 2090 2090 2090 2065 2053 2053 2883 2908 2908 2908 2933 2933 0 0 0 1415 1415 1415 1415 1415 1415 1415 1415 1421 1421 1421 1421 1427 1427 1427 1427 1427 1433 1433 1433 1433 1439 1439 1445 1445 1445 1445 1452 1452 1452 1452 1452 1452 1452 1452 1452 1458 1458 1354 1354 1354 1354 1354 1354 1354 1354 1354 1354 1354 1354 1354 1359 1365 1365 1370 1376 1477 1477 1477 1483 1483 1489 1496 1894 1894 1894 1894 1894 1894 1894 1894 1894 1894 1894 1894 1894 1894 1904 1904 1904 1904 1904 1904 1915 1904 1904 1915 1915 1915 1915 1915 1915 1915 1915 1915 1915 1915 1915 1915 1915 1915 1926 1926 1926 1926 1926 1926 1926 1936 1936 1936 1947 1947 1981 1993 2005 2016 2016 2016 2028 2005 2005 2005 0 1503 1503 1503 1503 1509 1509 1509 1516 1516 1516 1516 1516 1523 1523 1523 1523 1523 1523 1516 1509 1509 1509 1509 1496 1496 1496 1503 1503 1509 1509 1509 1509 1516 1516 1516 1926 1926 1926 1926 1926 1926 1936 1936 1926 1926 1936 1936 1936 1936 1936 1947 1947 1947 1947 1947 1947 1947 1936 1936 1947 1947 1947 1947 1947 1947 1947 1947 1947 1947 1947 1959 1947 1947 1959 1959 1959 1959 1959 1959 1947 1947 1947 1550 1550 1550 1543 1536 1536 1536 1536 1536 1536 1536 1536 1536 1543 1543 1543 1550 1557 1557 1557 1564 1564 1564 1564 1564 1564 1564 1564 1564 1564 1564 1564 1564 1564 1564 1564 1572 1572 1572 1579 1579 1586 1586 1586 1586 1586 1594 1594 1594 1594 1594 1594 1594 1594 1594 1594 1601 1601 1601 1601 1609 1609 1609 1616 1616 1616 1616 1616 1624 1624 1624 1624 1624 1624 1632 1632 1639 1639 1647 1647 1647 1655 1655 1663 1663 1655 1655 1655 1655 1655 1655 1655 1655 1655 1655 1655 1655 1655 1655 0 0 0 0 0 0 0 0 1947 1936 1926 1926 1915 1904 1904 1894 1894 1894 1883 1883 1883 1894 1894 1894 1904 1904 1904 1904 1904 1904 1904 3037 3010 3010 2984 2984 2984 3010 2984 2984 2984 2984 3010 3010 3010 3010 3010 3010 3010 3010 3010 3010 3010 3037 3037 3037 3037 3037 3037 3037 3037 3037 3037 3037 3037 3037 3037 3037 3037 3037 3037 3037 3037 3037 3037 3037 3037 3037 3010 3010 3037 3037 3010 3010 3037 3037 3037 3037 3037 3037 3037 3037 3037 3010 3010 2984 2984 2984 3010 3010 3010 3010 3010 3010 3010 3010 3010 2984 2984 2984 2958 2958 2958 2958 2958 2958 2984 2984 2984 2984 2984 2984 2958 2958 2958 2958 2958 2958 2958 2933 2933 2958 2958 2933 2933 2933 2958 2958 2933 2933 0 0 0 0 0 0 0 0 0 0 0
0 0 0 0 0 0 0 0 0 0 0 0 0 0 0 0 0 0 0 0 0 0 0 0 0 0 0 0 0 0 0 0 2812 2789 2789 2789 2789 2789 2789 2789 2789 2789 2789 2789 2789 2789 2767 2767 2767 2789 2789 2789 2789 2789 2789 2789 2812 2812 2789 2789 2789 2812 2812 2812 2812 2812 2812 2812 2789 2789 2812 2789 2789 2789 2789 2789 2789 2789 2789 2789 2789 2789 2789 2789 2789 2789 2789 2789 2789 2812 2835 2859 2835 2835 2835 2835 2835 2835 2835 2835 2835 2835 2835 2835 2859 2859 2835 2835 2835 2859 2859 2859 2859 2859 2859 2859 2859 2859 2883 2883 2883 2883 2883 2883 2883 2883 2883 2883 2883 2859 2859 2859 2883 2883 2883 2883 2883 2883 2883 2883 2883 2883 2883 2883 2883 2883 2883 2883 2883 2883 2883 2883 2883 2883 2883 2883 2883 2883 2065 2065 2078 2078 2078 2078 2078 2078 2090 2090 2090 2090 2090 2090 2065 2053 2053 2859 2883 2883 2883 2908 2908 0 0 0 0 1421 1421 1421 1421 1421 1421 1421 1421 1421 1427 1427 1427 1427 1433 1433 1433 1433 1433 1439 1439 1439 1439 1445 1445 1445 1445 1445 1445 1445 1445 1452 1452 1452 1452 1452 1458 1359 1359 1359 1354 1354 1354 1354 1354 1354 1354 1354 1354 1354 1359 1359 1365 1370 1370 1376 1376 1477 1477 1483 1483 1883 1894 1894 1894 1894 1894 1894 1894 1894 1894 1894 1894 1894 1894 1894 1894 1894 1894 1894 1904 1904 1904 1904 1904 1904 1904 1904 1904 1904 1904 1904 1904 1904 1904 1904 1904 1904 1904 1904 1904 1904 1904 1915 1915 1926 1926 1926 1926 1926 1926 1936 1936 1959 1970 1993 2005 2016 2016 2016 2005 2005 2005 1496 1503 1503 1503 1503 1509 1509 1509 1516 1516 1516 1516 1516 1516 1523 1523 1523 1523 1516 1516 1516 1509 1509 1509 1503 1503 1503 1503 1509 1509 1509 1509 1516 1516 1516 1516 1926 1926 1926 1926 1926 1926 1926 1926 1926 1926 1926 1926 1926 1926 1926 1936 1936 1936 1936 1936 1936 1936 1926 1926 1936 1936 1936 1936 1936 1947 1936 1936 1947 1947 1947 1947 1947 1947 1947 1947 1947 1947 1947 1936 1936 1936 1936 1550 1550 1550 1543 1543 1536 1536 1536 1536 1536 1536 1536 1536 1543 1543 1550 1550 1557 1557 1564 1564 1572 1564 1564 1572 1572 1564 1564 1564 1564 1564 1564 1564 1564 1564 1572 1572 1572 1579 1579 1579 1586 1586 1586 1594 1594 1594 1594 1594 1594 1594 1601 1601 1601 1601 1601 1609 1609 1609 1609 1616 1616 1616 1616 1616 1616 1624 1624 1624 1632 1624 1624 1632 1632 1632 1632 1639 1647 1647 1655 1655 1663 1663 1663 1663 1655 1655 1655 1655 1655 1655 1655 1655 1655 1655 1663 1663 1663 1663 3010 3010 3010 3010 2984 2984 2984 0 1947 1926 1926 1926 1904 1904 1894 1894 1894 1883 1883 1883 1894 1894 1894 1894 1904 1904 1904 1904 1904 1904 1904 3010 2984 2984 2984 2984 2984 2984 2984 2958 2958 2958 2984 2984 2984 2984 2984 2984 2984 2984 3010 3010 3010 3037 3037 3037 3037 3037 3037 3037 3037 3010 3010 3010 3010 3010 3010 3010 3010 3010 3010 3010 3010 3010 3037 3037 3010 3010 3010 3010 3010 3010 3010 3010 3010 3010 3010 3037 3037 3037 3037 3037 3037 2984 2984 2984 2958 2958 2984 2984 3010 3010 3010 3010 3010 3010 3010 2984 2984 2958 2958 2958 2933 2933 2933 2933 2958 2958 2958 2958 2958 2958 2933 2933 2933 2933 2933 2933 2933 2933 2933 2933 2933 2933 2933 2933 2933 2933 2933 2933 0 0 0 0 0 0 0 0 0 0 0
