0 0 0 0 0 0 0 0 0 0 0 0 0 0 0 0 0 0 0 0 0 0 0 0 0 0 0 0 0 0 0 0 0 2639 2639 2639 2659 2659 2659 2639 2639 2639 2659 2680 2680 2680 2680 2680 2680 2680 2680 2680 2701 2701 2701 2701 2723 2723 2744 2744 2767 2767 2767 2789 2789 2789 2789 2789 2789 2789 2789 2789 2812 2812 2835 2835 2835 2859 2859 2859 2859 2859 2859 2859 2859 2883 2883 2883 2883 2908 2908 2933 2933 2958 2984 3010 3037 3037 3037 3037 3010 3010 3010 3010 3037 3037 3037 3037 3064 3064 3064 3064 3092 3092 3092 3092 3120 3120 3120 3120 3149 3149 3178 3178 3178 3178 3178 3208 3208 3208 3208 3208 3238 3238 3269 3269 3269 3269 3269 3269 3269 3300 3333 3365 3333 3333 3333 3365 3365 3365 3399 3399 3433 3433 3433 0 0 0 0 0 0 0 0 0 0 3503 3468 3468 3468 3503 3539 0 0 0 0 0 0 0 0 0 0 0 0 0 0 0 1523 1523 1523 1529 1529 1529 1529 1529 1529 1529 1529 1536 1536 1543 1543 1543 1543 1536 1536 1529 1523 1509 1503 1503 1496 1489 1489 1489 1483 1483 1483 1483 1483 1483 1483 1477 1470 1470 1470 1464 1464 1464 1470 1464 1464 1464 1458 1458 1458 1452 1452 1452 1452 1452 1452 1452 1445 1445 1445 1433 1433 1433 1433 1427 1427 1427 1427 1421 1421 1421 1421 1421 1421 1421 1415 1415 1415 1415 1415 1415 1410 1410 1410 1410 1404 1398 1398 1392 1392 1387 1387 1381 1381 1381 1381 1381 1381 1381 1387 1392 1392 1392 1392 1398 1398 1398 1398 1398 1993 1993 1981 1981 1970 1970 1970 1981 1981 1981 1993 1993 1993 1981 1981 1981 1970 1970 1970 1981 1981 1981 0 1250 1250 1250 1245 1245 1245 1245 1241 1241 1241 1241 1241 1241 1241 1236 1236 1236 1236 1236 1236 1241 1241 1236 1236 1236 1232 1232 1232 1232 1232 1232 1227 1227 1219 1219 1219 1219 1214 1214 1214 1214 1214 1214 1210 1210 1210 1210 1185 1185 1185 1189 1193 1193 1193 1193 1193 1193 1189 1185 1185 1185 1181 1181 1181 1181 1181 1181 1181 1181 2040 2028 2028 2028 2028 2016 2016 2005 2005 2005 2005 2016 2028 2028 2028 2040 2040 2028 2028 2028 2028 2028 2028 2028 2028 2028 2028 2005 1993 1993 1993 1993 1993 1993 2005 2005 2005 2005 2005 2005 2005 2005 2005 2005 2005 2005 1993 1993 2005 2005 2005 2005 2005 1993 1993 1993 1993 1993 1993 1993 1993 2005 2005 2005 2005 2005 1993 1993 1993 3010 3010 3010 2984 2933 2908 2883 2883 2883 2883 2859 2859 2859 2859 2859 2859 2859 2859 2859 2859 2859 2835 2812 2812 2812 2789 2789 2789 2789 2789 2028 2028 2040 2040 2040 2040 2040 2040 2040 2028 2028 2028 2028 2028 2005 2005 2005 2005 2005 2005 1993 1993 1993 1993 1993 1993 1993 1993 1993 1993 1981 1981 1981 1981 1981 1981 1981 1981 1981 1981 1970 1959 1959 1959 1959 1959 1959 1947 1947 1947 1947 1947 1947 1947 1947 1947 1947 1947 1947 1947 1936 1936 1926 1926 1926 1915 1915 1915 1915 1915 1915 4041 4041 4089 4089 4089 1904 1904 1904 1904 1883 1883 1873 1873 1863 1863 1873 1873 1873 1873 1873 1873 1863 1863 1863 1863 1863 1863 1873 1873 0 0 5132 5132 5132 5210 5210 5291 5210 5210 5291 5291 5291 5374 5548 5548 5548 5548 5548 5640 5640 5548 5548 5548 5548 5374 5374 5460 5460 5460 5460 5460 5460 5460 5460 5460 5548 5548 5548 0 0 0 0 0 0 0 0 0 0 0 0 0 0 0 0
0 0 0 0 0 0 0 0 0 0 0 0 0 0 0 0 0 0 0 0 0 0 0 0 0 0 0 0 0 0 0 0 0 2639 2639 2639 2659 2659 2659 2639 2639 2659 2659 2680 2680 2680 2680 2680 2680 2680 2680 2680 2701 2701 2701 2723 2723 2744 2744 2744 2767 2767 2767 2789 2789 2789 2789 2789 2789 2789 2789 2789 2812 2812 2835 2835 2859 2859 2859 2859 2859 2859 2859 2859 2859 2883 2883 2883 2883 2908 2908 2933 2933 2958 2984 3010 3010 3037 3037 3037 3010 3010 3010 3010 3037 3037 3037 3037 3064 3064 3064 3064 3092 3092 3092 3092 3120 3120 3120 3120 3149 3149 3178 3178 3178 3178 3208 3208 3208 3208 3238 3238 3238 3269 3300 3300 3333 3333 3300 3269 3269 3300 0 0 0 0 3365 3365 3365 3399 3433 3433 3468 3468 3468 0 0 0 0 0 0 0 0 0 0 3503 3468 3468 3503 3503 3539 3539 0 0 0 0 0 0 0 0 0 0 0 0 0 0 1523 1523 1523 1529 1529 1529 1529 1529 1529 1536 1536 1536 1536 1543 1543 1550 1550 1550 1543 1543 1543 1543 1543 1557 0 0 0 0 1483 1483 1483 1483 1483 1483 1483 1477 1470 1470 1470 1464 1464 1464 1470 1464 1464 1464 1458 1458 1458 1452 1452 1452 1452 1452 1452 1452 1445 1445 1445 1439 1433 1433 1433 1427 1427 1427 1427 1421 1421 1421 1421 1421 1421 1421 1415 1415 1415 1415 1415 1415 1415 1410 1410 1410 1404 1404 1398 1398 1392 1392 1392 1387 1387 1381 1381 1381 1381 1381 1387 1392 1392 1392 1392 1392 1392 1398 1398 1398 1970 1970 1959 1959 1959 1959 1970 1970 1970 1970 1970 1970 1970 1959 1959 1959 1959 1959 1959 1959 1970 1970 0 1245 1245 1245 1250 1245 1245 1245 1241 1241 1241 1241 1241 1241 1241 1241 1241 1236 1236 1236 1236 1241 1241 1236 1232 1232 1232 1232 1232 1232 1227 1227 1227 1227 1219 1219 1219 1219 1214 1214 1210 1210 1210 1206 1206 1206 1202 1202 1185 1185 1189 1193 1193 1193 1193 1189 1189 1193 1189 1185 1185 1185 1181 1177 1177 1181 1177 1177 1177 1177 1181 1177 1173 1173 1177 2005 2005 1993 1993 1993 1993 2016 2028 2028 2028 2028 2028 2028 2028 2016 2016 2016 2016 2016 2005 2005 1993 1981 1970 1970 1970 1970 1970 1981 1993 1993 1993 1993 1993 1993 1993 1993 1993 1993 1993 1993 1993 1993 1993 1993 1993 2005 1993 1993 1993 1993 1993 1993 1993 1993 1993 1993 1993 1993 1993 1981 1981 1981 1981 1970 1970 1981 1981 1981 1993 1959 1959 1970 1959 1959 2859 2859 2859 2859 2883 2883 2883 2859 2859 2859 2859 2835 2835 2835 2812 2812 2812 2812 2812 2016 2016 2028 2028 2028 2028 2028 2028 2028 2028 2028 2028 2028 2028 2016 2005 2005 2005 2005 2005 2005 2005 2005 2005 2005 1993 1993 1993 1993 1993 1981 1981 1981 1981 1981 1981 1981 1981 1981 1970 1970 1959 1959 1959 1959 1959 1959 1947 1947 1947 1947 1947 1947 1947 1947 1947 1947 1947 1947 1947 1936 1936 1936 1936 1926 1926 1915 1915 1926 1915 1915 1915 1915 1926 1926 1904 1904 1904 1904 1904 1894 1883 1883 1883 1873 1873 1873 1873 1873 1873 1873 1873 1863 1863 1863 1863 1863 1863 1873 0 0 0 5210 5132 5132 5210 5210 5291 5210 5210 5291 5291 5291 5374 5548 5548 5548 5548 5548 5548 5640 5548 5548 5548 5460 5374 5374 5374 5374 5374 5374 5374 5460 5460 5374 5374 5460 5548 0 0 0 0 0 0 0 0 0 0 0 0 0 0 0 0 0
0 0 0 0 0 0 0 0 0 0 0 0 0 0 0 0 0 0 0 0 0 0 0 0 0 0 0 0 0 0 0 0 0 2639 2639 2639 2639 2639 2659 2659 2659 2659 2659 2680 2680 2680 2680 2680 2701 2701 2701 2701 2701 2701 2723 2723 2744 2744 2744 2744 2767 2767 2767 2789 2789 2789 2789 2789 2789 2789 2789 2789 2789 2812 2812 2835 2835 2835 2859 2859 2859 2859 2859 2859 2859 2883 2883 2883 2883 2908 2908 2933 2933 2958 2984 2984 3010 3037 3037 3037 3037 3010 3010 3010 3037 3037 3064 3064 3064 3064 3064 3064 3092 3092 3092 3092 3120 3120 3120 3120 3149 3178 3178 3178 3178 3208 3208 3208 3208 3238 3238 3238 3269 3300 3333 3333 3365 3333 3300 3269 3269 0 0 0 0 0 3433 3433 3433 3433 3433 3468 3468 3468 3468 0 0 0 0 0 0 0 0 0 0 0 3503 3503 3503 3503 3503 3503 3503 0 0 0 0 0 0 0 0 0 0 0 0 0 0 1523 1523 1529 1529 1529 1529 1529 1529 1536 1536 1536 1536 1543 1550 1550 1550 1550 1550 1550 1550 1550 1557 1557 0 0 0 0 0 0 0 0 0 0 0 0 0 1477 1470 1470 1464 1464 1470 1470 1464 1464 1458 1458 1458 1452 1452 1452 1452 1452 1452 1452 1445 1445 1445 1439 1433 1433 1433 1433 1433 1427 1427 1421 1421 1421 1421 1421 1421 1421 1421 1421 1415 1415 1415 1415 1415 1415 1415 1410 1410 1404 1398 1398 1398 1392 1392 1387 1387 1387 1381 1381 1387 1387 1387 1392 1392 1392 1392 1392 1392 1398 1398 1398 1926 1926 1947 1947 1947 1947 1947 1947 1947 1947 1936 1936 1947 1947 1947 1947 1947 1947 1959 1959 1959 1959 0 1245 1245 1245 1250 1245 1245 1245 1245 1245 1245 1245 1245 1241 1241 1241 1241 1236 1236 1236 1236 1236 1236 1232 1232 1232 1232 1232 1232 1227 1227 1227 1227 1223 1219 1219 1219 1214 1214 1210 1210 1210 1210 1206 1202 1202 1197 1197 1193 1193 1193 1193 1193 1193 1193 1189 1189 1189 1189 1185 1185 1185 1181 1177 1177 1177 1177 1177 1177 1177 1177 1173 1173 1173 1173 1169 1169 1993 1993 1993 1993 2005 2005 2016 2028 2028 2016 2016 2016 2016 2005 2005 1993 1993 1993 1993 1993 1981 1970 1970 1970 1970 1970 1970 1981 1981 1981 1981 1981 1981 1981 1981 1981 1981 1981 1981 1981 1981 1981 1981 1993 1993 1981 1981 1981 1981 1981 1981 1981 1981 1981 1993 1993 1993 1981 1981 1970 1970 1970 1970 1970 1970 1970 1981 1970 1959 1959 1959 1959 1959 1959 1959 1970 1970 1959 1959 1959 2883 2859 2859 2859 2859 2835 2835 2835 2835 2835 2835 2835 2005 2005 2016 2016 2016 2016 2028 2028 2028 2028 2028 2028 2028 2028 2005 2005 2005 2005 2005 2005 2005 2005 2005 2005 2005 1993 1993 1993 1993 1993 1981 1981 1981 1981 1981 1981 1981 1981 1981 1970 1970 1959 1959 1959 1959 1959 1959 1959 1959 1947 1947 1947 1947 1947 1947 1947 1947 1947 1947 1947 1936 1936 1936 1936 1926 1926 1915 1915 1926 1926 1915 1915 1915 1915 1915 1904 1904 1904 1904 1904 1894 1883 1883 1883 1873 1873 1873 1873 1873 1873 1873 1873 1863 1863 1863 1863 1863 1863 1873 0 0 0 0 0 5132 5132 5210 5210 5210 5210 5291 5291 5374 5374 5374 5548 5548 5548 5548 5548 5640 5548 5460 5460 5374 5374 5374 5291 5291 5291 5374 5291 5291 5374 5374 5374 5460 0 0 0 0 0 0 0 0 0 0 0 0 0 0 0 0 0 0
0 0 0 0 0 0 0 0 0 0 0 0 0 0 0 0 0 0 0 0 0 0 0 0 0 0 0 0 0 0 0 0 0 2639 2639 2639 2639 2639 2639 2639 2659 2659 2680 2680 2680 2680 2680 2680 2701 2701 2701 2701 2701 2723 2723 2723 2744 2744 2744 2744 2767 2767 2767 2789 2789 2789 2789 2789 2789 2789 2789 2789 2789 2812 2812 2835 2835 2835 2859 2859 2859 2859 2859 2883 2883 2883 2883 2883 2883 2908 2908 2933 2933 2958 2984 2984 3010 3037 3037 3037 3037 3010 3010 3010 3037 3037 3064 3064 3064 3064 3064 3064 3092 3092 3092 3092 3120 3120 3120 3120 3149 3149 3178 3178 3178 3208 3208 3208 3238 3238 3269 3269 3300 3399 3399 3399 3433 3433 3300 3300 3300 0 0 0 0 0 0 3433 3433 3468 3468 3468 3468 3468 3503 0 0 0 0 0 0 0 0 0 0 0 0 3503 3468 3468 3503 3503 3503 0 0 0 0 0 0 0 0 0 0 0 0 0 0 1529 1529 1529 1536 1529 1529 1529 1536 1543 1543 1543 1543 1550 1550 1550 1550 1550 1550 1557 1550 1550 1557 1557 0 0 0 0 0 0 0 0 0 0 0 0 0 0 0 0 1464 1464 1470 1464 1464 1464 1458 1458 1458 1452 1452 1452 1452 1452 1452 1452 1445 1445 1445 1439 1433 1433 1433 1427 1427 1427 1427 1427 1421 1421 1421 1421 1421 1421 1421 1421 1421 1415 1415 1415 1415 1415 1415 1410 1410 1410 1404 1404 1398 1398 1392 1392 1387 1387 1387 1387 1387 1387 1387 1392 1392 1392 1398 1398 1398 1398 1398 1904 1904 1904 1904 1926 1926 1926 1936 1936 1936 1936 1936 1926 1926 1926 1926 1936 1947 1947 1947 1947 1947 1947 1947 1947 1250 1250 1250 1245 1245 1245 1245 1245 1245 1245 1245 1241 1241 1241 1241 1236 1236 1236 1236 1232 1232 1232 1232 1232 1232 1232 1232 1227 1227 1227 1223 1223 1219 1219 1214 1214 1214 1210 1210 1210 1210 1202 1202 1202 1197 1197 1193 1193 1193 1193 1193 1189 1189 1189 1189 1189 1185 1181 1181 1181 1181 1177 1177 1177 1177 1177 1177 1177 1177 1173 1173 1173 1169 1169 1165 1165 1165 1161 1161 1169 1165 1165 1165 1165 2016 2005 2005 2005 2005 1993 1981 1981 1981 1981 1981 1981 1970 1970 1970 1970 1970 1970 1970 1970 1970 1970 1981 1981 1970 1970 1970 1970 1970 1970 1970 1970 1970 1970 1981 1970 1970 1959 1959 1959 1959 1970 1970 1981 1981 1981 1993 1981 1970 1970 1970 1959 1959 1959 1959 1959 1970 1970 1959 1947 1947 1947 1947 1947 1947 1947 1959 1959 1959 1959 1947 1947 1947 1936 1936 2859 2859 2859 2835 2835 2835 2835 1959 1959 1981 1993 1993 2005 2005 2005 2016 2016 2016 2016 2016 2028 2016 2005 2005 2005 2005 2005 2005 1993 1993 1993 2005 2005 1993 1993 1993 1993 1993 1981 1981 1981 1981 1981 1981 1981 1981 1981 1970 1970 1959 1959 1959 1959 1959 1959 1959 1947 1947 1947 1947 1947 1947 1947 1947 1947 1947 1947 1947 1936 1936 1936 1936 1926 1926 1915 1915 1926 1926 1915 1915 1915 1915 1904 1904 1904 1894 1894 1894 1894 1894 1883 1883 1873 1873 1873 1873 1873 1873 1873 1873 1873 1873 1873 1873 1873 1873 0 0 0 0 0 0 5132 5132 5210 5210 5210 5210 5291 5291 5291 5374 5374 5548 5548 5548 5640 5640 5640 5548 5374 5374 5291 5291 5291 5291 5291 5291 5291 5291 5291 5291 5291 5291 5291 0 0 0 0 0 0 0 0 0 0 0 0 0 0 0 0 0 0
0 0 0 0 0 0 0 0 0 0 0 0 0 0 0 0 0 0 0 0 0 0 0 0 0 0 0 0 0 0 0 0 0 2639 2639 2639 2639 2639 2639 2639 2659 2659 2680 2680 2680 2701 2680 2680 2701 2701 2701 2701 2701 2723 2723 2723 2744 2744 2744 2744 2767 2767 2767 2789 2789 2789 2789 2789 2789 2789 2789 2789 2789 2812 2835 2835 2835 2859 2859 2859 2859 2859 2859 2859 2883 2883 2883 2883 2883 2908 2908 2933 2958 2958 2984 2984 3010 3037 3037 3037 3037 3010 3010 3010 3037 3037 3064 3064 3064 3064 3064 3064 3092 3092 3092 3120 3092 3092 3120 3120 3149 3149 3178 3178 3178 3208 3208 0 0 3300 3300 3300 3468 3433 3433 3433 3433 3468 3468 0 0 0 0 0 0 0 0 0 3468 3468 3468 3468 3468 3503 3503 0 0 0 0 0 0 0 0 0 0 0 0 3468 3468 3468 3503 3503 3503 0 0 0 0 0 0 0 0 0 0 0 0 0 0 0 1529 1529 1536 1529 1529 1529 1536 1543 1543 1543 1543 1543 1550 1550 1550 1557 1557 1557 1557 1557 1557 0 0 0 0 0 0 0 0 0 0 0 0 0 0 0 0 0 1464 1464 1470 1464 1464 1464 1458 1458 1458 1452 1452 1452 1452 1452 1452 1452 1452 1445 1445 1439 1433 1427 1427 1427 1427 1427 1427 1427 1421 1421 1421 1421 1421 1421 1421 1421 1421 1415 1415 1415 1415 1415 1415 1415 1410 1410 1404 1404 1404 1398 1398 1392 1387 1387 1387 1387 1387 1387 1387 1392 1392 1398 1398 1398 1398 1404 1404 1404 1894 1894 1894 1926 1926 1926 1926 1926 1926 1926 1926 1926 1926 1915 1915 1926 1936 1936 1936 1936 1947 1947 1947 0 1250 1250 1250 1250 1250 1250 1245 1245 1245 1245 1245 1245 1245 1245 1245 1236 1236 1236 1236 1232 1232 1232 1232 1232 1232 1232 1227 1227 1227 1227 1223 1223 1219 1219 1214 1214 1210 1210 1206 1206 1206 1202 1202 1202 1197 1197 1193 1193 1193 1193 1193 1189 1189 1185 1185 1185 1185 1181 1181 1181 1181 1177 1177 1177 1177 1177 1173 1173 1173 1173 1173 1173 1169 1165 1165 1165 1165 1161 1161 1165 1165 1165 1165 1165 1161 1161 2005 1157 1157 1161 1161 1161 1153 1153 1153 1970 1959 1959 1959 1959 1959 1959 1970 1970 1970 1970 1970 1970 1959 1959 1959 1959 1959 1959 1959 1947 1936 1936 1926 1926 1936 1936 1936 1936 1947 1959 1959 1970 1970 1981 1981 1970 1970 1959 1959 1959 1959 1959 1959 1959 1959 1959 1947 1926 1926 1926 1926 1926 1926 1936 1936 1947 1947 1947 1947 1947 1947 1936 1926 1926 1915 1915 1915 1915 1915 1915 1915 1936 1959 1959 1959 1970 1981 1993 1993 1993 1993 1993 1993 1993 2005 1993 1993 1993 1993 1993 1993 1993 1993 1993 1993 1993 1993 1993 1993 1993 1981 1981 1981 1981 1981 1981 1981 1981 1981 1970 1970 1970 1959 1959 1959 1959 1959 1959 1959 1947 1947 1947 1947 1947 1947 1947 1947 1947 1947 1947 1936 1936 1936 1936 1936 1926 1926 1915 1915 1926 1915 1915 1915 1915 1915 1904 1904 1904 1894 1894 1894 1894 1894 1883 1883 1883 1883 1883 1873 1873 1873 1873 1873 1873 1873 1873 1873 1873 0 0 0 0 0 0 0 5132 5132 5210 5210 5210 5210 5291 5291 5291 5374 5460 5460 5460 5460 5460 5548 5548 5460 5374 5374 5291 5291 5291 5291 5210 5210 5291 5291 5291 5291 5291 5291 5291 0 0 0 0 0 0 0 0 0 0 0 0 0 0 0 0 0 0
0 0 0 0 0 0 0 0 0 0 0 0 0 0 0 0 0 0 0 0 0 0 0 0 0 0 0 0 0 0 0 0 0 2618 2618 2639 2639 2639 2639 2639 2659 2659 2680 2680 2680 2701 2701 2701 2701 2701 2701 2701 2701 2723 2723 2723 2744 2744 2744 2767 2767 2767 2789 2789 2789 2789 2789 2789 2789 2789 2789 2789 2789 2812 2835 2835 2835 2859 2859 2859 2859 2859 2859 2859 2883 2883 2883 2883 2908 2908 2908 2933 2958 2958 2984 2984 3010 3010 3010 3037 3037 3037 3037 3037 3037 3064 3064 3064 3064 3064 3064 3064 3092 3092 3092 3120 3092 3092 3120 3120 3120 3120 3178 3178 3208 3208 3208 0 0 0 0 0 0 0 3503 3503 3539 0 0 0 0 0 0 0 0 0 0 0 3468 3468 3468 3468 3468 3468 3468 0 4774 4774 4774 4842 4842 0 0 0 5056 5056 5056 3539 3468 3468 3503 3503 3503 3433 3399 3399 0 0 0 0 0 0 0 0 0 0 0 0 1529 1529 1536 1529 1529 1536 1543 1543 1543 1543 1543 1543 1550 1550 1550 1557 1557 1557 1557 1557 1557 1564 0 0 0 0 0 0 0 0 0 0 0 0 0 0 0 0 0 0 0 1470 1464 1464 1464 1464 1464 1464 1458 1452 1452 1452 1452 1452 1452 1445 1445 1439 1433 1427 1427 1427 1427 1433 1427 1427 1427 1427 1421 1421 1421 1421 1421 1421 1421 1415 1415 1415 1415 1415 1415 1415 1410 1410 1404 1404 1404 1398 1398 1392 1387 1387 1387 1387 1387 1387 1387 1392 1392 1398 1398 1398 1398 1404 1404 1404 1894 1894 1894 1894 1894 1915 1915 1915 1915 1915 1894 1894 1894 1894 1904 1904 1915 1936 1936 1936 1926 1926 1926 0 1250 1250 1250 1250 1250 1250 1250 1250 1250 1250 1245 1245 1245 1245 1245 1241 1236 1236 1236 1236 1236 1232 1232 1232 1232 1232 1227 1227 1227 1227 1223 1219 1219 1214 1214 1214 1210 1210 1206 1206 1206 1202 1197 1197 1197 1197 1197 1197 1193 1193 1193 1189 1189 1185 1185 1185 1181 1181 1181 1181 1181 1177 1177 1177 1173 1173 1173 1173 1173 1173 1169 1169 1169 1165 1165 1165 1165 1161 1161 1161 1161 1161 1165 1165 1161 1157 1157 1157 1157 1157 1157 1161 1153 1153 1149 1149 1145 1145 1145 1947 1947 1947 1959 1947 1947 1947 1959 1959 1947 1947 1947 1947 1947 1936 1936 1926 1926 1926 1926 1915 1915 1926 1926 1926 1936 1947 1959 1959 1959 1959 1970 1959 1959 1959 1959 1959 1959 1959 1959 1959 1947 1947 1936 1926 1926 1926 1926 1926 1926 1926 1936 1947 1936 1936 1936 1936 1936 1926 1915 1915 1915 1915 1915 1915 1915 1915 1915 1915 1926 1926 1926 1936 1947 1959 1959 1926 1926 1936 1947 1947 1959 1970 1970 1981 1981 1993 1993 1981 1981 1981 1993 1993 1981 1981 1981 1981 1981 1981 1981 1981 1981 1970 1970 1970 1970 1970 1970 1970 1959 1959 1959 1959 1959 1959 1959 1959 1947 1947 1947 1947 1947 1947 1947 1947 1947 1947 1936 1936 1936 1936 1936 1926 1926 1926 1926 1926 1915 1915 1915 1915 1915 1904 1904 1904 1904 1904 1894 1894 1894 1894 1894 1894 1883 1883 1883 1873 1873 1873 1873 1873 1873 1873 1873 1873 0 0 0 0 0 0 0 0 5210 5210 5210 5210 5291 5291 5291 5291 5374 5460 5460 5460 5460 5460 5460 5460 5374 5374 5291 5291 5291 5291 5291 5210 5210 5210 5210 5210 5291 5291 5291 5291 0 0 0 0 0 0 0 0 0 0 0 0 0 0 0 0 0 0
0 0 0 0 0 0 0 0 0 0 0 0 0 0 0 0 0 0 0 0 0 0 0 0 0 0 0 0 0 0 0 0 0 2618 2618 2618 2618 2618 2639 2639 2659 2659 2680 2680 2701 2701 2701 2701 2701 2701 2701 2701 2701 2723 2723 2723 2744 2744 2767 2767 2767 2789 2789 2789 2789 2789 2789 2789 2789 2789 2789 2789 2789 2812 2835 2835 2835 2859 2859 2859 2859 2859 2859 2859 2859 2883 2883 2908 2908 2908 2908 2933 2958 2958 2984 2984 3010 3010 3010 3037 3037 3037 3037 3037 3064 3064 3064 3064 3064 3064 3064 3064 3092 3092 3120 3120 3149 3149 3149 3149 3120 3120 3178 0 0 0 0 0 0 0 0 0 0 0 3503 3503 3539 0 0 0 0 0 0 0 0 0 0 3468 3468 3468 3468 3468 3468 3468 3468 3468 4842 4774 4774 4842 4842 4842 0 0 5056 5056 5056 3539 3503 3503 3503 3503 3503 3433 3399 3399 0 0 0 0 0 0 0 0 0 0 0 0 1529 1529 1536 1536 1536 1536 1543 1543 1543 1543 1543 1543 1543 1550 1550 1557 1557 1557 1557 1557 1557 1564 0 0 0 0 0 0 0 0 0 0 0 0 0 0 0 0 0 0 0 0 0 0 0 0 0 1823 1843 1843 1458 1458 1458 1863 1863 1843 1445 1439 1439 1843 1843 1433 1433 1433 1813 1813 1823 1823 1833 1833 1421 1421 1421 1421 1421 1421 1415 1415 1415 1415 1415 1415 1410 1410 1404 1404 1404 1398 1398 1392 1392 1392 1392 1387 1387 1387 1392 1392 1392 1398 1398 1404 1404 1404 1410 1410 1873 1873 1873 1873 1883 1873 1873 1863 1863 1863 1863 1863 1863 1863 1873 1873 1894 1904 1915 1904 1904 1904 1904 1863 1250 1250 1250 1250 1250 1250 1250 1250 1250 1250 1245 1245 1245 1245 1245 1241 1241 1236 1236 1236 1236 1232 1232 1232 1227 1227 1227 1227 1227 1223 1223 1219 1219 1214 1214 1214 1210 1210 1206 1206 1206 1202 1197 1197 1197 1197 1197 1197 1193 1193 1193 1189 1189 1185 1185 1185 1181 1181 1181 1181 1181 1177 1177 1177 1173 1173 1173 1173 1173 1173 1169 1169 1165 1165 1165 1161 1161 1161 1161 1161 1161 1161 1161 1161 1161 1157 1153 1153 1153 1153 1153 1157 1149 1149 1149 1149 1145 1145 1145 1947 1947 1947 1947 1936 1936 1936 1947 1936 1926 1926 1936 1936 1936 1926 1926 1926 1915 1915 1915 1915 1915 1915 1915 1915 1926 1947 1959 1959 1959 1959 1970 1959 1959 1947 1101 1101 1101 1101 1101 1936 1926 1926 1926 1915 1915 1915 1926 1926 1926 1926 1926 1926 1926 1926 1926 1926 1926 1915 1915 1915 1915 1915 1915 1915 1915 1915 1915 1915 1915 1915 1926 1926 1926 1926 1926 1915 1915 1926 1926 1926 1926 1926 1936 1947 1970 1981 1981 1981 1981 1981 1981 1981 1981 1970 1970 1970 1970 1970 1970 1970 1970 1970 1970 1970 1970 1970 1970 1970 1959 1959 1959 1959 1959 1959 1959 1959 1947 1947 1959 1947 1947 1947 1947 1947 1947 1947 1936 1936 1936 1936 1926 1926 1926 1926 1926 1926 1915 1915 1915 1904 1904 1904 1904 1904 1904 1894 1894 1894 1894 1894 1894 1894 1883 1883 1883 1873 1873 1873 1873 1873 1873 1873 1873 1883 0 0 0 0 0 0 0 0 5210 5210 5210 5210 5291 5291 5374 5374 5374 5460 5460 5460 0 5460 5460 5460 5374 5374 5291 5291 5291 5291 5291 5210 5210 5210 5210 5210 5291 5291 5291 5291 0 0 0 0 0 0 0 0 0 0 0 0 0 0 0 0 0 0
0 0 0 0 0 0 0 0 0 0 0 0 0 0 0 0 0 0 0 0 0 0 0 0 0 0 0 0 0 0 0 0 0 2618 2618 2618 2618 2618 2639 2639 2659 2659 2680 2680 2701 2701 2701 2701 2701 2701 2701 2701 2723 2723 2723 2744 2744 2744 2767 2767 2767 2789 2789 2789 2789 2789 2789 2789 2789 2789 2789 2789 2789 2812 2835 2835 2835 2859 2859 2859 2859 2859 2859 2859 2859 2883 2883 2908 2908 2908 2908 2933 2958 2958 2984 2984 3010 3037 3037 3064 3064 3064 3037 3037 3064 3064 3064 3064 3064 3064 3064 3092 3092 0 0 0 0 3178 3178 3149 3149 0 0 0 0 0 0 0 0 0 0 0 0 0 0 0 0 0 0 0 0 0 0 0 0 0 0 3468 3468 3468 3468 3468 3468 3468 3468 3468 4842 4774 4774 4842 4842 4842 4842 4842 4911 4983 4983 3539 3503 3503 3503 3503 3503 3503 3503 0 0 0 0 0 0 0 0 0 0 0 0 0 0 1543 1536 1536 1536 1536 1543 1543 1543 1543 1543 1543 1543 1550 1550 1557 1557 1557 1557 1557 1557 1564 0 0 0 0 0 0 0 0 0 0 0 0 0 0 0 0 0 0 0 0 0 0 1813 1823 1823 1823 1843 1843 1853 1853 1853 1863 1853 1833 1833 1833 1833 1823 1823 1823 1813 1813 1813 1813 1813 1823 1823 1833 1843 1843 1843 1843 1843 1813 1421 1415 1415 1415 1415 1415 1415 1415 1410 1404 1404 1398 1398 1398 1392 1392 1392 1392 1392 1392 1392 1398 1398 1398 1398 1404 1404 1410 1410 1410 1873 1873 1853 1853 1853 1853 1853 1853 1853 1853 1853 1853 1853 1853 1853 1853 1853 1843 1843 1843 1863 1863 1863 1863 1250 1250 1250 1250 1250 1250 1250 1250 1250 1250 1250 1245 1245 1245 1245 1241 1241 1236 1236 1236 1236 1232 1232 1232 1227 1227 1227 1227 1227 1223 1219 1214 1214 1214 1214 1214 1210 1210 1206 1206 1206 1202 1197 1197 1197 1197 1197 1197 1193 1193 1193 1189 1189 1185 1185 1185 1181 1181 1181 1181 1181 1177 1177 1177 1173 1173 1173 1173 1169 1169 1169 1165 1165 1161 1161 1161 1161 1161 1161 1161 1157 1157 1157 1153 1153 1153 1153 1149 1149 1149 1149 1149 1149 1149 1149 1149 1145 1145 1145 1145 1145 1145 1936 1926 1926 1936 1936 1926 1926 1926 1926 1926 1926 1926 1915 1915 1915 1904 1904 1904 1904 1915 1915 1915 1926 1947 1959 1959 1959 1970 1101 1101 1101 1105 1101 1101 1101 1101 1097 1097 1097 1097 1097 1915 1915 1915 1915 1926 1926 1915 1915 1915 1915 1915 1915 1915 1915 1915 1915 1915 1915 1915 1915 1904 1904 1904 1904 1915 1915 1915 1915 1915 1915 1915 1915 1904 1904 1904 1904 1904 1915 1915 1904 1904 1915 1936 1970 1970 1970 1970 1970 1959 1959 1947 1947 1970 1970 1959 1959 1970 1970 1959 1959 1959 1959 1970 1959 1959 1959 1959 1959 1959 1959 1959 1959 1959 1959 1959 1959 1959 1947 1947 1947 1947 1947 1936 1936 1936 1936 1936 1926 1926 1926 1926 1926 1926 1915 1915 1915 1904 1904 1904 1904 1904 1904 1894 1894 1894 1894 1894 1894 1883 1883 1883 1873 1873 1873 1873 1873 1873 1873 1873 1873 1926 0 0 0 0 0 0 0 0 5291 5291 5210 5210 5291 5291 5460 5374 5374 5460 5460 0 0 0 5460 5460 5374 5374 5291 5291 5291 5291 5291 5210 5210 5291 5210 5210 5210 5210 5210 5210 0 0 0 0 0 0 0 0 0 0 0 0 0 0 0 0 0 0
0 0 0 0 0 0 0 0 0 0 0 0 0 0 0 0 0 0 0 0 0 0 0 0 0 0 0 0 0 0 0 0 0 2618 2618 2618 2618 2618 2639 2639 2659 2659 2680 2680 2701 2701 2701 2701 2701 2701 2701 2701 2723 2723 2723 2744 2744 2767 2767 2767 2767 2789 2789 2789 2789 2789 2789 2789 2812 2789 2789 2789 2812 2812 2835 2835 2835 2859 2859 2859 2859 2859 2859 2859 2883 2883 2883 2908 2933 2933 2933 2958 2958 2958 2958 2984 3010 3037 3064 3064 3064 3064 3064 3064 3064 3064 3064 3064 3064 3064 0 0 0 0 0 0 0 0 0 0 0 0 0 0 0 0 0 0 0 0 0 0 0 0 0 0 0 0 0 0 0 0 0 0 0 0 0 3468 3468 3468 3468 3468 3468 3468 3468 3468 4842 4774 4774 4842 4774 4774 4774 4774 4842 4842 4842 3539 3539 3539 3503 3503 3503 3503 3503 0 0 0 0 0 0 0 0 0 0 0 0 0 0 1543 1536 1536 1543 1543 1543 1543 1543 1543 1543 1543 1543 1550 1550 1557 1557 1557 1564 1557 1557 0 0 0 0 0 0 0 0 0 0 0 0 0 0 0 0 0 0 0 0 0 0 0 1813 1813 1813 1823 1833 1843 1843 1843 1853 1853 1853 1833 1823 1823 1833 1823 1823 1823 1804 1804 1804 1804 1813 1813 1813 1823 1833 1833 1833 1833 1833 1804 1804 1813 1813 1813 1813 1813 1813 1813 1410 1410 1404 1398 1398 1398 1392 1392 1392 1392 1392 1392 1392 1398 1398 1398 1404 1404 1410 1415 1415 1813 1813 1813 1813 1823 1843 1853 1843 1843 1843 1843 1843 1843 1843 1833 1833 1833 1823 1823 1823 1823 1833 1843 1843 1843 1250 1250 1250 1250 1250 1250 1250 1255 1250 1250 1250 1250 1250 1245 1245 1241 1241 1241 1241 1241 1236 1232 1232 1232 1227 1227 1227 1227 1227 1223 1219 1214 1214 1214 1214 1214 1210 1210 1210 1206 1206 1206 1202 1202 1197 1197 1197 1197 1193 1193 1193 1193 1189 1185 1185 1185 1181 1181 1181 1181 1181 1177 1177 1177 1173 1173 1173 1173 1169 1169 1165 1165 1165 1161 1161 1161 1157 1157 1157 1157 1157 1157 1157 1153 1153 1153 1149 1149 1149 1149 1149 1149 1145 1145 1149 1149 1145 1145 1145 1145 1141 1138 1138 1138 1915 1915 1936 1926 1926 1926 1926 1926 1926 1915 1915 1915 1915 1904 1904 1904 1904 1915 1915 1915 1926 1926 1101 1101 1101 1101 1101 1101 1101 1105 1105 1105 1101 1101 1097 1097 1097 1097 1097 1097 1097 1101 1101 1915 1915 1915 1915 1915 1904 1904 1904 1904 1904 1904 1904 1904 1904 1904 1904 1904 1904 1904 1904 1904 1904 1904 1915 1915 1904 1904 1904 1904 1904 1894 1894 1894 1894 1894 1894 1894 1894 1904 1904 1904 1904 1915 1915 1904 1904 1904 1904 1904 1915 1915 1936 1947 1936 1936 1947 1947 1947 1947 1947 1947 1947 1947 1947 1947 1947 1947 1959 1959 1959 1959 1959 1947 1947 1947 1947 1947 1947 1936 1936 1936 1936 1936 1926 1926 1926 1926 1926 1915 1915 1915 1915 1904 1904 1904 1904 1904 1904 1894 1894 1894 1894 1894 1894 1883 1883 1883 1873 1873 1873 1873 1873 1873 1873 1873 1873 0 0 0 0 0 0 0 0 5374 5291 5291 5291 5291 5291 5460 5460 0 0 0 0 0 0 0 5460 5374 5374 5374 5291 5291 5291 5291 5291 5210 5210 5291 5210 5210 5210 0 5210 5210 0 0 0 0 0 0 0 0 0 0 0 0 0 0 0 0 0 0
0 0 0 0 0 0 0 0 0 0 0 0 0 0 0 0 0 0 0 0 0 0 0 0 0 0 0 0 0 0 0 0 0 2639 2639 2639 2618 2618 2639 2639 2659 2680 2680 2680 2701 2701 2701 2701 2701 2701 2701 2723 2723 2744 2744 2744 2767 2767 2767 2767 2767 2789 2789 2789 2789 2789 2789 2789 2812 2789 2789 2789 2789 2812 2835 2835 2835 2859 2859 2859 2859 2859 2859 2883 2883 2883 2908 2908 2933 2933 2933 2958 2958 2958 2958 2984 2984 3010 3064 3092 3092 3092 3064 3064 3064 3064 3064 3064 0 0 0 0 0 0 0 0 0 0 0 0 0 0 0 0 0 0 0 0 0 0 0 0 0 0 0 0 0 0 0 0 0 0 0 0 0 0 0 0 3468 3468 3433 3433 3468 3468 3468 3468 4774 4774 4708 4708 4774 4774 4774 4774 4842 4842 4842 3503 3503 3539 3539 3539 3503 3503 3503 0 0 0 0 0 0 0 0 0 0 0 0 0 1550 1543 1543 1543 1543 1543 1543 1543 1543 1543 1543 1543 1543 1550 1550 1557 1557 1557 1564 1564 1564 0 0 0 0 0 0 0 0 0 0 0 0 0 0 0 0 0 0 0 0 0 0 0 1813 1813 1813 1813 1823 1813 1813 1823 1833 1843 1833 1813 1813 1813 1823 1813 1813 1813 1804 1804 1804 1804 1804 1804 1813 1813 1823 1823 1823 1823 1833 1804 1804 1804 1804 1804 1813 1813 1813 1813 1813 1398 1398 1398 1398 1398 1392 1392 1392 1392 1392 1392 1392 1398 1398 1404 1404 1410 1415 1415 1415 1813 1813 1813 1813 1823 1843 1843 1843 1843 1833 1833 1833 1833 1833 1823 1823 1813 1813 1813 1813 1813 1823 1823 1823 1823 1823 1255 1255 1255 1255 1255 1255 1255 1255 1255 1255 1250 1250 1250 1245 1245 1245 1245 1241 1241 1236 1236 1232 1232 1232 1227 1227 1227 1227 1223 1223 1214 1214 1214 1214 1214 1210 1210 1210 1206 1206 1206 1202 1202 1197 1197 1197 1197 1193 1193 1193 1193 1189 1185 1185 1185 1181 1181 1181 1181 1177 1177 1177 1173 1173 1173 1173 1173 1169 1169 1165 1165 1161 1161 1161 1161 1157 1157 1157 1157 1157 1157 1153 1153 1153 1149 1149 1145 1145 1145 1145 1145 1145 1145 1145 1145 1145 1145 1145 1145 1141 1138 1134 1134 1134 1126 1126 1130 1134 1926 1926 1926 1915 1915 1915 1915 1915 1904 1904 1915 1915 1915 1915 1915 1915 1101 1101 1101 1101 1101 1101 1101 1105 1105 1105 1105 1101 1101 1097 1097 1097 1097 1097 1097 1097 1101 1101 1915 1915 1915 1915 1904 1904 1904 1883 1883 1883 1894 1894 1894 1894 1894 1894 1894 1894 1894 1894 1883 1883 1894 1904 1904 1894 1894 1894 1894 1894 1894 1894 1894 1894 1894 1883 1883 1873 1873 1883 1883 1883 1883 1883 1883 1883 1873 1873 1873 1873 1863 1863 1863 1863 1863 1863 1926 1926 1936 1936 1936 1936 1947 1947 1947 1947 1947 1947 1959 1959 1959 1947 1947 1947 1947 1936 1936 1936 1936 1936 1936 1936 1926 1926 1926 1926 1915 1915 1915 1915 1904 1904 1904 1904 1904 1904 1904 1904 1894 1894 1894 1894 1894 1894 1883 1883 1883 1873 1873 1873 1873 1873 1873 1873 1873 1873 0 0 0 0 0 0 0 0 5291 5291 5291 5291 5374 5374 5548 5548 0 0 0 0 0 0 0 0 5374 5374 5374 5291 5291 5291 5291 5291 5210 5210 0 5210 5210 5210 0 0 0 0 0 0 0 0 0 0 0 0 0 0 0 0 0 0 0 0 0
0 0 0 0 0 0 0 0 0 0 0 0 0 0 0 0 0 0 0 0 0 0 0 0 0 0 0 0 0 0 0 0 0 2639 2639 2639 2639 2639 2639 2639 2659 2680 2680 2680 2701 2701 2701 2701 2701 2701 2701 2723 2723 2744 2744 2744 2767 2767 2767 2767 2767 2789 2789 2789 2789 2789 2789 2789 2812 2789 2789 2789 2789 2835 2835 2835 2835 2859 2859 2859 2859 2859 2859 2883 2883 2883 2908 2933 2933 2933 2933 2958 2958 2958 2958 2984 2984 3010 3064 3092 3092 3092 3037 3037 3064 3037 3037 0 0 0 0 0 0 0 0 0 0 0 0 0 0 0 0 0 0 0 0 0 0 0 0 0 0 0 0 0 0 0 0 0 0 0 0 0 0 0 0 0 3468 3468 3433 3433 3433 3433 3433 3433 4708 4708 4708 4708 4708 4708 4774 4774 4774 4774 4842 3503 3503 3539 3539 3539 3539 3539 3539 0 0 0 0 0 0 0 0 0 0 0 0 0 1550 1543 1543 1543 1543 1543 1543 1543 1543 1543 1543 1543 1543 1550 1550 1557 1557 1564 1564 1572 0 0 0 0 0 0 0 0 0 0 0 0 0 0 0 0 1785 1785 1785 1785 1785 1785 0 0 0 1804 1804 1813 1804 1804 1794 1794 1794 1794 1794 1794 1804 1804 1813 1804 1804 1794 1794 1794 1785 1785 1785 1785 1794 1804 1813 1813 1813 1813 1813 1804 1804 1804 1804 1804 1804 1804 1804 1813 1813 1398 1398 1398 1398 1398 1398 1392 1392 1392 1392 1392 1392 1398 1398 1404 1410 1410 1415 1415 1415 1776 1776 1785 1785 1804 1813 1813 1823 1823 1823 1823 1813 1813 1813 1804 1804 1804 1804 1804 1804 1804 1813 1813 1813 1813 1813 1813 1255 1255 1255 1255 1255 1255 1255 1255 1255 1255 1250 1250 1245 1245 1245 1245 1245 1245 1241 1236 1236 1232 1232 1227 1227 1227 1227 1227 1227 1219 1214 1214 1214 1214 1210 1210 1210 1210 1206 1206 1206 1202 1202 1197 1197 1197 1197 1193 1193 1193 1189 1189 1189 1185 1181 1181 1181 1181 1177 1177 1177 1173 1173 1173 1173 1173 1169 1169 1169 1165 1161 1161 1161 1161 1157 1157 1157 1157 1157 1157 1153 1153 1153 1149 1149 1145 1145 1145 1145 1145 1145 1145 1145 1145 1141 1141 1141 1141 1141 1138 1134 1134 1134 1126 1126 1130 1130 1130 1134 1130 1130 1130 1130 1126 1126 1130 1130 1915 1915 1915 1915 1112 1101 1101 1101 1101 1101 1101 1101 1101 1101 1101 1101 1101 1101 1097 1097 1097 1097 1097 1097 1097 1097 1101 1101 1101 1915 1915 1915 1904 1894 1894 1873 1873 1873 1873 1873 1883 1873 1873 1873 1873 1873 1873 1873 1873 1873 1873 1883 1883 1883 1883 1883 1883 1883 1883 1873 1873 1873 1873 1873 1863 1863 1863 1863 1873 1873 1873 1873 1873 1873 1873 1873 1873 1863 1863 1863 1863 1863 1863 1863 1863 1873 1863 1863 1863 1926 1926 1936 1936 1936 1936 1947 1947 1947 1947 1947 1936 1936 1936 1936 1936 1936 1936 1936 1936 1926 1926 1926 1915 1915 1915 1915 1904 1904 1904 1904 1904 1904 1904 1904 1904 1904 1904 1894 1894 1894 1894 1894 1883 1883 1883 1873 1873 1873 1873 1883 1883 1883 1883 1883 0 0 0 0 0 0 0 0 5291 5291 5291 5291 5291 5548 5548 5548 5548 0 0 0 0 0 0 0 0 0 0 0 5291 5291 5291 5291 0 0 0 0 0 0 0 0 0 0 0 0 0 0 0 0 0 0 0 0 0 0 0 0 0 0 0
0 0 0 0 0 0 0 0 0 0 0 0 0 0 0 0 0 0 0 0 0 0 0 0 0 0 0 0 0 0 0 0 0 2639 2639 2639 2639 2639 2639 2659 2659 2659 2659 2680 2680 2680 2701 2701 2701 2701 2701 2723 2723 2744 2744 2767 2767 2767 2767 2767 2767 2789 2789 2789 2789 2789 2812 2812 2812 2789 2789 2789 2789 2835 2835 2835 2835 2859 2859 2859 2859 2859 2859 2883 2883 2908 2933 2958 2958 2958 2958 2984 2958 2958 0 0 0 0 3092 3092 3092 3092 3037 3037 3064 3037 3037 0 0 0 0 0 0 0 0 0 0 0 0 0 0 0 0 0 0 0 0 0 0 0 0 0 0 0 0 0 0 0 0 0 0 0 0 0 0 0 0 0 0 3433 3399 3399 3433 3433 3433 3433 4708 4645 4645 4645 4645 4645 4708 4708 4708 4774 4774 3503 3503 3503 3539 3576 3576 3576 3576 4708 4708 4708 0 4645 4645 4708 0 0 0 0 0 0 1557 1550 1550 1550 1550 1550 1550 1550 1543 1543 1543 1550 1550 1550 1550 1557 1557 1564 1564 1572 0 0 0 0 0 0 0 0 0 0 0 0 0 0 0 0 1785 1785 1785 1785 1776 1776 1776 1776 1776 1776 1785 1804 1804 1785 1776 1776 1776 1776 1785 1785 1785 1785 1776 1776 1766 1766 1776 1766 1766 1766 1766 1776 1776 1776 1776 1776 1776 1794 1794 1785 1785 1804 1804 1804 1794 1794 1804 1804 1804 1398 1398 1398 1398 1398 1398 1398 1398 1392 1392 1398 1398 1398 1398 1404 1410 1410 1415 1415 1415 1766 1776 1776 1776 1785 1785 1785 1804 1804 1794 1794 1804 1804 1804 1804 1794 1794 1794 1794 1794 1794 1804 1804 1804 1804 1813 1813 1255 1255 1255 1255 1255 1255 1255 1255 1255 1255 1250 1250 1245 1245 1245 1245 1245 1245 1245 1241 1236 1232 1232 1232 1232 1227 1227 1227 1227 1227 1219 1219 1219 1214 1210 1210 1210 1210 1210 1206 1206 1206 1202 1202 1202 1197 1197 1197 1193 1193 1193 1189 1189 1189 1185 1185 1185 1181 1181 1181 1177 1177 1177 1177 1173 1173 1173 1173 1169 1169 1169 1165 1165 1161 1161 1161 1161 1161 1157 1157 1157 1153 1153 1149 1149 1149 1149 1149 1145 1145 1145 1145 1145 1145 1141 1141 1141 1141 1141 1134 1134 1134 1134 1130 1130 1130 1130 1130 1130 1130 1130 1130 1130 1126 1126 1130 1130 1130 1130 1130 1112 1112 1105 1101 1101 1101 1101 1101 1101 1101 1101 1101 1097 1097 1097 1097 1094 1094 1094 1094 1094 1097 1097 1097 1101 1101 1105 1915 1915 1915 1873 1863 1863 1853 1853 1843 1843 1843 1843 1843 1843 1843 1843 1833 1833 1833 1843 1843 1843 1843 1843 1843 1843 1843 1843 1843 1843 1843 1833 1833 1843 1843 1843 1853 1853 1853 1853 1853 1853 1853 1853 1853 1853 1853 1863 1853 1853 1853 1853 1853 1853 1853 1853 1833 1833 1833 1833 1833 1823 1813 1813 1813 1936 1947 1947 1947 1936 1936 1936 1936 1936 1936 1936 1936 1926 1926 1926 1915 1915 1904 1904 1894 1894 1904 1894 1894 1894 1904 1904 1904 1904 1904 1904 1894 1894 1894 1894 1894 1894 1883 1883 1873 1873 1873 1873 1873 1873 1873 1873 1873 1873 0 0 0 0 0 0 0 0 0 0 1748 1748 1739 1739 0 0 0 0 0 0 0 0 0 0 0 0 0 0 0 0 0 0 0 0 0 0 0 0 0 0 0 0 0 0 0 0 0 0 0 0 0 0 0 0 0 0 0 0 0
0 0 0 0 0 0 0 0 0 0 0 0 0 0 0 0 0 0 0 0 0 0 0 0 0 0 0 0 0 0 0 0 0 2639 2639 2659 2659 2659 2659 2659 2659 2659 2659 2659 2680 2680 2701 2701 2701 2701 2723 2723 2744 2744 2744 2767 2767 2767 2767 2767 2789 2789 2789 2789 2789 2812 2812 2812 2812 2789 2789 2812 2812 2835 2835 2859 2859 2859 2859 2859 2859 2859 2859 2883 2883 2908 2933 0 0 0 0 0 0 0 0 0 0 0 3092 3092 3092 3092 3064 3064 3064 3037 3037 0 0 0 0 0 0 0 0 0 0 0 0 0 0 0 0 0 0 0 0 0 0 0 0 0 0 0 0 0 0 0 0 0 0 0 0 0 0 0 0 0 0 3399 3399 3399 3433 3433 3399 3399 4582 4582 4582 4582 4582 4582 4645 4708 4708 4708 4708 3503 3503 3503 3539 3576 3653 3653 4645 4645 4645 4645 4645 4645 4645 4708 0 0 0 0 0 0 1557 1557 1550 1550 1550 1550 1550 1550 1543 1543 1543 1550 1550 1550 1557 1557 1557 1564 1564 1564 0 0 0 0 0 0 0 0 0 0 1739 1739 1739 1739 1748 1776 1776 1776 1785 1785 1766 1766 1757 1757 1757 1757 1757 1748 1748 1748 1748 1757 1757 1757 1766 1766 1766 1757 1748 1748 1757 1748 1748 1748 1757 1757 1757 1766 1766 1766 1766 1766 1766 1766 1766 1776 1776 1785 1785 1794 1794 1794 1804 1804 0 1404 1404 1404 1404 1404 1398 1398 1398 1398 1398 1398 1398 1398 1398 1404 1410 1410 1415 1415 1766 1766 1776 1776 1776 1785 1776 1776 1785 1785 1785 1785 1785 1794 1794 1785 1785 1785 1785 1785 1785 1785 1794 1804 1804 1804 1804 1804 1804 1255 1255 1255 1255 1259 1259 1259 1259 1255 1255 1250 1245 1245 1245 1245 1245 1245 1245 1241 1236 1232 1232 1232 1232 1227 1227 1227 1227 1227 1223 1219 1219 1219 1214 1214 1214 1210 1210 1210 1206 1206 1202 1202 1202 1197 1197 1197 1193 1193 1193 1189 1189 1189 1185 1185 1185 1181 1181 1181 1177 1177 1177 1177 1177 1177 1173 1173 1173 1169 1169 1165 1165 1161 1161 1161 1161 1161 1161 1161 1157 1157 1153 1153 1149 1149 1149 1149 1145 1145 1145 1145 1145 1145 1141 1141 1141 1141 1141 1134 1130 1130 1130 1130 1130 1130 1130 1130 1130 1126 1126 1126 1126 1126 1126 1126 1130 1130 1126 1119 1115 1112 1105 1105 1105 1105 1101 1101 1101 1101 1101 1097 1097 1097 1097 1094 1094 1094 1094 1094 1094 1097 1097 1097 1101 1101 1101 1101 1915 1915 1873 1863 1843 1843 1843 1833 1833 1833 1833 1833 1833 1833 1833 1833 1833 1833 1833 1833 1833 1833 1833 1833 1833 1833 1833 1833 1833 1833 1833 1833 1833 1833 1833 1833 1833 1833 1843 1843 1843 1843 1843 1843 1853 1853 1843 1843 1843 1833 1833 1833 1833 1833 1833 1823 1823 1813 1813 1813 1813 1804 1804 1794 1794 1804 1804 1813 1813 1813 1813 1926 1813 1813 1794 1794 1794 1794 1823 1823 1823 1823 1823 1823 1823 1823 1833 1873 1883 1894 1894 1894 1894 1894 1894 1894 1894 1883 1883 1883 1883 1873 1873 1863 1863 1863 1873 1873 1863 1863 1863 1813 1813 0 0 0 0 0 0 0 0 0 0 1748 1748 1739 1739 1739 0 0 0 0 0 0 0 0 0 0 0 0 0 0 0 0 0 0 0 0 0 0 0 0 0 0 0 0 0 0 0 0 0 0 0 0 0 0 0 0 0 0 0 0
0 0 0 0 0 0 0 0 0 0 0 0 0 0 0 0 0 0 0 0 0 0 0 0 0 0 0 0 0 0 0 0 0 2639 2639 2659 2659 2659 2659 2659 2680 2659 2659 2659 2680 2680 2701 2701 2701 2701 2723 2723 2744 2744 2744 2767 2767 2767 2767 2767 2789 2789 2789 2789 2812 2812 2812 2812 2812 2789 2789 2812 2835 2835 2859 2859 2859 2859 2859 2859 2883 2883 2883 2883 2883 2908 2908 0 0 0 0 0 0 0 0 0 0 0 0 0 3092 3092 3064 3064 3064 3064 3064 0 0 0 0 0 0 0 0 0 0 0 0 0 0 0 0 0 0 0 0 0 0 0 0 0 0 0 0 0 0 0 0 0 0 0 0 0 0 0 0 4522 4522 3399 3399 3399 3433 3433 3399 3399 4582 4582 4582 4582 4582 4582 4645 4645 4708 4708 4708 4708 3539 3539 3539 3539 3539 3539 4645 4645 4645 4645 4645 4645 4645 4645 4645 0 0 0 0 0 0 1557 1550 1550 1550 1550 1550 1550 1550 1550 1550 1550 1550 1557 1557 1557 1564 1564 1564 1564 0 0 0 0 0 0 0 0 1731 1731 1731 1731 1731 1731 1739 1739 1776 1776 1785 1757 1757 1757 1748 1748 1748 1748 1748 1748 1748 1748 1748 1748 1748 1748 1748 1757 1757 1748 1748 1748 1748 1739 1739 1739 1739 1748 1748 1757 1757 1757 1757 1757 1757 1757 1757 1757 1757 1766 1766 1766 1766 1766 1766 1722 1722 1404 1404 1404 1404 1404 1404 1398 1398 1398 1398 1398 1398 1404 1404 1404 1410 1415 1415 1415 1766 1766 1766 1776 1776 1776 1766 1766 1776 1776 1776 1776 1776 1776 1776 1776 1776 1776 1776 1776 1776 1776 1785 1785 1804 1804 1804 1804 1259 1259 1259 1259 1259 1259 1259 1259 1259 1255 1255 1255 1245 1245 1245 1245 1245 1245 1245 1245 1245 1236 1232 1232 1232 1227 1227 1227 1227 1227 1223 1219 1219 1219 1214 1214 1214 1214 1210 1210 1210 1206 1206 1202 1202 1197 1197 1197 1197 1193 1193 1193 1193 1189 1189 1185 1185 1181 1181 1181 1181 1181 1177 1177 1177 1177 1173 1173 1169 1169 1169 1165 1165 1165 1161 1161 1161 1161 1157 1157 1157 1157 1153 1153 1149 1149 1149 1149 1145 1145 1145 1145 1145 1145 1141 1141 1141 1141 1138 1134 1130 1130 1130 1130 1130 1130 1130 1126 1126 1126 1126 1126 1126 1126 1123 1123 1123 1123 1123 1119 1115 1115 1112 1105 1105 1105 1101 1101 1101 1101 1097 1097 1097 1094 1090 1090 1090 1087 1087 1087 1087 1097 1097 1097 1101 1101 1101 0 1101 1101 1833 0 1833 1833 1833 1823 1823 1823 1833 1823 1823 1823 1823 1823 1823 1823 1823 1823 1823 1823 1823 1823 1823 1823 1823 1823 1823 1823 1823 1823 1823 1823 1823 1823 1823 1823 1833 1833 1833 1833 1833 1833 1833 1833 1833 1833 1823 1823 1823 1823 1823 1823 1823 1813 1804 1804 1794 1794 1794 1804 1804 1785 1785 1785 1804 1813 1813 1813 1804 1804 1804 1804 1794 1785 1785 1794 1794 1794 1794 1813 1813 1813 1804 1804 1813 1833 1843 1853 1894 1766 1766 1894 1776 1776 1776 1785 1863 1873 1863 1863 1863 1863 1863 1863 1863 1863 1863 1853 1813 1813 1785 1785 1785 0 0 0 0 0 0 0 1757 1757 1748 1739 1739 1748 1757 1757 0 0 0 0 0 0 0 0 0 0 0 0 0 0 0 0 0 0 0 0 0 0 0 0 0 0 0 0 0 0 0 0 0 0 0 0 0 0 0 0 0 0
0 0 0 0 0 0 0 0 0 0 0 0 0 0 0 0 0 0 0 0 0 0 0 0 0 0 0 0 0 0 0 0 0 2639 2639 2639 2659 2659 2659 2659 2680 2680 2680 2680 2680 2701 2701 2701 2701 2723 2723 2723 2767 2767 2767 2767 2767 2767 2767 2767 2789 2789 2789 2789 2812 2812 2812 2812 2812 2812 2812 2812 2812 2835 2859 2859 2859 2859 2859 2859 2883 2883 2883 2883 2883 2908 2933 0 0 0 0 0 0 0 0 0 0 0 0 0 3092 3092 3092 3092 3092 3092 3092 0 0 0 0 0 0 0 0 0 0 0 0 0 0 0 0 0 0 0 0 0 0 0 0 0 0 0 0 0 0 0 0 0 0 0 0 0 4522 4522 4522 4522 4522 3399 3399 3399 3433 3433 3399 3399 4522 4522 4522 4522 4522 4522 4582 4645 4645 4645 4645 4708 3539 3539 3539 3539 3539 3539 4582 4582 4582 4582 4645 4645 4645 4645 4645 4645 0 0 0 0 0 0 1550 1550 1550 1550 1550 1550 1550 1550 1550 1550 1550 1557 1557 1557 1564 1564 1564 1572 0 0 0 0 0 1713 1713 1722 1722 1722 1722 1722 1722 1731 1731 1731 1731 1731 1731 1731 1739 1739 1739 1739 1748 1748 1748 1748 1739 1739 1739 1739 1748 1748 1748 1748 1739 1739 1739 1739 1739 1739 1739 1739 1739 1739 1748 1739 1739 1739 1748 1748 1739 1739 1739 1748 1748 1739 1739 1739 1731 1731 1722 1722 1722 1722 1410 1410 1410 1410 1404 1404 1398 1398 1398 1398 1398 1404 1404 1410 1410 1415 1415 1415 1421 1766 1766 1776 1776 1757 1757 1757 1757 1757 1757 1766 1766 1766 1776 1776 1776 1776 1766 1766 1776 1776 1776 1776 1785 1785 1785 1785 1259 1259 1259 1259 1259 1259 1259 1259 1259 1255 1255 1255 1250 1250 1245 1245 1250 1245 1245 1245 1245 1241 1241 1236 1232 1232 1232 1227 1227 1227 1223 1223 1223 1223 1219 1214 1214 1214 1210 1210 1210 1206 1206 1206 1202 1202 1202 1197 1197 1193 1193 1193 1193 1193 1189 1189 1189 1185 1185 1181 1181 1181 1177 1177 1177 1177 1173 1173 1169 1169 1169 1169 1165 1165 1165 1161 1161 1161 1157 1157 1157 1157 1153 1153 1149 1149 1149 1149 1145 1145 1145 1145 1145 1145 1145 1141 1141 1141 1138 1134 1130 1130 1130 1130 1130 1130 1130 1126 1126 1126 1126 1126 1126 1126 1123 1123 1123 1123 1123 1119 1119 1115 1115 1112 1108 1105 1101 1101 1101 1097 1097 1097 1094 1094 1090 1090 1090 1087 1087 1087 1087 1090 1094 1097 1101 1101 1101 1101 0 0 0 0 1833 1823 1823 1823 1823 1823 1823 1823 1823 1823 1794 1794 1794 1794 1794 1794 1804 1794 1794 1794 1794 1794 1794 1785 1785 1813 1813 1813 1813 1813 1823 1823 1823 1823 1823 1823 1823 1823 1823 1823 1813 1813 1813 1813 1813 1804 1804 1785 1785 1785 1785 1785 1785 1785 1785 1785 1785 1785 1785 1785 1785 1785 1785 1794 1794 1794 1794 1794 1794 1794 1794 1785 1785 1785 1785 1785 1785 1785 1794 1794 1794 1794 1794 1794 1794 1794 1785 1766 1766 1785 1776 1776 1776 1776 1785 1785 1785 1785 1794 1794 1853 1853 1853 1853 1813 1813 1794 1794 1785 1785 1776 1776 1766 1766 0 0 0 1748 1748 1748 1748 1748 1748 1748 1757 1757 1748 1739 1739 1731 1731 1722 1722 0 0 0 0 0 0 0 0 0 0 0 0 0 0 0 0 0 0 0 0 0 0 0 0 0 0 0 0 0 0 0 0 0 0 0
0 0 0 0 0 0 0 0 0 0 0 0 0 0 0 0 0 0 0 0 0 0 0 0 0 0 0 0 0 0 0 0 0 2639 2639 2639 2639 2639 2659 2680 2680 2680 2680 2680 2701 2701 2701 2701 2701 2723 2723 2723 2744 2744 2744 2767 2767 2767 2767 2767 2789 2789 2789 2789 2812 2812 2812 2812 2812 2812 2812 2812 2812 2859 2883 2883 2883 2859 2859 2883 2883 2908 2908 2933 2933 2908 2908 0 0 0 0 0 0 0 0 0 0 0 0 0 0 3120 3120 3149 3149 3149 3149 0 0 0 0 0 0 0 0 0 0 0 0 0 0 0 0 4522 4522 4522 4522 0 0 0 0 0 0 0 0 0 0 0 0 0 0 0 0 4522 4522 4522 4522 4522 4522 4582 4582 3433 3399 3399 3399 3399 4522 4522 4522 4522 4522 4522 4522 4582 4582 4582 4582 4645 3503 3503 3503 3539 3539 3539 3539 4463 4522 4522 4582 4582 4645 4582 4582 4582 4463 4463 0 0 0 0 1557 1550 1550 1550 1550 1550 1550 1550 1550 1550 1550 1557 1557 1557 1564 1564 1564 1564 0 0 0 0 0 1713 1713 1713 1713 1713 1722 1722 1722 1722 1731 1731 1731 1722 1722 1722 1722 1731 1731 1731 1731 1739 1739 1739 1731 1731 1731 1739 1739 1739 1739 1739 1731 1731 1731 1731 1731 1731 1731 1731 1739 1739 1739 1731 1731 1731 1739 1731 1731 1731 1739 1739 1739 1731 1731 1731 1731 1722 1722 1722 1722 1722 1415 1415 1415 1410 1410 1404 1404 1404 1404 1404 1404 1404 1404 1410 1415 1415 1415 1421 1421 1776 1766 1766 1748 1748 1748 1748 1748 1748 1748 1757 1757 1757 1766 1766 1766 1766 1757 1757 1766 1757 1757 1766 1766 1776 1776 1776 1259 1259 1259 1264 1264 1264 1259 1259 1259 1259 1255 1255 1250 1250 1250 1250 1250 1250 1245 1245 1245 1245 1241 1236 1236 1236 1232 1232 1227 1227 1227 1223 1223 1223 1223 1219 1219 1214 1214 1210 1210 1206 1206 1206 1202 1202 1202 1197 1197 1197 1193 1193 1193 1193 1189 1189 1189 1185 1185 1181 1181 1181 1181 1181 1177 1177 1177 1173 1169 1169 1169 1169 1169 1165 1165 1165 1161 1161 1161 1161 1161 1157 1157 1153 1149 1149 1149 1149 1149 1149 1145 1145 1145 1145 1145 1145 1141 1141 1138 1134 1130 1130 1130 1130 1130 1130 1130 1126 1126 1126 1126 1126 1126 1126 1123 1123 1123 1123 1119 1119 1115 1115 1115 1112 1108 1105 1101 1101 1101 1097 1097 1097 1094 1094 1090 1090 1090 1087 1087 1087 1087 1090 1094 1097 1097 1097 1101 1101 0 0 1757 1766 1766 1757 1757 1757 1766 1766 1766 1766 1766 1766 1776 1785 1785 1785 1785 1785 1794 1785 1785 1776 1776 1776 1776 1776 1776 1785 1785 1776 1766 1766 1766 1776 1776 1776 1776 1776 1776 1776 1766 1757 1757 1748 1748 1757 1757 1757 1757 1757 1766 1766 1766 1766 1766 1766 1776 1776 1776 1776 1776 1776 1785 1785 1785 1785 1785 1794 1794 1794 1794 1794 1785 1785 1785 1785 1785 1785 1785 1785 1785 1785 1785 1785 1785 1785 1785 1785 1785 1785 1776 1776 1776 1766 1766 1766 1766 1766 1766 1776 1776 1776 1785 1785 1785 1785 1785 1785 1785 1776 1776 1776 1776 1776 1766 1757 1757 1757 0 1748 1748 1748 1748 1748 1748 1748 1757 1757 1748 1739 1739 1731 1731 1722 1722 1731 0 0 0 0 0 0 0 0 0 0 0 0 0 0 0 0 0 0 0 0 0 0 0 0 0 0 0 0 0 0 0 0 0 0
0 0 0 0 0 0 0 0 0 0 0 0 0 0 0 0 0 0 0 0 0 0 0 0 0 0 0 0 0 0 0 0 0 2639 2639 2639 2639 2639 2659 2659 2680 2680 2680 2680 2701 2701 2701 2701 2723 2723 2723 2723 2744 2744 2744 2767 2767 2767 2767 2767 2789 2789 2789 2812 2812 2812 2812 2812 2812 2812 2812 2812 2835 2883 2883 2883 2883 0 0 0 2908 2908 2908 2933 2933 2908 2908 2984 0 0 0 0 0 0 0 0 0 0 0 0 3092 3092 3120 3120 3120 3120 3120 3120 0 0 0 0 0 0 0 0 0 0 0 0 0 0 0 4463 4463 4522 4522 4522 0 0 0 0 0 0 0 0 0 0 0 0 0 0 4582 4522 4522 4522 4522 4522 4522 4522 4522 4522 3399 3399 3399 3399 4463 4463 4463 4463 4463 4463 4522 4522 4522 4522 4522 4522 3503 3468 3468 3468 3539 3539 3539 3539 4522 4522 4582 4582 4582 4582 4582 4522 4463 4463 0 0 0 0 0 1557 1550 1550 1550 1550 1550 1550 1550 1550 1557 1557 1557 1564 1564 1564 1564 1564 0 1572 0 1705 1705 1705 1705 1713 1713 1713 1722 1722 1722 1722 1731 1731 1713 1713 1713 1713 1713 1722 1722 1722 1722 1722 1731 1731 1722 1722 1731 1722 1722 1731 1731 1731 1713 1713 1722 1722 1722 1722 1722 1722 1731 1731 1722 1722 1722 1722 1722 1713 1713 1713 1722 1731 1731 1722 1722 1722 1722 1722 1713 1713 1722 1722 1415 1415 1415 1410 1410 1410 1404 1404 1404 1404 1404 1404 1404 1410 1415 1415 1415 1421 1421 1776 1766 1739 1731 1731 1739 1739 1739 1739 1748 1748 1748 1748 1748 1748 1739 1739 1748 1748 1757 1748 1748 1748 1739 1739 1748 1748 1259 1259 1259 1264 1264 1264 1264 1264 1259 1259 1255 1255 1250 1250 1250 1250 1250 1250 1245 1245 1245 1245 1245 1241 1236 1236 1232 1232 1232 1232 1227 1227 1227 1227 1223 1219 1214 1214 1214 1210 1210 1210 1210 1206 1206 1202 1202 1197 1197 1197 1197 1193 1193 1193 1193 1189 1189 1185 1185 1185 1185 1181 1181 1181 1181 1177 1177 1173 1173 1173 1169 1169 1169 1169 1165 1165 1165 1161 1161 1161 1161 1157 1157 1153 1153 1153 1153 1149 1149 1149 1149 1149 1149 1149 1145 1145 1145 1141 1141 1138 1134 1134 1134 1130 1130 1130 1130 1130 1126 1126 1126 1126 1126 1123 1123 1123 1123 1123 1119 1119 1115 1115 1115 1112 1108 1105 1101 1101 1101 1097 1097 1097 1094 1094 1090 1090 1090 1090 1090 1090 1090 1094 1094 1097 1097 1097 1101 1101 0 1748 1757 1757 1757 1757 1757 1757 1757 1757 1757 1757 1757 1757 1766 1766 1776 1766 1766 1776 1776 1776 1776 1766 1766 1766 1766 1766 1766 1757 1757 1766 1748 1748 1757 1757 1766 1766 1757 1757 1757 1757 1757 1748 1748 1739 1739 1748 1748 1748 1748 1757 1757 1766 1766 1766 1757 1757 1766 1766 1766 1766 1766 1776 1776 1776 1776 1776 1785 1785 1785 1785 1785 1785 1785 1785 1776 1776 1776 1776 1776 1776 1776 1776 1776 1785 1776 1776 1776 1785 1776 1776 1776 1766 1766 1757 1757 1757 1757 1757 1757 1766 1766 1766 1766 1757 1757 1757 1757 1757 1776 1776 1776 1776 1766 1766 1766 1748 1739 1739 1739 1739 1739 1748 1757 1757 1748 1748 1757 1757 1748 1739 1739 1731 1731 1722 1722 1722 1722 1731 0 0 0 0 0 0 0 0 0 0 0 0 0 0 0 0 0 0 0 0 0 0 0 0 0 0 0 0 0 0 0 0
0 0 0 0 0 0 0 0 0 0 0 0 0 0 0 0 0 0 0 0 0 0 0 0 0 0 0 0 0 0 0 0 0 2639 2639 2639 2639 2639 2639 2659 2680 2680 2680 2701 2701 2701 2701 2723 2723 2723 2744 2744 2744 2767 2767 2767 2767 2767 2789 2789 2789 2789 2789 2812 2812 2812 2835 2835 2835 2812 2789 2789 2835 0 0 0 0 0 0 0 0 2933 2933 2958 2933 2933 2933 2984 0 0 0 0 0 0 0 0 0 0 0 0 3092 3092 3092 3092 3092 3092 3092 3092 3092 0 0 0 0 0 0 0 0 0 0 0 0 0 0 4295 4295 4405 4463 4463 4405 4405 0 0 0 0 0 0 0 0 0 0 0 0 4582 4522 4522 4522 4522 4522 4522 4522 4522 4522 4522 4522 4463 4463 4463 4463 4463 4463 4463 4463 4463 4463 4463 4463 4463 4463 4522 3468 3468 3468 3539 3539 3539 3539 4522 4522 4522 4522 4522 4522 4522 4522 4463 4463 4522 0 0 0 0 1557 1550 1550 1550 1550 1550 1550 1550 1557 1557 1557 1557 1557 1564 1564 1564 1564 1572 1572 1688 1696 1696 1696 1696 1705 1713 1713 1713 1713 1713 1713 1722 1713 1696 1696 1705 1705 1713 1713 1713 1713 1713 1713 1722 1722 1722 1722 1713 1713 1713 1722 1722 1722 1705 1705 1705 1713 1713 1713 1713 1713 1722 1713 1713 1713 1705 1705 1705 1705 1705 1713 1713 1713 1713 1713 1713 1713 1713 1713 1713 1713 1722 1421 1415 1415 1415 1415 1410 1410 1404 1404 1404 1404 1404 1404 1404 1410 1410 1415 1415 1421 1421 1427 1427 1731 1731 1731 1722 1722 1722 1722 1739 1739 1739 1739 1739 1731 1731 1739 1739 1739 1739 1739 1739 1739 1731 1731 1739 1739 1259 1259 1259 1264 1264 1264 1264 1264 1259 1259 1255 1255 1250 1250 1250 1250 1250 1250 1250 1245 1245 1245 1245 1245 1241 1236 1232 1232 1232 1232 1227 1227 1227 1227 1223 1223 1214 1214 1214 1210 1210 1210 1210 1210 1206 1206 1202 1197 1197 1197 1197 1197 1193 1193 1193 1193 1189 1189 1185 1185 1185 1185 1181 1181 1181 1177 1177 1177 1177 1173 1173 1173 1173 1169 1169 1165 1165 1161 1161 1161 1161 1157 1157 1157 1157 1157 1157 1153 1153 1153 1149 1149 1149 1149 1149 1145 1145 1145 1141 1138 1134 1134 1134 1130 1130 1130 1130 1130 1130 1126 1126 1126 1126 1123 1123 1123 1123 1123 1119 1119 1119 1115 1115 1112 1108 1105 1105 1101 1101 1097 1097 1097 1097 1094 1094 1090 1090 1090 1090 1090 1090 1094 1097 1097 1097 1097 1097 0 1748 1748 1748 1748 1748 1748 1748 1748 1748 1739 1739 1739 1748 1748 1748 1757 1757 1757 1757 1757 1766 1766 1757 1757 1757 1757 1757 1757 1748 1748 1748 1748 1748 1748 1748 1748 1748 1757 1757 1757 1748 1748 1748 1748 1739 1739 1739 1739 1739 1748 1748 1748 1748 1757 1757 1757 1748 1748 1757 1757 1757 1748 1748 1757 1766 1766 1766 1766 1776 1766 1766 1766 1766 1766 1776 1776 1776 1766 1766 1776 1776 1766 1766 1766 1766 1776 1766 1766 1766 1776 1776 1766 1766 1766 1757 1757 1748 1748 1748 1748 1748 1757 1757 1757 1757 1757 1748 1748 1757 1757 1757 1757 1766 1766 1766 1757 1757 1748 1739 1739 1739 1739 1739 1748 1748 1748 1748 1748 1748 1748 1739 1739 1739 1731 1731 1722 1722 1722 1722 1731 0 0 0 0 0 0 0 0 0 0 0 0 0 0 0 0 0 0 0 0 0 0 0 0 0 0 0 0 0 0 0 0
0 0 0 0 0 0 0 0 0 0 0 0 0 0 0 0 0 0 0 0 0 0 0 0 0 0 0 0 0 0 0 0 0 2639 2639 2639 2639 2639 2639 2659 2680 2680 2680 2701 2701 2701 2701 2723 2723 2723 2723 2723 2744 2767 2767 2767 2789 2789 2789 2789 2789 2789 2789 2789 2812 2812 2812 2812 2812 2789 2767 2767 0 0 0 0 0 0 0 0 0 2958 2958 2958 2933 2933 2933 2984 0 0 0 0 0 0 0 0 0 0 0 0 3064 3064 3092 3092 3092 3092 3092 3092 3092 0 0 0 0 0 0 0 0 0 0 0 0 0 0 4295 4295 4405 4463 4463 4405 4405 4463 0 0 0 0 0 0 0 0 0 0 0 4405 4405 4463 4463 4522 4522 4522 4522 4522 4522 4522 4522 4463 4463 4463 4463 4463 4463 4463 4463 4463 4463 4463 4463 4463 4463 4463 4463 3539 3539 3539 3539 3539 3503 3503 4463 4463 4463 4463 4522 4522 4522 4522 4522 4522 0 0 0 0 0 1557 1557 1557 1557 1557 1557 1557 1557 1557 1557 1557 1557 1564 1564 1564 1564 1572 1572 1688 1688 1688 1688 1696 1696 1696 1705 1705 1705 1680 1680 1680 1688 1688 1688 1696 1696 1705 1705 1705 1705 1705 1705 1705 1705 1705 1705 1705 1705 1705 1713 1713 1705 1696 1696 1696 1705 1705 1705 1705 1705 1713 1705 1705 1696 1688 1688 1696 1696 1696 1705 1705 1705 1705 1696 1696 1705 1705 1705 1705 1705 1705 1421 1421 1415 1415 1415 1415 1410 1404 1404 1404 1404 1404 1404 1404 1410 1410 1415 1415 1421 1421 1427 1433 1705 1722 1722 1722 1722 1722 1722 1731 1731 1731 1731 1731 1731 1731 1731 1731 1731 1731 1731 1731 1731 1731 1731 1731 1731 1731 1259 1259 1264 1264 1264 1264 1264 1264 1264 1259 1259 1255 1250 1250 1250 1250 1250 1250 1250 1250 1250 1245 1245 1241 1236 1236 1232 1232 1232 1227 1227 1227 1227 1227 1223 1214 1214 1214 1214 1210 1210 1210 1210 1210 1206 1206 1202 1202 1202 1197 1197 1197 1193 1193 1193 1193 1189 1189 1189 1189 1189 1185 1181 1181 1181 1181 1177 1177 1173 1173 1173 1173 1173 1169 1169 1165 1165 1161 1161 1161 1161 1157 1157 1157 1157 1157 1153 1153 1153 1149 1149 1149 1149 1149 1145 1145 1145 1141 1138 1134 1134 1134 1134 1134 1134 1130 1130 1130 1130 1126 1126 1126 1123 1123 1123 1123 1123 1123 1119 1119 1115 1115 1112 1112 1108 1105 1101 1101 1097 1097 1097 1097 1097 1094 1094 1094 1094 1094 1094 1094 1097 1097 1097 1097 1097 1097 1097 1748 1748 1748 1739 1739 1739 1739 1739 1739 1731 1731 1731 1739 1739 1739 1748 1748 1748 1748 1748 1748 1757 1748 1748 1748 1748 1748 1748 1739 1739 1739 1739 1739 1739 1739 1739 1739 1739 1739 1739 1739 1739 1748 1739 1739 1739 1739 1739 1739 1739 1739 1739 1748 1757 1757 1748 1748 1748 1748 1748 1748 1748 1748 1748 1748 1757 1757 1748 1748 1739 1739 1748 1748 1748 1748 1757 1766 1757 1757 1766 1766 1757 1748 1748 1766 1766 1757 1757 1757 1766 1766 1757 1757 1757 1757 1748 1748 1748 1748 1748 1748 1748 1748 1757 1757 1748 1748 1748 1748 1748 1748 1748 1748 1757 1757 1757 1748 1748 1739 1739 1739 1739 1739 1739 1739 1739 1739 1739 1739 1739 1731 1731 1731 1731 1731 1731 1731 1731 1731 1731 1731 0 0 0 0 0 1705 1696 1696 1705 0 0 0 0 0 0 0 0 0 0 0 0 0 0 0 0 0 0 0 0 0 0
0 0 0 0 0 0 0 0 0 0 0 0 0 0 0 0 0 0 0 0 0 0 0 0 0 0 0 0 0 0 0 0 0 2618 2618 2639 2639 2639 2639 2659 2680 2680 2680 2701 2701 2701 2723 2723 2723 2723 2723 2723 2744 2767 2767 2767 2789 2789 2789 2789 2789 2789 2789 2789 2812 2812 2812 2812 2812 2789 2767 2767 0 0 0 0 0 0 0 0 0 2958 2958 2958 2958 2958 2958 2984 3010 0 0 0 0 0 0 0 0 0 0 0 3064 3064 3064 3064 3064 3064 3092 3092 3092 0 0 0 0 0 0 0 0 0 0 0 0 0 0 4349 4349 4463 4463 4522 4463 4463 4463 0 0 0 0 0 0 0 0 0 4295 4295 4349 4405 4463 4463 4463 4463 4522 4463 4463 4463 4405 4405 4241 4241 4295 4405 4405 4405 4405 4405 4405 4349 4349 4349 4349 4405 4405 4405 3503 3503 3539 3539 3539 3503 3503 4405 4405 4463 4463 4463 4463 4522 4522 4522 4522 0 0 0 0 0 1557 1557 1557 1557 1557 1557 1557 1557 1557 1557 1557 1557 1564 1564 1564 1564 1572 1572 1680 1680 1680 1688 1688 1696 1696 1696 1696 1680 1680 1680 1671 1671 1680 1680 1680 1688 1688 1696 1696 1696 1680 1680 1680 1680 1680 1680 1680 1680 1680 1671 1671 1688 1688 1688 1688 1688 1696 1696 1696 1696 1696 1688 1688 1688 1680 1680 1680 1680 1688 1696 1680 1680 1688 1688 1688 1688 1680 1680 1680 1680 1680 1421 1421 1415 1415 1415 1415 1410 1410 1410 1404 1404 1404 1404 1404 1410 1410 1415 1415 1421 1427 1427 1433 1445 1445 1696 1696 1705 1705 1705 1705 1705 1705 1705 1705 1705 1705 1705 1705 1713 1713 1713 1696 1696 1705 1705 1722 1722 1722 1264 1264 1264 1264 1264 1264 1264 1264 1264 1259 1259 1255 1255 1255 1255 1255 1255 1250 1250 1250 1250 1250 1245 1245 1241 1236 1232 1232 1232 1227 1227 1227 1227 1227 1227 1219 1214 1214 1214 1214 1214 1210 1210 1210 1206 1206 1206 1202 1202 1197 1197 1197 1193 1193 1193 1193 1189 1189 1189 1189 1189 1189 1181 1181 1181 1181 1181 1177 1177 1173 1173 1173 1173 1169 1169 1165 1165 1161 1161 1161 1161 1161 1157 1157 1157 1157 1153 1153 1153 1149 1149 1149 1149 1149 1149 1145 1145 1145 1141 1138 1138 1138 1134 1134 1134 1134 1134 1130 1130 1126 1126 1126 1123 1123 1123 1123 1123 1123 1123 1119 1115 1115 1115 1112 1108 1105 1105 1101 1101 1097 1097 1097 1097 1097 1094 1094 1094 1094 1094 1097 1097 1097 1101 1097 1097 1087 1087 1748 1748 1748 1731 1731 1731 1731 1731 1731 1722 1722 1722 1731 1731 1731 1739 1739 1731 1731 1739 1739 1739 1739 1731 1731 1739 1739 1731 1731 1731 1722 1722 1722 1722 1722 1722 1731 1731 1731 1731 1731 1739 1739 1739 1739 1731 1731 1731 1731 1731 1731 1731 1739 1739 1739 1731 1731 1731 1731 1731 1731 1731 1739 1739 1739 1739 1731 1722 1722 1722 1722 1722 1731 1731 1739 1739 1748 1748 1739 1739 1739 1748 1731 1731 1739 1739 1739 1739 1739 1739 1748 1739 1739 1748 1748 1739 1739 1739 1739 1739 1739 1748 1748 1748 1748 1748 1748 1748 1748 1748 1739 1739 1739 1748 1748 1748 1748 1748 1739 1731 1731 1731 1731 1731 1722 1722 1722 1722 1722 1731 1731 1731 1731 1731 1731 1731 1731 1722 1722 1731 1713 1713 1722 1705 1705 1705 1696 1696 1696 1696 1696 0 0 0 0 0 0 0 0 0 0 0 0 0 0 0 0 0 0 0 0 0
0 0 0 0 0 0 0 0 0 0 0 0 0 0 0 0 0 0 0 0 0 0 0 0 0 0 0 0 0 0 0 0 0 2618 2618 2639 2639 2639 2639 2659 2680 2701 2701 2723 2723 2723 2723 2723 2744 2723 2723 2723 2744 2767 2767 2789 2789 2789 2789 2789 2789 0 0 0 0 0 0 0 0 0 0 0 0 0 0 0 0 0 0 0 0 2984 2958 2958 2958 2958 2958 2984 3010 0 0 0 0 0 0 0 0 0 0 0 3064 3064 3064 3064 3064 3064 3064 3064 3064 0 0 0 0 0 0 0 0 0 0 0 0 0 0 4349 4349 4463 4522 4522 4522 4522 0 0 0 0 0 0 0 0 0 0 4295 4295 4349 4349 4463 4463 4463 4463 4463 4463 4463 4463 4405 4405 4241 4241 4295 4405 4405 4349 4349 4349 4349 4349 4349 4349 4349 4349 4349 4349 3503 3503 3576 3576 3576 3576 4405 4349 4349 4405 4405 4405 4405 4463 4463 4405 4405 0 0 0 0 0 1557 1557 1557 1557 1557 1557 1557 1557 1557 1557 1557 1557 1564 1564 1564 1564 1564 1564 1680 1680 1680 1680 1680 1680 1680 1680 1680 1680 1671 1671 1671 1671 1671 1671 1680 1680 1688 1688 1688 1696 1680 1680 1680 1680 1671 1671 1671 1663 1663 1663 1663 1663 1655 1655 1655 1663 1663 1663 1663 1663 1663 1663 1663 1663 1655 1655 1655 1655 1655 1655 1663 1663 1663 1671 1671 1671 1671 1671 1671 1671 1671 1421 1415 1415 1415 1415 1415 1415 1410 1410 1410 1404 1404 1404 1410 1410 1415 1415 1421 1421 1427 1427 1433 1439 1445 1680 1688 1680 1680 1688 1696 1696 1688 1688 1688 1688 1688 1688 1688 1688 1688 1696 1696 1696 1705 1696 1696 1722 1722 1250 1250 1264 1264 1264 1264 1264 1264 1264 1259 1259 1259 1259 1259 1255 1255 1255 1255 1250 1250 1250 1250 1245 1245 1241 1236 1236 1232 1232 1232 1232 1232 1227 1227 1227 1223 1219 1214 1214 1214 1214 1214 1214 1210 1210 1206 1206 1206 1202 1197 1197 1197 1193 1193 1193 1193 1193 1193 1189 1189 1189 1189 1185 1185 1185 1181 1181 1177 1177 1173 1173 1173 1173 1169 1169 1165 1165 1165 1165 1161 1161 1161 1157 1157 1157 1157 1157 1153 1153 1153 1149 1149 1149 1149 1149 1145 1145 1145 1141 1138 1138 1138 1138 1138 1134 1134 1134 1130 1130 1130 1126 1126 1126 1123 1123 1123 1123 1123 1123 1119 1115 1115 1115 1112 1112 1108 1105 1101 1101 1097 1097 1097 1097 1097 1097 1097 1097 1097 1097 1097 1097 1097 1101 1097 1097 1087 1087 1748 1748 1739 1722 1722 1722 1722 1722 1722 1722 1722 1722 1722 1722 1722 1722 1722 1722 1722 1722 1713 1713 1713 1713 1713 1713 1705 1705 1713 1713 1713 1713 1705 1705 1705 1705 1713 1713 1713 1713 1722 1722 1731 1731 1731 1731 1731 1731 1722 1722 1722 1722 1722 1713 1713 1713 1713 1713 1713 1713 1722 1722 1722 1713 1705 1705 1705 1696 1696 1705 1705 1713 1722 1722 1722 1722 1722 1722 1722 1713 1713 1722 1713 1713 1713 1722 1731 1731 1722 1722 1731 1731 1731 1731 1731 1731 1731 1731 1731 1731 1731 1731 1731 1739 1739 1731 1731 1739 1739 1739 1731 1731 1731 1731 1731 1731 1731 1731 1731 1731 1722 1722 1722 1713 1713 1713 1713 1713 1722 1722 1722 1722 1722 1722 1722 1722 1722 1713 1713 1713 1705 1705 1713 1696 1696 1696 1696 1696 1696 1696 1696 1696 0 0 0 0 0 0 0 0 0 0 0 0 0 0 0 0 0 0 0 0
0 0 0 0 0 0 0 0 0 0 0 0 0 0 0 0 0 0 0 0 0 0 0 0 0 0 0 0 0 0 0 0 0 2639 2639 2639 2639 2639 2639 2680 2680 2701 2701 2723 2723 2744 2744 2744 2744 2723 2723 2723 2744 0 2789 2789 2789 2789 2789 0 2789 0 0 0 0 0 0 0 0 0 0 0 0 0 0 0 0 0 0 0 0 2984 2984 2958 2958 2958 2984 2984 2984 4295 4295 0 4190 4139 4139 4190 4190 0 0 0 3064 3064 3064 3064 3064 3064 3064 3064 3064 0 0 0 0 0 0 0 0 0 0 0 0 0 4295 4295 4295 4295 4295 4349 4349 4349 0 0 0 0 0 0 0 0 0 0 4295 4295 4349 4349 4405 4405 4463 4463 4463 4405 4405 4405 4349 4295 4241 4241 4295 4349 4349 4349 4349 4349 4349 4295 4295 4295 4295 4295 4295 4295 3503 3503 3539 3576 3576 3576 4405 4349 4349 4349 4349 4405 4405 4405 4405 4405 4405 0 0 0 0 0 1557 1557 1557 1557 1557 1557 1557 1557 1557 1557 1557 1557 1564 1564 1564 1564 1564 1564 1680 1680 1680 1680 1680 1680 1680 1680 1680 1663 1663 1671 1671 1663 1663 1671 1671 1671 1680 1680 1688 1696 1680 1680 1671 1671 1663 1663 1663 1655 1655 1655 1655 1655 1655 1647 1647 1663 1663 1663 1647 1647 1647 1647 1647 1647 1647 1647 1639 1639 1647 1647 1655 1655 1655 1655 1655 1655 1647 1647 1639 1639 1639 1639 1415 1415 1415 1415 1415 1415 1415 1410 1410 1404 1404 1404 1410 1410 1415 1415 1415 1421 1427 1427 1433 1439 1445 1671 1671 1671 1671 1671 1671 1671 1671 1680 1671 1671 1671 1671 1671 1671 1680 1688 1688 1688 1688 1696 1696 1696 1250 1250 1250 1268 1268 1268 1268 1268 1268 1264 1264 1264 1259 1259 1259 1259 1259 1255 1255 1250 1250 1250 1250 1250 1245 1245 1241 1236 1236 1232 1232 1232 1232 1227 1227 1227 1223 1219 1214 1214 1214 1214 1214 1214 1210 1210 1210 1206 1206 1206 1202 1197 1197 1197 1197 1193 1193 1193 1193 1193 1193 1193 1193 1185 1185 1185 1185 1181 1181 1181 1173 1173 1173 1173 1173 1169 1169 1165 1165 1165 1165 1161 1161 1161 1157 1157 1157 1157 1157 1153 1153 1153 1153 1149 1149 1149 1145 1145 1145 1141 1138 1138 1141 1138 1138 1138 1134 1134 1134 1130 1130 1130 1126 1126 1126 1126 1126 1123 1123 1123 1123 1119 1115 1115 1112 1112 1108 1108 1105 1101 1101 1101 1097 1097 1097 1097 1097 1097 1097 1097 1097 1101 1101 1101 1101 1101 1087 1087 1087 1705 1705 1705 1705 1713 1713 1713 1713 1713 1713 1713 1713 1713 1713 1713 1713 1713 1713 1705 1696 1696 1696 1696 1696 1696 1696 1696 1696 1696 1696 1696 1705 1688 1688 1688 1688 1705 1705 1705 1713 1713 1722 1722 1722 1722 1722 1713 1705 1705 1696 1696 1696 1688 1688 1688 1696 1705 1705 1705 1705 1713 1696 1688 1688 1688 1688 1688 1688 1688 1688 1705 1713 1713 1713 1713 1713 1713 1713 1705 1705 1705 1705 1705 1696 1696 1713 1713 1705 1705 1713 1713 1713 1722 1722 1713 1713 1722 1731 1713 1713 1722 1722 1722 1722 1722 1722 1731 1731 1722 1722 1722 1713 1713 1713 1713 1713 1713 1722 1722 1722 1713 1705 1705 1705 1705 1705 1705 1713 1713 1713 1722 1722 1722 1713 1705 1705 1705 1705 1705 1688 1680 1680 1680 1680 1680 1688 1688 1688 1696 1696 1696 0 0 0 0 0 0 0 0 0 0 0 0 0 0 0 0 0 0 0 0
0 0 0 0 0 0 0 0 0 0 0 0 0 0 0 0 0 0 0 0 0 0 0 0 0 0 0 0 0 0 0 0 0 2639 2639 2639 2639 2639 2639 2659 2680 2701 2701 2701 2723 2744 2767 2744 2744 2744 2723 2723 0 2723 0 0 0 0 0 0 0 0 0 0 0 0 0 0 0 0 0 0 0 0 0 0 0 0 0 0 0 2984 2958 2958 2958 2958 2984 2984 2984 4295 4241 4241 4139 4139 4139 4190 4139 4139 4139 4139 4241 3064 3064 3064 3064 3064 3064 3092 3092 4349 4295 4295 4295 4241 4241 0 0 0 0 0 0 0 4295 4295 4295 4295 4295 4349 4349 4349 0 0 0 0 0 0 0 0 0 0 4295 4295 4349 4349 4349 4405 4405 4405 4405 4349 4349 4349 4295 4241 4089 4089 4295 4295 4295 4295 4295 4295 4295 4295 4295 4295 4295 4295 4295 4295 4349 3539 3539 3576 3576 4349 4349 4349 4349 4349 4349 4349 4349 4405 4405 4405 4405 0 0 0 0 0 1557 1557 1557 1557 1557 1557 1564 1564 1564 1557 1557 1557 1564 1564 1564 1564 1564 1564 1564 1557 1543 1543 1543 1536 1529 1523 1523 1523 1523 1523 1523 1516 1516 1516 1516 1516 1509 1509 1509 1509 1509 1509 1509 1509 1503 1503 1503 1655 1655 1655 1655 1655 1647 1647 1647 1663 1663 1647 1647 1647 1639 1639 1639 1639 1639 1639 1639 1639 1639 1639 1647 1647 1639 1639 1639 1639 1639 1632 1632 1632 1632 1632 1415 1415 1415 1415 1415 1415 1415 1410 1410 1410 1404 1404 1410 1410 1415 1415 1415 1421 1427 1427 1427 1433 1427 1427 1655 1655 1663 1655 1655 1647 1647 1647 1647 1647 1655 1655 1655 1663 1663 1671 1655 1647 1647 1655 1655 1655 1255 1255 1255 1268 1268 1268 1268 1268 1268 1268 1268 1264 1264 1259 1259 1264 1259 1259 1259 1255 1255 1250 1250 1250 1245 1245 1241 1241 1236 1236 1232 1232 1232 1232 1227 1227 1227 1223 1219 1219 1219 1214 1214 1214 1214 1210 1210 1210 1206 1206 1202 1202 1197 1197 1197 1197 1197 1193 1193 1193 1193 1193 1193 1185 1185 1185 1185 1185 1181 1181 1177 1177 1173 1173 1173 1173 1169 1169 1165 1165 1165 1165 1161 1161 1161 1161 1161 1157 1157 1157 1153 1153 1153 1153 1149 1149 1149 1145 1145 1141 1141 1141 1141 1138 1138 1138 1138 1138 1134 1134 1130 1130 1126 1126 1126 1126 1126 1123 1123 1123 1123 1119 1115 1115 1112 1112 1108 1108 1105 1101 1101 1101 1097 1097 1097 1097 1097 1097 1097 1097 1101 1101 1101 1101 1101 1101 1101 1101 1101 1705 1705 1688 1688 1688 1696 1696 1705 1705 1705 1705 1705 1705 1705 1696 1696 1696 1696 1696 1696 1696 1696 1688 1688 1688 1688 1688 1688 1696 1696 1696 1696 1688 1688 1688 1688 1696 1688 1688 1696 1705 1713 1713 1713 1705 1705 1713 1705 1688 1688 1680 1680 1680 1680 1680 1688 1688 1688 1688 1688 1688 1688 1680 1680 1680 1680 1680 1680 1680 1680 1696 1705 1705 1705 1705 1705 1713 1705 1696 1688 1688 1688 1696 1688 1688 1696 1705 1696 1696 1696 1696 1705 1713 1713 1713 1713 1713 1713 1713 1713 1705 1705 1713 1713 1705 1705 1713 1713 1713 1705 1705 1713 1713 1713 1705 1705 1705 1705 1705 1688 1688 1688 1688 1688 1696 1696 1696 1705 1705 1705 1705 1696 1696 1696 1688 1688 1688 1688 1688 1680 1680 1680 1680 1680 1680 1680 1688 1688 1688 1688 1688 0 0 0 0 0 0 0 0 0 0 0 0 0 0 0 0 0 0 0 0
0 0 0 0 0 0 0 0 0 0 0 0 0 0 0 0 0 0 0 0 0 0 0 0 0 0 0 0 0 0 0 0 0 2639 2639 2639 2659 2639 2639 2659 2659 2680 2701 2701 2723 2767 2767 2744 2744 2744 2767 0 0 0 0 0 0 0 0 4241 4241 0 0 0 0 0 0 0 0 0 0 0 0 0 0 0 0 0 0 0 0 0 2958 2958 2958 2958 2984 2984 2984 4241 4241 4190 4139 4139 4139 4139 4139 4139 4139 4241 4241 4241 3064 3064 3064 3064 3064 3092 3092 4295 4295 4241 4241 4241 4241 4295 0 0 0 0 0 4241 4241 4295 4295 4295 4295 4295 4295 4295 0 0 0 0 0 0 0 0 0 4295 4295 4295 4295 4349 4349 4349 4349 4349 4349 4295 4295 4295 4241 4190 4089 4089 4089 4241 4241 4295 4295 4295 4295 4295 4295 4295 4295 4295 4295 4295 4295 3576 3576 3576 3576 4349 4349 4295 4295 4295 4295 4349 4295 4295 4295 4295 4349 0 0 0 0 0 1557 1557 1557 1557 1564 1564 1564 1564 1564 1564 1557 1557 1564 1564 1564 1564 1557 1557 1557 1557 1543 1543 1543 1536 1529 1523 1523 1523 1523 1523 1523 1516 1516 1516 1516 1516 1509 1509 1509 1509 1509 1503 1503 1509 1503 1503 1496 1496 1496 1496 1496 1647 1647 1477 1477 1477 1663 1647 1639 1639 1639 1639 1639 1639 1639 1639 1639 1639 1639 1639 1639 1639 1632 1632 1632 1632 1624 1624 1624 1616 1616 1616 1415 1415 1415 1415 1415 1415 1415 1410 1410 1410 1404 1404 1410 1415 1415 1415 1421 1421 1427 1427 1427 1427 1427 1427 1632 1632 1639 1639 1632 1632 1632 1632 1639 1639 1647 1647 1647 1655 1655 1655 1655 1639 1639 1639 1639 1639 1255 1255 1255 1268 1268 1268 1268 1268 1268 1268 1268 1268 1264 1264 1264 1264 1264 1259 1259 1259 1255 1255 1250 1250 1245 1245 1236 1236 1232 1232 1232 1232 1232 1232 1227 1227 1227 1223 1219 1219 1219 1214 1214 1214 1214 1214 1210 1210 1206 1206 1202 1202 1197 1197 1197 1197 1197 1197 1197 1193 1193 1193 1193 1193 1185 1185 1185 1185 1181 1181 1177 1177 1173 1173 1173 1173 1173 1169 1169 1165 1165 1165 1165 1165 1161 1161 1161 1161 1157 1157 1157 1153 1153 1153 1153 1149 1149 1149 1149 1141 1141 1141 1141 1141 1141 1138 1138 1138 1134 1134 1130 1130 1126 1126 1126 1126 1126 1126 1126 1123 1123 1119 1115 1115 1112 1112 1112 1112 1108 1105 1101 1101 1101 1101 1101 1097 1097 1097 1097 1097 1101 1101 1101 1105 1101 1101 1101 1101 0 1647 1671 1671 1671 1680 1680 1688 1696 1696 1696 1696 1696 1696 1688 1688 1688 1688 1688 1688 1680 1680 1688 1688 1688 1688 1680 1680 1680 1688 1688 1688 1688 1680 1680 1680 1680 1688 1688 1688 1688 1696 1696 1705 1696 1696 1696 1696 1688 1680 1680 1671 1671 1671 1671 1671 1680 1680 1680 1680 1680 1680 1680 1671 1671 1671 1671 1671 1671 1671 1671 1680 1688 1696 1696 1696 1696 1696 1688 1688 1680 1680 1680 1680 1680 1680 1680 1680 1680 1680 1688 1688 1696 1696 1705 1705 1705 1705 1705 1705 1696 1696 1696 1696 1688 1688 1688 1696 1705 1705 1705 1705 1705 1713 1713 1705 1696 1696 1688 1680 1671 1671 1680 1680 1680 1680 1680 1680 1688 1688 1671 1671 1680 1680 1680 1671 1671 1680 1680 1680 1680 1671 1671 1671 1671 1671 1680 1680 1680 1680 1688 1688 1688 0 0 0 0 0 0 0 0 0 0 0 0 0 0 0 0 0 0 0
0 0 0 0 0 0 0 0 0 0 0 0 0 0 0 0 0 0 0 0 0 0 0 0 0 0 0 0 0 0 0 0 0 2639 2618 2618 2618 2618 2618 2639 2639 2680 2701 2701 2744 2767 2767 2744 2723 2723 2767 0 0 0 0 0 0 4190 4190 4241 4241 4241 0 0 0 0 0 0 0 0 0 0 0 0 0 0 0 0 0 0 0 0 2958 2958 2958 2958 2984 2984 2984 3010 4190 4089 4089 4139 4139 4139 4139 4139 4139 4139 4241 3064 3064 3064 3064 3064 3064 3092 3092 4295 4295 4241 4241 4241 4241 4295 4295 4349 0 0 4241 4241 4241 4241 4295 4241 4241 4295 4295 4295 4295 0 0 0 0 0 0 0 0 4190 4190 4295 4295 4295 4295 4295 4295 4295 4295 4295 4295 4241 4190 4190 4089 4089 4089 4241 4241 4241 4241 4241 4241 4295 4295 4295 4295 4295 4295 4295 4295 4295 4295 4295 4295 4295 4295 4295 4295 4295 4295 4295 4295 4295 4295 4295 4295 0 0 0 0 0 0 1557 1557 1564 1564 1564 1564 1564 1564 1564 1557 1557 1564 1564 1564 1564 1557 1557 1557 1557 1550 1543 1543 1536 1529 1523 1523 1529 1529 1529 1523 1523 1516 1516 1516 1516 1516 1509 1509 1516 1509 1503 1503 1503 1503 1503 1496 1496 1496 1496 1496 1489 1489 1477 1477 1477 1483 1483 1639 1639 1639 1639 1639 1639 1639 1639 1632 1632 1632 1624 1624 1624 1616 1616 1616 1616 1616 1616 1609 1609 1609 1609 1421 1421 1421 1415 1415 1415 1415 1410 1410 1410 1404 1404 1410 1415 1415 1415 1421 1421 1427 1427 1427 1427 1427 1427 1616 1616 1616 1616 1609 1609 1609 1624 1632 1632 1639 1639 1647 1647 1655 1655 1639 1616 1616 1632 1632 1632 1255 1255 1255 1268 1268 1268 1273 1268 1268 1268 1268 1268 1264 1264 1264 1264 1264 1264 1264 1264 1259 1255 1255 1250 1245 1245 1236 1236 1232 1232 1232 1232 1232 1232 1227 1227 1227 1223 1223 1223 1219 1214 1214 1214 1214 1214 1214 1210 1210 1210 1206 1202 1202 1197 1197 1197 1197 1197 1197 1197 1197 1193 1193 1193 1185 1185 1185 1185 1181 1181 1177 1177 1173 1173 1173 1173 1173 1169 1169 1169 1165 1165 1165 1165 1161 1161 1161 1161 1161 1157 1157 1157 1153 1153 1149 1149 1149 1149 1149 1145 1141 1141 1141 1141 1141 1138 1138 1138 1134 1134 1130 1130 1130 1126 1126 1126 1126 1126 1126 1126 1123 1123 1119 1115 1115 1115 1112 1112 1108 1108 1105 1101 1101 1101 1101 1097 1097 1097 1097 1101 1101 1101 1105 1105 1105 1105 1105 1112 0 1647 1647 1647 1655 1663 1663 1671 1680 1680 1680 1680 1680 1680 1680 1680 1671 1671 1671 1671 1680 1680 1680 1680 1680 1680 1680 1671 1671 1671 1671 1680 1680 1671 1671 1671 1671 1680 1680 1680 1680 1680 1680 1680 1647 1647 1680 1680 1671 1671 1671 1671 1671 1671 1663 1663 1671 1671 1680 1671 1671 1671 1671 1671 1663 1663 1663 1663 1663 1663 1663 1671 1671 1671 1680 1680 1680 1688 1680 1680 1671 1671 1671 1671 1671 1671 1663 1663 1671 1671 1671 1671 1688 1688 1688 1696 1696 1688 1688 1688 1680 1680 1680 1680 1680 1680 1680 1680 1688 1688 1688 1688 1696 1696 1696 1688 1688 1680 1680 1671 1671 1663 1663 1663 1663 1663 1655 1655 1663 1671 1663 1663 1663 1663 1663 1663 1663 1671 1671 1671 1671 1671 1671 1671 1671 1671 1671 1671 1671 1671 1671 1671 1671 1671 0 0 0 0 0 0 0 0 0 0 0 0 0 0 0 0 0 0
0 0 0 0 0 0 0 0 0 0 0 0 0 0 0 0 0 0 0 0 0 0 0 0 0 0 0 0 0 0 0 0 0 2639 2618 2618 2618 2618 2618 2639 2639 3994 4041 2767 2767 2789 2789 2767 2723 2723 2767 0 0 0 0 0 4190 4190 4190 4190 4190 4190 4190 4190 4190 0 0 0 0 0 0 0 0 0 0 0 0 0 0 0 0 0 2958 2958 2958 2958 2958 2984 2984 2984 4139 4089 4089 4089 4089 4139 4139 4139 4139 4139 4241 3064 3064 3064 3064 3064 3092 3092 3092 4295 4295 4241 4241 4241 4241 4295 4295 4295 4295 4295 4241 4241 4241 4190 4190 4190 4190 4190 4190 4190 4190 4190 0 0 0 0 0 0 0 4190 4190 4241 4241 4241 4241 4295 4295 4295 4241 4241 4241 4241 4190 4190 4089 4089 4089 4190 4190 4241 4241 4241 4241 4241 4241 4295 4241 4241 4295 4295 4295 4295 0 0 0 4241 4241 4241 4241 4241 4241 4241 4241 4241 4295 4295 4295 0 0 0 0 0 0 1557 1557 1564 1564 1564 1564 1564 1564 1564 1564 1564 1564 1564 1564 1557 1557 1557 1557 1550 1550 1550 1543 1536 1536 1529 1529 1529 1529 1529 1523 1523 1523 1523 1523 1516 1516 1516 1516 1516 1509 1503 1503 1503 1503 1503 1503 1496 1496 1496 1496 1489 1489 1477 1477 1477 1477 1477 1483 1483 1483 1632 1639 1639 1639 1639 1632 1632 1624 1624 1616 1609 1601 1601 1601 1601 1609 1601 1601 1601 1601 1601 1421 1421 1421 1421 1415 1415 1415 1410 1410 1410 1410 1410 1410 1415 1415 1421 1421 1427 1427 1427 1427 1427 1427 1609 1609 1609 1609 1609 1609 1609 1609 1616 1624 1624 1632 1632 1632 1639 1632 1609 1609 1616 1609 1609 1609 1609 1609 1609 1273 1273 1273 1273 1273 1273 1273 1273 1268 1268 1264 1264 1264 1264 1264 1268 1268 1268 1273 1273 1273 1283 1264 1264 1236 1236 1232 1232 1232 1232 1227 1227 1227 1227 1223 1219 1219 1223 1223 1219 1214 1214 1219 1214 1214 1210 1210 1210 1206 1202 1202 1197 1197 1197 1197 1197 1197 1197 1197 1197 1193 1193 1185 1185 1189 1189 1185 1181 1181 1177 1177 1177 1173 1173 1173 1173 1173 1169 1169 1165 1165 1165 1161 1161 1161 1161 1161 1157 1157 1157 1153 1153 1149 1149 1149 1149 1149 1145 1141 1141 1141 1141 1141 1138 1138 1138 1134 1134 1130 1130 1130 1130 1130 1130 1126 1126 1126 1126 1126 1123 1119 1115 1115 1115 1112 1112 1108 1108 1105 1105 1105 1101 1101 1101 1101 1101 1101 1101 1101 1105 1105 1108 1108 1108 1112 1112 1624 1639 1639 1639 1647 1647 1655 1655 1663 1671 1663 1663 1663 1663 1663 1663 1663 1663 1663 1663 1663 1663 1671 1671 1671 1671 1663 1663 1663 1663 1663 1663 1663 1663 1663 1671 1671 1671 1671 1671 1671 1655 1639 1639 1639 1647 1655 1655 1655 1655 1663 1663 1655 1655 1663 1647 1647 1663 1671 1663 1663 1663 1663 1663 1663 1655 1655 1655 1655 1655 1655 1655 1655 1655 1655 1671 1671 1680 1671 1671 1671 1671 1663 1663 1655 1655 1655 1655 1655 1655 1655 1663 1671 1671 1671 1671 1671 1671 1663 1663 1663 1663 1663 1663 1663 1663 1671 1671 1671 1680 1680 1680 1680 1680 1680 1680 1671 1671 1671 1663 1663 1655 1655 1655 1647 1647 1647 1647 1647 1647 1647 1655 1663 1655 1655 1663 1663 1663 1671 1671 1671 1663 1663 1663 1663 1663 1663 1663 1663 1663 1671 1663 1663 1663 0 0 0 0 0 0 0 0 0 0 0 0 0 0 0 0 0 0
0 0 0 0 0 0 0 0 0 0 0 0 0 0 0 0 0 0 0 0 0 0 0 0 0 0 0 0 0 0 0 0 0 0 4089 4089 4041 3994 3994 4041 3994 3994 4041 4139 4139 2789 2789 2789 3994 0 0 0 0 0 0 4190 4139 4089 4089 4089 4089 4089 4089 4089 4089 4139 4139 0 0 0 0 0 0 0 0 0 0 0 0 0 0 0 4041 2984 2984 2958 2958 2958 2958 2984 4041 4089 4139 4089 4089 4089 4089 4139 4139 4139 4089 3064 3064 3064 3064 3064 3092 3092 3092 4295 4241 4241 4241 4190 4190 4190 4190 4190 4190 4241 4241 4190 4190 4139 4139 4139 4139 4139 4139 4190 4139 4139 4139 4139 0 0 0 0 0 4139 4139 4190 4190 4190 4190 4241 4241 4241 4190 4190 4241 4190 4190 4139 4089 4089 4089 4190 4190 4241 4241 4241 4241 4241 4241 4241 4241 4241 4241 4241 4241 4241 4295 0 0 4241 4241 4190 4190 4190 4241 4241 4241 4241 4241 4241 4241 4295 0 0 0 0 0 1564 1564 1564 1564 1564 1564 1564 1564 1564 1564 1564 1564 1564 1564 1557 1557 1557 1557 1550 1550 1550 1543 1536 1536 1536 1529 1529 1529 1529 1529 1523 1523 1523 1523 1523 1516 1516 1516 1516 1509 1503 1503 1503 1503 1503 1496 1496 1496 1496 1496 1489 1489 1477 1477 1477 1477 1477 1483 1483 1483 1483 1489 1639 1639 1632 1632 1624 1616 1601 1601 1601 1601 1601 1601 1601 1601 1601 1594 1594 1594 1594 1421 1421 1421 1421 1415 1415 1415 1410 1410 1410 1410 1410 1415 1415 1415 1421 1421 1427 1427 1427 1427 1433 1609 1601 1601 1609 1601 1601 1609 1609 1609 1609 1609 1616 1616 1616 1616 1616 1609 1609 1609 1609 1609 1609 1601 1601 1601 1601 1273 1273 1273 1273 1273 1273 1273 1273 1268 1268 1264 1264 1264 1264 1264 1268 1268 1268 1273 1278 1278 1283 1601 1594 1594 1601 1232 1232 1232 1232 1227 1227 1223 1223 1223 1219 1219 1223 1223 1223 1219 1219 1219 1219 1214 1214 1210 1210 1206 1206 1206 1202 1202 1202 1202 1202 1197 1197 1197 1197 1197 1193 1193 1193 1189 1189 1189 1185 1181 1181 1177 1177 1177 1177 1177 1173 1173 1173 1169 1169 1165 1165 1165 1165 1161 1161 1161 1161 1157 1157 1157 1153 1153 1153 1149 1149 1149 1145 1145 1141 1141 1141 1141 1141 1138 1138 1138 1134 1130 1130 1130 1130 1130 1130 1126 1126 1126 1126 1126 1123 1123 1119 1115 1115 1112 1112 1112 1108 1108 1105 1105 1101 1101 1101 1101 1101 1101 1101 1101 1105 1108 1108 1108 1112 1112 1112 1624 1624 1624 1632 1632 1639 1639 1639 1639 1632 1632 1632 1647 1647 1655 1655 1655 1655 1655 1655 1655 1655 1655 1655 1655 1655 1647 1639 1639 1655 1655 1655 1655 1663 1663 1663 1663 1663 1663 1663 1616 1616 1624 1624 1624 1632 1639 1639 1647 1647 1647 1647 1647 1647 1647 1639 1639 1639 1655 1647 1647 1655 1655 1655 1655 1647 1647 1647 1647 1647 1647 1647 1647 1647 1647 1655 1655 1663 1663 1663 1663 1663 1655 1655 1647 1647 1639 1639 1639 1639 1639 1647 1663 1655 1655 1655 1655 1655 1655 1655 1655 1655 1655 1655 1655 1655 1655 1655 1655 1663 1663 1663 1655 1655 1655 1663 1663 1663 1663 1655 1655 1655 1647 1647 1647 1647 1639 1639 1639 1647 1647 1647 1655 1655 1655 1655 1655 1663 1663 1663 1663 1655 1655 1655 1655 1655 1655 1655 1655 1655 1655 1655 1655 1655 0 0 0 0 0 0 0 0 0 0 0 0 0 0 0 0 0 0
0 0 0 0 0 0 0 0 0 0 0 0 0 0 0 0 0 0 0 0 0 0 0 0 0 0 0 0 0 0 0 0 0 4190 4190 3994 3994 3994 3994 3948 3948 3948 4041 4089 4089 4089 4089 4041 3994 3994 0 0 0 0 0 4139 4089 4041 4041 4041 4041 4041 4041 4041 4041 4089 4139 0 0 0 0 0 0 0 0 0 0 0 3994 3994 4041 4041 4041 4041 2984 2958 2958 2958 2958 2958 4041 4089 4139 4089 4089 4089 4089 4139 4139 4089 4089 4089 3064 3064 3064 3064 3064 3064 4295 4295 4241 4089 4089 4139 4089 4089 4190 4190 4190 4190 4190 4190 4190 4139 4139 4139 4139 4139 4139 4139 4139 4139 4139 4139 4190 0 0 0 4139 4139 4139 4190 4190 4190 4190 4190 4190 4190 4190 4190 4190 4190 4139 4139 4139 4139 4139 4190 4190 4241 4241 4241 4241 4241 4241 4241 4241 4241 4241 4241 4241 4295 4295 4241 4241 4190 4190 4190 4190 4190 4241 4241 4241 4241 4190 4190 4241 4241 0 0 0 0 0 1572 1564 1564 1564 1564 1564 1564 1564 1564 1564 1564 1564 1564 1564 1564 1557 1557 1557 1550 1550 1550 1543 1543 1536 1536 1536 1529 1529 1529 1529 1529 1523 1523 1523 1523 1516 1516 1516 1516 1516 1503 1503 1503 1503 1503 1496 1496 1496 1496 1496 1489 1489 1483 1483 1483 1483 1483 1483 1483 1483 1483 1483 1483 1632 1632 1470 1470 1470 1470 1470 1470 1601 1601 1601 1601 1601 1601 1586 1586 1594 1594 1421 1421 1421 1421 1415 1415 1415 1415 1410 1410 1415 1415 1415 1415 1415 1421 1421 1427 1427 1427 1427 1433 1601 1601 1601 1601 1601 1601 1601 1601 1601 1601 1601 1601 1601 1601 1601 1601 1601 1601 1594 1594 1601 1601 1594 1579 1579 1579 1273 1273 1273 1273 1273 1273 1273 1273 1268 1268 1264 1264 1264 1264 1268 1268 1268 1273 1273 1278 1283 1283 1288 1268 1268 1594 1594 1594 1232 1232 1227 1227 1223 1223 1223 1219 1219 1219 1223 1223 1223 1223 1223 1219 1219 1214 1214 1210 1210 1206 1206 1206 1202 1202 1202 1202 1202 1197 1197 1197 1197 1193 1193 1193 1193 1193 1193 1189 1181 1181 1181 1181 1181 1177 1177 1177 1177 1173 1173 1169 1169 1165 1165 1165 1165 1165 1161 1161 1161 1161 1161 1157 1157 1157 1153 1153 1149 1145 1145 1145 1141 1141 1141 1141 1141 1141 1138 1138 1134 1134 1130 1130 1130 1130 1130 1130 1130 1126 1126 1123 1123 1119 1115 1115 1112 1112 1112 1112 1108 1105 1105 1101 1101 1101 1101 1101 1101 1101 1105 1108 1108 1108 1112 1112 1115 1115 1616 1616 1616 1616 1624 1624 1624 1624 1616 1616 1616 1616 1624 1624 1632 1632 1632 1632 1632 1639 1639 1632 1632 1632 1624 1624 1616 1616 1616 1624 1624 1624 1632 1632 1632 1632 1632 1616 1616 1616 1616 1616 1616 1616 1616 1616 1616 1624 1632 1632 1632 1632 1624 1624 1624 1624 1624 1624 1616 1616 1624 1632 1639 1647 1639 1639 1639 1639 1639 1639 1639 1639 1639 1639 1639 1647 1647 1647 1655 1655 1655 1647 1639 1639 1632 1632 1624 1624 1624 1624 1624 1639 1639 1647 1647 1647 1647 1647 1647 1647 1647 1647 1647 1655 1647 1647 1655 1655 1647 1647 1647 1647 1647 1647 1647 1647 1655 1655 1655 1647 1647 1647 1639 1639 1639 1639 1639 1639 1639 1639 1639 1647 1647 1647 1647 1647 1647 1647 1647 1639 1639 1639 1639 1639 1639 1639 1647 1639 1639 1639 1639 1639 1639 1647 0 0 0 0 0 0 0 0 0 0 0 0 0 0 0 0 0 0
0 0 0 0 0 0 0 0 0 0 0 0 0 0 0 0 0 0 0 0 0 0 0 0 0 0 0 0 0 0 0 0 4190 4139 4139 3994 3994 3948 3948 3948 3948 3948 3994 3994 4041 4041 4041 3994 3994 3994 3994 3994 0 0 0 4139 4089 4041 4041 4041 4041 4041 4041 4041 4041 4041 4139 0 0 0 0 0 0 0 0 0 0 0 3994 3994 4041 4041 4041 4041 3994 2958 2958 2958 2958 2958 3948 3994 4089 4089 4089 4089 4089 4089 4089 4089 4041 4041 3037 3037 3064 3064 3064 3064 3064 3948 4041 4041 4041 4089 4089 4089 4089 4089 4139 4139 4139 4139 4139 4139 4139 4139 4139 4139 4139 4139 4139 4139 4139 4139 4190 4190 0 4139 4139 4139 4139 4139 4139 4139 4190 4190 4190 4190 4190 4190 4190 4190 4139 4139 4139 4139 4139 4139 4241 4241 4190 4190 4190 4190 4190 4190 4190 4190 4241 4241 4190 4190 4190 4241 4241 4190 4190 4190 4190 4190 4190 4190 4190 4190 4139 4139 4139 4139 0 0 0 0 0 1572 1572 1572 1572 1572 1572 1572 1572 1564 1564 1564 1564 1564 1564 1564 1557 1557 1557 1550 1550 1550 1543 1543 1536 1536 1536 1529 1529 1529 1529 1529 1523 1523 1523 1523 1516 1516 1516 1516 1509 1503 1503 1503 1503 1503 1496 1496 1496 1496 1496 1496 1496 1483 1483 1483 1483 1483 1483 1483 1483 1477 1477 1477 1470 1470 1470 1470 1470 1470 1470 1464 1464 1601 1594 1594 1594 1594 1579 1579 1586 1586 1427 1427 1421 1421 1421 1415 1415 1415 1415 1415 1415 1415 1415 1415 1421 1421 1421 1427 1427 1427 1427 1433 1433 1594 1594 1594 1594 1594 1594 1594 1586 1586 1586 1586 1586 1586 1594 1594 1594 1594 1586 1586 1594 1594 1586 1572 1572 1572 1278 1278 1278 1283 1273 1273 1273 1273 1268 1268 1264 1264 1264 1264 1268 1268 1268 1273 1278 1283 1283 1288 1288 1268 1268 1594 1594 1594 1594 1594 1594 1586 1586 1586 1572 1214 1214 1219 1223 1223 1223 1223 1223 1223 1219 1219 1210 1210 1210 1210 1206 1206 1206 1206 1202 1202 1202 1197 1197 1197 1197 1197 1197 1193 1193 1193 1193 1189 1181 1181 1181 1181 1181 1177 1177 1177 1177 1177 1173 1169 1169 1169 1165 1165 1165 1165 1161 1161 1161 1161 1161 1157 1157 1157 1157 1153 1149 1145 1145 1145 1145 1145 1145 1141 1141 1141 1141 1138 1138 1134 1134 1134 1130 1130 1130 1130 1130 1130 1126 1126 1123 1119 1115 1115 1115 1112 1112 1112 1108 1108 1105 1105 1105 1101 1101 1101 1101 1105 1105 1108 1112 1112 1112 1115 1115 1119 1601 1601 1601 1601 1609 1609 1609 1609 1609 1609 1609 1609 1609 1616 1616 1616 1624 1624 1624 1624 1624 1624 1624 1616 1616 1616 1616 1616 1616 1616 1616 1624 1624 1616 1616 1616 1616 1609 1601 1601 1609 1609 1609 1609 1609 1609 1601 1601 1594 1594 1594 1594 1594 1594 1601 1609 1609 1609 1609 1601 1601 1609 1609 1609 1609 1616 1616 1616 1616 1616 1616 1616 1616 1616 1624 1616 1616 1616 1616 1624 1624 1624 1616 1616 1609 1609 1616 1616 1616 1609 1609 1616 1616 1624 1632 1632 1632 1632 1632 1639 1639 1639 1639 1639 1639 1639 1639 1639 1639 1639 1639 1639 1632 1632 1632 1639 1639 1639 1639 1639 1639 1639 1639 1632 1632 1632 1632 1632 1632 1632 1632 1632 1632 1632 1632 1632 1632 1632 1632 1624 1624 1624 1632 1624 1624 1632 1632 1632 1632 1632 1632 1639 1639 1647 0 0 0 0 0 0 0 0 0 0 0 0 0 0 0 0 0 0
0 0 0 0 0 0 0 0 0 0 0 0 0 0 0 0 0 0 0 0 0 0 0 0 0 0 0 0 0 0 0 0 4089 4041 3994 3948 3948 3948 3948 3948 3948 3948 3948 3994 3994 3994 3994 3994 3994 3994 3948 3948 3948 0 3948 4041 4041 4041 4041 3994 3994 3994 3994 3994 3994 3994 3994 0 0 0 0 0 0 0 0 3994 3948 3948 3994 3994 3994 3994 3994 3994 3948 3948 3948 2933 2933 2933 2933 3948 3994 4041 4041 4041 4041 4089 4089 4089 4041 4041 3037 3037 3064 3064 3064 3064 0 3948 3948 3948 3994 3994 3994 3994 3994 4041 4089 4041 4041 4041 4139 4139 4139 4139 4139 4139 4139 4139 4139 4139 4139 4139 4139 4139 4139 4089 4089 4089 4089 4139 4139 4139 4139 4139 4139 4139 4139 4139 4139 4190 4139 4139 4139 4139 4139 0 4190 4190 4190 4139 4139 4190 4190 4190 4190 4190 4190 4190 4190 4190 4190 4241 4241 4190 4190 4139 4139 4139 4139 4139 4139 4139 4139 4139 4139 4139 4139 0 0 0 0 1572 1572 1579 1572 1572 1572 1572 1572 1572 1564 1564 1564 1564 1564 1564 1557 1557 1557 1557 1550 1550 1543 1543 1536 1536 1536 1536 1536 1529 1529 1529 1529 1529 1523 1523 1516 1516 1516 1516 1509 1509 1509 1503 1503 1503 1496 1496 1496 1496 1496 1496 1496 1489 1489 1489 1483 1483 1483 1483 1483 1477 1477 1470 1470 1470 1470 1470 1470 1470 1470 1464 1464 1470 1464 1464 1594 1594 1579 1579 1445 1439 1433 1433 1427 1427 1427 1421 1415 1415 1415 1415 1415 1415 1415 1421 1421 1421 1427 1427 1433 1427 1427 1433 1433 1586 1586 1586 1586 1586 1586 1579 1579 1572 1572 1572 1572 1572 1572 1572 1579 1579 1579 1579 1586 1586 1579 1572 1557 1557 1557 1283 1283 1283 1273 1273 1273 1273 1273 1273 1268 1268 1268 1268 1268 1268 1268 1273 1278 1283 1283 1288 1288 1586 1586 1210 1210 1586 1586 1586 1586 1579 1572 1572 1572 1214 1214 1219 1227 1227 1557 1557 1557 1557 1219 1219 1210 1210 1210 1210 1206 1206 1206 1206 1202 1202 1202 1202 1197 1197 1197 1193 1193 1193 1189 1189 1189 1189 1185 1185 1181 1181 1181 1181 1181 1177 1177 1177 1173 1173 1173 1169 1169 1165 1165 1165 1165 1161 1161 1161 1161 1161 1161 1157 1157 1157 1153 1149 1145 1145 1145 1145 1145 1145 1141 1141 1141 1141 1138 1138 1134 1134 1134 1134 1130 1130 1130 1130 1126 1126 1123 1119 1119 1115 1115 1115 1112 1112 1108 1108 1108 1105 1105 1101 1101 1101 1101 1105 1105 1108 1112 1112 1115 1115 1115 1119 1594 1594 1594 1594 1594 1594 1601 1601 1601 1609 1609 1609 1609 1609 1616 1616 1616 1616 1616 1616 1616 1609 1609 1601 1601 1601 1601 1601 1609 1609 1616 1616 1616 1609 1609 1601 1601 1594 1594 1594 1601 1601 1601 1601 1601 1601 1594 1594 1586 1586 1594 1594 1586 1586 1594 1601 1601 1594 1594 1594 1594 1594 1594 1594 1601 1609 1609 1609 1609 1609 1609 1609 1609 1609 1601 1601 1594 1594 1594 1601 1609 1609 1609 1609 1609 1609 1609 1609 1609 1601 1601 1609 1609 1609 1609 1616 1616 1624 1616 1616 1624 1624 1616 1616 1616 1616 1624 1624 1624 1616 1616 1616 1616 1616 1616 1609 1609 1616 1616 1616 1616 1616 1616 1624 1624 1616 1616 1616 1616 1609 1609 1601 1601 1601 1601 1609 1609 1609 1609 1609 1609 1609 1609 1609 1609 1609 1609 1609 1616 1609 1609 1609 1609 1655 0 0 0 0 0 0 0 0 0 0 0 0 0 0 0 0 0 0
0 0 0 0 0 0 0 0 0 0 0 0 0 0 0 0 0 0 0 0 0 0 0 0 0 0 0 0 0 0 0 0 4041 3994 3948 3903 3903 3903 3903 3903 3948 3948 3948 3994 3994 3994 3994 3994 3948 3948 3903 3903 3903 0 3948 3948 3948 3994 3994 3994 3994 3994 3994 3994 3994 3948 3948 3903 3903 0 0 0 0 0 3948 3948 3948 3948 3948 3994 3948 3948 3948 3994 3948 3948 3948 2933 2933 2933 2933 2933 2958 3994 4041 4041 4041 4041 4041 4041 4089 4041 4041 3064 3064 3064 3064 3064 0 0 3948 3948 3994 3994 3994 3994 3994 4041 4089 4041 4041 4041 4089 4089 4089 4089 4089 4089 4089 4089 4089 4089 4089 4089 4089 4089 4089 4089 4089 4041 4041 4089 4139 4139 4139 4139 4139 4139 4139 4139 4139 4139 4139 4139 4139 4139 4139 4139 4089 4041 4041 4041 4139 4139 4139 4139 4139 4139 4139 4139 4139 4139 4190 4190 4190 4139 4139 4089 4089 4089 4089 4089 4089 4089 4139 4139 4139 4139 4139 4190 0 0 0 1572 1572 1572 1572 1579 1572 1572 1572 1572 1564 1564 1564 1564 1564 1564 1557 1557 1557 1557 1550 1550 1550 1543 1543 1543 1543 1536 1536 1529 1529 1529 1529 1529 1523 1523 1523 1523 1516 1516 1516 1509 1509 1509 1503 1503 1503 1496 1496 1496 1496 1496 1496 1489 1489 1489 1483 1483 1483 1483 1483 1477 1477 1470 1470 1470 1470 1470 1470 1470 1470 1470 1470 1470 1464 1464 1464 1458 1452 1452 1445 1439 1433 1433 1427 1427 1427 1421 1421 1421 1421 1415 1415 1415 1415 1421 1421 1421 1427 1433 1433 1433 1433 1433 1433 1550 1550 1557 1579 1579 1572 1572 1572 1572 1564 1564 1557 1557 1557 1564 1572 1572 1572 1572 1579 1572 1564 1557 1550 1550 1550 1288 1288 1288 1283 1283 1273 1273 1273 1273 1268 1268 1268 1268 1268 1273 1273 1278 1278 1283 1288 1288 1288 1572 1572 1210 1210 1586 1586 1586 1586 1572 1572 1564 1564 1564 1564 1564 1564 1557 1557 1557 1550 1550 1564 1564 1210 1210 1210 1206 1206 1206 1206 1206 1197 1197 1202 1202 1197 1197 1197 1193 1193 1189 1189 1189 1189 1189 1185 1185 1185 1181 1181 1181 1181 1181 1181 1177 1173 1173 1173 1169 1169 1169 1165 1165 1165 1165 1161 1161 1161 1161 1161 1161 1157 1157 1153 1149 1149 1149 1145 1145 1145 1145 1145 1141 1141 1141 1138 1138 1138 1134 1134 1134 1134 1130 1130 1130 1130 1126 1126 1123 1119 1115 1115 1115 1112 1112 1108 1108 1108 1105 1105 1105 1105 1101 1101 1105 1108 1108 1112 1115 1115 1115 1115 1119 1586 1586 1586 1586 1594 1594 1594 1594 1594 1594 1594 1594 1594 1594 1601 1601 1601 1601 1601 1601 1601 1594 1594 1594 1594 1594 1594 1594 1601 1601 1609 1601 1601 1594 1586 1586 1579 1579 1586 1586 1586 1594 1586 1586 1594 1586 1586 1586 1586 1586 1586 1586 1586 1586 1586 1594 1594 1586 1586 1586 1586 1586 1586 1586 1586 1594 1601 1601 1601 1594 1594 1594 1594 1586 1586 1586 1594 1594 1586 1586 1594 1594 1594 1594 1594 1594 1601 1601 1601 1594 1594 1594 1594 1594 1594 1594 1601 1601 1601 1609 1609 1609 1609 1609 1609 1609 1616 1616 1616 1616 1609 1609 1609 1609 1609 1601 1601 1601 1609 1601 1601 1601 1601 1609 1609 1601 1601 1601 1586 1586 1586 1586 1586 1586 1594 1594 1601 1601 1601 1601 1601 1601 1601 1601 1601 1601 1601 1601 1601 1601 1601 1594 1579 1579 0 0 0 0 0 0 0 0 0 0 0 0 0 0 0 0 0 0
0 0 0 0 0 0 0 0 0 0 0 0 0 0 0 0 0 0 0 0 0 0 0 0 0 0 0 0 0 0 0 0 3994 3948 3903 3859 3859 3859 3903 3903 3903 3948 3948 3994 3994 3994 3994 3948 3948 3859 3859 3903 3903 0 3948 3948 3948 3994 3994 3948 3948 3948 3948 3948 3948 3948 3948 3903 3903 3903 0 0 0 0 3948 3903 3903 3903 3948 3948 3948 3948 3948 3948 3948 3948 3948 3948 2933 2933 2933 2933 2958 3994 4041 4041 4041 4041 4041 4041 4041 4041 4041 4041 4041 0 4041 0 0 0 3903 3903 3948 3948 3994 3994 3994 3994 4041 3994 3994 4041 4041 4089 4089 4089 4089 4089 4089 4089 4089 4089 4089 4089 4089 4089 4089 4089 4089 4041 4041 4041 4089 4089 4089 4089 4089 4089 4089 4089 4089 4089 4139 4089 4089 4139 4139 4139 4089 4041 4041 4041 4041 4041 4089 4089 4089 4089 4089 4089 4089 4139 4139 4139 4139 4089 4089 4089 4089 4089 4089 4089 4089 4089 4089 4089 4089 4089 4139 4139 0 0 0 0 1572 1572 1572 1579 1579 1579 1579 1572 1572 1572 1572 1572 1564 1564 1564 1564 1557 1557 1550 1550 1550 1550 1543 1543 1543 1536 1536 1536 1536 1529 1529 1529 1523 1523 1523 1523 1516 1516 1516 1516 1509 1509 1503 1503 1503 1503 1496 1496 1496 1496 1496 1489 1489 1489 1489 1483 1483 1483 1483 1477 1477 1470 1470 1470 1470 1470 1470 1470 1470 1470 1470 1464 1464 1464 1464 1458 1452 1452 1445 1445 1439 1439 1433 1433 1433 1427 1427 1421 1421 1421 1421 1421 1421 1421 1421 1421 1427 1433 1439 1439 1439 1439 1543 1543 1543 1550 1550 1550 1550 1557 1557 1557 1557 1557 1557 1557 1557 1557 1550 1550 1550 1550 1543 1543 1543 1550 1550 1550 1550 1288 1288 1288 1283 1283 1273 1273 1273 1273 1268 1268 1268 1268 1268 1273 1273 1278 1278 1283 1283 1288 1288 1572 1572 1550 1550 1557 1579 1572 1572 1572 1557 1557 1557 1557 1557 1557 1557 1550 1550 1557 1550 1550 1557 1557 1543 1543 1550 1206 1206 1206 1206 1206 1197 1197 1202 1202 1202 1197 1193 1193 1189 1185 1185 1185 1189 1189 1189 1185 1185 1185 1185 1181 1181 1181 1181 1181 1177 1173 1173 1173 1169 1169 1165 1165 1165 1165 1161 1161 1161 1161 1161 1161 1161 1157 1157 1149 1149 1149 1145 1145 1145 1145 1145 1145 1145 1141 1141 1141 1138 1138 1138 1138 1134 1134 1130 1130 1130 1130 1126 1123 1119 1115 1115 1115 1112 1112 1108 1108 1108 1108 1105 1105 1105 1105 1105 1108 1108 1112 1112 1115 1115 1115 1119 1119 1123 1572 1579 1579 1586 1579 1579 1579 1579 1579 1579 1579 1579 1579 1586 1586 1586 1586 1586 1586 1586 1579 1579 1579 1579 1579 1586 1586 1594 1594 1594 1586 1586 1572 1564 1564 1564 1564 1572 1564 1564 1564 1564 1564 1557 1557 1564 1579 1579 1579 1586 1579 1579 1579 1579 1586 1586 1579 1579 1579 1579 1579 1579 1579 1579 1586 1586 1586 1579 1579 1579 1579 1579 1579 1579 1579 1586 1586 1586 1586 1586 1586 1586 1586 1586 1586 1594 1594 1594 1586 1586 1586 1586 1586 1586 1586 1586 1594 1594 1594 1601 1601 1601 1601 1601 1601 1609 1609 1601 1601 1601 1601 1601 1594 1586 1586 1586 1586 1586 1579 1579 1579 1579 1586 1586 1586 1586 1586 1579 1579 1579 1572 1572 1579 1579 1579 1586 1594 1594 1594 1594 1594 1594 1594 1594 1594 1594 1594 1594 1586 1586 1579 1579 1543 1536 1536 1536 0 0 0 0 0 0 0 0 0 0 0 0 0 0 0
