0 0 0 0 0 0 0 0 0 0 0 0 0 0 0 0 0 0 0 0 0 0 0 0 0 0 0 0 0 0 5548 5548 5548 5548 5548 5548 5548 5640 5640 5640 5640 5734 5640 5640 5640 5640 5640 5640 5734 5734 5734 5832 5832 5832 5832 5832 5832 5832 5734 5734 5734 5832 5832 5832 5832 5832 5933 6146 6146 6146 6146 6146 6146 6146 6146 6146 6146 6146 6259 6259 6259 6259 6259 6259 6259 6259 6259 6259 6259 6259 6259 6259 6259 6259 6259 6259 6259 6259 6259 6259 6259 6259 6259 6259 6259 6259 6259 6259 6259 6259 6375 6375 6375 6259 6259 6375 6375 6375 6375 6259 6259 6259 6375 6375 6375 6375 6375 6375 6375 6375 6375 6497 6497 6375 6038 5548 5548 5460 5460 5460 5460 5460 5460 5460 5460 5548 5548 5548 5548 5548 5548 5548 5548 5548 5460 5460 5460 5460 5460 5548 5548 5548 5548 3037 3037 3037 3010 3010 3010 3010 3010 3010 3010 3010 3010 3010 3010 3010 3010 3037 3037 3037 3037 3037 3037 3037 3037 3037 3037 3037 3037 3037 3037 3037 3064 3064 3037 3037 3037 3064 3064 3064 3064 3064 3064 3064 3064 3064 3064 3064 3092 3092 3092 3092 3120 3120 3120 3120 3120 3120 3120 3120 3120 3149 3149 3120 3120 3120 3120 3120 3120 3149 3149 3149 3149 3149 3149 3149 3149 3149 3178 3178 3149 3149 3149 3149 3149 3149 3149 3149 3149 3149 3149 3149 3149 3149 3149 3149 3149 3149 3149 3149 3149 3178 3178 3178 3178 3178 3178 3178 3178 3178 3178 3178 3208 3208 3238 3238 3238 3269 6375 6375 6622 6889 7030 7030 7030 7030 6889 6889 6889 6889 6889 7030 7178 7332 7178 7178 6753 6497 6497 6622 6622 6622 6753 7030 7332 7332 7492 7492 7492 7660 7660 7660 7660 7660 7660 7660 7660 7660 7660 7660 7660 7492 7492 7492 7660 7660 7660 7492 7492 7492 7492 7332 7332 7332 7332 7332 7332 7332 7332 7178 7178 7178 7332 5132 5132 5132 5210 5210 5210 5210 5210 5132 5132 5132 5132 5132 5056 5056 5056 4983 4983 4983 4983 4983 4983 4983 4983 4983 4983 4983 5056 5056 5056 4983 4983 4983 4911 4911 4911 4911 4911 4911 4911 4911 4911 4911 4911 4911 4911 4911 4911 4911 4911 4911 4911 4911 4911 4911 4911 4911 4983 5056 5291 5291 5460 5460 6622 6622 6753 6753 6753 6753 6753 6753 6753 6622 6622 6622 6622 6622 6622 6622 6622 6622 0 0 0 0 0 3653 3614 3614 3614 3614 3614 3576 3576 3576 3576 3614 3653 3692 3732 3774 3732 3692 3653 3653 3653 3653 3692 0 0 0 0 0 0 3365 3333 3333 0 0 0 0 0 0 0 0 0 0 0 3774 3774 3774 0 3614 0 0 0 0 0 0 3732 3732 3732 3732 3732 3732 3732 3732 3732 3692 3692 3653 3614 3614 3614 3614 3653 3653 3653 3653 3653 3653 3576 3576 0 0 3576 3576 3614 3614 3614 3614 3614 3653 3653 3816 3816 3816 3816 3816 3732 3692 3692 3614 3576 3576 3576 3576 3576 3576 3539 3539 3576 3576 3576 0 3614 3614 3576 3614 3614 3614 3614 3614 3614 3614 3692 3774 3816 3859 3859 3859 3859 3859 3859 3816 3774 3732 3692 3692 3692 3692 3692 3692 3653 3653 3653 3653 3653 2933 2883 2883 2883 2883 2883 2883 2859 2859 2835 2835 2835 2835 2835 2835 2835 2835 2835 2835 2835 2835 2835 2835 2835 2835 2835 2835 2835 2835 2835 2835 2835 2835 2835 2835 2835 2835 2835 2835 2835 2859 2859 2859 2859 2859 2859 2859 2859 2859 2883 2883 2883 2883 2908 2908 2908 2908 0 0 0 0 0 0 0 0 0 0
0 0 0 0 0 0 0 0 0 0 0 0 0 0 0 0 0 0 0 0 0 0 0 0 0 0 0 0 0 0 5548 5548 5548 5548 5548 5548 5548 5640 5640 5640 5734 5734 5734 5640 5640 5734 5734 5734 5734 5734 5832 5832 5832 5832 5832 5832 5832 5734 5734 5734 5734 5734 5832 5832 5832 5832 5832 6146 6146 6038 6038 6146 6146 6146 6146 6146 6146 6146 6146 6146 6259 6259 6146 6146 6146 6146 6146 6146 6146 6146 6259 6259 6259 6259 6259 6259 6259 6259 6259 6259 6259 6259 6259 6259 6259 6259 6259 6259 6259 6259 6375 6375 6259 6259 6259 6259 6259 6259 6259 6259 6259 6375 6375 6375 6375 6375 6497 6497 6497 6497 6497 6497 6497 6259 5460 5460 5548 5460 5460 5460 5460 5460 5460 5460 5460 5548 5548 5548 5548 5548 5548 5548 5548 5548 5460 5460 5460 5460 5460 5548 5548 5548 5548 3010 3010 3010 3037 3037 3010 3010 3010 3010 3010 3010 3010 3010 3010 3010 3037 3037 3037 3037 3037 3037 3037 3037 3037 3037 3037 3037 3037 3037 3037 3037 3064 3064 3064 3064 3064 3064 3064 3064 3064 3064 3064 3064 3064 3064 3064 3064 3092 3092 3092 3092 3120 3120 3120 3120 3120 3120 3120 3120 3120 3149 3149 3149 3120 3120 3120 3120 3120 3149 3149 3149 3149 3149 3149 3149 3178 3178 3178 3178 3149 3149 3149 3149 3149 3149 3149 3149 3149 3149 3149 3149 3149 3149 3149 3149 3149 3149 3149 3149 3149 3178 3178 3178 3178 3178 3178 3178 3178 3178 3178 3208 3208 3238 3238 3238 3238 3300 7030 7030 7030 7178 7332 7178 7030 7030 7030 7030 7030 7030 7030 7178 7332 7332 7332 7332 7030 6622 6622 6622 6622 6622 6753 7030 7332 7492 7492 7492 7492 7660 7660 7660 7660 7660 7660 7660 7660 7660 7660 7660 7660 7492 7492 7492 7660 7660 7660 7492 7492 7492 7492 7332 7332 7332 7332 7332 7332 7332 7332 7332 7332 7332 7332 5132 5132 5132 5210 5210 5210 5210 5210 5132 5132 5132 5132 5132 5056 5056 5056 4983 4983 4983 4983 4983 4983 4983 4983 4983 4983 4983 4983 4983 4983 4983 4983 4983 4911 4911 4911 4911 4911 4911 4911 4911 4911 4911 4911 4911 4911 4911 4911 4911 4911 4911 4911 4911 4911 4911 4911 4983 4983 5056 5210 5291 5460 5460 6622 6622 6622 6753 6753 6753 6753 6622 6622 6622 6622 6622 6622 6622 6622 6753 6753 0 0 0 0 0 0 3614 3614 3614 3614 3614 3614 3576 3576 3576 3576 3614 3692 3732 3732 3774 3732 3692 3614 3614 3614 3614 3653 3576 3576 3576 3576 0 0 3399 3399 3399 0 0 0 0 0 0 0 0 0 0 0 0 0 0 0 0 0 0 3576 3576 3576 3539 3539 3539 3539 3539 3653 3653 3614 3614 3614 3614 3653 3653 3576 3576 3539 3539 3653 3653 3653 3576 3576 3576 3576 3576 3576 3576 3576 3576 3576 3576 3576 3576 3614 3614 3653 3653 3859 3859 3859 3859 3732 3732 3732 3614 3576 3576 3576 3576 3539 3539 3539 3539 3576 3576 3576 3576 3614 3614 3576 3576 3576 3576 3614 3614 3614 3614 3614 3692 3774 3859 3859 3859 3859 0 0 0 3774 3732 3692 3653 3653 3692 3692 3692 3692 3653 3653 3653 3653 3653 2883 2883 2883 2883 2883 2883 2883 2859 2835 2835 2835 2835 2835 2835 2835 2835 2835 2835 2835 2835 2835 2835 2835 2835 2835 2835 2835 2835 2835 2835 2835 2835 2835 2835 2835 2835 2835 2835 2859 2859 2859 2859 2859 2859 2859 2859 2859 2859 2883 2883 2883 2908 2908 2908 2908 2908 0 0 0 0 0 0 0 0 0 0
0 0 0 0 0 0 0 0 0 0 0 0 0 0 0 0 0 0 0 0 0 0 0 0 0 0 0 0 0 0 5460 5460 5548 5548 5548 5548 5548 5640 5734 5734 5734 5734 5734 5734 5734 5734 5734 5734 5734 5734 5832 5832 5832 5832 5832 5832 5832 5734 5734 5734 5734 5734 5832 5832 5832 5832 5832 6038 6146 6038 6038 6146 6146 6146 6146 6146 6146 6146 6146 6146 6259 6259 6146 6146 6146 6146 6146 6146 6146 6146 6259 6259 6259 6259 6259 6259 6375 6259 6259 6259 6259 6259 6259 6259 6259 6259 6259 6259 6259 6259 6375 6375 6259 6259 6259 6259 6259 6259 6259 6259 6259 6375 6375 6375 6375 6375 6497 6497 6497 6497 6497 6497 6375 6146 5460 5460 5460 5460 5460 5460 5460 5460 5460 5460 5460 5548 5548 5548 5548 5548 5548 5548 5548 5548 5460 5460 5460 5460 5460 5548 5548 5548 5548 3010 3010 3010 3010 3037 3010 3010 3010 3010 3010 3010 3010 3010 3037 3037 3037 3037 3037 3037 3037 3037 3037 3037 3037 3037 3037 3037 3064 3064 3064 3064 3064 3064 3064 3064 3064 3064 3064 3064 3064 3064 3064 3064 3064 3064 3064 3064 3092 3092 3092 3092 3120 3120 3120 3120 3120 3120 3120 3120 3149 3149 3149 3149 3120 3120 3120 3149 3149 3149 3149 3149 3149 3149 3149 3149 3149 3178 3178 3178 3149 3149 3149 3149 3149 3149 3149 3149 3149 3149 3149 3149 3149 3149 3149 3149 3149 3149 3149 3149 3149 3178 3178 3178 3178 3178 3178 3178 3208 3208 3208 3208 3208 3238 3238 3269 3269 3300 3365 7332 7332 7332 7332 7332 7178 7178 7178 7178 7030 7030 7030 7332 7492 7492 7332 7332 7332 6622 6622 6622 6622 6622 6753 7030 7332 7492 7492 7492 7660 7660 7660 7660 7660 7660 7660 7660 7660 7660 7660 7660 7660 7492 7492 7492 7660 7660 7660 7492 7492 7492 7492 7332 7332 7332 7332 7332 7332 7332 7332 7332 7178 7178 7492 5132 5132 5132 5132 5132 5132 5132 5210 5132 5132 5132 5132 5132 5056 5056 5056 5056 4983 4983 4983 4983 4983 4983 4983 4983 4983 4983 4983 4983 4983 4983 4983 4983 4983 4911 4911 4911 4911 4911 4911 4911 4911 4911 4911 4911 4911 4911 4911 4911 4911 4911 4911 4911 4911 4911 4983 4983 4983 5056 5210 5291 5291 6889 6622 6622 6622 6622 6622 6622 6622 6622 6622 6622 6622 6622 6622 6622 6622 6753 6753 0 0 0 0 0 0 3614 3614 3614 3614 3614 3576 3576 3576 3576 3576 3614 0 3614 3614 3692 0 3692 3614 3576 3576 3614 3614 3576 3576 3539 3539 3539 3468 3468 3468 3468 3468 3433 3433 0 0 0 0 0 0 0 0 0 0 0 0 3614 3614 3576 3576 3576 3576 3539 3539 3539 3539 3539 3614 3614 3576 3576 3576 3576 3614 3539 3539 3539 3468 3468 3468 3468 3468 3539 3576 3539 3539 3539 3539 3539 3539 3539 3539 3539 3539 3576 3576 3576 3576 3576 3503 3503 3539 0 0 3614 3614 3614 3576 3576 3576 3576 3539 3539 3539 3539 3539 3539 3539 3539 3539 3539 3539 3576 3576 3576 3614 3614 3576 3576 3614 3692 3732 0 0 0 3732 0 0 0 3576 3576 3539 3539 3576 3614 3653 3653 3653 3653 3653 3653 3653 3653 2883 2883 2883 2883 2883 2883 2883 2883 2835 2835 2835 2835 2835 2835 2835 2835 2835 2835 2835 2835 2835 2835 2835 2835 2835 2835 2835 2835 2835 2835 2835 2835 2835 2835 2835 2835 2835 2835 2859 2859 2859 2859 2859 2859 2859 2883 2859 2859 2883 2908 2908 2908 2908 2908 2908 2908 0 0 0 0 0 0 0 0 0 0
0 0 0 0 0 0 0 0 0 0 0 0 0 0 0 0 0 0 0 0 0 0 0 0 0 0 0 0 0 0 5460 5460 5548 5548 5548 5548 5548 5640 5734 5734 5734 5832 5734 5734 5734 5734 5734 5734 5832 5832 5832 5832 5832 5832 5832 5832 5832 5832 5734 5734 5832 5832 5832 5832 5832 5734 5734 6038 6146 6038 6038 6146 6146 6146 6146 6146 6146 6146 6146 6146 6259 6259 6259 6146 6146 6146 6259 6146 6146 6146 6259 6259 6259 6259 6259 6259 6259 6259 6259 6259 6259 6259 6259 6259 6259 6259 6259 6259 6259 6259 6375 6375 6375 6259 6259 6259 6375 6259 6259 6375 6375 6375 6375 6375 6375 6375 6375 6497 6497 6497 6497 6497 6375 6146 5548 5460 5460 5460 5460 5460 5460 5548 5548 5548 5548 5548 5548 5640 5640 5640 5548 5548 5548 5548 5460 5460 5460 5460 5460 5548 5548 5548 5548 3010 3010 3010 3010 3010 3010 3010 3010 3010 3010 3010 3010 3010 3037 3037 3037 3037 3037 3037 3037 3037 3037 3037 3037 3037 3037 3037 3064 3064 3064 3064 3064 3064 3064 3064 3064 3064 3064 3064 3064 3064 3064 3064 3064 3064 3092 3092 3092 3092 3092 3120 3120 3120 3120 3120 3120 3149 3149 3149 3149 3149 3149 3149 3149 3149 3149 3149 3149 3149 3149 3149 3149 3149 3149 3149 3149 3178 3178 3178 3149 3149 3149 3149 3149 3149 3149 3149 3149 3149 3149 3149 3149 3149 3149 3149 3149 3178 3178 3178 3178 3178 3178 3178 3178 3208 3178 3178 3208 3208 3208 3208 3238 3238 3269 3269 3269 3333 3365 7332 7332 7332 7332 7332 7332 7178 7178 7178 7178 7030 7030 7332 7492 7492 7492 7178 7178 6622 6622 6622 6622 6622 6753 7178 7332 7492 7492 7660 7660 7492 7492 7660 7660 7660 7660 7660 7660 7660 7660 7660 7660 7492 7492 7492 7660 7660 7660 7492 7492 7492 7492 7332 7332 7332 7332 7332 7332 7332 7332 7332 7178 7178 7492 5132 5132 5132 5132 5132 5132 5132 5132 5132 5132 5132 5132 5132 5056 5056 5056 5056 5056 4983 4983 4983 4983 4983 4983 4983 4983 4983 5056 5056 4983 4983 4983 4983 4983 4911 4911 4911 4911 4911 4911 4911 4911 4911 4911 4911 4911 4911 4911 4911 4911 4911 4911 4911 4911 4911 4911 4911 4983 5056 5132 5291 5291 6889 6753 6622 6622 6622 6622 6622 6622 6622 6622 6622 6622 6622 6622 6622 6622 6753 6753 6753 0 0 0 0 0 3614 3614 3614 3614 3614 3576 3576 3576 3576 3576 3614 0 0 0 0 0 3614 3614 3576 3576 3614 3614 3576 3539 3539 3539 3503 3468 3468 3468 3468 3433 3433 3433 3433 0 0 0 0 0 0 0 0 0 3365 0 3614 3614 3503 3503 3539 3539 3539 3539 3503 3503 3503 3503 3503 3576 3576 3576 3576 3539 3468 3468 3468 3433 3433 3433 3433 3433 3503 3503 3539 3539 3539 3539 3539 3503 3468 3468 3503 3539 3539 3539 3539 3539 3503 3503 0 0 3539 3539 3576 3576 3576 3576 3576 3576 3576 3539 3539 3539 3539 3539 3539 3503 3503 3503 3503 3539 3539 3539 3539 3576 3576 3576 3576 3576 3576 3653 3653 0 0 0 0 0 3576 3576 3576 3539 3539 3539 3576 3576 3614 3614 3614 3614 3576 3576 2883 2883 2883 2883 2883 2883 2883 2883 2883 2859 2835 2835 2835 2835 2835 2835 2835 2835 2835 2835 2835 2835 2835 2835 2835 2835 2835 2835 2835 2835 2859 2835 2835 2835 2835 2835 2835 2835 2835 2859 2859 2859 2859 2859 2859 2859 2883 2859 2859 2883 2908 2908 2908 2908 2908 2908 2908 0 0 0 0 0 0 0 0 0 0
0 0 0 0 0 0 0 0 0 0 0 0 0 0 0 0 0 0 0 0 0 0 0 0 0 0 0 0 0 0 5548 5548 5548 5548 5548 5548 5640 5640 5734 5734 5734 5832 5832 5734 5734 5734 5734 5832 5832 5832 5832 5832 5832 5832 5832 5832 5832 5832 5734 5734 5832 5832 5832 5832 5832 5734 5734 6038 6146 6038 6038 6146 6146 6146 6146 6146 6146 6146 6146 6259 6259 6259 6259 6146 6146 6146 6146 6146 6146 6146 6259 6259 6259 6259 6259 6259 6259 6259 6259 6259 6259 6259 6259 6259 6259 6375 6259 6259 6259 6259 6375 6375 6375 6259 6259 6259 6259 6259 6375 6375 6375 6375 6375 6375 6497 6375 6375 6375 6375 6497 6497 6497 6375 6259 5933 5460 5460 5460 5460 5460 5548 5548 5548 5548 5548 5548 5548 5640 5640 5640 5548 5548 5548 5548 5460 5460 5460 5460 5460 5548 5548 5548 5548 3010 3010 3010 3010 3010 3010 3010 3010 3010 3010 3010 3010 3010 3037 3037 3037 3037 3037 3037 3037 3037 3037 3037 3037 3037 3037 3064 3064 3064 3064 3064 3064 3064 3064 3064 3064 3064 3064 3064 3064 3064 3064 3064 3064 3092 3092 3092 3092 3120 3120 3120 3120 3120 3120 3120 3120 3149 3149 3149 3149 3149 3149 3149 3149 3149 3149 3149 3149 3149 3149 3149 3149 3149 3149 3149 3178 3178 3178 3178 3149 3149 3149 3149 3149 3149 3149 3149 3149 3149 3149 3149 3149 3149 3149 3149 3149 3149 3178 3178 3178 3178 3178 3208 3208 3208 3208 3208 3208 3208 3208 3208 3238 3238 3269 3269 3269 3333 7332 7332 7332 7332 7492 7332 7332 7178 7178 7178 7178 7030 7030 7332 7492 7492 7492 7030 7030 6497 6497 6497 6497 6622 6753 7178 7492 7492 7660 7660 7660 7492 7492 7660 7660 7660 7660 7660 7660 7660 7660 7660 7660 7660 7660 7660 7660 7660 7492 7492 7492 7492 7492 7332 7332 7332 7332 7332 7332 7332 7332 7332 7332 7332 7492 5132 5132 5132 5132 5132 5132 5132 5132 5132 5132 5132 5132 5056 5056 4983 4983 5056 5056 5056 5056 5056 5056 5056 5056 4983 4983 5056 5056 5056 4911 4911 4983 4983 4983 4911 4911 4911 4911 4911 4911 4911 4911 4911 4911 4911 4911 4911 4911 4911 4911 4842 4842 4911 4911 4911 4911 4911 4983 5056 5132 5210 5210 6889 6753 6753 6753 6622 6622 6622 6622 6622 6622 6622 6622 6622 6622 6622 6622 6753 6753 6753 6889 0 0 0 0 0 0 3576 3576 3614 3614 3576 3576 3576 3576 3576 0 0 0 0 0 3653 3614 3614 3614 3614 3614 3576 3539 3539 3539 3503 3503 3468 3468 3468 3433 3433 3433 3433 3399 3399 0 0 0 0 0 0 0 3365 3333 3333 3365 3399 3433 3433 3433 3468 3468 3503 3503 3503 3503 3503 3576 3576 3576 3576 3503 3433 3433 3433 3433 3433 3433 3433 3433 3503 3503 3503 3503 3503 3503 3503 3468 3468 3468 3468 3503 3503 3503 3468 3468 3503 3503 3503 3468 3539 3539 3503 3503 3503 3503 3503 3539 3539 3539 3539 3539 3503 3503 3468 3468 3468 3433 3433 3468 3539 3503 3503 3539 3539 3539 3539 3503 3503 3653 3653 0 0 0 0 0 3539 3539 3539 3539 3539 3539 3539 3576 3539 3539 3503 3503 3539 3539 2883 2883 2883 2883 2883 2908 2908 2908 2908 2859 2859 2835 2835 2835 2835 2835 2835 2835 2835 2835 2835 2835 2835 2835 2835 2835 2835 2835 2835 2859 2859 2835 2835 2835 2835 2835 2835 2835 2859 2859 2859 2859 2859 2859 2859 2859 2883 2883 2883 2883 2883 2908 2908 2908 2908 2908 2908 0 0 0 0 0 0 0 0 0 0
0 0 0 0 0 0 0 0 0 0 0 0 0 0 0 0 0 0 0 0 0 0 0 0 0 0 0 0 0 0 5548 5548 5548 5548 5548 5548 5640 5640 5734 5734 5734 5832 5832 5734 5734 5832 5832 5832 5832 5832 5832 5832 5832 5832 5832 5832 5832 5832 5832 5832 5832 5832 5832 5832 5832 5832 5832 6038 6146 6146 6146 6146 6146 6146 6146 6146 6146 6146 6146 6146 6146 6259 6146 6146 6146 6146 6146 6146 6146 6146 6259 6259 6259 6259 6259 6259 6259 6259 6259 6259 6259 6259 6259 6259 6259 6375 6375 6259 6259 6375 6375 6375 6375 6259 6259 6259 6259 6259 6375 6375 6375 6375 6375 6375 6497 6375 6375 6375 6375 6497 6497 6497 6375 6146 5933 5548 5548 5548 5548 5548 5548 5548 5548 5548 5548 5548 5640 5640 5640 5640 5640 5640 5640 5640 5548 5548 5460 5460 5460 5548 5548 5548 5548 3037 3037 3037 3037 3010 3010 3010 3010 3010 3010 3010 3010 3010 3037 3037 3037 3037 3037 3037 3037 3037 3037 3037 3037 3037 3037 3037 3064 3064 3064 3064 3064 3064 3064 3064 3064 3064 3064 3064 3064 3064 3064 3092 3092 3092 3092 3092 3092 3092 3120 3120 3120 3120 3149 3149 3149 3149 3149 3149 3149 3149 3149 3149 3149 3149 3149 3149 3149 3149 3149 3149 3149 3149 3178 3178 3178 3178 3178 3178 3149 3149 3149 3149 3149 3149 3149 3149 3149 3149 3149 3149 3149 3149 3149 3149 3149 3149 3178 3178 3178 3178 3178 3178 3178 3208 3208 3208 3208 3208 3208 3238 3238 3238 3269 3269 3269 3333 7332 7332 7332 7492 7492 7332 7332 7178 7178 7178 7178 7030 7030 7178 7492 7492 7492 7030 7030 6497 6497 6497 6497 6622 6753 7178 7492 7492 7492 7492 7492 7492 7492 7492 7660 7660 7660 7660 7660 7660 7835 7835 7660 7660 7660 7660 7660 7660 7492 7492 7492 7492 7492 7332 7332 7332 7332 7332 7332 7332 7332 7332 7332 7332 7492 5132 5132 5132 5132 5132 5132 5132 5132 5132 5132 5132 5132 5056 5056 4983 4983 5056 5056 5056 5056 5056 5056 5056 5056 4983 4983 5056 5056 4983 4911 4911 4983 4983 4983 4911 4911 4911 4911 4911 4911 4911 4911 4911 4911 4911 4911 4911 4911 4911 4911 4842 4842 4911 4911 4911 4911 4911 4983 4983 5132 5132 5132 6889 6753 6753 6753 6753 6622 6622 6622 6622 6622 6622 6622 6622 6622 6622 6753 6753 6753 6753 6753 0 0 0 0 0 0 3576 3576 3576 3576 3576 3576 3539 3539 3576 0 0 0 0 0 3614 3576 3576 3576 3576 3576 3576 3576 3539 3539 3503 3503 3468 3468 3433 3433 3433 3433 3433 3399 3399 3433 3433 3433 3333 3333 3333 3399 3333 3333 3333 3333 3365 3365 3365 3365 3365 3433 3468 3468 3433 3433 3468 3468 3468 3433 3433 3433 3399 3399 3399 3433 3433 3433 3433 3468 3468 3468 3468 0 0 3433 3433 3399 3399 3433 3468 3468 3468 3468 3433 3433 3503 3503 3503 3468 3468 3468 3503 3468 3468 3468 3468 3503 3503 3503 3468 3468 3468 3468 3468 3433 3433 3433 3399 3399 3399 3399 3433 3433 3433 3468 3468 3503 3503 3503 3503 0 0 0 0 3433 0 3468 3468 3503 3503 3503 3503 3503 3503 3503 3503 3503 3539 3539 2859 2859 2883 2883 2883 2883 2908 2908 2908 2883 2859 2859 2859 2835 2835 2835 2835 2835 2835 2835 2835 2835 2835 2835 2835 2835 2835 2835 2859 2859 2859 2859 2859 2859 2859 2859 2859 2859 2859 2859 2859 2859 2859 2859 2859 2859 2883 2883 2883 2883 2883 2908 2908 2908 2908 2908 2908 0 0 0 0 0 0 0 0 0 0
0 0 0 0 0 0 0 0 0 0 0 0 0 0 0 0 0 0 0 0 0 0 0 0 0 0 0 0 0 0 5548 5548 5548 5548 5548 5548 5640 5734 5734 5734 5734 5832 5832 5734 5734 5832 5832 5832 5832 5832 5832 5832 5832 5832 5832 5832 5734 5734 5832 5832 5832 5832 5832 5832 5832 5832 5832 6038 6146 6146 6146 6146 6146 6146 6146 6146 6146 6146 6146 6146 6146 6146 6146 6146 6146 6146 6146 6146 6146 6146 6259 6259 6259 6259 6259 6259 6259 6259 6259 6259 6259 6259 6259 6259 6375 6375 6375 6375 6375 6375 6375 6375 6375 6375 6375 6375 6375 6375 6375 6375 6375 6375 6375 6375 6497 6375 6375 6375 6375 6497 6497 6375 6259 6146 5933 5548 5548 5548 5548 5548 5548 5548 5548 5548 5548 5548 5640 5640 5640 5734 5640 5640 5640 5640 5548 5548 5548 5548 5548 5548 5548 5640 5640 3037 3037 3037 3010 3010 3010 3010 3010 3010 3010 3010 3010 3010 3037 3037 3037 3037 3037 3037 3037 3037 3037 3037 3037 3037 3037 3037 3064 3064 3064 3064 3064 3064 3064 3064 3064 3064 3064 3064 3064 3064 3092 3092 3092 3092 3092 3092 3092 3092 3092 3120 3120 3120 3120 3149 3149 3149 3149 3149 3149 3149 3149 3149 3149 3149 3149 3149 3149 3149 3149 3149 3178 3178 3178 3178 3178 3178 3178 3178 3149 3149 3149 3149 3149 3149 3149 3149 3149 3149 3149 3149 3149 3149 3149 3149 3149 3178 3178 3178 3178 3178 3178 3178 3178 3208 3208 3208 3208 3208 3238 3238 3238 3238 3269 3269 3269 3300 7492 7492 7492 7492 7492 7332 7332 7178 7178 7178 7178 7030 7030 7178 7492 7492 7492 6889 6622 6622 6622 6622 6622 6622 6753 7030 7332 7332 7492 7492 7492 7492 7492 7492 7660 7660 7660 7660 7660 7660 7660 7835 7660 7492 7492 7660 7660 7660 7492 7492 7492 7492 7492 7332 7332 7332 7332 7332 7332 7332 7332 7492 7492 7492 7660 5132 5132 5132 5132 5132 5132 5210 5132 5132 5132 5132 5132 5056 5056 4983 4983 5056 5056 5056 5056 5056 5056 5056 5056 5056 5056 5056 5056 4983 4911 4911 4911 4911 4911 4911 4911 4911 4911 4911 4911 4911 4911 4911 4911 4911 4911 4911 4911 4911 4911 4911 4911 4911 4911 4911 4911 4911 4983 4983 5132 5132 5210 5210 6753 6753 6753 6753 6753 6622 6622 6622 6622 6622 6622 6622 6622 6622 6622 6753 6753 6753 6753 0 0 0 0 0 0 3614 3576 3576 3576 3576 3576 3539 3539 3576 0 0 0 0 0 3614 3576 3576 3576 3576 3576 3576 3576 3539 3539 3503 3503 3468 3468 3433 3433 3433 3433 3433 3399 3399 3433 3365 3365 3333 3333 3333 3365 3333 3333 3333 3333 3333 3333 3333 3333 3333 3365 3433 3399 3399 3433 3433 3433 3399 3333 3333 3365 3365 3365 3365 3365 3399 3399 3433 3433 3433 3433 3433 3300 3300 3433 3433 3365 3365 3399 3433 3468 3433 3433 3433 3433 3468 3433 3433 3433 3433 3433 3433 3399 3399 3433 3433 3468 3468 3468 3468 3468 3468 3468 3433 3433 3433 3433 3399 3399 3399 3399 3399 3433 3433 3468 3468 3503 3503 3503 0 0 0 3300 0 0 3433 3433 3433 3503 3503 3468 3468 3468 3503 3503 3503 3503 3503 2859 2859 2859 2883 2883 2883 2883 2908 2908 2908 2883 2859 2859 2859 2859 2859 2835 2835 2835 2835 2835 2835 2835 2835 2835 2835 2835 2835 2835 2859 2859 2859 2859 2859 2859 2859 2859 2859 2859 2859 2859 2859 2859 2859 2859 2859 2859 2883 2883 2859 2859 2883 2908 2908 2908 2908 2908 2908 0 0 0 0 0 0 0 0 0 0
0 0 0 0 0 0 0 0 0 0 0 0 0 0 0 0 0 0 0 0 0 0 0 0 0 0 0 0 0 0 5460 5460 5460 5460 5548 5548 5640 5734 5734 5734 5832 5832 5832 5734 5734 5734 5734 5832 5832 5832 5832 5832 5832 5832 5734 5734 5734 5734 5832 5832 5832 5832 5933 5933 5933 5933 5933 6038 6146 6146 6146 6146 6146 6146 6146 6146 6146 6146 6146 6146 6146 6146 6146 6146 6146 6146 6146 6146 6146 6259 6259 6259 6259 6259 6259 6259 6259 6259 6259 6259 6259 6259 6259 6259 6375 6375 6375 6375 6375 6375 6375 6375 6375 6375 6375 6375 6375 6375 6375 6375 6375 6375 6375 6375 6375 6375 6375 6375 6375 6497 6497 6375 6259 6146 5933 5640 5640 5548 5548 5548 5548 5548 5548 5548 5640 5640 5640 5640 5734 5832 5832 5832 5734 5734 5640 5640 5734 5640 5640 5734 5734 5832 5832 3037 3037 3037 3010 3010 3010 3010 3010 3010 3010 3010 3010 3010 3037 3037 3037 3037 3037 3037 3037 3037 3037 3037 3037 3037 3037 3064 3064 3064 3064 3064 3064 3064 3064 3064 3064 3064 3064 3064 3092 3092 3092 3092 3092 3092 3092 3092 3092 3092 3092 3120 3120 3120 3120 3149 3149 3149 3149 3149 3149 3149 3149 3149 3149 3149 3149 3149 3149 3149 3149 3149 3178 3178 3178 3178 3178 3178 3178 3178 3149 3149 3149 3149 3149 3149 3149 3149 3149 3149 3149 3149 3149 3149 3149 3178 3178 3178 3178 3178 3178 3208 3208 3178 3178 3208 3208 3208 3208 3208 3238 3238 3238 3238 3269 3238 3238 3269 7492 7492 7492 7492 7492 7332 7332 7178 7178 7178 7178 7178 7178 7492 7492 7492 7492 6889 6622 6622 6622 6622 6622 6622 6753 6889 7332 7332 7492 7492 7492 7492 7492 7492 7660 7660 7660 7660 7660 7660 7660 7835 7660 7492 7492 7660 7660 7660 7660 7492 7492 7492 7492 7332 7332 7332 7332 7332 7332 7332 7332 7492 7492 7492 7660 5132 5132 5132 5132 5132 5210 5210 5210 5132 5132 5132 5132 5132 5056 5056 5132 5132 5132 5056 5056 5056 5132 5132 5056 5056 5056 5056 4983 4911 4911 4911 4911 4911 4911 4911 4911 4911 4911 4911 4911 4911 4911 4911 4911 4911 4911 4911 4911 4911 4911 4911 4911 4911 4911 4911 4911 4911 4983 5056 5132 5132 5132 5132 6753 6753 6753 6753 6753 6622 6622 6622 6622 6622 6497 6497 6497 6497 6622 6622 6753 6753 6753 0 0 0 0 0 0 3614 3614 3614 3576 3576 3576 3539 3539 3539 0 3576 0 3614 0 3614 3576 3576 3576 3576 3576 3576 3576 3539 3539 3503 3503 3468 3468 3468 3468 3468 3433 3433 3399 3399 3433 3365 3365 3333 3333 3333 3365 3365 3333 3333 3333 3333 3333 3333 3333 3333 3365 3399 3399 3399 3399 3399 3399 3365 3333 3333 3365 3333 3333 3333 3333 3365 3399 3365 3365 3399 3399 3399 3300 3300 3300 3269 3269 3300 3365 3365 3399 3399 3433 3433 3433 3433 3433 3433 3399 3399 3399 3365 3365 3365 3399 3433 3468 3468 3468 3468 3468 3433 3433 3433 3433 3399 3399 3365 3365 3365 3365 3365 3399 3433 3433 3433 3433 3433 3399 3333 3333 3300 3300 3333 3333 3365 3365 3433 3468 3468 3433 3433 3433 3433 3433 3433 3433 0 2908 2908 2908 2908 2908 2883 2883 2908 2908 2908 2883 2859 2859 2859 2859 2859 2835 2835 2835 2835 2835 2835 2835 2835 2835 2835 2835 2835 2859 2859 2859 2859 2859 2859 2859 2859 2859 2859 2859 2859 2859 2859 2859 2859 2859 2859 2859 2883 2883 2859 2859 2883 2883 2908 2908 2908 2908 2908 0 0 0 0 0 0 0 0 0 0
0 0 0 0 0 0 0 0 0 0 0 0 0 0 0 0 0 0 0 0 0 0 0 0 0 0 0 0 0 0 5460 5460 5460 5460 5548 5548 5640 5734 5832 5832 5832 5832 5734 5734 5734 5734 5734 5734 5832 5832 5832 5832 5832 5832 5734 5734 5734 5734 5832 5832 5832 5832 5933 5933 5933 5933 5933 6038 6146 6146 6146 6146 6259 6146 6146 6146 6146 6146 6146 6146 6146 6146 6146 6146 6146 6146 6146 6146 6146 6259 6259 6259 6259 6259 6259 6259 6259 6259 6259 6259 6259 6259 6259 6259 6375 6375 6375 6375 6375 6375 6375 6375 6375 6375 6375 6375 6375 6375 6375 6375 6375 6375 6375 6375 6375 6375 6375 6375 6375 6497 6497 6497 6375 6259 6038 5734 5640 5640 5640 5640 5640 5640 5640 5640 5832 5832 5933 5933 5933 6038 6146 6375 6497 5933 5832 5832 5832 6497 6497 6497 6497 6497 6497 6497 3037 3037 3037 3037 3010 3010 3010 3010 3010 3010 3010 3010 3037 3037 3037 3037 3037 3037 3037 3037 3037 3037 3037 3037 3037 3064 3064 3064 3064 3064 3064 3064 3064 3064 3064 3064 3064 3064 3092 3092 3092 3092 3092 3092 3092 3092 3092 3092 3092 3120 3120 3120 3149 3149 3149 3149 3149 3149 3149 3149 3149 3149 3149 3149 3149 3149 3149 3149 3149 3178 3178 3178 3178 3178 3178 3178 3178 3178 3149 3149 3149 3149 3149 3149 3149 3149 3149 3149 3149 3149 3178 3178 3178 3178 3178 3178 3178 3178 3178 3208 3208 3208 3208 3208 3208 3208 3208 3238 3238 3238 3238 3238 3269 3238 3238 3238 7492 7492 7492 7492 7492 7332 7332 7178 7178 7178 7178 7178 7178 7492 7492 7492 7492 7178 7178 6622 6622 6622 6622 6753 6889 6889 7332 7332 7492 7492 7492 7492 7492 7492 7660 7660 7660 7660 7660 7835 7835 7835 7660 7492 7492 7492 7660 7660 7660 7492 7492 7492 7492 7332 7332 7332 7332 7332 7332 7332 7332 7492 7492 7492 5056 5056 5132 5132 5132 5132 5210 5210 5210 5210 5132 5132 5132 5132 5056 5056 5132 5132 5132 5132 5132 5132 5132 5132 5132 5056 5056 5056 4983 4911 4911 4911 4911 4911 4911 4911 4911 4911 4911 4911 4911 4911 4911 4911 4911 4911 4911 4911 4911 4911 4911 4911 4911 4911 4911 4911 4911 4911 4983 4983 5056 5132 5132 5132 6753 6753 6753 6753 6753 6622 6622 6622 6622 6622 6497 6497 6497 6497 6622 6622 6753 6753 6889 7030 0 0 0 0 0 0 3614 3614 3576 3576 3576 3539 3539 3539 3576 3576 3614 3614 3614 3614 3576 3576 3576 3576 3576 3576 3576 3539 3503 3503 3468 3468 3468 3468 3468 3468 3433 3433 3399 3399 3433 3365 3365 3333 3333 3333 3333 3333 3333 3333 3333 3333 3333 3365 3333 3333 3365 3365 3365 3365 3333 3333 3333 3333 3333 3333 3333 3300 3300 3333 3333 3333 3333 3269 3238 3238 3269 3269 3269 3269 3269 3269 3269 3269 3269 3365 3399 3365 3365 3399 3399 3399 3399 3399 3399 3365 3365 3333 3333 3333 3399 3399 3399 3433 3433 3433 3433 3399 3399 3399 3399 3365 3365 3365 3365 3365 3365 3365 3365 3399 3399 3399 3333 3333 3333 3300 3300 3300 3300 3300 3300 3300 3300 3365 3433 3433 3433 3399 3399 3399 3365 3365 3365 3269 0 2908 2908 2908 2908 2883 2883 2883 2908 2908 2883 2859 2859 2859 2859 2859 2859 2859 2859 2859 2859 2835 2835 2859 2859 2835 2835 2859 2859 2859 2859 2859 2859 2859 2859 2859 2859 2859 2859 2859 2859 2859 2883 2883 2883 2883 2883 2883 2883 2859 2859 2859 2883 2883 2883 2883 2908 2908 0 0 0 0 0 0 0 0 0 0
0 0 0 0 0 0 0 0 0 0 0 0 0 0 0 0 0 0 0 0 0 0 0 0 0 0 0 0 0 0 5460 5460 5460 5460 5548 5548 5640 5734 5734 5832 5832 5832 5734 5734 5734 5734 5734 5734 5734 5734 5832 5832 5832 5832 5832 5832 5832 5832 5832 5832 5832 5832 5933 5933 5933 5933 5933 6038 6146 6146 6146 6259 6259 6146 6146 6146 6146 6146 6146 6146 6146 6146 6146 6146 6146 6146 6146 6259 6259 6259 6259 6259 6259 6259 6259 6259 6259 6259 6259 6259 6259 6259 6259 6259 6259 6375 6375 6375 6375 6497 6497 6497 6497 6375 6375 6375 6375 6375 6375 6375 6375 6375 6375 6375 6497 6375 6375 6497 6497 6497 6497 6497 6375 6259 6038 5734 5640 5640 5640 5640 5640 5640 5640 5640 5933 6038 6146 6146 6259 6259 6375 6497 6497 6497 6375 6375 6375 6497 6497 6497 6497 6497 6497 6497 3037 3037 3037 3037 3037 3037 3010 3010 3010 3010 3010 3010 3037 3037 3037 3037 3037 3037 3037 3037 3037 3037 3064 3064 3064 3064 3064 3064 3064 3064 3064 3064 3064 3064 3064 3064 3064 3064 3092 3092 3092 3092 3092 3092 3092 3092 3092 3092 3120 3120 3120 3120 3149 3149 3149 3149 3149 3149 3149 3149 3149 3149 3149 3149 3149 3149 3149 3149 3149 3178 3178 3178 3178 3178 3178 3178 3178 3149 3149 3149 3149 3149 3149 3149 3149 3149 3149 3149 3149 3149 3178 3178 3178 3178 3178 3178 3178 3178 3178 3208 3208 3208 3208 3208 3208 3208 3208 3238 3238 3238 3238 3238 3269 3238 3238 3238 7492 7492 7492 7492 7492 7332 7332 7178 7178 7178 7178 7178 7178 7492 7492 7660 7492 7332 7332 6622 6622 6622 6622 6753 6889 6889 7332 7332 7492 7492 7492 7492 7492 7492 7660 7660 7660 7660 7660 7835 7835 7835 7660 7492 7492 7492 7660 7660 7660 7492 7492 7492 7492 7492 7332 7332 7332 7332 7332 7332 7332 7492 7492 7660 5056 5056 5132 5132 5132 5132 5132 5210 5210 5210 5132 5132 5132 5132 5132 5132 5132 5132 5132 5132 5132 5132 5132 5132 5132 5056 5056 5056 4983 4911 4911 4911 4911 4911 4911 4911 4911 4911 4911 4911 4911 4911 4911 4911 4911 4911 4911 4911 4911 4911 4911 4911 4911 4911 4911 4911 4911 4911 4911 4911 5056 5132 5132 5132 5132 6889 6889 6753 6753 6622 6622 6622 6622 6622 6497 6497 6622 6622 6622 6622 6753 6753 6889 7030 0 0 0 0 0 0 0 3614 3576 3576 3576 3539 3539 3576 3576 3576 3614 3614 3614 3614 3614 3614 3614 3614 3576 3576 3576 3539 3503 3503 3468 3468 3468 3468 3468 3468 3468 3433 3433 3433 3399 3365 3365 3333 3333 3333 3333 3333 3333 3333 3333 3333 3333 3333 3333 3333 3333 3333 3333 3333 3333 3300 3300 3333 3300 3300 3333 3300 3300 3300 3300 3300 3238 3238 3238 3238 3238 3238 3238 3238 3238 3238 3238 3238 3238 3238 3238 3269 3365 3365 3399 3399 3365 3365 3365 3365 3300 3269 3269 3300 3300 3300 3365 3365 3365 3399 3399 3365 3365 3365 3365 3333 3333 3333 3333 3333 3333 3333 3365 3333 3333 3300 3300 3300 3300 3269 3269 3269 3269 3269 3269 3269 3269 3300 3365 3365 3399 3399 3399 3333 3300 3269 3269 3269 0 0 2908 2908 2908 2883 2883 2883 2883 2883 2859 2859 2859 2859 2859 2859 2859 2859 2859 2859 2859 2859 2859 2859 2859 2859 2859 2859 2859 2859 2883 2883 2859 2859 2883 2883 2883 2859 2859 2859 2859 2859 2859 2859 2859 2883 2883 2883 2883 2859 2859 2859 2859 2883 2883 2883 2883 2908 0 0 0 0 0 0 0 0 0 0
0 0 0 0 0 0 0 0 0 0 0 0 0 0 0 0 0 0 0 0 0 0 0 0 0 0 0 0 0 0 5460 5460 5460 5548 5548 5548 5640 5640 5734 5734 5734 5832 5734 5734 5734 5734 5734 5734 5734 5734 5832 5832 5832 5832 5832 5832 5832 5832 5832 5832 5832 5832 5832 5933 5933 5933 5933 6038 6146 6146 6259 6259 6259 6259 6259 6146 6146 6259 6259 6146 6146 6146 6146 6146 6146 6146 6146 6259 6259 6259 6259 6259 6259 6259 6259 6259 6259 6259 6259 6259 6259 6259 6259 6259 6259 6375 6375 6375 6375 6375 6375 6375 6375 6375 6375 6375 6375 6375 6375 6375 6375 6375 6375 6375 6375 6375 6375 6497 6497 6497 6497 6497 6375 6259 6038 5734 5734 5734 5640 5640 5640 5640 5734 5832 6038 6146 6259 6259 6375 6375 6375 6622 6622 6497 6497 6497 6497 6497 6497 6622 6622 6622 6622 6622 6622 3037 3037 3037 3037 3037 3037 3037 3010 3010 3010 3037 3037 3037 3037 3037 3037 3037 3037 3037 3037 3037 3064 3064 3064 3064 3064 3064 3064 3064 3064 3064 3064 3064 3064 3064 3064 3064 3092 3092 3092 3092 3092 3092 3092 3092 3092 3092 3120 3149 3149 3149 3149 3149 3149 3149 3149 3178 3178 3178 3149 3149 3149 3149 3149 3149 3149 3149 3149 3178 3178 3178 3178 3178 3178 3178 3178 3149 3149 3149 3149 3149 3149 3149 3149 3149 3149 3178 3178 3178 3178 3178 3178 3178 3178 3178 3178 3208 3208 3208 3208 3208 3208 3208 3208 3208 3208 3238 3238 3238 3238 3238 3269 3238 3238 3238 7492 7492 7492 7492 7492 7492 7332 7178 7178 7178 7178 7178 7178 7492 7492 7660 7492 7332 7030 6622 6622 6622 6622 6753 6889 6889 7178 7178 7492 7492 7492 7492 7492 7492 7660 7660 7660 7660 7660 7660 7660 7660 7660 7492 7492 7660 7660 7660 7660 7660 7492 7492 7492 7492 7332 7332 7332 7332 7332 7332 7332 7492 7492 7492 5056 5056 5132 5132 5132 5132 5132 5210 5210 5210 5210 5210 5132 5132 5132 5132 5132 5132 5132 5132 5132 5132 5132 5132 5132 5056 4983 4983 4911 4911 4911 4911 4911 4911 4911 4911 4911 4911 4911 4911 4911 4842 4842 4911 4911 4911 4911 4911 4911 4911 4911 4911 4911 4911 4911 4911 4911 4911 4911 4911 5056 5132 5132 2286 2286 2286 2286 6622 6622 6622 6622 6622 6622 6622 6622 6622 6622 6622 6622 6622 6622 6753 6889 7030 0 0 0 2271 0 0 0 3614 3614 3614 3576 3539 3539 3576 3576 3576 3576 3576 3614 3614 3614 3614 3614 3614 3576 3576 3576 3539 3503 3503 3468 3468 3468 3468 3468 3468 3468 3468 3433 3433 3399 3365 3365 3333 3333 3333 3333 3333 3333 3333 3333 3333 3333 3333 3333 3333 3333 3333 3333 3333 3300 3300 3300 3300 3300 3300 3333 3300 3300 3300 3300 3269 3238 3238 3208 3208 3238 3238 3238 3208 3208 3238 3238 3238 3238 3238 3238 3238 3333 3365 3365 3365 3365 3365 3365 3365 3269 3208 3208 3238 3269 3238 3238 3269 3269 3365 3365 3333 3333 3333 3300 3300 3333 3333 3333 3333 3300 3300 3333 3300 3300 3269 3269 3269 3269 3238 3238 3238 3238 3208 3208 3208 3208 3238 3269 3300 3365 3399 3365 3333 3269 3208 3208 3208 3178 3178 2908 2908 2908 2883 2883 2883 2883 2883 2859 2859 2859 2859 2859 2859 2859 2859 2859 2859 2883 2883 2883 2883 2883 2883 2883 2883 2883 2883 2883 2859 2859 2859 2859 2859 2883 2883 2883 2883 2859 2859 2859 2859 2859 2859 2859 2859 2859 2859 2859 2859 2859 2859 2883 2883 2883 2908 0 0 0 0 0 0 0 0 0 0
0 0 0 0 0 0 0 0 0 0 0 0 0 0 0 0 0 0 0 0 0 0 0 0 0 0 0 0 0 0 5548 5548 5548 5548 5548 5548 5640 5640 5640 5734 5734 5734 5734 5734 5734 5734 5734 5734 5832 5832 5832 5832 5832 5832 5832 5832 5832 5832 5832 5832 5832 5832 5832 5933 5933 5933 5933 6038 6146 6146 6259 6259 6259 6259 6259 6259 6259 6259 6259 6146 6146 6146 6146 6146 6146 6146 6146 6259 6259 6259 6259 6259 6259 6259 6259 6259 6259 6259 6259 6259 6259 6259 6259 6259 6259 6375 6375 6375 6375 6375 6375 6375 6375 6375 6375 6375 6375 6375 6375 6375 6375 6375 6375 6375 6375 6375 6375 6497 6497 6497 6497 6497 6497 6259 5933 5832 5734 5734 5734 5734 5734 5734 5734 6146 6146 6259 6375 6375 6497 6497 6497 6622 6622 6497 6497 6497 6622 6622 6622 6622 6622 6622 6622 6497 6497 3037 3010 3010 3010 3010 3010 3010 3037 3010 3010 3037 3037 3037 3037 3037 3037 3037 3037 3037 3037 3037 3037 3064 3064 3064 3064 3064 3064 3064 3064 3064 3064 3064 3064 3064 3064 3064 3092 3092 3092 3092 3092 3092 3092 3092 3092 3120 3120 3149 3149 3149 3149 3149 3149 3149 3149 3149 3149 3149 3149 3149 3149 3149 3149 3149 3149 3149 3149 3178 3178 3178 3178 3178 3178 3178 3178 3149 3149 3149 3149 3149 3149 3149 3149 3149 3149 3178 3178 3178 3178 3178 3178 3208 3208 3178 3178 3208 3208 3208 3208 3208 3208 3208 3208 3208 3208 3208 3238 3238 3238 3238 3269 3238 3238 3238 3269 7492 7492 7492 7492 7492 7332 7178 7178 7178 7178 7178 7332 7492 7492 7660 7492 7332 7030 6622 6622 6622 6622 6753 6889 6889 7178 7178 7492 7492 7492 7492 7492 7492 7660 7660 7660 7660 7660 7660 7660 7660 7660 7492 7492 7660 7660 7660 7660 7660 7492 7492 7332 7332 7332 7332 7332 7332 7332 7332 7492 7492 7492 7492 5132 5132 5132 5132 5132 5210 5210 5210 5210 5210 5210 5210 5132 5132 5132 5132 5132 5132 5132 5132 5132 5132 5132 5132 5132 5056 4983 4983 4911 4911 4911 4911 4911 4911 4911 4911 4911 4911 4842 4842 4842 4842 4842 4842 4911 4911 4911 4911 4911 4983 4983 4911 4911 4911 4911 4911 4911 4911 4911 4911 5056 5132 5132 2286 2286 2286 2286 2286 6622 6622 6622 6622 6622 6622 6622 6622 6622 6622 6622 6622 6622 6889 6889 6889 2256 2256 2256 2271 2271 2271 0 3653 3614 3614 3576 3576 3576 3576 3576 3576 3576 3576 3614 3614 3614 3576 3576 3576 3576 3576 3576 3539 3539 3503 3503 3503 3468 3468 3468 3468 3468 3468 3433 3433 3399 3399 3399 3333 3333 3365 3365 3365 3333 3333 3333 3333 3333 3333 3333 3333 3333 3333 3333 3333 3300 3300 3300 3300 3300 3300 3300 3300 3269 3269 3269 3269 3238 3238 3208 3208 3208 3238 3208 3208 3208 3238 3238 3238 3238 3238 3238 3238 3300 3333 3300 3300 3300 3300 3269 3178 3178 3208 3208 3208 3238 3238 3238 3238 3238 3269 3238 3238 3238 3269 3238 3238 3269 3269 3269 3269 3269 3269 3269 3300 3269 3238 3238 3269 3238 3208 3208 3208 3208 3208 3208 3208 3208 3208 3238 3269 3333 3365 3238 3208 3208 3178 3178 3178 3178 3178 3178 2908 2908 2883 2883 2859 2859 2883 2859 2859 2859 2859 2859 2859 2859 2859 2883 2883 2883 2883 2883 2883 2883 2908 2908 2908 2908 2908 2883 2859 2859 2859 2859 2859 2883 2859 2859 2883 2883 2883 2859 2859 2859 2859 2859 2859 2859 2859 2859 2859 2859 2859 2883 2883 2883 2908 0 0 0 0 0 0 0 0 0 0
0 0 0 0 0 0 0 0 0 0 0 0 0 0 0 0 0 0 0 0 0 0 0 0 0 0 0 0 0 0 5548 5548 5548 5548 5640 5640 5640 5640 5640 5734 5734 5734 5734 5734 5734 5734 5734 5734 5832 5832 5832 5832 5832 5832 5832 5832 5832 5832 5832 5832 5832 5832 5832 5832 5933 5933 5933 6038 6146 6146 6259 6259 6259 6259 6259 6259 6259 6259 6259 6146 6146 6146 6146 6146 6146 6146 6146 6259 6259 6259 6259 6259 6259 6259 6259 6259 6259 6259 6259 6259 6259 6259 6259 6259 6259 6375 6375 6375 6375 6375 6375 6375 6375 6375 6375 6375 6375 6375 6375 6375 6375 6375 6375 6375 6375 6497 6497 6497 6497 6497 6497 6497 6497 6259 5933 5832 5734 5734 5734 5734 5734 5832 5832 6146 6259 6259 6375 6375 6375 6497 6497 6622 6622 6497 6497 6497 6622 6622 6622 6622 6622 6622 6622 6497 6497 6497 3010 3010 3010 3010 3010 3010 3037 3037 3037 3037 3037 3037 3037 3037 3037 3037 3037 3037 3037 3037 3037 3064 3064 3064 3064 3064 3064 3092 3092 3064 3064 3064 3064 3064 3064 3064 3092 3092 3092 3092 3092 3092 3092 3120 3120 3120 3149 3149 3149 3149 3149 3149 3149 3149 3149 3149 3149 3149 3149 3149 3149 3149 3149 3149 3149 3149 3178 3178 3178 3178 3178 3178 3178 3178 3178 3149 3149 3149 3149 3149 3149 3149 3149 3149 3178 3178 3178 3178 3178 3178 3178 3208 3208 3178 3178 3178 3178 3208 3208 3208 3208 3208 3208 3208 3208 3208 3238 3238 3238 3238 3269 3238 3238 3238 3269 7332 7492 7492 7492 7332 7332 7332 7332 7332 7178 7178 7332 7492 7492 7492 7492 7492 7030 6753 6622 6622 6622 6622 6889 6889 7178 7332 7492 7492 7492 7492 7492 7492 7660 7660 7660 7660 7660 7660 7660 7660 7660 7492 7492 7660 7660 7660 7835 7660 7492 7492 7332 7332 7332 7332 7332 7332 7332 7332 7492 7492 7492 7492 5132 5132 5132 5210 5210 5210 5210 5210 5210 5210 5210 5210 5210 5132 5132 5132 5132 5132 5132 5132 5132 5132 5132 5132 5132 5056 4983 4983 4911 4911 4842 4842 4911 4911 4911 4842 4842 4911 4842 4842 4842 4842 4842 4842 4911 4911 4911 4911 4911 4983 4983 4911 4911 4911 4911 4911 4911 4911 2271 2271 2271 2271 2271 2271 2286 2286 2286 2286 2286 2286 6753 6753 6753 6622 6622 6622 6622 6622 6622 6753 2271 2271 2256 2256 2256 2256 2256 2271 2271 2271 0 3653 3614 3614 3614 3576 3576 3576 3576 3576 3576 3576 3614 3614 3614 3576 3576 3576 3576 3576 3576 3576 3539 3503 3503 3503 3503 3468 3468 3468 3468 3468 3433 3433 3399 3399 3399 3365 3365 3365 3365 3365 3333 3333 3333 3333 3333 3333 3333 3333 3300 3300 3333 3333 3300 3300 3300 3333 3300 3300 3300 3300 3269 3269 3269 3269 3238 3238 3208 3208 3208 3238 3208 3208 3208 3238 3238 3238 3238 3208 3208 3208 3238 3208 3208 3208 3208 3208 3208 3178 3178 3178 3178 3208 3208 3208 3208 3208 3208 3208 3208 3178 3178 3208 3208 3208 3208 3208 3208 3208 3208 3208 3238 3208 3208 3208 3208 3238 3238 3208 3208 3208 3208 3178 3178 3178 3178 3178 3208 3238 3238 3149 3149 3178 3178 3178 3178 3178 3149 3149 3178 2908 2908 2883 2883 2859 2859 2883 2859 2859 2859 2859 2859 2883 2883 2883 2883 2883 2883 2883 2908 2908 2908 2908 2908 2933 2933 2984 3208 3238 3269 2883 2883 2883 2883 2859 2859 2859 3614 2859 2859 2859 2859 2859 2859 2859 2859 2859 2859 2859 2859 2883 2883 2883 2883 2908 0 0 0 0 0 0 0 0 0 0
0 0 0 0 0 0 0 0 0 0 0 0 0 0 0 0 0 0 0 0 0 0 0 0 0 0 0 0 0 0 5640 5640 5640 5640 5640 5640 5640 5640 5640 5734 5734 5734 5832 5832 5832 5832 5832 5832 5832 5832 5933 5933 5832 5832 5832 5832 5832 5832 5832 5832 5832 5832 5832 5832 5933 5933 5933 6038 6146 6146 6259 6259 6259 6259 6259 6259 6259 6259 6259 6146 6146 6146 6146 6259 6146 6146 6146 6259 6259 6259 6259 6259 6259 6259 6259 6259 6259 6259 6259 6259 6259 6259 6259 6259 6375 6375 6375 6375 6375 6375 6375 6375 6375 6375 6375 6375 6375 6375 6375 6375 6375 6375 6375 6375 6375 6497 6497 6497 6497 6497 6497 6497 6497 6259 5933 5832 5734 5734 5734 5734 5832 5832 6146 6259 6259 6375 6375 6375 6375 6375 6497 6622 6622 6497 6497 6622 6622 6622 6622 6622 6622 6622 6622 6497 6497 6497 3010 3010 3010 3010 3037 3037 3037 3037 3037 3037 3037 3037 3037 3037 3037 3037 3064 3064 3037 3037 3064 3064 3064 3064 3064 3064 3064 3092 3092 3064 3064 3064 3064 3064 3064 3064 3064 3064 3092 3092 3092 3092 3120 3120 3120 3149 3149 3149 3149 3149 3149 3149 3149 3149 3149 3149 3149 3149 3149 3178 3149 3149 3149 3149 3178 3178 3178 3178 3178 3178 3178 3178 3178 3178 3178 3149 3149 3149 3149 3149 3149 3149 3178 3178 3178 3178 3178 3208 3208 3178 3178 3208 3208 3178 3178 3178 3178 3208 3208 3208 3208 3208 3208 3208 3238 3238 3238 3238 3238 3269 3269 3269 3269 3269 3269 7332 7492 7492 7492 7332 7332 7178 7178 7178 7178 7178 7332 7332 7492 7492 7332 7332 7030 7030 7030 6622 6622 6622 7030 7030 7178 7332 7492 7492 7492 7492 7492 7492 7660 7660 7660 7660 7660 7660 7660 7660 7660 7492 7492 7660 7660 7660 7835 7660 7492 7332 7178 7178 7178 7178 7178 7332 7332 7332 7492 7492 7492 5132 5132 5132 5210 5210 5210 5210 5210 5210 5210 5210 5210 5210 5210 5132 5132 5132 5132 5132 5132 5132 5132 5132 5132 5132 5132 5132 5132 4983 4911 4842 4842 4842 4842 4842 4842 4842 4842 4842 4842 4842 4842 4842 4842 4842 4842 4911 4911 4911 4911 4983 4983 4911 4911 4911 4911 2286 2286 2271 2271 2271 2271 2271 2271 2271 2271 2286 2286 2271 2271 2256 2256 2271 2271 2271 2271 2286 6622 6622 2256 2256 2256 2271 2256 2256 2256 2256 2256 2256 2256 2256 0 3614 3614 3614 3614 3576 3576 3576 3576 3576 3576 0 0 0 0 0 3576 3576 3576 3576 3576 3576 3576 3539 3503 3503 3503 3468 3468 3468 3468 3468 3433 3433 3433 3399 3399 3399 3399 3399 3399 3399 3365 3333 3333 3333 3333 3333 3333 3333 3300 3300 3333 3333 3300 3300 3300 3333 3300 3300 3300 3300 3269 3269 3269 3269 3238 3238 3238 3238 3238 3238 3238 3238 3238 3238 3238 3238 3238 3208 3208 3208 3208 3178 3178 3178 3178 3208 3208 3208 3178 3178 3178 3208 3208 3208 3208 3208 3208 3178 3178 3178 3178 3178 3178 3178 3178 3178 3178 3178 3178 3208 3208 3178 3178 3178 3178 3208 3208 3178 3178 3208 3178 3178 3178 3178 3178 3178 3178 3178 3178 3149 3149 3178 3178 3178 3178 3178 3149 3149 3178 2908 2908 2883 2883 2859 2859 2883 2859 2859 2859 2859 2883 2883 2883 2883 2908 2883 2883 2883 2908 2908 2908 2933 2933 2984 3149 3238 3238 3269 3300 3300 3365 3468 3503 3539 3539 3576 3614 3614 3614 2859 2859 2859 2859 2859 2859 2859 2859 2883 2883 2908 2908 2908 2908 2908 0 0 0 0 0 0 0 0 0 0
0 0 0 0 0 0 0 0 0 0 0 0 0 0 0 0 0 0 0 0 0 0 0 0 0 0 0 0 0 0 5640 5640 5734 5734 5734 5734 5734 5734 5734 5734 5734 5734 5832 5832 5832 5832 5832 5933 6038 6038 5933 5933 6038 5933 5933 5933 5933 5933 5933 5933 5933 5933 5933 5933 5933 5933 5933 6038 6038 6038 6146 6146 6259 6259 6259 6259 6259 6259 6259 6146 6146 6259 6259 6259 6259 6259 6259 6259 6259 6259 6259 6259 6259 6259 6259 6259 6259 6259 6259 6259 6259 6259 6259 6259 6375 6375 6375 6375 6375 6375 6375 6375 6259 6259 6259 6259 6259 6259 6259 6375 6375 6497 6375 6375 6497 6497 6497 6497 6497 6497 6622 6497 6497 6375 5933 5832 5734 5734 5734 5734 5832 5832 6146 6259 6375 6375 6375 6375 6375 6375 6497 6622 6622 6622 6622 6622 6622 6622 6622 6622 6622 6622 6622 6622 6622 6622 3010 3010 3010 3037 3037 3037 3037 3037 3037 3037 3037 3037 3037 3037 3037 3037 3064 3064 3064 3064 3064 3064 3064 3064 3064 3064 3064 3092 3092 3064 3064 3064 3064 3064 3064 3064 3064 3064 3092 3092 3092 3092 3120 3120 3120 3149 3149 3149 3149 3149 3149 3149 3149 3149 3149 3149 3149 3149 3149 3178 3149 3149 3149 3149 3178 3178 3178 3178 3178 3178 3178 3178 3178 3178 3178 3149 3149 3149 3149 3149 3149 3178 3178 3178 3178 3178 3178 3208 3208 3178 3178 3208 3208 3178 3178 3178 3178 3208 3208 3208 3208 3208 3208 3208 3238 3238 3238 3238 3238 3269 3269 3269 3269 3269 3300 7332 7492 7492 7492 7332 7332 7178 7178 7178 7178 7178 7178 7178 7332 7492 7332 7178 7030 7030 6889 6497 6497 6622 6497 6497 7332 7492 7492 7492 7660 7660 7660 7660 7660 7835 7835 7660 7660 7660 7660 7660 7660 7492 7492 7660 7835 7660 7660 7492 7332 7332 7178 7178 7178 7178 7178 7178 7178 7332 7332 7492 7492 5132 5132 5132 5210 5132 5132 5210 5210 5132 5132 5210 5210 2212 2212 2212 2212 2212 2212 2226 2226 5132 5132 5132 5210 5132 5132 5132 2271 2271 2271 2271 2271 2286 2271 2271 2271 2271 2271 2271 2271 2271 2271 2271 2256 2256 2256 2271 2271 2271 2286 2286 2286 2286 2286 2286 2286 2286 2286 2271 2271 2271 2271 2271 2271 2271 2271 2286 2286 2271 2271 2256 2256 2271 2271 2271 2271 2271 2271 2271 2271 2256 2256 2271 2271 2271 2271 2271 2256 2256 2256 0 3614 3614 3614 3614 3614 3576 3576 3576 3576 3614 3614 3576 0 0 0 0 3576 3576 3576 3576 3576 3576 3576 3539 3503 3503 3503 3468 3468 3468 3468 3468 3433 3433 3433 3399 3399 3399 3399 3399 3399 3399 3399 3365 3365 3365 3365 3365 3333 3333 3333 3333 3333 3333 3333 3300 3300 3333 3300 3300 3300 3300 3269 3269 3269 3269 3269 3238 3238 3238 3238 3238 3238 3238 3238 3238 3238 3238 3238 3208 3208 3208 3208 3178 3178 3178 3178 3178 3208 3178 3178 3178 3178 3208 3208 3208 3208 3208 3208 3178 3178 3178 3178 3178 3178 3178 3178 3178 3178 3178 3178 3208 3208 3178 3178 3178 3178 3178 3178 3178 3178 3178 3178 3178 3178 3178 3178 3178 3178 3178 3178 3149 3149 3178 3178 3178 3178 3178 3178 3178 3149 3010 2933 2908 2883 2883 2883 2883 2859 2859 2859 2859 2883 2883 2908 2908 2908 2883 2883 2883 2908 2908 2908 2933 2958 3037 3208 3238 3238 3269 3300 3333 3365 3468 3503 3539 3539 3576 3614 3614 3614 3692 2958 2933 2933 2883 2883 2883 2883 2883 2883 2908 2908 2908 2908 2908 0 0 0 0 0 0 0 0 0 0
0 0 0 0 0 0 0 0 0 0 0 0 0 0 0 0 0 0 0 0 0 0 0 0 0 0 0 0 0 0 5832 5832 5832 5832 5832 5832 5832 5832 5832 5832 5832 5832 5933 5933 5933 5933 5933 5933 6038 6038 6038 6038 6038 6038 5933 5933 5933 5933 6038 5933 5933 5933 5933 5933 5933 5933 5933 6038 6038 6038 6146 6146 6146 6146 6259 6259 6259 6259 6259 6146 6146 6146 6146 6259 6259 6259 6146 6146 6259 6259 6259 6259 6259 6259 6259 6259 6259 6259 6259 6259 6259 6259 6259 6259 6375 6375 6375 6375 6375 6375 6375 6375 6259 6259 6259 6259 6259 6259 6259 6375 6375 6497 6375 6375 6497 6497 6497 6497 6497 6497 6497 6497 6497 6497 5933 5832 5734 5734 5734 5734 5832 5832 6146 6259 6375 6375 6375 6375 6375 6375 6497 6622 6622 6622 6622 6622 6622 6622 6622 6622 6622 6622 6622 6622 6622 6622 3010 3010 3010 3010 3010 3037 3037 3037 3037 3037 3037 3037 3037 3037 3037 3064 3064 3064 3064 3064 3064 3064 3064 3064 3064 3064 3064 3092 3092 3064 3064 3064 3064 3064 3064 3064 3092 3092 3092 3092 3092 3092 3120 3120 3120 3120 3149 3149 3149 3149 3149 3149 3149 3149 3149 3149 3149 3149 3149 3178 3178 3149 3149 3149 3178 3178 3178 3178 3178 3178 3178 3178 3178 3178 3178 3149 3149 3149 3149 3149 3149 3178 3178 3178 3178 3178 3178 3178 3178 3178 3178 3208 3178 3178 3178 3178 3208 3208 3178 3178 3208 3208 3208 3208 3208 3208 3238 3238 3238 3269 3269 3269 3269 3269 7332 7332 7492 7492 7492 7332 7332 7332 7178 7178 7178 7178 7178 7178 7332 7492 7332 6889 6889 6889 6889 6497 6497 6622 6497 6497 6497 7492 7492 7492 7660 7660 7660 7660 7660 7660 7660 7660 7660 7660 7660 7492 7492 7660 7660 7660 7660 7660 7492 7492 7178 7178 7030 7030 7030 7030 7030 7178 7178 7332 7332 7492 7492 5132 5132 5210 5210 5132 5132 5210 5132 5132 5132 5210 2212 2212 2212 2212 2212 2212 2212 2226 2226 2226 2226 2241 2241 2256 2226 2226 2256 2256 2271 2271 2271 2271 2271 2256 2256 2256 2271 2271 2271 2271 2271 2271 2256 2256 2256 2271 2271 2271 2286 2286 2286 2286 2286 2286 2286 2271 2271 2271 2271 2271 2271 2271 2271 2271 2271 2271 2271 2271 2271 2256 2256 2271 2271 2271 2271 2271 2271 2256 2256 2256 2256 2271 2271 2271 2271 2271 2271 2271 2271 0 3614 3614 3614 3614 3614 3576 3576 3576 3614 3614 3576 3576 0 0 0 0 0 0 0 0 3576 3576 3576 3539 3503 3468 3468 3468 3468 3468 3433 3433 3433 3433 3433 3399 3399 3399 3399 3399 3399 3399 3399 3365 3365 3365 3365 3365 3365 3333 3333 3333 3333 3333 3333 3333 3333 3333 3333 3300 3300 3300 3269 3269 3269 3269 3269 3238 3238 3238 3238 3238 3238 3238 3238 3238 3238 3238 3238 3208 3208 3208 3208 3178 3178 3178 3178 3178 3208 3178 3178 3178 3178 3208 3208 3208 3208 3208 3208 3178 3178 3178 3178 3178 3178 3178 3178 3178 3178 3178 3178 3178 3178 3178 3178 3178 3178 3178 3178 3178 3178 3178 3178 3178 3178 3178 3178 3178 3178 3178 3178 3149 3149 3178 3178 3178 3178 3178 3178 3178 3149 3120 2933 2933 2883 2883 2883 2883 2883 2883 2883 2883 2883 2908 2908 2908 2908 2908 2908 2908 2908 2908 2908 2933 2933 3092 3238 3238 3269 3269 3300 3365 3433 3503 3539 3539 3576 3576 3614 3614 3692 3692 2958 2958 2958 2908 2883 2883 2908 2908 2908 2908 2908 2908 2908 2908 0 0 0 0 0 0 0 0 0 0
0 0 0 0 0 0 0 0 0 0 0 0 0 0 0 0 0 0 0 0 0 0 0 0 0 0 0 0 0 0 5832 5832 5832 5933 5933 5933 5933 5933 5933 5933 5933 5933 6038 6038 5933 5933 5933 6038 6146 6146 6038 6038 6146 6146 6146 6038 6038 6146 6146 6038 6038 5933 5933 5933 5933 5933 5933 6038 6038 6038 6146 6146 6146 6146 6259 6259 6259 6259 6259 6146 6146 6146 6146 6259 6259 6259 6146 6146 6259 6259 6259 6259 6259 6259 6259 6259 6259 6259 6259 6259 6259 6259 6259 6259 6375 6375 6375 6375 6375 6375 6375 6375 6375 6375 6375 6375 6375 6375 6375 6375 6375 6497 6497 6497 6497 6497 6497 6497 6497 6497 6497 6497 6497 6375 5933 5832 5734 5734 5734 5734 5832 5832 6146 6259 6375 6375 6375 6375 6375 6375 6497 6622 6622 6622 6622 6622 6622 6622 6622 6622 6622 6753 6753 6753 6753 6753 3010 3010 3010 3010 3010 3037 3037 3037 3037 3037 3037 3037 3037 3037 3064 3064 3064 3064 3064 3064 3064 3064 3064 3064 3064 3064 3064 3092 3092 3092 3064 3064 3064 3064 3064 3064 3064 3064 3092 3092 3092 3092 3120 3120 3120 3120 3120 3149 3149 3149 3149 3149 3149 3149 3149 3149 3149 3149 3149 3178 3178 3178 3149 3149 3178 3178 3178 3178 3178 3178 3178 3178 3178 3178 3178 3149 3149 3149 3149 3149 3149 3178 3178 3178 3178 3178 3178 3178 3178 3178 3178 3208 3178 3178 3178 3178 3208 3208 3178 3178 3208 3208 3208 3208 3208 3208 3238 3238 3238 3269 3269 3269 3269 3269 7332 7332 7492 7492 7492 7332 2143 2129 2129 2129 2129 2129 7178 7178 7492 7492 7332 6889 6889 6753 6753 6622 6622 6753 6753 6753 6889 6889 7660 7660 7660 7660 7660 7660 7660 7660 7660 7660 7660 7660 7660 7492 7492 7660 7660 7660 7492 7492 7492 7332 7178 7178 7030 7030 7030 7030 7030 7178 7178 7332 7332 7492 7492 5132 5132 5210 5132 5132 5132 5132 5132 5132 5132 2212 2212 2212 2212 2212 2212 2212 2212 2226 2226 2226 2226 2226 2241 2241 2226 2226 2241 2256 2271 2271 2271 2271 2256 2256 2256 2256 2271 2271 2271 2271 2271 2271 2271 2271 2271 2271 2271 2271 2271 2271 2271 2271 2271 2271 2271 2271 2271 2271 2271 2271 2271 2271 2271 2271 2271 2271 2271 2271 2271 2271 2271 2271 2271 2271 2271 2271 2271 2256 2256 2256 2256 2256 2256 2271 2271 2271 2271 2271 2271 0 3614 3614 3614 3614 3614 3614 3614 3614 3614 3614 3576 3576 0 0 0 0 0 0 0 0 4089 4089 4089 3539 3539 3468 3433 3433 3433 3433 3433 3433 3433 3433 3433 3433 3433 3399 3399 3433 3399 3399 3399 3399 3399 3399 3399 3399 3365 3365 3333 3333 3333 3333 3333 3333 3333 3333 3333 3300 3300 3300 3269 3269 3269 3269 3269 3269 3269 3269 3238 3238 3238 3238 3238 3238 3238 3238 3238 3238 3208 3208 3208 3208 3208 3208 3208 3208 3208 3178 3178 3178 3208 3208 3208 3208 3208 3208 3208 3208 3208 3178 3178 3178 3178 3178 3178 3178 3178 3178 3178 3178 3178 3178 3178 3178 3178 3178 3178 3178 3178 3178 3178 3178 3178 3178 3178 3178 3178 3178 3178 3178 3178 3178 3178 3178 3178 3178 3178 3178 3149 3120 2958 2933 2908 2883 2883 2883 2883 2883 2883 2883 2883 2908 2908 2908 2908 2908 2908 2908 2883 2883 2908 2908 2933 2933 3238 3238 3269 3269 3300 3365 3468 3503 3539 3539 3576 3576 3614 3653 2933 2933 2933 2958 2958 2908 2883 2883 2908 2908 2908 2908 2933 2933 2908 2908 0 0 0 0 0 0 0 0 0 0
0 0 0 0 0 0 0 0 0 0 0 0 0 0 0 0 0 0 0 0 0 0 0 0 0 0 0 0 0 0 5933 5933 5933 5933 5933 5933 6038 6038 6038 6038 6038 6146 6146 6146 6038 6038 6146 6146 6146 6146 6146 6146 6259 6259 6259 6146 6146 6259 6146 6146 6038 6038 6038 6038 6038 6038 6038 6038 6038 6038 6146 6146 6146 6146 6259 6259 6259 6259 6259 6146 6146 6146 6146 6259 6259 6259 6259 6259 6259 6259 6259 6259 6259 6259 6259 6259 6259 6259 6259 6259 6259 6259 6259 6259 6259 6375 6375 6375 6375 6375 6375 6497 6375 6375 6375 6375 6375 6375 6375 6375 6375 6497 6497 6497 6497 6497 6497 6497 6497 6497 6497 6497 6497 6375 5933 5832 5734 5734 5734 5734 5832 5832 6146 6259 6375 6375 6375 6375 6375 6375 6497 6622 6622 6622 6622 6622 6622 6622 6622 6622 6753 6622 6622 6622 6622 6753 6753 3010 3010 3010 3010 3010 3037 3037 3037 3037 3037 3037 3037 3037 3064 3064 3064 3064 3064 3064 3064 3064 3064 3064 3064 3064 3064 3092 3092 3092 3064 3064 3064 3064 3064 3064 3064 3064 3092 3092 3092 3092 3120 3120 3120 3120 3120 3149 3149 3149 3149 3149 3149 3149 3149 3149 3149 3149 3149 3178 3178 3178 3178 3178 3178 3178 3178 3178 3178 3178 3178 3178 3178 3178 3178 3149 3149 3149 3149 3149 3149 3178 3149 3149 3178 3178 3178 3178 3208 3178 3178 3208 3178 3178 3178 3178 3208 3208 3178 3178 3208 3208 3208 3208 3208 3208 3238 3238 3238 3269 3269 3269 3269 3269 3269 3269 2156 2129 2129 2129 2129 2129 2129 2129 2129 2129 2129 2143 2143 2184 2184 6753 6753 6753 6753 6622 6622 6753 6753 6753 6889 6889 8019 8019 8019 7660 7660 7660 7835 7835 7835 7835 7835 7660 7660 7835 7660 7660 7492 7492 7492 7492 7492 7332 7178 7178 7178 7178 7178 7178 7178 7178 7332 7332 7332 7492 7492 5132 5132 5210 5132 5132 5132 5132 5132 5132 5132 2212 2212 2212 2212 2212 2212 2212 2212 2226 2226 2226 2226 2226 2226 2241 2226 2226 2241 2256 2271 2271 2271 2271 2256 2256 2256 2256 2271 2271 2271 2271 2271 2271 2271 2271 2271 2271 2271 2271 2271 2271 2271 2271 2271 2271 2271 2271 2271 2271 2271 2271 2271 2271 2271 2271 2271 2271 2271 2271 2271 2271 2271 2271 2271 2271 2271 2271 2271 2256 2256 2256 2256 2256 2256 2271 2271 2271 2271 2271 3653 3653 3614 3614 3614 3614 3614 3614 3614 3614 3614 3614 3653 0 0 0 0 0 0 0 0 4139 4089 4089 4089 4089 4089 4139 3433 3399 3399 3433 3433 3433 3433 3399 3399 3433 3433 3399 3399 3433 3399 3399 3399 3399 3399 3365 3365 3399 3365 3365 3333 3333 3365 3333 3333 3333 3333 3333 3333 3300 3300 3300 3300 3269 3269 3269 3269 3269 3269 3269 3269 3269 3238 3238 3238 3238 3238 3238 3238 3238 3238 3208 3208 3208 3208 3208 3208 3208 3208 3178 3178 3178 3208 3208 3208 3208 3208 3208 3208 3208 3208 3178 3178 3178 3178 3178 3178 3178 3178 3178 3178 3178 3178 3178 3178 3178 3178 3178 3178 3178 3178 3178 3178 3178 3178 3178 3178 3208 3208 3208 3208 3208 3208 3208 3208 3208 3208 3178 3178 3178 3149 3149 2958 2958 2933 2908 2908 2908 2883 2883 2908 2908 2908 2908 2908 2908 2908 2908 2908 2908 2883 2883 2908 2908 2933 2933 2933 3238 3300 3333 3433 3468 3503 3539 3539 3539 3576 3576 3614 3653 2933 2933 2933 2958 2958 2908 2908 2908 2908 2908 2908 2908 2933 2933 2933 2933 0 0 0 0 0 0 0 0 0 0
0 0 0 0 0 0 0 0 0 0 0 0 0 0 0 0 0 0 0 0 0 0 0 0 0 0 0 0 0 0 5933 5933 5933 5933 6038 6038 6038 6038 6146 6146 6146 6146 6146 6259 6146 6146 6146 6259 6259 6259 6259 6259 6259 6259 6259 6259 6259 6259 6259 6146 6146 6038 6038 6038 6038 6038 6038 6038 6038 6146 6146 6146 6146 6259 6259 6259 6259 6259 6259 6146 6146 6146 6146 6259 6259 6259 6259 6259 6259 6259 6259 6259 6259 6259 6259 6259 6259 6259 6259 6259 6259 6259 6259 6259 6259 6375 6375 6375 6375 6375 6375 6375 6375 6375 6375 6375 6375 6375 6375 6375 6375 6497 6497 6497 6497 6497 6497 6497 6497 6497 6497 6497 6497 6375 5933 5832 5734 5734 5734 5734 5832 5832 6146 6146 6259 6259 6259 6259 6259 6259 6375 6622 6622 6622 6622 6622 6622 6622 6622 6622 6753 6622 6622 6622 6622 6622 6622 3010 3010 3010 3010 3010 3037 3037 3037 3037 3037 3037 3064 3064 3064 3064 3064 3064 3064 3064 3064 3064 3064 3064 3064 3064 3064 3092 3092 3092 3092 3064 3064 3092 3092 3092 3092 3092 3092 3092 3120 3120 3120 3120 3120 3149 3149 3149 3149 3149 3149 3149 3149 3149 3149 3149 3149 3149 3149 3178 3178 3178 3178 3178 3178 3178 3178 3178 3178 3178 3178 3178 3178 3178 3178 3149 3149 3149 3149 3149 3149 3178 3149 3149 3178 3178 3208 3208 3208 3178 3178 3208 2116 2116 2129 3208 3208 3208 3178 3178 3208 3208 3178 3178 3208 3238 3238 3238 3238 3269 3269 3269 3269 3269 3269 2170 2156 2156 2129 2129 2129 2129 2129 2129 2129 2129 2129 2143 2143 2170 2184 2184 6753 6753 6622 6622 6622 6622 6753 6753 6889 0 0 0 0 0 7660 7660 7835 7835 7835 7835 0 7660 7660 0 0 7492 7492 7492 7492 7492 7492 7332 7332 7332 7332 7332 7332 7178 7178 7178 7332 7332 7492 7660 7660 5210 5210 5210 5132 5132 5132 5210 5210 5210 5210 2212 2212 2212 2212 2212 2212 2212 2212 2226 2226 2226 2226 2226 2226 2226 2226 2226 2241 2241 2256 2271 2271 2271 2271 2271 2256 2256 2271 2271 2271 2271 2271 2271 2271 2271 2271 2271 2271 2271 2271 2271 2271 2271 2271 2271 2271 2271 2271 2271 2271 2271 2271 2271 2271 2271 2271 2271 2271 2271 2271 2271 2271 2271 2271 2271 2271 2271 2271 2271 2271 2271 2271 2271 2271 2271 2271 2271 2271 2271 3653 3653 3653 3614 3614 3614 3614 3614 3614 3614 3614 3653 3653 0 0 0 0 0 0 0 0 4089 4089 4089 4089 4089 4089 4139 4139 3399 3399 3433 3433 3433 3333 3333 3333 3433 3333 3333 3333 3433 3399 3399 3399 3399 3399 3365 3365 3399 3365 3365 3365 3333 3333 3333 3333 3333 3333 3333 3300 3300 3300 3300 3269 3269 3269 3269 3269 3269 3269 3269 3269 3269 3269 3269 3269 3269 3238 3238 3238 3238 3238 3238 3238 3238 3208 3208 3208 3208 3208 3208 3208 3208 3208 3208 3208 3208 3208 3208 3178 3178 3178 3178 3178 3178 3178 3178 3178 3178 3178 3178 3178 3178 3178 3178 3178 3178 3178 3178 3178 3178 3178 3178 3178 3178 3178 3208 3208 3208 3208 3208 3208 3208 3208 3208 3208 3208 3208 3208 3178 3178 3149 3120 2958 2958 2933 2933 2933 2933 2908 2908 2908 2908 2908 2908 2908 2908 2908 2908 2908 2908 2883 2883 2883 2908 2908 2908 2908 3238 3333 3433 3503 3503 3539 3539 3539 3576 3576 3576 3614 3653 2958 2958 2958 2933 2933 2933 2933 2933 2933 2933 2933 2933 2933 2933 2933 2933 0 0 0 0 0 0 0 0 0 0
0 0 0 0 0 0 0 0 0 0 0 0 0 0 0 0 0 0 0 0 0 0 0 0 0 0 0 0 0 0 5933 5933 5933 6038 6038 6038 6146 6146 6146 6146 6146 6146 6146 6259 6146 6146 6259 6259 6259 6259 6259 6259 6259 6259 6259 6259 6259 6259 6259 6146 6146 6038 6038 6038 6038 6038 6038 6038 6038 6038 6146 6146 6146 6259 6259 6259 6259 6259 6259 6259 6146 6146 6259 6259 6259 6259 6259 6259 6259 6259 6259 6259 6259 6259 6259 6259 6259 6259 6259 6259 6259 6259 6259 6259 6259 6259 6259 6375 6259 6259 6375 6375 6375 6375 6375 6375 6375 6375 6375 6375 6375 6497 6497 6497 6497 6622 6622 6497 6497 6497 6497 6497 6375 6259 6038 5832 5734 5734 5734 5734 5734 5734 5832 6146 6259 6259 6259 6259 6259 6259 6375 6622 6622 6622 6622 6622 6622 6622 6622 6622 6753 6622 6622 6622 6622 6622 3037 3010 3010 3010 3037 3037 3037 3037 3037 3037 3037 3064 3064 3064 3064 3064 3064 3064 3064 3064 3064 3064 3064 3064 3092 3092 3092 3092 3092 3092 3092 3092 3092 3092 3092 3092 3092 3092 3092 3092 3120 3120 3120 3120 3120 3120 3149 3149 3149 3149 3149 3149 3149 3149 3149 3149 3149 3149 3149 3178 3178 3178 3178 3178 3178 3178 3178 3178 3178 3178 3178 3178 3178 3178 3178 3149 3149 3149 3149 3149 3149 3149 3149 3149 3178 3178 2103 2103 2116 2116 2116 2116 2116 2116 2116 2129 2129 3208 3178 3178 3208 3178 3178 3178 3208 3238 3238 3238 3269 3269 3269 3269 3269 2170 2170 2170 2156 2156 2143 2143 2143 2143 2143 2143 2143 2143 2143 2143 2156 2170 2170 2184 6622 6497 6497 6497 6497 6622 6753 6753 6889 6889 0 0 0 0 0 8019 8019 0 0 0 0 0 0 0 0 7492 7492 7492 7492 7492 7492 7332 7332 7178 7178 7332 7332 7178 7178 7178 7332 7332 7492 7660 5210 5210 5210 5210 5132 5132 5210 5210 5210 5210 5210 2212 2212 2212 2212 2212 2212 2212 2212 2226 2226 2226 2226 2226 2226 2226 2226 2226 2241 2241 2256 2256 2271 2271 2271 2271 2271 2271 2271 2271 2271 2271 2271 2271 2271 2271 2271 2271 2271 2271 2271 2271 2271 2271 2271 2271 2271 2271 2271 2271 2271 2271 2286 2286 2286 2286 2286 2286 2271 2271 2271 2271 2271 2271 2271 2271 2271 2271 2271 2271 2271 2271 2271 2271 2271 2271 2271 2271 2271 3576 3614 3653 3653 3614 3614 3614 3614 3614 3614 3614 3653 3653 3692 0 0 0 0 0 0 0 0 4089 4089 4089 4089 4089 4139 4139 4139 4139 4139 3433 3433 3433 3333 3333 3333 3333 3333 3333 3333 3433 3399 3399 3365 3365 3365 3365 3365 3365 3365 3365 3333 3300 3300 3300 3300 3300 3333 3300 3300 3300 3300 3300 3269 3269 3269 3269 3269 3269 3269 3269 3269 3269 3269 3269 3269 3269 3269 3269 3238 3238 3238 3238 3238 3238 3208 3208 3208 3208 3208 3208 3208 3208 3208 3208 3208 3208 3208 3208 3178 3178 3178 3178 3178 3178 3178 3178 3178 3178 3178 3178 3178 3178 3178 3178 3178 3178 3178 3178 3178 3178 3178 3178 3178 3208 3208 3208 3208 3208 3208 3208 3208 3208 3208 3208 3208 3208 3208 3208 3208 3208 3149 2958 2958 2958 2933 2933 2933 2933 2908 2908 2908 2908 2908 2908 2908 2908 2908 2908 2908 2908 2883 2883 2883 2908 2908 2908 2908 2883 2883 3503 3539 3539 3539 3576 3576 3576 3576 3614 2984 2984 2958 2933 2933 2933 2933 2933 2933 2933 2933 2933 2908 2908 2933 2933 2933 2933 0 0 0 0 0 0 0 0 0 0
0 0 0 0 0 0 0 0 0 0 0 0 0 0 0 0 0 0 0 0 0 0 0 0 0 0 0 0 0 0 6038 5933 5933 6038 6038 6038 6146 6146 6146 6146 6146 6146 6146 6259 6146 6146 6259 6259 6259 6259 6259 6259 6259 6259 6259 6259 6259 6259 6259 6259 6146 6038 6038 6038 5933 5933 5933 6038 6038 6038 6146 6146 6146 6259 6259 6259 6259 6259 6259 6259 6259 6259 6259 6259 6259 6259 6259 6259 6259 6259 6259 6259 6259 6259 6259 6259 6259 6259 6259 6259 6259 6259 6259 6259 6259 6259 6259 6259 6259 6259 6375 6375 6375 6375 6375 6375 6375 6375 6375 6375 6375 6497 6497 6622 6622 6622 6622 6497 6497 6375 6375 6375 6259 6146 5933 5832 5734 5734 5734 5640 5640 5734 5734 5933 6038 6146 6146 6146 6146 6146 6259 6375 6622 6622 6622 6622 6622 6622 6622 6622 6753 6622 6622 6622 6622 6622 3037 3037 3037 3037 3037 3037 3037 3037 3037 3037 3037 3064 3064 3064 3064 3064 3064 3064 3064 3064 3064 3064 3092 3092 3092 3092 3092 3092 3092 3092 3092 3092 3092 3092 3092 3092 3092 3092 3092 3092 3120 3120 3120 3120 3120 3120 3149 3149 3149 3149 3149 3149 3149 3149 3149 3149 3149 3149 3178 3178 3178 3178 3178 3178 3178 3178 3178 3178 3178 3178 3178 3178 3208 3208 3208 2129 2129 3149 3149 3149 3149 3149 3149 3149 3178 2116 2103 2103 2116 2116 2116 2116 2116 2116 2116 2129 2129 2129 2129 3178 3208 3178 3149 3149 3178 3238 3238 2156 2156 2156 2156 2170 2156 2156 2143 2143 2143 2143 2156 2156 2143 2143 2143 2143 2143 2143 2143 2143 2156 2156 2156 2184 6622 6497 6497 6497 6497 6622 6753 6753 6753 6753 0 0 0 0 0 0 0 0 0 0 0 0 0 0 0 0 0 0 7332 7332 7332 7332 7332 7178 7178 7332 7332 7178 7178 7178 7332 7332 7492 7492 5210 5210 5210 5210 5210 5210 5210 5210 5210 5210 5210 2212 2212 2212 2212 2212 2212 2212 2212 2226 2226 2226 2226 2226 2226 2226 2226 2226 2241 2241 2256 2256 2256 2271 2271 2271 2271 2271 2271 2271 2271 2271 2271 2271 2271 2271 2271 2271 2271 2271 2271 2271 2271 2271 2271 2271 2271 2271 2271 2271 2271 2286 2286 2286 2286 2286 2286 2286 2286 2286 2286 2271 2271 2271 2271 2271 2271 2271 2271 2271 2271 2271 2271 2271 2271 2271 2271 2271 2286 3576 3576 3614 3614 3614 3614 3614 3614 3614 3614 3653 3653 3653 3732 0 0 0 0 0 0 0 0 4089 4089 4089 4139 4139 4139 4139 4139 4139 4139 4139 4139 4139 4139 4139 0 0 0 0 0 0 0 0 3365 3365 3333 3333 3333 3333 3333 3333 3300 3269 3269 3300 3300 3300 3300 3300 3300 3300 3300 3300 3269 3269 3269 3269 3269 3269 3269 3269 3269 3269 3269 3269 3269 3269 3269 3269 3269 3269 3269 3269 3269 3238 3238 3238 3238 3238 3238 3238 3238 3238 3208 3208 3208 3208 3208 3208 3208 3208 3208 3208 3178 3178 3178 3208 3208 3208 3208 3208 3208 3208 3208 3178 3178 3178 3178 3178 3178 3178 3178 3178 3178 3208 3208 3208 3208 3208 3208 3208 3208 3208 3208 3238 3238 3238 3208 3208 3178 3178 2958 2958 2958 2933 2933 2933 2933 2933 2908 2908 2908 2908 2908 2908 2908 2908 2908 2908 2908 2908 2883 2883 2883 2883 2908 2908 2908 2883 2883 2883 3539 3539 3576 3576 3576 3576 3576 2933 2933 2958 2933 2933 2933 2933 2933 2933 2933 2933 2933 2933 2908 2908 2933 2933 2933 2933 0 0 0 0 0 0 0 0 0 0
0 0 0 0 0 0 0 0 0 0 0 0 0 0 0 0 0 0 0 0 0 0 0 0 0 0 0 0 0 0 6038 5933 5933 6038 6038 6038 6146 6146 6146 6146 6146 6146 6146 6259 6146 6146 6259 6259 6259 6259 6259 6259 6375 6375 6259 6259 6259 6259 6259 6259 6146 6038 6038 6038 5933 5933 5933 6038 6038 6038 6146 6146 6146 6259 6259 6259 6259 6259 6259 6259 6259 6259 6259 6259 6259 6259 6259 6259 6259 6259 6259 6259 6259 6259 6259 6259 6259 6259 6259 6259 6259 6259 6259 6259 6259 6259 6259 6259 6259 6259 6259 6375 6497 6497 6497 6497 6497 6497 6375 6375 6497 6497 6497 6497 6497 6622 6497 6497 6375 6375 6259 6259 6146 6038 5933 5832 5734 5734 5734 5640 5640 5734 5734 5933 6038 6146 6146 6146 6146 6146 6259 6375 6622 6622 6622 6622 6622 6622 6622 6622 6753 6753 6753 6753 6753 3010 3010 3037 3037 3037 3037 3037 3037 3037 3037 3037 3037 3064 3064 3064 3064 3064 3064 3064 3064 3064 3092 3092 3092 3092 3092 3092 3120 3120 3120 3092 3092 3092 3092 3092 3092 3092 3092 3120 3120 3120 3120 3120 3120 3120 3120 3120 3149 3149 3149 3149 3149 3149 3149 3149 3149 3149 3149 3149 3178 3178 3178 3178 3178 3178 3178 3178 3178 3178 3178 3178 2116 2116 2116 2090 2090 2116 2116 2129 2116 2116 2103 2103 2103 2103 2103 2103 2103 2103 2116 2116 2116 2116 2116 2116 2116 2129 2129 2129 2129 2129 2143 2156 2143 2143 2143 2143 2143 2143 2156 2156 2156 2156 2143 2143 2143 2143 2143 2143 2156 2156 2143 2143 2143 2143 2143 2143 2143 2156 2156 2143 2143 2116 2116 6497 6497 6497 6497 6622 6622 6753 6753 6753 0 0 0 0 0 0 0 0 0 0 0 0 0 0 0 0 0 0 7332 7332 7332 7332 7332 7178 7178 7332 7332 7332 7332 7332 7332 7332 7332 5210 5210 5210 5210 5210 5210 5210 5210 5210 5210 5210 5210 2212 2212 2212 2212 2212 2212 2212 2212 2226 2226 2226 2226 2226 2226 2226 2226 2226 2241 2241 2256 2256 2256 2271 2271 2271 2271 2271 2271 2271 2271 2271 2271 2271 2271 2271 2271 2271 2271 2271 2271 2271 2271 2271 2271 2271 2271 2271 2271 2271 2271 2286 2286 2286 2286 2286 2286 2286 2286 2286 2286 2271 2271 2271 2271 2271 2271 2271 2271 2271 2271 2271 2271 2271 2271 2271 2271 2271 2286 3576 3576 3614 3614 3653 3653 3653 3614 3614 3653 3653 3653 3653 0 0 0 0 0 0 0 0 0 4139 4139 4139 4139 4139 4139 4139 4139 4139 4139 4139 4139 4139 4139 4139 0 0 0 0 0 0 0 0 0 3365 3333 3333 3333 3333 3333 3333 3300 3269 3269 3269 3300 3300 3300 3300 3269 3269 3269 3269 3269 3269 3269 3269 3269 3269 3269 3269 3269 3269 3269 3238 3238 3269 3269 3269 3269 3269 3269 3269 3269 3269 3269 3238 3238 3238 3269 3238 3238 3238 3208 3208 3208 3208 3208 3208 3208 3208 3208 3208 3208 3208 3208 3208 3208 3208 3208 3208 3178 3178 3208 3208 3208 3208 3208 3178 3178 3178 3178 3178 3178 3208 3208 3208 3238 3238 3208 3208 3208 3208 3208 3208 3208 3178 3178 3178 3149 3120 2958 2958 2958 2933 2933 2933 2933 2933 2908 2908 2908 2908 2908 2908 2908 2908 2908 2908 2908 2908 2908 2908 2883 2883 2908 2908 2908 2883 2883 2883 2883 3576 3576 3576 3614 3614 2908 2908 2933 2958 2933 2933 2933 2933 2933 2933 2933 2933 2933 2933 3010 3010 2958 2933 2933 2933 0 0 0 0 0 0 0 0 0 0
0 0 0 0 0 0 0 0 0 0 0 0 0 0 0 0 0 0 0 0 0 0 0 0 0 0 0 0 0 0 5933 5933 5933 6038 6038 6038 6146 6146 6146 6146 6146 6146 6146 6146 6146 6146 6146 6259 6259 6259 6259 6259 6259 6259 6259 6259 6259 6259 6259 6259 6146 6038 6038 6038 5933 5933 6038 6038 6038 6038 6146 6146 6146 6146 6259 6259 6259 6259 6259 6259 6259 6259 6259 6259 6259 6259 6259 6259 6259 6259 6259 6259 6259 6259 6259 6259 6259 6259 6259 6259 6375 6375 6259 6259 6259 6146 6146 6146 6146 6146 6259 6259 6497 6497 6497 6497 6497 6497 6497 6375 6375 6375 6375 6497 6497 6622 6497 6375 6375 6259 6259 6259 6146 6038 5933 5832 5734 5734 5640 5640 5734 5734 5734 5933 6038 6146 6146 6146 6146 6146 6259 6375 6622 6622 6622 6622 6622 6622 6622 6622 6753 6889 6889 6889 3010 3010 3010 3037 3037 3037 3037 3037 3037 3037 3037 3037 3064 3064 3064 3064 3064 3064 3064 3064 3064 3092 3092 3092 3092 3092 3120 3120 3120 3120 3120 3120 3120 3092 3092 3092 3092 3092 3092 3120 3120 3120 3120 3120 3149 3149 3149 3149 3149 3178 3149 3149 3149 3149 3149 3178 3178 3178 3178 3178 3178 3178 3178 3178 3178 3149 3149 3149 3178 3178 3178 2116 2116 2103 2103 2090 2090 2116 2116 2129 2116 2116 2103 2103 2103 2103 2103 2103 2116 2116 2116 2116 2116 2129 2116 2116 2129 2129 2129 2129 2129 2129 2129 2143 2129 2129 2129 2129 2129 2143 2143 2143 2143 2143 2143 2143 2143 2143 2143 2143 2156 2156 2143 2143 2143 2156 2156 2143 2143 2156 2156 2143 2143 2116 2116 2116 6375 6375 6497 6622 6622 6753 6753 0 0 0 0 0 0 0 0 0 0 0 0 0 0 0 0 0 0 0 0 0 0 0 0 0 7332 6889 6889 7332 0 7332 7332 7332 7332 5210 5210 5210 5210 5210 5210 5210 5210 5210 5210 5210 5210 2212 2212 2212 2212 2212 2226 2212 2212 2226 2226 2226 2226 2226 2226 2226 2226 2241 2241 2241 2256 2256 2256 2271 2271 2271 2271 2271 2271 2271 2271 2271 2271 2271 2271 2271 2271 2271 2271 2271 2271 2271 2271 2271 2271 2271 2271 2271 2271 2286 2286 2286 2286 2286 2286 2286 2286 2286 2286 2286 2286 2271 2271 2271 2271 2271 2271 2271 2271 2256 2256 2271 2271 2271 2271 2271 2271 2286 2286 2286 2286 3653 3653 3653 3653 3653 3614 3614 3614 3653 3653 3692 0 0 0 0 0 0 0 0 0 4139 4139 4139 4139 4139 4139 4139 4139 4139 4139 4139 4139 4139 4139 4139 0 0 0 0 0 0 0 0 0 5460 5460 5460 5374 5374 5374 5374 4295 4295 3269 3269 3300 3300 3300 4295 3269 3269 3238 3238 3208 3208 3269 3269 3269 3269 3269 3269 3269 3269 3269 3238 3238 3269 3269 3269 3269 3269 3269 3269 3269 3269 3269 3269 3269 3269 3269 3269 3269 3238 3238 3238 3238 3238 3238 3208 3208 3208 3208 3208 3208 3208 3208 3208 3208 3208 3208 3208 3178 3178 3178 3208 3208 3178 3178 3208 3208 3208 3208 3208 3208 3208 3208 3208 3238 3238 3238 3238 3208 3208 3208 3208 3208 3178 3178 3178 3120 3120 2958 2958 2958 2933 2933 2933 2933 2933 2908 2908 2908 2908 2908 2908 2908 2908 2908 2908 2908 2908 2908 2908 2908 2908 2908 2908 2908 2883 2883 2883 2883 3576 3576 3576 3614 3614 2908 2908 2933 2933 2933 2933 2933 2933 2933 2958 2933 2933 2933 3010 3010 2958 2958 2984 2958 2958 0 0 0 0 0 0 0 0 0 0
0 0 0 0 0 0 0 0 0 0 0 0 0 0 0 0 0 0 0 0 0 0 0 0 0 0 0 0 0 0 5933 5933 5933 6038 6038 6038 6146 6146 6146 6146 6146 6146 6146 6146 6146 6146 6146 6259 6259 6259 6259 6259 6259 6259 6259 6259 6259 6259 6259 6259 6146 6038 6038 6038 5933 5933 6038 6038 6038 6038 6146 6146 6146 6146 6146 6259 6259 6259 6259 6259 6259 6259 6259 6259 6259 6259 6259 6259 6259 6259 6259 6259 6259 6259 6259 6375 6375 6259 6259 6375 6375 6375 6259 6259 6259 6146 6146 6146 6146 6146 6146 6259 6375 6497 6497 6497 6497 6497 6497 6375 6375 6375 6375 6375 6497 6497 6497 6375 6259 6259 6259 6146 6146 6038 5933 5933 5734 5734 5640 5640 5640 5734 5734 5933 6038 6146 6146 6146 6146 6146 6146 6259 6375 6622 6622 6622 6622 6622 6622 6622 6753 6753 2958 3010 3010 3010 3037 3037 3037 3037 3037 3037 3037 3037 3037 3037 3064 3064 3064 3064 3064 3064 3064 3064 3092 3092 3092 3092 3092 3092 3092 3120 3120 3120 3092 3092 3120 3092 3092 3092 3092 3092 3092 3120 3120 3120 3120 3149 3149 3149 2065 2065 2078 2078 2078 2078 2078 2078 2078 3178 3178 3178 3178 2065 2065 2078 2090 2078 2078 2090 2090 2103 2103 2103 2103 2103 2116 2103 2103 2103 2103 2103 2116 2116 2116 2116 2116 2103 2103 2103 2103 2103 2116 2116 2116 2116 2129 2129 2129 2129 2129 2129 2129 2129 2129 2129 2129 2129 2129 2129 2129 2129 2129 2143 2143 2143 2143 2143 2143 2143 2143 2143 2143 2143 2143 2143 2143 2143 2143 2143 2156 2156 2143 2143 2143 2143 2143 2103 2103 2103 6375 6375 6497 6497 6622 6753 6753 0 0 0 0 0 0 0 0 0 0 0 0 0 0 0 0 0 0 0 0 0 0 0 0 0 0 6889 6889 0 0 7332 7332 7332 7332 5210 5210 5210 5210 5210 5210 5210 5210 5291 5291 5291 0 2212 2212 2212 2212 2212 2226 2226 2226 2226 2226 2226 2226 2226 2226 2226 2226 2241 2241 2241 2256 2256 2271 2256 2256 2256 2256 2271 2271 2271 2271 2271 2271 2271 2271 2271 2271 2271 2271 2271 2271 2271 2271 2271 2271 2271 2271 2271 2271 2286 2271 2271 2286 2286 2286 2286 2286 2286 2286 2286 2286 2271 2271 2271 2271 2271 2271 2271 2286 2256 2256 2271 2286 2286 2286 2286 2286 2286 2286 2286 2301 0 3732 3732 3653 3653 3653 3614 3614 3653 3653 0 0 0 0 0 0 0 0 0 0 0 4139 4139 4139 4139 4139 4139 4139 4139 4139 4139 4139 4139 4139 4139 0 0 0 0 0 0 0 0 0 5460 5460 5460 5374 5374 5374 5374 4295 4295 4295 4295 4295 4295 4295 4295 4295 4295 3238 3238 3208 3208 3269 3269 3269 3269 3269 3269 3269 3269 3269 3269 3269 3269 3269 3269 3269 3269 3269 3300 3300 3300 3300 3300 3300 3300 3333 3269 3238 3238 3238 3238 3238 3238 3238 3208 3208 3208 3208 3208 3208 3208 3208 3208 3208 3208 3178 3178 3178 3178 3178 3178 3178 3178 3178 3208 3208 3208 3208 3208 3208 3208 3208 3208 3208 3208 3208 3208 3208 3208 3178 3178 3178 3149 3149 3120 3064 2984 2958 2958 2958 2933 2933 2933 2933 2933 2908 2908 2908 2908 2908 2908 2908 2908 2908 2908 2908 2908 2908 2908 2908 2908 2908 2908 2908 2883 2883 2883 2883 3614 3614 3614 3614 3614 2908 2908 2933 2933 2933 2933 2933 2908 2908 2958 2958 2958 2984 2984 2984 2958 2958 2958 2958 2958 0 0 0 0 0 0 0 0 0 0
0 0 0 0 0 0 0 0 0 0 0 0 0 0 0 0 0 0 0 0 0 0 0 0 0 0 0 0 0 0 5933 5933 5933 6038 6038 6038 6038 6038 6038 6038 6038 6038 6038 6038 6038 6038 6038 6146 6146 6146 6146 6259 6259 6259 6259 6259 6259 6146 6146 6146 6146 6038 6038 5933 5933 5933 5933 6038 6038 6038 6038 6146 6146 6146 6146 6259 6259 6259 6259 6259 6259 6259 6259 6259 6259 6259 6146 6146 6146 6259 6259 6259 6259 6259 6259 6375 6375 6375 6375 6375 6375 6497 6375 6259 6259 6146 6146 6146 6146 6146 6146 6259 6259 6375 6622 6622 6497 6497 6497 6375 6375 6375 6375 6375 6497 6497 6375 6259 6259 6146 6146 6146 6038 6038 5933 5832 5734 5734 5640 5640 5640 5734 5734 5933 6038 6146 6146 6146 6146 6146 6146 6259 6375 6622 6622 6622 6622 6622 6622 2958 2958 2958 2958 2958 2984 2984 3010 3037 3037 3037 3037 3037 3037 3037 3037 3064 3064 3064 3064 3064 3064 3092 3092 3064 3064 3092 3092 3092 3092 3092 3092 3120 3120 3120 3092 3092 3120 3092 3092 3092 3092 3092 3092 3092 3120 3120 3149 3149 3149 2065 2065 2065 2078 2065 2065 2078 2078 2078 2078 2078 2078 2078 2065 2065 2065 2078 2078 2078 2078 2090 2090 2103 2103 2090 2090 2103 2116 2103 2103 2103 2103 2103 2116 2116 2116 2116 2116 2116 2116 2116 2116 2116 2116 2116 2116 2116 2129 2129 2129 2129 2129 2129 2129 2129 2129 2129 2129 2129 2129 2129 2129 2129 2129 2129 2129 2129 2129 2129 2129 2129 2143 2143 2143 2143 2143 2143 2143 2143 2143 2143 2156 2156 2143 2143 2143 2116 2078 2078 2078 2078 6497 6497 6497 6497 6622 6622 6753 0 0 0 0 6375 6375 0 0 0 0 0 0 0 0 0 0 0 0 0 0 0 0 0 0 0 0 0 0 0 0 0 0 0 0 0 5210 5210 5210 5291 5210 5210 5291 5291 5291 5291 0 2212 2212 2212 2226 2226 2226 2226 2226 2226 2226 2226 2226 2226 2226 2226 2226 2241 2241 2241 2256 2256 2256 2256 2256 2256 2256 2271 2271 2271 2271 2271 2271 2271 2271 2271 2271 2271 2271 2271 2271 2271 2271 2271 2271 2271 2271 2286 2286 2286 2271 2271 2286 2286 2286 2286 2286 2286 2286 2286 2286 2271 2271 2271 2271 2271 2271 2271 2286 2286 2286 2286 2286 2271 2271 2286 2286 2286 2286 2301 0 0 0 3732 3732 3692 3653 3653 3653 3732 0 0 0 0 0 0 0 0 0 0 0 0 4139 4139 4139 4139 4139 4139 4139 4139 4139 4139 4139 0 0 0 0 0 0 0 0 0 0 0 5640 5460 5460 5460 5460 5460 5460 5460 4241 4241 4241 4295 4295 4295 4295 4295 4295 4295 4295 4295 3208 3208 3238 3269 4983 5056 5056 5056 5056 5056 5056 3269 3269 3269 3300 3269 3269 3300 3300 3300 3333 3333 3333 3503 3503 3503 3503 3300 3238 3238 3269 3269 3269 3269 3238 3208 3208 3178 3178 3208 3178 3178 3178 3178 3178 3178 3178 3178 3178 3178 3178 3178 3178 3178 3178 3208 3208 3208 3208 3208 3208 3208 3208 3208 3208 3208 3208 3208 3178 3178 3149 3149 3120 3092 3092 2984 2984 2958 2958 2958 2958 2958 2933 2933 2933 2933 2908 2908 2908 2908 2908 2908 2908 2933 2933 2908 2908 2933 2933 2908 2908 2908 2908 2908 2908 2883 2883 2883 2883 3614 3614 3653 3653 3653 2908 2908 2933 2933 2933 2883 2883 2883 2883 0 2883 0 3010 2984 2984 2984 2984 2958 2958 2958 0 0 0 0 0 0 0 0 0 0
0 0 0 0 0 0 0 0 0 0 0 0 0 0 0 0 0 0 0 0 0 0 0 0 0 0 0 0 0 0 5933 5933 5933 6038 6038 6038 6038 6038 6038 6038 6038 6038 6038 6038 6038 6038 6038 6038 6146 6146 6146 6146 6146 6146 6146 6146 6259 6038 6038 6038 6038 5933 5933 5933 5933 5933 5933 6038 5933 5933 6038 6038 6038 6146 6146 6259 6259 6259 6259 6259 6259 6259 6259 6259 6259 6146 6146 6146 6146 6146 6146 6146 6146 6146 6146 6259 6259 6375 6375 6497 6497 6497 6375 6259 6146 6146 6146 6146 6146 6146 6146 6146 6259 6375 6622 6622 6497 6497 6622 6375 6375 6375 6375 6375 6497 6497 6146 6146 6146 6146 6146 6146 6038 6038 5933 5832 5734 5734 5640 5640 5640 5734 5734 5933 6038 6146 6146 6146 6146 6146 6146 6259 6375 6622 6622 6622 6622 2984 2984 2958 2958 2958 2958 2958 2984 2984 3010 3037 3037 3037 3037 3037 3037 3037 3037 3064 3064 3064 3064 3064 3064 3092 3092 3064 3064 3092 3092 3064 3064 3064 3064 3092 3092 3092 3092 3092 3092 3092 3064 3064 3092 3092 3092 3092 3120 3120 3120 3149 3149 2065 2065 2065 2065 2065 2065 2065 2078 2078 2078 2078 2078 2078 2065 2065 2078 2078 2078 2078 2078 2078 2090 2090 2090 2090 2090 2103 2103 2103 2103 2103 2103 2116 2129 2116 2116 2116 2116 2116 2116 2116 2116 2116 2116 2116 2116 2129 2129 2129 2129 2129 2129 2129 2129 2129 2129 2129 2129 2129 2129 2129 2129 2129 2129 2129 2129 2129 2129 2129 2129 2129 2143 2143 2143 2143 2156 2156 2143 2143 2143 2143 2156 2156 2156 2143 2143 2116 2078 2078 2078 2078 6375 6375 6497 6497 6497 6622 0 0 0 0 0 6375 6375 6375 6375 6497 6497 0 0 0 0 0 0 0 0 0 0 0 0 0 0 0 0 0 0 0 0 0 0 0 0 0 5132 5132 5132 5210 5210 5291 5291 5291 5291 5291 0 2212 2212 2212 2226 2226 2226 2226 2226 2226 2226 2226 2226 2226 2226 2226 2241 2241 2241 2241 2256 2256 2256 2256 2256 2256 2256 2256 2271 2256 2256 2271 2256 2256 2271 2271 2271 2271 2271 2271 2271 2271 2271 2271 2271 2271 2271 2286 2286 2286 2286 2286 2286 2286 2286 2286 2286 2286 2286 2286 2286 2271 2271 2271 2271 2271 2271 2271 2286 2286 2286 2271 2271 2271 2271 2286 2286 2286 2286 2301 0 0 0 0 3732 3692 3692 3692 3692 3732 0 0 0 0 0 0 0 0 0 0 0 0 4139 4139 4139 4139 4139 4139 4139 4139 4139 4139 0 0 0 0 0 0 0 0 0 0 0 0 5548 5460 5460 5460 5460 5460 5460 5460 4241 4241 4241 4295 4295 4295 4295 4295 4295 4295 4295 4295 3208 3208 3238 4983 4983 4983 5056 5056 4983 4983 4983 4774 3269 3269 3300 3300 3300 3300 3503 3576 3576 3576 3614 3614 3614 3576 3576 3576 3269 3269 3300 3300 3300 3300 3269 3238 3208 3178 3178 3208 3178 3178 3178 3178 3178 3178 3178 3178 3178 3178 3178 3178 3178 3208 3208 3208 3238 3208 3208 3208 3208 3208 3208 3208 3208 3208 3208 3178 3149 3149 3149 3120 3120 3010 3010 2984 2984 2958 2958 2958 2958 2958 2933 2933 2958 2958 2933 2933 2933 2933 2908 2908 2908 2933 2933 2933 2933 2933 2933 2908 2908 2908 2908 2908 2908 2883 2883 2883 2883 2883 3653 3653 3653 3692 2908 2908 2933 2933 2933 2883 2883 2883 2883 0 0 0 3010 3010 2984 2984 2984 2984 2958 2958 0 0 0 0 0 0 0 0 0 0
0 0 0 0 0 0 0 0 0 0 0 0 0 0 0 0 0 0 0 0 0 0 0 0 0 0 0 0 0 0 5933 5933 5933 6038 6038 6038 6038 6038 6038 6038 6038 6038 6038 5933 5933 6038 6038 6038 6038 6038 6038 6146 6146 6146 6146 6146 6259 6038 6038 6038 5933 5933 5933 5933 5933 5933 5933 5933 5933 5933 6038 6038 6038 6038 6146 6259 6259 6259 6259 6259 6259 6259 6146 6146 6146 6146 6038 5933 5933 5933 5832 5832 5832 5933 5933 6146 6259 6375 6375 6497 6497 6497 6375 6259 6146 6038 6038 6146 6146 6146 6146 6146 0 0 0 0 6497 6497 6622 6622 0 0 0 0 0 0 5832 5832 5933 6038 6038 6038 6038 6038 5933 5832 5734 5734 5640 5640 5640 5734 5832 5933 6146 6146 6146 6146 6146 6146 6259 6375 6622 3010 3010 3010 2984 2984 2984 2984 2984 2984 2984 2984 2984 2984 3010 3010 3010 3037 3037 3037 3037 3037 3037 3037 3037 3064 3064 3064 3064 3092 3092 3064 3064 3064 3064 3064 3064 3064 3064 3064 3092 3092 3064 3064 3092 3064 3064 3064 3064 3064 3064 3064 3092 3092 3120 3149 2053 2053 2065 2065 2065 2065 2065 2065 2078 2078 2078 2078 2078 2078 2078 2078 2078 2078 2078 2078 2078 2078 2090 2090 2090 2090 2090 2090 2103 2103 2103 2103 2116 2116 2116 2116 2116 2116 2116 2116 2116 2116 2116 2116 2116 2116 2116 2116 2129 2129 2129 2129 2129 2129 2129 2129 2129 2129 2129 2129 2129 2129 2129 2143 2143 2143 2143 2143 2143 2143 2143 2143 2143 2156 2156 2156 2156 2156 2143 2143 2143 2156 2156 2156 2156 2143 2143 2184 2184 2184 6497 6497 6375 6375 6375 6497 6497 6622 0 0 0 0 0 6375 6375 6375 6375 6375 6375 6375 6497 6497 0 0 0 0 0 0 0 0 0 0 0 0 0 0 0 0 0 0 0 0 0 0 5132 5132 5132 5210 5210 5291 5374 5291 5291 5291 0 2226 2226 2226 2226 2226 2226 2226 2226 2226 2226 2226 2226 2226 2226 2226 2241 2241 2241 2241 2256 2256 2256 2256 2256 2256 2256 2256 2271 2256 2256 2271 2256 2256 2271 2271 2271 2271 2271 2271 2271 2271 2271 2271 2271 2271 2271 2286 2286 2286 2286 2286 2286 2286 2286 2286 2286 2286 2286 2286 2286 2271 2271 2271 2271 2271 2271 2271 2271 2271 2271 2271 2271 2271 2271 2286 2286 2286 2286 2301 0 0 0 0 0 0 0 0 0 0 0 0 0 0 0 0 0 0 0 0 0 0 0 4139 4139 4139 4139 4139 4139 4139 4139 0 0 0 0 0 0 0 0 0 0 0 0 5460 5460 5460 5460 5460 5460 5460 5460 5460 4241 4241 4241 4241 4241 4241 4295 4295 4295 4349 4295 4295 4349 4911 4911 4983 4983 4983 4983 4983 4983 4911 4911 4774 4774 4708 4708 3732 3692 3653 3653 3653 3653 3653 3653 3653 3653 3614 3614 3576 3539 3539 3365 3333 3300 3300 3300 4774 3238 3178 3178 3208 3208 3178 3178 4983 4983 4983 4983 3178 3178 3178 3178 3208 3208 3238 5056 5056 5056 5056 5056 3238 3208 3208 3208 3208 3208 3208 3208 3178 3149 3149 3149 3120 3120 3010 2958 2958 2958 2958 2933 2933 2933 2933 2933 2933 2958 2958 2933 2933 2933 2933 2933 2933 2933 2933 2933 2933 2933 2933 2933 2908 2908 2908 2908 2908 2908 2908 2908 2883 2883 2883 2883 3653 3732 2908 2908 2933 2933 2933 2859 2835 2835 2883 0 0 0 0 2984 2984 2984 2984 2984 2984 2984 0 0 0 0 0 0 0 0 0 0 0
0 0 0 0 0 0 0 0 0 0 0 0 0 0 0 0 0 0 0 0 0 0 0 0 0 0 0 0 0 0 5933 5933 5933 5933 5933 5933 6038 6038 6038 5933 5933 5933 5933 5933 5933 6038 6038 6038 6038 6038 6038 6146 6146 6146 6146 6146 6259 5933 5933 5933 5933 5933 5933 5933 5933 5933 5933 5933 5933 5933 5933 5933 5933 6038 6038 6146 6146 6146 6146 6259 6259 6259 6146 6146 6146 6038 5933 5933 5832 5832 5734 5734 5734 5734 5832 5933 6146 6146 6375 6497 6497 6497 0 6259 6146 6038 5832 5832 6146 6146 0 0 0 0 0 0 0 0 0 0 0 0 0 0 0 0 5734 5734 5832 5933 5933 5933 5933 5933 5933 5933 5832 5734 5640 5640 5640 5734 5734 6146 6146 6146 6146 6146 6146 6146 6259 6375 3010 2984 2984 3010 2984 2958 2958 2984 2984 2984 2984 2984 2984 2984 2984 3010 3010 3010 3010 3010 3010 3010 3037 3037 3037 3064 3064 3064 3064 3092 3092 3064 3064 3064 3064 3037 3037 3064 3064 3064 3064 3064 3064 3064 3064 3064 3064 3064 3064 3064 3037 3037 3064 3064 3092 3092 2053 2053 2053 2065 2065 2065 2065 2065 2065 2065 2078 2078 2078 2078 2078 2078 2078 2078 2078 2078 2078 2078 2090 2090 2090 2090 2090 2090 2103 2103 2103 2116 2116 2116 2116 2116 2116 2116 2116 2116 2116 2116 2116 2116 2116 2116 2116 2116 2129 2129 2129 2129 2129 2129 2129 2129 2129 2129 2129 2129 2129 2143 2143 2143 2143 2143 2143 2143 2143 2143 2143 2143 2143 2156 2156 2156 2156 2143 2143 2143 2143 2143 2143 2156 2156 2156 2170 2184 2184 2184 6497 6497 6375 6375 6375 6375 6497 6497 0 0 0 0 0 6375 6375 6375 6375 6375 6375 6375 6497 6497 0 0 0 0 0 0 0 0 0 0 0 0 0 0 0 0 0 0 0 0 0 0 5210 5210 5210 5291 5291 5374 5374 5291 5291 5291 0 2226 2226 2226 2226 2226 2226 2226 2226 2226 2226 2226 2226 2226 2241 2241 2241 2241 2241 2241 2256 2256 2256 2256 2256 2271 2256 2256 2271 2271 2271 2271 2271 2271 2271 2271 2271 2271 2271 2271 2271 2271 2271 2271 2271 2271 2286 2286 2286 2286 2286 2286 2286 2286 2286 2286 2286 2286 2286 2286 2286 2271 2271 2271 2271 2271 2271 2271 2271 2271 2271 2271 2271 2271 2271 2286 2286 2286 2286 2301 0 0 0 0 0 0 0 0 0 0 0 0 0 0 0 0 0 0 0 0 0 0 0 4139 4139 4139 4139 4139 4139 4139 0 0 0 0 0 0 0 0 0 0 0 0 5374 5374 5374 5460 5460 5460 5460 5460 5460 5460 5460 4241 4241 4241 4241 4241 4241 4295 4295 4295 4295 4295 4582 4911 4911 4983 4983 4983 4983 4983 4983 4911 4911 4774 4774 4774 4774 3732 3732 3692 3692 3692 3692 3692 3653 3653 3653 3653 3653 3614 3614 3614 3614 3539 3539 3576 3614 4774 4774 3178 3178 4842 4842 4911 4983 4983 4983 4983 4983 5056 5056 3178 3178 3208 3208 5056 4983 4983 4983 4983 4983 3269 3238 3238 3208 3178 3149 3149 3149 3238 3238 3238 2933 2933 2933 2933 2933 2958 2958 2958 2933 2933 2933 2933 2933 2933 2958 2958 2933 2933 2933 2933 2933 2933 2933 2933 2933 2933 2933 2933 2933 2933 2908 2908 2908 2908 2908 2908 2908 2908 2908 2883 2883 2883 2908 2908 2908 2933 2933 2933 2859 2835 2835 0 0 0 0 0 0 2984 2984 2984 2984 2984 2984 0 0 0 0 0 0 0 0 0 0 0
0 0 0 0 0 0 0 0 0 0 0 0 0 0 0 0 0 0 0 0 0 0 0 0 0 0 0 0 0 0 5933 5933 5832 5832 5832 5832 6038 6038 6038 5933 5933 5933 5933 5933 5933 6038 6038 6038 6146 6146 6146 0 0 0 0 0 0 5933 5933 5933 5933 5933 5933 5933 5933 5933 5933 6038 5933 5933 5933 5933 5933 5933 5933 5933 6038 6146 6146 6259 6259 6146 6146 6146 6146 5933 5933 5832 5832 5832 5734 5640 5640 5734 5832 5933 6146 6146 0 0 0 0 0 0 0 0 5832 5832 0 0 0 0 0 0 0 0 0 0 0 0 0 0 0 0 0 0 5734 5734 5832 5933 5933 2789 2789 5933 5933 5933 5933 5933 2908 2908 2933 2933 2933 2933 2958 2958 2958 2984 2984 6259 6259 2984 2984 2984 2984 2984 2958 2958 2958 2984 2984 2984 2984 2984 2984 2984 2984 2984 2984 2984 2984 2984 3010 3010 3010 3010 3037 3037 3064 3064 3064 3092 3092 3064 3064 3064 3064 3037 3037 3037 3037 3064 3064 3064 3064 3064 3037 3037 3037 3037 3037 3037 3037 3037 3037 3064 3064 3064 2040 2040 2053 2053 2065 2065 2065 2065 2065 2065 2078 2078 2078 2078 2078 2078 2078 2078 2078 2078 2078 2090 2090 2090 2090 2090 2090 2090 2103 2103 2103 2116 2116 2116 2116 2116 2116 2116 2116 2116 2116 2116 2116 2116 2116 2116 2129 2129 2129 2129 2129 2129 2129 2129 2129 2129 2129 2129 2129 2129 2143 2129 2129 2143 2143 2143 2143 2143 2143 2143 2143 2143 2156 2156 2156 2156 2156 2143 2143 2143 2143 2143 2143 2156 2156 2156 2170 2170 2184 2184 6375 6375 6375 6375 6375 6375 6375 6497 0 0 0 0 6497 6375 6375 6375 6375 6375 6497 6497 6497 6497 0 0 0 0 0 0 0 0 0 0 0 0 0 0 0 0 0 0 0 0 0 0 0 5210 5210 5291 5291 5291 5291 5291 5291 5291 5291 2226 2226 2226 2226 2226 2226 2226 2226 2226 2226 2226 2226 2241 2241 2241 2256 2256 2256 2256 2256 2256 2256 2256 2256 2271 2256 2256 2256 2256 2256 2271 2271 2271 2271 2271 2271 2271 2256 2256 2271 2271 2271 2271 2271 2271 2286 2286 2286 2286 2286 2286 2286 2286 2286 2286 2286 2286 2286 2286 2286 2271 2271 2271 2271 2271 2271 2271 2271 2271 2271 2271 2271 2271 2271 2271 2271 2286 2286 2286 0 0 0 0 0 0 0 0 0 0 0 0 0 0 0 0 0 0 0 0 0 0 0 4139 4139 4139 4139 4139 4139 0 0 0 0 0 0 0 0 0 0 0 0 0 5374 5374 5374 5460 5460 5460 5460 5460 5460 5460 5460 4241 4241 4241 4241 4241 4241 4295 4295 4295 4295 4295 4582 4911 4911 4983 4983 4983 4983 4983 4983 4911 4911 4842 4842 4842 4842 3732 3732 3692 3692 3692 3692 3692 3692 3692 3653 3653 3653 3653 3653 3653 3653 3614 3614 3614 3614 4911 4911 4911 4911 4911 4911 4911 4983 4983 4983 4983 4983 5056 5056 5056 5056 5056 5056 5056 4983 4983 4983 4983 4983 4983 3238 3238 3208 3149 3149 3149 3149 3149 3774 3774 3774 2908 2908 2908 2933 2958 2958 2958 2958 2958 2958 2958 2958 2958 2958 2958 2933 2933 2958 2958 2933 2933 2933 2933 2933 2933 2933 2933 2933 2933 2908 2908 2908 2908 2908 2908 2908 2908 2908 2908 2883 2883 2908 2908 2908 2933 2933 2933 2933 0 0 0 0 0 0 0 2984 2984 2984 2984 2984 2984 3010 0 0 0 0 0 0 0 0 0 0 0
0 0 0 0 0 0 0 0 0 0 0 0 0 0 0 0 0 0 0 0 0 0 0 0 0 0 0 0 0 0 0 0 5832 5832 5832 5832 0 0 0 0 5933 5933 5933 5933 5933 6038 6038 6146 0 0 0 0 0 0 0 0 0 0 0 0 5933 5933 5933 5933 5933 5933 5933 6038 5933 5933 5933 5933 5832 5832 5933 5933 6038 6038 6038 6146 6146 6146 6038 6038 6038 5933 5832 5832 5832 5832 5734 5640 5640 5734 0 0 0 0 0 0 0 0 0 0 0 0 0 0 0 0 0 0 0 0 0 0 0 0 0 0 0 0 0 0 0 0 0 0 0 6038 5933 2789 2789 2835 2835 2859 2859 2883 2908 2908 2908 2933 2933 2933 2958 2958 2958 2958 2984 2984 2984 2984 2984 2984 2984 2984 2958 2958 2958 2984 2984 2984 2984 2984 2984 2984 2958 2958 2958 2958 2958 2958 2984 2984 2984 3010 3010 3037 3037 3064 3064 3092 3064 3064 3064 3037 3037 3037 3037 3037 3037 0 3037 2859 3010 3010 3010 3010 3010 3037 3037 3037 3037 3037 3037 3037 3037 3037 2040 2040 2053 2053 2053 2065 2065 2065 2078 2078 2078 2078 2078 2078 2078 2078 2078 2078 2078 2078 2090 2090 2090 2090 2090 2090 2103 2103 2103 2103 2116 2116 2116 2116 2129 2129 2116 2116 2116 2116 2116 2116 2116 2116 2116 2116 2129 2129 2129 2129 2129 2129 2129 2129 2129 2129 2129 2129 2129 2143 2143 2129 2129 2143 2143 2143 2143 2143 2143 2143 2156 2156 2156 2156 2156 2156 2156 2156 2143 2143 2143 2156 2156 2156 2156 2156 2170 2170 2184 0 6375 6375 6375 6375 6375 6375 6375 6497 0 0 0 0 6497 6375 6375 6375 6375 6375 6497 6497 6497 6497 0 0 0 0 0 0 0 0 0 0 0 0 0 0 0 0 0 0 0 0 0 0 0 5210 5210 5210 5210 5291 5291 5291 5291 5291 5291 2226 2226 2226 2226 2226 2226 2226 2226 2226 2226 2241 2241 2241 2241 2256 2256 2256 2256 2256 2241 2241 2256 2256 2256 2271 2256 2256 2256 2256 2256 2256 2256 2256 2256 2271 2271 2256 2256 2256 2256 2256 2256 2256 2271 2271 2271 2286 2286 2286 2286 2286 2286 2286 2286 2286 2286 2286 2286 2286 2286 2271 2271 2271 2271 2271 2271 2271 2271 2271 2271 2271 2271 2271 2271 2271 2271 2286 2286 2286 0 0 0 0 0 0 0 0 0 0 0 0 0 0 0 0 0 0 0 0 0 0 0 0 0 0 0 0 0 0 0 0 0 0 0 0 0 0 0 0 0 0 0 0 5460 5460 5460 5460 5460 5460 5460 4190 4190 4241 4241 4241 4241 4241 4295 4295 4295 4295 4295 4295 4911 4911 4911 4983 4983 4983 4983 4911 4911 4911 4911 4842 4842 4842 3732 3732 3732 3732 3732 3692 3692 3692 3692 3692 3653 3653 3653 3653 3653 3653 3653 3653 3614 3614 3614 4983 4911 4911 4911 4911 4911 4983 4983 4983 4983 4983 4983 5056 5056 5056 5056 5056 3732 3732 3732 3732 3732 3732 3614 3614 3692 3732 3732 3149 3149 3816 3774 3774 3774 3774 3774 2908 2908 2908 2933 2933 2958 2958 2958 2958 2958 2958 2958 2958 2958 2958 2958 2958 2958 2958 2933 2933 2933 2933 2933 2933 2933 2933 2933 2933 2908 2908 2908 2908 2908 2908 2908 2908 2908 2908 2908 2908 2908 2933 2933 2933 2933 2933 2933 0 0 0 0 0 2908 0 2984 2984 2984 2984 2984 2984 3010 0 0 0 0 0 0 0 0 0 0 0
0 0 0 0 0 0 0 0 0 0 0 0 0 0 0 0 0 0 0 0 0 0 0 0 0 0 0 0 0 0 0 0 0 0 0 0 0 0 0 0 0 0 0 0 0 0 0 0 0 0 0 0 0 0 0 0 0 0 0 0 0 5933 5832 5832 5832 5832 5933 5933 5933 5832 5832 5832 5734 5734 5933 5933 5933 5548 0 0 5933 5933 5933 5933 5933 5933 5832 5832 5832 5734 5734 5640 5640 0 0 0 0 0 0 0 0 0 0 0 0 0 0 0 0 0 0 0 0 0 0 0 0 0 0 0 0 0 0 0 0 0 0 0 0 0 0 2789 2789 2835 2835 2859 2859 2883 2883 2908 2908 2933 2933 2933 2933 2933 2958 2958 2984 2984 2984 2984 2984 2984 2984 2984 2958 2958 2958 2984 2958 2958 2984 2984 2984 2984 2958 2958 2958 2958 2958 2958 2958 2958 2984 2984 3010 3010 3037 3037 3064 3064 3064 3037 3037 3037 3037 3064 3064 3064 3064 2812 0 0 2859 3010 3010 2984 2984 2984 3010 3010 3010 3010 3010 3010 3037 3037 2040 2040 2053 2053 2053 2065 2065 2065 2078 2078 2078 2078 2078 2078 2078 2078 2078 2078 2078 2090 2090 2090 2090 2090 2090 2090 2103 2103 2103 2103 2116 2116 2129 2129 2129 2129 2116 2116 2116 2116 2116 2116 2116 2116 2116 2116 2129 2129 2129 2129 2129 2129 2129 2129 2129 2129 2143 2143 2143 2143 2143 2129 2129 2129 2129 2129 2129 2129 2143 2143 2156 2156 2156 2156 2156 2156 2156 2156 2143 2143 2156 2156 2156 2156 2156 2156 2170 2170 2184 0 0 0 0 0 0 0 0 0 0 0 0 0 6497 6375 6375 6375 6375 6375 6497 6497 6497 6497 6622 0 0 0 0 0 0 0 0 0 0 0 0 0 0 0 0 0 0 0 0 0 0 5210 5210 5210 5210 5291 5291 5291 5291 5291 5291 5291 2226 2226 2226 2226 2226 2226 2226 2226 2226 2226 2241 2241 2256 2256 2256 2271 2256 2256 2241 2241 2256 2256 2271 2271 2271 5132 2256 2256 2256 2241 2241 2256 2256 2256 2271 2256 2256 2256 2256 2256 2256 2256 2271 2271 2271 2271 2286 2286 2286 2286 2286 2286 2271 2271 2286 2286 2286 2286 2286 2271 2271 2286 2286 2286 2286 2286 2271 2271 2271 2271 2271 2271 2271 2286 2286 2286 2286 2286 0 0 0 0 0 0 0 0 0 0 0 0 0 0 0 0 0 0 0 0 0 0 0 0 0 0 0 0 0 0 0 0 0 0 0 0 0 0 0 0 0 0 0 0 0 5460 5460 5460 5460 5460 4190 4190 4190 4241 4241 4241 4241 4241 4241 4295 4295 4295 4295 4911 4911 4911 4911 4983 4911 4911 4911 4911 4911 4911 4911 4842 4842 4911 3732 3732 3732 3732 3732 3692 3692 3692 3692 3692 3692 3692 3692 3692 3692 3692 3692 3653 3653 3653 3653 4983 4983 4983 4983 4983 4983 4983 4983 4983 4983 5056 5056 5056 5056 5056 5056 5056 3732 3732 3732 3732 3732 3732 3614 3614 3692 3732 3732 3774 3774 3774 3774 3774 3774 3774 3774 2883 2883 2883 2933 2933 2958 2958 2958 2958 2958 2958 2958 2958 2958 2958 2958 2958 2958 2958 2933 2933 2933 2933 2958 2933 2933 2933 2933 2933 2908 2908 2908 2908 2908 2908 2908 2908 2908 2908 2908 2908 2933 2933 2933 2933 2933 2933 2933 2933 0 2933 2933 2908 2908 2933 2933 2984 2984 2984 2984 2984 3010 0 0 0 0 0 0 0 0 0 0 0
0 0 0 0 0 0 0 0 0 0 0 0 0 0 0 0 0 0 0 0 0 0 0 0 0 0 0 0 0 0 0 0 0 0 0 0 0 0 0 0 0 0 0 0 0 0 0 0 0 0 0 0 0 0 0 0 0 0 0 0 0 6038 5832 5832 5832 5832 5933 5933 5933 5832 5832 5734 5640 5640 5640 5640 5548 5548 5548 5640 5933 5933 5933 5933 5933 5933 5933 5832 5832 5734 5734 5640 5640 0 0 0 0 0 0 0 0 0 0 0 0 0 0 0 0 0 0 0 0 0 0 0 0 0 0 0 0 0 0 0 0 0 0 0 0 0 0 2835 2835 2835 2835 2859 2859 2883 2883 2908 2908 2908 2908 2933 2933 2933 2958 2958 2958 2958 2958 2958 2958 2984 2984 2984 2958 2958 2958 2984 2958 2958 2984 2984 2984 2984 2958 2958 2958 2958 2958 2958 2958 2933 2933 2933 2933 2933 2933 3010 3010 3064 3064 3037 3037 3037 3037 0 3037 0 0 0 0 0 2859 2859 2859 2883 2933 2933 2933 2958 2958 2984 2984 2984 2984 2984 2028 2028 2040 2053 2053 2065 2065 2065 2078 2078 2078 2078 2078 2078 2078 2078 2078 2078 2078 2078 2090 2090 2090 2090 2090 2090 2103 2103 2103 2103 2116 2116 2129 2129 2129 2129 2116 2116 2116 2116 2116 2116 2116 2116 2116 2116 2129 2129 2129 2129 2129 2129 2129 2129 2129 2129 2143 2143 2143 2143 2129 2129 2129 2129 2129 2129 2129 2129 2143 2143 2156 2156 2156 2156 2156 2156 2156 2156 2156 2156 2156 2156 2156 2156 2156 2156 2170 2170 2184 0 0 0 0 0 0 0 0 0 0 0 0 0 6375 6375 6375 6375 6375 6375 6497 6497 6497 6622 6622 0 0 0 0 0 0 0 0 0 0 0 0 0 0 0 0 0 0 0 0 0 0 0 0 5291 5291 5291 5291 5291 5291 5291 5291 0 2226 2226 2226 2226 2226 2226 2226 2226 2226 2226 2226 2226 2256 2271 2271 2271 2256 2256 2241 2241 2256 2256 2271 5132 5132 5132 5132 5056 2256 2241 2241 2256 2256 2256 2271 2286 4983 4983 4983 4983 4983 4911 4911 2271 2271 2271 2286 2286 2286 2286 2286 2286 2271 2271 2286 5056 5056 5056 0 2286 2286 2286 2286 2286 2286 2286 2271 2271 2271 2271 2271 2271 2286 2286 2286 2286 2301 2301 2301 0 0 0 0 0 0 0 0 0 0 0 0 0 0 0 0 0 0 0 0 0 0 0 0 0 0 0 0 0 0 0 0 0 0 0 0 0 0 0 0 0 0 0 0 0 5460 5460 5548 4190 4190 4190 4190 4241 4241 4241 4241 4241 4241 4295 4241 4241 4295 4911 4911 4911 4911 4911 4911 4911 4911 4911 4911 4842 4842 4842 4842 4911 3732 3732 3732 3732 3732 3692 3692 3692 3692 3692 3692 3692 3692 3692 3692 3692 3692 3653 3614 3614 3653 4983 4911 4911 4911 4983 4983 4983 4983 4983 5056 5056 5056 5056 5056 5132 5132 3859 3859 3859 3859 3816 3774 3732 3732 3732 3732 3732 3732 3774 3774 3774 3732 3732 3732 3732 3774 2883 2883 2883 2933 2933 2933 2958 2958 2958 2958 2958 2958 2958 2958 2958 2933 2933 2958 2933 2933 2933 2933 2933 2933 2933 2933 2933 2933 2933 2908 2908 2908 2908 2908 2908 2908 2908 2908 2908 2908 2908 2933 2933 2933 2933 2933 2933 2933 2933 0 2933 2933 2908 2908 2933 2933 2984 2984 2984 2984 2984 3010 0 0 0 0 0 0 0 0 0 0 0
