0 0 0 0 0 0 0 0 0 0 0 0 0 0 0 0 0 0 0 0 0 0 0 0 0 0 0 0 0 0 0 0 2859 2859 2859 2883 2883 2908 2908 2908 2908 2933 2933 2933 2958 2958 2984 2984 2984 3010 3010 3010 3010 3010 3010 3010 3010 3010 3010 3010 3037 3037 3064 3064 3092 3120 0 0 0 0 0 0 0 0 0 3178 3178 3178 3178 3178 3208 3208 3208 3208 3208 3208 3208 3208 3208 3208 3208 3238 3238 3269 3269 3269 3300 3300 3300 3300 3300 3333 3333 3333 3333 3333 3365 3365 3365 3365 3365 3399 3399 3433 3433 3433 3433 3433 3468 3468 3468 3468 3468 3468 3468 3503 3503 3539 6259 6259 6259 6146 6146 6259 6259 6259 6375 6622 6753 6753 0 4582 4582 4645 4842 4983 5056 5056 5132 5132 5132 5132 5056 4983 4983 4983 4983 4983 4983 4983 5056 5056 5056 4983 4983 4983 4983 4983 4983 4983 4983 4983 4983 4983 4983 4983 4983 4983 4983 4983 4983 4983 5056 5056 5056 5056 5056 5056 4983 4983 4983 4983 4983 4983 4983 4983 4983 4983 4983 4983 4983 4983 4983 4983 4983 4983 4983 4983 4983 4983 4983 4983 4983 4983 4983 4983 4983 4983 4983 4983 4983 4983 4983 4983 4983 4983 4983 5056 5056 5056 5056 5056 5132 5132 5132 5132 5210 5210 5210 5210 5210 5210 5210 5210 5210 5132 5132 5132 5132 5132 5132 5132 5132 5132 5132 5132 5210 5210 5210 5210 5210 5210 5291 5291 5291 5374 5374 5374 5374 5460 5460 5460 5548 5640 5734 5734 5832 5933 5933 5933 5933 5933 5933 5933 5933 5933 5933 5933 5933 5933 5933 5933 5933 5933 5933 6038 6038 6038 6038 6038 6038 6146 6146 6146 6259 6375 6497 6889 7178 7492 7492 7492 7492 7492 7492 7492 7492 7492 7492 7492 7492 7332 7332 7332 3365 3333 3333 3333 3333 3333 3333 3333 3333 3333 3333 3333 3333 3333 3333 3333 3333 3333 3333 3333 3333 3333 3333 3333 3333 3333 3300 3300 3300 3300 3300 3300 3300 3300 3300 3300 3300 3300 3300 3300 3300 3269 3269 3269 3269 3269 3269 3269 3269 3269 3269 3269 3238 3238 3238 3238 3238 3238 3238 3238 3238 3238 3238 3238 3238 3238 3208 3208 3208 3208 3208 3208 3208 3208 3208 3208 3208 3178 3178 3178 3178 3178 3178 3178 3178 3178 3178 3120 3120 3120 3149 3120 3120 3120 3120 3120 3120 3120 3120 3149 3149 3149 3178 3178 3178 3178 3208 3208 3238 3269 3300 3333 3333 3365 3365 3399 3433 3468 3539 3576 3576 3576 3614 3614 3692 4295 4295 4295 4295 4295 4295 4349 4349 4295 4295 4295 4295 4295 4295 4295 4295 4295 4295 4295 4295 4295 4295 4295 4295 4241 4241 4241 4295 4295 4349 4349 4405 4522 4522 6259 6259 6259 6259 6146 6146 6259 6259 6259 6259 6259 6146 6038 6038 6038 6038 6038 6038 6038 6038 6038 6038 6038 6038 6038 6038 6038 6038 6038 6038 6038 6038 6038 6146 6146 6146 6375 6375 6497 6622 6497 6497 6375 6375 6259 6146 6146 6146 6146 6146 6259 6259 6259 6375 6497 6497 6497 6497 6497 6497 6497 6497 6497 6497 6497 6497 6497 6375 6375 6375 6375 6375 6259 6259 6146 6038 6038 5933 5933 5832 5832 5832 5832 5832 5933 5933 6038 6146 6146 6259 6259 6375 6375 6259 6259 6146 6146 6038 6038 5933 5832 5832 5832 5832 5832 5832 5933 6038 6038 6038 6038 6038 6038 6146 6146 4241 4139 4139 4139 4190 4190 4190 4190 4139 4139 4190 4190 4190 4190 4139 4139 4139 4089 4089 4089 4041 4041 4041 4041 4041 4041 4041 4041 4041 4041 0 0 0 0 0 0 0 0 0 0 0 0
0 0 0 0 0 0 0 0 0 0 0 0 0 0 0 0 0 0 0 0 0 0 0 0 0 0 0 0 0 0 0 0 2859 2859 2859 2883 2883 2908 2908 2908 2908 2908 2933 2933 2958 2958 2984 2984 2984 3010 3010 3010 3010 3010 3010 3010 3010 3010 3010 3010 3037 3037 3064 3064 3092 3120 0 0 0 0 0 0 0 0 0 3178 3178 3178 3178 3178 3208 3208 3208 3208 3208 3208 3208 3208 3208 3208 3208 3238 3238 3269 3269 3269 3300 3300 3300 3300 3300 3333 3333 3333 3333 3333 3365 3365 3365 3365 3365 3399 3399 3433 3433 3433 3433 3433 3468 3468 3468 3468 3468 3468 3503 3503 3539 3539 3539 6259 6259 6259 6259 6259 6259 6259 6375 6375 6753 6753 0 0 4645 4645 4911 4983 5056 5056 5132 5132 5132 5132 5056 4983 4983 4983 4983 4983 4983 4983 4983 4983 4983 4983 4983 4983 4983 4983 4983 4983 4983 4983 4983 4983 4983 4983 4983 4983 4983 4983 4983 4983 5056 5056 5056 5056 5056 5056 4983 4983 4983 4983 4983 4983 4983 4983 4983 4983 4983 4983 4983 4983 4983 4983 4983 4983 4983 4983 4983 4983 4983 4983 4983 4983 4983 4983 4983 4983 4983 4983 4983 4983 4983 4983 4983 4983 4983 5056 5056 5056 5056 5056 5132 5132 5132 5132 5210 5210 5210 5210 5210 5210 5210 5210 5210 5132 5132 5132 5132 5132 5132 5132 5132 5132 5132 5132 5210 5210 5210 5210 5210 5210 5210 5210 5291 5291 5291 5374 5460 5460 5460 5460 5548 5640 5734 5832 5832 5933 5933 5933 5832 5832 5933 5933 5832 5832 5933 5933 5933 5933 5933 5933 5933 5933 5933 6038 6038 6038 6038 6038 6038 6146 6146 6146 6259 6497 7332 7332 7492 7492 7492 7492 7492 7492 7492 7492 7492 7492 7492 7492 7492 7332 7332 7332 3365 3333 3333 3333 3333 3333 3333 3333 3333 3333 3333 3333 3333 3333 3333 3333 3333 3333 3333 3333 3333 3333 3333 3333 3333 3333 3300 3300 3300 3300 3300 3300 3300 3300 3300 3300 3300 3300 3300 3300 3300 3300 3269 3269 3269 3269 3269 3269 3269 3269 3269 3269 3269 3269 3238 3238 3238 3238 3238 3238 3238 3238 3238 3238 3238 3238 3238 3238 3208 3208 3208 3208 3208 3208 3208 3208 3208 3208 3208 3178 3178 3178 3178 3178 3178 3178 3178 3149 3149 3149 3149 3120 3120 3120 3120 3120 3120 3120 3120 3149 3149 3149 3178 3178 3178 3208 3208 3238 3269 3269 3333 3333 3333 3365 3399 3399 3433 3468 3503 3539 3539 3576 3614 3653 3692 4295 4295 4295 4295 4295 4295 4295 4295 4295 4295 4295 4295 4295 4295 4295 4295 4295 4295 4295 4295 4295 4241 4241 4241 4241 4241 4241 4241 4295 4349 4349 4405 4522 4522 4522 6259 6259 6259 6146 6146 6259 6259 6259 6259 6259 6146 6038 6038 6038 6038 6038 6038 6038 6038 6038 6038 6038 6038 6038 6038 6038 6038 6038 6038 6038 6038 6038 6146 6146 6259 6375 6497 6497 6622 6622 6497 6497 6497 6375 6259 6259 6259 6259 6259 6259 6375 6375 6375 6497 6497 6497 6497 6497 6497 6497 6497 6497 6497 6497 6497 6497 6375 6375 6497 6497 6497 6375 6375 6146 5933 5933 5933 5933 5832 5832 5832 5832 5832 5933 5933 6038 6146 6146 6146 6259 6375 6375 6259 6146 6146 6146 6038 6038 5933 5832 5832 5832 5832 5832 5832 5933 6038 6038 6038 6038 6038 6038 6038 6146 6146 4139 4139 4139 4190 4190 4190 4190 4139 4139 4190 4190 4190 4190 4139 4139 4139 4089 4089 4089 4041 4041 4089 4041 4041 4041 4041 4041 4041 4041 0 0 0 0 0 0 0 0 0 0 0 0
0 0 0 0 0 0 0 0 0 0 0 0 0 0 0 0 0 0 0 0 0 0 0 0 0 0 0 0 0 0 0 0 2859 2859 2883 2883 2883 2908 2908 2908 2908 2908 2933 2933 2958 2958 2984 2984 2984 3010 3010 3010 3010 3010 3010 3010 3010 3010 3010 3037 3037 3037 3064 3092 3092 3092 3092 0 0 0 0 0 0 0 0 3208 3208 3178 3178 3178 3178 3178 3208 3208 3208 3208 3208 3208 3208 3238 3238 3238 3238 3269 3269 3300 3300 3300 3300 3300 3300 3333 3333 3333 3333 3333 3365 3365 3365 3365 3365 3399 3433 3433 3433 3433 3433 3433 3468 3468 3468 3468 3468 3503 3503 3503 3503 3539 3539 3576 0 6259 6259 6259 6259 6259 6375 6375 0 0 0 0 0 0 4983 4983 5056 5056 5056 5132 5132 5056 4983 4983 4983 4983 4983 4983 4983 4983 4983 4983 4983 4983 4983 4983 4983 4983 4983 5056 4983 4983 4983 4983 4983 4983 4983 4983 4983 4983 4983 4983 5056 5056 5056 5056 5056 4983 4983 4983 4983 4983 4983 4983 4983 4983 4983 4983 4983 4983 4983 4983 4983 4983 4983 4983 4983 4983 4983 4983 4983 4983 4983 4983 4983 4983 4983 4983 4983 4983 4983 4983 4983 4983 4983 4983 5056 5056 5056 5056 5056 5132 5132 5132 5132 5132 5210 5210 5210 5210 5210 5210 5210 5210 5132 5132 5132 5132 5132 5132 5132 5132 5132 5132 5132 5132 5210 5210 5210 5210 5210 5210 5210 5210 5291 5291 5291 5374 5374 5460 5460 5460 5548 5640 5734 5734 5832 5933 5933 5933 5832 5832 5933 5933 5832 5832 5933 5933 5933 5933 5933 5933 5933 6038 6038 6038 6038 6038 6038 6038 6038 6146 6146 6146 6146 6375 7492 7492 7492 7492 7492 7492 7492 7492 7492 7492 7492 7492 7492 7492 7492 7332 7332 7332 3365 3333 3333 3333 3333 3333 3333 3333 3333 3333 3333 3333 3333 3333 3333 3333 3333 3333 3333 3333 3333 3333 3333 3333 3333 3333 3300 3300 3300 3300 3300 3300 3300 3300 3300 3300 3300 3300 3300 3300 3300 3300 3269 3269 3269 3269 3269 3269 3269 3269 3269 3269 3269 3269 3238 3238 3238 3238 3238 3238 3238 3238 3238 3238 3238 3238 3238 3238 3208 3208 3208 3208 3208 3208 3208 3208 3208 3208 3208 3178 3178 3178 3178 3178 3178 3178 3178 3149 3149 3149 3149 3149 3120 3120 3120 3149 3120 3120 3120 3149 3149 3149 3178 3178 3178 3208 3208 3238 3269 3269 3333 3333 3365 3365 3399 3399 3433 3468 3503 3539 3539 3576 3614 3653 3692 4295 4295 4295 4295 4295 4295 4295 4295 4295 4295 4295 4295 4295 4295 4295 4295 4295 4295 4295 4295 4295 4241 4241 4241 4241 4241 4241 4241 4295 4349 4349 4405 4522 4582 4582 6259 6146 6146 6146 6259 6259 6259 6259 6259 6259 6146 6038 6038 6038 6038 6038 6038 6038 6038 6038 6038 6038 6038 6038 6038 6038 6038 6038 6038 6038 6038 6038 6038 6146 6146 6375 6375 6497 6622 6622 6497 6497 6497 6375 6259 6259 6259 6259 6259 6259 6259 6259 6375 6375 6375 6497 6497 6497 6497 6497 6497 6497 6497 6497 6497 6497 6497 6497 6497 6497 6497 6375 6259 6146 5933 5933 5933 5933 5933 5832 5832 5832 5832 5933 5933 6038 6038 6146 6146 6259 6259 6259 6259 6146 6146 6146 6038 5933 5933 5832 5832 5832 5933 5933 5933 5933 6038 6038 6038 6038 6038 6038 6038 6146 6146 6146 4139 4139 4190 4190 4190 4190 4190 4190 4190 4190 4190 4190 4139 4139 4139 4089 4089 4089 4041 4041 4089 4041 4041 4089 4041 4041 4041 4041 0 0 0 0 0 0 0 0 0 0 0 0
0 0 0 0 0 0 0 0 0 0 0 0 0 0 0 0 0 0 0 0 0 0 0 0 0 0 0 0 0 0 0 0 2859 2859 2883 2883 2883 2908 2908 2908 2908 2908 2933 2933 2958 2958 2984 3010 3010 3010 3010 3010 3010 3010 3010 3010 3010 3010 3037 3037 3064 3064 3064 3092 3092 3092 3092 0 0 0 0 0 0 0 0 3208 3208 3178 3178 3178 3178 3178 3208 3208 3208 3208 3208 3208 3208 3238 3238 3238 3238 3269 3269 3269 3300 3300 3300 3300 3333 3333 3333 3333 3333 3333 3365 3365 3365 3365 3365 3399 3433 3433 3433 3468 3468 3468 3468 3468 3468 3468 3503 3503 3503 3503 3503 3539 3576 0 0 0 0 6259 6259 0 6375 6375 0 0 0 0 0 0 0 5056 5056 5056 5056 5132 5132 5056 4983 4983 4983 4983 4983 4983 4983 4983 4983 4983 4983 4983 4983 4983 4983 4983 4983 5056 4983 4983 4983 4983 4983 4983 4983 4983 4983 4983 4983 4983 5056 5056 5056 5056 5056 4983 4983 4983 4983 4983 4983 4983 4983 4983 4983 4983 4983 4983 4983 4983 4983 4983 4983 4983 4983 4983 4983 4983 4983 4983 4983 4983 4983 4983 4983 4983 4983 4983 4983 4983 4983 4983 4983 4983 5056 5056 5056 5056 5056 5132 5132 5132 5132 5132 5210 5291 5210 5210 5210 5210 5210 5132 5132 5132 5132 5132 5132 5132 5132 5132 5132 5132 5210 5210 5210 5210 5210 5210 5210 5210 5210 5210 5291 5291 5291 5374 5374 5460 5460 5460 5548 5640 5734 5734 5832 5933 5832 5832 5832 5832 5933 5933 5933 5933 5933 5933 5933 5933 5933 5933 5933 6038 6038 6038 6038 6038 6038 6038 6038 6146 6146 6146 6146 6375 7332 7332 7492 7492 7492 7492 7492 7492 7492 7492 7492 7492 7492 7492 7492 7492 7492 7492 3399 3333 3333 3333 3333 3333 3333 3333 3333 3333 3333 3333 3333 3333 3333 3333 3333 3333 3333 3333 3333 3333 3333 3333 3333 3333 3300 3300 3300 3300 3300 3300 3300 3300 3300 3333 3333 3300 3300 3300 3300 3300 3300 3300 3269 3269 3269 3269 3269 3269 3269 3269 3269 3269 3238 3238 3238 3238 3238 3238 3238 3238 3238 3238 3238 3238 3238 3238 3238 3208 3208 3208 3208 3208 3208 3208 3208 3208 3208 3208 3208 3208 3208 3178 3178 3178 3178 3178 3149 3149 3149 3149 3120 3120 3149 3149 3149 3120 3120 3149 3149 3149 3178 3178 3178 3208 3208 3238 3269 3300 3300 3333 3333 3365 3365 3399 3433 3468 3503 3539 3539 3576 3614 3653 3692 4295 4295 4295 4295 4295 4295 4295 4295 4295 4295 4295 4295 4295 4295 4295 4295 4295 4295 4295 4295 4295 4295 4295 4295 4241 4241 4241 4241 4295 4349 4349 4405 4522 4522 6259 6146 6146 6146 6146 6146 6146 6146 6146 6259 6259 6146 6038 6038 6038 6038 6038 6038 6038 6038 6038 6038 6038 6038 6146 6146 6146 6146 6038 6038 6038 6038 6038 6038 6146 6146 6259 6375 6497 6622 6622 6497 6497 6497 6375 6259 6259 6259 6259 6259 6259 6259 6259 6375 6375 6375 6497 6375 6375 6497 6497 6375 6375 6375 6375 6375 6375 6375 6375 6375 6375 6375 6375 6259 6146 5933 5933 5933 5933 5933 5832 5832 5832 5832 5933 5933 6038 6038 6146 6146 6259 6259 6259 6259 6146 6146 6146 5933 5933 5832 5832 5832 5832 5832 5933 5933 5933 6038 6038 6038 6038 6038 6038 6038 6146 6146 6259 4139 4139 4139 4190 4190 4190 4190 4190 4190 4190 4190 4190 4139 4139 4139 4089 4089 4089 4041 4041 4089 4089 4089 4089 4041 4041 4041 4041 0 0 0 0 0 0 0 0 0 0 0 0
0 0 0 0 0 0 0 0 0 0 0 0 0 0 0 0 0 0 0 0 0 0 0 0 0 0 0 0 0 0 0 0 2883 2883 2883 2883 2908 2908 2908 2908 2908 2933 2933 2958 2958 2958 2984 3010 3010 3010 3010 3010 3010 3010 3010 3010 3010 3010 3037 3037 3064 3064 3092 3092 3092 3092 3092 0 0 0 0 0 3365 3365 3269 3208 3208 3178 3178 3178 3178 3178 3178 3178 3208 3208 3208 3208 3208 3238 3238 3238 3238 3269 3269 3269 3300 3300 3300 3300 3333 3333 3333 3333 3333 3333 3365 3365 3365 3365 3399 3399 3433 3433 3433 3468 3468 3468 3468 3468 3468 3468 3468 3539 3539 3539 3539 3539 3576 0 0 0 0 0 0 0 0 0 0 0 0 0 0 0 0 5056 4983 4983 5056 5132 5132 5132 4983 4983 4983 4983 4983 4983 4983 4983 4983 4983 4983 4983 4983 4983 4983 4983 4983 5056 4983 4983 5056 5056 5056 5056 4983 4983 4983 5056 5056 5056 5056 5056 5056 5056 5056 5056 4983 4983 4983 4983 4983 4983 4983 4983 4983 4983 4983 4983 4983 4983 4983 4983 4983 4983 4983 4983 4983 4983 4983 4983 4983 4983 4983 4983 4983 4983 4983 4983 4983 4983 4983 4983 4983 5056 5056 5056 5056 5056 5056 5132 5132 5132 5210 5210 5210 5291 5210 5210 5210 5210 5210 5132 5132 5132 5132 5132 5132 5132 5132 5132 5132 5132 5210 5210 5210 5210 5210 5210 5210 5210 5210 5291 5291 5291 5291 5374 5460 5460 5460 5460 5548 5640 5640 5734 5734 5832 5832 5832 5832 5832 5933 5933 5933 5933 5933 5933 5933 5933 5933 5933 6038 6038 6038 6038 6038 6038 6038 6038 6038 6146 6146 6146 6375 6497 7332 7332 7492 7492 7492 7492 7492 7492 7492 7492 7492 7492 7492 7492 7492 7492 7492 7492 3399 3333 3333 3333 3333 3333 3333 3333 3333 3333 3333 3333 3333 3333 3333 3333 3333 3333 3333 3333 3333 3333 3333 3333 3333 3333 3300 3300 3300 3300 3300 3300 3300 3300 3300 3333 3333 3333 3300 3300 3333 3300 3300 3300 3300 3269 3238 3238 3238 3238 3269 3269 3269 3269 3238 3238 3238 3238 3238 3238 3238 3238 3238 3238 3238 3238 3238 3238 3238 3208 3208 3208 3208 3208 3208 3208 3208 3208 3208 3208 3208 3208 3208 3208 3208 3208 3178 3149 3149 3149 3149 3149 3149 3149 3149 3149 3149 3149 3149 3149 3149 3149 3178 3178 3178 3208 3208 3238 3269 3300 3300 3333 3333 3333 3365 3399 3433 3468 3503 3539 3539 3576 3614 3614 3653 4295 4295 4295 4295 4295 4295 4295 4295 4295 4295 4295 4295 4295 4295 4295 4295 4295 4295 4295 4295 4295 4295 4295 4241 4241 4241 4241 4241 4295 4349 4349 4349 4349 6259 6259 6146 6146 6146 6146 6146 6146 6146 6146 6146 6146 6038 6038 6038 6038 6038 6038 6038 6038 6038 6038 6038 6038 6038 6038 6146 6146 6146 6038 6038 6038 6038 6038 6038 6146 6146 6259 6375 6497 6497 6497 6497 6497 6497 6375 6259 6259 6259 6259 6259 6259 6259 6259 6259 6259 6375 6375 6375 6375 6375 6375 6375 6375 6375 6375 6375 6375 6375 6375 6375 6375 6375 6375 6259 6146 6038 5933 5933 5933 5933 5933 5933 5933 5933 5933 5933 6038 6146 6146 6146 6259 6375 6375 6259 6146 6146 6146 5933 5933 5832 5734 5734 5832 5832 5832 5832 6038 6038 6038 6038 6038 6038 6038 6038 6146 6146 6259 4139 4139 4139 4190 4190 4190 4190 4190 4190 4190 4190 4190 4190 4139 4139 4089 4089 4089 4089 4089 4089 4041 4041 4041 3994 3994 3994 3994 0 0 0 0 0 0 0 0 0 0 0 0
0 0 0 0 0 0 0 0 0 0 0 0 0 0 0 0 0 0 0 0 0 0 0 0 0 0 0 0 0 0 0 0 2883 2883 2883 2908 2908 2908 2908 2908 2933 2933 2958 2958 2958 2958 2984 3010 3010 3010 3010 3010 3010 3010 3010 3010 3010 3010 3037 3037 3064 3064 3092 3092 3092 3092 3092 3092 3576 3576 3576 3576 3333 3333 3238 3208 3208 3178 3178 3178 3178 3178 3178 3178 3208 3208 3208 3208 3208 3238 3238 3238 3238 3269 3269 3269 3300 3300 3300 3333 3333 3333 3333 3333 3365 3365 3365 3399 3399 3399 3399 3399 3433 3433 3433 3433 3433 3468 3468 3468 3468 3468 3468 3539 3539 3539 3539 3576 3576 3614 0 0 0 0 0 0 0 0 0 0 0 0 0 0 0 0 4983 4983 5056 5132 5132 5132 4983 4983 4983 4983 4983 4983 4983 4983 4983 5056 5056 5056 5056 5056 5056 5056 5056 5056 5056 5056 5056 5056 5056 5056 5056 5056 5056 5056 5056 5056 5056 5056 5056 5056 5056 5056 5056 4983 4983 4983 4983 4983 4983 4983 4983 4983 4983 4983 4983 4983 4983 4983 4983 4983 4983 4983 4983 4983 4983 4983 4983 4983 4983 4983 4983 4983 4983 4983 4983 4983 4983 4983 4983 4983 5056 5056 5056 5056 5056 5132 5132 5132 5210 5210 5210 5291 5210 5210 5210 5210 5210 5132 5132 5132 5132 5132 5132 5132 5132 5132 5210 5210 5210 5210 5210 5210 5210 5210 5210 5210 5210 5291 5291 5291 5291 5374 5460 5460 5460 5460 5548 5640 5640 5734 5734 5832 5832 5933 5832 5832 5933 5933 5933 5933 5933 5933 5933 5933 5933 5933 6038 6038 6038 6038 6038 6038 6038 6038 6038 6146 6259 6259 6375 6497 7492 7492 7492 7492 7492 7332 7332 7492 7492 7492 7492 7492 7492 7332 7332 7332 7332 7332 3399 3333 3333 3333 3333 3333 3333 3333 3333 3333 3333 3333 3333 3333 3333 3333 3333 3333 3333 3333 3333 3333 3333 3333 3333 3333 3300 3300 3300 3300 3300 3300 3300 3300 3300 3333 3333 3333 3333 3333 3333 3333 3300 3300 3300 3269 3238 3238 3238 3238 3238 3269 3238 3238 3238 3238 3238 3238 3238 3238 3238 3238 3238 3238 3238 3238 3238 3238 3238 3208 3208 3208 3238 3208 3208 3208 3208 3208 3208 3208 3208 3208 3208 3208 3208 3208 3178 3149 3149 3149 3149 3149 3149 3149 3149 3149 3149 3149 3149 3149 3149 3149 3178 3178 3178 3208 3208 3238 3269 3300 3300 3333 3333 3333 3365 3399 3433 3468 3539 3576 3576 3614 3614 3614 3653 3692 4295 4295 4295 4295 4295 4295 4295 4295 4295 4295 4295 4295 4295 4295 4295 4295 4295 4295 4295 4295 4295 4295 4241 4241 4241 4241 4241 4295 4405 4405 4405 6259 6259 6259 6146 6146 6146 6146 6146 6146 6146 6146 6146 6146 6038 6038 6038 6038 6038 6038 6038 6038 6038 6038 6038 6038 6038 6038 6146 6146 6146 6038 6038 6038 6038 6038 6038 6038 6146 6259 6375 6497 6497 6497 6497 6497 6375 6375 6259 6259 6259 6259 6259 6259 6259 6259 6259 6259 6375 6375 6375 6375 6375 6375 6259 6259 6259 6375 6259 6259 6375 6375 6375 6375 6375 6259 6146 6146 6038 6038 6038 5933 5933 5933 5933 5933 5933 5933 6038 6038 6146 6146 6259 6259 6375 6375 6259 6146 6146 6146 5933 5933 5832 5734 5734 5832 5832 5832 5832 5933 6038 6038 6038 6038 6038 6146 6146 6146 6146 6375 4139 4139 4190 4190 4190 4190 4190 4190 4190 4190 4190 4190 4190 4139 4139 4089 4089 4089 4089 4089 4089 4041 4041 4041 3994 3994 3994 3994 0 0 0 0 0 0 0 0 0 0 0 0
0 0 0 0 0 0 0 0 0 0 0 0 0 0 0 0 0 0 0 0 0 0 0 0 0 0 0 0 0 0 0 0 2883 2883 2883 2908 2908 2908 2908 2908 2933 2933 2958 2958 2958 2984 2984 3010 3010 3010 3010 3010 3010 3010 3010 3010 3010 3037 3037 3064 3064 3092 3092 3092 3092 3092 3092 3539 3539 3539 3539 3399 3333 3333 3238 3208 3208 3178 3178 3178 3178 3178 3178 3208 3208 3208 3208 3208 3208 3238 3238 3238 3238 3269 3269 3269 3300 3300 3300 3300 3333 3333 3333 3333 3365 3365 3365 3399 3399 3399 3399 3399 3433 3433 3433 3433 3433 3468 3468 3468 3468 3468 3503 3539 3539 3539 3539 3576 3576 3576 0 0 0 0 0 0 0 0 0 0 0 0 0 0 0 0 4983 4983 5056 5132 5132 5132 5056 5056 5056 5056 4983 4983 4983 4983 4983 5056 5056 5056 5056 5056 5056 5056 5056 5056 5132 5132 5132 5132 5132 5132 5132 5056 5056 5132 5056 5056 5132 5132 5132 5056 5056 5056 5056 5056 5056 5056 5056 5056 5056 5056 5056 5056 4983 4983 4983 4983 4983 4983 4983 4983 4983 4983 4983 4983 4983 4983 4983 4983 4983 4983 4983 4983 4983 4983 4983 4983 4983 4983 4983 4983 5056 5056 5056 5056 5056 5132 5132 5132 5210 5210 5210 5210 5132 5132 5132 5056 5056 5056 5056 5132 5132 5132 5132 5132 5132 5132 5132 5210 5210 5210 5210 5210 5210 5210 5210 5210 5210 5291 5291 5291 5374 5374 5460 5460 5460 5460 5548 5640 5640 5734 5832 5832 5832 5933 5832 5832 5832 5933 5933 5933 5933 5933 5933 5933 5933 5933 6038 6038 6038 6038 6146 6146 6146 6146 6146 6259 6259 6375 6622 6622 7332 7492 7492 7492 7332 7332 7332 7492 7492 7492 7492 7492 7492 7332 7332 7332 7332 7332 3399 3333 3333 3365 3365 3365 3365 3365 3333 3333 3333 3333 3333 3333 3333 3333 3333 3333 3333 3333 3333 3333 3333 3333 3333 3333 3300 3300 3300 3300 3300 3300 3300 3300 3300 3333 3333 3333 3300 3300 3333 3333 3300 3300 3300 3269 3238 3238 3238 3238 3238 3269 3238 3238 3238 3238 3238 3238 3238 3238 3238 3238 3238 3238 3238 3238 3238 3238 3238 3208 3208 3208 3238 3208 3208 3208 3208 3208 3208 3208 3208 3208 3208 3208 3208 3208 3178 3149 3149 3178 3178 3178 3178 3149 3149 3149 3149 3149 3149 3149 3149 3149 3149 3178 3178 3208 3208 3238 3269 3300 3300 3333 3333 3333 3365 3399 3433 3468 3539 3576 3576 3614 3614 3653 3653 3692 3774 3816 4295 4295 4295 4295 4295 4295 4295 4295 4295 4295 4295 4295 4295 4295 4295 4295 4295 4295 4295 4295 4241 4241 4241 4241 4241 4295 4405 4405 6146 6259 6259 6259 6146 6146 6146 6146 6146 6146 6146 6146 6146 6146 6146 6146 6146 6038 6038 6038 6038 6038 6038 6038 6038 6038 6038 6038 6038 6038 6038 6038 6038 6038 6038 6038 6038 6038 6146 6259 6375 6497 6497 6497 6497 6497 6375 6259 6259 6259 6259 6259 6259 6259 6259 6259 6375 6375 6375 6375 6375 6375 6375 6375 6259 6259 6259 6375 6259 6259 6259 6375 6375 6375 6259 6146 6146 6146 6038 6038 6038 5933 5933 5933 5933 5933 5933 5933 6038 6038 6146 6146 6259 6375 6375 6375 6259 6146 6146 6146 5933 5933 5832 5832 5832 5832 5832 5933 5933 5933 6038 6038 6038 6038 6038 6146 6146 6146 6146 6375 4139 4139 4190 4190 4190 4190 4190 4190 4190 4190 4190 4190 4190 4089 4089 4089 4041 4041 4041 4041 4041 4041 4041 4041 3994 3994 3994 3994 0 0 0 0 0 0 0 0 0 0 0 0
0 0 0 0 0 0 0 0 0 0 0 0 0 0 0 0 0 0 0 0 0 0 0 0 0 0 0 0 0 0 0 0 2883 2883 2883 2908 2908 2908 2908 2933 2933 2933 2958 2958 2958 2984 2984 2984 2984 2984 2984 3010 3010 3010 3010 3010 3010 3037 3037 3064 3064 3092 3092 3092 3120 3092 3092 3539 3539 3539 3539 3399 3333 3333 3269 3208 3208 3178 3178 3178 3178 3178 3208 3208 3208 3208 3208 3208 3208 3238 3238 3238 3238 3269 3269 3269 3300 3300 3300 3300 3300 3300 3333 3333 3333 3365 3365 3365 3365 3365 3399 3399 3433 3433 3433 3433 3433 3468 3468 3468 3468 3468 3503 3539 3539 3539 3539 3576 3576 3576 0 0 0 0 0 0 0 0 0 0 0 0 0 0 0 0 0 5056 5056 5132 5132 5132 5056 5056 5056 5056 5056 5056 5056 5056 5056 5056 5132 5132 5132 5132 5132 5132 5132 5132 5132 5132 5132 5210 5210 5210 5210 5132 5132 5132 5132 5132 5132 5132 5132 5132 5132 5056 5056 5056 5056 5056 5056 5056 5056 5056 5056 5056 4983 4983 4983 4983 4911 4911 4911 4983 4983 4983 4983 4983 4983 4983 4983 4983 4983 4983 4983 4983 4983 4983 4983 4983 5056 5056 5056 5056 5056 5056 5056 5056 5056 5056 5132 5132 5132 5210 5210 5210 5132 5132 5056 5056 5056 5056 5056 5056 5056 5056 5056 5056 5132 5132 5132 5132 5210 5210 5210 5210 5210 5210 5291 5291 5291 5291 5291 5291 5374 5374 5460 5460 5460 5548 5548 5640 5640 5640 5734 5832 5933 5933 5832 5832 5832 5933 5933 5933 5933 5933 5933 5933 5933 6038 6038 6038 6038 6146 6146 6146 6146 6146 6146 6259 6375 6497 6622 6622 7332 7332 7492 7492 7332 7332 7332 7492 7492 7492 7492 7332 7332 7332 7332 7332 7332 7332 3399 3333 3333 3365 3365 3365 3365 3365 3333 3333 3333 3333 3333 3333 3333 3333 3333 3333 3333 3333 3333 3333 3333 3333 3333 3333 3300 3300 3300 3300 3300 3300 3300 3300 3300 3333 3333 3333 3300 3300 3300 3300 3300 3269 3269 3269 3269 3238 3238 3238 3238 3238 3238 3238 3238 3238 3238 3238 3238 3238 3238 3238 3238 3238 3238 3238 3238 3238 3238 3208 3208 3208 3238 3238 3238 3208 3208 3208 3208 3208 3208 3208 3208 3208 3208 3208 3178 3178 3178 3178 3178 3178 3178 3149 3149 3149 3149 3149 3149 3149 3149 3149 3149 3208 3208 3238 3269 3269 3300 3300 3300 3333 3333 3365 3365 3399 3433 3468 3539 3576 3576 3614 3653 3653 3692 3732 3774 3774 4295 4295 4295 4295 4295 4295 4295 4295 4295 4295 4295 4295 4295 4295 4295 4295 4295 4295 4295 4295 4295 4241 4241 4295 4295 4349 4405 4405 6146 6146 6146 6146 6146 6146 6146 6146 6146 6146 6146 6146 6146 6146 6038 6038 6038 6038 6038 6038 6038 6038 6038 6038 6038 6038 6038 6038 6038 6038 6038 6038 6038 6038 6038 6038 6038 6038 6146 6375 6375 6497 6497 6497 6497 6375 6375 6259 6146 6146 6146 6259 6259 6259 6259 6259 6375 6375 6375 6497 6497 6497 6375 6375 6259 6259 6259 6375 6259 6259 6259 6375 6375 6375 6259 6146 6146 6146 6038 6038 6038 5933 5933 5933 5933 5933 5933 5933 6038 6038 6146 6259 6259 6375 6375 6375 6375 6259 6146 6146 5933 5933 5832 5832 5832 5832 5832 5933 5933 5933 6038 6038 6038 6038 6038 6146 6146 6146 6146 6497 4190 4190 4190 4190 4190 4190 4190 4190 4190 4190 4190 4190 4190 4089 4089 4089 4041 4041 4041 4041 4041 4041 4041 4041 3994 3994 3994 3994 0 0 0 0 0 0 0 0 0 0 0 0
0 0 0 0 0 0 0 0 0 0 0 0 0 0 0 0 0 0 0 0 0 0 0 0 0 0 0 0 0 0 0 0 2883 2883 2883 2908 2908 2908 2908 2933 2933 2933 2958 2958 2958 2984 2984 2984 2984 2984 2984 3010 3010 3010 3010 3037 3037 3037 3064 3092 3092 3092 3092 3120 3120 3092 3092 3503 3503 3539 3468 3399 3300 3300 3269 3208 3208 3208 3178 3178 3178 3178 3208 3208 3208 3208 3208 3208 3208 3238 3238 3238 3238 3269 3269 3269 3300 3300 3300 3300 3300 3300 3333 3333 3333 3365 3365 3365 3365 3365 3399 3399 3433 3433 3433 3433 3433 3468 3468 3468 3468 3468 3503 3539 3539 3539 3539 3576 3576 3576 0 0 0 0 0 0 0 0 0 0 0 0 0 0 0 0 0 5056 5056 5132 5132 5132 5132 5132 5132 5132 5132 5132 5210 5210 5210 5210 5291 5291 5291 5291 5291 5291 5210 5210 5210 5210 5210 5210 5291 5291 5291 5291 5291 5291 5291 5291 5291 5291 5291 5210 5132 5132 5056 5056 5056 5056 5056 5056 5056 5056 5056 5056 4983 4983 4911 4911 4911 4911 4911 4983 4983 4983 4983 4983 4983 4983 4983 4983 4983 4983 4983 4983 4983 4983 4983 4983 4983 4983 4983 4983 4983 4983 4983 4983 5056 5056 5056 5056 5132 5210 5210 5210 5132 5132 5056 4983 4983 5056 5056 5056 5056 5056 5056 5056 5132 5132 5132 5132 5210 5210 5210 5210 5291 5291 5291 5291 5291 5291 5291 5374 5374 5374 5460 5460 5460 5460 5548 5548 5548 5640 5734 5832 5933 5933 5832 5832 5832 5933 5933 5933 5933 5933 5933 5933 5933 6038 6038 6038 6038 6146 6146 6146 6146 6146 6259 6375 6375 6497 6622 6889 7178 7332 7492 7492 7332 7332 7332 7492 7492 7492 7332 7332 7332 7332 7332 7332 7332 7332 7332 3365 3365 3365 3365 3365 3365 3365 3365 3365 3365 3333 3333 3333 3333 3333 3333 3333 3333 3333 3333 3333 3333 3333 3333 3333 3300 3300 3300 3300 3300 3300 3300 3300 3300 3300 3300 3333 3300 3300 3300 3300 3300 3269 3269 3269 3238 3238 3238 3238 3238 3238 3238 3238 3238 3238 3238 3238 3238 3238 3238 3238 3238 3238 3238 3238 3238 3238 3238 3238 3238 3238 3238 3238 3208 3178 3178 3208 3208 3208 3208 3208 3208 3208 3208 3208 3208 3178 3178 3178 3178 3178 3178 3149 3149 3149 3149 3149 3149 3149 3149 3149 3178 3208 3208 3238 3269 3269 3269 3300 3333 3333 3333 3365 3365 3399 3433 3468 3576 3576 3614 3614 3653 3692 3692 3732 3732 3774 4295 4295 4295 4295 4295 4295 4295 4295 4295 4295 4295 4295 4295 4295 4295 4295 4295 4295 4295 4295 4295 4295 4295 4295 4295 4349 4405 4405 6146 6146 6146 6146 6146 6146 6146 6146 6146 6146 6146 6146 6146 6146 6038 6038 6038 6038 6038 6038 6038 6038 6038 6038 6038 6038 5933 5933 6038 6038 6038 6038 6038 6038 6038 6038 6038 6038 6146 6375 6375 6497 6497 6375 6375 6259 6259 6146 6146 6146 6146 6146 6259 6259 6259 6375 6375 6497 6497 6497 6497 6497 6375 6375 6375 6375 6375 6375 6375 6375 6375 6375 6375 6259 6259 6146 6146 6146 6038 6038 6038 5933 5933 5933 5933 5933 5933 5933 6038 6146 6146 6259 6375 6375 6375 6375 6375 6259 6146 6146 5933 5832 5832 5832 5832 5832 5933 5933 5933 5933 6038 6038 6038 6038 6038 6146 6146 6146 6146 6146 4190 4190 4190 4190 4190 4190 4190 4190 4190 4190 4190 4190 4190 4139 4089 4089 4041 4041 4041 4041 4041 4089 4089 4089 4041 4041 3994 3994 0 0 0 0 0 0 0 0 0 0 0 0
0 0 0 0 0 0 0 0 0 0 0 0 0 0 0 0 0 0 0 0 0 0 0 0 0 0 0 0 0 0 0 0 2883 2883 2883 2908 2908 2908 2908 2933 2933 2958 2958 2958 2958 2984 2984 2984 2984 2984 2984 3010 3010 3010 3010 3037 3037 3064 3064 3092 3092 3092 3092 3120 3120 3120 3120 3433 3503 3503 3399 3333 3300 3269 3238 3208 3208 3208 3208 3208 3208 3208 3208 3208 3208 3208 3208 3208 3208 3238 3238 3269 3269 3269 3300 3300 3300 3300 3300 3300 3300 3300 3333 3333 3365 3365 3365 3365 3399 3399 3399 3399 3433 3433 3433 3433 3433 3468 3468 3468 3468 3468 3503 3539 3539 3503 3503 3539 3576 0 0 0 0 0 0 0 0 0 0 0 0 0 0 0 0 0 5056 5056 5056 5132 5132 5132 5210 5210 5210 5210 5210 5291 5291 5291 5291 5374 5374 5374 5291 5291 5291 5291 5291 5291 5291 5291 5374 5374 5374 5374 5460 5460 5460 5460 5460 5460 5460 5460 5374 5374 5374 5374 5132 5132 5056 5056 5056 5056 5056 5056 5056 5056 5056 4983 4911 4911 6146 6146 6146 4983 4983 4983 4983 4983 4983 4983 4983 4983 4983 4983 4983 4983 4983 4983 4983 4983 4983 4983 4983 4983 4983 4983 4983 4983 4983 4983 5056 5056 5132 5291 5291 5291 5132 5132 4983 4983 4983 4983 4983 5056 5056 5056 5132 5132 5132 5132 5210 5210 5210 5210 5210 5291 5291 5291 5291 5291 5291 5291 5374 5374 5374 5374 5460 5460 5460 5460 5548 5548 5548 5548 6038 5933 5933 5933 5832 5832 5832 5933 5933 5933 5933 5933 5933 5933 5933 5933 6038 6038 6038 6146 6146 6146 6146 6146 6259 6375 6375 6497 6622 6889 7178 7332 7332 7332 7332 7332 7332 7332 7492 7492 7332 7332 7332 7332 7332 7332 7332 7332 7332 3333 3333 3365 3365 3365 3365 3365 3365 3365 3365 3365 3333 3333 3333 3333 3333 3333 3333 3333 3333 3333 3333 3333 3333 3333 3333 3300 3300 3300 3300 3300 3300 3300 3300 3300 3300 3300 3300 3300 3300 3300 3300 3300 3269 3269 3238 3238 3238 3238 3238 3238 3238 3238 3238 3238 3238 3238 3238 3238 3238 3238 3238 3238 3238 3238 3238 3238 3238 3238 3238 3238 3238 3238 3208 3178 3178 3208 3208 3208 3208 3208 3208 3178 3178 3178 3208 3178 3178 3178 3178 3178 3178 3149 3149 3149 3149 3149 3149 3149 3149 3149 3178 3208 3208 3238 3269 3269 3269 3300 3333 3333 3333 3365 3433 3433 3468 3539 3576 3614 3614 3614 3653 3692 3692 3732 3732 4295 4295 4295 4295 4295 4295 4295 4295 4295 4295 4295 4295 4295 4295 4295 4295 4295 4295 4295 4295 4295 4295 4295 4295 4295 4349 4405 4405 4405 6259 6259 6259 6259 6146 6146 6146 6146 6146 6146 6146 6146 6146 6146 6038 6038 6038 6038 6038 6038 6038 6038 6038 6038 6038 6038 5933 5933 6038 6038 6038 6038 6038 6038 6038 6038 6038 6146 6146 6375 6375 6497 6497 6375 6259 6259 6146 6146 6146 6146 6146 6146 6259 6259 6375 6375 6497 6497 6497 6497 6497 6497 6375 6375 6375 6375 6375 6375 6375 6375 6375 6375 6375 6259 6259 6146 6146 6146 6038 6038 6038 6038 6038 6038 6038 6038 6038 6038 6146 6146 6146 6259 6375 6375 6375 6375 6375 6259 6146 6146 5933 5832 5832 5832 5832 5832 5933 5933 5933 6038 6038 6038 6038 6146 6146 6146 6146 6146 6146 4241 4190 4190 4190 4190 4190 4190 4190 4190 4190 4190 4190 4190 4139 4089 4041 4041 4041 4041 4041 4041 4041 4089 4041 4041 3994 3994 3994 3994 0 0 0 0 0 0 0 0 0 0 0 0
0 0 0 0 0 0 0 0 0 0 0 0 0 0 0 0 0 0 0 0 0 0 0 0 0 0 0 0 0 0 0 0 2883 2883 2883 2908 2908 2908 2908 2933 2933 2958 2958 2958 2958 2984 2984 2984 2984 3010 3010 3010 3010 3010 3010 3037 3037 3064 3064 3092 3092 3092 3092 3120 3120 3120 3149 3433 3468 3468 3365 3300 3300 3238 3238 3208 3208 3208 3208 3208 3208 3208 3208 3208 3208 3208 3208 3208 3238 3269 3269 3269 3269 3300 3300 3300 3300 3300 3300 3300 3300 3300 3333 3333 3365 3365 3365 3399 3399 3399 3399 3399 3433 3433 3433 3433 3433 3468 3468 3468 3468 3468 3503 3539 3539 3503 3503 3539 0 0 0 0 0 0 0 0 0 0 0 0 0 0 0 0 0 5132 5056 5056 5056 5132 5132 5132 5210 5210 5210 5291 5291 5291 5291 5374 5374 5374 5374 5374 5374 5374 5374 5374 5374 5374 5460 5460 5460 5548 5548 5548 5548 5548 5548 5548 5548 5548 5548 5548 5548 5548 5548 5548 5548 5210 5056 5056 4983 4983 4983 5056 5056 5056 5056 4983 4983 6038 6146 6146 6146 6146 6259 4983 4983 4983 4983 4983 4983 4983 4983 4983 4983 4983 4983 4983 4983 4983 4983 4983 4983 4983 4983 4983 4983 4911 4911 4983 5056 5056 6038 6038 6038 6038 6146 6146 4983 4911 4911 4983 4983 4983 5056 5056 5132 5132 5132 5210 5210 5210 5210 5210 5210 5291 5291 5291 5291 5291 5291 5291 5374 5374 5374 5460 5460 5460 5460 5548 5548 5548 5640 6038 6038 6038 5933 5933 5933 5933 5933 5933 5933 5933 5933 5933 5933 5933 5933 5933 6038 6038 6038 6146 6146 6146 6146 6146 6259 6259 6375 6497 6889 6889 7178 7332 7332 7332 7332 7332 7332 7332 7332 7492 7332 7332 7332 7332 7332 7332 7332 7332 3399 3333 3333 3365 3365 3365 3365 3365 3365 3365 3365 3365 3333 3333 3333 3333 3333 3333 3333 3333 3333 3333 3333 3333 3333 3333 3300 3300 3300 3300 3300 3300 3300 3300 3300 3300 3300 3300 3300 3300 3300 3300 3300 3300 3269 3269 3238 3238 3238 3238 3238 3238 3238 3238 3238 3238 3238 3238 3238 3238 3238 3238 3238 3238 3238 3238 3238 3238 3238 3238 3238 3238 3238 3238 3208 3178 3178 3208 3208 3208 3208 3208 3178 3178 3178 3178 3208 3178 3178 3178 3178 3178 3178 3149 3149 3149 3149 3149 3149 3149 3149 3149 3178 3208 3208 3238 3269 3269 3300 3300 3333 3333 3365 3433 3433 3433 3468 3503 3576 3614 3614 3614 3653 3692 3732 3732 4295 4295 4295 4295 4295 4295 4349 4295 4295 4295 4295 4295 4295 4295 4295 4295 4295 4295 4295 4295 4295 4295 4295 4295 4295 4349 4349 4405 4405 4522 4522 6259 6259 6259 6259 6146 6146 6146 6146 6146 6146 6146 6146 6146 6038 6038 6038 6038 6038 6038 6038 6038 6038 6038 6038 6038 6038 6038 6038 6038 6038 6038 6038 6038 6146 6146 6146 6146 6259 6375 6375 6375 6375 6375 6259 6259 6146 6146 6146 6146 6146 6146 6259 6375 6375 6375 6497 6497 6497 6497 6497 6497 6497 6375 6375 6375 6375 6375 6375 6375 6375 6375 6375 6375 6375 6259 6146 6146 6038 6038 6038 6038 6038 6038 6038 6038 6038 6038 6146 6146 6259 6259 6375 6375 6375 6259 6259 6146 6146 6038 5832 5832 5832 5832 5832 5933 5933 5933 5933 6038 6038 6038 6038 6146 6146 6146 6146 6146 6146 4241 4190 4190 4241 4190 4190 4190 4190 4190 4190 4190 4139 4139 4139 4089 4041 4041 4041 4041 4041 4041 4041 4041 4041 4041 3994 3994 3994 3994 0 0 0 0 0 0 0 0 0 0 0 0
0 0 0 0 0 0 0 0 0 0 0 0 0 0 0 0 0 0 0 0 0 0 0 0 0 0 0 0 0 0 0 0 2883 2883 2883 2908 2908 2908 2933 2933 2933 2958 2958 2958 2984 2984 2984 2984 3010 3010 3010 3010 3010 3037 3037 3064 3064 3092 3092 3092 3092 3120 3120 3120 3120 3149 3238 3300 3433 3433 3365 3300 3300 3208 3208 3208 3208 3208 3208 3208 3208 3208 3208 3208 3208 3208 3208 3208 3238 3269 3269 3300 3300 3300 3300 3300 3300 3300 3300 3300 3300 3300 3333 3333 3365 3365 3399 3399 3399 3399 3399 3399 3433 3433 3433 3433 3433 3468 3468 3468 3468 3468 3503 3539 3503 3503 3503 0 0 0 0 0 0 0 0 0 0 0 0 0 0 0 0 0 5132 5132 5132 5132 5132 5210 5210 5210 5210 5210 5210 5291 5291 5291 5291 5374 5374 5374 5374 5374 5374 5374 5374 5374 5460 5460 5548 5548 5548 5548 5548 5548 5548 5640 5640 5640 5640 5640 5640 5640 5640 5640 5640 5640 5640 5548 5132 5056 4983 4983 4983 5056 5056 5056 5132 5933 6038 6038 6038 6146 6146 6146 6146 6146 6146 4983 4983 6259 4983 4983 4983 4983 4983 4983 4983 4983 4983 4983 4983 4983 4983 4983 4983 4983 4983 4911 4911 4983 4983 6146 6146 6038 6038 6038 6146 6146 6259 4911 4911 4983 4983 4983 5056 5056 5132 5132 5132 5210 5210 5210 5210 5210 5210 5210 5291 5291 5291 5291 5291 5374 5374 5374 5374 5460 5460 5460 5460 5548 5548 5640 5734 5832 5933 6038 5933 5933 5933 5933 5933 5933 5933 5933 5933 5933 5933 5933 5933 6038 6038 6038 6038 6146 6146 6146 6146 6146 6146 6259 6375 6497 6622 7030 7178 7332 7332 7492 7332 7332 7332 7332 7332 7492 7332 7332 7332 7332 7332 7332 7332 7332 3399 3333 3333 3365 3365 3365 3365 3365 3365 3365 3365 3365 3365 3365 3333 3333 3333 3333 3333 3333 3333 3333 3333 3333 3333 3333 3300 3300 3300 3300 3300 3300 3300 3300 3300 3300 3300 3300 3300 3300 3269 3269 3269 3269 3269 3269 3269 3238 3238 3269 3269 3269 3238 3238 3238 3238 3238 3238 3238 3238 3238 3238 3238 3238 3238 3238 3238 3238 3238 3238 3238 3238 3208 3208 3208 3208 3208 3208 3208 3208 3208 3208 3178 3178 3178 3208 3208 3178 3178 3178 3178 3178 3178 3149 3149 3149 3149 3149 3149 3149 3149 3149 3178 3208 3208 3238 3269 3269 3300 3333 3333 3365 3365 3433 3433 3433 3468 3503 3576 3614 3614 3653 3653 3692 3732 3774 4241 4241 4295 4295 4295 4295 4349 4295 4295 4295 4295 4295 4295 4295 4295 4295 4295 4295 4295 4295 4295 4295 4295 4295 4295 4349 4349 4463 4463 4522 4522 6259 6259 6259 6259 6259 6259 6146 6146 6146 6146 6146 6146 6146 6038 6038 6038 6038 6038 6038 6038 6038 6038 6038 6038 5933 5933 5933 5933 6038 6038 6038 6038 6038 6038 6038 6146 6146 6375 6375 6375 6375 6375 6375 6259 6259 6146 6146 6146 6146 6146 6259 6259 6375 6375 6497 6497 6497 6497 6497 6497 6497 6497 6375 6375 6375 6375 6375 6375 6375 6375 6375 6375 6375 6375 6259 6259 6146 6146 6038 6038 6038 6038 6038 6038 6038 6146 6146 6146 6146 6259 6259 6375 6375 6375 6259 6259 6146 6146 6038 5832 5832 5832 5832 5832 5933 5933 5933 5933 6038 6038 6038 6146 6146 6146 6146 6146 6146 4295 4241 4241 4241 4241 4190 4190 4190 4190 4190 4190 4190 4139 4139 4139 4089 4041 4041 4041 4041 4041 4041 4041 4041 4041 3994 3994 3994 3994 3994 0 0 0 0 0 0 0 0 0 0 0 0
0 0 0 0 0 0 0 0 0 0 0 0 0 0 0 0 0 0 0 0 0 0 0 0 0 0 0 0 0 0 0 0 2883 2883 2883 2908 2908 2908 2933 2933 2958 2958 2958 2958 2984 2984 2984 2984 3010 3010 3010 3010 3010 3037 3037 3064 3064 3092 3092 3092 3092 3092 3120 3120 3120 3149 3208 3238 3433 3433 3468 3468 3208 3208 3208 3208 3208 3208 3208 3208 3208 3208 3208 3208 3208 3208 3238 3238 3238 3269 3269 3300 3300 3300 3300 3300 3300 3300 3300 3300 3300 3333 3333 3365 3365 3365 3399 3399 3399 3399 3399 3399 3433 3433 3433 3433 3433 3468 3468 3468 3468 3503 3503 3503 3503 3503 3503 0 0 0 0 0 0 0 0 0 0 0 0 0 0 0 0 0 5132 5132 5132 5132 5132 5132 5210 5210 5210 5210 5210 5291 5291 5291 5291 5374 5374 5374 5374 5374 5374 5374 5460 5460 5460 5460 5548 5548 5640 5548 5548 5548 5640 5640 5640 5640 5640 5640 5640 5640 5640 5640 5640 5734 5734 5734 5734 5734 4983 4983 4983 5056 5056 5056 5933 5933 6038 6038 6038 6038 6146 6146 6146 6146 6146 6146 6146 6146 6146 6146 5056 4983 4983 4983 4983 4983 4983 4983 4983 4983 4983 4983 4983 4983 4911 4911 4911 4911 6259 6259 6146 6146 6146 6146 6146 6146 6146 4911 4911 4983 4983 5056 5056 5056 5132 5132 5132 5210 5210 5210 5210 5210 5210 5210 5291 5291 5291 5291 5374 5374 5374 5374 5460 5460 5460 5548 5548 5548 5548 5640 5832 5832 5933 6038 5933 5933 5933 5933 5933 5933 5933 5933 5933 5933 5933 5933 5933 6038 6038 6038 6038 6146 6146 6146 6146 6146 6146 6259 6375 6497 6622 7030 7178 7332 7492 7492 7492 7492 7332 7332 7332 7492 7492 7332 7332 7492 7492 7332 7332 7332 3399 3365 3365 3365 3365 3365 3365 3365 3365 3365 3365 3365 3365 3365 3365 3365 3333 3333 3333 3333 3333 3333 3333 3333 3333 3333 3300 3300 3300 3300 3300 3300 3300 3300 3300 3300 3300 3300 3300 3300 3269 3269 3269 3269 3269 3269 3269 3269 3269 3269 3269 3269 3238 3238 3238 3238 3238 3238 3238 3238 3238 3238 3238 3238 3238 3238 3238 3238 3238 3238 3238 3238 3208 3208 3208 3208 3208 3208 3208 3208 3208 3208 3208 3208 3208 3178 3178 3149 3149 3149 3149 3149 3149 3149 3149 3149 3149 3178 3178 3178 3178 3178 3178 3208 3208 3238 3269 3269 3300 3333 3365 3365 3399 3433 3433 3433 3468 3539 3576 3614 3614 3653 3692 3692 3732 3774 4241 4241 4295 4295 4295 4295 4349 4295 4295 4295 4295 4295 4295 4295 4295 4295 4295 4295 4295 4295 4295 4295 4295 4295 4295 4295 4349 4405 4405 4522 4522 6146 6146 6259 6259 6259 6259 6146 6146 6146 6146 6146 6146 6146 6038 6038 6038 6038 6038 6038 6038 6038 6038 6038 6038 5933 5933 5933 5933 6038 6038 6038 6038 6038 6038 6038 6146 6146 6375 6375 6375 6375 6375 6375 6259 6259 6259 6146 6146 6146 6259 6259 6259 6375 6375 6497 6497 6497 6497 6497 6497 6497 6497 6497 6497 6497 6497 6497 6497 6497 6497 6497 6497 6497 6497 6375 6375 6259 6146 6146 6146 6038 6038 6038 6038 6038 6146 6146 6146 6146 6259 6259 6375 6375 6375 6259 6259 6146 6038 6038 5832 5734 5734 5832 5832 5933 5933 6038 6038 6038 6038 6038 6146 6146 6146 6146 6146 4295 4295 4241 4241 4241 4241 4190 4190 4190 4190 4139 4139 4139 4139 4139 4089 4041 4041 4041 4041 4041 4041 4041 4041 4041 3994 3994 3994 3994 3994 3994 0 0 0 0 0 0 0 0 0 0 0 0
0 0 0 0 0 0 0 0 0 0 0 0 0 0 0 0 0 0 0 0 0 0 0 0 0 0 0 0 0 0 0 0 2883 2883 2883 2908 2908 2908 2933 2933 2958 2958 2958 2958 2984 2984 2984 2984 3010 3010 3037 3037 3037 3037 3064 3092 3092 3092 3092 3092 3092 3092 3120 3120 3120 3149 3208 3208 3208 3178 3178 3178 3178 3178 3178 3208 3208 3208 3208 3208 3208 3208 3208 3208 3208 3208 3238 3238 3269 3269 3269 3300 3300 3300 3300 3300 3300 3300 3300 3300 3333 3333 3333 3365 3365 3365 3399 3399 3399 3399 3399 3433 3433 3433 3433 3433 3433 3468 3468 3468 3468 3468 3503 3503 3468 3468 3468 0 0 0 0 0 0 0 0 0 0 0 0 0 0 0 0 5374 5374 5210 5132 5132 5132 5132 5210 5210 5210 5210 5210 5210 5291 5291 5291 5374 5374 5374 5374 5374 5374 5374 5460 5460 5460 5460 5548 5548 5640 5548 5548 5548 5640 5640 5640 5640 5640 5640 5640 5640 5640 5640 5640 5640 5640 5548 5548 5548 5374 5056 5056 5056 5210 5374 5933 5933 6038 6038 6038 6038 6038 6038 6038 6038 6038 6038 6038 6038 6038 6038 6038 6038 4983 4983 4983 4983 4983 4983 4983 4983 4983 4983 4983 4983 4911 4911 6259 6259 6259 6259 6146 6146 6146 6146 6146 6146 6146 6146 5056 5056 5056 5056 5132 5132 5132 5132 5132 5210 5210 5210 5210 5210 5291 5291 5291 5291 5291 5291 5374 5374 5374 5374 5460 5460 5460 5548 5548 5548 5640 5832 5933 5933 6038 6038 6038 6038 5933 5933 5933 5933 5933 5933 5933 5933 6038 6038 6038 6038 6038 6038 6038 6038 6038 6146 6146 6146 6146 6259 6375 6497 6622 7030 7178 7332 7332 7332 7492 7332 7332 7332 7492 7492 7492 7492 7492 7492 7492 7332 7332 7332 3399 3365 3365 3365 3365 3365 3365 3365 3365 3365 3365 3365 3365 3365 3365 3365 3333 3333 3333 3333 3333 3333 3333 3333 3333 3333 3333 3333 3300 3300 3300 3333 3333 3300 3300 3300 3300 3300 3300 3300 3300 3300 3269 3269 3269 3269 3269 3269 3269 3269 3269 3269 3269 3269 3269 3269 3238 3238 3238 3238 3238 3238 3238 3238 3238 3238 3238 3238 3238 3238 3238 3238 3208 3208 3208 3208 3208 3208 3208 3208 3208 3208 3208 3208 3208 3178 3178 3149 3149 3149 3149 3149 3149 3149 3149 3149 3149 3178 3178 3178 3178 3178 3178 3208 3208 3208 3269 3269 3300 3333 3365 3365 3399 3433 3433 3468 3468 3539 3614 3614 3614 3653 3692 3692 3732 3774 4295 4295 4295 4295 4295 4349 4349 4349 4295 4295 4295 4349 4295 4295 4295 4295 4295 4295 4295 4295 4295 4295 4295 4295 4295 4295 4349 4405 4405 4522 4522 6146 6146 6259 6259 6259 6259 6146 6146 6146 6146 6146 6146 6146 6038 6038 6038 6038 6038 6038 6038 6038 6038 6038 6038 6038 6038 6038 6038 6038 6038 6038 6038 6038 6038 6146 6146 6259 6259 6259 6375 6375 6375 6259 6259 6259 6259 6146 6146 6146 6146 6259 6259 6259 6259 6375 6375 6497 6497 6497 6497 6375 6375 6375 6375 6375 6375 6375 6497 6497 6497 6497 6497 6497 6497 6375 6375 6259 6146 6146 6146 6038 6038 6038 6038 6038 6146 6146 6146 6146 6259 6259 6375 6375 6375 6375 6146 6038 6038 5933 5734 5734 5734 5734 5832 5933 5933 6038 6038 6038 6038 6038 6146 6146 6146 6146 6146 4295 4295 4241 4241 4190 4190 4190 4190 4190 4190 4139 4139 4139 4089 4089 4089 4041 4041 4041 4041 4041 4041 4041 4041 4041 3994 3994 3994 4041 3994 3994 0 0 0 0 0 0 0 0 0 0 0 0
0 0 0 0 0 0 0 0 0 0 0 0 0 0 0 0 0 0 0 0 0 0 0 0 0 0 0 0 0 0 0 0 2908 2908 2908 2908 2908 2908 2933 2933 2958 2958 2984 2984 2984 2984 2984 2984 3010 3010 3037 3037 3037 3064 3064 3092 3092 3092 3092 3092 3092 3092 3092 3120 3120 3178 3208 3178 3178 3178 3149 3149 3178 3178 3178 3208 3208 3208 3208 3208 3208 3208 3208 3208 3238 3238 3238 3238 3269 3269 3269 3300 3300 3300 3300 3300 3300 3300 3300 3300 3333 3333 3365 3365 3399 3399 3399 3433 3433 3433 3433 3433 3433 3433 3433 3433 3433 3468 3468 3468 3468 3468 3503 3503 3468 3468 3468 0 0 0 0 0 0 0 0 0 0 0 0 0 0 0 5374 5374 5374 5210 5132 5132 5132 5132 5132 5210 5210 5210 5210 5210 5291 5291 5374 5374 5374 5374 5374 5374 5374 5460 5460 5460 5460 5460 5548 5548 5548 5548 5548 5548 5548 5640 5640 5640 5640 5640 5640 5640 5640 5640 5640 5640 5640 5460 5374 5374 5374 5374 5374 5291 5291 5640 5832 5832 5933 5933 5933 6038 6038 6038 6038 5933 5933 6038 6038 6038 6038 6038 6038 6038 5056 5056 4983 4983 4983 4983 4983 4983 4983 4983 4983 4983 4983 4983 6259 6146 6146 6146 6146 6146 6146 6038 6038 6146 6146 6146 5210 5056 5056 5056 5132 5132 5132 5210 5210 5210 5210 5210 5210 5210 5291 5291 5291 5291 5291 5374 5374 5374 5374 5374 5460 5460 5460 5548 5548 5640 5640 5832 6038 6038 6038 6038 6038 6038 5933 5933 5933 5933 5933 5933 6038 6038 6038 6038 6038 6038 6038 6038 6038 6038 6038 6146 6146 6146 6146 6146 6259 6375 6889 7030 7178 7332 7332 7332 7332 7332 7332 7332 7492 7492 7492 7492 7492 7492 7492 7492 7492 7492 3399 3365 3365 3365 3365 3365 3365 3365 3365 3365 3365 3365 3365 3365 3365 3365 3333 3333 3333 3333 3333 3333 3333 3333 3333 3333 3333 3333 3300 3300 3300 3333 3333 3300 3300 3300 3300 3333 3300 3300 3300 3300 3269 3269 3269 3269 3269 3269 3269 3269 3300 3300 3300 3300 3300 3269 3269 3238 3238 3238 3238 3238 3238 3238 3238 3238 3238 3238 3238 3238 3238 3238 3238 3238 3208 3208 3208 3208 3208 3208 3208 3208 3208 3208 3208 3208 3208 3178 3178 3178 3178 3178 3178 3178 3178 3178 3178 3178 3178 3178 3178 3178 3178 3208 3208 3208 3269 3269 3300 3365 3399 3399 3433 3468 3468 3468 3468 3576 3576 3614 3614 3653 3692 3692 3692 4349 4295 4295 4349 4349 4349 4349 4349 4349 4349 4349 4349 4349 4295 4295 4295 4349 4295 4295 4295 4295 4295 4295 4295 4295 4295 4295 4349 4349 4405 6259 6259 6259 6259 6259 6259 6259 6259 6146 6146 6146 6146 6146 6146 6146 6038 6038 6038 6038 6038 6038 6038 6038 6038 6038 6038 6038 6038 6038 6038 6038 6038 6038 6038 6038 6038 6146 6146 6259 6259 6259 6259 6259 6259 6259 6259 6259 6259 6146 6146 6146 6146 6259 6259 6259 6259 6375 6375 6375 6375 6497 6375 6259 6259 6259 6375 6375 6375 6375 6375 6375 6375 6497 6375 6375 6375 6375 6375 6259 6146 6146 6146 6146 6038 6038 6038 6038 6146 6146 6146 6259 6259 6375 6375 6375 6375 6375 6146 6038 6038 5933 5734 5734 5734 5734 5832 5933 5933 6038 6038 6038 6038 6146 6146 6146 6038 6038 4295 4295 4295 4295 4241 4190 4190 4190 4190 4190 4139 4139 4139 4139 4089 4089 4089 4041 4041 4041 4041 4041 4041 4041 4041 4041 3994 3994 3994 3994 3994 3994 0 0 0 0 0 0 0 0 0 0 0 0
0 0 0 0 0 0 0 0 0 0 0 0 0 0 0 0 0 0 0 0 0 0 0 0 0 0 0 0 0 0 0 0 2908 2908 2908 2908 2908 2908 2933 2933 2933 2958 2958 2984 2984 2984 2984 2984 3010 3010 3037 3037 3037 3064 3064 3092 3092 3092 3092 3092 3092 3092 3092 3120 3120 3149 3178 3178 3149 3149 3149 3149 3149 3149 3178 3208 3208 3208 3208 3208 3208 3238 3208 3208 3238 3238 3238 3269 3269 3269 3300 3300 3300 3300 3300 3300 3300 3333 3333 3333 3333 3333 3365 3365 3399 3399 3399 3433 3433 3433 3433 3433 3433 3433 3468 3468 3468 3468 3468 3468 3503 3503 3503 3503 3503 3503 3503 3614 3614 3732 3732 0 0 0 0 0 0 0 0 0 0 0 5374 5291 5291 5210 5132 5132 5132 5132 5132 5132 5210 5210 5210 5291 5291 5291 5374 5374 5374 5374 5374 5374 5460 5460 5460 5460 5460 5460 5460 5460 5460 5460 5460 5548 5548 5548 5548 5548 5640 5640 5640 5640 5640 5640 5640 5640 5548 5374 5374 5374 5291 5291 5374 5374 5548 5734 5734 5734 5832 5832 5832 5832 5832 5832 5933 5832 5832 5933 5933 5933 5933 5933 5933 6146 5132 5056 5056 4983 4983 4983 4983 4983 4983 4983 4983 4983 4983 4983 6146 6146 6146 6146 6146 6146 6146 6038 6038 6038 6038 6038 5210 5132 5132 5132 5210 5210 5210 5210 5210 5210 5210 5210 5210 5291 5291 5291 5374 5291 5291 2333 2333 5374 5374 5374 5460 5460 5460 5548 5548 5640 5640 5933 6038 6038 6038 6038 6038 6038 6038 5933 5933 6038 6038 6038 6038 6038 6038 6038 6038 6038 6038 6038 6038 6038 6038 6146 6146 6146 6146 6146 6259 6375 6753 7030 7178 7332 7332 7332 7332 7332 7332 7332 7492 7492 7492 7492 7492 7492 7492 7492 7492 7492 3399 3365 3365 3365 3365 3365 3365 3365 3365 3365 3365 3365 3365 3365 3365 3365 3333 3333 3333 3333 3333 3333 3333 3333 3333 3333 3333 3333 3333 3333 3333 3333 3300 3300 3333 3333 3333 3300 3300 3300 3300 3300 3269 3269 3269 3269 3269 3269 3269 3300 3300 3300 3300 3300 3300 3300 3269 3238 3238 3238 3238 3238 3238 3238 3238 3238 3238 3238 3238 3238 3238 3238 3238 3238 3208 3208 3208 3208 3208 3208 3208 3208 3208 3208 3208 3208 3208 3178 3178 3178 3178 3178 3178 3178 3178 3178 3178 3178 3178 3178 3178 3178 3178 3208 3208 3238 3269 3300 3333 3365 3365 3399 3399 3433 3468 3468 3468 3539 3576 3614 3614 3614 3653 3692 3692 4349 4349 4349 4349 4349 4349 4349 4349 4349 4349 4349 4349 4349 4349 4349 4349 4349 4349 4295 4295 4295 4295 4295 4295 4295 4295 4349 4349 4349 4405 4463 6259 6259 6259 6259 6259 6259 6146 6146 6146 6146 6146 6146 6146 6146 6038 6038 6038 6038 6038 6038 6038 6038 6038 6038 6038 6038 6038 6038 6038 6038 6038 6038 6146 6146 6146 6146 6146 6259 6259 6259 6259 6259 6259 6259 6259 6259 6259 6146 6146 6146 6146 6259 6259 6146 6146 6259 6259 6259 6375 6375 6375 6259 6259 6259 6259 6259 6259 6259 6259 6259 6375 6375 6375 6259 6259 6259 6259 6259 6146 6146 6146 6038 6038 6038 6038 6038 6038 6146 6146 6146 6259 6375 6375 6375 6375 6375 6146 6038 6038 5933 5734 5734 5734 5734 5832 5933 5933 6038 6038 6038 6038 6038 6038 6038 6038 4241 4241 4241 4349 4295 4241 4241 4241 4190 4190 4139 4139 4139 4139 4139 4089 4089 4089 4041 4041 4041 4041 4041 4041 4041 4041 3994 3994 3994 3994 3994 3994 3994 0 0 0 0 0 0 0 0 0 0 0 0
0 0 0 0 0 0 0 0 0 0 0 0 0 0 0 0 0 0 0 0 0 0 0 0 0 0 0 0 0 0 0 0 2908 2908 2908 2908 2933 2933 2933 2933 2933 2958 2958 2984 2984 2984 2984 3010 3010 3010 3037 3037 3037 3064 3064 3092 3092 3092 3092 3092 3092 3092 3092 3120 3120 3149 3178 3178 3149 3149 3178 3178 3149 3149 3178 3208 3208 3208 3208 3208 3208 3238 3238 3238 3238 3238 3269 3269 3269 3269 3300 3300 3300 3300 3300 3300 3300 3333 3333 3333 3333 3333 3365 3365 3399 3399 3399 3433 3433 3433 3433 3433 3468 3468 3468 3468 3468 3468 3468 3503 3503 3539 3539 3539 3576 3576 3576 3614 3614 3692 3692 3692 3732 0 0 0 0 0 0 0 0 5374 5374 5291 5291 5132 5132 5132 5132 5132 5132 5132 5132 5132 5210 5210 5291 5291 5291 5374 5374 5374 5374 5374 5460 5374 5374 5374 5460 5460 5460 5460 5460 5460 5460 5460 5460 5548 5548 5548 5640 5640 5640 5640 5640 5640 5640 5548 5548 5374 5374 5374 5291 5291 5374 5460 5548 5640 5640 5734 5734 5734 5734 5734 5734 5734 5734 5734 5734 5832 5933 5933 5933 5832 5832 5734 5132 5056 5056 4983 4983 4983 4983 4983 4983 5056 5056 5056 5056 5734 5832 5933 6038 6038 6038 6038 6038 5933 5933 5832 5832 5291 5210 5210 5132 5132 5210 5210 5210 5210 5210 5210 5210 5210 5210 5291 5291 5291 5374 5374 2317 2317 2317 2333 2349 5374 5460 5460 5460 5548 5548 5640 5734 5933 6038 6038 6038 6038 6038 6038 6038 5933 5933 6038 6038 6038 6038 6038 6038 6038 6038 6038 6038 6038 6038 6038 6038 6146 6146 6146 6146 6146 6259 6497 6753 7030 7178 7332 7332 7332 7332 7332 7332 7332 7492 7492 7492 7492 7492 7492 7492 7492 3433 3433 3399 3365 3365 3365 3365 3365 3365 3365 3365 3365 3365 3365 3365 3365 3365 3365 3365 3333 3333 3333 3333 3333 3333 3333 3333 3333 3333 3333 3333 3333 3333 3333 3300 3300 3333 3333 3333 3300 3300 3300 3300 3300 3300 3269 3269 3269 3269 3269 3269 3300 3300 3300 3300 3300 3300 3300 3269 3238 3238 3238 3238 3238 3238 3238 3238 3238 3238 3238 3238 3238 3238 3238 3238 3238 3208 3208 3208 3208 3208 3208 3208 3208 3208 3208 3208 3208 3208 3178 3178 3178 3178 3178 3178 3178 3178 3178 3178 3178 3178 3178 3178 3178 3178 3208 3208 3269 3300 3333 3333 3365 3365 3399 3399 3433 3468 3468 3468 3539 3576 3614 3614 3614 3653 3692 4295 4295 4349 4349 4349 4349 4349 4349 4349 4349 4349 4349 4349 4349 4295 4295 4349 4349 4349 4295 4295 4295 4295 4295 4295 4295 4349 4349 4405 4405 4405 4463 6146 6146 6146 6146 6259 6259 6146 6146 6146 6146 6146 6146 6146 6146 6038 6038 6038 6038 6038 6038 6038 6038 6038 6038 6038 6038 6038 6038 6038 6038 6038 6038 6146 6146 6146 6146 6146 6146 6146 6146 6146 6259 6146 6146 6146 6146 6259 6146 6146 6146 6146 6146 6146 6146 6146 6146 6146 6146 6259 6259 6259 6146 6146 6146 6146 6146 6146 6146 6146 6146 6146 6259 6146 6146 6146 6146 6146 6146 6146 6146 6146 6038 6038 6038 6038 6038 6038 6146 6146 6146 6259 6259 6259 6259 6259 6259 6146 6038 5933 5933 5734 5734 5640 5640 5832 5933 5933 6038 6038 6038 6038 6038 6038 6038 6038 4241 4241 4241 4295 4295 4241 4241 4190 4190 4190 4139 4139 4139 4139 4139 4089 4089 4089 4041 4041 4041 4041 4041 4041 4041 4041 3994 3994 3994 3994 3994 3994 3994 0 0 0 0 0 0 0 0 0 0 0 0
0 0 0 0 0 0 0 0 0 0 0 0 0 0 0 0 0 0 0 0 0 0 0 0 0 0 0 0 0 0 0 0 2908 2908 2908 2908 2933 2933 2933 2933 2933 2958 2984 2984 2984 2984 2984 3010 3010 3010 3037 3037 3064 3064 3092 3092 3092 3092 3092 3092 3092 3092 3092 3120 3120 3149 3149 3178 3149 3149 3178 3178 3178 3178 3178 3208 3208 3208 3208 3208 3208 3238 3238 3238 3238 3238 3269 3269 3269 3269 3300 3300 3300 3300 3300 3300 3300 3333 3333 3333 3333 3333 3365 3365 3399 3399 3399 3433 3433 3433 3433 3433 3468 3468 3468 3468 3468 3468 3503 3539 3539 3576 3576 3576 3576 3614 3614 3614 3653 3692 3692 3692 3732 0 0 0 0 0 0 0 0 5374 5291 5210 5210 5132 5132 5132 5132 5132 5132 5132 5132 5132 5210 5210 5291 5291 5291 5374 5374 5374 5374 5374 5374 5374 5374 5374 5374 5374 5374 5374 5460 5460 5460 5460 5460 5460 5460 5460 5548 5548 5640 5640 5640 5548 5548 5460 5460 5374 5374 5374 5374 5374 5374 5460 5548 5640 5640 5640 5640 5548 5548 5548 5640 5640 5640 5640 5640 5734 5734 5734 5734 5734 5640 5640 5291 5132 5056 5056 4983 4983 4983 5056 5056 5056 5056 5056 5056 5640 5734 5832 5933 5933 5832 5832 5933 5933 5832 5548 5548 5291 5210 5210 5132 5132 5210 5210 5210 5210 5210 5210 5210 5210 5210 5291 5291 5291 5291 2317 2317 2317 2317 2333 2349 2349 5460 5460 5548 5548 5640 5640 5734 5933 6038 6038 6038 6038 6038 6038 6038 6038 6038 6038 6038 6038 6038 6038 6038 6038 6038 6038 6038 6038 6038 6038 6038 6146 6146 6146 6146 6146 6259 6497 6753 7178 7178 7332 7332 7332 7332 7332 7332 7332 7492 7492 7492 7492 7492 7492 7492 7492 3399 3399 3399 3365 3365 3365 3365 3365 3365 3365 3365 3365 3365 3365 3365 3365 3365 3365 3365 3333 3333 3333 3333 3333 3333 3333 3333 3333 3333 3333 3333 3333 3333 3333 3300 3300 3333 3333 3333 3333 3300 3300 3300 3300 3300 3269 3269 3269 3269 3269 3300 3300 3300 3300 3300 3300 3300 3300 3269 3269 3269 3269 3238 3238 3238 3238 3238 3238 3238 3238 3238 3238 3238 3238 3238 3238 3238 3208 3208 3208 3208 3208 3208 3208 3208 3208 3208 3208 3208 3178 3178 3178 3178 3178 3178 3178 3178 3178 3178 3178 3178 3178 3178 3178 3178 3208 3208 3300 3333 3333 3333 3365 3365 3399 3399 3433 3468 3468 3468 3539 3576 3576 3614 3653 3692 3692 4295 4295 4349 4349 4349 4349 4349 4349 4349 4349 4349 4349 4349 4349 4295 4295 4295 4349 4349 4349 4295 4295 4295 4295 4295 4295 4349 4349 4349 4349 4405 6146 6146 6146 6146 6146 6259 6146 6146 6146 6146 6146 6146 6146 6146 6146 6038 6038 6038 6038 6038 6038 6038 6038 6038 6038 6038 5933 5933 6038 6038 6038 6038 6038 6146 6146 6146 6146 6146 6146 6146 6146 6146 6146 6146 6146 6146 6146 6146 6146 6146 6146 6146 6146 6146 6146 6146 6146 6146 6146 6146 6146 6038 6038 6146 6146 6146 6146 6146 6146 6146 6146 6146 6146 6146 6146 6146 6146 6146 6146 6146 6146 6146 6146 6038 6038 6038 6146 6146 6146 6146 6146 6146 6259 6259 6259 6259 6259 6146 5933 5933 5832 5734 5734 5640 5640 5832 5933 5933 6038 6038 6038 6038 6038 6038 6038 6038 4241 4190 4190 4241 4241 4241 4190 4190 4190 4139 4139 4139 4139 4139 4139 4089 4089 4089 4089 4041 4041 4041 4041 4041 4041 4041 4041 3994 3994 3994 3994 0 0 0 0 0 0 0 0 0 0 0 0 0 0
0 0 0 0 0 0 0 0 0 0 0 0 0 0 0 0 0 0 0 0 0 0 0 0 0 0 0 0 0 0 0 0 2908 2908 2908 2908 2933 2933 2933 2933 2933 2958 2984 2984 2984 2984 2984 3010 3010 3010 3037 3064 3064 3064 3092 3092 3092 3092 3092 3092 3092 3092 3092 3120 3120 3149 3149 3178 3149 3149 3178 3178 3178 3178 3208 3208 3208 3208 3208 3208 3208 3208 3238 3238 3238 3238 3238 3238 3269 3269 3269 3300 3300 3300 3300 3300 3333 3333 3333 3333 3333 3333 3365 3365 3399 3399 3399 3433 3433 3433 3433 3468 3468 3468 3468 3468 3468 3468 3503 3539 3539 3576 3576 3576 3576 3614 3614 3614 3653 3653 3692 3692 3732 0 0 0 0 0 0 0 0 0 5291 5132 5132 5132 5132 5132 5132 5132 5132 5132 5132 5132 5210 5210 5291 5291 5291 5374 5374 5374 5374 5374 5374 5374 5374 5374 5374 5374 5374 5374 5374 5374 5374 5374 5460 5460 5460 5460 5548 5548 5548 5548 5548 5460 5460 5460 5460 5374 5374 5374 5374 5374 5460 5460 5460 5548 5548 5548 5548 5548 5460 5460 5460 5460 5548 5548 5548 5640 5640 5640 5640 5640 5548 5460 5291 5132 5056 5056 4983 4983 4983 5056 5056 5056 5056 5132 5132 5548 5640 5734 5832 5832 5734 5734 5734 5832 5734 5374 5374 5291 5291 5210 5210 5210 5210 5210 5210 5210 5210 5210 5210 5210 5210 5291 5291 5291 2317 2317 2317 2317 2333 2333 2349 2333 2333 2333 5548 5548 5640 2286 2286 2301 2301 6038 6038 6038 2301 2301 2301 6038 2301 2286 2286 2301 2301 2286 2286 2286 6038 6038 6038 6038 6146 6038 6038 6146 6146 6146 6146 6146 6259 6497 6753 2271 2271 7332 7332 7492 7492 7492 7492 7492 7492 7492 7492 7492 7492 7492 7492 7492 3399 3399 3399 3365 3365 3365 3365 3365 3365 3365 3365 3365 3365 3365 3365 3365 3365 3365 3365 3333 3333 3333 3333 3333 3333 3333 3333 3333 3333 3333 3333 3333 3333 3333 3333 3333 3333 3333 3333 3333 3333 3333 3300 3300 3300 3269 3269 3300 3300 3300 3300 3300 3300 3300 3300 3300 3300 3300 3269 3269 3269 3269 3238 3238 3238 3238 3238 3269 3238 3238 3269 3238 3238 3238 3238 3238 3238 3208 3208 3208 3208 3208 3208 3208 3208 3208 3238 3238 3208 3178 3178 3178 3178 3178 3178 3178 3178 3178 3178 3178 3178 3178 3178 3178 3178 3208 3269 3300 3333 3333 3333 3365 3365 3399 3433 3433 3468 3468 3503 3539 3576 3576 3614 3614 3653 3653 4405 4349 4349 4349 4349 4349 4349 4349 4349 4349 4349 4349 4349 4349 4295 4295 4295 4349 4349 4349 4295 4295 4295 4295 4295 4295 4349 4349 4349 4349 4405 6259 6259 6259 6259 6259 6259 6146 6146 6146 6146 6146 6146 6146 6146 6146 6038 6038 6038 6038 6038 6038 6038 6038 6038 6038 6038 5933 5933 6038 6038 6038 6038 6038 6146 6146 6146 6146 6146 6146 6259 6146 6146 6146 6146 6146 6146 6146 6146 6146 6146 6146 6146 6146 6146 6146 6146 6146 6146 6146 6146 6146 6038 6038 6038 6146 6146 6038 6038 6038 6038 6038 6038 6038 6038 6038 6038 6146 6146 6146 6146 6146 6146 6146 6146 6146 6146 6038 6038 6038 6146 6146 6146 6146 6259 6146 6146 6146 6038 5933 5832 5832 5734 5734 5640 5640 5734 5832 5933 5933 5933 5933 5933 6038 6038 6038 6038 4089 4089 4190 4190 4241 4190 4190 4190 4190 4139 4139 4139 4139 4139 4139 4089 4089 4089 4041 4041 4041 4041 4041 4041 4041 4041 4041 3994 3994 3994 3994 0 0 0 0 0 0 0 0 0 0 0 0 0 0
0 0 0 0 0 0 0 0 0 0 0 0 0 0 0 0 0 0 0 0 0 0 0 0 0 0 0 0 0 0 0 0 2908 2908 2908 2908 2933 2933 2933 2958 2958 2984 2984 2984 2984 2984 2984 2984 3010 3010 3037 3037 3064 3064 3092 3092 3092 3092 3092 3092 3092 3092 3092 3120 3120 3149 3149 3178 3178 3178 3208 3208 3178 3178 3208 3208 3208 3208 3208 3208 3208 3208 3238 3238 3238 3238 3238 3238 3269 3269 3269 3269 3300 3300 3300 3300 3300 3333 3333 3333 3333 3333 3365 3365 3399 3399 3399 3399 3433 3433 3433 3468 3468 3468 3468 3468 3468 3468 3503 3539 3539 3576 3576 3576 3576 3614 3614 3614 3653 3653 3692 3692 3732 0 0 0 0 0 0 0 0 0 0 5056 5056 5056 5056 5132 5132 5132 5132 5132 5132 5132 5210 5210 5291 5291 5291 5374 5374 5374 5374 5374 5374 5374 5374 5374 5374 5374 5374 5374 5374 5374 5374 5374 5374 5374 5374 5374 5460 5460 5460 5460 5460 5374 5374 5374 5374 5374 5374 5374 5374 5374 5460 5460 5460 5460 5460 5460 5460 5460 5374 5374 5460 5460 5460 5460 5460 5460 5460 5460 5460 5548 5460 5460 5291 5210 5056 5056 4983 4983 4983 5056 5056 5056 5056 5132 5132 5548 5640 5640 5734 5640 5640 5640 5640 5640 5548 5374 5374 5291 5291 5291 5210 5210 5210 5210 5210 5210 5210 5210 5210 5210 5210 5291 5291 2333 2317 2317 2317 2317 2317 2333 2333 2317 2317 2317 2317 2301 2301 2286 2286 2301 2301 2301 2301 2286 2286 2301 2301 2301 2301 2286 2286 2286 2286 2286 2286 2286 2286 2286 6038 2286 2286 2286 2286 2286 2286 2286 2286 2286 2286 2271 2271 2271 2271 2286 7178 7178 7332 7492 7492 7492 7492 7492 7492 7492 7492 7492 7492 3433 3433 2226 2226 2241 2241 3365 3365 3365 3365 3365 3365 3365 3365 3365 3365 3365 3365 3365 3365 3333 3333 3333 3333 3333 3333 3333 3333 3333 3333 3333 3333 3333 3333 3333 3333 3333 3333 3333 3333 3333 3333 3333 3300 3300 3300 3300 3300 3300 3300 3300 3300 3300 3300 3300 3300 3300 3300 3269 3269 3269 3269 3269 3238 3238 3238 3238 3238 3269 3238 3238 3238 3238 3238 3238 3208 3208 3238 3208 3208 3208 3208 3238 3238 3208 3208 3208 3238 3238 3238 3208 3178 3178 3178 3178 3178 3178 3178 3178 3178 3178 3178 3178 3178 3178 3178 3208 3269 3300 3333 3333 3333 3365 3365 3399 3433 3433 3468 3468 3503 3539 3576 3576 3614 3614 3653 4463 4405 4349 4349 4349 4349 4349 4349 4349 4349 4349 4349 4349 4349 4349 4349 4349 4349 4349 4349 4295 4295 4295 4295 4295 4295 4295 4349 4349 4349 4349 4405 6259 6259 6259 6259 6259 6259 6146 6146 6146 6146 6146 6146 6146 6146 6146 6038 6038 6038 6038 6038 6038 5933 5933 6038 6038 6038 5933 5933 6038 6038 6038 6038 6038 6146 6146 6146 6259 6259 6259 6259 6259 6259 6146 6146 6146 6146 6146 6146 6146 6146 6146 6146 6146 6146 6146 6146 6146 6146 6146 6146 6146 6038 6038 6038 6038 6038 6038 5933 5933 5933 5933 5933 5933 6038 6038 6038 6146 6146 6146 6146 6146 6146 6038 6038 6038 6038 6038 6038 6038 6038 6038 6146 6146 6146 6038 6038 6038 5933 5933 5832 5832 5734 5734 5640 5640 5734 5832 5832 5933 5933 5933 5933 5933 5933 5933 6038 4089 4089 4190 4190 4241 4190 4190 4190 4190 4139 4139 4139 4139 4139 4139 4089 4089 4089 4041 4041 4041 4041 4041 4041 3994 3994 3994 3994 0 0 0 0 0 0 0 0 0 0 0 0 0 0 0 0 0
0 0 0 0 0 0 0 0 0 0 0 0 0 0 0 0 0 0 0 0 0 0 0 0 0 0 0 0 0 0 0 0 2908 2908 2908 2908 2933 2933 2933 2958 2958 2984 2984 2984 2984 2984 2984 2984 3010 3010 3010 3037 3037 3064 3064 3092 3092 3092 3092 3092 3092 3092 3120 3120 3120 3149 3149 3208 3178 3178 3208 3208 3208 3208 3208 3208 3208 3238 3238 3238 3238 3238 3238 3238 3238 3238 3238 3269 3269 3269 3269 3269 3300 3300 3300 3300 3300 3333 3333 3333 3333 3333 3365 3365 3365 3365 3399 3399 3433 3433 3433 3468 3468 3468 3468 3468 3468 3503 3539 3539 3576 3576 3576 3576 3614 3614 3614 3614 3653 3653 3692 3692 3732 0 0 0 0 0 0 0 0 0 0 4983 4983 5056 5056 5056 5132 5132 5210 5210 5132 5132 5210 5210 5291 5291 5291 5374 5374 5374 5374 5374 5374 5374 5374 5374 5374 5374 5374 5374 5374 5374 5374 5374 5374 5374 5374 5374 5374 5374 5374 5374 5374 5374 5374 5374 5374 5374 5374 5374 5374 5374 5374 5374 5374 5374 5374 5374 5374 5374 5374 5374 5374 5460 5460 5460 5460 5460 5460 5460 5460 5460 5374 5374 5291 5210 5132 5056 5056 5056 5056 5056 5056 5056 5056 5132 5132 5291 5460 5548 5640 5548 5548 5548 5548 5548 5460 5374 5374 5291 5291 5291 5210 5210 5210 5210 5210 5210 5210 5210 5210 5210 5210 5210 2333 2333 2317 2317 2317 2317 2317 2333 2333 2317 2317 2317 2317 2301 2301 2286 2286 2301 2301 2301 2301 2286 2286 2301 2301 2301 2301 2286 2286 2286 2286 2286 2286 2286 2286 2286 2286 2286 2286 2286 2286 2286 2286 2286 2286 2286 2286 2271 2271 2271 2286 2286 2286 2286 2286 2301 7492 7492 7492 7492 7492 7492 7492 7492 7492 2226 2226 2226 2226 2226 2241 2256 3365 3365 3365 3365 3365 3365 3365 3365 3365 3365 3365 3365 3365 3365 3333 3333 3333 3333 3333 3333 3333 3333 3333 3333 3333 3333 3333 3333 3333 3333 3333 3333 3333 3333 3333 3333 3300 3300 3300 3300 3300 3300 3300 3300 3300 3300 3300 3300 3269 3269 3269 3269 3269 3269 3269 3269 3238 3238 3238 3238 3238 3238 3238 3238 3238 3238 3238 3238 3208 3208 3238 3238 3238 3208 3208 3238 3238 3208 3208 3208 3238 3238 3238 3208 3178 3178 3178 3178 3178 3178 3178 3178 3178 3178 3208 3208 3208 3208 3208 3269 3300 3300 3333 3333 3333 3365 3365 3433 3433 3468 3468 3468 3503 3539 3576 3576 3614 3653 3732 4463 4349 4349 4349 4349 4349 4349 4349 4349 4349 4349 4349 4349 4349 4349 4349 4349 4349 4349 4349 4295 4295 4295 4295 4295 4295 4295 4349 4349 4405 4405 4405 6259 6259 6146 6146 6146 6259 6146 6146 6146 6146 6146 6146 6146 6146 6146 6038 6038 6038 6038 5933 5933 5933 5933 6038 6038 6038 5933 5933 6038 6038 6038 6038 6146 6146 6146 6146 6259 6259 6259 6259 6259 6259 6259 6259 6146 6146 6146 6259 6146 6146 6146 6146 6146 6146 6146 6146 6146 6146 6146 6146 6146 6146 6038 6038 6038 6038 6038 5933 5933 5933 5933 5933 5933 6038 6038 6038 6146 6146 6146 6146 6146 6038 6038 6038 6038 6038 6038 6038 6038 6038 6038 6038 6038 6038 6038 6038 6038 5933 5933 5832 5832 5734 5734 5640 5640 5734 5832 5832 5933 5933 5933 5933 5933 5933 5933 6038 4139 4139 4190 4241 4241 4190 4190 4190 4190 4139 4139 4190 4190 4190 4139 4139 4089 4089 4089 4089 4041 4041 4041 4041 3994 3994 3994 3994 0 0 0 0 0 0 0 0 0 0 0 0 0 0 0 0 0
0 0 0 0 0 0 0 0 0 0 0 0 0 0 0 0 0 0 0 0 0 0 0 0 0 0 0 0 0 0 0 0 2908 2908 2933 2933 2933 2933 2958 2958 2958 2984 2984 2984 2984 2984 2984 3010 3010 3010 3010 3037 3037 3064 3064 3092 3092 3092 3092 3092 3092 3120 3120 3120 3120 3149 3178 3208 3208 3208 3208 3208 3208 3208 3208 3208 3238 3238 3238 3238 3238 3238 3238 3238 3238 3238 3269 3269 3269 3269 3269 3269 3300 3300 3300 3300 3300 3333 3333 3333 3333 3333 3365 3365 3365 3365 3399 3433 3433 3433 3433 3468 3468 3468 3468 3468 3468 3503 3539 3539 3576 3576 3576 3576 3576 3614 3614 3653 3653 3653 3692 3692 3732 0 0 0 0 0 0 0 0 0 0 4983 4983 4983 5056 5056 5132 5132 5210 5210 5132 5132 5132 5210 5291 5291 5291 5374 5374 5374 5374 5374 5374 5374 5374 5374 5374 5374 5374 5374 5374 5374 5374 5374 5374 5374 5374 5374 5374 5374 5374 5374 5374 5374 5374 5291 5291 5374 5374 5291 5291 5374 5374 5374 5374 5374 5374 5374 5374 5374 5374 5374 5374 5374 5374 5374 5374 5374 5374 5374 5374 5374 5374 5374 5291 5210 5132 5132 5056 5056 5056 5056 5056 5056 5132 5132 5132 5291 5460 5460 5460 5460 5460 5460 5460 5460 5374 5374 5291 5291 5291 5210 5210 5210 5210 5210 5210 5210 5210 5210 5210 5210 5210 2333 2333 2333 2317 2317 2317 2333 2333 2333 2333 2317 2317 2317 2317 2301 2301 2301 2301 2301 2301 2301 2301 2301 2301 2301 2301 2301 2301 2301 2301 2301 2286 2286 2286 2286 2286 2286 2286 2286 2286 2286 2286 2286 2286 2286 2286 2286 2271 2271 2271 2271 2286 2286 2286 2286 2286 2286 2286 2286 2286 2286 2286 2286 7660 7660 7660 2226 2226 2226 2226 2226 2241 2241 2241 2271 3365 3365 3365 3365 3365 3365 3365 3365 3365 3365 3365 3365 3365 3365 3333 3333 3333 3333 3333 3333 3333 3333 3333 3333 3333 3333 3333 3333 3333 3333 3333 3333 3333 3333 3300 3300 3300 3300 3300 3300 3300 3300 3300 3300 3300 3300 3269 3269 3269 3269 3269 3269 3269 3269 3269 3238 3238 3238 3238 3238 3238 3238 3238 3238 3238 3238 3208 3208 3238 3238 3238 3238 3238 3238 3238 3208 3208 3208 3238 3238 3208 3178 3178 3178 3178 3178 3178 3178 3178 3178 3178 3208 3208 3208 3208 3208 3238 3238 3269 3300 3333 3333 3333 3365 3399 3399 3433 3468 3468 3503 3503 3576 3576 3614 3653 3692 3732 4463 4295 4295 4349 4349 4349 4349 4349 4349 4349 4349 4349 4349 4349 4349 4349 4349 4349 4349 4349 4349 4295 4295 4349 4349 4349 4349 4349 4405 4405 4405 6146 6146 6146 6146 6146 6146 6259 6146 6146 6146 6146 6146 6146 6146 6146 6146 6038 6038 6038 6038 5933 5933 5933 5933 6038 6038 6038 6038 6038 6038 6038 6038 6038 6146 6146 6146 6259 6259 6375 6375 6375 6375 6375 6259 6259 6259 6259 6259 6259 6259 6259 6146 6146 6259 6259 6146 6146 6259 6146 6146 6146 6146 6146 6146 6146 6038 6038 6038 5933 5933 5933 5933 5933 5933 6038 6038 6146 6146 6146 6146 6146 6038 6038 6038 6038 6038 6038 6038 6038 6038 6038 6038 6038 6038 6038 6038 6038 6038 5933 5933 5832 5832 5734 5734 5640 5640 5734 5832 5832 5933 5832 5832 5832 5832 5832 5832 5933 4190 4190 4190 4241 4241 4190 4190 4190 4190 4139 4139 4190 4190 4190 4190 4139 4139 4139 4139 4139 4089 4089 4089 4041 3994 3994 3994 3994 0 0 0 0 0 0 0 0 0 0 0 0 0 0 0 0 0
0 0 0 0 0 0 0 0 0 0 0 0 0 0 0 0 0 0 0 0 0 0 0 0 0 0 0 0 0 0 0 0 2908 2908 2933 2933 2958 2958 2958 2958 2958 2984 2984 2984 2984 2984 3010 3010 3010 3010 3010 3037 3064 3064 3064 3092 3092 3092 3092 3092 3120 3120 3120 3120 3120 3149 3149 3178 3208 3208 3238 3238 3208 3208 3238 3238 3238 3238 3238 3238 3238 3238 3238 3238 3238 3269 3269 3269 3269 3269 3269 3269 3300 3300 3300 3300 3300 3333 3333 3333 3333 3333 3365 3365 3365 3399 3399 3433 3433 3468 3468 3468 3468 3468 3468 3468 3468 3503 3539 3539 3576 3576 3576 3576 3576 3614 3614 3614 3653 3653 3692 3692 3732 0 0 0 0 0 0 0 0 0 0 0 4983 4983 5056 5132 5132 5132 5210 5210 5132 5132 5132 5132 5210 5291 5291 5374 5374 5374 5374 5374 5374 5374 5374 5374 5374 5374 5374 5374 5374 5374 5374 5374 5374 5374 5374 5374 5374 5374 5374 5374 5374 5374 5374 5291 5291 5374 5374 5291 5291 5374 5374 5374 5374 5374 5374 5374 5374 5374 5374 5374 5374 5374 5374 5374 5374 5374 5374 5374 5374 5374 5374 5291 5291 5210 5132 5132 5056 5056 5056 5056 5056 5056 5132 5132 5132 5291 5374 5374 5374 5374 5374 5374 5374 5374 5291 5291 5291 5291 5291 5210 5210 5210 5210 5210 5210 5210 5210 5210 5291 5291 2333 2333 2317 2317 2317 2317 2317 2317 2333 2333 2333 2317 2317 2317 2317 2301 2301 2301 2301 2301 2301 2301 2301 2301 2301 2301 2301 2301 2301 2301 2301 2301 2286 2286 2286 2286 2286 2286 2286 2286 2286 2301 2286 2286 2286 2286 2286 2286 2271 2271 2271 2271 2286 2286 2286 2286 2286 2286 2286 2286 2286 2271 2271 2271 2286 2286 2256 2256 2226 2226 2241 2241 2241 2241 2241 2256 3365 3365 3365 3365 3365 3365 3365 3365 3365 3365 3365 3365 3365 3365 3333 3333 3333 3333 3333 3333 3333 3333 3333 3333 3333 3333 3333 3333 3333 3333 3333 3333 3333 3333 3300 3300 3300 3300 3300 3300 3300 3300 3300 3300 3300 3300 3300 3269 3269 3269 3269 3269 3269 3269 3269 3238 3238 3238 3238 3238 3238 3238 3238 3238 3238 3238 3238 3238 3238 3238 3238 3238 3238 3238 3238 3208 3208 3208 3238 3208 3208 3178 3178 3178 3178 3178 3178 3178 3178 3178 3178 3208 3208 3208 3208 3208 3238 3238 3269 3300 3333 3333 3365 3365 3399 3399 3433 3468 3468 3503 3503 3576 3614 3614 3653 3692 3732 4582 4295 4295 4349 4349 4349 4349 4349 4349 4349 4349 4349 4349 4349 4349 4349 4349 4349 4349 4349 4349 4295 4295 4349 4349 4349 4349 4349 4405 4405 4405 6146 6146 6146 6146 6146 6146 6259 6146 6146 6146 6146 6146 6146 6146 6146 6146 6038 6038 6038 6038 5933 5933 5933 5933 6038 6038 6038 6038 6038 6038 6038 6038 6038 6146 6146 6259 6259 6375 6375 6375 6375 6375 6375 6375 6375 6375 6375 6375 6375 6375 6375 6259 6259 6375 6375 6259 6259 6259 6146 6146 6146 6146 6146 6146 6146 6146 6146 6038 6038 6038 6038 6038 6038 6038 6038 6146 6146 6146 6146 6146 6146 6038 6038 6038 6038 6038 6038 6038 6038 6038 6038 6038 6038 6038 6038 6038 6038 6038 5933 5933 5933 5832 5734 5734 5734 5734 5734 5832 5832 5933 5832 5832 5832 5832 5832 5832 5933 4190 4190 4190 4241 4241 4241 4190 4190 4190 4190 4190 4190 4190 4190 4190 4139 4139 4139 4139 4139 4089 4089 4089 4089 4041 4041 4041 4041 0 0 0 0 0 0 0 0 0 0 0 0 0 0 0 0 0
0 0 0 0 0 0 0 0 0 0 0 0 0 0 0 0 0 0 0 0 0 0 0 0 0 0 0 0 0 0 0 0 2908 2908 2933 2933 2958 2958 2958 2958 2958 2984 2984 2984 2984 3010 3010 3010 3010 3010 3010 3037 3064 3064 3064 3092 3092 3092 3120 3120 3120 3120 3120 3120 3120 3149 3149 3178 3208 3208 3208 3208 3208 3208 3208 3208 3238 3238 3238 3238 3238 3238 3238 3238 3238 3238 3269 3269 3269 3300 3269 3269 3300 3300 3300 3300 3333 3333 3333 3333 3333 3333 3365 3365 3365 3399 3399 3433 3433 3468 3468 3468 3468 3468 3468 3468 3503 3503 3539 3576 3576 3576 3576 3576 3576 3576 3614 3614 3653 3653 3653 3692 3732 0 0 0 0 0 0 0 0 0 0 0 4983 4983 5056 5132 5132 5132 5210 5210 5132 5132 5132 5132 5210 5291 5374 5374 5460 5374 5374 5374 5374 5374 5374 5374 5374 5374 5374 5374 5374 5374 5374 5374 5374 5374 5374 5374 5374 5374 5374 5374 5374 5374 5291 5291 5291 5291 5291 5291 5291 5374 5374 5374 5374 5374 5374 5374 5374 5374 5291 5291 5374 5374 5291 5291 5291 5291 5291 5291 5291 5291 5291 5291 5291 5132 5132 5132 5132 5056 5056 5056 5056 5056 5132 5132 5132 5291 5291 5291 5374 5374 5374 5374 5374 5374 5291 5291 5291 5291 5291 5210 5210 5210 5210 5210 5210 5210 5210 5210 5291 5291 2333 2333 2317 2317 2317 2317 2317 2317 2333 2333 2333 2317 2317 2317 2317 2317 2301 2301 2301 2317 2301 2301 2301 2301 2301 2301 2301 2301 2301 2301 2301 2301 2286 2286 2286 2286 2286 2286 2286 2286 2286 2301 2286 2286 2286 2286 2286 2286 2271 2271 2271 2271 2286 2286 2286 2286 2271 2271 2271 2286 2271 2271 2271 2271 2271 2286 2271 2256 2241 2241 2241 2241 2241 2241 2241 2256 2256 3365 3365 3365 3365 3365 3365 3365 3365 3365 3365 3365 3365 3365 3365 3365 3333 3333 3333 3333 3333 3333 3333 3333 3333 3333 3333 3333 3333 3333 3333 3333 3333 3333 3333 3333 3333 3333 3300 3300 3333 3300 3300 3300 3300 3300 3300 3300 3300 3269 3269 3269 3269 3269 3269 3238 3238 3238 3238 3238 3238 3238 3238 3238 3238 3238 3238 3238 3238 3238 3238 3238 3238 3238 3238 3238 3208 3208 3208 3208 3208 3178 3178 3178 3178 3178 3178 3178 3178 3178 3178 3208 3208 3208 3208 3208 3238 3269 3300 3300 3333 3333 3365 3365 3399 3399 3433 3468 3468 3503 3539 3576 3614 3653 3653 3692 3732 4582 4295 4295 4349 4349 4349 4349 4349 4349 4349 4349 4349 4349 4349 4349 4349 4349 4349 4349 4349 4349 4295 4295 4349 4349 4349 4349 4349 4405 4405 4405 6146 6146 6146 6146 6146 6146 6146 6146 6146 6146 6146 6146 6146 6146 6146 6146 6038 5933 5933 6038 5933 5933 5933 5933 6038 6038 6038 6038 6038 6038 6038 6038 6038 6146 6146 6259 6375 6497 6497 6497 6497 6497 6497 6497 6497 6497 6497 6497 6497 6497 6497 6259 6259 6375 6375 6375 6375 6375 6259 6259 6146 6146 6146 6146 6146 6259 6259 6146 6146 6146 6146 6146 6038 6038 6146 6146 6146 6146 6146 6146 6146 6038 6038 6038 6038 6038 6038 6038 6038 6038 6038 6038 6038 6038 6038 6038 6038 6038 5933 5933 5933 5933 5832 5832 5734 5734 5832 5832 5832 5832 5832 5832 5832 5734 5734 5734 4139 4139 4190 4190 4241 4241 4190 4190 4190 4190 4190 4190 4190 4190 4190 4190 4139 4139 4139 4139 4089 4089 4089 4089 4041 4041 4041 4041 0 0 0 0 0 0 0 0 0 0 0 0 0 0 0 0 0 0
0 0 0 0 0 0 0 0 0 0 0 0 0 0 0 0 0 0 0 0 0 0 0 0 0 0 0 0 0 0 0 0 2908 2908 2933 2958 2958 2984 2984 2984 2984 2984 2984 2984 2984 3010 3010 3010 3010 3010 3010 3037 3064 3064 3064 3092 3092 3092 3120 3120 3120 3120 3120 3120 3120 3149 3149 3208 3208 3208 3208 3208 3208 3208 3208 3208 3238 3238 3238 3238 3238 3238 3238 3238 3238 3238 3269 3269 3269 3269 3269 3269 3300 3300 3300 3300 3333 3333 3333 3333 3333 3333 3365 3365 3399 3399 3433 3433 3433 3468 3468 3468 3468 3468 3468 3468 3503 3503 3539 3576 3576 3576 3576 3576 3576 3576 3614 3614 3614 3614 3653 3653 3732 0 0 0 0 0 0 0 0 0 0 0 0 5056 5056 5132 5132 5132 5210 5210 5210 5210 5210 5210 5291 5374 5374 5374 5374 5374 5374 5460 5460 5374 5374 5374 5374 5374 5374 5374 5374 5374 5374 5374 5374 5374 5374 5374 5374 5374 5374 5374 5374 5374 5291 5291 5291 5291 5291 5291 5291 5374 5374 5374 5374 5374 5374 5374 5374 5374 5291 5291 5374 5374 5291 5291 5291 5291 5291 5291 5291 5291 5291 5291 5210 5132 5132 5132 5132 5056 5056 5056 5056 5056 5056 5132 5132 5210 5291 5291 5374 5374 5374 5374 5374 5374 5291 5291 5291 5291 5291 5210 5210 5210 5210 5210 5210 5210 5210 5210 5291 5291 2333 2333 2301 2301 2317 2317 2333 2333 2333 2333 2333 2317 2317 2317 2317 2317 2301 2301 2317 2317 2301 2301 2301 2301 2301 2301 2301 2301 2301 2301 2301 2301 2286 2286 2286 2286 2286 2286 2286 2286 2286 2286 2286 2286 2286 2271 2271 2271 2271 2271 2271 2271 2271 2286 2286 2286 2271 2271 2271 2286 2271 2271 2271 2271 2271 2286 2271 2256 2241 2241 2241 2241 2241 2241 2241 2241 2241 2241 3365 3365 3365 3365 3365 3365 3365 3365 3365 3365 3365 3365 3365 3365 3333 3333 3333 3333 3333 3333 3333 3333 3333 3333 3333 3333 3333 3333 3333 3333 3333 3333 3333 3333 3333 3333 3333 3333 3333 3333 3333 3333 3300 3300 3300 3300 3300 3269 3269 3269 3269 3269 3269 3269 3238 3238 3238 3238 3238 3238 3238 3238 3238 3238 3238 3238 3238 3238 3238 3238 3238 3238 3238 3238 3208 3208 3208 3208 3208 3208 3178 3178 3178 3178 3178 3178 3178 3178 3178 3208 3208 3208 3208 3238 3238 3269 3269 3300 3333 3333 3365 3365 3399 3433 3433 3468 3468 3503 3539 3576 3614 3653 3692 3732 3774 3816 4241 4241 4295 4349 4349 4349 4349 4349 4349 4349 4349 4349 4349 4349 4349 4349 4349 4349 4349 4349 4349 4349 4349 4349 4349 4349 4349 4405 4405 4405 6146 6146 6038 6038 6038 6146 6146 6146 6146 6146 6146 6038 6038 6038 6038 6038 5933 5933 5933 5933 5933 5933 5933 5933 5933 5933 5933 5933 5933 6038 6038 6038 6038 6146 6146 6259 6497 6497 6622 6622 6622 6622 6622 6622 6497 6497 6497 6497 6497 6497 6497 6375 6375 6375 6375 6375 6375 6375 6375 6375 6259 6146 6146 6259 6259 6259 6375 6375 6375 6259 6259 6259 6259 6259 6259 6259 6259 6259 6259 6146 6146 6146 6038 6038 6038 6038 6038 6038 6038 6038 6038 6038 6038 6038 6038 6038 6038 6038 5933 5933 5933 5933 5832 5832 5832 5832 5832 5734 5734 5832 5832 5832 5832 5734 5734 5734 4139 4139 4190 4190 4241 4241 4190 4190 4190 4190 4190 4190 4190 4190 4139 4139 4139 4089 4089 4089 4089 4089 4041 4041 4041 4041 4041 4041 0 0 0 0 0 0 0 0 0 0 0 0 0 0 0 0 0 0
0 0 0 0 0 0 0 0 0 0 0 0 0 0 0 0 0 0 0 0 0 0 0 0 0 0 0 0 0 0 0 0 2908 2908 2933 2958 2958 2984 2984 2984 2984 2984 2984 2984 2984 3010 3010 3010 3010 3010 3010 3037 3064 3064 3064 3092 3092 3092 3120 3120 3120 3120 3120 3149 3149 3149 3149 3208 3208 3208 3208 3208 3208 3208 3208 3238 3238 3238 3238 3238 3238 3238 3238 3269 3269 3269 3269 3269 3269 3269 3269 3269 3300 3300 3300 3300 3333 3333 3333 3333 3333 3365 3365 3399 3399 3433 3433 3433 3433 3468 3468 3468 3468 3468 3468 3468 3503 3503 3539 3576 3576 3576 3576 3576 3576 3576 3614 3614 3614 3614 3653 3653 3732 3774 0 0 0 0 0 0 0 0 0 0 0 5056 5056 5132 5132 5132 5210 5210 5210 5210 5210 5210 5291 5374 5374 5374 5374 5374 5374 5374 5374 5374 5374 5374 5460 5460 5374 5374 5374 5374 5374 5374 5374 5374 5374 5374 5374 5374 5374 5374 5374 5374 5374 5291 5291 5291 5291 5291 5291 5374 5374 5374 5374 5374 5374 5374 5374 5374 5291 5291 5374 5374 5291 5291 5291 5291 5291 5291 5291 5291 5291 5291 5210 5210 5132 5132 5132 5056 5056 5056 5056 5056 5056 5132 5132 5210 5291 5291 5374 5374 5291 5291 5291 5291 5210 5210 5210 5210 5291 5210 5210 5210 5210 5210 5210 5210 5291 5291 5374 5374 5374 2301 2301 2301 2317 2317 2333 2333 2333 2333 2333 2333 2317 2317 2317 2317 2317 2317 2317 2317 2301 2301 2301 2301 2301 2317 2317 2317 2317 2301 2301 2301 2286 2286 2286 2286 2286 2286 2286 2286 2286 2286 2286 2286 2286 2271 2271 2271 2271 2271 2271 2271 2271 2286 2286 2286 2286 2286 2286 2286 2271 2271 2271 2271 2271 2271 2271 2256 2241 2241 2241 2241 2241 2226 2226 2241 2241 2241 2256 3365 3365 3365 3365 3365 3365 3365 3365 3365 3365 3365 3365 3365 3365 3365 3365 3365 3365 3333 3333 3333 3333 3333 3333 3333 3333 3333 3333 3333 3333 3333 3333 3333 3333 3333 3333 3333 3333 3333 3333 3333 3333 3300 3300 3300 3300 3300 3269 3269 3269 3269 3269 3269 3269 3238 3238 3238 3238 3238 3238 3238 3238 3238 3238 3238 3238 3238 3238 3238 3238 3238 3238 3238 3238 3238 3238 3208 3208 3208 3208 3178 3178 3178 3178 3178 3178 3178 3178 3208 3208 3208 3208 3238 3238 3269 3269 3300 3333 3333 3365 3365 3399 3433 3433 3468 3468 3503 3539 3614 3653 3692 3732 3774 3774 3816 4241 4241 4295 4349 4349 4349 4349 4349 4349 4349 4349 4349 4349 4349 4349 4349 4349 4349 4349 4349 4349 4349 4349 4349 4349 4349 4405 4463 4463 4463 5933 5933 5933 5933 5933 5933 6038 6038 6038 6038 6038 6038 5933 5933 5933 5933 5832 5832 5832 5933 5832 5832 5832 5832 5933 5933 5933 5933 5933 5933 6038 6038 6038 6146 6259 6375 6497 6622 6622 6622 6622 6622 6622 6622 6622 6622 6622 6497 6497 6497 6497 6375 6375 6497 6497 6497 6497 6497 6375 6375 6375 6259 6259 6375 6375 6375 6497 6497 6497 6375 6375 6375 6375 6375 6375 6375 6375 6375 6259 6259 6146 6146 6038 6038 6038 6038 6038 6038 6038 6038 6038 6038 6146 6038 6038 6038 6038 6038 6038 6038 5933 5933 5832 5832 5832 5832 5832 5734 5734 5832 5832 5832 5832 5734 5734 5734 4190 4190 4190 4241 4241 4241 4241 4190 4190 4190 4190 4190 4190 4190 4139 4139 4139 4089 4089 4089 4089 4041 4041 4041 4041 4041 4041 0 0 0 0 0 0 0 0 0 0 0 0 0 0 0 0 0 0 0
0 0 0 0 0 0 0 0 0 0 0 0 0 0 0 0 0 0 0 0 0 0 0 0 0 0 0 0 0 0 0 0 2933 2933 2933 2958 2984 2984 2984 2984 2984 2984 2984 2984 2984 3010 3010 3010 3010 3010 3010 3037 3064 3064 3064 3092 3092 3092 3120 3120 3120 3120 3120 3149 3149 3149 3149 3208 3208 3208 3238 3208 3208 3208 3208 3238 3238 3238 3238 3238 3238 3238 3238 3269 3269 3269 3269 3269 3300 3300 3300 3300 3300 3300 3300 3300 3333 3333 3333 3365 3365 3399 3399 3399 3399 3433 3433 3433 3433 3468 3468 3468 3468 3468 3468 3468 3503 3539 3539 3576 3576 3576 3576 3576 3576 3614 3614 3614 3653 3653 3653 3692 3692 3732 0 0 0 0 0 0 0 0 0 0 0 5056 5056 5132 5132 5132 5132 5210 5210 5210 5210 5210 5291 5374 5460 5460 5374 5374 5374 5374 5374 5374 5374 5374 5374 5374 5374 5374 5374 5374 5374 5374 5374 5374 5374 5374 5374 5374 5374 5374 5374 5374 5374 5291 5291 5291 5374 5374 5374 5374 5374 5374 5374 5374 5374 5374 5291 5291 5291 5291 5374 5374 5291 5291 5291 5291 5291 5291 5291 5291 5291 5291 5210 5210 5132 5132 5056 5056 5056 5056 5056 5056 5132 5132 5210 5291 5291 5291 5374 5374 5291 5291 5291 5291 5210 5210 5210 5210 5291 5210 5210 5210 5210 5291 5291 5291 5291 5291 5374 5374 0 2286 2286 2286 2301 2317 2333 2333 2333 2333 2333 2333 2317 2317 2333 2317 2317 2317 2317 2317 2301 2301 2317 2317 2317 2317 2317 2317 2317 2317 2301 2301 2301 2286 2286 2286 2286 2286 2286 2286 2286 2286 2286 2286 2286 2271 2271 2271 2271 2271 2271 2271 2271 2271 2286 2286 2271 2271 2271 2271 2271 2271 2271 2271 2271 2271 2271 2256 2241 2241 2241 2241 2241 2226 2226 2241 2241 2241 2241 2256 3365 3365 3365 3365 3365 3365 3365 3365 3365 3365 3365 3365 3365 3365 3365 3365 3365 3333 3333 3333 3333 3333 3333 3333 3333 3333 3333 3333 3333 3333 3333 3333 3333 3333 3333 3333 3333 3333 3333 3333 3333 3300 3300 3300 3300 3300 3269 3269 3269 3269 3269 3269 3269 3238 3238 3238 3238 3238 3238 3238 3238 3238 3208 3208 3238 3238 3238 3238 3208 3208 3238 3238 3238 3238 3238 3208 3208 3208 3208 3208 3208 3208 3208 3178 3178 3178 3178 3208 3208 3208 3208 3238 3238 3269 3269 3300 3333 3333 3365 3399 3399 3433 3468 3468 3503 3503 3539 3653 3692 3732 3732 3774 3774 3816 4241 4241 4295 4349 4349 4349 4349 4349 4349 4349 4349 4349 4349 4349 4349 4349 4349 4349 4349 4349 4349 4349 4349 4349 4349 4349 4405 4463 4522 4522 5933 5933 5933 5933 5933 5933 5933 5933 6038 6038 6038 5933 5933 5933 5933 5933 5832 5832 5832 5832 5832 5832 5832 5832 5933 5933 5933 5933 5933 5933 6038 6038 6146 6259 6375 6497 6622 6622 6622 6622 6622 6622 6622 6622 6622 6622 6622 6622 6497 6497 6497 6497 6497 6497 6497 6497 6497 6497 6497 6497 6497 6375 6375 6497 6497 6497 6497 6497 6497 6497 6497 6497 6497 6497 6497 6497 6497 6375 6375 6259 6146 6146 6038 6038 6038 6038 6038 6038 6146 6146 6146 6146 6146 6146 6146 6038 6038 6038 6038 6038 6038 5933 5933 5832 5832 5832 5933 5832 5832 5933 5933 5933 5832 5832 5734 5734 4190 4190 4190 4241 4241 4241 4241 4241 4241 4241 4190 4190 4190 4190 4139 4139 4139 4089 4089 4089 4089 4041 4041 4041 4041 4041 3994 3994 0 0 0 0 0 0 0 0 0 0 0 0 0 0 0 0 0 0
0 0 0 0 0 0 0 0 0 0 0 0 0 0 0 0 0 0 0 0 0 0 0 0 0 0 0 0 0 0 0 0 2933 2933 2933 2958 2984 2984 2984 2984 2984 2984 2984 2984 3010 3010 3010 3010 3010 3037 3037 3064 3064 3064 3064 3092 3092 3120 3120 3120 3120 3120 3120 3149 3149 3149 3149 3178 3178 3178 3208 3208 3208 3208 3208 3208 3238 3208 3208 3208 3238 3238 3238 3269 3269 3269 3269 3300 3300 3300 3300 3300 3300 3300 3300 3300 3333 3333 3333 3365 3365 3399 3399 3399 3399 3433 3433 3468 3468 3468 3468 3468 3468 3468 3468 3503 3503 3539 3539 3576 3576 3576 3576 3576 3576 3576 3614 3614 3692 3653 3653 3653 3692 3732 0 0 0 0 0 0 0 0 0 0 0 5132 5132 5132 5132 5132 5132 5210 5210 5210 5210 5210 5291 5374 5374 5460 5460 5460 5460 5374 5374 5374 5374 5374 5374 5374 5374 5374 5374 5374 5374 5374 5374 5374 5374 5374 5374 5374 5374 5374 5374 5374 5374 5374 5374 5374 5374 5374 5374 5374 5374 5374 5374 5374 5374 5291 5291 5291 5291 5291 5374 5374 5291 5291 5291 5291 5291 5291 5291 5291 5291 5291 5210 5210 5132 5132 5056 5056 5056 5056 5056 5056 5056 5132 5210 5291 5291 5291 5374 5374 5291 5291 5291 5291 5210 5210 5210 5210 5291 5210 5210 5210 5291 5291 5291 5291 5291 5291 5291 5291 5291 2286 2286 2286 2301 2317 2333 2333 2333 2333 2333 2333 2333 2333 2333 2317 2317 2317 2317 2317 2301 2301 2301 2317 2317 2317 2317 2317 2317 2317 2301 2301 2301 2301 2301 2286 2286 2286 2301 2301 2301 2301 2301 2286 2286 2286 2286 2286 2271 2271 2271 2271 2271 2271 2286 2286 2271 2271 2271 2271 2271 2256 2256 2271 2271 2271 2271 2256 2241 2241 2241 2241 2241 2226 2226 2241 2241 2241 2241 2256 3365 3365 3365 3365 3365 3365 3365 3365 3365 3365 3365 3365 3365 3365 3365 3365 3365 3365 3365 3333 3333 3333 3333 3333 3333 3333 3333 3333 3333 3333 3333 3333 3333 3333 3333 3333 3333 3333 3333 3333 3333 3300 3300 3300 3300 3300 3300 3300 3300 3300 3269 3269 3269 3269 3269 3269 3238 3238 3238 3238 3238 3238 3208 3208 3238 3238 3238 3238 3208 3208 3238 3238 3238 3238 3238 3208 3208 3208 3208 3208 3208 3208 3208 3178 3178 3178 3178 3178 3208 3208 3208 3238 3238 3269 3269 3333 3333 3333 3365 3399 3433 3433 3468 3468 3503 3539 3576 3653 3692 3692 3732 3732 3774 3816 4295 4295 4349 4349 4349 4349 4349 4349 4349 4349 4349 4349 4349 4349 4349 4349 4349 4349 4349 4349 4349 4349 4349 4349 4349 4349 4405 4463 4522 4522 5933 5933 5933 5933 5933 5933 5933 5933 5933 5933 5933 5832 5832 5832 5832 5832 5734 5734 5734 5832 5832 5832 5832 5832 5832 5832 5933 5933 5933 5933 5933 6038 6146 6375 6497 6497 6622 6622 6622 6622 6622 6622 6622 6622 6622 6622 6622 6622 6497 6497 6497 6497 6497 6497 6497 6497 6622 6497 6497 6497 6497 6497 6497 6497 6497 6497 6497 6497 6497 6497 6497 6497 6497 6497 6497 6497 6497 6375 6375 6375 6146 6146 6038 6038 6038 6038 6146 6146 6146 6146 6146 6259 6259 6146 6146 6146 6146 6146 6146 6038 6038 5933 5933 5832 5832 5832 5933 5933 5933 6038 6038 5933 5933 5832 5832 5832 4190 4190 4241 4241 4241 4241 4241 4241 4190 4190 4190 4190 4190 4190 4139 4139 4139 4089 4089 4041 4041 4041 4041 4041 4041 4041 3994 3994 0 0 0 0 0 0 0 0 0 0 0 0 0 0 0 0 0 0
0 0 0 0 0 0 0 0 0 0 0 0 0 0 0 0 0 0 0 0 0 0 0 0 0 0 0 0 0 0 0 0 2933 2933 2933 2958 2958 2984 2984 2984 2984 2984 2984 2984 3010 3010 3010 3010 3010 3037 3037 3064 3092 3092 3092 3092 3120 3120 3120 3120 3120 3120 3120 3149 3149 3149 3149 3178 3178 3178 3208 3208 3208 3208 3208 3208 3238 3208 3208 3208 3238 3238 3238 3238 3269 3269 3269 3300 3300 3300 3300 3300 3300 3300 3333 3333 3333 3333 3333 3365 3365 3399 3399 3399 3399 3433 3433 3468 3468 3468 3468 3468 3468 3503 3503 3503 3539 3539 3576 3576 3576 3576 3576 3576 3576 3576 3614 3614 3614 3653 3653 3653 3692 3732 0 0 0 0 0 0 0 0 0 0 0 5210 5210 5210 5210 5210 5210 5210 5210 5210 5210 5210 5291 5374 5374 5374 5374 5460 5460 5460 5460 5374 5374 5374 5374 5374 5374 5374 5374 5374 5374 5374 5374 5374 5374 5374 5374 5374 5374 5374 5374 5374 5374 5374 5374 5374 5374 5374 5374 5374 5374 5374 5374 5374 5374 5291 5291 5291 5291 5291 5374 5374 5291 5291 5291 5291 5291 5291 5291 5291 5291 5291 5210 5210 5132 5056 5056 5056 5056 5056 5056 5056 5056 5132 5210 5291 5291 5291 5291 5291 5291 5291 5291 5291 5210 5210 5291 5291 5291 5291 5291 5291 5291 5291 5291 5291 5291 5291 5291 5291 5291 2317 2317 2317 2317 2333 2333 2333 2333 2333 2333 2333 2333 2333 2333 2317 2317 2317 2301 2301 2301 2301 2301 2317 2317 2317 2317 2317 2317 2317 2301 2301 2301 2301 2301 2301 2301 2301 2301 2301 2301 2286 2286 2286 2286 2286 2286 2286 2271 2271 2271 2271 2271 2271 2286 2286 2271 2271 2271 2271 2271 2256 2256 2271 2271 2271 2271 2256 2241 2241 2241 2241 2241 2241 2241 2241 2241 2241 2256 2256 3365 3365 3365 3365 3365 3365 3365 3365 3365 3365 3365 3365 3365 3365 3365 3365 3365 3365 3365 3365 3333 3333 3333 3333 3333 3333 3333 3333 3333 3333 3333 3333 3333 3333 3333 3333 3333 3333 3333 3333 3333 3300 3300 3300 3300 3300 3300 3300 3300 3300 3269 3269 3269 3269 3269 3269 3269 2143 2129 2129 2143 2143 2143 2143 2143 2143 2143 3238 3238 3238 3238 3238 3238 3238 3238 3238 3238 3208 3208 3208 3208 3178 3178 3178 3178 3178 3178 3178 3178 3178 3208 3208 3269 3269 3300 3333 3333 3333 3365 3399 3433 3433 3468 3503 3503 3539 3576 3653 3692 3692 3732 3732 3774 4349 4295 4295 4349 4349 4349 4349 4349 4349 4349 4349 4349 4349 4349 4349 4349 4349 4349 4349 4349 4349 4349 4349 4349 4349 4349 4349 4405 4463 4522 6259 5933 5933 5933 5933 5832 5832 5832 5832 5832 5832 5832 5832 5832 5832 5832 5832 5734 5734 5734 5734 5734 5734 5734 5734 5734 5734 5832 5832 5832 5832 5832 6038 6146 6375 6497 6622 6622 6753 6622 6622 6622 6622 6753 6622 6622 6622 6497 6375 6146 6146 6375 6259 6259 6375 6497 6497 6497 6497 6497 6497 6375 6375 6375 6375 6375 6375 6375 6497 6497 6497 6497 6497 6497 6497 6497 6497 6497 6375 6375 6375 6146 6146 6146 6038 6038 6146 6146 6146 6146 6259 6259 6375 6375 6259 6259 6146 6146 6146 6146 6146 6038 6038 5933 5933 5933 5933 5933 6038 6038 6038 6038 6038 5933 5933 5933 4241 4241 4241 4241 4241 4241 4241 4241 4241 4190 4190 4190 4190 4190 4190 4139 4139 4139 4089 4089 4041 4041 4041 4041 4041 4041 3994 3994 0 0 0 0 0 0 0 0 0 0 0 0 0 0 0 0 0 0 0
0 0 0 0 0 0 0 0 0 0 0 0 0 0 0 0 0 0 0 0 0 0 0 0 0 0 0 0 0 0 0 0 2933 2933 2933 2958 2958 2984 2984 2984 2984 2984 2984 3010 3010 3010 3010 3010 3010 3037 3037 3064 3092 3092 3092 3092 3120 3120 3120 3120 3120 3120 3120 3149 3149 3149 3149 3178 3178 3178 3208 3208 3208 3208 3208 3208 3238 3238 3208 3208 3238 3238 3238 3238 3269 3269 3269 3300 3300 3300 3300 3300 3300 3300 3333 3333 3333 3333 3333 3365 3365 3399 3399 3399 3433 3433 3433 3433 3468 3468 3468 3503 3503 3503 3503 3503 3539 3539 3576 3576 3576 3576 3576 3576 3576 3576 3614 3614 3653 3653 3653 3653 3732 3774 0 0 0 0 0 0 0 0 0 0 5210 5132 5132 5132 5210 5210 5210 5210 5132 5132 5210 5210 5210 5291 5374 5374 5374 5460 5460 5460 5460 5374 5374 5374 5374 5374 5374 5374 5374 5374 5374 5374 5374 5374 5374 5374 5374 5374 5374 5374 5374 5374 5374 5374 5374 5374 5374 5374 5374 5374 5374 5374 5374 5374 5374 5291 5291 5291 5291 5291 5374 5374 5291 5291 5291 5291 5291 5291 5291 5291 5291 5291 5210 5210 5132 5056 5056 5056 5056 5056 5056 5056 5132 5132 5210 5291 5291 5291 5291 5291 5291 5291 5291 5291 5210 5210 5291 5291 5291 5291 5291 5291 5291 5291 5291 5291 5291 5291 5291 5291 5291 2317 2317 2317 2317 2333 2333 2333 2333 2333 2333 2333 2333 2333 2333 2317 2317 2301 2301 2301 2301 2301 2301 2317 2317 2317 2317 2317 2317 2317 2301 2301 2301 2301 2301 2301 2301 2301 2301 2301 2301 2286 2286 2286 2286 2286 2286 2286 2271 2271 2271 2271 2271 2271 2286 2286 2286 2271 2271 2271 2271 2271 2271 2271 2271 2271 2271 2256 2241 2241 2241 2241 2241 2241 2241 2241 2241 2241 2256 2256 3365 3365 3365 3365 3365 3365 3365 3365 3365 3365 3365 3365 3365 3365 3365 3365 3365 3365 3365 3365 3365 3365 3333 3333 3333 3333 3333 3333 3333 3333 3333 3333 3333 3333 3333 3333 3333 3333 3333 3333 3333 3333 3300 3300 3300 3300 3300 3300 3333 3333 3300 3300 3300 3269 3269 3269 2129 2129 2129 2129 2129 2129 2143 2143 2143 2129 2129 2143 3238 3238 3238 3238 3238 3238 3238 3238 3238 3208 3208 3208 3208 3178 3178 3178 3178 3149 3149 3149 3178 3178 3178 3208 2090 2078 2078 2078 2090 3365 2078 2078 3433 3433 3433 3468 3503 3539 3576 3653 3692 3732 3732 3774 3774 4349 4295 4295 4349 4349 4349 4349 4349 4349 4349 4349 4349 4349 4349 4349 4349 4349 4349 4349 4349 4349 4349 4349 4349 4349 4349 4405 4405 4463 4522 6038 5933 5832 5832 5832 5832 5832 5832 5832 5832 5832 5832 5832 5832 5832 5832 5832 5640 5640 5640 5640 5640 5640 5640 5640 5640 5640 5734 5734 5734 5734 5734 5832 6146 6497 6497 6622 6622 6753 6753 6753 6753 6753 6622 6622 6622 6622 6375 6375 5734 5734 5734 5832 5933 5933 6038 6146 6375 6375 6375 6375 6375 6375 6146 5933 5933 5832 5832 5933 6375 6375 6375 6497 6497 6497 6497 6497 6497 6497 6497 6375 6038 6038 6038 6038 6038 6146 6146 6146 6259 6375 6375 6375 6375 6375 6259 6259 6259 6259 6259 6146 6146 6038 5933 5933 5933 6038 6038 6038 6038 6146 6146 6038 5933 5933 5933 4241 4241 4241 4241 4241 4241 4241 4241 4241 4190 4190 4190 4190 4190 4139 4139 4139 4139 4089 4089 4041 4041 4041 4041 4041 3994 3994 3994 0 0 0 0 0 0 0 0 0 0 0 0 0 0 0 0 0 0 0
0 0 0 0 0 0 0 0 0 0 0 0 0 0 0 0 0 0 0 0 0 0 0 0 0 0 0 0 0 0 0 0 2908 2908 2933 2958 2958 2984 2984 2984 2984 3010 3010 3010 3010 3010 3010 3010 3010 3037 3037 3064 3064 3092 3092 3092 3092 3092 3120 3120 3120 3120 3120 3149 3149 3149 3149 3208 3178 3178 3208 3208 3208 3208 3208 3238 3238 3238 3238 3238 3238 3269 3269 3269 3269 3300 3300 3300 3300 3300 3300 3300 3300 3300 3333 3333 3333 3333 3333 3365 3365 3399 3399 3433 3433 3433 3433 3433 3433 3468 3468 3503 3503 3503 3503 3503 3539 3539 3576 3576 3576 3576 3576 3576 3576 3614 3614 3653 3653 3732 3692 3692 3732 3774 0 0 0 0 0 0 0 0 0 0 5132 5132 5132 5132 5210 5210 5210 5210 5132 5132 5210 5210 5210 5291 5291 5374 5374 5374 5374 5374 5374 5374 5374 5291 5291 5374 5374 5374 5374 5374 5374 5460 5374 5374 5374 5374 5374 5374 5374 5374 5460 5460 5460 5460 5460 5460 5460 5374 5374 5374 5374 5374 5374 5374 5374 5291 5291 5291 5291 5291 5374 5374 5291 5291 5291 5291 5291 5291 5291 5291 5291 5291 5291 5210 5132 5132 5056 5056 5056 5056 5056 5056 5056 5132 5132 5210 5291 5291 5291 5291 5291 5291 5291 5291 5210 5210 5291 5291 5291 5291 5291 5291 5291 5291 5291 5291 5291 5291 5291 5291 5291 2317 2317 2317 2317 2333 2333 2333 2333 2333 2333 2333 2333 2333 2333 2317 2317 2301 2301 2301 2301 2301 2301 2317 2317 2317 2317 2333 2317 2317 2301 2301 2301 2301 2301 2301 2301 2301 2301 2301 2301 2286 2286 2286 2286 2286 2286 2286 2286 2286 2286 2271 2271 2271 2286 2271 2271 2271 2271 2271 2271 2271 2271 2271 2271 2271 2271 2256 2241 2241 2241 2241 2241 2226 2226 2241 2241 2241 2256 2256 3365 3365 3365 3365 3365 3365 3365 3365 3365 3365 3365 3365 3365 3365 3365 3365 3365 3365 3365 3365 3365 3365 3333 3333 3333 3333 3333 3333 3333 3333 3333 3333 3333 3333 3333 3333 3333 3333 3333 3333 3333 3333 3300 3300 3333 3300 3300 3300 3333 3333 3333 3300 3300 3269 3269 2129 2129 2116 2116 2129 2129 2129 2129 2129 2129 2129 2129 2129 2129 2129 2129 2129 3238 3238 3238 3238 3238 3208 3208 3208 3208 3178 3178 3149 3149 3149 3149 3149 3178 3178 2103 2103 2090 2078 2078 2078 2090 2090 2078 2078 2078 3433 2053 2053 2040 2040 2053 2053 2053 2065 3774 3774 3774 4349 4349 4349 4349 4349 4349 4349 4349 4349 4349 4349 4349 4349 4349 4349 4349 4349 4349 4295 4295 4295 4349 4349 4349 4349 4405 4405 4405 4522 4522 5933 5832 5832 5832 5832 5832 5832 5832 5832 5832 5832 5832 5832 5832 5832 5832 5832 5640 5640 5640 5640 5640 5640 5640 5640 5640 5640 5734 5734 5734 5734 5734 5832 5832 6497 6497 6622 6622 6753 6753 6753 6753 6753 6622 6622 6497 6375 6375 5734 5734 5734 5734 5734 5832 5832 5832 6038 6259 6375 6375 6375 6146 5832 5734 5734 5832 5832 5832 5734 5734 6038 6259 6375 6497 6497 6497 6497 6497 6497 6497 6146 5933 5933 5933 5933 5933 6038 6146 6146 6259 6375 6375 6375 6497 6375 6375 6375 6375 6375 6375 6259 6259 6146 6038 6038 6038 6038 6146 6146 6146 6146 6146 6146 6038 6038 6038 4241 4241 4241 4241 4241 4241 4241 4241 4241 4190 4190 4190 4190 4190 4139 4139 4139 4139 4089 4089 4041 4041 4041 4041 4041 3994 3994 3994 0 0 0 0 0 0 0 0 0 0 0 0 0 0 0 0 0 0 0
