0 0 0 0 0 0 0 0 0 0 0 0 0 0 0 0 0 0 0 0 0 0 0 0 0 0 0 0 0 0 0 0 0 0 1833 1833 1833 1833 1833 1833 1833 1833 1843 1843 1843 1843 1843 1843 1843 1843 1833 1833 1833 1833 1843 1843 1843 1843 1843 1843 1843 1833 1833 1833 1833 1843 1843 1823 1823 1823 1823 1823 1823 1823 1833 1833 1833 1833 1833 1833 1833 1823 1823 1823 1833 1833 1833 1833 1833 1833 1833 1833 1833 1833 1833 1833 1833 1833 1833 1833 1833 1833 1833 1833 1833 1833 1833 1833 1833 1833 1833 1833 1833 1833 1833 1833 1833 1833 1833 1843 1843 1843 1843 1843 1853 1722 1722 1722 1722 1722 1731 1722 1655 1647 1639 1639 1639 1639 1647 1647 1647 1647 1655 1655 1663 1663 1671 1680 1843 1843 1843 1843 1843 1843 1833 1833 1833 1843 1833 1833 1843 1843 1843 1843 1843 1843 1843 1843 1843 1853 1853 1853 1853 1853 1853 1853 1853 1853 1853 1853 1853 1853 1853 1853 1853 1853 1853 1853 1853 1853 1853 1853 1853 1853 1853 1853 1853 1853 1853 1853 1863 1853 1853 1853 1853 1853 1853 1853 1853 1853 1853 1853 1853 1853 1853 1863 1863 1863 1863 1863 1863 1863 1863 1863 1616 1616 1609 1609 1609 1609 1609 1609 1609 1616 1624 1632 1639 1647 1647 1647 1655 1647 1647 1853 1853 1853 1853 1853 1853 1853 1853 1853 1853 1853 1853 1853 1853 1853 1863 1853 1853 1853 1853 1853 1853 1853 1853 1853 1853 1853 1853 1863 1853 1853 1853 1853 1853 1853 1503 1496 1496 1496 1503 1503 1503 1503 1503 1503 1509 1509 1516 1516 1516 1516 1853 1853 1863 1863 1863 1863 1853 1853 1863 1863 1863 1863 1853 1853 1853 1853 1853 1853 1853 1853 1863 1853 1853 1863 1863 1863 1863 1863 1863 1853 1853 1853 1853 1853 1853 1843 1843 1843 1853 1853 1853 1853 1853 1853 1853 1853 1853 1853 1853 1853 1863 1863 1863 1863 1863 1863 1863 1853 1853 1853 1853 1853 1853 1853 1853 1853 1853 1853 1853 1853 1853 1853 1863 1863 1853 1853 1853 1853 1853 1853 1863 1863 1863 1863 1863 1863 1863 1853 1853 1863 1445 1433 1433 1433 1433 1439 1439 1439 1439 1439 1439 1439 1439 1445 1445 1445 1843 1843 1833 1833 1843 1843 1843 1853 1853 1853 1863 1863 1873 1863 1863 1863 1853 1853 1853 1853 1853 1853 1853 1853 1853 1853 1853 1853 1853 1853 1853 1853 1853 1853 1853 1853 1853 1853 1853 1853 1853 1853 1853 1853 1853 1853 1853 1853 1853 1853 1853 1853 1853 1843 1843 1843 1853 1853 1853 1853 1853 1853 1853 1853 1853 1853 1853 1853 1843 1843 1843 1843 1833 1833 1833 1550 1543 1543 1543 1536 1536 1536 1536 1536 1536 1536 1536 1536 1536 1536 1536 1536 1536 1536 1536 1843 1853 1853 1853 1853 1853 1843 1843 1843 1833 1833 1833 1843 1843 1843 1843 1843 1843 1843 1843 1843 1843 1843 1843 1843 1843 1843 1843 1843 1843 1843 1843 1843 1843 1843 1853 1853 1853 1853 1853 1843 1843 1843 1833 1833 1833 1833 1833 1833 1833 1833 1843 1843 1843 1843 1843 1843 1843 1843 1843 1843 1843 1843 1843 1843 1843 1833 1833 1833 1833 1833 1833 1833 1833 1833 1843 1843 1833 1833 1843 1843 1843 1833 1833 1843 1843 1833 1833 1833 1823 1823 1823 1823 1823 1823 1833 1823 1823 1823 1823 1813 1813 1823 1823 1823 1823 1823 1813 1813 1813 1813 1813 1813 1813 1813 1813 1804 1804 1804 1804 1804 1813 1813 1813 1813 1813 1813 1813 1813 1804 1804 1813 1813 1813 1813 1813 1813 1813 0 0 0 0 0 0 0
0 0 0 0 0 0 0 0 0 0 0 0 0 0 0 0 0 0 0 0 0 0 0 0 0 0 0 0 0 0 0 0 0 0 1823 1823 1823 1823 1833 1833 1833 1833 1833 1843 1843 1843 1843 1833 1833 1833 1833 1833 1833 1833 1833 1833 1833 1833 1843 1843 1833 1833 1833 1833 1833 1833 1833 1823 1823 1823 1823 1823 1823 1823 1823 1823 1833 1833 1833 1823 1823 1823 1823 1823 1823 1823 1833 1823 1823 1833 1833 1833 1833 1833 1833 1833 1833 1833 1823 1823 1823 1823 1823 1823 1823 1833 1833 1833 1823 1823 1833 1823 1823 1823 1833 1833 1833 1833 1833 1833 1833 1833 1843 1843 1843 1731 1731 1731 1731 1731 1731 1731 1655 1647 1639 1639 1647 1647 1647 1647 1647 1647 1647 1655 1663 1663 1663 1843 1833 1833 1843 1843 1843 1843 1833 1833 1833 1833 1833 1833 1843 1843 1843 1843 1833 1833 1833 1843 1843 1843 1843 1843 1843 1843 1843 1843 1843 1843 1843 1843 1843 1853 1853 1853 1853 1843 1843 1843 1853 1853 1853 1853 1853 1853 1853 1853 1853 1853 1853 1853 1853 1853 1853 1853 1853 1853 1853 1853 1853 1853 1853 1853 1853 1853 1853 1853 1853 1853 1853 1853 1853 1863 1863 1863 1616 1616 1609 1609 1609 1609 1609 1609 1616 1616 1624 1632 1639 1647 1647 1647 1655 1647 1647 1843 1853 1853 1853 1853 1853 1853 1853 1853 1853 1853 1853 1853 1853 1853 1853 1853 1853 1853 1853 1853 1853 1853 1853 1853 1853 1853 1853 1853 1853 1853 1853 1853 1843 1843 1843 1496 1496 1496 1496 1503 1503 1503 1509 1509 1509 1509 1516 1516 1516 1843 1843 1843 1853 1853 1853 1853 1853 1853 1853 1853 1853 1853 1853 1853 1853 1853 1853 1853 1853 1853 1853 1853 1853 1853 1853 1853 1853 1853 1853 1853 1853 1853 1853 1853 1853 1843 1843 1843 1843 1843 1843 1843 1853 1853 1853 1843 1843 1853 1853 1853 1853 1853 1853 1853 1853 1853 1853 1853 1853 1853 1853 1853 1843 1843 1843 1843 1843 1843 1843 1843 1853 1853 1853 1843 1843 1843 1843 1843 1843 1843 1853 1853 1853 1853 1853 1853 1853 1843 1843 1843 1445 1445 1439 1439 1439 1439 1439 1439 1439 1439 1439 1439 1439 1445 1445 1445 1833 1833 1833 1833 1843 1843 1843 1853 1853 1853 1853 1853 1863 1853 1853 1853 1843 1843 1843 1843 1843 1843 1843 1843 1843 1843 1843 1843 1853 1853 1843 1843 1843 1843 1843 1843 1843 1843 1843 1853 1853 1853 1843 1843 1843 1843 1843 1843 1843 1843 1843 1843 1843 1843 1843 1843 1843 1843 1843 1843 1843 1843 1843 1843 1843 1843 1843 1843 1843 1833 1833 1833 1833 1833 1543 1543 1543 1543 1543 1536 1536 1536 1536 1536 1536 1536 1536 1536 1536 1536 1536 1536 1536 1536 1536 1843 1843 1843 1843 1843 1843 1833 1833 1833 1823 1823 1833 1833 1833 1833 1833 1833 1833 1833 1843 1843 1843 1833 1833 1833 1833 1833 1833 1833 1833 1843 1843 1843 1843 1843 1843 1843 1843 1843 1843 1833 1833 1833 1833 1823 1823 1823 1823 1823 1823 1833 1833 1833 1833 1843 1833 1833 1843 1833 1833 1843 1833 1833 1833 1833 1833 1833 1833 1833 1833 1833 1833 1833 1833 1833 1843 1843 1833 1833 1833 1833 1833 1833 1833 1833 1833 1823 1823 1823 1823 1823 1823 1823 1823 1823 1823 1813 1813 1813 1813 1813 1813 1813 1813 1813 1813 1813 1813 1813 1813 1813 1813 1813 1804 1804 1804 1804 1804 1804 1804 1804 1804 1804 1804 1804 1804 1804 1804 1804 1804 1804 1804 1804 1804 1804 1813 1813 1813 0 0 0 0 0 0 0
0 0 0 0 0 0 0 0 0 0 0 0 0 0 0 0 0 0 0 0 0 0 0 0 0 0 0 0 0 0 0 0 0 0 1823 1823 1823 1823 1823 1823 1833 1833 1833 1833 1833 1833 1833 1833 1833 1833 1823 1823 1823 1833 1833 1833 1833 1833 1833 1833 1833 1833 1833 1823 1823 1823 1833 1823 1823 1813 1813 1823 1823 1823 1823 1823 1823 1823 1823 1823 1823 1823 1823 1823 1823 1823 1823 1823 1823 1823 1833 1833 1823 1823 1823 1823 1823 1823 1813 1813 1823 1823 1823 1823 1823 1823 1823 1823 1823 1823 1823 1823 1823 1823 1823 1823 1823 1823 1833 1833 1833 1833 1833 1833 1833 1833 1731 1731 1731 1731 1739 1739 1655 1655 1647 1647 1647 1647 1647 1647 1647 1647 1647 1655 1663 1663 1663 1843 1833 1833 1833 1833 1833 1833 1823 1823 1833 1833 1823 1823 1833 1833 1833 1833 1833 1833 1833 1833 1833 1843 1843 1843 1843 1843 1833 1833 1833 1833 1833 1833 1833 1843 1843 1843 1843 1843 1843 1843 1843 1843 1843 1843 1843 1843 1843 1843 1843 1853 1853 1853 1853 1853 1853 1853 1853 1853 1843 1843 1843 1843 1843 1853 1853 1853 1853 1853 1853 1853 1853 1853 1853 1853 1853 1853 1616 1616 1609 1609 1609 1609 1609 1609 1616 1624 1632 1639 1639 1647 1647 1647 1647 1647 1647 1843 1843 1843 1843 1853 1843 1843 1843 1843 1843 1843 1853 1853 1853 1853 1853 1853 1853 1853 1853 1853 1853 1853 1853 1853 1853 1853 1853 1853 1853 1853 1853 1843 1843 1843 1843 1496 1496 1496 1496 1503 1503 1509 1509 1509 1509 1509 1509 1509 1843 1843 1843 1843 1853 1853 1853 1853 1853 1853 1853 1853 1853 1853 1853 1853 1853 1853 1853 1853 1853 1853 1853 1853 1853 1853 1853 1853 1853 1853 1853 1853 1853 1843 1843 1853 1853 1843 1843 1843 1843 1843 1843 1843 1843 1843 1843 1843 1843 1843 1843 1843 1843 1843 1843 1843 1853 1853 1853 1843 1843 1843 1843 1843 1843 1843 1843 1843 1843 1843 1843 1843 1843 1843 1843 1843 1843 1843 1843 1843 1843 1843 1843 1843 1843 1843 1843 1843 1843 1833 1833 1833 1445 1445 1445 1445 1445 1445 1439 1439 1439 1439 1439 1439 1439 1439 1439 1439 1833 1833 1833 1833 1843 1843 1843 1843 1853 1853 1853 1853 1853 1853 1853 1853 1843 1843 1843 1843 1843 1843 1833 1833 1833 1833 1833 1833 1833 1833 1833 1833 1833 1833 1833 1833 1833 1833 1833 1833 1833 1833 1833 1833 1843 1843 1843 1833 1833 1843 1843 1843 1833 1833 1833 1843 1843 1843 1843 1843 1843 1843 1843 1833 1833 1833 1833 1833 1833 1833 1833 1833 1833 1833 1543 1543 1543 1543 1543 1536 1536 1536 1536 1536 1536 1536 1536 1536 1536 1536 1536 1536 1536 1536 1536 1550 1843 1833 1833 1833 1833 1833 1833 1833 1823 1823 1823 1823 1823 1823 1833 1823 1823 1823 1833 1833 1833 1823 1823 1833 1833 1833 1833 1833 1833 1843 1843 1843 1843 1843 1843 1843 1833 1833 1833 1823 1823 1823 1823 1823 1823 1823 1823 1823 1823 1823 1823 1823 1833 1833 1833 1833 1833 1833 1833 1833 1833 1833 1823 1823 1833 1823 1823 1823 1823 1823 1823 1823 1823 1833 1833 1833 1823 1823 1823 1823 1823 1823 1823 1833 1823 1823 1823 1823 1813 1813 1823 1823 1823 1823 1823 1813 1813 1813 1813 1813 1813 1813 1813 1804 1804 1804 1804 1804 1804 1804 1804 1804 1804 1804 1804 1794 1794 1794 1794 1794 1794 1804 1804 1804 1804 1804 1804 1804 1804 1804 1804 1804 1804 1804 1804 1804 1804 0 0 0 0 0 0 0
0 0 0 0 0 0 0 0 0 0 0 0 0 0 0 0 0 0 0 0 0 0 0 0 0 0 0 0 0 0 0 0 0 0 1813 1813 1823 1823 1823 1823 1823 1823 1833 1833 1833 1833 1833 1823 1823 1823 1813 1813 1823 1823 1833 1833 1823 1823 1833 1833 1823 1823 1823 1813 1813 1813 1813 1813 1823 1813 1813 1813 1813 1813 1813 1813 1823 1813 1813 1823 1823 1813 1813 1823 1823 1823 1823 1823 1823 1823 1823 1823 1823 1823 1823 1823 1823 1823 1813 1813 1813 1813 1813 1823 1823 1823 1823 1823 1823 1823 1823 1823 1823 1823 1823 1823 1823 1823 1823 1823 1823 1833 1833 1823 1813 1813 1748 1739 1739 1739 1739 1748 1655 1655 1647 1647 1647 1647 1647 1647 1647 1647 1647 1655 1663 1663 1663 1833 1833 1833 1833 1833 1833 1833 1823 1823 1823 1823 1823 1823 1823 1823 1823 1823 1823 1823 1823 1823 1823 1833 1833 1833 1833 1833 1833 1833 1833 1833 1833 1833 1833 1833 1833 1833 1833 1833 1833 1833 1843 1843 1843 1843 1843 1843 1833 1833 1843 1843 1843 1853 1843 1843 1853 1843 1843 1843 1843 1843 1833 1833 1843 1843 1843 1843 1843 1843 1843 1843 1843 1843 1853 1853 1853 1853 1609 1609 1609 1609 1609 1609 1609 1609 1616 1624 1632 1639 1639 1647 1647 1647 1647 1647 1843 1843 1843 1843 1843 1843 1843 1843 1843 1843 1843 1843 1843 1843 1843 1843 1853 1853 1853 1853 1853 1853 1843 1843 1843 1843 1843 1843 1843 1843 1843 1843 1843 1843 1833 1833 1833 1496 1496 1496 1503 1503 1503 1509 1509 1509 1509 1509 1509 1516 0 1843 1843 1843 1853 1843 1843 1843 1843 1853 1853 1853 1853 1853 1853 1853 1843 1843 1843 1843 1853 1853 1853 1853 1853 1853 1853 1853 1853 1853 1843 1843 1843 1843 1843 1843 1843 1843 1843 1843 1843 1843 1843 1843 1843 1843 1843 1843 1843 1843 1843 1843 1843 1843 1843 1843 1843 1843 1843 1843 1843 1843 1843 1843 1833 1833 1833 1833 1833 1833 1833 1833 1833 1843 1843 1843 1843 1843 1843 1843 1843 1843 1843 1843 1843 1843 1843 1843 1843 1833 1833 1833 1452 1445 1445 1445 1445 1445 1445 1445 1439 1439 1439 1439 1439 1439 1439 1439 1833 1833 1833 1833 1843 1843 1843 1843 1843 1843 1843 1843 1843 1843 1843 1843 1833 1833 1833 1833 1833 1833 1833 1833 1833 1833 1833 1833 1833 1833 1833 1833 1833 1833 1833 1833 1833 1833 1833 1833 1833 1833 1833 1833 1833 1823 1823 1823 1833 1833 1833 1833 1833 1833 1833 1833 1833 1833 1833 1833 1833 1833 1833 1833 1833 1833 1833 1833 1833 1833 1833 1833 1833 1550 1550 1550 1543 1543 1543 1536 1536 1536 1536 1536 1536 1536 1536 1536 1536 1536 1536 1536 1536 1536 1543 1550 1833 1833 1833 1833 1833 1833 1833 1833 1823 1823 1823 1823 1823 1823 1823 1823 1823 1823 1823 1823 1823 1823 1823 1823 1833 1833 1833 1833 1833 1843 1833 1833 1833 1833 1833 1833 1833 1823 1823 1823 1823 1823 1823 1823 1823 1823 1823 1823 1823 1823 1823 1823 1823 1833 1823 1823 1833 1823 1823 1823 1823 1823 1823 1823 1823 1823 1823 1823 1823 1823 1823 1823 1823 1823 1823 1823 1823 1823 1823 1823 1823 1823 1823 1823 1823 1813 1813 1813 1813 1813 1813 1813 1813 1823 1823 1813 1813 1813 1813 1813 1813 1804 1804 1804 1804 1804 1804 1804 1804 1804 1804 1804 1804 1804 1794 1794 1794 1794 1785 1785 1785 1785 1794 1794 1794 1794 1804 1804 1804 1804 1804 1804 1804 1804 1804 1804 1804 0 0 0 0 0 0 0
0 0 0 0 0 0 0 0 0 0 0 0 0 0 0 0 0 0 0 0 0 0 0 0 0 0 0 0 0 0 0 0 0 0 1813 1813 1813 1813 1813 1823 1823 1823 1823 1823 1823 1823 1823 1823 1823 1823 1813 1813 1823 1823 1823 1823 1823 1823 1833 1823 1823 1813 1813 1813 1813 1813 1813 1804 1804 1804 1813 1813 1813 1813 1813 1813 1813 1813 1813 1823 1823 1813 1813 1813 1813 1823 1823 1823 1823 1823 1823 1823 1823 1813 1813 1813 1813 1813 1813 1813 1813 1813 1813 1813 1813 1813 1813 1813 1813 1813 1813 1813 1813 1813 1813 1813 1823 1823 1823 1823 1823 1823 1823 1813 1813 1794 1757 1748 1739 1739 1748 1748 1748 1655 1647 1647 1647 1647 1647 1647 1647 1647 1647 1655 1655 1655 1655 1823 1823 1823 1833 1833 1833 1833 1823 1823 1823 1823 1823 1823 1823 1823 1823 1823 1823 1823 1823 1823 1823 1823 1833 1833 1833 1833 1823 1823 1823 1823 1823 1823 1823 1823 1823 1823 1823 1823 1823 1833 1833 1833 1833 1833 1833 1833 1833 1833 1833 1843 1843 1843 1843 1843 1843 1843 1843 1843 1833 1833 1833 1833 1833 1833 1833 1833 1843 1843 1843 1843 1843 1843 1853 1853 1853 1853 1609 1609 1609 1609 1609 1609 1609 1609 1616 1624 1632 1639 1639 1647 1647 1647 1647 1647 1843 1843 1843 1843 1843 1843 1843 1843 1843 1843 1843 1843 1843 1843 1843 1843 1843 1843 1853 1843 1843 1843 1843 1843 1843 1843 1843 1843 1843 1843 1843 1843 1843 1843 1833 1833 1833 1496 1496 1496 1503 1503 1509 1509 1509 1509 1509 1516 1516 1516 1523 1843 1843 1843 1843 1843 1843 1843 1843 1843 1843 1843 1843 1843 1843 1843 1843 1843 1843 1843 1843 1843 1843 1843 1843 1853 1853 1853 1853 1853 1843 1843 1843 1843 1843 1843 1843 1833 1833 1833 1833 1833 1833 1833 1833 1833 1833 1833 1833 1833 1833 1833 1833 1833 1843 1843 1833 1833 1843 1843 1833 1833 1833 1833 1833 1833 1833 1833 1833 1833 1833 1833 1833 1833 1843 1833 1833 1833 1833 1833 1833 1833 1843 1843 1843 1843 1833 1833 1833 1823 1823 1833 1458 1452 1445 1445 1445 1445 1445 1445 1439 1439 1439 1445 1445 1439 1439 1843 1833 1833 1833 1833 1833 1833 1833 1833 1843 1843 1843 1843 1843 1843 1843 1843 1833 1833 1833 1833 1833 1833 1833 1833 1823 1823 1833 1833 1833 1833 1833 1833 1833 1833 1833 1833 1833 1833 1833 1833 1833 1833 1823 1823 1823 1823 1823 1823 1823 1823 1823 1823 1823 1823 1823 1823 1823 1823 1823 1823 1823 1823 1823 1823 1823 1823 1823 1833 1833 1823 1823 1823 1823 1550 1550 1550 1550 1543 1543 1543 1543 1543 1536 1536 1536 1536 1536 1536 1536 1536 1536 1536 1536 1536 1543 1550 1823 1823 1833 1833 1833 1833 1833 1833 1823 1823 1823 1823 1823 1823 1823 1823 1823 1823 1823 1823 1823 1823 1823 1823 1823 1823 1823 1823 1823 1833 1823 1823 1823 1823 1823 1823 1823 1823 1823 1823 1823 1823 1823 1823 1813 1813 1823 1823 1823 1823 1823 1823 1823 1823 1823 1823 1823 1823 1823 1823 1823 1823 1823 1823 1823 1823 1823 1823 1823 1823 1823 1823 1823 1823 1823 1823 1823 1823 1823 1823 1823 1813 1813 1813 1813 1813 1813 1813 1813 1813 1813 1813 1813 1813 1823 1813 1813 1813 1804 1804 1804 1804 1804 1804 1804 1804 1794 1794 1794 1794 1804 1804 1804 1804 1794 1785 1785 1785 1785 1785 1785 1785 1794 1785 1785 1785 1794 1794 1794 1794 1794 1804 1804 1804 1804 1804 1804 0 0 0 0 0 0 0
0 0 0 0 0 0 0 0 0 0 0 0 0 0 0 0 0 0 0 0 0 0 0 0 0 0 0 0 0 0 0 0 0 0 1804 1804 1813 1813 1813 1813 1823 1823 1823 1823 1823 1813 1813 1813 1813 1813 1813 1813 1823 1823 1823 1823 1823 1823 1823 1823 1813 1813 1813 1813 1813 1813 1813 1804 1804 1804 1804 1804 1804 1813 1813 1813 1813 1813 1813 1823 1823 1813 1813 1813 1813 1823 1823 1823 1823 1823 1823 1823 1813 1813 1813 1804 1804 1794 1794 1804 1804 1804 1804 1804 1813 1804 1804 1804 1804 1804 1804 1804 1813 1813 1813 1813 1813 1813 1823 1813 1813 1813 1813 1804 1804 1794 1766 1757 1748 1748 1748 1748 1748 1655 1647 1647 1647 1647 1647 1647 1639 1639 1647 1647 1655 1655 1655 1823 1823 1823 1823 1823 1833 1833 1823 1823 1823 1823 1823 1823 1823 1813 1813 1813 1823 1823 1823 1823 1823 1823 1833 1823 1823 1823 1823 1823 1823 1823 1823 1823 1823 1823 1823 1823 1823 1823 1823 1823 1833 1823 1823 1823 1833 1833 1833 1833 1833 1833 1833 1833 1833 1833 1833 1833 1833 1833 1833 1833 1833 1833 1833 1833 1833 1833 1833 1833 1833 1833 1833 1833 1833 1833 1823 1823 1609 1609 1609 1609 1609 1609 1609 1609 1616 1624 1632 1639 1639 1647 1639 1632 1632 1833 1833 1843 1843 1843 1843 1843 1843 1843 1833 1833 1833 1843 1843 1843 1843 1843 1843 1843 1843 1843 1843 1843 1843 1843 1833 1833 1833 1833 1843 1843 1843 1843 1843 1843 1833 1833 1833 1496 1496 1496 1503 1503 1509 1509 1509 1509 1509 1516 1516 1523 1523 0 1843 1843 1843 1843 1833 1833 1843 1843 1843 1843 1843 1843 1843 1843 1843 1843 1843 1843 1843 1843 1843 1843 1843 1843 1843 1843 1843 1843 1843 1843 1843 1843 1843 1843 1843 1833 1833 1833 1833 1833 1833 1833 1833 1833 1833 1833 1833 1833 1833 1833 1833 1833 1833 1833 1833 1833 1833 1833 1833 1833 1833 1823 1823 1823 1823 1823 1833 1833 1833 1833 1833 1833 1833 1833 1833 1833 1833 1833 1833 1833 1843 1833 1833 1833 1833 1833 1833 1823 1823 1823 1823 1452 1445 1445 1445 1445 1445 1445 1445 1439 1439 1445 1445 1445 1445 1833 1833 1833 1833 1833 1833 1833 1833 1833 1833 1833 1833 1833 1833 1833 1833 1843 1823 1823 1823 1823 1823 1823 1823 1823 1823 1823 1823 1823 1823 1833 1833 1823 1823 1823 1823 1823 1823 1823 1823 1823 1823 1823 1823 1823 1823 1813 1813 1823 1823 1823 1823 1823 1823 1823 1823 1823 1823 1823 1823 1813 1813 1823 1823 1823 1823 1823 1823 1823 1823 1823 1823 1823 1823 1550 1550 1550 1550 1550 1543 1543 1543 1543 1536 1536 1536 1536 1536 1536 1536 1536 1536 1536 1536 1536 1543 1550 1557 1823 1823 1833 1833 1833 1823 1823 1813 1813 1813 1813 1813 1813 1813 1813 1823 1813 1813 1823 1823 1813 1813 1813 1813 1813 1813 1813 1823 1823 1823 1823 1823 1823 1823 1823 1823 1823 1823 1823 1823 1823 1823 1813 1813 1813 1813 1813 1813 1813 1813 1823 1823 1823 1823 1823 1823 1823 1813 1813 1813 1813 1813 1813 1813 1813 1813 1813 1813 1813 1813 1813 1813 1813 1813 1813 1813 1813 1813 1813 1813 1813 1813 1813 1813 1813 1813 1804 1804 1813 1813 1813 1813 1813 1813 1804 1804 1804 1804 1804 1804 1804 1804 1794 1794 1794 1794 1794 1794 1794 1794 1794 1794 1785 1785 1785 1785 1785 1785 1785 1785 1785 1785 1785 1785 1785 1794 1794 1794 1794 1794 1794 1794 1794 1794 1804 1804 0 0 0 0 0 0 0
0 0 0 0 0 0 0 0 0 0 0 0 0 0 0 0 0 0 0 0 0 0 0 0 0 0 0 0 0 0 0 0 0 0 1804 1794 1794 1804 1804 1804 1804 1804 1804 1804 1804 1804 1804 1804 1804 1804 1804 1804 1813 1813 1823 1823 1823 1823 1823 1813 1813 1813 1813 1813 1813 1813 1813 1804 1804 1804 1804 1804 1804 1794 1794 1804 1804 1804 1813 1813 1813 1813 1813 1813 1813 1813 1813 1813 1813 1813 1813 1813 1804 1804 1804 1794 1794 1794 1794 1794 1794 1794 1794 1804 1804 1804 1804 1804 1804 1804 1804 1804 1813 1813 1813 1813 1813 1813 1813 1804 1804 1804 1804 1804 1804 1794 1766 1757 1757 1748 1748 1757 1748 1655 1647 1647 1647 1647 1647 1647 1639 1639 1647 1647 1655 1663 1663 1823 1823 1823 1823 1823 1823 1823 1823 1823 1823 1823 1813 1813 1813 1813 1813 1813 1813 1813 1823 1823 1823 1823 1823 1823 1823 1823 1813 1813 1813 1813 1823 1823 1823 1823 1823 1823 1823 1823 1823 1823 1823 1823 1823 1823 1823 1823 1823 1823 1823 1823 1823 1823 1823 1823 1823 1823 1823 1823 1823 1823 1823 1823 1823 1823 1823 1833 1833 1833 1833 1833 1833 1823 1823 1823 1823 1823 1601 1601 1601 1609 1609 1609 1609 1609 1616 1624 1632 1639 1639 1639 1632 1632 1632 1833 1833 1833 1833 1833 1833 1833 1833 1833 1833 1833 1833 1833 1833 1833 1833 1843 1843 1843 1843 1843 1843 1833 1833 1833 1833 1833 1833 1833 1833 1833 1833 1833 1833 1843 1833 1833 1833 1489 1489 1496 1503 1503 1509 1509 1509 1509 1509 1516 1516 1523 1523 0 1843 1843 1843 1833 1833 1833 1833 1833 1843 1833 1833 1833 1833 1833 1833 1833 1833 1833 1833 1833 1833 1833 1833 1843 1843 1843 1843 1843 1843 1843 1833 1833 1833 1843 1843 1833 1833 1833 1833 1833 1833 1823 1823 1823 1833 1833 1833 1833 1833 1833 1833 1833 1833 1833 1823 1823 1833 1823 1823 1823 1823 1823 1823 1823 1823 1823 1823 1823 1823 1833 1833 1833 1833 1833 1833 1833 1833 1833 1833 1833 1833 1833 1833 1833 1833 1833 1833 1823 1823 1823 1823 1452 1452 1452 1452 1452 1445 1445 1445 1445 1445 1445 1445 1452 1452 1833 1833 1823 1823 1833 1833 1833 1823 1823 1823 1823 1823 1823 1833 1833 1833 1833 1823 1823 1823 1823 1823 1813 1813 1823 1823 1823 1823 1823 1823 1823 1823 1823 1823 1823 1823 1823 1823 1823 1823 1823 1823 1823 1823 1813 1813 1813 1813 1813 1813 1813 1823 1823 1823 1823 1823 1823 1813 1813 1813 1813 1813 1813 1813 1813 1813 1823 1823 1823 1823 1813 1813 1804 1804 1550 1550 1550 1550 1550 1550 1550 1550 1543 1543 1536 1536 1536 1536 1536 1536 1543 1543 1543 1543 1543 1550 1557 1557 1823 1823 1823 1823 1823 1823 1823 1813 1813 1813 1813 1813 1813 1813 1813 1813 1813 1813 1813 1813 1804 1804 1804 1804 1804 1804 1804 1813 1813 1813 1813 1813 1813 1813 1813 1823 1823 1823 1823 1823 1823 1813 1813 1813 1813 1813 1813 1813 1813 1813 1813 1823 1813 1813 1813 1813 1813 1813 1813 1813 1813 1813 1813 1813 1813 1813 1813 1804 1804 1813 1813 1813 1813 1813 1813 1813 1813 1813 1813 1813 1813 1813 1813 1813 1804 1804 1804 1804 1804 1804 1813 1804 1804 1813 1804 1804 1794 1794 1794 1794 1794 1794 1785 1785 1785 1785 1785 1785 1785 1785 1785 1785 1785 1776 1776 1776 1776 1776 1776 1776 1785 1785 1785 1785 1785 1785 1785 1785 1785 1794 1794 1794 1794 1794 1794 1794 0 0 0 0 0 0 0
0 0 0 0 0 0 0 0 0 0 0 0 0 0 0 0 0 0 0 0 0 0 0 0 0 0 0 0 0 0 0 0 0 0 1804 1794 1794 1794 1804 1804 1804 1804 1804 1804 1804 1804 1804 1804 1804 1804 1804 1804 1813 1813 1813 1813 1813 1813 1813 1804 1804 1804 1804 1804 1804 1804 1804 1794 1794 1794 1804 1794 1794 1794 1794 1794 1794 1794 1794 1794 1794 1794 1804 1804 1794 1794 1794 1794 1794 1794 1794 1794 1794 1794 1794 1794 1794 1794 1794 1794 1794 1794 1794 1804 1804 1794 1794 1794 1794 1794 1794 1794 1804 1804 1804 1804 1804 1804 1804 1804 1794 1794 1794 1794 1794 1794 1776 1757 1757 1757 1757 1757 1748 1655 1647 1647 1647 1647 1647 1647 1647 1647 1647 1647 1655 1655 1663 1813 1823 1813 1813 1813 1823 1823 1813 1813 1813 1813 1813 1804 1804 1813 1813 1813 1813 1813 1823 1823 1823 1823 1823 1823 1813 1813 1813 1813 1813 1813 1813 1813 1813 1813 1823 1823 1823 1813 1813 1823 1823 1823 1823 1823 1823 1823 1823 1823 1823 1823 1823 1823 1823 1823 1823 1823 1823 1823 1823 1823 1823 1823 1823 1823 1823 1823 1823 1823 1823 1823 1823 1823 1823 1823 1813 1813 1601 1601 1601 1609 1609 1609 1616 1616 1616 1624 1632 1639 1639 1639 1632 1632 1833 1833 1833 1833 1833 1833 1833 1823 1823 1823 1823 1823 1823 1823 1823 1823 1833 1833 1833 1833 1833 1833 1833 1833 1833 1823 1823 1823 1823 1823 1823 1823 1823 1823 1823 1833 1823 1823 1823 1489 1489 1496 1503 1503 1509 1509 1509 1509 1509 1516 1516 1523 1523 0 1823 1833 1833 1823 1823 1833 1833 1833 1833 1833 1833 1833 1833 1833 1833 1833 1823 1823 1823 1833 1833 1823 1823 1833 1833 1833 1833 1833 1833 1833 1833 1833 1833 1833 1833 1823 1823 1823 1823 1823 1823 1823 1823 1823 1823 1823 1823 1823 1823 1823 1823 1823 1823 1823 1823 1823 1823 1823 1823 1823 1823 1813 1813 1813 1813 1813 1813 1813 1813 1823 1823 1823 1823 1823 1823 1823 1833 1833 1833 1833 1833 1823 1823 1833 1833 1833 1833 1833 1823 1823 1823 1452 1452 1452 1452 1452 1445 1445 1445 1445 1445 1452 1452 1458 1458 1833 1823 1813 1813 1813 1813 1823 1823 1823 1823 1823 1823 1823 1833 1833 1833 1833 1813 1813 1813 1813 1813 1813 1813 1823 1823 1823 1823 1823 1823 1823 1823 1823 1823 1823 1823 1823 1823 1823 1823 1823 1823 1813 1813 1813 1804 1804 1804 1804 1813 1813 1813 1813 1813 1823 1813 1813 1813 1813 1813 1804 1804 1813 1813 1813 1813 1813 1813 1813 1823 1813 1813 1804 1794 1794 1550 1550 1550 1550 1550 1550 1550 1543 1543 1543 1543 1543 1543 1543 1543 1543 1543 1543 1543 1543 1550 1557 1564 1813 1813 1813 1823 1823 1813 1813 1804 1804 1804 1804 1804 1804 1804 1804 1804 1794 1794 1804 1804 1804 1804 1804 1804 1804 1804 1804 1804 1813 1813 1813 1813 1813 1813 1813 1813 1813 1813 1813 1813 1813 1813 1813 1813 1813 1813 1813 1813 1813 1813 1813 1813 1813 1813 1813 1813 1813 1813 1813 1813 1813 1804 1804 1804 1813 1804 1804 1804 1804 1804 1804 1804 1804 1804 1804 1813 1813 1804 1804 1804 1804 1804 1794 1794 1804 1804 1804 1804 1804 1804 1804 1804 1804 1804 1794 1794 1785 1785 1785 1785 1785 1785 1785 1785 1785 1776 1776 1785 1785 1785 1785 1776 1776 1776 1776 1776 1776 1776 1776 1776 1776 1776 1776 1776 1776 1785 1785 1785 1785 1785 1785 1785 1785 1785 1785 1794 0 0 0 0 0 0 0
0 0 0 0 0 0 0 0 0 0 0 0 0 0 0 0 0 0 0 0 0 0 0 0 0 0 0 0 0 0 0 0 0 0 0 1794 1794 1794 1794 1794 1794 1804 1804 1804 1794 1794 1794 1794 1794 1794 1794 1804 1804 1804 1804 1804 1804 1804 1804 1804 1804 1804 1804 1804 1804 1804 1804 1794 1794 1794 1785 1785 1785 1785 1785 1785 1785 1785 1794 1794 1794 1794 1794 1794 1794 1794 1794 1794 1794 1794 1794 1794 1794 1794 1785 1785 1785 1785 1785 1794 1794 1794 1794 1794 1794 1794 1794 1794 1794 1794 1794 1794 1804 1804 1804 1804 1804 1804 1794 1794 1794 1794 1794 1794 1794 1794 1785 1757 1757 1757 1757 1748 1748 1655 1655 1647 1647 1647 1647 1655 1647 1647 1647 1655 1655 1655 1655 1794 1804 1804 1794 1794 1804 1804 1794 1794 1794 1794 1794 1794 1794 1794 1804 1804 1804 1804 1804 1813 1813 1804 1804 1804 1804 1813 1813 1804 1804 1813 1813 1813 1813 1813 1813 1813 1813 1813 1813 1813 1823 1823 1823 1823 1823 1823 1823 1823 1823 1823 1823 1823 1823 1823 1823 1823 1823 1823 1823 1823 1823 1823 1823 1823 1823 1823 1823 1823 1823 1823 1823 1823 1813 1813 1813 1813 1813 1609 1609 1609 1609 1616 1616 1616 1616 1624 1632 1639 1639 1639 1632 1632 1823 1823 1823 1823 1823 1823 1823 1813 1813 1813 1813 1813 1813 1813 1813 1813 1823 1823 1823 1833 1833 1823 1823 1823 1823 1823 1813 1813 1813 1813 1813 1813 1823 1823 1823 1823 1823 1823 1823 1489 1489 1496 1503 1509 1509 1509 1509 1509 1509 1516 1516 1523 1523 1523 1823 1823 1823 1823 1823 1823 1823 1823 1823 1823 1823 1823 1823 1823 1823 1823 1823 1813 1813 1823 1823 1823 1823 1823 1833 1833 1823 1823 1833 1833 1833 1833 1833 1833 1823 1823 1823 1823 1823 1813 1813 1813 1813 1813 1813 1813 1813 1823 1823 1823 1823 1823 1823 1813 1813 1813 1823 1813 1813 1813 1823 1813 1813 1813 1813 1813 1813 1804 1804 1813 1813 1813 1813 1813 1823 1823 1823 1823 1823 1823 1823 1823 1823 1823 1823 1823 1823 1823 1813 1813 1813 1458 1458 1452 1452 1452 1452 1452 1445 1445 1452 1452 1452 1458 1464 1823 1813 1804 1804 1804 1813 1813 1813 1813 1813 1813 1823 1823 1823 1823 1823 1823 1813 1804 1804 1804 1804 1804 1804 1813 1813 1813 1813 1813 1813 1813 1813 1813 1813 1813 1813 1813 1813 1813 1813 1813 1813 1813 1813 1804 1804 1804 1804 1804 1804 1804 1804 1813 1813 1813 1813 1813 1804 1804 1804 1804 1804 1804 1804 1804 1804 1813 1804 1804 1804 1804 1804 1804 1794 1794 1550 1550 1550 1550 1550 1550 1550 1543 1543 1543 1543 1543 1543 1543 1543 1543 1543 1543 1543 1543 1550 1557 1813 1813 1813 1813 1813 1813 1804 1804 1794 1794 1804 1794 1794 1794 1794 1794 1794 1794 1794 1794 1794 1785 1785 1785 1785 1785 1785 1785 1794 1794 1794 1794 1813 1813 1813 1813 1813 1813 1813 1813 1813 1813 1813 1804 1804 1804 1804 1804 1804 1804 1804 1804 1804 1804 1804 1804 1794 1794 1794 1794 1804 1804 1804 1794 1794 1804 1794 1794 1794 1794 1794 1794 1794 1794 1794 1804 1804 1804 1804 1804 1804 1794 1794 1794 1794 1794 1794 1794 1794 1794 1794 1794 1794 1794 1794 1785 1785 1776 1776 1776 1785 1776 1776 1776 1776 1785 1776 1776 1776 1776 1776 1776 1776 1776 1776 1776 1776 1766 1766 1766 1766 1766 1776 1776 1776 1776 1776 1776 1776 1776 1776 1776 1776 1785 1785 1785 1785 0 0 0 0 0 0 0
0 0 0 0 0 0 0 0 0 0 0 0 0 0 0 0 0 0 0 0 0 0 0 0 0 0 0 0 0 0 0 0 0 0 0 1785 1785 1785 1794 1794 1794 1794 1794 1794 1794 1794 1794 1794 1794 1794 1794 1794 1804 1804 1804 1804 1804 1804 1804 1794 1794 1794 1794 1794 1794 1794 1794 1785 1785 1785 1785 1785 1785 1785 1785 1785 1785 1785 1785 1785 1785 1794 1794 1794 1785 1785 1785 1785 1785 1794 1794 1794 1785 1785 1785 1785 1785 1785 1785 1785 1785 1785 1785 1794 1794 1794 1794 1794 1794 1794 1794 1804 1804 1804 1794 1794 1794 1794 1794 1794 1794 1785 1785 1794 1785 1785 1785 1766 1757 1757 1757 1739 1739 1663 1655 1655 1647 1647 1655 1655 1647 1647 1647 1655 1655 1647 1601 1601 1794 1794 1794 1794 1794 1794 1785 1785 1794 1794 1794 1794 1794 1794 1804 1804 1804 1804 1804 1804 1804 1804 1804 1804 1804 1804 1804 1804 1794 1794 1804 1804 1804 1804 1804 1804 1804 1804 1804 1804 1813 1813 1813 1813 1813 1813 1813 1813 1813 1813 1813 1813 1823 1823 1823 1823 1813 1813 1813 1813 1813 1813 1813 1813 1813 1813 1813 1823 1823 1823 1823 1813 1813 1813 1813 1813 1813 1609 1609 1609 1609 1616 1616 1616 1616 1624 1632 1632 1639 1639 1632 1632 1823 1813 1813 1813 1813 1813 1813 1813 1813 1813 1813 1813 1813 1813 1813 1813 1823 1823 1823 1823 1823 1823 1823 1813 1813 1813 1813 1813 1813 1813 1813 1813 1813 1823 1823 1823 1823 1823 1823 1489 1489 1496 1509 1509 1509 1509 1509 1509 1509 1516 1516 1523 1523 1523 1813 1813 1813 1813 1813 1813 1823 1823 1823 1823 1823 1813 1813 1813 1813 1813 1813 1813 1813 1813 1823 1813 1813 1823 1823 1823 1823 1823 1823 1823 1823 1823 1823 1823 1823 1813 1813 1813 1813 1813 1813 1813 1813 1813 1804 1804 1813 1813 1813 1813 1813 1813 1813 1813 1813 1813 1813 1813 1813 1813 1813 1804 1804 1804 1804 1804 1804 1804 1804 1804 1813 1813 1813 1813 1813 1813 1813 1813 1813 1813 1823 1813 1813 1813 1813 1813 1813 1813 1813 1813 1813 1458 1458 1458 1458 1452 1452 1452 1452 1452 1452 1452 1458 1464 1464 1804 1804 1804 1804 1804 1804 1804 1804 1804 1804 1804 1813 1813 1813 1823 1813 1813 1804 1804 1804 1804 1804 1794 1794 1804 1804 1804 1813 1804 1804 1804 1804 1804 1813 1804 1804 1804 1813 1804 1804 1804 1804 1804 1804 1804 1804 1804 1804 1804 1804 1804 1804 1804 1804 1804 1804 1804 1804 1804 1804 1804 1804 1804 1804 1804 1804 1804 1804 1804 1804 1804 1804 1804 1794 1794 1550 1550 1550 1550 1550 1550 1550 1550 1550 1550 1550 1550 1550 1550 1550 1550 1543 1543 1550 1550 1550 1813 1804 1804 1804 1804 1813 1804 1804 1794 1794 1794 1794 1794 1794 1794 1794 1794 1794 1794 1794 1794 1785 1785 1785 1785 1785 1785 1785 1785 1785 1785 1794 1794 1794 1804 1804 1804 1804 1813 1813 1804 1804 1804 1794 1794 1794 1794 1794 1794 1794 1794 1794 1794 1794 1794 1794 1794 1794 1794 1794 1794 1794 1794 1794 1794 1794 1794 1785 1785 1785 1785 1785 1794 1794 1794 1794 1794 1804 1804 1794 1794 1794 1794 1794 1794 1794 1794 1794 1794 1794 1794 1785 1785 1785 1785 1785 1776 1776 1776 1776 1776 1776 1776 1776 1776 1776 1776 1776 1776 1776 1776 1776 1776 1776 1776 1776 1766 1766 1766 1766 1766 1766 1766 1766 1776 1776 1776 1776 1776 1776 1776 1776 1776 1776 1776 1776 1776 1776 0 0 0 0 0 0 0
0 0 0 0 0 0 0 0 0 0 0 0 0 0 0 0 0 0 0 0 0 0 0 0 0 0 0 0 0 0 0 0 0 0 0 1776 1776 1785 1785 1785 1785 1794 1794 1794 1794 1794 1794 1794 1794 1794 1794 1794 1794 1794 1794 1794 1804 1804 1804 1794 1794 1794 1794 1794 1794 1794 1794 1785 1785 1785 1776 1776 1776 1785 1785 1785 1785 1785 1785 1785 1785 1785 1785 1785 1785 1785 1785 1785 1785 1785 1785 1785 1785 1785 1785 1785 1785 1785 1785 1785 1785 1785 1785 1785 1785 1785 1785 1794 1794 1794 1794 1794 1794 1794 1794 1794 1794 1794 1785 1785 1785 1785 1785 1785 1785 1785 1785 1766 1766 1757 1757 1739 1739 1655 1655 1655 1655 1655 1647 1647 1647 1647 1655 1655 1655 1647 1601 1601 1785 1794 1794 1794 1794 1794 1785 1785 1785 1794 1794 1794 1785 1785 1785 1794 1794 1794 1794 1794 1804 1794 1794 1804 1804 1804 1804 1794 1794 1794 1804 1794 1794 1804 1804 1804 1804 1804 1804 1804 1804 1804 1804 1813 1813 1813 1813 1813 1813 1813 1813 1813 1813 1813 1813 1813 1813 1813 1813 1813 1813 1813 1813 1813 1813 1813 1813 1813 1813 1813 1813 1813 1813 1813 1813 1804 1804 1609 1609 1609 1609 1616 1616 1616 1616 1624 1632 1632 1639 1639 1639 1639 1813 1804 1804 1804 1804 1804 1804 1804 1804 1804 1804 1804 1813 1813 1813 1813 1813 1813 1813 1813 1813 1813 1813 1813 1813 1813 1813 1813 1813 1813 1813 1813 1813 1813 1813 1813 1823 1823 1823 1509 1509 1509 1509 1509 1509 1509 1509 1516 1516 1516 1523 1523 1523 1523 1813 1813 1813 1813 1813 1813 1813 1813 1813 1813 1813 1813 1813 1813 1813 1813 1813 1813 1813 1813 1823 1813 1813 1813 1823 1823 1813 1813 1813 1813 1813 1813 1813 1813 1813 1813 1813 1813 1813 1813 1804 1804 1804 1804 1804 1804 1804 1804 1804 1804 1804 1804 1804 1804 1804 1804 1804 1804 1804 1804 1804 1804 1804 1804 1804 1804 1804 1804 1804 1804 1804 1804 1804 1804 1804 1804 1804 1804 1804 1804 1813 1804 1804 1804 1804 1804 1804 1804 1804 1813 1813 1464 1458 1458 1458 1458 1452 1452 1452 1452 1452 1452 1458 1464 1804 1804 1804 1794 1794 1794 1804 1804 1804 1804 1804 1804 1804 1804 1804 1813 1804 1804 1794 1794 1794 1794 1794 1794 1794 1794 1794 1794 1794 1794 1794 1794 1794 1804 1804 1804 1794 1794 1804 1804 1794 1794 1804 1804 1804 1804 1804 1804 1804 1804 1794 1794 1804 1794 1794 1794 1794 1804 1804 1794 1794 1794 1794 1794 1794 1794 1794 1794 1794 1794 1794 1794 1794 1794 1794 1794 1794 1557 1557 1557 1557 1557 1557 1550 1550 1550 1550 1550 1550 1550 1550 1550 1550 1550 1550 1550 1804 1804 1804 1804 1804 1804 1804 1804 1794 1794 1785 1785 1785 1785 1785 1785 1785 1785 1785 1785 1785 1785 1785 1785 1785 1776 1776 1776 1776 1776 1785 1785 1785 1785 1794 1794 1794 1794 1804 1804 1794 1785 1785 1794 1785 1785 1785 1785 1785 1785 1785 1785 1785 1785 1785 1785 1785 1785 1785 1794 1794 1794 1794 1794 1794 1794 1794 1794 1785 1785 1785 1785 1785 1785 1785 1785 1785 1794 1794 1794 1794 1794 1794 1785 1785 1785 1785 1785 1785 1785 1785 1785 1785 1785 1785 1785 1785 1776 1776 1776 1776 1776 1776 1766 1766 1776 1776 1776 1776 1776 1776 1776 1776 1776 1776 1776 1776 1766 1766 1766 1766 1766 1766 1766 1766 1766 1776 1776 1776 1776 1776 1776 1776 1776 1776 1776 1776 1776 1776 0 0 0 0 0 0 0
0 0 0 0 0 0 0 0 0 0 0 0 0 0 0 0 0 0 0 0 0 0 0 0 0 0 0 0 0 0 0 0 0 0 0 1776 1776 1776 1776 1785 1785 1785 1785 1785 1785 1785 1785 1785 1785 1785 1785 1785 1785 1794 1794 1794 1794 1794 1794 1794 1794 1794 1794 1785 1785 1785 1776 1776 1766 1766 1766 1766 1776 1776 1785 1785 1785 1785 1785 1785 1785 1785 1785 1785 1785 1785 1785 1785 1785 1785 1785 1776 1776 1776 1776 1776 1776 1776 1785 1785 1785 1785 1785 1785 1785 1785 1785 1785 1785 1785 1794 1794 1794 1794 1794 1794 1785 1785 1785 1785 1785 1785 1785 1785 1785 1785 1785 1766 1766 1757 1757 1748 1748 1655 1655 1655 1655 1655 1647 1647 1647 1647 1655 1655 1663 1655 1655 1688 1776 1785 1785 1785 1794 1794 1785 1785 1785 1785 1785 1785 1785 1785 1785 1785 1785 1785 1785 1794 1794 1794 1794 1794 1794 1804 1794 1794 1794 1794 1794 1794 1794 1794 1794 1794 1794 1794 1794 1794 1794 1804 1804 1804 1804 1804 1804 1804 1804 1804 1804 1804 1813 1813 1813 1813 1813 1813 1813 1813 1813 1813 1813 1813 1813 1813 1813 1813 1813 1813 1813 1813 1813 1813 1813 1804 1804 1616 1609 1609 1609 1616 1616 1616 1616 1624 1632 1632 1639 1639 1639 1639 1804 1804 1794 1794 1794 1794 1794 1804 1804 1804 1804 1804 1804 1804 1804 1813 1813 1804 1804 1804 1804 1804 1804 1804 1804 1804 1804 1804 1804 1804 1804 1804 1804 1804 1804 1804 1813 1813 1813 1516 1509 1509 1516 1516 1516 1516 1516 1516 1516 1516 1523 1523 1523 1523 1813 1813 1813 1813 1813 1813 1813 1813 1813 1813 1813 1813 1813 1813 1813 1813 1813 1813 1813 1804 1804 1804 1813 1813 1813 1813 1813 1813 1813 1813 1813 1813 1813 1813 1813 1804 1804 1804 1804 1804 1804 1804 1804 1804 1804 1804 1804 1804 1804 1804 1804 1804 1804 1804 1804 1804 1804 1804 1804 1804 1804 1804 1804 1804 1794 1794 1794 1794 1804 1804 1804 1804 1804 1804 1804 1804 1804 1804 1804 1804 1804 1804 1804 1804 1804 1804 1804 1804 1804 1804 1804 1458 1458 1458 1458 1458 1452 1452 1452 1452 1458 1458 1464 1464 1804 1804 1804 1794 1794 1794 1794 1794 1794 1794 1794 1794 1804 1804 1804 1804 1804 1804 1794 1794 1794 1794 1794 1794 1794 1794 1794 1794 1794 1794 1794 1794 1794 1794 1794 1794 1794 1794 1794 1794 1794 1794 1794 1794 1794 1794 1794 1794 1794 1794 1794 1794 1794 1794 1794 1794 1794 1794 1794 1794 1794 1794 1794 1794 1794 1794 1794 1794 1794 1794 1794 1794 1794 1794 1794 1794 1794 1557 1557 1557 1557 1557 1557 1557 1557 1550 1550 1550 1550 1550 1550 1550 1550 1550 1550 1550 1804 1804 1794 1794 1794 1794 1794 1794 1794 1794 1785 1785 1785 1785 1785 1785 1785 1785 1785 1785 1785 1785 1785 1785 1785 1776 1776 1776 1776 1776 1776 1785 1785 1785 1785 1785 1785 1785 1785 1785 1785 1785 1785 1785 1776 1776 1776 1776 1785 1785 1785 1785 1785 1785 1785 1785 1785 1785 1785 1785 1785 1785 1785 1785 1785 1785 1785 1785 1785 1785 1785 1785 1785 1785 1785 1785 1785 1785 1785 1785 1785 1785 1785 1785 1785 1785 1785 1785 1785 1785 1785 1785 1776 1776 1776 1776 1776 1766 1766 1766 1766 1766 1766 1766 1766 1766 1766 1766 1776 1776 1776 1776 1776 1766 1766 1766 1766 1766 1766 1766 1766 1766 1766 1766 1766 1766 1766 1766 1766 1766 1766 1766 1766 1766 1766 1766 1766 1766 1766 0 0 0 0 0 0 0
0 0 0 0 0 0 0 0 0 0 0 0 0 0 0 0 0 0 0 0 0 0 0 0 0 0 0 0 0 0 0 0 0 0 1766 1766 1776 1776 1776 1785 1785 1785 1785 1785 1785 1785 1776 1776 1776 1776 1776 1776 1776 1785 1785 1785 1794 1794 1794 1794 1794 1785 1785 1776 1776 1776 1776 1766 1766 1757 1757 1766 1766 1766 1776 1776 1776 1785 1785 1785 1785 1785 1785 1785 1785 1776 1776 1776 1776 1776 1766 1766 1766 1776 1776 1776 1776 1776 1776 1776 1776 1776 1776 1776 1776 1785 1785 1785 1785 1785 1785 1785 1785 1794 1785 1785 1785 1785 1785 1785 1785 1785 1785 1776 1776 1776 1776 1766 1766 1766 1766 1748 1748 1663 1655 1655 1655 1655 1655 1655 1655 1655 1655 1655 1663 1671 1680 1688 1776 1776 1776 1785 1785 1785 1776 1776 1785 1785 1785 1785 1785 1785 1785 1785 1785 1785 1785 1785 1785 1794 1794 1794 1794 1794 1794 1794 1794 1794 1794 1794 1794 1794 1794 1785 1785 1785 1785 1785 1785 1794 1794 1794 1804 1804 1804 1804 1794 1794 1794 1804 1804 1804 1804 1804 1804 1804 1804 1804 1804 1804 1804 1804 1813 1813 1813 1813 1813 1813 1813 1813 1813 1813 1813 1804 1804 1616 1616 1616 1616 1616 1616 1616 1616 1624 1632 1639 1639 1639 1639 1647 1804 1804 1794 1794 1794 1794 1794 1794 1794 1804 1804 1804 1804 1804 1804 1804 1804 1804 1804 1804 1804 1804 1794 1794 1794 1794 1794 1794 1794 1794 1794 1804 1804 1804 1804 1804 1813 1813 1813 1516 1516 1516 1516 1516 1516 1516 1516 1516 1516 1516 1523 1523 1523 1529 1804 1804 1804 1804 1804 1804 1804 1804 1804 1804 1804 1804 1804 1804 1804 1804 1813 1804 1804 1804 1804 1804 1804 1804 1804 1804 1804 1804 1804 1804 1804 1804 1804 1804 1804 1804 1804 1794 1794 1804 1804 1804 1804 1804 1804 1804 1804 1804 1804 1804 1804 1804 1804 1804 1804 1804 1804 1804 1804 1794 1794 1794 1794 1794 1794 1794 1794 1794 1804 1804 1804 1804 1804 1804 1794 1794 1804 1794 1794 1794 1794 1804 1804 1804 1804 1804 1804 1804 1804 1804 1464 1458 1458 1458 1458 1458 1452 1452 1452 1452 1458 1458 1458 1458 1804 1794 1794 1794 1794 1794 1794 1794 1794 1794 1794 1794 1794 1794 1794 1804 1804 1804 1794 1794 1794 1794 1794 1794 1794 1794 1794 1794 1794 1794 1794 1794 1794 1794 1794 1794 1785 1785 1794 1794 1794 1794 1794 1794 1794 1794 1794 1794 1794 1794 1794 1794 1794 1794 1794 1794 1794 1794 1794 1794 1794 1794 1794 1794 1794 1794 1794 1794 1794 1794 1794 1794 1794 1794 1794 1794 1794 1557 1557 1557 1557 1557 1557 1557 1557 1550 1550 1550 1550 1550 1550 1550 1550 1550 1550 1785 1794 1794 1794 1785 1785 1794 1794 1794 1785 1785 1776 1776 1785 1776 1776 1776 1785 1785 1785 1785 1785 1785 1785 1776 1776 1776 1776 1776 1776 1776 1776 1776 1776 1785 1785 1785 1776 1776 1776 1776 1776 1776 1776 1776 1776 1776 1776 1776 1776 1776 1776 1776 1776 1776 1785 1785 1785 1785 1785 1785 1785 1785 1785 1785 1785 1785 1785 1785 1776 1776 1776 1776 1776 1776 1776 1776 1776 1776 1776 1785 1785 1785 1785 1785 1785 1785 1785 1785 1776 1776 1776 1776 1776 1776 1776 1776 1776 1766 1766 1766 1766 1766 1766 1757 1757 1766 1766 1766 1766 1766 1766 1766 1766 1766 1766 1766 1766 1766 1766 1766 1766 1766 1766 1766 1757 1757 1766 1766 1766 1766 1766 1766 1766 1766 1766 1766 1766 1766 1766 0 0 0 0 0 0 0
0 0 0 0 0 0 0 0 0 0 0 0 0 0 0 0 0 0 0 0 0 0 0 0 0 0 0 0 0 0 0 0 0 0 1766 1766 1766 1766 1776 1776 1776 1776 1776 1776 1776 1776 1776 1776 1776 1776 1776 1776 1776 1776 1776 1785 1794 1794 1785 1785 1785 1776 1776 1776 1776 1776 1776 1766 1766 1757 1757 1757 1766 1766 1766 1766 1776 1776 1776 1776 1776 1776 1776 1776 1776 1776 1776 1776 1776 1766 1766 1766 1766 1766 1766 1776 1776 1776 1776 1766 1766 1766 1766 1776 1776 1776 1776 1776 1776 1776 1785 1785 1785 1785 1785 1785 1785 1785 1776 1776 1776 1776 1776 1776 1776 1776 1776 1766 1766 1766 1766 1757 1757 1663 1655 1655 1647 1647 1655 1655 1655 1655 1655 1663 1663 1671 1680 1688 1748 1766 1776 1776 1776 1776 1776 1776 1776 1776 1776 1776 1776 1776 1776 1776 1776 1785 1785 1785 1785 1785 1785 1785 1785 1785 1785 1785 1785 1794 1785 1785 1785 1785 1785 1785 1785 1785 1785 1785 1785 1785 1785 1794 1794 1794 1794 1794 1794 1794 1794 1794 1794 1794 1804 1804 1804 1804 1804 1804 1804 1804 1804 1804 1804 1804 1804 1804 1813 1813 1813 1804 1804 1804 1804 1794 1794 1616 1616 1616 1616 1616 1616 1616 1616 1624 1632 1632 1639 1639 1639 1647 1794 1794 1785 1785 1785 1785 1794 1794 1794 1794 1794 1794 1794 1794 1794 1804 1804 1794 1794 1794 1794 1794 1785 1785 1785 1785 1785 1794 1794 1794 1794 1794 1804 1804 1804 1804 1804 1804 1804 1516 1516 1516 1516 1516 1516 1516 1516 1516 1516 1516 1523 1523 1523 1496 1496 1785 1794 1794 1794 1804 1804 1804 1804 1804 1804 1804 1804 1804 1804 1804 1804 1804 1804 1804 1804 1804 1804 1804 1804 1804 1804 1804 1804 1804 1804 1804 1804 1804 1804 1794 1794 1794 1794 1794 1794 1794 1794 1794 1794 1794 1794 1794 1794 1794 1794 1794 1794 1794 1794 1794 1794 1794 1794 1794 1794 1794 1794 1794 1794 1794 1794 1794 1794 1794 1794 1794 1794 1804 1794 1794 1794 1794 1794 1794 1794 1794 1794 1794 1794 1794 1794 1794 1794 1794 1464 1458 1458 1458 1458 1458 1458 1458 1458 1458 1458 1458 1458 1794 1794 1794 1794 1794 1794 1794 1794 1794 1794 1794 1794 1794 1794 1794 1794 1794 1794 1794 1785 1785 1785 1785 1785 1785 1785 1785 1785 1785 1785 1785 1785 1785 1785 1785 1785 1785 1785 1785 1785 1785 1785 1785 1785 1794 1794 1785 1785 1794 1794 1785 1785 1785 1785 1785 1785 1785 1785 1785 1785 1785 1785 1785 1785 1785 1785 1785 1785 1785 1785 1785 1785 1785 1785 1785 1794 1794 1794 1557 1557 1557 1557 1557 1557 1557 1557 1557 1557 1557 1557 1550 1550 1557 1550 1550 1550 1557 1785 1785 1785 1785 1785 1785 1785 1785 1785 1785 1776 1776 1776 1776 1776 1776 1776 1776 1776 1776 1776 1776 1776 1776 1776 1776 1776 1776 1776 1776 1776 1776 1776 1776 1776 1776 1766 1766 1776 1766 1766 1776 1776 1776 1776 1776 1776 1776 1776 1776 1776 1776 1776 1776 1776 1776 1776 1776 1776 1785 1785 1785 1785 1785 1785 1776 1776 1776 1776 1776 1776 1776 1776 1776 1776 1776 1776 1776 1776 1776 1776 1776 1776 1776 1776 1776 1776 1776 1776 1776 1776 1766 1766 1766 1776 1776 1776 1766 1766 1766 1766 1766 1766 1757 1757 1757 1757 1757 1757 1757 1757 1757 1757 1757 1757 1757 1766 1766 1766 1757 1757 1766 1766 1757 1757 1757 1757 1757 1757 1757 1766 1757 1757 1757 1766 1766 1757 1757 1757 0 0 0 0 0 0 0
0 0 0 0 0 0 0 0 0 0 0 0 0 0 0 0 0 0 0 0 0 0 0 0 0 0 0 0 0 0 0 0 0 0 1766 1766 1766 1766 1766 1766 1776 1776 1776 1776 1776 1776 1776 1766 1766 1766 1766 1776 1776 1776 1776 1785 1785 1785 1785 1776 1776 1776 1766 1766 1766 1776 1776 1766 1766 1757 1757 1757 1766 1766 1766 1766 1766 1776 1776 1776 1776 1776 1776 1776 1776 1776 1776 1776 1766 1766 1766 1766 1766 1766 1766 1766 1766 1766 1766 1757 1757 1757 1766 1766 1766 1776 1776 1776 1776 1776 1785 1785 1785 1785 1785 1785 1776 1776 1776 1776 1776 1766 1766 1766 1766 1766 1766 1766 1766 1766 1757 1757 1766 1663 1655 1655 1647 1647 1655 1655 1655 1655 1655 1655 1663 1671 1680 1696 1748 1757 1766 1776 1776 1776 1776 1766 1766 1776 1776 1776 1776 1776 1776 1776 1776 1776 1776 1776 1776 1776 1776 1785 1785 1785 1776 1776 1776 1776 1785 1785 1785 1785 1785 1785 1785 1785 1785 1785 1785 1785 1785 1785 1785 1785 1785 1794 1785 1785 1785 1785 1785 1794 1794 1794 1794 1794 1794 1794 1794 1785 1785 1785 1794 1794 1794 1794 1804 1804 1804 1804 1794 1794 1804 1785 1785 1616 1616 1616 1616 1616 1616 1616 1624 1624 1624 1632 1632 1632 1639 1794 1794 1794 1785 1785 1785 1785 1785 1794 1794 1794 1794 1794 1794 1794 1794 1804 1804 1794 1794 1794 1794 1794 1785 1785 1785 1785 1785 1785 1785 1785 1785 1794 1794 1794 1794 1794 1794 1794 1776 1516 1516 1516 1516 1516 1516 1516 1516 1516 1516 1516 1523 1523 1523 1496 1496 1543 1794 1794 1794 1794 1794 1794 1804 1804 1804 1804 1804 1804 1794 1794 1794 1794 1804 1804 1804 1804 1804 1804 1794 1794 1794 1794 1794 1794 1794 1794 1794 1794 1794 1785 1785 1785 1785 1785 1785 1785 1794 1785 1785 1794 1785 1785 1785 1794 1794 1785 1785 1794 1794 1794 1794 1794 1794 1794 1794 1785 1785 1785 1785 1785 1794 1794 1794 1794 1794 1794 1794 1794 1794 1794 1794 1794 1794 1794 1794 1794 1794 1794 1794 1794 1794 1794 1794 1794 1458 1458 1458 1458 1458 1458 1458 1458 1458 1458 1458 1458 1464 1794 1794 1794 1794 1794 1794 1794 1794 1794 1794 1794 1785 1785 1794 1794 1794 1794 1794 1794 1785 1785 1785 1785 1785 1785 1785 1785 1785 1785 1785 1785 1785 1785 1785 1785 1785 1785 1785 1785 1785 1785 1785 1785 1785 1785 1785 1785 1785 1785 1785 1785 1785 1785 1785 1785 1785 1785 1785 1785 1785 1785 1785 1785 1785 1785 1785 1785 1785 1785 1785 1785 1785 1785 1785 1785 1785 1785 1564 1557 1557 1557 1557 1557 1557 1557 1557 1557 1557 1557 1557 1557 1557 1557 1557 1550 1550 1557 1785 1785 1785 1776 1776 1776 1785 1776 1776 1776 1766 1766 1776 1776 1776 1776 1776 1776 1776 1776 1776 1776 1776 1776 1776 1776 1776 1776 1776 1776 1776 1776 1776 1776 1776 1766 1766 1766 1776 1766 1766 1776 1776 1776 1776 1776 1766 1766 1776 1776 1776 1776 1776 1776 1776 1776 1776 1776 1776 1776 1776 1776 1776 1776 1776 1776 1776 1776 1776 1776 1766 1766 1776 1776 1776 1766 1766 1766 1766 1776 1766 1766 1776 1776 1776 1776 1766 1766 1766 1766 1757 1757 1757 1757 1757 1757 1757 1757 1757 1757 1757 1757 1757 1748 1748 1748 1748 1748 1748 1757 1757 1757 1757 1757 1757 1757 1757 1757 1757 1757 1757 1757 1748 1748 1748 1748 1748 1748 1748 1757 1757 1748 1748 1757 1757 1757 1757 1748 1748 0 0 0 0 0 0 0
0 0 0 0 0 0 0 0 0 0 0 0 0 0 0 0 0 0 0 0 0 0 0 0 0 0 0 0 0 0 0 0 0 0 1757 1757 1766 1766 1766 1766 1766 1766 1766 1766 1766 1776 1776 1766 1766 1766 1766 1766 1766 1766 1766 1776 1776 1776 1776 1766 1766 1766 1766 1766 1766 1766 1766 1757 1757 1757 1757 1757 1757 1757 1757 1757 1766 1766 1776 1776 1776 1776 1776 1776 1776 1776 1766 1766 1766 1757 1757 1757 1757 1757 1757 1757 1757 1757 1757 1757 1757 1757 1757 1757 1766 1766 1766 1776 1776 1776 1776 1776 1776 1776 1776 1776 1766 1766 1766 1766 1766 1766 1766 1766 1766 1766 1766 1766 1766 1766 1757 1757 1757 1663 1655 1655 1655 1655 1655 1655 1655 1655 1655 1655 1663 1671 1680 1696 1739 1748 1757 1785 1794 1785 1776 1766 1766 1766 1766 1776 1776 1776 1776 1766 1766 1766 1766 1766 1766 1776 1776 1776 1776 1776 1776 1776 1776 1776 1776 1785 1776 1776 1776 1776 1776 1776 1776 1776 1776 1776 1776 1785 1785 1785 1785 1776 1776 1776 1776 1776 1776 1785 1785 1785 1785 1785 1785 1785 1785 1785 1785 1785 1785 1785 1785 1785 1794 1804 1794 1794 1785 1785 1785 1785 1785 1616 1616 1616 1616 1616 1616 1616 1624 1624 1624 1632 1632 1632 1639 1785 1785 1785 1785 1785 1785 1785 1785 1785 1785 1785 1785 1785 1794 1794 1794 1794 1785 1785 1785 1785 1785 1776 1776 1776 1776 1776 1776 1776 1776 1776 1785 1785 1794 1794 1785 1785 1785 1785 1776 1776 1516 1516 1516 1516 1516 1516 1516 1516 1516 1516 1523 1523 1523 1529 1536 1543 1794 1785 1785 1785 1785 1794 1794 1794 1794 1794 1794 1794 1794 1794 1794 1785 1785 1794 1794 1794 1794 1794 1794 1794 1794 1794 1785 1785 1794 1794 1785 1785 1785 1776 1776 1785 1785 1785 1785 1785 1785 1785 1785 1785 1785 1785 1785 1785 1785 1785 1785 1776 1776 1785 1785 1785 1785 1785 1785 1776 1776 1785 1785 1785 1785 1785 1785 1785 1794 1794 1794 1785 1785 1785 1785 1785 1785 1794 1794 1794 1794 1794 1794 1794 1785 1785 1785 1785 1458 1458 1458 1458 1458 1458 1458 1458 1458 1458 1458 1458 1464 1794 1794 1794 1794 1785 1785 1785 1794 1794 1785 1785 1785 1785 1785 1794 1794 1794 1794 1794 1785 1785 1785 1785 1785 1785 1776 1776 1776 1776 1776 1776 1776 1776 1776 1776 1776 1776 1776 1776 1776 1776 1776 1776 1776 1785 1785 1776 1776 1785 1785 1785 1785 1785 1785 1785 1785 1785 1785 1785 1776 1776 1776 1776 1776 1776 1776 1776 1776 1776 1776 1776 1776 1776 1776 1785 1785 1785 1564 1557 1557 1557 1557 1557 1557 1557 1557 1557 1557 1557 1557 1557 1557 1557 1557 1557 1557 1776 1776 1776 1776 1766 1766 1766 1776 1776 1776 1776 1766 1766 1766 1766 1766 1766 1776 1766 1766 1766 1766 1766 1766 1766 1766 1776 1766 1766 1776 1776 1776 1766 1766 1766 1766 1766 1766 1766 1766 1766 1766 1766 1776 1766 1766 1766 1766 1766 1766 1766 1766 1766 1766 1766 1766 1766 1776 1776 1776 1776 1776 1776 1776 1776 1776 1776 1776 1766 1766 1766 1766 1766 1766 1766 1766 1757 1757 1757 1766 1766 1766 1766 1776 1766 1766 1766 1757 1757 1757 1757 1757 1757 1748 1748 1757 1757 1757 1748 1748 1748 1739 1739 1739 1739 1739 1739 1739 1739 1739 1748 1748 1757 1757 1757 1757 1757 1757 1757 1757 1757 1748 1748 1748 1739 1739 1739 1739 1739 1739 1739 1748 1739 1739 1748 1748 1748 1748 1748 1748 0 0 0 0 0 0 0
0 0 0 0 0 0 0 0 0 0 0 0 0 0 0 0 0 0 0 0 0 0 0 0 0 0 0 0 0 0 0 0 0 0 1757 1757 1766 1766 1766 1766 1766 1766 1766 1766 1766 1766 1766 1766 1766 1766 1766 1766 1766 1766 1766 1766 1766 1766 1766 1766 1766 1766 1766 1766 1766 1766 1766 1757 1757 1757 1757 1757 1757 1757 1757 1757 1766 1766 1766 1757 1757 1757 1776 1776 1766 1766 1766 1766 1766 1757 1757 1757 1757 1757 1757 1757 1757 1757 1748 1748 1757 1757 1757 1757 1757 1757 1757 1766 1766 1776 1766 1766 1766 1776 1766 1766 1766 1766 1766 1766 1757 1757 1757 1757 1757 1757 1757 1766 1766 1757 1757 1757 1722 1663 1655 1655 1655 1655 1655 1655 1655 1655 1655 1655 1663 1671 1680 1696 1696 1739 1757 1766 1766 1766 1766 1776 1766 1766 1766 1766 1766 1776 1766 1766 1766 1757 1757 1766 1766 1766 1766 1766 1766 1766 1776 1776 1776 1776 1776 1776 1776 1776 1776 1776 1776 1776 1776 1776 1776 1776 1776 1776 1776 1776 1776 1776 1776 1776 1776 1776 1776 1776 1776 1776 1776 1776 1785 1785 1785 1776 1776 1776 1785 1785 1785 1785 1794 1794 1794 1785 1785 1785 1785 1785 1785 1616 1616 1616 1616 1616 1616 1616 1624 1624 1624 1632 1632 1632 1639 1785 1785 1785 1776 1776 1785 1776 1776 1776 1776 1776 1776 1785 1785 1785 1785 1785 1785 1785 1776 1776 1776 1776 1776 1776 1776 1776 1776 1776 1776 1776 1776 1785 1785 1785 1785 1776 1776 1776 1776 1776 1516 1516 1516 1516 1523 1523 1516 1516 1516 1523 1523 1523 1523 1529 1536 1543 1785 1776 1776 1776 1776 1785 1785 1785 1785 1794 1794 1794 1794 1785 1785 1785 1785 1785 1785 1785 1785 1785 1785 1785 1785 1785 1785 1785 1785 1785 1785 1776 1776 1776 1776 1776 1776 1776 1776 1776 1776 1776 1776 1776 1776 1776 1776 1776 1776 1776 1776 1776 1776 1776 1776 1776 1776 1776 1776 1776 1766 1766 1766 1766 1776 1776 1785 1785 1785 1785 1785 1785 1785 1776 1776 1776 1776 1776 1776 1776 1776 1776 1776 1776 1766 1766 1766 1766 1458 1458 1458 1464 1464 1458 1458 1458 1458 1464 1458 1458 1464 1785 1785 1794 1785 1785 1785 1785 1785 1785 1785 1785 1785 1785 1785 1785 1785 1785 1794 1794 1785 1785 1785 1785 1785 1785 1766 1766 1776 1776 1776 1776 1776 1776 1776 1776 1776 1776 1776 1776 1776 1776 1776 1776 1776 1776 1776 1776 1776 1776 1776 1776 1776 1776 1785 1776 1776 1776 1776 1785 1776 1776 1776 1766 1766 1766 1766 1766 1766 1776 1776 1776 1776 1776 1776 1785 1785 1564 1564 1564 1557 1557 1557 1557 1557 1557 1557 1557 1557 1557 1557 1557 1557 1557 1557 1550 1550 1550 1766 1766 1766 1766 1766 1766 1766 1766 1766 1766 1757 1757 1766 1766 1766 1766 1766 1766 1766 1757 1757 1766 1766 1766 1766 1766 1766 1766 1766 1766 1766 1757 1757 1757 1757 1757 1757 1757 1757 1757 1757 1766 1766 1766 1766 1766 1766 1766 1757 1757 1757 1757 1766 1766 1766 1766 1766 1766 1766 1766 1766 1766 1766 1766 1766 1766 1766 1766 1766 1757 1757 1757 1757 1757 1757 1757 1757 1757 1757 1766 1766 1766 1766 1766 1766 1757 1748 1748 1748 1748 1748 1748 1748 1748 1748 1748 1748 1739 1739 1739 1739 1739 1739 1739 1739 1739 1739 1739 1739 1739 1739 1739 1748 1748 1739 1739 1739 1739 1739 1739 1739 1739 1739 1739 1739 1739 1739 1739 1739 1739 1739 1739 1739 1739 1739 1748 1748 1739 1739 0 0 0 0 0 0 0
0 0 0 0 0 0 0 0 0 0 0 0 0 0 0 0 0 0 0 0 0 0 0 0 0 0 0 0 0 0 0 0 0 0 1757 1757 1757 1757 1757 1766 1766 1766 1766 1766 1766 1766 1766 1766 1757 1757 1757 1757 1766 1766 1766 1766 1766 1766 1766 1757 1757 1757 1757 1757 1757 1766 1766 1757 1757 1757 1757 1757 1757 1757 1757 1757 1757 1757 1757 1757 1757 1757 1766 1766 1766 1766 1766 1766 1757 1757 1748 1748 1748 1748 1748 1748 1748 1757 1748 1748 1757 1757 1757 1757 1757 1757 1757 1766 1766 1766 1766 1757 1757 1766 1766 1766 1757 1757 1757 1757 1757 1757 1757 1757 1757 1757 1757 1757 1757 1757 1757 1757 1722 1722 1663 1655 1655 1655 1655 1655 1655 1655 1655 1663 1663 1671 1680 1696 1696 1739 1757 1766 1766 1766 1766 1757 1757 1757 1766 1766 1766 1766 1766 1757 1757 1757 1757 1757 1757 1757 1757 1757 1757 1757 1766 1766 1766 1766 1766 1766 1766 1766 1776 1776 1766 1766 1766 1776 1776 1776 1776 1776 1776 1776 1776 1776 1776 1776 1776 1776 1776 1776 1776 1776 1776 1776 1776 1776 1776 1776 1776 1776 1776 1785 1785 1785 1785 1785 1785 1785 1785 1785 1776 1776 1785 1624 1616 1616 1616 1616 1616 1624 1624 1624 1632 1632 1632 1632 1639 1785 1785 1785 1776 1776 1776 1776 1776 1776 1776 1776 1776 1776 1776 1776 1776 1776 1776 1776 1776 1776 1776 1776 1776 1776 1776 1776 1776 1776 1776 1776 1776 1785 1785 1785 1785 1776 1776 1776 1776 1776 1776 1523 1523 1523 1523 1523 1523 1516 1516 1523 1523 1523 1523 1529 1543 1785 1776 1776 1776 1776 1776 1776 1785 1776 1776 1776 1776 1776 1776 1785 1776 1776 1785 1785 1785 1785 1785 1785 1785 1785 1785 1776 1776 1776 1776 1776 1776 1776 1776 1776 1776 1776 1776 1776 1776 1766 1766 1766 1766 1766 1766 1776 1776 1766 1766 1776 1776 1766 1766 1776 1766 1766 1766 1766 1766 1766 1766 1766 1766 1766 1766 1776 1776 1776 1776 1776 1776 1776 1776 1776 1776 1776 1776 1776 1776 1776 1766 1766 1766 1766 1766 1757 1757 1757 1452 1452 1458 1464 1464 1464 1458 1458 1464 1464 1464 1464 1464 1464 1766 1776 1776 1776 1776 1776 1776 1776 1776 1785 1785 1776 1776 1776 1776 1776 1776 1776 1766 1766 1776 1776 1776 1776 1766 1766 1766 1766 1766 1766 1766 1766 1766 1766 1766 1766 1766 1766 1766 1766 1766 1766 1766 1776 1766 1766 1766 1766 1766 1766 1766 1776 1776 1776 1776 1776 1776 1776 1776 1766 1766 1766 1766 1766 1766 1766 1766 1766 1766 1766 1766 1766 1766 1776 1785 1564 1564 1564 1557 1557 1557 1557 1557 1557 1557 1557 1557 1557 1557 1557 1557 1557 1557 1550 1550 1550 1757 1757 1766 1757 1757 1757 1757 1757 1757 1766 1757 1757 1757 1757 1757 1766 1766 1757 1757 1757 1757 1757 1757 1757 1757 1757 1757 1757 1757 1757 1757 1757 1757 1757 1748 1748 1748 1748 1748 1757 1757 1757 1757 1757 1757 1757 1757 1757 1757 1757 1757 1757 1757 1766 1757 1757 1766 1757 1757 1766 1757 1757 1757 1757 1757 1757 1757 1757 1757 1748 1748 1748 1748 1748 1748 1757 1757 1757 1757 1757 1757 1757 1766 1757 1757 1757 1748 1748 1748 1748 1748 1748 1748 1748 1748 1748 1748 1739 1739 1739 1739 1739 1739 1731 1731 1731 1731 1731 1739 1739 1739 1739 1739 1739 1739 1739 1739 1739 1731 1731 1731 1731 1731 1731 1731 1739 1739 1739 1739 1739 1739 1739 1739 1739 1739 1739 1739 1739 1739 0 0 0 0 0 0 0
0 0 0 0 0 0 0 0 0 0 0 0 0 0 0 0 0 0 0 0 0 0 0 0 0 0 0 0 0 0 0 0 0 0 1757 1757 1757 1757 1757 1757 1757 1757 1757 1757 1757 1757 1757 1757 1757 1757 1757 1757 1757 1757 1757 1766 1766 1757 1757 1748 1748 1748 1757 1757 1757 1757 1766 1757 1757 1757 1757 1757 1748 1748 1748 1748 1748 1748 1757 1757 1757 1757 1757 1757 1757 1757 1757 1757 1757 1757 1748 1748 1748 1748 1748 1748 1748 1748 1748 1748 1748 1748 1748 1748 1748 1748 1748 1757 1757 1757 1757 1757 1757 1757 1757 1757 1757 1757 1757 1757 1757 1757 1757 1757 1757 1757 1757 1757 1757 1757 1757 1757 1748 1748 1663 1655 1655 1655 1655 1655 1655 1655 1655 1655 1655 1663 1671 1696 1731 1748 1766 1766 1766 1766 1757 1748 1748 1757 1757 1757 1757 1757 1757 1757 1757 1757 1748 1748 1748 1748 1748 1757 1748 1748 1757 1757 1757 1757 1766 1766 1766 1757 1757 1766 1766 1766 1766 1766 1766 1766 1766 1766 1766 1766 1776 1766 1766 1766 1776 1776 1776 1766 1766 1776 1776 1776 1776 1776 1776 1776 1776 1776 1776 1776 1776 1785 1776 1776 1776 1776 1776 1776 1776 1776 1785 1624 1624 1616 1616 1624 1624 1624 1624 1632 1632 1639 1639 1639 1639 1748 1776 1776 1776 1776 1776 1776 1776 1776 1776 1776 1776 1776 1776 1776 1776 1776 1776 1776 1776 1776 1776 1766 1766 1776 1766 1766 1776 1776 1776 1776 1776 1776 1776 1776 1776 1776 1776 1776 1766 1766 1766 1523 1523 1523 1523 1523 1523 1523 1523 1523 1523 1523 1523 1523 1776 1776 1776 1776 1776 1776 1776 1776 1776 1776 1776 1776 1776 1776 1776 1776 1776 1776 1785 1785 1785 1785 1776 1776 1776 1776 1776 1776 1776 1776 1776 1776 1776 1776 1776 1766 1766 1766 1766 1766 1766 1766 1766 1766 1766 1766 1766 1766 1766 1766 1766 1766 1766 1766 1766 1766 1766 1766 1766 1766 1766 1766 1766 1766 1766 1766 1766 1776 1766 1766 1766 1766 1766 1766 1766 1766 1766 1766 1766 1766 1766 1766 1766 1766 1766 1757 1757 1757 1757 1757 1452 1452 1464 1464 1464 1464 1464 1464 1464 1464 1464 1464 1464 1464 1757 1766 1766 1766 1766 1766 1766 1776 1776 1776 1776 1766 1766 1766 1766 1766 1766 1766 1757 1757 1757 1757 1757 1757 1757 1757 1757 1757 1757 1757 1757 1757 1757 1757 1757 1757 1757 1757 1757 1757 1757 1766 1757 1757 1757 1757 1766 1766 1766 1766 1766 1766 1766 1766 1766 1766 1766 1766 1766 1766 1757 1757 1757 1757 1757 1757 1757 1757 1766 1766 1766 1766 1766 1776 1776 1564 1564 1564 1557 1557 1557 1557 1557 1557 1557 1557 1557 1557 1557 1557 1564 1557 1557 1550 1550 1550 1757 1757 1757 1757 1757 1757 1757 1757 1757 1757 1748 1748 1757 1757 1757 1757 1757 1757 1748 1748 1748 1748 1748 1748 1748 1748 1757 1757 1748 1748 1748 1748 1748 1748 1748 1748 1748 1748 1748 1748 1748 1757 1757 1757 1757 1757 1757 1748 1748 1748 1748 1757 1748 1748 1757 1748 1748 1757 1757 1757 1757 1757 1757 1757 1757 1757 1757 1748 1748 1748 1748 1748 1748 1748 1748 1748 1748 1748 1748 1748 1748 1748 1748 1748 1748 1748 1748 1748 1748 1748 1748 1748 1748 1748 1748 1748 1748 1739 1739 1739 1739 1739 1731 1731 1731 1731 1731 1731 1731 1731 1731 1731 1739 1739 1739 1739 1731 1731 1731 1731 1731 1731 1731 1731 1731 1731 1731 1731 1731 1731 1731 1731 1731 1731 1731 1731 1739 1739 1739 0 0 0 0 0 0 0
0 0 0 0 0 0 0 0 0 0 0 0 0 0 0 0 0 0 0 0 0 0 0 0 0 0 0 0 0 0 0 0 0 0 1757 1748 1748 1757 1757 1748 1748 1748 1748 1748 1748 1748 1757 1757 1757 1757 1757 1757 1757 1757 1757 1757 1757 1757 1748 1748 1748 1748 1748 1757 1757 1757 1757 1748 1748 1748 1748 1748 1748 1748 1748 1748 1748 1748 1748 1748 1748 1748 1757 1757 1757 1757 1757 1757 1757 1757 1748 1748 1748 1748 1748 1748 1748 1748 1748 1748 1748 1748 1748 1748 1748 1748 1748 1757 1757 1757 1757 1757 1757 1757 1748 1748 1748 1748 1748 1748 1748 1748 1748 1748 1748 1748 1748 1748 1748 1757 1748 1748 1739 1713 1680 1655 1655 1655 1655 1655 1655 1655 1655 1655 1655 1663 1671 1688 1722 1739 1757 1757 1757 1757 1748 1748 1748 1748 1748 1748 1748 1748 1757 1748 1748 1748 1748 1748 1748 1748 1748 1748 1748 1748 1748 1748 1748 1757 1757 1757 1757 1757 1757 1757 1748 1748 1748 1757 1766 1766 1766 1757 1757 1766 1766 1766 1766 1766 1766 1766 1766 1766 1766 1766 1766 1766 1766 1766 1766 1766 1766 1766 1776 1776 1776 1776 1766 1766 1776 1776 1776 1776 1776 1776 1776 1624 1624 1624 1624 1624 1624 1624 1632 1632 1632 1639 1639 1639 1748 1748 1776 1776 1776 1776 1776 1766 1766 1766 1766 1766 1776 1776 1766 1766 1776 1776 1766 1766 1766 1766 1766 1766 1766 1766 1766 1766 1766 1766 1766 1766 1766 1766 1766 1776 1776 1766 1766 1776 1766 1766 1766 1523 1523 1523 1523 1523 1523 1523 1523 1523 1529 1529 1529 1529 1776 1766 1766 1766 1766 1766 1766 1766 1766 1766 1766 1766 1766 1766 1766 1766 1776 1776 1776 1776 1776 1776 1776 1776 1766 1766 1766 1766 1766 1766 1766 1766 1766 1766 1766 1766 1766 1766 1766 1766 1766 1757 1757 1757 1757 1757 1757 1766 1766 1766 1766 1766 1757 1757 1757 1766 1757 1757 1766 1766 1766 1766 1766 1766 1766 1766 1766 1766 1766 1766 1766 1766 1766 1766 1766 1766 1766 1766 1766 1766 1766 1757 1757 1757 1757 1757 1757 1757 1757 1757 1458 1458 1464 1464 1464 1464 1464 1464 1464 1464 1464 1464 1464 1464 1757 1757 1757 1757 1757 1766 1766 1766 1766 1766 1766 1766 1766 1766 1766 1766 1766 1766 1757 1757 1757 1757 1757 1757 1757 1757 1757 1757 1757 1757 1757 1757 1748 1748 1748 1757 1757 1757 1757 1757 1757 1757 1757 1757 1757 1757 1757 1757 1757 1757 1757 1757 1757 1757 1757 1766 1766 1766 1766 1757 1757 1757 1757 1757 1757 1757 1757 1757 1757 1757 1757 1757 1766 1766 1766 1564 1564 1564 1557 1557 1557 1557 1557 1557 1557 1557 1557 1557 1557 1557 1564 1557 1557 1550 1550 1550 1748 1748 1748 1748 1748 1757 1757 1757 1757 1757 1748 1748 1748 1757 1757 1757 1757 1748 1748 1748 1748 1748 1748 1748 1748 1748 1748 1748 1748 1748 1748 1748 1748 1748 1748 1748 1748 1748 1748 1748 1748 1748 1748 1757 1757 1757 1748 1748 1748 1748 1748 1748 1748 1748 1748 1748 1748 1748 1748 1748 1748 1748 1748 1748 1748 1748 1748 1748 1748 1739 1739 1739 1748 1739 1739 1748 1748 1739 1739 1739 1739 1739 1739 1739 1739 1739 1739 1739 1739 1739 1748 1748 1748 1739 1739 1739 1748 1731 1731 1731 1731 1731 1731 1731 1731 1731 1731 1731 1731 1731 1731 1731 1731 1731 1731 1731 1731 1731 1731 1731 1731 1731 1731 1731 1731 1731 1731 1731 1731 1731 1722 1722 1722 1731 1731 1731 1731 1731 1731 0 0 0 0 0 0 0
0 0 0 0 0 0 0 0 0 0 0 0 0 0 0 0 0 0 0 0 0 0 0 0 0 0 0 0 0 0 0 0 0 0 0 1748 1748 1748 1748 1748 1748 1748 1748 1748 1748 1748 1757 1757 1748 1748 1757 1757 1757 1757 1757 1757 1757 1757 1748 1748 1748 1748 1748 1757 1757 1757 1757 1748 1748 1748 1748 1748 1748 1748 1748 1748 1748 1739 1739 1748 1748 1748 1748 1748 1748 1748 1757 1757 1748 1748 1748 1748 1748 1739 1739 1739 1739 1748 1748 1748 1748 1748 1748 1748 1748 1748 1748 1757 1757 1757 1748 1748 1748 1748 1748 1748 1748 1748 1748 1748 1748 1748 1748 1748 1748 1748 1748 1748 1748 1748 1748 1748 1731 1705 1705 1663 1655 1655 1655 1655 1655 1655 1655 1655 1655 1663 1671 1688 1696 1713 1748 1757 1757 1757 1748 1748 1748 1748 1748 1748 1748 1748 1748 1748 1748 1748 1748 1748 1748 1748 1748 1748 1748 1748 1748 1748 1748 1748 1748 1748 1748 1748 1748 1748 1748 1748 1748 1748 1748 1748 1748 1748 1748 1748 1757 1757 1757 1766 1766 1766 1766 1766 1766 1766 1766 1766 1766 1766 1766 1766 1757 1757 1757 1757 1757 1757 1757 1766 1766 1766 1776 1776 1776 1776 1776 1624 1624 1624 1624 1624 1624 1624 1632 1632 1632 1639 1639 1639 1776 1776 1776 1776 1766 1766 1776 1766 1766 1766 1766 1766 1766 1766 1766 1766 1766 1766 1766 1766 1766 1766 1766 1766 1766 1766 1766 1766 1766 1766 1766 1766 1766 1766 1766 1766 1766 1766 1766 1766 1766 1766 1766 1523 1523 1523 1523 1523 1523 1523 1523 1529 1529 1529 1536 1536 1766 1766 1766 1766 1766 1766 1766 1766 1766 1766 1766 1766 1766 1766 1766 1766 1766 1766 1776 1766 1766 1766 1766 1766 1766 1748 1748 1757 1757 1766 1766 1766 1766 1766 1766 1757 1757 1757 1757 1757 1757 1757 1757 1757 1757 1757 1757 1757 1757 1757 1757 1757 1757 1757 1757 1757 1757 1757 1757 1757 1757 1757 1757 1757 1757 1757 1757 1757 1757 1757 1757 1757 1766 1766 1757 1757 1757 1757 1757 1757 1757 1757 1757 1757 1757 1757 1757 1757 1757 1757 1757 1464 1464 1464 1464 1464 1464 1464 1464 1464 1464 1464 1464 1464 1748 1757 1757 1757 1757 1757 1757 1766 1766 1766 1757 1757 1757 1757 1757 1757 1757 1757 1748 1748 1748 1748 1748 1748 1748 1748 1748 1748 1748 1748 1748 1748 1748 1748 1748 1748 1748 1757 1748 1748 1748 1757 1748 1748 1757 1757 1757 1757 1748 1748 1757 1757 1757 1757 1757 1757 1766 1766 1757 1757 1757 1757 1757 1748 1748 1748 1748 1748 1757 1757 1757 1757 1757 1757 1757 1564 1564 1564 1564 1564 1564 1564 1557 1557 1557 1557 1557 1557 1564 1564 1564 1564 1557 1557 1550 1550 1748 1748 1748 1748 1748 1748 1748 1748 1748 1748 1748 1748 1748 1748 1748 1748 1748 1748 1748 1748 1748 1739 1739 1748 1748 1748 1748 1748 1748 1748 1748 1748 1748 1748 1748 1739 1739 1739 1739 1748 1748 1748 1748 1748 1748 1748 1748 1748 1748 1748 1748 1748 1739 1739 1739 1748 1748 1748 1748 1748 1748 1748 1748 1748 1748 1748 1748 1739 1739 1739 1739 1739 1739 1739 1739 1739 1739 1739 1739 1739 1739 1739 1722 1722 1739 1739 1739 1739 1739 1739 1739 1739 1739 1739 1739 1739 1739 1731 1731 1731 1731 1731 1731 1731 1731 1731 1731 1731 1731 1722 1722 1722 1722 1731 1722 1722 1722 1731 1731 1722 1722 1722 1722 1731 1731 1731 1722 1722 1722 1722 1722 1722 1722 1722 1722 1722 1722 1731 1731 0 0 0 0 0 0 0
0 0 0 0 0 0 0 0 0 0 0 0 0 0 0 0 0 0 0 0 0 0 0 0 0 0 0 0 0 0 0 0 0 0 0 1739 1739 1748 1739 1739 1739 1739 1739 1739 1739 1739 1739 1739 1748 1748 1748 1748 1748 1748 1757 1757 1757 1748 1739 1739 1748 1748 1748 1748 1748 1748 1757 1748 1739 1739 1739 1739 1739 1739 1739 1739 1739 1739 1739 1739 1739 1739 1739 1748 1748 1748 1748 1748 1748 1748 1748 1748 1748 1739 1739 1739 1739 1739 1739 1748 1748 1748 1748 1748 1748 1748 1748 1748 1748 1748 1739 1739 1739 1739 1739 1739 1739 1739 1748 1748 1748 1739 1739 1739 1739 1748 1748 1748 1748 1748 1748 1739 1722 1705 1705 1663 1655 1655 1655 1655 1655 1655 1655 1663 1663 1663 1671 1688 1696 1696 1739 1748 1748 1748 1739 1739 1739 1739 1739 1739 1739 1739 1739 1748 1748 1748 1748 1748 1748 1748 1748 1739 1739 1748 1748 1748 1748 1748 1748 1748 1748 1748 1748 1748 1748 1748 1748 1748 1748 1748 1748 1748 1748 1748 1757 1757 1757 1757 1766 1766 1766 1766 1766 1766 1766 1766 1757 1757 1757 1757 1757 1748 1748 1748 1748 1748 1757 1757 1766 1766 1766 1766 1766 1776 1776 1624 1624 1624 1624 1624 1624 1632 1632 1639 1639 1647 1647 1647 1739 1739 1766 1776 1766 1766 1766 1766 1766 1766 1766 1766 1766 1766 1766 1766 1766 1766 1766 1766 1766 1757 1757 1766 1766 1766 1766 1766 1766 1766 1766 1766 1766 1766 1766 1766 1766 1766 1766 1766 1757 1757 1757 1523 1523 1523 1523 1523 1523 1523 1529 1529 1536 1536 1536 1536 1766 1766 1766 1757 1757 1766 1766 1766 1766 1766 1766 1766 1766 1766 1766 1766 1766 1766 1766 1766 1757 1757 1757 1757 1757 1748 1748 1757 1757 1757 1757 1757 1757 1766 1766 1757 1757 1757 1757 1757 1757 1748 1748 1748 1748 1757 1757 1757 1757 1757 1757 1757 1757 1757 1757 1757 1757 1757 1757 1757 1757 1757 1757 1757 1757 1757 1757 1757 1757 1757 1757 1757 1757 1757 1757 1757 1757 1757 1757 1757 1757 1757 1757 1757 1757 1757 1757 1757 1757 1757 1757 1464 1464 1464 1464 1464 1458 1458 1464 1464 1464 1464 1470 1748 1748 1748 1757 1757 1757 1757 1757 1757 1766 1766 1757 1757 1757 1757 1757 1757 1757 1757 1748 1748 1748 1748 1748 1748 1748 1748 1748 1748 1748 1748 1748 1748 1748 1748 1748 1748 1748 1748 1748 1748 1748 1748 1748 1748 1748 1748 1748 1748 1748 1748 1748 1748 1757 1748 1748 1757 1757 1748 1748 1739 1739 1748 1748 1748 1748 1748 1748 1748 1748 1748 1748 1748 1757 1757 1757 1564 1564 1564 1564 1564 1564 1564 1557 1557 1557 1557 1557 1557 1564 1564 1564 1564 1564 1557 1557 1579 1739 1739 1748 1748 1748 1748 1748 1748 1748 1748 1739 1739 1739 1739 1739 1739 1739 1739 1739 1739 1739 1739 1739 1739 1739 1748 1748 1748 1739 1739 1748 1748 1748 1739 1739 1739 1739 1739 1739 1739 1739 1739 1739 1739 1748 1748 1748 1739 1739 1739 1739 1739 1739 1739 1739 1739 1739 1739 1739 1739 1748 1748 1748 1739 1739 1739 1739 1739 1739 1739 1739 1739 1739 1739 1739 1739 1739 1739 1739 1739 1739 1731 1722 1722 1731 1731 1731 1731 1731 1731 1739 1739 1739 1739 1739 1739 1739 1731 1731 1731 1731 1731 1731 1731 1722 1722 1722 1722 1722 1722 1722 1713 1713 1722 1713 1713 1713 1722 1722 1722 1722 1722 1722 1722 1722 1722 1713 1713 1722 1722 1722 1722 1722 1722 1722 1722 1722 1722 1722 0 0 0 0 0 0 0
0 0 0 0 0 0 0 0 0 0 0 0 0 0 0 0 0 0 0 0 0 0 0 0 0 0 0 0 0 0 0 0 0 0 0 1739 1739 1748 1739 1731 1731 1739 1739 1739 1739 1739 1739 1739 1739 1739 1739 1739 1739 1739 1748 1748 1748 1739 1739 1739 1739 1739 1748 1748 1748 1748 1748 1739 1739 1739 1739 1739 1739 1739 1739 1739 1739 1739 1739 1739 1739 1739 1739 1748 1748 1748 1748 1748 1748 1748 1731 1731 1731 1731 1731 1731 1739 1739 1739 1748 1748 1748 1748 1739 1739 1748 1748 1739 1739 1739 1739 1739 1739 1739 1739 1739 1739 1739 1739 1739 1739 1739 1739 1731 1731 1739 1739 1739 1739 1748 1739 1739 1713 1705 1705 1663 1663 1655 1655 1655 1655 1655 1663 1663 1663 1663 1671 1688 1688 1696 1739 1739 1748 1748 1739 1739 1739 1739 1739 1739 1739 1739 1739 1739 1739 1739 1739 1748 1748 1748 1748 1739 1739 1739 1739 1739 1739 1748 1748 1748 1748 1748 1748 1739 1739 1739 1739 1739 1748 1748 1748 1748 1748 1748 1748 1748 1757 1757 1766 1766 1766 1766 1757 1757 1757 1757 1757 1757 1757 1757 1757 1748 1748 1748 1748 1748 1748 1748 1757 1766 1766 1766 1766 1766 1776 1632 1632 1632 1632 1624 1624 1632 1632 1632 1639 1647 1647 1647 1655 1739 1748 1757 1757 1757 1766 1757 1757 1757 1757 1757 1766 1766 1766 1766 1766 1757 1757 1757 1757 1757 1757 1757 1757 1757 1757 1757 1757 1757 1757 1757 1757 1757 1757 1757 1757 1757 1757 1757 1757 1748 1748 1523 1523 1523 1523 1523 1529 1529 1529 1536 1536 1536 1536 1536 1766 1766 1766 1757 1757 1757 1757 1766 1757 1757 1757 1757 1757 1766 1757 1757 1757 1757 1757 1757 1757 1757 1748 1748 1748 1748 1748 1748 1748 1748 1757 1757 1757 1757 1766 1757 1757 1748 1748 1748 1748 1748 1748 1748 1748 1757 1757 1757 1757 1757 1757 1757 1757 1748 1748 1757 1757 1757 1748 1748 1748 1757 1757 1748 1748 1748 1748 1748 1748 1748 1748 1757 1757 1757 1757 1757 1748 1748 1748 1748 1748 1748 1748 1748 1748 1748 1748 1748 1748 1757 1470 1464 1464 1464 1464 1464 1458 1458 1464 1464 1464 1464 1470 1748 1748 1748 1748 1757 1757 1757 1757 1757 1757 1757 1757 1748 1748 1748 1748 1748 1748 1748 1739 1739 1739 1739 1748 1748 1748 1739 1739 1739 1739 1739 1739 1739 1739 1739 1748 1748 1748 1748 1748 1748 1748 1748 1739 1739 1748 1748 1748 1748 1748 1748 1748 1748 1748 1748 1748 1748 1748 1739 1739 1739 1739 1739 1739 1739 1739 1739 1739 1739 1739 1739 1739 1748 1748 1748 1564 1564 1564 1564 1564 1564 1564 1564 1557 1557 1557 1557 1557 1564 1564 1564 1564 1564 1564 1564 1572 1579 1739 1739 1739 1748 1748 1748 1748 1748 1748 1748 1739 1739 1739 1739 1739 1739 1739 1739 1739 1739 1739 1739 1739 1739 1739 1739 1739 1739 1731 1731 1739 1739 1739 1739 1739 1739 1739 1739 1739 1739 1739 1739 1739 1739 1748 1739 1739 1739 1739 1739 1739 1739 1739 1739 1739 1739 1739 1739 1739 1739 1739 1739 1739 1739 1739 1739 1739 1739 1739 1731 1731 1731 1739 1739 1739 1739 1731 1731 1731 1731 1731 1722 1722 1722 1722 1731 1731 1731 1731 1731 1731 1739 1739 1739 1739 1739 1739 1731 1731 1731 1731 1731 1731 1722 1722 1722 1722 1722 1722 1713 1713 1713 1713 1713 1713 1713 1713 1713 1713 1722 1722 1713 1713 1722 1713 1713 1713 1713 1713 1713 1713 1713 1722 1722 1722 1722 1722 1722 1722 0 0 0 0 0 0 0
0 0 0 0 0 0 0 0 0 0 0 0 0 0 0 0 0 0 0 0 0 0 0 0 0 0 0 0 0 0 0 0 0 0 0 1731 1731 1731 1731 1731 1731 1731 1731 1731 1731 1731 1731 1731 1731 1731 1731 1731 1731 1739 1739 1739 1739 1739 1739 1739 1739 1739 1739 1739 1739 1748 1748 1739 1739 1731 1731 1731 1731 1731 1731 1731 1731 1731 1731 1739 1739 1731 1731 1739 1739 1739 1739 1739 1739 1739 1722 1722 1722 1722 1731 1731 1739 1739 1739 1739 1739 1739 1739 1739 1739 1739 1739 1739 1739 1739 1739 1739 1731 1731 1731 1731 1731 1731 1731 1731 1731 1731 1731 1731 1731 1731 1731 1731 1739 1739 1739 1731 1713 1705 1705 1671 1663 1663 1663 1655 1655 1655 1663 1663 1663 1663 1671 1688 1688 1696 1731 1731 1739 1748 1739 1739 1739 1739 1739 1731 1731 1739 1739 1739 1739 1739 1739 1739 1739 1739 1739 1739 1739 1739 1739 1739 1739 1739 1739 1748 1748 1739 1739 1739 1739 1739 1739 1739 1739 1739 1739 1748 1748 1748 1748 1748 1748 1748 1757 1757 1766 1748 1748 1748 1748 1748 1757 1748 1748 1757 1748 1748 1748 1748 1748 1748 1748 1748 1757 1757 1757 1757 1757 1766 1624 1624 1624 1624 1632 1632 1632 1632 1632 1632 1639 1647 1647 1647 1655 1739 1748 1748 1757 1757 1757 1757 1757 1757 1757 1757 1748 1748 1757 1757 1757 1748 1748 1748 1748 1748 1748 1748 1748 1757 1748 1748 1757 1757 1757 1757 1757 1757 1757 1757 1757 1757 1757 1757 1748 1739 1739 1523 1523 1523 1523 1523 1529 1529 1529 1536 1529 1529 1529 1529 1757 1757 1757 1757 1748 1748 1757 1757 1748 1748 1757 1757 1757 1757 1757 1757 1757 1748 1748 1748 1748 1748 1739 1739 1748 1739 1739 1739 1739 1739 1748 1748 1748 1748 1757 1757 1748 1739 1739 1748 1748 1739 1739 1748 1748 1748 1748 1748 1748 1748 1748 1748 1757 1748 1748 1748 1748 1748 1748 1748 1748 1748 1748 1748 1748 1748 1748 1739 1739 1748 1748 1748 1748 1748 1748 1748 1748 1748 1748 1748 1748 1748 1748 1748 1748 1748 1748 1748 1748 1470 1470 1464 1464 1464 1464 1464 1464 1464 1464 1464 1464 1464 1470 1748 1748 1748 1748 1748 1757 1757 1757 1757 1757 1748 1748 1748 1739 1739 1739 1739 1748 1748 1739 1739 1739 1739 1739 1739 1739 1739 1739 1739 1739 1731 1731 1739 1739 1739 1739 1739 1739 1739 1739 1739 1739 1739 1739 1739 1739 1739 1739 1739 1739 1739 1739 1739 1739 1739 1739 1739 1739 1731 1731 1731 1739 1731 1731 1731 1731 1731 1739 1739 1739 1739 1739 1739 1748 1748 1564 1557 1557 1557 1564 1564 1564 1564 1564 1564 1557 1557 1564 1564 1564 1564 1564 1564 1564 1536 1536 1543 1731 1731 1731 1739 1739 1739 1739 1739 1739 1739 1731 1731 1731 1731 1731 1731 1731 1739 1739 1739 1731 1731 1731 1731 1731 1731 1731 1731 1731 1731 1739 1739 1739 1739 1739 1731 1731 1739 1739 1739 1739 1739 1739 1739 1739 1739 1739 1731 1731 1731 1731 1731 1731 1731 1731 1731 1731 1739 1739 1739 1739 1739 1739 1739 1739 1731 1731 1731 1722 1722 1731 1731 1731 1731 1731 1731 1731 1722 1722 1722 1722 1722 1713 1713 1722 1722 1722 1731 1722 1722 1731 1731 1731 1731 1731 1731 1731 1731 1731 1731 1722 1722 1722 1722 1722 1722 1722 1713 1713 1713 1713 1705 1705 1713 1705 1705 1705 1705 1705 1713 1713 1713 1713 1713 1705 1705 1705 1705 1713 1713 1713 1713 1722 1722 1713 1713 1713 1713 1713 0 0 0 0 0 0 0
0 0 0 0 0 0 0 0 0 0 0 0 0 0 0 0 0 0 0 0 0 0 0 0 0 0 0 0 0 0 0 0 0 0 0 1722 1722 1722 1722 1722 1722 1722 1722 1731 1731 1731 1722 1722 1731 1731 1731 1731 1731 1731 1731 1731 1731 1731 1731 1731 1731 1731 1731 1731 1731 1731 1731 1722 1722 1722 1722 1722 1722 1722 1722 1722 1722 1722 1731 1731 1731 1731 1731 1731 1731 1739 1739 1722 1722 1739 1722 1722 1722 1722 1722 1722 1722 1731 1731 1731 1731 1731 1731 1731 1731 1731 1739 1739 1739 1731 1731 1731 1722 1722 1722 1722 1722 1722 1731 1731 1731 1731 1722 1722 1722 1722 1722 1722 1731 1731 1731 1722 1722 1705 1705 1680 1663 1663 1663 1663 1655 1655 1663 1663 1663 1663 1671 1688 1688 1696 1722 1731 1739 1739 1731 1731 1731 1731 1731 1731 1731 1731 1731 1731 1731 1731 1731 1739 1739 1739 1739 1739 1739 1739 1739 1739 1739 1739 1739 1739 1739 1739 1739 1739 1739 1739 1739 1739 1739 1739 1739 1739 1739 1739 1748 1748 1748 1748 1748 1748 1748 1748 1748 1748 1748 1748 1748 1748 1748 1757 1748 1748 1748 1748 1748 1748 1748 1748 1748 1757 1748 1748 1757 1757 1624 1624 1624 1624 1632 1632 1632 1632 1632 1632 1639 1647 1647 1647 1655 1739 1748 1748 1757 1757 1748 1748 1748 1748 1748 1748 1748 1748 1748 1748 1748 1748 1748 1739 1739 1739 1739 1748 1748 1748 1748 1748 1748 1757 1757 1757 1757 1748 1748 1748 1748 1748 1748 1748 1739 1731 1731 1529 1529 1523 1523 1529 1529 1529 1529 1536 1529 1529 1529 1543 1739 1739 1739 1739 1739 1739 1748 1748 1748 1748 1748 1748 1757 1757 1748 1748 1748 1748 1748 1748 1748 1739 1739 1739 1739 1739 1739 1739 1739 1739 1739 1739 1739 1748 1748 1748 1739 1731 1731 1739 1731 1731 1731 1739 1739 1739 1739 1739 1739 1739 1739 1748 1748 1748 1748 1748 1748 1748 1748 1748 1748 1739 1739 1739 1739 1739 1739 1739 1739 1739 1739 1739 1739 1739 1739 1739 1739 1739 1739 1739 1739 1739 1739 1739 1739 1739 1739 1739 1739 1470 1470 1464 1464 1464 1464 1464 1464 1464 1464 1464 1464 1464 1470 1739 1739 1739 1739 1748 1748 1748 1748 1748 1748 1748 1739 1739 1739 1739 1739 1739 1739 1739 1731 1731 1739 1731 1731 1731 1731 1731 1731 1731 1731 1731 1731 1731 1731 1739 1739 1739 1739 1739 1731 1731 1731 1731 1731 1731 1731 1731 1731 1731 1731 1731 1731 1731 1731 1731 1739 1731 1731 1731 1731 1731 1731 1731 1731 1731 1731 1731 1731 1731 1731 1731 1731 1739 1739 1739 1748 1557 1557 1557 1564 1564 1564 1564 1564 1564 1564 1564 1564 1564 1564 1564 1564 1564 1564 1529 1529 1543 1722 1722 1722 1722 1722 1722 1731 1731 1731 1722 1722 1722 1722 1731 1722 1722 1722 1731 1731 1731 1722 1722 1722 1722 1722 1722 1722 1722 1722 1722 1731 1731 1731 1731 1731 1731 1731 1731 1731 1731 1731 1731 1731 1731 1731 1722 1722 1722 1722 1722 1722 1731 1731 1731 1731 1731 1731 1731 1731 1731 1731 1731 1731 1731 1731 1722 1722 1722 1722 1722 1722 1722 1722 1722 1722 1722 1722 1722 1722 1722 1722 1713 1713 1713 1713 1722 1722 1722 1722 1722 1722 1731 1722 1722 1722 1722 1731 1722 1713 1713 1722 1722 1722 1713 1713 1713 1713 1713 1713 1705 1705 1705 1705 1705 1705 1705 1705 1705 1705 1705 1705 1705 1705 1705 1705 1705 1705 1705 1705 1705 1705 1705 1713 1713 1705 1705 1705 1705 1705 0 0 0 0 0 0 0
0 0 0 0 0 0 0 0 0 0 0 0 0 0 0 0 0 0 0 0 0 0 0 0 0 0 0 0 0 0 0 0 0 0 0 1713 1713 1713 1713 1713 1722 1722 1722 1722 1722 1722 1722 1722 1722 1722 1722 1722 1731 1731 1731 1731 1722 1722 1722 1722 1731 1731 1731 1731 1731 1731 1731 1722 1722 1722 1722 1722 1722 1722 1722 1722 1722 1722 1722 1722 1722 1722 1722 1722 1722 1722 1722 1722 1722 1722 1722 1722 1722 1722 1722 1722 1722 1722 1722 1722 1722 1722 1722 1722 1722 1722 1731 1731 1731 1722 1722 1722 1713 1713 1722 1722 1713 1713 1722 1722 1722 1722 1722 1722 1722 1722 1722 1722 1722 1722 1722 1722 1713 1705 1696 1680 1671 1663 1663 1663 1655 1655 1663 1663 1663 1671 1680 1688 1688 1696 1722 1722 1731 1731 1722 1722 1722 1731 1731 1731 1731 1731 1731 1722 1722 1731 1731 1739 1739 1739 1739 1739 1731 1731 1731 1731 1731 1731 1731 1731 1739 1739 1739 1739 1739 1739 1739 1739 1739 1739 1739 1739 1739 1739 1739 1739 1739 1739 1739 1739 1739 1739 1739 1739 1739 1739 1748 1748 1748 1748 1748 1748 1748 1748 1748 1748 1748 1748 1748 1748 1748 1748 1748 1748 1632 1632 1632 1632 1632 1632 1632 1632 1632 1639 1639 1647 1647 1647 1655 1739 1748 1748 1748 1748 1748 1739 1739 1748 1748 1748 1739 1739 1748 1748 1748 1739 1739 1739 1739 1739 1739 1739 1739 1739 1739 1739 1739 1739 1748 1748 1748 1739 1739 1748 1748 1748 1739 1739 1731 1731 1731 1529 1529 1523 1523 1529 1529 1529 1529 1536 1536 1536 1543 1543 1739 1739 1739 1739 1739 1739 1739 1739 1739 1739 1739 1748 1748 1748 1748 1748 1748 1748 1739 1739 1739 1739 1739 1739 1739 1739 1739 1739 1739 1739 1739 1739 1739 1739 1739 1739 1731 1731 1731 1731 1731 1731 1731 1731 1731 1731 1731 1731 1731 1731 1739 1739 1739 1739 1739 1739 1739 1739 1739 1739 1739 1739 1731 1731 1731 1731 1731 1731 1731 1731 1731 1739 1739 1739 1739 1739 1731 1731 1731 1739 1739 1731 1731 1731 1739 1739 1739 1739 1739 1470 1470 1470 1464 1464 1464 1464 1464 1464 1464 1464 1464 1464 1470 1731 1731 1731 1731 1739 1739 1748 1748 1748 1748 1739 1739 1739 1731 1731 1731 1731 1731 1739 1731 1731 1731 1731 1731 1731 1731 1731 1731 1722 1722 1731 1731 1731 1731 1731 1731 1731 1731 1731 1731 1731 1731 1731 1731 1731 1731 1731 1731 1731 1731 1731 1731 1731 1731 1731 1731 1731 1731 1722 1722 1722 1722 1722 1722 1722 1722 1722 1731 1731 1731 1731 1731 1731 1739 1739 1579 1564 1564 1564 1572 1564 1564 1564 1564 1564 1564 1564 1564 1564 1564 1564 1564 1572 1572 1529 1529 1722 1722 1722 1722 1722 1722 1722 1722 1722 1722 1722 1713 1713 1713 1722 1713 1713 1713 1722 1722 1722 1713 1713 1713 1713 1713 1722 1722 1722 1722 1722 1722 1722 1722 1722 1722 1722 1722 1722 1722 1731 1722 1722 1731 1722 1722 1722 1713 1713 1713 1722 1722 1722 1722 1722 1722 1722 1722 1722 1722 1722 1722 1722 1722 1722 1722 1713 1713 1713 1713 1713 1713 1713 1713 1713 1722 1713 1713 1713 1713 1713 1713 1713 1713 1713 1713 1713 1713 1713 1713 1713 1713 1713 1713 1713 1713 1713 1722 1705 1705 1705 1713 1713 1713 1713 1713 1705 1705 1705 1705 1705 1705 1705 1696 1696 1705 1696 1696 1696 1696 1705 1705 1705 1705 1705 1705 1705 1705 1705 1705 1705 1705 1705 1705 1705 1705 1705 1705 1705 1705 0 0 0 0 0 0 0
0 0 0 0 0 0 0 0 0 0 0 0 0 0 0 0 0 0 0 0 0 0 0 0 0 0 0 0 0 0 0 0 0 0 0 1713 1713 1713 1713 1713 1722 1722 1722 1722 1722 1722 1722 1722 1722 1722 1722 1722 1722 1722 1722 1731 1722 1722 1722 1722 1722 1722 1722 1722 1731 1731 1731 1722 1722 1722 1722 1722 1722 1722 1722 1722 1722 1722 1722 1722 1722 1722 1722 1722 1722 1722 1722 1722 1722 1722 1713 1713 1713 1713 1713 1722 1722 1722 1722 1722 1722 1722 1722 1722 1722 1722 1722 1722 1722 1722 1713 1713 1713 1713 1713 1713 1713 1713 1722 1713 1713 1713 1713 1713 1713 1713 1713 1722 1722 1713 1713 1713 1713 1705 1688 1680 1671 1663 1663 1663 1663 1663 1663 1663 1671 1671 1680 1688 1688 1696 1722 1722 1722 1731 1722 1713 1713 1713 1713 1713 1713 1713 1713 1713 1713 1713 1722 1722 1731 1731 1731 1731 1731 1731 1731 1731 1722 1713 1713 1731 1731 1731 1731 1731 1731 1731 1731 1731 1731 1731 1731 1731 1731 1731 1731 1731 1731 1731 1731 1731 1722 1722 1722 1739 1739 1739 1739 1739 1739 1739 1739 1739 1739 1748 1748 1748 1748 1748 1748 1748 1739 1739 1748 1748 1748 1632 1632 1632 1632 1632 1632 1639 1639 1639 1639 1647 1647 1647 1655 1739 1739 1739 1739 1739 1739 1739 1739 1739 1739 1739 1739 1739 1739 1739 1739 1739 1739 1739 1739 1739 1739 1739 1739 1739 1739 1739 1739 1739 1739 1739 1739 1739 1739 1739 1739 1739 1739 1739 1731 1731 1731 1529 1529 1529 1529 1529 1529 1529 1536 1536 1536 1536 1543 1543 1543 1739 1739 1739 1739 1739 1739 1739 1739 1739 1739 1748 1748 1748 1739 1739 1739 1739 1739 1739 1739 1739 1739 1739 1739 1739 1739 1731 1731 1731 1731 1731 1731 1739 1739 1739 1731 1731 1731 1731 1731 1731 1731 1731 1731 1731 1731 1731 1731 1731 1731 1731 1731 1731 1739 1739 1739 1739 1731 1731 1731 1731 1731 1731 1731 1731 1731 1731 1731 1731 1731 1731 1731 1731 1731 1731 1731 1731 1731 1731 1731 1731 1731 1731 1731 1731 1731 1731 1731 1477 1477 1470 1470 1464 1464 1464 1464 1464 1464 1464 1464 1464 1464 1731 1731 1731 1731 1739 1739 1739 1739 1739 1739 1739 1731 1731 1731 1731 1731 1731 1731 1731 1722 1722 1722 1722 1722 1722 1722 1722 1722 1722 1722 1722 1722 1722 1731 1731 1731 1722 1722 1731 1722 1722 1722 1722 1722 1722 1722 1722 1722 1722 1722 1722 1722 1722 1722 1722 1722 1722 1722 1722 1722 1722 1722 1722 1722 1722 1722 1722 1722 1731 1722 1722 1722 1731 1731 1731 1579 1579 1572 1572 1572 1572 1572 1572 1572 1564 1564 1564 1572 1572 1572 1564 1564 1572 1722 1722 1722 1722 1722 1722 1722 1722 1722 1722 1722 1722 1722 1722 1713 1713 1713 1713 1713 1713 1713 1713 1713 1713 1713 1713 1713 1713 1713 1713 1713 1713 1713 1713 1713 1713 1713 1713 1713 1713 1713 1722 1722 1722 1722 1722 1722 1713 1713 1713 1713 1713 1713 1713 1713 1713 1722 1722 1722 1722 1713 1713 1713 1713 1713 1713 1713 1713 1713 1713 1713 1713 1713 1713 1713 1713 1713 1713 1713 1713 1713 1713 1713 1713 1713 1713 1705 1705 1713 1713 1713 1713 1713 1713 1713 1713 1713 1713 1713 1713 1713 1705 1705 1705 1705 1705 1705 1705 1705 1705 1705 1705 1705 1696 1696 1696 1696 1696 1696 1696 1696 1696 1696 1696 1696 1696 1705 1705 1696 1696 1696 1705 1705 1705 1696 1696 1705 1705 1705 1705 1705 1696 1696 0 0 0 0 0 0 0
0 0 0 0 0 0 0 0 0 0 0 0 0 0 0 0 0 0 0 0 0 0 0 0 0 0 0 0 0 0 0 0 0 0 0 1705 1705 1705 1705 1713 1713 1713 1722 1722 1722 1722 1713 1713 1713 1722 1722 1722 1722 1722 1722 1722 1722 1722 1722 1722 1722 1722 1722 1722 1722 1722 1722 1713 1713 1713 1713 1713 1713 1713 1713 1713 1722 1722 1722 1722 1722 1722 1722 1722 1713 1713 1713 1713 1713 1713 1713 1713 1713 1713 1713 1713 1713 1713 1713 1713 1713 1713 1713 1713 1713 1713 1713 1713 1713 1713 1713 1713 1713 1713 1713 1713 1713 1713 1713 1713 1713 1713 1713 1713 1713 1713 1713 1713 1713 1713 1713 1713 1705 1705 1688 1680 1671 1671 1663 1663 1663 1663 1663 1663 1671 1671 1680 1688 1688 1696 1713 1722 1722 1722 1713 1713 1713 1713 1713 1713 1713 1713 1713 1713 1713 1713 1722 1722 1722 1722 1731 1731 1722 1722 1722 1722 1722 1713 1713 1713 1722 1731 1731 1731 1731 1731 1722 1722 1722 1722 1722 1722 1722 1722 1722 1722 1722 1722 1722 1722 1722 1722 1722 1722 1722 1722 1722 1722 1722 1731 1731 1731 1731 1739 1739 1731 1731 1739 1731 1731 1731 1739 1739 1731 1647 1639 1639 1639 1639 1639 1639 1639 1639 1639 1639 1647 1647 1647 1655 1722 1739 1739 1739 1739 1739 1731 1731 1731 1731 1731 1731 1731 1739 1739 1739 1739 1739 1739 1739 1739 1739 1739 1739 1739 1739 1739 1739 1739 1739 1739 1739 1739 1739 1739 1739 1739 1739 1739 1731 1731 1523 1523 1529 1529 1529 1529 1529 1529 1536 1536 1536 1536 1536 1536 1543 1550 1731 1731 1731 1739 1739 1739 1739 1739 1739 1739 1739 1739 1739 1739 1739 1739 1739 1739 1739 1739 1739 1739 1739 1739 1739 1731 1731 1731 1731 1731 1731 1731 1739 1731 1722 1722 1731 1731 1731 1731 1731 1731 1731 1731 1731 1731 1731 1731 1731 1731 1731 1731 1731 1731 1731 1722 1722 1731 1731 1731 1731 1731 1731 1731 1731 1731 1731 1731 1731 1731 1731 1731 1731 1731 1731 1731 1731 1731 1731 1731 1731 1731 1731 1731 1731 1731 1483 1477 1477 1470 1470 1470 1470 1464 1464 1464 1464 1464 1464 1464 1464 1722 1722 1731 1731 1731 1731 1731 1731 1731 1731 1731 1731 1731 1731 1731 1731 1731 1731 1731 1722 1722 1722 1722 1722 1722 1722 1722 1722 1722 1722 1722 1713 1713 1722 1722 1722 1722 1722 1722 1722 1722 1722 1722 1722 1722 1722 1722 1722 1722 1722 1722 1722 1722 1722 1722 1722 1722 1722 1713 1713 1713 1713 1713 1713 1722 1722 1722 1722 1722 1722 1722 1722 1731 1731 1579 1579 1579 1572 1572 1572 1572 1572 1572 1572 1572 1572 1572 1572 1572 1572 1572 1572 1572 1722 1713 1713 1713 1722 1722 1722 1722 1722 1722 1722 1722 1722 1722 1713 1705 1705 1713 1713 1713 1713 1713 1713 1713 1713 1713 1713 1713 1713 1713 1713 1713 1713 1713 1713 1713 1713 1713 1713 1713 1713 1713 1705 1705 1713 1713 1705 1705 1713 1713 1713 1713 1713 1713 1713 1713 1713 1713 1713 1713 1713 1713 1713 1713 1713 1713 1713 1713 1713 1713 1713 1713 1713 1705 1705 1705 1705 1705 1713 1713 1705 1705 1713 1713 1705 1705 1705 1705 1713 1713 1705 1705 1713 1713 1713 1713 1705 1705 1713 1713 1713 1705 1705 1705 1705 1705 1705 1705 1696 1696 1696 1696 1688 1688 1688 1688 1688 1688 1696 1696 1696 1696 1696 1696 1696 1696 1696 1696 1696 1696 1696 1705 1705 1696 1696 1696 1696 1696 1696 1696 1696 1696 1696 0 0 0 0 0 0 0
0 0 0 0 0 0 0 0 0 0 0 0 0 0 0 0 0 0 0 0 0 0 0 0 0 0 0 0 0 0 0 0 0 0 0 1705 1705 1705 1705 1713 1713 1713 1713 1713 1713 1713 1713 1713 1713 1713 1713 1722 1722 1722 1722 1722 1713 1713 1713 1713 1722 1722 1722 1722 1722 1722 1722 1713 1713 1705 1705 1705 1705 1713 1713 1713 1713 1713 1713 1713 1713 1722 1713 1713 1713 1713 1713 1713 1713 1713 1705 1705 1705 1705 1705 1713 1713 1713 1713 1713 1713 1713 1713 1713 1713 1713 1713 1713 1713 1713 1713 1713 1713 1713 1713 1713 1713 1713 1713 1713 1713 1713 1713 1713 1713 1713 1713 1713 1713 1713 1713 1705 1705 1705 1688 1680 1671 1671 1663 1663 1663 1663 1663 1663 1663 1671 1680 1680 1688 1696 1713 1713 1722 1722 1713 1713 1713 1713 1713 1713 1713 1713 1713 1713 1713 1713 1713 1713 1713 1713 1713 1713 1713 1713 1713 1713 1713 1713 1713 1713 1713 1722 1722 1722 1722 1722 1722 1722 1722 1722 1722 1722 1722 1722 1722 1713 1713 1722 1722 1722 1722 1722 1722 1722 1722 1722 1722 1722 1722 1722 1722 1713 1713 1722 1731 1731 1731 1722 1722 1722 1731 1731 1731 1731 1647 1639 1639 1639 1639 1639 1639 1639 1639 1639 1639 1647 1647 1647 1696 1713 1722 1731 1731 1731 1731 1731 1731 1731 1731 1731 1731 1731 1731 1731 1731 1731 1731 1731 1731 1731 1731 1731 1731 1731 1731 1731 1731 1731 1731 1731 1731 1731 1731 1731 1731 1731 1731 1731 1731 1731 1523 1523 1529 1529 1529 1529 1529 1529 1536 1536 1536 1536 1536 1536 1543 1550 1731 1731 1731 1731 1731 1739 1739 1739 1739 1739 1739 1739 1739 1739 1731 1731 1731 1731 1731 1731 1731 1731 1731 1731 1731 1731 1731 1731 1731 1731 1731 1731 1731 1731 1722 1722 1722 1722 1722 1722 1722 1722 1722 1722 1722 1722 1722 1722 1731 1731 1722 1722 1731 1731 1731 1722 1722 1722 1722 1722 1722 1722 1731 1722 1722 1722 1722 1722 1722 1722 1731 1731 1722 1722 1731 1731 1731 1731 1731 1731 1722 1722 1731 1731 1731 1731 1483 1483 1477 1470 1470 1470 1470 1464 1464 1464 1464 1464 1464 1464 1464 1722 1722 1722 1722 1731 1722 1722 1722 1731 1731 1731 1722 1722 1731 1731 1731 1731 1731 1731 1722 1722 1722 1722 1722 1713 1713 1713 1713 1713 1713 1713 1713 1713 1713 1713 1713 1713 1713 1713 1713 1713 1713 1713 1722 1722 1722 1713 1713 1722 1713 1713 1713 1713 1713 1713 1713 1713 1713 1713 1713 1713 1713 1713 1713 1713 1713 1713 1713 1713 1713 1713 1713 1713 1722 1579 1579 1579 1579 1579 1572 1572 1572 1572 1572 1572 1572 1572 1572 1572 1579 1572 1572 1572 1722 1713 1713 1713 1713 1722 1713 1713 1713 1713 1713 1713 1713 1713 1705 1705 1705 1705 1705 1705 1705 1705 1705 1705 1705 1705 1705 1705 1705 1705 1705 1705 1713 1713 1713 1713 1713 1705 1705 1705 1705 1705 1705 1705 1705 1705 1705 1705 1705 1713 1713 1713 1713 1713 1713 1705 1705 1705 1705 1705 1705 1713 1713 1713 1713 1713 1713 1713 1705 1705 1705 1705 1705 1705 1705 1705 1705 1705 1713 1705 1705 1705 1705 1705 1705 1705 1705 1705 1705 1705 1705 1705 1705 1705 1705 1705 1705 1705 1705 1705 1705 1696 1696 1696 1696 1696 1696 1696 1688 1688 1688 1680 1680 1680 1680 1680 1688 1688 1688 1688 1688 1688 1696 1696 1696 1696 1696 1696 1696 1696 1696 1696 1696 1696 1696 1696 1696 1696 1688 1688 1696 1696 1696 0 0 0 0 0 0 0
0 0 0 0 0 0 0 0 0 0 0 0 0 0 0 0 0 0 0 0 0 0 0 0 0 0 0 0 0 0 0 0 0 0 0 1705 1705 1705 1705 1713 1713 1713 1713 1713 1713 1713 1713 1713 1713 1713 1713 1713 1722 1713 1713 1713 1705 1705 1713 1713 1713 1713 1713 1713 1722 1713 1713 1705 1705 1705 1705 1696 1696 1705 1705 1705 1713 1713 1713 1713 1713 1713 1713 1713 1705 1705 1705 1705 1705 1705 1705 1705 1705 1705 1705 1705 1705 1705 1705 1705 1713 1705 1705 1705 1705 1705 1705 1705 1705 1705 1713 1713 1713 1713 1713 1713 1713 1705 1705 1705 1705 1705 1705 1705 1705 1705 1705 1705 1705 1705 1705 1705 1705 1705 1688 1680 1671 1671 1663 1663 1663 1663 1663 1663 1663 1671 1680 1680 1688 1696 1713 1713 1713 1713 1705 1705 1705 1705 1705 1705 1713 1713 1713 1705 1705 1705 1705 1705 1705 1705 1713 1713 1713 1713 1713 1713 1713 1713 1713 1713 1713 1722 1722 1722 1722 1722 1722 1722 1722 1722 1713 1713 1713 1722 1722 1713 1713 1713 1713 1713 1713 1713 1713 1722 1722 1722 1722 1722 1722 1722 1713 1713 1713 1713 1722 1722 1722 1722 1713 1713 1722 1722 1722 1722 1655 1647 1639 1639 1639 1639 1639 1639 1639 1639 1639 1647 1647 1647 1696 1713 1722 1731 1731 1722 1722 1722 1722 1722 1722 1722 1722 1722 1731 1731 1731 1731 1731 1731 1731 1731 1731 1731 1731 1731 1731 1731 1731 1731 1731 1722 1722 1722 1722 1722 1722 1722 1722 1722 1722 1722 1523 1523 1529 1529 1529 1529 1529 1529 1536 1536 1536 1536 1536 1543 1550 1550 1731 1731 1731 1731 1731 1731 1731 1731 1731 1731 1731 1731 1731 1731 1731 1731 1731 1731 1731 1731 1731 1731 1731 1731 1731 1731 1722 1722 1731 1722 1722 1731 1731 1731 1722 1722 1722 1722 1722 1722 1722 1722 1722 1722 1722 1722 1722 1722 1722 1722 1722 1722 1731 1722 1722 1722 1722 1722 1722 1722 1722 1722 1722 1722 1722 1722 1722 1722 1722 1722 1722 1722 1722 1722 1722 1722 1722 1722 1722 1722 1722 1722 1722 1731 1722 1722 1483 1477 1477 1477 1477 1470 1470 1470 1464 1464 1464 1464 1464 1464 1464 1464 1722 1722 1722 1722 1722 1722 1722 1722 1722 1722 1722 1722 1722 1722 1722 1722 1722 1731 1713 1713 1713 1713 1713 1713 1713 1713 1713 1713 1713 1713 1713 1713 1713 1713 1713 1713 1713 1713 1713 1713 1713 1713 1713 1713 1713 1713 1713 1713 1713 1713 1713 1713 1713 1713 1713 1713 1713 1713 1713 1713 1713 1713 1713 1713 1713 1713 1713 1713 1713 1713 1713 1713 1594 1586 1586 1586 1579 1579 1572 1572 1572 1572 1572 1572 1572 1572 1572 1579 1579 1572 1572 1572 1722 1713 1713 1713 1713 1713 1713 1713 1713 1713 1713 1713 1713 1713 1705 1705 1705 1705 1705 1705 1705 1705 1705 1705 1705 1705 1705 1705 1705 1705 1705 1705 1713 1713 1705 1705 1705 1705 1705 1705 1705 1705 1705 1705 1705 1705 1705 1705 1705 1705 1705 1705 1705 1705 1705 1705 1696 1696 1705 1705 1705 1705 1705 1705 1705 1705 1705 1705 1705 1705 1705 1705 1705 1705 1705 1705 1705 1705 1705 1705 1705 1705 1705 1705 1705 1705 1705 1705 1705 1705 1705 1705 1705 1705 1705 1696 1696 1696 1696 1705 1705 1696 1696 1696 1696 1696 1696 1688 1680 1680 1680 1680 1680 1680 1680 1680 1688 1688 1688 1688 1688 1688 1696 1696 1696 1696 1696 1696 1696 1696 1696 1696 1696 1688 1688 1688 1688 1688 1688 1688 1688 1688 1688 0 0 0 0 0 0 0
0 0 0 0 0 0 0 0 0 0 0 0 0 0 0 0 0 0 0 0 0 0 0 0 0 0 0 0 0 0 0 0 0 0 0 1705 1696 1696 1696 1696 1705 1705 1713 1713 1705 1705 1705 1705 1705 1713 1713 1713 1713 1705 1705 1705 1705 1705 1705 1705 1705 1713 1713 1713 1713 1713 1705 1696 1696 1696 1696 1696 1696 1696 1696 1705 1705 1705 1713 1713 1713 1713 1713 1713 1705 1705 1696 1696 1705 1705 1705 1705 1705 1705 1705 1705 1705 1705 1705 1705 1705 1705 1705 1705 1705 1705 1705 1705 1705 1705 1705 1705 1705 1713 1713 1713 1705 1705 1705 1705 1705 1696 1696 1696 1696 1696 1696 1696 1705 1705 1705 1705 1705 1705 1688 1680 1671 1671 1663 1663 1663 1663 1671 1671 1671 1680 1680 1688 1688 1696 1705 1705 1713 1705 1705 1705 1705 1705 1705 1705 1705 1705 1705 1705 1705 1705 1705 1705 1696 1696 1696 1705 1705 1705 1705 1705 1713 1713 1713 1713 1713 1713 1713 1713 1713 1713 1713 1713 1713 1713 1713 1713 1713 1713 1713 1713 1713 1713 1713 1713 1713 1713 1713 1713 1722 1722 1722 1713 1713 1713 1713 1713 1713 1713 1722 1713 1713 1713 1713 1713 1713 1713 1722 1722 1655 1647 1639 1639 1639 1639 1639 1647 1647 1647 1647 1647 1647 1655 1688 1705 1713 1722 1722 1722 1722 1722 1722 1722 1713 1713 1722 1722 1722 1722 1722 1731 1731 1731 1731 1731 1731 1731 1731 1731 1731 1731 1722 1722 1722 1722 1713 1713 1722 1722 1722 1722 1722 1722 1722 1722 1523 1523 1529 1529 1536 1536 1529 1529 1536 1536 1536 1536 1536 1543 1543 1722 1722 1731 1731 1722 1722 1722 1722 1722 1713 1713 1722 1722 1722 1722 1722 1722 1722 1722 1722 1722 1722 1722 1722 1722 1722 1722 1722 1722 1722 1722 1722 1722 1731 1731 1722 1722 1722 1722 1722 1722 1722 1713 1713 1722 1713 1713 1713 1713 1722 1722 1722 1722 1722 1722 1713 1713 1722 1722 1722 1722 1722 1722 1722 1713 1713 1713 1722 1722 1722 1722 1722 1722 1722 1722 1722 1722 1722 1722 1722 1722 1722 1722 1722 1722 1722 1722 1483 1477 1477 1477 1470 1470 1470 1470 1470 1464 1464 1464 1464 1464 1458 1458 1713 1713 1722 1713 1713 1722 1722 1722 1722 1722 1713 1713 1722 1722 1722 1722 1722 1722 1713 1713 1713 1713 1713 1713 1713 1713 1713 1713 1705 1705 1705 1705 1713 1713 1705 1705 1705 1705 1705 1705 1705 1713 1713 1713 1713 1713 1713 1713 1713 1713 1713 1713 1713 1713 1713 1713 1705 1705 1705 1713 1713 1713 1713 1713 1713 1713 1713 1713 1713 1713 1713 1722 1594 1594 1586 1586 1586 1579 1572 1572 1572 1572 1572 1572 1572 1572 1572 1579 1579 1572 1564 1564 1722 1713 1713 1713 1713 1713 1713 1713 1713 1705 1705 1713 1705 1705 1696 1696 1696 1696 1705 1696 1696 1696 1696 1696 1705 1705 1705 1705 1705 1705 1705 1705 1705 1705 1705 1696 1696 1696 1696 1696 1696 1696 1696 1696 1705 1705 1705 1705 1705 1705 1705 1705 1705 1705 1705 1696 1696 1696 1705 1705 1705 1705 1705 1705 1705 1705 1705 1705 1705 1696 1696 1696 1696 1696 1696 1696 1696 1696 1696 1696 1705 1705 1705 1705 1696 1696 1696 1696 1696 1696 1696 1696 1696 1696 1696 1696 1696 1696 1696 1696 1696 1696 1696 1688 1688 1688 1688 1680 1680 1680 1680 1671 1671 1671 1680 1680 1680 1680 1680 1688 1688 1688 1688 1688 1688 1688 1688 1688 1688 1688 1688 1688 1688 1680 1680 1680 1680 1688 1680 1680 1688 1688 1688 0 0 0 0 0 0 0
