0 0 0 0 0 0 0 0 0 0 0 0 0 0 0 0 0 0 0 0 0 0 0 0 0 0 0 0 0 0 0 0 0 0 0 0 0 0 0 0 7492 7492 7492 7332 7332 7178 7178 7332 7332 7492 7492 7492 0 0 0 0 0 0 0 0 0 0 0 0 0 0 0 0 0 0 8019 8019 8413 8019 8019 8019 7492 7492 8019 8019 8019 8019 8019 8019 8019 7835 7835 8019 8019 8019 8019 8019 8019 8212 8212 8212 8212 8212 8212 8019 8019 8019 8019 8019 8019 8019 8212 8212 8413 8849 8626 8413 8413 8212 8019 8019 7835 7835 7835 7835 7835 7835 7835 7835 7835 7835 7835 7835 7835 8019 8019 7835 7835 7835 7835 7835 7835 7835 8019 8019 8212 8212 8212 8212 8212 8212 8212 8212 8212 8212 8212 8019 8019 7835 7835 7835 7660 7660 7492 7492 7492 7492 7660 7660 7660 7660 7660 7660 7660 7660 5291 5291 5291 5374 5291 5291 5291 5291 5291 5291 5291 5374 5374 5374 5460 5548 5548 5460 5460 5548 5548 5460 5460 5548 5548 5548 5640 5640 5640 5640 5640 5640 5640 5640 5734 5734 5734 0 0 0 0 0 0 5210 5132 5132 5210 5210 5210 5291 5291 5291 5291 5291 5291 5291 5291 5291 5291 5210 5210 5291 5291 5291 5291 5374 0 0 0 0 0 0 0 0 0 0 0 0 0 8212 8212 8212 8212 8212 8212 8212 8212 8212 8212 8212 8212 8212 8212 8212 8212 8212 8212 8212 8212 8212 8212 8212 8212 8019 8019 7835 4983 4983 4983 4983 4983 4911 4911 4911 4911 4983 4983 5056 5132 5132 5210 5210 5210 5210 5210 5291 5291 5374 8212 8413 5548 5548 8212 8413 8413 8212 8212 8212 8212 8212 8212 8212 8413 8413 8626 5832 5832 5832 5832 5832 5933 5933 5933 5933 5933 5933 5933 5933 5933 5933 5933 5933 5933 5933 8212 8212 8019 7835 7835 7835 7835 7835 7835 7835 7835 7835 7835 7835 7835 7835 7835 7835 7835 7835 8019 8019 8019 3269 3269 3269 3269 3269 3300 3300 3300 3300 3300 3300 3300 3300 3300 3333 3300 3300 3269 3269 3269 3269 3269 3238 3238 3238 3238 3238 3238 3238 3238 3238 3238 3238 3238 3238 3238 3208 3208 3208 3238 3238 3238 3238 3238 3238 3238 3238 3238 3238 3238 3238 3238 3238 3238 3208 3208 3178 3178 3178 3178 3149 3149 3149 3149 3149 3149 3149 3149 3120 3120 3120 3120 3120 3092 3092 3092 3092 3092 3092 3092 3092 3092 3120 3120 3149 3149 3178 3208 3208 3238 3238 3269 3178 3178 3178 0 0 0 0 0 0 0 0 0 0 0 0 0 0 0 0 0 0 0 0 3092 3092 3092 3120 3178 3149 3149 3149 3149 3178 3178 4139 4139 4139 4139 4139 4139 4139 4139 4139 4139 4139 4139 4139 4089 4089 4041 4041 4041 4041 4041 4089 4089 4041 4041 4041 4041 4041 4041 3994 3903 3903 3903 6375 6375 6375 6375 6375 6375 6259 6259 6259 6259 6259 6259 6259 6375 6375 6375 6375 6375 6375 6375 6259 6259 6259 6259 6259 6259 6259 6259 6259 6259 6259 6259 6259 6259 6259 6259 6259 6259 6259 6375 6375 6375 6375 6375 6375 6375 6375 6375 6497 6375 6375 6375 6146 6146 6146 6146 6146 6146 6259 6146 6146 6259 6259 6146 6146 6146 6146 6146 6146 6146 6146 6146 6146 6146 6146 6146 6146 6146 6259 6259 6375 6375 6375 6375 6375 6259 6259 6259 6259 6259 6259 6259 6375 6375 6375 6497 6497 6497 6497 6497 6497 6622 6497 6497 6497 6622 6622 6622 6622 6622 6622 6622 0 0 0 0 0 0 0 0 0 0 0 0 0
0 0 0 0 0 0 0 0 0 0 0 0 0 0 0 0 0 0 0 0 0 0 0 0 0 0 0 0 0 0 0 0 0 0 0 0 0 0 0 0 0 0 0 0 0 7178 7178 7178 7332 7492 7492 7492 0 0 0 0 0 0 0 0 0 0 0 0 0 0 0 0 0 0 0 0 0 7492 0 7492 7492 7492 7835 7835 8019 8019 8019 8019 7835 7835 7835 8019 8019 8019 8019 8019 8019 8212 8019 8019 8212 8212 8212 8019 8019 8019 8019 8019 8019 8019 8019 8212 8413 8849 8849 8413 8212 8019 8019 8019 7835 7835 7835 7835 7835 7835 7835 7835 7835 7835 7835 7835 7835 8019 8019 7835 7835 7835 7835 7835 8019 8019 8019 8212 8413 8212 8212 8212 8212 8212 8212 8413 8413 8413 8413 8413 8212 8212 8019 7835 7660 7660 7660 7660 7660 7660 7660 7660 7660 7660 7660 7660 7660 7660 5291 5291 5374 5374 5291 5291 5291 5291 5291 5291 5291 5374 5374 5374 5460 5460 5460 5460 5460 5460 5548 5460 5460 5548 5548 5548 5640 5640 5640 5640 5640 5640 5640 5640 5734 5734 5734 0 0 0 0 0 0 0 5132 5132 5132 5210 5210 5291 5291 5291 5291 5291 5291 5291 5291 5291 5291 5291 5291 5291 5291 5291 5291 5374 0 0 0 0 0 0 0 0 0 0 0 0 8212 8212 8212 8212 8212 8212 8212 8212 8212 8212 8212 8212 8212 8212 8212 8212 8212 8212 8212 8212 8212 8212 8212 8212 8212 8019 8019 7835 4983 4983 5056 5132 4983 4983 4983 4983 4983 4983 4983 5056 5132 5132 5210 5210 5210 5210 5291 5291 5291 5374 5374 5374 5460 5548 5548 8413 8413 8212 8212 8212 8212 8212 8212 8212 8413 5933 5933 5832 5832 5832 5832 5832 5933 5933 5933 5832 5832 5933 5933 5933 5933 5933 5933 5933 5933 5832 5832 5832 7835 7835 7835 7835 7835 7835 7835 7835 7835 8019 7835 7835 7835 7835 7835 7835 7835 7835 7835 8019 8019 3269 3269 3269 3269 3269 3269 3269 3300 3300 3300 3300 3300 3300 3300 3300 3300 3269 3269 3269 3269 3269 3269 3238 3238 3238 3238 3238 3238 3238 3238 3208 3208 3208 3208 3238 3238 3208 3208 3208 3238 3238 3238 3238 3238 3238 3238 3238 3238 3238 3238 3238 3238 3238 3238 3208 3208 3208 3178 3178 3178 3178 3149 3149 3149 3149 3149 3149 3149 3120 3120 3120 3120 3120 3092 3092 3092 3092 3092 3092 3092 3092 3092 3120 3120 3149 3178 3178 3208 3208 3238 3238 3238 3238 3238 0 0 0 0 0 0 0 3120 3092 3092 3120 3120 3120 3149 3178 3178 0 0 0 0 0 3092 3092 3092 3120 3149 3149 3149 3149 3149 3149 3149 4089 4089 4139 4139 4139 4139 4139 4139 4139 4190 4190 4139 4139 4089 4089 4041 4041 4041 4041 4041 4041 4041 4041 4041 4041 4041 4041 4041 4041 4041 6889 6889 6497 6497 6497 6375 6375 6375 6259 6259 6259 6259 6259 6259 6259 6259 6259 6259 6259 6259 6375 6259 6259 6259 6259 6259 6259 6146 6146 6259 6259 6259 6259 6259 6259 6259 6259 6259 6259 6259 6259 6259 6259 6375 6375 6375 6375 6375 6375 6375 6497 6375 6259 6146 6038 6038 6038 6038 6038 6146 6146 6146 6146 6259 6146 6146 6146 6146 6146 6146 6146 6146 6146 6146 6146 6038 6038 6038 6146 6146 6259 6259 6259 6375 6259 6259 6259 6146 6146 6146 6146 6259 6259 6259 6259 6375 6375 6375 6497 6497 6497 6497 6497 6497 6497 6497 6497 6497 6622 6622 6622 6622 6622 6622 0 0 0 0 0 0 0 0 0 0 0 0 0
0 0 0 0 0 0 0 0 0 0 0 0 0 0 0 0 0 0 0 0 0 0 0 0 0 0 0 0 0 0 0 0 0 0 0 0 0 0 0 0 0 0 0 0 7332 7332 6259 6259 6259 6259 6259 0 0 0 0 0 0 0 0 0 0 0 0 0 0 0 0 0 0 0 0 0 0 0 0 7492 7492 7492 7835 7835 8019 8019 8019 8019 7835 7835 7835 7835 8019 8019 8019 8019 8212 8212 8019 8019 8019 8019 8212 8019 8019 8019 8019 8019 8019 8019 8019 8212 8626 8849 8849 8413 8212 8019 7835 7835 7835 7835 7835 7835 7835 7835 7835 7835 7835 7835 7835 7835 7835 8019 8019 7835 7835 7835 7835 7835 8019 8019 8019 8212 8212 8212 8212 8212 8212 8413 8413 8413 8413 8413 8413 8212 8212 8212 7835 7835 7660 7660 7660 7660 7660 7660 7660 7660 7660 7492 7492 7492 7660 7660 5291 5291 5291 5291 5291 5291 5291 5291 5291 5374 5374 5374 5374 5374 5460 5460 5460 5460 5460 5460 5548 5548 5548 5548 5548 5548 5640 5640 5640 5640 5640 5640 5734 5734 5734 5734 5734 0 0 0 0 0 0 0 5132 5132 5132 5210 5210 5210 5291 5291 5291 5291 5291 5291 5291 5291 5291 5291 5291 5291 5291 5291 5291 5374 0 0 0 0 0 0 0 0 0 8212 8212 8413 8212 8212 8212 8212 8212 8212 8212 8212 8212 8212 8212 8212 8212 8212 8212 8212 8212 8212 8212 8212 8212 8212 8212 8212 8212 8019 8019 7835 5056 5056 5056 5056 5056 5056 5056 5132 5056 5056 5056 5132 5132 5210 5210 5210 5210 5210 5291 5291 5291 5291 5291 5374 5374 5460 5548 8413 8413 8212 8212 8212 8212 8212 8413 8413 5933 5933 5933 5832 5832 5832 5832 5832 5933 5933 5933 5832 5832 5933 5933 5933 5933 5933 5933 5933 5933 5832 5832 5832 5832 7835 7835 7835 8019 8019 8019 8019 8019 8019 7835 7835 3238 3238 3238 3238 7835 7835 7835 7835 3238 3238 3238 3269 3269 3269 3269 3269 3300 3300 3300 3300 3300 3300 3300 3300 3269 3269 3269 3269 3269 3269 3269 3238 3238 3269 3269 3269 3238 3238 3238 3208 3208 3208 3208 3238 3238 3238 3238 3238 3238 3238 3238 3238 3238 3238 3238 3238 3238 3238 3238 3238 3238 3238 3238 3208 3208 3208 3178 3178 3178 3178 3149 3149 3149 3149 3149 3149 3149 3120 3120 3120 3120 3120 3120 3092 3092 3092 3092 3092 3092 3092 3092 3120 3149 3149 3178 3178 3208 3208 3238 3238 3238 3238 3238 0 0 0 0 0 0 0 3120 3092 3092 3120 3120 3120 3149 3178 3178 0 0 3092 3092 3092 3092 3092 3092 3120 3149 3149 3149 3120 3120 3120 3120 4089 4089 4089 4139 4139 4139 4139 4139 4139 4190 4139 4139 4139 4089 4089 4041 4041 4089 4041 4041 4041 4041 4041 4041 4041 4041 4089 4041 4041 4041 6889 6889 6497 6375 6375 6375 6375 6259 6259 6259 6146 6146 6146 6146 6146 6259 6259 6259 6259 6259 6259 6146 6146 6146 6146 6038 6038 6146 6146 6146 6146 6146 6259 6259 6259 6259 6259 6259 6259 6259 6259 6259 6259 6375 6375 6375 6375 6497 6497 6497 6375 6375 6259 6146 6038 6038 5933 5933 6038 6146 6146 6146 6146 6259 6146 6146 6146 6146 6146 6146 6146 6146 6146 6146 6038 6038 6038 6038 6146 6146 6259 6259 6259 6375 6259 6259 6146 6146 6146 6146 6146 6259 6259 6259 6259 6375 6375 6375 6497 6497 6497 6497 6497 6497 6497 6497 6497 6497 6497 6622 6622 6753 6753 6753 0 0 0 0 0 0 0 0 0 0 0 0 0
0 0 0 0 0 0 0 0 0 0 0 0 0 0 0 0 0 0 0 0 0 0 0 0 0 0 0 0 0 0 0 0 0 0 0 0 0 0 0 0 0 0 0 6146 6259 6259 6146 6146 6146 6146 6146 6146 6146 0 0 0 0 0 0 0 0 0 0 0 0 0 0 0 0 0 0 0 0 0 0 0 0 0 0 8019 8019 8019 8019 8019 7835 7835 7835 7835 7835 8212 8019 8019 8019 8019 8019 8019 8019 8019 8212 8212 8019 8019 8019 8019 8019 8019 8019 8212 8849 8849 8849 8212 8019 7835 7660 7660 7660 7660 7660 7660 7835 7835 7835 7835 7835 7835 7835 7835 7835 7835 8019 7835 7835 7835 7835 7835 8019 8019 8019 8212 8212 8212 8212 8413 8413 8413 8413 8413 8413 8413 8413 8212 8212 8212 7835 7835 7660 7660 7660 7660 7660 7660 7660 7660 7492 7492 7492 7492 7492 5291 5291 5291 5291 5291 5291 5291 5291 5291 5374 5374 5374 5374 5374 5374 5374 5460 5460 5460 5460 5460 5548 5548 5548 5548 5548 5548 5548 5640 5640 5640 5640 5640 5734 5734 5734 5734 5734 0 0 0 0 0 0 0 5132 5132 5132 5210 5210 5210 5291 5291 5291 5291 5291 5291 5291 5291 5291 5291 5291 5291 5374 5374 5374 0 0 0 0 0 0 0 0 0 8212 8212 8212 8413 8212 8212 8212 8413 8413 8212 8212 8212 8212 8212 8212 8413 8413 8413 8212 8212 8212 8212 8212 8212 8212 8212 8212 8019 8019 7835 4983 4983 4983 5056 5056 5056 5056 5056 5056 5132 5132 5132 5132 5132 5210 5210 5210 5210 5210 5210 5291 5291 5291 5291 5291 5374 5374 5460 5460 8413 8413 8212 8212 8212 8212 8212 8413 5933 5933 5933 5933 5933 5832 5832 5933 5933 5933 5933 5933 5832 5832 5933 5933 5933 5933 5933 5933 5933 5933 5832 5832 5832 3365 8019 8019 8019 3333 3333 8019 8019 3238 3238 3238 3238 3238 3238 3238 3238 3238 8019 8019 3300 3300 3238 3238 3269 3269 3300 3300 3300 3300 3300 3300 3300 3269 3238 3238 3269 3269 3269 3269 3269 3269 3269 3269 3269 3269 3269 3269 3238 3238 3238 3238 3208 3208 3208 3208 3238 3238 3238 3238 3238 3238 3238 3238 3238 3238 3238 3238 3238 3238 3238 3238 3238 3238 3238 3238 3208 3208 3178 3178 3178 3178 3178 3149 3149 3149 3149 3149 3149 3149 3120 3120 3120 3120 3120 3120 3092 3092 3092 3092 3092 3092 3092 3092 3120 3149 3149 3178 3178 3208 3208 3238 3238 3238 3238 3238 0 0 0 0 0 0 0 3120 3120 3149 3149 3120 3120 3149 3178 3178 3178 3178 3092 3092 3149 3120 3092 3092 3120 3120 3120 3120 3120 3120 3120 3120 4089 4089 4089 4139 4139 4139 4139 4139 4139 4190 4139 4139 4139 4089 4089 4089 4089 4089 4089 4041 4041 4041 4041 4041 4041 4089 4089 4089 4089 4089 4190 6889 6259 6259 6375 6259 6259 6259 6146 6146 6146 6146 6146 6146 6146 6146 6146 6146 6146 6146 6259 6146 6038 6038 6038 6038 6038 6038 6038 6146 6146 6146 6146 6146 6146 6146 6146 6146 6259 6259 6259 6259 6259 6375 6375 6375 6375 6497 6497 6497 6375 6375 6146 6146 6038 6038 5933 5933 6146 6146 6259 6259 6259 6259 6259 6146 6146 6146 6146 6146 6146 6146 6146 6146 6038 6038 6038 6038 6146 6146 6259 6259 6259 6259 6146 6146 6146 6038 6038 6146 6146 6259 6259 6259 6259 6375 6375 6375 6375 6375 6375 6375 6375 6375 6497 6497 6497 6375 6375 6497 6497 6622 6497 6497 0 0 0 0 0 0 0 0 0 0 0 0 0
0 0 0 0 0 0 0 0 0 0 0 0 0 0 0 0 0 0 0 0 0 0 0 0 0 0 0 0 0 0 0 0 0 0 0 0 0 0 0 0 0 0 0 0 6146 6038 6038 6038 6038 6038 6038 6038 6146 0 0 0 0 0 0 0 0 0 0 0 0 0 0 0 0 0 0 0 0 0 0 0 0 0 0 0 0 0 0 0 0 0 0 0 0 0 8019 8019 8019 8019 8019 8019 8019 8019 8019 5374 5640 8212 8212 8212 8212 8212 9331 9331 9331 9084 8849 8212 8019 7492 7492 7492 7492 7492 7660 7660 7660 7660 7660 7660 7660 7835 7835 7835 7835 7835 8019 7835 7835 7835 7835 8019 8019 8019 8019 8212 8212 8212 8413 8626 8626 8849 8626 8626 8626 8626 8626 8413 8212 8212 8019 7835 7835 7660 7660 7660 7660 7660 7660 7492 7492 7492 7492 7492 7492 5291 5291 5291 5291 5374 5374 5374 5374 5374 5374 5374 5374 5291 5291 5291 5374 5374 5374 5460 5460 5548 5548 5548 5548 5548 5548 5548 5548 5640 5640 5640 5640 5734 5734 5734 5734 5734 5734 5832 0 0 0 0 0 0 5210 5210 5210 5210 5210 5210 5291 5291 5291 5291 5291 5291 5291 5374 5291 5291 5291 5374 5374 5374 0 0 0 0 0 0 0 0 0 8019 8019 8212 8212 8413 8413 8413 8413 8413 8413 8413 8212 8212 8413 8413 8413 8413 8212 8212 8212 8212 8212 8212 8212 8212 8212 8212 8212 8019 8019 4983 4983 4983 4983 5056 5132 5132 5132 5132 5132 5132 5132 5132 5132 5210 5210 5210 5210 5210 5210 5210 5291 5291 5291 5291 5291 5291 5374 5460 5460 8413 8413 8413 8212 8212 8212 8413 5832 5832 5933 5933 5933 5933 5832 5832 5933 5933 5933 5933 5933 5832 5832 5832 5933 5933 5933 5933 5933 5933 5933 5832 5832 3365 3365 3365 3333 3333 3333 3300 3300 3269 3238 3238 3238 3238 3238 3238 3238 3238 3238 3238 3238 3208 3208 3238 3238 3238 3238 3269 3269 3269 3269 3269 3269 3238 3238 3208 3208 3238 3238 3238 3238 3238 3269 3269 3269 3269 3269 3269 3269 3238 3238 3238 3238 3208 3208 3208 3208 3208 3238 3238 3238 3238 3238 3238 3238 3238 3238 3238 3238 3238 3238 3238 3238 3238 3208 3208 3238 3208 3208 3178 3178 3178 3178 3178 3149 3149 3149 3149 3149 3149 3149 3120 3120 3120 3120 3120 3120 3120 3092 3092 3092 3092 3092 3092 3092 3120 3149 3149 3178 3178 3208 3208 3208 3238 3238 3238 3238 0 0 0 0 0 0 0 3120 3120 3120 3120 3120 3120 3149 3178 3178 3178 3178 3178 3178 3149 3120 3120 3120 3120 3120 3120 3120 3149 3149 3149 4139 4089 4089 4139 4139 4139 4139 4139 4139 4139 4190 4139 4139 4139 4139 4089 4089 4089 4089 4089 4041 4041 4041 4041 4041 4089 4089 4089 4089 4139 4139 4190 6753 6146 6146 6259 6259 6259 6146 6146 6146 6146 6146 6146 6038 6038 6146 6146 6146 6146 6146 6146 6146 6038 6038 6038 6038 6038 6038 6038 6038 6146 6146 6146 6146 6146 6146 6146 6146 6146 6146 6259 6259 6259 6375 6375 6375 6375 6497 6497 6375 6259 6259 6146 6146 6038 6038 6038 6038 6146 6146 6259 6259 6259 6259 6259 6146 6146 6146 6146 6259 6259 6259 6259 6146 6146 6038 6038 6038 6146 6146 6146 6259 6259 6259 6146 6146 6038 6038 6038 6038 6146 6146 6146 6146 6259 6375 6375 6375 6375 6375 6375 6375 6375 6375 6497 6497 6375 6375 6375 6375 6259 6259 6375 6375 0 0 0 0 0 0 0 0 0 0 0 0 0
0 0 0 0 0 0 0 0 0 0 0 0 0 0 0 0 0 0 0 0 0 0 0 0 0 0 0 0 0 0 0 0 0 0 0 0 0 0 0 0 0 0 0 6038 6038 6038 6038 5933 5933 5933 5933 5933 0 0 0 0 0 0 0 0 0 0 0 0 0 0 0 0 5734 5734 5734 5832 5832 5933 5933 5933 0 0 0 0 0 0 0 0 0 0 0 0 0 5832 5832 5832 5832 5734 5640 5640 5640 0 0 0 0 5640 5640 5640 5640 5460 9331 9331 9331 9331 9331 9331 7492 7492 7492 7492 7492 7492 7660 7660 7660 7660 7660 7660 7660 7835 7835 7660 7660 7835 8019 7835 7835 7835 7835 8019 8019 8019 8019 8212 8212 8212 0 8849 8849 8849 8626 8626 8626 8626 8626 8413 8413 8212 8212 8019 7835 7660 7660 7660 7492 7492 7492 7492 7492 7332 7332 7492 7332 7332 5374 5374 5374 5374 5374 5374 5374 5374 5374 5374 5374 5291 5291 5291 5374 5374 5374 5460 5460 5548 5548 5548 5548 5548 5548 5548 5548 5640 5640 5640 5640 5734 5734 5734 5734 5734 5734 5832 5832 0 0 0 0 0 5210 5210 5210 5210 5210 5210 5291 5291 5291 5291 5291 5291 5374 5374 5291 5291 5291 5374 5374 0 0 0 0 0 0 0 0 0 0 8019 8019 8019 8212 8212 8413 8212 8212 8413 8413 8212 8212 8212 8413 8413 8413 8413 8212 8212 8212 8212 8212 8212 8212 8212 8212 8212 8212 8212 8212 4983 4983 5056 5056 5056 5132 5132 5132 5132 5132 5132 5132 5132 5210 5210 5210 5210 5210 5210 5210 5210 5291 5291 5291 5291 5291 5291 5374 5460 5460 8413 8413 8413 8212 8212 8212 5933 5832 5832 5933 5933 5933 5933 5832 5832 5933 5933 5933 5933 5933 5832 5832 5832 5933 5933 5933 5933 5933 5933 5933 5832 5832 3365 3365 3333 3333 3333 3300 3300 3269 3238 3238 3238 3238 3238 3238 3238 3238 3238 3238 3208 3208 3208 3208 3238 3238 3238 3238 3238 3238 3238 3238 3238 3238 3178 3178 3178 3178 3178 3178 3178 3208 3238 3238 3238 3269 3238 3238 3269 3269 3238 3238 3208 3208 3208 3208 3208 3178 3178 3238 3238 3269 3269 3238 3238 3238 3238 3238 3238 3238 3238 3238 3238 3208 3208 3208 3208 3208 3208 3178 3178 3178 3178 3178 3178 3149 3149 3149 3149 3178 3149 3149 3149 3149 3120 3120 3120 3120 3120 3092 3092 3092 3092 3092 3092 3092 3120 3149 3149 3149 3178 3178 3208 3208 3208 3208 3208 3208 0 0 0 3208 3208 3178 3149 3120 3120 3120 3120 3120 3120 3149 3178 3178 3178 3178 3178 3149 3149 3120 3120 3120 3149 3149 3149 3149 3149 3149 4139 4139 4139 4139 4139 4139 4139 4139 4139 4139 4139 4190 4139 4139 4139 4139 4089 4089 4089 4089 4089 4089 4089 4089 4089 4089 4089 4089 4139 4139 4139 4190 6753 6753 6146 6146 6146 6146 6146 6146 6146 6146 6146 6146 6146 6038 6038 6038 6038 6038 6038 6038 6146 6038 6038 6038 6038 5933 5933 6038 6038 6038 6038 6146 6146 6146 6038 6038 6038 6038 6146 6146 6146 6259 6259 6375 6375 6375 6375 6375 6375 6375 6259 6146 6146 6146 6038 6038 6038 6038 6038 6146 6259 6146 6146 6146 6259 6146 6146 6146 6146 6146 6146 6146 6146 6146 6146 6038 6038 6038 6146 6146 6146 6259 6146 6146 6146 6146 6038 6038 6038 6038 6038 6146 6146 6146 6146 6259 6259 6375 6375 6375 6375 6375 6375 6375 6375 6375 6375 6375 6375 6375 6259 6259 6375 6375 0 0 0 0 0 0 0 0 0 0 0 0 0
0 0 0 0 0 0 0 0 0 0 0 0 0 0 0 0 0 0 0 0 0 0 0 0 0 0 0 0 0 0 0 0 0 0 0 0 5640 5640 0 0 0 5933 5933 5933 5933 6038 6038 5933 5933 5933 5933 5933 5933 0 0 0 0 0 0 0 0 0 0 0 0 0 5734 5734 5734 5734 5734 5832 5832 5933 5933 5933 6038 6259 0 0 0 0 0 0 0 0 0 0 0 5832 5832 5832 5832 5734 5640 5640 5640 5640 5374 5374 5374 5640 5640 5640 5640 5460 5548 9593 9593 9593 9593 0 7492 7492 7492 7492 7332 7332 7660 7660 7660 7660 7660 7660 7660 7835 7835 7660 7660 7835 8019 7835 7835 7835 7835 8019 8019 8019 8413 8413 8413 8413 8413 9084 9084 9084 8849 8849 8849 8849 8626 8413 8413 8413 8212 8019 7835 7660 7660 7660 7492 7492 7492 7492 7492 7332 7332 7492 7332 7332 5374 5374 5374 5374 5374 5374 5374 5374 5374 5374 5291 5291 5291 5374 5374 5374 5374 5374 5374 5460 5460 5548 5548 5548 5548 5548 5548 5640 5640 5640 5640 5734 5734 5832 5734 5734 5734 5734 5832 0 0 0 0 0 5210 5210 5210 5210 5210 5210 5291 5291 5291 5291 5291 5291 5374 5374 5291 5291 5291 5374 5374 0 0 0 0 0 0 0 0 0 0 8019 8019 8019 8212 8212 8212 8212 8212 8212 8212 8212 8212 8212 8212 8413 8413 8212 8212 8413 8212 8212 8212 8212 8212 8212 8212 8212 8212 8212 8212 5210 5132 5132 5132 5132 5132 5132 5132 5132 5132 5210 5210 5210 5210 5210 5291 5291 5291 5291 5291 5291 5291 5291 5374 5374 5460 5460 5460 5460 5460 8413 8413 8413 8413 8413 8413 5933 5933 5933 5933 5933 5933 5933 5933 5933 5933 5933 5933 5933 5933 5933 5933 5933 5933 5933 5933 5933 5933 5933 5832 5734 5734 3365 3365 3333 3333 3333 3300 3300 3269 3238 3238 3238 3238 3238 3238 3208 3208 3208 3208 3208 3208 3208 3208 3208 3178 3178 3178 3178 3149 3149 3149 3149 3149 3120 3120 3149 3149 3149 3149 3149 3178 3208 3208 3208 3238 3238 3238 3238 3238 3238 3238 3208 3178 3178 3178 3149 3120 3120 3120 3120 3064 3208 3208 3208 3238 3238 3238 3238 3208 3208 3208 3208 3208 3208 3178 3178 3208 3178 3178 3178 3178 3178 3178 3178 3149 3149 3149 3149 3149 3149 3120 3120 3120 3120 3092 3092 3120 3120 3120 3120 3092 3092 3092 3092 3092 3092 3149 3149 3149 3178 3178 3208 3208 3208 3208 3208 3208 3238 3238 3208 3208 3178 3120 3120 3120 3120 3120 3120 3120 3120 3149 3178 3178 3178 3149 3149 3149 3149 3120 3120 3120 3149 3149 3149 3149 3178 3178 4139 4139 4139 4139 4139 4139 4139 4139 4139 4139 4139 4190 4139 4139 4139 4139 4089 4089 4089 4089 4089 4089 4089 4089 4089 4089 4089 4089 4139 4139 4190 4190 4190 6259 6146 6146 6038 6038 6038 6038 6038 6038 6038 6038 6038 6038 6038 5933 5933 5933 5933 5933 5933 5933 5832 5832 5832 5832 5832 5832 5832 5832 5933 5933 6038 6038 6038 6038 6038 6038 6146 6146 6146 6259 6259 6259 6259 6259 6259 6259 6259 6259 6146 6146 6038 6038 6038 6038 6038 6038 6038 6038 6146 6146 6146 6146 6146 6146 6146 6146 6146 6146 6146 6146 6038 6038 6038 6038 6038 6038 6038 6038 6038 6146 6146 6146 6146 6038 6038 6038 6038 6038 6038 6038 6038 6038 6146 6259 6259 6375 6375 6375 6375 6375 6375 6375 6375 6375 6375 6375 6375 6375 6375 6497 6497 6497 0 0 0 0 0 0 0 0 0 0 0 0 0
0 0 0 0 0 0 0 0 0 0 0 0 0 0 0 0 0 0 0 0 0 0 0 0 0 0 0 0 0 0 0 0 0 0 0 0 5640 5640 5734 6146 6259 5933 5933 5933 5933 6038 6038 5933 5933 6038 6038 5933 5933 6038 0 0 0 0 0 0 0 0 0 0 0 0 5734 5734 5734 5832 5832 5832 5832 5933 5933 5933 6038 6146 0 0 0 0 0 0 0 0 0 0 0 5832 5832 5734 5734 5734 5640 5640 5640 5640 5374 5374 5374 5374 5460 5460 5460 5460 5548 5548 0 0 0 0 0 0 0 0 7332 7332 7332 0 7332 3333 0 0 3433 8212 8212 8212 8212 8212 8212 8212 8212 8212 8212 3468 0 0 0 0 0 0 0 3614 0 8849 8849 8849 8626 8626 8626 8413 8413 8413 8212 8019 7660 7660 7660 7660 7660 7492 7332 7332 7492 7332 7332 7492 7332 7332 7332 5291 5291 5374 5374 5374 5374 5374 5374 5374 5291 5291 5291 5374 5374 5374 5374 5374 5374 5460 5460 5548 5548 5548 5548 5548 5548 5640 5640 5640 5734 5734 5734 5734 5734 5734 5734 5734 5734 0 5640 0 0 0 5210 5210 5210 5210 5210 5210 5291 5291 5291 5291 5291 5291 5374 5374 5291 5291 5291 5374 5374 0 0 0 0 0 0 0 0 0 0 0 8019 8019 8212 8212 8212 8212 8212 8212 8212 8212 8212 8212 8212 8212 8212 8212 8212 8413 8212 8212 8212 8212 8212 8212 8413 8413 8413 8413 5210 5210 5210 5132 5132 5132 5210 5132 5132 5132 5132 5210 5210 5210 5210 5291 5291 5291 5291 5291 5291 5291 5374 5374 5374 5460 5460 5460 5460 5460 5460 8413 8413 8413 8413 8413 8413 5933 5933 5933 5933 5933 5933 5933 5933 5933 5933 5933 6038 5933 5933 5933 5933 5933 5933 5933 5933 5933 5933 5832 5832 5734 5734 3365 3365 3333 3333 3333 3300 3269 3269 3238 3238 3238 3238 3238 3238 3208 3208 3208 3208 3208 3208 3208 3208 3208 3178 3178 3178 3178 3149 3149 3149 3149 3120 3120 3120 3120 3120 3120 3120 3149 3149 3149 3149 3149 3149 3149 3149 3149 3149 3149 3149 3120 3120 3120 3120 3092 3092 3092 3064 3064 3064 3120 3120 3120 3178 3178 3178 3178 3178 3178 3149 3149 3149 3149 3149 3149 3149 3149 3149 3149 3149 3149 3149 3120 3120 3120 3092 3092 3120 3092 3092 3092 3092 3092 3092 3092 3092 3092 3092 3092 3092 3092 3092 3092 3092 3092 3120 3120 3120 3149 3178 3178 3178 3149 3149 3178 3178 3178 3178 3178 3178 3178 3120 3120 3120 3120 3092 3092 3092 3092 3120 3149 3149 3149 3149 3149 3149 3149 3149 3149 3092 3092 3092 3149 3149 3149 3149 4139 4139 4139 4139 4139 4139 4139 4139 4139 4139 4139 4190 4190 4190 4190 4139 4139 4089 4089 4089 4089 4089 4089 4089 4089 4089 4089 4089 4139 4139 4190 4241 6146 6146 6146 6038 6038 6038 6038 6038 6038 6038 6038 6038 6038 6038 6038 5933 5933 5933 5933 5933 5933 5933 5832 5832 5832 5832 5832 5832 5832 5832 5832 5832 5832 5933 5933 5933 6038 6038 6038 6146 6146 6259 6259 6259 6259 6259 6259 6259 6259 6146 6146 6146 6038 6038 6038 6038 6038 6038 6038 6038 6038 6146 6038 6038 6146 6146 6146 6038 6038 6038 6038 6038 6038 5933 5933 5933 5933 5933 5933 5933 5933 6038 6038 6038 6038 6038 6038 6038 5933 5933 6038 6038 6038 6038 6146 6259 6259 6375 6375 6375 6375 6375 6375 6375 6375 6375 6375 6375 6375 6497 6497 6622 6622 6622 0 0 0 0 0 0 0 0 0 0 0 0 0
0 0 0 0 0 0 0 0 0 0 0 0 0 0 0 0 0 0 0 0 0 0 0 0 0 0 0 0 0 0 0 0 0 0 0 0 5734 5734 5734 6146 6259 6259 5933 5933 5933 6038 6038 6038 6038 6038 6038 5933 5933 6038 6146 6146 6038 6038 6146 0 0 0 0 0 0 0 5734 5734 5734 5734 5832 5832 5832 5832 5933 5933 5933 5933 5832 5832 5832 0 0 3092 3092 0 0 0 0 0 5832 5734 5734 5640 5548 5548 5548 5548 5374 5374 5374 5374 5460 5460 5460 5460 5460 5548 5548 5548 5734 0 0 0 0 0 0 3333 3333 0 0 0 0 0 0 0 0 3399 3399 3399 3433 3433 3433 0 0 0 0 0 0 0 0 0 0 0 0 0 8626 8626 8626 8626 8626 8413 8413 8413 8212 8019 7492 7492 7660 7660 7492 7492 7332 7332 7332 7332 7332 7332 7332 7332 7332 5210 5210 5291 5374 5374 5374 5374 5374 5374 5374 5374 5374 5374 5374 5374 5374 5374 5374 5460 5548 5548 5548 5548 5548 5548 5548 5548 5548 5640 5734 5734 5734 5734 5734 5734 5640 5640 5640 5640 5640 0 0 0 5291 5210 5210 5210 5210 5210 5291 5291 5291 5291 5291 5291 5291 5291 5291 5291 5291 5374 0 0 0 0 0 0 0 0 0 0 0 0 8019 8019 8212 8019 8019 8019 8019 8019 8212 8019 8019 8212 8212 8212 8212 8212 8212 8212 8212 8212 8212 8212 8212 8212 8413 8413 8413 8413 5210 5210 5210 5210 5210 5210 5210 5132 5132 5132 5132 5210 5210 5210 5291 5291 5291 5291 5291 5291 5291 5374 5374 5374 5374 5460 5460 5548 5460 5460 5460 8413 8413 8413 8413 8413 5832 5832 5933 5933 5933 5933 5933 5933 5933 5933 5933 5933 6038 5933 5933 5933 5933 5933 5933 5933 5933 5933 5933 5832 5832 5734 5734 3365 3365 3333 3333 3333 3300 3269 3269 3238 3238 3238 3238 3238 3238 3208 3208 3208 3238 3208 3208 3238 3238 3238 3208 3208 3208 3208 3149 3149 3120 3120 3120 3120 3120 3120 3120 3120 3120 3120 3120 3120 3120 3120 3120 3120 3120 3120 3120 3120 3120 3120 3120 3092 3092 3092 3092 3092 3064 3064 3064 3092 3092 3092 3120 3120 3120 3149 3149 3149 3120 3120 3120 3120 3120 3092 3092 3092 3092 3092 3092 3092 3120 3120 3092 3064 3037 3010 3010 3037 3064 3064 3064 3064 3064 3064 3064 3064 3064 3092 3092 3092 3092 3092 3092 3092 3092 3092 3120 3120 3149 3149 3149 3092 3092 3064 3064 3092 3092 3092 3120 3120 3120 3120 3092 3092 3092 3092 3092 3092 3092 3120 3120 3149 3149 3120 3120 3120 3120 3092 3092 3092 3092 3092 3092 3092 3092 3149 3149 3149 4139 4190 4139 4139 4190 4139 4139 4139 4190 4190 4190 4190 4139 4139 4089 4089 4089 4089 4089 4089 4089 4089 4089 4089 4089 4139 4139 4190 4295 6146 6146 6038 6038 6038 6038 6038 6038 6038 6038 6038 6038 6038 6038 6038 5933 5933 5933 5933 5933 5933 5832 5832 5832 5832 5832 5832 5832 5832 5832 5832 5734 5734 5832 5832 5832 5933 5933 6038 6146 6146 6259 6259 6259 6259 6259 6259 6146 6146 6146 6146 6146 6038 6038 6038 6038 6038 6038 6038 6038 6038 6038 6038 6038 6038 6038 6038 6038 6038 6038 6038 6038 5933 5933 5933 5933 5933 5933 5933 5933 5933 5933 6038 6038 6038 6038 6038 6038 5933 5933 6038 6038 6038 6038 6146 6259 6259 6375 6375 6375 6375 6375 6375 6375 6375 6375 6375 6375 6375 6497 6497 6497 6622 6622 0 0 0 0 0 0 0 0 0 0 0 0 0
0 0 0 0 0 0 0 0 0 0 0 0 0 0 0 0 0 0 0 0 0 0 0 0 0 0 0 0 0 0 0 0 0 0 0 0 0 0 6259 6259 6375 6259 6259 5933 5933 6038 5933 5933 5933 6038 6038 6038 6038 6146 6038 6038 6038 6038 6038 0 0 0 0 0 0 5832 5734 5734 5734 5734 5832 5832 5832 5832 5933 5933 5933 5933 5832 5832 5832 0 3092 3092 3092 3092 3092 3092 5933 5933 5832 5734 5734 5640 5548 5548 5548 5548 5374 5374 5374 5374 5460 5460 5460 5460 5460 5548 5548 5734 0 0 0 0 0 0 0 0 0 0 3333 3333 0 0 3433 3433 3433 3399 0 0 0 0 3433 3433 3468 3468 0 0 0 0 0 0 0 3614 0 3614 3653 3653 8849 8849 8626 8413 6146 6146 6146 6497 6497 6889 7492 7178 7178 7332 7332 7332 7332 7332 7332 7332 7332 7492 7492 5210 5210 5210 5291 5291 5374 5374 5374 5374 5291 5291 5374 5374 5374 5374 5374 5374 5374 5460 5548 5640 5548 5548 5548 5548 5548 5548 5548 5640 5640 5734 5734 5734 5734 5734 5640 5640 5640 5640 5640 5640 5291 0 5210 5210 5210 5291 5210 5210 5291 5291 5291 5291 5291 5291 5291 5291 5291 5291 5291 5291 0 0 0 0 0 0 0 0 0 0 0 0 8019 8019 8019 8019 8019 8019 8019 8019 8212 8019 8019 8212 8212 8212 8212 8212 8212 8212 8212 8212 8212 8212 8212 8212 8413 8413 8413 8413 5210 5210 5210 5210 5210 5210 5210 5132 5132 5132 5132 5210 5210 5210 5291 5291 5291 5291 5291 5291 5291 5374 5374 5374 5460 5460 5548 5460 5460 5460 5374 5374 8413 8413 8413 8413 5832 5832 5933 5933 5933 5933 5933 5933 5933 5933 5933 5933 6038 6038 6038 5933 5933 5933 5933 5933 5933 5933 5933 5933 5933 5933 7660 7660 7660 7835 7835 7835 7835 3269 3269 3238 3238 3238 3238 3238 3238 3208 3208 3208 3208 3208 3208 3238 3238 3269 3269 3269 3238 3238 3149 3149 3120 3120 3120 3120 3120 3120 3120 3120 3120 3120 3120 3120 3120 3120 3120 3120 3120 3120 3120 3120 3120 3120 3120 3092 3092 3092 3092 3064 3064 3064 3064 3064 3064 3064 3092 3092 3092 3092 3092 3092 3092 3092 3092 3092 3092 3064 3064 3037 3037 3037 3064 3064 3064 3064 3037 3037 3037 3010 3010 3037 3064 3064 3064 3064 3064 3064 3064 3064 3064 3064 3064 3064 3064 3064 3064 3092 3064 3064 3092 3092 3092 3092 3064 3064 3064 3037 3037 3064 3064 3064 3092 3092 3092 3092 3064 3064 3064 3064 3064 3064 3092 3092 3092 3120 3120 3120 3092 3092 3092 3064 3064 3064 3092 3092 3092 3092 3120 3120 3149 3149 3149 4190 4190 4190 4190 4190 4190 4190 4190 4190 4190 4190 4139 4139 4139 4139 4139 4139 4139 4139 4139 4139 4139 4139 4139 4190 4241 4295 4295 6146 6146 6038 6038 6038 6038 6038 6038 6038 6038 6038 6038 6038 6038 5933 5933 5933 5933 5933 5933 5832 5832 5832 5832 5832 5832 5832 5832 5734 5734 5832 5734 5734 5734 5832 5832 5933 5933 6038 6146 6146 6146 6259 6259 6259 6259 6146 6146 6146 6146 6038 6038 6038 6038 6038 6038 6038 6038 5933 5933 6038 5933 5933 5933 6038 6038 6038 6038 6038 6038 6038 5933 5933 5933 5933 5832 5832 5734 5734 5734 5734 5832 5933 5933 5933 6038 6038 6038 5933 5933 5933 5933 5933 6038 6038 6146 6259 6259 6375 6375 6375 6375 6375 6375 6375 6375 6375 6375 6375 6497 6497 6497 6497 6497 0 0 0 0 0 0 0 0 0 0 0 0 0
0 0 0 0 0 0 0 0 0 0 0 0 0 0 0 0 0 0 0 0 0 0 0 0 0 0 0 0 0 0 0 0 0 0 0 0 0 0 0 0 0 0 5933 5933 5933 6038 5933 5933 5933 6038 2835 2835 6038 6146 6038 6038 6038 6038 5933 5933 5933 5832 5832 5832 5832 5832 5734 5734 5734 5734 5832 5832 5832 5832 5933 5832 5832 5832 5832 5734 5734 5734 3092 3092 3092 3092 3092 3092 3092 5933 5832 5832 5734 5734 5640 5640 5548 5548 5460 5460 5374 5374 5460 5460 5460 5460 5460 5548 5640 5734 5832 0 0 0 0 0 0 3333 3333 3333 3333 3333 3365 3433 3433 3433 3433 3399 3399 3399 3433 3433 3433 3433 3468 3468 3503 3503 3576 3576 3614 3614 3614 3614 3614 3614 3653 3653 3653 6146 6146 6146 6146 6146 6146 6259 6259 6497 6889 6889 7030 7332 7332 7332 7492 7332 7332 7332 7332 7492 7492 7492 5210 5210 5291 5291 5291 5374 5374 5374 5291 5291 5374 5374 5374 5374 5374 5374 5374 5460 5640 5640 5640 5640 5640 5548 5548 5548 5548 5640 5640 5734 5734 5734 5734 5734 5640 5640 5640 5640 5640 5640 5291 5291 5210 5210 5210 5291 5291 5291 5291 5291 5291 5291 5291 5291 5291 5291 5210 5210 5210 5210 0 0 0 0 0 0 0 0 0 0 0 0 0 8019 8019 8019 8019 8019 8019 8019 8019 8019 8019 8019 8212 8212 8212 8212 8212 8212 8212 8212 8212 8212 8212 8212 8413 8413 8413 8413 5210 5132 5132 5132 5132 5132 5132 5132 5132 5132 5210 5210 5210 5291 5291 5291 5291 5291 5291 5291 5291 5374 5374 5374 5374 5460 5548 5460 5460 5460 5374 5374 8413 8413 8413 5832 5832 5933 5933 5933 5933 5933 5933 5933 5933 5933 5933 5933 6038 6038 6038 5933 5933 5933 5933 5933 5933 5933 5933 5933 6038 6038 7660 7660 7660 7835 7835 7835 7660 7660 7835 3238 3238 3238 3238 3238 3238 3208 3208 3208 3208 3208 3208 3269 3269 3300 3300 3300 3300 3300 3300 3178 3149 3149 3120 3120 3120 3120 3120 3120 3120 3120 3120 3120 3092 3092 3092 3092 3120 3120 3120 3120 3120 3092 3092 3092 3092 3064 3064 3064 3064 3064 3064 3064 3064 3064 3092 3092 3092 3092 3092 3092 3092 3092 3092 3064 3064 3037 3037 3010 3010 3010 3037 3037 3010 3010 3010 3010 3010 3010 3010 3010 3037 3037 3010 3010 3037 3037 3037 3037 3037 3037 3064 3064 3064 3064 3064 3064 3064 3064 3064 3064 3064 3064 3010 3010 3037 3010 3010 3037 3037 3037 3064 3064 3064 3064 3064 3064 3064 3064 3064 3064 3092 3092 3092 3120 3120 3092 3092 3092 3064 3064 3064 3064 3064 3064 3092 3092 3120 3120 3149 3149 3120 3120 3120 3120 4295 4241 4190 4190 4190 4241 4190 4190 4139 4139 4139 4190 4190 4190 4190 4190 4190 4139 4139 4139 4139 4190 4241 4295 6146 6146 6038 6038 6038 5933 5933 6038 6038 6038 5933 5933 5933 5933 5933 5933 5933 5933 5933 5933 5933 5832 5832 5832 5832 5832 5832 5832 5832 5734 5734 5832 5734 5734 5734 5832 5832 5933 5933 6038 6146 6146 6146 6259 6146 6146 6146 6146 6038 6038 6038 6038 6038 6038 6038 6038 5933 5933 5933 5933 5933 5933 5933 5933 5933 5933 5933 5933 5933 5933 5933 5933 5933 5832 5832 5832 5832 5734 5640 5640 5640 5734 5832 5933 5933 5933 6038 6038 6038 5933 5933 5933 5933 5933 6038 6038 6146 6259 6259 6375 6375 6375 6375 6375 6375 6375 6375 6375 6375 6375 6375 6375 6497 6497 6497 0 0 0 0 0 0 0 0 0 0 0 0 0
0 0 0 0 0 0 0 0 0 0 0 0 0 0 0 0 0 0 0 0 0 0 0 0 0 0 0 0 0 0 0 0 0 0 0 0 0 0 0 0 0 0 2883 6146 6146 6146 6146 6146 2835 2835 2835 2835 2859 2859 2883 6146 6038 6038 5933 5933 5933 5832 5832 5832 5832 5832 5734 5734 5734 5734 5832 5832 5832 5933 5933 5832 5832 5832 5832 5734 5734 3092 3092 3092 3092 3092 3092 3092 3092 3092 5832 5832 5832 5734 5640 5640 5640 5640 5548 5460 5460 5460 5460 5460 5548 5548 5548 5548 5640 5734 5832 0 0 0 0 0 3333 3333 3333 3333 3333 3333 3365 3365 3433 3399 3399 3399 3399 3399 3399 3399 3399 3399 3468 3468 3468 3468 3468 3468 3576 3576 3539 3539 3576 3576 3614 3653 3653 6146 6146 6146 6038 6038 6146 6146 6259 6259 6375 6622 6889 7178 7332 7332 7492 7492 7492 7492 7492 7492 7492 7492 5132 5132 5210 5291 5291 5291 5374 5374 5374 5374 5374 5374 5374 5374 5374 5374 5460 5460 5548 5640 5640 5640 5640 5640 5640 5548 5548 5640 5640 5734 5734 5734 5734 5734 5640 5640 5548 5548 5548 5374 5291 5291 5210 5210 5210 5291 5291 5291 5291 5291 5291 5291 5291 5291 5291 5291 5210 5210 5210 5210 0 0 0 0 0 0 0 0 0 0 0 0 0 0 0 8019 8019 8019 8019 8019 8019 7835 7835 8019 8019 8212 8212 8212 8212 8212 8212 8212 8212 8212 8212 8212 8212 8212 8212 8212 5210 5132 5132 5132 5132 5132 5132 5132 5132 5132 5210 5210 5210 5291 5291 5291 5291 5291 5291 5291 5291 5374 5374 5374 5374 5460 5460 5460 5460 5460 5460 5460 8413 8413 8413 5832 5832 5933 5933 5933 5933 5933 5933 5933 5933 5933 5933 5933 6038 6038 6038 6038 5933 5933 5933 5933 5933 5933 6038 6038 6038 6038 7660 7660 7660 7835 7835 7835 7660 7660 7660 7660 7332 7332 7492 7660 7660 3208 3208 3238 3208 3208 3238 3269 3300 3300 3300 3300 3333 3333 3333 3333 3208 3208 3433 3468 3433 3149 3149 3120 3120 3120 3120 3120 3092 3092 3092 3092 3120 3120 3120 3092 3092 3092 3092 3092 3092 3064 3064 3064 3064 3064 3064 3064 3064 3064 3092 3064 3064 3064 3064 3092 3092 3092 3092 3064 3064 3037 3037 3010 3010 3010 3010 3010 3010 3010 3010 3010 3010 3010 3010 3010 3010 3010 3010 3010 3010 3010 3010 3010 3010 3037 3037 3037 3037 3037 3037 3037 3037 3037 3037 3037 3037 3037 3010 3010 3010 3010 3010 3037 3037 3037 3064 3064 3064 3064 3064 3064 3064 3064 3064 3064 3064 3064 3092 3092 3092 3092 3064 3064 3064 3064 3064 3064 3064 3064 3064 3092 3120 3120 3149 3149 3120 3120 3120 3120 3120 3120 3092 3092 3120 4190 4190 4190 4139 4139 4139 4190 4190 4241 4190 4190 4139 4139 4139 4139 4139 4139 4241 4295 4463 4463 6038 6038 6038 5933 5933 6038 6038 6038 5933 5933 5933 5933 5933 5933 5933 5933 5933 5933 5933 5933 5832 5734 5734 5832 5734 5734 5734 5734 5734 5832 5734 5734 5832 5832 5832 5933 5933 6038 6146 6146 6259 6259 6146 6146 6146 6038 6038 6038 6038 6038 6038 5933 5933 5933 5832 5832 5832 5832 5832 5933 5933 5832 5832 5933 5933 5933 5933 5832 5832 5832 5832 5832 5832 5832 5734 5734 5640 5640 5640 5734 5832 5832 5933 5933 6038 6038 6038 5933 5933 5933 6038 6038 6038 6038 6146 6259 6375 6375 6375 6375 6497 6375 6375 6375 6375 6375 6375 6375 6375 6375 6497 6497 6497 0 0 0 0 0 0 0 0 0 0 0 0 0
0 0 0 0 0 0 0 0 0 0 0 0 0 0 0 0 0 0 0 0 0 0 0 0 0 0 0 0 0 0 0 0 0 0 0 0 0 0 0 0 0 0 0 2883 2835 2835 2835 2835 2835 2835 2835 2859 2859 2859 2883 2933 2933 6259 6259 6497 6038 5933 5933 5832 3120 3120 5734 3037 3037 5734 5832 5832 5832 5933 5933 5933 5933 5933 5832 3064 3064 3064 3064 3064 3092 3092 3092 3092 3092 3092 5832 5734 5734 5734 5640 5640 5640 5548 5460 5460 5374 5374 5374 5374 5460 5460 5548 5548 5640 5734 5832 3269 3269 3269 3269 3269 3300 3300 3333 3333 3333 3333 3365 3365 3399 3365 3365 3365 3365 3365 3365 3399 3399 3399 3468 3468 3468 3468 3468 3468 3468 3539 3539 3539 3539 3539 3576 3614 3614 3614 3614 6146 6038 6038 6146 6146 6259 6259 6259 6497 6753 7178 7178 7178 7492 7492 7492 7492 7492 7492 7492 7492 5056 5056 5132 5291 5291 5291 5374 5374 5374 5374 5374 5374 5374 5374 5374 5374 5460 5460 5548 5640 5640 5640 5640 5640 5640 5548 5548 5548 5640 5734 5734 5734 5734 5734 5640 5640 5548 5548 5460 5374 5291 5210 5210 5210 5210 5210 5210 5291 5291 5291 5291 5291 5291 5291 5291 5291 5210 5210 5210 5210 0 0 0 0 0 0 0 0 0 0 0 0 0 0 0 8019 8019 8019 8019 8019 8019 7835 7835 8019 8019 8212 8212 8212 8212 8212 8212 8212 8212 8212 8212 8212 8212 8212 8212 8212 5210 5132 5132 5132 5132 5132 5132 5210 5210 5210 5210 5210 5210 5291 5291 5291 5291 5291 5291 5291 5291 5374 5374 5374 5374 5374 5460 5460 5460 5460 5460 5460 8413 8413 5933 5933 5933 5933 5933 5933 5933 5933 5933 5933 5933 5933 5933 5933 5933 6038 6038 5933 5933 5933 5933 5933 6038 6038 6038 6038 6038 6038 7660 7660 7835 7835 7835 7835 7660 7660 7660 7660 7492 7492 7492 7660 7660 7660 7660 3238 3208 3208 3238 3300 3300 3333 3333 3333 3365 3365 3365 3365 3365 3399 3433 3468 3433 3365 3365 3433 3149 3120 3120 3120 3092 3092 3092 3092 3120 3120 3120 3092 3092 3092 3092 3092 3092 3064 3064 3064 3064 3064 3064 3092 3092 3092 3092 3064 3064 3064 3064 3092 3092 3092 3092 3064 3064 3037 3010 3010 2984 2984 2984 2984 2984 2984 2984 2984 2984 3010 3010 3010 3010 3010 3010 3010 3010 3010 3010 3010 3010 2984 2984 3010 3010 3037 3037 3037 3037 3037 3037 3037 3037 3037 3010 3010 3010 3010 3010 3037 3037 3037 3037 3037 3064 3064 3064 3064 3064 3064 3064 3064 3064 3064 3064 3092 3092 3092 3064 3064 3064 3064 3064 3064 3064 3064 3064 3064 3092 3092 3120 3120 3149 3149 3120 3120 3092 3092 3092 3092 3120 3120 3178 3178 3208 3208 3208 3238 4241 4241 4241 4190 4139 4139 4139 4139 4139 4139 4241 4295 4463 4463 6038 6038 6038 6038 6038 6038 6038 6038 6038 6038 5933 5933 5933 5933 5933 5933 5933 6038 5933 5933 5832 5734 5734 5832 5734 5734 5734 5734 5734 5734 5734 5734 5734 5734 5832 5933 5933 6038 6146 6146 6146 6146 6146 6146 6146 6038 6038 6038 6038 6038 6038 5933 5933 5933 5832 5832 5832 5832 5832 5933 5832 5832 5832 5832 5832 5832 5832 5734 5734 5734 5734 5734 5734 5734 5734 5734 5640 5640 5734 5734 5734 5832 5933 5933 5933 5933 5933 5933 5933 5933 5933 5933 5933 6038 6038 6146 6259 6375 6375 6497 6497 6375 6375 6375 6375 6375 6375 6375 6375 6375 6497 6497 6497 0 0 0 0 0 0 0 0 0 0 0 0 0
0 0 0 0 0 0 0 0 0 0 0 0 0 0 0 0 0 0 0 0 0 0 0 0 0 0 0 0 0 0 0 0 0 0 0 0 0 0 0 0 0 2883 2883 2883 2835 2835 2835 2835 2835 2835 2835 2859 2859 2883 2908 2933 2933 2958 6497 6622 6622 6146 6146 5933 3092 3092 5734 3037 3010 3010 2984 2984 3064 3064 3064 3064 5933 6038 6038 3064 3064 3064 3064 3064 3092 3092 3092 3092 3092 3092 3092 3092 5734 5734 5640 5640 5640 5548 5460 5374 5374 5374 5374 5374 5374 5460 5548 5640 3269 3238 3238 3238 3269 3269 3269 3269 3300 3300 3333 3333 3333 3333 3365 3365 3399 3365 3333 3333 3365 3365 3365 3399 3399 3433 3468 3468 3468 3468 3468 3468 3468 3503 3539 3539 3539 3539 3576 3576 3576 3576 3576 3614 6038 6038 6146 6146 6146 6146 6146 6146 6259 6889 7178 7178 7492 7492 7492 7492 7492 7492 7492 7660 5056 5056 5132 5291 5291 5374 5374 5374 5374 5374 5374 5460 5460 5374 5374 5374 5460 5460 5548 5640 5640 5640 5640 5640 5640 5548 5548 5548 5640 5640 5640 5734 5734 5734 5640 5640 5640 5548 5460 5374 5291 5210 5210 5210 5210 5210 5210 5291 5291 5291 5291 5291 5291 5291 5291 5291 5210 5210 5210 5210 5291 0 0 0 0 0 0 0 0 0 0 0 0 0 0 0 0 0 8019 8019 8019 7835 7835 8019 8019 8212 8212 8212 8212 8212 8212 8019 8019 8212 8212 8212 8212 8019 8019 5132 5132 5132 5132 5132 5132 5132 5132 5210 5210 5210 5210 5210 5210 5210 5291 5291 5291 5291 5291 5291 5291 5374 5374 5374 5374 5374 5460 5460 5460 5548 5548 5548 8212 8413 5933 5933 5933 6038 6038 6038 6038 5933 5933 5933 5933 5933 5933 5933 5933 6038 6038 5933 5933 5933 5933 5933 5933 6038 6038 6146 6146 6146 7660 7660 7835 7835 7835 7835 7660 7660 7660 7660 7660 7660 7660 7660 7660 7660 7660 3300 3300 3300 3333 3333 3333 3333 3333 3333 3365 3365 3365 3365 3399 3399 3433 3433 3399 3365 3365 3433 3333 3333 3149 3149 3149 3149 3120 3120 3120 3120 3120 3092 3092 3092 3092 3092 3092 3092 3092 3092 3092 3092 3092 3092 3092 3092 3092 3120 3092 3064 3064 3092 3092 3092 3092 3064 3064 3037 3010 3010 2984 2984 2984 2984 2984 2984 2984 2984 2984 2984 2984 2984 2984 2984 2984 2984 2984 3010 2984 2984 3010 2984 2984 2984 3010 3010 3010 3010 3010 3010 3010 3010 3010 3010 2984 2984 3010 3010 3010 3010 3010 3010 3010 3037 3037 3037 3064 3064 3064 3064 3064 3064 3064 3064 3064 3064 3064 3064 3064 3064 3037 3037 3037 3037 3037 3037 3064 3064 3092 3092 3092 3092 3120 3120 3120 3120 3092 3092 3120 3120 3120 3120 3178 3178 3208 3178 3178 3178 4241 4241 4190 4190 4190 4139 4139 4139 4139 4190 4241 4295 4463 4463 5933 5933 5933 5933 5933 5933 5933 6038 6038 5933 5933 5933 5933 5933 5933 5933 5933 5933 5933 5832 5832 5832 5832 5734 5734 5734 5734 5734 5734 5734 5734 5734 5734 5734 5832 5933 6038 6038 6146 6146 6146 6146 6146 6038 6038 6038 5933 5933 5933 5933 6038 5933 5933 5933 5933 5832 5832 5832 5734 5734 5832 5832 5832 5832 5832 5832 5832 5734 5734 5640 5640 5640 5734 5734 5734 5734 5734 5734 5734 5734 5734 5832 5832 5933 5933 5933 5933 5832 5832 5933 5933 5933 5933 6038 6038 6038 6146 6375 6375 6497 6497 6375 6375 6375 6375 6375 6259 6259 6259 6375 6375 6375 6375 0 0 0 0 0 0 0 0 0 0 0 0 0
0 0 0 0 0 0 0 0 0 0 0 0 0 0 0 0 0 0 0 0 0 0 0 0 0 0 0 0 0 0 0 0 0 0 0 0 0 0 0 2883 2883 2883 2883 2883 2835 2835 2835 2835 2835 2835 2859 2883 2883 2883 2908 2933 2933 2958 2958 2984 6622 6146 3010 3010 3010 3037 3037 3037 3010 3010 2984 2984 3037 3037 3037 3037 3010 3010 3037 3064 3064 3064 3064 3064 3092 3092 3092 3092 3092 3092 3092 3092 5734 5734 5734 5640 5548 5460 5460 5374 5374 5374 5374 5374 5374 5460 5548 3269 3269 3238 3238 3238 3269 3269 3269 3269 3269 3300 3300 3333 3333 3333 3333 3365 3365 3365 3333 3333 3333 3333 3333 3433 3433 3433 3433 3433 3433 3468 3468 3468 3468 3468 3503 3503 3503 3503 3539 3576 3576 3576 3576 3614 3614 3614 6146 6146 6146 6146 6146 6146 6259 6622 7178 7178 7660 7492 7492 7492 7492 7492 7492 7492 7660 5210 5210 5291 5291 5291 5374 5374 5291 5291 5374 5460 5460 5374 5374 5374 5460 5460 5548 5640 5640 5640 5640 5640 5640 5640 5640 5640 5640 5640 5640 5734 5734 5734 5640 5640 5640 5640 5640 5640 5291 5291 5210 5210 5210 5291 5291 5291 5291 5291 5291 5291 5291 5291 5210 5210 5210 5210 5210 5291 5291 5374 0 0 0 0 0 0 0 0 0 0 0 0 0 0 0 0 0 0 0 7835 7835 8019 8019 8212 8212 8212 8212 8212 8212 8019 8019 8212 8212 8019 8019 8019 8019 5056 5056 5132 5132 5132 5132 5132 5132 5132 5210 5210 5210 5210 5210 5210 5210 5291 5291 5291 5291 5291 5291 5374 5374 5374 5460 5460 5460 5460 5460 5548 5548 8212 8212 6038 5933 5933 6038 6038 6038 5933 5933 5933 5933 5933 5933 5933 5933 5933 5933 5933 6038 5933 5933 5933 5933 5933 5933 6038 6146 6146 6146 7835 7835 7835 7835 7835 7835 7835 7660 7660 7660 7660 7660 7660 7660 7492 7492 7492 7492 3300 3300 3300 3333 3333 3333 3333 3333 3333 3365 3365 3365 3365 3399 3399 3433 3433 3399 3399 3399 3399 3365 3365 3269 3269 3269 3653 3653 3269 3238 3238 3238 3238 3238 3120 3120 3092 3092 3092 3092 3120 3120 3120 3120 3120 3149 3092 3092 3120 3120 3092 3092 3120 3120 3120 3120 3092 3092 3037 3037 3010 2984 2984 3010 3010 2984 2984 2984 2984 2984 2984 2984 2984 2984 2984 2984 2984 2984 2984 2984 2984 2984 2984 2984 2984 2984 2984 2984 3010 3010 3010 3010 3010 3010 3010 2984 2984 3010 3010 3010 3010 3010 3010 3010 3037 3037 3037 3037 3064 3064 3064 3064 3064 3064 3064 3064 3064 3064 3064 3064 3064 3037 3037 3037 3037 3037 3037 3064 3064 3092 3092 3092 3092 3092 3120 3092 3092 3092 3120 3120 3120 3120 3149 3149 3178 3178 3149 3149 3149 4241 4139 4139 4190 4190 4139 4139 4190 4190 4241 4295 4349 4463 4463 5933 5933 5933 5933 5933 5933 5933 5933 6038 5933 5933 5933 5933 5933 5933 5933 5933 5933 5933 5832 5832 5832 5832 5734 5734 5734 5734 5734 5734 5734 5734 5734 5734 5734 5734 5933 5933 6038 6146 6146 6146 6146 6146 6038 6038 6038 5933 5933 5933 5933 6038 5933 5933 5933 5933 5832 5832 5734 5734 5734 5832 5832 5832 5933 5832 5832 5832 5734 5734 5640 5640 5640 5734 5734 5734 5734 5734 5734 5734 5734 5734 5832 5832 5832 5832 5832 5832 5832 5832 5933 5933 5933 5933 5933 6038 6038 6146 6375 6375 6497 6497 6375 6375 6375 6375 6259 6259 6146 6146 6259 6375 6375 6375 0 0 0 0 0 0 0 0 0 0 0 0 0
0 0 0 0 0 0 0 0 0 0 0 0 0 0 0 0 0 0 0 0 0 0 0 0 0 0 0 0 0 0 0 0 0 0 0 0 0 0 2835 2835 2859 2883 2883 2883 2883 2859 2859 2859 2859 2883 2883 2883 2883 2908 2908 2933 2933 2958 2958 2984 2984 2984 3010 3010 3010 3010 3010 3037 3010 3010 3010 3010 3037 3037 3037 3037 3010 3010 3037 3064 3064 3064 3064 3064 3092 3092 3092 3092 3092 3092 3092 3092 3092 0 0 5548 5548 5460 5460 5374 3010 3010 3064 5374 3269 3269 3300 3269 3269 3269 3238 3238 3269 3269 3269 3269 3269 3300 3300 3333 3333 3333 3333 3365 3365 3365 3365 3333 3333 3333 3333 3333 3333 3433 3433 3433 3433 3468 3468 3468 3468 3468 3503 3503 3503 3503 3539 3576 3576 3576 3576 3614 3614 3614 6146 6146 6146 6146 6146 6146 6146 6146 7030 7332 7660 7660 7492 7492 7492 7492 7492 7492 5056 5056 5210 5291 5291 5291 5291 5291 5291 5291 5291 5374 5374 5374 5374 5374 5460 5460 5548 5640 5640 5640 5640 5640 5640 5640 5640 5640 5640 5640 5734 5734 5734 5734 5734 5640 5640 5548 5374 5374 5374 5291 5291 5291 5291 5291 5291 5291 5291 5291 5291 5291 5291 5291 5210 5210 5210 5291 5291 5291 5291 5291 0 0 0 0 0 0 0 0 0 0 0 0 0 0 0 0 0 0 0 0 0 8019 8019 8212 8212 0 0 0 0 0 0 8212 8212 8019 7660 7660 7835 5056 5056 5056 5056 5132 5132 5132 5132 5132 5210 5210 5210 5210 5210 5210 5210 5291 5291 5291 5291 5291 5291 5374 5374 5374 5460 5460 5548 5460 5460 5548 5548 5933 5933 5933 6038 6038 6038 6038 5933 5933 5933 5933 5933 5933 5933 5933 5933 5933 5933 5933 6038 5933 5933 5933 5933 5933 6038 6038 6146 6146 6146 7660 7660 7660 7835 7835 7835 7835 7835 7835 7660 7660 7660 7660 7660 7492 7492 7492 3300 3300 3300 3300 3333 3333 3333 3333 3333 3333 3333 3365 3365 3365 3365 3399 3399 3399 3365 3365 3365 3365 3365 3365 3269 3269 3269 3300 3300 3269 3238 3238 3238 3238 3269 3208 3178 3149 3120 3120 3149 3149 3149 3149 3178 3178 3178 3178 3149 3120 3120 3149 3149 3178 3149 3149 3149 3120 3120 3064 3037 3037 3010 3010 3010 3010 2984 2984 2984 2984 2984 2984 2984 2984 2984 2984 2984 2984 2984 2984 2984 2984 2984 2984 2984 2958 2958 2958 2958 2958 2984 2984 3010 3037 3037 3037 3010 3010 3037 3037 3037 3037 3010 3010 3010 3037 3037 3037 3037 3064 3092 3092 3064 3064 3064 3064 3064 3064 3064 3064 3037 3010 3010 3037 3064 3064 3064 3064 3064 3064 3092 3092 3092 3092 3092 3092 3092 3092 3092 3092 3120 3120 3120 3149 3149 3178 3178 3149 3149 3149 4241 4139 4139 4139 4190 4139 4139 4190 4190 4295 4295 4349 4405 4405 5832 5832 5832 5933 5933 5933 5933 5933 5933 5933 5933 5933 5933 5933 5933 5933 5933 5933 5933 5832 5832 5832 5832 5734 5734 5734 5734 5734 5832 5832 5832 5832 5734 5734 5734 5933 5933 6038 6146 6146 6146 6146 6146 6146 6146 6038 6038 6038 6038 6038 6038 6038 6038 5933 5933 5832 5832 5734 5734 5734 5832 5832 5832 5933 5933 5933 5832 5734 5734 5734 5734 5734 5734 5832 5832 5832 5832 5832 5832 5832 5832 5734 5734 5734 5734 5734 5734 5734 5832 5933 5933 5933 5933 5933 5933 6038 6146 6259 6375 6497 6497 6375 6375 6375 6375 6259 6146 6146 6146 6146 6375 6375 0 0 0 0 0 0 0 0 0 0 0 0 0 0
0 0 0 0 0 0 0 0 0 0 0 0 0 0 0 0 0 0 0 0 0 0 0 0 0 0 0 0 0 0 0 0 2933 2933 0 0 2835 2835 2835 2835 2859 2859 2859 2859 2883 2883 2883 2883 2883 2883 2908 2908 2908 2908 2908 2933 2933 2958 2958 2984 2984 2984 2984 2984 2984 3010 3010 3010 3010 3010 3010 3010 3037 3037 3037 3037 3037 3037 3037 3064 3064 3064 3064 3064 3092 3092 3092 3092 3092 3092 3092 3092 3092 0 0 0 0 0 0 0 3010 3010 3064 3208 3269 3269 3300 3300 3300 3269 3269 3269 3269 3269 3269 3269 3269 3300 3300 3333 3333 3333 3333 3365 3365 3365 3333 3333 3333 3333 3333 3333 3333 3433 3433 3433 3433 3468 3468 3468 3468 3468 3468 3503 3503 3503 3539 3539 3576 3576 3576 3614 3653 6259 6146 6146 6146 6146 6146 6146 6146 6146 6889 7332 7660 7660 7492 7492 7492 5056 5056 5056 5056 5056 5210 5291 5291 5291 5210 5210 5210 5210 5210 5291 5291 5291 5374 5374 5374 5460 5374 5374 5374 5374 5548 5548 5640 5640 5640 5640 5734 5734 5734 5734 5734 5734 5734 5640 5640 5548 5374 5374 5291 5291 5291 5291 5291 5291 5291 5291 5291 5291 5291 5291 5291 5291 5291 5291 5291 5291 5291 5291 5291 5291 0 0 0 0 0 0 0 0 0 0 0 0 0 0 0 0 0 0 0 0 0 0 0 0 0 0 0 0 0 0 0 0 0 0 7660 7660 7835 5056 5056 5056 5056 5132 5132 5132 5132 5132 5210 5210 5210 5210 5210 5210 5210 5291 5291 5291 5291 5291 5291 5374 5374 5374 5460 5460 5548 5548 5548 5548 5548 5933 5933 5933 6038 6038 6038 6038 5933 5933 5933 5933 5933 5933 5933 5933 5933 5933 5933 5933 6038 5933 5933 5933 5933 5933 6038 6038 6146 6146 6146 7660 7660 7660 7835 7835 7835 7835 7835 7835 7660 7660 7660 7660 7660 7492 7492 7492 3300 3300 3300 3300 3333 3333 3333 3333 3333 3333 3333 3333 3333 3333 3365 3365 3365 3365 3365 3365 3333 3333 3333 3333 3300 3300 3300 3300 3333 3269 3238 3238 3238 3238 3269 3238 3238 3208 3178 3178 3178 3178 3208 3208 3208 3208 3208 3208 3178 3178 3178 3178 3178 3208 3208 3178 3178 3178 3149 3149 3092 3064 3037 3010 3010 3010 2984 2984 2984 2984 2984 2984 2984 2984 2984 2984 3010 2984 2984 3037 2984 2984 2984 2984 2984 2958 2958 2958 2958 2958 2984 2984 3010 3037 3037 3064 3037 3037 3064 3064 3064 3064 3064 3064 3064 3037 3037 3064 3064 3064 3092 3092 3092 3092 3064 3064 3064 3064 3037 3037 3010 2984 2984 3010 3037 3037 3064 3064 3064 3064 3092 3064 3064 3064 3064 3064 3064 3064 3092 3092 3120 3120 3120 3149 3149 3149 3178 3149 3149 4139 4139 4139 4139 4139 4139 4139 4139 4139 4190 4241 4295 4349 4405 4405 5832 5832 5832 6038 5933 5933 5933 5933 5933 5933 5933 5933 5933 5933 5933 5933 5933 6038 5933 5933 5933 5933 5832 5832 5734 5734 5734 5734 5832 5832 5832 5832 5832 5832 5832 5933 5933 6038 6146 6146 6146 6146 6146 6146 6146 6038 6038 6038 6038 6038 6038 6038 6038 6038 5933 5933 5832 5832 5832 5832 6038 5933 5933 5933 5933 5933 5933 5832 5832 5832 5832 5832 5933 5933 5933 5933 5832 5832 5832 5832 5832 5734 5734 5734 5734 5734 5734 5734 5832 5933 5933 5933 5933 5933 5933 6038 6038 6146 6375 6375 6497 6375 6259 6259 6259 6146 6038 6038 6038 6146 6259 6375 0 0 0 0 0 0 0 0 0 0 0 0 0 0
0 0 0 0 0 0 0 0 0 0 0 0 0 0 0 0 0 0 0 0 0 0 0 0 0 0 0 0 0 0 0 0 2835 2835 2812 2812 2835 2835 2835 2835 2859 2859 2859 2859 2883 2883 2883 2908 2908 2908 2908 2908 2908 2908 2908 2933 2933 2958 2958 2984 2984 2984 2984 2984 2984 2984 2984 3010 2984 2984 3010 3010 3037 3037 3037 3037 3037 3037 3037 3064 3064 3064 3064 3064 3092 3092 3092 3092 3092 3092 3092 3092 6753 0 0 0 0 0 0 0 3178 3092 3092 3208 3269 3269 3300 3300 3300 3269 3269 3269 3269 3269 3269 3269 3300 3300 3300 3333 3333 3333 3333 3365 3365 3365 3333 3333 3333 3333 3333 3333 3433 3433 3433 3433 3433 3468 3468 3468 3468 3468 3468 3503 3503 3503 3539 3539 3576 3576 3576 3614 3614 3614 6146 6146 6146 6146 6146 6146 6146 6259 6889 7178 7492 7660 7492 7492 5056 5056 5056 5056 5210 5210 5210 5210 5291 5291 5210 5210 5210 5132 5132 5210 5210 5291 5291 5291 5291 5291 5291 5291 5210 5210 5210 5548 5734 5734 5734 5734 5734 5734 5734 5734 5734 5734 5734 5734 5640 5640 5640 5640 5291 5291 5291 5291 5291 5291 5291 5291 5291 5291 5291 5291 5291 5291 5210 5210 5210 5291 5291 5291 5291 5291 0 0 0 0 0 0 0 0 0 0 0 0 0 0 0 0 0 0 0 0 0 0 0 0 0 0 0 0 0 0 0 0 0 7660 7660 7660 7835 5056 5056 5056 5056 5056 5056 5056 5132 5132 5210 5210 5210 5210 5210 5210 5210 5291 5291 5291 5291 5291 5291 5374 5374 5374 5460 5548 5548 5548 5548 5640 5734 5832 5933 5933 6038 6038 6038 6038 6038 6038 6038 5933 5933 5933 5933 5933 5933 5933 5933 5933 6038 5933 5933 5933 5933 6038 6038 6146 6146 6146 6146 7660 7660 7660 7835 7835 7835 7835 7835 7835 7835 7835 7660 7660 7660 7492 3238 3238 3269 3300 3300 3300 3333 3333 3333 3333 3333 3333 3333 3333 3333 3333 3333 3333 3333 3333 3333 3333 3300 3300 3333 3333 3300 3300 3300 3300 3300 3300 3269 3269 3269 3269 3269 3269 3269 3269 3238 3238 3238 3238 3238 3238 3238 3238 3238 3238 3208 3208 3208 3208 3208 3208 3208 3208 3208 3208 3208 3208 3178 3149 3120 3092 3092 3092 3064 3037 3037 3037 3037 3037 3037 3037 3010 3010 3010 3010 3037 3037 3037 3037 3010 2984 2984 2984 2984 2958 2958 2984 2984 2984 3010 3037 3037 3064 3064 3064 3064 3092 3092 3092 3092 3092 3120 3092 3092 3120 3120 3120 3120 3120 3120 3092 3092 3092 3064 3064 3037 3037 3010 2984 2984 2958 2958 3037 3064 3064 3064 3064 3092 3064 3064 3064 3064 3037 3037 3037 3064 3092 3092 3120 3120 3120 3149 3149 3178 4089 4089 4089 4139 4089 4089 4139 4139 4139 4139 4139 4139 4139 4295 4349 5933 5933 5933 6038 6038 6038 6038 5933 5933 5933 5933 5933 5933 5933 5933 5933 5933 5933 5933 5933 5933 5933 5933 5832 5734 5734 5734 5734 5734 5734 5832 5832 5832 5832 5832 5832 5832 5933 5933 6038 6146 6146 6259 6259 6146 6146 6146 6038 6038 6038 6038 6038 6146 6038 6038 6038 6038 5933 5933 5933 5933 5933 6038 6038 6038 6038 6038 6038 5933 5832 5832 5832 5933 5933 6038 6038 6038 6038 5933 5832 5832 5832 5832 5832 5832 5734 5734 5734 5734 5832 5832 5933 5933 5933 5933 5933 5933 6038 6038 6146 6375 6375 6375 6375 6259 6259 6259 6146 6038 5933 5933 6146 6259 6375 6375 0 0 0 0 0 0 0 0 0 0 0 0 0
0 0 0 0 0 0 0 0 0 0 0 0 0 0 0 0 0 0 0 0 0 0 0 0 0 0 0 0 0 0 0 0 2835 2812 2812 2812 2812 2812 2835 2835 2859 2859 2859 2859 2883 2883 2908 2908 2908 2908 2908 2908 2908 2933 2933 2958 2958 2958 2958 2984 2984 2984 2984 2984 2984 2984 2984 3010 2984 2984 3010 3010 3010 3037 3037 3037 3037 3037 3037 3064 3064 3064 3064 3064 3092 3092 3092 3092 3092 3092 3092 3092 3092 0 0 0 0 0 0 0 3178 3178 3178 3208 3269 3269 3300 3269 3269 3269 3269 3269 3269 3269 3269 3300 3300 3300 3300 3333 3333 3333 3333 3333 3365 3365 3333 3333 3333 3333 3399 3399 3433 3433 3433 3433 3433 3468 3468 3468 3468 3468 3468 3503 3503 3503 3503 3539 3539 3576 3576 3576 3614 3614 6146 6146 6146 6146 6146 6146 6146 6497 6889 7178 7492 7660 5056 5056 5056 5056 5056 5132 5132 5132 5210 5210 5210 5210 5132 5132 5132 5132 5132 5132 5132 5132 5132 5210 5210 5210 5210 5132 5056 5056 5056 5056 4983 4983 4983 4983 4983 5132 5132 5734 5734 5734 5734 5132 5132 4983 4983 5291 5291 5291 5210 5210 5291 5291 5291 5291 5291 5291 5291 5291 5291 5291 5210 5210 5210 5291 5291 5291 5291 5291 0 0 0 0 0 0 0 0 0 0 0 0 0 0 0 0 0 0 0 0 0 0 0 0 0 0 0 0 0 0 0 0 0 5056 5056 5056 5056 5056 5056 5056 5056 5056 5056 5056 5132 5132 5210 5210 5210 5210 5210 5210 5210 5291 5291 5291 5291 5291 5374 5374 5374 5460 5548 5548 5548 5548 5640 5640 5734 5832 5933 5933 6038 6038 6038 6038 5933 5933 6038 5933 5933 5933 5933 5933 5933 5933 5933 6038 6038 5933 5933 5933 6038 6038 6038 6146 6146 6146 6146 7492 7492 7660 7660 7660 7660 7835 7835 7835 7660 7660 7660 7660 7660 3238 3238 3238 3269 3300 3300 3333 3333 3333 3333 3333 3333 3333 3333 3333 3333 3333 3333 3333 3333 3300 3300 3300 3300 3300 3300 3300 3300 3269 3269 3269 3269 3269 3269 3269 3269 3269 3269 3269 3269 3269 3269 3238 3238 3238 3238 3238 3238 3238 3238 3238 3238 3238 3238 3238 3238 3238 3238 3238 3238 3208 3208 3208 3208 3178 3149 3149 3149 3149 3092 3092 3092 3064 3064 3037 3037 3064 3010 3010 3010 3037 3064 3064 3064 3064 3064 3064 3064 3064 3010 3010 3010 3010 3010 3037 3037 3064 3064 3064 3064 3064 3092 3092 3092 3149 3149 3149 3149 3149 3149 3178 3178 3178 3208 3208 3178 3120 3120 3092 3064 3064 3037 3037 3468 3503 3576 2958 2958 3064 3064 3064 3064 3064 3092 3064 3064 3064 3064 3037 3037 3037 3064 3064 3092 3092 3092 3120 4190 4190 4139 4089 4089 4089 4139 4089 4089 4139 4139 4139 4139 4190 4139 4139 4295 4295 5933 5933 5933 5933 5933 6038 5933 5933 5933 6038 6038 6038 6038 6038 5933 5933 5933 5933 5933 5933 5933 5933 5933 5832 5734 5734 5734 5734 5734 5734 5832 5832 5832 5832 5832 5832 5832 5933 5933 6038 6146 6146 6259 6259 6259 6146 6146 6146 6038 6038 6038 6038 6146 6038 6038 6038 6038 6038 6038 6038 5933 5933 6038 6038 6038 6038 6038 6038 5933 5933 5933 5933 6038 6038 6038 6038 6038 6038 6038 5933 5832 5832 5832 5832 5832 5832 5832 5832 5832 5832 5832 5933 5933 5933 5933 5933 5933 6038 6146 6259 6259 6375 6375 6259 6259 6259 6146 6038 6038 5933 5933 6146 6375 6375 6375 0 0 0 0 0 0 0 0 0 0 0 0 0
0 0 0 0 0 0 0 0 0 0 0 0 0 0 0 0 0 0 0 0 0 0 0 0 0 0 0 0 0 0 0 0 0 2812 2812 2812 2812 2812 2835 2835 2859 2859 2859 2859 2883 2883 2908 2908 2908 2908 2933 2933 2933 2933 2933 2933 2958 2958 2958 2958 2984 2984 2984 2984 2984 2984 2984 3010 2984 2984 2984 3010 3010 3037 3037 3037 3037 3037 3037 3064 3064 3064 3064 3092 3092 3092 3092 3092 3092 3092 3092 3092 3092 0 0 0 0 0 0 3269 3269 3208 3208 3300 3269 3269 3300 3269 3269 3269 3269 3269 3269 3269 3269 3300 3300 3300 3333 3333 3333 3333 3333 3333 3365 3365 3333 3333 3333 3333 3399 3433 3433 3433 3433 3433 3433 3468 3468 3468 3468 3468 3468 3503 3503 3503 3503 3539 3539 3576 3576 3576 3576 3614 6146 6146 6146 6146 6146 6146 6375 6622 6753 6753 7178 5056 5056 5056 5056 5056 5056 5056 5132 5132 5132 5132 5210 5056 5056 5056 5056 5056 5056 5056 5132 5132 5132 5132 5056 5056 5056 5056 5056 5056 4983 4983 4983 4983 4983 4983 4983 5132 5132 5132 5210 5132 5132 5132 5132 4983 4983 5056 5056 5210 5210 5210 5291 5291 5291 5291 5291 5291 5291 5374 5291 5291 5291 5291 5291 5291 5291 5291 5291 5291 0 0 0 0 0 0 0 0 0 0 0 0 0 0 0 0 0 0 0 0 0 0 0 0 0 0 0 0 0 0 0 0 0 5056 5056 5056 5056 5056 5056 5056 5056 5132 5132 5132 5132 5210 5210 5210 5210 5210 5210 5210 5210 5291 5291 5291 5291 5291 5374 5374 5460 5460 5548 5548 5548 5640 5640 5640 5734 5832 5933 5933 6038 6038 5933 5933 5933 5933 5933 5933 5933 5933 5933 5933 5933 5933 5933 6038 6038 5933 5933 6038 6038 6038 6038 6146 6146 6146 7332 7332 7492 7492 7492 7492 7660 7660 7660 7660 7660 7660 7660 7660 7660 3238 3238 3238 3269 3300 3300 3333 3333 3333 3333 3333 3333 3333 3333 3333 3333 3333 3333 3300 3300 3300 3300 3300 3300 3300 3269 3269 3269 3269 3269 3269 3269 3269 3269 3238 3238 3269 3269 3269 3269 3269 3269 3238 3238 3238 3238 3238 3238 3238 3238 3238 3238 3238 3238 3208 3208 3238 3238 3238 3238 3238 3238 3238 3208 3178 3178 3178 3178 3178 3120 3120 3120 3092 3092 3092 3092 3092 3120 3120 3120 3120 3092 3092 3092 3092 3092 3092 3092 3064 3064 3037 3037 3037 3037 3037 3064 3064 3064 3092 3092 3092 3092 3092 3120 3149 3178 3178 3178 3178 3178 3208 3208 3208 3300 3269 3269 3269 3269 3433 3399 3399 3433 3468 3468 3503 3576 3539 3539 3539 3092 3092 3092 3092 3092 3064 3064 3064 3064 3037 3037 3037 3064 3064 3092 3092 3092 4190 4190 4190 4139 4089 4089 4139 4139 4139 4139 4139 4139 4139 4139 4190 4139 4139 4295 4295 5933 5933 5933 5933 5933 5933 5933 5933 5933 5933 5933 5933 5933 6038 5933 5933 5933 5933 5933 5933 5933 5933 5832 5832 5734 5734 5734 5734 5734 5734 5832 5832 5832 5832 5832 5832 5832 5933 6038 6038 6146 6146 6259 6259 6259 6259 6259 6146 6146 6146 6038 6038 6038 5933 5933 6038 6038 6038 6038 6038 6038 6038 6146 6146 6038 6038 6146 6146 6038 6038 6038 6038 6146 6146 6146 6038 6038 6038 6038 5933 5832 5832 5832 5734 5734 5734 5734 5734 5734 5734 5832 5933 5933 5933 5933 5933 5933 6038 6038 6038 6259 6259 6259 6259 6259 6146 6146 6038 6038 5933 5933 6146 6375 6259 6259 0 0 0 0 0 0 0 0 0 0 0 0 0
0 0 0 0 0 0 0 0 0 0 0 0 0 0 0 0 0 0 0 0 0 0 0 0 0 0 0 0 0 0 0 0 0 2812 2812 2812 2812 2812 2835 2835 2859 2859 2859 2859 2883 2883 2883 2908 2908 2908 2933 2933 2933 2933 2933 2933 2958 2958 2958 2958 2958 2984 2984 2984 2984 2984 2984 3010 2984 2984 2984 3010 3010 3037 3037 3037 3037 3037 3064 3064 3064 3064 3092 3092 3092 3092 3092 3092 3092 3092 3092 3092 3092 0 0 0 0 0 0 3269 3269 3269 3269 3269 3269 3269 3300 3269 3269 3269 3269 3269 3269 3269 3269 3300 3300 3300 3333 3333 3333 3333 3333 3333 3333 3333 3333 3333 3333 3399 3399 3433 3433 3433 3433 3433 3433 3468 3468 3468 3468 3468 3503 3503 3503 3539 3539 3576 3576 3576 3576 3576 3576 3614 6146 6146 6146 6259 6259 6259 6497 6622 6753 6753 7178 5056 5056 5056 5056 5056 5056 5056 5132 5132 5132 5132 5210 5056 5056 5056 5056 5056 5056 5056 5056 5056 5056 5056 5056 5056 5056 5056 4983 4983 4983 4983 4983 4911 4911 4983 4983 4983 5056 5056 5056 5056 5056 5056 4983 4983 4983 5056 5056 4911 5210 5210 5210 5291 5291 5291 5291 5291 5374 5374 5374 5291 5210 5210 5291 5291 5291 5291 5291 0 0 0 0 0 0 0 0 0 0 0 0 0 0 0 0 0 0 0 0 0 0 0 0 0 0 0 0 0 0 0 0 0 5132 5056 5056 5056 5056 5056 5056 5056 5056 5132 5132 5132 5210 5210 5210 5210 5210 5210 5210 5210 5210 5291 5291 5291 5291 5291 5374 5374 5460 5460 5548 5548 5548 5640 5640 5734 5832 5832 5933 5933 6038 5933 5933 5933 5933 5933 5933 5933 5933 5933 5933 6038 5933 5933 6038 6038 6038 6038 6038 6038 6038 6038 6038 6146 6146 6146 7332 7332 7332 7492 7492 7492 7492 7492 7660 7660 7660 7660 7660 7660 7660 3238 3238 3269 3269 3269 3300 3333 3333 3333 3333 3333 3333 3333 3333 3333 3333 3333 3333 3300 3300 3300 3300 3300 3300 3269 3269 3269 3269 3269 3269 3269 3269 3269 3269 3238 3238 3269 3269 3269 3269 3269 3269 3238 3238 3238 3238 3238 3238 3238 3238 3238 3238 3238 3208 3208 3208 3238 3238 3238 3238 3238 3238 3238 3208 3178 3178 3178 3178 3178 3149 3149 3149 3149 3149 3120 3120 3120 3149 3120 3120 3120 3120 3120 3092 3092 3092 3092 3092 3092 3064 3064 3064 3064 3064 3064 3064 3092 3092 3092 3092 3092 3092 3120 3120 3149 3149 3178 3178 3178 3208 3208 3208 3238 3300 3269 3269 3300 3333 3433 3433 3433 3468 3468 3468 3468 3503 3539 3539 3576 3576 4190 4190 4295 4241 4241 4241 4241 4241 4190 3037 3037 3064 3064 4190 4190 4190 4190 4190 4190 4139 4139 4139 4139 4139 4139 4139 4139 4139 4190 4190 4241 4241 4241 4241 4241 5933 5933 5832 5832 5933 5933 5933 5933 5933 5933 5933 5933 5933 6038 5933 5933 5933 5933 5933 5933 5933 5933 5832 5832 5832 5832 5832 5734 5734 5832 5832 5832 5832 5832 5832 5832 5832 5933 6038 6146 6259 6259 6375 6375 6375 6259 6259 6146 6146 6146 6038 6038 6038 5933 5933 5933 5933 6038 6038 6038 6038 6038 6146 6146 6146 6146 6146 6146 6146 6038 6038 6146 6146 6146 6146 6146 6038 6038 6038 5933 5832 5832 5734 5640 5640 5640 5640 5640 5734 5734 5832 5933 5933 5933 5933 6038 6038 6038 6038 6038 6259 6259 6259 6259 6146 6146 6038 6038 6038 6038 6038 6375 6375 6259 6259 0 0 0 0 0 0 0 0 0 0 0 0 0
0 0 0 0 0 0 0 0 0 0 0 0 0 0 0 0 0 0 0 0 0 0 0 0 0 0 0 0 0 0 0 0 0 2812 2812 2812 2812 2812 2835 2835 2859 2859 2859 2859 2883 2883 2883 2908 2908 2908 2933 2933 2933 2958 2958 2958 2958 2958 2958 2958 2958 2958 2958 2984 2984 2984 2984 3010 2984 2984 3010 3010 3010 3037 3037 3064 3064 3037 3037 3064 3064 3064 3064 3064 3092 3092 3092 3092 3092 3092 3120 3120 3120 0 0 0 0 0 0 0 3269 3269 3269 3269 3269 3269 3300 3269 3269 3269 3269 3269 3269 3269 3269 3300 3300 3300 3333 3333 3333 3333 3333 3333 3333 3333 3333 3333 3333 3399 3399 3433 3433 3433 3433 3468 3468 3468 3468 3468 3468 3503 3503 3503 3539 3539 3539 3576 3576 3576 3576 3576 3614 3614 6146 6146 6146 6259 6259 6375 6497 6622 6753 6753 6753 5056 5056 5056 5056 5056 5056 5056 5056 5056 5056 5132 5132 5056 5056 5056 5056 5056 5056 5056 5056 5056 5056 5056 5056 5056 5056 5056 4983 4983 4983 4983 4983 4911 4911 4983 4983 4983 5056 5056 5056 5056 5056 5056 4983 4983 4983 4983 4911 4911 4911 5210 5132 5132 5132 5132 5210 5210 5210 5291 5291 5210 5132 5132 5210 5210 5210 5210 5210 0 0 0 0 0 0 0 0 0 0 0 0 0 0 0 0 0 0 0 0 0 0 0 0 5210 5210 5291 5291 5210 5210 5210 5210 5210 5132 5056 5056 5056 5056 5056 5056 5132 5132 5132 5132 5132 5210 5210 5210 5210 5210 5210 5210 5210 5210 5291 5291 5291 5291 5291 5291 5291 5374 5460 5460 5548 5548 5640 5640 5734 5832 5832 5933 5933 6038 5933 5933 5933 5933 5933 5933 5933 5933 5933 5933 6038 6038 6038 6038 6038 6038 6038 6038 6146 6146 6146 6146 6259 6259 6259 7332 7332 7332 7492 7492 7492 7492 7492 7492 7492 7492 7492 7492 7492 3238 3238 3238 3269 3269 3269 3300 3333 3333 3333 3333 3333 3333 3333 3333 3333 3333 3333 3333 3300 3300 3300 3300 3300 3300 3269 3269 3269 3269 3269 3269 3269 3269 3269 3269 3238 3238 3238 3238 3269 3269 3269 3269 3238 3238 3238 3238 3238 3238 3238 3238 3238 3238 3208 3208 3208 3208 3238 3238 3238 3238 3238 3238 3238 3208 3178 3178 3178 3178 3178 3149 3149 3149 3149 3149 3120 3120 3149 3149 3149 3149 3120 3120 3120 3092 3092 3092 3092 3120 3120 3092 3092 3092 3092 3064 3064 3092 3092 3092 3120 3092 3092 3092 3120 3120 3149 3149 3178 3178 3178 3208 3208 3208 3238 3269 3269 3300 3333 3365 3399 3433 3433 3433 3468 3468 3468 3503 3576 3576 3576 3614 4190 4190 4295 4241 4241 4241 4241 4241 4190 4190 4190 4190 4190 4190 4241 4241 4190 4190 4190 4241 4190 4139 4139 4139 4139 4139 4139 4139 4190 4241 4241 4241 4241 4241 6038 5933 5933 5832 5832 5933 6038 5933 5933 5933 5933 5933 5933 5933 5933 5933 5933 5933 5933 5933 5933 5933 5933 5933 5933 5933 5832 5832 5832 5832 5832 5832 5832 5832 5832 5832 5832 5832 5933 6038 6146 6375 6375 6375 6375 6375 6375 6259 6259 6146 6146 6038 6038 6038 5832 5832 5832 5832 5832 5832 5933 5933 5933 6038 6038 6038 6038 6146 6146 6146 6038 6038 6038 6038 6038 6038 6038 6038 6038 5933 5832 5832 5832 5734 5640 5640 5640 5640 5640 5640 5734 5832 5933 5933 6038 6038 6038 6146 6146 6259 6259 6259 6259 6146 6146 6038 6038 6038 6038 6038 6038 6038 6375 6375 6375 6375 0 0 0 0 0 0 0 0 0 0 0 0 0
0 0 0 0 0 0 0 0 0 0 0 0 0 0 0 0 0 0 0 0 0 0 0 0 0 0 0 0 0 0 0 0 0 2812 2812 2812 2812 2812 2835 2835 2835 2835 2859 2859 2883 2883 2883 2908 2908 2908 2933 2933 2933 2958 2958 2958 2958 2958 2958 2958 2958 2958 2958 2984 2984 2984 3010 3010 2984 2984 3010 3010 3010 3010 3037 3037 3064 3037 3037 3064 3064 3064 3064 3064 3092 3092 3092 3092 3092 3120 3120 3120 3120 0 0 0 0 0 0 3300 3300 3300 3300 3300 3269 3269 3300 3269 3269 3269 3269 3269 3269 3269 3300 3300 3300 3300 3333 3333 3333 3333 3333 3333 3333 3333 3365 3365 3365 3399 3399 3433 3433 3433 3433 3468 3468 3468 3468 3468 3468 3503 3503 3503 3539 3539 3539 3576 3576 3576 3576 3576 3614 3614 6038 6146 6146 6259 6259 6375 6497 6622 6753 6753 6753 5056 5056 5056 5056 5056 5056 5056 5056 5056 5056 5132 5132 5056 5056 5056 5056 5056 5056 5056 5056 5056 5056 5056 5056 5056 5056 5056 5056 5056 4983 4983 4983 4983 4983 5056 5056 5056 5056 5056 5056 5056 5056 5056 4983 4983 4983 4983 4911 4911 5056 5056 5056 5056 5056 5056 5056 5056 5056 5132 5132 5132 5056 5056 5132 5132 5132 5132 5132 0 0 0 0 0 4983 4983 4983 4983 5056 0 0 0 0 0 0 0 0 0 0 0 0 0 0 5210 5210 5291 5210 5210 5210 5210 5210 5210 5132 5132 5132 5132 5132 5132 5132 5132 5132 5132 5210 5210 5210 5210 5210 5210 5210 5210 5210 5210 5210 5291 5291 5291 5291 5291 5291 5291 5374 5460 5460 5548 5548 5640 5640 5734 5832 5832 5933 5933 5933 5933 5933 5933 5933 5933 5933 5933 5933 5933 5933 6038 6038 6038 6038 6038 6146 6038 6038 6146 6146 6146 6146 6259 6259 6375 7332 7332 7332 7492 7492 7492 7332 7332 7332 7332 7332 7492 7492 7492 3300 3300 3300 3333 3333 3333 3333 3333 3333 3333 3333 3333 3333 3333 3333 3333 3333 3333 3333 3300 3300 3300 3300 3300 3300 3300 3300 3300 3300 3269 3269 3269 3269 3269 3269 3238 3238 3238 3238 3269 3269 3269 3269 3238 3238 3238 3238 3238 3238 3238 3238 3238 3238 3208 3208 3208 3208 3208 3208 3238 3238 3238 3238 3238 3208 3178 3178 3178 3178 3178 3149 3149 3149 3149 3149 3120 3120 3149 3149 3149 3149 3120 3120 3120 3092 3092 3092 3092 3120 3120 3092 3092 3092 3092 3092 3092 3092 3092 3092 3120 3092 3092 3092 3120 3120 3149 3149 3178 3178 3178 3208 3208 3208 3238 3269 3269 3300 3333 3365 3399 3433 3433 3433 3468 3503 3503 3503 3576 3576 3576 3614 4241 4241 4295 4241 4241 4241 4241 4241 4241 4241 4241 4241 4241 4241 4241 4241 4190 4190 4190 4190 4139 4139 4139 4139 4139 4139 4139 4139 4190 4241 4241 4241 4241 4241 6038 6038 5933 5933 5933 5933 6038 6038 5933 5933 5933 5933 5933 5933 5933 5933 5933 5933 5933 5933 5933 5933 5933 5933 5933 5933 5933 5933 5933 5832 5832 5832 5832 5832 5832 5832 5832 5832 6038 6038 6146 6375 6375 6375 6375 6375 6375 6259 6259 6146 6146 6038 6038 6038 5832 5832 5832 5832 5832 5832 5933 5933 5933 5933 5933 5933 5933 6038 6038 5933 5933 6038 5933 5933 5933 5933 5933 5832 5734 5734 5734 5734 5734 5734 5640 5640 5640 5640 5640 5640 5640 5832 5933 6038 6038 6038 6038 6146 6146 6259 6259 6259 6259 6146 6038 6038 6038 6038 5933 5933 5933 6038 6259 6375 6375 0 0 0 0 0 0 0 0 0 0 0 0 0 0
0 0 0 0 0 0 0 0 0 0 0 0 0 0 0 0 0 0 0 0 0 0 0 0 0 0 0 0 0 0 0 0 0 2789 2789 2812 2812 2812 2835 2835 2835 2835 2859 2859 2883 2883 2883 2908 2908 2908 2933 2933 2958 2958 2958 2984 2984 2984 2984 2984 2984 2984 2984 2984 2984 2984 3010 3010 2984 2984 3010 3010 3010 3010 3037 3037 3064 3037 3037 3064 3064 3064 3064 3064 3064 3092 3092 3092 3092 3092 3120 3120 3149 0 0 0 0 0 3269 3269 3269 3269 3300 3269 3269 3269 3269 3269 3269 3269 3269 3269 3300 3300 3300 3300 3300 3300 3333 3333 3333 3333 3333 3365 3333 3333 3365 3365 3399 3399 3399 3433 3433 3433 3433 3468 3468 3468 3468 3468 3468 3503 3503 3539 3539 3576 3576 3576 3576 3576 3576 3614 3614 6038 6038 6146 6146 6259 6375 6375 6497 6622 6753 6753 6753 5056 5056 5056 5056 5056 5056 5056 5056 5056 5056 5056 5132 5056 5056 5056 5056 5056 5056 5056 5056 5056 5056 5056 5056 5056 5056 5056 5056 5056 5056 4983 4983 4983 4983 5056 5056 5056 5056 5056 5056 5056 5056 5056 4983 4983 4983 4983 4911 4911 4983 4983 4983 4983 4983 4983 4983 4983 4983 5056 5056 5056 5056 5056 5056 5056 5056 4983 4983 5056 5056 5056 5056 5056 4911 4911 4983 4983 4983 4983 4983 0 0 0 0 0 0 0 0 0 0 5132 5132 5210 5210 5210 5210 5210 5210 5210 5210 5210 5210 5210 5132 5132 5132 5132 5132 5132 5132 5210 5210 5210 5210 5210 5210 5210 5210 5210 5210 5210 5210 5291 5291 5291 5291 5291 5374 5374 5460 5460 5548 5548 5640 5640 5734 5832 5933 5933 5933 5933 5933 5933 5933 5933 5933 5933 5933 5933 5933 5933 5933 6038 6038 6038 6038 6038 6146 6038 6038 6146 6146 6146 6146 6259 6259 6375 7332 7332 7332 7492 7332 7332 7332 7332 7332 7332 7332 7332 7332 7332 7492 3300 3300 3333 3333 3333 3333 3333 3333 3333 3333 3333 3333 3333 3333 3333 3333 3333 3333 3333 3300 3300 3300 3300 3300 3300 3300 3300 3300 3300 3269 3269 3269 3269 3269 3238 3238 3238 3238 3238 3238 3269 3269 3238 3238 3238 3238 3238 3238 3238 3238 3238 3238 3208 3208 3208 3208 3208 3208 3238 3238 3238 3238 3238 3208 3178 3178 3178 3178 3178 3149 3149 3149 3149 3149 3120 3120 3149 3149 3149 3149 3120 3120 3120 3092 3092 3092 3092 3120 3120 3092 3092 3092 3092 3092 3092 3092 3092 3092 3092 3092 3092 3092 3092 3120 3149 3149 3178 3178 3178 3208 3208 3208 3238 3269 3269 3300 3333 3365 3399 3433 3433 3433 3468 3468 3468 3503 3539 3576 3614 3614 3653 4241 4295 4241 4241 4241 4241 4241 4241 4241 4241 4241 4241 4241 4241 4241 4190 4190 4190 4139 4139 4139 4139 4139 4139 4139 4139 4139 4241 4241 4241 4241 4241 4241 6038 6038 5933 5933 5933 5933 5933 6038 5933 5933 5933 5933 5933 5933 5933 5933 5933 5933 5933 5933 5933 5933 5933 5933 5933 5933 5933 5933 5933 5832 5832 5832 5832 5832 5832 5832 5832 6038 6038 6038 6259 6375 6375 6375 6375 6375 6375 6259 6146 6146 6146 5933 5933 5933 5832 5832 5933 5933 5933 5933 5933 5832 5832 5933 5933 5832 5832 5933 5933 5933 5933 5933 5933 5832 5832 5832 5832 5832 5734 5734 5734 5734 5734 5734 5640 5640 5640 5640 5640 5640 5640 5832 5933 6038 6146 6146 6146 6146 6259 6259 6259 6259 6259 6038 6038 6038 5933 5933 5933 5933 5933 6038 6259 6375 6375 0 0 0 0 0 0 0 0 0 0 0 0 0 0
0 0 0 0 0 0 0 0 0 0 0 0 0 0 0 0 0 0 0 0 0 0 0 0 0 0 0 0 0 0 0 0 0 2789 2789 2812 2812 2812 2835 2835 2859 2859 2859 2859 2883 2883 2908 2908 2908 2908 2933 2933 2958 2958 2958 2984 2984 2984 2984 2984 2984 2984 2984 2984 2984 3010 3010 3010 2984 2984 2984 2984 3010 3010 3037 3037 3037 3037 3037 3037 3037 3037 3064 3064 3064 3064 3092 3092 3092 3092 3120 3120 3149 0 0 0 0 0 3238 3238 3238 3238 3269 3269 3269 3269 3269 3269 3269 3269 3269 3269 3300 3300 3300 3300 3300 3333 3333 3333 3333 3365 3365 3365 3365 3365 3365 3365 3399 3399 3433 3433 3433 3433 3433 3433 3468 3468 3468 3468 3468 3503 3503 3539 3539 3576 3576 3576 3576 3576 3576 3614 3614 6038 6146 6146 6259 6259 6375 6497 6497 6622 6753 6753 6753 5056 5056 5056 5056 5056 5056 5056 5056 5056 5056 5056 5132 5056 5056 5132 5056 5056 5056 5056 5056 5056 5056 5056 5056 5056 5056 5056 5056 5056 5056 5056 5056 5056 5056 5056 5056 5056 5056 5056 5056 5056 5056 5056 5056 5056 5056 5056 4983 4983 4983 4983 4983 4983 4983 4983 4983 4983 4983 5056 5056 5056 5056 5056 5056 5056 5056 4983 4983 4983 5056 5056 5056 4983 4911 4911 4983 4983 4983 4983 4983 4983 4983 4983 4983 4983 4983 4983 4983 4983 5056 5132 5132 5210 5210 5210 5210 5210 5210 5210 5210 5210 5210 5210 5132 5132 5132 5132 5132 5132 5132 5210 5210 5210 5210 5210 5210 5291 5291 5291 5291 5291 5291 5291 5291 5291 5374 5374 5374 5460 5460 5548 5548 5548 5640 5640 5734 5832 5933 5933 5933 5933 5933 5933 5933 5933 5933 5933 5933 5933 5933 5933 6038 6038 6038 6038 6038 6038 6146 6146 6146 6146 6146 6259 6259 6375 6375 7332 7332 7332 7332 7332 7332 7332 7332 7332 7332 7332 7332 7332 7332 7332 7492 7492 3333 3333 3333 3333 3333 3333 3333 3333 3333 3333 3333 3333 3333 3333 3333 3333 3333 3333 3300 3300 3300 3300 3300 3300 3300 3300 3300 3300 3269 3269 3269 3269 3269 3238 3238 3238 3238 3238 3238 3238 3269 3238 3238 3238 3238 3238 3238 3238 3238 3238 3238 3238 3238 3208 3208 3208 3238 3238 3238 3208 3208 3208 3208 3178 3178 3178 3178 3178 3149 3149 3149 3149 3149 3149 3149 3149 3149 3149 3149 3120 3120 3120 3120 3092 3092 3120 3120 3120 3092 3092 3092 3092 3092 3092 3092 3092 3092 3092 3092 3092 3092 3092 3120 3149 3149 3178 3178 3178 3178 3178 3178 3208 3208 3238 3269 3333 3365 3399 3399 3433 3433 3468 3468 3468 3468 3503 3576 3614 3614 3653 4190 4190 4241 4295 4295 4295 4295 4295 4295 4241 4241 4241 4241 4241 4190 4190 4139 4139 4139 4139 4089 4089 4139 4139 4139 4139 4190 4241 4241 4241 4241 4241 4241 5933 6038 6038 6038 6038 5933 5933 6038 6038 6038 6038 5933 5933 5933 6038 6038 5933 5933 5933 5933 5933 5933 5933 5933 5933 5933 5933 5933 5933 5832 5832 5832 5832 5832 5832 5832 5933 6038 6038 6146 6259 6375 6375 6375 6375 6375 6375 6146 6146 6146 6146 5933 5933 5933 5832 5832 5933 5933 5933 5933 5933 5832 5832 5933 5933 5832 5832 5933 5933 5933 5933 5933 5933 5832 5832 5832 5832 5734 5640 5640 5640 5734 5734 5734 5640 5640 5640 5640 5640 5734 5734 5933 6038 6146 6146 6146 6146 6259 6259 6259 6259 6259 6259 6038 5933 5933 5933 5933 5933 5933 5933 6038 6375 6375 0 0 0 0 0 0 0 0 0 0 0 0 0 0 0
0 0 0 0 0 0 0 0 0 0 0 0 0 0 0 0 0 0 0 0 0 0 0 0 0 0 0 0 0 0 0 0 0 2789 2789 2812 2812 2835 2859 2859 2859 2883 2883 2883 2883 2908 2908 2908 2908 2933 2958 2958 2958 2958 2958 2984 2984 2984 2984 2984 2984 2984 2984 2984 2984 3010 3010 3010 2984 2984 2984 2984 3010 3010 3010 3037 3037 3037 3037 3037 3037 3037 3064 3064 3064 3064 3092 3092 3092 3120 3120 3149 3149 3149 0 0 0 0 3208 3208 3238 3238 3269 3269 3269 3269 3269 3269 3269 3300 3269 3269 3300 3300 3300 3300 3300 3333 3333 3333 3333 3365 3365 3365 3365 3365 3365 3365 3399 3399 3399 3433 3433 3433 3433 3433 3468 3468 3468 3468 3468 3503 3539 3539 3539 3576 3576 3576 3576 3576 3576 3614 3614 6038 6146 6259 6259 6259 6375 6497 6622 6622 6753 0 0 5056 5056 5056 5056 5056 5056 5056 5056 5056 5056 5132 5132 5132 5132 5132 5132 5132 5132 5056 5056 5056 5056 5056 5056 5056 5132 5132 5056 5056 5056 5056 5056 5056 5056 5056 5056 5056 5056 5056 5056 5056 5056 5056 5056 5056 5056 5056 4983 4983 4983 4983 4983 4983 4983 4983 4983 4983 4983 5056 5056 5056 5056 5056 5056 5056 5056 4983 4983 4983 5056 5056 5056 4983 4911 4911 4983 4983 4983 4983 4983 4983 4983 4983 4983 4983 4983 4983 4983 4983 5056 5132 5132 5210 5210 5210 5210 5210 5210 5210 5210 5210 5210 5210 5210 5210 5210 5132 5132 5132 5132 5210 5210 5210 5210 5210 5210 5291 5291 5291 5291 5291 5291 5291 5291 5374 5374 5374 5460 5460 5548 5548 5548 5640 5640 5734 5832 5933 5933 5933 6038 6038 5933 5933 5933 5933 5933 5933 5933 5933 5933 5933 6038 6038 6038 6038 6038 6038 6146 6146 6146 6146 6146 6259 6259 6375 6375 7332 7332 7332 7332 7332 7332 7332 7332 7332 7332 7332 7332 7332 7332 7332 7492 7492 3300 3300 3300 3333 3333 3333 3333 3333 3333 3333 3333 3333 3333 3333 3333 3333 3333 3333 3333 3333 3333 3300 3300 3300 3300 3300 3300 3300 3269 3269 3269 3269 3269 3238 3238 3269 3269 3238 3238 3238 3269 3238 3238 3238 3238 3238 3238 3238 3238 3238 3238 3238 3238 3208 3208 3208 3238 3238 3238 3208 3208 3208 3208 3178 3178 3178 3178 3178 3149 3149 3149 3149 3149 3149 3149 3149 3149 3149 3149 3120 3120 3120 3120 3092 3092 3120 3120 3120 3092 3092 3092 3092 3092 3092 3092 3092 3092 3092 3092 3092 3120 3120 3120 3120 3149 3149 3178 3178 3178 3178 3178 3208 3208 3238 3269 3333 3333 3365 3399 3433 3433 3468 3468 3468 3468 3503 3576 3614 3614 3653 4190 4190 4241 4241 4295 4295 4295 4295 4295 4295 4241 4241 4241 4241 4190 4190 4139 4139 4139 4139 4089 4089 4139 4241 4190 4190 4190 4241 4295 4295 4295 4295 4295 5933 6038 5933 5933 6038 6038 6038 6038 6038 6038 6038 6038 5933 5933 5933 5933 6038 5933 5933 5933 5933 5933 5933 5933 5933 5933 5933 5933 5933 5933 5832 5734 5734 5832 5832 5832 5933 6038 6038 6146 6259 6375 6375 6375 6375 6375 6375 6146 6146 6038 6038 6038 6038 6038 5933 5933 6038 6038 6038 6038 6038 5933 5933 5933 5933 5933 5933 6038 6038 5933 5933 5933 5933 5832 5734 5734 5734 5734 5640 5640 5640 5640 5640 5640 5640 5640 5640 5640 5734 5734 5832 5933 6038 6146 6259 6259 6259 6259 6259 6259 6259 6259 6146 6038 5933 5933 5933 5933 5933 5933 5933 6038 6375 6375 0 0 0 0 0 0 0 0 0 0 0 0 0 0 0
0 0 0 0 0 0 0 0 0 0 0 0 0 0 0 0 0 0 0 0 0 0 0 0 0 0 0 0 0 0 0 0 0 2812 2812 2812 2812 2835 2859 2859 2859 2883 2883 2883 2883 2908 2908 2933 2933 2933 2958 2958 2958 2958 2984 2984 2984 2984 2984 2984 2984 2984 2984 2984 3010 3010 3010 3010 2984 2984 2984 3010 2984 2984 3010 3037 3037 3037 3064 3064 3064 3064 3064 3064 3064 3064 3092 3092 3092 3120 3120 3149 3149 3149 0 0 0 0 3208 3208 3238 3238 3238 3269 3269 3269 3269 3269 3269 3300 3269 3269 3269 3269 3300 3300 3300 3300 3300 3333 3333 3333 3365 3365 3365 3365 3365 3365 3399 3399 3399 3433 3433 3433 3433 3433 3468 3468 3468 3468 3468 3503 3539 3539 3539 3576 3576 3576 3576 3576 3576 3614 3614 6146 6146 6259 6259 6259 6375 6497 6622 6622 0 0 0 5056 5056 5056 5056 5056 5056 5056 5056 5056 5056 5132 5132 5132 5132 5132 5210 5132 5132 5056 5056 5056 5056 5056 5056 5056 5056 5056 5056 5056 5056 5056 5056 5056 5056 5056 5056 5056 5056 5056 5056 5056 5056 5056 5056 5056 5056 5056 4983 4983 5056 5056 4983 4983 4983 4983 4983 4983 4983 5056 5056 5056 5056 5056 5056 5056 5056 5056 5056 5056 5056 5056 5056 4983 4911 4911 4983 4983 4983 4983 4983 4983 4983 4983 4983 4983 4983 4983 4983 4983 5056 5132 5132 5132 5132 5210 5210 5210 5210 5210 5210 5210 5210 5210 5210 5210 5210 5210 5210 5132 5132 5210 5210 5210 5210 5210 5210 5291 5291 5291 5291 5291 5291 5291 5291 5374 5374 5374 5460 5548 5548 5548 5640 5640 5734 5832 5832 5933 5933 5933 6038 6038 5933 5933 5933 5933 5933 5933 5933 5933 5933 5933 6038 6038 6038 6038 6038 6038 6146 6146 6146 6146 6146 6259 6259 6259 7332 7332 7332 7332 7332 7332 7332 7332 7332 7332 7332 7332 7332 7332 7332 7332 7332 7332 3300 3300 3300 3333 3333 3333 3333 3333 3333 3333 3333 3333 3333 3333 3333 3333 3333 3333 3333 3333 3333 3333 3333 3333 3300 3300 3300 3300 3300 3300 3300 3300 3269 3269 3269 3269 3269 3269 3269 3269 3269 3238 3238 3238 3238 3238 3238 3238 3238 3238 3238 3238 3238 3238 3238 3238 3238 3238 3238 3208 3208 3208 3208 3178 3178 3178 3178 3178 3178 3178 3178 3178 3149 3149 3149 3149 3149 3149 3149 3120 3120 3120 3120 3092 3092 3120 3120 3120 3092 3092 3092 3092 3092 3092 3092 3092 3092 3092 3092 3092 3092 3092 3120 3120 3149 3149 3178 3178 3178 3178 3178 3208 3238 3238 3269 3333 3333 3365 3399 3433 3433 3468 3468 3468 3468 3503 3576 3614 3614 4241 4241 4295 4241 4241 4295 4295 4295 4295 4295 4241 4241 4241 4241 4190 4190 4190 4139 4139 4190 4190 4190 4241 4241 4241 4241 4241 4241 4241 4295 4295 4295 4295 4295 5933 6038 5933 5933 6038 6038 6038 6038 6038 6038 6038 6038 6038 6038 5933 5933 5933 5933 5933 5933 5933 5933 5933 5933 5933 5933 5933 5933 5933 5933 5832 5734 5734 5832 5832 5832 5933 6038 6146 6146 6259 6375 6375 6375 6375 6375 6375 6146 6146 6038 6038 6038 6038 6038 6038 6038 6038 6038 6038 6038 6038 6038 6038 5933 5933 5933 6038 6038 6038 5933 5933 5933 5933 5832 5734 5734 5734 5734 5640 5640 5640 5640 5640 5640 5640 5640 5640 5640 5640 5734 5832 5933 6146 6146 6146 6259 6259 6259 6259 6259 6375 6259 6146 6038 5933 5933 5933 5933 5933 5933 6038 6146 6375 6497 6622 0 0 0 0 0 0 0 0 0 0 0 0 0 0
0 0 0 0 0 0 0 0 0 0 0 0 0 0 0 0 0 0 0 0 0 0 0 0 0 0 0 0 0 0 0 0 0 2812 2812 2835 2835 2835 2859 2859 2859 2883 2883 2883 2883 2908 2908 2933 2933 2933 2933 2958 2958 2958 2984 2984 2984 2984 2984 2984 2984 2984 2984 2984 3010 3010 3010 3010 2984 2984 3010 3010 2984 2984 3010 3037 3037 3037 3064 3064 3064 3064 3064 3064 3064 3092 3092 3092 3092 3120 3149 3149 3178 0 0 0 0 0 0 3208 3208 3238 3238 3269 3269 3269 3269 3269 3269 3300 3269 3269 3269 3269 3300 3300 3300 3300 3300 3333 3333 3333 3333 3365 3365 3365 3399 3399 3399 3399 3399 3433 3433 3433 3433 3433 3468 3468 3468 3468 3468 3503 3539 3539 3539 3576 3576 3576 3576 3576 3614 3614 3614 6146 6146 6259 6375 6497 6497 6497 6622 6753 0 0 0 0 5056 5056 5056 5056 5056 5056 5056 5056 5132 5132 5132 5132 5132 5132 5210 5132 5132 5132 5056 5056 5056 5056 5056 5056 5056 5056 5056 5056 5056 5056 5056 5056 5056 5056 5056 5056 5056 5056 5056 5056 5056 5056 5056 5056 5056 5056 5056 5056 5056 5056 5056 5056 5056 5056 5056 5056 5056 5056 5056 5056 5056 5056 5056 5056 5056 5056 5056 5056 5056 5056 5056 5056 4983 4983 4983 4983 4983 4983 4983 4983 4983 4983 4983 4983 4983 4983 4983 4983 5056 5132 5132 5132 5132 5210 5210 5210 5210 5210 5210 5291 5291 5210 5210 5210 5210 5210 5210 5210 5210 5210 5210 5210 5210 5210 5210 5291 5291 5291 5291 5291 5291 5291 5374 5374 5460 5460 5460 5548 5548 5640 5640 5640 5734 5832 5832 5933 5933 5933 5933 6038 6038 5933 5933 5933 5933 5933 5933 5933 5933 6038 6038 6038 6038 6038 6038 6038 6146 6146 6146 6146 6146 6259 6375 7178 7178 7332 7332 7332 7332 7332 7332 7332 7332 7332 7332 7332 7332 7332 7332 7332 7332 7332 3300 3300 3300 3333 3333 3333 3333 3333 3333 3333 3333 3333 3333 3333 3333 3333 3333 3333 3333 3333 3333 3333 3333 3333 3333 3333 3300 3300 3300 3300 3300 3300 3269 3269 3269 3269 3269 3269 3269 3269 3269 3238 3238 3238 3238 3238 3238 3238 3238 3238 3238 3238 3238 3238 3238 3238 3238 3238 3238 3208 3208 3208 3208 3178 3178 3178 3178 3178 3178 3178 3178 3178 3149 3149 3149 3149 3149 3149 3120 3120 3120 3120 3120 3092 3092 3120 3120 3092 3092 3092 3092 3092 3092 3092 3092 3092 3092 3092 3092 3092 3092 3092 3120 3149 3149 3149 3178 3178 3208 3208 3208 3208 3238 3269 3300 3333 3333 3365 3399 3433 3433 3468 3468 3503 3503 3503 3576 3614 4295 4241 4241 4295 4295 4295 4295 4295 4295 4295 4295 4241 4241 4241 4241 4190 4190 4190 4139 4139 4190 4190 4190 4190 4241 4241 4241 4241 4241 4295 4295 4349 4295 4295 4295 5933 6038 5933 5933 6038 6038 6038 6038 6038 6038 6038 6038 6038 6038 5933 5933 5933 5933 5933 5933 5933 5933 5933 5832 5832 5832 5933 5832 5832 5933 5832 5832 5832 5832 5933 6038 6038 6146 6146 6146 6259 6375 6375 6375 6259 6259 6259 6146 6146 6038 6038 6146 6146 6146 6146 6146 6146 6146 6146 6146 6146 6038 6038 6038 6146 6146 6146 6038 6038 5933 5933 6038 5933 5832 5734 5734 5734 5734 5640 5640 5640 5640 5640 5640 5640 5640 5640 5640 5640 5734 5832 5933 6146 6146 6146 6259 6259 6259 6259 6259 6375 6259 6146 5933 5933 5832 5832 5734 5734 5933 6146 6259 6375 6497 6622 0 0 0 0 0 0 0 0 0 0 0 0 0 0
0 0 0 0 0 0 0 0 0 0 0 0 0 0 0 0 0 0 0 0 0 0 0 0 0 0 0 0 0 0 0 0 0 2812 2812 2835 2835 2835 2859 2859 2859 2859 2883 2883 2883 2908 2908 2933 2933 2933 2933 2933 2958 2958 2984 2984 2984 2984 2984 2984 2984 2984 2984 2984 3010 3010 3010 3010 2984 2984 3010 3010 3010 3010 3037 3037 3064 3064 3064 3064 3064 3064 3064 3064 3064 3092 3092 3092 3092 3120 3149 3149 3178 0 0 0 0 0 0 3208 3208 3208 3238 3269 3269 3269 3269 3269 3269 3300 3300 3300 3300 3300 3300 3300 3300 3300 3300 3333 3333 3333 3333 3365 3365 3365 3399 3399 3399 3399 3399 3433 3433 3433 3433 3433 3468 3468 3468 3468 3468 3468 3539 3539 3539 3576 3576 3576 3576 3614 3614 3614 3614 0 0 0 0 0 0 0 0 0 0 0 0 0 0 5056 5056 5056 5056 5132 5132 5132 5132 5132 5132 5132 5132 5132 5210 5132 5056 5056 5056 5056 5056 5056 5056 5056 5056 5132 5056 5056 5056 5056 5056 5056 5056 5056 5056 5056 5056 5056 5056 5056 5056 5056 5056 5056 5056 5056 5056 5056 5056 5056 5056 5056 5056 5056 5056 5056 5056 5056 5056 5056 5056 5056 5056 5056 5056 5056 5056 5056 5056 5056 5056 5056 4983 4983 4983 4983 4983 4983 4983 4983 4983 4983 4983 4983 4983 4983 4983 4983 5056 5132 5132 5210 5210 5210 5210 5210 5210 5210 5210 5291 5291 5291 5210 5210 5210 5210 5210 5210 5210 5210 5210 5210 5210 5210 5210 5291 5291 5291 5291 5291 5291 5374 5374 5460 5460 5460 5548 5548 5548 5640 5640 5640 5734 5832 5832 5933 5933 5933 5933 5933 5933 6038 5933 5933 6038 5933 5933 5933 5933 6038 6038 6038 6038 6038 6146 6146 6146 6146 6146 6146 6146 6259 6375 7178 7178 7332 7332 7332 7332 7332 7332 7332 7332 7332 7332 7332 7332 7332 7332 7492 7492 7660 7660 3300 3300 3333 3333 3333 3333 3333 3333 3333 3333 3333 3333 3333 3333 3333 3333 3333 3333 3333 3333 3333 3333 3333 3333 3333 3300 3300 3300 3300 3300 3300 3269 3269 3269 3269 3269 3269 3269 3269 3269 3269 3269 3269 3238 3238 3238 3238 3238 3238 3238 3238 3238 3238 3238 3238 3238 3238 3238 3208 3208 3208 3208 3178 3178 3178 3178 3178 3178 3178 3178 3178 3149 3149 3149 3149 3149 3149 3120 3120 3120 3120 3120 3092 3092 3120 3120 3092 3092 3092 3092 3092 3092 3092 3092 3092 3092 3092 3092 3092 3092 3092 3120 3149 3149 3149 3178 3208 3208 3208 3208 3238 3269 3269 3300 3333 3333 3365 3399 3433 3433 3468 3468 3503 3539 3539 3576 3614 4295 4295 4295 4295 4295 4295 4295 4295 4295 4295 4295 4241 4241 4241 4241 4241 4190 4190 4190 4190 4190 4190 4190 4190 4241 4241 4241 4241 4241 4295 4295 4349 4295 4295 4295 5933 6038 6038 6038 6038 6038 6038 6038 6038 6038 6038 6038 6038 6038 5933 5933 5933 5933 5933 5933 5832 5832 5832 5832 5832 5832 5832 5832 5832 5832 5832 5832 5832 5832 5832 6038 6038 6146 6146 6146 6259 6375 6375 6375 6259 6259 6259 6038 6038 6038 6038 6146 6146 6146 6146 6146 6146 6146 6146 6259 6259 6146 6146 6146 6146 6146 6146 6038 6038 6038 6038 6038 5933 5832 5832 5734 5734 5734 5640 5640 5640 5640 5640 5640 5640 5640 5640 5640 5734 5832 5933 6038 6146 6146 6146 6146 6146 6259 6259 6259 6375 6259 6038 5933 5933 5832 5832 5734 5734 5933 6146 6259 6375 6497 6622 6622 0 0 0 0 0 0 0 0 0 0 0 0 0
0 0 0 0 0 0 0 0 0 0 0 0 0 0 0 0 0 0 0 0 0 0 0 0 0 0 0 0 0 0 0 0 2835 2812 2812 2835 2835 2835 2859 2859 2859 2859 2859 2883 2908 2908 2908 2933 2933 2933 2933 2933 2958 2958 2958 2984 2984 2984 2984 2984 2984 2984 2984 2984 3010 3010 3010 3010 2984 2984 3010 3010 3010 3010 3037 3037 3064 3064 3064 3064 3092 3092 3092 3092 3092 3092 3120 3092 3092 3092 3092 3149 3178 0 0 0 0 0 0 3208 3208 3208 3238 3269 3269 3269 3269 3269 3269 3300 3300 3300 3300 3300 3300 3300 3300 3300 3300 3300 3333 3333 3365 3365 3365 3399 3399 3399 3399 3399 3433 3433 3433 3433 3433 3433 3468 3468 3468 3468 3468 3468 3503 3539 3539 3539 3539 3576 3576 3576 3576 3614 3614 0 0 0 0 0 0 0 0 0 0 0 0 0 0 0 5132 5132 5132 5132 5132 5132 5132 5210 5132 5132 5132 5132 5210 5132 5056 5056 5056 5056 5056 5056 5056 5056 5056 5132 5056 5056 5056 5056 5056 5056 5056 5056 5056 5056 5056 5056 5056 5056 5056 5056 5056 5056 5056 5056 5056 5056 5056 5056 5056 5056 5056 5056 5056 5056 5056 5056 5056 5056 5056 5056 5056 5056 5056 5056 5056 5056 5056 5056 5056 5056 4983 4983 4983 4983 4983 4983 4983 4983 4983 4983 4983 4983 4983 4983 4983 5056 5132 5132 5132 5210 5210 5210 5210 5210 5210 5210 5210 5291 5291 5291 5210 5210 5210 5210 5210 5210 5210 5210 5210 5210 5210 5210 5210 5210 5291 5291 5291 5291 5291 5374 5374 5460 5460 5548 5548 5548 5548 5640 5640 5734 5734 5832 5832 5832 5933 5933 5933 5933 5933 6038 5933 5933 6038 5933 5933 6038 6038 6038 6038 6038 6038 6146 6146 6146 6146 6146 6146 6146 6259 6259 6375 7178 7178 7332 7332 7332 7332 7332 7332 7332 7332 7332 7332 7332 7332 7492 7492 7492 7492 7660 7660 3300 3300 3333 3333 3333 3333 3333 3333 3333 3333 3333 3333 3333 3333 3333 3333 3333 3333 3333 3333 3333 3333 3333 3333 3333 3300 3300 3300 3300 3300 3300 3269 3269 3300 3300 3269 3269 3269 3269 3269 3269 3269 3269 3238 3238 3238 3238 3238 3238 3238 3238 3238 3238 3238 3238 3238 3238 3238 3208 3208 3208 3208 3178 3178 3178 3178 3178 3178 3178 3178 3178 3149 3149 3149 3149 3149 3149 3149 3149 3149 3149 3120 3120 3120 3120 3120 3092 3092 3092 3092 3092 3092 3092 3092 3092 3092 3092 3092 3092 3092 3092 3092 3149 3149 3149 3178 3178 3208 3208 3238 3238 3269 3300 3300 3333 3365 3399 3433 3433 3468 3468 3468 3539 3576 3576 3576 3614 4295 4295 4295 4295 4295 4295 4295 4295 4295 4295 4295 4241 4241 4241 4241 4295 4241 4241 4241 4241 4190 4190 4190 4190 4190 4190 4190 4241 4241 4295 4295 4349 4295 4295 4295 5933 6038 6038 6038 6038 6038 6038 6038 6038 6038 6038 6038 6038 6038 5933 5933 5933 5933 5933 5933 5832 5832 5832 5832 5832 5832 5832 5832 5832 5832 5832 5832 5832 5832 5832 6038 6038 6146 6146 6146 6259 6375 6375 6259 6259 6259 6259 6038 6038 6038 6038 6146 6146 6146 6146 6146 6259 6259 6259 6259 6259 6259 6259 6259 6259 6259 6146 6146 6146 6038 6038 6038 6038 5933 5933 5832 5832 5734 5640 5640 5640 5640 5640 5640 5640 5640 5640 5640 5734 5832 6038 6038 6146 6146 6146 6146 6146 6259 6259 6259 6375 6259 6038 5933 5933 5832 5832 5734 5734 5933 6259 6375 6375 6497 6622 6622 0 0 0 0 0 0 0 0 0 0 0 0 0
0 0 0 0 0 0 0 0 0 0 0 0 0 0 0 0 0 0 0 0 0 0 0 0 0 0 0 0 0 0 0 0 2835 2835 2835 2835 2835 2859 2835 2835 2859 2859 2859 2883 2883 2908 2908 2933 2933 2933 2933 2958 2958 2958 2958 2958 2984 2984 2984 2984 2984 2984 2984 3010 3010 3010 3010 3010 3010 3010 3010 3010 3010 3010 3037 3064 3064 3064 3064 3092 3092 3092 3092 3092 3092 3092 3120 3092 3092 3092 3092 3149 3178 0 0 0 0 0 0 3208 3208 3238 3238 3269 3269 3269 3300 3269 3269 3269 3300 3300 3300 3300 3300 3300 3300 3300 3300 3300 3333 3333 3333 3365 3365 3399 3399 3399 3399 3399 3433 3433 3433 3433 3433 3468 3433 3433 3468 3468 3468 3468 3503 3539 3539 3539 3539 3576 3576 3576 3576 3614 3614 0 0 0 0 0 0 0 0 0 0 0 0 0 0 0 0 0 0 0 0 5056 5291 5291 5291 5291 5291 5291 5291 5056 5056 5056 5056 5056 5056 5056 5056 5056 5056 5132 5056 5056 5132 5056 5056 5056 5056 5056 5056 5056 5056 5056 5056 5056 5056 5056 5056 5056 5056 5056 5056 5056 5056 5056 5056 5056 5056 5056 5056 5056 5056 5056 5056 5056 5056 5056 5056 5056 5056 5056 5056 5056 5056 5056 5056 5056 4983 4983 4983 4983 4983 4983 4983 4983 4983 4983 4983 4983 4983 4983 4983 5056 5132 5132 5132 5210 5210 5210 5210 5210 5210 5210 5210 5210 5210 5291 5291 5210 5210 5210 5210 5210 5210 5210 5210 5210 5210 5210 5210 5210 5291 5291 5291 5374 5374 5374 5460 5460 5548 5548 5548 5548 5548 5640 5640 5640 5734 5734 5832 5832 5832 5832 5832 5933 5933 5933 5933 5933 6038 6038 6038 6038 6038 6038 6038 6038 6038 6146 6146 6146 6146 6146 6146 6259 6259 6375 6753 7178 7178 7332 7332 7332 7332 7332 7332 7332 7332 7332 7492 7492 7492 7492 7492 7492 7492 7492 3269 3269 3269 3333 3333 3333 3333 3333 3333 3333 3333 3333 3333 3333 3333 3333 3333 3333 3333 3333 3333 3333 3333 3333 3333 3300 3300 3300 3300 3300 3300 3300 3300 3300 3300 3300 3269 3269 3269 3269 3269 3269 3269 3269 3238 3238 3238 3238 3238 3238 3238 3238 3238 3238 3238 3238 3238 3238 3238 3208 3208 3208 3208 3178 3178 3178 3178 3178 3178 3178 3178 3178 3149 3149 3149 3149 3149 3149 3149 3149 3149 3149 3120 3120 3120 3120 3120 3092 3092 3092 3092 3092 3092 3092 3092 3092 3092 3092 3092 3092 3092 3092 3092 3149 3149 3149 3178 3178 3208 3208 3238 3238 3269 3300 3300 3365 3365 3399 3433 3433 3468 3468 3468 3539 3576 3576 3576 3614 4295 4295 4295 4295 4295 4295 4295 4241 4241 4241 4241 4241 4241 4241 4241 4295 4241 4241 4241 4241 4190 4190 4190 4190 4190 4190 4190 4241 4241 4295 4349 4349 4349 4349 4349 5933 6038 6038 6038 6038 6038 6038 6038 6038 6038 6038 6038 5933 5933 5933 5933 5933 5933 5933 5832 5832 5832 5832 5832 5832 5832 5832 5832 5832 5933 5933 5832 5832 5933 5933 6038 6038 6146 6146 6146 6259 6375 6375 6259 6259 6259 6259 6146 6146 6038 6038 6146 6038 6038 6146 6146 6146 6259 6259 6259 6375 6259 6259 6375 6375 6375 6375 6259 6259 6146 6146 6146 6146 6038 6038 5933 5832 5832 5640 5640 5640 5640 5640 5640 5640 5640 5640 5640 5734 5832 6038 6038 6146 6146 6146 6146 6146 6259 6259 6259 6259 6259 6038 5933 5933 5832 5832 5734 5734 5933 6375 6375 6375 6497 6622 6622 0 0 0 0 0 0 0 0 0 0 0 0 0
0 0 0 0 0 0 0 0 0 0 0 0 0 0 0 0 0 0 0 0 0 0 0 0 0 0 0 0 0 0 0 0 2835 2835 2835 2835 2835 2859 2835 2835 2835 2835 2835 2859 2883 2908 2908 2908 2908 2908 2933 2933 2958 2958 2958 2958 2984 2984 2984 2984 2984 2984 2984 3010 3010 3010 3037 3037 3010 3010 3010 3010 3037 3037 3037 3064 3064 3064 3064 3092 3092 3092 3092 3092 3092 3120 3120 3120 3120 3149 3149 3149 3149 0 0 0 0 0 0 3269 3269 3269 3269 3269 3269 3269 3300 3269 3269 3269 3300 3300 3300 3300 3300 3300 3300 3300 3300 3300 3333 3333 3333 3365 3399 3399 3399 3399 3399 3399 3433 3433 3433 3433 3433 3468 3433 3433 3468 3468 3468 3468 3503 3539 3539 3539 3539 3576 3576 3576 3576 3614 3614 0 0 0 0 0 0 0 0 0 0 0 0 0 0 0 0 0 0 0 0 0 0 0 5132 0 0 5374 0 5056 5056 5056 5056 5056 5056 5056 5056 5132 5132 5210 5056 5056 5132 5132 5056 5056 5132 5132 5132 5132 5132 5056 5056 5056 5056 5056 5056 5056 5056 5056 5056 5056 5056 5056 5056 5056 5056 5056 5056 5056 5056 5056 5056 5056 5056 5056 5056 5056 5056 5056 5056 5056 5056 5056 5056 5056 4983 4983 4983 4983 4983 4983 4983 4983 4983 4983 4983 4983 4983 4983 4983 5056 5056 5132 5132 5210 5210 5210 5210 5210 5210 5210 5210 5210 5210 5210 5210 5210 5210 5210 5210 5210 5210 5210 5210 5210 5210 5210 5210 5210 5291 5291 5291 5291 5291 5374 5374 5460 5548 5548 5548 5548 5548 5640 5640 5640 5640 5734 5832 5832 5832 5832 5832 5933 5933 5933 5933 5933 6038 6038 6038 6038 6038 6038 6038 6038 6038 6146 6146 6146 6146 6146 6146 6259 6259 6375 6753 7178 7178 7332 7492 7492 7332 7332 7332 7332 7332 7332 7492 7492 7492 7492 7492 7492 7660 7660 3333 3269 3269 3333 3333 3365 3365 3365 3365 3333 3333 3333 3333 3333 3333 3333 3333 3333 3333 3333 3333 3333 3333 3333 3333 3300 3300 3300 3300 3300 3300 3300 3300 3300 3300 3300 3269 3269 3269 3269 3269 3269 3269 3269 3238 3238 3238 3238 3238 3238 3238 3238 3238 3238 3238 3238 3238 3238 3238 3208 3208 3208 3208 3178 3178 3178 3178 3178 3178 3178 3178 3178 3149 3149 3149 3149 3149 3149 3149 3149 3149 3149 3120 3120 3120 3120 3120 3092 3092 3092 3092 3092 3092 3092 3092 3092 3092 3092 3092 3092 3092 3092 3120 3149 3149 3149 3178 3178 3208 3208 3238 3238 3269 3300 3300 3365 3399 3399 3433 3468 3468 3468 3468 3539 3576 3576 3576 3614 4295 4295 4295 4295 4295 4295 4295 4241 4241 4241 4241 4241 4241 4241 4241 4295 4241 4241 4241 4241 4190 4190 4190 4190 4190 4190 4190 4241 4241 4295 4295 4349 4349 4349 4405 6038 6038 6038 6038 6038 6038 6038 6038 6038 6038 6038 6038 5933 5933 5933 5933 5933 5832 5832 5832 5832 5832 5832 5832 5832 5832 5832 5832 5832 5832 5933 5933 5933 5933 6038 6146 6146 6146 6259 6259 6375 6375 6375 6259 6259 6259 6259 6146 6146 6038 6038 6146 6038 6038 6146 6146 6146 6259 6259 6259 6375 6375 6375 6375 6375 6259 6259 6375 6375 6259 6259 6146 6146 6146 6146 5933 5933 5734 5734 5640 5640 5640 5640 5640 5640 5640 5640 5640 5734 5832 5933 6038 6038 6038 6146 6146 6146 6146 6259 6259 6259 6259 6038 5933 5933 5832 5832 5734 5734 5933 6375 6375 6375 6497 6497 6497 0 0 0 0 0 0 0 0 0 0 0 0 0
