0 0 0 0 0 0 0 0 0 0 0 0 0 0 0 0 0 0 0 0 0 0 0 0 0 0 0 0 0 0 0 0 0 2078 2078 2078 2078 2078 2078 2078 2078 2078 2078 2078 2078 2090 2090 2090 2090 2090 2090 2090 2090 2090 2090 2103 2103 2103 2103 2103 2103 2103 2103 2103 2103 2103 2090 2090 2090 2090 2090 2090 2090 2090 2078 2078 2078 2078 2078 2078 2078 2078 2090 2090 2090 2090 2090 2090 2090 1529 1529 1529 1529 1529 1529 1529 1529 1529 1529 1529 1529 1529 1523 1523 1458 1458 1458 1458 1458 1458 1458 1458 1464 1464 1470 1470 1477 1477 1477 1477 1477 1477 1477 1477 1477 1477 1477 1477 1477 1477 1477 1477 1477 1477 1477 1483 1483 1483 1483 1483 1483 1483 1483 1483 1483 1483 1483 1483 1477 1477 1477 1477 1477 1477 1477 1483 1477 1477 1477 1477 1477 1477 1477 1477 1477 1477 1477 1477 1477 1477 1477 1477 1477 1477 1477 1477 1477 1477 1477 1477 1477 1477 1477 1477 1477 1477 1477 1477 1477 1477 1477 1477 1477 1477 1483 1483 1477 1477 1483 1477 1477 1477 1477 1477 1477 1477 1477 1477 1470 1470 1464 1464 1464 1458 1458 1458 1458 1458 1458 1464 1470 1470 1477 1477 1483 1489 1503 1503 2143 2143 2143 2143 2143 2143 2143 2143 2143 2143 2156 2143 2143 2143 2156 2156 2143 2129 2129 1883 1883 1883 1883 1883 1883 1894 1894 1894 1894 1894 1894 2143 2156 2156 2156 2156 2156 2156 2170 1959 1947 1947 1947 1947 1376 1376 1376 1376 1376 1376 1376 1376 1376 1376 1376 1381 1381 1381 1387 1404 1410 1410 1410 1415 1415 1415 1415 1415 1415 1415 1415 1415 1415 1415 1415 1415 1421 1415 1415 1415 1415 1415 1415 1415 1415 1415 1415 1415 1415 1415 1415 1421 1421 1421 1421 1421 1421 1421 1421 1421 1421 1421 1421 1421 1415 1415 1415 1415 1415 1415 1415 1415 1415 1415 1415 1410 1410 1410 1415 1415 1410 1410 1410 1410 1410 1410 1410 1415 1415 1415 1415 1415 1415 1421 1421 1421 1421 1421 1421 1415 1415 1415 1421 1421 1421 1421 1415 1415 1421 1415 1415 1415 1415 1415 1415 1415 1421 1421 1427 1427 1427 1427 1343 1343 1343 1349 1349 1349 1349 1349 1349 1349 1354 1354 1349 1349 1349 0 2143 2143 2143 2156 2156 2156 2170 2170 2170 2143 2143 2156 1883 1883 1904 1904 1904 1904 1904 1915 1915 1915 1915 2156 2156 2156 2156 2156 2170 2170 2170 2170 2170 2170 2170 2156 2156 2156 2156 2156 2156 2156 2156 2156 2156 2156 2156 2156 2156 2156 2156 2156 2156 2156 2156 2156 2156 2156 2156 2156 2156 2156 2156 2156 2170 2170 1464 1464 1464 1470 1470 1470 1477 1477 1477 1477 1477 1477 1477 1477 1477 1477 1477 1477 1477 1477 1477 1477 1477 1477 1477 1477 1477 1477 2156 2156 2156 2156 2156 2143 2143 2143 2143 2143 2156 2156 2156 2156 2170 2156 2156 2156 2156 2156 2156 2156 2156 2156 2143 2143 2156 2156 2156 2156 2156 2156 2156 2156 2156 2170 2170 2170 2170 2170 2170 2156 2156 2156 2156 2156 2156 2156 2156 2156 2156 2170 2170 2170 2184 2184 2170 2170 2170 2156 2156 2156 2156 2156 2156 2170 2170 2170 2170 2170 2170 2170 2170 2170 2170 2170 2156 2156 2170 2156 2156 2156 2156 2156 2170 2170 2156 2156 2156 2156 2156 2156 2156 2156 2156 2156 2156 2143 2143 2143 2129 2129 2129 2129 2129 2129 2129 2143 2143 2129 2129 2129 2129 2129 2129 2129 2129 2129 2129 2129 2129 2143 2129 2129 2129 2143 2143 2143 2143 2129 2129 0 0 0 0 0 0 0 0 0
0 0 0 0 0 0 0 0 0 0 0 0 0 0 0 0 0 0 0 0 0 0 0 0 0 0 0 0 0 0 0 0 0 2078 2078 2078 2078 2078 2078 2078 2078 2065 2065 2078 2078 2078 2078 2090 2090 2090 2078 2078 2090 2090 2090 2090 2090 2090 2090 2090 2090 2090 2090 2090 2090 2090 2078 2078 2078 2078 2078 2078 2078 2065 2065 2065 2065 2065 2065 2065 2065 2065 2065 2065 2078 2078 2078 2078 2078 1529 1529 1529 1529 1529 1529 1529 1529 1529 1529 1529 1529 1529 1536 1536 1458 1458 1458 1458 1458 1458 1464 1464 1464 1464 1470 1470 1477 1477 1477 1477 1477 1477 1477 1477 1477 1477 1477 1477 1477 1477 1477 1477 1477 1477 1477 1483 1483 1483 1483 1483 1483 1483 1483 1483 1483 1483 1483 1477 1477 1477 1477 1477 1477 1477 1483 1483 1477 1477 1477 1477 1477 1477 1477 1477 1477 1477 1477 1477 1483 1483 1477 1477 1477 1477 1477 1477 1477 1477 1477 1477 1477 1477 1477 1477 1477 1477 1477 1483 1483 1483 1483 1483 1477 1477 1483 1483 1477 1477 1483 1483 1477 1477 1477 1477 1477 1483 1477 1477 1477 1470 1470 1464 1464 1464 1464 1464 1464 1464 1464 1464 1470 1477 1477 1477 1483 1489 1489 2143 2143 2143 2143 2143 2143 2143 2143 2143 2143 2143 2143 2143 2129 2129 2143 2143 2143 2129 2129 1883 1883 1883 1883 1883 1883 1894 1894 1894 1894 1894 1894 2143 2143 2143 2156 2156 2156 2156 2170 1959 1959 1959 1959 1959 1381 1381 1376 1376 1376 1376 1376 1376 1376 1376 1376 1381 1381 1381 1392 1398 1404 1404 1410 1410 1410 1415 1415 1415 1415 1415 1415 1415 1415 1415 1415 1415 1415 1415 1410 1410 1410 1410 1410 1410 1410 1410 1415 1415 1415 1415 1415 1415 1415 1415 1415 1415 1415 1415 1415 1415 1415 1415 1415 1415 1410 1410 1410 1410 1410 1410 1410 1410 1404 1404 1404 1404 1410 1410 1410 1410 1410 1410 1410 1410 1410 1410 1410 1410 1410 1410 1410 1410 1415 1415 1415 1415 1415 1415 1415 1415 1415 1415 1415 1415 1415 1415 1415 1415 1415 1415 1415 1415 1415 1415 1415 1415 1415 1415 1421 1421 1421 1427 1343 1343 1349 1349 1349 1349 1349 1349 1354 1354 1354 1354 1354 1354 1354 0 2143 2143 2143 2143 2156 2156 2156 2156 2156 2143 2143 2143 1894 1894 1904 1904 1904 1904 1915 1915 1915 1915 1915 2156 2156 2143 2143 2156 2156 2156 2156 2156 2156 2156 2156 2156 2156 2156 2156 2156 2156 2156 2156 2156 2156 2156 2156 2156 2156 2156 2156 2156 2156 2156 2156 2156 2156 2156 2156 2156 2156 2156 2156 2156 2156 2156 2156 1483 1483 1483 1483 1477 1477 1477 1477 1477 1477 1477 1477 1477 1477 1477 1477 1477 1477 1477 1477 1477 1477 1477 1477 1477 1477 1477 2156 2156 2143 2143 2143 2143 2129 2129 2129 2129 2143 2143 2143 2143 2156 2156 2156 2156 2156 2143 2143 2143 2143 2143 2143 2143 2156 2156 2156 2156 2156 2156 2156 2156 2156 2156 2156 2156 2156 2156 2156 2156 2156 2156 2156 2143 2143 2143 2143 2156 2156 2156 2156 2156 2170 2170 2170 2156 2156 2156 2156 2156 2156 2156 2156 2156 2156 2156 2156 2156 2156 2156 2156 2156 2156 2156 2156 2156 2156 2156 2156 2156 2156 2156 2156 2156 2156 2156 2156 2143 2143 2143 2156 2156 2156 2156 2143 2143 2143 2129 2129 2129 2129 2129 2129 2129 2129 2143 2129 2129 2129 2129 2129 2129 2129 2129 2129 2116 2116 2129 2129 2129 2129 2129 2129 2129 2129 2129 2129 2129 2129 0 0 0 0 0 0 0 0 0
0 0 0 0 0 0 0 0 0 0 0 0 0 0 0 0 0 0 0 0 0 0 0 0 0 0 0 0 0 0 0 0 0 2065 2065 2065 2065 2065 2065 2065 2065 2065 2065 2065 2065 2065 2065 2078 2078 2078 2078 2078 2078 2078 2065 2065 2078 2078 2090 2090 2078 2078 2090 2090 2090 2078 2078 2078 2065 2065 2065 2065 2065 2053 2053 2053 2053 2053 2053 2053 2053 2065 2065 2065 2065 2065 2065 2078 2078 1529 1529 1529 1529 1529 1529 1529 1529 1529 1529 1529 1529 1536 1536 1536 1458 1458 1458 1458 1458 1458 1464 1464 1464 1470 1470 1470 1477 1477 1477 1477 1477 1477 1477 1477 1477 1477 1477 1477 1477 1477 1477 1477 1477 1477 1477 1483 1483 1483 1483 1483 1483 1483 1483 1483 1483 1477 1477 1477 1477 1477 1477 1477 1477 1477 1483 1483 1477 1477 1477 1477 1477 1477 1477 1477 1477 1477 1483 1483 1483 1483 1483 1477 1477 1477 1477 1477 1477 1477 1477 1477 1477 1477 1477 1477 1477 1483 1483 1483 1483 1483 1483 1483 1483 1483 1483 1483 1477 1477 1483 1483 1483 1483 1483 1483 1483 1483 1483 1477 1477 1477 1470 1470 1464 1464 1464 1464 1464 1464 1464 1470 1470 1477 1477 1477 1483 1489 1489 2143 2143 2129 2129 2129 2129 2129 2129 2129 2129 2129 2143 2143 2129 2129 2129 2129 2129 2129 2129 1883 1883 1883 1883 1883 1883 1883 1883 1894 1894 1883 1883 2129 2129 2143 2143 2143 2143 2143 2143 1959 1959 1959 1959 1959 1381 1381 1376 1376 1376 1376 1381 1376 1376 1376 1376 1381 1381 1387 1392 1398 1404 1404 1404 1410 1410 1410 1410 1410 1410 1410 1410 1410 1410 1410 1410 1410 1410 1410 1404 1404 1404 1410 1404 1404 1404 1410 1410 1410 1410 1410 1410 1415 1415 1415 1415 1415 1410 1410 1410 1410 1410 1410 1410 1410 1410 1410 1404 1404 1410 1410 1410 1404 1404 1404 1404 1404 1404 1404 1410 1410 1410 1410 1410 1404 1404 1404 1404 1410 1410 1404 1404 1410 1410 1410 1410 1410 1410 1410 1415 1410 1410 1410 1410 1410 1410 1410 1410 1410 1410 1410 1410 1410 1410 1410 1410 1410 1415 1415 1415 1410 1410 1359 1349 1349 1349 1349 1349 1354 1349 1349 1354 1354 1354 1354 1354 1354 1354 0 2143 2143 2143 2143 2143 2143 2156 2156 2156 2143 2143 1894 1894 1894 1904 1904 1904 1904 1915 1915 1915 1915 2143 2143 2143 2143 2143 2156 2156 2156 2156 2156 2156 2156 2156 2156 2156 2156 2156 2156 2143 2143 2143 2143 2156 2156 2156 2156 2156 2156 2156 2156 2156 2156 2156 2156 2156 2156 2156 2156 2156 2156 2143 2143 2156 2156 0 1489 1489 1489 1483 1483 1483 1483 1483 1477 1477 1477 1483 1483 1483 1477 1477 1477 1477 1477 1477 1477 1483 1477 1477 1470 1470 2156 2143 2143 2143 2129 2129 2129 2129 2129 2129 2129 2129 2129 2143 2143 2143 2143 2143 2129 2129 2129 2129 2129 2129 2129 2129 2129 2143 2143 2143 2143 2143 2156 2156 2156 2156 2156 2156 2156 2156 2156 2156 2143 2143 2143 2143 2143 2143 2143 2143 2143 2143 2143 2143 2156 2156 2156 2156 2156 2156 2143 2143 2143 2143 2143 2143 2143 2143 2143 2143 2143 2143 2143 2143 2143 2156 2156 2143 2143 2143 2143 2143 2143 2143 2143 2143 2143 2156 2156 2143 2143 2143 2143 2143 2143 2143 2143 2143 2129 2129 2129 2129 2129 2129 2129 2129 2129 2129 2129 2129 2129 2129 2129 2129 2129 2129 2116 2116 2116 2116 2116 2116 2116 2129 2129 2129 2129 2129 2129 2129 2129 2129 0 0 0 0 0 0 0 0 0
0 0 0 0 0 0 0 0 0 0 0 0 0 0 0 0 0 0 0 0 0 0 0 0 0 0 0 0 0 0 0 0 0 2065 2065 2053 2053 2065 2065 2053 2053 2053 2053 2053 2053 2053 2065 2065 2065 2065 2065 2065 2065 2078 2065 2065 2065 2065 2078 2078 2078 2078 2078 2078 2078 2078 2078 2065 2065 2065 2065 2065 2065 2053 2053 2053 2053 2053 2053 2053 2053 2065 2065 2065 2065 2065 2065 2065 1536 1536 1529 1529 1529 1536 1529 1529 1529 1529 1529 1529 1536 1536 1536 1529 1529 1464 1458 1458 1464 1464 1464 1470 1470 1470 1470 1477 1477 1477 1477 1483 1483 1483 1483 1483 1483 1483 1477 1477 1477 1470 1470 1477 1477 1477 1477 1477 1477 1483 1483 1483 1483 1483 1483 1483 1483 1477 1477 1477 1477 1477 1477 1477 1477 1477 1483 1483 1477 1477 1477 1477 1477 1477 1477 1477 1477 1477 1483 1483 1483 1483 1483 1483 1477 1477 1477 1477 1477 1477 1477 1477 1483 1477 1477 1477 1477 1483 1483 1483 1483 1483 1483 1483 1483 1483 1483 1483 1477 1477 1483 1483 1483 1483 1483 1483 1483 1483 1483 1483 1477 1477 1477 1470 1470 1470 1470 1470 1470 1470 1470 1470 1470 1477 1483 1483 1483 1489 1489 2143 2143 2129 2129 2129 2129 2129 2129 2129 2129 2129 2129 2143 2129 2129 2129 2129 2129 2116 2116 1883 1883 1883 1883 1883 1883 1883 1883 1894 1894 1883 1883 2129 2129 2129 2143 2143 2129 2129 1947 1947 1970 1959 1959 1959 1959 1381 1381 1376 1376 1381 1381 1381 1376 1376 1381 1381 1387 1387 1392 1398 1398 1404 1404 1404 1404 1404 1404 1404 1404 1404 1410 1410 1410 1404 1404 1404 1410 1404 1404 1404 1404 1404 1404 1404 1404 1404 1404 1410 1410 1410 1410 1410 1410 1410 1410 1410 1404 1404 1404 1404 1404 1404 1410 1410 1404 1404 1404 1404 1404 1404 1398 1398 1398 1398 1398 1398 1398 1398 1404 1404 1404 1404 1404 1404 1404 1404 1404 1404 1404 1404 1404 1404 1404 1404 1404 1404 1404 1404 1404 1404 1398 1398 1404 1404 1404 1404 1404 1404 1410 1404 1404 1410 1410 1410 1410 1410 1410 1410 1410 1404 1387 1359 1359 1354 1354 1354 1354 1354 1354 1354 1354 1359 1359 1359 1354 1354 0 0 0 2143 2143 2143 2143 2143 2143 2143 2156 2143 2143 1894 1894 1904 1904 1904 1904 1904 1915 1915 1915 1915 2129 2129 2129 2129 2129 2129 2143 2143 2143 2143 2143 2156 2143 2143 2143 2143 2143 2143 2143 2143 2143 2143 2143 2143 2143 2143 2143 2143 2143 2143 2143 2143 2143 2143 2143 2143 2143 2143 2143 2143 2143 2143 2143 2143 2143 1496 1496 1496 1489 1489 1483 1483 1483 1483 1483 1483 1483 1483 1483 1483 1483 1483 1483 1483 1483 1483 1483 1477 1477 1470 1470 2143 2143 2143 2143 2129 2129 2116 2116 2129 2129 2129 2129 2129 2129 2129 2129 2129 2129 2129 2129 2129 2129 2129 2129 2129 2129 2129 2129 2129 2143 2143 2143 2143 2143 2143 2143 2143 2143 2143 2156 2156 2143 2143 2143 2143 2143 2143 2143 2143 2143 2143 2143 2143 2143 2143 2143 2143 2143 2143 2143 2143 2143 2143 2143 2143 2143 2143 2143 2143 2143 2143 2143 2143 2143 2143 2143 2156 2143 2143 2143 2143 2143 2143 2143 2143 2143 2143 2143 2143 2143 2129 2129 2129 2129 2129 2129 2129 2129 2129 2129 2129 2129 2129 2129 2129 2129 2129 2129 2129 2129 2129 2129 2129 2129 2129 2129 2116 2116 2116 2103 2103 2116 2116 2116 2116 2129 2129 2129 2129 2129 2129 2116 2116 0 0 0 0 0 0 0 0
0 0 0 0 0 0 0 0 0 0 0 0 0 0 0 0 0 0 0 0 0 0 0 0 0 0 0 0 0 0 0 0 0 2053 2053 2053 2053 2053 2053 2053 2053 2053 2053 2053 2053 2053 2053 2065 2053 2053 2065 2065 2065 2053 2053 2053 2065 2065 2065 2065 2065 2065 2065 2065 2065 2065 2065 2053 2053 2053 2053 2065 2053 2053 2053 2053 2053 2053 2053 2053 2053 2053 2053 2053 2053 2053 2053 2053 1536 1536 1529 1529 1529 1536 1529 1529 1529 1536 1536 1536 1536 1536 1543 1529 1529 1464 1464 1464 1464 1464 1470 1470 1470 1470 1477 1477 1477 1477 1477 1483 1483 1483 1483 1483 1483 1483 1477 1477 1477 1470 1470 1470 1477 1477 1477 1477 1477 1483 1483 1483 1483 1483 1483 1483 1483 1483 1477 1477 1477 1477 1477 1477 1477 1477 1483 1483 1477 1477 1477 1477 1477 1477 1477 1477 1477 1483 1483 1483 1489 1489 1489 1483 1483 1483 1483 1483 1477 1477 1477 1483 1483 1477 1477 1477 1477 1483 1483 1483 1483 1483 1483 1483 1483 1483 1483 1483 1483 1483 1483 1483 1483 1483 1483 1483 1483 1483 1483 1483 1477 1477 1477 1470 1470 1470 1470 1470 1470 1470 1470 1470 1477 1477 1483 1483 1483 1489 1489 2129 2116 2116 2116 2116 2116 2116 2116 2116 2116 2129 2129 2129 2116 2116 2116 2116 2116 2116 2116 1883 1883 1883 1883 1883 1883 1883 1894 1894 1894 1894 1894 2129 2129 2129 2129 2129 2129 2129 1947 1947 1970 1959 1959 1959 1959 1381 1381 1381 1376 1376 1381 1381 1381 1381 1381 1387 1387 1387 1392 1398 1398 1398 1398 1404 1404 1404 1398 1398 1404 1404 1404 1404 1404 1404 1404 1404 1404 1404 1404 1404 1404 1404 1404 1404 1404 1404 1404 1404 1404 1404 1404 1404 1404 1404 1404 1404 1404 1404 1404 1404 1404 1404 1404 1404 1404 1404 1398 1398 1398 1398 1398 1392 1392 1392 1392 1392 1392 1398 1398 1398 1398 1398 1404 1404 1404 1398 1398 1398 1398 1398 1398 1398 1398 1398 1398 1398 1398 1398 1398 1398 1392 1392 1398 1398 1398 1398 1398 1398 1404 1404 1404 1404 1404 1404 1404 1404 1404 1404 1404 1392 1381 1365 1359 1359 1354 1354 1354 1354 1354 1354 1354 1359 1359 1359 1359 1359 1359 0 2143 2143 2143 2143 2143 2143 2143 2143 2156 2143 2143 2156 1904 1904 1904 1915 1904 1904 1915 1915 1915 1926 2103 2116 2116 2116 2116 2116 2129 2129 2129 2143 2143 2143 2143 2143 2143 2143 2143 2143 2143 2143 2143 2143 2143 2143 2143 2143 2143 2143 2143 2143 2143 2143 2143 2143 2143 2143 2143 2143 2143 2143 2143 2143 2143 2143 2143 1503 1503 1503 1496 1496 1489 1483 1483 1483 1483 1483 1483 1483 1483 1483 1483 1483 1483 1483 1483 1483 1483 1483 1464 1464 2143 2143 2143 2143 2129 2129 2116 2116 2116 2116 2116 2116 2116 2129 2129 2129 2129 2129 2129 2129 2129 2129 2129 2129 2129 2129 2129 2129 2129 2129 2129 2129 2143 2143 2129 2129 2143 2129 2129 2129 2129 2129 2129 2129 2129 2129 2129 2129 2129 2129 2129 2129 2129 2143 2143 2143 2143 2143 2143 2143 2129 2129 2129 2129 2129 2129 2129 2129 2129 2129 2129 2129 2143 2143 2143 2143 2143 2143 2143 2143 2143 2143 2143 2143 2143 2143 2143 2129 2129 2143 2129 2129 2116 2116 2116 2129 2129 2129 2129 2129 2129 2129 2116 2116 2116 2116 2116 2116 2116 2129 2129 2129 2129 2129 2116 2116 2116 2116 2103 2103 2103 2103 2103 2116 2116 2116 2116 2129 2129 2129 2129 2116 2116 2116 0 0 0 0 0 0 0 0
0 0 0 0 0 0 0 0 0 0 0 0 0 0 0 0 0 0 0 0 0 0 0 0 0 0 0 0 0 0 0 0 0 2053 2053 2053 2053 2053 2053 2053 2053 2053 2053 2053 2053 2053 2053 2065 2053 2053 2053 2053 2053 2053 2053 2053 2053 2065 2065 2065 2065 2065 2065 2065 2065 2065 2053 2053 2053 2053 2053 2040 2040 2040 2053 2053 2053 2053 2053 2053 2053 2053 2040 2040 2053 2053 2053 2053 1529 1529 1529 1529 1529 1536 1536 1536 1536 1536 1536 1536 1536 1536 1543 1529 1529 1464 1464 1464 1464 1464 1470 1470 1470 1477 1477 1477 1477 1477 1477 1483 1483 1483 1483 1483 1483 1483 1483 1477 1477 1470 1470 1470 1477 1477 1477 1477 1477 1483 1483 1483 1489 1483 1483 1483 1483 1483 1483 1477 1477 1477 1477 1477 1477 1477 1483 1483 1477 1477 1477 1477 1477 1477 1477 1477 1483 1483 1483 1483 1489 1489 1489 1483 1483 1483 1483 1483 1477 1477 1477 1477 1477 1477 1477 1477 1477 1483 1483 1483 1483 1489 1489 1489 1489 1483 1483 1483 1483 1483 1489 1483 1483 1483 1483 1483 1483 1483 1483 1483 1483 1477 1477 1477 1477 1470 1470 1470 1470 1470 1470 1470 1477 1477 1483 1483 1489 1489 1489 2129 2116 2116 2116 2116 2116 2116 2116 2116 2116 2116 2116 2129 2116 2116 2116 2116 2103 2103 2103 1883 1873 1873 1873 1873 1873 1883 1883 1894 1894 1894 1894 2103 2116 2116 2116 2116 2116 2103 1936 1936 1947 1959 1959 1970 1970 1970 1381 1381 1376 1376 1381 1381 1381 1381 1381 1387 1387 1392 1392 1398 1398 1398 1398 1398 1398 1398 1398 1398 1398 1398 1398 1398 1398 1398 1398 1398 1398 1398 1398 1398 1398 1398 1398 1398 1398 1404 1404 1404 1404 1404 1404 1404 1404 1398 1398 1398 1398 1398 1398 1398 1398 1398 1398 1398 1398 1398 1398 1398 1392 1392 1392 1392 1392 1392 1392 1392 1392 1392 1392 1392 1398 1398 1398 1398 1398 1392 1392 1392 1392 1392 1392 1392 1392 1392 1392 1392 1392 1392 1398 1392 1392 1392 1392 1392 1398 1398 1392 1392 1398 1398 1398 1398 1398 1398 1398 1398 1398 1398 1398 1392 1381 1370 1365 1365 1359 1359 1359 1359 1354 1354 1354 1359 1359 1359 1359 1359 1359 0 2129 2129 2116 2116 2116 2143 2143 2143 2143 2143 2143 2143 1904 1904 1915 1915 1915 1915 1915 1915 1915 1926 2103 2103 2103 2103 2103 2116 2116 2116 2116 2116 2129 2143 2143 2143 2143 2129 2129 2129 2129 2129 2129 2129 2129 2143 2143 2143 2143 2129 2129 2129 2143 2143 2129 2129 2143 2143 2143 2143 2143 2143 2143 2143 2143 2143 2143 1503 1503 1503 1503 1503 1496 1489 1489 1483 1483 1483 1483 1483 1483 1483 1483 1483 1483 1483 1483 1483 1483 1483 1464 1464 2129 2116 2116 2129 2129 2116 2103 2103 2103 2116 2116 2116 2116 2116 2129 2129 2129 2129 2129 2129 2129 2129 2129 2129 2116 2116 2129 2129 2129 2129 2129 2129 2129 2129 2129 2129 2129 2129 2129 2129 2129 2129 2116 2116 2116 2116 2116 2116 2129 2129 2129 2129 2129 2129 2129 2129 2129 2129 2129 2129 2129 2129 2129 2129 2129 2129 2129 2129 2129 2129 2129 2129 2129 2129 2129 2129 2143 2143 2143 2143 2143 2143 2143 2143 2129 2129 2143 2129 2129 2143 2129 2129 2116 2116 2116 2116 2116 2116 2116 2116 2116 2116 2116 2116 2116 2116 2116 2116 2116 2116 2116 2116 2116 2116 2116 2116 2116 2103 2103 2103 2103 2103 2103 2103 2103 2116 2116 2116 2116 2116 2116 2116 2116 2116 0 0 0 0 0 0 0 0
0 0 0 0 0 0 0 0 0 0 0 0 0 0 0 0 0 0 0 0 0 0 0 0 0 0 0 0 0 0 0 0 0 2040 2040 2040 2040 2053 2053 2053 2053 2053 2053 2053 2053 2053 2053 2053 2053 2040 2040 2040 2053 2053 2053 2053 2053 2053 2053 2065 2065 2065 2065 2065 2065 2065 2053 2053 2053 2040 2040 2028 2028 2028 2028 2040 2040 2040 2040 2040 2053 2053 2040 2040 2053 2053 2053 2053 2053 1529 1529 1529 1529 1536 1536 1536 1536 1536 1536 1536 1536 1536 1543 1529 1529 1477 1464 1464 1464 1464 1470 1470 1470 1477 1477 1477 1477 1477 1477 1483 1483 1483 1483 1483 1483 1483 1483 1477 1477 1470 1470 2040 2040 2040 2053 2053 1483 1483 1489 1489 2103 1489 1489 1483 1483 1483 1483 1477 1477 1477 1477 1483 1477 1477 1477 1483 1477 1477 1477 1477 1477 1477 1477 1483 1483 1483 1483 1489 1496 1496 1489 1483 1483 1489 1489 1483 1477 1477 1477 1477 1477 1477 1477 1477 1477 1477 1477 1477 1489 1489 1489 2078 2078 1483 1483 1483 1483 1483 1489 1483 1483 1483 1483 1483 1483 1483 1483 1483 1483 1477 1477 1477 1477 1477 1470 1470 1470 1470 1470 1477 1477 1477 1489 1489 1496 1496 1503 2116 2116 2116 2116 2116 2116 2116 2116 2116 2116 2116 2116 2116 2103 2103 2103 2103 2103 2103 2103 2103 1873 1873 1873 1873 1873 1883 1883 1894 1894 1894 2090 2090 2103 2103 2116 2116 2116 2103 1936 1936 1947 1959 1959 1970 1970 1970 1387 1387 1381 1381 1387 1387 1387 1387 1387 1392 1392 1392 1398 1398 1398 1398 1398 1398 1398 1398 1398 1398 1398 1398 1398 1398 1398 1398 1398 1398 1398 1398 1398 1398 1398 1398 1398 1398 1398 1398 1398 1398 1398 1398 1398 1398 1398 1398 1398 1398 1398 1392 1392 1398 1398 1398 1398 1398 1392 1392 1392 1392 1392 1392 1392 1392 1392 1392 1392 1392 1392 1392 1392 1392 1392 1392 1392 1392 1392 1387 1387 1387 1387 1392 1392 1392 1392 1392 1392 1392 1392 1392 1392 1392 1392 1392 1392 1392 1392 1392 1392 1392 1392 1392 1392 1398 1398 1398 1398 1398 1398 1398 1392 1387 1387 1376 1370 1365 1359 1359 1359 1359 1359 1359 1359 1359 1359 1359 1359 1359 1359 0 2116 2116 2103 2103 2116 2116 2116 2129 2129 2129 2129 1904 1904 1904 1915 1915 1915 1915 1915 1915 1915 1926 2103 2103 2103 2103 2103 2103 2116 2116 2116 2116 2116 2129 2129 2129 2129 2129 2129 2129 2129 2129 2129 2129 2129 2129 2129 2129 2129 2129 2129 2129 2129 2129 2129 2129 2129 2143 2143 2129 2129 2129 2129 2129 2143 2143 2143 1503 1503 1503 1503 1503 1496 1489 1489 1483 1483 1483 1483 1483 1483 1483 1483 1483 1483 1483 1483 1483 1483 1483 1483 1483 2103 2103 2103 2116 2116 2116 2103 2103 2103 2103 2103 2103 2116 2116 2116 2129 2129 2116 2116 2116 2129 2116 2116 2116 2116 2116 2116 2116 2116 2116 2116 2116 2129 2116 2116 2116 2116 2116 2116 2116 2116 2116 2116 2116 2116 2116 2116 2116 2116 2116 2116 2116 2116 2129 2129 2129 2129 2129 2129 2129 2129 2116 2116 2116 2116 2129 2129 2129 2129 2116 2116 2116 2129 2129 2129 2129 2129 2129 2129 2129 2129 2129 2129 2129 2129 2129 2129 2129 2129 2129 2116 2116 2116 2116 2116 2103 2103 2103 2116 2116 2116 2116 2103 2103 2103 2116 2116 2116 2116 2116 2116 2116 2103 2103 2103 2103 2103 2103 2103 2103 2103 2103 2103 2103 2103 2116 2116 2116 2116 2116 2116 2116 2116 2116 0 0 0 0 0 0 0 0
0 0 0 0 0 0 0 0 0 0 0 0 0 0 0 0 0 0 0 0 0 0 0 0 0 0 0 0 0 0 0 0 0 2040 2040 2040 2040 2053 2053 2053 2053 2053 2053 2053 2053 2053 2053 2053 2040 2040 2040 2040 2040 2053 2053 2053 2053 2053 2053 2053 2053 2053 2053 2065 2065 2065 2053 2053 2040 2040 2040 2028 2028 2028 2028 2040 2040 2040 2040 2040 2040 2040 2040 2040 2040 2040 2040 2040 2040 2040 1529 1529 1536 1536 1536 1536 1536 1536 1536 1536 1536 1536 1529 1523 1523 1477 1464 1464 1464 1470 1470 1470 1470 1477 1477 1477 1477 1477 1477 1483 1483 1483 1483 1483 1483 1483 1483 1477 1477 2053 2053 2040 2040 2053 2053 2053 2053 2065 2065 2078 2090 2090 2090 2090 1483 1483 1483 1483 1483 1483 1483 1483 1477 1477 1477 1483 1470 1470 1477 1477 1477 1477 1483 1483 1483 1483 1483 1496 1496 1496 1489 1483 1483 1489 1959 1970 1970 1483 1470 1470 1470 1470 1470 1470 1470 1477 1477 1477 2078 2078 2078 2078 2078 2078 2065 2065 2078 2078 2065 1489 1489 1489 1489 1483 1483 1483 1483 1483 1483 1477 1477 1477 1477 1477 1477 1470 1470 1470 1470 1477 1477 1477 1483 1489 1489 1503 1503 2103 2103 2103 2103 2103 2103 2103 2103 2103 2103 2103 2103 2103 2103 2103 2103 2103 2103 2103 2103 1873 1873 1873 1873 1873 1883 1883 1894 1904 1904 1904 2078 2078 2090 2090 2103 2103 2103 2103 1936 1936 1970 1970 1970 1970 1970 1970 1392 1392 1387 1387 1387 1392 1387 1387 1392 1392 1392 1392 1398 1398 1398 1398 1398 1398 1398 1398 1398 1398 1398 1398 1398 1398 1398 1398 1398 1398 1398 1398 1398 1398 1398 1398 1398 1398 1398 1398 1398 1398 1398 1398 1398 1398 1398 1392 1392 1392 1392 1392 1392 1392 1392 1392 1392 1392 1392 1392 1387 1387 1387 1387 1387 1387 1387 1387 1392 1392 1392 1392 1392 1392 1392 1392 1387 1387 1387 1387 1387 1387 1387 1392 1392 1392 1392 1392 1392 1392 1392 1392 1392 1392 1392 1392 1392 1392 1392 1392 1392 1392 1392 1392 1392 1392 1392 1392 1392 1392 1392 1392 1392 1387 1387 1376 1370 1365 1365 1359 1359 1359 1359 1359 1359 1359 1359 1365 1365 1365 1365 2090 2103 2103 2103 2103 2116 2116 2116 2116 2129 2116 2116 1904 1904 1904 1915 1915 1915 1915 1915 1915 1915 2090 2090 2103 2103 2103 2103 2103 2103 2103 2103 2103 2116 2129 2129 2129 2129 2116 2116 2116 2116 2116 2116 2116 2116 2116 2129 2116 2116 2116 2116 2116 2116 2116 2116 2116 2129 2129 2129 2129 2116 2116 2116 2116 2116 2143 2143 1509 1503 1503 1503 1503 1496 1489 1489 1489 1483 1483 1483 1483 1483 1483 1483 1483 1483 1483 1483 1483 1483 1483 1496 2090 2103 2103 2103 2103 2116 2103 2090 2090 2090 2103 2103 2103 2103 2103 2116 2116 2116 2116 2116 2116 2116 2116 2116 2103 2103 2103 2103 2103 2103 2103 2103 2116 2116 2116 2103 2103 2116 2116 2116 2116 2116 2116 2116 2116 2103 2103 2103 2103 2116 2116 2116 2116 2116 2116 2116 2116 2116 2116 2116 2116 2116 2116 2116 2116 2116 2116 2116 2116 2116 2116 2116 2116 2129 2116 2116 2116 2116 2116 2116 2116 2129 2129 2129 2129 2116 2116 2116 2116 2116 2116 2116 2116 2103 2103 2103 2103 2103 2103 2103 2103 2103 2103 2103 2103 2103 2103 2103 2103 2103 2103 2103 2103 2103 2103 2103 2103 2103 2090 2090 2103 2103 2103 2103 2103 2103 2103 2116 2103 2103 2116 2116 2116 2116 2116 0 0 0 0 0 0 0 0
0 0 0 0 0 0 0 0 0 0 0 0 0 0 0 0 0 0 0 0 0 0 0 0 0 0 0 0 0 0 0 0 0 2028 2028 2028 2040 2040 2040 2040 2040 2053 2053 2053 2053 2053 2053 2053 2040 2040 2040 2040 2040 2040 2040 2040 2040 2040 2053 2053 2053 2053 2053 2053 2053 2053 2053 2040 2040 2040 2040 2028 2028 2028 2028 2028 2028 2040 2040 2040 2040 2040 2040 2040 2040 2040 2040 2040 2028 2028 2028 1536 1536 1536 1536 1536 1536 1536 1536 1536 1536 1536 1529 1523 1496 1483 1470 1470 1470 1470 1470 1470 1470 1477 1477 1477 1477 1477 1477 1483 1483 1483 1483 1483 1483 1483 1483 2040 2053 2053 2053 2053 2053 2053 2053 2053 2053 2053 2065 2065 2078 2090 1813 1813 1823 1823 1823 1823 1833 1483 1483 1483 1483 1894 1904 1926 1470 1470 1470 1470 1477 1477 1483 2053 2053 2053 2053 2065 1959 1947 1947 1947 1947 1947 1947 1959 1959 1947 1470 1470 1470 1470 1470 1470 1470 1477 1477 1477 2078 2078 2078 2078 2078 2078 2065 2065 2065 2065 2065 2065 2065 2065 1489 1489 1483 1483 1483 1483 1477 1477 1477 1477 1477 1477 1470 1470 1470 1470 1470 1477 1477 1477 1483 1483 1489 1503 1503 2103 2103 2103 2103 2103 2090 2090 2090 2090 2090 2090 2090 2103 2090 2090 2090 2090 2078 2078 2078 1863 1863 1863 1863 1873 1883 1883 1894 1904 1904 2053 2053 2078 2090 2090 2090 2103 2090 2090 1947 1947 1947 1947 1947 1970 1970 1970 1398 1392 1392 1392 1392 1392 1392 1392 1392 1392 1392 1398 1398 1398 1398 1398 1398 1398 1398 1398 1398 1398 1398 1398 1398 1398 1398 1398 1398 1398 1392 1392 1398 1398 1398 1398 1398 1398 1398 1398 1398 1398 1398 1398 1398 1398 1398 1392 1392 1392 1392 1392 1392 1392 1392 1392 1392 1392 1392 1387 1387 1387 1387 1387 1387 1387 1387 1387 1392 1387 1387 1387 1387 1387 1387 1387 1387 1387 1387 1387 1387 1387 1387 1387 1387 1387 1387 1387 1387 1387 1387 1387 1387 1387 1392 1392 1392 1392 1392 1387 1387 1392 1392 1392 1392 1392 1392 1392 1392 1392 1392 1392 1387 1387 1381 1376 1370 1370 1365 1365 1365 1365 1359 1359 1365 1365 1365 1365 1365 1365 1365 2090 2090 2090 2103 2103 2116 2116 2116 2116 2129 2116 2116 1904 1904 1904 1915 1915 1915 1915 1915 1915 1926 2090 2090 2090 2090 2090 2103 2103 2103 2103 2103 2103 2103 2103 2103 2116 2116 2116 2116 2116 2116 2103 2103 2116 2103 2103 2116 2103 2103 2103 2103 2103 2103 2103 2103 2103 2116 2116 2116 2116 2103 2103 2103 2103 2103 2116 2116 1509 1503 1503 1503 1503 1496 1489 1489 1489 1489 1483 1483 1483 1483 1489 1489 1483 1483 1489 1489 1489 1489 1496 1496 2090 2103 2090 2090 2103 2103 2090 2090 2090 2090 2090 2090 2103 2103 2103 2103 2103 2103 2103 2103 2103 2103 2103 2103 2103 2090 2090 2103 2103 2103 2103 2103 2116 2116 2103 2103 2103 2103 2103 2103 2103 2116 2103 2103 2103 2103 2103 2103 2103 2103 2103 2103 2103 2103 2116 2116 2116 2116 2116 2116 2116 2116 2103 2103 2103 2103 2116 2116 2116 2116 2116 2116 2116 2116 2116 2103 2103 2103 2103 2103 2103 2116 2116 2116 2116 2103 2103 2103 2103 2103 2103 2090 2090 2090 2090 2090 2078 2078 2078 2078 2078 2090 2090 2090 2090 2090 2090 2090 2090 2090 2090 2103 2103 2103 2090 2090 2103 2103 2090 2090 2103 2103 2090 2090 2090 2090 2103 2103 2103 2103 2103 2103 2103 2103 2103 0 0 0 0 0 0 0 0
0 0 0 0 0 0 0 0 0 0 0 0 0 0 0 0 0 0 0 0 0 0 0 0 0 0 0 0 0 0 0 0 0 2028 2028 2028 2040 2040 2040 2040 2040 2053 2040 2040 2040 2040 2040 2040 2040 2040 2040 2040 2040 2028 2028 2028 2028 2028 2040 2040 2040 2040 2053 2053 2053 2053 2040 2040 2040 2040 2040 2028 2028 2028 2028 2016 2016 2028 2028 2028 2028 2028 2040 2040 2040 2040 2040 2040 2028 2028 2028 1536 1536 1536 1536 1536 1536 1536 1536 1536 1536 1536 1529 1523 1496 1483 1470 1470 1470 1470 1470 1470 1470 1477 1477 1477 1477 1483 1483 1483 1483 1483 1489 1489 2028 2028 2028 2040 2040 2040 2040 2053 2053 2053 2053 2053 2053 2053 2053 2053 2065 2065 1813 1813 1813 1823 1823 1823 1833 1863 1483 1483 1883 1894 1904 1915 1915 2028 1470 1470 1477 2040 2053 2053 2053 2053 2053 2028 1959 1959 1947 1936 1936 1947 1947 1947 1959 1947 1947 1947 1470 1470 1470 1470 1470 1477 1477 2065 2065 2065 2078 2078 2078 2078 2065 2065 2065 2065 2065 2065 2065 2065 2065 2078 2078 2078 2090 2090 1477 1477 1470 1470 1477 1477 1470 1470 1470 1470 1470 1477 1477 1477 1483 1483 1489 1503 1503 2103 2103 2090 2090 2090 2090 2090 2090 2090 2090 2090 2090 2090 2078 2078 2078 2078 2078 2078 2078 1863 1863 1863 1863 1873 1873 1883 1894 1904 1904 1915 2053 2078 2090 2090 2090 2090 2090 2090 1947 1947 1947 1947 1947 1970 1970 1392 1392 1392 1392 1392 1392 1392 1392 1392 1392 1392 1392 1398 1398 1398 1404 1404 1404 1398 1398 1398 1398 1398 1398 1398 1398 1398 1398 1398 1398 1398 1392 1392 1398 1398 1398 1398 1398 1398 1398 1398 1398 1398 1398 1398 1398 1398 1392 1392 1392 1392 1392 1392 1392 1392 1392 1392 1392 1392 1392 1387 1387 1387 1387 1387 1387 1387 1387 1387 1392 1387 1387 1387 1387 1387 1387 1387 1387 1387 1387 1387 1387 1387 1387 1387 1387 1387 1387 1387 1387 1387 1387 1387 1387 1387 1387 1387 1387 1387 1387 1387 1387 1387 1387 1387 1387 1387 1392 1392 1392 1392 1392 1387 1387 1387 1381 1376 1370 1370 1365 1365 1365 1365 1365 1365 1365 1365 1365 1365 1365 1365 2103 2090 2090 2090 2103 2103 2116 2116 2116 2116 2116 2116 2116 1904 1904 1904 1915 1915 1915 1915 1915 1926 1926 2090 2090 2090 2090 2090 2090 2090 2090 2090 2103 2103 2103 2103 2103 2103 2103 2103 2103 2103 2103 2103 2103 2103 2103 2103 2103 2103 2103 2103 2103 2103 2103 2103 2103 2103 2103 2103 2103 2103 2103 2103 2103 2103 2103 2103 2103 1503 1503 1503 1496 1496 1496 1489 1489 1489 1489 1489 1489 1483 1483 1489 1489 1489 1489 1489 1489 1489 1489 1496 1503 1509 2103 2090 2090 2103 2103 2090 2090 2090 2090 2090 2090 2090 2090 2090 2090 2090 2090 2090 2090 2090 2090 2090 2090 2090 2090 2090 2103 2103 2103 2103 2103 2103 2103 2103 2103 2103 2103 2103 2103 2103 2103 2103 2103 2103 2090 2090 2090 2090 2090 2090 2090 2103 2103 2103 2103 2103 2103 2103 2103 2103 2103 2103 2103 2103 2103 2103 2103 2116 2103 2103 2103 2103 2103 2103 2090 2090 2103 2103 2103 2103 2103 2116 2116 2103 2103 2103 2103 2090 2090 2090 2090 2090 2078 2078 2078 2078 2065 2065 2078 2078 2078 2078 2078 2078 2078 2078 2078 2090 2090 2090 2090 2090 2090 2090 2090 2090 2090 2090 2090 2090 2090 2090 2090 2090 2090 2090 2090 2090 2090 2090 2090 2090 2090 2103 0 0 0 0 0 0 0 0
0 0 0 0 0 0 0 0 0 0 0 0 0 0 0 0 0 0 0 0 0 0 0 0 0 0 0 0 0 0 0 0 0 2028 2028 2028 2028 2040 2040 2040 2040 2053 2040 2040 2040 2040 2040 2040 2040 2040 2040 2028 2028 2028 2028 2028 2028 2028 2028 2028 2040 2040 2040 2040 2040 2053 2040 2040 2040 2040 2040 2028 2028 2016 2016 2016 2016 2028 2028 2028 2028 2028 2040 2040 2040 2040 2040 2028 2028 2028 2028 1536 1536 1536 1536 1536 1536 1536 1536 1536 1536 1536 1529 1516 1516 1483 1470 1470 1470 1470 1470 1477 1477 1477 1477 1477 1483 1483 1483 1483 1489 1489 1489 1509 2028 2028 2028 2040 2040 2040 2040 2040 2040 2040 2053 2053 2053 2053 2053 2053 2053 2053 1804 1804 1813 1823 1823 1833 1843 1863 1873 1873 1894 1904 1904 1915 1915 2016 2016 2028 2040 2040 2053 2053 2053 2053 2040 2028 1959 1959 1947 1936 1936 1947 1947 1947 1959 1959 1959 1959 1470 1470 1470 1470 1470 1477 2065 2065 2065 2065 2065 2065 2065 2065 2065 2065 2065 2065 2053 2053 2065 2065 2065 2065 2065 2065 2065 2078 2078 1477 1470 1470 1477 1470 1470 1477 1477 1477 1477 1477 1477 1477 1483 1483 1489 1503 1503 2090 2090 2090 2090 2090 2090 2090 2090 2090 2090 2090 2090 2090 2078 2078 2078 2078 2078 2078 1843 1843 1853 1853 1853 1873 1873 1883 1883 1904 1904 1915 2053 2078 2078 2090 2090 2090 2078 2078 1959 1959 1959 1959 1959 1970 1970 1392 1392 1392 1392 1392 1392 1392 1392 1392 1398 1398 1398 1398 1398 1398 1404 1404 1404 1404 1404 1404 1398 1398 1398 1398 1398 1398 1398 1398 1398 1398 1398 1398 1398 1398 1398 1398 1398 1398 1398 1398 1398 1398 1398 1398 1398 1398 1392 1392 1392 1392 1392 1392 1392 1392 1392 1392 1392 1392 1392 1392 1392 1392 1392 1392 1392 1392 1392 1392 1392 1392 1387 1387 1387 1387 1387 1387 1387 1387 1387 1387 1387 1387 1387 1387 1387 1387 1387 1387 1387 1387 1387 1387 1387 1387 1387 1387 1387 1387 1387 1387 1387 1387 1387 1387 1387 1387 1387 1387 1387 1387 1387 1387 1387 1387 1381 1376 1376 1370 1370 1365 1365 1365 1365 1365 1365 1365 1365 1365 1370 1370 2103 2103 2103 2103 2103 2103 2103 2103 2103 2103 2116 2103 2103 2103 1915 1915 1915 1915 1915 1915 1915 1926 1926 2090 2090 2090 2090 2090 2090 2090 2090 2090 2090 2090 2103 2103 2103 2103 2103 2103 2103 2103 2103 2103 2103 2103 2103 2103 2103 2103 2103 2103 2103 2103 2103 2103 2103 2103 2103 2090 2090 2103 2103 2103 2103 2103 2103 2103 2103 1503 1503 1496 1496 1496 1496 1489 1489 1489 1489 1489 1489 1489 1489 1489 1489 1489 1489 1489 1489 1489 1489 1503 1503 1509 2103 2090 2090 2090 2103 2090 2090 2090 2090 2090 2090 2090 2090 2090 2090 2090 2090 2090 2090 2090 2090 2090 2090 2090 2090 2090 2090 2090 2090 2090 2090 2090 2090 2090 2090 2090 2090 2103 2103 2103 2103 2103 2090 2090 2090 2090 2090 2090 2090 2090 2090 2090 2090 2090 2090 2090 2090 2103 2103 2103 2103 2103 2103 2103 2103 2103 2103 2103 2090 2090 2090 2090 2103 2090 2090 2090 2090 2103 2103 2103 2103 2103 2103 2103 2090 2090 2090 2090 2090 2090 2090 2090 2078 2078 2078 2065 2065 2065 2065 2065 2065 2065 2065 2065 2065 2065 2078 2078 2078 2078 2078 2078 2078 2078 2078 2078 2078 2078 2078 2078 2090 2090 2090 2090 2090 2090 2078 2078 2078 2078 2078 2078 2090 2090 0 0 0 0 0 0 0 0
0 0 0 0 0 0 0 0 0 0 0 0 0 0 0 0 0 0 0 0 0 0 0 0 0 0 0 0 0 0 0 0 0 2016 2016 2016 2016 2016 2016 2016 2040 2040 2040 2040 2028 2016 2016 2016 2016 2016 2016 2028 2028 2028 2028 2028 2016 2016 2028 2016 2016 2016 2028 2028 2028 2028 2028 2028 2028 2040 2040 2028 2028 2016 2016 2016 2016 2016 2028 2028 2028 2028 2028 2028 2028 2028 2040 2028 2028 2028 2028 1536 1536 1536 1536 1536 1536 1536 1536 1543 1536 1536 1523 1503 1503 1477 1477 1470 1470 1470 1470 1477 1477 1477 1477 1483 1483 1483 1489 1489 1489 1489 1509 1509 2028 2028 2028 2028 2040 2028 2028 2040 2040 2040 2040 2040 2040 2040 2040 2040 2040 2053 1804 1794 1794 1813 1823 1833 1843 1873 1883 1883 1894 1904 1904 1926 1959 1993 2005 2028 2040 2040 2053 2040 2040 2040 2028 2028 1959 1959 1947 1947 1947 1947 1947 1947 1959 1959 1981 2016 2040 1470 1470 1470 1470 2053 2053 2053 2053 2065 2065 2053 2053 2053 2053 2053 2065 2053 2053 2053 2065 2065 2065 2065 2065 2065 2065 2078 2078 1470 1470 1470 1470 1470 1470 1477 1477 1477 1477 1477 1477 1477 1483 1483 1489 1496 1496 2090 2090 2090 2090 2078 2078 2078 2078 2078 2078 2078 2078 2078 2078 2078 2078 2078 2078 2078 1843 1843 1853 1853 1853 1863 1873 1883 1883 1904 1904 2053 2053 2065 2078 2078 2078 2078 2078 2078 1970 1970 1959 1959 1959 1959 1959 1398 1398 1392 1392 1392 1392 1398 1398 1398 1398 1398 1398 1398 1398 1404 1404 1404 1404 1410 1410 1410 1404 1404 1404 1398 1398 1398 1398 1398 1398 1398 1398 1398 1398 1398 1398 1398 1398 1398 1398 1398 1398 1398 1398 1398 1398 1398 1398 1398 1392 1392 1398 1392 1392 1392 1392 1392 1392 1392 1392 1392 1392 1392 1392 1392 1392 1392 1392 1392 1392 1392 1387 1387 1387 1387 1387 1387 1387 1387 1387 1387 1387 1387 1387 1387 1387 1387 1387 1387 1387 1387 1387 1387 1387 1387 1387 1387 1387 1387 1387 1387 1387 1387 1387 1387 1387 1387 1387 1387 1387 1387 1387 1387 1387 1387 1381 1381 1376 1370 1370 1370 1365 1365 1365 1365 1365 1370 1365 1365 1370 1370 2090 2090 2090 2090 2103 2103 2103 2103 2103 2103 2103 2103 2103 2090 1915 1915 1915 1915 1915 1915 1915 1926 1926 2090 2078 2078 2090 2090 2090 2090 2090 2090 2090 2090 2090 2090 2090 2103 2090 2090 2090 2090 2090 2103 2103 2103 2103 2103 2103 2103 2103 2103 2103 2103 2103 2103 2103 2103 2103 2090 2090 2103 2090 2090 2090 2090 2090 2090 2090 1509 1503 1496 1496 1496 1496 1489 1489 1489 1489 1489 1489 1489 1489 1489 1489 1489 1489 1489 1489 1489 1489 1503 1503 1509 1516 2090 2090 2090 2103 2090 2078 2078 2078 2090 2090 2090 2090 2090 2090 2090 2078 2078 2078 2078 2078 2078 2078 2078 2078 2090 2090 2078 2078 2078 2090 2090 2090 2090 2090 2090 2090 2090 2090 2090 2090 2090 2090 2090 2090 2090 2090 2090 2090 2090 2090 2090 2090 2090 2090 2090 2090 2090 2090 2090 2090 2090 2090 2090 2090 2090 2090 2090 2090 2090 2090 2090 2090 2090 2090 2090 2090 2090 2090 2090 2090 2103 2103 2090 2090 2090 2090 2090 2090 2090 2078 2078 2078 2065 2065 2065 2065 2065 2065 2065 2065 2065 2065 2065 2065 2065 2065 2065 2065 2065 2065 2078 2078 2065 2065 2078 2078 2065 2065 2078 2078 2078 2078 2078 2078 2078 2078 2078 2078 2078 2078 2078 2078 2078 0 0 0 0 0 0 0 0
0 0 0 0 0 0 0 0 0 0 0 0 0 0 0 0 0 0 0 0 0 0 0 0 0 0 0 0 0 0 0 0 0 2016 2016 2016 2016 2016 2016 2016 2016 2016 2016 2016 2016 2005 2005 2016 2016 2016 2016 2016 2016 2028 2016 2016 2016 2016 2016 2016 2016 2016 2028 2028 2028 2028 2028 2028 2028 2028 2028 2016 2016 2016 2016 2005 2005 2016 2016 2016 2005 2005 2016 2016 2028 2028 2028 2028 2028 2016 2016 1536 1536 1536 1536 1543 1543 1543 1543 1543 1536 1536 1523 1503 1503 1477 1477 1470 1470 1470 1470 1477 1477 1477 1477 1477 1483 1483 1489 1496 1496 1503 1509 1509 2016 2016 2016 2016 2028 2028 2028 2040 2040 2040 2040 2040 2040 2040 2040 2040 2040 2053 1804 1794 1794 1804 1813 1833 1894 1894 1894 1894 1904 1904 1904 1926 1947 1981 1993 2016 2028 2040 2040 2040 2040 2040 2028 2016 1959 1959 1947 1947 1947 1947 1947 1947 1947 1959 1981 2005 2016 2028 2040 2040 2040 2040 2040 2040 2053 2053 2053 2053 2053 2053 2053 2053 2053 2053 2053 2053 2065 2065 2065 2065 2053 2053 2065 2065 2065 1470 1470 1470 1470 1470 1470 1477 1477 1477 1477 1477 1477 1483 1483 1483 1489 1489 1489 2078 2078 2078 2078 2078 2078 2078 2078 2078 2078 2078 2078 2078 2065 2065 2065 2078 2078 2078 1843 1843 1843 1853 1853 1863 1873 1883 1883 1904 1915 2053 2053 2065 2078 2078 2078 2078 2078 2078 1970 1970 1959 1959 1959 1959 1959 1398 1398 1392 1392 1392 1392 1398 1398 1398 1398 1398 1398 1398 1398 1404 1404 1404 1410 1410 1410 1410 1404 1404 1404 1404 1404 1404 1398 1398 1398 1398 1398 1398 1398 1398 1398 1398 1398 1398 1398 1398 1398 1398 1398 1398 1398 1398 1398 1398 1398 1398 1398 1398 1398 1398 1398 1398 1398 1398 1392 1392 1392 1392 1392 1392 1392 1392 1392 1392 1392 1392 1392 1392 1392 1392 1392 1387 1387 1387 1387 1387 1387 1387 1392 1392 1392 1392 1392 1392 1392 1387 1387 1387 1387 1387 1387 1387 1387 1387 1387 1387 1387 1387 1387 1387 1387 1387 1387 1387 1387 1387 1387 1387 1387 1387 1381 1376 1376 1370 1370 1370 1370 1370 1370 1370 1370 1370 1370 1370 1370 1370 2078 2078 2078 2078 2078 2078 2090 2090 2090 2090 2090 2078 2078 1904 1904 1915 1915 1915 1915 1915 1915 1926 1926 2078 2078 2078 2078 2078 2090 2090 2090 2090 2090 2090 2090 2090 2090 2090 2090 2090 2090 2090 2090 2090 2090 2090 2090 2090 2090 2090 2090 2090 2103 2103 2103 2090 2090 2090 2090 2090 2090 2090 2090 2090 2090 2090 2090 2090 2090 1503 1503 1496 1496 1496 1496 1489 1489 1489 1489 1489 1489 1489 1489 1489 1489 1489 1489 1489 1489 1489 1489 1503 1509 1516 1516 2090 2090 2090 2090 2078 2078 2078 2078 2078 2078 2078 2090 2090 2078 2078 2078 2078 2078 2078 2078 2078 2078 2078 2078 2078 2078 2078 2078 2078 2078 2078 2090 2078 2078 2078 2090 2090 2090 2090 2090 2090 2090 2090 2078 2078 2078 2078 2078 2078 2078 2078 2090 2090 2090 2090 2090 2090 2090 2090 2090 2090 2090 2090 2090 2090 2090 2078 2078 2090 2090 2078 2078 2078 2078 2078 2078 2078 2078 2078 2078 2078 2090 2090 2078 2078 2078 2078 2090 2090 2078 2078 2065 2065 2065 2065 2065 2065 2065 2065 2065 2065 2053 2053 2065 2065 2065 2065 2065 2065 2065 2065 2065 2065 2065 2065 2065 2065 2065 2065 2065 2078 2078 2078 2078 2078 2078 2078 2065 2065 2078 2078 2078 2078 0 0 0 0 0 0 0 0
0 0 0 0 0 0 0 0 0 0 0 0 0 0 0 0 0 0 0 0 0 0 0 0 0 0 0 0 0 0 0 0 0 2005 2005 2016 2016 2016 2016 2016 2016 2016 2016 2016 2016 2005 2005 2005 2005 2016 2016 2016 2016 2016 2016 2016 2016 2016 2016 2016 2016 2016 2016 2028 2028 2028 2016 2016 2016 2016 2016 2016 2016 2005 2005 2005 2005 2005 2005 2005 2005 2005 2005 2016 2016 2016 2028 2016 2016 2005 2005 2005 1543 1543 1543 1543 1543 1543 1543 1543 1543 1543 1536 1529 1503 1477 1477 1470 1470 1477 1477 1477 1477 1477 1477 1477 1483 1483 1489 1496 1503 1503 1509 1509 2005 2005 2005 2016 2016 2016 2016 2028 2028 2028 2028 2028 2028 2040 2040 2040 2040 2040 1804 1794 1794 1794 1804 1833 1894 1894 1904 1904 1904 1904 1904 1926 1936 1959 1981 2005 2028 2028 2040 2040 2040 2028 2016 2016 1959 1959 1947 1947 1947 1947 1947 1947 1947 1959 1981 2005 2005 2016 2028 2040 2040 2040 2040 2040 2040 2040 2040 2040 2040 2040 2040 2040 2040 2040 2040 2040 2053 2053 2053 2053 2053 2053 2053 2065 2065 1470 1470 1470 1470 1477 1477 1477 1477 1477 1477 1477 1477 1477 1483 1483 1483 1483 1483 2078 2065 2065 2065 2065 2065 2078 2078 2078 2078 2078 2078 2078 2065 2065 2065 2078 2078 1843 1843 1843 1843 1853 1853 1863 1873 1883 1894 1904 1904 2053 2053 2065 2065 2065 2065 2078 2078 2065 1981 1970 1959 1959 1959 1959 1959 1398 1398 1398 1398 1398 1398 1398 1398 1398 1398 1398 1398 1398 1404 1404 1410 1410 1415 1415 1415 1415 1404 1404 1410 1410 1410 1404 1404 1404 1404 1404 1398 1398 1404 1404 1404 1404 1404 1404 1404 1398 1398 1398 1398 1398 1398 1398 1398 1398 1398 1398 1398 1398 1398 1398 1398 1398 1398 1398 1392 1392 1392 1392 1392 1392 1392 1392 1392 1392 1392 1392 1392 1392 1392 1392 1392 1392 1392 1392 1392 1392 1392 1392 1392 1392 1392 1392 1392 1392 1392 1392 1392 1392 1392 1392 1387 1387 1387 1387 1387 1387 1387 1387 1387 1387 1387 1387 1387 1387 1387 1387 1387 1387 1387 1387 1381 1376 1376 1370 1370 1370 1370 1370 1370 1370 1370 1370 1370 1370 1370 1370 2078 2078 2078 2078 2078 2078 2078 2090 2090 2090 2090 2078 1926 1904 1904 1915 1915 1915 1915 1915 1915 1926 1926 2078 2065 2065 2065 2065 2065 2065 2065 2078 2078 2078 2078 2078 2090 2090 2090 2090 2090 2090 2090 2090 2090 2090 2090 2090 2090 2090 2090 2090 2090 2090 2090 2090 2090 2090 2090 2090 2090 2090 2090 2090 2078 2078 2078 2078 2078 1503 1503 1496 1496 1496 1496 1489 1489 1489 1489 1489 1489 1489 1489 1489 1489 1489 1489 1489 1489 1489 1489 1503 1509 1523 1523 2090 2090 2090 2090 2078 2078 2078 2078 2078 2078 2078 2078 2078 2078 2078 2078 2078 2078 2078 2078 2078 2078 2078 2065 2065 2065 2065 2065 2078 2078 2078 2078 2078 2078 2078 2078 2078 2078 2078 2078 2078 2078 2078 2078 2078 2078 2078 2078 2078 2078 2078 2078 2090 2090 2078 2078 2078 2078 2078 2078 2078 2078 2078 2078 2078 2078 2078 2078 2078 2078 2078 2078 2078 2078 2078 2078 2078 2078 2078 2078 2078 2078 2078 2078 2078 2078 2078 2078 2078 2078 2078 2065 2065 2065 2065 2065 2065 2065 2065 2065 2053 2053 2053 2065 2065 2065 2065 2053 2053 2053 2053 2053 2053 2053 2053 2065 2065 2065 2065 2065 2065 2065 2065 2065 2065 2065 2065 2065 2065 2065 2065 2065 2065 0 0 0 0 0 0 0 0
0 0 0 0 0 0 0 0 0 0 0 0 0 0 0 0 0 0 0 0 0 0 0 0 0 0 0 0 0 0 0 0 0 2005 2005 2005 2005 2005 2016 2005 2005 2005 2005 2005 2005 2005 2005 2005 2005 2016 2016 2016 2016 2016 2016 2016 2005 2005 2016 2016 2005 2005 2016 2028 2028 2028 2016 2016 2016 2016 2005 2005 2005 2005 2005 2005 2005 2005 2005 2005 2005 2005 2005 2005 2005 2005 2005 2016 2005 1993 1993 1993 1550 1543 1543 1536 1536 1543 1543 1543 1543 1543 1543 1536 1529 1483 1477 1477 1477 1477 1477 1477 1477 1477 1477 1477 1483 1483 1496 1496 1503 1509 1509 1509 2005 2005 2005 2005 2005 2005 2016 2028 2028 2028 2028 2028 2028 2028 2028 2028 2040 2040 1794 1794 1794 1794 1804 1804 1904 1904 1904 1904 1915 1915 1915 1926 1936 1947 1970 1993 2028 2028 2028 2028 2028 2028 2016 2005 1970 1959 1947 1947 1947 1947 1947 1947 1947 1959 1981 1993 2005 2016 2028 2028 2040 2040 2040 2040 2040 2040 2040 2040 2040 2040 2040 2040 2040 2040 2040 2040 2053 2053 2053 2053 2053 2053 2053 2065 2065 1470 1470 1470 1470 1477 1477 1477 1477 1477 1477 1477 1477 1477 1483 1483 1483 1483 1483 2078 2065 2065 2065 2065 2065 2078 2078 2078 2078 2078 2078 2078 2065 2065 2065 2078 2090 1813 1813 1833 1843 1843 1853 1863 1873 1883 1894 1904 1904 1926 2040 2040 2065 2065 2065 2065 2065 2053 1981 1981 1970 1959 1959 1959 1398 1398 1398 1398 1398 1398 1398 1398 1398 1398 1398 1398 1398 1398 1404 1404 1410 1410 1415 1415 1415 1415 1410 1410 1410 1410 1410 1404 1404 1404 1404 1404 1404 1404 1410 1410 1410 1410 1410 1410 1410 1404 1404 1404 1398 1398 1398 1398 1398 1404 1398 1398 1404 1398 1398 1398 1398 1398 1398 1398 1392 1392 1392 1392 1398 1398 1398 1398 1392 1392 1392 1392 1392 1392 1392 1392 1392 1392 1392 1392 1392 1392 1392 1392 1392 1392 1392 1392 1392 1392 1392 1392 1392 1392 1392 1392 1392 1392 1392 1387 1387 1387 1387 1387 1387 1387 1387 1387 1387 1387 1387 1387 1387 1387 1387 1387 1381 1376 1376 1370 1370 1370 1370 1370 1370 1370 1370 1376 1376 1376 1376 1376 2065 2065 2065 2065 2065 2078 2065 2065 2065 2065 2065 2053 1926 1915 1915 1915 1915 1915 1915 1915 1915 1926 1926 2065 2053 2053 2053 2065 2065 2065 2065 2065 2065 2065 2065 2065 2078 2078 2065 2065 2078 2078 2078 2078 2078 2078 2078 2078 2090 2090 2090 2090 2090 2090 2090 2090 2078 2078 2078 2078 2078 2078 2078 2078 2078 2078 2065 2065 2065 1503 1503 1496 1496 1496 1496 1489 1489 1489 1489 1489 1489 1489 1489 1489 1489 1489 1489 1489 1489 1489 1489 1496 1509 2103 2103 2078 2078 2078 2090 2078 2078 2078 2078 2078 2078 2078 2078 2078 2065 2065 2065 2065 2065 2065 2065 2065 2065 2065 2065 2065 2053 2053 2065 2065 2078 2078 2078 2078 2078 2078 2078 2078 2078 2078 2078 2078 2078 2078 2078 2065 2065 2078 2078 2078 2078 2078 2078 2078 2078 2078 2078 2078 2078 2078 2078 2065 2065 2078 2078 2078 2078 2078 2078 2078 2078 2078 2078 2078 2078 2078 2065 2065 2065 2065 2053 2053 2065 2065 2065 2065 2065 2065 2078 2078 2078 2078 2053 2053 2053 2065 2053 2053 2053 2053 2053 2053 2053 2053 2053 2053 2053 2053 2040 2040 2040 2040 2040 2040 2040 2053 2053 2053 2053 2053 2053 2065 2065 2065 2065 2065 2065 2065 2053 2053 2065 2065 2065 2065 0 0 0 0 0 0 0 0
0 0 0 0 0 0 0 0 0 0 0 0 0 0 0 0 0 0 0 0 0 0 0 0 0 0 0 0 0 0 0 0 0 1993 1993 1993 2005 2005 2005 2005 2005 2005 2005 2005 2005 1993 1993 2005 2005 2005 2005 2005 2016 2016 2016 2016 2005 2005 2016 2016 2005 2005 2016 2016 2016 2016 2005 2005 2005 2005 2005 2005 2005 2005 2005 2005 2005 2005 1993 1993 2005 2005 2005 2005 1993 1993 2005 2005 1993 1993 1981 1981 1557 1550 1536 1536 1536 1543 1543 1543 1543 1543 1543 1536 1529 1483 1477 1477 1477 1477 1477 1477 1477 1477 1483 1483 1483 1483 1496 1496 1503 1503 1509 1509 2005 2005 2005 2005 2005 2005 2016 2016 2016 2016 2028 2028 2028 2028 2028 2028 2040 1785 1785 1794 1794 1794 1804 1804 1915 1915 1904 1904 1915 1915 1915 1926 1936 1947 1970 1993 2016 2028 2028 2028 2028 2028 2005 1993 1970 1959 1947 1947 1947 1947 1947 1947 1947 1959 1970 1981 2005 2016 2028 2028 2028 2040 2028 2028 2028 2028 2028 2040 2040 2040 2040 2040 2040 2040 2040 2040 2053 2053 2053 2053 2053 2053 2053 2040 2040 1470 1470 1470 1470 1477 1477 1477 1477 1477 1477 1477 1483 1483 1483 1483 1483 1483 1483 2078 2065 2065 2065 2065 2065 2065 2065 2078 2078 2078 2078 2078 2065 2065 2065 2078 2078 1813 1813 1833 1833 1843 1843 1863 1873 1883 1904 1915 1915 1926 2028 2040 2065 2065 2065 2065 2065 2053 2016 1981 1970 1970 1970 1970 1398 1398 1398 1398 1398 1398 1398 1398 1398 1398 1398 1398 1398 1404 1404 1410 1410 1410 1415 1415 1415 1415 1410 1410 1410 1410 1410 1404 1404 1404 1410 1410 1410 1410 1410 1410 1410 1410 1410 1410 1410 1404 1404 1404 1404 1404 1404 1398 1398 1404 1404 1404 1404 1404 1404 1404 1398 1398 1398 1398 1392 1392 1398 1398 1398 1398 1398 1398 1398 1398 1392 1392 1392 1392 1392 1392 1392 1392 1392 1392 1392 1392 1392 1392 1392 1392 1392 1392 1392 1398 1392 1392 1392 1392 1392 1392 1392 1392 1392 1387 1387 1387 1387 1387 1387 1387 1387 1387 1387 1392 1392 1392 1392 1387 1387 1387 1381 1381 1376 1376 1376 1370 1370 1370 1370 1370 1376 1376 1376 1376 1376 1376 2065 2065 2065 2065 2065 2065 2065 2065 2065 2065 2065 2040 2028 1915 1915 1915 1915 1915 1915 1915 1926 1926 1936 2053 2053 2053 2053 2053 2053 2053 2053 2053 2065 2065 2065 2065 2065 2065 2065 2065 2065 2065 2065 2065 2065 2065 2065 2078 2078 2078 2078 2078 2078 2078 2078 2065 2065 2065 2065 2065 2065 2065 2078 2078 2065 2065 2065 2065 2065 1503 1503 1496 1496 1496 1496 1489 1489 1489 1489 1489 1489 1489 1489 1489 1489 1489 1489 1489 1489 1489 1483 1483 2090 2090 2090 2065 2065 2078 2078 2065 2065 2065 2065 2065 2065 2065 2065 2065 2065 2065 2053 2053 2065 2065 2065 2065 2053 2053 2053 2053 2053 2040 2040 2065 2078 2078 2078 2065 2065 2065 2065 2065 2065 2065 2065 2065 2065 2078 2078 2065 2065 2065 2065 2065 2065 2065 2065 2078 2078 2078 2078 2078 2078 2078 2078 2065 2065 2078 2078 2065 2065 2065 2065 2078 2078 2065 2065 2065 2078 2065 2065 2065 2065 2065 2053 2053 2053 2053 2053 2053 2053 2053 2065 2065 2065 2065 2053 2053 2053 2053 2053 2053 2053 2053 2053 2053 2053 2053 2053 2053 2053 2040 2028 2028 2028 2028 2028 2028 2028 2040 2040 2040 2053 2053 2053 2053 2053 2053 2053 2053 2053 2053 2053 2053 2065 2065 2065 2065 0 0 0 0 0 0 0 0
0 0 0 0 0 0 0 0 0 0 0 0 0 0 0 0 0 0 0 0 0 0 0 0 0 0 0 0 0 0 0 0 0 1993 1993 1993 2005 2005 2005 1993 1993 2005 2005 2005 2005 1993 1993 1993 2005 2005 2005 2005 2005 2005 2005 2005 2005 2005 2016 2016 2005 2005 2016 2016 2016 2016 2005 2005 2005 2005 1993 1993 1993 1993 1993 2005 1993 1993 1993 1993 1993 1993 1993 1993 1993 1993 2005 1993 1993 1993 1981 1981 1981 1557 1536 1536 1536 1543 1543 1543 1550 1550 1550 1543 1529 1523 1477 1477 1477 1477 1477 1477 1477 1477 1483 1483 1483 1489 1496 1496 1503 1503 1509 1509 2005 1993 1993 1993 1993 2005 2005 2005 2005 2016 2016 2016 2028 2028 2028 2028 1785 1785 1785 1794 1794 1804 1804 1915 1915 1915 1904 1904 1915 1915 1915 1915 1926 1936 1959 1981 2005 2016 2016 2016 2016 2016 2005 1993 1970 1959 1959 1947 1947 1947 1947 1947 1947 1959 1970 1981 2005 2016 2028 2028 2028 2028 2028 2028 2028 2028 2028 2028 2028 2028 2028 2028 2028 2040 2040 2040 2040 2040 2053 2040 2040 2040 2040 2028 2028 2028 1470 1470 1470 1477 1477 1477 1477 1483 1483 1483 1483 1489 1489 1489 1489 1489 2078 2078 2065 2065 2065 2065 2065 2065 2065 2065 2065 2065 2053 2040 2040 2065 2065 1823 1823 1813 1813 1823 1823 1843 1843 1863 1883 1894 1904 1926 1926 1926 2028 2028 2040 2053 2053 2065 2053 2040 2016 1981 1981 1970 1970 1970 1398 1398 1398 1398 1398 1398 1398 1398 1398 1404 1398 1398 1404 1404 1410 1410 1415 1415 1415 1415 1415 1415 1415 1415 1410 1410 1415 1410 1410 1410 1410 1410 1415 1415 1415 1415 1415 1415 1415 1415 1410 1410 1410 1410 1404 1404 1404 1404 1404 1404 1404 1404 1410 1404 1404 1404 1404 1404 1404 1404 1398 1398 1398 1398 1404 1398 1398 1398 1398 1398 1398 1398 1392 1392 1392 1392 1392 1392 1392 1392 1392 1392 1392 1392 1392 1392 1392 1392 1398 1398 1392 1392 1392 1392 1392 1392 1392 1392 1392 1392 1392 1392 1392 1392 1392 1392 1392 1392 1392 1392 1392 1392 1392 1387 1387 1387 1381 1381 1376 1376 1376 1370 1370 1370 1370 1370 1370 1376 1376 1376 1376 1376 2065 2065 2053 2053 2053 2065 2053 2053 2053 2053 2053 2028 2005 1926 1926 1915 1915 1915 1915 1915 1926 1926 1947 2053 2040 2040 2053 2053 2053 2053 2053 2053 2053 2053 2053 2053 2053 2053 2053 2053 2053 2053 2053 2053 2053 2053 2053 2065 2065 2065 2065 2065 2078 2065 2065 2053 2053 2053 2065 2053 2053 2053 2065 2065 2065 2053 2053 2053 2053 1503 1503 1496 1496 1496 1496 1489 1489 1489 1489 1489 1489 1489 1489 1489 1489 1489 1489 1489 1489 1489 1483 1483 2053 2040 2040 2053 2065 2065 2065 2065 2053 2053 2053 2053 2053 2053 2053 2053 2053 2053 2053 2053 2053 2053 2053 2053 2053 2053 2053 2040 2040 2040 2040 2053 2065 2065 2065 2053 2053 2065 2065 2053 2053 2053 2053 2053 2065 2065 2065 2065 2065 2065 2065 2065 2065 2065 2065 2065 2065 2065 2065 2065 2065 2065 2065 2065 2065 2065 2065 2065 2065 2065 2065 2065 2065 2065 2065 2065 2065 2065 2065 2065 2065 2053 2053 2040 2040 2053 2053 2053 2053 2053 2065 2065 2065 2065 2053 2040 2040 2040 2040 2040 2040 2040 2040 2040 2040 2053 2053 2053 2053 2040 2028 2028 2028 2028 2028 2028 2028 2028 2040 2040 2040 2040 2053 2040 2040 2053 2040 2040 2053 2053 2053 2053 2053 2053 2053 2065 0 0 0 0 0 0 0 0
0 0 0 0 0 0 0 0 0 0 0 0 0 0 0 0 0 0 0 0 0 0 0 0 0 0 0 0 0 0 0 0 0 1993 1981 1981 1993 1993 2005 1993 1993 2005 2005 1993 1993 1993 1993 1993 2005 2005 1993 1993 1993 2005 2005 2005 2005 2005 2005 2005 2005 2005 2005 2005 2005 2005 1993 1993 1993 1993 1993 1993 1993 1993 1993 1993 1993 1993 1993 1993 1993 1993 1993 1993 1993 1993 1993 1993 1993 1993 1981 1981 1981 1557 1550 1543 1543 1550 1550 1550 1550 1550 1550 1543 1529 1523 1477 1477 1477 1477 1477 1477 1477 1477 1483 1483 1483 1489 1489 1496 1503 1509 1509 1509 1993 1993 1993 1993 1993 1993 2005 2005 2005 2005 2016 2016 2016 2028 2028 1776 1776 1785 1785 1785 1794 1794 1794 1904 1904 1915 1904 1904 1915 1904 1904 1915 1926 1936 1947 1970 1993 2016 2016 2016 2016 2016 1993 1993 1981 1970 1959 1959 1947 1947 1947 1947 1959 1959 1970 1981 2005 2016 2028 2028 2028 2028 2028 2028 2028 2016 2016 2016 2028 2028 2028 2028 2028 2028 2040 2040 2040 2040 2040 2040 2040 2040 2040 2028 2028 1477 1470 1470 1477 1477 1477 1477 1483 1483 1483 1483 1489 1489 1489 1489 1489 1489 2065 2065 2065 2040 2040 2053 2053 2053 2053 2053 2053 2053 2040 2040 2040 2040 1813 1813 1813 1813 1813 1823 1823 1833 1843 1853 1883 1894 1915 1926 1926 1936 1993 2028 2028 2040 2040 2053 2040 2028 2016 1993 1981 1981 1981 1981 1398 1398 1398 1398 1398 1398 1398 1398 1404 1404 1404 1404 1404 1410 1410 1415 1415 1415 1415 1415 1415 1415 1415 1415 1415 1415 1415 1415 1410 1410 1415 1415 1415 1415 1415 1415 1415 1415 1415 1415 1410 1410 1410 1410 1410 1404 1404 1404 1404 1404 1404 1404 1410 1410 1410 1410 1404 1404 1410 1404 1398 1398 1398 1404 1404 1398 1398 1398 1398 1398 1398 1398 1398 1398 1398 1392 1392 1398 1398 1398 1392 1392 1392 1398 1398 1398 1398 1398 1398 1398 1398 1398 1398 1392 1392 1392 1392 1392 1392 1392 1392 1392 1392 1392 1392 1392 1392 1392 1392 1392 1392 1392 1392 1392 1387 1387 1387 1381 1376 1376 1376 1370 1370 1370 1370 1370 1370 1376 1376 1376 1376 1376 2053 2053 2053 2053 2053 2053 2053 2053 2053 2053 2053 2028 1993 1947 1926 1915 1915 1915 1915 1915 1926 1947 1947 2040 2040 2040 2053 2053 2053 2053 2053 2053 2053 2053 2053 2053 2053 2053 2053 2053 2040 2040 2040 2053 2053 2040 2040 2053 2053 2053 2053 2053 2053 2053 2053 2053 2053 2053 2053 2053 2053 2053 2053 2053 2053 2053 2053 2053 2053 1503 1503 1496 1496 1503 1496 1496 1496 1489 1489 1489 1489 1489 1489 1489 1489 1489 1489 1489 1496 1489 1489 1496 2040 2016 2016 2028 2053 2053 2065 2053 2053 2040 2040 2040 2040 2040 2040 2040 2040 2040 2040 2040 2040 2040 2040 2040 2040 2040 2040 2040 2040 2040 2040 2040 2053 2065 2065 2053 2053 2053 2053 2053 2053 2053 2053 2053 2053 2053 2053 2053 2053 2053 2053 2053 2053 2053 2053 2053 2065 2065 2065 2065 2065 2065 2053 2053 2053 2053 2053 2053 2053 2053 2053 2053 2053 2053 2053 2053 2065 2053 2053 2053 2053 2053 2053 2040 2040 2040 2040 2040 2053 2053 2053 2053 2053 2053 2040 2040 2040 2040 2028 2028 2040 2040 2040 2040 2040 2053 2053 2040 2040 2028 2028 2016 2016 2016 2028 2028 2028 2028 2028 2028 2040 2040 2040 2040 2040 2040 2040 2040 2040 2040 2040 2040 2053 2053 2053 2053 0 0 0 0 0 0 0 0
0 0 0 0 0 0 0 0 0 0 0 0 0 0 0 0 0 0 0 0 0 0 0 0 0 0 0 0 0 0 0 0 0 0 1970 1970 1970 1970 1970 1970 1970 1970 1981 1981 1981 1981 1981 1981 1981 1981 1981 1981 1981 1981 1981 1993 1993 1993 1993 1993 1993 1993 1993 1993 1993 1993 1981 1981 1981 1981 1981 1981 1981 1981 1981 1981 1981 1993 1993 1993 1993 1993 1993 1993 1993 1993 1993 1993 1993 1993 1981 1981 1981 1557 1557 1543 1543 1550 1550 1550 1550 1550 1550 1550 1536 1536 1477 1477 1477 1477 1477 1477 1477 1477 1477 1477 1483 1483 1489 1489 1509 1509 1509 1509 1993 1993 1993 1993 1993 1993 1993 1993 2005 2005 2005 2016 2016 2016 2028 1776 1776 1776 1785 1785 1785 1794 1794 1904 1904 1904 1904 1904 1915 1904 1904 1915 1915 1926 1947 1959 1981 2005 2005 2005 2005 1993 1993 1981 1981 1970 1959 1959 1959 1947 1947 1959 1959 1959 1981 1981 1981 2016 2016 2016 2016 2016 2016 2016 2016 2016 2016 2016 2028 2028 2028 2028 2028 2028 2028 2028 2028 2028 2040 2040 2028 2028 2028 2028 2028 1477 1477 1477 1477 1477 1477 1483 1483 1483 1483 1483 1489 1489 1489 1489 1489 1489 2065 2040 2040 2040 2040 2040 2040 2040 2040 2040 2040 2040 2040 2040 2040 2040 1813 1813 1813 1813 1813 1813 1813 1833 1843 1853 1883 1894 1915 1926 1926 1936 1993 2028 2028 2028 2040 2040 2040 2028 2016 1993 1993 1981 1981 1981 1398 1398 1398 1398 1398 1398 1398 1404 1404 1404 1404 1404 1410 1410 1415 1415 1415 1415 1415 1415 1415 1415 1415 1415 1415 1415 1415 1415 1410 1410 1415 1415 1415 1415 1415 1415 1415 1415 1415 1415 1410 1410 1410 1410 1415 1410 1410 1404 1404 1410 1410 1410 1410 1410 1410 1410 1410 1410 1410 1410 1404 1404 1404 1404 1404 1398 1398 1398 1398 1398 1398 1398 1398 1398 1398 1398 1398 1398 1398 1398 1398 1392 1392 1398 1398 1398 1398 1398 1398 1404 1398 1398 1398 1392 1392 1392 1392 1392 1392 1392 1392 1392 1392 1392 1392 1392 1392 1392 1392 1392 1392 1392 1392 1392 1392 1387 1387 1381 1381 1381 1376 1376 1376 1376 1376 1376 1376 1376 1376 1376 1381 1381 2053 2053 2053 2040 2040 2040 2053 2053 2040 2040 2040 2016 1981 1936 1926 1926 1915 1915 1915 1926 1926 1947 1959 2040 2040 2040 2040 2040 2040 2040 2040 2053 2053 2053 2053 2053 2053 2040 2040 2040 2040 2028 2028 2040 2040 2040 2040 2040 2040 2053 2053 2053 2053 2053 2053 2053 2053 2053 2053 2053 2053 2053 2053 2053 2053 2053 2040 2040 2040 1503 1503 1503 1503 1503 1503 1496 1496 1489 1489 1489 1489 1489 1489 1489 1489 1489 1489 1489 1496 1496 1496 1981 1981 2016 2016 2028 2040 2040 2040 2040 2040 2040 2040 2040 2040 2040 2040 2040 2040 2040 2040 2040 2040 2040 2040 2040 2040 2040 2040 2040 2040 2040 2040 2040 2053 2053 2053 2053 2053 2053 2040 2040 2040 2040 2040 2040 2040 2040 2040 2053 2040 2040 2040 2053 2053 2053 2053 2053 2053 2053 2053 2053 2053 2053 2053 2053 2053 2053 2040 2040 2040 2040 2040 2040 2040 2040 2040 2053 2053 2053 2053 2053 2053 2053 2053 2040 2040 2040 2040 2040 2040 2040 2040 2040 2040 2040 2028 2028 2028 2028 2028 2028 2028 2028 2028 2040 2040 2040 2040 2028 2028 2028 2028 2016 2016 2016 2028 2028 2028 2028 2028 2028 2028 2028 2028 2028 2028 2028 2028 2028 2040 2040 2040 2040 2040 2053 2053 2053 0 0 0 0 0 0 0 0
0 0 0 0 0 0 0 0 0 0 0 0 0 0 0 0 0 0 0 0 0 0 0 0 0 0 0 0 0 0 0 0 0 0 1959 1959 1959 1970 1970 1970 1970 1970 1970 1970 1970 1970 1970 1970 1970 1970 1970 1970 1970 1970 1981 1981 1981 1993 1993 1993 1993 1993 1993 1993 1993 1993 1981 1981 1981 1981 1981 1981 1981 1981 1981 1981 1981 1981 1981 1993 1981 1981 1981 1981 1981 1981 1981 1970 1970 1981 1981 1970 1970 1557 1557 1550 1550 1550 1550 1550 1557 1557 1557 1557 1550 1550 1477 1477 1477 1477 1477 1477 1477 1477 1477 1477 1483 1483 1483 1489 1489 1483 1483 2005 1993 1993 1981 1981 1981 1993 1993 1993 1993 1993 2005 2005 2005 1766 1766 1766 1766 1776 1776 1776 1785 1785 1904 1904 1904 1904 1904 1904 1915 1904 1904 1915 1915 1926 1947 1959 1970 1993 1993 1993 1993 1993 1993 1981 1981 1970 1959 1959 1959 1959 1959 1959 1959 1959 1981 1981 1981 2005 2005 2005 2016 2016 2016 2016 2016 2005 2005 2016 2016 2016 2016 2016 2028 2028 2028 2028 2028 2028 2028 2028 2016 2016 2016 2016 2016 2016 1477 1477 1477 1483 1483 1483 1483 1483 1483 1483 1489 1489 1489 1489 1489 1489 1489 2028 2028 2028 2028 2040 2040 2040 2040 2040 2040 2040 2040 2040 2040 1804 1804 1813 1813 1813 1813 1813 1813 1833 1853 1863 1883 1894 1915 1926 1936 1947 1981 2016 2016 2028 2028 2028 2028 2028 2016 2005 1993 1993 1993 1993 1993 1398 1398 1398 1398 1398 1398 1404 1404 1404 1404 1404 1410 1410 1415 1415 1415 1415 1415 1415 1415 1415 1415 1415 1415 1415 1415 1415 1415 1415 1415 1415 1421 1415 1415 1415 1415 1415 1415 1415 1415 1415 1415 1410 1410 1410 1410 1410 1410 1410 1410 1410 1415 1410 1410 1410 1410 1410 1415 1410 1404 1404 1404 1404 1404 1404 1404 1404 1398 1398 1398 1398 1398 1398 1404 1398 1398 1398 1398 1398 1398 1398 1398 1398 1398 1398 1398 1398 1404 1404 1404 1398 1398 1398 1392 1392 1398 1398 1398 1392 1392 1392 1392 1392 1392 1398 1398 1398 1398 1398 1392 1392 1392 1392 1392 1387 1387 1387 1381 1381 1381 1376 1376 1376 1376 1376 1376 1376 1376 1376 1381 1381 2053 2053 2053 2040 2040 2040 2040 2040 2040 2040 2028 2005 1981 1936 1926 1926 1915 1915 1926 1926 1936 1947 1959 2028 2028 2040 2040 2040 2040 2040 2040 2040 2040 2040 2040 2040 2040 2040 2040 2040 2040 2028 2028 2040 2040 2040 2040 2040 2040 2040 2040 2053 2053 2040 2040 2040 2040 2040 2040 2053 2053 2053 2053 2053 2053 2040 2040 2040 2040 2040 1509 1503 1503 1503 1503 1496 1496 1496 1496 1496 1496 1496 1496 1496 1496 1496 1496 1496 1503 1503 1503 1970 1970 2016 2016 2028 2040 2040 2040 2028 2028 2028 2028 2028 2028 2028 2028 2028 2028 2028 2028 2028 2040 2028 2028 2040 2040 2040 2040 2040 2040 2040 2040 2040 2040 2040 2040 2040 2040 2040 2040 2040 2040 2040 2040 2028 2028 2028 2040 2040 2040 2040 2040 2040 2040 2040 2040 2040 2040 2040 2040 2040 2040 2040 2040 2040 2040 2040 2040 2040 2040 2040 2040 2040 2040 2040 2040 2040 2040 2040 2040 2040 2040 2040 2040 2040 2040 2040 2040 2040 2040 2040 2040 2028 2028 2028 2016 2016 2016 2016 2016 2016 2016 2028 2028 2028 2028 2028 2028 2028 2028 2016 2016 2016 2016 2016 2016 2016 2016 2016 2016 2016 2016 2016 2028 2028 2028 2028 2028 2028 2028 2028 2028 2028 2040 2040 2040 2040 0 0 0 0 0 0 0 0
0 0 0 0 0 0 0 0 0 0 0 0 0 0 0 0 0 0 0 0 0 0 0 0 0 0 0 0 0 0 0 0 0 0 1959 1959 1959 1970 1959 1959 1959 1959 1970 1970 1970 1970 1970 1970 1970 1970 1970 1970 1970 1970 1970 1981 1981 2005 1993 1993 1981 1981 1981 1981 1981 1981 1970 1970 1981 1981 1981 1970 1970 1970 1970 1970 1981 1981 1981 1981 1981 1981 1981 1981 1970 1970 1970 1970 1970 1970 1970 1970 1970 1557 1557 1557 1557 1557 1557 1557 1557 1557 1557 1557 1550 1550 1550 1477 1477 1477 1477 1477 1477 1477 1477 1477 1483 1483 1483 1489 1489 1483 1483 2005 1993 1993 1981 1981 1981 1981 1981 1981 1981 1981 1993 1993 1766 1766 1766 1766 1766 1766 1776 1776 1776 1776 1915 1915 1915 1915 1915 1915 1915 1904 1904 1915 1915 1926 1947 1959 1959 1981 1981 1981 1981 1981 1981 1981 1981 1970 1970 1970 1959 1959 1959 1959 1959 1970 1970 1981 1981 1993 2005 2005 2005 2005 2005 2005 2005 1993 1993 2005 2005 2005 2005 2005 2016 2005 2005 2005 2005 2005 2016 2016 2016 2016 2016 2005 2005 2005 1483 1483 1483 1483 1483 1483 1483 1483 1483 1483 1489 1489 1489 1489 1489 1496 1496 2016 2016 2028 2028 2028 2028 2040 2040 2040 2040 2040 2028 2028 2028 1804 1804 1804 1804 1813 1813 1813 1813 1833 1853 1863 1894 1894 1915 1926 1936 1947 1981 2005 2016 2028 2028 2028 2028 2028 2016 2005 2005 1993 1993 1993 1993 1404 1404 1404 1404 1398 1398 1404 1404 1404 1404 1404 1410 1410 1415 1415 1415 1415 1415 1415 1415 1415 1415 1415 1415 1415 1415 1415 1415 1415 1415 1421 1421 1415 1415 1421 1415 1415 1415 1415 1415 1415 1415 1410 1410 1410 1410 1410 1410 1410 1410 1410 1415 1415 1410 1410 1415 1415 1415 1415 1404 1404 1410 1404 1404 1404 1404 1404 1404 1404 1398 1398 1398 1398 1404 1398 1398 1398 1398 1398 1398 1398 1398 1398 1398 1398 1398 1398 1398 1404 1404 1404 1404 1398 1398 1398 1398 1398 1398 1392 1392 1398 1398 1398 1398 1398 1398 1398 1398 1398 1398 1392 1392 1392 1392 1387 1387 1387 1381 1381 1381 1376 1376 1376 1376 1376 1381 1381 1381 1381 1381 1381 2016 2016 2016 2016 2028 2028 2040 2028 2028 2028 2028 2005 1981 1947 1926 1926 1926 1926 1926 1926 1936 1947 1959 2016 2028 2028 2040 2040 2040 2040 2040 2040 2040 2040 2040 2028 2028 2028 2028 2028 2028 2028 2028 2040 2040 2028 2028 2040 2040 2040 2040 2040 2040 2040 2040 2040 2040 2040 2040 2040 2040 2040 2053 2053 2040 2040 2040 2040 2040 1509 1509 1503 1503 1503 1503 1496 1496 1496 1496 1496 1496 1496 1496 1496 1496 1496 1496 1496 1503 1503 1503 1970 1970 2005 2028 2028 2040 2040 2040 2028 2028 2028 2028 2028 2028 2028 2028 2028 2028 2028 2028 2028 2028 2028 2028 2028 2028 2028 2040 2028 2028 2028 2028 2040 2040 2028 2028 2040 2040 2040 2040 2040 2040 2040 2028 2028 2028 2028 2028 2040 2040 2040 2040 2040 2040 2040 2040 2040 2040 2040 2040 2040 2040 2040 2040 2040 2040 2040 2028 2028 2040 2028 2028 2028 2040 2040 2040 2040 2040 2040 2040 2040 2040 2040 2040 2028 2028 2040 2028 2028 2028 2028 2028 2028 2028 2028 2016 2016 2016 2016 2016 2016 2016 2016 2028 2028 2028 2028 2028 2016 2016 2005 2005 2005 2005 2005 2016 2016 2016 2016 2016 2016 2016 2016 2016 2016 2028 2028 2028 2028 2028 2028 2028 2028 2028 2028 2028 2028 0 0 0 0 0 0 0 0
0 0 0 0 0 0 0 0 0 0 0 0 0 0 0 0 0 0 0 0 0 0 0 0 0 0 0 0 0 0 0 0 0 0 1959 1959 1959 1959 1959 1959 1959 1959 1970 1970 1970 1970 1970 1970 1970 1970 1970 1970 1970 1970 1970 1970 1970 1993 1981 1981 1981 1981 1981 1970 1970 1970 1970 1970 1970 1970 1970 1970 1970 1970 1959 1959 1970 1970 1981 1970 1970 1970 1970 1970 1970 1970 1970 1970 1970 1970 1970 1981 1981 1981 1564 1557 1557 1557 1557 1557 1557 1557 1557 1557 1557 1557 1550 1483 1477 1477 1477 1477 1477 1477 1483 1483 1483 1483 1489 1489 1489 1483 1483 1483 1993 1993 1981 1981 1981 1981 1981 1970 1970 1970 1970 1970 1766 1757 1757 1757 1766 1766 1766 1766 1766 1766 1915 1915 1915 1915 1915 1915 1915 1904 1904 1915 1926 1936 1947 1959 1959 1970 1981 1981 1981 1981 1981 1981 1981 1981 1970 1970 1970 1970 1970 1970 1970 1970 1970 1970 1970 1981 1993 1993 2005 2005 2005 2005 2005 1993 1993 2005 2005 2005 2005 2005 2005 2005 2005 2005 2005 2005 1993 1993 1993 1993 1993 1993 1993 1993 1489 1489 1483 1483 1483 1483 1483 1483 1483 1483 1489 1489 1496 1496 1496 1503 1503 1993 1993 2005 2016 2016 2016 2028 2028 2028 2028 2028 2028 2028 2028 1794 1794 1794 1794 1804 1804 1804 1804 1823 1853 1883 1894 1894 1915 1926 1936 1959 1993 2005 2016 2028 2028 2028 2016 2016 2016 2005 2005 1993 1993 2005 2005 1404 1404 1404 1404 1404 1404 1404 1404 1404 1404 1404 1410 1410 1415 1415 1415 1415 1421 1421 1421 1421 1415 1415 1415 1415 1415 1415 1415 1415 1415 1421 1421 1421 1421 1421 1415 1415 1415 1415 1415 1415 1415 1415 1415 1415 1410 1410 1410 1410 1410 1410 1415 1415 1415 1415 1415 1415 1415 1415 1410 1410 1410 1404 1404 1404 1404 1404 1404 1404 1404 1404 1398 1398 1404 1404 1404 1404 1398 1398 1398 1398 1398 1398 1398 1398 1398 1398 1398 1404 1404 1404 1404 1398 1398 1398 1398 1398 1398 1398 1398 1398 1398 1398 1398 1398 1398 1398 1398 1398 1398 1398 1398 1392 1392 1392 1392 1387 1387 1381 1381 1381 1376 1376 1381 1381 1381 1381 1381 1381 1381 0 2016 2016 2016 2016 2016 2028 2028 2028 2028 2028 2028 2005 1993 1947 1926 1926 1926 1926 1926 1926 1936 1947 1959 2005 2016 2016 2028 2028 2028 2028 2028 2028 2028 2028 2028 2016 2016 2028 2016 2016 2028 2028 2028 2028 2028 2028 2028 2028 2028 2028 2028 2028 2028 2028 2040 2040 2028 2028 2028 2040 2040 2040 2040 2040 2040 2040 2040 2040 2040 1509 1509 1503 1503 1503 1503 1503 1496 1496 1496 1496 1496 1496 1496 1496 1496 1496 1496 1503 1509 1509 1509 1981 1981 2005 2028 2028 2040 2040 2040 2028 2028 2016 2016 2028 2016 2016 2016 2016 2016 2016 2016 2016 2016 2028 2028 2028 2028 2028 2028 2028 2028 2028 2028 2028 2028 2028 2028 2028 2028 2028 2028 2028 2028 2028 2028 2028 2028 2028 2028 2028 2028 2028 2028 2028 2028 2028 2028 2028 2028 2028 2028 2028 2028 2028 2028 2040 2040 2040 2028 2028 2028 2028 2028 2028 2028 2028 2028 2028 2028 2028 2028 2028 2028 2028 2028 2028 2028 2028 2028 2028 2028 2028 2028 2028 2028 2016 2016 2016 2016 2016 2016 2016 2016 2016 2028 2016 2016 2016 2005 2005 1993 1993 1993 1993 2005 2005 2016 2016 2016 2016 2016 2016 2016 2016 2016 2016 2028 2028 2028 2028 2028 2028 2028 2016 2016 2028 2028 2028 0 0 0 0 0 0 0 0
0 0 0 0 0 0 0 0 0 0 0 0 0 0 0 0 0 0 0 0 0 0 0 0 0 0 0 0 0 0 0 0 0 0 1947 1947 1959 1959 1959 1959 1959 1959 1970 1970 1970 1970 1970 1970 1970 1970 1970 1970 1970 1970 1970 1970 1970 1970 1970 1970 1970 1970 1970 1970 1970 1970 1959 1959 1959 1959 1959 1959 1959 1959 1959 1959 1959 1970 1970 1970 1970 1970 1970 1970 1959 1959 1959 1959 1970 1970 1970 1981 1564 1564 1564 1557 1557 1557 1557 1557 1564 1557 1557 1557 1557 1557 1550 1483 1483 1483 1483 1483 1483 1483 1483 1483 1483 1483 1483 1489 1489 1489 1503 1503 1993 1993 1981 1981 1970 1970 1970 1970 1970 1970 1970 1970 1757 1757 1757 1757 1757 1757 1757 1766 1766 1766 1926 1915 1915 1915 1915 1915 1915 1904 1904 1915 1926 1936 1947 1959 1959 1970 1970 1981 1981 1981 1981 1981 1981 1970 1970 1970 1970 1970 1970 1970 1970 1959 1959 1970 1970 1981 1993 1993 1993 1993 1993 1993 1993 1993 1993 1993 1993 1993 1993 1993 1993 1993 1993 1993 1993 1993 1993 1993 1993 1993 1993 1993 1993 1993 1496 1489 1483 1483 1483 1483 1477 1477 1483 1483 1489 1489 1496 1496 1503 1503 1503 1981 1993 2005 2016 2016 2016 2016 2028 2028 2028 2028 2028 1785 1785 1785 1785 1785 1785 1794 1804 1804 1804 1823 1853 1883 1894 1904 1915 1926 1926 1959 1981 2005 2005 2016 2016 2016 2016 2016 2016 2005 2005 1993 1993 2005 2005 1404 1404 1404 1404 1404 1404 1404 1404 1404 1404 1410 1410 1410 1415 1415 1415 1415 1421 1421 1421 1421 1415 1415 1415 1415 1415 1415 1415 1415 1421 1421 1421 1421 1421 1421 1415 1415 1415 1415 1415 1415 1415 1415 1415 1415 1415 1415 1415 1410 1410 1410 1415 1415 1415 1415 1415 1415 1415 1415 1410 1410 1410 1410 1404 1404 1404 1404 1404 1404 1404 1404 1410 1410 1404 1404 1404 1404 1404 1404 1404 1404 1398 1398 1398 1398 1398 1404 1404 1404 1404 1404 1404 1404 1404 1404 1404 1404 1404 1398 1398 1404 1398 1398 1398 1398 1398 1398 1398 1398 1398 1398 1398 1398 1392 1392 1392 1387 1387 1387 1387 1387 1381 1381 1381 1381 1387 1387 1381 1381 1381 2005 2016 2016 2005 2005 2016 2016 2028 2028 2028 2028 2028 2005 1993 1947 1926 1926 1915 1915 1926 1926 1936 1947 1970 2005 2005 2005 2016 2016 2016 2016 2016 2016 2016 2016 2028 2016 2016 2016 2016 2016 2016 2016 2016 2016 2016 2016 2016 2016 2016 2016 2028 2028 2028 2028 2028 2028 2028 2028 2028 2028 2028 2040 2040 2040 2040 2040 2040 2040 2040 1509 1509 1503 1503 1503 1503 1503 1503 1503 1503 1503 1503 1496 1496 1503 1503 1503 1503 1503 1509 1509 1993 1981 1981 2005 2028 2028 2028 2028 2028 2016 2016 2016 2016 2028 2016 2016 2016 2005 2005 2005 2005 2005 2005 2005 2016 2016 2028 2028 2028 2028 2028 2028 2028 2016 2016 2028 2028 2016 2016 2016 2016 2016 2016 2016 2016 2016 2016 2016 2028 2028 2028 2028 2028 2016 2016 2028 2028 2028 2028 2028 2028 2028 2028 2028 2028 2028 2028 2028 2028 2028 2028 2016 2016 2028 2028 2028 2028 2028 2028 2028 2028 2028 2028 2028 2028 2028 2028 2028 2028 2028 2028 2028 2028 2016 2016 2016 2005 2005 2005 2005 2016 2016 2016 2016 2016 2016 2005 2005 1993 1993 1993 1993 1993 1993 2005 2005 2005 2005 2005 2005 2016 2016 2016 2016 2016 2016 2016 2016 2028 2028 2028 2028 2028 2016 2016 2016 2005 2005 0 0 0 0 0 0 0 0
0 0 0 0 0 0 0 0 0 0 0 0 0 0 0 0 0 0 0 0 0 0 0 0 0 0 0 0 0 0 0 0 0 0 1947 1947 1959 1959 1947 1947 1959 1959 1959 1959 1970 1970 1970 1970 1970 1959 1959 1959 1959 1959 1959 1959 1959 1959 1959 1959 1959 1959 1970 1970 1970 1970 1959 1959 1959 1959 1959 1959 1959 1959 1959 1959 1959 1959 1959 1959 1959 1959 1959 1959 1959 1959 1959 1959 1959 1959 1970 1970 1564 1564 1564 1557 1557 1564 1564 1564 1564 1557 1557 1557 1557 1557 1550 1483 1483 1483 1477 1477 1483 1477 1477 1477 1483 1483 1483 1489 1489 1489 1489 1489 1993 1993 1981 1970 1970 1970 1959 1959 1959 1959 1959 1959 1748 1748 1757 1757 1757 1757 1757 1757 1757 1926 1926 1926 1915 1915 1915 1915 1915 1915 1915 1915 1926 1936 1936 1959 1959 1970 1970 1981 1981 1981 1981 1970 1970 1970 1970 1970 1970 1970 1959 1959 1970 1959 1959 1970 1970 1981 1993 1993 1993 1993 1993 1993 1993 1993 1993 1993 1993 1993 1993 1993 1993 1993 1993 1993 1993 1993 1993 1993 1993 1993 1993 1993 2005 2005 1489 1489 1483 1483 1483 1483 1477 1477 1483 1483 1489 1489 1496 1496 1503 1503 1981 1981 1993 2005 2016 2016 2016 2016 2028 2028 2028 2028 2028 1785 1785 1785 1776 1776 1776 1785 1804 1813 1813 1833 1863 1883 1894 1904 1926 1926 1926 1970 1970 1981 2005 2016 2016 2016 2016 2016 2005 2005 2005 1993 1993 1993 1993 1410 1410 1410 1404 1404 1404 1404 1404 1410 1410 1410 1410 1415 1415 1415 1415 1415 1421 1415 1415 1415 1415 1415 1415 1415 1415 1415 1415 1415 1421 1421 1421 1421 1421 1421 1421 1421 1421 1415 1415 1415 1415 1415 1415 1415 1415 1415 1415 1410 1410 1415 1415 1415 1415 1415 1415 1415 1415 1415 1410 1410 1410 1410 1410 1404 1404 1410 1404 1404 1404 1404 1404 1404 1404 1404 1404 1404 1404 1404 1404 1404 1404 1404 1404 1404 1404 1404 1404 1410 1410 1410 1410 1404 1404 1404 1404 1404 1404 1404 1404 1404 1404 1404 1404 1398 1398 1398 1398 1398 1398 1398 1398 1398 1392 1392 1392 1387 1387 1387 1387 1387 1381 1381 1387 1387 1387 1387 1387 1387 1387 2005 2005 2005 2005 2005 2016 2016 2016 2016 2028 2028 2016 1993 1993 1947 1915 1915 1915 1915 1936 1947 1947 1959 1970 2005 2005 2005 2005 2005 2016 2005 2005 2016 2016 2016 2016 2016 2016 2016 2016 2016 2016 2016 2016 2016 2016 2016 2016 2016 2016 2016 2016 2016 2016 2016 2016 2016 2016 2016 2028 2028 2028 2028 2040 2040 2040 2040 2040 2040 1523 1509 1509 1503 1503 1503 1503 1503 1503 1503 1503 1503 1503 1503 1503 1503 1503 1503 1503 1503 1509 1509 1993 1993 1993 2005 2005 2005 2005 2016 2016 2005 2005 2016 2016 2016 2016 2016 2005 2005 2005 2005 2005 2005 2005 2005 2016 2016 2028 2028 2028 2016 2016 2028 2016 2016 2016 2028 2028 2016 2016 2016 2005 2005 2005 2016 2016 2016 2016 2016 2016 2016 2016 2016 2016 2005 2005 2005 2005 2005 2005 2005 2016 2016 2016 2016 2016 2028 2028 2028 2028 2028 2028 2016 2016 2016 2016 2016 2016 2016 2016 2016 2016 2016 2016 2016 2016 2016 2016 2028 2016 2016 2028 2028 2016 2016 2016 2005 2005 2005 2005 2005 2005 2005 2005 2005 2016 2005 1993 1993 1993 1993 1981 1981 1993 1993 2005 2005 2005 2005 2005 2005 2016 2016 2016 2016 2016 2016 2016 2016 2016 2016 2016 2016 2016 2016 2016 2016 2005 2005 0 0 0 0 0 0 0 0
0 0 0 0 0 0 0 0 0 0 0 0 0 0 0 0 0 0 0 0 0 0 0 0 0 0 0 0 0 0 0 0 0 0 1947 1947 1947 1959 1947 1947 1947 1947 1959 1959 1959 1959 1959 1959 1959 1959 1959 1959 1959 1959 1959 1959 1959 1947 1947 1959 1959 1959 1959 1959 1959 1959 1947 1947 1947 1959 1959 1947 1947 1947 1947 1947 1947 1959 1959 1959 1959 1959 1959 1959 1959 1959 1959 1959 1959 1959 1959 1959 1564 1564 1564 1557 1557 1564 1564 1564 1564 1557 1557 1557 1557 1557 1550 1489 1489 1483 1477 1477 1483 1477 1477 1477 1483 1483 1483 1489 1489 1489 1489 1489 1970 1970 1959 1959 1959 1959 1959 1959 1959 1959 1959 1731 1731 1739 1748 1748 1748 1748 1757 1757 1757 1959 1936 1926 1926 1926 1926 1926 1915 1915 1915 1915 1926 1926 1936 1947 1959 1959 1970 1970 1970 1970 1970 1970 1970 1970 1959 1959 1959 1959 1959 1959 1959 1959 1959 1959 1970 1970 1981 1981 1981 1981 1981 1981 1981 1981 1981 1981 1981 1981 1981 1981 1981 1993 1993 1993 1993 1993 1993 1993 1993 1993 1993 1993 2005 2005 1489 1489 1483 1483 1483 1483 1483 1483 1483 1483 1489 1489 1496 1496 1503 1503 1981 1981 1993 2005 2005 2005 2005 2016 2016 2016 2016 2016 2016 1776 1776 1776 1776 1776 1776 1785 1804 1813 1813 1883 1883 1894 1904 1904 1926 1936 1947 1970 1970 1981 2005 2005 2016 2016 2016 2016 2005 2005 2005 1993 1993 1993 1993 1415 1410 1410 1410 1410 1410 1410 1410 1410 1410 1410 1415 1415 1415 1415 1415 1415 1421 1415 1415 1415 1415 1415 1415 1415 1415 1415 1415 1415 1421 1421 1421 1415 1415 1421 1421 1421 1415 1415 1415 1415 1415 1415 1415 1415 1410 1410 1415 1415 1415 1415 1415 1415 1415 1415 1415 1415 1415 1415 1410 1410 1410 1410 1410 1410 1410 1410 1410 1404 1404 1410 1404 1404 1410 1410 1410 1410 1404 1404 1404 1404 1404 1404 1404 1404 1404 1404 1404 1410 1410 1410 1410 1404 1404 1404 1404 1404 1404 1404 1404 1404 1404 1404 1404 1404 1398 1398 1404 1398 1398 1398 1398 1398 1392 1392 1392 1387 1387 1387 1387 1387 1387 1387 1387 1387 1387 1387 1387 1387 1392 1392 2005 2005 2005 2005 2016 2016 2016 2016 2016 2016 2016 1993 1981 1947 1915 1915 1926 1926 1936 1947 1947 1959 1981 1993 2005 2005 2005 2005 2005 2005 2005 2005 2005 2005 2005 2005 2005 2005 2016 2016 2016 2016 2016 2016 2016 2005 2005 2005 2005 2005 2016 2005 2005 2005 2005 2005 2016 2016 2016 2028 2028 2028 2028 2028 2028 2028 2028 2028 1523 1516 1509 1509 1503 1503 1503 1503 1503 1503 1503 1503 1503 1503 1503 1503 1503 1503 1503 1509 1509 1509 1993 1993 1993 2005 2005 2005 2005 2016 2016 2005 2005 2005 2005 2016 2005 2005 2005 1993 1993 1993 1993 1993 2005 2005 2005 2005 2016 2005 2005 2005 2005 2005 2005 2005 2005 2005 2005 2005 2005 2005 2005 2005 2005 2005 2005 2005 2005 2005 2005 2005 2005 2005 2005 2005 2005 2005 2005 2005 2005 2005 2016 2016 2016 2016 2016 2028 2016 2016 2016 2016 2016 2005 2005 2005 2005 2005 2005 2005 2005 2005 2016 2016 2016 2005 2005 2005 2005 2016 2016 2016 2016 2016 2016 2005 2005 2005 2005 2005 2005 2005 2005 2005 2005 2005 2005 1993 1993 1981 1981 1993 1981 1981 1981 1993 1993 1993 2005 2005 2005 2005 2005 2005 2005 2005 2005 2005 2016 2005 2005 2016 2016 2016 2016 2005 2005 2005 1993 1993 0 0 0 0 0 0 0 0
0 0 0 0 0 0 0 0 0 0 0 0 0 0 0 0 0 0 0 0 0 0 0 0 0 0 0 0 0 0 0 0 0 0 1947 1947 1947 1947 1947 1947 1947 1947 1947 1947 1959 1959 1959 1959 1959 1959 1959 1959 1959 1947 1947 1959 1947 1947 1947 1947 1959 1959 1959 1959 1959 1959 1947 1947 1947 1947 1947 1947 1947 1947 1947 1947 1947 1959 1959 1959 1959 1959 1947 1947 1947 1947 1947 1947 1947 1947 1947 1947 1947 1564 1564 1557 1557 1557 1564 1564 1564 1557 1557 1557 1557 1557 1523 1496 1489 1483 1483 1483 1483 1483 1483 1483 1483 1483 1489 1489 1489 1489 1496 1503 1970 1959 1947 1947 1959 1959 1959 1959 1959 1959 1959 1722 1722 1731 1731 1739 1739 1748 1757 1757 1757 1959 1936 1936 1926 1926 1915 1915 1915 1915 1915 1915 1926 1926 1936 1947 1947 1959 1959 1970 1970 1970 1970 1970 1970 1970 1959 1959 1959 1959 1959 1959 1959 1959 1959 1959 1970 1970 1970 1970 1970 1970 1970 1981 1981 1981 1981 1981 1981 1981 1981 1981 1981 1981 1981 1993 1993 1993 1993 1993 1993 1993 1993 1993 2005 2005 1489 1489 1483 1483 1483 1483 1483 1483 1483 1483 1489 1496 1496 1496 1503 1503 1503 1981 1981 1993 1993 1993 2005 2005 2005 2005 2005 2016 2016 1776 1776 1776 1776 1776 1776 1785 1794 1804 1804 1894 1894 1904 1904 1904 1926 1936 1936 1959 1970 1981 1981 2005 2005 2005 2005 2005 2005 2005 2005 1993 1993 1993 1993 1415 1415 1415 1410 1410 1410 1410 1410 1410 1410 1415 1415 1415 1415 1415 1415 1415 1421 1415 1415 1415 1415 1415 1415 1415 1415 1421 1421 1421 1421 1421 1421 1415 1415 1421 1421 1421 1415 1415 1415 1415 1415 1415 1415 1415 1410 1410 1410 1415 1415 1415 1415 1415 1415 1415 1415 1421 1415 1415 1410 1410 1410 1410 1410 1410 1410 1410 1410 1410 1410 1410 1404 1404 1410 1410 1410 1410 1404 1404 1404 1404 1404 1404 1404 1404 1404 1404 1404 1410 1410 1410 1410 1410 1404 1404 1404 1404 1410 1410 1410 1410 1410 1404 1404 1410 1404 1404 1404 1404 1404 1398 1398 1398 1392 1392 1392 1387 1387 1387 1381 1381 1387 1387 1387 1387 1387 1387 1387 1387 1387 1387 2005 2005 2005 2005 2005 2005 2016 2016 2016 2016 2005 1970 1959 1947 1915 1915 1926 1926 1936 1947 1959 1959 1981 1993 2005 2005 2005 2005 2005 2005 2005 2005 2005 2005 2005 2005 2005 2005 2005 2005 2005 2005 2005 2005 2005 2005 2005 2005 2005 2005 2005 2005 2005 2005 2005 2005 2005 2005 2016 2005 2005 2016 2016 2016 2016 2016 2028 1523 1523 1516 1509 1509 1503 1503 1503 1503 1503 1503 1503 1503 1503 1503 1503 1503 1503 1503 1503 1509 1509 1509 1993 1993 2005 2005 2005 2005 2005 2005 2005 2005 2005 1993 1993 1993 1993 1993 1993 1993 1993 1993 1993 1993 1993 1993 2005 2005 2005 1993 1993 1993 1993 1993 1993 1993 1993 1993 1993 1993 1993 1993 1993 2005 2005 2005 2005 2005 2005 2005 2005 2005 1993 1993 2005 2005 1993 1993 2005 2005 2005 2005 2005 2005 2005 2005 2005 2016 2016 2005 2005 2005 2005 2005 2005 1993 1993 1993 1993 1993 1993 1993 1993 1993 1993 1993 1993 2005 2005 2005 2005 2005 2005 2016 2005 2005 2005 2005 1993 1993 1993 1993 1993 2005 2005 2005 2005 1993 1993 1981 1981 1981 1981 1981 1981 1981 1993 1993 1993 1993 2005 2005 2005 2005 2005 2005 2005 2005 2005 2005 2005 2005 2005 2005 2005 2005 1993 1993 1993 1993 0 0 0 0 0 0 0 0
0 0 0 0 0 0 0 0 0 0 0 0 0 0 0 0 0 0 0 0 0 0 0 0 0 0 0 0 0 0 0 0 0 0 1936 1936 1936 1936 1936 1936 1947 1947 1947 1947 1947 1947 1959 1947 1947 1959 1959 1947 1947 1947 1947 1947 1947 1947 1947 1947 1959 1959 1959 1959 1959 1959 1947 1947 1947 1947 1947 1947 1947 1947 1947 1947 1947 1959 1959 1947 1947 1947 1947 1947 1947 1947 1947 1947 1947 1947 1947 1947 1947 1947 1557 1557 1557 1557 1564 1564 1564 1557 1557 1557 1557 1557 1523 1503 1496 1489 1483 1483 1483 1483 1483 1483 1483 1489 1489 1489 1489 1496 1503 1503 1926 1926 1936 1947 1947 1947 1947 1947 1959 1959 1722 1722 1722 1722 1731 1731 1739 1739 1748 1757 1757 1959 1936 1936 1926 1926 1915 1915 1915 1904 1904 1915 1915 1926 1926 1936 1947 1947 1947 1959 1959 1959 1959 1959 1959 1959 1959 1959 1959 1959 1959 1959 1959 1959 1959 1959 1959 1959 1959 1959 1959 1959 1959 1970 1970 1970 1981 1981 1981 1981 1981 1981 1981 1981 1981 1981 1981 1981 1993 1993 1993 1993 1993 1993 1993 2005 2005 1489 1483 1483 1483 1483 1483 1483 1489 1489 1489 1496 1496 1496 1503 1503 1503 1981 1981 1993 1993 1993 1993 1993 2005 2005 2005 2016 1776 1776 1776 1776 1776 1776 1776 1776 1794 1804 1894 1894 1904 1904 1915 1915 1926 1936 1936 1959 1959 1981 1981 1993 1993 1993 1993 1993 1993 1993 1993 1981 1981 1993 1993 1415 1415 1415 1410 1410 1410 1410 1410 1410 1410 1415 1415 1415 1415 1415 1415 1421 1421 1415 1415 1415 1415 1415 1415 1415 1415 1421 1421 1421 1421 1421 1421 1421 1421 1421 1421 1421 1421 1415 1415 1415 1415 1415 1415 1415 1410 1410 1410 1415 1415 1415 1415 1415 1421 1421 1421 1421 1421 1421 1410 1410 1410 1410 1410 1410 1410 1410 1410 1410 1410 1410 1404 1404 1410 1410 1410 1410 1410 1410 1410 1410 1404 1404 1404 1404 1404 1404 1404 1410 1410 1410 1404 1404 1404 1404 1404 1404 1410 1410 1410 1410 1410 1410 1410 1410 1404 1404 1410 1404 1404 1404 1404 1398 1392 1392 1392 1387 1387 1381 1381 1381 1387 1387 1387 1387 1387 1387 1387 1387 1387 1387 2005 2005 2005 2005 2005 2005 2016 2016 2005 2005 2005 1970 1959 1947 1915 1915 1926 1926 1936 1947 1959 1959 1981 1993 1993 2005 1993 1993 2005 1993 1993 2005 2005 2005 2005 2005 1993 1993 2005 2005 2005 2005 2005 2005 2005 2005 2005 2005 1993 1993 2005 2005 2005 2005 2005 2005 2005 2005 2005 2005 2005 2005 2005 2005 2005 2016 2016 1523 1516 1516 1509 1509 1503 1503 1503 1503 1503 1503 1503 1503 1503 1503 1503 1503 1503 1503 1503 1509 1509 1516 1993 1993 2005 2005 2005 2005 2005 2005 2005 2005 2005 1993 1993 1993 1993 1993 1993 1993 1993 1993 1993 1993 1993 1993 1993 2005 1993 1993 1993 1993 1993 1993 1993 1993 1993 1993 1993 1993 1993 1993 1993 1993 1993 2005 1993 1993 1993 1993 1993 1993 1993 1993 1993 1993 1993 1993 1993 1993 1993 1993 1993 1993 1993 1993 2005 2005 2005 2005 2005 2005 2005 1993 1993 1993 1993 1993 1993 1993 1993 1993 1993 1993 1993 1993 1993 1993 1993 1993 1993 1993 1993 1993 1993 1993 1993 1993 1993 1993 1993 1993 1993 1993 1993 1993 1993 1993 1993 1981 1981 1981 1981 1981 1981 1981 1981 1981 1993 1993 1993 1993 2005 2005 2005 2005 2005 2005 2005 2005 2005 2005 2005 2005 1993 1993 1993 1993 1981 1981 0 0 0 0 0 0 0 0
0 0 0 0 0 0 0 0 0 0 0 0 0 0 0 0 0 0 0 0 0 0 0 0 0 0 0 0 0 0 0 0 0 0 1926 1926 1926 1936 1926 1926 1926 1947 1947 1947 1947 1947 1947 1947 1947 1947 1947 1947 1947 1947 1947 1947 1947 1947 1947 1959 1959 1947 1947 1947 1947 1947 1936 1926 1926 1936 1936 1936 1936 1936 1936 1947 1947 1947 1947 1947 1947 1947 1947 1947 1947 1936 1936 1936 1936 1936 1936 1936 1936 1936 1557 1557 1557 1557 1564 1564 1564 1564 1557 1557 1557 1557 1523 1509 1503 1489 1489 1489 1483 1483 1483 1483 1483 1489 1489 1489 1489 1503 1503 1503 1926 1926 1936 1936 1936 1947 1947 1947 1959 1959 1722 1722 1722 1722 1731 1731 1731 1739 1748 1748 1748 1936 1926 1926 1926 1926 1915 1915 1915 1904 1904 1915 1915 1915 1926 1936 1936 1947 1947 1959 1959 1959 1959 1959 1959 1959 1947 1947 1947 1947 1947 1947 1947 1947 1947 1947 1947 1959 1959 1959 1959 1959 1959 1959 1959 1959 1970 1970 1970 1970 1970 1970 1970 1981 1981 1981 1981 1981 1981 1981 1981 1981 1981 1993 1993 1993 1993 1489 1483 1483 1483 1489 1489 1489 1489 1489 1489 1496 1496 1503 1503 1509 1509 1981 1981 1993 1993 1993 1993 1993 1993 1993 2005 2016 1776 1766 1766 1776 1776 1776 1776 1776 1794 1804 1894 1894 1915 1915 1915 1915 1936 1936 1947 1959 1959 1970 1981 1981 1993 1981 1981 1981 1981 1981 1981 1981 1981 1981 1981 1981 1415 1415 1415 1415 1415 1410 1410 1415 1415 1415 1415 1415 1421 1421 1421 1421 1421 1421 1970 1970 1970 1981 1981 1981 1981 1981 1981 1981 1981 1421 1421 1993 1993 1993 1993 1993 1993 2005 1421 1421 1415 1415 1415 1415 1415 1415 1415 1415 1415 1415 1415 1421 1421 1421 1421 1421 1421 1415 1410 1410 1404 1404 1410 1410 1410 1410 1410 1410 1410 1410 1410 1410 1410 1410 1410 1410 1410 1410 1410 1410 1410 1404 1404 1404 1404 1404 1404 1410 1410 1410 1404 1404 1404 1410 1404 1404 1410 1410 1410 1410 1410 1410 1410 1410 1404 1404 1404 1404 1404 1404 1404 1398 1392 1392 1392 1387 1387 1381 1381 1381 1387 1387 1387 1387 1387 1387 1387 1387 1387 1981 1981 1993 1993 1993 2005 2005 2005 2005 2005 2005 1993 1970 1959 1947 1926 1926 1936 1947 1947 1947 1970 1970 1981 1993 1993 1993 1993 1993 1993 1993 1993 1993 2005 2005 2005 1993 1993 1993 1993 2005 2005 2005 2005 2005 1993 1993 1993 1993 1993 1993 2005 2005 2005 1993 1993 1993 2005 2005 2005 2005 2005 2005 2005 2005 2005 2005 2005 1523 1516 1516 1509 1509 1503 1503 1503 1503 1503 1503 1503 1503 1503 1503 1503 1503 1503 1503 1503 1509 1509 1509 1993 1993 1993 2005 2005 1993 1993 1993 1993 1993 1993 1993 1993 1993 1993 1993 1993 1993 1993 1993 1993 1993 1993 1993 1993 1993 1993 1993 1993 1981 1981 1981 1981 1981 1981 1981 1981 1981 1981 1981 1981 1993 1993 1993 1993 1993 1993 1993 1993 1993 1993 1993 1993 1993 1993 1981 1981 1993 1993 1993 1993 1993 1993 1993 1993 1993 1993 1993 1993 2005 1993 1993 1993 1993 1981 1981 1993 1993 1993 1993 1993 1993 1993 1993 1993 1993 1993 1993 1993 1981 1981 1981 1981 1981 1981 1981 1981 1981 1981 1981 1981 1981 1981 1981 1981 1981 1981 1970 1970 1981 1970 1970 1981 1981 1981 1981 1981 1981 1981 1981 1993 1993 1993 1993 1993 1993 1993 1993 1993 1993 1993 1993 1993 1993 1993 1981 1981 1981 0 0 0 0 0 0 0 0
0 0 0 0 0 0 0 0 0 0 0 0 0 0 0 0 0 0 0 0 0 0 0 0 0 0 0 0 0 0 0 0 0 0 1915 1915 1915 1926 1926 1926 1926 1947 1947 1947 1947 1947 1947 1947 1947 1947 1947 1936 1936 1936 1936 1947 1947 1947 1947 1947 1947 1947 1947 1947 1936 1936 1926 1926 1926 1926 1936 1936 1936 1936 1936 1936 1936 1936 1936 1936 1936 1936 1936 1936 1936 1936 1936 1926 1926 1926 1926 1926 1926 1926 1564 1557 1557 1564 1564 1564 1564 1564 1557 1557 1557 1557 1550 1509 1503 1496 1489 1489 1483 1483 1483 1483 1483 1489 1489 1489 1489 1503 1503 1503 1915 1926 1926 1926 1936 1947 1947 1947 1959 1713 1713 1722 1722 1722 1722 1731 1731 1731 1739 1739 1739 1926 1926 1926 1926 1926 1915 1915 1915 1904 1904 1915 1915 1915 1926 1936 1936 1947 1947 1947 1947 1947 1947 1947 1947 1947 1947 1947 1947 1947 1947 1947 1947 1947 1947 1947 1947 1947 1947 1947 1947 1947 1947 1947 1959 1959 1959 1970 1970 1970 1970 1970 1970 1970 1970 1981 1981 1981 1981 1981 1981 1981 1981 1981 1993 1993 1993 1477 1477 1483 1483 1489 1489 1489 1489 1489 1489 1496 1496 1503 1503 1503 1981 1981 1981 1981 1993 1981 1981 1993 1993 1993 2005 1766 1766 1766 1766 1776 1766 1766 1776 1776 1794 1804 1915 1915 1926 1926 1926 1926 1936 1936 1947 1959 1959 1970 1970 1981 1981 1981 1981 1981 1981 1981 1981 1981 1981 1981 1981 1981 1415 1415 1410 1410 1415 1410 1410 1415 1415 1415 1415 1415 1421 1421 1421 1421 1421 1970 1970 1970 1970 1981 1981 1981 1981 1981 1981 1981 1981 1993 1993 1993 1993 1993 1993 1993 1993 1993 1981 1981 1981 1981 1981 1981 1981 1981 1981 1981 1981 1981 1981 1421 1421 1421 1421 1421 1421 1415 1410 1410 1404 1404 1410 1410 1410 1410 1410 1410 1410 1415 1415 1415 1415 1415 1415 1410 1410 1410 1410 1410 1410 1410 1410 1410 1410 1404 1404 1410 1410 1410 1404 1404 1404 1404 1404 1404 1404 1404 1404 1404 1404 1404 1410 1410 1404 1404 1404 1404 1404 1404 1398 1392 1392 1392 1387 1387 1387 1387 1381 1381 1387 1387 1387 1387 1387 1387 1392 1392 1392 1981 1981 1981 1981 1981 1993 1993 2005 2005 1993 1993 1981 1970 1959 1947 1926 1926 1936 1947 1947 1947 1970 1970 1981 1993 1993 1993 1993 1993 1993 1993 1993 1993 1993 1993 1993 1993 1993 1993 1993 1993 1993 1993 1993 1993 1993 1993 1993 1993 1993 1993 1993 2005 2005 1993 1993 1993 1993 1993 2005 2005 2005 2005 2005 2005 2005 2005 2005 1523 1516 1516 1509 1509 1509 1503 1503 1503 1503 1503 1503 1503 1503 1503 1503 1503 1503 1503 1509 1509 1509 1509 1993 1993 1993 1993 2005 1993 1993 1993 1993 1993 1993 1993 1993 1993 1981 1981 1993 1993 1993 1993 1993 1981 1981 1993 1993 1993 1981 1981 1981 1981 1981 1981 1981 1981 1981 1981 1981 1981 1981 1981 1981 1981 1981 1981 1981 1981 1993 1993 1993 1993 1981 1981 1993 1981 1981 1981 1981 1993 1993 1981 1981 1981 1993 1993 1993 1993 1993 1993 1993 1993 1993 1993 1993 1981 1981 1981 1981 1981 1981 1993 1981 1981 1981 1981 1981 1981 1981 1981 1981 1981 1981 1981 1981 1981 1981 1981 1970 1970 1970 1970 1970 1970 1970 1970 1970 1970 1970 1970 1970 1970 1970 1970 1970 1981 1970 1970 1970 1970 1970 1981 1981 1981 1981 1981 1981 1981 1993 1981 1981 1981 1993 1993 1981 1981 1981 1981 1981 1981 0 0 0 0 0 0 0 0
0 0 0 0 0 0 0 0 0 0 0 0 0 0 0 0 0 0 0 0 0 0 0 0 0 0 0 0 0 0 0 0 0 0 1915 1915 1915 1926 1926 1926 1926 1936 1936 1936 1936 1936 1936 1936 1936 1936 1936 1936 1936 1936 1936 1936 1936 1936 1947 1947 1947 1947 1947 1947 1936 1936 1926 1926 1926 1926 1926 1926 1926 1936 1936 1926 1926 1926 1926 1926 1926 1926 1926 1926 1926 1926 1926 1926 1926 1926 1926 1915 1915 1926 1557 1557 1557 1564 1564 1564 1564 1564 1564 1564 1557 1557 1550 1509 1503 1489 1489 1489 1483 1483 1483 1483 1489 1489 1489 1489 1489 1503 1503 1503 1915 1915 1926 1926 1936 1947 1947 1947 1959 1713 1713 1713 1722 1722 1722 1722 1722 1731 1731 1731 1947 1926 1926 1926 1926 1926 1915 1915 1915 1904 1904 1915 1915 1915 1926 1926 1936 1936 1947 1947 1947 1947 1947 1947 1947 1947 1947 1947 1947 1947 1947 1936 1936 1936 1936 1947 1947 1947 1947 1947 1947 1947 1947 1947 1947 1947 1947 1959 1959 1959 1959 1959 1959 1959 1959 1970 1970 1970 1970 1970 1970 1970 1970 1981 1970 1970 1970 1477 1477 1483 1489 1489 1489 1489 1496 1489 1489 1496 1496 1503 1503 1503 1503 1981 1981 1981 1981 1981 1981 1993 1993 1993 1748 1748 1757 1757 1757 1766 1766 1766 1776 1776 1785 1804 1926 1926 1926 1926 1926 1936 1936 1936 1947 1959 1959 1970 1970 1981 1981 1981 1981 1981 1981 1981 1981 1981 1981 1981 1981 1981 1415 1415 1410 1410 1415 1415 1415 1415 1415 1415 1415 1421 1421 1421 1421 1421 1421 1970 1970 1970 1970 1981 1981 1981 1981 1981 1981 1981 1981 1981 1993 1993 1993 1981 1981 1993 1993 1993 1981 1981 1981 1981 1981 1981 1981 1981 1981 1981 1981 1981 1981 1981 1981 1981 1981 1970 1970 1970 1959 1959 1959 1959 1959 1959 1970 1970 1970 1970 1981 1981 1970 1970 1970 1970 1970 1410 1410 1410 1410 1959 1959 1970 1970 1970 1970 1970 1410 1410 1410 1410 1404 1404 1404 1404 1404 1404 1398 1398 1404 1404 1404 1404 1410 1410 1410 1410 1410 1410 1410 1404 1398 1392 1392 1392 1387 1387 1387 1387 1387 1387 1387 1387 1387 1387 1387 1387 1392 1392 1392 1970 1970 1970 1970 1970 1981 1981 1993 1993 1993 1993 1981 1959 1959 1947 1926 1926 1936 1936 1947 1959 1970 1970 1981 1993 1993 1993 1993 1993 1993 1993 1993 1993 1993 1993 1993 1993 1993 1993 1993 1993 1993 1993 1993 1993 1993 1993 1993 1993 1993 1993 1993 1993 1993 1993 1993 1993 1993 1993 1993 1993 1993 1993 1993 2005 2005 2005 1529 1516 1516 1516 1509 1509 1509 1503 1503 1503 1503 1503 1503 1503 1503 1503 1503 1503 1503 1503 1509 1503 1503 1503 1981 1981 1981 1981 1993 1993 1993 1993 1993 1993 1981 1981 1981 1981 1981 1981 1981 1981 1981 1981 1981 1981 1981 1981 1981 1981 1981 1981 1981 1981 1981 1981 1981 1981 1981 1970 1970 1970 1981 1981 1981 1981 1981 1981 1981 1981 1981 1981 1981 1981 1981 1981 1981 1981 1981 1981 1981 1981 1981 1981 1981 1981 1981 1981 1981 1981 1981 1993 1993 1993 1993 1981 1981 1981 1970 1970 1981 1981 1981 1981 1981 1981 1981 1981 1981 1981 1981 1981 1981 1970 1970 1970 1970 1970 1981 1981 1970 1970 1970 1970 1970 1959 1959 1959 1970 1959 1959 1959 1959 1959 1959 1959 1959 1959 1959 1947 1947 1959 1959 1959 1970 1970 1970 1970 1981 1981 1981 1981 1981 1981 1981 1981 1981 1981 1981 1981 1970 1970 0 0 0 0 0 0 0 0
0 0 0 0 0 0 0 0 0 0 0 0 0 0 0 0 0 0 0 0 0 0 0 0 0 0 0 0 0 0 0 0 0 0 1904 1904 1904 1915 1926 1926 1926 1926 1936 1936 1936 1936 1936 1936 1936 1936 1936 1936 1936 1936 1936 1936 1936 1936 1947 1947 1947 1936 1936 1936 1936 1936 1926 1926 1926 1926 1926 1926 1926 1926 1926 1926 1926 1926 1915 1915 1926 1915 1915 1926 1926 1926 1915 1915 1926 1926 1915 1915 1915 1915 1557 1557 1557 1564 1564 1564 1564 1564 1564 1564 1564 1564 1557 1509 1503 1489 1489 1489 1483 1483 1483 1483 1489 1489 1496 1489 1489 1503 1503 1503 1915 1915 1915 1915 1926 1936 1947 1947 1705 1705 1713 1713 1722 1722 1722 1722 1722 1722 1731 1731 1947 1936 1926 1926 1926 1926 1915 1915 1915 1915 1915 1915 1915 1915 1915 1926 1936 1936 1936 1947 1936 1936 1947 1936 1936 1936 1936 1936 1936 1936 1936 1936 1936 1936 1936 1947 1936 1936 1947 1947 1947 1947 1947 1947 1947 1947 1947 1947 1947 1959 1959 1959 1959 1959 1959 1959 1959 1959 1959 1970 1970 1947 1947 1959 1959 1959 1959 1483 1483 1483 1489 1489 1489 1489 1496 1496 1496 1496 1496 1503 1503 1503 0 1981 1981 1981 1981 1981 1981 1981 1993 1993 1748 1748 1748 1757 1757 1757 1766 1766 1766 1766 1785 1804 1936 1926 1926 1926 1926 1926 1926 1936 1936 1936 1959 1970 1970 1970 1970 1970 1970 1970 1970 1970 1970 1970 1970 1981 1981 1981 1415 1415 1410 1410 1415 1415 1415 1415 1415 1415 1415 1421 1421 1421 1421 1421 1970 1970 1970 1970 1970 1970 1970 1981 1981 1981 1981 1981 1981 1981 1981 1981 1981 1981 1981 1981 1981 1981 1981 1981 1981 1981 1981 1981 1981 1981 1981 1981 1981 1981 1981 1981 1981 1981 1981 1970 1970 1970 1959 1959 1959 1959 1959 1959 1970 1970 1970 1970 1970 1970 1970 1970 1970 1970 1970 1959 1959 1959 1959 1959 1959 1970 1970 1970 1970 1970 1970 1970 1959 1959 1959 1404 1404 1947 1959 1959 1398 1398 1404 1404 1404 1404 1404 1410 1410 1410 1410 1404 1404 1398 1392 1392 1392 1392 1387 1387 1387 1387 1387 1387 1387 1387 1387 1387 1387 1387 1392 1392 1392 1970 1970 1970 1970 1970 1970 1970 1981 1993 1981 1981 1970 1947 1947 1936 1926 1926 1936 1936 1947 1959 1970 1970 1970 1981 1993 1993 1981 1981 1981 1981 1981 1981 1981 1981 1981 1981 1981 1981 1981 1981 1981 1981 1981 1981 1981 1981 1981 1981 1981 1981 1993 1993 1993 1981 1981 1981 1981 1981 1981 1993 1993 1993 1993 1993 1993 1993 1529 1516 1516 1516 1516 1509 1509 1503 1503 1503 1503 1503 1503 1503 1503 1503 1503 1503 1503 1503 1509 1503 1503 1503 1959 1959 1970 1981 1981 1981 1981 1981 1993 1981 1981 1981 1981 1981 1970 1970 1981 1981 1981 1981 1981 1981 1981 1981 1981 1981 1981 1981 1981 1981 1970 1970 1970 1970 1970 1970 1970 1970 1970 1970 1981 1981 1981 1981 1981 1981 1981 1981 1981 1981 1981 1981 1981 1981 1981 1970 1970 1981 1970 1970 1970 1970 1981 1981 1981 1981 1981 1981 1981 1981 1981 1981 1981 1970 1970 1970 1970 1981 1981 1981 1970 1970 1970 1970 1970 1970 1981 1970 1970 1970 1970 1970 1970 1970 1970 1970 1959 1959 1959 1959 1959 1947 1947 1959 1959 1959 1959 1959 1959 1959 1959 1959 1959 1959 1947 1947 1947 1947 1947 1947 1947 1947 1947 1970 1970 1981 1970 1970 1970 1981 1981 1970 1970 1970 1970 1970 1970 1970 0 0 0 0 0 0 0 0
