0 0 0 0 0 0 0 0 0 0 0 0 0 0 0 0 0 0 0 0 0 0 0 0 0 0 0 0 0 0 0 0 0 0 0 1536 1536 1543 1543 1543 1543 1550 1550 1550 1550 1550 1550 1550 1550 1550 1550 1550 1550 1550 1550 1550 1557 1557 1557 1557 1557 1557 1564 1564 1564 1564 1564 1564 1564 1557 1557 1557 1557 1557 1557 1557 1557 1557 1557 1557 1557 1557 1557 1557 1557 1557 1564 1564 1564 1564 1564 1564 1564 1564 1564 1564 1557 1557 1557 1557 1557 1550 1550 1550 1557 1557 1557 1557 1557 1557 1557 1557 1550 1550 1557 1557 1557 1564 1564 1564 1564 1564 1564 1564 1557 1557 1557 1557 1564 1564 1564 1564 1564 1564 1564 1564 1564 1564 1564 1564 1564 1564 1564 1564 1564 1564 1564 1564 1564 1564 1564 1564 1564 1564 1564 1564 1564 1564 1557 1557 1557 1557 1557 1557 1557 1557 1564 1564 1564 1564 1557 1557 1557 1557 1557 1557 1557 1557 1557 1557 1557 1557 1557 1557 1557 1557 1564 1564 1572 1572 1572 1572 1572 1572 1564 1564 1572 1564 1564 1572 1572 1572 1572 1564 1564 1564 1564 1572 1572 1572 1579 1579 1579 1579 1579 1579 1579 1579 1579 1579 1579 1579 1579 1579 1579 1572 1572 1572 1579 1579 1579 1579 1579 1586 1586 1586 1586 1586 1579 1579 1579 1579 1579 1572 1572 1572 1579 1572 1572 1579 1579 1572 1572 1572 1572 1572 1572 1572 1572 1572 1572 1579 1579 1579 1572 1572 1579 1579 1579 1572 1572 1579 1579 1579 1579 1579 1579 1579 1579 1579 1579 1579 1579 1579 1579 1579 1579 1579 1579 1579 1579 1579 1579 1579 1579 1579 1579 1579 1579 1579 1579 1579 1579 1579 1579 1579 1579 1579 1579 1579 1579 1579 1579 1579 1579 1579 1586 1586 1579 1579 1579 1579 1586 1586 1586 1586 1586 1586 1586 1579 1572 1572 1564 1557 1550 1543 1543 1543 1536 1536 1536 1536 1536 1536 1543 1543 1550 1557 1564 1564 1572 1572 1572 1572 1572 1572 1572 1572 1572 1572 1579 1579 1579 1579 1579 1579 1579 1579 1579 1579 1586 1586 1586 1586 1579 1579 1579 1579 1579 1579 1579 1579 1579 1579 1579 1579 1579 1586 1586 1586 1586 1586 1594 1594 1594 1594 1586 1586 1586 1586 1586 1586 1586 1586 1586 1594 1586 1586 1586 1586 1586 1586 1586 1586 1586 1579 1579 1586 1579 1579 1579 1579 1572 1572 1572 1572 1579 1586 1586 1579 1579 1586 1586 1586 1376 1370 1370 1365 1365 1365 1365 1359 1359 1359 1359 1359 1359 1359 1365 1365 1370 1376 1381 1572 1572 1572 1579 1579 1579 1579 1579 1586 1586 1586 1586 1586 1586 1586 1586 1586 1586 1586 1579 1579 1586 1579 1579 1586 1586 1579 1579 1586 1586 1579 1579 1586 1586 1586 1586 1586 1586 1586 1586 1586 1586 1579 1579 1579 1586 1586 1586 1579 1579 1579 1586 1586 1586 1586 1586 1586 1579 1579 1579 1579 1579 1579 1579 1579 1579 1579 1579 1579 1579 1579 1586 1586 1586 1586 1579 1579 1579 1579 1579 1579 1572 1572 1579 1579 1579 1579 1579 1579 1579 1579 1579 1586 1586 1586 1586 1586 1338 1338 1338 1338 1338 1338 1338 1338 1333 1333 1333 1333 1333 1333 1328 1328 1322 1322 1317 1317 1317 1317 1317 1317 1572 1572 1572 1572 1579 1572 1572 1579 1572 1572 1572 1572 1572 1572 1564 1564 1572 1572 1572 1572 1572 1572 1572 1572 1564 1564 1572 1572 1572 1572 1572 1572 1572 1572 1572 1572 1579 1572 1572 1579 1579 1579 1579 1579 1579 1579 1579 1579 1579 1579 1579 1594 1594 1594 1594 1601 1601 1601 1601 1601 0 0 0 0 0 0
0 0 0 0 0 0 0 0 0 0 0 0 0 0 0 0 0 0 0 0 0 0 0 0 0 0 0 0 0 0 0 0 0 0 0 1529 1529 1536 1536 1543 1543 1543 1543 1543 1543 1550 1550 1550 1543 1543 1550 1550 1550 1550 1550 1550 1550 1557 1557 1557 1557 1557 1564 1564 1564 1564 1564 1564 1557 1557 1557 1557 1557 1557 1557 1557 1557 1557 1557 1557 1557 1557 1557 1557 1557 1557 1557 1564 1564 1564 1564 1557 1557 1557 1557 1557 1557 1557 1557 1550 1550 1550 1550 1550 1557 1557 1557 1557 1550 1550 1557 1550 1550 1550 1557 1557 1557 1557 1557 1557 1557 1557 1557 1557 1557 1557 1557 1557 1557 1557 1557 1557 1557 1557 1557 1564 1557 1557 1564 1564 1564 1564 1564 1557 1557 1564 1564 1564 1564 1564 1564 1564 1564 1564 1564 1564 1564 1564 1550 1550 1550 1550 1550 1557 1550 1550 1557 1557 1557 1557 1557 1557 1557 1557 1557 1557 1557 1557 1557 1557 1557 1557 1557 1557 1557 1557 1557 1557 1564 1564 1572 1564 1564 1564 1557 1557 1564 1557 1557 1557 1557 1564 1564 1557 1557 1564 1564 1564 1572 1572 1572 1572 1572 1572 1572 1572 1579 1579 1579 1579 1579 1572 1572 1572 1572 1572 1572 1572 1572 1579 1579 1579 1579 1579 1579 1579 1579 1579 1572 1572 1572 1579 1579 1572 1572 1572 1572 1572 1572 1572 1572 1572 1572 1564 1564 1564 1564 1564 1572 1572 1572 1572 1572 1572 1572 1572 1572 1572 1572 1572 1572 1572 1572 1572 1572 1579 1579 1572 1572 1579 1572 1572 1572 1572 1572 1572 1579 1572 1572 1579 1579 1579 1579 1579 1579 1579 1579 1579 1579 1579 1579 1579 1579 1579 1579 1579 1579 1579 1579 1579 1579 1579 1579 1579 1579 1579 1579 1579 1579 1579 1579 1579 1579 1579 1586 1586 1586 1579 1579 1572 1564 1564 1564 1557 1550 1543 1543 1543 1536 1536 1536 1536 1536 1536 1543 1543 1543 1557 1564 1564 1572 1572 1572 1572 1572 1572 1572 1572 1572 1572 1572 1579 1579 1579 1572 1572 1579 1579 1579 1579 1579 1579 1579 1579 1579 1579 1579 1579 1579 1579 1579 1579 1579 1579 1579 1579 1579 1579 1579 1579 1579 1579 1579 1579 1579 1579 1579 1579 1579 1579 1586 1586 1586 1586 1586 1586 1586 1586 1579 1579 1579 1579 1579 1586 1586 1579 1579 1572 1572 1579 1572 1572 1572 1572 1572 1572 1572 1572 1579 1579 1579 1586 1586 1381 1376 1370 1370 1365 1365 1365 1365 1365 1359 1359 1359 1359 1365 1365 1365 1365 1370 1370 1381 1564 1564 1572 1572 1572 1572 1572 1579 1579 1579 1579 1579 1579 1579 1579 1579 1586 1579 1579 1579 1579 1586 1579 1579 1579 1579 1572 1572 1572 1579 1572 1572 1579 1579 1579 1586 1579 1579 1579 1579 1579 1579 1572 1572 1579 1579 1579 1579 1572 1572 1579 1579 1579 1579 1579 1579 1579 1579 1572 1572 1579 1579 1579 1572 1572 1579 1579 1579 1579 1579 1579 1579 1579 1579 1579 1572 1572 1572 1572 1572 1572 1572 1572 1572 1572 1579 1572 1572 1572 1579 1579 1579 1579 1579 1579 1579 1579 1338 1338 1338 1338 1338 1338 1338 1338 1333 1333 1333 1333 1333 1333 1328 1328 1328 1322 1317 1317 1317 1317 1317 1317 1564 1564 1564 1564 1572 1572 1572 1572 1572 1572 1572 1564 1564 1572 1557 1557 1564 1564 1564 1564 1564 1564 1564 1564 1557 1557 1564 1564 1564 1564 1564 1572 1572 1572 1572 1572 1572 1572 1572 1572 1572 1572 1572 1572 1572 1572 1572 1572 1572 1572 1572 1586 1586 1586 1594 1594 1601 1594 1594 1601 0 0 0 0 0 0
0 0 0 0 0 0 0 0 0 0 0 0 0 0 0 0 0 0 0 0 0 0 0 0 0 0 0 0 0 0 0 0 0 0 0 1529 1529 1529 1536 1536 1536 1536 1536 1543 1543 1543 1543 1543 1543 1543 1543 1543 1543 1543 1543 1543 1550 1550 1550 1550 1550 1557 1557 1557 1557 1550 1550 1550 1550 1557 1557 1550 1550 1557 1557 1557 1557 1557 1550 1550 1550 1550 1550 1550 1550 1557 1557 1564 1557 1557 1557 1557 1557 1557 1557 1557 1550 1550 1550 1550 1550 1550 1550 1550 1550 1550 1550 1543 1543 1550 1550 1550 1543 1543 1550 1550 1550 1550 1550 1550 1550 1550 1557 1557 1550 1550 1550 1550 1557 1557 1557 1557 1557 1557 1557 1557 1557 1557 1557 1557 1557 1564 1557 1557 1557 1564 1564 1564 1557 1557 1557 1557 1557 1564 1557 1557 1557 1557 1550 1550 1550 1550 1550 1550 1550 1550 1550 1550 1557 1557 1557 1557 1557 1557 1557 1557 1557 1557 1557 1557 1557 1557 1557 1557 1557 1557 1557 1557 1557 1557 1557 1557 1557 1557 1557 1557 1557 1557 1557 1557 1557 1557 1557 1557 1557 1557 1557 1564 1564 1564 1564 1564 1564 1564 1564 1572 1572 1572 1572 1572 1572 1572 1572 1572 1572 1572 1572 1572 1572 1572 1572 1579 1579 1579 1572 1572 1564 1564 1564 1564 1564 1572 1572 1572 1564 1564 1564 1564 1564 1564 1564 1572 1564 1564 1564 1564 1564 1564 1564 1564 1564 1572 1572 1564 1564 1572 1564 1564 1572 1564 1564 1572 1572 1572 1572 1572 1572 1572 1572 1572 1572 1572 1572 1572 1572 1572 1572 1572 1572 1572 1572 1572 1572 1572 1572 1572 1572 1579 1579 1572 1572 1572 1572 1579 1572 1572 1572 1572 1572 1579 1579 1579 1579 1579 1579 1579 1579 1579 1579 1572 1572 1572 1579 1579 1579 1579 1579 1579 1579 1572 1564 1564 1564 1557 1550 1543 1543 1543 1536 1536 1536 1536 1536 1536 1536 1543 1543 1557 1564 1564 1564 1572 1572 1572 1572 1572 1572 1572 1572 1572 1572 1579 1579 1572 1572 1572 1572 1572 1572 1572 1579 1579 1572 1572 1572 1572 1579 1579 1572 1572 1572 1572 1572 1572 1572 1572 1572 1572 1572 1572 1572 1572 1572 1572 1572 1579 1572 1572 1579 1579 1579 1579 1572 1572 1579 1579 1572 1572 1572 1579 1579 1572 1572 1579 1579 1572 1572 1572 1572 1572 1564 1564 1564 1564 1572 1572 1572 1572 1572 1572 1579 1579 1579 1381 1376 1370 1370 1365 1365 1365 1365 1365 1365 1359 1359 1359 1365 1365 1365 1365 1365 1370 1564 1564 1564 1564 1564 1572 1572 1572 1572 1579 1579 1579 1579 1579 1579 1579 1579 1579 1579 1579 1579 1579 1579 1572 1572 1572 1572 1572 1572 1572 1572 1572 1572 1572 1572 1579 1579 1579 1572 1572 1572 1572 1572 1572 1572 1572 1579 1572 1572 1572 1572 1572 1572 1572 1572 1579 1579 1579 1572 1572 1572 1572 1572 1572 1572 1572 1572 1572 1572 1572 1572 1579 1579 1579 1579 1572 1564 1564 1564 1564 1564 1564 1564 1564 1564 1564 1572 1572 1572 1572 1572 1572 1572 1572 1579 1572 1572 1349 1343 1338 1338 1338 1338 1338 1338 1338 1333 1333 1333 1333 1333 1333 1328 1328 1328 1322 1317 1317 1317 1317 1317 1317 1557 1557 1557 1557 1564 1564 1564 1564 1564 1564 1564 1564 1564 1564 1557 1557 1557 1557 1557 1557 1557 1557 1557 1557 1557 1557 1557 1557 1557 1557 1557 1557 1564 1564 1564 1564 1564 1564 1564 1572 1572 1572 1572 1572 1572 1572 1572 1572 1572 1572 1572 1572 1579 1586 1594 1594 1601 1594 1594 1594 0 0 0 0 0 0
0 0 0 0 0 0 0 0 0 0 0 0 0 0 0 0 0 0 0 0 0 0 0 0 0 0 0 0 0 0 0 0 0 0 0 1523 1523 1529 1529 1536 1536 1536 1536 1536 1536 1543 1543 1543 1543 1543 1543 1543 1543 1543 1543 1543 1543 1543 1543 1550 1543 1543 1543 1543 1543 1543 1543 1543 1543 1550 1550 1550 1550 1550 1550 1550 1550 1550 1543 1543 1543 1543 1543 1543 1543 1550 1550 1550 1550 1550 1557 1550 1550 1550 1550 1550 1550 1550 1550 1543 1543 1543 1543 1543 1543 1543 1543 1536 1536 1543 1543 1543 1543 1543 1543 1543 1543 1543 1543 1536 1536 1536 1536 1543 1543 1543 1543 1550 1550 1550 1543 1543 1550 1550 1550 1550 1550 1550 1557 1557 1557 1557 1550 1550 1557 1557 1557 1557 1557 1550 1550 1550 1557 1557 1550 1550 1550 1550 1550 1543 1543 1543 1543 1543 1543 1543 1543 1550 1550 1550 1550 1550 1550 1550 1550 1550 1550 1550 1550 1550 1550 1550 1550 1550 1550 1550 1550 1550 1557 1557 1550 1550 1557 1557 1557 1557 1557 1557 1557 1557 1557 1557 1557 1557 1557 1557 1557 1557 1564 1557 1557 1564 1564 1564 1564 1557 1557 1564 1564 1572 1572 1572 1572 1572 1564 1564 1557 1557 1564 1572 1572 1572 1572 1572 1572 1572 1564 1564 1564 1564 1564 1564 1564 1564 1564 1564 1557 1557 1557 1557 1557 1564 1557 1557 1557 1564 1564 1564 1564 1564 1564 1564 1564 1564 1564 1564 1564 1564 1564 1564 1564 1572 1572 1572 1572 1572 1572 1572 1572 1572 1572 1572 1572 1572 1572 1572 1572 1572 1572 1572 1572 1572 1572 1572 1572 1572 1572 1572 1572 1572 1572 1572 1572 1572 1572 1572 1572 1572 1572 1572 1572 1579 1579 1579 1579 1579 1579 1579 1572 1572 1572 1572 1572 1572 1572 1572 1572 1579 1579 1564 1564 1557 1557 1557 1550 1543 1543 1543 1536 1536 1536 1536 1536 1536 1536 1543 1543 1550 1564 1564 1564 1564 1564 1572 1572 1572 1572 1572 1572 1572 1572 1572 1572 1572 1572 1572 1572 1572 1572 1572 1572 1572 1572 1572 1572 1572 1572 1572 1572 1572 1572 1572 1572 1572 1572 1572 1572 1572 1572 1572 1572 1564 1564 1572 1572 1572 1572 1572 1572 1572 1572 1572 1572 1572 1572 1572 1572 1572 1572 1572 1572 1572 1572 1572 1579 1564 1564 1564 1564 1564 1564 1564 1564 1564 1564 1564 1564 1564 1564 1564 1572 1572 1572 1381 1376 1370 1370 1365 1365 1365 1365 1365 1365 1365 1365 1359 1359 1359 1359 1365 1365 1365 1564 1564 1564 1564 1564 1564 1564 1564 1572 1572 1572 1579 1572 1572 1572 1572 1572 1572 1579 1572 1572 1579 1579 1572 1572 1572 1564 1564 1564 1564 1564 1564 1564 1564 1572 1572 1572 1572 1572 1572 1572 1572 1572 1572 1564 1564 1564 1564 1564 1557 1557 1557 1564 1564 1564 1572 1572 1572 1572 1564 1564 1572 1572 1564 1564 1564 1572 1572 1572 1572 1572 1572 1572 1572 1564 1564 1557 1557 1557 1557 1557 1557 1564 1564 1564 1564 1564 1564 1564 1564 1564 1564 1564 1572 1572 1572 1572 1343 1343 1343 1343 1343 1338 1338 1338 1338 1333 1333 1333 1333 1333 1333 1328 1328 1328 1322 1317 1317 1317 1317 1317 1550 1550 1557 1557 1557 1557 1557 1557 1557 1557 1564 1564 1557 1557 1557 1550 1550 1550 1550 1550 1550 1550 1550 1557 1557 1557 1557 1557 1557 1557 1557 1557 1557 1557 1557 1557 1557 1557 1557 1557 1564 1572 1572 1572 1572 1572 1572 1572 1564 1564 1564 1572 1572 1572 1579 1586 1594 1594 1594 1594 1594 0 0 0 0 0 0
0 0 0 0 0 0 0 0 0 0 0 0 0 0 0 0 0 0 0 0 0 0 0 0 0 0 0 0 0 0 0 0 0 0 0 1516 1516 1523 1523 1523 1523 1523 1523 1523 1523 1529 1536 1536 1536 1536 1536 1536 1536 1536 1536 1543 1543 1543 1543 1543 1543 1543 1543 1543 1543 1543 1543 1543 1543 1550 1550 1543 1543 1543 1543 1543 1550 1543 1536 1536 1536 1543 1543 1543 1543 1543 1543 1550 1550 1550 1550 1550 1550 1550 1550 1550 1543 1543 1543 1543 1543 1543 1536 1536 1536 1536 1536 1536 1536 1536 1543 1543 1543 1543 1543 1543 1543 1543 1536 1536 1536 1536 1536 1536 1536 1536 1543 1550 1550 1543 1543 1543 1543 1543 1543 1550 1550 1550 1550 1550 1550 1550 1543 1543 1550 1550 1550 1550 1550 1550 1550 1550 1543 1543 1543 1543 1550 1550 1543 1543 1543 1543 1543 1543 1536 1536 1536 1543 1543 1543 1543 1550 1550 1550 1550 1550 1550 1550 1550 1550 1550 1550 1550 1550 1550 1550 1550 1550 1550 1550 1550 1550 1550 1550 1550 1550 1550 1550 1550 1550 1550 1550 1550 1550 1550 1550 1550 1550 1557 1550 1550 1550 1550 1557 1557 1557 1557 1557 1557 1557 1557 1557 1557 1557 1557 1557 1557 1557 1564 1564 1564 1564 1564 1564 1564 1564 1564 1557 1557 1557 1557 1564 1564 1564 1557 1557 1557 1557 1557 1550 1550 1557 1557 1557 1557 1557 1557 1557 1557 1557 1557 1564 1564 1557 1557 1564 1557 1557 1557 1557 1557 1564 1564 1564 1564 1564 1564 1564 1564 1564 1564 1564 1572 1572 1572 1572 1572 1572 1572 1572 1572 1572 1572 1572 1572 1572 1572 1572 1572 1572 1564 1564 1572 1572 1572 1572 1572 1572 1572 1572 1572 1572 1572 1572 1572 1572 1572 1572 1572 1572 1572 1572 1572 1572 1572 1572 1572 1572 1572 1564 1564 1557 1550 1550 1550 1543 1543 1543 1536 1536 1536 1536 1536 1536 1536 1543 1543 1550 1557 1564 1564 1564 1564 1564 1564 1564 1564 1564 1564 1564 1564 1564 1564 1564 1564 1564 1564 1564 1564 1564 1564 1564 1564 1572 1572 1572 1572 1572 1572 1564 1564 1572 1572 1572 1572 1572 1572 1572 1564 1564 1572 1564 1564 1564 1564 1572 1572 1572 1572 1572 1572 1572 1572 1572 1572 1572 1572 1572 1572 1572 1572 1572 1572 1572 1572 1564 1564 1564 1564 1564 1564 1564 1564 1564 1564 1564 1564 1564 1564 1564 1564 1564 1564 1564 1564 1370 1370 1365 1365 1365 1365 1365 1365 1365 1365 1359 1359 1359 1359 1359 1359 1365 1557 1557 1557 1564 1564 1564 1564 1564 1564 1572 1572 1572 1564 1564 1572 1572 1564 1564 1564 1572 1572 1572 1572 1564 1564 1564 1564 1564 1564 1564 1564 1564 1564 1564 1564 1572 1572 1572 1572 1572 1572 1572 1564 1564 1564 1564 1564 1564 1564 1557 1557 1557 1557 1557 1557 1557 1557 1564 1564 1557 1557 1564 1564 1564 1564 1564 1564 1564 1564 1564 1564 1564 1564 1564 1557 1557 1557 1557 1557 1557 1557 1557 1557 1557 1557 1557 1557 1564 1557 1557 1564 1564 1564 1564 1564 1564 1564 1343 1343 1343 1343 1343 1338 1338 1338 1338 1333 1333 1333 1333 1333 1333 1328 1328 1328 1328 1322 1322 1317 1317 1317 1550 1550 1550 1550 1550 1550 1550 1550 1557 1557 1557 1557 1557 1557 1557 1550 1550 1550 1550 1550 1550 1550 1550 1550 1550 1550 1550 1550 1557 1557 1557 1557 1557 1557 1557 1557 1557 1550 1550 1550 1550 1564 1572 1572 1572 1572 1572 1564 1564 1564 1564 1564 1564 1564 1564 1586 1586 1594 1594 1586 1586 0 0 0 0 0 0
0 0 0 0 0 0 0 0 0 0 0 0 0 0 0 0 0 0 0 0 0 0 0 0 0 0 0 0 0 0 0 0 0 0 0 1516 1516 1516 1516 1523 1516 1516 1523 1523 1523 1523 1536 1536 1536 1536 1536 1536 1536 1536 1536 1543 1536 1536 1536 1536 1536 1536 1543 1543 1543 1543 1543 1543 1543 1543 1543 1543 1543 1543 1543 1543 1543 1543 1536 1536 1536 1536 1536 1536 1536 1543 1543 1543 1543 1543 1550 1543 1543 1543 1543 1543 1536 1536 1536 1536 1536 1536 1536 1536 1536 1536 1536 1536 1536 1536 1536 1536 1536 1536 1543 1536 1536 1536 1536 1536 1536 1536 1536 1536 1536 1536 1543 1543 1543 1536 1536 1536 1543 1543 1543 1543 1543 1543 1543 1543 1543 1543 1543 1543 1543 1543 1543 1536 1536 1543 1543 1543 1543 1543 1536 1536 1543 1543 1543 1529 1529 1536 1543 1536 1536 1536 1536 1536 1543 1543 1543 1543 1543 1543 1543 1550 1550 1550 1550 1550 1550 1550 1550 1550 1543 1543 1543 1543 1543 1543 1543 1543 1543 1543 1550 1550 1543 1543 1550 1543 1543 1550 1550 1550 1543 1543 1543 1550 1550 1550 1550 1550 1550 1550 1550 1550 1550 1550 1550 1550 1550 1550 1550 1557 1550 1550 1550 1550 1550 1557 1557 1564 1564 1564 1557 1557 1557 1557 1557 1557 1557 1557 1557 1557 1550 1550 1550 1550 1550 1550 1550 1550 1543 1543 1543 1550 1550 1550 1550 1550 1557 1557 1557 1557 1557 1557 1557 1557 1557 1557 1557 1557 1557 1557 1557 1557 1557 1557 1557 1557 1557 1564 1564 1564 1564 1564 1564 1564 1564 1564 1564 1564 1564 1572 1564 1564 1564 1572 1572 1564 1564 1564 1564 1564 1564 1572 1564 1564 1564 1564 1564 1572 1572 1572 1572 1572 1572 1572 1572 1564 1564 1572 1572 1572 1572 1572 1572 1572 1572 1557 1557 1550 1550 1550 1550 1543 1543 1543 1543 1536 1536 1536 1536 1536 1536 1536 1543 1550 1557 1557 1557 1564 1564 1564 1564 1564 1564 1564 1564 1564 1564 1564 1564 1564 1564 1564 1564 1564 1564 1564 1564 1564 1564 1564 1564 1564 1564 1572 1564 1564 1564 1564 1564 1564 1564 1564 1564 1564 1564 1564 1564 1564 1564 1564 1564 1564 1564 1572 1572 1572 1572 1572 1564 1564 1564 1572 1564 1564 1572 1572 1572 1572 1572 1564 1564 1564 1564 1557 1557 1557 1557 1557 1564 1564 1564 1557 1557 1557 1557 1557 1564 1564 1564 1557 1557 1370 1370 1365 1365 1365 1365 1365 1365 1359 1359 1359 1359 1359 1359 1359 1359 1365 1557 1557 1557 1564 1564 1564 1564 1564 1564 1564 1564 1564 1564 1564 1564 1564 1564 1557 1557 1564 1564 1564 1564 1564 1564 1564 1557 1557 1557 1557 1557 1564 1564 1564 1564 1564 1564 1564 1564 1564 1564 1564 1564 1564 1564 1557 1557 1557 1557 1557 1557 1557 1557 1557 1557 1557 1557 1557 1557 1557 1557 1557 1557 1557 1557 1557 1557 1557 1557 1557 1557 1557 1557 1557 1550 1550 1550 1550 1550 1550 1550 1557 1557 1557 1557 1557 1557 1557 1557 1557 1557 1557 1557 1557 1557 1557 1557 1557 1349 1343 1343 1343 1343 1338 1338 1338 1338 1338 1333 1333 1333 1333 1333 1328 1328 1328 1322 1322 1322 1322 1550 1550 1550 1550 1550 1550 1550 1550 1550 1557 1557 1557 1557 1557 1557 1557 1543 1543 1543 1543 1543 1543 1543 1550 1550 1550 1550 1550 1550 1550 1550 1550 1550 1550 1550 1550 1550 1550 1550 1550 1550 1550 1564 1564 1564 1572 1572 1572 1564 1564 1564 1557 1557 1564 1564 1564 1579 1579 1586 1586 1579 1579 0 0 0 0 0 0
0 0 0 0 0 0 0 0 0 0 0 0 0 0 0 0 0 0 0 0 0 0 0 0 0 0 0 0 0 0 0 0 0 0 0 1516 1516 1516 1516 1516 1516 1516 1516 1516 1516 1516 1523 1536 1536 1536 1536 1536 1536 1536 1536 1536 1536 1536 1536 1536 1536 1536 1536 1536 1536 1536 1543 1543 1543 1543 1543 1536 1536 1536 1536 1536 1536 1536 1536 1536 1536 1536 1536 1536 1536 1536 1536 1536 1536 1536 1543 1543 1543 1536 1536 1536 1536 1536 1536 1536 1536 1536 1536 1536 1536 1536 1536 1536 1536 1536 1536 1536 1536 1536 1536 1536 1536 1536 1536 1529 1529 1529 1529 1536 1536 1536 1536 1536 1536 1536 1536 1536 1536 1536 1536 1543 1543 1543 1543 1543 1543 1543 1536 1536 1543 1536 1536 1536 1536 1536 1536 1536 1536 1536 1536 1536 1536 1536 1529 1529 1529 1529 1536 1536 1536 1536 1536 1536 1536 1536 1536 1536 1543 1543 1543 1543 1543 1543 1543 1543 1543 1543 1543 1543 1543 1543 1536 1536 1543 1543 1536 1536 1543 1543 1543 1543 1543 1543 1543 1543 1543 1543 1543 1543 1543 1543 1543 1543 1543 1543 1543 1543 1543 1543 1543 1543 1543 1550 1550 1550 1550 1550 1550 1550 1550 1550 1550 1550 1550 1557 1557 1557 1557 1557 1557 1557 1557 1557 1557 1557 1557 1557 1557 1557 1550 1543 1543 1543 1543 1543 1543 1543 1543 1543 1543 1543 1543 1550 1550 1550 1550 1550 1550 1550 1550 1550 1550 1550 1550 1550 1550 1550 1550 1550 1550 1550 1550 1550 1550 1550 1550 1550 1557 1550 1550 1557 1557 1564 1564 1564 1557 1557 1564 1564 1564 1557 1557 1564 1557 1557 1557 1557 1564 1564 1564 1564 1564 1564 1564 1564 1564 1564 1564 1572 1572 1564 1564 1564 1564 1564 1564 1564 1564 1564 1564 1564 1564 1572 1572 1557 1550 1550 1550 1550 1543 1543 1543 1543 1543 1536 1536 1536 1536 1536 1536 1536 1543 1543 1557 1557 1557 1564 1564 1564 1564 1564 1564 1564 1564 1564 1564 1564 1564 1564 1564 1557 1557 1550 1550 1550 1550 1550 1557 1564 1564 1564 1564 1557 1557 1564 1564 1564 1557 1557 1557 1557 1557 1557 1564 1564 1564 1564 1564 1564 1564 1564 1564 1564 1564 1572 1564 1564 1564 1564 1564 1564 1564 1564 1564 1564 1572 1564 1564 1564 1564 1557 1557 1557 1557 1557 1557 1557 1557 1557 1557 1557 1557 1557 1557 1557 1557 1557 1557 1557 1557 1370 1370 1365 1365 1365 1365 1365 1365 1359 1359 1359 1359 1359 1359 1359 1359 1550 1550 1557 1557 1557 1557 1557 1557 1564 1564 1564 1564 1564 1564 1564 1564 1564 1564 1557 1557 1564 1564 1564 1557 1557 1557 1557 1557 1557 1557 1557 1557 1557 1557 1557 1564 1564 1564 1564 1564 1564 1564 1564 1557 1557 1557 1557 1557 1557 1557 1550 1550 1550 1557 1557 1557 1557 1550 1550 1557 1557 1557 1557 1557 1557 1557 1557 1557 1557 1550 1550 1550 1550 1543 1543 1543 1543 1543 1550 1550 1550 1550 1550 1550 1550 1550 1550 1557 1557 1557 1557 1557 1550 1550 1557 1557 1557 1557 1557 1349 1343 1343 1343 1343 1338 1338 1338 1338 1338 1333 1333 1333 1333 1328 1328 1328 1328 1322 1322 1322 1322 1550 1550 1550 1550 1550 1550 1550 1550 1550 1550 1550 1550 1550 1550 1550 1550 1543 1543 1543 1543 1543 1543 1543 1543 1543 1543 1543 1543 1543 1550 1550 1550 1550 1550 1550 1550 1550 1550 1550 1550 1550 1550 1550 1550 1557 1564 1564 1564 1564 1557 1557 1557 1550 1550 1550 1550 1579 1579 1579 1579 1579 1579 0 0 0 0 0 0
0 0 0 0 0 0 0 0 0 0 0 0 0 0 0 0 0 0 0 0 0 0 0 0 0 0 0 0 0 0 0 0 0 0 0 1509 1509 1516 1516 1516 1516 1516 1516 1516 1516 1516 1523 1529 1529 1529 1529 1536 1529 1529 1529 1529 1529 1529 1536 1536 1529 1529 1529 1529 1536 1536 1536 1536 1536 1536 1536 1536 1536 1529 1529 1529 1529 1529 1529 1529 1529 1536 1536 1536 1536 1536 1536 1536 1536 1536 1536 1536 1536 1536 1536 1536 1536 1536 1536 1536 1536 1536 1536 1536 1536 1536 1536 1536 1536 1536 1536 1536 1536 1536 1536 1536 1536 1536 1529 1529 1529 1529 1529 1529 1529 1529 1529 1529 1536 1529 1529 1536 1536 1536 1536 1536 1536 1536 1536 1536 1543 1543 1536 1536 1536 1536 1536 1536 1536 1536 1536 1536 1536 1536 1529 1529 1536 1536 1529 1529 1529 1529 1529 1529 1529 1529 1529 1529 1536 1536 1536 1536 1536 1529 1529 1536 1536 1536 1536 1536 1536 1536 1536 1536 1536 1536 1536 1536 1536 1536 1536 1536 1536 1536 1536 1536 1536 1543 1543 1543 1543 1543 1543 1543 1543 1536 1536 1543 1543 1536 1536 1536 1536 1543 1543 1543 1543 1543 1543 1550 1550 1543 1543 1543 1550 1543 1543 1543 1543 1550 1550 1550 1557 1557 1557 1550 1550 1550 1550 1550 1550 1550 1550 1550 1543 1543 1543 1543 1543 1543 1536 1536 1543 1543 1543 1543 1543 1543 1543 1550 1550 1550 1550 1550 1550 1550 1550 1550 1550 1550 1550 1550 1550 1550 1550 1543 1543 1543 1550 1550 1550 1550 1550 1550 1550 1550 1550 1550 1550 1550 1550 1550 1550 1550 1550 1550 1550 1550 1550 1550 1550 1550 1550 1550 1550 1550 1550 1557 1557 1557 1557 1564 1564 1564 1564 1564 1564 1557 1557 1557 1557 1557 1557 1557 1564 1564 1564 1564 1564 1550 1550 1543 1543 1550 1543 1543 1543 1543 1543 1536 1536 1536 1536 1536 1536 1536 1543 1543 1550 1550 1550 1557 1557 1557 1564 1564 1557 1557 1557 1557 1557 1557 1557 1557 1550 1550 1550 1550 1550 1550 1543 1543 1550 1557 1557 1557 1557 1557 1557 1557 1557 1557 1557 1550 1550 1557 1557 1557 1550 1550 1550 1557 1557 1557 1557 1564 1564 1564 1564 1564 1564 1564 1564 1557 1557 1557 1557 1557 1557 1557 1557 1564 1564 1564 1564 1557 1557 1557 1557 1557 1557 1557 1557 1557 1557 1557 1557 1557 1557 1557 1557 1557 1557 1557 1557 1370 1365 1365 1365 1365 1365 1365 1365 1359 1359 1359 1359 1359 1359 1359 1359 1550 1550 1550 1557 1557 1557 1557 1557 1557 1557 1557 1557 1557 1564 1557 1557 1557 1557 1557 1557 1557 1557 1564 1557 1557 1557 1557 1550 1550 1550 1550 1550 1550 1557 1557 1557 1557 1557 1557 1557 1557 1557 1557 1557 1557 1557 1550 1550 1550 1557 1550 1550 1550 1550 1550 1550 1550 1550 1550 1550 1550 1550 1550 1550 1550 1550 1550 1550 1550 1550 1550 1550 1543 1543 1543 1543 1543 1543 1543 1550 1550 1550 1550 1550 1550 1550 1550 1550 1543 1543 1550 1550 1550 1550 1550 1550 1550 1550 1550 1349 1343 1343 1343 1343 1338 1338 1338 1338 1338 1333 1333 1333 1333 1328 1328 1328 1328 1328 1328 1328 1328 1543 1543 1543 1550 1550 1543 1543 1550 1550 1550 1550 1550 1550 1550 1550 1550 1543 1543 1543 1543 1543 1543 1543 1543 1543 1543 1543 1543 1543 1543 1543 1550 1550 1550 1550 1550 1543 1543 1543 1543 1543 1543 1543 1543 1550 1550 1550 1550 1550 1550 1550 1550 1550 1550 1550 1550 1550 1572 1579 1579 1572 1572 0 0 0 0 0 0
0 0 0 0 0 0 0 0 0 0 0 0 0 0 0 0 0 0 0 0 0 0 0 0 0 0 0 0 0 0 0 0 0 0 0 1509 1509 1509 1509 1509 1509 1509 1516 1516 1516 1516 1516 1529 1529 1529 1529 1529 1529 1529 1523 1523 1529 1529 1529 1529 1529 1529 1529 1529 1529 1529 1536 1536 1536 1536 1536 1529 1529 1523 1523 1523 1529 1529 1523 1523 1529 1529 1529 1529 1529 1529 1529 1529 1529 1529 1529 1529 1536 1536 1536 1536 1536 1536 1536 1536 1536 1536 1536 1536 1536 1536 1529 1529 1529 1529 1536 1536 1536 1536 1536 1529 1529 1529 1529 1529 1523 1523 1529 1529 1529 1529 1529 1529 1529 1529 1529 1529 1529 1529 1529 1536 1536 1536 1536 1536 1543 1543 1536 1536 1536 1536 1536 1529 1529 1536 1536 1529 1529 1529 1529 1529 1536 1536 1529 1523 1523 1523 1523 1529 1529 1529 1529 1529 1529 1529 1529 1529 1529 1529 1529 1529 1529 1529 1529 1529 1536 1536 1536 1536 1529 1529 1529 1529 1529 1529 1529 1529 1529 1536 1536 1536 1536 1536 1536 1536 1536 1536 1536 1536 1536 1529 1529 1536 1536 1529 1529 1529 1529 1536 1536 1536 1536 1536 1536 1536 1536 1536 1536 1536 1543 1543 1543 1543 1543 1543 1543 1550 1550 1550 1550 1550 1550 1550 1550 1550 1550 1550 1550 1550 1536 1536 1536 1536 1536 1536 1529 1529 1536 1536 1536 1543 1543 1543 1543 1543 1543 1550 1543 1543 1550 1550 1550 1550 1550 1543 1543 1550 1550 1550 1543 1543 1543 1543 1543 1543 1543 1543 1550 1543 1543 1550 1550 1550 1550 1550 1550 1550 1543 1543 1543 1543 1550 1550 1550 1550 1550 1550 1550 1550 1550 1550 1550 1550 1550 1550 1550 1550 1557 1550 1550 1550 1550 1550 1550 1550 1550 1550 1550 1550 1550 1557 1557 1557 1564 1550 1543 1543 1543 1543 1543 1543 1543 1543 1543 1536 1536 1536 1536 1536 1536 1536 1543 1543 1550 1550 1550 1557 1557 1557 1557 1557 1557 1557 1557 1557 1550 1550 1550 1550 1550 1543 1543 1543 1543 1543 1543 1543 1543 1543 1543 1550 1550 1550 1550 1543 1543 1543 1543 1543 1543 1550 1550 1550 1550 1550 1550 1550 1550 1550 1550 1557 1557 1557 1557 1564 1564 1557 1557 1550 1550 1557 1550 1550 1550 1557 1557 1557 1564 1557 1557 1557 1550 1550 1550 1550 1550 1550 1550 1550 1550 1550 1550 1550 1550 1550 1557 1557 1557 1387 1387 1376 1365 1365 1365 1365 1365 1365 1365 1359 1359 1359 1359 1359 1359 1359 1536 1536 1543 1550 1557 1550 1550 1550 1550 1557 1557 1557 1557 1557 1557 1557 1557 1557 1557 1557 1557 1557 1557 1557 1550 1550 1550 1550 1543 1543 1543 1550 1550 1550 1557 1557 1557 1557 1557 1557 1557 1557 1557 1557 1550 1550 1550 1543 1543 1543 1550 1543 1543 1543 1550 1550 1550 1543 1543 1543 1550 1550 1543 1543 1543 1543 1550 1550 1550 1550 1550 1543 1543 1543 1536 1536 1536 1536 1536 1543 1543 1543 1543 1543 1543 1543 1543 1543 1543 1536 1536 1536 1543 1536 1536 1543 1543 1550 1550 1550 1349 1349 1343 1343 1343 1343 1338 1338 1338 1338 1333 1333 1333 1333 1333 1328 1328 1328 1328 1328 1322 1322 1536 1536 1543 1543 1543 1543 1543 1543 1543 1550 1543 1543 1543 1543 1543 1543 1536 1536 1536 1543 1543 1543 1536 1536 1536 1536 1536 1543 1543 1543 1543 1543 1543 1543 1543 1543 1543 1543 1543 1543 1543 1543 1543 1543 1543 1550 1550 1550 1550 1550 1550 1550 1543 1543 1543 1543 1550 1557 1572 1572 1572 1572 0 0 0 0 0 0
0 0 0 0 0 0 0 0 0 0 0 0 0 0 0 0 0 0 0 0 0 0 0 0 0 0 0 0 0 0 0 0 0 0 0 1503 1503 1509 1509 1509 1509 1509 1516 1516 1516 1516 1516 1516 1523 1523 1516 1516 1523 1523 1523 1523 1523 1523 1529 1529 1529 1523 1523 1523 1523 1523 1523 1523 1523 1523 1523 1523 1523 1516 1516 1516 1516 1529 1523 1523 1523 1529 1529 1529 1529 1529 1529 1523 1523 1523 1523 1529 1529 1529 1529 1529 1529 1529 1529 1529 1529 1529 1529 1529 1529 1529 1529 1529 1529 1529 1529 1529 1529 1529 1529 1529 1529 1529 1529 1529 1523 1523 1523 1529 1529 1529 1529 1529 1529 1529 1529 1529 1529 1529 1529 1529 1536 1536 1536 1536 1536 1536 1536 1536 1536 1536 1536 1529 1529 1529 1529 1529 1529 1529 1529 1529 1529 1529 1523 1523 1523 1523 1523 1523 1523 1523 1523 1529 1529 1523 1523 1529 1523 1523 1523 1523 1523 1529 1529 1529 1529 1529 1529 1529 1529 1529 1529 1529 1529 1529 1529 1529 1529 1529 1529 1529 1529 1536 1536 1536 1529 1529 1536 1536 1529 1529 1529 1529 1536 1529 1529 1529 1529 1529 1529 1529 1529 1529 1529 1529 1529 1529 1536 1536 1536 1536 1536 1536 1536 1543 1543 1543 1543 1543 1543 1550 1550 1550 1550 1543 1543 1543 1550 1550 1536 1536 1536 1536 1529 1529 1529 1529 1529 1536 1536 1536 1536 1543 1543 1543 1543 1543 1543 1543 1543 1543 1543 1543 1543 1543 1543 1550 1543 1543 1543 1543 1543 1543 1543 1543 1543 1543 1543 1543 1543 1543 1543 1543 1543 1543 1543 1543 1543 1543 1543 1543 1543 1543 1543 1543 1550 1550 1550 1543 1543 1543 1543 1550 1550 1550 1550 1550 1550 1550 1543 1543 1543 1543 1543 1543 1550 1550 1550 1550 1550 1550 1550 1550 1550 1543 1543 1543 1543 1543 1543 1536 1536 1536 1536 1536 1536 1536 1536 1536 1536 1536 1543 1543 1543 1543 1543 1550 1550 1550 1550 1550 1550 1550 1550 1550 1550 1550 1550 1550 1543 1543 1543 1543 1543 1543 1543 1543 1543 1543 1543 1543 1550 1543 1543 1543 1543 1543 1543 1543 1543 1543 1543 1543 1550 1550 1550 1550 1543 1543 1543 1550 1550 1550 1557 1557 1557 1557 1550 1550 1550 1543 1543 1550 1550 1550 1550 1550 1557 1557 1557 1543 1543 1543 1543 1543 1543 1543 1550 1550 1543 1543 1550 1543 1543 1543 1543 1550 1557 1387 1387 1381 1370 1365 1365 1365 1365 1365 1365 1359 1359 1359 1359 1359 1359 1359 1536 1536 1536 1550 1557 1550 1550 1550 1550 1550 1550 1550 1550 1550 1550 1543 1543 1550 1550 1543 1543 1543 1543 1550 1543 1543 1543 1536 1536 1536 1543 1543 1543 1543 1550 1550 1557 1550 1550 1550 1557 1550 1550 1550 1543 1543 1543 1536 1536 1536 1543 1536 1536 1536 1543 1543 1543 1543 1543 1543 1543 1543 1536 1536 1536 1536 1543 1543 1543 1543 1543 1543 1536 1536 1536 1536 1536 1536 1536 1536 1536 1536 1536 1536 1536 1536 1536 1536 1536 1529 1529 1536 1536 1536 1536 1536 1536 1543 1543 1354 1349 1349 1343 1343 1343 1343 1343 1343 1338 1338 1333 1333 1333 1333 1333 1328 1328 1328 1328 1322 1322 1322 1529 1536 1536 1536 1536 1536 1536 1536 1536 1543 1543 1543 1543 1543 1543 1543 1536 1536 1536 1536 1536 1536 1536 1536 1536 1536 1536 1536 1536 1543 1543 1543 1543 1543 1543 1536 1536 1536 1543 1543 1543 1543 1543 1543 1543 1543 1543 1550 1550 1550 1550 1550 1543 1543 1543 1543 1550 1557 1572 1564 1564 1564 0 0 0 0 0 0
0 0 0 0 0 0 0 0 0 0 0 0 0 0 0 0 0 0 0 0 0 0 0 0 0 0 0 0 0 0 0 0 0 0 0 1496 1496 1496 1503 1509 1509 1509 1509 1509 1509 1509 1516 1516 1516 1516 1516 1516 1516 1516 1516 1516 1523 1523 1523 1523 1523 1516 1516 1523 1516 1516 1516 1516 1516 1523 1523 1523 1523 1516 1516 1516 1516 1529 1523 1523 1523 1529 1529 1529 1523 1523 1523 1523 1523 1523 1523 1523 1523 1523 1523 1529 1529 1529 1529 1529 1529 1529 1529 1529 1529 1529 1529 1529 1529 1529 1529 1529 1529 1529 1529 1529 1529 1529 1523 1523 1523 1523 1523 1523 1523 1523 1523 1523 1523 1523 1523 1529 1529 1529 1529 1529 1529 1529 1529 1529 1536 1536 1536 1529 1529 1529 1529 1523 1523 1523 1523 1523 1529 1529 1523 1523 1529 1529 1523 1523 1516 1516 1516 1523 1523 1523 1523 1523 1523 1523 1523 1523 1523 1523 1523 1523 1523 1523 1523 1529 1529 1529 1523 1523 1523 1529 1529 1529 1523 1523 1529 1529 1529 1523 1523 1523 1529 1529 1529 1529 1529 1529 1529 1529 1529 1529 1529 1529 1529 1529 1529 1529 1529 1529 1529 1529 1529 1529 1529 1529 1529 1529 1529 1529 1536 1536 1536 1536 1529 1529 1529 1529 1529 1536 1536 1543 1543 1543 1543 1536 1536 1543 1543 1543 1529 1529 1529 1529 1529 1523 1523 1523 1529 1529 1529 1536 1536 1536 1543 1543 1543 1536 1536 1536 1536 1543 1543 1543 1543 1543 1543 1543 1543 1536 1536 1536 1536 1536 1536 1536 1536 1536 1536 1536 1536 1536 1536 1536 1543 1543 1543 1543 1543 1536 1536 1536 1536 1543 1543 1543 1543 1543 1543 1543 1543 1543 1543 1543 1543 1543 1543 1543 1543 1543 1543 1543 1543 1543 1543 1543 1543 1543 1543 1543 1543 1543 1543 1543 1543 1536 1536 1536 1536 1536 1536 1536 1536 1536 1536 1536 1536 1536 1536 1536 1536 1536 1536 1536 1536 1536 1536 1536 1536 1536 1536 1536 1536 1536 1536 1536 1536 1536 1543 1543 1543 1543 1543 1543 1536 1536 1543 1543 1543 1543 1543 1543 1543 1543 1543 1543 1543 1543 1536 1536 1536 1543 1543 1543 1543 1543 1543 1543 1543 1543 1543 1550 1550 1550 1550 1550 1550 1550 1550 1543 1543 1543 1543 1543 1543 1543 1543 1550 1550 1550 1550 1543 1543 1543 1543 1543 1543 1543 1543 1543 1543 1543 1543 1543 1536 1536 1536 1536 1543 1550 1550 1381 1370 1365 1365 1365 1365 1365 1365 1365 1359 1359 1359 1365 1529 1529 1529 1536 1536 1536 1550 1550 1550 1550 1550 1543 1543 1543 1543 1543 1543 1543 1543 1543 1543 1543 1536 1536 1536 1536 1536 1536 1536 1536 1536 1536 1536 1543 1543 1543 1543 1550 1550 1550 1550 1550 1550 1543 1543 1543 1536 1536 1536 1536 1536 1536 1536 1529 1529 1529 1529 1536 1529 1529 1529 1536 1536 1536 1529 1529 1529 1536 1536 1536 1536 1536 1536 1536 1536 1536 1536 1536 1529 1529 1529 1536 1529 1529 1529 1529 1529 1529 1529 1529 1529 1529 1529 1529 1529 1529 1529 1529 1536 1536 1536 1354 1349 1349 1349 1349 1349 1343 1343 1343 1338 1338 1338 1333 1333 1333 1333 1328 1328 1328 1328 1322 1322 1322 1529 1529 1536 1536 1536 1529 1529 1529 1529 1536 1536 1536 1536 1536 1536 1536 1536 1529 1529 1536 1536 1536 1536 1536 1536 1536 1536 1536 1536 1536 1536 1529 1529 1536 1536 1536 1536 1536 1536 1543 1543 1543 1543 1543 1543 1543 1543 1543 1543 1543 1550 1550 1550 1543 1543 1550 1550 1557 1564 1564 1564 1564 0 0 0 0 0 0
0 0 0 0 0 0 0 0 0 0 0 0 0 0 0 0 0 0 0 0 0 0 0 0 0 0 0 0 0 0 0 0 0 0 0 1496 1496 1496 1503 1509 1509 1509 1509 1509 1509 1509 1509 1509 1509 1509 1509 1509 1509 1509 1516 1516 1516 1516 1516 1516 1509 1509 1509 1516 1516 1516 1516 1516 1516 1523 1523 1523 1516 1516 1516 1516 1516 1516 1516 1516 1523 1516 1516 1523 1523 1523 1523 1516 1516 1523 1523 1523 1523 1523 1523 1523 1523 1523 1523 1523 1523 1529 1529 1529 1529 1529 1523 1523 1523 1523 1529 1523 1523 1529 1529 1529 1523 1523 1523 1523 1516 1516 1516 1523 1523 1516 1516 1516 1516 1516 1516 1516 1523 1523 1523 1523 1529 1529 1529 1529 1529 1529 1529 1529 1529 1529 1523 1523 1523 1523 1523 1523 1523 1523 1523 1523 1523 1529 1523 1523 1516 1516 1516 1523 1523 1523 1523 1523 1523 1523 1523 1523 1523 1523 1523 1523 1523 1523 1523 1523 1529 1523 1523 1523 1523 1523 1523 1523 1523 1523 1523 1523 1523 1523 1523 1523 1523 1529 1523 1523 1523 1523 1529 1529 1529 1529 1529 1529 1523 1523 1523 1529 1529 1529 1523 1523 1529 1529 1529 1529 1529 1529 1529 1529 1529 1529 1529 1529 1529 1529 1529 1529 1529 1529 1529 1529 1529 1536 1536 1529 1529 1529 1536 1536 1529 1523 1523 1529 1529 1523 1523 1523 1523 1529 1529 1529 1529 1536 1536 1536 1536 1536 1536 1529 1529 1543 1543 1543 1543 1536 1536 1543 1536 1536 1536 1536 1536 1536 1536 1536 1529 1529 1536 1536 1536 1536 1536 1536 1543 1536 1536 1543 1536 1536 1536 1536 1536 1543 1543 1543 1543 1543 1543 1543 1543 1543 1543 1543 1543 1543 1543 1543 1543 1543 1543 1543 1543 1543 1543 1543 1543 1543 1536 1536 1543 1536 1536 1543 1543 1536 1536 1536 1536 1536 1536 1536 1536 1536 1536 1536 1536 1536 1536 1536 1536 1536 1536 1536 1536 1536 1529 1529 1536 1536 1536 1536 1536 1536 1536 1536 1536 1536 1536 1536 1529 1529 1536 1536 1536 1536 1536 1536 1536 1536 1536 1536 1543 1543 1543 1543 1543 1536 1536 1536 1536 1536 1536 1536 1543 1543 1543 1543 1543 1543 1543 1550 1543 1543 1543 1543 1543 1543 1543 1543 1543 1543 1543 1543 1543 1543 1543 1543 1543 1543 1543 1536 1536 1536 1536 1536 1536 1536 1543 1543 1543 1543 1543 1536 1536 1536 1536 1536 1536 1387 1387 1381 1370 1370 1365 1365 1365 1365 1365 1365 1359 1359 1359 1359 1529 1529 1529 1529 1536 1536 1543 1536 1536 1543 1543 1543 1543 1543 1543 1543 1543 1536 1536 1536 1536 1536 1536 1536 1536 1536 1536 1536 1536 1536 1536 1536 1536 1536 1536 1536 1543 1543 1543 1543 1543 1543 1543 1536 1536 1536 1536 1536 1536 1536 1536 1536 1536 1529 1529 1529 1529 1529 1529 1523 1523 1529 1529 1529 1529 1529 1529 1529 1529 1529 1529 1529 1529 1529 1529 1529 1529 1529 1529 1529 1529 1529 1529 1529 1529 1529 1529 1529 1529 1529 1529 1529 1529 1529 1529 1529 1529 1529 1529 1536 1354 1354 1354 1354 1349 1349 1349 1349 1343 1343 1343 1338 1338 1333 1333 1333 1333 1328 1328 1328 1328 1322 1322 1529 1529 1529 1529 1529 1529 1529 1529 1529 1529 1529 1529 1536 1536 1536 1536 1536 1529 1529 1529 1529 1529 1529 1529 1529 1529 1529 1529 1529 1529 1529 1529 1529 1529 1529 1536 1536 1529 1529 1536 1543 1536 1536 1536 1543 1543 1543 1543 1543 1543 1543 1543 1543 1543 1543 1543 1543 1550 1550 1557 1557 1564 1564 0 0 0 0 0 0
0 0 0 0 0 0 0 0 0 0 0 0 0 0 0 0 0 0 0 0 0 0 0 0 0 0 0 0 0 0 0 0 0 0 0 1496 1489 1489 1489 1503 1503 1509 1509 1509 1509 1509 1503 1503 1509 1509 1509 1509 1509 1509 1509 1509 1509 1509 1509 1509 1509 1509 1509 1509 1509 1509 1509 1516 1516 1516 1516 1516 1516 1509 1509 1509 1509 1516 1516 1516 1509 1509 1509 1516 1516 1516 1516 1516 1516 1516 1523 1523 1523 1523 1523 1523 1523 1523 1523 1523 1523 1523 1523 1523 1523 1523 1523 1523 1523 1523 1523 1523 1523 1523 1523 1523 1523 1523 1516 1516 1516 1516 1516 1516 1516 1516 1516 1516 1516 1509 1509 1509 1523 1523 1516 1516 1516 1523 1523 1523 1523 1523 1529 1529 1529 1529 1516 1516 1516 1516 1523 1523 1523 1523 1523 1523 1523 1523 1516 1516 1516 1516 1516 1516 1516 1516 1516 1516 1516 1516 1516 1516 1516 1516 1516 1516 1516 1516 1516 1523 1523 1516 1516 1516 1516 1523 1523 1523 1516 1516 1516 1516 1523 1523 1523 1523 1523 1523 1523 1523 1523 1523 1529 1523 1523 1523 1523 1523 1523 1523 1523 1523 1523 1529 1523 1523 1523 1523 1523 1523 1529 1529 1529 1529 1529 1529 1529 1529 1529 1529 1529 1529 1529 1529 1529 1529 1529 1529 1529 1529 1529 1529 1529 1529 1523 1523 1523 1523 1523 1523 1523 1523 1523 1523 1523 1523 1529 1529 1536 1536 1536 1529 1529 1529 1529 1536 1536 1536 1543 1536 1536 1536 1536 1536 1529 1529 1529 1529 1529 1529 1529 1529 1529 1529 1536 1536 1536 1536 1536 1536 1536 1536 1536 1529 1529 1529 1536 1536 1536 1536 1536 1536 1536 1536 1536 1536 1543 1543 1543 1543 1543 1543 1536 1536 1536 1536 1536 1536 1529 1529 1536 1529 1529 1529 1529 1529 1529 1536 1543 1536 1529 1529 1536 1536 1536 1529 1529 1536 1536 1536 1529 1529 1529 1529 1529 1529 1529 1529 1529 1529 1529 1529 1529 1529 1529 1529 1529 1529 1529 1529 1529 1529 1529 1529 1529 1529 1529 1529 1536 1536 1536 1536 1536 1536 1536 1536 1536 1536 1536 1536 1536 1529 1529 1529 1536 1536 1529 1529 1536 1536 1536 1536 1536 1543 1543 1543 1543 1543 1543 1543 1543 1543 1543 1543 1543 1543 1543 1543 1536 1536 1536 1543 1543 1543 1543 1529 1529 1536 1536 1536 1536 1536 1536 1543 1536 1536 1536 1536 1536 1536 1529 1529 1536 1387 1381 1381 1376 1376 1370 1365 1365 1365 1365 1359 1359 1359 1359 1359 1529 1529 1529 1529 1536 1536 1543 1536 1536 1543 1543 1536 1536 1536 1536 1536 1536 1536 1536 1536 1536 1536 1529 1529 1529 1529 1529 1529 1529 1529 1529 1536 1536 1536 1536 1536 1536 1536 1536 1536 1536 1536 1536 1536 1536 1536 1536 1536 1536 1536 1536 1536 1536 1529 1523 1523 1523 1523 1523 1523 1523 1523 1523 1523 1523 1523 1529 1529 1529 1529 1523 1523 1529 1523 1523 1523 1529 1529 1529 1529 1529 1529 1529 1529 1529 1529 1529 1523 1523 1523 1523 1523 1523 1523 1523 1529 1529 1529 1529 1529 1354 1354 1354 1354 1349 1349 1349 1349 1343 1343 1343 1338 1338 1338 1338 1338 1333 1333 1328 1328 1328 1322 1322 1523 1523 1523 1523 1523 1523 1523 1523 1523 1529 1529 1529 1529 1529 1529 1529 1529 1529 1523 1523 1529 1529 1523 1523 1523 1523 1523 1523 1523 1529 1523 1523 1523 1523 1523 1529 1529 1529 1529 1536 1536 1536 1536 1536 1536 1543 1536 1536 1536 1536 1543 1543 1543 1543 1543 1543 1543 1550 1550 1557 1557 1557 1557 0 0 0 0 0 0
0 0 0 0 0 0 0 0 0 0 0 0 0 0 0 0 0 0 0 0 0 0 0 0 0 0 0 0 0 0 0 0 0 0 0 0 1483 1483 1489 1489 1496 1503 1503 1503 1503 1503 1503 1503 1503 1503 1503 1503 1503 1503 1503 1503 1509 1509 1509 1509 1509 1509 1509 1509 1509 1509 1509 1516 1516 1516 1516 1516 1509 1509 1509 1509 1509 1509 1509 1516 1509 1509 1509 1516 1516 1516 1516 1509 1509 1516 1516 1516 1523 1523 1523 1523 1523 1523 1523 1516 1516 1516 1523 1523 1523 1516 1516 1516 1516 1516 1516 1516 1516 1516 1516 1516 1516 1516 1509 1509 1509 1509 1516 1516 1516 1516 1509 1509 1516 1509 1509 1509 1516 1516 1516 1516 1516 1516 1516 1516 1523 1523 1523 1523 1523 1523 1516 1516 1516 1516 1516 1523 1523 1516 1516 1523 1523 1523 1516 1516 1509 1509 1509 1509 1509 1516 1516 1516 1516 1516 1509 1509 1509 1509 1509 1509 1509 1509 1516 1516 1516 1516 1516 1516 1516 1523 1523 1523 1516 1516 1516 1516 1523 1523 1516 1516 1516 1516 1516 1516 1516 1516 1523 1523 1523 1523 1523 1523 1523 1523 1523 1523 1523 1523 1523 1523 1523 1523 1523 1523 1523 1523 1523 1523 1523 1529 1529 1529 1529 1529 1529 1529 1529 1529 1529 1529 1529 1529 1529 1529 1529 1529 1529 1529 1523 1523 1523 1523 1523 1523 1523 1523 1523 1523 1523 1523 1523 1529 1529 1529 1529 1529 1529 1523 1523 1523 1529 1536 1536 1529 1529 1529 1529 1523 1523 1523 1529 1529 1529 1529 1529 1523 1523 1523 1529 1529 1529 1529 1529 1529 1529 1536 1529 1529 1529 1529 1529 1529 1529 1529 1529 1536 1536 1536 1536 1536 1536 1536 1536 1536 1536 1536 1536 1536 1536 1536 1536 1536 1529 1529 1529 1529 1529 1529 1529 1529 1529 1529 1536 1529 1529 1529 1529 1529 1529 1529 1529 1529 1529 1529 1529 1529 1529 1529 1529 1529 1529 1523 1523 1523 1523 1523 1529 1523 1523 1523 1523 1523 1529 1523 1523 1523 1529 1529 1529 1523 1523 1529 1529 1529 1529 1536 1536 1536 1536 1536 1536 1536 1536 1529 1529 1529 1529 1529 1536 1529 1523 1523 1529 1529 1529 1529 1536 1536 1536 1536 1536 1536 1536 1536 1536 1536 1536 1536 1536 1536 1536 1536 1536 1536 1536 1536 1536 1536 1536 1529 1529 1536 1529 1529 1529 1529 1536 1536 1536 1536 1536 1536 1536 1529 1529 1529 1536 1387 1381 1381 1376 1376 1370 1370 1365 1365 1365 1359 1359 1359 1359 1359 1529 1529 1529 1529 1529 1536 1536 1536 1536 1536 1536 1529 1529 1529 1529 1529 1529 1529 1536 1536 1529 1529 1529 1529 1529 1529 1529 1529 1529 1529 1529 1529 1529 1529 1529 1536 1536 1536 1536 1536 1536 1536 1536 1536 1536 1536 1536 1536 1536 1536 1529 1529 1529 1529 1523 1523 1523 1516 1516 1516 1516 1523 1523 1523 1523 1523 1523 1523 1523 1523 1523 1523 1523 1523 1523 1523 1523 1523 1523 1523 1523 1529 1523 1523 1523 1523 1523 1523 1523 1523 1523 1523 1523 1523 1523 1523 1523 1529 1529 1529 1354 1354 1354 1354 1354 1354 1349 1349 1343 1343 1343 1338 1338 1338 1338 1338 1333 1333 1328 1328 1328 1328 1516 1516 1516 1516 1516 1516 1523 1523 1523 1523 1523 1523 1523 1523 1523 1523 1523 1523 1523 1523 1523 1523 1516 1516 1523 1523 1523 1516 1516 1523 1523 1516 1516 1523 1523 1523 1523 1523 1523 1523 1529 1536 1536 1536 1536 1536 1536 1536 1536 1536 1536 1536 1543 1543 1543 1543 1543 1543 1550 1550 1550 1550 1550 1550 0 0 0 0 0 0
0 0 0 0 0 0 0 0 0 0 0 0 0 0 0 0 0 0 0 0 0 0 0 0 0 0 0 0 0 0 0 0 0 0 0 0 1483 1483 1483 1489 1489 1496 1496 1496 1496 1496 1496 1496 1496 1496 1496 1496 1496 1496 1496 1496 1503 1503 1503 1509 1509 1503 1503 1509 1509 1509 1509 1509 1509 1516 1516 1516 1509 1509 1509 1509 1509 1509 1509 1509 1509 1509 1509 1509 1509 1509 1509 1509 1509 1509 1509 1516 1516 1516 1516 1516 1516 1516 1516 1516 1516 1516 1516 1516 1516 1509 1509 1509 1509 1509 1516 1509 1509 1509 1509 1509 1509 1509 1509 1509 1509 1509 1509 1516 1509 1509 1509 1509 1516 1516 1516 1516 1516 1516 1509 1509 1509 1509 1509 1509 1516 1516 1516 1516 1516 1516 1516 1516 1509 1509 1516 1516 1516 1516 1516 1516 1516 1523 1509 1509 1503 1503 1509 1509 1503 1503 1509 1516 1516 1509 1503 1503 1509 1509 1509 1509 1509 1509 1509 1516 1509 1509 1516 1516 1516 1516 1516 1516 1509 1509 1509 1509 1509 1509 1509 1509 1509 1516 1509 1509 1509 1509 1516 1516 1516 1516 1523 1523 1523 1523 1523 1523 1523 1523 1523 1523 1516 1516 1516 1523 1523 1523 1523 1523 1523 1523 1523 1523 1523 1523 1523 1529 1529 1529 1523 1523 1523 1523 1523 1523 1523 1523 1529 1529 1523 1523 1523 1523 1523 1523 1516 1516 1523 1523 1523 1523 1523 1523 1529 1523 1523 1523 1523 1523 1523 1523 1523 1523 1523 1523 1523 1523 1523 1523 1523 1523 1523 1523 1523 1529 1523 1523 1523 1523 1523 1523 1523 1523 1523 1529 1529 1529 1529 1523 1523 1529 1529 1529 1529 1529 1529 1529 1529 1529 1529 1536 1529 1529 1536 1536 1536 1536 1536 1536 1536 1529 1529 1529 1529 1529 1529 1523 1523 1523 1523 1523 1523 1523 1529 1529 1516 1516 1516 1523 1523 1529 1523 1523 1529 1529 1529 1523 1523 1523 1523 1523 1523 1523 1523 1523 1523 1523 1523 1523 1523 1523 1523 1523 1523 1523 1523 1523 1523 1523 1529 1523 1523 1523 1523 1523 1523 1523 1523 1523 1523 1523 1523 1523 1523 1523 1523 1523 1523 1523 1516 1516 1516 1523 1523 1523 1523 1523 1529 1529 1529 1529 1529 1529 1529 1529 1529 1529 1536 1536 1536 1536 1536 1536 1536 1529 1529 1529 1529 1529 1529 1529 1529 1529 1529 1529 1529 1529 1529 1536 1529 1529 1529 1529 1529 1529 1529 1529 1536 1387 1381 1381 1376 1376 1376 1370 1370 1365 1365 1365 1365 1365 1359 1359 1529 1529 1529 1529 1529 1529 1529 1536 1536 1536 1529 1529 1529 1529 1529 1529 1529 1529 1529 1529 1529 1529 1529 1529 1529 1529 1529 1529 1529 1529 1529 1529 1529 1529 1529 1529 1529 1529 1529 1529 1529 1536 1536 1529 1529 1536 1536 1536 1536 1529 1529 1529 1529 1529 1523 1516 1516 1516 1516 1516 1516 1523 1523 1523 1523 1523 1523 1523 1516 1516 1516 1516 1516 1516 1516 1516 1523 1523 1523 1523 1523 1523 1523 1523 1523 1523 1516 1516 1516 1516 1516 1516 1523 1523 1523 1523 1523 1523 1523 1529 1354 1354 1354 1354 1354 1354 1349 1349 1343 1343 1343 1338 1338 1338 1338 1338 1333 1333 1328 1328 1328 1328 1516 1516 1516 1516 1516 1516 1523 1523 1523 1523 1523 1523 1516 1516 1516 1516 1516 1516 1509 1509 1509 1509 1509 1509 1516 1516 1516 1516 1516 1523 1523 1516 1516 1516 1516 1516 1523 1523 1523 1523 1523 1523 1523 1523 1523 1523 1529 1529 1529 1529 1536 1536 1536 1543 1543 1543 1543 1543 1543 1550 1550 1550 1550 1550 0 0 0 0 0 0
0 0 0 0 0 0 0 0 0 0 0 0 0 0 0 0 0 0 0 0 0 0 0 0 0 0 0 0 0 0 0 0 0 0 0 0 1483 1483 1483 1489 1489 1489 1489 1496 1496 1496 1496 1496 1496 1496 1496 1496 1489 1489 1489 1489 1496 1496 1503 1503 1503 1503 1503 1509 1509 1509 1509 1509 1509 1516 1509 1509 1503 1503 1503 1503 1509 1509 1509 1509 1509 1509 1509 1509 1509 1509 1509 1509 1509 1509 1509 1509 1509 1509 1509 1509 1509 1509 1516 1509 1509 1509 1509 1509 1509 1509 1509 1509 1509 1509 1509 1509 1509 1509 1509 1509 1509 1509 1509 1509 1509 1509 1509 1509 1509 1509 1509 1509 1509 1509 1509 1509 1516 1516 1509 1509 1509 1509 1509 1509 1509 1509 1509 1509 1509 1509 1509 1509 1509 1509 1509 1509 1509 1509 1509 1516 1516 1516 1503 1503 1503 1503 1503 1509 1503 1503 1509 1503 1503 1503 1503 1503 1503 1503 1503 1503 1503 1503 1509 1509 1503 1503 1509 1516 1516 1516 1516 1509 1503 1503 1509 1509 1503 1503 1503 1503 1503 1509 1509 1509 1509 1509 1516 1516 1516 1516 1516 1516 1516 1516 1516 1516 1516 1523 1516 1516 1516 1516 1516 1516 1523 1523 1523 1523 1523 1523 1523 1523 1523 1523 1523 1523 1523 1523 1523 1523 1523 1523 1523 1523 1523 1523 1523 1523 1516 1516 1516 1516 1516 1516 1516 1516 1516 1516 1516 1516 1523 1523 1523 1523 1516 1516 1523 1523 1523 1523 1523 1523 1523 1523 1523 1523 1523 1523 1523 1516 1516 1523 1523 1523 1523 1516 1516 1523 1523 1523 1523 1523 1523 1523 1523 1523 1523 1523 1523 1523 1523 1523 1523 1523 1523 1523 1523 1529 1529 1536 1529 1529 1529 1529 1529 1523 1523 1523 1523 1523 1523 1523 1523 1523 1523 1523 1523 1523 1523 1523 1523 1523 1523 1523 1516 1516 1516 1516 1516 1523 1523 1523 1523 1523 1523 1516 1516 1523 1523 1523 1523 1523 1523 1523 1523 1523 1523 1523 1523 1523 1523 1523 1523 1523 1523 1516 1516 1523 1529 1523 1523 1523 1523 1523 1523 1523 1516 1516 1523 1516 1516 1516 1523 1516 1516 1516 1516 1516 1516 1516 1516 1523 1523 1523 1523 1523 1523 1529 1529 1529 1529 1529 1529 1529 1529 1529 1529 1529 1529 1529 1536 1529 1529 1529 1529 1529 1529 1529 1529 1529 1523 1523 1516 1516 1516 1516 1516 1516 1516 1523 1523 1523 1529 1529 1529 1529 1536 1536 1381 1376 1376 1376 1376 1370 1370 1370 1365 1365 1365 1365 1359 1359 1529 1529 1523 1523 1529 1523 1523 1529 1529 1529 1523 1523 1523 1523 1523 1523 1523 1523 1523 1529 1523 1523 1523 1523 1523 1523 1523 1523 1529 1529 1523 1523 1529 1529 1529 1529 1529 1529 1529 1529 1529 1529 1529 1529 1529 1529 1529 1529 1529 1529 1529 1529 1529 1529 1516 1516 1516 1516 1516 1516 1516 1523 1523 1523 1523 1523 1516 1516 1516 1516 1516 1516 1516 1516 1516 1516 1516 1516 1516 1516 1523 1523 1516 1516 1516 1516 1509 1509 1509 1509 1509 1516 1516 1516 1516 1523 1523 1523 1523 1529 1354 1354 1354 1354 1354 1354 1349 1349 1343 1343 1343 1343 1338 1338 1338 1338 1333 1333 1328 1328 1328 1328 1509 1509 1516 1509 1509 1516 1516 1516 1516 1516 1516 1516 1509 1509 1509 1509 1509 1509 1509 1509 1509 1509 1503 1503 1509 1509 1509 1503 1503 1516 1516 1509 1509 1516 1516 1516 1516 1516 1516 1516 1523 1523 1523 1523 1523 1523 1523 1529 1529 1529 1529 1536 1536 1536 1536 1543 1543 1543 1543 1543 1550 1550 1550 1550 0 0 0 0 0 0
0 0 0 0 0 0 0 0 0 0 0 0 0 0 0 0 0 0 0 0 0 0 0 0 0 0 0 0 0 0 0 0 0 0 0 0 1470 1470 1477 1483 1483 1483 1483 1489 1489 1489 1489 1496 1496 1496 1489 1489 1489 1489 1489 1489 1489 1496 1503 1503 1503 1503 1503 1509 1509 1509 1509 1509 1509 1509 1509 1509 1503 1503 1503 1503 1509 1509 1509 1509 1509 1509 1509 1509 1509 1509 1509 1509 1509 1509 1509 1509 1509 1509 1509 1509 1509 1509 1509 1509 1509 1509 1509 1509 1509 1509 1509 1509 1509 1509 1509 1509 1509 1509 1509 1509 1509 1509 1509 1503 1503 1503 1509 1509 1509 1509 1509 1509 1509 1509 1509 1509 1509 1509 1509 1509 1509 1503 1503 1509 1509 1509 1509 1509 1509 1503 1503 1503 1503 1503 1503 1509 1509 1509 1509 1509 1509 1509 1496 1496 1496 1496 1496 1496 1496 1503 1503 1503 1496 1496 1503 1503 1503 1503 1503 1503 1503 1503 1503 1503 1503 1503 1503 1509 1509 1509 1503 1503 1503 1503 1503 1503 1503 1503 1503 1503 1503 1503 1503 1503 1503 1503 1509 1509 1509 1509 1516 1509 1509 1516 1516 1509 1509 1516 1516 1516 1509 1509 1509 1516 1516 1523 1523 1523 1523 1523 1523 1523 1523 1523 1523 1523 1516 1516 1516 1516 1523 1523 1523 1523 1523 1516 1516 1516 1509 1509 1509 1509 1509 1516 1516 1516 1516 1516 1516 1516 1516 1516 1516 1516 1516 1516 1516 1516 1516 1516 1516 1516 1523 1516 1516 1516 1516 1516 1516 1516 1516 1516 1523 1523 1516 1516 1516 1516 1516 1516 1516 1516 1516 1523 1523 1523 1523 1523 1516 1516 1523 1523 1523 1523 1523 1523 1523 1523 1529 1529 1523 1523 1523 1523 1523 1523 1516 1516 1523 1523 1523 1523 1523 1516 1516 1516 1516 1516 1523 1523 1523 1523 1523 1523 1516 1516 1516 1516 1516 1516 1516 1516 1516 1516 1516 1516 1516 1516 1516 1516 1516 1516 1516 1516 1516 1516 1516 1516 1523 1516 1516 1516 1516 1516 1516 1516 1516 1516 1523 1516 1516 1523 1523 1523 1516 1516 1516 1516 1516 1516 1516 1516 1516 1516 1516 1516 1516 1516 1516 1516 1516 1516 1516 1516 1516 1516 1516 1523 1523 1523 1523 1523 1523 1516 1516 1516 1523 1523 1523 1529 1529 1523 1523 1523 1523 1523 1523 1523 1523 1523 1516 1516 1516 1516 1516 1509 1509 1516 1516 1516 1516 1516 1523 1523 1523 1523 1529 1381 1381 1376 1376 1376 1376 1376 1370 1370 1365 1365 1365 1365 1359 1359 1523 1523 1523 1523 1523 1523 1523 1523 1523 1523 1516 1516 1516 1523 1516 1516 1516 1516 1523 1523 1516 1516 1516 1516 1516 1516 1516 1523 1523 1523 1523 1523 1523 1523 1523 1523 1523 1523 1523 1523 1523 1523 1523 1523 1523 1523 1529 1529 1529 1529 1529 1529 1529 1523 1516 1509 1509 1509 1509 1509 1509 1509 1516 1516 1516 1516 1509 1509 1509 1509 1516 1516 1516 1516 1516 1516 1516 1516 1516 1516 1516 1516 1516 1516 1516 1516 1509 1509 1509 1509 1509 1509 1509 1509 1509 1516 1516 1516 1516 1523 1354 1354 1354 1354 1354 1354 1354 1349 1349 1343 1343 1343 1338 1338 1338 1338 1338 1333 1333 1328 1328 1328 1503 1503 1509 1509 1509 1509 1516 1516 1516 1509 1509 1509 1509 1503 1503 1509 1509 1509 1503 1503 1503 1503 1503 1503 1503 1503 1503 1503 1503 1509 1509 1509 1509 1516 1516 1516 1516 1516 1516 1516 1516 1516 1516 1509 1509 1516 1523 1523 1523 1529 1529 1529 1529 1536 1536 1536 1543 1543 1543 1543 1543 1543 1543 1543 0 0 0 0 0 0
0 0 0 0 0 0 0 0 0 0 0 0 0 0 0 0 0 0 0 0 0 0 0 0 0 0 0 0 0 0 0 0 0 0 0 0 1470 1470 1470 1470 1477 1477 1477 1483 1483 1489 1489 1489 1489 1489 1489 1489 1489 1489 1489 1489 1489 1496 1503 1503 1503 1503 1503 1503 1503 1503 1509 1509 1509 1509 1509 1509 1503 1503 1503 1503 1503 1503 1503 1503 1503 1496 1496 1503 1503 1503 1503 1503 1503 1503 1503 1503 1503 1503 1503 1509 1509 1509 1509 1509 1509 1509 1509 1503 1503 1503 1503 1503 1503 1503 1503 1503 1503 1503 1503 1503 1503 1503 1503 1503 1503 1503 1503 1503 1503 1503 1503 1503 1509 1509 1509 1509 1509 1509 1503 1503 1503 1503 1503 1503 1503 1503 1503 1503 1503 1503 1503 1503 1503 1503 1503 1503 1503 1503 1503 1509 1509 1509 1496 1496 1496 1496 1489 1489 1496 1496 1503 1496 1496 1496 1496 1503 1503 1503 1496 1496 1503 1503 1503 1503 1496 1496 1503 1503 1503 1503 1503 1503 1503 1503 1503 1503 1503 1503 1503 1503 1503 1503 1503 1496 1496 1503 1503 1503 1509 1503 1503 1503 1503 1503 1503 1503 1503 1509 1509 1509 1509 1509 1509 1509 1516 1516 1523 1523 1523 1523 1523 1523 1516 1516 1516 1516 1509 1509 1509 1509 1516 1516 1516 1516 1516 1516 1516 1516 1509 1509 1509 1509 1509 1509 1509 1509 1509 1509 1509 1509 1516 1516 1509 1509 1509 1516 1516 1516 1516 1516 1516 1516 1509 1509 1509 1509 1509 1516 1516 1516 1516 1516 1516 1516 1516 1516 1516 1516 1516 1516 1516 1516 1516 1516 1516 1516 1516 1516 1516 1516 1516 1516 1516 1516 1516 1516 1523 1523 1529 1529 1523 1523 1523 1523 1523 1516 1516 1516 1516 1516 1516 1516 1516 1516 1516 1516 1516 1516 1516 1523 1523 1523 1523 1523 1516 1516 1516 1516 1516 1516 1509 1509 1516 1509 1509 1509 1509 1516 1516 1516 1516 1516 1516 1516 1516 1516 1516 1516 1516 1516 1516 1516 1516 1516 1516 1516 1516 1516 1523 1516 1516 1516 1516 1516 1516 1516 1516 1516 1516 1516 1516 1516 1516 1516 1516 1516 1516 1516 1516 1516 1516 1516 1516 1509 1509 1516 1516 1516 1516 1516 1516 1516 1516 1516 1516 1516 1516 1516 1523 1516 1516 1516 1516 1523 1523 1523 1523 1516 1516 1523 1516 1509 1509 1509 1509 1509 1509 1516 1516 1509 1509 1509 1516 1516 1523 1523 1523 1381 1381 1376 1376 1376 1376 1370 1370 1370 1365 1365 1365 1365 1359 1359 1359 1516 1516 1516 1523 1516 1516 1523 1516 1516 1516 1516 1509 1509 1516 1516 1516 1516 1516 1516 1516 1516 1516 1516 1516 1516 1516 1516 1523 1523 1516 1516 1523 1523 1516 1516 1516 1516 1516 1516 1516 1516 1516 1516 1516 1523 1523 1523 1523 1523 1523 1523 1523 1516 1509 1509 1509 1509 1509 1509 1509 1509 1509 1509 1509 1509 1503 1503 1509 1509 1509 1509 1509 1509 1509 1509 1509 1509 1509 1509 1509 1509 1509 1509 1509 1509 1509 1509 1509 1503 1503 1503 1503 1503 1503 1509 1509 1509 1509 1354 1354 1354 1354 1354 1354 1354 1354 1349 1349 1349 1343 1343 1343 1338 1338 1338 1338 1333 1333 1333 1333 1333 1503 1503 1503 1503 1503 1509 1509 1509 1509 1509 1503 1503 1503 1503 1503 1503 1503 1503 1503 1503 1503 1503 1496 1496 1503 1503 1503 1503 1503 1503 1503 1503 1503 1509 1509 1509 1509 1509 1509 1509 1503 1503 1509 1509 1509 1509 1516 1523 1523 1523 1529 1529 1529 1529 1529 1536 1536 1536 1536 1543 1543 1543 1543 1543 0 0 0 0 0 0
0 0 0 0 0 0 0 0 0 0 0 0 0 0 0 0 0 0 0 0 0 0 0 0 0 0 0 0 0 0 0 0 0 0 0 0 1470 1470 1470 1470 1477 1477 1477 1483 1483 1489 1489 1489 1489 1489 1489 1489 1489 1489 1489 1489 1489 1496 1503 1503 1503 1503 1503 1503 1503 1503 1509 1509 1509 1509 1509 1509 1503 1503 1503 1503 1503 1503 1503 1503 1503 1496 1496 1503 1503 1503 1503 1503 1503 1503 1503 1503 1503 1503 1503 1509 1509 1509 1509 1509 1509 1509 1509 1503 1503 1503 1503 1503 1503 1503 1503 1503 1503 1503 1503 1503 1503 1503 1503 1503 1503 1503 1503 1503 1503 1503 1503 1503 1509 1509 1509 1509 1509 1509 1503 1503 1503 1503 1503 1503 1503 1503 1503 1503 1503 1503 1503 1503 1503 1503 1503 1503 1503 1503 1503 1509 1509 1509 1496 1496 1496 1496 1489 1489 1496 1496 1503 1496 1496 1496 1496 1503 1503 1503 1496 1496 1503 1503 1503 1503 1496 1496 1503 1503 1503 1503 1503 1503 1503 1503 1503 1503 1503 1503 1503 1503 1503 1503 1503 1496 1496 1503 1503 1503 1509 1503 1503 1503 1503 1503 1503 1503 1503 1509 1509 1509 1509 1509 1509 1509 1516 1516 1523 1523 1523 1523 1523 1523 1516 1516 1516 1516 1509 1509 1509 1509 1516 1516 1516 1516 1516 1516 1516 1516 1509 1509 1509 1509 1509 1509 1509 1509 1509 1509 1509 1509 1516 1516 1509 1509 1509 1516 1516 1516 1516 1516 1516 1516 1509 1509 1509 1509 1509 1516 1516 1516 1516 1516 1516 1516 1516 1516 1516 1516 1516 1516 1516 1516 1516 1516 1516 1516 1516 1516 1516 1516 1516 1516 1516 1516 1516 1516 1523 1523 1529 1529 1523 1523 1523 1523 1523 1516 1516 1516 1516 1516 1516 1516 1516 1516 1516 1516 1516 1516 1516 1523 1523 1523 1523 1523 1516 1516 1516 1516 1516 1516 1509 1509 1516 1509 1509 1509 1509 1516 1516 1516 1516 1516 1516 1516 1516 1516 1516 1516 1516 1516 1516 1516 1516 1516 1516 1516 1516 1516 1523 1516 1516 1516 1516 1516 1516 1516 1516 1516 1516 1516 1516 1516 1516 1516 1516 1516 1516 1516 1516 1516 1516 1516 1516 1509 1509 1516 1516 1516 1516 1516 1516 1516 1516 1516 1516 1516 1516 1516 1523 1516 1516 1516 1516 1523 1523 1523 1523 1516 1516 1523 1516 1509 1509 1509 1509 1509 1509 1516 1516 1509 1509 1509 1516 1516 1523 1523 1523 1381 1381 1376 1376 1376 1376 1370 1370 1370 1365 1365 1365 1365 1359 1359 1359 1516 1516 1516 1516 1516 1516 1516 1509 1509 1509 1509 1509 1509 1509 1509 1509 1509 1509 1509 1509 1509 1509 1509 1509 1509 1509 1516 1516 1516 1516 1516 1516 1516 1516 1509 1509 1509 1509 1509 1516 1516 1516 1516 1516 1516 1516 1516 1516 1516 1516 1516 1516 1516 1509 1509 1509 1509 1509 1503 1503 1509 1509 1503 1503 1503 1503 1503 1503 1503 1503 1509 1509 1509 1509 1509 1509 1509 1509 1509 1509 1509 1509 1503 1503 1503 1503 1503 1503 1503 1503 1503 1503 1503 1503 1503 1503 1509 1509 1354 1354 1354 1359 1359 1354 1354 1354 1354 1349 1349 1343 1343 1343 1338 1338 1338 1338 1338 1333 1333 1333 1503 1503 1503 1503 1503 1503 1503 1503 1503 1503 1503 1503 1503 1503 1503 1503 1503 1503 1503 1496 1496 1496 1496 1496 1496 1496 1496 1496 1496 1496 1496 1496 1503 1503 1503 1509 1509 1509 1509 1509 1509 1503 1503 1503 1503 1503 1503 1516 1523 1523 1523 1523 1523 1529 1529 1529 1529 1536 1529 1529 1536 1536 1543 1543 1543 0 0 0 0 0 0
0 0 0 0 0 0 0 0 0 0 0 0 0 0 0 0 0 0 0 0 0 0 0 0 0 0 0 0 0 0 0 0 0 0 0 0 0 0 0 0 0 0 0 0 0 0 0 0 0 0 0 0 0 0 0 0 0 0 0 0 0 0 0 0 0 0 0 0 0 0 0 0 0 0 0 0 0 0 0 0 0 0 0 0 0 0 0 0 0 0 0 0 0 0 0 0 0 0 0 0 0 0 0 0 0 0 0 0 0 0 0 0 0 0 0 0 0 0 0 0 0 0 0 0 0 0 0 0 0 0 0 0 0 0 0 0 0 0 0 0 0 0 0 0 0 0 0 0 0 0 0 0 0 0 0 0 0 0 0 0 0 0 0 0 0 0 0 0 0 0 0 0 0 0 0 0 0 0 0 0 0 0 0 0 0 0 0 0 0 0 0 0 0 0 0 0 0 0 0 0 0 0 0 0 0 0 0 0 0 0 0 0 0 0 0 0 0 0 0 0 0 0 0 0 0 0 0 0 0 0 0 0 0 0 0 0 0 0 0 0 0 0 0 0 0 0 0 0 0 0 0 0 0 0 0 0 0 0 0 0 0 0 0 0 0 0 0 0 0 0 0 0 0 0 0 0 0 0 0 0 0 0 0 0 0 0 0 0 0 0 0 0 0 0 0 0 0 0 0 0 0 0 0 0 0 0 0 0 0 0 0 0 0 0 0 0 0 0 0 0 0 0 0 0 0 0 0 0 0 0 0 0 0 0 0 0 0 0 0 0 0 0 0 0 0 0 0 0 0 0 0 0 0 0 0 0 0 0 0 0 0 0 0 0 0 0 0 0 0 0 0 0 0 0 0 0 0 0 0 0 0 0 0 0 0 0 0 0 0 0 0 0 0 0 0 0 0 0 0 0 0 0 0 0 0 0 0 0 0 0 0 0 0 0 0 0 0 0 0 0 0 0 0 0 0 0 0 0 0 0 0 0 0 0 0 0 0 0 0 0 0 0 0 0 0 0 0 0 0 0 0 1516 1516 1516 1516 1516 1509 1509 1509 1509 1509 1509 1509 1509 1509 1509 1509 1509 1509 1509 1509 1509 1509 1509 1509 1516 1516 1516 1516 1516 1516 1516 1516 1509 1509 1509 1509 1509 1516 1516 1516 1516 1516 1516 1516 1516 1516 1516 1516 1516 1516 1516 1509 1509 1509 1509 1509 1503 1503 1509 1509 1503 1503 1503 1503 1503 1503 1503 1503 1509 1509 1509 1509 1509 1509 1509 1509 1509 1509 1509 1509 1503 1503 1503 1503 1503 1503 1503 1503 1503 1503 1503 1503 1503 1503 1509 1509 1354 1354 1354 1359 1359 1359 1354 1354 1354 1354 1349 1343 1343 1343 1338 1338 1338 1338 1338 1333 1333 1333 1503 1503 1503 1503 1503 1503 1503 1503 1503 1503 1503 1503 1503 1503 1503 1503 1503 1503 1503 1496 1496 1496 1496 1496 1496 1496 1496 1496 1496 1496 1496 1496 1503 1503 1503 1509 1509 1509 1509 1509 1509 1509 1503 1503 1503 1503 1503 1523 1516 1516 1523 1523 1523 1523 1523 1523 1523 1529 1529 1529 1529 1536 1536 1543 1543 0 0 0 0 0 0
0 0 0 0 0 0 0 0 0 0 0 0 0 0 0 0 0 0 0 0 0 0 0 0 0 0 0 0 0 0 0 0 0 0 0 0 0 0 0 0 0 0 0 0 0 0 0 0 0 0 0 0 0 0 0 0 0 0 0 0 0 0 0 0 0 0 0 0 0 0 0 0 0 0 0 0 0 0 0 0 0 0 0 0 0 0 0 0 0 0 0 0 0 0 0 0 0 0 0 0 0 0 0 0 0 0 0 0 0 0 0 0 0 0 0 0 0 0 0 0 0 0 0 0 0 0 0 0 0 0 0 0 0 0 0 0 0 0 0 0 0 0 0 0 0 0 0 0 0 0 0 0 0 0 0 0 0 0 0 0 0 0 0 0 0 0 0 0 0 0 0 0 0 0 0 0 0 0 0 0 0 0 0 0 0 0 0 0 0 0 0 0 0 0 0 0 0 0 0 0 0 0 0 0 0 0 0 0 0 0 0 0 0 0 0 0 0 0 0 0 0 0 0 0 0 0 0 0 0 0 0 0 0 0 0 0 0 0 0 0 0 0 0 0 0 0 0 0 0 0 0 0 0 0 0 0 0 0 0 0 0 0 0 0 0 0 0 0 0 0 0 0 0 0 0 0 0 0 0 0 0 0 0 0 0 0 0 0 0 0 0 0 0 0 0 0 0 0 0 0 0 0 0 0 0 0 0 0 0 0 0 0 0 0 0 0 0 0 0 0 0 0 0 0 0 0 0 0 0 0 0 0 0 0 0 0 0 0 0 0 0 0 0 0 0 0 0 0 0 0 0 0 0 0 0 0 0 0 0 0 0 0 0 0 0 0 0 0 0 0 0 0 0 0 0 0 0 0 0 0 0 0 0 0 0 0 0 0 0 0 0 0 0 0 0 0 0 0 0 0 0 0 0 0 0 0 0 0 0 0 0 0 0 0 0 0 0 0 0 0 0 0 0 0 0 0 0 0 0 0 0 0 0 0 0 0 0 0 0 0 0 0 0 0 0 0 0 0 0 0 0 0 0 0 0 0 0 0 0 0 0 0 0 0 0 0 0 0 0 0 0 0 0 0 0 0 0 0 0 0 0 0 0 0 0 0 0 0 0 0 0 0 0 0 0 0 0 0 0 0 0 0 0 0 0 0 0 0 0 0 0 0 0 0 0 0 0 0 0 0 0 0 0 0 0 0 0 0 0 0 0 0 0 0 0 0 0 0 0 0 0 0 0 0 0 0 0 0 0 0 0 0 0 0 0 0 0 0 0 0 0 0 0 0 0 0 0 0 0 0 0 0 0 0 0 0 0 0 0 0 0 0 0 0 0 0 0 0 0 0 0 0 0 0 0 0 0 0 0 0 0 0 0 0 0 0 0 0 0 0 0 0 0 0 0 0 1523 1516 1516 1523 1523 1523 1523 1523 1523 1523 1529 1529 1529 1529 1536 1536 1543 1543 0 0 0 0 0 0
0 0 0 0 0 0 0 0 0 0 0 0 0 0 0 0 0 0 0 0 0 0 0 0 0 0 0 0 0 0 0 0 0 0 0 0 0 0 0 0 0 0 0 0 0 0 0 0 0 0 0 0 0 0 0 0 0 0 0 0 0 0 0 0 0 0 0 0 0 0 0 0 0 0 0 0 0 0 0 0 0 0 0 0 0 0 0 0 0 0 0 0 0 0 0 0 0 0 0 0 0 0 0 0 0 0 0 0 0 0 0 0 0 0 0 0 0 0 0 0 0 0 0 0 0 0 0 0 0 0 0 0 0 0 0 0 0 0 0 0 0 0 0 0 0 0 0 0 0 0 0 0 0 0 0 0 0 0 0 0 0 0 0 0 0 0 0 0 0 0 0 0 0 0 0 0 0 0 0 0 0 0 0 0 0 0 0 0 0 0 0 0 0 0 0 0 0 0 0 0 0 0 0 0 0 0 0 0 0 0 0 0 0 0 0 0 0 0 0 0 0 0 0 0 0 0 0 0 0 0 0 0 0 0 0 0 0 0 0 0 0 0 0 0 0 0 0 0 0 0 0 0 0 0 0 0 0 0 0 0 0 0 0 0 0 0 0 0 0 0 0 0 0 0 0 0 0 0 0 0 0 0 0 0 0 0 0 0 0 0 0 0 0 0 0 0 0 0 0 0 0 0 0 0 0 0 0 0 0 0 0 0 0 0 0 0 0 0 0 0 0 0 0 0 0 0 0 0 0 0 0 0 0 0 0 0 0 0 0 0 0 0 0 0 0 0 0 0 0 0 0 0 0 0 0 0 0 0 0 0 0 0 0 0 0 0 0 0 0 0 0 0 0 0 0 0 0 0 0 0 0 0 0 0 0 0 0 0 0 0 0 0 0 0 0 0 0 0 0 0 0 0 0 0 0 0 0 0 0 0 0 0 0 0 0 0 0 0 0 0 0 0 0 0 0 0 0 0 0 0 0 0 0 0 0 0 0 0 0 0 0 0 0 0 0 0 0 0 0 0 0 0 0 0 0 0 0 0 0 0 0 0 0 0 0 0 0 0 0 0 0 0 0 0 0 0 0 0 0 0 0 0 0 0 0 0 0 0 0 0 0 0 0 0 0 0 0 0 0 0 0 0 0 0 0 0 0 0 0 0 0 0 0 0 0 0 0 0 0 0 0 0 0 0 0 0 0 0 0 0 0 0 0 0 0 0 0 0 0 0 0 0 0 0 0 0 0 0 0 0 0 0 0 0 0 0 0 0 0 0 0 0 0 0 0 0 0 0 0 0 0 0 0 0 0 0 0 0 0 0 0 0 0 0 0 0 0 0 0 0 0 0 0 0 0 0 0 0 0 0 0 0 0 0 0 0 0 0 0 0 0 0 0 0 0 0 0 0 0 0 0 0 0 0 0 0 0 0 0 0 0 0 0 0 0 0 0 0 0 0
0 0 0 0 0 0 0 0 0 0 0 0 0 0 0 0 0 0 0 0 0 0 0 0 0 0 0 0 0 0 0 0 0 0 0 0 0 0 0 0 0 0 0 0 0 0 0 0 0 0 0 0 0 0 0 0 0 0 0 0 0 0 0 0 0 0 0 0 0 0 0 0 0 0 0 0 0 0 0 0 0 0 0 0 0 0 0 0 0 0 0 0 0 0 0 0 0 0 0 0 0 0 0 0 0 0 0 0 0 0 0 0 0 0 0 0 0 0 0 0 0 0 0 0 0 0 0 0 0 0 0 0 0 0 0 0 0 0 0 0 0 0 0 0 0 0 0 0 0 0 0 0 0 0 0 0 0 0 0 0 0 0 0 0 0 0 0 0 0 0 0 0 0 0 0 0 0 0 0 0 0 0 0 0 0 0 0 0 0 0 0 0 0 0 0 0 0 0 0 0 0 0 0 0 0 0 0 0 0 0 0 0 0 0 0 0 0 0 0 0 0 0 0 0 0 0 0 0 0 0 0 0 0 0 0 0 0 0 0 0 0 0 0 0 0 0 0 0 0 0 0 0 0 0 0 0 0 0 0 0 0 0 0 0 0 0 0 0 0 0 0 0 0 0 0 0 0 0 0 0 0 0 0 0 0 0 0 0 0 0 0 0 0 0 0 0 0 0 0 0 0 0 0 0 0 0 0 0 0 0 0 0 0 0 0 0 0 0 0 0 0 0 0 0 0 0 0 0 0 0 0 0 0 0 0 0 0 0 0 0 0 0 0 0 0 0 0 0 0 0 0 0 0 0 0 0 0 0 0 0 0 0 0 0 0 0 0 0 0 0 0 0 0 0 0 0 0 0 0 0 0 0 0 0 0 0 0 0 0 0 0 0 0 0 0 0 0 0 0 0 0 0 0 0 0 0 0 0 0 0 0 0 0 0 0 0 0 0 0 0 0 0 0 0 0 0 0 0 0 0 0 0 0 0 0 0 0 0 0 0 0 0 0 0 0 0 0 0 0 0 0 0 0 0 0 0 0 0 0 0 0 0 0 0 0 0 0 0 0 0 0 0 0 0 0 0 0 0 0 0 0 0 0 0 0 0 0 0 0 0 0 0 0 0 0 0 0 0 0 0 0 0 0 0 0 0 0 0 0 0 0 0 0 0 0 0 0 0 0 0 0 0 0 0 0 0 0 0 0 0 0 0 0 0 0 0 0 0 0 0 0 0 0 0 0 0 0 0 0 0 0 0 0 0 0 0 0 0 0 0 0 0 0 0 0 0 0 0 0 0 0 0 0 0 0 0 0 0 0 0 0 0 0 0 0 0 0 0 0 0 0 0 0 0 0 0 0 0 0 0 0 0 0 0 0 0 0 0 0 0 0 0 0 0 0 0 0 0 0 0 0 0 0 0 0 0 0 0 0 0 0 0 0 0 0 0 0 0 0 0
0 0 0 0 0 0 0 0 0 0 0 0 0 0 0 0 0 0 0 0 0 0 0 0 0 0 0 0 0 0 0 0 0 0 0 0 0 0 0 0 0 0 0 0 0 0 0 0 0 0 0 0 0 0 0 0 0 0 0 0 0 0 0 0 0 0 0 0 0 0 0 0 0 0 0 0 0 0 0 0 0 0 0 0 0 0 0 0 0 0 0 0 0 0 0 0 0 0 0 0 0 0 0 0 0 0 0 0 0 0 0 0 0 0 0 0 0 0 0 0 0 0 0 0 0 0 0 0 0 0 0 0 0 0 0 0 0 0 0 0 0 0 0 0 0 0 0 0 0 0 0 0 0 0 0 0 0 0 0 0 0 0 0 0 0 0 0 0 0 0 0 0 0 0 0 0 0 0 0 0 0 0 0 0 0 0 0 0 0 0 0 0 0 0 0 0 0 0 0 0 0 0 0 0 0 0 0 0 0 0 0 0 0 0 0 0 0 0 0 0 0 0 0 0 0 0 0 0 0 0 0 0 0 0 0 0 0 0 0 0 0 0 0 0 0 0 0 0 0 0 0 0 0 0 0 0 0 0 0 0 0 0 0 0 0 0 0 0 0 0 0 0 0 0 0 0 0 0 0 0 0 0 0 0 0 0 0 0 0 0 0 0 0 0 0 0 0 0 0 0 0 0 0 0 0 0 0 0 0 0 0 0 0 0 0 0 0 0 0 0 0 0 0 0 0 0 0 0 0 0 0 0 0 0 0 0 0 0 0 0 0 0 0 0 0 0 0 0 0 0 0 0 0 0 0 0 0 0 0 0 0 0 0 0 0 0 0 0 0 0 0 0 0 0 0 0 0 0 0 0 0 0 0 0 0 0 0 0 0 0 0 0 0 0 0 0 0 0 0 0 0 0 0 0 0 0 0 0 0 0 0 0 0 0 0 0 0 0 0 0 0 0 0 0 0 0 0 0 0 0 0 0 0 0 0 0 0 0 0 0 0 0 0 0 0 0 0 0 0 0 0 0 0 0 0 0 0 0 0 0 0 0 0 0 0 0 0 0 0 0 0 0 0 0 0 0 0 0 0 0 0 0 0 0 0 0 0 0 0 0 0 0 0 0 0 0 0 0 0 0 0 0 0 0 0 0 0 0 0 0 0 0 0 0 0 0 0 0 0 0 0 0 0 0 0 0 0 0 0 0 0 0 0 0 0 0 0 0 0 0 0 0 0 0 0 0 0 0 0 0 0 0 0 0 0 0 0 0 0 0 0 0 0 0 0 0 0 0 0 0 0 0 0 0 0 0 0 0 0 0 0 0 0 0 0 0 0 0 0 0 0 0 0 0 0 0 0 0 0 0 0 0 0 0 0 0 0 0 0 0 0 0 0 0 0 0 0 0 0 0 0 0 0 0 0 0 0 0 0 0 0 0 0 0 0 0 0 0 0 0
0 0 0 0 0 0 0 0 0 0 0 0 0 0 0 0 0 0 0 0 0 0 0 0 0 0 0 0 0 0 0 0 0 0 0 0 0 0 0 0 0 0 0 0 0 0 0 0 0 0 0 0 0 0 0 0 0 0 0 0 0 0 0 0 0 0 0 0 0 0 0 0 0 0 0 0 0 0 0 0 0 0 0 0 0 0 0 0 0 0 0 0 0 0 0 0 0 0 0 0 0 0 0 0 0 0 0 0 0 0 0 0 0 0 0 0 0 0 0 0 0 0 0 0 0 0 0 0 0 0 0 0 0 0 0 0 0 0 0 0 0 0 0 0 0 0 0 0 0 0 0 0 0 0 0 0 0 0 0 0 0 0 0 0 0 0 0 0 0 0 0 0 0 0 0 0 0 0 0 0 0 0 0 0 0 0 0 0 0 0 0 0 0 0 0 0 0 0 0 0 0 0 0 0 0 0 0 0 0 0 0 0 0 0 0 0 0 0 0 0 0 0 0 0 0 0 0 0 0 0 0 0 0 0 0 0 0 0 0 0 0 0 0 0 0 0 0 0 0 0 0 0 0 0 0 0 0 0 0 0 0 0 0 0 0 0 0 0 0 0 0 0 0 0 0 0 0 0 0 0 0 0 0 0 0 0 0 0 0 0 0 0 0 0 0 0 0 0 0 0 0 0 0 0 0 0 0 0 0 0 0 0 0 0 0 0 0 0 0 0 0 0 0 0 0 0 0 0 0 0 0 0 0 0 0 0 0 0 0 0 0 0 0 0 0 0 0 0 0 0 0 0 0 0 0 0 0 0 0 0 0 0 0 0 0 0 0 0 0 0 0 0 0 0 0 0 0 0 0 0 0 0 0 0 0 0 0 0 0 0 0 0 0 0 0 0 0 0 0 0 0 0 0 0 0 0 0 0 0 0 0 0 0 0 0 0 0 0 0 0 0 0 0 0 0 0 0 0 0 0 0 0 0 0 0 0 0 0 0 0 0 0 0 0 0 0 0 0 0 0 0 0 0 0 0 0 0 0 0 0 0 0 0 0 0 0 0 0 0 0 0 0 0 0 0 0 0 0 0 0 0 0 0 0 0 0 0 0 0 0 0 0 0 0 0 0 0 0 0 0 0 0 0 0 0 0 0 0 0 0 0 0 0 0 0 0 0 0 0 0 0 0 0 0 0 0 0 0 0 0 0 0 0 0 0 0 0 0 0 0 0 0 0 0 0 0 0 0 0 0 0 0 0 0 0 0 0 0 0 0 0 0 0 0 0 0 0 0 0 0 0 0 0 0 0 0 0 0 0 0 0 0 0 0 0 0 0 0 0 0 0 0 0 0 0 0 0 0 0 0 0 0 0 0 0 0 0 0 0 0 0 0 0 0 0 0 0 0 0 0 0 0 0 0 0 0 0 0 0 0 0 0 0 0 0 0 0 0 0 0
0 0 0 0 0 0 0 0 0 0 0 0 0 0 0 0 0 0 0 0 0 0 0 0 0 0 0 0 0 0 0 0 0 0 0 0 0 0 0 0 0 0 0 0 0 0 0 0 0 0 0 0 0 0 0 0 0 0 0 0 0 0 0 0 0 0 0 0 0 0 0 0 0 0 0 0 0 0 0 0 0 0 0 0 0 0 0 0 0 0 0 0 0 0 0 0 0 0 0 0 0 0 0 0 0 0 0 0 0 0 0 0 0 0 0 0 0 0 0 0 0 0 0 0 0 0 0 0 0 0 0 0 0 0 0 0 0 0 0 0 0 0 0 0 0 0 0 0 0 0 0 0 0 0 0 0 0 0 0 0 0 0 0 0 0 0 0 0 0 0 0 0 0 0 0 0 0 0 0 0 0 0 0 0 0 0 0 0 0 0 0 0 0 0 0 0 0 0 0 0 0 0 0 0 0 0 0 0 0 0 0 0 0 0 0 0 0 0 0 0 0 0 0 0 0 0 0 0 0 0 0 0 0 0 0 0 0 0 0 0 0 0 0 0 0 0 0 0 0 0 0 0 0 0 0 0 0 0 0 0 0 0 0 0 0 0 0 0 0 0 0 0 0 0 0 0 0 0 0 0 0 0 0 0 0 0 0 0 0 0 0 0 0 0 0 0 0 0 0 0 0 0 0 0 0 0 0 0 0 0 0 0 0 0 0 0 0 0 0 0 0 0 0 0 0 0 0 0 0 0 0 0 0 0 0 0 0 0 0 0 0 0 0 0 0 0 0 0 0 0 0 0 0 0 0 0 0 0 0 0 0 0 0 0 0 0 0 0 0 0 0 0 0 0 0 0 0 0 0 0 0 0 0 0 0 0 0 0 0 0 0 0 0 0 0 0 0 0 0 0 0 0 0 0 0 0 0 0 0 0 0 0 0 0 0 0 0 0 0 0 0 0 0 0 0 0 0 0 0 0 0 0 0 0 0 0 0 0 0 0 0 0 0 0 0 0 0 0 0 0 0 0 0 0 0 0 0 0 0 0 0 0 0 0 0 0 0 0 0 0 0 0 0 0 0 0 0 0 0 0 0 0 0 0 0 0 0 0 0 0 0 0 0 0 0 0 0 0 0 0 0 0 0 0 0 0 0 0 0 0 0 0 0 0 0 0 0 0 0 0 0 0 0 0 0 0 0 0 0 0 0 0 0 0 0 0 0 0 0 0 0 0 0 0 0 0 0 0 0 0 0 0 0 0 0 0 0 0 0 0 0 0 0 0 0 0 0 0 0 0 0 0 0 0 0 0 0 0 0 0 0 0 0 0 0 0 0 0 0 0 0 0 0 0 0 0 0 0 0 0 0 0 0 0 0 0 0 0 0 0 0 0 0 0 0 0 0 0 0 0 0 0 0 0 0 0 0 0 0 0 0 0 0 0 0 0 0 0 0 0
0 0 0 0 0 0 0 0 0 0 0 0 0 0 0 0 0 0 0 0 0 0 0 0 0 0 0 0 0 0 0 0 0 0 0 0 0 0 0 0 0 0 0 0 0 0 0 0 0 0 0 0 0 0 0 0 0 0 0 0 0 0 0 0 0 0 0 0 0 0 0 0 0 0 0 0 0 0 0 0 0 0 0 0 0 0 0 0 0 0 0 0 0 0 0 0 0 0 0 0 0 0 0 0 0 0 0 0 0 0 0 0 0 0 0 0 0 0 0 0 0 0 0 0 0 0 0 0 0 0 0 0 0 0 0 0 0 0 0 0 0 0 0 0 0 0 0 0 0 0 0 0 0 0 0 0 0 0 0 0 0 0 0 0 0 0 0 0 0 0 0 0 0 0 0 0 0 0 0 0 0 0 0 0 0 0 0 0 0 0 0 0 0 0 0 0 0 0 0 0 0 0 0 0 0 0 0 0 0 0 0 0 0 0 0 0 0 0 0 0 0 0 0 0 0 0 0 0 0 0 0 0 0 0 0 0 0 0 0 0 0 0 0 0 0 0 0 0 0 0 0 0 0 0 0 0 0 0 0 0 0 0 0 0 0 0 0 0 0 0 0 0 0 0 0 0 0 0 0 0 0 0 0 0 0 0 0 0 0 0 0 0 0 0 0 0 0 0 0 0 0 0 0 0 0 0 0 0 0 0 0 0 0 0 0 0 0 0 0 0 0 0 0 0 0 0 0 0 0 0 0 0 0 0 0 0 0 0 0 0 0 0 0 0 0 0 0 0 0 0 0 0 0 0 0 0 0 0 0 0 0 0 0 0 0 0 0 0 0 0 0 0 0 0 0 0 0 0 0 0 0 0 0 0 0 0 0 0 0 0 0 0 0 0 0 0 0 0 0 0 0 0 0 0 0 0 0 0 0 0 0 0 0 0 0 0 0 0 0 0 0 0 0 0 0 0 0 0 0 0 0 0 0 0 0 0 0 0 0 0 0 0 0 0 0 0 0 0 0 0 0 0 0 0 0 0 0 0 0 0 0 0 0 0 0 0 0 0 0 0 0 0 0 0 0 0 0 0 0 0 0 0 0 0 0 0 0 0 0 0 0 0 0 0 0 0 0 0 0 0 0 0 0 0 0 0 0 0 0 0 0 0 0 0 0 0 0 0 0 0 0 0 0 0 0 0 0 0 0 0 0 0 0 0 0 0 0 0 0 0 0 0 0 0 0 0 0 0 0 0 0 0 0 0 0 0 0 0 0 0 0 0 0 0 0 0 0 0 0 0 0 0 0 0 0 0 0 0 0 0 0 0 0 0 0 0 0 0 0 0 0 0 0 0 0 0 0 0 0 0 0 0 0 0 0 0 0 0 0 0 0 0 0 0 0 0 0 0 0 0 0 0 0 0 0 0 0 0 0 0 0 0 0 0 0 0 0 0 0 0
0 0 0 0 0 0 0 0 0 0 0 0 0 0 0 0 0 0 0 0 0 0 0 0 0 0 0 0 0 0 0 0 0 0 0 0 0 0 0 0 0 0 0 0 0 0 0 0 0 0 0 0 0 0 0 0 0 0 0 0 0 0 0 0 0 0 0 0 0 0 0 0 0 0 0 0 0 0 0 0 0 0 0 0 0 0 0 0 0 0 0 0 0 0 0 0 0 0 0 0 0 0 0 0 0 0 0 0 0 0 0 0 0 0 0 0 0 0 0 0 0 0 0 0 0 0 0 0 0 0 0 0 0 0 0 0 0 0 0 0 0 0 0 0 0 0 0 0 0 0 0 0 0 0 0 0 0 0 0 0 0 0 0 0 0 0 0 0 0 0 0 0 0 0 0 0 0 0 0 0 0 0 0 0 0 0 0 0 0 0 0 0 0 0 0 0 0 0 0 0 0 0 0 0 0 0 0 0 0 0 0 0 0 0 0 0 0 0 0 0 0 0 0 0 0 0 0 0 0 0 0 0 0 0 0 0 0 0 0 0 0 0 0 0 0 0 0 0 0 0 0 0 0 0 0 0 0 0 0 0 0 0 0 0 0 0 0 0 0 0 0 0 0 0 0 0 0 0 0 0 0 0 0 0 0 0 0 0 0 0 0 0 0 0 0 0 0 0 0 0 0 0 0 0 0 0 0 0 0 0 0 0 0 0 0 0 0 0 0 0 0 0 0 0 0 0 0 0 0 0 0 0 0 0 0 0 0 0 0 0 0 0 0 0 0 0 0 0 0 0 0 0 0 0 0 0 0 0 0 0 0 0 0 0 0 0 0 0 0 0 0 0 0 0 0 0 0 0 0 0 0 0 0 0 0 0 0 0 0 0 0 0 0 0 0 0 0 0 0 0 0 0 0 0 0 0 0 0 0 0 0 0 0 0 0 0 0 0 0 0 0 0 0 0 0 0 0 0 0 0 0 0 0 0 0 0 0 0 0 0 0 0 0 0 0 0 0 0 0 0 0 0 0 0 0 0 0 0 0 0 0 0 0 0 0 0 0 0 0 0 0 0 0 0 0 0 0 0 0 0 0 0 0 0 0 0 0 0 0 0 0 0 0 0 0 0 0 0 0 0 0 0 0 0 0 0 0 0 0 0 0 0 0 0 0 0 0 0 0 0 0 0 0 0 0 0 0 0 0 0 0 0 0 0 0 0 0 0 0 0 0 0 0 0 0 0 0 0 0 0 0 0 0 0 0 0 0 0 0 0 0 0 0 0 0 0 0 0 0 0 0 0 0 0 0 0 0 0 0 0 0 0 0 0 0 0 0 0 0 0 0 0 0 0 0 0 0 0 0 0 0 0 0 0 0 0 0 0 0 0 0 0 0 0 0 0 0 0 0 0 0 0 0 0 0 0 0 0 0 0 0 0 0 0 0 0 0 0 0 0
0 0 0 0 0 0 0 0 0 0 0 0 0 0 0 0 0 0 0 0 0 0 0 0 0 0 0 0 0 0 0 0 0 0 0 0 0 0 0 0 0 0 0 0 0 0 0 0 0 0 0 0 0 0 0 0 0 0 0 0 0 0 0 0 0 0 0 0 0 0 0 0 0 0 0 0 0 0 0 0 0 0 0 0 0 0 0 0 0 0 0 0 0 0 0 0 0 0 0 0 0 0 0 0 0 0 0 0 0 0 0 0 0 0 0 0 0 0 0 0 0 0 0 0 0 0 0 0 0 0 0 0 0 0 0 0 0 0 0 0 0 0 0 0 0 0 0 0 0 0 0 0 0 0 0 0 0 0 0 0 0 0 0 0 0 0 0 0 0 0 0 0 0 0 0 0 0 0 0 0 0 0 0 0 0 0 0 0 0 0 0 0 0 0 0 0 0 0 0 0 0 0 0 0 0 0 0 0 0 0 0 0 0 0 0 0 0 0 0 0 0 0 0 0 0 0 0 0 0 0 0 0 0 0 0 0 0 0 0 0 0 0 0 0 0 0 0 0 0 0 0 0 0 0 0 0 0 0 0 0 0 0 0 0 0 0 0 0 0 0 0 0 0 0 0 0 0 0 0 0 0 0 0 0 0 0 0 0 0 0 0 0 0 0 0 0 0 0 0 0 0 0 0 0 0 0 0 0 0 0 0 0 0 0 0 0 0 0 0 0 0 0 0 0 0 0 0 0 0 0 0 0 0 0 0 0 0 0 0 0 0 0 0 0 0 0 0 0 0 0 0 0 0 0 0 0 0 0 0 0 0 0 0 0 0 0 0 0 0 0 0 0 0 0 0 0 0 0 0 0 0 0 0 0 0 0 0 0 0 0 0 0 0 0 0 0 0 0 0 0 0 0 0 0 0 0 0 0 0 0 0 0 0 0 0 0 0 0 0 0 0 0 0 0 0 0 0 0 0 0 0 0 0 0 0 0 0 0 0 0 0 0 0 0 0 0 0 0 0 0 0 0 0 0 0 0 0 0 0 0 0 0 0 0 0 0 0 0 0 0 0 0 0 0 0 0 0 0 0 0 0 0 0 0 0 0 0 0 0 0 0 0 0 0 0 0 0 0 0 0 0 0 0 0 0 0 0 0 0 0 0 0 0 0 0 0 0 0 0 0 0 0 0 0 0 0 0 0 0 0 0 0 0 0 0 0 0 0 0 0 0 0 0 0 0 0 0 0 0 0 0 0 0 0 0 0 0 0 0 0 0 0 0 0 0 0 0 0 0 0 0 0 0 0 0 0 0 0 0 0 0 0 0 0 0 0 0 0 0 0 0 0 0 0 0 0 0 0 0 0 0 0 0 0 0 0 0 0 0 0 0 0 0 0 0 0 0 0 0 0 0 0 0 0 0 0 0 0 0 0 0 0 0 0 0 0 0 0 0 0
0 0 0 0 0 0 0 0 0 0 0 0 0 0 0 0 0 0 0 0 0 0 0 0 0 0 0 0 0 0 0 0 0 0 0 0 0 0 0 0 0 0 0 0 0 0 0 0 0 0 0 0 0 0 0 0 0 0 0 0 0 0 0 0 0 0 0 0 0 0 0 0 0 0 0 0 0 0 0 0 0 0 0 0 0 0 0 0 0 0 0 0 0 0 0 0 0 0 0 0 0 0 0 0 0 0 0 0 0 0 0 0 0 0 0 0 0 0 0 0 0 0 0 0 0 0 0 0 0 0 0 0 0 0 0 0 0 0 0 0 0 0 0 0 0 0 0 0 0 0 0 0 0 0 0 0 0 0 0 0 0 0 0 0 0 0 0 0 0 0 0 0 0 0 0 0 0 0 0 0 0 0 0 0 0 0 0 0 0 0 0 0 0 0 0 0 0 0 0 0 0 0 0 0 0 0 0 0 0 0 0 0 0 0 0 0 0 0 0 0 0 0 0 0 0 0 0 0 0 0 0 0 0 0 0 0 0 0 0 0 0 0 0 0 0 0 0 0 0 0 0 0 0 0 0 0 0 0 0 0 0 0 0 0 0 0 0 0 0 0 0 0 0 0 0 0 0 0 0 0 0 0 0 0 0 0 0 0 0 0 0 0 0 0 0 0 0 0 0 0 0 0 0 0 0 0 0 0 0 0 0 0 0 0 0 0 0 0 0 0 0 0 0 0 0 0 0 0 0 0 0 0 0 0 0 0 0 0 0 0 0 0 0 0 0 0 0 0 0 0 0 0 0 0 0 0 0 0 0 0 0 0 0 0 0 0 0 0 0 0 0 0 0 0 0 0 0 0 0 0 0 0 0 0 0 0 0 0 0 0 0 0 0 0 0 0 0 0 0 0 0 0 0 0 0 0 0 0 0 0 0 0 0 0 0 0 0 0 0 0 0 0 0 0 0 0 0 0 0 0 0 0 0 0 0 0 0 0 0 0 0 0 0 0 0 0 0 0 0 0 0 0 0 0 0 0 0 0 0 0 0 0 0 0 0 0 0 0 0 0 0 0 0 0 0 0 0 0 0 0 0 0 0 0 0 0 0 0 0 0 0 0 0 0 0 0 0 0 0 0 0 0 0 0 0 0 0 0 0 0 0 0 0 0 0 0 0 0 0 0 0 0 0 0 0 0 0 0 0 0 0 0 0 0 0 0 0 0 0 0 0 0 0 0 0 0 0 0 0 0 0 0 0 0 0 0 0 0 0 0 0 0 0 0 0 0 0 0 0 0 0 0 0 0 0 0 0 0 0 0 0 0 0 0 0 0 0 0 0 0 0 0 0 0 0 0 0 0 0 0 0 0 0 0 0 0 0 0 0 0 0 0 0 0 0 0 0 0 0 0 0 0 0 0 0 0 0 0 0 0 0 0 0 0 0 0 0 0 0 0
0 0 0 0 0 0 0 0 0 0 0 0 0 0 0 0 0 0 0 0 0 0 0 0 0 0 0 0 0 0 0 0 0 0 0 0 0 0 0 0 0 0 0 0 0 0 0 0 0 0 0 0 0 0 0 0 0 0 0 0 0 0 0 0 0 0 0 0 0 0 0 0 0 0 0 0 0 0 0 0 0 0 0 0 0 0 0 0 0 0 0 0 0 0 0 0 0 0 0 0 0 0 0 0 0 0 0 0 0 0 0 0 0 0 0 0 0 0 0 0 0 0 0 0 0 0 0 0 0 0 0 0 0 0 0 0 0 0 0 0 0 0 0 0 0 0 0 0 0 0 0 0 0 0 0 0 0 0 0 0 0 0 0 0 0 0 0 0 0 0 0 0 0 0 0 0 0 0 0 0 0 0 0 0 0 0 0 0 0 0 0 0 0 0 0 0 0 0 0 0 0 0 0 0 0 0 0 0 0 0 0 0 0 0 0 0 0 0 0 0 0 0 0 0 0 0 0 0 0 0 0 0 0 0 0 0 0 0 0 0 0 0 0 0 0 0 0 0 0 0 0 0 0 0 0 0 0 0 0 0 0 0 0 0 0 0 0 0 0 0 0 0 0 0 0 0 0 0 0 0 0 0 0 0 0 0 0 0 0 0 0 0 0 0 0 0 0 0 0 0 0 0 0 0 0 0 0 0 0 0 0 0 0 0 0 0 0 0 0 0 0 0 0 0 0 0 0 0 0 0 0 0 0 0 0 0 0 0 0 0 0 0 0 0 0 0 0 0 0 0 0 0 0 0 0 0 0 0 0 0 0 0 0 0 0 0 0 0 0 0 0 0 0 0 0 0 0 0 0 0 0 0 0 0 0 0 0 0 0 0 0 0 0 0 0 0 0 0 0 0 0 0 0 0 0 0 0 0 0 0 0 0 0 0 0 0 0 0 0 0 0 0 0 0 0 0 0 0 0 0 0 0 0 0 0 0 0 0 0 0 0 0 0 0 0 0 0 0 0 0 0 0 0 0 0 0 0 0 0 0 0 0 0 0 0 0 0 0 0 0 0 0 0 0 0 0 0 0 0 0 0 0 0 0 0 0 0 0 0 0 0 0 0 0 0 0 0 0 0 0 0 0 0 0 0 0 0 0 0 0 0 0 0 0 0 0 0 0 0 0 0 0 0 0 0 0 0 0 0 0 0 0 0 0 0 0 0 0 0 0 0 0 0 0 0 0 0 0 0 0 0 0 0 0 0 0 0 0 0 0 0 0 0 0 0 0 0 0 0 0 0 0 0 0 0 0 0 0 0 0 0 0 0 0 0 0 0 0 0 0 0 0 0 0 0 0 0 0 0 0 0 0 0 0 0 0 0 0 0 0 0 0 0 0 0 0 0 0 0 0 0 0 0 0 0 0 0 0 0 0 0 0 0 0 0 0 0 0 0 0
0 0 0 0 0 0 0 0 0 0 0 0 0 0 0 0 0 0 0 0 0 0 0 0 0 0 0 0 0 0 0 0 0 0 0 0 0 0 0 0 0 0 0 0 0 0 0 0 0 0 0 0 0 0 0 0 0 0 0 0 0 0 0 0 0 0 0 0 0 0 0 0 0 0 0 0 0 0 0 0 0 0 0 0 0 0 0 0 0 0 0 0 0 0 0 0 0 0 0 0 0 0 0 0 0 0 0 0 0 0 0 0 0 0 0 0 0 0 0 0 0 0 0 0 0 0 0 0 0 0 0 0 0 0 0 0 0 0 0 0 0 0 0 0 0 0 0 0 0 0 0 0 0 0 0 0 0 0 0 0 0 0 0 0 0 0 0 0 0 0 0 0 0 0 0 0 0 0 0 0 0 0 0 0 0 0 0 0 0 0 0 0 0 0 0 0 0 0 0 0 0 0 0 0 0 0 0 0 0 0 0 0 0 0 0 0 0 0 0 0 0 0 0 0 0 0 0 0 0 0 0 0 0 0 0 0 0 0 0 0 0 0 0 0 0 0 0 0 0 0 0 0 0 0 0 0 0 0 0 0 0 0 0 0 0 0 0 0 0 0 0 0 0 0 0 0 0 0 0 0 0 0 0 0 0 0 0 0 0 0 0 0 0 0 0 0 0 0 0 0 0 0 0 0 0 0 0 0 0 0 0 0 0 0 0 0 0 0 0 0 0 0 0 0 0 0 0 0 0 0 0 0 0 0 0 0 0 0 0 0 0 0 0 0 0 0 0 0 0 0 0 0 0 0 0 0 0 0 0 0 0 0 0 0 0 0 0 0 0 0 0 0 0 0 0 0 0 0 0 0 0 0 0 0 0 0 0 0 0 0 0 0 0 0 0 0 0 0 0 0 0 0 0 0 0 0 0 0 0 0 0 0 0 0 0 0 0 0 0 0 0 0 0 0 0 0 0 0 0 0 0 0 0 0 0 0 0 0 0 0 0 0 0 0 0 0 0 0 0 0 0 0 0 0 0 0 0 0 0 0 0 0 0 0 0 0 0 0 0 0 0 0 0 0 0 0 0 0 0 0 0 0 0 0 0 0 0 0 0 0 0 0 0 0 0 0 0 0 0 0 0 0 0 0 0 0 0 0 0 0 0 0 0 0 0 0 0 0 0 0 0 0 0 0 0 0 0 0 0 0 0 0 0 0 0 0 0 0 0 0 0 0 0 0 0 0 0 0 0 0 0 0 0 0 0 0 0 0 0 0 0 0 0 0 0 0 0 0 0 0 0 0 0 0 0 0 0 0 0 0 0 0 0 0 0 0 0 0 0 0 0 0 0 0 0 0 0 0 0 0 0 0 0 0 0 0 0 0 0 0 0 0 0 0 0 0 0 0 0 0 0 0 0 0 0 0 0 0 0 0 0 0 0 0 0 0 0 0 0 0
