0 0 0 0 0 0 0 0 0 0 0 0 0 0 0 0 0 0 0 0 0 0 0 0 0 0 0 0 0 0 0 0 0 0 2116 2116 2116 2116 2103 2103 2103 2103 2103 2116 2116 2116 2116 2116 2116 2116 2116 2116 2116 2116 2129 2129 2129 2129 2129 2129 2129 2129 2129 2129 2143 2143 2143 2143 2143 2143 2129 2129 2116 2116 2116 2116 2129 2129 2129 2129 2129 2129 2129 2129 2129 2143 2143 2143 2143 2143 2143 2143 2143 2143 2143 2156 2156 2156 2156 2156 2156 2156 2156 2156 2156 2156 2156 2156 2156 2156 2156 2156 2156 2156 2156 2156 2156 2156 2156 2156 2156 2156 2170 2156 2156 2156 2143 2143 1804 1794 1794 1794 1804 1804 1804 1804 1804 1813 1823 1823 1833 1833 1843 1894 1915 1926 1926 1936 1936 1926 1926 1915 1915 1926 1936 1936 1936 1936 1936 1936 1947 1947 1959 1970 1970 1981 1981 1993 1970 1970 2198 2198 2198 2198 2198 2198 2198 2198 2212 2198 2198 2212 2212 2212 2212 2212 2212 2212 2212 2212 2212 2212 2212 2212 2212 2212 2212 2212 2212 2212 2226 2226 1688 1688 1688 1696 1696 1696 1696 1696 1696 1696 1696 1705 1705 1713 1713 1713 1722 1731 1739 2241 2241 2241 2241 2256 2256 2256 2256 2256 2256 2256 2256 2256 2256 2256 2256 2256 2256 2241 2241 2241 1550 1550 1543 1543 1543 1550 1550 1543 1543 1543 1543 1550 1550 1557 1557 1557 1564 1564 1550 1543 1543 0 0 0 1529 1523 1523 1523 1523 1523 1523 1523 1523 1523 1523 1523 1523 1523 1516 1516 1516 1516 1516 1516 1516 1509 1509 1503 1503 1496 1496 1496 1496 1496 1496 1489 1489 1489 1489 1489 1489 1483 1483 1483 1483 1477 1477 1477 1470 1470 1464 1464 1458 1458 1458 1458 1458 1458 1452 1452 1452 1452 1452 1445 1445 1445 1445 1445 1445 1433 1433 1433 1433 1427 1427 1421 1415 1415 1410 1410 1410 1404 1404 1404 1404 1404 1404 1410 1410 1410 1415 1415 1433 1439 1452 1458 1458 1464 1464 1464 1470 1503 1516 1529 1536 1536 1543 1543 1557 1564 1564 2317 2317 2317 2333 2333 2333 2333 2333 2349 2349 2349 2333 2333 2349 2349 1794 1794 1794 1794 1794 1794 1794 1794 1794 1794 1804 1804 1804 1813 1813 2317 2317 2333 2349 2349 2365 2349 2349 2365 2349 2349 2349 2349 2349 2349 2349 2349 2349 2349 2349 2349 2349 2349 2349 2349 2349 1873 1873 1863 1853 1853 1843 1843 1843 1410 1410 1410 1410 1410 1410 1410 1410 1410 1410 1410 1410 1410 1404 1404 1404 1404 1404 1404 1404 1404 1404 1404 1404 1404 1404 1404 1404 1404 1398 1398 1392 1392 1392 2103 2103 2103 2103 2103 2090 2090 2103 2090 2090 2090 2090 2349 2349 2349 2365 2365 2365 2365 2365 2365 2365 2381 2381 2381 2381 2381 2365 2365 2365 2365 2365 2365 2365 2365 2365 2365 2365 2365 2365 2365 2365 2365 2365 2365 2365 2365 2365 2365 2365 2365 2365 2365 2365 2365 2381 2365 2365 2365 2365 2365 2365 2365 2381 2381 2381 2381 2381 2381 2381 2381 2365 2365 2365 2365 2365 2365 2365 2365 2365 2365 2381 2381 2381 2381 2381 2381 2381 2381 2398 2398 2398 2398 2398 2398 2398 2398 2398 2381 2381 2381 2381 2381 2381 2381 2381 2381 2381 2381 2381 2381 2381 2381 2365 2365 2365 2365 2381 2381 2381 2365 2365 2365 2365 2365 2365 2365 2365 2365 2365 2365 2365 2365 2365 2365 2365 2365 2365 2381 2381 2381 2381 2381 2381 2381 2381 2381 2381 2381 2381 2381 2381 2381 2381 2381 2381 2381 2365 2365 2365 0 0 0 0 0 0 0 0 0
0 0 0 0 0 0 0 0 0 0 0 0 0 0 0 0 0 0 0 0 0 0 0 0 0 0 0 0 0 0 0 0 0 0 2116 2116 2116 2103 2103 2103 2103 2103 2103 2103 2103 2116 2116 2116 2116 2116 2116 2116 2116 2116 2116 2116 2116 2116 2116 2116 2129 2116 2116 2129 2143 2143 2143 2143 2129 2129 2116 2116 2116 2116 2116 2116 2116 2116 2116 2116 2116 2129 2129 2129 2129 2129 2129 2129 2129 2129 2143 2143 2143 2143 2143 2143 2143 2143 2143 2143 2143 2156 2156 2156 2156 2156 2156 2156 2156 2156 2143 2143 2143 2143 2143 2143 2143 2143 2156 2156 2156 2156 2156 2156 2156 2143 2129 2129 2129 1804 1804 1804 1804 1804 1804 1804 1804 1813 1823 1823 1833 1833 1843 1894 1915 1926 1926 1926 1926 1926 1926 1926 1926 1926 1936 1936 1936 1936 1936 1936 1947 1947 1959 1970 1981 2198 2198 2198 2198 2198 2198 2198 2198 2198 2198 2198 2198 2198 2198 2198 2198 2198 2198 2212 2212 2198 2198 2198 2212 2212 2212 2212 2212 2212 2212 2212 2212 2212 2212 2212 2226 2226 1688 1688 1696 1696 1696 1696 1696 1696 1696 1696 1696 1705 1705 1713 1713 1713 1722 1731 1731 2226 2226 2241 2241 2241 2241 2241 2241 2241 2241 2241 2241 2241 2241 2241 2241 2241 2241 2241 2226 2226 2226 1550 1543 1543 1543 1550 1550 1550 1550 1550 1550 1550 1550 1557 1557 1557 1564 1564 1550 1550 0 0 0 0 0 0 1523 1523 1523 1523 1523 1516 1516 1516 1516 1516 1523 1523 1523 1523 1516 1516 1516 1516 1516 1509 1509 1509 1503 1503 1503 1496 1496 1496 1496 1489 1489 1489 1489 1489 1489 1489 1489 1483 1483 1483 1483 1477 1470 1470 1470 1464 1464 1464 1458 1458 1458 1458 1458 1458 1458 1452 1452 1452 1452 1452 1445 1445 1445 1433 1433 1433 1433 1427 1427 1421 1421 1415 1415 1410 1410 1410 1404 1404 1404 1404 1410 1410 1410 1410 1415 1427 1433 1439 1452 1458 1464 1464 1470 1470 1477 1509 1523 1529 1536 1536 1543 1543 1557 1557 2317 2317 2317 2317 2317 2317 2333 2333 2333 2333 2333 2333 2333 2333 2333 2333 1794 1794 1794 1794 1794 1794 1794 1794 1794 1794 1804 1804 1804 1813 1813 2317 2317 2333 2333 2349 2349 2349 2349 2349 2333 2333 2333 2333 2333 2333 2333 2333 2349 2349 2333 2333 2333 2333 2333 2333 2333 2333 1873 1863 1853 1853 1853 1853 1853 1410 1410 1410 1410 1410 1410 1410 1410 1410 1410 1410 1410 1410 1410 1410 1410 1404 1404 1404 1404 1404 1404 1404 1404 1404 1404 1404 1404 1404 1398 1398 1398 1398 1398 2103 2103 2103 2103 2103 2090 2090 2103 2090 2090 2090 2090 2349 2349 2349 2349 2365 2365 2365 2365 2365 2365 2365 2365 2365 2381 2381 2365 2349 2349 2349 2349 2349 2349 2349 2349 2349 2349 2349 2365 2349 2349 2365 2365 2365 2365 2365 2365 2365 2365 2365 2365 2365 2365 2365 2365 2365 2365 2365 2365 2365 2365 2365 2365 2381 2381 2381 2381 2381 2381 2365 2365 2365 2365 2365 2365 2365 2365 2365 2365 2365 2365 2365 2365 2365 2365 2365 2381 2381 2381 2381 2398 2398 2381 2381 2381 2381 2381 2381 2381 2365 2365 2381 2381 2381 2381 2381 2381 2381 2381 2381 2381 2381 2365 2365 2365 2365 2365 2365 2365 2365 2365 2365 2365 2365 2365 2365 2365 2365 2365 2365 2365 2365 2365 2365 2365 2365 2365 2365 2365 2365 2365 2365 2365 2349 2349 2365 2365 2365 2365 2365 2365 2365 2365 2365 2365 2365 2365 2365 2365 0 0 0 0 0 0 0 0 0
0 0 0 0 0 0 0 0 0 0 0 0 0 0 0 0 0 0 0 0 0 0 0 0 0 0 0 0 0 0 0 0 0 0 2116 2103 2103 2103 2103 2103 2103 2103 2103 2103 2103 2103 2116 2116 2116 2116 2116 2116 2116 2116 2116 2116 2116 2116 2116 2116 2116 2116 2116 2129 2129 2129 2129 2129 2129 2129 2116 2116 2103 2103 2103 2103 2116 2116 2116 2116 2116 2116 2116 2116 2116 2116 2116 2116 2116 2129 2129 2129 2143 2143 2143 2143 2143 2143 2143 2143 2143 2143 2143 2143 2143 2143 2143 2143 2143 2143 2143 2143 2143 2143 2143 2143 2143 2143 2143 2143 2156 2156 2156 2156 2143 2143 2129 2129 1823 1813 1804 1804 1804 1804 1804 1804 1804 1813 1823 1823 1833 1833 1853 1894 1904 1926 1926 1926 1926 1926 1926 1926 1926 1926 1936 1947 1936 1936 1936 1936 1947 1947 2198 2198 2198 2198 2198 2198 2198 2184 2184 2184 2198 2198 2184 2184 2184 2198 2198 2198 2198 2198 2198 2198 2198 2198 2198 2198 2198 2212 2212 2212 2212 2212 2212 2212 2212 2212 2212 2212 2226 2226 1696 1696 1696 1696 1696 1696 1696 1696 1696 1696 1705 1705 1713 1713 1713 1722 1731 1731 1731 2226 2226 2226 2241 2241 2241 2226 2226 2226 2226 2241 2241 2241 2241 2241 2241 2241 2241 2226 2226 2226 2226 1557 1550 1550 1550 1550 1550 1550 1550 1550 1550 1550 1550 1557 1557 1557 1564 1564 1564 0 0 0 0 0 0 0 0 1523 1523 1523 1523 1516 1516 1516 1516 1516 1516 1523 1523 1523 1516 1516 1516 1516 1516 1509 1509 1509 1509 1503 1503 1496 1496 1496 1496 1489 1489 1489 1489 1489 1489 1489 1489 1489 1483 1483 1483 1483 1477 1477 1470 1470 1464 1464 1464 1464 1464 1464 1458 1458 1458 1458 1458 1452 1452 1452 1452 1445 1445 1439 1433 1433 1433 1433 1427 1427 1421 1415 1415 1410 1410 1410 1404 1404 1404 1404 1410 1410 1415 1415 1415 1427 1433 1439 1452 1458 1464 1470 1470 1483 1509 1516 1529 1536 1536 1536 1543 1543 1543 2317 2317 2317 2317 2317 2317 2317 2333 2333 2333 2333 2333 2333 2317 2317 2317 2317 1794 1794 1794 1794 1794 1794 1794 1794 1794 1804 1804 1804 1804 1813 2349 2333 2333 2333 2333 2349 2349 2349 2349 2349 2333 2333 2333 2333 2333 2333 2333 2333 2333 2333 2333 2333 2333 2333 2333 2333 2333 2333 1883 1863 1853 1853 1853 1853 1853 1410 1410 1410 1410 1410 1410 1410 1410 1410 1410 1410 1410 1410 1410 1410 1410 1404 1404 1404 1404 1404 1404 1404 1404 1404 1404 1404 1404 1404 1398 1398 1404 1404 1404 2116 2103 2103 2103 2103 2103 2103 2103 2090 2090 2090 2090 2349 2349 2349 2349 2365 2365 2365 2365 2365 2365 2365 2365 2365 2365 2365 2349 2349 2349 2349 2349 2349 2349 2349 2349 2349 2349 2349 2349 2333 2333 2349 2349 2349 2349 2349 2349 2349 2349 2349 2365 2365 2365 2365 2349 2349 2349 2349 2349 2349 2365 2365 2365 2365 2365 2365 2365 2365 2365 2365 2365 2365 2365 2365 2365 2365 2365 2365 2365 2365 2365 2365 2365 2365 2365 2365 2365 2365 2365 2381 2381 2381 2381 2381 2381 2381 2381 2365 2365 2365 2365 2365 2365 2365 2381 2381 2381 2381 2365 2365 2365 2365 2365 2365 2365 2365 2365 2365 2365 2365 2365 2365 2365 2365 2365 2365 2365 2365 2349 2349 2349 2349 2349 2349 2349 2349 2365 2365 2365 2349 2349 2349 2349 2349 2349 2349 2349 2365 2365 2365 2365 2365 2365 2365 2365 2349 2349 2349 2349 0 0 0 0 0 0 0 0 0
0 0 0 0 0 0 0 0 0 0 0 0 0 0 0 0 0 0 0 0 0 0 0 0 0 0 0 0 0 0 0 0 0 0 2103 2103 2103 2103 2103 2103 2103 2103 2103 2103 2103 2103 2103 2103 2103 2103 2103 2103 2116 2116 2116 2116 2103 2103 2116 2116 2116 2116 2116 2129 2129 2129 2129 2116 2116 2116 2103 2103 2103 2103 2103 2103 2103 2103 2103 2103 2103 2103 2103 2103 2103 2103 2103 2103 2103 2116 2116 2129 2129 2129 2143 2129 2129 2129 2129 2129 2129 2129 2143 2143 2143 2143 2143 2129 2129 2143 2143 2129 2129 2143 2143 2143 2143 2143 2143 2143 2143 2143 2143 2143 2143 2143 2143 2143 1823 1813 1813 1804 1804 1804 1804 1804 1804 1813 1823 1823 1833 1833 1843 1873 1894 1915 1915 1915 1915 1915 1915 1926 1926 1936 1947 1947 1936 1936 1936 1936 1947 2184 2184 2184 2184 2184 2198 2198 2198 2184 2184 2184 2184 2184 2184 2184 2184 2184 2184 2184 2184 2198 2198 2198 2198 2198 2198 2198 2198 2198 2198 2198 2198 2198 2198 2198 2198 2198 2198 2212 2226 2226 1696 1696 1696 1696 1696 1696 1696 1696 1696 1705 1705 1705 1713 1713 1722 1722 1731 1739 2212 2212 2212 2212 2226 2226 2226 2226 2226 2226 2226 2226 2226 2226 2241 2241 2241 2241 2241 2226 2226 2226 2226 1550 1550 1550 1550 1550 1550 1550 1550 1550 1550 1550 1550 1557 1557 1557 1564 1572 1579 0 0 0 0 0 0 0 0 1523 1523 1523 1523 1516 1516 1516 2078 1516 1516 1523 1523 1523 1523 1523 1516 1516 1516 1509 1503 1503 1509 1503 1503 1496 1496 1496 1496 1489 1489 1496 1496 1489 1489 1489 1489 1489 1483 1483 1483 1483 1477 1477 1477 1470 1470 1470 1470 1464 1464 1464 1464 1464 1464 1458 1458 1458 1458 1458 1452 1452 1445 1439 1439 1433 1433 1433 1427 1427 1421 1421 1415 1410 1410 1410 1410 1410 1410 1410 1410 1410 1415 1415 1421 1433 1439 1445 1452 1464 1470 1470 1483 1489 1516 1523 1529 1536 1536 1536 1543 1543 2301 2301 2301 2301 2301 2301 2301 2317 2317 2317 2333 2333 2333 2333 2317 2317 2317 2317 1794 1794 1794 1794 1794 1794 1794 1794 1794 1804 1804 1804 1804 1804 2333 2333 2333 2333 2333 2333 2333 2333 2333 2349 2333 2333 2333 2317 2317 2317 2317 2317 2317 2317 2317 2317 2317 2333 2333 2333 2333 2349 1883 1853 1843 1843 1843 1843 1843 1410 1410 1410 1415 1415 1415 1410 1410 1410 1410 1410 1410 1410 1410 1410 1410 1410 1410 1404 1404 1404 1404 1404 1404 1404 1404 1404 1404 1404 1404 1404 1404 1404 1404 2116 2103 2103 2103 2103 2090 2090 2090 2090 2090 2090 2333 2333 2333 2349 2349 2365 2349 2349 2349 2349 2365 2365 2365 2365 2365 2365 2349 2333 2333 2317 2317 2333 2333 2333 2333 2333 2333 2333 2333 2333 2333 2333 2333 2333 2333 2333 2333 2349 2333 2333 2349 2349 2349 2349 2349 2349 2349 2349 2349 2349 2349 2349 2349 2365 2365 2365 2365 2365 2365 2365 2365 2349 2349 2349 2349 2349 2349 2349 2349 2349 2365 2365 2365 2365 2365 2365 2365 2365 2365 2365 2381 2381 2381 2381 2381 2365 2365 2365 2365 2365 2365 2365 2365 2365 2365 2365 2365 2365 2365 2365 2365 2365 2349 2349 2349 2349 2365 2365 2365 2365 2365 2365 2365 2365 2365 2365 2365 2365 2349 2349 2349 2349 2349 2349 2349 2349 2349 2349 2349 2349 2349 2349 2349 2349 2349 2349 2349 2365 2365 2365 2365 2365 2349 2349 2349 2349 2349 2349 2349 0 0 0 0 0 0 0 0 0
0 0 0 0 0 0 0 0 0 0 0 0 0 0 0 0 0 0 0 0 0 0 0 0 0 0 0 0 0 0 0 0 0 0 2103 2103 2103 2103 2103 2103 2090 2090 2090 2090 2090 2090 2090 2090 2090 2103 2103 2103 2103 2103 2103 2103 2103 2103 2103 2103 2116 2116 2116 2116 2116 2129 2116 2116 2116 2116 2103 2103 2103 2103 2103 2103 2103 2103 2103 2103 2103 2103 2103 2103 2103 2103 2103 2103 2103 2116 2116 2129 2129 2129 2129 2129 2129 2116 2116 2116 2116 2116 2129 2129 2129 2129 2143 2129 2129 2129 2143 2129 2129 2129 2143 2129 2129 2129 2143 2143 2143 2143 2143 2143 2143 2143 2143 2143 1823 1813 1813 1813 1813 1813 1804 1804 1804 1813 1823 1823 1823 1833 1843 1853 1883 1904 1915 1915 1915 1915 1915 1926 1926 1936 1947 1947 1936 1936 1936 1947 2170 2170 2170 2170 2184 2184 2184 2184 2184 2184 2184 2184 2184 2184 2184 2184 2184 2184 2184 2184 2184 2184 2184 2184 2184 2184 2184 2198 2198 2198 2198 2198 2198 2198 2198 2198 2198 2198 2198 2212 2212 2212 1705 1705 1696 1696 1696 1696 1696 1696 1696 1705 1705 1713 1713 1713 1722 1731 1731 1739 2212 2212 2212 2212 2212 2212 2212 2212 2212 2212 2212 2226 2226 2226 2226 2226 2226 2226 2241 2226 2226 2226 2226 1557 1550 1550 1550 1550 1550 1550 1550 1550 1550 1550 1550 1557 1557 1564 1572 1579 1586 0 0 0 0 0 0 0 0 2065 1523 1523 1523 2078 2078 2078 2090 2090 2090 2103 1523 1523 1523 1523 1516 1516 1516 1509 1503 1503 1509 1503 1503 1496 1496 1496 1496 1489 1489 1496 1496 1489 1489 1489 1489 1489 1489 1483 1483 1483 1477 1477 1477 1470 1470 1470 1470 1470 1464 1464 1464 1464 1464 1464 1464 1458 1458 1458 1452 1452 1445 1439 1439 1433 1433 1433 1427 1427 1427 1421 1415 1415 1415 1410 1410 1410 1410 1410 1410 1410 1415 1415 1427 1433 1445 1445 1458 1464 1477 1483 1489 1509 1516 1523 1529 1536 1536 1536 1543 2286 2286 2286 2286 2286 2301 2301 2301 2301 2301 2317 2317 2317 2317 2317 2301 2301 2301 2301 1794 1794 1794 1794 1794 1804 1804 1794 1794 1804 1804 1804 1804 1804 2301 2301 2317 2317 2317 2333 2333 2333 2333 2333 2333 2317 2317 2317 2317 2317 2317 2317 2317 2317 2317 2317 2317 2333 2333 2333 2333 2349 2349 1853 1843 1843 1843 1843 1843 1410 1410 1415 1415 1415 1415 1410 1410 1410 1410 1410 1410 1410 1410 1410 1410 1410 1410 1410 1410 1404 1404 1404 1404 1404 1404 1404 1404 1404 1404 1404 1410 1410 1410 2103 2103 2103 2103 2103 2090 2090 2090 2090 2090 2333 2333 2333 2333 2333 2333 2349 2349 2349 2349 2349 2349 2349 2349 2349 2349 2349 2333 2317 2317 2317 2317 2317 2317 2317 2317 2317 2317 2317 2333 2317 2317 2333 2317 2317 2333 2333 2333 2333 2333 2333 2333 2333 2333 2333 2333 2333 2333 2333 2349 2349 2349 2349 2349 2349 2349 2349 2349 2349 2349 2349 2333 2333 2333 2333 2349 2349 2349 2349 2349 2349 2349 2349 2349 2349 2349 2365 2365 2349 2349 2365 2365 2365 2365 2349 2349 2365 2349 2349 2349 2349 2349 2349 2365 2365 2365 2365 2365 2365 2365 2365 2349 2349 2349 2349 2349 2349 2349 2349 2365 2365 2365 2365 2365 2349 2349 2349 2349 2349 2333 2333 2333 2333 2333 2333 2349 2349 2349 2349 2349 2333 2333 2349 2349 2349 2349 2349 2349 2349 2349 2349 2349 2349 2349 2349 2333 2333 2333 2333 2333 0 0 0 0 0 0 0 0 0
0 0 0 0 0 0 0 0 0 0 0 0 0 0 0 0 0 0 0 0 0 0 0 0 0 0 0 0 0 0 0 0 0 0 2090 2090 2090 2090 2090 2090 2078 2078 2078 2078 2078 2078 2078 2078 2090 2090 2090 2090 2090 2090 2103 2103 2103 2103 2103 2103 2103 2103 2103 2116 2116 2116 2116 2116 2116 2116 2103 2103 2103 2103 2103 2103 2103 2103 2090 2090 2090 2090 2103 2103 2103 2103 2103 2103 2103 2103 2116 2116 2129 2129 2129 2116 2116 2116 2103 2103 2116 2116 2116 2116 2129 2129 2129 2116 2116 2129 2129 2129 2129 2129 2129 2129 2129 2129 2129 2143 2143 2143 2143 2143 2143 2143 2143 2143 1823 1823 1813 1813 1813 1813 1813 1813 1813 1813 1823 1823 1823 1833 1843 1853 1873 1904 1904 1904 1915 1915 1915 1926 1926 1936 1936 1947 1936 1936 1947 2156 2156 2156 2156 2170 2170 2170 2184 2184 2184 2184 2184 2184 2184 2184 2184 2184 2184 2184 2184 2184 2184 2184 2184 2184 2184 2184 2184 2184 2198 2198 2198 2198 2198 2184 2184 2198 2184 2184 2198 2198 2212 2212 1705 1705 1705 1696 1696 1696 1696 1696 1696 1705 1705 1713 1713 1722 1722 1731 1739 1739 2198 2198 2198 2198 2198 2212 2198 2198 2198 2212 2212 2212 2212 2212 2226 2226 2226 2226 2226 2212 2212 2212 1557 1557 1550 1550 1550 1550 1550 1550 1550 1550 1550 1550 1550 1557 1557 1564 1572 1579 1586 0 0 0 0 0 0 0 2090 2078 1523 1523 1523 2078 2090 2090 2090 2090 2103 2103 2129 2198 1523 1523 1529 2226 2226 2226 1509 1509 1509 1509 1509 1496 1496 1496 1496 1496 1496 1496 1496 1496 1489 1489 1489 1489 1489 1489 1489 1489 1483 1483 1483 1477 1477 1470 1470 1470 1470 1470 1464 1464 1464 1464 1464 1464 1458 1458 1452 1452 1452 1439 1439 1439 1433 1433 1433 1427 1427 1421 1421 1415 1415 1415 1410 1410 1410 1410 1410 1415 1415 1427 1433 1439 1445 1452 1464 1470 1483 1489 1489 1509 1516 1523 1529 1536 1536 1536 2286 2286 2286 2286 2286 2286 2286 2286 2301 2301 2301 2301 2301 2301 2301 2301 2286 2286 2286 2301 1804 1804 1794 1794 1804 1804 1804 1804 1804 1804 1804 1804 1804 1804 2271 2286 2301 2301 2301 2317 2317 2333 2333 2333 2317 2317 2317 2317 2317 2317 2317 2317 2317 2317 2317 2317 2317 2317 2317 2333 2333 2349 1883 1843 1843 1843 1853 1853 1415 1415 1415 1415 1415 1415 1415 1415 1415 1410 1410 1415 1415 1410 1410 1410 1410 1410 1410 1410 1410 1410 1404 1404 1410 1410 1410 1404 1404 1404 1404 1404 1410 1410 1410 2103 2103 2103 2103 2103 2103 2103 2103 2090 2090 2333 2333 2333 2333 2333 2333 2333 2333 2333 2333 2333 2333 2333 2333 2333 2333 2333 2317 2317 2301 2301 2301 2317 2317 2317 2317 2317 2317 2317 2317 2317 2317 2317 2317 2317 2317 2317 2317 2317 2317 2317 2317 2317 2317 2317 2317 2317 2317 2333 2333 2333 2333 2333 2333 2349 2349 2333 2333 2333 2333 2333 2333 2317 2317 2317 2333 2333 2333 2333 2333 2333 2349 2333 2333 2349 2349 2349 2349 2349 2349 2365 2349 2349 2349 2333 2333 2349 2333 2333 2333 2333 2333 2333 2349 2349 2349 2349 2349 2349 2349 2349 2349 2349 2333 2333 2349 2349 2349 2349 2349 2365 2349 2349 2365 2349 2349 2349 2333 2333 2333 2333 2333 2333 2333 2333 2333 2333 2349 2349 2349 2333 2333 2333 2333 2333 2333 2349 2349 2349 2349 2349 2349 2333 2333 2333 2333 2333 2333 2333 2333 0 0 0 0 0 0 0 0 0
0 0 0 0 0 0 0 0 0 0 0 0 0 0 0 0 0 0 0 0 0 0 0 0 0 0 0 0 0 0 0 0 0 0 2090 2090 2090 2090 2078 2078 2078 2078 2078 2078 2078 2078 2078 2078 2078 2090 2090 2090 2090 2090 2090 2090 2090 2090 2090 2090 2103 2103 2103 2103 2103 2103 2103 2103 2103 2103 2090 2090 2090 2090 2090 2090 2090 2090 2090 2090 2090 2090 2090 2090 2090 2090 2090 2103 2103 2103 2103 2116 2116 2116 2116 2116 2103 2103 2103 2103 2103 2103 2103 2116 2116 2116 2116 2116 2116 2116 2116 2116 2116 2116 2129 2129 2129 2129 2129 2129 2129 2129 2143 2143 2143 2129 2129 2129 1823 1823 1813 1813 1813 1813 1813 1813 1813 1823 1823 1823 1833 1833 1843 1853 1873 1894 1894 1904 1904 1915 1915 1915 1926 1936 1936 1947 1936 1936 1947 2143 2143 2143 2156 2156 2156 2156 2170 2170 2170 2170 2170 2170 2170 2170 2170 2170 2170 2170 2170 2170 2170 2170 2170 2170 2184 2184 2184 2184 2184 2184 2184 2184 2184 2184 2184 2184 2184 2184 2198 2198 2212 2212 1705 1705 1705 1696 1696 1696 1696 1696 1696 1705 1713 1713 1722 1722 1731 1731 1739 1739 2198 2198 2198 2198 2198 2198 2198 2198 2198 2198 2198 2212 2212 2212 2212 2212 2212 2212 2212 2212 2212 2212 1564 1564 1550 1550 1550 1550 1550 1550 1550 1550 1550 1550 1557 1557 1564 1564 1572 1579 1586 0 0 0 0 0 0 2129 2090 2078 2078 2078 2090 2090 2090 2090 2103 2103 2103 2116 2129 2198 2212 2226 2226 2226 2226 2241 2241 2241 1509 1509 1509 1496 1496 1496 1496 1496 1496 1496 1496 1496 1496 1496 1496 1496 1489 1489 1489 1489 1483 1483 1483 1477 1477 1477 1477 1470 1470 1470 1470 1470 1470 1470 1464 1464 1464 1464 1464 1458 1458 1452 1445 1445 1439 1439 1433 1433 1433 1427 1421 1415 1415 1415 1415 1410 1410 1410 1410 1415 1415 1427 1433 1439 1452 1458 1470 1477 1483 1489 1503 1509 1516 1523 1529 1536 1536 2271 2271 2286 2286 2286 2286 2286 2286 2286 2286 2286 2286 2286 2286 2286 2286 2286 2286 2286 2286 2271 2271 1804 1804 1804 1804 1804 1804 1804 1804 1804 1804 1804 1804 1813 2271 2286 2301 2301 2301 2301 2317 2317 2333 2333 2317 2317 2317 2317 2301 2301 2301 2301 2301 2301 2301 2301 2317 2317 2317 2317 2333 2333 1873 1843 1843 1843 1843 1843 1415 1415 1415 1415 1415 1415 1415 1415 1415 1415 1415 1415 1415 1410 1410 1410 1410 1410 1410 1410 1410 1410 1410 1410 1410 1410 1410 1410 1410 1410 1410 1410 1410 1410 1410 2129 2116 2103 2103 2103 2103 2103 2103 2103 2317 2317 2317 2317 2317 2317 2317 2333 2333 2333 2333 2333 2333 2333 2317 2317 2317 2317 2301 2301 2301 2301 2301 2301 2301 2301 2301 2317 2301 2301 2317 2301 2301 2301 2301 2301 2301 2301 2301 2301 2301 2301 2301 2301 2301 2301 2317 2317 2317 2317 2317 2317 2317 2317 2333 2333 2333 2333 2333 2333 2333 2333 2333 2317 2317 2317 2333 2317 2317 2317 2317 2317 2333 2317 2317 2333 2333 2333 2333 2333 2333 2349 2333 2333 2333 2333 2333 2333 2333 2333 2333 2333 2333 2333 2333 2333 2349 2333 2333 2333 2333 2333 2333 2333 2333 2333 2333 2333 2333 2349 2349 2349 2349 2349 2349 2333 2333 2333 2333 2333 2333 2333 2317 2317 2333 2333 2333 2333 2333 2333 2333 2317 2317 2333 2333 2333 2333 2333 2333 2349 2349 2349 2333 2333 2317 2317 2317 2317 2317 2317 2317 0 0 0 0 0 0 0 0 0
0 0 0 0 0 0 0 0 0 0 0 0 0 0 0 0 0 0 0 0 0 0 0 0 0 0 0 0 0 0 0 0 0 0 2078 2078 2078 2078 2078 2078 2065 2065 2078 2078 2078 2078 2078 2078 2078 2078 2078 2078 2078 2090 2090 2090 2090 2090 2078 2078 2078 2078 2078 2090 2090 2090 2090 2103 2103 2103 2090 2090 2090 2090 2090 2090 2090 2090 2090 2090 2090 2090 2090 2090 2090 2090 2090 2090 2090 2103 2103 2103 2103 2103 2103 2103 2103 2103 2103 2103 2103 2103 2103 2103 2103 2116 2116 2103 2103 2103 2103 2103 2103 2116 2116 2116 2116 2116 2129 2129 2129 2129 2129 2129 2143 2129 2129 2129 1823 1823 1813 1813 1813 1813 1813 1823 1823 1823 1823 1823 1833 1833 1843 1843 1863 1894 1894 1904 1904 1904 1904 1915 1926 1936 1936 1947 1936 1936 2143 2143 2143 2143 2143 2143 2156 2156 2156 2156 2156 2156 2156 2156 2156 2156 2156 2156 2156 2156 2156 2156 2156 2156 2156 2156 2170 2170 2170 2170 2170 2184 2184 2184 2184 2184 2184 2184 2184 2184 2184 2198 2212 1713 1713 1705 1705 1696 1696 1696 1705 1705 1705 1705 1713 1713 1722 1722 1731 1731 1739 1739 2184 2184 2184 2198 2198 2198 2198 2198 2198 2198 2198 2198 2198 2198 2198 2198 2198 2198 2198 2212 2198 2198 2198 1572 1557 1557 1550 1550 1550 1550 1550 1550 1550 1550 1557 1564 1564 1572 1579 1579 1594 0 0 0 0 0 0 2129 2116 2090 2090 2090 2090 2090 2090 2103 2103 2103 2116 2116 2143 2198 2212 2226 2226 2226 2226 2241 2241 2241 0 1509 1509 1496 1496 1503 1496 1496 1496 1496 1496 1496 1496 1496 1496 1496 1489 1489 1489 1489 1489 1483 1483 1483 1483 1477 1477 1470 1470 1470 1470 1470 1470 1470 1470 1464 1464 1464 1464 1464 1464 1452 1452 1445 1445 1439 1433 1433 1433 1427 1421 1421 1421 1415 1415 1415 1415 1415 1415 1415 1421 1433 1439 1445 1458 1464 1477 1483 1489 1503 1509 1516 1516 1516 2271 2271 2271 2271 2271 2271 2271 2286 2286 2286 2286 2286 2286 2286 2286 2286 2286 2286 2286 2286 2286 2286 2286 2271 2271 2271 1804 1804 1804 1804 1804 1804 1804 1804 1804 1813 1813 2286 2286 2286 2301 2286 2286 2301 2301 2301 2317 2317 2301 2301 2301 2301 2301 2301 2301 2301 2301 2301 2301 2301 2301 2317 2317 2317 2333 1863 1863 1843 1843 1843 1843 1843 1421 1421 1421 1421 1421 1421 1421 1415 1415 1415 1415 1415 1415 1410 1410 1410 1410 1410 1410 1410 1410 1410 1410 1410 1410 1410 1410 1410 1410 1410 1410 1410 1410 1410 1410 2103 2103 2103 2103 2103 2103 2103 2103 2103 2317 2317 2317 2317 2317 2317 2317 2317 2333 2317 2317 2317 2317 2317 2317 2317 2317 2317 2286 2286 2286 2286 2301 2301 2301 2301 2301 2301 2301 2301 2301 2301 2301 2301 2301 2301 2301 2301 2301 2301 2301 2301 2301 2301 2301 2301 2301 2301 2301 2317 2317 2317 2317 2317 2317 2317 2317 2317 2317 2317 2317 2317 2317 2317 2317 2317 2317 2317 2317 2317 2317 2317 2317 2317 2317 2317 2317 2317 2317 2317 2317 2333 2333 2333 2333 2333 2333 2333 2333 2333 2333 2333 2317 2317 2317 2317 2333 2317 2317 2317 2333 2333 2333 2333 2317 2317 2317 2333 2333 2349 2349 2333 2333 2333 2333 2317 2317 2317 2317 2317 2317 2317 2317 2317 2317 2317 2317 2317 2317 2317 2317 2317 2317 2317 2317 2317 2333 2333 2333 2333 2333 2333 2333 2317 2317 2301 2301 2301 2301 2301 2301 0 0 0 0 0 0 0 0 0
0 0 0 0 0 0 0 0 0 0 0 0 0 0 0 0 0 0 0 0 0 0 0 0 0 0 0 0 0 0 0 0 0 0 2065 2065 2065 2065 2065 2065 2065 2065 2065 2065 2065 2065 2065 2065 2065 2078 2078 2078 2078 2078 2078 2078 2078 2078 2078 2078 2065 2065 2078 2078 2078 2078 2090 2090 2090 2090 2078 2078 2078 2090 2090 2078 2078 2078 2090 2078 2078 2078 2090 2090 2090 2090 2090 2090 2090 2090 2103 2103 2090 2090 2090 2090 2090 2090 2090 2090 2090 2090 2103 2103 2103 2103 2103 2103 2103 2103 2103 2103 2103 2103 2116 2116 2116 2116 2116 2116 2116 2116 2116 2129 2129 2129 2116 2116 1813 1813 1813 1813 1813 1823 1823 1823 1823 1823 1823 1823 1833 1833 1833 1843 1863 1883 1883 1894 1904 1904 1904 1904 1915 1926 1936 1947 1947 2143 2143 2129 2129 2143 2143 2143 2143 2143 2143 2143 2156 2156 2156 2156 2156 2156 2156 2156 2156 2156 2156 2156 2156 2156 2156 2156 2156 2170 2170 2156 2156 2156 2156 2170 2156 2156 2156 2170 2170 2184 2184 2198 2198 1713 1713 1705 1705 1705 1696 1696 1705 1705 1705 1705 1713 1713 1722 1722 1731 1739 1739 1739 2170 2184 2184 2184 2198 2198 2198 2198 2198 2198 2198 2198 2198 2198 2198 2198 2198 2198 2198 2198 2198 2198 2198 1579 1557 1557 1557 1557 1550 1550 1550 1550 1550 1557 1557 1564 1564 1572 1579 1579 1594 0 0 0 0 2170 2156 2143 2129 2103 2090 2090 2090 2090 2090 2103 2103 2103 2116 2116 2143 2198 2212 2226 2226 2226 2226 2241 2241 2241 1936 1936 1496 1496 1496 1503 1496 1496 1496 1496 1496 1496 1496 1496 1496 1496 1489 1489 1489 1489 1489 1483 1483 1483 1483 1477 1477 1470 1470 1470 1470 1470 1470 1470 1470 1464 1464 1464 1464 1464 1458 1452 1452 1445 1445 1439 1439 1433 1433 1427 1427 1421 1421 1415 1415 1415 1415 1415 1415 1415 1421 1433 1439 1452 1458 1464 1477 1483 1489 1496 1509 1516 1516 1516 2271 2271 2271 2271 2271 2271 2271 2271 2271 2271 2271 2271 2271 2271 2271 2271 2271 2271 2271 2271 2271 2271 2271 2271 2271 2271 1804 1804 1804 1804 1804 1804 1804 1804 1804 1813 1813 2286 2286 2286 2286 2286 2286 2286 2286 2301 2301 2301 2286 2286 2286 2286 2286 2286 2271 2271 2271 2286 2286 2286 2286 2286 2301 2301 1873 1863 1863 1853 1853 1853 1853 1853 1421 1421 1421 1421 1421 1421 1421 1415 1415 1415 1415 1415 1415 1415 1415 1410 1410 1410 1410 1410 1410 1410 1410 1410 1410 1410 1410 1410 1410 1410 1410 1410 1404 1404 1404 2103 2103 2103 2103 2103 2103 2103 2103 2103 2301 2301 2301 2317 2317 2317 2317 2317 2317 2317 2317 2317 2317 2317 2301 2301 2301 2301 2286 2286 2286 2286 2286 2286 2286 2286 2286 2286 2286 2286 2286 2286 2286 2301 2301 2301 2301 2301 2301 2301 2301 2301 2301 2301 2301 2301 2301 2301 2301 2301 2317 2317 2317 2317 2317 2301 2301 2317 2317 2317 2317 2317 2317 2317 2317 2317 2317 2301 2301 2317 2317 2317 2317 2301 2301 2317 2317 2317 2317 2317 2317 2317 2317 2317 2317 2317 2317 2317 2317 2317 2317 2317 2317 2317 2317 2317 2317 2317 2317 2317 2317 2317 2317 2317 2317 2317 2317 2317 2317 2333 2333 2317 2317 2317 2317 2317 2317 2317 2317 2317 2317 2317 2317 2317 2317 2317 2317 2301 2301 2301 2301 2317 2317 2317 2317 2317 2317 2317 2317 2333 2317 2317 2301 2301 2301 2301 2301 2301 2301 2301 2301 0 0 0 0 0 0 0 0 0
0 0 0 0 0 0 0 0 0 0 0 0 0 0 0 0 0 0 0 0 0 0 0 0 0 0 0 0 0 0 0 0 0 0 2065 2065 2065 2065 2065 2065 2065 2065 2065 2065 2065 2065 2065 2065 2065 2065 2065 2065 2065 2065 2078 2078 2078 2078 2078 2078 2065 2065 2065 2078 2078 2078 2078 2078 2090 2090 2078 2065 2065 2078 2078 2065 2065 2065 2078 2065 2065 2065 2078 2078 2078 2078 2078 2078 2090 2090 2090 2090 2090 2078 2078 2078 2090 2090 2090 2090 2090 2090 2090 2090 2090 2090 2090 2090 2090 2103 2103 2103 2103 2103 2103 2103 2103 2103 2103 2116 2116 2116 2116 2116 2129 2116 2116 2103 1813 1813 1813 1813 1823 1823 1823 1823 1823 1823 1823 1823 1833 1833 1833 1843 1863 1883 1883 1894 1904 1904 1904 1904 1915 1926 1936 1947 1947 2143 2129 2129 2129 2129 2129 2129 2143 2143 2143 2143 2143 2143 2143 2143 2143 2143 2143 2143 2143 2143 2143 2143 2143 2143 2143 2143 2143 2143 2143 2143 2143 2143 2143 2156 2156 2156 2156 2156 2170 2170 2184 2198 2198 1713 1713 1705 1705 1705 1696 1696 1705 1705 1705 1705 1713 1713 1722 1731 1731 1739 1739 2170 2170 2184 2184 2184 2184 2184 2184 2184 2184 2184 2184 2184 2184 2184 2184 2184 2184 2184 2184 2198 2198 2198 1579 1579 1564 1557 1557 1557 1557 1550 1550 1550 1557 1557 1557 1564 1572 1572 1579 1586 1594 0 2184 0 2184 2170 2156 2143 2143 2116 2103 2090 2090 2090 2090 2103 2103 2103 2116 2129 2170 2184 2198 2212 2212 2212 1926 1926 1926 1936 1936 1936 1936 1936 1496 1496 1496 1496 1496 1496 1496 1496 1496 1496 1496 1496 1489 1489 1489 1489 1489 1489 1483 1483 1483 1483 1477 1477 1477 1470 1470 1470 1470 1470 1470 1470 1464 1464 1464 1464 1458 1458 1452 1452 1452 1445 1439 1433 1433 1427 1427 1421 1421 1415 1415 1415 1415 1415 1415 1415 1421 1433 1445 1452 1458 1470 1477 1483 1489 1496 1509 1516 1516 2241 2256 2256 2256 2271 2271 2271 2271 2271 2271 2271 2271 2271 2271 2271 2271 2271 2271 2271 2271 2271 2271 2271 2271 2271 2271 1813 1804 1804 1804 1804 1804 1804 1804 1804 1813 1813 2271 2271 2286 2286 2286 2286 2286 2286 2286 2301 2301 2301 2286 2286 2286 2286 2286 2271 2271 2271 2271 2271 2271 2271 2271 2271 2286 2301 1873 1863 1863 1853 1853 1853 1853 1853 1421 1421 1421 1421 1421 1421 1421 1421 1415 1415 1415 1421 1415 1415 1415 1415 1415 1410 1410 1410 1410 1410 1410 1410 1410 1410 1410 1410 1410 1410 1410 1410 1404 1404 1404 2116 2116 2103 2103 2103 2103 2103 2116 2116 2286 2286 2286 2301 2301 2301 2301 2317 2317 2317 2317 2301 2301 2301 2301 2301 2286 2286 2271 2271 2271 2271 2271 2271 2271 2271 2271 2286 2271 2271 2286 2286 2286 2286 2286 2301 2301 2301 2286 2286 2286 2286 2286 2286 2301 2301 2301 2301 2301 2301 2301 2301 2301 2301 2301 2301 2301 2301 2301 2301 2301 2301 2301 2301 2301 2301 2301 2301 2301 2301 2301 2301 2301 2301 2301 2301 2301 2301 2301 2301 2317 2317 2317 2317 2317 2317 2317 2317 2317 2317 2317 2317 2317 2317 2317 2317 2317 2317 2317 2317 2317 2317 2317 2317 2317 2317 2317 2317 2317 2317 2317 2317 2317 2317 2317 2317 2317 2317 2317 2317 2317 2317 2317 2317 2317 2301 2301 2301 2301 2301 2301 2301 2301 2317 2317 2317 2317 2317 2317 2317 2301 2301 2301 2301 2301 2301 2286 2286 2286 2286 2286 0 0 0 0 0 0 0 0 0
0 0 0 0 0 0 0 0 0 0 0 0 0 0 0 0 0 0 0 0 0 0 0 0 0 0 0 0 0 0 0 0 0 0 2053 2053 2053 2053 2053 2053 2053 2053 2053 2053 2053 2053 2053 2053 2053 2053 2065 2065 2065 2065 2065 2065 2065 2078 2065 2065 2065 2065 2065 2078 2065 2065 2065 2078 2078 2078 2065 2065 2065 2065 2065 2053 2053 2053 2065 2065 2065 2065 2065 2065 2065 2078 2078 2078 2078 2078 2090 2078 2078 2078 2078 2078 2078 2078 2078 2078 2078 2078 2090 2078 2078 2090 2090 2090 2090 2090 2090 2090 2103 2103 2103 2103 2103 2103 2103 2103 2116 2116 2116 2116 2116 2103 2103 2103 2103 1813 1813 1813 1823 1823 1823 1823 1823 1823 1823 1833 1833 1833 1833 1843 1863 1883 1883 1894 1904 1904 1904 1904 1915 1915 1936 2156 2143 2143 2129 2129 2129 2129 2129 2129 2129 2129 2129 2129 2143 2143 2143 2143 2143 2143 2143 2143 2143 2143 2143 2143 2143 2143 2143 2143 2143 2143 2143 2143 2143 2143 2143 2143 2143 2143 2143 2156 2156 2156 2170 2184 2184 1713 1713 1713 1713 1705 1705 1705 1705 1705 1705 1713 1713 1722 1722 1731 1731 1739 1739 2170 2170 2170 2184 2184 2184 2184 2184 2184 2184 2184 2184 2184 2184 2184 2184 2184 2184 2184 2184 1904 1904 1904 1579 1579 1564 1564 1557 1557 1557 1557 1557 1557 1557 1564 1564 1572 1572 1579 1579 1586 1594 1594 2184 2184 2170 2170 2170 2156 2156 2116 2103 2090 2090 2090 2090 2103 2103 2116 2116 2143 2156 2184 2198 2212 2212 2212 1926 1926 1926 1926 1926 1936 1936 1947 1947 1496 1496 1496 1981 1496 1496 1496 1496 1496 1496 1496 1489 1489 1489 1489 1489 1489 1483 1483 1483 1483 1477 1477 1477 1470 1470 1470 1470 1470 1470 1470 1470 1464 1464 1464 1458 1458 1452 1452 1452 1445 1439 1439 1433 1433 1427 1421 1421 1421 1415 1415 1415 1415 1415 1421 1421 1439 1445 1452 1464 1470 1477 1483 1489 1496 1509 1509 1509 2241 2241 2241 2256 2256 2256 2256 2271 2271 2271 2271 2271 2256 2256 2256 2256 2256 2256 2256 2271 2256 2256 2256 2256 2271 2271 1813 1804 1804 1804 1804 1804 1804 1804 1804 1813 1813 2271 2271 2271 2271 2271 2271 2271 2286 2286 2286 2286 2286 2286 2271 2271 2271 2271 2271 2271 2271 2271 2271 2271 2271 2271 2271 2271 2271 1873 1863 1863 1863 1863 1863 1863 1863 1427 1427 1427 1427 1421 1421 1421 1421 1415 1415 1415 1421 1421 1415 1415 1415 1415 1410 1410 1410 1410 1410 1410 1410 1410 1410 1410 1410 1410 1410 1410 1410 1410 2129 2129 2116 2116 2116 2103 2103 2103 2103 2116 2116 2256 2271 2286 2301 2301 2286 2286 2301 2301 2301 2301 2301 2301 2286 2286 2286 2286 2286 2271 2271 2271 2271 2271 2271 2271 2271 2271 2271 2271 2271 2271 2271 2271 2286 2286 2286 2286 2286 2286 2286 2286 2286 2286 2286 2286 2286 2286 2286 2286 2286 2286 2286 2286 2286 2286 2286 2286 2286 2286 2286 2286 2286 2286 2286 2301 2301 2301 2301 2301 2301 2301 2301 2301 2301 2301 2301 2301 2301 2301 2301 2317 2317 2317 2301 2301 2301 2301 2301 2301 2301 2301 2317 2301 2301 2317 2317 2317 2317 2317 2317 2317 2317 2317 2317 2301 2301 2301 2301 2301 2317 2317 2301 2301 2301 2301 2301 2301 2301 2301 2301 2317 2317 2301 2301 2301 2301 2301 2301 2301 2301 2301 2301 2301 2301 2301 2301 2301 2301 2301 2301 2301 2301 2286 2286 2286 2286 2286 2286 2286 2286 2286 0 0 0 0 0 0 0 0 0
0 0 0 0 0 0 0 0 0 0 0 0 0 0 0 0 0 0 0 0 0 0 0 0 0 0 0 0 0 0 0 0 0 0 2053 2053 2053 2053 2053 2053 2053 2053 2040 2040 2040 2040 2053 2053 2053 2053 2053 2053 2053 2053 2053 2065 2065 2065 2065 2065 2053 2053 2053 2053 2053 2053 2053 2053 2065 2065 2053 2053 2053 2053 2053 2053 2040 2040 2040 2053 2053 2053 2053 2053 2065 2065 2065 2065 2078 2078 2078 2078 2078 2078 2065 2065 2078 2078 2078 2065 2065 2078 2078 2078 2078 2078 2078 2090 2090 2090 2090 2090 2090 2090 2090 2090 2103 2103 2103 2103 2103 2103 2103 2103 2103 2103 2103 2103 2103 2103 1813 1813 1823 1823 1823 1823 1823 1823 1823 1833 1833 1833 1833 1853 1863 1883 1883 1894 1904 1904 1904 1904 1915 1915 2143 2143 2129 2129 2129 2129 2129 2129 2129 2116 2116 2116 2129 2129 2129 2129 2129 2129 2129 2143 2143 2143 2143 2143 2143 2143 2129 2129 2129 2129 2129 2129 2129 2129 2129 2143 2143 2143 2143 2143 2143 2143 2156 2156 2156 2170 2170 1713 1713 1713 1713 1705 1705 1705 1705 1705 1705 1713 1713 1722 1722 1731 1731 1731 2143 2156 2156 2156 2170 2184 2184 2184 2184 2184 2184 2170 2170 2170 2170 2170 2170 2170 2170 2170 1904 1904 1904 1904 1904 1579 1564 1564 1557 1557 1557 1557 1557 1557 1557 1564 1564 1572 1579 1579 1579 1586 1586 1586 2184 2170 2170 2170 2170 2156 2129 2103 2090 2090 2090 2090 2090 2103 2116 2116 2129 2143 2156 2170 2198 2198 2212 1915 1915 1915 1926 1926 1926 1936 1936 1947 1947 1959 1970 1970 1970 1981 1496 1496 1503 1503 1503 1503 1496 1489 1489 1489 1489 1489 1489 1489 1483 1483 1483 1477 1477 1477 1477 1470 1470 1470 1470 1470 1470 1470 1464 1464 1458 1458 1458 1452 1452 1445 1439 1439 1439 1433 1427 1421 1421 1421 1421 1421 1415 1415 1415 1421 1427 1439 1445 1452 1464 1477 1483 1483 1489 1503 1509 1509 1509 2226 2226 2241 2241 2241 2241 2241 2256 2256 2256 2256 2256 2241 2241 2241 2241 2241 2241 2256 2256 2256 2256 2256 2256 2271 2271 1813 1804 1804 1804 1804 1804 1804 1813 1813 2116 2116 2226 2271 2271 2271 2271 2271 2271 2271 2271 2271 2271 2286 2286 2271 2271 2271 2256 2256 2256 2256 2256 2256 2256 2256 2256 2271 2271 2271 1873 1873 1863 1863 1863 1863 1863 1863 1863 1427 1427 1427 1427 1427 1421 1421 1421 1421 1421 1421 1421 1421 1415 1415 1415 1415 1415 1415 1415 1415 1415 1415 1415 1410 1410 1410 1410 1410 1410 1410 2143 2129 2129 2116 2116 2116 2116 2116 2116 2116 2116 2116 2256 2256 2271 2271 2271 2271 2271 2271 2286 2286 2286 2286 2286 2286 2271 2271 2271 2271 2271 2256 2256 2256 2256 2256 2256 2256 2256 2256 2256 2271 2271 2271 2271 2271 2286 2286 2286 2286 2271 2271 2286 2286 2271 2271 2286 2286 2286 2286 2271 2271 2286 2286 2286 2286 2286 2271 2271 2271 2271 2271 2271 2271 2286 2286 2286 2301 2301 2301 2301 2286 2286 2286 2286 2286 2286 2286 2301 2301 2301 2301 2317 2317 2301 2301 2301 2301 2301 2301 2301 2301 2301 2301 2301 2301 2301 2301 2301 2301 2301 2301 2317 2317 2317 2317 2301 2301 2301 2301 2301 2301 2301 2301 2286 2286 2286 2301 2301 2301 2301 2301 2301 2301 2301 2301 2301 2301 2301 2301 2301 2301 2301 2301 2301 2301 2301 2301 2286 2286 2286 2286 2286 2286 2286 2286 2286 2286 2286 2286 2286 2271 2271 0 0 0 0 0 0 0 0 0
0 0 0 0 0 0 0 0 0 0 0 0 0 0 0 0 0 0 0 0 0 0 0 0 0 0 0 0 0 0 0 0 0 0 2040 2040 2040 2040 2040 2040 2040 2040 2040 2040 2040 2040 2053 2053 2053 2053 2053 2053 2053 2053 2053 2053 2053 2053 2053 2053 2053 2053 2053 2053 2053 2053 2053 2053 2065 2065 2053 2053 2053 2053 2040 2040 2040 2040 2040 2040 2053 2053 2053 2053 2053 2053 2053 2053 2065 2065 2065 2065 2065 2065 2065 2065 2065 2065 2065 2065 2065 2065 2065 2065 2065 2065 2078 2078 2078 2078 2078 2078 2090 2090 2090 2090 2090 2090 2103 2103 2103 2103 2103 2090 2090 2090 2090 2103 2103 2103 1813 1813 1823 1823 1823 1823 1823 1823 1833 1833 1833 1833 1843 1853 1863 1883 1883 1894 1894 1904 1904 1904 1915 2116 2116 2129 2116 2116 2116 2116 2116 2116 2116 2116 2116 2116 2116 2116 2116 2116 2129 2129 2129 2129 2129 2129 2129 2129 2129 2129 2129 2129 2129 2129 2129 2129 2129 2129 2129 2129 2143 2143 2143 2143 2143 2143 2143 2143 2156 2156 2156 1713 1713 1713 1713 1705 1705 1705 1705 1705 1713 1713 1722 1722 1722 1731 1731 1731 2143 2143 2143 2156 2170 2170 2184 2184 2170 2170 2170 2170 2156 2156 2156 2156 2170 2170 2170 1894 1894 1904 1904 1904 1904 1579 1572 1564 1564 1564 1564 1564 1564 1564 1564 1564 1564 1572 1579 1579 1579 1586 1586 2170 2170 2170 2170 2170 2170 2156 2129 2103 2090 2090 2090 2090 2090 2103 2116 2116 2129 2143 2156 2170 2184 2198 1915 1915 1915 1915 1915 1926 1926 1936 1936 1947 1947 1959 1970 1970 1970 1981 1981 1981 1981 1516 1509 1509 1496 1496 1489 1489 1489 1489 1489 1489 1483 1483 1483 1477 1477 1477 1477 1477 1477 1470 1470 1470 1470 1470 1464 1464 1458 1458 1458 1452 1452 1445 1445 1439 1439 1433 1433 1427 1427 1421 1421 1421 1421 1421 1421 1421 1427 1439 1445 1458 1464 1477 1483 1489 1489 1503 1509 2212 2212 2226 2226 2226 2241 2241 2241 2241 2241 2241 2241 2241 2241 2226 2226 2241 2241 2241 2241 2241 2241 2256 2256 2256 2256 2271 1813 1813 1804 1804 1804 1804 1804 1813 1813 1813 2116 2116 2184 2256 2256 2256 2256 2271 2271 2271 2271 2271 2271 2271 2271 2256 2256 2256 2256 2256 2241 2241 2241 2256 2256 2256 2256 2256 2256 2256 1873 1873 1873 1873 1873 1863 1863 1873 1873 1427 1427 1427 1427 1427 1427 1421 1421 1421 1421 1421 1421 1421 1421 1421 1421 1415 1415 1415 1415 1415 1415 1415 1410 1410 1410 1410 1410 1410 1410 1410 2143 2129 2129 2116 2116 2116 2116 2116 2116 2116 2129 2156 2256 2256 2256 2256 2271 2256 2256 2271 2271 2271 2271 2271 2271 2271 2271 2271 2271 2271 2256 2256 2256 2256 2256 2256 2256 2256 2256 2256 2256 2256 2256 2256 2256 2256 2256 2256 2256 2256 2256 2256 2271 2271 2271 2271 2271 2271 2271 2271 2271 2271 2271 2271 2271 2271 2271 2256 2256 2256 2256 2271 2271 2271 2271 2271 2286 2286 2286 2286 2286 2286 2286 2286 2271 2271 2286 2286 2286 2301 2301 2301 2301 2301 2301 2301 2301 2301 2301 2301 2301 2301 2301 2301 2301 2301 2301 2301 2301 2301 2301 2301 2301 2301 2301 2301 2301 2301 2301 2301 2301 2301 2301 2301 2286 2286 2286 2301 2301 2301 2301 2301 2301 2301 2301 2301 2301 2301 2286 2286 2286 2301 2301 2301 2301 2301 2286 2286 2286 2286 2286 2286 2286 2286 2286 2286 2286 2271 2271 2271 2271 2271 2271 0 0 0 0 0 0 0 0 0
0 0 0 0 0 0 0 0 0 0 0 0 0 0 0 0 0 0 0 0 0 0 0 0 0 0 0 0 0 0 0 0 0 0 2028 2028 2028 2028 2028 2028 2028 2028 2028 2028 2028 2028 2040 2040 2040 2040 2053 2040 2040 2040 2040 2053 2053 2053 2053 2053 2053 2053 2040 2040 2053 2053 2053 2053 2053 2065 2040 2040 2040 2040 2040 2040 2028 2028 2028 2040 2040 2040 2040 2040 2040 2053 2053 2053 2053 2053 2053 2065 2065 2065 2053 2053 2065 2053 2053 2053 2053 2053 2065 2065 2065 2065 2065 2065 2065 2065 2065 2065 2065 2065 2065 2078 2078 2090 2078 2078 2090 2090 2078 2078 2078 2078 2078 2090 2090 2090 1813 1813 1823 1823 1823 1823 1823 1823 1823 1833 1833 1843 1843 1863 1873 1883 1883 1894 1894 1904 1904 1904 2103 2103 2103 2116 2103 2103 2103 2103 2116 2116 2116 2103 2103 2103 2103 2103 2103 2103 2103 2103 2116 2116 2116 2116 2116 2116 2129 2129 2129 2129 2129 2129 2129 2129 2129 2129 2129 2129 2129 2129 2129 2129 2143 2143 2143 2143 2143 2143 2143 1722 1713 1713 1713 1713 1705 1705 1705 1713 1713 1713 1722 1722 1722 1722 1731 1731 2143 2143 2143 2156 2170 2170 2170 2170 2170 2170 2156 2156 2156 2156 2143 2143 2170 2170 1894 1894 1894 1894 1904 1904 1904 1579 1572 1564 1564 1564 1564 1564 1564 1564 1564 1572 1572 1579 1579 1579 1586 1586 1586 2170 2170 2170 2170 2170 2170 2156 2156 2116 2103 2090 2090 2090 2090 2103 2116 2116 2129 2143 2156 2170 2184 2198 1904 1904 1904 1904 1915 1915 1915 1926 1936 1947 1947 1959 1959 1959 1970 1981 1981 1981 2184 1516 1516 1509 1509 2184 2184 1496 1496 1496 1489 1489 1489 1483 1483 1470 1470 1470 1470 1470 1470 1477 1477 1477 1470 1470 1470 1464 1458 1458 1458 1452 1452 1452 1445 1439 1439 1439 1433 1427 1427 1421 1421 1421 1421 1421 1421 1421 1433 1439 1445 1452 1464 1477 1483 1489 1503 1503 1509 2212 2212 2226 2226 2226 2226 2226 2226 2226 2226 2226 2226 2226 2226 2226 2226 2226 2226 2226 2226 2226 2241 2241 2241 2256 2256 1813 1813 1813 1804 1804 1804 1804 1804 1813 1804 1804 2129 2170 2184 2241 2241 2241 2256 2256 2256 2256 2256 2256 2256 2271 2256 2256 2241 2241 2241 2241 2226 2226 2241 2241 2241 2241 2241 2256 2256 2256 1873 1873 1873 1873 1873 1863 1863 1863 1863 1863 1427 1427 1427 1427 1427 1427 1427 1421 1421 1427 1427 1427 1421 1421 1421 1421 1415 1415 1415 1415 1415 1415 1410 1410 1410 1410 1410 1410 1410 1410 2143 2129 2116 2103 2103 2116 2116 2116 2129 2129 2143 2170 2241 2256 2256 2256 2256 2256 2256 2271 2256 2256 2271 2271 2271 2271 2256 2256 2256 2271 2256 2256 2256 2256 2241 2241 2241 2241 2241 2241 2241 2256 2256 2256 2256 2256 2256 2256 2256 2256 2256 2256 2256 2256 2256 2256 2256 2256 2256 2256 2256 2256 2256 2256 2256 2256 2256 2256 2256 2256 2256 2256 2256 2256 2256 2256 2271 2271 2271 2271 2271 2271 2271 2271 2271 2271 2271 2271 2286 2286 2286 2301 2301 2301 2301 2301 2301 2301 2301 2301 2301 2301 2301 2301 2301 2301 2301 2301 2301 2301 2301 2301 2301 2301 2301 2301 2286 2286 2286 2286 2286 2286 2286 2286 2286 2286 2286 2286 2286 2286 2286 2286 2286 2286 2286 2286 2286 2286 2286 2286 2286 2286 2286 2286 2286 2286 2271 2271 2271 2271 2271 2271 2271 2271 2271 2271 2271 2256 2256 2256 2256 2256 2256 0 0 0 0 0 0 0 0 0
0 0 0 0 0 0 0 0 0 0 0 0 0 0 0 0 0 0 0 0 0 0 0 0 0 0 0 0 0 0 0 0 0 0 2016 2016 2016 2016 2016 2016 2016 2016 2016 2016 2028 2028 2040 2028 2028 2028 2040 2028 2028 2040 2040 2040 2053 2053 2053 2053 2053 2053 2040 2040 2040 2040 2053 2053 2053 2053 2040 2040 2040 2040 2028 2028 2028 2028 2028 2040 2040 2040 2040 2040 2040 2040 2040 2053 2053 2053 2053 2053 2053 2065 2053 2053 2053 2053 2053 2053 2053 2053 2053 2053 2053 2053 2065 2065 2065 2065 2065 2065 2065 2065 2065 2078 2078 2078 2078 2078 2078 2078 2078 2065 2065 2078 2078 2090 2090 2090 1813 1813 1823 1823 1823 1823 1823 1823 1823 1833 1833 1833 1843 1863 1873 1883 1894 1894 1904 1904 1904 1904 2090 2103 2103 2103 2090 2090 2103 2090 2090 2103 2103 2090 2090 2090 2090 2090 2103 2103 2103 2103 2103 2116 2103 2103 2103 2116 2116 2116 2129 2129 2129 2129 2129 2116 2116 2116 2129 2129 2129 2129 2129 2129 2129 2129 2129 2129 2143 2143 2143 1722 1713 1713 1713 1713 1713 1713 1713 1713 1713 1713 1722 1722 1722 1722 1731 2143 2143 2143 2143 2143 2156 2156 2156 2156 2156 2156 2156 2143 2143 2143 2143 2143 2170 1883 1883 1883 1894 1894 1894 1894 1894 1579 1572 1564 1564 1564 1564 1564 1564 1564 1572 1572 1579 1579 1579 1579 1586 1586 1586 2170 2156 2156 2170 2170 2170 2156 2143 2116 2103 2090 2090 2090 2090 2103 2103 2116 2129 2143 2156 2170 2184 1894 1894 1894 1904 1904 1904 1915 1915 1915 1936 1936 1947 1959 1959 1959 1970 1981 1981 1981 2184 1516 1516 2170 2170 2184 2184 2184 2184 2184 2184 2170 2170 2170 2170 1470 1470 1470 1470 1470 1470 1477 1477 1477 1470 1470 1470 1464 1458 1458 1458 1452 1452 1452 1445 1439 1439 1439 1433 1433 1427 1427 1427 1427 1421 1421 1421 1427 1439 1439 1445 1452 1458 1464 1470 1489 1503 1503 1503 2212 2212 2212 2226 2226 2226 2226 2226 2226 2226 2226 2226 2226 2226 2212 2212 2212 2212 2226 2226 2226 2226 2241 2241 2256 2256 1804 1804 1804 1813 1813 1804 1804 1813 1813 1804 1804 1813 2170 2198 2226 2226 2226 2241 2256 2256 2256 2241 2241 2256 2256 2256 2241 2226 2226 2226 2226 2212 2212 2212 2226 2226 2226 2241 2241 2241 2241 1873 1873 1873 1873 1873 1873 1873 1863 1863 1863 1863 1427 1427 1427 1427 1427 1427 1427 1427 1427 1427 1427 1427 1427 1421 1421 1421 1421 1421 1415 1415 1415 1415 1415 1415 1410 1410 1410 1415 2143 2143 2129 2116 2103 2103 2116 2116 2116 2129 2129 2156 2212 2241 2256 2256 2256 2256 2256 2256 2256 2256 2256 2256 2256 2256 2256 2256 2256 2256 2256 2241 2241 2241 2241 2241 2241 2241 2241 2241 2241 2241 2241 2241 2241 2241 2241 2241 2241 2241 2256 2256 2256 2256 2256 2256 2256 2256 2256 2256 2256 2256 2256 2241 2241 2256 2256 2256 2256 2256 2256 2256 2256 2256 2256 2256 2256 2256 2256 2256 2256 2256 2256 2256 2256 2256 2256 2256 2256 2271 2271 2271 2271 2271 2286 2286 2286 2286 2286 2286 2286 2286 2286 2286 2301 2286 2286 2286 2286 2286 2286 2286 2286 2286 2286 2301 2301 2286 2286 2286 2286 2286 2286 2271 2271 2271 2271 2271 2286 2286 2286 2286 2271 2271 2271 2271 2271 2271 2286 2286 2286 2286 2286 2286 2271 2271 2271 2256 2256 2256 2256 2256 2256 2256 2256 2256 2256 2256 2256 2256 2256 2256 2256 2256 0 0 0 0 0 0 0 0 0
0 0 0 0 0 0 0 0 0 0 0 0 0 0 0 0 0 0 0 0 0 0 0 0 0 0 0 0 0 0 0 0 0 0 2016 2016 2016 2016 2016 2016 2016 2016 2016 2016 2016 2016 2016 2016 2016 2028 2028 2028 2028 2028 2028 2028 2040 2040 2040 2040 2053 2053 2040 2040 2040 2040 2040 2040 2053 2053 2040 2040 2028 2028 2028 2028 2028 2028 2028 2028 2028 2028 2040 2040 2040 2040 2040 2040 2053 2053 2053 2053 2053 2065 2053 2053 2053 2053 2053 2053 2053 2053 2053 2053 2053 2053 2053 2053 2065 2053 2053 2053 2053 2065 2065 2065 2065 2065 2065 2065 2065 2065 2065 2065 2065 2065 2078 2090 2090 2090 1823 1823 1823 1823 1823 1823 1823 1823 1823 1833 1833 1833 1843 1863 1873 1894 1894 1904 1904 1904 1904 1904 2090 2090 2103 2103 2090 2090 2090 2090 2090 2090 2090 2090 2090 2090 2090 2090 2090 2090 2090 2090 2090 2103 2103 2090 2090 2090 2090 2103 2103 2103 2103 2103 2103 2103 2103 2103 2116 2116 2116 2116 2116 2116 2116 2116 2116 2116 2129 2129 2129 1722 1713 1713 1713 1713 1713 1713 1713 1713 1713 1713 1722 1722 1722 1722 1731 2129 2129 2129 2129 2143 2143 2143 2143 2143 2143 2143 2143 2143 2143 2143 2143 2143 1873 1873 1883 1883 1894 1894 1894 1894 1894 1579 1572 1564 1564 1564 1564 1572 1572 1572 1572 1572 1579 1579 1579 1579 1586 1586 1586 2156 2156 2156 2156 2156 2156 2156 2143 2116 2103 2090 2090 2090 2103 2103 2103 2116 2129 2143 2156 2170 2184 1894 1894 1894 1894 1894 1904 1904 1904 1915 1926 1936 1947 1959 1959 1970 1970 1981 1981 1981 2184 1523 1523 2170 2170 2170 2184 2184 2184 2184 2184 2170 2170 2170 2170 2170 1477 1477 1470 1470 1470 1477 1477 1477 1470 1470 1470 1464 1458 1458 1458 1452 1452 1445 1445 1439 1439 1439 1433 1433 1427 1427 1427 1427 1427 1427 1427 1433 1439 1439 1452 1452 1458 1464 1470 1470 1503 1503 1503 2212 2212 2212 2226 2212 2212 2212 2226 2226 2226 2226 2226 2226 2212 2212 2212 2212 2212 2212 2212 2226 2226 2226 2226 2241 2241 1804 1804 1804 1804 1804 1813 1813 1813 1813 1813 1813 1813 2198 2212 2212 2212 2226 2226 2226 2226 2226 2226 2226 2241 2241 2241 2226 2226 2226 2212 2212 2212 2212 2212 2212 2212 2226 2226 2226 2226 2226 1873 1873 1873 1873 1873 1873 1873 1873 1863 1863 1863 1843 1427 1427 1427 1427 1427 1427 1427 1427 1427 1427 1427 1427 1427 1427 1421 1421 1421 1415 1415 1415 1415 1415 1415 1410 1410 1410 1415 2143 2143 2129 2129 2116 2116 2116 2129 2129 2143 2156 2184 2212 2241 2241 2241 2241 2256 2241 2241 2256 2256 2256 2256 2256 2256 2256 2256 2256 2256 2256 2241 2241 2241 2241 2241 2241 2241 2241 2241 2241 2241 2241 2241 2241 2241 2241 2241 2241 2241 2241 2256 2256 2256 2256 2256 2256 2241 2241 2241 2241 2241 2241 2241 2241 2241 2241 2256 2241 2241 2241 2241 2256 2256 2241 2241 2256 2256 2256 2256 2256 2256 2256 2256 2256 2256 2256 2256 2256 2256 2256 2256 2256 2256 2256 2256 2271 2271 2271 2271 2271 2271 2271 2271 2271 2271 2271 2271 2271 2271 2271 2271 2271 2271 2286 2286 2286 2271 2271 2271 2271 2271 2256 2256 2271 2271 2271 2271 2271 2271 2271 2271 2256 2256 2256 2256 2256 2256 2271 2271 2271 2271 2271 2256 2256 2256 2241 2241 2241 2241 2241 2241 2241 2241 2241 2241 2241 2241 2241 2241 2241 2241 2241 2241 0 0 0 0 0 0 0 0 0
0 0 0 0 0 0 0 0 0 0 0 0 0 0 0 0 0 0 0 0 0 0 0 0 0 0 0 0 0 0 0 0 0 0 2005 2005 2005 2005 2005 2016 2016 2016 2016 2016 2016 2016 2016 2016 2016 2028 2028 2016 2016 2016 2016 2028 2028 2028 2028 2040 2040 2040 2028 2028 2028 2040 2040 2040 2040 2053 2028 2028 2028 2028 2016 2016 2016 2016 2016 2028 2028 2028 2040 2040 2040 2040 2040 2040 2040 2040 2053 2053 2053 2053 2053 2053 2053 2053 2053 2053 2040 2040 2040 2053 2053 2053 2053 2053 2053 2053 2053 2053 2053 2053 2053 2065 2065 2065 2053 2053 2053 2053 2053 2053 2053 2065 2065 2078 2078 1833 1823 1823 1823 1823 1823 1823 1823 1823 1823 1833 1833 1833 1853 1863 1883 1894 1904 1904 1915 1915 2090 2090 2090 2090 2090 2103 2090 2090 2090 2090 2090 2090 2090 2078 2078 2078 2078 2078 2078 2078 2090 2090 2090 2090 2090 2090 2090 2090 2090 2090 2090 2090 2090 2103 2103 2103 2103 2103 2103 2103 2103 2103 2103 2103 2103 2103 2103 2116 2116 2116 2116 1722 1713 1713 1713 1713 1713 1713 1713 1713 1713 1722 1722 1731 1731 1731 1731 2129 2129 2129 2129 2129 2129 2129 2143 2143 2143 2143 2143 2143 2143 2143 1863 1863 1873 1873 1883 1883 1883 1894 1894 1894 1894 1572 1572 1572 1572 1572 1572 1572 1572 1572 1572 1579 1579 1579 1579 1579 1586 1586 1586 2156 2143 2143 2143 2156 2143 2143 2129 2116 2103 2090 2090 2090 2103 2103 2103 2116 2129 2143 2156 2170 2170 1894 1894 1894 1894 1894 1894 1904 1904 1915 1926 1936 1947 1959 1959 1970 1970 1981 1981 1981 2184 2170 2170 2170 2170 2170 2184 2184 2184 2184 2184 2170 2170 2170 2170 2156 2156 2156 1483 1483 1483 1483 1483 1477 1470 1470 1470 1464 1458 1458 1458 1452 1452 1445 1445 1439 1439 1439 1433 1433 1433 1427 1427 1427 1427 1427 1427 1433 1439 1445 1452 1458 1458 1464 1464 2198 1503 1503 2212 2212 2212 2212 2212 2212 2212 2212 2212 2212 2212 2212 2212 2212 2212 2212 2212 2212 2212 2212 2212 2212 2212 2226 2226 2241 1804 1804 1804 1804 1804 1804 1813 1813 1813 1813 1813 1813 1813 2198 2212 2212 2212 2226 2226 2226 2226 2226 2226 2226 2226 2226 2226 2212 2212 2212 2212 2212 2212 2212 2212 2212 2212 2212 2212 2212 2212 2212 1873 1873 1873 1873 1873 1873 1873 1873 1863 1863 1863 1843 1843 1843 1427 1427 1427 1427 1427 1427 1427 1427 1427 1427 1427 1427 1427 1427 1421 1421 1421 1421 1415 1415 1415 1410 1410 1410 1415 2143 2143 2129 2129 2116 2116 2116 2129 2129 2143 2156 2184 2198 2226 2241 2241 2241 2241 2241 2241 2241 2241 2241 2241 2256 2256 2256 2241 2241 2256 2256 2241 2241 2241 2241 2241 2226 2226 2226 2226 2226 2226 2226 2226 2226 2226 2226 2226 2241 2241 2241 2241 2241 2241 2241 2241 2241 2241 2241 2241 2241 2241 2241 2241 2241 2241 2241 2241 2241 2241 2241 2241 2241 2241 2241 2241 2241 2241 2256 2256 2256 2256 2256 2256 2256 2256 2256 2256 2256 2256 2256 2256 2256 2256 2256 2256 2256 2256 2256 2271 2271 2271 2271 2271 2271 2256 2256 2256 2256 2256 2256 2256 2256 2256 2256 2256 2256 2256 2256 2256 2256 2256 2256 2256 2256 2256 2256 2256 2256 2256 2256 2241 2241 2241 2241 2241 2241 2241 2241 2256 2241 2241 2241 2241 2241 2241 2241 2241 2241 2241 2241 2241 2241 2241 2241 2241 2241 2241 2241 2241 2241 2226 2226 2226 0 0 0 0 0 0 0 0 0
0 0 0 0 0 0 0 0 0 0 0 0 0 0 0 0 0 0 0 0 0 0 0 0 0 0 0 0 0 0 0 0 0 0 2005 2005 2005 2005 2005 2016 2005 2005 2016 2016 2016 2016 2016 2016 2016 2016 2016 2016 2016 2016 2016 2028 2028 2028 2028 2028 2028 2028 2016 2016 2028 2028 2028 2028 2040 2040 2028 2028 2016 2016 2016 2016 2016 2005 2005 2016 2016 2016 2028 2028 2028 2028 2028 2040 2040 2040 2040 2040 2040 2040 2040 2040 2040 2040 2040 2040 2028 2028 2040 2040 2040 2040 2053 2053 2053 2053 2053 2053 2053 2053 2053 2053 2065 2053 2053 2053 2053 2053 2053 2053 2053 2053 2065 2078 2078 1823 1823 1823 1823 1823 1823 1823 1823 1823 1823 1833 1833 1843 1853 1873 1894 1904 1915 1915 1915 1915 2078 2090 2090 2090 2090 2090 2090 2090 2090 2090 2090 2090 2078 2078 2078 2078 2078 2078 2078 2078 2090 2090 2090 2090 2090 2090 2090 2090 2090 2090 2090 2090 2090 2090 2103 2103 2090 2090 2103 2103 2103 2103 2103 2103 2103 2103 2103 2103 2116 2116 2116 1722 1722 1713 1713 1713 1713 1713 1713 1713 1713 1722 1731 1731 1731 1731 1731 2129 2116 2116 2129 2129 2129 2129 2129 2129 2143 2143 2143 2143 1863 1863 1863 1863 1863 1863 1873 1883 1883 1883 1883 1894 1579 1572 1572 1564 1564 1572 1572 1572 1572 1572 1572 1579 1579 1579 1579 1579 1586 1586 1594 2143 2129 2129 2143 2143 2129 2129 2129 2116 2103 2090 2090 2090 2103 2103 2103 2116 2129 2143 2156 2156 2170 1883 1883 1883 1883 1894 1894 1904 1904 1915 1926 1936 1947 1959 1959 1970 1970 1981 1981 2184 2170 2170 2170 2170 2170 2170 2170 2170 2170 2170 2170 2170 2170 2170 2170 2156 2156 2156 2156 1483 1483 1489 1489 1477 1477 1470 1470 1464 1458 1458 1452 1452 1452 1445 1439 1439 1439 1439 1439 1433 1433 1433 1433 1433 1433 1433 1433 1433 1439 1445 1452 1458 1458 1458 2184 2198 2198 2198 2198 2198 2198 2198 2198 2212 2198 2198 2198 2212 2212 2212 2212 2212 2212 2198 2198 2198 2198 2198 2198 2198 2198 2212 2198 2198 1804 1804 1804 1804 1813 1813 1813 1813 1823 1823 1813 1813 1813 1833 2212 2212 2212 2212 2212 2212 2212 2212 2226 2226 2226 2226 2226 2212 2212 2212 2212 2212 2212 2212 2212 2212 2212 2212 2212 2212 2198 2198 1873 1873 1873 1873 1873 1873 1873 1873 1873 1873 1873 1873 1427 1427 1427 1427 1433 1427 1427 1427 1427 1427 1427 1427 1427 1427 1427 1427 1427 1427 1427 1421 1415 1415 1415 1410 1410 1410 2156 2143 2143 2129 2129 2129 2129 2129 2129 2143 2156 2156 2184 2198 2226 2226 2226 2226 2241 2241 2241 2241 2241 2241 2241 2241 2241 2241 2241 2241 2241 2241 2226 2226 2226 2226 2226 2226 2226 2226 2226 2212 2212 2212 2212 2212 2226 2212 2212 2226 2226 2226 2241 2241 2241 2241 2241 2241 2226 2226 2226 2226 2241 2226 2226 2241 2241 2241 2241 2241 2241 2241 2241 2241 2241 2241 2241 2241 2241 2241 2241 2241 2256 2256 2256 2241 2241 2241 2241 2241 2241 2241 2241 2241 2241 2241 2241 2256 2256 2256 2256 2256 2256 2256 2256 2256 2256 2256 2256 2256 2256 2256 2256 2256 2256 2256 2256 2256 2241 2241 2241 2241 2241 2241 2241 2241 2241 2241 2241 2241 2241 2241 2226 2226 2226 2241 2241 2241 2241 2241 2241 2241 2241 2241 2241 2241 2241 2241 2241 2241 2241 2241 2241 2241 2241 2241 2241 2226 2226 2226 2226 2226 2226 2212 2212 0 0 0 0 0 0 0 0 0
0 0 0 0 0 0 0 0 0 0 0 0 0 0 0 0 0 0 0 0 0 0 0 0 0 0 0 0 0 0 0 0 0 0 2005 2005 2005 2005 2005 2005 2005 2005 2005 2005 2005 2005 2016 2016 2016 2016 2016 2016 2016 2016 2016 2016 2016 2016 2016 2016 2016 2016 2016 2016 2016 2016 2016 2016 2028 2028 2016 2016 2016 2016 2005 2005 2005 2005 2005 2005 2005 2005 2016 2016 2016 2028 2028 2028 2040 2040 2040 2040 2040 2040 2040 2040 2028 2016 2016 2028 2028 2028 2028 2028 2040 2040 2040 2040 2053 2053 2053 2053 2053 2053 2053 2053 2053 2053 2040 2040 2040 2040 2053 2053 2053 2053 2053 2053 2065 1823 1823 1823 1823 1823 1823 1823 1823 1823 1823 1833 1833 1843 1863 1873 1904 1926 1936 1936 1947 1959 2040 2078 2078 2090 2090 2090 2078 2078 2078 2078 2078 2078 2078 2078 2078 2078 2078 2078 2078 2078 2078 2078 2078 2078 2090 2090 2090 2078 2078 2090 2090 2090 2090 2090 2090 2090 2090 2090 2090 2103 2090 2090 2090 2090 2090 2090 2090 2090 2103 2103 2103 1722 1722 1722 1713 1713 1713 1713 1713 1713 1722 1722 1731 1739 1739 1739 1739 2103 2116 2116 2116 2129 2129 2129 2129 2129 2143 2129 2129 2143 1853 1853 1863 1863 1863 1863 1873 1873 1873 1883 1883 1883 1572 1572 1572 1564 1564 1572 1572 1572 1572 1572 1572 1579 1579 1579 1579 1586 1586 1586 1594 2116 2116 2116 2129 2129 2129 2129 2129 2116 2103 2103 2090 2090 2103 2103 2103 2116 2129 2143 2143 2143 1843 1843 1853 1873 1883 1883 1894 1894 1904 1915 1936 1936 1947 1959 1970 1970 1981 1981 1981 2184 2170 2156 2156 2156 2156 2156 2170 2170 2170 2170 2170 2170 2170 2170 2170 2156 2156 2156 2156 2156 2156 2156 2156 2156 1483 1483 1470 1464 1458 1458 1452 1452 1452 1445 1439 1439 1439 1439 1439 1433 1433 1433 1433 1433 1433 1433 1433 1433 1439 1445 1452 1458 1458 1458 2170 2170 2184 2184 2184 2184 2184 2184 2198 2198 2198 2198 2198 2198 2198 2198 2198 2198 2198 2198 2198 2198 2198 2198 2198 2198 2198 2198 2198 2198 1804 1804 1804 1804 1813 1813 1823 1823 1823 1823 1823 1823 1833 1833 2212 2212 2212 2212 2212 2212 2212 2212 2212 2212 2212 2212 2226 2212 2212 2212 2212 2212 2198 2198 2198 2198 2212 2198 2198 2198 2198 2198 1873 1873 1873 1873 1873 1873 1873 1883 1894 1904 1904 0 0 1427 1427 1427 1433 1433 1433 1433 1433 1427 1427 1427 1427 1427 1427 1427 1427 1427 1427 1427 1421 1421 1421 1415 1415 1415 2156 2143 2143 2129 2129 2129 2129 2129 2129 2143 2156 2170 2184 2198 2212 2226 2226 2226 2226 2226 2226 2226 2226 2226 2226 2241 2241 2241 2241 2241 2241 2241 2212 2212 2212 2212 2212 2212 2212 2212 2212 2212 2212 2212 2212 2212 2212 2212 2212 2212 2226 2226 2226 2226 2226 2226 2226 2212 2212 2226 2226 2226 2226 2226 2226 2226 2226 2226 2226 2226 2241 2241 2241 2241 2241 2241 2241 2241 2241 2241 2241 2241 2241 2241 2241 2241 2241 2241 2241 2241 2241 2226 2226 2241 2241 2241 2241 2241 2241 2241 2241 2241 2256 2256 2256 2256 2256 2256 2256 2256 2256 2256 2256 2256 2256 2256 2241 2241 2241 2241 2241 2241 2241 2241 2241 2241 2241 2241 2241 2241 2226 2226 2226 2226 2226 2226 2226 2226 2226 2226 2226 2226 2226 2226 2226 2226 2226 2226 2226 2226 2226 2226 2226 2226 2226 2226 2226 2226 2226 2226 2226 2226 2226 2212 2212 0 0 0 0 0 0 0 0 0
0 0 0 0 0 0 0 0 0 0 0 0 0 0 0 0 0 0 0 0 0 0 0 0 0 0 0 0 0 0 0 0 0 0 1993 1993 1993 1993 1993 1993 1993 1993 2005 2005 2005 2005 2005 2005 2005 2005 2005 2005 2005 2005 2005 2016 2005 2005 2016 2016 2016 2016 2016 2016 2016 2016 2016 2016 2016 2016 2005 2005 2005 2005 2005 2005 2005 2005 2005 2005 2005 2005 2016 2016 2016 2028 2028 2028 2040 2040 2040 2040 2028 2028 2028 2028 2016 2016 2016 2016 2016 2016 2016 2028 2028 2040 2040 2040 2040 2040 2040 2053 2053 2053 2053 2053 2053 2040 2040 2040 2040 2040 2040 2040 2040 2040 2040 2053 2053 1833 1833 1823 1823 1823 1823 1823 1823 1833 1833 1833 1833 1843 1853 1873 1926 1936 1947 1959 1959 1981 2040 2078 2078 2078 2090 2090 2078 2078 2078 2078 2078 2078 2065 2065 2065 2078 2065 2065 2065 2078 2078 2078 2078 2078 2078 2078 2078 2078 2078 2078 2078 2078 2090 2090 2090 2090 2090 2090 2090 2090 2090 2090 2090 2090 2090 2090 2090 2090 2090 2090 2090 1722 1722 1722 1713 1713 1713 1713 1713 1722 1722 1731 1731 1739 1739 1739 1739 2090 2103 2103 2116 2116 2129 2129 2129 2129 2129 2129 2129 1853 1853 1853 1863 1863 1863 1863 1863 1863 1873 1873 1873 1883 1572 1572 1572 1564 1564 1572 1572 1572 1572 1572 1572 1579 1586 1586 1586 1594 1594 1594 1601 2103 2103 2116 2116 2129 2129 2116 2116 2116 2103 2103 2103 2103 2103 2103 2103 2116 2129 2143 2143 1843 1843 1843 1853 1863 1883 1883 1894 1894 1904 1904 1926 1936 1947 1959 1970 1981 1981 1981 2129 2129 2129 2129 2143 2143 2143 2143 2143 2156 2156 2156 2170 2170 2170 2170 2170 2156 2156 2143 2143 2143 2143 2143 2143 2143 2156 2143 2143 2143 1458 1458 1452 1445 1445 1439 1439 1439 1439 1439 1439 1433 1433 1433 1433 1433 1433 1433 1433 1433 1445 1445 1452 1458 1458 1458 2156 2170 2170 2170 2170 2170 2170 2170 2184 2184 2184 2184 2184 2198 2198 2198 2198 2198 2198 2198 2198 2184 2184 2184 2184 2184 2184 2184 2184 2184 1804 1804 1804 1804 1813 1813 1823 1823 1823 1833 1833 1833 1833 2198 2212 2212 2212 2212 2212 2212 2212 2212 2212 2212 2212 2212 2212 2198 2198 2198 2198 2198 2198 2198 2198 2198 2198 2198 2198 2198 2198 2198 1873 1873 1873 1873 1873 1873 1883 1883 1894 1904 1904 0 0 1427 1427 1427 1433 1433 1433 1433 1433 1433 1427 1427 1427 1427 1427 1427 1427 1427 1427 1427 1421 1421 1421 1427 1427 2143 2143 2129 2129 2129 2129 2129 2129 2129 2143 2143 2170 2170 2184 2198 2212 2212 2212 2212 2226 2226 2226 2226 2226 2226 2226 2226 2226 2226 2226 2226 2226 2226 2212 2212 2212 2212 2212 2198 2198 2212 2212 2198 2198 2212 2212 2212 2212 2212 2198 2198 2212 2212 2212 2212 2212 2212 2212 2212 2212 2212 2212 2212 2226 2212 2212 2226 2226 2226 2226 2226 2241 2241 2241 2241 2226 2226 2226 2226 2226 2226 2226 2226 2226 2241 2241 2226 2226 2226 2226 2226 2226 2212 2212 2226 2226 2226 2226 2241 2241 2241 2241 2241 2256 2241 2241 2256 2241 2241 2256 2256 2256 2241 2241 2241 2241 2241 2241 2241 2241 2226 2226 2226 2226 2226 2226 2226 2226 2226 2226 2226 2226 2226 2212 2212 2212 2212 2226 2226 2226 2226 2226 2226 2226 2226 2226 2212 2212 2226 2226 2226 2226 2226 2226 2226 2226 2226 2226 2226 2226 2226 2226 2226 2226 2212 2212 0 0 0 0 0 0 0 0 0
0 0 0 0 0 0 0 0 0 0 0 0 0 0 0 0 0 0 0 0 0 0 0 0 0 0 0 0 0 0 0 0 0 0 1993 1993 1993 1993 1993 1993 1993 1993 2005 2005 2005 2005 1993 1993 1993 1993 1993 1993 1993 1993 2005 2005 2005 2005 2005 2005 2005 2005 2005 2005 2016 2016 2016 2016 2016 2016 2005 2005 2005 2005 2005 2005 2005 2005 2005 1993 1993 2005 2005 2005 2016 2016 2028 2028 2028 2040 2028 2028 2028 2028 2016 2016 2005 2005 2005 2016 2016 2016 2016 2016 2016 2028 2028 2028 2040 2040 2040 2040 2040 2040 2040 2040 2040 2040 2040 2040 2040 2040 2040 2040 2040 2040 2040 2040 2053 1833 1833 1833 1833 1833 1833 1833 1833 1833 1833 1833 1833 1843 1843 1873 1947 1947 1959 1970 1970 2005 2028 2078 2078 2078 2078 2078 2065 2065 2065 2065 2065 2065 2065 2065 2065 2065 2065 2065 2065 2065 2065 2065 2065 2065 2078 2078 2078 2078 2078 2078 2078 2078 2078 2078 2090 2090 2090 2090 2090 2090 2090 2078 2078 2078 2078 2078 2078 2078 2090 2090 2090 1722 1722 1722 1713 1713 1713 1713 1713 1722 1722 1731 1731 1739 1739 1739 1739 2090 2103 2103 2103 2116 2129 2129 2129 2129 1823 1823 1833 1833 1843 1863 1863 1863 1863 1863 1863 1863 1873 1873 1873 1883 1572 1572 1572 1572 1572 1572 1572 1572 1572 1572 1572 1579 1586 1586 1586 1594 1594 1601 1601 2103 2103 2116 2116 2116 2116 2116 2116 2116 2116 2103 2103 2103 2103 2103 2103 2116 2143 1853 1853 1843 1843 1843 1853 1863 1883 1883 1894 1894 1904 1904 1926 1936 1959 1959 1970 1981 1981 1993 1993 2116 2116 2129 2129 2129 2129 2129 2143 2143 2156 2156 2156 2143 2143 2156 2156 2143 2143 2143 2143 2143 2143 2143 2143 2143 2143 2143 2129 2129 2129 2116 1452 1445 1445 1439 1439 1439 1439 1439 1439 1433 1433 1433 1433 1433 1433 1433 1433 1433 1445 1445 1458 1458 1458 1458 2143 2156 2156 2156 2156 2170 2170 2170 2170 2170 2170 2170 2170 2184 2184 2184 2184 2184 2198 2184 2184 2184 2184 2184 2184 2184 2184 2184 2184 2184 1804 1804 1813 1813 1813 1813 1823 1823 1833 1833 1833 1833 1833 1853 2198 2198 2198 2198 2184 2184 2198 2198 2198 2198 2198 2198 2212 2198 2198 2198 2198 2198 2198 2198 2198 2198 2198 2198 2198 2198 2198 2198 1883 1873 1873 1883 1883 1883 1883 1883 1894 1904 1904 0 0 1433 1433 1433 1433 1433 1433 1433 1433 1433 1433 1427 1427 1427 1427 1427 1427 1427 1427 1427 1427 1427 1427 1427 1427 2129 2129 2129 2129 2129 2129 2129 2143 2143 2143 2156 2170 2184 2184 2198 2198 2212 2212 2212 2212 2212 2212 2212 2212 2212 2212 2212 2212 2212 2212 2212 2212 2212 2212 2198 2198 2198 2198 2198 2198 2198 2198 2198 2198 2198 2198 2198 2198 2198 2198 2198 2198 2198 2198 2198 2198 2198 2198 2198 2198 2198 2198 2212 2212 2212 2212 2212 2212 2212 2212 2212 2226 2226 2226 2226 2226 2226 2226 2226 2226 2226 2212 2212 2226 2226 2226 2226 2226 2226 2212 2212 2212 2212 2212 2212 2212 2226 2226 2226 2226 2241 2241 2241 2241 2241 2241 2241 2241 2241 2241 2241 2241 2241 2241 2241 2241 2241 2226 2226 2226 2226 2226 2226 2226 2226 2226 2226 2226 2226 2226 2226 2226 2212 2212 2212 2212 2212 2212 2212 2212 2212 2212 2212 2212 2212 2212 2212 2212 2212 2212 2226 2226 2226 2226 2226 2226 2226 2226 2226 2226 2226 2212 2212 2226 2212 2212 0 0 0 0 0 0 0 0 0
0 0 0 0 0 0 0 0 0 0 0 0 0 0 0 0 0 0 0 0 0 0 0 0 0 0 0 0 0 0 0 0 0 0 1981 1981 1981 1981 1993 1993 1993 1993 1993 1993 1993 1993 1993 1993 1993 1993 1993 1993 1993 1993 1993 2005 1993 1993 1993 1993 2005 2005 2005 2005 2005 2016 2016 2016 2016 2016 2005 2005 1993 1993 2005 2005 2005 1993 1993 1993 1993 1993 2005 2005 2005 2016 2028 2028 2028 2028 2028 2028 2016 2016 2016 2016 2005 2005 2005 2005 2005 2005 2005 2016 2016 2016 2028 2028 2028 2028 2028 2028 2028 2028 2028 2028 2028 2040 2040 2040 2040 2040 2040 2040 2040 2028 2028 2040 2040 1833 1833 1833 1833 1833 1833 1833 1833 1833 1833 1833 1843 1843 1843 1873 1947 1959 1959 1970 1970 2005 2028 2065 2078 2078 2078 2078 2065 2065 2053 2053 2053 2053 2053 2053 2053 2053 2053 2053 2053 2053 2065 2065 2053 2053 2065 2065 2065 2065 2065 2078 2078 2078 2078 2078 2078 2078 2078 2078 2078 2078 2078 2078 2078 2078 2078 2078 2078 2078 2078 2078 2078 1722 1722 1713 1713 1713 1713 1713 1713 1722 1722 1731 1731 1739 1739 1739 1739 2090 2090 2090 2103 2103 2116 2116 2116 1813 1813 1823 1833 1833 1843 1853 1863 1863 1863 1863 1863 1863 1873 1873 1883 1883 1579 1579 1572 1572 1572 1572 1572 1572 1572 1572 1572 1579 1586 1586 1586 1594 1594 1601 1601 2103 2103 2103 2116 2116 2116 2116 2116 2116 2116 2116 2103 2103 2103 2103 2103 2116 2116 1853 1853 1843 1843 1853 1863 1863 1883 1883 1883 1894 1904 1915 1947 1959 1970 1970 1981 1981 1981 1993 2028 2103 2103 2116 2116 2129 2129 2129 2129 2129 2143 2143 2143 2143 2143 2143 2143 2143 2143 2143 2129 2129 2129 2143 2143 2143 2143 2129 2129 2129 2116 2103 2103 1445 1445 1439 1433 1433 1439 1439 1439 1433 1433 1433 1433 1433 1433 1433 1439 1439 1445 1445 1452 1458 1458 1464 2143 2143 2156 2156 2156 2156 2156 2156 2156 2156 2170 2170 2170 2170 2170 2170 2170 2170 2184 2184 2184 2170 2170 2170 2170 2170 2170 2170 2184 2184 1804 1804 1813 1813 1823 1823 1823 1833 1833 1833 1833 1843 1843 1853 2198 2198 2184 2184 2184 2184 2184 2184 2184 2198 2198 2198 2198 2184 2184 2198 2198 2198 2198 2198 2198 2198 2198 2198 2198 2198 2198 2198 1883 1873 1873 1883 1883 1883 1883 1883 1894 1904 0 0 0 1433 1433 1433 1433 1433 1433 1433 1433 1433 1433 1433 1433 1433 1433 1433 1433 1433 1433 1433 1433 1439 1439 1439 0 2129 2129 2129 2129 2129 2129 2143 2143 2143 2143 2156 2170 2184 2184 2198 2198 2198 2212 2212 2212 2198 2198 2198 2198 2198 2198 2198 2198 2212 2212 2212 2212 2212 2212 2198 2198 2198 2198 2184 2184 2198 2198 2198 2198 2198 2198 2198 2198 2198 2198 2198 2198 2198 2184 2184 2198 2198 2198 2198 2198 2198 2198 2198 2198 2198 2198 2212 2198 2198 2198 2198 2212 2212 2212 2212 2212 2212 2212 2212 2212 2212 2212 2212 2212 2212 2226 2212 2212 2212 2212 2212 2212 2212 2212 2212 2212 2212 2212 2212 2226 2226 2226 2226 2241 2241 2241 2241 2241 2241 2241 2241 2241 2226 2226 2226 2226 2241 2226 2226 2226 2212 2212 2212 2212 2212 2226 2212 2212 2226 2226 2212 2212 2212 2212 2212 2198 2198 2212 2212 2212 2212 2212 2212 2212 2198 2198 2198 2198 2212 2212 2212 2212 2212 2212 2212 2212 2226 2226 2226 2212 2212 2212 2212 2212 2198 2198 0 0 0 0 0 0 0 0 0
0 0 0 0 0 0 0 0 0 0 0 0 0 0 0 0 0 0 0 0 0 0 0 0 0 0 0 0 0 0 0 0 0 0 1981 1981 1981 1981 1981 1981 1981 1981 1981 1993 1993 1993 1993 1993 1993 1993 1993 1981 1981 1981 1981 1993 1993 1993 1993 1993 1993 2005 1993 1993 2005 2005 2005 2005 2005 2005 1993 1993 1993 1993 1993 1993 1993 1993 1993 1993 1993 1993 1993 2005 2005 2016 2016 2016 2016 2028 2016 2016 2016 2005 2005 2005 2005 2005 2005 2005 2005 2005 2005 2016 2016 2016 2016 2016 2016 2016 2016 2016 2016 2016 2016 2016 2016 2028 2028 2028 2028 2028 2028 2028 2028 2028 2028 2028 2040 1833 1833 1833 1833 1833 1833 1833 1833 1833 1833 1833 1843 1843 1853 1947 1959 1959 1959 1970 1981 2005 2016 2065 2065 2078 2065 2065 2053 2053 2040 2040 2040 2040 2040 2040 2040 2053 2053 2053 2053 2053 2053 2053 2053 2053 2053 2053 2065 2065 2065 2065 2078 2078 2078 2078 2078 2078 2078 2078 2078 2078 2078 2065 2065 2065 2065 2065 2065 2065 2078 2078 2078 1722 1722 1713 1713 1713 1713 1713 1722 1722 1722 1731 1731 1739 1739 1739 1739 1748 2090 2090 2103 2103 2116 2116 1823 1813 1813 1823 1833 1833 1843 1853 1853 1863 1863 1863 1863 1863 1863 1873 1883 1579 1579 1579 1572 1572 1572 1572 1572 1572 1572 1572 1579 1579 1586 1586 1594 1594 1601 1601 1601 2103 2103 2103 2103 2116 2116 2116 2116 2116 2116 2103 2103 2103 2103 2103 2103 2116 1843 1843 1853 1853 1853 1853 1853 1863 1873 1883 1883 1894 1926 1947 1959 1970 1970 1981 1981 1981 1993 2016 2028 2065 2103 2103 2116 2116 2116 2116 2116 2129 2129 2129 2129 2129 2129 2129 2129 2129 2129 2129 2129 2129 2129 2129 2129 2143 2143 2129 2116 2116 2103 2090 2065 2065 2065 1439 1433 1433 1439 1439 1439 1439 1433 1433 1433 1433 1433 1433 1439 1439 1445 1445 1452 1458 1458 1464 2129 2143 2143 2156 2156 2156 2156 2156 2156 2156 2156 2156 2156 2156 2156 2156 2170 2170 2170 2170 2170 2170 2170 2170 2156 2156 2170 2170 2170 2170 2170 1813 1813 1813 1823 1823 1833 1833 1833 1833 1843 1843 1843 1853 2184 2184 2184 2184 2184 2184 2184 2184 2184 2184 2184 2184 2184 2184 2184 2184 2184 2184 2184 2184 2184 2184 2198 2184 2184 2198 2198 2198 1883 1883 1883 1883 1883 1883 1883 1894 1894 1904 0 0 0 1433 1433 1433 1439 1433 1433 1433 1433 1433 1433 1433 1433 1433 1433 1433 1433 1433 1433 1433 1439 1439 1439 1439 0 2129 2129 2129 2143 2143 2143 2143 2143 2143 2156 2156 2170 2184 2184 2198 2198 2198 2198 2198 2198 2198 2198 2198 2198 2198 2198 2198 2198 2198 2198 2212 2212 2198 2198 2198 2198 2184 2184 2184 2184 2184 2184 2184 2184 2198 2198 2198 2198 2198 2198 2198 2184 2184 2184 2184 2184 2184 2184 2184 2184 2198 2198 2198 2198 2198 2198 2198 2198 2198 2198 2198 2198 2198 2198 2212 2212 2198 2198 2198 2198 2212 2198 2198 2212 2212 2212 2212 2212 2212 2198 2198 2198 2198 2198 2198 2198 2198 2212 2212 2212 2212 2212 2226 2241 2241 2241 2241 2241 2241 2226 2226 2226 2226 2226 2226 2226 2226 2226 2226 2212 2212 2212 2212 2212 2212 2212 2198 2198 2212 2212 2212 2198 2198 2198 2198 2198 2198 2198 2198 2198 2198 2198 2198 2198 2198 2198 2198 2198 2198 2198 2198 2198 2198 2212 2212 2212 2226 2226 2226 2212 2198 2198 2198 2212 2198 2198 0 0 0 0 0 0 0 0 0
0 0 0 0 0 0 0 0 0 0 0 0 0 0 0 0 0 0 0 0 0 0 0 0 0 0 0 0 0 0 0 0 0 0 1970 1970 1970 1970 1970 1970 1970 1970 1970 1981 1981 1993 1993 1981 1981 1981 1981 1981 1970 1970 1981 1981 1981 1981 1981 1981 1993 1993 1993 1993 2005 2005 2005 2005 2005 2005 1993 1993 1993 1993 1993 1993 1993 1993 1993 1993 1993 1993 1993 1993 2005 2005 2016 2016 2016 2016 2005 2005 2005 2005 2005 2005 2005 2005 2005 2005 2005 2005 2005 2005 2005 2016 2005 2005 2005 2005 2005 2005 2005 2005 2005 2005 2016 2028 2028 2028 2028 2028 2028 2028 2028 2028 2028 2028 2040 1833 1833 1833 1833 1833 1833 1833 1833 1833 1833 1843 1843 1843 1863 1915 1959 1959 1959 1970 1981 1993 2005 2028 2053 2053 2053 2053 2040 2040 2040 2040 2040 2040 2040 2040 2040 2040 2040 2040 2040 2040 2053 2053 2053 2053 2053 2053 2053 2065 2065 2065 2078 2078 2065 2065 2078 2078 2065 2065 2065 2065 2065 2065 2065 2053 2053 2053 2053 2065 2065 2078 2078 1731 1722 1722 1713 1713 1713 1722 1722 1722 1722 1731 1731 1739 1739 1739 1739 1748 2078 2078 2090 2103 2116 1823 1823 1823 1823 1823 1833 1833 1833 1853 1853 1853 1863 1863 1863 1863 1863 1873 1594 1579 1579 1579 1572 1572 1572 1572 1572 1572 1572 1572 1579 1586 1586 1594 1594 1601 1601 1601 2090 2090 2090 2103 2103 2103 2103 2103 2116 2116 2116 2103 2103 2090 2090 2090 2103 2103 1843 1843 1843 1853 1853 1853 1853 1863 1863 1873 1894 1904 1947 1959 1970 1970 1981 1981 1981 1993 1993 2016 2028 2053 2078 2103 2116 2116 2116 2116 2116 2116 2129 2129 2129 2129 2129 2129 2129 2129 2129 2129 2129 2129 2129 2129 2129 2129 2129 2116 2103 2103 2090 2090 2065 2065 2065 2065 1439 1439 1439 1439 1439 1439 1439 1439 1439 1439 1439 1439 1439 1439 1445 1452 1452 1458 1464 2129 2116 2116 2143 2143 2143 2143 2143 2143 2143 2143 2143 2143 2143 2156 2156 2156 2156 2156 2156 2156 2156 2156 2156 2156 2156 2156 2156 2156 2170 2170 2170 1813 1813 1823 1823 1823 1833 1833 1833 1833 1843 1843 1843 1853 1863 2170 2170 2170 2170 2170 2170 2170 2170 2170 2170 2170 2170 2170 2170 2170 2170 2170 2170 2170 2170 2170 2184 2184 2184 2184 2198 2198 1883 1883 1883 1883 1883 1894 1894 1894 1894 1904 1904 0 0 1433 1433 1433 1439 1439 1439 1439 1433 1433 1433 1433 1433 1433 1433 1433 1433 1433 1433 1433 1439 1439 1445 1445 2143 2129 2129 2129 2143 2143 2143 2143 2143 2143 2156 2156 2170 2184 2184 2198 2198 2198 2198 2198 2198 2184 2184 2184 2184 2184 2184 2184 2184 2198 2198 2198 2198 2198 2198 2184 2184 2184 2184 2184 2184 2184 2184 2184 2184 2184 2198 2198 2198 2198 2184 2184 2184 2170 2170 2184 2184 2184 2184 2184 2184 2184 2184 2198 2198 2198 2198 2198 2198 2198 2198 2198 2198 2198 2198 2198 2198 2198 2198 2198 2198 2198 2198 2198 2198 2198 2198 2198 2198 2198 2198 2198 2198 2198 2198 2198 2198 2198 2198 2198 2198 2212 2212 2226 2226 2226 2226 2226 2226 2226 2226 2212 2212 2212 2212 2212 2212 2212 2212 2212 2212 2212 2198 2198 2198 2198 2198 2198 2198 2198 2198 2198 2198 2198 2198 2184 2184 2198 2184 2184 2184 2184 2184 2184 2184 2184 2184 2184 2184 2184 2184 2198 2198 2198 2198 2212 2212 2212 2212 2212 2198 2198 2198 2198 2198 2184 2184 0 0 0 0 0 0 0 0 0
0 0 0 0 0 0 0 0 0 0 0 0 0 0 0 0 0 0 0 0 0 0 0 0 0 0 0 0 0 0 0 0 0 0 1970 1970 1970 1970 1970 1970 1970 1970 1970 1970 1981 1981 1981 1981 1981 1981 1970 1970 1970 1970 1970 1970 1970 1970 1970 1981 1981 1981 1981 1981 1993 1993 1993 1993 1993 2005 1993 1993 1993 1993 1993 1993 1993 1993 1981 1981 1981 1981 1981 1993 1993 2005 2005 2005 2005 2005 2005 2005 2005 2005 2005 2005 2005 2005 2005 2005 2005 2005 2005 2005 2005 2005 2005 2005 2005 2005 2005 2005 2005 2005 2005 2005 2016 2016 2028 2028 2028 2028 2028 2028 2028 2028 2028 2028 2028 1833 1833 1833 1833 1833 1833 1833 1833 1833 1833 1843 1843 1853 1863 1915 1959 1959 1959 1970 1981 1993 2005 2028 2053 2053 2053 2053 2040 2040 2040 2040 2040 2040 2040 2040 2040 2040 2040 2040 2040 2040 2040 2040 2040 2040 2040 2040 2053 2053 2053 2053 2065 2065 2065 2065 2065 2065 2065 2065 2065 2053 2053 2053 2053 2053 2053 2053 2053 2065 2065 2078 2078 1731 1722 1722 1722 1722 1722 1722 1722 1722 1722 1731 1731 1739 1739 1739 1748 1748 2065 2078 2078 2103 1823 1823 1823 1823 1823 1823 1833 1833 1833 1853 1853 1853 1863 1863 1863 1863 1863 1873 1594 1579 1579 1579 1572 1572 1572 1572 1572 1572 1572 1572 1579 1586 1594 1594 1594 1601 1601 1601 2090 2090 2090 2090 2090 2103 2103 2103 2103 2103 2103 2103 2103 2090 2090 2090 2103 2103 1843 1843 1843 1853 1853 1853 1853 1853 1853 1873 1894 1936 1959 1970 1970 1981 1981 1981 1993 1993 1993 2016 2028 2053 2078 2090 2103 2103 2116 2116 2116 2116 2116 2116 2116 2116 2116 2129 2129 2116 2116 2116 2116 2116 2116 2116 2116 2129 2129 2116 2103 2103 2090 2090 2078 2065 2065 2065 1439 1439 1439 1439 1439 1439 1439 1439 1439 1439 1439 1439 1439 1439 1445 1452 1452 1458 1458 2116 2116 2116 2116 2129 2143 2143 2143 2143 2143 2143 2143 2143 2143 2143 2156 2156 2156 2156 2156 2156 2156 2156 2156 2156 2156 2156 2156 2156 2156 2170 2170 2170 1833 1833 1833 1833 1833 1833 1833 1843 1843 1843 1843 1853 1863 2170 2170 2170 2170 2170 2170 2170 2170 2170 2170 2170 2170 2156 2156 2156 2156 2156 2156 2156 2156 2156 2156 2156 2170 2170 2170 1873 1873 1883 1883 1883 1883 1883 1883 1883 1883 1894 1894 0 1452 1439 1439 1439 1439 1439 1439 1439 1433 1433 1433 1433 1433 1433 1433 1433 1433 1433 1433 1433 1439 1439 1445 1445 2143 2143 2129 2129 2143 2143 2143 2143 2143 2143 2156 2156 2170 2184 2184 2198 2198 2198 2198 2198 2184 2184 2184 2184 2184 2184 2170 2170 2170 2184 2198 2198 2198 2198 2198 2184 2184 2184 2184 2170 2170 2184 2184 2170 2170 2184 2184 2184 2184 2184 2184 2184 2184 2170 2170 2170 2170 2170 2170 2184 2184 2184 2184 2184 2184 2184 2184 2184 2184 2184 2184 2184 2184 2198 2198 2198 2198 2198 2198 2198 2184 2184 2184 2184 2198 2184 2184 2184 2198 2198 2198 2198 2198 2198 2198 2198 2198 2198 2198 2198 2198 2198 2198 2212 2212 2212 2212 2212 2212 2212 2212 2212 2212 2212 2212 2212 2212 2212 2212 2212 2212 2198 2198 2198 2198 2198 2198 2184 2184 2198 2198 2198 2184 2184 2184 2184 2184 2184 2184 2184 2184 2184 2184 2184 2184 2184 2184 2184 2184 2184 2184 2184 2184 2198 2198 2198 2198 2198 2198 2198 2198 2198 2198 2198 2198 2184 2184 0 0 0 0 0 0 0 0 0
0 0 0 0 0 0 0 0 0 0 0 0 0 0 0 0 0 0 0 0 0 0 0 0 0 0 0 0 0 0 0 0 0 0 1959 1959 1970 1970 1970 1970 1970 1970 1970 1970 1970 1970 1970 1970 1970 1970 1970 1970 1970 1970 1970 1970 1970 1970 1970 1981 1981 1981 1981 1981 1981 1993 1981 1981 1981 1993 1981 1981 1981 1981 1993 1981 1981 1981 1981 1981 1981 1981 1981 1981 1993 1993 2005 2005 2005 2005 1993 1993 2005 2005 2005 2005 2005 2005 2005 2005 2005 2005 2005 2005 2005 2005 1993 1993 1993 1993 2005 2005 2005 2005 2005 2005 2005 2016 2028 2028 2028 2028 2028 2028 2028 2016 2016 2016 2028 1833 1833 1833 1833 1833 1833 1833 1833 1833 1833 1843 1843 1853 1863 1915 1959 1959 1959 1970 1981 1993 2005 2028 2040 2053 2053 2053 2028 2028 2028 2028 2028 2028 2028 2028 2028 2028 2028 2028 2028 2028 2028 2028 2028 2040 2040 2040 2040 2040 2040 2053 2053 2053 2053 2053 2053 2053 2053 2053 2053 2053 2053 2053 2053 2053 2053 2053 2053 2053 2065 2065 2065 1731 1731 1722 1722 1722 1722 1722 1722 1722 1722 1731 1731 1739 1739 1739 1748 1757 1776 2065 2065 1813 1813 1813 1823 1823 1823 1823 1823 1823 1833 1843 1853 1853 1863 1863 1863 1863 1863 1863 1586 1586 1586 1586 1579 1579 1579 1579 1579 1579 1579 1579 1579 1586 1594 1594 1594 1601 1601 1601 2078 2078 2078 2090 2090 2090 2090 2090 2103 2103 2103 2103 2090 2090 2090 2090 1833 1833 1843 1843 1843 1843 1853 1853 1853 1853 1853 1853 1970 1970 1970 1981 1981 1981 1981 1981 1993 1993 1993 2016 2028 2053 2065 2078 2090 2103 2103 2103 2103 2103 2116 2116 2116 2116 2116 2116 2116 2116 2116 2116 2116 2116 2116 2116 2116 2116 2116 2103 2103 2103 2103 2090 2078 2065 2065 2065 1439 1439 1439 1439 1439 1439 1439 1439 1439 1439 1439 1439 1439 1439 1445 1445 1464 1464 1464 2116 2116 2116 2116 2129 2129 2143 2129 2129 2129 2143 2143 2143 2143 2143 2143 2143 2143 2156 2143 2143 2143 2143 2143 2143 2143 2143 2143 2143 2156 2156 2170 1833 1833 1833 1833 1833 1833 1833 1843 1843 1843 1843 1853 1853 1863 2170 2170 2170 2170 2170 2156 2156 2156 2156 2170 2170 2170 2156 2156 2156 2156 2156 2156 2156 2156 2156 2156 2156 2156 2156 2156 1873 1873 1883 1883 1883 1883 1883 1883 1883 1883 1883 1883 0 1452 1452 1445 1445 1445 1445 1445 1439 1439 1439 1433 1433 1433 1433 1433 1433 1433 1433 1433 1439 1439 1439 1445 1445 2143 2143 2129 2129 2143 2143 2143 2143 2143 2143 2156 2170 2170 2184 2184 2184 2184 2184 2184 2184 2184 2170 2170 2170 2184 2170 2170 2170 2170 2184 2198 2198 2198 2198 2198 2184 2184 2184 2184 2170 2170 2170 2170 2170 2170 2170 2170 2170 2184 2184 2170 2170 2170 2156 2156 2170 2170 2170 2170 2170 2170 2184 2184 2184 2184 2184 2184 2184 2184 2184 2184 2184 2184 2184 2184 2184 2184 2184 2184 2184 2184 2184 2184 2184 2184 2184 2184 2184 2184 2184 2184 2184 2184 2184 2184 2198 2198 2198 2198 2198 2198 2198 2198 2198 2198 2198 2198 2198 2198 2198 2198 2198 2198 2198 2198 2198 2198 2198 2198 2198 2212 2198 2198 2184 2184 2184 2184 2184 2184 2184 2184 2184 2184 2184 2184 2184 2184 2184 2184 2184 2184 2184 2184 2170 2170 2184 2184 2184 2184 2184 2184 2184 2184 2184 2184 2184 2184 2184 2184 2184 2184 2184 2184 2184 2184 2184 2184 0 0 0 0 0 0 0 0 0
0 0 0 0 0 0 0 0 0 0 0 0 0 0 0 0 0 0 0 0 0 0 0 0 0 0 0 0 0 0 0 0 0 0 1959 1959 1959 1959 1959 1959 1970 1970 1970 1970 1970 1970 1970 1970 1970 1970 1970 1970 1970 1970 1970 1970 1970 1970 1970 1970 1970 1970 1970 1981 1981 1981 1981 1981 1981 1981 1970 1970 1970 1970 1981 1970 1970 1970 1970 1970 1970 1970 1970 1970 1981 1981 1993 1993 1993 1993 1981 1981 1993 1993 1993 1993 1993 1993 1993 1993 1993 1993 1993 1993 1993 1993 1993 1993 1993 1993 1993 1993 1993 1993 1993 2005 2005 2005 2005 2016 2016 2016 2016 2016 2016 2016 2016 2016 2016 1833 1833 1833 1833 1833 1833 1833 1833 1833 1833 1843 1843 1853 1853 1947 1959 1959 1970 1970 1981 1993 2005 2028 2040 2040 2040 2040 2028 2028 2028 2028 2028 2028 2028 2028 2028 2028 2028 2028 2028 2028 2028 2028 2028 2040 2040 2040 2040 2040 2040 2040 2040 2040 2040 2040 2040 2040 2040 2040 2053 2053 2053 2053 2053 2053 2053 2053 2053 2053 2053 2053 2053 1731 1731 1722 1722 1722 1722 1722 1722 1722 1722 1731 1731 1739 1739 1739 1748 1757 1776 2053 1804 1804 1813 1813 1823 1823 1823 1823 1823 1823 1823 1843 1853 1853 1863 1863 1863 1863 1863 2078 1586 1586 1586 1586 1579 1579 1579 1579 1579 1579 1579 1579 1579 1586 1594 1594 1594 1601 1594 1594 2078 2078 2078 2078 2078 2078 2090 2090 2090 2103 2103 2090 2090 2090 2090 2090 1823 1823 1833 1843 1843 1843 1853 1853 1853 1843 1843 1843 2078 1993 1993 1993 1993 1993 1993 1993 1993 1993 1993 2016 2028 2040 2065 2078 2078 2090 2103 2103 2103 2103 2103 2116 2116 2116 2116 2116 2116 2116 2116 2116 2116 2116 2116 2116 2116 2116 2116 2103 2103 2103 2103 2090 2078 2078 2078 2078 1439 1439 1439 1439 1439 1439 1439 1439 1439 1439 1439 1439 1439 1439 1445 1445 1445 1445 2103 2103 2103 2103 2103 2129 2129 2129 2129 2129 2129 2129 2129 2129 2129 2129 2143 2129 2129 2129 2129 2129 2129 2129 2143 2143 2143 2143 2143 2143 2143 2156 2156 1833 1833 1833 1833 1833 1833 1833 1843 1843 1843 1843 1853 1853 2156 2156 2156 2156 2156 2156 2156 2156 2156 2156 2156 2156 2156 2156 2143 2143 2156 2143 2143 2156 2156 2156 2156 2156 2156 2156 2156 1873 1873 1883 1883 1883 1883 1894 1883 1873 1873 1883 1883 1452 1452 1452 1445 1445 1445 1445 1445 1445 1439 1439 1439 1433 1433 1433 1433 1433 1433 1433 1433 1439 1439 1439 1439 1439 2143 2143 2143 2143 2143 2156 2156 2156 2156 2156 2156 2156 2156 2170 2170 2170 2170 2170 2170 2170 2170 2170 2170 2170 2170 2170 2170 2170 2170 2170 2184 2184 2184 2184 2184 2170 2170 2170 2170 2170 2170 2170 2170 2156 2156 2156 2156 2156 2156 2156 2156 2156 2156 2156 2156 2156 2170 2170 2170 2170 2170 2170 2170 2170 2170 2170 2170 2170 2170 2170 2170 2184 2184 2184 2184 2184 2184 2184 2184 2184 2184 2170 2170 2170 2170 2170 2170 2184 2184 2184 2184 2184 2184 2184 2184 2184 2184 2184 2184 2184 2198 2184 2184 2198 2198 2198 2198 2198 2198 2198 2198 2198 2198 2198 2198 2198 2198 2198 2198 2198 2198 2184 2184 2184 2184 2184 2184 2184 2184 2184 2184 2184 2184 2184 2184 2184 2184 2184 2184 2184 2184 2184 2170 2170 2170 2170 2170 2170 2170 2170 2170 2170 2170 2184 2184 2184 2184 2184 2184 2184 2184 2184 2184 2184 2184 2184 2184 0 0 0 0 0 0 0 0 0
0 0 0 0 0 0 0 0 0 0 0 0 0 0 0 0 0 0 0 0 0 0 0 0 0 0 0 0 0 0 0 0 0 0 1936 1936 1947 1947 1947 1947 1959 1959 1959 1959 1959 1959 1959 1959 1959 1959 1959 1959 1959 1959 1959 1959 1959 1959 1959 1959 1959 1959 1959 1970 1970 1970 1970 1970 1970 1981 1970 1970 1970 1970 1970 1959 1959 1959 1959 1959 1959 1959 1959 1970 1970 1970 1981 1981 1981 1981 1981 1981 1981 1981 1981 1993 1993 1993 1993 1993 1993 1993 1993 1993 1993 1993 1993 1993 1993 1993 1993 1993 1993 1993 1993 1993 2005 2005 2005 2005 2005 2005 2005 2005 2016 2005 2005 2005 2016 1833 1833 1833 1833 1833 1833 1833 1833 1833 1833 1843 1843 1853 1853 1947 1959 1959 1959 1970 1970 1981 1993 2005 2028 2040 2040 2040 2028 2028 2028 2028 2028 2016 2016 2016 2016 2016 2016 2016 2016 2028 2028 2028 2028 2028 2040 2040 2028 2028 2028 2040 2040 2040 2040 2040 2040 2040 2040 2040 2040 2040 2040 2040 2053 2053 2053 2053 2040 2040 2053 2040 2040 1731 1731 1731 1731 1722 1722 1722 1722 1722 1731 1731 1739 1739 1739 1748 1748 1766 1776 1794 1794 1804 1804 1813 1813 1823 1823 1823 1823 1823 1823 1843 1843 1853 1853 1863 2078 2078 2078 2078 2078 1586 1586 1586 1579 1579 1579 1579 1579 1579 1579 1579 1579 1586 1594 1594 1594 1601 1594 1594 2065 2065 2065 2065 2078 2078 2078 2078 2090 2090 2103 2090 2090 2090 1823 1823 1823 1823 1833 1833 1843 1843 1853 1853 1853 1843 1843 2078 2065 2005 2005 2005 1993 1993 1993 1993 1993 2005 2005 2016 2028 2040 2065 2078 2078 2078 2090 2090 2090 2090 2103 2103 2116 2116 2116 2116 2116 2103 2103 2103 2103 2103 2090 2090 2103 2103 2103 2090 2090 2090 2090 2090 2090 2078 2078 2078 1439 1439 1439 1439 1439 1439 1439 1439 1439 1439 1439 1439 1439 1439 1445 1445 1445 0 0 2103 2103 2103 2103 2116 2116 2116 2116 2116 2116 2129 2129 2129 2129 2129 2129 2129 2129 2116 2116 2129 2129 2129 2129 2129 2129 2129 2143 2143 2143 2143 2143 1833 1833 1833 1833 1833 1833 1833 1833 1833 1833 1833 1853 2143 2143 2143 2156 2156 2156 2156 2156 2156 2156 2156 2156 2156 2156 2143 2143 2143 2143 2143 2143 2143 2143 2156 2156 2156 2156 2156 2156 1883 1883 1894 1894 1894 1894 1894 1883 1873 1873 1873 1873 1452 1452 1452 1452 1452 1452 1452 1445 1445 1439 1439 1439 1439 1433 1433 1433 1433 1433 1433 1439 1439 1439 1439 1439 0 2143 2143 2143 2143 2143 2156 2156 2156 2156 2156 2156 2156 2156 2156 2156 2156 2156 2156 2156 2156 2170 2156 2156 2170 2156 2156 2156 2156 2156 2156 2156 2156 2170 2184 2184 2170 2170 2170 2170 2156 2156 2156 2156 2143 2143 2143 2143 2143 2143 2143 2156 2156 2156 2156 2156 2156 2156 2156 2156 2156 2156 2170 2170 2170 2170 2170 2170 2170 2170 2170 2170 2170 2170 2184 2170 2170 2170 2170 2170 2170 2170 2156 2156 2156 2156 2170 2170 2170 2170 2184 2184 2184 2184 2184 2184 2184 2184 2184 2184 2184 2184 2184 2184 2184 2184 2184 2184 2184 2184 2184 2184 2184 2184 2184 2184 2184 2184 2184 2184 2184 2184 2170 2170 2170 2170 2170 2170 2170 2170 2170 2170 2184 2184 2184 2170 2170 2170 2170 2170 2170 2170 2170 2170 2170 2170 2170 2170 2170 2170 2170 2170 2170 2170 2170 2170 2170 2170 2184 2184 2170 2170 2170 2170 2170 2170 2170 2170 0 0 0 0 0 0 0 0 0
0 0 0 0 0 0 0 0 0 0 0 0 0 0 0 0 0 0 0 0 0 0 0 0 0 0 0 0 0 0 0 0 0 0 1936 1936 1936 1936 1947 1947 1947 1959 1959 1959 1959 1947 1947 1947 1947 1947 1947 1947 1959 1959 1959 1959 1959 1959 1959 1959 1959 1959 1959 1959 1959 1959 1959 1959 1970 1970 1959 1959 1959 1959 1959 1959 1959 1947 1947 1947 1947 1947 1959 1959 1959 1959 1959 1959 1959 1959 1959 1959 1970 1970 1970 1981 1981 1981 1981 1981 1981 1981 1970 1970 1993 1993 1981 1981 1981 1981 1993 1993 1993 1993 1993 1993 1993 1993 1993 1993 1993 1993 1993 2005 2005 2005 2005 2005 2005 1833 1833 1833 1833 1833 1833 1833 1833 1833 1833 1843 1853 1853 1883 1947 1959 1959 1959 1970 1970 1981 1993 2005 2016 2028 2028 2028 2016 2016 2016 2016 2028 2016 2016 2016 2016 2016 2016 2016 2016 2016 2028 2028 2028 2028 2028 2028 2028 2028 2028 2028 2028 2028 2028 2028 2028 2028 2028 2028 2028 2028 2028 2040 2040 2040 2040 2040 2040 2040 2040 2040 2040 1731 1731 1731 1731 1722 1722 1731 1731 1731 1731 1739 1739 1739 1748 1748 1757 1766 1776 1794 1794 1804 1804 1813 1813 1813 1823 1823 1823 1823 1823 1833 1843 1853 1853 2053 2053 2065 2065 2065 2078 2078 1586 1586 1579 1579 1579 1579 1579 1579 1579 1579 1579 1594 1594 1601 1601 1601 1594 1594 2065 2065 2065 2065 2065 2078 2078 2078 2078 2090 2090 2090 2090 2103 1813 1813 1823 1823 1823 1833 1843 1843 1843 1843 1843 1843 1853 2065 2053 2053 2028 2016 2005 2005 1993 1993 1993 2005 2005 2016 2028 2040 2065 2065 2078 2078 2090 2090 2090 2090 2090 2090 2103 2103 2103 2103 2103 2103 2103 2103 2090 2090 2090 2090 2090 2090 2103 2090 2090 2090 2090 2090 2090 2090 2090 2090 1445 1439 1439 1439 1439 1439 1439 1439 1439 1439 1439 1439 1439 1439 1445 1458 1458 0 0 0 2103 2103 2103 2116 2116 2116 2116 2116 2116 2116 2116 2116 2116 2116 2116 2116 2116 2116 2116 2116 2116 2116 2116 2116 2129 2129 2129 2129 2129 2143 2143 1833 1833 1833 1833 1833 1833 1833 1833 1833 1833 1833 1853 2143 2143 2143 2143 2143 2143 2143 2143 2143 2143 2156 2156 2156 2156 2143 2143 2143 2143 2143 2143 2143 2143 2143 2143 2156 2156 2156 2156 1883 1883 1894 1894 1894 1894 1894 1883 1873 1863 1863 1863 1452 1452 1452 1452 1452 1452 1452 1445 1445 1445 1439 1439 1439 1439 1439 1439 1439 1439 1439 1439 1439 1439 1439 1439 2103 2129 2129 2129 2143 2143 2143 2156 2156 2156 2156 2156 2156 2156 2156 2156 2156 2156 2156 2156 2156 2156 2156 2156 2156 2156 2156 2156 2156 2156 2156 2156 2156 2156 2156 2156 2156 2143 2143 2143 2143 2143 2143 2143 2143 2143 2143 2143 2143 2143 2143 2143 2156 2156 2156 2156 2156 2156 2156 2156 2156 2156 2156 2156 2156 2156 2156 2156 2156 2156 2156 2156 2156 2170 2170 2170 2170 2170 2170 2170 2156 2156 2156 2156 2156 2156 2156 2156 2156 2170 2170 2170 2170 2170 2170 2184 2184 2184 2184 2184 2184 2184 2170 2170 2170 2170 2184 2184 2184 2184 2184 2184 2184 2184 2184 2184 2184 2184 2184 2170 2170 2184 2170 2170 2156 2156 2170 2170 2170 2170 2170 2170 2170 2170 2170 2170 2170 2170 2170 2170 2170 2170 2170 2170 2170 2170 2170 2170 2170 2170 2170 2170 2170 2170 2170 2170 2170 2170 2170 2170 2170 2170 2170 2170 2170 2170 2170 2170 0 0 0 0 0 0 0 0 0
0 0 0 0 0 0 0 0 0 0 0 0 0 0 0 0 0 0 0 0 0 0 0 0 0 0 0 0 0 0 0 0 0 0 1926 1926 1936 1936 1936 1936 1936 1947 1947 1936 1936 1936 1936 1936 1936 1936 1936 1947 1947 1947 1947 1947 1947 1959 1959 1959 1959 1959 1959 1959 1959 1959 1959 1959 1959 1959 1947 1947 1959 1959 1947 1947 1947 1947 1947 1947 1947 1947 1947 1959 1959 1959 1959 1959 1959 1959 1959 1959 1959 1959 1970 1970 1970 1970 1970 1970 1970 1959 1959 1959 1959 1959 1959 1959 1970 1970 1970 1970 1970 1970 1970 1981 1981 1981 1981 1981 1981 1981 1981 1981 1993 1993 1993 1993 1833 1833 1833 1833 1833 1833 1833 1843 1843 1843 1843 1843 1853 1863 1894 1947 1959 1959 1970 1970 1981 1981 1993 2005 2016 2016 2016 2028 2016 2016 2016 2016 2016 2005 2005 2005 2005 2005 2005 2005 2005 2016 2016 2016 2016 2028 2028 2028 2028 2028 2016 2016 2016 2016 2028 2028 2028 2028 2016 2016 2028 2028 2028 2028 2040 2040 2040 2040 2040 2040 2040 2028 2028 1731 1731 1731 1731 1722 1722 1731 1731 1731 1731 1739 1739 1739 1748 1748 1757 1766 1776 1794 1794 1794 1804 1813 1813 1813 1813 1823 1823 1823 1823 1823 2053 2040 2040 2053 2053 2053 2053 2053 2065 2065 1586 1586 1579 1579 1579 1579 1579 1579 1579 1579 1579 1594 1594 1601 1601 1601 1594 1594 2065 2065 2065 2065 2065 2065 2078 2078 2078 2090 2090 2090 1804 1804 1804 1813 1813 1813 1823 1833 1843 1843 1843 1843 1843 1843 2065 2065 2053 2040 2040 2028 2016 2005 2005 2005 2005 2005 2016 2028 2028 2040 2065 2065 2078 2078 2078 2078 2078 2078 2078 2090 2090 2090 2090 2090 2090 2090 2090 2078 2078 2090 2090 2090 2090 2090 2103 2090 2090 2090 2090 2090 2090 2090 2103 2103 1445 1439 1439 1445 1445 1439 1439 1439 1439 1439 1439 1439 1445 1445 1452 1458 0 0 0 0 2116 2103 2103 2103 2103 2116 2116 2116 2116 2116 2116 2116 2116 2116 2116 2116 2116 2103 2103 2116 2116 2116 2116 2116 2116 2116 2116 2116 2116 2129 2129 1833 1833 1833 1833 1833 1833 1843 1843 1833 1833 1833 1853 2129 2129 2129 2143 2143 2143 2143 2143 2143 2143 2143 2143 2156 2156 2143 2143 2143 2143 2143 2143 2143 2143 2143 2143 2143 2156 2156 1883 1883 1883 1894 1894 1894 1894 1894 1883 1873 1863 1863 0 1452 1452 1452 1452 1452 1452 1452 1452 1452 1445 1445 1445 1439 1439 1439 1439 1439 1439 1439 1445 1439 1439 1445 1445 2103 2103 2103 2116 2129 2129 2143 2143 2143 2143 2156 2156 2156 2156 2143 2143 2143 2143 2143 2156 2156 2156 2156 2156 2156 2143 2143 2143 2143 2143 2143 2143 2143 2156 2156 2156 2143 2143 2143 2143 2143 2143 2143 2143 2129 2129 2143 2143 2143 2143 2143 2143 2143 2143 2143 2143 2143 2143 2143 2143 2143 2143 2143 2143 2143 2143 2143 2143 2143 2143 2156 2156 2156 2156 2156 2156 2156 2156 2156 2156 2156 2156 2143 2143 2143 2143 2156 2156 2156 2156 2156 2156 2156 2170 2170 2170 2170 2170 2170 2170 2170 2170 2156 2156 2170 2170 2170 2170 2170 2170 2170 2170 2184 2170 2170 2170 2170 2170 2170 2170 2170 2170 2156 2156 2156 2156 2156 2156 2156 2170 2156 2156 2170 2156 2156 2170 2156 2156 2156 2156 2156 2156 2156 2156 2156 2156 2156 2156 2156 2156 2156 2156 2156 2156 2156 2156 2156 2156 2156 2156 2156 2156 2156 2170 2170 2170 2170 2170 0 0 0 0 0 0 0 0 0
0 0 0 0 0 0 0 0 0 0 0 0 0 0 0 0 0 0 0 0 0 0 0 0 0 0 0 0 0 0 0 0 0 0 1926 1926 1926 1936 1936 1936 1936 1936 1936 1936 1926 1926 1926 1926 1926 1926 1926 1936 1936 1947 1936 1936 1936 1947 1947 1947 1947 1947 1947 1947 1947 1947 1947 1947 1959 1959 1947 1947 1947 1947 1947 1947 1947 1947 1947 1947 1947 1947 1947 1947 1947 1947 1959 1959 1947 1947 1959 1959 1959 1959 1959 1959 1959 1959 1959 1959 1959 1959 1959 1959 1959 1959 1959 1959 1959 1959 1959 1959 1959 1959 1959 1959 1970 1970 1970 1970 1970 1970 1970 1970 1981 1981 1981 1981 1833 1833 1833 1833 1833 1833 1833 1843 1843 1843 1843 1843 1853 1873 1894 1947 1947 1959 1959 1970 1970 1981 1993 1993 2005 2005 2005 2005 1993 1993 1993 1993 2005 1993 1993 2005 2005 2005 1993 1993 2005 2005 2005 2016 2016 2016 2016 2016 2016 2016 2016 2016 2016 2016 2016 2016 2016 2016 2016 2016 2016 2016 2016 2028 2028 2028 2040 2028 2028 2028 2028 2016 2016 1731 1731 1731 1731 1731 1731 1731 1731 1731 1731 1739 1739 1739 1748 1748 1757 1766 1776 1794 1794 1794 1804 1813 1813 1813 1813 1813 1813 1823 1823 1823 2040 2040 2040 2040 2040 2053 2053 2053 2065 2065 1586 1586 1579 1579 1579 1579 1579 1579 1579 1579 1579 1594 1594 1601 1601 1601 1601 1601 2053 2053 2053 2053 2065 2065 2065 2078 2078 2078 2090 2103 1804 1804 1804 1804 1813 1813 1823 1833 1833 1843 1843 1843 1843 1843 2065 2053 2053 2040 2028 2028 2016 2005 2005 2005 2005 2005 2016 2028 2028 2040 2053 2065 2065 2078 2078 2078 2078 2078 2078 2078 2078 2078 2078 2090 2090 2090 2090 2078 2078 2078 2078 2078 2078 2078 2090 2078 2078 2078 2078 2090 2090 2090 2103 2103 1445 1445 1445 1445 1445 1445 1439 1439 1439 1445 1445 1445 1445 1452 1458 0 0 0 0 0 2116 2103 2103 2103 2103 2103 2103 2103 2103 2116 2116 2116 2116 2116 2116 2116 2103 2103 2103 2103 2103 2103 2103 2103 2116 2116 2116 2116 2116 2116 2129 1833 1833 1833 1833 1833 1843 1843 1843 1843 1843 1843 2129 2129 2129 2129 2129 2129 2129 2129 2129 2129 2143 2143 2143 2143 2143 2129 2129 2129 2129 2129 2143 2143 2143 2143 2143 2143 2143 2156 1883 1883 1883 1894 1894 1894 1894 1894 1883 1873 1863 1863 1863 1458 1452 1452 1452 1452 1452 1452 1452 1452 1445 1445 1445 1445 1445 1445 1445 1445 1445 1445 1445 1439 1439 1445 1445 2103 2103 2103 2116 2116 2129 2143 2143 2143 2143 2143 2143 2143 2143 2143 2143 2143 2143 2143 2143 2143 2143 2143 2143 2143 2143 2129 2129 2143 2143 2143 2143 2143 2143 2143 2143 2129 2129 2129 2129 2129 2129 2129 2129 2129 2129 2129 2129 2129 2143 2143 2143 2143 2143 2143 2143 2143 2143 2143 2143 2129 2129 2129 2129 2129 2129 2129 2129 2143 2143 2143 2143 2143 2143 2143 2143 2143 2143 2143 2143 2143 2143 2143 2143 2143 2143 2143 2143 2143 2143 2156 2156 2156 2156 2170 2170 2170 2170 2170 2156 2156 2156 2156 2156 2156 2156 2156 2156 2170 2170 2170 2170 2170 2170 2156 2156 2156 2156 2156 2156 2156 2156 2143 2143 2143 2143 2143 2156 2156 2156 2156 2156 2156 2156 2156 2156 2156 2156 2156 2156 2143 2143 2143 2143 2143 2143 2143 2143 2143 2143 2156 2156 2156 2156 2156 2156 2143 2143 2143 2143 2143 2143 2156 2170 2170 2156 2156 2156 0 0 0 0 0 0 0 0 0
