0 0 0 0 0 0 0 0 0 0 0 0 0 0 0 0 0 0 0 0 0 0 0 0 0 0 0 0 0 0 0 4241 4241 4295 4349 4349 4405 4405 4405 4522 4522 4582 4582 4645 4645 4708 4842 4911 5056 5132 5132 5210 5210 5210 5210 5210 5210 5210 5210 5210 5210 5210 5132 5132 5132 5132 5132 5132 5132 5210 5210 5210 5210 5210 5210 5210 5291 5210 5210 6622 6622 6622 6622 6622 6622 6622 6622 6497 6497 6497 6497 6497 6497 6497 6497 6497 6497 6497 6497 6497 6622 6622 6622 6622 6622 6622 6753 6753 6753 6753 6753 6753 6753 6753 6753 6753 6753 6753 6753 6622 6622 6497 6497 6497 6497 6375 6259 6259 6259 6259 6375 6375 6375 6375 6259 6259 6259 6259 6259 6622 6497 6497 6622 6622 6622 6753 6753 6753 6753 6622 6622 6622 6753 6753 6622 6622 6753 6753 6753 6753 6753 6622 6622 6622 6622 6622 6622 6622 6753 6753 6622 6622 6622 6622 6753 6889 6889 6889 6889 6889 6889 6889 6889 6753 6753 6753 6753 6753 6753 6753 6753 6753 6889 6889 6889 6889 6889 6889 6889 6889 7030 7030 7030 7030 7030 7178 7030 7030 7030 7030 7030 7030 7030 7030 6889 6889 6889 6889 6889 3208 3208 3178 3178 3208 3178 3178 3178 3178 3208 3208 3208 3208 3208 3208 3208 3208 3208 3208 3208 3208 3208 3208 3178 3178 3178 3149 3149 3120 3120 3120 3120 3092 3092 3120 3120 3120 3120 3120 3149 3149 3178 3178 3178 3178 3208 3208 3208 3208 3208 3238 3238 3238 3238 3238 3238 3238 3208 3178 3149 3149 4241 4241 4295 4295 4349 4349 4349 4349 4349 4349 4405 4405 4405 4405 4405 4405 4405 4405 4405 4405 4405 4405 4405 4405 4405 4405 4405 4405 4405 4405 4405 4405 4405 4405 4405 4405 4349 4349 4349 4349 4349 4349 4349 4349 4349 4349 4349 4349 4349 4349 4349 6375 6375 6375 6375 6259 6259 0 0 0 0 0 1748 1748 1757 1757 1757 1748 1748 1757 1757 1757 1757 1757 1757 1757 1757 1757 1748 1748 1757 1757 1757 1757 1748 1748 1748 1757 1757 1757 1757 1757 1757 1757 1757 1757 1757 1757 1757 1757 1757 1757 1757 1757 1757 1757 1757 1757 1757 1757 1757 1757 1757 1757 1757 1757 1757 1757 1757 1757 1757 1757 1757 1757 1757 1757 1766 1766 1766 1766 1757 1757 1766 1757 1757 1757 1766 1757 1757 1757 1757 1748 1748 0 0 0 0 0 6622 6622 6622 6622 6622 6753 6622 6622 6753 6622 6622 6497 6497 6622 6622 6497 6375 6375 6497 6497 6497 6497 6497 6497 6375 6375 6375 6375 6375 6375 6375 4708 4708 4708 4708 4708 4708 4645 4645 4645 4645 4645 4645 4582 4582 4582 4582 4582 4582 4582 4582 4582 4582 4645 4645 4708 4774 4774 4774 4774 6375 6375 6375 6375 6375 6497 6622 6622 6622 6622 6622 6622 6497 6375 6375 6375 6497 6497 6497 6497 6497 6497 6497 6375 6375 6259 6259 6259 6375 6375 6497 6497 6622 6622 6622 6497 6497 6497 6497 6622 6497 6497 6375 6375 6375 6375 6375 6375 6375 6375 6375 6375 6259 6259 6146 6146 6146 6146 6259 6259 6259 6259 6259 6259 6259 6259 6146 6146 6259 6259 6259 6375 6375 6497 6497 6497 6497 6375 6375 6375 6375 6375 6375 6375 6375 6375 6497 6497 6497 6622 6622 6622 6622 6497 6497 6497 6497 6375 6375 6497 6497 6497 6497 6497 6497 6497 6497 6375 6375 6375 6375 6375 6375 6375 6497 6497 6622 6622 6753 6753 6753 6753 6889 6753 6753 6889 6889 6889 6889 6889 7030 7030 7030 7030 7030 7030 7030 6889 6889 0 0 0 0 0 0 0 0 0 0 0 0 0
0 0 0 0 0 0 0 0 0 0 0 0 0 0 0 0 0 0 0 0 0 0 0 0 0 0 0 0 0 0 0 4295 4295 4349 4349 4349 4405 4405 4405 4522 4522 4582 4582 4582 4645 4708 4774 4842 4983 5056 5132 5210 5210 5210 5210 5210 5210 5210 5291 5210 5210 5210 5132 5132 5132 5132 5132 5132 5132 5210 5210 5210 5210 5210 5210 5210 5210 5210 5210 6753 6753 6622 6622 6622 6622 6622 6622 6497 6497 6497 6497 6497 6497 6497 6497 6497 6497 6375 6375 6375 6375 6497 6622 6622 6753 6753 6753 6753 6753 6753 6753 6753 6753 6889 6753 6753 6753 6753 6753 6753 6622 6622 6622 6622 6622 6375 6259 6259 6259 6259 6375 6375 6375 6375 6259 6259 6259 6259 6259 6622 6497 6497 6622 6622 6622 6622 6622 6753 6753 6622 6622 6622 6622 6622 6622 6622 6622 6753 6753 6622 6622 6622 6622 6622 6622 6622 6622 6622 6622 6622 6622 6622 6753 6753 6753 6889 6889 6889 6889 6889 6889 6889 6889 6889 6753 6753 6753 6753 6753 6753 6753 6889 6889 6889 6889 6889 6889 6889 6889 6889 7030 7030 7030 7030 7030 7030 7030 7030 7030 7030 7030 7030 7030 7030 6889 6889 6889 6889 6889 3208 3208 3208 3208 3208 3178 3178 3178 3178 3208 3208 3208 3208 3208 3208 3208 3208 3208 3208 3208 3208 3208 3208 3178 3178 3178 3149 3149 3120 3120 3120 3120 3092 3092 3120 3120 3120 3120 3120 3120 3149 3149 3178 3178 3178 3208 3208 3208 3208 3208 3238 3238 3269 3269 3269 3269 3238 3238 3178 3149 3149 4241 4241 4295 4295 4349 4349 4349 4349 4349 4349 4349 4349 4405 4405 4405 4405 4405 4405 4405 4405 4405 4405 4405 4405 4405 4405 4405 4405 4405 4405 4405 4405 4405 4405 4405 4405 4349 4349 4349 4349 4349 4349 4349 4349 4349 4349 4349 4349 4349 4349 4349 4349 6375 6375 6259 6259 6259 0 0 0 0 1757 1757 1757 1757 1757 1757 1748 1748 1757 1757 1757 1757 1757 1757 1757 1757 1757 1757 1757 1757 1757 1757 1757 1757 1748 1748 1757 1757 1757 1757 1757 1757 1757 1757 1757 1757 1757 1757 1757 1757 1757 1757 1757 1757 1757 1757 1757 1757 1757 1757 1757 1757 1757 1757 1757 1757 1757 1757 1757 1757 1757 1757 1766 1766 1766 1766 1766 1766 1766 1757 1757 1757 1757 1757 1757 1766 1757 1757 1757 1757 1757 1766 0 0 0 0 0 6622 6375 6375 6375 6497 6622 6622 6622 6622 6753 6622 6622 6622 6497 6497 6497 6375 6375 6375 6497 6497 6497 6375 6375 6375 6375 6259 6259 6259 6259 4708 4708 4645 4645 4708 4708 4645 4645 4645 4645 4645 4645 4645 4645 4582 4582 4582 4582 4582 4582 4582 4582 4582 4645 4645 4708 4708 4708 4708 4774 6375 6375 6375 6375 6375 6375 6497 6622 6622 6622 6497 6497 6259 6259 6259 6259 6375 6375 6375 6375 6375 6497 6375 6375 6259 6259 6259 6259 6375 6375 6375 6375 6375 6497 6497 6497 6497 6497 6497 6497 6375 6375 6259 6259 6259 6259 6259 6375 6375 6375 6375 6375 6259 6259 6259 6146 6146 6146 6146 6259 6259 6146 6146 6146 6146 6146 6146 6146 6259 6259 6259 6375 6375 6497 6497 6375 6375 6259 6259 6259 6259 6259 6259 6259 6259 6259 6375 6497 6497 6497 6622 6497 6497 6497 6497 6497 6497 6375 6375 6375 6497 6375 6375 6497 6497 6375 6375 6375 6375 6375 6375 6375 6375 6375 6497 6497 6622 6622 6753 6753 6753 6753 6753 6753 6753 6753 6753 6889 6889 6889 7030 7030 7030 7030 7030 7030 7030 6889 6889 0 0 0 0 0 0 0 0 0 0 0 0 0
0 0 0 0 0 0 0 0 0 0 0 0 0 0 0 0 0 0 0 0 0 0 0 0 0 0 0 0 0 0 0 4349 4349 4405 4405 4405 4405 4405 4405 4522 4522 4582 4582 4582 4645 4708 4774 4842 4983 5056 5132 5210 5210 5210 5210 5210 5210 5210 5210 5210 5210 5210 5132 5132 5132 5132 5132 5132 5132 5132 5132 5210 5210 5210 5210 5210 5210 5210 5210 5210 6753 6622 6622 6622 6622 6622 6622 6497 6375 6375 6497 6375 6375 6497 6375 6375 6375 6375 6375 6375 6375 6497 6497 6622 6753 6753 6753 6753 6753 6753 6753 6753 6753 6753 6753 6753 6753 6753 6753 6753 6622 6622 6622 6622 6622 6497 6375 6375 6375 6375 6375 6375 6375 6259 6259 6259 6259 6259 6259 6622 6497 6497 6622 6622 6622 6622 6622 6753 6753 6622 6622 6622 6622 6622 6497 6497 6622 6753 6622 6622 6622 6622 6622 6622 6622 6622 6622 6622 6622 6622 6753 6622 6622 6753 6753 6753 6753 6753 6889 6889 6889 6889 6889 6889 6753 6753 6889 6753 6753 6753 6753 6889 6889 6889 6889 6889 6889 6889 6889 6889 7030 7030 7030 7030 7030 7030 7030 7030 7030 7030 7030 7030 7030 7030 7030 6889 6889 6889 6889 3208 3208 3208 3208 3208 3208 3178 3178 3208 3208 3208 3178 3178 3208 3208 3208 3208 3208 3208 3208 3208 3178 3178 3178 3178 3178 3149 3149 3149 3120 3120 3120 3120 3120 3120 3120 3120 3120 3120 3120 3149 3149 3178 3178 3178 3208 3208 3208 3238 3238 3238 3238 3269 3269 3269 3269 3238 3238 3178 3149 3149 3149 4295 4295 4295 4349 4349 4349 4349 4349 4349 4349 4349 4405 4405 4405 4405 4405 4405 4405 4405 4405 4405 4405 4405 4405 4405 4405 4405 4405 4405 4405 4405 4405 4405 4405 4405 4349 4349 4349 4349 4349 4349 4349 4405 4405 4349 4349 4349 4349 4349 4349 4349 6375 6375 6259 6259 0 0 0 0 0 1757 1757 1757 1757 1757 1757 1757 1757 1757 1757 1757 1757 1757 1757 1757 1757 1757 1757 1757 1757 1757 1757 1757 1757 1757 1757 1757 1757 1757 1757 1757 1757 1757 1757 1757 1757 1757 1757 1757 1757 1757 1757 1757 1757 1757 1757 1757 1757 1757 1757 1757 1757 1757 1757 1757 1757 1757 1757 1757 1757 1766 1766 1766 1766 1766 1766 1766 1766 1766 1757 1757 1757 1757 1757 1757 1766 1757 1757 1757 1757 1757 0 0 0 0 0 0 0 6375 6375 6375 6497 6622 6622 6622 6622 6753 6622 6497 6497 6497 6497 6497 6375 6375 6375 6497 6497 6497 6375 6375 6375 6375 6259 6259 4708 4708 4645 4645 4645 4645 4708 4708 4645 4645 4645 4582 4582 4582 4582 4645 4582 4582 4582 4582 4522 4522 4522 4582 4582 4582 4645 4708 4708 4708 4708 4708 4708 6375 6375 6375 6375 6375 6497 6497 6497 6497 6497 6259 6259 6259 6259 6259 6375 6375 6375 6375 6375 6375 6375 6259 6259 6259 6259 6259 6259 6375 6375 6375 6375 6375 6497 6497 6375 6375 6375 6375 6375 6375 6259 6259 6259 6259 6259 6375 6375 6375 6375 6375 6259 6259 6259 6146 6146 6146 6146 6259 6259 6146 6146 6146 6146 6146 6146 6146 6259 6259 6259 6375 6375 6375 6375 6375 6375 6259 6259 6259 6259 6259 6259 6259 6259 6259 6375 6375 6497 6497 6497 6497 6497 6375 6375 6375 6375 6375 6375 6259 6259 6259 6259 6259 6375 6375 6375 6375 6375 6375 6375 6375 6375 6375 6497 6497 6497 6622 6753 6753 6753 6753 6753 6753 6753 6753 6753 6753 6753 6753 6889 6889 6889 6889 6889 6889 7030 6889 6889 0 0 0 0 0 0 0 0 0 0 0 0 0
0 0 0 0 0 0 0 0 0 0 0 0 0 0 0 0 0 0 0 0 0 0 0 0 0 0 0 0 0 0 0 4405 4405 4405 4405 4463 4463 4463 4463 4522 4522 4582 4582 4582 4645 4708 4774 4911 5056 5132 5132 5210 5210 5210 5210 5210 5210 5210 5210 5210 5210 5210 5132 5132 5132 5132 5132 5132 5132 5132 5132 5210 5210 5132 5132 5132 5210 5132 5132 5210 6753 6622 6622 6622 6622 6622 6622 6497 6375 6375 6375 6375 6375 6375 6375 6375 6375 6375 6375 6259 6259 6497 6375 6375 6622 6753 6753 6753 6753 6753 6753 6753 6753 6753 6753 6753 6753 6753 6753 6753 6622 6622 6622 6622 6622 6622 6375 6375 6375 6375 6375 6375 6375 6259 6259 6259 6259 6259 6259 6497 6497 6497 6497 6622 6622 6622 6622 6753 6753 6622 6622 6622 6497 6497 6497 6497 6622 6622 6622 6622 6622 6622 6622 6622 6622 6622 6622 6622 6622 6622 6753 6622 6622 6497 6497 6497 6497 6497 6889 6889 6889 6753 6753 6753 6753 6753 6753 6889 6889 6753 6753 6889 6889 6889 6889 6889 6889 6889 6889 7030 7030 7030 7030 7030 7030 7030 7030 7030 7030 7030 7030 7030 7030 7030 7030 7030 6889 6889 6889 3178 3178 3178 3208 3208 3208 3208 3208 3208 3208 3208 3178 3178 3208 3208 3208 3208 3208 3208 3208 3208 3178 3178 3178 3178 3178 3149 3149 3149 3120 3120 3120 3120 3120 3120 3120 3120 3120 3120 3149 3149 3149 3178 3208 3208 3208 3208 3208 3238 3238 3238 3238 3238 3269 3269 3269 3238 3238 3178 3149 3120 3120 4295 4295 4349 4349 4349 4349 4405 4405 4349 4349 4405 4405 4405 4405 4405 4405 4405 4405 4405 4405 4405 4405 4405 4405 4405 4405 4405 4405 4405 4405 4405 4349 4349 4405 4349 4349 4349 4405 4405 4349 4349 4349 4405 4405 4349 4349 4349 4349 4349 4349 4349 6375 6375 6375 0 0 0 0 0 0 1757 1757 1757 1757 1757 1757 1757 1757 1757 1757 1757 1757 1757 1757 1757 1757 1757 1757 1757 1757 1757 1757 1757 1757 1757 1757 1757 1757 1757 1757 1757 1757 1757 1757 1757 1757 1757 1757 1757 1757 1757 1757 1757 1757 1757 1757 1757 1757 1766 1757 1757 1757 1757 1757 1757 1757 1757 1757 1757 1757 1766 1757 1757 1757 1757 1766 1766 1766 1766 1766 1766 1766 1757 1757 1766 1766 1757 1757 1757 1757 1766 0 0 0 0 0 0 0 6497 6497 6497 6622 6622 6622 6622 6753 6753 6622 6497 6497 6497 6497 6497 6375 6375 6497 6497 6497 6497 6497 6375 6375 6375 6375 6375 4708 4708 4645 4645 4708 4708 4708 4645 4645 4645 4645 4582 4582 4582 4582 4582 4582 4582 4522 4522 4522 4522 4522 4522 4582 4582 4582 4645 4645 4645 4645 4708 4708 6375 6375 6375 6375 6375 6497 6497 6497 6497 6375 6259 6259 6259 6259 6259 6375 6375 6375 6375 6375 6375 6375 6259 6259 6259 6259 6259 6259 6375 6375 6375 6375 6375 6375 6375 6375 6259 6259 6259 6259 6259 6259 6259 6259 6259 6259 6375 6375 6375 6375 6259 6259 6259 6259 6259 6259 6259 6259 6259 6259 6259 6259 6146 6146 6146 6146 6259 6259 6259 6259 6375 6375 6375 6375 6375 6259 6259 6259 6259 6259 6259 6259 6259 6259 6259 6375 6375 6497 6497 6497 6497 6497 6375 6375 6375 6375 6259 6259 6259 6259 6259 6146 6146 6146 6146 6375 6375 6375 6375 6375 6375 6375 6375 6497 6497 6497 6622 6753 6753 6753 6753 6753 6753 6753 6753 6753 6753 6753 6753 6889 6889 6753 6753 6889 6889 7030 7030 7030 0 0 0 0 0 0 0 0 0 0 0 0 0
0 0 0 0 0 0 0 0 0 0 0 0 0 0 0 0 0 0 0 0 0 0 0 0 0 0 0 0 0 0 0 4405 4405 4463 4463 4582 4582 4582 4582 4582 4582 4582 4645 4645 4708 4983 4983 5056 5132 5132 5132 5210 5210 5210 5210 5210 5210 5291 5291 5210 5210 5210 5132 5132 5132 5132 5132 5132 5132 5132 5132 5210 5210 5132 5132 5132 5210 5132 5132 5210 5210 6622 6622 6622 6622 6622 6622 6497 6375 6375 6375 6375 6375 6375 6375 6375 6375 6375 6375 6259 6259 6375 6375 6375 6622 6622 6622 6622 6622 6622 6753 6622 6622 6753 6622 6622 6622 6622 6622 6622 6622 6622 6622 6622 6622 6497 6259 6259 6375 6375 0 0 0 0 0 0 6259 6259 6259 6259 6375 6375 6497 6497 6497 6622 6622 6753 6753 6622 6622 6622 6497 6497 6497 6497 6622 6622 6622 6622 6622 6622 6622 6622 6622 6622 6497 6497 6622 6622 6622 6622 6622 6497 6497 6497 6497 6497 6889 6889 6889 6753 6753 6753 6753 6753 6753 6753 6753 6753 6753 6889 6889 6889 6889 6889 6889 6889 6889 7030 7030 7030 7030 7030 7030 7030 7030 7030 7030 7030 7030 7030 7030 7030 7030 7030 7030 7030 7030 3178 3178 3178 3208 3208 3238 3238 3208 3208 3208 3208 3208 3208 3208 3208 3208 3238 3208 3208 3238 3208 3208 3208 3178 3178 3178 3149 3149 3149 3120 3120 3120 3120 3120 3120 3120 3120 3120 3120 3149 3149 3178 3178 3178 3208 3208 3208 3208 3238 3238 3238 3238 3238 3269 3269 3269 3269 0 0 3149 3120 3120 4295 4295 4349 4349 4349 4349 4405 4405 4405 4405 4405 4405 4405 4405 4405 4405 4405 4405 4405 4405 4405 4405 4405 4405 4405 4405 4405 4405 4405 4405 4405 4349 4349 4349 4349 4349 4349 4405 4405 4405 4349 4349 4405 4405 4349 4349 4349 4349 4349 4349 4349 4349 4349 0 0 0 0 0 0 0 1757 1757 1757 1757 1757 1757 1757 1757 1757 1757 1757 1757 1757 1757 1757 1757 1757 1757 1757 1757 1757 1757 1757 1757 1757 1757 1757 1757 1757 1757 1757 1757 1757 1757 1757 1757 1757 1757 1757 1757 1757 1757 1757 1757 1757 1757 1757 1757 1766 1757 1757 1757 1757 1757 1757 1757 1757 1757 1757 1757 1766 1757 1757 1757 1757 1766 1766 1766 1766 1766 1766 1766 1766 1766 1766 1766 1757 1757 1757 1757 0 0 0 0 0 0 6753 6753 6622 6622 6753 6753 6753 6753 6753 6753 6753 6622 6622 6622 6622 6622 6497 6497 6497 6497 6622 6622 6622 6622 6622 6497 4842 4842 4842 4774 4774 4708 4708 4708 4708 4708 4645 4645 4645 4645 4582 4582 4582 4582 4582 4522 4522 4522 4522 4522 4522 4522 4522 4582 4582 4582 4582 4645 4645 4645 4708 6375 6375 6259 6259 6375 6375 6497 6497 6497 6497 6375 6259 6259 6259 6259 6375 6375 6375 6375 6375 6375 6375 6375 6375 6375 6375 6375 6375 6375 6375 6375 6375 6375 6375 6375 6375 6375 6259 6259 6259 6259 6146 6146 6146 6259 6259 6259 6375 6375 6375 6375 6259 6259 6259 6259 6259 6259 6259 6259 6259 6375 6259 6259 6146 6146 6146 6146 6259 6259 6259 6259 6375 6375 6375 6375 6259 6146 6146 6146 6259 6259 6259 6259 6259 6259 6375 6375 6497 6497 6497 6497 6497 6375 6375 6375 6375 6375 6259 6259 6259 6146 6146 6038 6038 6146 6146 6146 6375 6375 6375 6375 6375 6375 6497 6497 6497 6622 6753 6753 6753 6753 6753 6753 6753 6753 6753 6753 6753 6889 6889 6889 6889 6753 6753 6889 6889 7030 7030 7030 0 0 0 0 0 0 0 0 0 0 0 0 0
0 0 0 0 0 0 0 0 0 0 0 0 0 0 0 0 0 0 0 0 0 0 0 0 0 0 0 0 0 0 0 4463 4463 4463 4463 4582 4582 4582 4582 4582 4582 4645 4708 4842 5056 5056 5056 5056 5132 5132 5132 5210 5210 5210 5210 5210 5210 5210 5210 5210 5210 5291 5132 5132 5132 5132 5132 5132 5132 5132 5132 5210 5210 5210 5132 5132 5210 5210 5210 5210 5210 6622 6622 6622 6622 6622 6622 6497 6375 6375 6497 6375 6375 6375 6375 6375 6375 0 0 0 0 6375 6375 6375 6622 6622 6622 6622 6622 6622 6753 6622 6622 6622 6622 6622 6622 6622 6622 6622 6622 6622 6622 6497 6497 6497 6259 6259 6375 0 0 0 0 0 0 0 6259 6259 6259 6259 6259 6375 6375 6497 6497 6622 6622 6753 6753 6622 6622 6622 6497 6497 6497 6497 6622 6622 6622 6622 6622 6622 6622 6622 6622 6622 6497 6497 6497 6497 6622 6622 6622 6622 6375 6375 6375 6375 6889 6889 6889 6753 6753 6753 6753 6753 6753 6753 6753 6753 6753 6889 6889 6889 6889 6889 6889 7030 7030 7030 7030 7030 7030 7030 7030 7030 7030 7030 7030 7030 7030 7030 7030 7030 7030 7030 7030 7030 7030 3178 3178 3178 3208 3208 3238 3208 3208 3208 3208 3208 3178 3178 3208 3208 3208 3238 3208 3208 3238 3208 3208 3208 3178 3178 3178 3178 3149 3149 3120 3120 3120 3120 3120 3120 3120 3120 3120 3149 3149 3149 3178 3178 3178 3208 3208 3208 3208 3208 3208 3238 3238 3238 3269 0 0 0 0 0 3149 3120 3120 4295 4295 4349 4349 4349 4349 4405 4405 4349 4349 4405 4405 4405 4405 4405 4405 4405 4405 4405 4405 4405 4405 4405 4405 4405 4405 4405 4405 4405 4405 4405 4349 4349 4349 4349 4349 4349 4405 4405 4405 4349 4349 4405 4405 4349 4349 4349 4349 4349 4405 4349 4349 4349 0 0 0 0 0 0 0 1757 1757 1757 1757 1757 1757 1757 1757 1757 1757 1757 1757 1757 1757 1757 1757 1757 1757 1757 1757 1757 1757 1757 1757 1757 1757 1757 1757 1757 1766 1757 1757 1766 1757 1757 1757 1757 1757 1757 1766 1757 1757 1766 1766 1766 1757 1757 1757 1766 1757 1757 1757 1757 1757 1757 1757 1757 1757 1766 1766 1766 1766 1766 1766 1766 1766 1766 1766 1766 1766 1766 1766 1766 1766 1766 1766 1757 1757 1757 1757 0 0 0 0 0 0 6753 6753 6753 6753 6753 6889 6889 6889 6889 6889 6889 6753 6753 6622 6622 6622 6622 6622 6622 6622 6753 6753 6753 6753 6753 4842 4842 4842 4774 4708 4708 4708 4708 4708 4708 4708 4645 4645 4645 4645 4582 4582 4582 4582 4582 4522 4522 4522 4522 4522 4522 4522 4522 4582 4582 4582 4582 4645 4645 4645 4708 6375 6375 6259 6259 6375 6375 6497 6497 6497 6497 6497 6497 6375 6375 6375 6375 6497 6497 6497 6375 6375 6375 6375 6259 6259 6375 6375 6375 6497 6497 6375 6375 6375 6375 6375 6375 6375 6259 6259 6259 6259 6146 6146 6146 6259 6259 6259 6375 6375 6375 6375 6375 6375 6375 6375 6375 6375 6497 6497 6497 6497 6375 6259 6259 6259 6259 6259 6259 6259 6259 6375 6375 6375 6375 6375 6259 6146 6146 6146 6259 6259 6146 6146 6259 6259 6375 6375 6497 6497 6497 6497 6497 6375 6375 6375 6375 6375 6259 6146 6146 6038 6038 6038 6038 6146 6038 6038 6146 6375 6375 6375 6375 6375 6497 6497 6497 6622 6753 6753 6889 6889 6889 6889 6889 6889 6889 6889 6889 6889 6889 6889 6889 6889 6889 7030 7030 7030 7030 7030 0 0 0 0 0 0 0 0 0 0 0 0 0
0 0 0 0 0 0 0 0 0 0 0 0 0 0 0 0 0 0 0 0 0 0 0 0 0 0 0 0 0 6497 6497 6497 6497 4463 4463 4645 4645 4645 4645 4645 4645 4645 4774 5056 5056 5056 5056 5056 5132 5132 5132 4911 4911 5210 5210 5210 5210 5210 5210 5210 5291 5291 5132 5132 5132 5132 5132 5132 5132 5132 5132 5210 5210 5210 5132 5132 5210 5210 5210 5210 5210 6622 6622 6622 6622 6622 6622 6497 6375 6375 6497 6375 6375 6375 6375 6375 0 0 0 0 0 0 0 0 7030 6753 6622 6622 6622 6622 6622 6622 6622 6622 6622 6622 6622 6622 6622 6622 6622 6622 6622 6497 6497 6497 6259 6259 6375 0 0 0 0 0 0 0 6497 6259 6259 6259 6259 6375 6375 6497 6497 6622 6622 6753 6753 6622 6622 6622 6622 6622 6497 6497 6622 6622 6622 6622 6622 6622 6622 6622 6622 6622 6497 6497 6497 6497 6497 6497 6375 6375 6375 6146 6146 6259 6753 6889 6889 6753 6753 6753 6753 6753 6753 6753 6753 6753 6753 6889 6889 6889 6889 6889 6889 7030 7030 7030 7030 7030 7030 7030 7030 7030 7030 7030 7030 7030 7030 7030 7030 7030 7030 7030 7030 7030 7178 7178 3178 3178 3178 3178 3208 3208 3208 3208 3178 3178 3178 3178 3178 3208 3208 3238 3238 3238 3238 3208 3208 3208 3178 3178 3178 3149 3149 3149 3120 3120 3120 3120 3120 3120 3120 3120 3120 3120 3149 3149 3149 3178 3178 3208 3208 3208 3208 3208 3208 3208 3238 3238 0 0 0 0 0 0 0 4241 4241 4295 4295 4349 4349 4349 4349 4349 4349 4349 4349 4405 4405 4405 4405 4405 4405 4405 4405 4405 4405 4405 4405 4405 4405 4405 4405 4405 4405 4405 4405 4405 4349 4349 4405 4405 4405 4405 4405 4405 4405 4405 4405 4405 4405 4349 4349 4349 4349 4405 4405 4349 4349 7178 7332 7332 0 0 0 0 0 1757 1757 1766 1766 1766 1766 1766 1766 1757 1757 1757 1757 1757 1757 1757 1757 1766 1757 1757 1757 1757 1757 1757 1757 1757 1757 1757 1757 1757 1766 1757 1757 1766 1757 1757 1757 1757 1757 1766 1766 1757 1757 1766 1766 1766 1766 1766 1766 1766 1766 1757 1757 1757 1757 1757 1757 1757 1757 1766 1766 1766 1766 1766 1766 1766 1766 1766 1766 1766 1766 1766 1766 1766 1766 1766 1766 1757 1757 1757 1757 0 0 0 0 0 0 6889 6889 6889 6889 6889 7030 7030 7030 7030 7178 7178 7178 6889 6889 6753 6753 6753 6753 6753 6753 6753 6753 6889 6889 6889 4842 4708 4708 4774 4708 4708 4708 4708 4708 4708 4645 4645 4645 4645 4645 4582 4582 4582 4582 4582 4522 4522 4522 4522 4522 4522 4522 4582 4582 4582 4582 4582 4582 4582 4582 4645 4645 6375 6375 6375 6497 6497 6497 6622 6622 6622 6497 6497 6497 6497 6497 6497 6497 6497 6497 6375 6375 6375 6375 6259 6259 6375 6375 6375 6497 6497 6497 6497 6497 6497 6497 6497 6375 6259 6259 6259 6259 6146 6146 6146 6259 6259 6259 6375 6375 6375 6497 6497 6497 6497 6497 6497 6497 6497 6497 6497 6622 6497 6497 6375 6375 6259 6259 6259 6259 6375 6375 6375 6375 6375 6259 6259 6146 6146 6146 6146 6146 6146 6146 6259 6259 6375 6375 6497 6497 6497 6497 6497 6497 6375 6375 6375 6375 6259 6146 6038 6038 6038 6038 6038 6146 6038 6038 6146 6259 6375 6375 6375 6375 6497 6497 6622 6622 6889 6889 6889 6889 6889 6889 6889 6889 6889 6889 7030 7030 7030 6889 6889 6889 6889 7030 7178 7178 7178 7178 0 0 0 0 0 0 0 0 0 0 0 0 0
0 0 0 0 0 0 0 0 0 0 0 0 0 0 0 0 0 0 0 0 0 0 0 0 0 0 0 0 0 6497 6375 6375 6375 6375 6375 6497 4645 4645 6497 6497 4708 4708 4842 5056 5132 5132 5132 5132 5132 5132 5132 4911 4911 5210 5210 5210 5210 5210 5210 5210 5291 5291 5132 5132 5132 5132 5132 5132 5132 5132 5132 5210 5210 5210 5210 5210 5210 5132 5132 5132 5132 0 0 6622 6622 6622 6622 6375 6375 6375 6259 6259 6375 6375 6375 6375 0 0 0 0 0 0 0 0 0 6753 6622 6375 6375 6497 6497 6497 6497 6497 6622 6622 6622 6622 6622 6622 6622 6622 6622 6622 0 0 0 0 0 0 0 0 0 0 0 0 6497 6259 6259 6259 6259 6375 6375 6497 6497 6497 6622 6622 6622 6622 6622 6622 6753 6622 6622 6622 6622 6622 6622 6622 6497 6497 6497 6497 6497 6622 6497 6375 6375 6375 6375 0 0 6146 6146 6146 6146 6259 6497 6622 6622 6622 6622 6622 6622 6753 6753 6889 6889 6753 6753 6889 6889 6889 6889 6889 6889 7030 7030 7030 7030 7030 7030 7030 7030 7030 7030 7030 7030 7030 7030 7030 7030 7030 7030 7030 7030 7030 7178 7178 3178 3178 3178 3178 3208 3208 3208 3208 3178 3178 3178 3178 3178 3208 3208 3238 3238 3238 3238 3208 3178 3178 3178 3149 3149 3149 3149 3149 3120 3120 3120 3120 3120 3120 3120 3120 3120 3120 3149 3149 3149 3149 3149 3208 3208 3208 3208 3208 3208 3208 0 0 0 0 0 0 0 0 0 4241 4241 4295 4295 4349 4349 4349 4349 4349 4349 4349 4349 4405 4405 4405 4405 4405 4405 4405 4405 4405 4405 4405 4405 4405 4405 4405 4405 4405 4405 4405 4405 4405 4405 4405 4405 4405 4405 4405 4405 4405 4405 4405 4405 4405 4405 4349 4349 4349 4349 4349 4405 4349 4349 7178 7332 7332 0 0 0 0 0 1757 1757 1766 1766 1766 1766 1766 1766 1766 1757 1757 1757 1757 1757 1757 1757 1766 1766 1766 1766 1757 1757 1757 1757 1757 1757 1757 1757 1766 1766 1766 1766 1766 1766 1766 1757 1757 1757 1766 1766 1757 1757 1766 1766 1766 1766 1766 1766 1766 1766 1757 1757 1757 1757 1757 1757 1757 1757 1766 1766 1766 1766 1766 1766 1766 1766 1766 1766 1766 1766 1766 1766 1766 1766 1766 1766 1766 1766 1766 1766 1776 0 0 0 0 0 6889 6889 6889 7030 7030 7030 7030 7178 7178 7178 7332 7332 7030 7030 6889 6889 6889 6889 6889 6889 6889 6889 6889 6889 4842 4774 4708 4708 4774 4708 4708 4708 4708 4708 4645 4645 4645 4645 4645 4645 4582 4582 4582 4582 4582 4522 4522 4522 4522 4522 4522 4522 4582 4582 4582 4582 4582 4582 4522 4522 4582 4582 6497 6375 6375 6497 6497 6622 6622 6622 6622 6497 6497 6497 6497 6497 6497 6622 6497 6497 6497 6497 6375 6375 6375 6375 6497 6497 6497 6497 6497 6497 6497 6497 6497 6497 6497 6497 6375 6375 6375 6259 6146 6146 6259 6259 6259 6375 6375 6497 6497 6497 6497 6497 6497 6497 6497 6497 6497 6622 6622 6622 6622 6497 6497 6497 6497 6497 6497 6497 6497 6497 6497 6497 6375 6259 6259 6146 6146 6146 6146 6146 6146 6146 6259 6259 6375 6497 6497 6497 6497 6497 6497 6497 6375 6375 6375 6375 6259 6146 6038 6038 6038 6038 6038 6146 6146 6146 6259 6259 6497 6497 6497 6497 6497 6497 6622 6753 6753 6753 6753 6889 6889 6889 6889 6889 7030 7030 7030 7030 7030 7030 7030 6889 6889 7030 7178 7178 7178 7178 0 0 0 0 0 0 0 0 0 0 0 0 0
0 0 0 0 0 0 0 0 0 0 0 0 0 0 0 0 0 0 0 0 0 0 0 0 0 0 0 0 0 0 6375 6375 6375 6375 6375 6497 6497 6497 6497 6497 6622 6622 6753 6753 6622 6622 6753 5132 5132 5132 6889 6889 6889 5210 5132 5132 5210 5210 5210 5210 5291 5291 5374 5132 5132 5132 5132 5132 5132 5132 5132 5210 5374 5210 5210 5210 5210 5132 5132 5132 5132 0 0 0 0 0 0 6375 6375 6375 6259 6259 6259 6375 6375 0 0 0 0 0 0 0 0 0 0 0 0 6259 6259 6375 6375 6375 6375 6497 6497 6622 6622 6622 6622 6753 6753 6622 6622 0 0 0 0 0 0 0 0 0 0 0 0 0 0 0 6259 6146 6146 6259 6259 6497 6497 6497 6622 6622 6622 6622 6622 6622 0 0 6497 6497 6622 6497 6497 6622 6497 6497 6497 6497 6497 6497 0 6375 6375 6375 6375 6038 6038 6038 6038 0 6497 6497 6497 6622 6622 6622 6622 6622 6622 6622 6753 6753 6753 6889 6889 6889 6889 7030 6889 6889 6889 7030 7030 7030 7030 7030 7030 7030 7030 7030 7030 7030 7030 7030 7030 7030 7030 7030 7030 7030 7030 7178 7178 7178 3269 3269 3269 3238 3238 3238 3208 3208 3208 3178 3178 3178 3178 3208 3208 3238 3238 3238 3238 3208 3178 3178 3178 3149 3149 3120 3120 3120 3120 3120 3120 3120 3120 3120 3120 3120 3120 3120 3149 3149 3149 3149 3149 3208 3208 3208 3208 3178 3178 3178 0 0 0 0 0 0 0 0 0 0 4295 4295 4349 4349 4349 4349 4349 4405 4405 4405 4405 4405 4405 4405 4405 4405 4405 4405 4405 4405 4405 4405 4405 4405 4405 4405 4405 4405 4405 4405 4405 4405 4405 4405 4405 4405 4405 4405 4405 4405 4405 4405 4405 4405 4405 4349 4349 4349 4349 4349 4405 4349 4349 7332 7332 7332 0 0 0 0 0 1757 1757 1766 1766 1766 1766 1766 1766 1766 1766 1766 1757 1757 1757 1757 1757 1766 1766 1766 1766 1757 1757 1766 1766 1766 1766 1766 1766 1766 1766 1766 1766 1766 1766 1766 1766 1766 1766 1766 1766 1757 1757 1766 1766 1766 1766 1766 1766 1766 1766 1766 1766 1757 1757 1757 1757 1757 1757 1766 1766 1766 1766 1766 1766 1766 1766 1766 1766 1766 1766 1766 1766 1766 1766 1766 1766 1766 1766 1766 1766 1776 1785 0 0 0 0 6889 6889 6889 7030 7178 7178 7178 7178 7178 7178 7178 7178 7030 7030 7030 7030 7030 7030 7030 7030 6889 6889 7030 4842 4842 4774 4774 4774 4774 4708 4708 4708 4708 4645 4645 4645 4645 4645 4645 4582 4582 4582 4582 4582 4522 4522 4522 4522 4522 4522 4522 4522 4582 4582 4582 4582 4582 4582 4522 4522 4582 4582 6497 6497 6622 6622 6622 6622 6622 6753 6753 6622 6622 6622 6622 6622 6622 6753 6622 6622 6622 6497 6497 6497 6497 6497 6622 6622 6622 6622 6622 6622 6622 6622 6622 6622 6622 6622 6622 6622 6497 6497 6375 6375 6375 6375 6375 6375 6497 6497 6497 6622 6622 6622 6497 6497 6622 6622 6622 6622 6622 6622 6622 6622 6622 6622 6622 6622 6622 6622 6622 6622 6622 6497 6497 6375 6375 6146 6146 6146 6146 6146 6259 6259 6259 6375 6497 6497 6622 6622 6622 6497 6497 6497 6497 6497 6375 6375 6259 6259 6146 6038 6038 6146 6146 6259 6259 6259 6375 6622 6622 6622 6622 6622 6622 6622 6753 6753 6753 6753 6753 6889 6889 6889 6889 6889 7030 7030 7030 7030 7030 7030 7030 7030 7030 7178 7332 7332 7178 7178 0 0 0 0 0 0 0 0 0 0 0 0 0
0 0 0 0 0 0 0 0 0 0 0 0 0 0 0 0 0 0 0 0 0 0 0 0 0 0 0 0 0 0 6259 6259 6375 6375 6497 6497 6497 6497 6497 6497 6622 6622 6753 6753 6622 6622 6753 6753 6889 6889 6889 6889 6889 6889 5132 5132 5210 5210 5210 5210 5291 5291 5460 5132 5132 5132 5056 5056 5132 5132 5132 5210 5374 5374 5291 5210 5210 5132 5132 0 0 0 0 0 0 0 0 0 0 0 6259 6259 6259 0 0 0 0 0 0 0 0 0 0 0 0 0 0 6146 6146 6146 6259 6259 6259 6375 6497 6622 6622 6622 6753 6753 0 0 0 0 0 0 0 0 0 0 0 0 0 0 0 0 0 0 0 6146 6146 6146 6146 0 0 0 0 0 0 0 0 0 0 0 6497 6497 6497 6497 6497 0 0 0 0 0 0 0 0 6038 6038 6038 6038 6038 6038 6038 6038 0 0 0 0 6038 6622 6622 6622 6622 6622 6622 6753 6753 6753 6889 6889 6889 6889 7030 6889 6889 6889 7030 7030 7030 7030 7030 7030 7030 7030 7030 7178 7178 7178 7030 7030 7030 7030 7030 7030 7030 7030 7178 7178 7178 3269 3269 3269 3269 3238 3238 3208 3208 3208 3208 3178 3178 3208 3208 3238 3269 3269 3269 3269 3208 3178 3178 3178 3149 3149 3120 3120 3120 3120 3120 3120 3120 3120 3120 3120 3120 3120 3120 3120 3149 3149 3149 3149 3208 3208 3208 3208 3178 3178 3178 0 0 0 0 0 0 0 0 0 0 4295 4295 4295 4349 4349 4349 4349 4349 4349 4405 4405 4405 4405 4405 4405 4405 4405 4405 4405 4405 4405 4405 4405 4405 4405 4405 4405 4405 4405 4405 4405 4405 4405 4405 4405 4405 4405 4405 4405 4405 4405 4405 4349 4349 4349 4349 4349 4349 4349 4349 4405 4405 7332 7332 7332 7332 0 0 0 0 0 1757 1757 1757 1757 1766 1766 1766 1766 1766 1766 1766 1766 1766 1766 1766 1766 1766 1766 1766 1766 1766 1766 1766 1766 1766 1757 1757 1766 1766 1766 1766 1766 1766 1766 1766 1766 1766 1766 1766 1766 1766 1766 1766 1766 1766 1766 1766 1766 1766 1766 1766 1766 1757 1757 1757 1757 1757 1757 1766 1766 1766 1766 1766 1766 1766 1766 1766 1766 1766 1766 1766 1766 1766 1766 1766 1766 1766 1766 1766 1766 1776 1785 0 0 0 0 7030 7030 7030 7178 7178 7178 7178 7178 7178 7178 7178 7178 7178 7178 7178 7178 7178 7178 7178 7178 7030 7030 4774 4774 4774 4774 4774 4708 4708 4708 4708 4708 4645 4645 4645 4582 4582 4582 4582 4582 4582 4582 4582 4582 4522 4522 4522 4463 4463 4463 4522 4522 4522 4522 4522 4522 4522 4522 4522 4522 4582 4582 4582 6753 6753 6753 6753 6753 6753 7030 7030 6889 6889 6889 6753 6753 6753 6753 6753 6622 6622 6622 6622 6622 6622 6622 6622 6622 6622 6622 6622 6622 6622 6622 6753 6753 6753 6753 6753 6753 6622 6622 6497 6497 6497 6497 6497 6497 6622 6622 6622 6622 6622 6622 6622 6622 6622 6622 6622 6753 6753 6753 6753 6753 6753 6753 6753 6753 6753 6753 6753 6753 6753 6622 6622 6622 6622 6497 6375 6375 6375 6375 6259 6259 6375 6375 6497 6622 6622 6622 6622 6622 6622 6497 6497 6497 6497 6497 6375 6375 6259 6038 6038 6259 6259 6497 6622 6622 6889 6889 6753 6753 6753 6753 6753 6889 6889 6889 6889 6889 6889 6889 6889 6889 7030 7030 7030 7178 7178 7178 7178 7178 7178 7178 7178 7178 7332 7332 7332 0 0 0 0 0 0 0 0 0 0 0 0 0 0
0 0 0 0 0 0 0 0 0 0 0 0 0 0 0 0 0 0 0 0 0 0 0 0 0 0 0 0 0 0 6259 6259 6259 6375 6375 6497 6497 6497 6497 6497 6622 6622 6753 6753 6753 6753 6753 6889 6889 6889 6889 6889 6889 6889 6753 6753 6753 0 0 0 0 0 0 0 5132 5132 5056 5056 5132 5132 5132 5210 5460 5374 5374 0 0 0 0 0 0 0 0 0 0 0 0 0 0 0 0 6259 6259 0 0 0 0 0 0 0 0 0 0 0 0 0 0 6146 6146 6146 6259 6259 6259 6375 6497 6622 6622 0 0 0 0 0 0 0 0 0 0 0 0 0 0 0 0 0 0 0 0 0 0 0 6146 6146 6146 0 0 0 0 0 0 0 0 0 0 0 0 0 0 0 0 0 0 0 0 0 0 0 6038 6038 6038 6038 6038 6038 6038 6038 6038 6146 6038 0 0 0 0 6622 6622 6622 6622 6622 6622 6753 6753 6889 6889 6889 6889 7030 6889 6889 7030 7030 7030 7030 7030 7030 7030 7030 7030 7030 7030 7030 7030 7030 7030 7030 7030 7178 7178 7178 7178 7178 7178 7178 3269 3269 3269 3269 3269 3269 3208 3208 3208 3208 3208 3208 3208 3238 3269 3269 3269 3269 3269 3208 3178 3178 3178 3149 3149 3120 3120 3120 3120 3120 3120 3120 3120 3120 3120 3120 3120 3120 3120 3120 3149 3149 3149 3208 3208 3208 3208 3178 3178 3178 3238 0 0 0 0 0 0 0 0 0 4295 4295 4295 4349 4349 4349 4349 4349 4349 4349 4349 4405 4405 4405 4405 4405 4405 4405 4405 4405 4405 4405 4405 4405 4405 4405 4405 4405 4405 4405 4405 4405 4405 4405 4405 4405 4405 4405 4405 4405 4405 4405 4349 4349 4349 4349 4349 4349 4349 4349 4405 4405 7332 7332 7332 7332 7332 0 0 0 0 1757 1757 1757 1757 1757 1757 1766 1766 1766 1766 1766 1766 1766 1766 1766 1766 1766 1766 1766 1766 1766 1766 1766 1766 1766 1757 1757 1766 1766 1766 1766 1766 1766 1766 1766 1766 1766 1766 1766 1766 1766 1766 1766 1766 1766 1766 1766 1766 1766 1766 1766 1766 1757 1757 1757 1757 1766 1766 1766 1766 1766 1766 1766 1766 1766 1766 1766 1766 1766 1766 1766 1766 1766 1766 1766 1766 1766 1766 1766 1766 1776 1776 0 0 0 0 0 7030 7030 7178 7178 7178 7178 7178 7178 7332 7178 7178 7178 7178 7178 7178 7178 7178 7332 7178 4774 4774 4774 4774 4774 4774 4774 4708 4708 4708 4708 4708 4645 4645 4645 4582 4582 4582 4582 4582 4582 4582 4582 4522 4522 4522 4522 4463 4463 4463 4522 4522 4522 4522 4522 4522 4522 4522 4463 4463 4463 4463 4463 4463 7030 7030 7030 7030 7178 7178 7178 7030 6889 6889 6889 6889 6889 6889 6889 6753 6753 6753 6753 6753 6753 6753 6753 6753 6753 6753 6753 6753 6753 6753 6889 6889 6889 6889 6889 6889 6889 6753 6622 6622 6622 6622 6622 6622 6622 6622 6622 6622 6622 6622 6622 6622 6622 6622 6622 6753 6753 6753 6753 6753 6753 6889 6753 6753 6753 6753 6753 6753 6753 6753 6753 6753 6889 6753 6622 6622 6622 6497 6497 6497 6497 6497 6622 6622 6622 6622 6622 6622 6622 6622 6622 6497 6497 6497 6497 6497 6259 6038 6038 6259 6375 6622 6753 6753 6889 6889 6889 6889 6889 6889 6889 6889 6889 6889 6889 6889 6889 6889 6889 7030 7030 7178 7178 7178 7178 7178 7332 7332 7332 7332 7332 7492 7492 7332 7332 0 0 0 0 0 0 0 0 0 0 0 0 0 0
0 0 0 0 0 0 0 0 0 0 0 0 0 0 0 0 0 0 0 0 0 0 0 0 0 0 0 0 0 0 6259 6259 6259 6375 6375 6497 6497 6497 6497 6622 6622 6753 6753 6753 6753 6753 6753 6889 6889 6889 6889 6889 6889 6889 6889 6889 6889 0 0 0 0 0 0 0 0 0 0 0 0 0 5548 5548 5460 5460 5460 0 0 0 0 0 0 0 0 0 0 0 0 0 0 0 0 0 0 0 0 0 0 0 0 0 0 0 0 0 0 0 0 0 6038 6038 6038 6146 6146 6375 0 0 0 0 0 0 0 0 0 0 0 0 0 0 0 0 0 0 0 0 0 0 0 0 0 0 0 0 0 0 0 0 0 0 0 0 0 0 0 0 0 0 6259 6259 6259 6259 0 0 0 0 0 0 6038 6038 6038 6038 6038 6038 6038 6038 6146 6146 6038 6038 6038 6259 0 6753 6753 6753 6622 6622 6622 6753 6753 6889 6889 6889 7030 7030 7030 7030 7030 7030 7030 6889 6889 7030 7030 7030 7030 7030 7030 7030 7030 7030 7030 7030 7030 7178 7178 7178 7178 7178 7178 7178 3399 3399 3399 3399 3399 3208 3208 3208 3208 3208 3208 3208 3208 3269 3269 3269 3269 3300 3269 3208 3178 3178 3178 3149 3149 3120 3120 3120 3120 3120 3120 3120 3120 3120 3120 3120 3120 3120 3120 3120 3149 3149 3149 3208 3238 3238 3238 3238 3238 3238 3238 0 0 0 0 0 0 0 0 4349 4349 4295 4295 4349 4349 4349 4349 4349 4349 4349 4349 4405 4405 4405 4405 4405 4405 4405 4405 4405 4405 4405 4405 4405 4405 4405 4405 4405 4405 4405 4405 4405 4405 4405 4405 4405 4405 4405 4405 4405 4405 4405 4349 4349 4349 4349 4349 4349 4349 4349 4405 4405 7178 7178 7332 7332 7332 0 0 0 0 0 1757 1757 1757 1757 1757 1766 1766 1766 1766 1766 1766 1766 1766 1766 1766 1766 1766 1766 1766 1766 1766 1766 1766 1766 1766 1766 1766 1766 1766 1766 1766 1766 1766 1766 1766 1766 1766 1766 1766 1766 1766 1766 1766 1766 1766 1766 1766 1766 1766 1766 1766 1766 1766 1757 1757 1766 1766 1766 1766 1766 1766 1766 1766 1766 1766 1766 1766 1766 1766 1766 1766 1766 1766 1766 1766 1766 1766 1766 1766 1766 1776 0 0 0 0 0 7178 7178 7178 7178 7178 7178 7178 7178 7178 7178 7178 7178 7178 7178 7178 7178 4842 4774 4774 4774 4774 4774 4774 4774 4774 4708 4708 4708 4645 4645 4645 4582 4582 4582 4582 4582 4582 4582 4582 4582 4582 4582 4522 4522 4522 4522 4522 4463 4463 4522 4522 4522 4522 4522 4522 4463 4463 4463 4463 4463 4463 4463 4463 0 7178 7178 7178 7178 7178 7178 7030 7030 7030 7030 7030 7030 6889 6889 6889 6753 6753 6889 6889 6889 6889 6889 6889 6753 6753 6753 6753 6753 6753 6889 6889 6889 6889 6889 6889 6889 6753 6622 6622 6753 6753 6753 6753 6753 6753 6753 6753 6753 6753 6753 6753 6753 6753 6753 6753 6753 6753 6753 6753 6753 6889 6753 6753 6753 6753 6753 6889 6889 6889 6889 6889 6889 6753 6753 6622 6622 6622 6622 6497 6497 6497 6622 6622 6753 6753 6753 6753 6753 6753 6753 6753 6622 6622 6622 6622 6753 6753 6497 6497 6622 6753 6889 6889 6889 6889 6889 6889 6889 6889 6889 6889 6889 6889 6889 6889 6889 7030 7030 7030 7178 7178 7178 7178 7030 7030 7178 7178 7332 7332 7332 7492 7492 7492 7492 0 0 0 0 0 0 0 0 0 0 0 0 0 0
0 0 0 0 0 0 0 0 0 0 0 0 0 0 0 0 0 0 0 0 0 0 0 0 0 0 0 0 0 0 6259 6259 6259 6375 6375 6375 6497 6497 6497 6622 6753 6753 6753 6753 6753 6753 6753 6889 6889 6889 6889 6889 7030 7030 6889 6889 6889 0 0 0 0 0 0 0 0 0 0 0 0 0 5933 5640 5640 0 0 0 0 0 0 0 0 0 0 0 0 0 0 0 0 0 0 0 0 0 0 0 0 0 0 0 0 0 0 0 0 0 0 6038 6038 6038 6038 6038 6146 6146 0 0 0 0 0 0 0 0 0 0 0 0 0 0 0 0 0 0 0 0 0 0 0 0 0 0 0 0 0 0 0 0 0 0 0 0 0 0 0 0 0 0 0 6146 6146 6146 6146 0 0 0 0 0 0 6146 6146 6146 6038 6038 6146 6146 6146 6146 6038 6038 6259 6259 0 0 6753 6753 6753 6753 6753 6753 6753 6889 6889 6889 7030 7030 6889 6889 7030 7030 7030 6889 6889 7030 7030 7030 7030 7030 7030 7030 7030 7030 7030 7030 7030 7178 7178 7178 7030 7030 7030 7030 3399 3399 3399 3399 3399 3238 3238 3238 3238 3208 3208 3208 3238 3269 3269 3269 3269 3269 3269 3208 3178 3178 3178 3149 3149 3149 3120 3120 3120 3120 3120 3120 3120 3120 3120 3120 3120 3120 3120 3120 3149 3149 3178 3208 3238 3238 3238 3238 3238 3238 3238 0 0 0 0 0 0 0 4349 4349 4349 4295 4295 4349 4349 4349 4349 4349 4405 4349 4349 4405 4405 4405 4405 4405 4405 4405 4405 4405 4405 4405 4405 4405 4405 4405 4405 4405 4405 4405 4405 4405 4405 4405 4405 4405 4405 4405 4405 4405 4405 4405 4349 4349 4349 4349 4349 4349 4349 4349 4405 4405 4405 7178 7178 7178 7332 0 0 0 0 1748 1748 1757 1757 1757 1757 1757 1766 1766 1766 1766 1766 1766 1766 1766 1766 1766 1766 1766 1766 1766 1766 1766 1766 1766 1766 1766 1766 1766 1766 1766 1766 1766 1766 1766 1766 1766 1766 1766 1766 1766 1766 1766 1766 1766 1766 1766 1766 1766 1766 1766 1766 1766 1766 1766 1766 1766 1766 1766 1766 1766 1766 1766 1766 1766 1766 1766 1766 1766 1766 1766 1766 1766 1766 1766 1766 1766 1766 1766 1766 1766 1776 1776 0 0 0 0 7178 7178 7178 7178 7178 7178 7178 7178 7178 7178 7178 7178 7178 7178 7178 4842 4842 4774 4774 4774 4774 4774 4774 4774 4774 4708 4708 4708 4645 4645 4645 4582 4582 4582 4582 4582 4582 4582 4582 4582 4582 4582 4522 4522 4522 4522 4522 4463 4463 4522 4522 4522 4522 4522 4463 4463 4463 4463 4463 4463 4463 4463 4463 4645 7178 7178 7178 7178 7178 7178 7030 7030 7030 7030 6889 6889 6889 6889 6889 6889 6889 6889 6889 6889 6889 6889 6889 6889 6753 6753 6753 6889 6889 6889 6889 6889 6889 6889 6889 6889 6753 6753 6753 6753 6753 6753 6753 6753 6753 6753 6753 6753 6753 6753 6753 6753 6753 6753 6753 6753 6753 6753 6753 6753 6753 6753 6753 6753 6889 6889 6889 6889 6889 6889 6889 6753 6753 6753 6753 6753 6622 6622 6622 6622 6622 6622 6753 6753 6753 6753 6753 6753 6753 6753 6753 6622 6622 6889 6753 6753 6753 6753 6753 6753 6753 6753 6753 6889 6889 6889 6889 6889 6889 6889 6889 6889 6889 6889 7030 7030 7030 7030 7030 7178 7178 7178 7178 7030 7030 7178 7178 7332 7332 7332 7492 7492 7492 7492 0 0 0 0 0 0 0 0 0 0 0 0 0 0
0 0 0 0 0 0 0 0 0 0 0 0 0 0 0 0 0 0 0 0 0 0 0 0 0 0 0 0 0 0 6259 6259 6259 6375 6375 6375 6497 6497 6497 6622 6753 6753 6753 6753 6753 6753 6753 6889 6889 6889 7030 7030 7030 7030 7030 7030 7030 0 0 0 0 0 0 0 0 0 0 0 0 0 5933 5933 0 0 0 0 0 0 0 0 0 0 0 0 0 0 0 0 0 0 0 0 0 0 0 0 0 0 0 0 0 0 0 0 0 0 0 6038 6038 6038 6038 6038 6146 6146 0 0 0 0 0 0 0 0 0 0 0 0 0 0 0 0 0 0 0 0 0 0 0 0 0 0 0 0 0 0 0 0 0 0 0 0 0 0 0 0 0 0 0 6146 6146 6146 0 0 0 0 0 0 6375 6146 6146 6146 6038 6038 6146 6146 6146 6146 6146 6146 6259 0 0 0 0 6753 6753 6753 6753 6753 6753 6889 6889 7030 7030 7030 6889 6889 7030 7030 7030 7030 7030 7030 7030 7030 7030 7030 7030 7030 7030 7030 7030 7030 7030 7178 7178 7178 7030 7030 7030 7030 3399 3399 3399 3399 3300 3300 3238 3238 3300 3238 3208 3208 3238 3269 3269 3269 3269 3269 3269 3208 3178 3178 3178 3178 3149 3149 3149 3120 3120 3120 3120 3120 3120 3120 3120 3120 3120 3120 3120 3120 3149 3178 3178 3238 3269 3269 3269 3269 3238 3238 3238 0 0 0 0 0 4349 4349 4349 4349 4349 4349 4349 4349 4349 4349 4349 4405 4405 4405 4405 4405 4405 4405 4405 4405 4405 4405 4405 4405 4405 4405 4405 4405 4405 4405 4405 4405 4405 4405 4405 4405 4405 4405 4405 4405 4405 4405 4405 4405 4405 4405 4349 4349 4349 4349 4349 4349 4349 4349 4349 4405 4405 7178 7178 7178 0 0 0 0 0 1748 1748 1757 1757 1757 1757 1757 1766 1766 1766 1766 1766 1766 1766 1766 1766 1766 1766 1766 1766 1766 1766 1766 1766 1766 1766 1766 1766 1766 1766 1766 1766 1766 1766 1766 1766 1766 1766 1766 1766 1766 1766 1766 1766 1766 1766 1766 1766 1766 1766 1766 1766 1766 1766 1766 1766 1766 1766 1766 1766 1766 1766 1766 1766 1766 1766 1766 1766 1766 1766 1766 1766 1766 1766 1766 1776 1757 1757 1766 1766 1766 1766 1766 0 0 0 6889 6889 6889 7178 7178 7178 7178 7178 7178 7178 7178 7178 7178 4774 4774 4774 4774 4774 4774 4774 4774 4774 4708 4708 4708 4708 4708 4645 4645 4582 4582 4582 4582 4582 4582 4582 4582 4582 4582 4522 4522 4522 4522 4522 4522 4522 4522 4522 4522 4522 4522 4522 4463 4463 4463 4463 4463 4463 4463 4463 4463 4463 4463 4463 4645 4645 4645 4645 4708 4708 7178 7030 7030 7030 7030 6889 6889 6889 6889 6889 6889 6889 6889 6889 6889 6889 6889 6889 6889 6889 6889 6889 6889 6889 6889 6889 6889 6889 6889 6889 6889 6889 6753 6753 6753 6889 6753 6753 6753 6753 6753 6753 6753 6753 6753 6753 6753 6753 6753 6889 6753 6753 6753 6753 6753 6753 6753 6753 6753 6889 6889 6889 6889 6889 6889 6889 6753 6753 6753 6753 6753 6753 6753 6622 6622 6622 6622 6753 6753 6753 6753 6889 6889 6889 6889 6889 6889 7178 6889 6753 6753 6753 6753 6889 6889 6889 6753 6753 6889 6889 6889 6889 6889 6889 6889 6889 6889 6889 6889 7030 7030 7030 7030 7030 7178 7178 7178 7178 7030 7030 7178 7178 7332 7332 7492 7492 7492 7492 7492 0 0 0 0 0 0 0 0 0 0 0 0 0 0
0 0 0 0 0 0 0 0 0 0 0 0 0 0 0 0 0 0 0 0 0 0 0 0 0 0 0 0 0 0 6259 6259 6259 6375 6375 6375 6497 6497 6497 6622 6622 6753 6753 6753 6753 6753 6753 6889 6889 6889 7030 7030 7030 7030 7178 7178 7178 7332 0 0 0 0 0 0 0 0 0 0 0 0 0 0 0 0 0 0 0 0 0 0 0 0 0 0 0 0 0 0 0 0 0 0 0 0 0 0 0 0 0 0 0 0 0 0 0 0 0 0 6038 6038 6038 5832 5832 0 0 0 0 0 0 0 0 0 0 0 0 0 0 0 0 0 0 0 0 0 0 0 0 0 0 0 0 0 0 0 0 0 0 0 0 0 0 0 0 0 0 0 0 6146 6146 6146 6259 0 0 6375 6375 6375 6375 6259 6259 6259 6146 6146 6146 6146 6146 6146 6146 6259 6259 0 0 0 6753 6753 6753 6753 6753 6753 6889 6889 7030 7030 7030 7030 7030 7030 7030 7030 7030 7030 7030 7030 7030 7030 7030 7030 7030 7030 7030 7030 7030 7030 7030 7030 7178 7178 7030 7030 7030 7030 3399 3399 3333 3333 3300 3300 3300 3300 3300 3300 3269 3269 3269 3269 3269 3269 3269 3269 3269 3208 3208 3208 3178 3178 3178 3149 3149 3120 3120 3120 3120 3120 3120 3120 3120 3120 3120 3120 3120 3149 3149 3178 3208 3238 3269 3269 3269 3269 3269 3269 3269 0 0 0 0 0 4349 4349 4349 4349 4349 4349 4349 4349 4349 4349 4349 4405 4405 4405 4405 4405 4405 4405 4405 4405 4405 4405 4405 4405 4405 4405 4405 4405 4405 4405 4405 4405 4405 4405 4405 4405 4405 4405 4405 4405 4405 4405 4405 4405 4405 4405 4349 4349 4349 4349 4349 4349 4349 4349 4349 4405 4405 7030 7030 7030 0 0 0 0 0 1757 1757 1757 1757 1757 1757 1766 1766 1766 1766 1766 1766 1766 1766 1766 1766 1766 1766 1766 1766 1766 1766 1766 1766 1766 1766 1766 1766 1766 1766 1766 1766 1766 1766 1766 1766 1766 1766 1766 1766 1766 1766 1766 1766 1766 1766 1766 1766 1766 1766 1766 1766 1766 1766 1766 1766 1766 1766 1766 1766 1766 1766 1766 1766 1766 1766 1766 1766 1766 1766 1766 1766 1766 1766 1766 1766 1757 1757 1766 1766 1766 1766 1766 0 0 0 6889 6889 6889 7030 7030 7178 7178 7178 7178 7178 7178 7178 7178 4774 4774 4774 4774 4774 4774 4774 4774 4774 4708 4708 4708 4708 4645 4645 4645 4582 4582 4582 4582 4582 4582 4582 4582 4582 4522 4522 4522 4522 4522 4522 4522 4522 4522 4522 4522 4522 4522 4522 4463 4463 4463 4463 4405 4405 4405 4405 4405 4405 4405 4405 4645 4645 4645 4645 4708 4708 4708 7030 7030 7030 7030 7030 7030 7030 7030 7030 7030 7030 7030 7030 6889 6889 6889 6889 6889 6889 6889 6889 6889 6889 6889 7030 7030 7030 7030 6889 6889 6889 6753 6753 6753 6889 6889 6889 6753 6753 6753 6753 6753 6753 6753 6753 6889 6753 6753 6753 6753 6753 6753 6753 6753 6753 6753 6753 6753 6889 6889 6889 6889 6889 6889 6889 6753 6753 6753 6753 6753 6753 6753 6622 6622 6622 6622 6753 6753 6753 6753 6753 6753 6753 6753 6753 6753 6753 6753 6753 6753 6753 6753 6753 6889 6889 6889 6889 6889 6889 6889 6889 6889 6889 6889 6889 6889 6889 6889 7030 7030 7030 7030 7030 7178 7178 7178 7178 7030 7030 7178 7178 7332 7332 7492 7492 7492 7492 7492 0 0 0 0 0 0 0 0 0 0 0 0 0 0
0 0 0 0 0 0 0 0 0 0 0 0 0 0 0 0 0 0 0 0 0 0 0 0 0 0 0 0 0 0 6259 6259 6259 6375 6375 6375 6375 6375 6497 6622 6622 6753 6753 6753 6753 6753 6889 6889 6889 6889 7030 7030 7030 7030 7178 7178 7178 7332 0 0 0 0 0 0 0 0 0 0 0 0 0 0 0 0 0 0 0 0 0 0 0 0 0 0 0 0 0 0 0 0 0 0 0 0 0 0 0 0 0 0 0 0 0 0 0 0 0 0 0 6146 6146 5832 5832 0 0 0 0 0 0 0 0 0 0 0 0 0 0 0 0 0 0 0 0 0 0 0 0 0 0 0 0 0 0 0 0 0 0 0 0 0 0 0 6375 6375 6259 6259 6259 6146 6146 6146 6259 6259 6259 6375 6375 6375 6375 6259 6259 6146 6146 6146 6146 6146 6146 6146 6146 6259 6259 0 0 0 6889 6753 6753 6753 6753 6753 6889 6889 7030 7030 7030 7030 7030 7030 7030 7030 7030 7030 7030 7030 7030 7030 6889 6889 7030 7030 7030 7030 7030 7030 7030 7030 7178 7178 7178 7178 7178 0 3399 3399 3333 3333 3300 3300 3300 3300 3300 3300 3269 3269 3300 3269 3269 3269 3269 3269 3269 3238 3208 3208 3208 3178 3178 3149 3149 3120 3120 3120 3120 3120 3120 3120 3120 3120 3120 3120 3149 3149 3178 3178 3238 3238 3269 3269 3269 3269 3269 3300 0 0 0 0 0 0 4295 4295 4349 4349 4349 4349 4349 4349 4349 4349 4349 4405 4405 4405 4405 4405 4405 4405 4405 4405 4405 4405 4405 4405 4405 4405 4405 4405 4405 4405 4405 4405 4405 4405 4405 4405 4405 4405 4405 4405 4405 4405 4405 4405 4405 4405 4349 4349 4349 4349 4349 4349 4349 4349 4349 4405 4405 7030 7030 7030 0 0 0 0 0 1757 1757 1757 1757 1757 1757 1766 1766 1766 1766 1766 1766 1766 1766 1766 1766 1766 1766 1766 1766 1766 1766 1766 1766 1766 1766 1766 1766 1766 1766 1766 1766 1766 1766 1766 1766 1766 1766 1766 1766 1766 1766 1766 1766 1766 1766 1766 1766 1766 1766 1766 1766 1766 1766 1766 1766 1766 1766 1766 1766 1766 1766 1766 1766 1766 1766 1766 1766 1766 1766 1766 1766 1766 1766 1766 1766 1757 1757 1766 1757 1757 1757 0 0 0 0 0 6889 6889 7030 7030 7178 7178 7178 7178 7178 7178 7178 4774 4774 4774 4774 4774 4774 4774 4774 4774 4774 4774 4708 4708 4708 4645 4645 4645 4582 4582 4582 4582 4582 4582 4582 4582 4582 4522 4522 4522 4522 4522 4522 4522 4522 4522 4522 4522 4522 4522 4522 4463 4463 4405 4405 4405 4405 4405 4405 4405 4405 4405 4405 4405 4582 4582 4645 4708 4708 4708 4774 7030 7030 7030 7030 7030 7030 7030 7030 7030 7030 7030 7030 7030 7030 7030 6889 6889 6889 6753 6753 6753 6753 6889 6889 7030 7030 7030 6889 6889 6889 6889 6889 6889 6889 6889 6889 6753 6753 6753 6753 6753 6753 6753 6753 6889 6753 6753 6753 6753 6753 6753 6753 6753 6753 6753 6753 6889 6889 6889 6889 6889 6889 6889 6889 6753 6753 6753 6753 6753 6753 6753 6622 6622 6622 6622 6753 6753 6753 6753 6753 6753 6753 6753 6753 6753 6753 6622 6622 6753 6753 6753 6753 6889 6889 6889 6889 6889 6889 6889 6889 6753 6753 6889 6889 6889 7030 7030 7030 7030 7030 7030 7030 7178 7178 7178 7178 7178 7178 7332 7332 7332 7492 7492 7492 7492 7492 7492 0 0 0 0 0 0 0 0 0 0 0 0 0 0
0 0 0 0 0 0 0 0 0 0 0 0 0 0 0 0 0 0 0 0 0 0 0 0 0 0 0 0 0 0 6259 6259 6259 6259 6375 6375 6375 6375 6497 6622 6753 6753 6753 6753 6753 6753 6889 6889 6889 6889 7030 7030 7030 7030 7178 7178 7178 7332 7492 0 0 0 0 0 0 0 0 0 0 0 0 0 0 0 0 0 0 0 0 0 0 0 0 0 0 0 0 0 0 0 0 0 0 0 0 0 0 0 0 0 0 0 0 0 0 0 0 0 0 0 0 0 0 0 0 0 0 0 0 0 0 0 0 0 0 0 0 0 0 0 0 0 0 0 0 0 0 0 0 0 0 0 0 0 0 0 0 0 0 0 6497 6497 6375 6375 6259 6259 6259 6146 6146 6146 6259 6259 6259 6375 6375 6375 6375 6259 6259 6146 6146 6038 6038 6146 6146 6146 6146 6259 6375 6375 0 6889 6889 6889 6889 6753 6753 6889 6889 6889 7030 7030 7030 7030 7030 7030 7030 7030 7030 7030 7030 7030 7030 6889 6889 6889 6889 7030 7030 7030 7030 7030 7030 7030 7178 7178 7178 7178 7178 7178 3399 3399 3399 3365 3300 3300 3300 3300 3300 3300 3269 3269 3269 3269 3269 3269 3269 3269 3269 3238 3238 3238 3208 3208 3178 3149 3149 3120 3120 3120 3120 3120 3120 3120 3120 3120 3120 3120 3149 3149 3178 3208 3238 3269 3269 3269 3300 3300 3333 3300 3300 3333 3365 3365 3365 3365 4295 4295 4349 4349 4349 4349 4349 4349 4405 4405 4405 4405 4405 4405 4405 4405 4405 4405 4405 4405 4405 4405 4405 4405 4405 4405 4405 4405 4405 4405 4405 4405 4405 4405 4405 4405 4405 4405 4405 4405 4405 4405 4405 4405 4405 4405 4349 4349 4405 4349 4349 4349 4349 4349 4349 4405 4405 7030 7030 7030 0 0 0 0 0 1766 1766 1757 1757 1766 1766 1766 1766 1766 1766 1766 1766 1766 1766 1766 1766 1766 1766 1766 1766 1766 1766 1766 1766 1766 1766 1766 1766 1766 1766 1766 1766 1766 1766 1766 1766 1766 1766 1766 1766 1766 1766 1766 1766 1766 1766 1766 1766 1766 1766 1766 1766 1766 1766 1766 1766 1766 1766 1766 1766 1766 1766 1766 1766 1766 1766 1766 1766 1766 1766 1766 1766 1766 1776 1776 1766 1757 1757 1766 1757 1757 1757 0 0 0 0 0 6889 6889 7178 7178 7178 7178 7178 7178 7178 7178 7178 4774 4774 4774 4842 4774 4774 4774 4774 4774 4774 4774 4708 4708 4645 4645 4582 4582 4582 4582 4582 4582 4582 4582 4582 4582 4582 4522 4522 4522 4522 4522 4522 4522 4522 4522 4522 4522 4522 4522 4463 4463 4463 4405 4405 4405 4405 4405 4405 4405 4405 4405 4405 4405 4582 4582 4645 4708 4708 4708 4774 4774 7030 7030 7030 7030 7030 7030 7030 7030 7030 7030 7030 7030 7030 7030 6889 6889 6889 6753 6753 6753 6753 6889 6889 6889 7030 7030 7030 6889 6889 6889 6889 6889 6889 6889 6889 6753 6753 6753 6753 6753 6753 6753 6753 6889 6753 6753 6753 6753 6753 6753 6753 6753 6753 6753 6753 6889 6889 6889 6889 6889 6889 6889 6889 6889 6889 6889 6753 6753 6753 6753 6622 6622 6622 6622 6753 6753 6753 6753 6753 6753 6753 6753 6753 6889 6889 6622 6622 6753 6753 6753 6753 6889 6889 6889 6889 6889 6889 6889 6889 6753 6753 6889 6889 6889 7030 7030 7030 7030 7030 7030 7030 7178 7178 7178 7178 7178 7178 7332 7332 7332 7492 7492 7492 7492 7492 7492 0 0 0 0 0 0 0 0 0 0 0 0 0 0
0 0 0 0 0 0 0 0 0 0 0 0 0 0 0 0 0 0 0 0 0 0 0 0 0 0 0 0 0 0 6259 6259 6259 6259 6375 6375 6497 6497 6497 6622 6753 6753 6753 6753 6753 6889 6889 6889 6889 6889 7030 7030 7030 7178 7178 7178 7332 7332 7332 7660 0 0 0 0 0 0 0 0 0 0 0 0 0 0 0 0 0 0 0 0 0 0 0 0 0 0 0 0 0 0 0 0 0 0 0 0 0 0 0 0 0 0 0 0 0 0 0 0 0 0 0 0 0 0 0 0 0 0 0 0 0 0 0 0 0 0 0 0 0 0 0 0 0 0 0 0 0 0 0 0 0 0 0 0 0 0 0 0 0 0 6497 6497 6375 6375 6259 6259 6259 6146 6146 6146 6146 6146 6146 6375 6375 6375 6375 6259 6259 6146 6146 6038 6038 6146 6146 6146 6146 6375 6375 6375 0 7030 7030 6889 6889 6889 6889 6889 6889 6889 7030 7030 7030 7030 7030 7030 7030 7030 7030 7030 7030 7030 7030 6889 6889 6889 6889 7030 7030 7030 7030 7030 7030 7178 7178 7178 7178 7178 7178 7178 0 3365 3433 3433 3300 3300 3300 3300 3300 3300 3269 3269 3269 3269 3269 3269 3269 3238 3238 3238 3238 3238 3208 3208 3178 3149 3149 3120 3120 3120 3120 3120 3120 3120 3120 3120 3120 3120 3149 3149 3178 3208 3238 3269 3300 3300 3300 3333 3333 3300 3300 3333 3365 3365 3365 3365 4295 4295 4349 4349 4349 4349 4349 4349 4405 4405 4405 4405 4405 4405 4405 4405 4405 4405 4405 4405 4405 4405 4405 4405 4405 4405 4405 4405 4405 4405 4405 4405 4405 4405 4405 4405 4405 4405 4405 4405 4405 4405 4405 4405 4405 4405 4405 4405 4405 4349 4349 4349 4349 4405 4405 4405 4405 7030 7030 7030 0 0 0 0 0 1766 1766 1766 1766 1766 1766 1766 1766 1766 1766 1766 1766 1766 1766 1766 1766 1766 1766 1776 1766 1766 1766 1776 1776 1776 1776 1776 1766 1766 1766 1766 1766 1766 1766 1766 1766 1766 1766 1766 1766 1766 1766 1766 1766 1766 1766 1766 1766 1766 1766 1766 1766 1766 1766 1766 1766 1766 1766 1766 1766 1766 1766 1766 1766 1766 1766 1766 1766 1766 1766 1766 1766 1766 1776 1776 1766 1757 1757 1766 1757 1757 1757 0 0 0 0 0 0 7178 7178 7178 7178 7178 7178 7178 7178 7178 4774 4774 4774 4774 4774 4774 4774 4774 4774 4774 4774 4708 4708 4708 4645 4645 4582 4582 4582 4582 4582 4582 4582 4522 4522 4522 4522 4522 4522 4522 4522 4522 4522 4522 4522 4522 4463 4463 4522 4522 4463 4405 4405 4405 4405 4405 4405 4405 4405 4405 4405 4405 4405 4405 4463 4522 4645 4708 4708 4708 4774 4774 6889 6753 6753 6889 7030 7030 7030 7030 7030 7030 7030 7030 7030 7030 6889 6889 6889 6889 6889 6753 6753 6889 6889 6889 7030 7030 7030 6889 6889 6889 6889 6889 6889 6889 6889 6753 6753 6753 6753 6753 6753 6753 6753 6889 6753 6753 6753 6753 6753 6622 6622 6622 6622 6753 6753 6889 6889 6889 6889 6889 6889 6889 6889 6753 6753 6753 6753 6753 6753 6753 6622 6622 6753 6753 6753 6753 6753 6753 6753 6753 6753 6753 6753 6753 6753 6889 6753 6753 6753 6753 6753 6889 6889 6889 6889 6889 6889 6889 6889 6889 7030 6889 6889 6889 7030 7030 7030 7030 7030 7030 7030 7030 7178 7178 7178 7178 7178 7332 7332 7332 7492 7492 7492 7492 7492 7492 0 0 0 0 0 0 0 0 0 0 0 0 0 0
0 0 0 0 0 0 0 0 0 0 0 0 0 0 0 0 0 0 0 0 0 0 0 0 0 0 0 0 0 0 6259 6259 6259 6375 6497 6497 6622 6622 6622 6753 6753 6753 6753 6753 6753 6889 6889 6889 6889 6889 7030 7030 7030 7178 7178 7178 7332 7332 7332 7492 0 0 0 0 0 0 0 0 0 0 0 0 0 0 0 0 0 0 0 0 0 0 0 0 0 0 0 0 0 0 0 0 0 0 0 0 0 0 0 0 0 0 0 0 0 0 0 0 0 0 0 0 0 0 0 0 0 0 0 0 0 0 0 0 0 0 0 0 0 0 0 0 0 0 0 0 0 0 0 0 0 0 0 0 0 0 0 0 0 0 0 0 6375 6259 6259 6259 6259 6146 6146 6146 6146 6146 6146 6375 6375 6375 6146 6259 6259 6259 6259 6038 6038 6146 6146 6146 6259 6375 6497 6497 0 7030 7030 6889 6889 6753 6753 6889 6889 6889 7030 7030 7030 7030 7030 7030 7030 7178 7178 7030 7030 7030 7030 6889 6889 6889 7030 7030 7030 7030 7030 7030 7030 7178 7178 7178 7178 7178 7178 7178 0 3365 3365 3365 3333 3333 3333 3300 3300 3300 3269 3269 3269 3269 3269 3269 3269 3238 3238 3208 3208 3208 3208 3208 3178 3178 3149 3149 3120 3120 3120 3120 3120 3120 3120 3120 3120 3149 3149 3149 3178 3208 3238 3269 3269 3269 3269 3269 3269 3269 3269 3300 3333 3333 3333 3333 3365 4295 4349 4349 4349 4349 4349 4349 4405 4349 4349 4349 4405 4405 4405 4405 4405 4405 4405 4405 4405 4405 4405 4405 4405 4405 4405 4405 4405 4405 4405 4405 4405 4405 4405 4405 4405 4405 4405 4405 4405 4405 4405 4405 4405 4405 4405 4405 4405 4349 4349 4349 4349 4405 4405 4405 4405 7030 7030 7178 0 0 0 0 0 1776 1766 1766 1766 1766 1766 1766 1766 1766 1766 1766 1766 1766 1766 1766 1766 1766 1766 1776 1766 1766 1766 1776 1776 1776 1776 1776 1776 1776 1776 1766 1766 1766 1766 1766 1766 1766 1766 1766 1766 1766 1766 1766 1766 1766 1766 1766 1766 1766 1766 1766 1766 1766 1766 1766 1766 1766 1766 1766 1766 1766 1766 1766 1766 1766 1766 1766 1766 1776 1766 1766 1776 1776 1776 1776 1766 1766 1766 1766 1757 1757 1757 0 0 0 0 0 0 7030 7030 7030 7178 7178 7178 7178 7178 4774 4774 4774 4774 4774 4774 4774 4774 4774 4774 4774 4774 4708 4708 4708 4645 4645 4582 4582 4582 4582 4582 4582 4582 4522 4522 4522 4522 4522 4522 4522 4522 4522 4522 4522 4522 4463 4463 4463 4463 4463 4463 4405 4349 4349 4349 4405 4405 4405 4405 4405 4463 4463 4463 4463 4463 4522 4645 4708 4708 4774 4774 4774 4774 6753 6753 6889 6889 6889 7030 7030 7030 7030 7030 7030 7030 7030 7030 6889 6889 6889 6889 6889 6889 7030 7030 7030 7030 7030 7030 6889 6889 6889 6889 6889 6889 6889 6889 6753 6753 6753 6753 6753 6753 6753 6753 6889 6753 6753 6753 6753 6753 6622 6622 6622 6622 6622 6622 6889 6889 6889 6889 6889 6889 6889 6889 6753 6753 6753 6622 6622 6622 6622 6622 6622 6622 6622 6753 6753 6753 6753 6753 6753 6753 6753 6753 6753 6753 6753 6753 6753 6753 6753 6753 6889 6889 6889 6889 6889 6889 6889 7030 7030 7030 7030 6889 6889 7030 7030 7030 7030 7030 7030 7030 7030 7178 7178 7178 7178 7178 7332 7332 7492 7492 7492 7492 7492 7492 7492 0 0 0 0 0 0 0 0 0 0 0 0 0 0
0 0 0 0 0 0 0 0 0 0 0 0 0 0 0 0 0 0 0 0 0 0 0 0 0 0 0 0 0 0 6146 6146 6259 6375 6497 6497 6622 6622 6622 6753 6753 6753 6753 6753 6889 6889 6889 6889 6889 6889 7030 7030 7030 7178 7178 7332 7332 7332 7332 7492 0 0 0 0 0 0 0 0 0 0 0 0 0 0 0 0 0 0 0 0 0 0 0 0 0 0 0 0 0 0 0 0 0 0 0 0 0 0 0 0 0 0 0 0 0 0 0 0 0 0 0 0 0 0 0 0 0 0 0 0 0 0 0 0 0 0 0 0 0 0 0 0 0 0 0 0 0 0 0 0 0 0 0 0 0 0 0 0 0 0 0 0 6375 6259 6259 6259 6146 6146 6146 6146 6146 6146 6146 6259 6259 6146 6146 6146 6146 6146 6038 6038 6038 6146 6146 6146 6259 6375 6497 6497 6622 7030 7030 6889 6889 6753 6753 6889 6889 6889 7030 7030 7030 7030 7030 7030 7030 7178 7178 7030 7030 7030 7030 7030 7030 7030 7030 7030 7030 7030 7030 7030 7178 7178 7178 7178 7178 7178 7178 7178 0 3333 3333 3333 3333 3333 3333 3300 3300 3300 3300 3300 3269 3269 3269 3269 3269 3269 3269 3208 3208 3208 3208 3208 3178 3178 3149 3149 3120 3120 3120 3120 3120 3120 3120 3120 3120 3149 3149 3149 3178 3208 3238 3238 3238 0 0 0 3269 3269 3269 3300 3333 3333 3333 3333 3365 4295 4349 4349 4349 4349 4349 4349 4405 4349 4349 4349 4405 4405 4405 4405 4405 4405 4405 4405 4405 4405 4405 4405 4405 4405 4405 4405 4405 4405 4405 4405 4405 4405 4405 4405 4463 4405 4405 4405 4405 4405 4405 4405 4405 4405 4405 4405 4405 4349 4349 4349 4405 4405 4405 4405 4463 7030 7030 7178 0 0 0 0 0 1776 1766 1766 1766 1766 1766 1766 1766 1766 1766 1766 1766 1766 1766 1766 1766 1776 1776 1776 1776 1766 1766 1776 1776 1776 1776 1776 1776 1776 1776 1766 1766 1766 1766 1766 1766 1766 1766 1766 1766 1766 1766 1766 1766 1766 1766 1766 1766 1766 1766 1766 1766 1766 1766 1766 1766 1766 1766 1766 1766 1766 1766 1766 1766 1766 1776 1766 1766 1776 1766 1766 1776 1776 1776 1776 1766 1766 1766 1766 1757 1757 1757 0 0 0 0 0 0 7030 7030 7030 7178 7178 7178 7178 4842 4774 4774 4774 4774 4774 4774 4774 4774 4774 4774 4774 4774 4708 4708 4708 4645 4645 4582 4582 4582 4582 4582 4582 4582 4522 4522 4522 4522 4522 4522 4522 4522 4522 4522 4522 4522 4463 4463 4463 4405 4405 4405 4405 4349 4349 4349 4349 4405 4405 4405 4405 4463 4463 4463 4463 4522 4522 4645 4708 4708 4774 4774 4708 4708 6753 6753 6889 6889 6889 7030 7030 7030 7030 7030 7030 7030 7030 7030 6889 6889 6889 6889 6889 6889 7030 7030 7030 7030 7030 7030 7030 7030 6889 6889 6889 6889 6753 6753 6753 6622 6622 6753 6753 6753 6753 6753 6889 6753 6753 6753 6622 6622 6622 6622 6622 6622 6622 6622 6753 6889 6889 6889 6889 6889 6889 6753 6622 6622 6622 6622 6622 6622 6622 6622 6622 6622 6622 6622 6753 6753 6753 6889 6889 6889 6889 6753 6753 6753 6622 6622 6753 6753 6753 6753 6889 6889 6889 6889 6889 6889 6889 7030 7030 7030 6889 6889 6889 7030 6889 6889 6889 7030 7030 7030 7030 7030 7178 7178 7178 7178 7332 7492 7492 7492 7492 7492 7492 7492 7492 0 0 0 0 0 0 0 0 0 0 0 0 0 0
0 0 0 0 0 0 0 0 0 0 0 0 0 0 0 0 0 0 0 0 0 0 0 0 0 0 0 0 0 0 6146 6146 6259 6497 6497 6622 6622 6622 6753 6753 6753 6753 6753 6753 6889 6889 6889 6889 6889 6889 6889 6889 6889 7030 7178 7178 7178 7332 7332 7835 0 0 0 0 0 0 0 0 0 0 0 0 0 0 0 0 0 0 0 0 0 0 0 0 0 0 0 0 0 0 0 0 0 0 0 0 0 0 0 0 0 0 0 0 0 0 0 0 0 0 0 0 0 0 0 0 0 0 0 0 0 0 0 0 0 0 0 0 0 0 0 0 0 0 0 0 0 0 0 0 0 0 0 0 0 0 0 0 0 0 0 0 0 6259 6259 6259 6146 6146 6146 6146 6146 6146 6146 6146 6146 6146 6146 6146 6146 6146 6038 6038 6146 6146 6146 6146 6259 6375 6497 6497 6622 6622 7030 6889 6889 6753 6753 6889 6889 6889 7030 7030 7030 7030 7030 7030 7178 7178 7178 7030 7030 7030 7030 7030 7030 7030 7030 7030 7030 7030 7030 7030 7030 7030 7030 7030 7178 7178 7178 7178 0 3333 3333 3333 3333 3300 3300 3269 3269 3269 3269 3269 3269 3269 3269 3269 3269 3269 3269 3238 3178 3178 3208 3208 3178 3178 3149 3149 3149 3120 3120 3120 3120 3120 3120 3120 3149 3149 3149 3149 3178 3208 3238 3238 3238 3238 3238 3238 3399 3399 3365 3365 3365 3365 3333 3333 4241 4241 4349 4349 4349 4349 4349 4349 4405 4349 4349 4349 4349 4405 4405 4405 4405 4349 4349 4405 4349 4349 4405 4405 4349 4349 4405 4405 4405 4405 4405 4405 4405 4405 4405 4405 4405 4405 4405 4405 4405 4405 4405 4405 4405 4405 4405 4405 4405 4349 4349 4405 4405 4405 4405 4405 4463 7030 7030 7178 0 0 0 0 0 1776 1776 1776 1766 1766 1766 1766 1766 1766 1766 1766 1766 1766 1766 1766 1766 1776 1776 1776 1776 1766 1766 1776 1776 1776 1776 1776 1776 1776 1776 1766 1766 1766 1766 1766 1766 1766 1766 1766 1766 1766 1766 1766 1766 1766 1766 1766 1766 1766 1766 1766 1766 1766 1766 1766 1766 1766 1766 1766 1776 1776 1776 1776 1776 1776 1776 1776 1776 1776 1766 1766 1776 1776 1776 1776 1766 1766 1766 1766 1757 1757 0 0 0 0 0 0 0 0 7178 7178 7178 7178 4842 4842 4842 4842 4842 4774 4774 4774 4774 4774 4774 4774 4774 4774 4708 4708 4708 4708 4645 4645 4582 4582 4582 4582 4582 4582 4582 4522 4522 4522 4522 4522 4522 4522 4522 4522 4522 4522 4463 4463 4463 4463 4405 4405 4349 4349 4349 4349 4349 4349 4405 4405 4405 4405 4405 4463 4463 4463 4522 4522 4645 4645 4708 4774 4774 4708 4708 4708 6753 6753 6889 6889 7030 7030 7030 7030 7030 7030 7030 7030 7030 6889 6889 6889 6889 6889 6889 7030 7030 7030 7030 7030 7030 7030 7030 6889 6889 6889 6889 6753 6753 6753 6622 6622 6753 6753 6753 6753 6753 6889 6753 6753 6753 6622 6622 6622 6622 6622 6622 6622 6622 6753 6753 6889 6889 6753 6753 6753 6753 6622 6622 6622 6622 6622 6622 6622 6497 6497 6622 6622 6622 6753 6753 6753 6753 6753 6753 6753 6753 6753 6753 6622 6622 6622 6753 6753 6753 6889 6889 6889 7030 6889 6889 6889 7030 7030 7030 6889 6889 6889 7030 6889 6889 6889 7030 7030 7030 7030 7030 7178 7178 7178 7178 7332 7492 7492 7492 7492 7492 7492 7492 7492 0 0 0 0 0 0 0 0 0 0 0 0 0 0
0 0 0 0 0 0 0 0 0 0 0 0 0 0 0 0 0 0 0 0 0 0 0 0 0 0 0 0 0 0 6375 6375 6375 6497 6622 6622 6622 6622 6622 6753 6753 6753 6753 6753 6889 6889 6889 6889 6889 6889 6889 6889 6889 7030 7178 7178 7178 7178 7178 7835 0 0 0 0 0 0 0 0 0 0 0 0 0 0 0 0 0 0 0 0 0 0 0 0 0 0 0 0 0 0 0 0 0 0 0 0 0 0 0 0 0 0 0 0 0 0 0 0 0 0 0 0 0 0 0 0 0 0 0 0 0 0 0 0 0 0 0 0 0 0 0 0 0 0 0 0 0 0 0 0 0 0 0 0 0 0 0 0 0 0 0 0 0 6259 6259 6146 6146 6038 6038 6038 6038 6038 6146 6146 6146 6146 6146 6146 6146 6146 6038 6038 6146 6259 6259 6259 6375 6375 6497 6497 6622 6622 6622 6622 6889 6753 6753 6753 6889 6889 7030 7030 7030 7030 7030 7030 7030 7030 7030 7030 7030 7030 7030 7030 7030 7030 7030 7030 7030 7030 7030 7030 7030 7030 7030 7030 7178 7178 7178 7178 3269 3300 3300 3300 3300 3300 3269 3238 3238 3238 3238 3238 3238 3238 3269 3269 3238 3238 3238 3208 3178 3178 3178 3208 3178 3178 3149 3149 3149 3120 3120 3120 3120 3120 3120 3120 3149 3149 3149 3149 3178 3178 3208 3238 3238 3238 3238 3238 3238 3238 3238 3238 3238 3208 3208 3208 3238 3238 3238 4349 4349 4349 4349 4349 4405 4349 4349 4349 4349 4349 4349 4349 4405 4349 4349 4349 4349 4349 4349 4349 4349 4349 4405 4405 4405 4405 4405 4405 4405 4405 4405 4405 4405 4405 4405 4405 4405 4405 4405 4405 4405 4405 4405 4405 4405 4349 4349 4405 4405 4405 4405 4463 4463 7178 7178 7178 0 0 0 0 0 1776 1776 1776 1766 1766 1766 1766 1766 1766 1766 1766 1766 1766 1766 1766 1776 1776 1776 1776 1776 1766 1766 1776 1776 1776 1776 1776 1776 1776 1776 1776 1766 1766 1766 1766 1766 1766 1766 1766 1766 1766 1766 1766 1766 1766 1766 1766 1766 1766 1766 1766 1766 1766 1766 1766 1766 1776 1776 1776 1776 1776 1776 1776 1776 1776 1776 1776 1776 1776 1766 1766 1776 1776 1776 1776 1766 1766 1766 1766 1757 1757 0 0 0 0 0 0 0 0 7178 7178 7178 7178 4842 4842 4842 4842 4842 4774 4774 4774 4842 4842 4842 4774 4774 4774 4708 4708 4708 4708 4645 4645 4582 4582 4582 4582 4582 4582 4582 4582 4522 4522 4522 4522 4522 4522 4522 4522 4463 4463 4463 4463 4463 4405 4405 4405 4349 4349 4349 4349 4349 4349 4349 4405 4405 4405 4405 4463 4463 4463 4522 4582 4645 4645 4708 4774 4645 4645 4708 4708 6753 6753 6889 6889 7030 7030 7030 7030 7030 7030 7030 7030 7030 6889 6889 6889 6889 6889 6889 7030 7030 7030 7030 7030 7030 7030 7030 6889 6889 6889 6889 6889 6753 6753 6622 6622 6622 6753 6753 6753 6753 6753 6753 6753 6753 6622 6622 6622 6622 6622 6622 6622 6622 6753 6753 6753 6753 6622 6622 6622 6622 6497 6497 6622 6622 6622 6622 6622 6497 6497 6622 6622 6622 6753 6753 6753 6622 6622 6753 6753 6622 6622 6753 6622 6622 6622 6753 6753 6753 6889 6889 6889 6889 6889 6889 6889 6889 6889 7030 6889 6889 6889 7030 6889 6889 6889 6889 7030 7030 7030 7030 7178 7178 7178 7178 7332 7492 7492 7492 7492 7492 7492 7492 7492 0 0 0 0 0 0 0 0 0 0 0 0 0 0
0 0 0 0 0 0 0 0 0 0 0 0 0 0 0 0 0 0 0 0 0 0 0 0 0 0 0 0 0 0 6375 6375 6375 6497 6497 6622 6622 6622 6622 6753 6753 6753 6753 6889 6889 6889 6889 6889 6889 6889 6889 6889 6889 7030 7030 7178 7178 7178 7178 0 0 0 0 0 0 0 0 0 0 0 0 0 0 0 0 0 0 0 0 0 0 0 0 0 0 0 0 0 0 0 0 0 0 0 0 0 0 0 0 0 0 0 0 0 0 0 0 0 0 0 0 0 0 0 0 0 0 0 0 0 0 0 0 0 0 0 0 0 0 0 0 0 0 0 0 0 0 0 0 0 0 0 0 0 0 0 0 0 0 0 0 0 6375 6259 6259 6146 6146 6038 6038 6038 6038 6038 6038 6038 6146 6146 6146 6146 6146 6146 6038 6038 6146 6259 6259 6375 6375 6375 6497 6497 6497 6497 6497 6622 6753 6753 6753 6753 6889 6889 6889 7030 7030 7030 7030 7030 7030 7030 7030 7030 7030 7030 7030 7030 7030 7030 7030 7030 7030 7178 7030 7030 7030 7030 7030 7030 7178 7178 7178 7178 3269 3269 3269 3269 3269 3269 3208 3208 3208 3208 3208 3208 3208 3208 3238 3238 3208 3208 3178 3149 3149 3149 3178 3208 3208 3178 3178 3149 3149 3120 3120 3120 3120 3120 3149 3149 3149 3149 3149 3149 3149 3149 3178 3178 3178 3178 3208 3178 3178 3178 3178 3178 3178 3178 3178 3178 3178 3178 3178 4349 4349 4349 4349 4349 4405 4349 4349 4349 4405 4349 4349 4349 4349 4349 4349 4349 4349 4349 4349 4349 4349 4349 4405 4405 4405 4405 4405 4405 4405 4405 4405 4405 4405 4405 4405 4405 4405 4405 4405 4405 4405 4405 4405 4405 4405 4405 4405 4405 4405 4405 4405 4463 4463 7178 7178 7178 7178 0 0 0 0 1776 1776 1776 1766 1766 1766 1766 1766 1766 1766 1766 1766 1766 1766 1766 1776 1776 1776 1776 1776 1776 1776 1776 1776 1776 1776 1776 1776 1776 1776 1776 1776 1776 1766 1766 1766 1766 1766 1766 1766 1766 1766 1766 1766 1766 1766 1766 1766 1766 1766 1766 1766 1766 1776 1766 1766 1776 1776 1776 1776 1776 1776 1776 1776 1776 1776 1776 1776 1776 1776 1776 1776 1776 1776 1776 1776 1766 1766 1766 1766 1785 0 0 0 0 0 0 0 0 0 0 4911 4911 4842 4842 4842 4842 4842 4774 4774 4774 4842 4774 4774 4774 4774 4774 4708 4708 4708 4708 4645 4645 4582 4582 4582 4582 4582 4582 4582 4582 4582 4522 4522 4522 4522 4522 4463 4463 4463 4463 4463 4463 4405 4405 4405 4405 4349 4349 4349 4349 4349 4349 4349 4405 4405 4405 4463 4522 4522 4522 4522 4582 4645 4708 4708 4774 4645 4645 4708 4708 4708 6753 6889 6889 7030 7030 7030 7030 7030 7030 6889 6889 6889 6889 6889 6889 6889 6889 6889 6889 7030 7030 7030 7030 7030 7030 7030 6889 6889 6889 6889 6889 6753 6753 6622 6622 6622 6753 6753 6753 6753 6753 6753 6753 6753 6622 6622 6622 6622 6622 6622 6497 6497 6497 6497 6622 6622 6497 6497 6622 6622 6497 6497 6497 6497 6497 6497 6497 6497 6497 6622 6622 6622 6753 6753 6753 6622 6622 6622 6622 6622 6622 6622 6622 6622 6753 6753 6753 6753 6889 6889 6889 6889 6889 6889 6889 6889 6889 6889 6889 6889 6889 7030 6889 6889 6889 6889 7030 7030 7030 7030 7178 7178 7178 7178 7332 7332 7492 7332 7332 7492 7492 7492 7492 0 0 0 0 0 0 0 0 0 0 0 0 0 0
0 0 0 0 0 0 0 0 0 0 0 0 0 0 0 0 0 0 0 0 0 0 0 0 0 0 0 0 0 6497 6375 6375 6375 6497 6497 6622 6622 6622 6622 6753 6753 6753 6753 6889 6889 6889 6889 6889 6889 6889 6889 6889 6889 7030 7030 7030 7030 7030 7030 6889 6889 0 0 0 0 0 0 0 0 0 0 0 0 0 0 0 0 0 0 0 0 0 0 0 0 0 0 0 0 0 0 0 0 0 0 0 0 0 0 0 0 0 0 0 0 0 0 0 0 0 0 0 0 0 0 0 0 0 0 0 0 0 0 0 0 0 0 0 0 0 0 0 0 0 0 0 0 0 0 0 0 0 0 0 0 0 0 0 0 6259 6259 6259 6259 6259 6146 6146 6146 6038 6038 6038 6038 6038 6038 6038 6146 6146 6146 6146 6146 6146 6146 6146 6146 6259 6259 6375 6375 6375 6497 6497 6497 6497 6497 6497 6622 6753 6753 6753 6889 6889 6889 6889 7030 7030 7030 7030 7030 7030 7030 7030 7030 7030 7030 7030 7030 7030 7030 7030 7030 7030 7030 3092 3092 3149 3149 3149 3149 3178 3178 3178 3208 3208 3208 3208 3208 3208 3208 3208 3208 3208 3208 3208 3208 3208 3208 3208 3178 3178 3178 3149 3149 3149 3178 3208 3178 3178 3178 3149 3149 3120 3120 3120 3120 3120 3149 3149 3149 3149 3149 3149 3149 3149 3149 3149 3178 3178 3178 3149 3149 3149 3178 3149 3149 3149 3149 3149 3149 3149 3149 3149 3149 3149 4349 4349 4405 4349 4349 4349 4405 4349 4349 4349 4349 4349 4349 4349 4349 4349 4349 4349 4349 4349 4405 4405 4405 4405 4405 4405 4405 4405 4405 4405 4405 4405 4405 4405 4405 4405 4405 4405 4405 4405 4405 4405 4405 4405 4405 4405 4405 4463 4463 4463 4522 7178 7178 7178 7178 0 0 0 0 0 1766 1766 1766 1766 1766 1766 1766 1766 1766 1766 1766 1776 1776 1776 1776 1776 1776 1776 1776 1776 1776 1776 1776 1776 1776 1776 1776 1776 1776 1776 1776 1776 1776 1776 1776 1766 1766 1776 1776 1776 1776 1776 1776 1776 1776 1766 1766 1776 1776 1776 1776 1776 1776 1776 1776 1776 1776 1776 1776 1776 1776 1776 1776 1776 1776 1776 1776 1776 1776 1776 1776 1776 1776 1785 1776 1776 1776 1776 1785 1785 1785 0 0 0 0 0 0 0 0 0 4911 4911 4842 4842 4842 4842 4842 4842 4774 4774 4774 4774 4774 4774 4774 4774 4708 4708 4708 4645 4582 4582 4582 4582 4582 4582 4582 4582 4582 4582 4582 4522 4522 4522 4522 4522 4463 4463 4463 4463 4463 4463 4405 4405 4349 4349 4349 4349 4349 4349 4349 4349 4349 4405 4405 4405 4463 4522 4522 4522 4582 4582 4645 4645 4645 4774 4645 4645 4708 4708 4708 6753 6889 6889 6889 7030 7030 7030 6889 6889 6889 6889 6889 6889 6889 6889 6889 6889 6889 6889 7030 7030 7030 7030 7030 7030 7030 6889 6889 6889 6889 6889 6889 6889 6753 6753 6753 6753 6753 6753 6753 6753 6622 6622 6622 6622 6622 6622 6622 6622 6622 6497 6497 6497 6497 6497 6497 6497 6375 6375 6497 6375 6375 6375 6497 6497 6497 6497 6497 6497 6497 6497 6497 6622 6622 6622 6622 6622 6622 6622 6622 6622 6622 6622 6622 6622 6622 6622 6753 6753 6753 6753 6753 6889 6889 6753 6753 6889 6889 6889 6889 6889 7030 6889 6889 6889 6889 7030 7030 7030 7030 7178 7178 7178 7178 7178 7178 7332 7332 7332 7332 7492 7492 7492 0 0 0 0 0 0 0 0 0 0 0 0 0 0
0 0 0 0 0 0 0 0 0 0 0 0 0 0 0 0 0 0 0 0 0 0 0 0 0 0 0 0 0 6497 6497 6375 6375 6497 6497 6497 6622 6622 6622 6622 6753 6753 6753 6753 6889 6889 6889 6889 6889 6889 6889 6889 6889 7030 7030 7030 7030 7030 7030 6889 6889 0 0 0 0 0 0 0 0 0 0 0 0 0 0 0 0 0 0 0 0 0 0 0 0 0 0 0 0 0 0 0 0 0 0 0 0 0 0 0 0 0 0 0 0 0 0 0 0 0 0 0 0 0 0 0 0 0 0 0 0 0 0 0 0 0 0 0 0 0 0 0 0 0 0 0 0 0 0 0 0 0 0 0 0 0 0 0 6375 6259 6259 6259 6259 6259 6146 6146 6146 6038 6038 6038 6038 6038 6146 6146 6146 6146 6146 6146 6146 6146 6146 6146 6259 6259 6259 6375 6375 6375 6497 6497 6497 6497 6497 6497 6622 6753 6753 6753 6753 6889 6889 6889 7030 7030 7030 7030 7030 7030 7030 7030 7030 7030 7030 7178 7030 7030 7030 7178 7178 7030 3149 3092 3092 3149 3149 3149 3149 3178 3178 3178 3178 3178 3208 3208 3208 3208 3178 3178 3178 3178 3178 3208 3178 3178 3178 3178 3178 3178 3178 3149 3149 3149 3178 3178 3178 3178 3178 3149 3149 3120 3120 3120 3120 3120 3149 3149 3149 3149 3149 3149 3149 3149 3149 3149 3149 3149 3149 3149 3149 3149 3149 3149 3149 3149 3149 3149 3149 3120 3120 3120 3120 3120 3120 3120 3149 3149 3149 3149 3149 3149 3149 3149 4349 4295 4295 4349 4295 4295 4349 4349 4349 4349 4349 4349 4405 4405 4405 4405 4405 4405 4405 4405 4405 4405 4405 4405 4349 4349 4405 4405 4405 4405 4405 4463 4463 4405 4405 4405 4405 4463 4522 4522 7178 7178 7178 7178 7178 0 0 0 0 0 1766 1766 1766 1766 1766 1766 1776 1766 1766 1776 1776 1776 1776 1776 1776 1776 1776 1776 1776 1776 1776 1776 1776 1776 1776 1776 1776 1776 1776 1776 1776 1776 1776 1776 1776 1776 1776 1776 1776 1776 1776 1776 1776 1776 1776 1776 1776 1776 1776 1776 1776 1785 1776 1776 1776 1776 1776 1776 1776 1776 1776 1776 1776 1776 1776 1776 1776 1776 1776 1776 1776 1776 1776 1785 1776 1776 1776 1776 1785 1785 1785 0 0 0 0 0 0 0 0 5056 4911 4911 4911 4842 4842 4842 4842 4774 4774 4774 4774 4774 4774 4774 4774 4774 4708 4708 4645 4645 4582 4582 4582 4582 4582 4582 4582 4582 4582 4582 4522 4522 4522 4522 4463 4463 4463 4463 4463 4405 4405 4405 4405 4405 4349 4349 4349 4349 4349 4349 4349 4349 4349 4405 4405 4405 4463 4522 4522 4582 4582 4582 4645 4645 4645 4774 4645 4645 4708 4522 4522 7030 6889 6889 6889 7030 7030 7030 6889 6889 6889 6889 6889 6889 6889 6889 6889 6889 6889 7030 7030 7030 7030 7030 7030 7030 7030 6889 6889 6889 6889 6889 6889 6889 6889 6889 6753 6753 6753 6753 6753 6753 6622 6622 6622 6622 6622 6622 6622 6622 6497 6497 6497 6375 6375 6497 6497 6497 6375 6375 6375 6375 6375 6375 6375 6375 6375 6375 6375 6375 6497 6497 6497 6497 6497 6497 6497 6497 6497 6497 6497 6497 6622 6497 6497 6497 6497 6622 6622 6622 6622 6753 6753 6753 6753 6753 6753 6753 6889 6753 6753 6753 6753 6889 6889 6889 6889 7030 7030 7030 7030 7030 7178 7178 7178 7178 7178 7332 7332 7332 7332 7492 7492 7492 0 0 0 0 0 0 0 0 0 0 0 0 0 0
0 0 0 0 0 0 0 0 0 0 0 0 0 0 0 0 0 0 0 0 0 0 0 0 0 0 0 0 0 6497 6497 6375 6375 6497 6497 6497 6622 6622 6622 6622 6753 6753 6753 6753 6889 6889 6889 6889 6889 6889 6889 6889 6889 6889 6889 7030 7030 6889 6889 7030 0 0 0 0 0 0 0 0 0 0 0 0 0 0 0 0 0 0 0 0 0 0 0 0 0 0 0 0 0 0 0 0 0 0 0 0 0 0 0 0 0 0 0 0 0 0 0 0 0 0 0 0 0 0 0 0 0 0 0 0 0 0 0 0 0 0 0 0 0 0 0 0 0 0 0 0 0 0 0 0 0 0 0 0 0 6259 6259 6259 6375 6259 6259 6259 6259 6259 6146 6146 6146 6038 6038 6038 6038 6038 6146 6146 6146 6146 6146 6146 6146 6146 6146 6146 6259 6259 6259 6259 6375 6375 6497 6497 6497 6497 6497 6622 6753 6753 6753 6753 6753 6889 6889 7030 7030 7030 7030 7030 7030 7030 7030 7030 7030 7030 7030 7178 7030 7030 7030 7178 7178 3064 3064 3120 3149 3178 3178 3178 3178 3178 3178 3178 3178 3178 3178 3178 3178 3178 3178 3178 3178 3178 3178 3178 3178 3178 3178 3178 3178 3178 3178 3149 3149 3149 3178 3178 3178 3178 3178 3149 3149 3149 3149 3120 3120 3120 3149 3149 3149 3149 3149 3149 3149 3149 3149 3149 3149 3149 3149 3149 3149 3149 3149 3149 3149 3120 3120 3149 3120 3120 3120 3120 3120 3120 3120 3120 3149 3149 3149 3149 3149 3149 3149 3149 3120 3120 3120 4295 4295 4295 4295 4349 4349 4349 4349 4349 4405 4405 4405 4405 4405 4405 4405 4405 4405 4405 4405 4405 4349 4349 4405 4405 4405 4405 4405 4463 4463 4405 4405 4405 4463 4463 4522 4522 7178 7178 7178 7178 7178 0 0 0 0 0 1776 1776 1776 1776 1776 1776 1776 1776 1776 1776 1776 1776 1776 1776 1785 1785 1785 1776 1776 1785 1785 1776 1776 1776 1776 1776 1776 1776 1776 1776 1776 1776 1776 1776 1776 1776 1776 1785 1785 1785 1785 1785 1776 1776 1776 1776 1776 1776 1776 1785 1785 1785 1785 1785 1785 1794 1776 1776 1776 1776 1776 1776 1776 1776 1776 1776 1776 1776 1776 1776 1776 1776 1776 1785 1785 1785 1785 1785 1785 1785 1785 0 0 0 0 0 0 0 0 4983 4911 4911 4842 4842 4842 4774 4774 4774 4774 4774 4774 4774 4774 4774 4774 4774 4708 4645 4645 4645 4645 4582 4582 4582 4582 4582 4582 4582 4582 4582 4522 4522 4522 4522 4463 4463 4463 4463 4463 4405 4405 4405 4405 4405 4405 4405 4405 4405 4349 4349 4349 4349 4349 4405 4405 4405 4463 4522 4522 4582 4582 4582 4582 4645 4645 4774 4645 4645 4774 4522 4522 7030 6889 6889 6889 6889 6889 6889 6889 6889 6889 6753 6753 6889 6889 6889 6889 6889 6889 6889 7030 7030 7030 7030 7030 7030 7030 6889 6889 6889 6889 6889 6889 6889 6889 6753 6753 6753 6753 6622 6622 6622 6622 6622 6622 6622 6622 6622 6622 6622 6497 6497 6497 6375 6375 6375 6497 6375 6375 6375 6375 6259 6259 6375 6375 6375 6375 6375 6375 6375 6375 6375 6375 6497 6497 6375 6375 6375 6497 6497 6497 6497 6497 6375 6375 6497 6497 6497 6622 6622 6622 6753 6753 6753 6753 6753 6753 6753 6753 6753 6753 6753 6753 6889 6889 6889 6889 6889 7030 7030 7030 7030 7178 7178 7178 7178 7178 7178 7332 7332 7332 7332 7492 7492 0 0 0 0 0 0 0 0 0 0 0 0 0 0
0 0 0 0 0 0 0 0 0 0 0 0 0 0 0 0 0 0 0 0 0 0 0 0 0 0 0 0 0 6497 6497 6497 6497 6497 6497 6622 6622 6622 6622 6753 6753 6753 6753 6753 6889 6889 6753 6753 6753 6889 6889 6889 6889 6889 6889 6889 6889 6889 6753 6753 6889 0 0 0 0 0 0 0 0 0 0 0 0 0 0 0 0 0 0 0 0 0 0 0 0 0 0 0 0 0 0 0 0 0 0 0 0 0 0 0 0 0 0 0 0 0 0 0 0 0 0 0 0 0 0 0 0 0 0 0 0 0 0 0 0 0 0 0 0 0 0 0 0 0 0 0 0 0 0 0 0 0 0 0 0 6259 6259 6259 6259 6259 6259 6259 6259 6259 6146 6146 6146 6038 6038 6038 6146 6146 6146 6146 6146 6146 6259 6259 6259 6259 6259 6259 6259 6259 6259 6259 6375 6375 6497 6497 6497 6497 6497 6622 6753 6753 6753 6753 6889 6889 6889 6889 7030 7030 7030 7030 7030 7030 7030 7030 7030 7030 7030 7178 7178 7178 7178 7178 3064 3064 3064 3120 3149 3178 3178 3178 3178 3178 3178 3178 3178 3178 3178 3178 3178 3178 3178 3178 3178 3178 3178 3178 3178 3178 3178 3178 3178 3178 3178 3149 3149 3149 3178 3178 3178 3149 3149 3149 3120 3120 3120 3120 3120 3120 3120 3120 3120 3149 3120 3120 3149 3149 3149 3149 3149 3149 3149 3149 3149 3149 3149 3149 3149 3120 3120 3149 3120 3120 3120 3120 3120 3120 3120 3120 3120 3149 3149 3149 3149 3120 3120 3149 3120 3120 3120 3149 4241 4295 4295 4349 4349 4349 4405 4405 4405 4405 4349 4349 4405 4405 4405 4405 4405 4405 4405 4405 4405 4405 4405 4405 4405 4405 4405 4463 4463 4405 4405 4463 4463 4522 4522 4522 7178 7178 7178 7178 7178 0 0 0 0 0 1776 1776 1776 1776 1776 1776 1776 1776 1776 1776 1776 1785 1785 1785 1785 1785 1785 1785 1785 1785 1785 1785 1776 1776 1776 1776 1776 1776 1776 1776 1776 1776 1776 1776 1776 1785 1785 1785 1785 1785 1785 1785 1785 1776 1776 1785 1785 1785 1785 1785 1785 1785 1794 1785 1785 1794 1785 1785 1776 1776 1776 1776 1776 1776 1776 1776 1776 1776 1776 1776 1785 1776 1776 1785 1785 1785 1785 1785 1785 1785 1785 0 0 0 0 0 0 0 0 4911 4842 4842 4842 4842 4842 4774 4774 4774 4774 4774 4774 4774 4774 4774 4774 4774 4708 4645 4645 4645 4645 4582 4582 4582 4582 4582 4582 4582 4582 4582 4522 4522 4522 4522 4463 4463 4463 4463 4463 4405 4405 4405 4405 4405 4405 4405 4405 4405 4405 4349 4349 4349 4349 4405 4405 4405 4463 4522 4522 4582 4582 4582 4582 4645 4645 4774 4708 4645 4645 4645 4645 7030 6753 6753 6753 6753 6753 6753 6753 6753 6753 6753 6753 6889 6889 6889 6889 6889 6889 6889 7030 7030 7030 7030 7030 7030 7030 6889 6889 6889 6889 6889 6889 6889 6889 6753 6753 6753 6753 6622 6622 6622 6622 6622 6622 6622 6497 6497 6497 6497 6497 6497 6497 6375 6375 6375 6497 6375 6259 6259 6259 6259 6259 6259 6259 6259 6375 6375 6375 6375 6375 6375 6375 6375 6375 6375 6375 6375 6375 6497 6497 6497 6497 6375 6375 6375 6497 6497 6497 6497 6622 6753 6753 6753 6753 6753 6753 6753 6753 6753 6753 6753 6753 6889 6889 6889 6889 6889 6889 6889 7030 7030 7178 7178 7178 7178 7178 7178 7178 7178 7332 7332 7492 7492 0 0 0 0 0 0 0 0 0 0 0 0 0 0
0 0 0 0 0 0 0 0 0 0 0 0 0 0 0 0 0 0 0 0 0 0 0 0 0 0 0 0 0 6497 6497 6497 6497 6497 6497 6622 6622 6622 6622 6753 6753 6753 6889 6889 6889 6889 6753 6753 6753 6889 6889 6889 6889 6889 6889 6889 6889 6753 6753 6753 6889 0 0 0 0 0 0 0 0 0 0 0 0 0 0 0 0 0 0 0 0 0 0 0 0 0 0 0 0 0 0 0 0 0 0 0 0 0 0 0 0 0 0 0 0 0 0 0 0 0 0 0 0 0 0 0 0 0 0 0 0 0 0 0 0 0 0 0 0 0 0 0 0 0 0 0 0 0 0 0 0 0 0 0 6146 6146 6146 6259 6259 6146 6146 6146 6259 6259 6146 6146 6146 6038 6038 6038 6146 6146 6146 6146 6146 6146 6259 6259 6259 6259 6259 6259 6259 6259 6259 6259 6375 6375 6497 6497 6497 6497 6497 6622 6753 6753 6753 6753 6889 6889 6889 6889 7030 7030 7030 7030 7030 7030 7030 7030 7030 7030 7030 7178 7178 7178 7178 7178 7178 3092 3092 3120 3149 3149 3178 3178 3178 3178 3178 3178 3178 3178 3178 3178 3178 3178 3178 3178 3178 3178 3178 3178 3178 3178 3178 3178 3178 3178 3178 3149 3149 3149 3149 3149 3149 3149 3149 3149 3120 3120 3120 3120 3120 3120 3120 3120 3120 3149 3120 3120 3149 3149 3149 3149 3149 3149 3149 3149 3149 3149 3149 3149 3149 3149 3149 3149 3149 3120 3120 3120 3120 3120 3120 3120 3120 3149 3149 3149 3120 3120 3120 3149 3120 3120 3120 3120 3120 4241 4295 4349 4349 4349 4405 4405 4405 4405 4349 4349 4405 4405 4405 4405 4405 4405 4405 4405 4405 4405 4405 4405 4405 4405 4405 4463 4463 4463 4463 4463 4463 4522 4522 7178 7178 7178 7332 7332 7332 0 0 0 0 0 1776 1776 1785 1776 1776 1776 1785 1776 1776 1776 1776 1785 1785 1785 1785 1785 1785 1785 1785 1785 1785 1785 1776 1776 1776 1776 1776 1776 1776 1776 1776 1776 1776 1776 1776 1776 1776 1785 1785 1785 1785 1785 1785 1785 1785 1785 1785 1785 1785 1785 1785 1785 1785 1785 1785 1794 1785 1785 1785 1776 1776 1785 1785 1776 1776 1776 1776 1776 1776 1776 1785 1785 1785 1785 1785 1785 1785 1785 1785 1785 1785 0 0 0 0 0 0 0 4983 4911 4842 4842 4842 4842 4842 4774 4774 4774 4774 4774 4774 4774 4774 4774 4774 4774 4708 4645 4645 4645 4645 4582 4582 4582 4582 4582 4582 4582 4582 4582 4522 4522 4522 4522 4463 4463 4405 4405 4405 4405 4405 4405 4405 4463 4463 4405 4405 4405 4405 4349 4349 4349 4349 4405 4405 4405 4463 4522 4522 4582 4582 4582 4582 4645 4645 4708 4708 4645 4645 4645 4645 6753 6753 6753 6753 6753 6622 6622 6622 6622 6622 6622 6753 6753 6889 6889 6889 6889 6889 6889 6889 7030 7030 7030 7030 7030 7030 6889 6889 6889 6889 6889 6889 6889 6889 6889 6753 6753 6753 6622 6622 6622 6622 6622 6622 6622 6497 6497 6497 6497 6497 6497 6375 6375 6375 6375 6375 6259 6259 6259 6259 6259 6259 6259 6259 6259 6375 6375 6375 6375 6375 6375 6375 6375 6375 6375 6375 6375 6375 6375 6375 6497 6497 6375 6375 6375 6497 6497 6497 6497 6622 6753 6753 6753 6753 6753 6753 6753 6753 6753 6753 6753 6753 6889 6889 6889 6889 6889 6889 6889 6889 7030 7030 7030 7178 7030 7030 7178 7178 7178 7332 7332 7492 7492 0 0 0 0 0 0 0 0 0 0 0 0 0 0
0 0 0 0 0 0 0 0 0 0 0 0 0 0 0 0 0 0 0 0 0 0 0 0 0 0 0 0 0 6497 6497 6497 6497 6622 6622 6622 6622 6622 6753 6753 6753 6753 6753 6753 6753 6753 6753 6753 6753 6889 6889 6889 6889 6889 6889 6889 6889 6753 6753 6753 6753 0 0 0 0 0 0 0 0 0 0 0 0 0 0 0 0 0 0 0 0 0 0 0 0 0 0 0 0 0 0 0 0 0 0 0 0 0 0 0 0 0 0 0 0 0 0 0 0 0 0 0 0 0 0 0 0 0 0 0 0 0 0 0 0 0 0 0 0 0 0 0 0 0 0 0 0 0 0 0 0 0 0 0 6146 6146 6146 6259 6259 6146 6146 6146 6259 6259 6146 6146 6259 6259 6146 6146 6146 6146 6146 6146 6146 6146 6146 6259 6259 6259 6259 6259 6259 6259 6375 6375 6375 6375 6497 6497 6497 6497 6497 6622 6622 6753 6753 6753 6889 6889 6889 7030 7030 7030 7030 7030 7030 7030 7030 7030 7030 7178 7178 7178 7178 7178 7178 7178 7178 3120 3120 3120 3149 3149 3149 3178 3178 3178 3178 3178 3178 3178 3178 3178 3178 3178 3178 3178 3178 3178 3178 3178 3178 3178 3178 3178 3178 3178 3178 3149 3149 3149 3149 3149 3149 3149 3149 3149 3120 3120 3120 3120 3120 3120 3120 3120 3120 3149 3149 3149 3149 3149 3149 3149 3149 3149 3149 3149 3149 3149 3149 3149 3149 3149 3149 3149 3149 3120 3120 3120 3120 3120 3120 3120 3149 3149 3149 3120 3120 3120 3120 3149 3120 3120 3120 3120 3120 3120 4241 4295 4349 4405 4405 4405 4405 4405 4405 4405 4405 4405 4405 4405 4405 4405 4405 4405 4405 4405 4405 4405 4405 4405 4463 4463 4463 4463 4463 4463 4463 4463 4522 7178 7178 7178 7332 7332 7332 0 0 0 0 0 1785 1785 1785 1785 1785 1785 1785 1785 1785 1785 1785 1785 1785 1785 1785 1785 1785 1785 1785 1785 1794 1785 1785 1785 1785 1785 1785 1776 1776 1776 1776 1776 1776 1776 1776 1776 1776 1785 1785 1785 1785 1785 1785 1785 1785 1785 1785 1785 1785 1785 1785 1785 1785 1785 1785 1785 1785 1785 1785 1776 1776 1785 1785 1785 1776 1776 1776 1785 1776 1776 1785 1785 1785 1785 1785 1785 1785 1785 1785 1776 1776 0 0 0 0 0 0 0 4983 4842 4842 4842 4842 4842 4842 4774 4774 4774 4774 4774 4774 4774 4774 4774 4774 4774 4708 4708 4645 4645 4645 4582 4582 4582 4582 4582 4582 4582 4582 4582 4522 4522 4522 4522 4463 4463 4405 4405 4405 4405 4405 4405 4405 4463 4463 4405 4405 4405 4405 4349 4349 4349 4349 4405 4405 4405 4463 4522 4522 4582 4582 4645 4645 4645 4708 4708 4708 4708 4708 4708 4708 6622 6622 6622 6622 6622 6622 6497 6497 6622 6622 6622 6622 6753 6753 6889 6889 6889 6889 6889 6889 6889 7030 7030 7030 7030 7030 7030 6889 6889 6889 6889 6889 7030 6889 6889 6889 6753 6753 6622 6497 6497 6497 6497 6497 6497 6497 6497 6497 6497 6497 6497 6375 6375 6375 6375 6375 6259 6259 6259 6259 6259 6259 6259 6259 6375 6375 6375 6375 6375 6497 6497 6497 6375 6375 6375 6375 6375 6259 6259 6259 6259 6259 6146 6146 6146 6146 6375 6375 6375 6497 6753 6753 6753 6753 6753 6753 6753 6753 6753 6753 6889 6889 6889 6889 6889 6889 6889 6889 6889 6889 6889 7030 7030 7178 7030 7030 7178 7178 7178 7332 7332 7492 7492 0 0 0 0 0 0 0 0 0 0 0 0 0 0
0 0 0 0 0 0 0 0 0 0 0 0 0 0 0 0 0 0 0 0 0 0 0 0 0 0 0 0 0 6497 6375 6375 6497 6622 6622 6622 6622 6753 6753 6753 6753 6753 6753 6753 6753 6753 6753 6753 6753 6889 6889 6889 6889 6889 6889 6889 6889 6753 6753 6622 6622 0 0 0 0 0 0 0 0 0 0 0 0 0 0 0 0 0 0 0 0 0 0 0 0 0 0 0 0 0 0 0 0 0 0 0 0 0 0 0 0 0 0 0 0 0 0 0 0 0 0 0 0 0 0 0 0 0 0 0 0 0 0 0 0 0 0 0 0 0 0 0 0 0 0 0 0 0 0 0 0 0 0 0 6259 6259 6259 6259 6259 6259 6259 6259 6259 6375 6259 6259 0 0 0 0 0 0 0 6146 6146 6146 6146 6259 6259 6259 6259 6259 6259 6259 6259 6375 6375 6375 6497 6497 6497 6497 6497 6622 6622 6889 6889 6889 6889 6889 6889 6889 7030 7030 7030 7030 7030 7030 7030 7030 7030 7030 7030 7178 7178 7178 7178 7178 7178 3120 3120 3120 3149 3149 3149 3178 3178 3178 3178 3178 3178 3178 3178 3178 3178 3178 3178 3178 3178 3178 3178 3178 3178 3178 3178 3178 3178 3178 3178 3149 3149 3149 3149 3149 3149 3149 3149 3149 3120 3120 3120 3120 3120 3120 3120 3149 3149 3149 3149 3149 3149 3149 3149 3149 3149 3149 3149 3149 3149 3149 3149 3149 3149 3149 3149 3149 3149 3120 3120 3120 3120 3149 3120 3120 3149 3149 3149 3120 3120 3120 3120 3149 3120 3120 3120 3120 3120 3120 4241 4295 4349 4405 4405 4405 4405 4405 4405 4405 4405 4405 4405 4405 4405 4405 4405 4405 4405 4405 4405 4405 4405 4405 4463 4463 4463 4463 4463 4463 4463 4463 4522 7178 7178 7178 7332 7332 7332 7332 0 0 0 0 1785 1785 1794 1785 1785 1785 1785 1785 1785 1785 1785 1785 1785 1785 1785 1785 1785 1785 1785 1785 1794 1785 1785 1785 1785 1785 1785 1785 1785 1785 1785 1785 1776 1776 1776 1785 1785 1785 1785 1785 1785 1794 1785 1785 1785 1785 1785 1785 1794 1794 1785 1785 1785 1785 1785 1785 1785 1785 1785 1785 1785 1785 1785 1785 1776 1776 1776 1785 1785 1785 1785 1785 1785 1785 1785 1785 1785 1785 1785 1776 1776 0 0 0 0 0 0 0 4911 4842 4842 4842 4842 4842 4842 4774 4774 4774 4774 4774 4774 4774 4774 4774 4774 4774 4708 4708 4645 4645 4645 4582 4582 4582 4582 4582 4582 4582 4582 4582 4522 4522 4522 4522 4522 4463 4405 4405 4405 4405 4405 4405 4405 4463 4463 4405 4405 4405 4405 4349 4349 4349 4349 4405 4405 4463 4463 4522 4522 4522 4582 4582 4582 4645 4708 4708 4774 4645 4645 4774 4774 6622 6497 6497 6497 6497 6497 6497 6497 6497 6622 6622 6622 6622 6753 6753 6753 6753 6753 6753 6753 6753 6753 6889 6889 6889 6889 6889 6889 6889 6889 6889 6889 6889 6889 6889 6889 6753 6753 6622 6497 6497 6497 6497 6497 6497 6497 6497 6497 6497 6497 6497 6375 6375 6375 6375 6375 6259 6259 6259 6259 6259 6259 6259 6259 6375 6375 6375 6375 6375 6497 6375 6375 6375 6375 6259 6259 6259 6259 6259 6259 6259 6259 6146 6146 6146 6146 6259 6259 6259 6375 6753 6753 6753 6753 6753 6753 6889 6753 6753 6753 6889 6889 6889 6889 6889 6889 6889 6889 6889 6889 6889 7030 7030 7178 7178 7178 7178 7178 7332 7492 7492 7492 7492 0 0 0 0 0 0 0 0 0 0 0 0 0 0
0 0 0 0 0 0 0 0 0 0 0 0 0 0 0 0 0 0 0 0 0 0 0 0 0 0 0 0 0 0 6375 6375 6497 6497 6622 6622 6622 6753 6753 6753 6753 6753 6753 6753 6753 6753 6753 6753 6889 6889 6889 6889 6889 6889 6889 6889 6889 6753 6753 6259 6259 0 0 0 0 0 0 0 0 0 0 0 0 0 0 0 0 0 0 0 0 0 0 0 0 0 0 0 0 0 0 0 0 0 0 0 0 0 0 0 0 0 0 0 0 0 0 0 0 0 0 0 0 0 0 0 0 0 0 0 0 0 0 0 0 0 0 0 0 0 0 0 0 0 0 0 0 0 0 0 0 0 0 6259 6259 6259 0 0 6259 6259 6259 6259 6259 6375 0 0 0 0 0 0 0 0 0 6259 6259 6259 6259 6259 6259 6259 6259 6259 6259 6259 6259 6375 6375 6375 6497 6497 6497 6497 6622 6889 6889 6889 6889 6889 6889 6889 6889 6889 7030 7030 7030 7030 7030 7030 7030 7030 7030 7030 7030 7178 7178 7178 7178 7178 7178 3149 3149 3149 3149 3149 3149 3178 3178 3178 3178 3178 3178 3178 3178 3178 3178 3178 3178 3178 3178 3178 3178 3178 3178 3178 3178 3178 3178 3178 3178 3149 3149 3149 3149 3149 3149 3149 3149 3149 3149 3149 3149 3120 3120 3120 3149 3149 3149 3149 3149 3149 3149 3149 3149 3149 3149 3149 3149 3149 3149 3149 3149 3149 3149 3149 3149 3149 3149 3149 3149 3149 3149 3149 3149 3149 3149 3149 3149 3149 3149 3149 3149 3149 3120 3120 3120 3120 3120 3120 4295 4349 4349 4405 4405 4405 4405 4405 4405 4405 4405 4405 4405 4405 4405 4405 4405 4405 4405 4405 4405 4405 4405 4405 4463 4463 4463 4463 4463 4463 4463 4463 4463 7178 7332 7332 7332 7332 7332 7332 0 0 0 0 1785 1785 1794 1785 1785 1785 1785 1785 1785 1785 1785 1785 1785 1785 1785 1794 1794 1794 1794 1794 1794 1785 1785 1785 1785 1785 1785 1785 1785 1785 1785 1785 1776 1776 1776 1785 1785 1785 1785 1785 1785 1794 1785 1785 1785 1794 1794 1794 1794 1794 1785 1785 1785 1785 1785 1785 1785 1785 1785 1785 1785 1785 1785 1785 1776 1776 1776 1785 1785 1785 1785 1785 1785 1785 1785 1785 1785 1785 1785 1766 1766 0 0 0 0 0 0 4842 4842 4842 4774 4774 4842 4842 4842 4774 4774 4774 4774 4774 4774 4774 4774 4774 4774 4774 4774 4708 4645 4645 4645 4582 4582 4582 4582 4582 4582 4582 4582 4522 4522 4522 4522 4522 4522 4463 4405 4405 4405 4405 4405 4405 4405 4463 4405 4405 4349 4349 4349 4349 4349 4349 4349 4349 4405 4405 4463 4463 4522 4522 4522 4582 4582 4645 4708 4708 4774 4645 4645 4645 6497 6497 6497 6497 6497 6497 6497 6375 6375 6497 6497 6497 6497 6497 6622 6622 6753 6753 6622 6622 6753 6622 6622 6622 6622 6753 6753 6889 6889 6889 6889 6889 6889 6889 6753 6753 6622 6622 6622 6497 6497 6497 6497 6497 6497 6497 6497 6497 6497 6497 6497 6497 6375 6375 6375 6375 6375 6375 6259 6259 6259 6259 6259 6259 6259 6375 6375 6375 6375 6497 6497 6375 6375 6375 6375 6259 6259 6259 6375 6259 6259 6497 6259 6146 6146 6146 6146 6259 6259 6259 6375 6753 6753 6753 6889 6889 6889 6889 6889 6889 6889 6889 6889 6889 6889 6889 6889 6889 6889 6889 6889 6889 6889 7030 7030 7178 7178 7178 7178 7332 7492 7492 7492 7660 0 0 0 0 0 0 0 0 0 0 0 0 0 0
0 0 0 0 0 0 0 0 0 0 0 0 0 0 0 0 0 0 0 0 0 0 0 0 0 0 0 0 0 0 6375 6375 6497 6497 6622 6753 6753 6753 6753 6753 6753 6753 6753 6753 6753 6753 6889 6889 6889 6889 6889 6889 6889 6889 6889 6889 6889 6753 6753 6259 6259 6375 0 0 0 0 0 0 0 0 0 0 0 0 0 0 0 0 0 0 0 0 0 0 0 0 0 0 0 0 0 0 0 0 0 0 0 0 0 0 0 0 0 0 0 0 0 0 0 0 0 0 0 0 0 0 0 0 0 0 0 0 0 0 0 0 0 0 0 0 0 0 0 0 0 0 0 0 0 0 0 0 6259 6259 6259 6259 0 0 0 0 0 0 0 0 0 0 0 0 0 0 0 0 0 6259 6146 6146 6259 6259 6259 6259 6259 6259 6259 6375 6375 6375 6375 6375 6497 6497 6497 6497 6622 6889 7030 6889 6889 6889 6889 6889 6889 6889 7030 7030 7030 7030 7030 7030 7030 7030 7030 7178 7178 7178 7178 7178 7178 7178 7178 3149 3149 3149 3149 3149 3149 3178 3178 3178 3178 3178 3178 3178 3178 3178 3178 3178 3178 3178 3178 3178 3178 3178 3178 3178 3178 3178 3178 3178 3178 3149 3149 3149 3149 3149 3149 3149 3149 3149 3149 3149 3149 3120 3120 3120 3120 3149 3149 3149 3149 3149 3149 3149 3149 3149 3149 3149 3149 3149 3149 3149 3149 3149 3149 3149 3149 3149 3149 3149 3149 3149 3149 3149 3149 3149 3149 3149 3149 3149 3149 3149 3149 3149 3149 3149 3120 3120 3120 3120 4295 4349 4405 4405 4405 4405 4405 4405 4405 4405 4405 4405 4405 4405 4405 4349 4349 4349 4405 4405 4405 4405 4405 4405 4463 4463 4463 4463 4463 4463 4463 4463 4463 7332 7332 7332 7332 7332 7332 7332 0 0 0 0 1794 1794 1794 1794 1794 1794 1794 1794 1785 1785 1785 1785 1785 1785 1794 1794 1794 1794 1794 1794 1794 1794 1785 1785 1785 1785 1794 1785 1785 1785 1785 1785 1785 1785 1785 1785 1785 1785 1785 1785 1785 1794 1785 1785 1785 1794 1794 1794 1794 1794 1794 1794 1794 1785 1785 1785 1785 1785 1785 1785 1785 1785 1785 1785 1785 1785 1785 1785 1785 1785 1785 1785 1785 1794 1785 1785 1785 1776 1776 1757 1757 0 0 0 0 0 4911 4842 4842 4842 4774 4774 4842 4842 4842 4842 4774 4774 4774 4774 4774 4774 4774 4774 4774 4774 4774 4774 4708 4645 4645 4582 4582 4582 4582 4582 4522 4522 4522 4522 4522 4522 4522 4522 4522 4463 4463 4405 4405 4463 4405 4405 4405 4405 4349 4349 4349 4349 4349 4349 4349 4349 4349 4349 4405 4405 4463 4463 4463 4522 4522 4522 4582 4645 4708 4708 4774 4645 4645 6497 6497 6497 6497 6497 6497 6497 6497 6375 6375 6375 6375 6497 6497 6497 6497 6497 6622 6622 6622 6622 6622 6622 6622 6622 6622 6622 6753 6753 6753 6753 6753 6753 6753 6753 6753 6753 6622 6622 6622 6497 6497 6497 6497 6497 6497 6497 6497 6497 6497 6497 6497 6497 6497 6497 6497 6497 6497 6375 6375 6375 6375 6375 6375 6375 6375 6375 6375 6497 6497 6497 6497 6497 6497 6375 6375 6375 6375 6375 6375 6375 6497 6497 6259 6146 6146 6146 6146 6259 6259 6259 6375 6753 6889 6889 6889 6889 6889 6889 6889 6889 6889 6889 6889 6889 6889 6889 6889 6889 6889 6889 6889 6889 6889 7030 7030 7030 7030 7178 7178 7332 7492 7492 7492 7660 0 0 0 0 0 0 0 0 0 0 0 0 0 0
