0 0 0 0 0 0 0 0 0 0 0 0 0 0 0 0 0 0 0 0 0 0 0 0 0 0 0 0 0 0 6038 6038 6038 6146 6146 6259 6146 6146 6259 6259 6259 6259 6259 6259 6259 6259 6259 6259 6259 6375 6259 6146 6146 5933 5933 5933 5933 5933 5933 6038 6038 6038 6146 6146 6259 6259 6259 6259 6259 6259 6259 6259 6259 6259 6259 6259 6259 6259 6259 6259 6259 6259 6259 6259 6259 6259 6259 6259 6259 6259 6259 6259 6259 6375 6375 6375 6375 6375 6375 6375 6375 6375 6375 6375 6375 6497 6375 6375 6375 6375 6375 6375 6259 6259 6259 6375 6375 6375 6375 6375 6375 6375 6375 6259 5933 5734 5548 5460 5460 5460 5548 5548 5640 5734 6038 6259 6375 6375 3010 3010 3010 3010 3010 2984 2984 2984 2984 2984 2984 2984 3010 3010 3010 3010 3037 3037 3037 3037 3037 3037 3037 3010 3010 3037 3037 3010 3010 3037 3037 3037 3037 3037 3037 3037 3037 3037 3037 3037 3037 3037 3037 3064 2040 2040 2040 2040 2053 2053 2053 2040 2040 2053 2040 2040 2053 2053 2065 2065 2065 2078 2078 2078 2078 2078 2078 2090 2090 2078 2078 2090 2090 2090 2090 2090 2103 2103 2103 2116 2116 2116 2116 2103 2103 2116 2116 2116 2116 2129 2129 2129 2129 2129 2129 2129 2116 2090 2090 2116 2129 2129 2129 2129 2129 2129 2116 2116 2116 2116 2116 0 0 0 0 0 0 0 0 6375 6375 6375 6497 7030 7030 7178 7178 7030 7030 7030 7030 6889 6753 6753 6753 6889 6889 6889 6889 6889 7178 0 0 0 0 0 0 0 0 0 0 6497 6497 6497 6497 6497 6375 6375 6375 6375 0 0 0 0 0 0 0 0 2212 2212 2184 2184 2184 2184 2184 2184 2184 2184 2184 2184 2184 2198 2198 2212 2212 2212 2212 2212 2212 2212 2198 2198 2198 2198 2198 2198 2212 2212 2198 2198 2198 2212 2212 2212 2212 2226 2226 2226 2226 2226 2226 2226 2226 2226 2226 2226 2226 2226 2226 2226 2226 2226 2226 2226 2226 2226 2226 2226 2241 2241 2241 2241 2241 2241 2226 2226 2226 2226 2226 2226 2241 2241 2241 2241 2241 2241 2241 2241 2241 2241 2241 2241 2241 0 0 0 0 0 0 0 0 0 0 0 0 0 0 0 0 0 0 0 0 0 0 0 0 0 0 0 0 0 0 0 0 0 0 0 0 0 0 0 0 0 0 0 0 0 0 0 0 0 0 0 0 0 0 0 0 0 0 0 3365 3365 3365 3365 3333 3333 3300 3300 3300 3300 3300 3300 3269 3269 3269 3269 3269 3238 3238 3238 3269 3269 3269 3269 3269 3269 3269 3269 3238 3238 3238 3238 3208 3208 3208 3208 3208 3208 3208 3208 3208 3208 3208 3208 3208 3208 3178 3149 3149 3149 3149 3149 3149 3149 3149 3149 3149 3149 3149 3149 3149 3149 3120 3120 3149 3149 3149 3149 3149 3149 3149 3149 3149 3149 3149 3149 3149 3149 3149 3149 3149 3149 3149 3149 3149 3149 3149 3149 3149 3149 3149 3149 3149 3149 3149 3120 3120 3120 3120 3120 3092 3037 2984 2933 2883 2883 2859 2859 2859 2859 2859 2859 2883 2883 2883 2883 2883 2859 2859 2859 2859 2883 2883 2859 2859 2859 3149 3208 3208 3208 3208 3238 3208 3208 3238 3269 3269 3300 3300 3333 3333 3399 3399 3399 2835 2812 2812 2812 2835 2835 2835 2835 2835 2835 2835 2835 2835 2859 2859 2859 2859 2859 2859 2859 2835 2835 2835 2835 2859 2883 2883 5374 5291 5291 5291 5291 5291 0 0 0 0 0 0 0 0 0 0 0 0 0
0 0 0 0 0 0 0 0 0 0 0 0 0 0 0 0 0 0 0 0 0 0 0 0 0 0 0 0 0 0 6038 6038 6038 6146 6146 6146 6146 6146 6259 6259 6259 6259 6259 6259 6259 6259 6259 6259 6259 6375 6259 6259 6259 6146 6038 6038 5933 5933 5933 5933 5933 5933 6038 6146 6146 6146 6259 6259 6259 6259 6259 6146 6146 6259 6146 6146 6146 6146 6259 6259 6259 6259 6259 6259 6259 6146 6146 6146 6146 6146 6259 6259 6259 6375 6375 6375 6375 6375 6375 6375 6375 6375 6375 6375 6375 6497 6375 6375 6375 6375 6375 6375 6259 6259 6375 6375 6375 6375 6375 6375 6375 6375 6375 6259 5933 5734 5548 5460 5460 5460 5460 5548 5640 5734 6038 6259 2984 2984 3010 3010 3010 3010 3010 3010 3010 3010 3010 3010 3010 3010 3010 3010 3037 3037 3037 3037 3037 3037 3037 3037 3037 2040 2040 2028 2028 2028 2040 2040 3064 3064 3064 2040 2040 2040 2040 2040 2040 2040 2053 2053 2040 2040 2040 2040 2040 2040 2053 2053 2053 2053 2053 2053 2040 2040 2053 2053 2065 2065 2078 2078 2078 2078 2078 2078 2078 2090 2090 2090 2090 2090 2090 2090 2090 2090 2103 2103 2103 2103 2103 2116 2116 2103 2103 2116 2116 2116 2116 2129 2129 2129 2129 2129 2129 2129 2116 2116 2116 2129 2129 2129 2129 2129 2129 2129 2116 2116 2116 2103 2103 0 0 0 0 0 0 0 0 0 0 0 0 0 0 7178 7178 7030 7030 0 7030 6889 6753 6622 6622 6753 6753 6889 6889 6889 0 0 0 0 0 0 0 0 0 0 0 0 6497 6497 6497 6497 6497 6497 6497 0 0 0 0 0 0 0 0 0 2198 2198 2184 2184 2184 2184 2184 2184 2184 2184 2184 2184 2184 2198 2198 2212 2212 2212 2212 2212 2212 2212 2198 2198 2198 2198 2198 2198 2198 2198 2198 2198 2212 2212 2212 2212 2212 2226 2226 2226 2226 2226 2226 2226 2226 2226 2226 2226 2226 2226 2226 2226 2226 2226 2226 2226 2226 2226 2226 2226 2241 2241 2241 2241 2241 2241 2226 2226 2226 2241 2241 2241 2241 2241 2241 2241 2241 2241 2241 2241 2241 2241 2241 2241 2226 2226 0 0 0 0 0 0 0 0 0 0 0 0 0 0 0 0 0 0 0 0 0 0 0 0 0 0 0 0 0 0 0 0 0 0 0 0 0 0 0 0 0 0 0 0 0 0 0 0 0 0 0 0 0 0 0 0 0 0 3365 3333 3333 3333 3333 3333 3269 3269 3300 3300 3300 3300 3178 3178 3208 3238 3238 3238 3238 3238 3269 3269 3269 3269 3269 3269 3269 3238 3238 3238 3208 3208 3208 3208 3208 3208 3208 3238 3238 3238 3238 3208 3208 3208 3208 3208 3178 3149 3149 3149 3149 3149 3149 3149 3149 3149 3149 3149 3149 3149 3149 3149 3149 3149 3149 3149 3149 3149 3149 3149 3149 3149 3149 3149 3149 3149 3149 3149 3120 3120 3149 3149 3149 3149 3149 3149 3149 3149 3149 3149 3149 3149 3149 3149 3149 3120 3120 3120 3120 3120 3092 3010 2958 2933 2883 2883 2859 2859 2859 2859 2859 2859 2859 2859 2883 2883 2859 2859 2859 2859 2859 2883 2883 2859 2859 2908 3178 3208 3208 3208 3208 3238 3238 3238 3238 3300 3300 3300 3333 3333 3365 3433 3468 2835 2835 2835 2812 2812 2835 2835 2835 2835 2835 2835 2835 2835 2835 2859 2859 2859 2859 2859 2859 2859 2859 2859 2859 2859 2883 2883 2883 5374 5291 5291 5291 5291 5291 0 0 0 0 0 0 0 0 0 0 0 0 0
0 0 0 0 0 0 0 0 0 0 0 0 0 0 0 0 0 0 0 0 0 0 0 0 0 0 0 0 0 0 6038 6038 6038 6146 6146 6146 6146 6146 6146 6146 6146 6146 6259 6259 6259 6259 6259 6259 6259 6375 6259 6259 6259 6146 6038 6038 5933 5933 5933 5933 5933 5933 6038 6038 6146 6146 6259 6259 6259 6259 6259 6146 6146 6146 6146 6146 6146 6146 6259 6259 6259 6259 6259 6146 6146 6146 6146 6146 6146 6146 6259 6259 6375 6375 6375 6497 6497 6497 6375 6375 6375 6497 6497 6497 6497 6497 6497 6375 6375 6375 6375 6375 6375 6375 6375 6375 6375 6375 6375 6375 6259 6259 6259 6146 5933 5734 5640 5460 5460 5460 5460 5548 5640 5734 6038 6375 2958 2958 3010 3010 3010 3010 3010 3010 3010 3010 2984 2984 3010 3010 3010 3037 3037 3037 3037 3037 3037 3037 3037 3037 2040 2040 2028 2028 2028 2028 2028 2028 2028 2016 2016 2028 2028 2040 2040 2040 2040 2040 2053 2053 2040 2040 2040 2040 2053 2053 2053 2053 2053 2053 2065 2065 2065 2065 2053 2053 2078 2078 2078 2078 2078 2078 2078 2078 2078 2090 2090 2090 2090 2090 2090 2090 2090 2090 2103 2103 2103 2103 2103 2103 2103 2103 2103 2116 2116 2116 2116 2116 2116 2116 2116 2116 2116 2116 2116 2116 2116 2129 2129 2129 2129 2129 2129 2129 2116 2116 2116 2103 2103 0 0 0 0 0 0 0 0 0 0 0 0 0 0 0 0 0 0 0 0 6889 6753 6622 6622 6622 6622 6889 6889 0 0 0 0 0 0 0 0 0 0 0 0 0 6497 6375 6375 6497 6497 6497 6497 0 0 0 0 0 0 0 0 0 2198 2198 2184 2184 2184 2184 2184 2184 2184 2184 2198 2198 2198 2212 2212 2212 2212 2212 2212 2212 2212 2212 2198 2198 2198 2198 2198 2198 2198 2198 2212 2212 2212 2212 2212 2226 2226 2226 2226 2226 2226 2226 2226 2226 2226 2226 2226 2226 2226 2226 2226 2226 2226 2226 2226 2226 2226 2226 2226 2241 2241 2241 2241 2241 2241 2241 2241 2241 2241 2241 2241 2241 2241 2241 2241 2241 2241 2241 2241 2241 2241 2241 2241 2226 2226 2226 0 0 0 0 0 0 0 0 0 0 0 0 0 0 0 0 0 0 0 0 0 0 0 0 0 0 0 0 0 0 0 0 0 0 0 0 0 0 0 0 0 0 0 0 0 0 0 0 0 0 0 0 0 0 0 0 0 0 0 3333 3333 3300 3300 3300 3269 3269 3300 3300 3300 3300 3178 3178 3178 3208 3238 3208 3208 3208 3238 3269 3269 3269 3269 3269 3269 3238 3238 3208 3208 3208 3208 3208 3208 3208 3208 3238 3238 3238 3238 3238 3238 3238 3208 3208 3178 3149 3149 3149 3149 3149 3149 3149 3149 3149 3149 3149 3149 3149 3149 3149 3149 3149 3149 3149 3149 3149 3149 3149 3149 3149 3149 3149 3149 3149 3149 3149 3120 3120 3149 3149 3149 3120 3120 3149 3149 3149 3149 3149 3149 3149 3149 3149 3149 3149 3149 3120 3120 3120 3064 2958 2933 2933 2883 2859 2859 2859 2859 2859 2859 2859 2859 2859 2883 2883 2859 2859 2859 2859 2859 2859 2859 2859 2859 2883 2908 3208 3238 3208 3208 3238 3238 3238 3269 3300 3300 3333 3333 3333 3365 3433 3468 2812 2812 2835 2835 2835 2835 2835 2835 2835 2812 2812 2812 2835 2859 2859 2859 2859 2883 2883 2859 2859 2859 2859 2883 2883 2883 2883 5291 5291 5291 5291 5291 5291 5291 0 0 0 0 0 0 0 0 0 0 0 0 0
0 0 0 0 0 0 0 0 0 0 0 0 0 0 0 0 0 0 0 0 0 0 0 0 0 0 0 0 0 0 5933 5933 6038 6146 6146 6146 6146 6146 6146 6146 6146 6146 6259 6259 6259 6259 6259 6259 6259 6259 6259 6259 6259 6146 6038 6038 5933 5933 5933 5933 5933 5933 6038 6038 6146 6146 6259 6259 6259 6259 6259 6146 6146 6146 6146 6146 6146 6146 6259 6259 6259 6259 6259 6146 6146 6146 6146 6146 6146 6146 6259 6259 6375 6375 6375 6497 6497 6497 6375 6375 6375 6622 6622 6497 6497 6622 6497 6497 6497 6497 6497 6497 6375 6375 6375 6375 6375 6375 6375 6375 6259 6259 6259 6146 5933 5832 5640 5548 5548 5548 5548 5548 5548 5640 5640 2958 2958 2958 3010 3010 3010 3010 3010 3010 3010 3010 2984 2984 3010 3010 3010 3037 3037 3037 3037 3037 3037 3037 3064 2040 2040 2028 2028 2028 2028 2028 2028 2028 2028 2016 2016 2028 2028 2040 2040 2040 2040 2040 2040 2053 2053 2053 2053 2053 2053 2053 2065 2065 2065 2065 2065 2065 2065 2065 2065 2065 2078 2078 2078 2078 2078 2078 2078 2078 2078 2090 2090 2090 2090 2090 2090 2090 2090 2090 2103 2103 2103 2103 2103 2103 2103 2103 2103 2116 2116 2116 2116 2116 2116 2116 2116 2116 2116 2116 2116 2116 2116 2129 2129 2129 2129 2129 2129 2129 2116 2116 2116 2116 2116 0 0 0 0 0 0 3064 3064 0 0 0 0 0 0 0 0 0 0 0 0 0 0 6497 6497 6497 6622 6889 6889 0 0 0 0 0 0 0 0 0 0 0 0 0 6375 6375 6375 6375 6497 6497 6497 6622 0 0 0 0 0 0 0 0 0 2198 2170 2170 2184 2184 2184 2184 2184 2184 2198 2198 2198 2212 2212 2212 2212 2212 2212 2212 2212 2212 2198 2198 2198 2198 2198 2198 2198 2198 2212 2212 2212 2212 2212 2226 2226 2226 2226 2226 2226 2226 2226 2226 2226 2226 2226 2226 2226 2226 2226 2226 2226 2226 2226 2226 2226 2226 2226 2241 2241 2241 2241 2241 2241 2241 2241 2241 2241 2241 2241 2241 2256 2241 2241 2256 2256 2241 2241 2241 2241 2256 2241 2226 2226 2226 0 0 0 0 0 0 0 0 0 0 0 0 0 0 0 0 0 0 0 0 0 0 0 0 0 0 0 0 0 0 0 0 0 0 0 0 0 0 0 0 0 0 0 0 0 0 0 0 0 0 0 0 0 0 0 0 0 0 0 0 3178 3178 3178 3178 3178 3149 3149 5734 5640 5640 5640 3178 3178 3208 3238 3208 3208 3208 3238 3269 3269 3269 3269 3269 3269 3238 3208 3208 3208 3178 3178 3178 3178 3208 3208 3208 3238 3269 3269 3269 3269 3238 3238 3238 3178 3178 3178 3149 3149 3178 3178 3149 3149 3149 3178 3178 3178 3149 3149 3149 3149 3149 3149 3149 3149 3149 3149 3149 3149 3149 3149 3149 3149 3149 3149 3149 3149 3149 3149 3149 3149 3120 3120 3149 3149 3149 3149 3149 3149 3149 3149 3149 3149 3149 3149 3149 3120 3120 2958 2933 2908 2908 2883 2859 2859 2859 2859 2859 2859 2883 2883 2883 2883 2883 2883 2859 2859 2859 2883 2859 2859 2883 2883 2883 2908 2933 3238 3208 3208 3238 3238 3269 3269 3333 3365 3365 3399 3399 3433 3468 2835 2812 2812 2835 2835 2835 2835 2835 2835 2835 2812 2812 2812 2835 2859 2883 2859 2859 2883 2883 2883 2883 2859 2859 2883 2883 2883 0 5460 5374 5374 5291 5291 5291 5291 0 0 0 0 0 0 0 0 0 0 0 0 0
0 0 0 0 0 0 0 0 0 0 0 0 0 0 0 0 0 0 0 0 0 0 0 0 0 0 0 0 0 0 5933 5933 6038 6038 6146 6038 6038 6146 6146 6146 6146 6146 6259 6259 6259 6259 6259 6259 6259 6259 6259 6259 6259 6146 6038 6038 5933 5832 5832 5832 5933 5933 6038 6038 6146 6146 6259 6259 6259 6259 6259 6146 6038 6038 6038 6038 6038 6146 6259 6259 6375 6259 6259 6259 6146 6146 6038 6038 6146 6146 6259 6375 6497 6497 6497 6497 6497 6497 6375 6259 6259 6259 6753 0 0 0 0 0 6497 6497 6497 6497 6497 6375 6375 6497 6375 6375 6375 6375 6259 6259 2859 2859 2859 2859 2859 5548 5548 5548 5548 5548 5548 5640 5640 2984 2984 2984 2984 2984 2984 3010 3010 3010 3010 2984 2984 2984 3010 3010 3010 3037 3037 3037 3037 3037 3010 3010 3010 2040 2040 2028 2028 2028 2028 2028 2028 2028 2016 2016 2016 2028 2028 2028 2040 2040 2040 2040 2040 2053 2053 2053 2053 2053 2053 2065 2065 2065 2065 2065 2065 2065 2065 2065 2065 2065 2078 2078 2078 2078 2078 2078 2078 2078 2078 2078 2090 2090 2090 2090 2090 2090 2090 2090 2103 2103 2103 2103 2103 2116 2116 2103 2103 2116 2116 2116 2116 2116 2116 2116 2116 2116 2116 2116 2116 2116 2129 2129 2129 2129 2129 2129 2129 2129 2116 2116 2116 2116 0 0 0 0 0 3037 3037 3037 3037 3037 0 0 0 0 0 0 0 0 0 0 0 0 0 6497 6497 6497 6622 0 0 0 0 0 0 0 0 0 0 0 0 0 0 0 6375 6375 6375 6375 6497 6497 6497 6622 0 0 0 0 0 0 0 0 0 2198 2170 2170 2184 2184 2184 2184 2184 2184 2198 2198 2198 2212 2212 2212 2212 2212 2212 2212 2212 2212 2198 2198 2198 2198 2198 2198 2212 2212 2212 2212 2212 2212 2212 2226 2226 2226 2226 2226 2226 2226 2226 2226 2226 2226 2226 2226 2226 2226 2226 2226 2226 2226 2226 2226 2226 2226 2226 2241 2241 2241 2241 2241 2241 2241 2241 2241 2241 2241 2241 2241 2256 2256 2256 2256 2256 2241 2241 2256 2256 2256 2256 2256 2256 0 0 0 0 0 0 0 0 0 0 0 0 0 0 0 0 0 0 0 0 0 0 0 0 0 0 0 0 0 0 0 0 0 0 0 0 0 0 0 0 0 0 0 0 0 0 0 0 0 0 0 0 0 0 0 0 0 0 0 0 0 3178 3178 3178 3178 3178 3149 3149 3208 5640 5640 5548 5548 5460 5460 5460 5460 3238 3238 3269 3300 3300 3269 3269 3269 3269 3238 3208 3208 3208 3178 3149 3149 3149 3178 3208 3208 3238 3269 3269 3269 3269 3269 3269 3269 3208 3178 3178 3178 3178 3178 3178 3149 3149 3149 3178 3178 3178 3178 3178 3149 3149 3149 3149 3149 3149 3149 3149 3149 3149 3149 3149 3149 3149 3149 3149 3149 3149 3149 3149 3149 3120 3120 3120 3120 3120 3149 3149 3149 3149 3120 3120 3149 3149 3149 3149 3064 3064 3064 2958 2933 2908 2908 2883 2883 2883 2859 2859 2859 2859 2883 2883 2883 2883 2883 2883 2883 2883 2883 2883 2883 2883 2883 2883 2883 2908 2933 2933 2933 3238 3238 3238 3269 3333 3399 3433 3433 3468 3503 3503 3539 2835 2835 2835 2859 2835 2835 2835 2835 2835 2835 2812 2812 2835 2859 2908 2908 2883 2883 2883 2883 2859 2859 2859 2859 2859 2859 0 0 5460 5460 5374 5374 5374 5374 5374 0 0 0 0 0 0 0 0 0 0 0 0 0
0 0 0 0 0 0 0 0 0 0 0 0 0 0 0 0 0 0 0 0 0 0 0 0 0 0 0 0 0 0 5832 5832 5933 5933 6038 6038 6038 6038 6038 6038 6259 6259 6259 6259 6375 6375 6375 6259 6259 6259 6259 6259 6259 6146 6038 6038 5933 5832 5832 5832 5933 5933 6038 6146 6146 6146 6259 6259 6259 6259 6146 6038 6038 6038 6038 6038 6038 6146 6259 6259 6375 6375 6259 6146 6146 6038 6038 6038 6146 2744 2744 2744 2767 2767 2767 2767 6753 0 6753 6259 6259 6259 0 0 0 0 0 0 0 0 2883 2883 6622 6622 6622 6622 6497 6497 2859 2859 2835 2835 2835 2859 2859 2859 2859 2859 5548 5548 5548 5548 5548 2933 2984 2984 2984 2984 2984 2984 2984 2984 2984 2984 2984 2984 2984 2984 3010 3010 3010 3037 3037 3037 3037 3037 3010 3010 3010 2028 2028 2028 2028 2028 2028 2028 2028 2028 2016 2016 2028 2028 2028 2028 2040 2040 2040 2040 2040 2040 2053 2053 2053 2053 2053 2065 2065 2065 2065 2065 2065 2065 2065 2078 2065 2065 2078 2078 2078 2078 2078 2078 2078 2078 2078 2078 2090 2090 2090 2090 2090 2090 2090 2090 2103 2103 2103 2103 2103 2116 2116 2103 2103 2116 2116 2116 2116 2116 2116 2116 2116 2116 2116 2129 2129 2129 2129 2129 2129 2129 2129 2129 2129 2129 2116 2116 2116 2116 2116 0 3010 3010 3010 3037 3037 3037 3037 3010 3010 3010 0 0 0 0 0 0 0 0 0 0 0 0 0 0 0 0 0 0 0 0 0 0 0 0 0 0 0 0 0 0 6497 6375 6375 6497 6497 6497 6497 0 0 0 0 0 0 0 0 0 0 0 2184 2184 2184 2184 2184 2184 2198 2198 2198 2198 2212 2212 2212 2212 2212 2212 2212 2212 2212 2212 2198 2198 2198 2198 2198 2198 2212 2212 2212 2212 2212 2212 2212 2226 2226 2226 2226 2226 2226 2226 2226 2226 2226 2226 2226 2226 2226 2226 2226 2226 2226 2226 2226 2226 2226 2226 2241 2241 2226 2226 2241 2241 2241 2241 2241 2241 2241 2241 2241 2241 2256 2256 2256 2256 2256 2256 2256 2256 2256 2256 2256 2256 2256 0 0 0 0 0 0 0 0 0 0 0 0 0 0 0 0 0 0 0 0 0 0 0 0 0 0 0 0 0 0 0 0 0 0 0 0 0 0 0 0 0 0 0 0 0 0 0 0 0 0 0 0 0 0 0 0 0 0 0 0 0 0 3208 3208 3208 3208 3208 3208 3208 5548 5548 5548 5460 5460 5460 5460 5374 5374 5374 5460 4295 3333 3300 3300 4295 4295 4295 4295 4295 4295 3149 3120 3120 3120 3120 3120 3120 3238 3269 3300 3300 3300 3300 3300 3300 3238 3208 3208 3208 3208 3178 3178 3178 3149 3149 3149 3149 3149 3178 3178 3178 3149 3149 3149 3149 3149 3149 3149 3178 3178 3178 3178 3149 3149 3149 3149 3149 3149 3149 3149 3149 3120 3120 3120 3120 3120 3120 3149 3149 3149 3120 3120 3149 3149 3149 3092 3037 2984 2984 2958 2933 2908 2908 2883 2883 2883 2883 2859 2859 2883 2883 2883 2883 2883 2883 2883 2883 2883 2883 2883 2883 2883 2883 2883 2908 2908 2908 2908 2908 2883 3399 3399 3365 3365 3399 3433 3468 3468 3503 3539 2789 2789 2835 2835 2883 2835 2835 2835 2812 2812 2859 2859 2883 2883 2883 2908 2908 2883 2883 2883 2883 2859 2859 2859 2859 2859 2859 0 5374 5460 5460 5374 5374 5374 5374 5374 0 0 0 0 0 0 0 0 0 0 0 0 0
0 0 0 0 0 0 0 0 0 0 0 0 0 0 0 0 0 0 0 0 0 0 0 0 0 0 0 0 0 0 5734 5734 5640 5640 5933 5933 5933 5640 5640 5640 6259 6259 6259 6259 6259 6259 6259 6259 6259 6259 6259 6259 6259 6146 6146 6038 5933 5734 5734 5832 5832 5832 5933 6038 6146 6259 6259 6259 6259 6259 6146 6038 5832 5832 5832 5832 5933 6038 6146 6146 6259 6259 6259 6146 6146 6038 6038 6146 6146 2744 2744 2744 2767 2767 2767 0 0 0 0 0 0 0 0 0 0 0 0 2835 2883 2883 2883 2883 2883 6753 6753 2883 2883 2883 2859 2859 2835 2835 2835 2859 2859 2859 2859 2859 2883 2908 2958 2958 2958 2933 2933 2933 2933 2958 2984 2984 2984 2984 2984 2984 2984 2984 2984 2984 3010 3010 3010 3037 3037 3037 3037 3037 2958 2958 2958 2028 2028 2028 2028 2028 2028 2016 2016 2016 2016 2016 2016 2028 2028 2028 2028 2040 2040 2040 2040 2040 2053 2053 2053 2053 2053 2065 2065 2065 2065 2065 2065 2065 2078 2078 2078 2078 2078 2078 2078 2078 2078 2078 2078 2078 2078 2078 2090 2090 2090 2090 2090 2090 2090 2090 2103 2103 2116 2116 2116 2116 2116 2116 2116 2116 2116 2116 2116 2116 2116 2116 2116 2116 2116 2129 2129 2129 2129 2129 2129 2129 2129 2129 2129 2129 2116 2116 2116 2129 2129 0 3037 3010 3010 3037 3037 3037 3010 3010 2984 2984 2984 2958 2958 0 0 0 0 0 0 0 0 0 0 0 0 0 0 0 0 0 0 0 0 0 0 0 0 0 0 0 6497 6497 6497 6497 6497 6622 0 0 0 0 0 0 0 0 0 0 0 0 0 0 2184 2184 2184 2184 2198 2198 2198 2198 2198 2212 2212 2212 2212 2212 2212 2212 2212 2212 2198 2198 2198 2198 2198 2212 2212 2212 2212 2212 2212 2212 2212 2226 2226 2226 2226 2226 2226 2226 2226 2226 2226 2226 2226 2226 2226 2226 2226 2226 2226 2226 2226 2226 2226 2226 2226 2226 2226 2226 2226 2226 2241 2241 2226 2226 2241 2241 2241 2241 2256 2256 2256 2271 2256 2256 2256 2256 2256 2256 2256 2256 2271 0 0 0 0 0 0 0 0 0 0 0 0 0 0 0 0 0 0 0 0 0 0 0 0 0 0 0 0 0 0 0 0 0 0 0 0 0 0 0 0 0 0 0 0 0 0 0 0 0 0 0 0 0 0 0 0 0 0 0 0 0 0 0 3238 3238 3208 3208 3208 3238 3238 5548 5460 5460 5460 5460 5460 5374 5374 5374 5460 4295 4295 4295 4295 4241 4241 4241 4295 4295 4295 3149 3120 3064 3064 3064 3064 3064 3269 3269 3300 3300 3300 3300 3300 3300 3269 3269 3300 3503 3503 3178 3178 3178 3149 3149 3149 3149 3149 3178 3178 3178 3149 3149 3178 3178 3149 3149 3149 3178 3178 3178 3178 3178 3149 3149 3149 3149 3149 3149 3149 3149 3149 3149 3120 3120 3120 3120 3149 3120 3120 3120 3120 4842 4774 3149 3092 2984 2984 2958 2933 2933 2908 2908 2883 2883 2883 2883 2883 2883 2883 2883 2908 2883 2883 2883 2883 2883 2883 2883 2883 2883 2883 2883 2883 2908 2908 2908 2883 2883 2883 2883 2933 2933 3468 3468 3468 3468 3503 3503 2789 2789 2789 2835 2859 2883 2835 2835 2835 2812 2812 2812 2908 2883 2883 2883 2908 2908 2883 2883 2883 2883 2859 2859 2859 2859 2859 2859 0 5374 5374 5374 5374 5374 5374 5374 5374 0 0 0 0 0 0 0 0 0 0 0 0 0
0 0 0 0 0 0 0 0 0 0 0 0 0 0 0 0 0 0 0 0 0 0 0 0 0 0 0 0 0 0 5548 5548 5548 5548 5640 5734 5832 5640 5640 5640 0 5640 0 6259 6259 6259 6259 6259 6259 6259 6259 6259 6259 6259 6259 5640 5640 5640 5734 5832 5832 5832 5933 6038 6038 6146 6146 6259 6259 6259 0 0 5640 5640 5734 5832 5832 5933 6146 6146 6259 6259 6259 0 0 0 0 0 0 2744 2744 2744 2744 2767 2767 0 0 0 0 0 0 0 0 0 2859 2859 2835 2835 2883 2883 2883 2883 2883 2883 2883 2883 2883 2883 2883 2883 2883 2883 2883 2883 2859 2859 2859 2859 2883 2908 2933 2933 2933 2933 2933 2933 2933 2958 2958 2958 2958 2958 2958 2958 2984 2958 2958 2958 2984 2984 3010 3037 3037 3037 3037 3037 2958 2958 2958 2028 2028 2028 2028 2028 2028 2016 2016 2016 2016 2016 2016 2028 2028 2028 2028 2040 2040 2040 2040 2053 2053 2053 2053 2053 2065 2065 2065 2065 2065 2065 2065 2065 2078 2078 2078 2078 2078 2078 2078 2078 2078 2078 2078 2078 2078 2078 2090 2090 2090 2090 2090 2090 2090 2103 2103 2116 2116 2116 2116 2116 2116 2116 2116 2116 2116 2116 2116 2116 2116 2116 2116 2116 2116 2129 2129 2129 2129 2129 2129 2129 2129 2129 2129 2129 2116 2116 2129 2129 2143 2143 3037 3010 3010 3010 3010 3010 3010 2984 2958 2958 2958 2933 2933 2958 2958 2958 2958 0 0 0 0 0 0 0 0 0 0 0 0 0 0 0 0 0 0 0 0 0 0 0 0 0 0 0 0 0 0 0 0 0 0 0 0 0 0 0 0 0 0 0 2184 2184 2184 2198 2198 2198 2198 2198 2198 2212 2212 2212 2212 2212 2212 2212 2212 2212 2198 2198 2198 2198 2198 2212 2212 2212 2212 2212 2212 2212 2226 2226 2226 2226 2226 2226 2226 2226 2226 2226 2226 2226 2212 2212 2212 2212 2226 2226 2226 2226 2226 2226 2226 2226 2226 2226 2226 2226 2226 2226 2226 2226 2226 2226 2226 2226 2226 2226 2241 2241 2256 2256 2256 2256 2256 2256 2256 2271 2271 2271 2286 0 0 0 0 0 0 0 0 0 0 0 0 0 0 0 0 0 0 0 0 0 0 0 0 0 0 0 0 0 0 0 0 0 0 0 0 0 0 0 0 0 0 0 0 0 0 0 0 0 0 0 0 0 0 0 0 0 0 0 0 0 0 0 0 0 3208 3208 3208 3238 3238 5548 5460 5460 5460 5460 5460 5374 5374 5374 5460 4295 4295 4295 4241 4241 4241 4241 4295 4295 4295 4349 4349 3037 3037 3037 3037 3037 0 3300 3300 3300 3300 3333 3333 3300 3300 3503 3503 3503 3539 3539 3539 3539 3539 3576 3576 3576 3539 3539 3539 3576 3576 3576 3178 3178 3178 3178 3178 3178 3178 3178 3178 3178 3149 3149 3149 3149 3149 3149 3149 3064 3064 3149 3120 3120 3120 3120 3149 3120 3092 3092 4774 4842 4774 2958 2958 2958 2958 2958 2933 2908 2908 2908 2908 2883 2883 2883 2883 2883 2908 2908 2908 2908 2908 2908 2908 2908 2883 2883 2883 2883 2883 2883 2883 2883 2908 2883 2883 2883 2883 2908 2933 2933 3503 3503 3503 3503 3539 2789 2789 2789 2812 2835 2859 2883 2908 2859 2835 2812 2812 2812 2908 2908 2883 2883 2908 2908 2908 2883 2883 2883 2859 2859 2835 2835 2835 5548 5548 0 5374 5374 5374 5291 5291 5374 5374 0 0 0 0 0 0 0 0 0 0 0 0 0
0 0 0 0 0 0 0 0 0 0 0 0 0 0 0 0 0 0 0 0 0 0 0 0 0 0 0 0 0 0 5460 5460 5460 5548 5640 5640 5640 5640 5640 5640 0 0 0 0 6375 6259 6259 6375 6375 6375 6259 6259 6259 0 5832 5640 5640 5640 5734 5832 5832 5832 5933 5933 6038 6146 6146 6259 6259 6259 0 0 5640 5640 5640 5734 5832 5933 6146 6146 6622 0 0 0 0 0 0 0 0 2744 2744 2744 2744 2767 2767 2744 2744 2744 0 0 0 0 0 0 0 2859 2835 2835 2883 2883 2883 2883 2883 2883 2883 2883 2883 2883 2883 2883 2883 2883 2883 2908 2883 2883 2883 2883 2908 2933 2933 2933 2933 2933 2933 2958 2958 2958 2958 2933 2933 2933 2933 2933 2958 2933 2933 2933 2958 2958 3010 2984 2984 3010 3037 3037 3037 3037 0 2028 2028 2028 2028 2028 2028 2016 2016 2028 2016 2016 2016 2028 2028 2028 2028 2040 2040 2040 2040 2053 2053 2053 2053 2053 2065 2065 2065 2065 2065 2065 2078 2078 2078 2078 2078 2078 2078 2078 2078 2078 2078 2078 2078 2090 2078 2078 2090 2090 2090 2090 2090 2090 2090 2103 2103 2116 2116 2116 2116 2116 2116 2116 2116 2116 2116 2116 2116 2116 2116 2116 2129 2129 2129 2129 2129 2129 2129 2129 2129 2129 2129 2129 2129 2129 2116 2116 2129 2129 2143 2143 2958 2958 2984 2984 2984 2984 2958 2958 2958 2933 2933 2933 2933 2933 2933 2933 2933 2933 2933 0 0 0 0 0 0 0 0 0 0 0 0 0 0 0 0 0 0 0 0 0 0 0 0 0 0 0 0 0 0 0 0 0 0 0 0 0 0 0 0 0 2184 2184 2198 2198 2198 2198 2198 2198 2198 2198 2212 2212 2212 2212 2212 2212 2212 2212 2198 2198 2198 2198 2198 2212 2212 2212 2212 2212 2212 2212 2226 2226 2226 2226 2226 2226 2226 2226 2212 2212 2212 2212 2212 2212 2198 2198 2212 2226 2226 2241 2241 2241 2241 2241 2226 2226 2226 2226 2226 2212 2212 2212 2212 2212 2212 2212 2226 2226 2241 2241 2256 2256 2256 2256 2256 2256 2256 2271 2271 2286 2286 0 0 0 0 0 0 0 0 0 0 0 0 0 0 0 0 0 0 0 0 0 0 0 0 0 0 0 0 0 0 0 0 0 0 0 0 0 0 0 0 0 0 0 0 0 0 0 0 0 0 0 0 0 0 0 0 0 0 0 0 0 0 0 0 0 0 5640 3238 3238 5548 5548 5460 5460 5460 5460 5460 5374 5374 5374 5460 5460 4295 4295 4241 4241 4241 4241 4241 4295 4295 4295 4295 3010 3010 3010 3037 3037 0 0 3300 3300 3300 3333 3333 3365 3539 3539 3539 3539 3576 3576 3576 3576 3576 3576 3576 3576 3539 3539 3539 3576 3576 3576 3178 3149 3149 4708 4774 3208 3178 3178 3208 3178 3149 3149 3149 4983 3149 3092 3064 3037 3037 3037 3120 3120 3120 4983 4983 3120 3092 3092 4842 4911 4911 2933 2933 2933 2933 2933 2933 2908 2908 2908 2883 2883 2883 2883 2883 2883 2908 2908 2908 2908 2908 2908 2908 2908 2883 2883 2883 2883 2859 2859 2883 2883 2908 2883 2883 2883 2883 2908 2859 2859 2859 2835 2835 3539 3539 2789 2789 2812 2835 2835 2859 2883 2908 2859 2859 2859 3092 3064 2908 2908 2908 2908 2908 2908 2908 2883 2883 2883 2859 2859 2835 2835 2835 5548 5548 5460 5374 5374 5374 5291 5291 5374 5374 0 0 0 0 0 0 0 0 0 0 0 0 0
0 0 0 0 0 0 0 0 0 0 0 0 0 0 0 0 0 0 0 0 0 0 0 0 0 0 0 0 0 0 5460 5460 5460 5548 5640 5640 5640 5640 5640 5640 0 0 0 0 0 0 0 0 6375 6375 0 0 0 0 5832 5548 5548 5548 5640 5734 5832 5832 5933 5933 6038 6146 6146 0 0 0 0 0 0 5640 5640 5734 5832 5832 5832 5734 0 0 0 0 0 0 0 0 0 2744 2744 2744 2744 2744 2744 2744 2744 2744 0 0 0 0 0 0 2859 2859 2859 2859 2883 2883 2883 2883 2883 2883 2883 2883 2883 2883 2883 2883 2908 2908 2908 2908 2908 2908 2908 2908 2933 2933 2933 2933 2933 2958 2958 2958 2958 2958 2958 2933 2908 2883 2883 2883 2908 2859 2859 2883 2908 2908 2958 2984 2908 2908 2958 3037 3037 0 0 2028 2028 2028 2028 2028 2028 2016 2016 2028 2016 2016 2016 2028 2028 2028 2028 2040 2040 2040 2040 2053 2053 2053 2053 2053 2053 2053 2065 2065 2065 2065 2065 2078 2078 2078 2078 2078 2078 2078 2078 2078 2078 2078 2078 2090 2078 2078 2090 2090 2090 2090 2090 2090 2103 2103 2116 2116 2116 2116 2116 2116 2116 2116 2116 2116 2116 2116 2116 2116 2116 2116 2129 2129 2129 2129 2129 2129 2129 2129 2129 2129 2129 2129 2129 2129 2116 2116 2129 2129 2143 2143 2933 2933 2958 2958 2958 2933 2933 2933 2933 2933 2933 2933 2933 2933 2933 2933 2933 2933 2933 0 0 0 0 0 0 0 0 0 0 0 0 0 0 0 0 0 0 0 0 0 0 0 0 0 0 0 0 0 0 0 0 0 0 0 0 0 0 0 0 0 2184 2184 2198 2198 2198 2198 2198 2198 2198 2198 2212 2212 2212 2212 2212 2212 2212 2212 2198 2198 2212 2198 2198 2212 2212 2212 2212 2212 2212 2212 2226 2226 2226 2226 2226 2226 2212 2212 2212 2212 2212 2212 2212 2212 2198 2198 2212 2226 2226 2241 2241 2241 2241 2241 2241 2241 2226 2226 2226 2184 2184 2198 2198 2198 2184 2184 2226 2226 2241 2241 2256 2256 2256 2256 2256 2256 2256 2271 2271 2286 2286 0 0 0 0 0 0 0 0 0 0 0 0 0 0 0 0 0 0 0 0 0 0 0 0 0 0 0 0 0 0 0 0 0 0 0 0 0 0 0 0 0 0 0 0 0 0 0 0 0 0 0 0 0 0 0 0 0 0 0 0 0 0 0 0 0 0 5640 5548 5548 5548 5460 5460 5460 5460 5460 5460 5374 5374 5374 5460 5460 4241 4241 4241 4241 4241 4241 4241 4241 4241 4295 4295 3010 3010 3010 3037 0 0 0 0 0 0 3365 3365 3539 3539 3539 3576 3576 3576 3576 3576 3576 3576 3576 3576 3576 3539 3539 3539 3576 3614 4842 4842 3149 3149 4774 4774 4774 4774 4774 4842 4983 4983 4911 4911 4911 4911 3064 3037 3037 3037 3037 4983 4983 4983 4983 4983 4911 4842 4842 4842 4911 4911 2933 2933 2933 2933 2933 2933 2908 2908 2908 2883 2883 2883 2883 2908 2908 2908 2908 2908 2908 2908 2908 2908 2908 2908 2883 2883 2883 2859 2859 2883 2883 2908 2883 2883 2883 2883 2908 2859 2859 2859 2835 2835 2859 2835 2835 2835 2835 2835 2835 2859 2908 2908 2958 0 0 3092 3064 2933 2908 2908 2908 2908 2908 2908 2883 2883 2883 2859 2859 2859 2859 5548 5548 5460 5374 5374 5460 5460 5374 5374 5374 5374 0 0 0 0 0 0 0 0 0 0 0 0 0
0 0 0 0 0 0 0 0 0 0 0 0 0 0 0 0 0 0 0 0 0 0 0 0 0 0 0 0 0 0 5548 5548 5548 5548 5640 5640 5640 5640 5640 5640 0 0 0 0 0 0 0 0 0 0 0 0 0 0 0 5548 5548 5548 5640 5734 5832 5832 5832 5933 5933 6038 6038 0 0 0 0 0 0 0 0 5832 5832 5832 5734 5734 5734 0 0 0 0 0 0 0 0 0 2767 2767 2744 2744 2744 2744 2744 2744 0 0 0 0 2859 2859 2859 2859 2859 2859 2883 2883 2883 2883 2883 2883 2883 2883 2883 2883 2883 2883 2908 2908 2908 2908 2908 2908 2908 2908 2908 2933 2933 2933 2933 2958 2958 2958 2958 2958 2933 2908 2883 2859 2835 2835 2812 2812 2835 2835 2859 2883 2958 3037 2908 2908 2958 2958 2958 0 2028 2028 2016 2016 2016 2016 2028 2028 2028 2028 2028 2028 2028 2028 2028 2028 2040 2040 2040 2040 2040 2053 2053 2053 2053 2053 2053 2053 2065 2065 2065 2065 2065 2065 2078 2078 2078 2078 2078 2078 2078 2078 2078 2090 2090 2090 2078 2078 2090 2090 2090 2090 2090 2090 2103 2103 2116 2116 2116 2116 2116 2116 2116 2116 2116 2116 2116 2116 2116 2116 2116 2116 2129 2129 2129 2129 2129 2129 2129 2129 2129 2129 2129 2129 2129 2129 2129 2129 2129 2129 2143 2143 2933 2933 2933 2933 2933 2933 2933 2933 2933 2933 2933 2933 2933 2933 2933 2933 2933 2933 2933 2984 0 0 0 0 0 0 0 0 0 0 0 0 0 0 0 0 0 0 0 0 0 0 0 0 0 0 0 0 0 0 0 0 0 0 0 0 0 0 0 2286 2226 2212 2212 2198 2198 2212 2198 2198 2198 2198 2212 2212 2212 2212 2212 2212 2212 2212 2198 2198 2212 2212 2212 2212 2212 2212 2212 2212 2212 2212 2212 2212 2212 2212 2212 2226 2212 2212 2212 5210 2212 2212 5132 5132 5132 5132 5132 5132 5056 2256 2256 2256 2256 2256 2256 4911 4983 4983 4911 2184 2184 2198 2198 2198 2184 2184 2184 2241 2241 2241 2256 2256 2256 2256 2256 2271 2271 2271 2271 2286 2286 0 0 0 0 0 0 0 0 0 0 0 0 0 0 0 0 0 0 0 0 0 0 0 0 0 0 0 0 0 0 0 0 0 0 0 0 0 0 0 0 0 0 0 0 0 0 0 0 0 0 0 0 0 0 0 0 0 0 0 0 0 0 0 0 0 0 5640 5640 5640 5548 5460 5460 5460 5460 5460 5460 5374 5374 5374 5374 5460 4241 4241 4241 4241 4241 4241 4241 4241 4241 4295 4295 3010 3010 3010 3037 0 0 0 0 0 0 3539 3539 3576 3576 3576 3576 3576 3576 3576 3576 3576 3576 3576 3576 3576 3576 3576 3576 3614 3614 3653 4774 4774 4774 4774 4774 4774 4842 4842 4842 4911 4911 4842 4842 4842 4842 3064 3037 3037 4911 4983 4983 2933 2933 4983 4983 4911 4911 4911 4911 4911 4983 2933 2933 2908 2908 2933 2933 2908 2908 2908 2883 2883 2883 2883 2908 2908 2908 2908 2908 2908 2908 2908 2908 2908 2908 2908 2908 0 2883 2883 2883 2908 2908 2883 2883 2883 2883 2883 2859 2859 2859 2859 2859 2859 2835 2835 2835 2835 0 0 0 0 3010 3010 0 0 3064 3064 2933 2933 2908 2908 2908 2908 2908 2908 2883 2883 2859 2859 2859 5548 5548 5548 5460 5374 5374 5374 5374 5374 5374 5374 5374 0 0 0 0 0 0 0 0 0 0 0 0 0
0 0 0 0 0 0 0 0 0 0 0 0 0 0 0 0 0 0 0 0 0 0 0 0 0 0 0 0 0 0 5548 5548 5548 5640 5640 5640 5640 5832 5640 5640 0 0 0 0 0 0 0 0 0 0 0 0 0 0 0 5548 5548 5640 5734 5734 5832 5832 5832 5933 5933 5933 6038 0 0 0 0 0 0 0 0 5640 5640 5734 5734 5734 0 0 0 0 0 0 0 0 0 0 2767 2767 2767 2767 2767 2767 2744 2744 2767 2767 0 2812 2812 2812 2859 2859 2859 2859 2859 2859 2859 2859 2883 2883 2883 2883 2883 2883 2883 2883 2883 2883 2908 2908 2908 2908 2908 2908 2908 2908 2933 2933 2933 2933 2933 2933 2933 2933 2908 2859 2859 2835 2812 2812 2789 2789 2812 2812 2812 2835 2835 2859 2883 2883 0 2883 0 0 2016 2016 2016 2016 2016 2016 2028 2028 2028 2028 2028 2028 2028 2028 2028 2040 2040 2040 2040 2053 2053 2053 2053 2053 2053 2053 2053 2053 2065 2065 2065 2065 2065 2065 2078 2078 2078 2078 2078 2078 2078 2078 2078 2090 2090 2090 2078 2078 2078 2090 2090 2090 2090 2090 2090 2103 2103 2103 2103 2116 2116 2116 2103 2103 2116 2116 2116 2116 2116 2116 2116 2116 2129 2129 2129 2129 2129 2129 2129 2129 2129 2129 2129 2129 2129 2129 2116 2116 2129 2129 2129 2129 2933 2933 2933 2933 2933 2908 2908 2908 2908 2908 2908 2908 2933 2933 2933 2933 2933 2933 2933 2984 0 0 0 0 0 0 0 0 0 0 0 0 0 0 0 0 0 0 0 0 0 0 0 0 0 0 0 0 0 0 0 0 6497 6497 6497 6497 6497 6497 0 2286 2226 2198 2198 2198 2198 2198 2198 2198 2212 2212 2226 2226 2212 2212 2212 2198 2198 2212 2198 2198 2212 2212 2212 2212 2212 2212 2212 2212 2212 2212 2212 2212 2212 2212 2212 5291 5210 5210 5210 5210 5132 5132 5132 5132 5132 5132 5056 5056 5056 4983 2256 2256 2256 4911 4983 4983 4983 4983 4911 4911 4842 4774 4774 4774 4842 4842 4842 4911 2271 2271 2271 2271 2271 2271 2271 2271 2271 2271 2271 2286 2286 0 0 0 0 0 0 0 0 0 0 0 0 0 0 0 0 0 0 0 0 0 0 0 0 0 0 0 0 0 0 0 0 0 0 0 0 0 0 0 0 0 0 0 0 0 0 0 0 0 0 0 0 0 0 0 0 0 0 0 0 0 0 0 0 0 0 0 5640 5640 5640 5548 5460 5460 5460 5460 5460 5460 5374 5374 5374 5460 4241 4241 4241 4241 4241 4241 4241 4241 4190 4190 4190 4190 4139 4089 0 0 0 0 0 0 0 3614 3614 3614 3614 3614 3614 3576 3576 3576 3576 3576 3576 3576 3614 3614 3576 3576 3576 3614 3653 3653 4774 4774 4774 4774 4774 4842 4842 4842 4842 4842 4911 4842 4842 4842 4842 4842 4911 4911 4911 4983 2958 2933 2933 4983 4983 4911 4911 4911 4911 4983 4983 4983 2908 2908 2908 2908 2908 2908 2908 2908 2883 2883 2883 2883 2908 2908 2908 2933 2933 2933 2933 2933 2908 2908 2933 2908 2908 0 2908 0 2908 2908 2908 2883 2883 2883 2883 2883 2859 2859 2859 2859 2859 2859 2859 2859 2859 0 0 0 0 0 0 0 0 0 3064 3064 2908 2908 2908 2908 2908 2908 2908 2908 2908 2908 2908 2908 5374 5374 5374 5374 5460 5374 5374 5374 5374 5374 5374 5374 5374 0 0 0 0 0 0 0 0 0 0 0 0 0
0 0 0 0 0 0 0 0 0 0 0 0 0 0 0 0 0 0 0 0 0 0 0 0 0 0 0 0 0 0 5640 5640 5640 5640 5640 5640 5640 5832 5832 0 0 0 0 0 0 0 0 0 0 0 0 0 0 0 5832 5640 5640 5734 5734 5832 5832 5832 5832 5832 5933 5933 0 0 0 0 0 0 0 0 0 5640 5640 5734 5734 5734 0 0 0 0 0 0 0 0 0 0 0 2767 2767 2767 2767 2767 2767 2767 2767 2767 2767 2789 2789 2812 2859 2859 2859 2859 2859 2859 2859 2859 2859 2859 2883 2883 2883 2883 2883 2883 2883 2883 2883 2883 2883 2883 2883 2883 2883 2883 2908 2908 2908 2933 2933 2933 2908 2908 2883 2835 2812 2812 2812 2812 2789 2789 2789 2789 2812 2835 2859 2859 2883 2883 2883 0 2812 2812 2016 2016 2016 2016 2028 2028 2028 2028 2028 2028 2028 2028 2028 2028 2028 2040 2040 2040 2040 2053 2053 2053 2053 2053 2053 2053 2053 2065 2065 2065 2065 2065 2065 2078 2078 2078 2078 2078 2078 2078 2078 2078 2078 2090 2090 2090 2078 2078 2078 2078 2090 2090 2090 2090 2090 2103 2103 2103 2103 2116 2116 2116 2103 2103 2116 2116 2116 2116 2116 2116 2116 2116 2129 2129 2129 2129 2129 2129 2129 2129 2129 2129 2129 2129 2129 2129 2116 2116 2129 2129 2129 2129 2908 2908 2908 2908 2908 2908 2908 2908 2908 2908 2908 2908 2933 2933 2933 2933 2933 2933 2958 0 0 0 0 0 0 6497 6497 6497 6497 6497 6497 6497 0 0 0 0 0 0 0 0 0 0 0 0 6375 6375 0 0 0 0 0 0 6497 6497 6497 6497 6497 6497 0 2184 2184 2184 2184 2184 2184 2198 2198 2198 2198 2198 2226 2226 2212 2212 2226 2198 2198 2212 0 0 0 0 0 0 0 5210 5210 5132 5132 5210 5291 5291 5291 5291 5291 5210 5210 5132 5132 5132 5056 5056 5132 5132 5132 5132 5056 5056 5056 5056 5056 4983 4911 4911 4983 4983 4983 4983 4911 4911 4842 4774 4774 4842 4842 4842 4911 4911 4911 2271 2271 2271 2271 2271 2271 2271 2271 2271 2271 2271 2271 2271 0 0 0 0 0 0 0 0 0 0 0 0 0 0 0 0 0 0 0 0 0 0 0 0 0 0 0 0 0 0 0 0 0 0 0 0 0 0 0 0 0 0 0 0 0 0 0 0 0 0 0 0 0 0 0 0 0 0 0 0 0 0 0 0 0 0 0 5734 5734 5734 5548 5460 5460 5460 5460 5460 5374 5374 4241 4241 4241 4241 4241 4241 4241 4241 4241 4190 4139 4139 4139 4139 0 0 0 0 0 0 0 0 0 3653 3653 3614 3614 3614 3614 3614 3576 3576 3576 3576 3576 3576 3614 3614 3614 3614 3653 3692 3692 3692 4842 4774 4774 4774 4774 4842 4842 4774 4774 4842 4842 4842 4842 4842 4842 4842 4911 4911 4911 2958 2958 2933 2933 3816 3859 3859 3859 4911 4911 4911 3692 2908 2908 2908 2908 2908 2908 2908 2908 2908 2908 2908 2908 2908 2908 2908 2908 2933 2933 2933 2933 2933 2933 2933 2958 2958 0 0 0 0 2933 2908 2908 2883 2883 2883 2883 2883 2859 2859 2859 2859 2859 2883 2859 2859 2859 0 0 0 0 0 0 0 0 0 0 0 2908 2908 2908 2908 2908 2908 2908 2908 2908 2908 2908 5374 5374 5291 5291 5374 5374 5374 5374 5460 5460 5374 5374 5374 5374 0 0 0 0 0 0 0 0 0 0 0 0 0
0 0 0 0 0 0 0 0 0 0 0 0 0 0 0 0 0 0 0 0 0 0 0 0 0 0 0 0 0 0 5548 5548 5548 5548 5548 5548 5548 5933 5640 5640 0 0 0 0 0 0 0 0 0 0 0 0 0 0 5832 5640 5640 5734 5832 5832 5832 5832 5832 5832 5933 5933 5933 0 0 0 0 0 0 5734 5734 5734 5734 5734 5734 5640 5640 5640 5640 5640 0 0 0 0 0 0 0 2789 2789 2789 2789 2767 2767 2767 2744 2744 2744 2744 2767 2767 2835 2835 2835 2859 2859 2859 2835 2835 2859 2859 2859 2859 2859 2883 2883 2883 2883 2883 2883 2883 2883 2883 2883 2883 2883 2883 2883 2908 2908 2933 2933 2908 2883 2859 2835 2835 2812 2812 2789 2789 2789 2789 2789 2789 2812 2835 2859 2859 2859 2859 2859 2812 2812 2812 2812 2016 2016 2016 2028 2028 2028 2028 2028 2028 2028 2028 2028 2028 2028 2040 2040 2040 2040 2053 2053 2053 2053 2053 2053 2065 2065 2065 2065 2065 2065 2065 2065 2065 2065 2065 2065 2078 2078 2078 2078 2090 2090 2090 2090 2090 2078 2078 2078 2078 2078 2078 2090 2090 2103 2103 2103 2103 2103 2116 2116 2116 2103 2103 2116 2116 2129 2116 2116 2116 2116 2129 2129 2129 2129 2129 2129 2129 2129 2129 2129 2129 2129 2129 2129 2129 2116 2116 2129 2129 2129 2129 2859 2883 2908 2908 2908 2908 2908 2908 2908 2908 2908 2908 2933 2933 2933 2933 2933 2933 2958 0 0 0 0 0 0 6497 6497 6497 6497 6497 6497 6497 0 0 0 0 0 0 0 0 0 0 0 6259 6259 6375 6375 6375 6375 6497 6497 6497 6497 6497 6497 6497 6497 6497 6497 2184 2184 2184 2184 2184 2184 2198 2198 2198 2198 2198 2212 2226 2226 2226 0 0 0 0 0 0 0 0 0 0 0 5210 5210 5132 5132 5210 5210 5291 5291 5291 5291 5210 5132 5132 5132 5132 5056 5056 5132 5132 5132 5132 5056 5056 5056 5056 5056 4983 4983 4983 4983 4983 4983 5056 5056 5056 4983 4842 4842 4842 4842 4842 4842 4911 4911 2286 2286 2271 2271 2271 2271 2271 2271 2271 2271 2271 2271 2271 0 0 0 0 0 0 0 0 0 0 0 0 0 0 0 0 0 0 0 0 0 0 0 0 0 0 0 0 0 0 0 0 0 0 0 0 0 0 0 0 0 0 0 0 0 0 0 0 0 0 0 0 0 0 0 0 0 0 0 0 0 0 0 0 0 4041 4041 4041 4041 4041 5832 5460 5460 3994 3994 3948 3948 3994 3994 4089 4139 4139 4241 4241 4241 4241 4190 4139 4139 4139 4139 4139 0 4089 0 0 0 0 0 0 0 3692 3692 3614 3614 3614 3614 3614 3576 3576 3576 3576 3576 3576 3614 3614 3614 3614 3653 3692 3692 3692 3732 3732 4774 4774 4774 4842 4774 4774 4774 4842 4842 4842 4842 4842 4911 4911 4983 3774 3774 2958 2958 3774 3816 3816 3816 3816 3774 3732 3692 3692 3692 3692 2908 2908 2908 2933 2908 2908 2908 2908 2908 2908 2908 2908 2908 2908 2908 2933 2933 2933 2933 2933 2933 2933 2958 2958 0 0 0 0 0 2933 2908 2908 2883 2883 2883 2883 2859 2859 2859 2859 2859 2883 2859 2859 0 0 0 0 0 0 0 0 0 0 0 0 2908 2908 2908 2908 2908 2908 2933 2933 2908 2908 2908 2908 5291 5291 5291 5374 5374 5374 5374 5374 5374 5374 5374 5374 5374 0 0 0 0 0 0 0 0 0 0 0 0 0
0 0 0 0 0 0 0 0 0 0 0 0 0 0 0 0 0 0 0 0 0 0 0 0 0 0 0 0 0 0 5548 5548 5548 5548 5548 5548 5548 5734 5640 5640 0 0 0 0 0 0 0 0 0 0 0 0 0 5734 5734 5640 5640 5734 5734 5734 5734 5734 5832 5832 5933 5933 5933 0 0 0 0 0 0 5734 5734 5734 5734 5734 5640 5640 5640 5640 5640 5640 0 0 0 0 0 0 0 2789 2789 2789 2789 2767 2744 2744 2723 2723 2723 2723 2723 2723 2767 2767 2812 2812 2835 2835 2812 2812 2835 2859 2859 2835 2835 2859 2859 2859 2859 2859 2859 2859 2859 2859 2859 2835 2812 2812 2835 2859 2859 2859 2789 2789 2835 2835 2812 2812 2789 2789 2789 2789 2789 2789 2789 2789 2812 2835 2859 2859 2859 2859 2859 2812 2812 2812 2812 2005 2005 2005 2016 2016 2028 2028 2028 2028 2028 2028 2028 2028 2028 2040 2040 2040 2040 2053 2053 2053 2053 2053 2053 2065 2065 2065 2065 2065 2065 2053 2053 2065 2065 2065 2065 2078 2078 2078 2078 2090 2090 2090 2090 2090 2065 2065 2078 2078 2078 2078 2090 2090 2103 2116 2116 2116 2116 2129 2129 2116 2116 2116 2129 2129 2129 2129 2129 2859 2859 2859 2129 2129 2129 2129 2143 2129 2129 2129 2143 2129 2129 2129 2129 2129 2116 2116 2129 2129 2129 2129 2835 2859 2883 2883 2883 2908 2908 2908 2908 2908 2908 2908 2933 2933 2933 2933 2933 2958 2984 0 0 0 0 0 6259 6259 6375 6375 6375 6375 0 0 0 0 0 0 0 0 0 6375 6259 6259 6146 6146 6259 6259 6259 6375 6375 6375 6497 6497 6497 6497 6622 6622 6622 6622 2184 2184 2184 2184 2184 2184 2184 2198 2198 2198 2198 2212 2212 2241 2241 0 0 0 0 0 0 0 0 0 0 0 0 5210 5210 5132 5132 5210 5210 5210 5210 5210 5210 5210 5132 5132 5132 5132 5056 5056 5132 5132 5132 5056 5056 5056 5056 5056 5056 4983 4983 4983 4983 4983 4983 4983 4983 4983 4911 4842 4842 4911 4842 4842 4842 4842 2286 2286 2286 2271 2271 2271 2271 2271 2271 2271 2271 2271 2256 2256 0 0 0 0 0 0 0 0 0 0 0 0 0 0 0 0 0 0 0 0 0 0 0 0 0 0 0 0 0 0 0 0 0 0 0 0 0 0 0 0 0 0 0 0 0 0 0 0 0 0 0 0 0 0 0 0 0 0 0 0 0 0 0 0 4041 4041 4041 4041 4041 4041 4041 4041 3994 3994 3948 3948 3948 3994 3994 4089 4139 4139 4295 4241 4241 4241 4190 4139 4139 4139 4139 4139 4089 4089 0 0 0 0 0 0 0 3692 3692 3653 3614 3614 3614 3614 3614 3614 3576 3576 3576 3576 3576 3614 3614 3614 3653 3692 3692 3692 3692 3692 4774 4774 4774 4842 4774 4774 4774 4774 4842 4774 4774 4774 4911 4911 4983 2883 2883 3774 3774 3774 3774 3816 3816 3774 3732 3732 3692 3692 3692 3692 2908 2908 2908 2933 2908 2908 2908 2908 2908 2908 2908 2908 2908 2933 2933 2933 2908 2908 2933 2933 2933 2933 2958 0 0 0 0 0 0 0 2908 2908 2883 2883 2883 2883 2883 2859 2859 2859 2859 2883 2883 0 0 0 0 0 0 0 0 0 0 0 0 2958 2908 2908 2908 2908 2908 2908 2933 2933 2933 2933 2933 0 5291 5291 5291 5374 5374 5374 5374 5374 5374 5374 5374 5291 5291 0 0 0 0 0 0 0 0 0 0 0 0 0
0 0 0 0 0 0 0 0 0 0 0 0 0 0 0 0 0 0 0 0 0 0 0 0 0 0 0 0 0 0 5734 5734 5640 5640 5640 5548 5548 5734 5640 5548 5460 5460 5460 5548 0 0 0 0 0 0 0 0 0 5734 5734 5640 5640 5734 5734 5734 5734 5734 5832 5832 5933 0 0 0 0 0 0 0 0 5832 5832 5832 5640 5640 5640 5640 5640 5640 5640 5460 5460 5460 0 0 0 0 0 0 2789 2789 2789 2767 2744 2744 2723 2723 2723 2723 2723 2723 2723 2701 2701 2744 2744 2723 2723 2723 2744 2835 2701 2701 2701 2701 2767 2767 2812 2835 2835 2789 2789 2789 2789 2789 2789 2789 2789 2789 2789 2789 2789 2789 2789 2789 2789 2789 2789 2789 2789 2789 2789 2789 2789 2812 2812 2835 2859 2859 2859 2859 2835 2812 2812 2812 2812 1993 1993 1993 2016 2016 2016 2028 2028 2028 2028 2028 2028 2028 2028 2040 2040 2040 2040 2040 2040 2053 2053 2053 2065 2065 2065 2065 2065 2065 2053 2053 2053 2065 2065 2065 2065 2078 2078 2078 2078 2090 2090 2090 2090 2090 2065 2065 2065 2078 2078 2078 2078 2090 2103 2090 2090 2116 2116 2129 2129 2129 2129 2143 2859 2859 2143 2143 2859 2859 2859 2859 2859 2883 2129 2129 2156 2143 2143 2143 2143 2143 2129 2129 2129 2129 2116 2116 2129 2129 2129 2129 2812 2835 2859 2883 2883 2908 2908 2908 2908 2908 2908 2908 2933 2933 2933 2933 2933 2958 2984 0 0 0 0 0 6259 6259 6375 6375 6375 6375 0 0 0 0 0 0 0 6259 6259 6259 6259 6259 6146 6146 6259 6259 6259 6259 6375 6375 6497 6497 6497 6497 6497 6497 6497 0 0 2184 2184 2170 2170 2184 2184 2198 2198 2212 2212 2226 2226 2241 2241 0 0 0 0 0 0 0 0 0 0 0 0 5132 5132 5132 5132 5210 5210 5210 5210 5210 5210 5210 5132 5132 5132 5132 5132 5132 5132 5132 5132 5056 4983 4983 5056 5056 5056 4983 4983 4983 4983 4983 4983 4983 4983 4983 4911 4911 4911 4911 4911 4842 4842 4842 2286 2286 2286 2271 2271 2271 2271 2271 2271 2271 2271 2271 2256 2256 0 0 0 0 0 0 0 0 0 0 0 0 0 0 0 0 0 0 0 0 0 0 0 0 0 0 0 0 0 0 0 0 0 0 0 0 0 0 0 0 0 0 0 0 0 0 0 0 0 0 0 0 0 0 0 0 0 0 0 0 0 0 4089 4089 4041 4041 4041 4041 4041 4041 4041 3994 3994 3994 3948 3948 3948 3994 3994 4041 4139 4241 4241 4241 4241 4190 4190 4089 4089 4089 4089 4041 4041 3994 3994 3994 3994 3994 3948 3903 3774 3732 3732 3653 3614 3614 3614 3614 3614 3614 3576 3576 3576 3576 3576 3614 3614 3614 3653 3692 3692 3692 3692 3692 4774 4774 4774 4842 4774 4774 4774 4774 4842 4774 4774 4774 4842 4842 4842 2859 2859 3774 3774 3774 3774 3774 3816 3774 3732 3692 3692 3692 3692 3692 2908 2883 2883 2908 2908 2908 2908 2908 2908 2908 2908 2908 2908 2933 2933 2933 2908 2908 2933 2933 2933 2933 2958 0 0 0 0 0 0 0 2933 2908 2908 2908 2908 2908 2883 2859 2859 2859 2859 2883 2883 0 0 0 0 0 0 0 0 0 0 0 0 2958 2908 2908 2908 2908 2908 2908 2933 2933 2933 2933 2933 0 5291 5291 5291 5374 5374 5374 5374 5374 5374 5374 5374 5291 5291 0 0 0 0 0 0 0 0 0 0 0 0 0
0 0 0 0 0 0 0 0 0 0 0 0 0 0 0 0 0 0 0 0 0 0 0 0 0 0 0 0 0 0 0 0 0 0 0 0 0 0 5640 5548 5460 5460 5460 5548 0 0 0 0 0 0 0 0 0 5548 5548 5548 5548 5640 5640 5640 5734 5734 5832 5832 5933 0 0 0 0 0 0 0 0 5460 5460 5640 5640 5640 5548 5548 5548 5640 5640 5460 5460 5460 0 0 0 0 0 0 0 2744 2744 2744 2723 2723 2723 2701 2701 2701 2701 2701 2701 2701 2701 2701 2701 2701 2701 2701 2701 2701 2701 2701 2701 2701 2701 2723 2723 2744 2744 2744 2744 2767 2744 2744 2767 2767 2767 2767 2767 2767 2767 2767 2767 2767 2767 2789 2789 2789 2789 2789 2789 2789 2789 2789 2812 2835 2859 2859 2859 2859 2835 2835 2835 2812 2812 1993 1981 1981 2005 2016 2016 2028 2028 2028 2028 2028 2028 2040 2040 2040 2040 2040 2040 2040 2040 2053 2053 2053 2065 2065 2065 2065 2065 2065 2053 2053 2040 2040 2053 2053 2053 2065 2065 2078 2078 2835 2859 2859 2859 2859 2065 2065 2065 2078 2078 2078 2078 2090 2103 2090 2090 2129 2129 2143 2859 2883 2859 2859 2859 2859 2859 2859 2859 2859 2859 2859 2859 2883 2859 2859 2883 2883 2156 2156 2143 2143 2143 2129 2129 2129 2129 2129 2129 2129 2129 2129 2812 2835 2859 2883 2883 2908 2908 2908 2908 2908 2908 2933 2933 2933 2933 2933 2958 2958 3010 0 5933 5933 5933 0 6259 6259 6375 6375 6375 0 0 0 0 0 0 0 0 6259 6259 6259 6146 6146 6038 6038 6146 6146 6146 6146 6259 6497 6497 6497 6497 6497 6497 6497 6497 0 0 2170 2170 2170 2170 2184 2184 2198 2198 2212 2212 2226 2226 2241 2241 0 0 0 0 0 0 0 0 0 0 0 0 5132 5132 5132 5132 5210 5210 5210 5210 5210 5210 5132 5132 5132 5132 5132 5132 5132 5132 5132 5132 5056 4983 4983 5056 5056 5056 4983 4983 4983 5056 4983 4983 4983 4983 4983 4911 4911 4911 4911 4911 4911 4911 4911 2286 2286 2286 2271 2271 2271 2271 2271 2271 2271 2271 2271 2271 0 0 0 0 0 0 0 0 0 0 0 0 0 0 0 0 0 0 0 0 0 0 0 0 0 0 0 0 0 0 0 0 0 0 0 0 0 0 0 0 0 0 0 0 0 0 0 0 0 0 0 0 0 0 0 0 0 0 0 0 0 0 0 4089 4089 4041 3994 3994 3994 3994 3994 3994 3994 3994 3948 3948 3948 3948 3994 3994 4041 4041 4241 4241 4241 4190 4190 4139 4089 4089 4041 4041 4041 3994 3994 3994 3994 3994 3994 3948 3903 3774 3732 3732 3653 3614 3614 3614 3614 3614 3614 3576 3576 3576 3576 3576 3614 3614 3614 3653 3692 3692 3692 3732 4774 4774 4774 4774 4774 4774 4774 4774 4842 4842 4842 4842 4842 4842 4842 4842 2859 2859 3774 3816 3774 3774 3774 3774 3732 3692 3692 3692 3692 3692 3732 2908 2883 2883 2908 2908 2908 2908 2908 2908 2908 2933 2933 2933 2933 2933 2933 2933 2933 2933 2933 2933 2933 2958 0 0 0 0 0 0 0 2933 2908 2908 2908 2883 2883 2883 2883 2883 2883 2883 2883 2883 0 0 0 0 0 0 0 0 0 0 0 0 2908 2908 2908 2933 2933 2933 2933 2933 2933 2933 2933 2933 0 5291 5291 5291 5291 5291 5291 5291 5291 5291 5374 5291 5291 5291 0 0 0 0 0 0 0 0 0 0 0 0 0
0 0 0 0 0 0 0 0 0 0 0 0 0 0 0 0 0 0 0 0 0 0 0 0 0 0 0 0 0 0 0 0 0 0 0 0 0 0 0 0 5460 5460 5548 5548 5640 5832 0 0 0 0 0 0 0 5460 5460 5548 5548 5640 5548 5548 5640 5734 5832 5832 0 0 0 0 0 0 0 5640 5640 5460 5460 5548 5640 5640 5548 5548 5548 5548 5548 5548 5460 5460 0 0 0 0 0 0 0 0 2744 2744 2723 2723 2723 2701 2701 2701 2701 2701 2701 2701 2701 2701 2701 2701 2701 2701 2680 2680 2680 2701 2701 2701 2701 2701 2723 2723 2723 2723 2723 2744 2723 2723 2723 2744 2744 2744 2744 2744 2744 2744 2767 2767 2767 2767 2789 2789 2789 2789 2789 2789 2789 2789 2812 2835 2859 2859 2859 2859 2835 2835 2835 2812 2812 2812 1981 1981 2005 2016 2016 2028 2028 2028 2028 2028 2028 2040 2040 2040 2028 2028 2028 2040 2040 2053 2053 2812 2078 2078 2078 2090 2090 2812 2812 2812 2040 2040 2040 2040 2053 2065 2065 2835 2835 2835 2859 2859 2859 2859 2908 2908 2908 2933 2933 2933 2958 2958 2103 2103 2103 2933 2859 2859 2859 2883 2859 2859 2859 2859 2859 2859 2859 2859 2859 2859 2859 2883 2859 2859 2883 2859 2859 2859 2143 2143 2143 2129 2129 2129 2129 2129 2129 2129 2129 2129 2835 2835 2859 2883 2883 2908 2908 2933 2933 2933 2933 2933 2933 2933 2933 2933 2958 3010 3010 0 5933 5933 5933 6038 6146 6259 6375 6375 6259 6259 0 0 0 0 0 0 0 0 6038 6038 6038 6038 6038 6038 6146 6146 6146 6146 6259 6375 6375 6497 6497 6497 6497 6497 0 0 0 0 2170 2170 2170 2184 2184 2198 2198 2212 2212 2226 2226 2241 2241 0 0 0 0 0 0 0 0 0 0 0 0 5210 5210 5210 5210 5210 5210 5210 5210 5210 5132 5132 5132 5132 5132 5132 5132 5132 5132 5132 5132 5056 4983 4983 5056 5056 5056 5056 4983 4983 5056 4983 4983 4983 4983 4983 4911 4911 4911 4911 4911 4911 4911 4911 2301 2301 2286 2271 2271 2271 2271 2271 2271 2256 2256 2256 2256 0 0 0 0 0 0 0 0 0 0 0 0 0 0 0 0 0 0 0 0 0 0 0 0 0 0 0 0 0 0 0 0 0 0 0 0 0 0 0 0 0 0 0 0 0 0 0 0 0 0 0 0 0 0 0 0 0 0 0 0 0 0 0 4089 4089 4041 3994 3994 3994 3994 3994 3994 3994 3994 3948 3948 3948 3948 3994 3994 4041 4041 4139 4139 4190 4190 4190 4089 4041 4041 3994 3994 3994 3994 3994 3994 4041 3994 3994 3903 3859 3732 3692 3692 3653 3653 3653 3614 3614 3614 3614 3576 3576 3576 3576 3576 3614 3653 3653 3692 3732 3732 3732 3732 3732 4774 4774 4774 4774 4774 4774 4842 4842 4842 4842 4842 4842 4911 4911 2883 2883 2883 2908 3816 3774 3774 3774 3732 3732 3692 3692 3692 3692 3692 3732 2933 2908 2908 2908 2933 2933 2933 2933 2933 2933 2933 2933 2933 2933 2933 2933 2933 2933 2958 2958 2958 2958 2958 0 0 0 0 0 0 2958 2933 2933 2908 2908 2883 2883 2883 2883 2883 2883 2883 2883 2883 0 0 0 0 0 0 0 0 0 0 0 0 2908 2908 2908 2933 2933 2933 2933 2933 2933 2933 2933 0 0 0 5291 5291 5291 5291 5291 5291 5291 5291 5291 5291 5291 5291 0 0 0 0 0 0 0 0 0 0 0 0 0
0 0 0 0 0 0 0 0 0 0 0 0 0 0 0 0 0 0 0 0 0 0 0 0 0 0 0 0 0 0 0 0 0 0 0 0 0 0 0 0 0 5548 5548 5548 5640 5832 0 0 0 0 0 0 0 5460 5460 5548 5548 5548 5548 5548 5640 5734 5734 0 0 0 0 0 0 0 0 5640 5640 5548 5548 5548 5548 5548 5460 5460 5460 5460 5548 5460 5374 5374 5374 0 0 0 0 0 0 2701 2723 2723 2723 2701 2701 2701 2701 2701 2701 2701 2701 2701 2701 2701 2701 2701 2701 2701 2680 2680 2680 2680 2680 2680 2701 2701 2701 2701 2701 2701 2723 2744 2723 2723 2723 2744 2744 2744 2744 2744 2744 2744 2744 2767 2767 2767 2767 2789 2789 2789 2789 2789 2812 2812 2835 2835 2859 2859 2859 2859 2835 2835 2835 2812 2812 2812 1993 1993 2005 2016 2016 2028 2028 2028 2028 2028 2028 2040 2040 2040 2028 2028 2028 2040 2040 2053 2789 2812 2812 2812 2812 2812 2812 2812 2812 2812 2789 2040 2040 2040 2835 2835 2835 2835 2859 2859 2859 2859 2883 2883 2908 2908 2908 2933 2933 2933 2958 2958 2958 2984 2933 2933 2883 2883 2883 2883 2883 2883 2859 2859 2883 2883 2859 2859 2859 2859 2883 2883 2883 2883 2883 2859 2859 2859 2859 2143 2129 2129 2129 2129 2129 2129 2129 2129 2129 2129 2835 2835 2859 2883 2883 2908 2908 2933 2933 2933 2933 2933 2933 2933 2933 2933 2958 3010 3037 0 5933 5933 5933 6038 6146 6146 6259 6259 6259 6259 0 0 0 0 0 0 0 0 6038 6038 6038 6038 6038 6146 6146 6259 6259 6259 6259 6375 6375 6497 6497 6497 6497 6497 0 0 0 0 2184 2170 2170 2184 2184 2198 2198 2212 2212 2226 2226 2226 2241 0 0 0 0 0 0 0 0 0 0 0 0 5210 5210 5210 5210 5210 5210 5210 5210 5210 5132 5132 5132 5132 5132 5132 5132 5132 5132 5132 5132 5056 5056 5056 5056 5056 5056 5056 4983 4983 4983 4983 4983 4911 4911 4911 4911 4911 4911 4911 4911 4911 4911 0 4911 2286 2286 2271 2271 2271 2271 2271 2271 2256 2256 2256 2256 0 0 0 0 0 0 0 0 0 0 0 0 0 0 0 0 0 0 0 0 0 0 0 0 0 0 0 0 0 0 0 0 0 0 0 0 0 0 0 0 0 0 0 0 0 0 0 0 0 0 0 0 0 0 0 0 0 0 0 0 0 0 0 4089 4089 4041 3994 3994 4041 3994 3994 3994 3948 3948 3948 3948 3948 3948 3994 3994 4041 4041 4139 4139 4190 4241 4190 4089 3948 3948 3948 3948 3948 3948 3948 3948 3994 3994 3948 3903 3859 3692 3692 3653 3614 3614 3614 3614 3614 3614 3614 3614 3576 3576 3614 3614 3614 3653 3692 3732 3732 3732 3732 3732 3732 4774 4774 4774 4774 4774 4774 4842 4842 4911 4911 4842 4842 4911 4911 2859 2859 2859 2908 3774 3774 3774 3774 3732 3732 3692 3692 3692 3692 3692 3732 2933 2933 2933 2933 2933 2933 2933 2933 2933 2933 2933 2933 2933 2958 2958 2958 2933 2933 2958 2958 2933 2933 2933 0 0 0 0 0 0 2958 2933 2933 2908 2908 2908 2908 2883 2883 2883 2883 2883 2883 2883 0 0 0 0 0 0 0 0 0 0 0 0 2908 2908 2908 2933 2933 2933 2933 2933 2933 2933 2933 0 0 0 5291 5291 5291 5291 5291 5291 5291 5291 5291 5291 5291 5291 0 0 0 0 0 0 0 0 0 0 0 0 0
0 0 0 0 0 0 0 0 0 0 0 0 0 0 0 0 0 0 0 0 0 0 0 0 0 0 0 0 0 0 0 0 0 0 0 0 0 0 0 0 0 5548 5548 5548 5640 5640 0 0 0 0 0 0 0 0 5548 5460 5460 5460 5460 5460 5548 5548 5548 0 0 0 0 0 0 0 0 5548 5548 5548 5548 5548 5548 5548 5460 5460 5460 5460 5374 5374 5291 5210 5210 5291 5734 5734 0 0 0 2701 2701 2701 2701 2701 2701 2701 2701 2701 2701 2701 2680 2680 2701 2701 2701 2680 2680 2680 2680 2680 2680 2680 2680 2680 2680 2680 2680 2680 2680 2701 2701 2723 2723 2723 2723 2723 2744 2744 2744 2744 2744 2744 2744 2767 2767 2767 2767 2767 2789 2789 2789 2812 2812 2835 2835 2859 2859 2883 2883 2859 2859 2859 2835 2835 2835 2835 1993 1993 2005 2028 2028 2028 2028 2028 2028 2028 2028 2028 2040 2040 2028 2028 2028 2040 2767 2767 2789 2812 2812 2812 2812 2812 2789 2789 2812 2812 2789 2789 2835 2835 2835 2835 2835 2859 2859 2859 2859 2859 2859 2859 2883 2908 2908 2908 2933 2933 2958 2958 2958 2958 2933 2908 2883 2883 2883 2883 2883 2883 2883 2883 2883 2883 2883 2883 2883 2883 2883 2883 2883 2883 2883 2883 2859 2859 2859 2859 2129 2129 2129 2129 2129 2129 2129 2129 2129 2129 2835 2835 2859 2883 2883 2908 2908 2933 2933 2933 2933 2933 2933 2933 2958 2958 2958 3010 3037 3037 5933 5832 5832 5933 6038 6038 6146 6038 5933 5933 6038 0 0 0 0 0 0 0 5933 5933 6038 6038 6038 6038 6038 6146 6146 6259 6259 6259 6259 6497 6497 0 0 0 0 0 0 0 2184 2184 2184 2184 2198 2198 2198 2212 2212 2226 2226 2226 2226 0 0 0 0 0 0 0 0 0 0 0 0 5291 5291 5291 5291 5291 5291 5210 5210 5210 5132 5132 5132 5132 5132 5132 5132 5132 5132 5132 5132 5056 5056 5056 5056 5056 5056 5056 4983 4983 4983 4983 4983 4911 4911 4911 4911 4911 4911 4911 4911 4911 4911 4911 0 2271 2271 2271 2271 2271 2271 2271 2271 2256 2256 2256 2271 0 0 0 0 0 0 0 0 0 0 0 0 0 0 0 0 0 0 0 0 0 0 0 0 0 0 0 0 0 0 0 0 0 0 0 0 0 0 0 0 0 0 0 0 0 0 0 0 0 0 0 0 0 0 0 0 0 0 0 0 0 0 0 4089 4041 4041 4041 4041 4041 3994 3994 3948 3948 3903 3903 3903 3903 3903 3903 3903 3903 3903 3903 3903 3948 3859 3859 3903 3903 3859 3859 3948 3903 3903 3903 3948 3948 3948 3903 3903 3859 3692 3692 3653 3614 3614 3614 3614 3614 3614 3614 3614 3576 3576 3614 3614 3614 3653 3692 3732 3732 3732 3732 3774 3816 4774 4774 4774 4774 4774 4774 4842 4842 4911 4911 4911 4911 4911 3692 2859 2859 2859 3774 3774 3774 3774 3774 3732 3692 3692 3692 3692 3692 3692 3692 2908 2908 2908 2933 2933 2933 2933 2933 2933 2933 2958 2933 2933 2958 2958 2958 2958 2958 2958 2958 2933 2933 2933 0 0 0 0 0 2933 2933 2933 2933 2933 2908 2908 2908 2883 2883 2859 2859 2859 2883 2883 0 0 0 0 0 0 0 0 0 0 2908 2908 2908 2908 2908 2933 2933 2933 2933 2933 2933 2933 2933 0 0 0 5291 5291 5291 5291 5291 5291 5291 5291 5291 5210 5210 5210 0 0 0 0 0 0 0 0 0 0 0 0 0
0 0 0 0 0 0 0 0 0 0 0 0 0 0 0 0 0 0 0 0 0 0 0 0 0 0 0 0 0 0 0 0 0 0 0 0 0 0 0 0 0 5548 5548 5548 5640 5640 0 0 0 0 0 0 0 0 0 5460 5460 5460 5460 5460 5548 5548 5734 5734 0 0 0 0 0 5460 5460 5460 5460 5460 5460 5460 5460 5548 5460 5460 5460 5460 5374 5374 5210 5210 5210 5291 5734 5734 5734 5734 0 2680 2680 2701 2701 2701 2701 2701 2701 2701 2680 2680 2680 2680 2680 2680 2680 2680 2680 2680 2680 2680 2680 2680 2680 2680 2680 2680 2680 2680 2680 2680 2701 2701 2701 2701 2701 2723 2723 2723 2723 2744 2744 2744 2744 2767 2767 2767 2767 2767 2789 2789 2789 2812 2812 2835 2835 2859 2859 2883 2883 2883 2859 2859 2835 2812 2812 2812 1993 1993 2005 2028 2028 2028 2028 2028 2028 2028 2028 2028 2040 2040 2028 2028 2028 2040 2767 2789 2789 2812 2812 2812 2812 2812 2789 2789 2812 2812 2789 2789 2835 2835 2835 2835 2835 2835 2859 2859 2859 2859 2859 2859 2883 2908 2908 2908 2933 2933 2958 2958 2958 2958 2933 2908 2883 2883 2883 2883 2883 2883 2883 2883 2883 2883 2883 2883 2883 2883 2883 2883 2883 2883 2883 2883 2859 2859 2859 2859 2129 2129 2129 2129 2129 2129 2129 2129 2129 2129 2835 2835 2859 2883 2883 2908 2908 2933 2933 2933 2933 2933 2933 2958 2958 2958 2958 3010 3037 3037 5933 5832 5832 5933 5933 5933 5933 5933 5832 5832 5933 0 0 0 0 0 0 0 5933 5933 6038 6038 6038 6038 6038 6146 6146 6146 6146 6146 6259 0 0 0 0 0 0 0 0 2198 2198 2184 2184 2198 2198 2198 2198 2212 2212 2226 2226 2226 2226 2241 0 0 0 0 0 0 0 0 0 0 0 5291 5291 5291 5291 5291 5291 5210 5210 5210 5132 5132 5132 5132 5132 5132 5132 5132 5132 5132 5132 5132 5056 5056 5056 5056 5056 5056 4983 4983 4983 4983 4911 4911 4911 4911 4911 4911 4911 4911 4911 4911 4911 4911 0 2271 2271 2271 2271 2271 2271 2271 2271 2271 2271 2271 2271 0 0 0 0 0 0 0 0 0 0 0 0 0 0 0 0 0 0 0 0 0 0 0 0 0 0 0 0 0 0 0 0 0 0 0 0 0 0 0 0 0 0 0 0 0 0 0 0 0 0 0 0 0 0 0 0 0 0 0 0 0 0 0 4089 4041 4041 4041 4041 4041 3994 3994 3948 3903 3903 3903 3903 3859 3859 3859 3903 3774 3774 3859 3859 3948 3816 3816 3859 3859 3816 3816 3816 3816 3816 3859 3859 3903 3903 3859 3816 3774 3692 3692 3692 3653 3653 3653 3614 3614 3614 3614 3614 3614 3614 3614 3614 3614 3653 3692 3732 3732 3774 3774 3774 3816 4774 4774 4774 4774 4774 4774 4842 4911 4911 4911 4911 4911 4983 2933 2933 3692 3774 3774 3774 3774 3732 3732 3692 3692 3692 3692 3692 3692 3692 3692 2908 2908 2908 2933 2933 2933 2933 2933 2933 2933 2958 2958 2958 2958 2958 2958 2958 2958 2958 2958 2958 2958 2958 0 0 0 2958 2958 2933 2933 2933 2933 2933 2908 2908 2908 2883 2883 2859 2859 2859 2883 2883 0 0 0 0 0 0 0 0 0 0 2908 2908 2908 2908 2933 2933 2933 2933 2933 2933 2933 2933 2933 0 0 0 5291 5291 5291 5291 5291 5291 5291 5291 5291 5210 5210 5210 0 0 0 0 0 0 0 0 0 0 0 0 0
0 0 0 0 0 0 0 0 0 0 0 0 0 0 0 0 0 0 0 0 0 0 0 0 0 0 0 0 0 0 0 0 0 0 0 0 0 0 0 0 0 5548 5548 5548 5548 5640 0 0 0 0 0 0 0 0 0 0 0 5460 5460 5460 5460 5548 5640 5548 5548 5640 5640 5640 0 5374 5374 5460 5460 5460 5460 5460 5460 5460 5460 5460 5460 5460 5460 5374 5210 5210 5291 5640 5640 5734 5734 5734 0 2680 2680 2701 2723 2701 2701 2701 2701 2701 2680 2680 2680 2680 2680 2680 2680 2680 2680 2680 2680 2680 2680 2680 2680 2680 2680 2680 2680 2680 2680 2680 2701 2701 2701 2701 2701 2723 2723 2723 2723 2744 2744 2744 2744 2744 2744 2767 2767 2767 2789 2789 2789 2812 2812 2835 2835 2859 2859 2883 2883 2883 2859 2859 2835 2812 2812 2812 1993 1993 2005 2016 2016 2016 2016 2028 2028 2028 2028 2040 2040 2040 2016 2016 2028 2767 2789 2789 2789 2812 2812 2812 2812 2812 2812 2812 2812 2812 2812 2812 2835 2835 2835 2835 2835 2835 2835 2859 2859 2859 2859 2859 2883 2908 2908 2933 2933 2958 2958 2958 2958 2958 2933 2908 2908 2883 2883 2908 2883 2883 2883 2883 2908 2908 2883 2883 2908 2908 2883 2883 2883 2883 2883 2883 2859 2859 2859 2129 2129 2129 2129 2129 2129 2129 2129 2129 2129 2116 2116 2835 2859 2883 2883 2908 2933 2933 2933 2933 2933 2933 2933 2958 2958 2958 3010 3010 3037 3037 5933 5734 5734 5832 5933 5933 5933 5933 5832 5832 5933 0 0 0 0 0 0 0 0 0 6038 5933 5933 5933 5933 5933 5933 6146 6146 6146 6146 6146 0 0 0 0 0 0 0 2198 2198 2198 2198 2198 2198 2198 2198 2198 2212 2226 2226 2226 2226 2241 0 0 0 0 0 0 0 0 0 0 0 5291 5291 5374 5291 5291 5291 5210 5210 5210 5132 5132 5132 5132 5132 5132 5132 5132 5132 5132 5132 5132 5132 5132 5132 5132 5056 5056 5056 5056 4983 4983 4911 4911 4911 4911 4911 4911 4911 4911 4911 4983 4983 4983 0 2286 2286 2271 2271 2271 2271 2271 2271 2271 2271 2271 2271 0 0 0 0 0 0 0 0 0 0 0 0 0 0 0 0 0 0 0 0 0 0 0 0 0 0 0 0 0 0 0 0 0 0 0 0 0 0 0 0 0 0 0 0 0 0 0 0 0 0 0 0 0 0 0 0 0 0 0 0 0 0 0 0 0 0 0 0 0 0 0 3948 3903 3903 3903 3903 3816 3816 3859 3903 3774 3774 3816 3859 3816 3816 3816 3816 3816 3816 3816 3816 3816 3816 3859 3859 3903 3903 3859 3816 3774 3692 3692 3692 3653 3653 3653 3653 3653 3653 3614 3614 3614 3614 3614 3614 3653 3653 3692 3732 3732 3774 3774 3816 4774 4774 4774 4774 4842 4842 4842 4911 4911 4911 4911 4983 4983 4983 2908 2908 2883 2883 3774 3774 3774 3732 3692 3692 3692 3692 3692 3692 3692 3692 3692 2908 2908 2908 2933 2933 2933 2933 2933 2933 2933 2958 2958 2958 2958 2958 2958 2958 2958 2958 2984 2984 2984 2984 0 2958 2958 0 2958 2933 2933 2933 2933 2933 2933 2908 2908 2883 2883 2883 2883 2883 2883 2883 2883 0 0 0 0 0 0 0 0 2835 2835 2883 2908 2908 2933 2933 2933 2933 2933 2933 2933 2933 2933 0 0 0 5291 5291 5291 5291 5291 5291 5291 5291 5291 5291 5210 5210 0 0 0 0 0 0 0 0 0 0 0 0 0
0 0 0 0 0 0 0 0 0 0 0 0 0 0 0 0 0 0 0 0 0 0 0 0 0 0 0 0 0 0 0 0 0 0 0 0 0 0 0 0 0 5548 5548 5548 5548 5640 5548 5548 0 0 0 0 0 0 0 0 0 5460 5460 5460 5460 5548 5548 5460 5460 5548 5548 5460 5460 5374 5374 5374 5460 5460 5460 5460 5460 5460 0 0 5460 5460 5460 5460 5291 5291 5374 5640 5640 5640 5640 5640 5640 2680 2680 2701 2723 2701 2701 2701 2701 2701 2701 2680 2680 2680 2680 2680 2680 2680 2680 2680 2680 2680 2680 2680 2680 2680 2680 2680 2680 2680 2680 2680 2701 2701 2723 2723 2723 2723 2723 2723 2744 2744 2744 2744 2744 2744 2744 2767 2767 2767 2789 2789 2789 2812 2812 2835 2835 2859 2859 2859 2883 2883 2859 2859 2835 2835 2835 2835 2005 2005 2005 2016 2016 2016 2016 2028 2028 2028 2028 2040 2040 2040 2016 2016 2789 2789 2789 2812 2812 2812 2812 2812 2812 2812 2812 2812 2812 2812 2812 2812 2835 2835 2835 2835 2835 2835 2835 2859 2859 2859 2859 2883 2908 2908 2933 2933 2958 2958 2958 2958 2958 2958 2933 2933 2908 2883 2883 2908 2908 2883 2883 2883 2908 2908 2883 2883 2908 2908 2908 2908 2908 2908 2883 2883 2883 2883 2883 2129 2129 2129 2129 2129 2129 2129 2129 2129 2129 2116 2116 2859 2883 2908 2908 2908 2908 2933 2933 2933 2933 2933 2933 2958 2958 2958 3010 3010 3037 3037 5734 5734 5734 5832 5832 5832 5640 5640 5640 5640 5734 0 0 0 0 0 0 0 0 0 6038 5933 5933 5933 5933 5933 5933 5933 6146 6146 6146 6146 0 0 0 0 0 0 0 2212 2212 2198 2198 2198 2198 2198 2198 2198 2212 2226 2226 2226 2241 0 0 0 0 0 0 0 0 0 0 0 5374 5291 5291 5374 5374 5291 5291 5291 5210 5210 5210 5132 5132 5132 5132 5132 5132 5132 5132 5132 5132 5132 5132 5132 5132 5132 5056 5056 5056 5056 4983 4983 4983 4911 4911 4911 4911 4911 4911 4911 4911 4983 4983 4983 2286 2286 2286 2271 2271 2271 2271 2271 2271 2271 2271 2271 2286 0 0 0 0 0 0 0 0 0 0 0 0 0 0 0 0 0 0 0 0 0 0 0 0 0 0 0 0 0 0 0 0 0 0 0 0 0 0 0 0 0 0 0 0 0 0 0 0 0 0 0 0 0 0 0 0 0 0 0 0 0 0 0 0 0 0 0 0 0 0 0 0 0 0 0 0 3816 3816 3816 3903 3774 3774 3816 3816 3816 3774 3774 3816 3816 3816 3816 3816 3816 3816 3816 3816 3903 3859 3859 3816 3774 3732 3732 3692 3653 3653 3653 3614 3614 3653 3614 3614 3614 3653 3653 3653 3653 3692 3732 3774 3816 3859 3859 3903 4842 4842 4842 4842 4842 4911 4911 4911 4911 4983 4983 4983 4983 4983 2883 2883 2859 2859 3774 3774 3774 3732 3037 3037 3692 3692 3692 3653 3653 3653 3692 2908 2908 2908 2933 2933 2933 2933 2933 2933 2933 2958 2958 2958 2958 2958 2958 2958 2958 2958 2958 2958 2984 2984 2958 2958 2958 2933 2933 2933 2933 2933 2933 2933 2933 2908 2908 2883 2883 2883 2883 2883 2908 2883 2883 2908 0 0 0 0 0 0 0 2835 2835 2883 2908 2908 2933 2933 2933 2933 2933 2933 2958 2958 2958 0 0 0 5291 5291 5291 5291 5291 5291 5291 5291 5291 5291 5291 5291 0 0 0 0 0 0 0 0 0 0 0 0 0
0 0 0 0 0 0 0 0 0 0 0 0 0 0 0 0 0 0 0 0 0 0 0 0 0 0 0 0 0 0 0 0 0 0 0 0 0 0 0 0 0 0 0 5640 5640 5640 5548 5548 0 0 0 0 0 0 0 0 0 0 5460 5460 5460 5460 5460 5374 5374 5374 5460 5374 5374 5291 5291 5374 5460 5460 5460 0 0 0 0 0 5460 5374 5374 5374 5291 5291 5374 5374 5374 5460 5640 5640 5640 2701 2701 2701 2723 2701 2701 2701 2701 2701 2701 2680 2680 2680 2680 2680 2680 2680 2701 2701 2701 2701 2701 2701 2701 2701 2680 2680 2680 2680 2680 2680 2701 2723 2723 2723 2723 2723 2723 2723 2723 2744 2744 2744 2744 2767 2767 2767 2767 2767 2789 2789 2789 2812 2812 2835 2835 2859 2859 2859 2883 2883 2883 2859 2835 2835 2835 2835 2005 2005 2028 2028 2016 2016 2028 2028 2028 2028 2040 2040 2040 2040 2040 2812 2789 2789 2812 2812 2812 2812 2812 2812 2812 2812 2812 2812 2812 2812 2835 2835 2835 2835 2835 2835 2835 2835 2859 2859 2859 2859 2859 2883 2908 2933 2933 2933 2933 2958 2984 2984 2984 2958 2933 2933 2933 2908 2908 2908 2908 2908 2908 2908 2908 2908 2883 2883 2908 2908 2908 2908 2908 2908 2883 2883 2883 2883 2883 2883 2129 2129 2129 2129 2129 2129 2129 2129 2129 2143 2835 2859 2883 2908 2908 2908 2908 2933 2933 2933 2933 2933 2933 2958 2958 2984 2984 3010 3010 3010 5734 5734 5734 5734 5640 5640 5640 5640 5640 5734 5734 5734 5734 0 0 0 0 0 0 0 0 5832 5832 5832 5832 5832 5832 5832 5832 5832 5832 5832 0 0 0 0 0 0 0 2212 2212 2212 2198 2198 2198 2198 2198 2212 2212 2212 2212 2226 2241 0 0 0 0 0 0 0 0 0 0 5548 5374 5374 5374 5374 5291 5291 5291 5210 5210 5210 5210 5132 5132 5132 5132 5132 5132 5132 5132 5132 5132 5132 5132 5132 5132 5132 5056 5056 5056 5056 5056 4983 4983 4911 4911 4911 4911 4911 4911 4911 4911 4983 4983 4983 2286 2286 2286 2286 2271 2271 2271 2271 2271 2271 2286 2286 2286 0 0 0 0 0 0 0 0 0 0 0 0 0 0 0 0 0 0 0 0 0 0 0 0 0 0 0 0 0 0 0 0 0 0 0 0 0 0 0 0 0 0 0 0 0 0 0 0 0 0 0 0 0 0 0 0 0 0 0 0 0 0 0 0 0 0 0 0 0 0 0 0 0 0 0 0 0 0 0 0 3774 3774 3774 3774 3774 3732 3732 3774 3816 3816 3816 3816 3816 3816 3816 3816 3859 3859 3816 3774 3774 3732 3732 3692 3653 3653 3653 3614 3614 3653 3614 3614 3614 3614 3653 3692 3692 3732 3732 3816 3816 3859 3859 3903 4911 4911 4911 4911 4911 4911 4911 4911 4911 4983 4983 4983 4983 2883 2883 2883 2859 2859 2859 3774 3774 3037 3037 3010 3010 3692 3692 3653 3653 3653 2908 2908 2908 2908 2933 2933 2933 2933 2933 2933 2958 2958 2958 2958 2958 2958 2958 2958 2958 2958 2958 2958 2984 2984 2958 2958 2958 2933 2933 2933 2933 2933 2908 2908 2933 2908 2908 2883 2883 2883 2883 2908 2908 2908 2908 2908 2908 0 0 0 0 0 2835 2835 2859 2908 2908 2933 2933 2933 2933 2933 2933 2933 2958 0 2958 0 0 0 5210 5210 5291 5291 5291 5291 5291 5291 5291 5291 5291 5291 0 0 0 0 0 0 0 0 0 0 0 0 0
0 0 0 0 0 0 0 0 0 0 0 0 0 0 0 0 0 0 0 0 0 0 0 0 0 0 0 0 0 0 0 0 0 0 0 0 0 0 0 0 0 0 0 0 5734 5734 5460 5460 0 0 0 0 0 0 0 0 5460 5460 5460 5460 5460 5374 5374 5291 5291 5291 5291 5210 5210 5210 5291 5291 5374 5374 0 0 0 0 0 0 5460 5374 5291 5291 5291 5291 5291 5291 5374 5460 5460 5548 5548 2701 2701 2701 2723 2723 2701 2701 2701 2701 2701 2680 2680 2680 2680 2680 2701 2701 2701 2701 2701 2701 2701 2701 2701 2701 2701 2701 2701 2701 2701 2701 2701 2723 2723 2723 2723 2723 2723 2723 2723 2744 2744 2744 2744 2767 2767 2767 2767 2767 2789 2789 2789 2812 2812 2835 2835 2859 2859 2859 2883 2908 2908 2883 2859 2859 2835 2835 2835 2028 2028 2028 2016 2016 2028 2028 2028 2028 2040 2040 2040 2040 2040 2040 2789 2789 2812 2812 2812 2812 2812 2812 2812 2812 2812 2812 2835 2835 2835 2835 2835 2859 2835 2835 2835 2835 2859 2859 2859 2859 2883 2883 2908 2933 2933 2933 2933 2958 2984 2984 2984 2984 2958 2933 2933 2933 2933 2933 2908 2908 2908 2908 2908 2908 2883 2883 2908 2908 2908 2908 2908 2908 2883 2883 2908 2883 2883 2908 2129 2129 2129 2129 2129 2129 2129 2129 2129 2143 2859 2859 2883 2908 2908 2908 2908 2908 2908 2933 2933 2933 2933 2958 2958 2984 2984 3010 3010 3010 5734 5734 5734 5640 5640 5640 5640 5640 5640 5640 5734 5734 5734 0 0 0 0 0 0 0 5832 5832 5832 5832 5832 5832 5734 5734 5734 5734 5734 5734 5734 0 0 0 0 0 0 2212 2212 2198 2198 2198 2198 2198 2198 2212 2212 2212 2212 2226 2241 0 0 0 0 0 0 0 0 0 0 5374 5374 5374 5374 5374 5291 5291 5291 5210 5210 5210 5210 5210 5210 5132 5132 5132 5132 5056 5056 5056 5056 5056 5132 5132 5132 5132 5056 5056 5056 5056 4983 4983 4911 4911 4911 4911 4911 4911 4911 4911 4911 4983 4983 2286 2286 2286 2286 2286 2286 2271 2271 2271 2271 2286 2286 2286 2286 0 0 0 0 0 0 0 0 0 0 0 0 0 0 0 0 0 0 0 0 0 0 0 0 0 0 0 0 0 0 0 0 0 0 0 0 0 0 0 0 0 0 0 0 0 0 0 0 0 0 0 0 0 0 0 0 0 0 0 0 0 0 0 0 0 0 0 0 0 0 0 0 0 0 0 0 0 0 0 0 3732 3732 3774 3774 3774 3732 3732 3732 3774 3774 3774 3816 3816 3816 3816 3816 3859 3816 3816 3774 3774 3732 3732 3692 3653 3653 3653 3653 3653 3653 3653 3614 3614 3614 3653 3692 3692 3732 3732 3774 3816 3859 3859 3903 4983 4911 4911 4911 4911 4911 4911 4983 4983 4983 4983 5056 5132 2883 2883 2883 2859 2859 2859 3816 3816 3037 3037 3010 3010 3576 3576 3653 3653 3692 2908 2908 2908 2933 2933 2933 2933 2933 2933 2958 2958 2958 2958 2958 2958 2958 2958 2984 2958 2958 2958 2958 2958 2984 2958 2958 2958 2933 2933 2933 2933 2933 2908 2908 2933 2908 2908 2883 2883 2883 2883 2908 2908 2908 2908 2908 2908 0 0 0 0 2812 2812 2835 2883 2908 2933 2933 2933 2933 2933 2933 2933 2933 2958 0 0 4911 4911 0 5210 5210 5291 5291 5210 5210 5210 5210 5291 5291 5291 0 0 0 0 0 0 0 0 0 0 0 0 0 0
0 0 0 0 0 0 0 0 0 0 0 0 0 0 0 0 0 0 0 0 0 0 0 0 0 0 0 0 0 0 0 0 0 0 0 0 0 0 0 0 0 0 0 0 5734 5734 5291 5291 5291 0 0 0 0 0 0 0 5460 5460 5460 5460 5374 5374 5291 5291 5291 5291 5291 5210 5210 5210 5210 5210 5291 5374 0 0 0 0 0 0 0 0 5291 5210 5210 5210 5210 5291 5291 5374 5374 5460 5460 2701 2701 2701 2723 2723 2723 2701 2701 2701 2701 2680 2680 2680 2680 2680 2680 2701 2701 2701 2701 2701 2701 2701 2701 2701 2701 2701 2701 2701 2701 2723 2723 2723 2744 2744 2744 2744 2744 2744 2744 2723 2723 2723 2744 2767 2767 2767 2767 2767 2789 2789 2789 2812 2812 2835 2835 2859 2859 2883 2883 2908 2933 2883 2859 2859 2835 2835 2835 2028 2028 2028 2016 2016 2028 2028 2028 2040 2040 2040 2040 2040 2040 2040 2789 2789 2812 2812 2812 2812 2812 2812 2812 2835 2835 2835 2835 2835 2835 2859 2859 2859 2859 2835 2835 2835 2859 2859 2859 2859 2883 2883 2908 2933 2933 2933 2958 2958 2984 2984 3010 2984 2984 2958 2958 2933 2933 2933 2933 2933 2908 2908 2908 2908 2908 2908 2908 2908 2908 2908 2908 2908 2883 2883 2908 2908 2908 2908 2908 2129 2129 2129 2129 2129 2129 2129 2129 2143 2859 2859 2883 2908 2908 2908 2908 2908 2908 2933 2933 2933 2958 2958 2984 2984 2984 2984 2984 2984 5734 5734 5734 5640 5640 5640 5640 5640 5640 5640 5640 5640 5933 0 0 0 0 0 5933 5933 5832 5832 5832 5734 5734 5734 5640 5640 5640 5640 5734 5734 5734 0 5832 5832 0 0 0 2212 2212 2198 2198 2198 2198 2198 2198 2212 2212 2226 2226 2226 2241 0 0 0 0 0 0 0 0 0 5460 5374 5374 5374 5374 5374 5291 5291 5291 5210 5210 5210 5210 5210 5210 5132 5132 5056 5056 5056 4983 4983 4983 4983 5132 5132 5132 5132 5056 5056 5056 5056 4983 4983 4911 4911 4911 4911 4911 2286 2286 4911 4911 4911 2271 2286 2286 2286 2286 2286 2286 2271 2271 2271 2271 2286 2286 2286 2286 0 0 0 0 0 0 0 0 0 0 0 0 0 0 0 0 0 0 0 0 0 0 0 0 0 0 0 0 0 0 0 0 0 0 0 0 0 0 0 0 0 0 0 0 0 0 0 0 0 0 0 0 0 0 0 0 0 0 0 0 0 0 0 0 0 0 0 0 0 0 0 0 0 0 0 0 0 0 0 0 3732 3732 3774 3774 3774 3732 3732 3732 3774 3774 3774 3816 3816 3816 3859 3859 3859 3816 3816 3774 3774 3732 3732 3732 3653 3653 3653 3653 3653 3653 3653 3614 3614 3614 3653 3653 3692 3732 3732 3774 3816 3859 3859 3903 4983 4911 4911 4911 4911 4911 4983 4983 4983 4983 5056 5132 5132 5132 2883 2883 2859 2859 3816 3816 3816 3037 3037 3010 3010 3576 3576 3614 3614 2908 2908 2908 2933 2933 2933 2933 2933 2933 2933 2958 2958 2958 2958 2958 2958 2958 2958 2958 2958 2958 2958 2958 2958 2984 2958 2958 2958 2933 2933 2933 2908 2908 2908 2908 3692 3692 3692 3692 2883 2883 2883 2908 2908 2908 2908 2908 2933 2933 0 0 0 2812 2812 2859 2883 2908 2933 2933 2933 2933 2933 2933 2933 2933 2958 2958 0 4911 4911 4911 4983 4983 5056 5210 5210 5210 5210 5210 5291 5291 0 0 0 0 0 0 0 0 0 0 0 0 0 0 0
0 0 0 0 0 0 0 0 0 0 0 0 0 0 0 0 0 0 0 0 0 0 0 0 0 0 0 0 0 0 0 0 0 0 0 0 0 0 0 0 0 0 0 0 0 0 5210 5210 5210 5210 5210 5210 5210 5291 5291 5291 5374 5374 5374 5460 5374 5291 5291 5291 5291 5210 5210 5210 5210 5132 5132 5132 5210 5210 0 0 0 0 0 0 0 0 5374 5210 5210 5210 5210 5291 5291 5374 5374 5460 5460 2723 2723 2723 2723 2723 2723 2723 2701 2701 2701 2701 2680 2680 2680 2680 2680 2701 2701 2701 2701 2701 2701 2701 2701 2723 2723 2723 2723 2723 2723 2723 2723 2723 2744 2744 2744 2744 2744 2744 2744 2723 2723 2723 2744 2767 2767 2767 2767 2767 2789 2789 2789 2812 2835 2835 2859 2859 2883 2883 2883 2908 2883 2883 2835 2835 2835 2835 2835 2028 2028 2028 2016 2016 2028 2028 2028 2040 2040 2040 2040 2053 2040 2040 2789 2789 2812 2812 2812 2812 2812 2812 2812 2835 2835 2835 2835 2859 2859 2859 2859 2859 2859 2859 2835 2835 2859 2859 2859 2859 2883 2883 2908 2933 2933 2933 2958 2958 2958 2984 2984 2984 2984 2958 2958 2958 2933 2933 2933 2933 2908 2908 2908 2908 2883 2883 2908 2883 2883 2883 2883 2908 2908 2908 2908 2908 2908 2908 2908 2116 2116 2129 2116 2116 2129 2129 2129 2143 2835 2859 2883 2908 2908 2908 2908 2908 2933 2933 2933 2933 2958 2958 2958 2984 2984 2958 2958 2958 2933 5640 5640 5640 5640 5640 5640 5640 5640 5640 5640 0 5933 5933 5933 0 0 0 5933 5832 5734 5734 5734 5640 5640 5640 5640 5640 5640 5640 5734 5734 5734 5832 5832 5734 5734 0 0 2212 2212 2198 2198 2198 2198 2198 2198 2212 2212 2226 2226 2226 2241 0 0 0 0 0 0 0 2226 2226 2226 2226 2226 2226 2226 2226 5291 5291 5291 5291 5291 5210 5210 5210 5210 5132 5132 5056 2256 2256 2241 2241 2226 2226 2241 2241 2241 2241 2241 2241 2241 2241 5056 5056 2256 2271 4911 4911 2271 2271 2271 2271 2271 2271 2271 2271 2271 2271 2286 2286 2271 2271 2271 2271 2271 2271 2286 2286 2286 0 0 0 0 0 0 0 0 0 0 0 0 0 0 0 0 0 0 0 0 0 0 0 0 0 0 0 0 0 0 0 0 0 0 0 0 0 0 0 0 0 0 0 0 0 0 0 0 0 0 0 0 0 0 0 0 0 0 0 0 0 0 0 0 0 0 0 0 0 0 0 0 0 0 0 0 0 0 0 0 3732 3732 3774 3774 3774 3774 3774 3774 3816 3816 3816 3816 3816 3816 3859 3859 3859 3859 3859 3816 3774 3774 3774 3732 3653 3653 3653 3653 3653 3653 3653 3614 3614 3653 3653 3653 3692 3732 3732 3774 3816 3859 3859 4983 4911 4911 4911 4911 4911 4983 4983 4983 4983 4983 5056 5210 5291 3859 2883 2883 3816 3816 3816 3859 3859 0 3859 3576 3576 3576 3576 3614 3614 2908 2908 2908 2933 2933 2933 2933 2933 2933 2958 2958 2958 2958 2958 2958 2958 2958 2958 2958 2958 2958 2958 2958 2958 2984 2958 2958 2958 2958 2958 2933 2883 2883 2908 3692 3692 3692 3653 3653 3692 2883 2883 2883 2908 2908 2908 2908 2933 2933 2958 2958 2835 2835 2835 2883 2883 2908 2933 2933 2933 2933 2933 2933 2933 2958 2958 4911 4911 4911 4911 4911 4983 4983 5056 5132 5132 5132 5132 5210 0 0 0 0 0 0 0 0 0 0 0 0 0 0 0 0 0
0 0 0 0 0 0 0 0 0 0 0 0 0 0 0 0 0 0 0 0 0 0 0 0 0 0 0 0 0 0 0 0 0 0 0 0 0 0 0 0 0 0 0 0 0 0 5210 5210 5210 5210 5210 5210 5210 5291 5291 5291 5374 5374 5460 5460 5374 5291 5291 5210 5210 5210 5210 5132 5132 5056 5056 5056 5132 5132 0 0 0 0 0 0 0 0 0 5210 5210 5210 5210 5210 5291 5374 5374 5374 5374 2723 2723 2723 2723 2723 2723 2723 2701 2701 2701 2701 2680 2680 2680 2680 2701 2701 2701 2701 2701 2701 2701 2701 2701 2723 2723 2723 2723 2723 2723 2723 2723 2744 2744 2744 2744 2767 2767 2744 2744 2744 2744 2744 2767 2767 2767 2767 2767 2767 2789 2789 2789 2812 2835 2835 2859 2859 2883 2883 2883 2908 2883 2883 2835 2835 2835 2835 2835 2835 2028 2028 2016 2016 2028 2028 2028 2040 2040 2040 2040 2053 2053 2053 2789 2789 2812 2812 2812 2812 2812 2812 2835 2835 2835 2835 2835 2859 2859 2859 2859 2859 2859 2859 2859 2859 2859 2859 2859 2859 2883 2883 2933 2933 2933 2933 2958 2958 2958 2984 2984 2984 2984 2984 2958 2958 2933 2933 2933 2933 2908 2908 2908 2908 2883 2883 2908 2883 2883 2883 2883 2908 2908 2908 2908 2908 2908 2908 2908 2116 2116 2129 2116 2116 2129 2129 2129 2129 2129 2859 2908 2908 2908 2908 2908 2933 2933 2933 2933 2933 2958 2958 2958 2984 2984 2958 2933 2933 2933 0 2908 0 0 5640 5640 5640 5640 5640 5640 5640 5832 5832 5832 5933 5933 5832 5832 5734 5640 5640 5640 5548 5548 5548 5548 5548 5640 5640 5734 5734 5832 5832 5832 5734 5734 0 0 0 2198 2198 2198 2198 2198 2198 2198 2212 2212 2226 2226 2226 2241 0 0 0 0 0 2226 2226 2226 2226 2226 2226 2226 2226 2226 2226 2241 2241 2256 2256 5291 5210 5210 5210 2286 2286 2241 2241 2256 2256 2241 2241 2226 2226 2241 2241 2241 2241 2241 2241 2241 2241 2256 2256 2256 2271 2271 2271 2271 2271 2271 2271 2271 2271 2271 2271 2271 2271 2271 2271 2271 2271 2271 2271 2271 2271 2271 2271 2271 0 0 0 0 0 0 0 0 0 0 0 0 0 0 0 0 0 0 0 0 0 0 0 0 0 0 0 0 0 0 0 0 0 0 0 0 0 0 0 0 0 0 0 0 0 0 0 0 0 0 0 0 0 0 0 0 0 0 0 0 0 0 0 0 0 0 0 0 0 0 0 0 0 0 0 0 0 0 0 0 0 0 0 0 0 0 0 3816 3816 3816 3816 3816 3816 3816 3859 3859 3859 3859 3859 3816 3816 3774 3774 3732 3653 3653 3653 3653 3653 3653 3653 3653 3653 3653 3653 3692 3692 3732 3732 3774 3816 3859 5056 4983 4911 4911 4911 4911 4911 4983 4983 4983 4983 4983 4983 5132 3859 3859 3816 3816 3859 3859 3859 3859 3859 0 0 0 3614 0 3614 3614 2908 2908 2908 2908 2933 2933 2933 2933 2933 2933 2958 2958 2933 2933 2958 2958 2958 2958 2958 2958 2958 2958 2958 2958 2958 2958 2958 2958 2958 2984 2958 2933 2883 2883 3653 3692 3692 3692 3653 3653 3692 3692 2883 2883 2883 2908 2908 2908 2933 2933 2933 2984 2908 2859 2859 2908 2908 2908 2933 2933 2933 2933 2933 2933 2933 2933 2933 4911 4911 4911 4983 4983 4983 4983 4983 5056 5056 5056 5056 5056 0 0 0 0 0 0 0 0 0 0 0 0 0 0 0 0 0
0 0 0 0 0 0 0 0 0 0 0 0 0 0 0 0 0 0 0 0 0 0 0 0 0 0 0 0 0 0 0 0 0 0 0 0 0 0 0 0 0 0 0 0 0 0 5132 5132 5210 5210 5210 5210 5210 5291 5374 5460 5374 5374 5374 5374 5291 5210 5210 5210 5210 5210 5132 5132 5056 4983 4983 4983 4911 4911 4911 4983 5056 0 0 0 0 0 0 5210 5210 5210 5210 5210 5291 5291 5291 5291 5291 5291 2723 2723 2723 2723 2723 2723 2701 2701 2701 2701 2680 2680 2680 2680 2701 2701 2701 2701 2701 2701 2701 2701 2701 2723 2723 2701 2701 2723 2723 2723 2723 2723 2744 2744 2744 2767 2767 2767 2767 2767 2767 2767 2767 2767 2767 2767 2767 2767 2789 2789 2789 2812 2835 2835 2859 2859 2883 2883 2883 2908 2908 2883 2859 2859 2835 2835 2835 2835 2028 2028 2028 2028 2028 2028 2040 2040 2040 2040 2040 2053 2040 2040 2789 2789 2812 2812 2812 2812 2812 2812 2835 2835 2835 2835 2835 2859 2859 2859 2859 2859 2859 2859 2859 2859 2859 2859 2859 2883 2883 2908 2933 2933 2933 2933 2958 2958 2958 2958 2958 2984 2984 2984 2958 2958 2958 2933 2933 2933 2908 2908 2908 2908 2883 2883 2908 2883 2883 2883 2908 2908 2908 2908 2908 2908 2908 2908 2908 2129 2129 2129 2129 2129 2129 2129 2129 2129 2129 2859 2908 2908 2908 2908 2908 2933 2933 2933 2933 2933 2958 2958 2958 2984 2958 2958 2933 2908 2908 0 0 0 5548 5548 5548 5640 5640 5640 5640 5640 5640 5832 5832 5832 5832 5734 5734 5640 5640 5640 5640 5548 5548 5548 5548 5548 5548 5548 5640 5640 5734 5832 5832 5734 5734 5734 0 0 2184 2184 2184 2198 2198 2212 2212 2212 2226 2226 2226 2226 2226 2241 0 0 0 2241 2226 2226 2226 2226 2226 2226 2226 2226 2241 2241 2241 2241 2241 2256 2256 2256 2256 2256 2256 2271 2241 2241 2256 2256 2256 2256 2256 2256 2256 2241 2241 2241 2241 2241 2241 2241 2256 2256 2256 2256 2271 2271 2271 2271 2271 2271 2271 2271 2271 2271 2271 2271 2271 2271 2271 2271 2271 2271 2271 2271 2271 2271 2271 0 0 0 0 0 0 0 0 0 0 0 0 0 0 0 0 0 0 0 0 0 0 0 0 0 0 0 0 0 0 0 0 0 0 0 0 0 0 0 0 0 0 0 0 0 0 0 0 0 0 0 0 0 0 0 0 0 0 0 0 0 0 0 0 0 0 0 0 0 0 0 0 0 0 0 0 0 0 0 0 0 0 0 0 0 0 0 0 3816 3816 3816 3816 3816 3816 3816 3816 3859 3859 3859 3816 3816 3774 3774 3732 3653 3653 3653 3653 3653 3653 3653 3653 3653 3653 3692 3692 3732 3732 3732 3774 3816 3859 5056 4983 4983 4911 4911 4911 4911 4911 4911 4911 4911 4911 4983 3859 3859 3859 3859 3859 3859 3859 3859 3859 3859 0 0 0 0 0 0 0 2908 2908 2908 2933 2933 2933 2933 2933 2933 2933 2958 2958 2933 2933 2958 2958 2958 2958 2958 2958 2958 2958 2958 2958 2958 2958 2958 2958 2958 2984 2958 2933 2933 3614 3653 3692 3692 3692 3653 3653 3653 3653 2883 2883 2883 2908 2908 2908 2933 2933 2933 2984 2908 2883 2883 2908 2908 2933 2933 2933 2933 2933 2933 2933 2933 2933 4983 4911 4911 4911 4911 4911 4983 4983 4983 4983 4983 4983 5056 4983 4983 0 0 0 0 0 0 0 0 0 0 0 0 0 0 0 0
0 0 0 0 0 0 0 0 0 0 0 0 0 0 0 0 0 0 0 0 0 0 0 0 0 0 0 0 0 0 0 0 0 0 0 0 0 0 0 0 0 0 0 0 5210 5132 5132 5132 5210 5210 5210 5210 5210 5291 5291 5460 5374 5374 5374 5291 5291 5210 5210 5210 5210 5132 5132 5132 5056 4983 4983 4983 4911 4911 4911 4983 4983 5056 0 0 0 0 5132 5132 5132 5132 5132 5210 5210 5291 5210 5210 5132 5132 2723 2723 2723 2723 2723 2723 2701 2701 2701 2701 2701 2701 2701 2701 2701 2701 2701 2701 2701 2701 2701 2701 2701 2723 2723 2701 2701 2723 2723 2723 2723 2723 2744 2744 2744 2767 2767 2767 2767 2767 2767 2767 2767 2767 2767 2767 2767 2767 2789 2789 2789 2812 2835 2835 2859 2859 2883 2883 2883 2883 2883 2883 2859 2859 2835 2835 2835 2835 2028 2028 2028 2028 2040 2040 2040 2040 2040 2053 2053 2053 2040 2028 2028 2789 2812 2812 2812 2812 2812 2835 2835 2835 2835 2835 2859 2859 2859 2859 2859 2859 2859 2859 2859 2859 2859 2859 2859 2883 2908 2908 2933 2933 2933 2933 2933 2958 2958 2958 2958 2984 2984 2984 2984 2958 2958 2933 2933 2933 2908 2908 2908 2908 2908 2908 2883 2883 2883 2883 2883 2908 2908 2908 2908 2908 2908 2908 2908 2129 2129 2129 2129 2129 2129 2129 2129 2129 2129 2143 2883 2908 2908 2908 2908 2933 2933 2933 2933 2958 2958 2958 2958 2984 2958 2958 2933 2908 2908 0 0 0 5548 5548 5548 5640 5640 5640 5640 5640 5640 5640 5734 5734 5734 5734 5734 5640 5640 5640 5640 5548 5548 5548 5548 5548 5548 5548 5548 5640 5734 5734 5832 5832 0 5832 0 0 2184 2184 2184 2198 2212 2212 2212 2212 2226 2226 2226 2226 2226 2226 2226 0 2241 2241 2226 2226 2226 2226 2226 2226 2226 2226 2241 2241 2241 2241 2241 2256 2241 2241 2256 2256 2256 2271 2256 2256 2256 2256 2256 2256 2256 2256 2256 2256 2241 2241 2256 2256 2256 2256 2256 2256 2256 2256 2271 2271 2271 2271 2271 2271 2271 2271 2271 2271 2271 2271 2271 2271 2271 2271 2271 2271 2271 2271 2271 2271 0 0 0 0 0 0 0 0 0 0 0 0 0 0 0 0 0 0 0 0 0 0 0 0 0 0 0 0 0 0 0 0 0 0 0 0 0 0 0 0 0 0 0 0 0 0 0 0 0 0 0 0 0 0 0 0 0 0 0 0 0 0 0 0 0 0 0 0 0 0 0 0 0 0 0 0 0 0 0 0 0 0 0 0 0 0 0 0 0 0 3816 3816 3816 3816 3816 3816 3816 3859 3816 3816 3816 3816 3774 3774 3732 3692 3653 3653 3653 3653 3653 3653 3653 3653 3653 3692 3692 3732 3774 3774 3816 3859 3859 4983 4983 4983 4911 4911 4911 4911 4911 4911 4911 4911 4911 3859 3859 3859 3859 3859 3859 3859 3859 3859 3859 3859 0 0 0 0 0 0 2933 2933 2933 2933 2933 2933 2958 2933 2933 2933 2933 2933 2958 2933 2933 2958 2958 2958 2958 2958 2958 2958 2958 2958 2958 2958 2958 2958 2958 2958 3037 3064 3576 3576 3576 3576 3653 3653 3653 3653 3653 3653 3653 2883 2883 2883 2908 2908 2933 2933 2933 2933 2984 2984 2908 2908 2908 2908 2933 2933 2933 2933 2933 2933 2933 2908 2908 4983 4911 4911 4911 4911 4911 4983 4983 4983 4983 4983 4983 4983 4983 4983 0 0 0 0 0 0 0 0 0 0 0 0 0 0 0 0
0 0 0 0 0 0 0 0 0 0 0 0 0 0 0 0 0 0 0 0 0 0 0 0 0 0 0 0 0 0 0 0 0 0 0 0 0 0 0 0 0 0 0 0 5210 5132 5132 5132 5210 5210 5210 5210 5210 5210 5210 5291 5291 5210 5210 5210 5210 5210 5210 5132 5132 5132 5132 5132 5056 4983 4983 4983 4983 4983 4983 4983 4983 4983 0 0 0 0 5132 5132 5132 5132 5132 5210 5210 5210 5210 5210 5132 5132 2744 2723 2723 2723 2723 2723 2701 2701 2701 2701 2701 2701 2701 2701 2701 2701 2701 2701 2723 2723 2723 2723 2723 2723 2723 2723 2723 2723 2723 2723 2723 2744 2744 2744 2744 2744 2767 2767 2767 2767 2767 2767 2767 2767 2767 2767 2767 2767 2789 2789 2789 2812 2835 2859 2859 2883 2883 2883 2883 2883 2883 2883 2859 2859 2835 2835 2835 2859 2028 2028 2028 2040 2040 2040 2040 2040 2040 2053 2053 2053 2040 2028 2028 2789 2812 2812 2812 2812 2835 2835 2835 2835 2835 2835 2859 2859 2859 2859 2859 2859 2859 2859 2859 2859 2859 2859 2859 2883 2883 2908 2908 2933 2933 2933 2933 2933 2933 2958 2958 2984 2984 2984 2984 2984 2958 2933 2933 2933 2933 2908 2908 2908 2908 2908 2883 2883 2883 2883 2883 2908 2908 2908 2908 2908 2908 2908 2908 2143 2143 2143 2129 2129 2129 2129 2129 2129 2129 2143 2883 2908 2908 2908 2908 2933 2933 2933 2933 2958 2958 2958 2958 2984 2984 2984 2984 0 0 2984 0 0 5548 5548 5640 5640 5640 5640 5548 5548 5548 5640 5640 5734 5734 5734 5734 5640 5640 5640 5548 5460 5460 5460 5460 5548 5548 5548 5548 5640 5734 5734 5832 0 0 0 0 0 2184 2184 2184 2198 2212 2212 2212 2212 2226 2226 2226 2226 2226 2226 2241 2241 2241 2241 2226 2226 2226 2226 2226 2226 2226 2226 2226 2226 2226 2226 2241 2241 2241 2241 2241 2256 2256 2256 2256 2256 2256 2256 2256 2256 2256 2256 2256 2256 2256 2256 2256 2256 2256 2256 2256 2256 2256 2271 2271 2271 2271 2271 2271 2271 2271 2271 2271 2271 2271 2271 2271 2271 2271 2271 2271 2271 2271 2271 2271 2271 2271 0 0 0 0 0 0 0 0 0 0 0 0 0 0 0 0 0 0 0 0 0 0 0 0 0 0 0 0 0 0 0 0 0 0 0 0 0 0 0 0 0 0 0 0 0 0 0 0 0 0 0 0 0 0 0 0 0 0 0 0 0 0 0 0 0 0 0 0 0 0 0 0 0 0 0 0 0 0 0 0 0 0 0 0 0 0 0 0 0 0 0 3859 3816 3774 3774 3816 3859 3816 3816 3816 3816 3774 3774 3732 3692 3653 3653 3653 3653 3653 3653 3653 3653 3692 3692 3732 3732 3774 3816 3859 3859 3859 4983 4983 4911 4911 4911 4911 4911 4911 4842 4842 4842 3816 3816 3859 3859 3903 3859 3859 3859 3859 3859 3859 3859 0 0 0 0 0 2958 2933 2933 2933 2933 2933 2958 2958 2933 2933 2933 2933 2933 2958 2933 2933 2958 2958 2958 2958 2958 2958 2958 2958 2958 2958 2958 2958 2958 2958 2958 3064 3064 3576 3576 3576 3576 3576 3576 3653 3614 3614 3614 3653 3653 2883 2883 2883 2908 2933 2933 2933 2958 2984 2958 2933 2933 2933 2933 2933 2933 2933 2933 2933 2933 2908 2883 2883 4983 4983 4983 4983 4911 4911 4983 4983 4983 4983 4983 4983 4983 4911 4911 0 0 0 0 0 0 0 0 0 0 0 0 0 0 0 0
0 0 0 0 0 0 0 0 0 0 0 0 0 0 0 0 0 0 0 0 0 0 0 0 0 0 0 0 0 0 0 0 0 0 0 0 0 0 0 0 0 0 0 0 5210 5132 5132 5132 5210 5210 5210 5132 5132 5132 5210 5291 5291 5210 5210 5210 5210 5210 5210 5132 5132 5132 5132 5132 5056 4983 4983 4983 4983 4911 4911 4983 4983 4983 0 0 0 0 5132 5132 5132 5132 5132 5132 5132 5132 5132 5132 5210 5210 2744 2744 2744 2744 2744 2744 2723 2701 2701 2701 2701 2701 2701 2701 2723 2723 2723 2723 2723 2723 2723 2723 2723 2723 2723 2723 2723 2723 2723 2723 2723 2744 2744 2744 2744 2744 2767 2767 2767 2767 2767 2767 2767 2767 2767 2789 2789 2789 2789 2789 2789 2812 2835 2859 2859 2883 2883 2883 2883 2883 2883 2883 2859 2859 2835 2835 2835 2859 2859 2028 2028 2040 2040 2040 2040 2040 2040 2053 2053 2053 2053 2028 2028 2789 2812 2812 2812 2812 2835 2835 2835 2835 2835 2859 2859 2859 2859 2859 2859 2859 2859 2859 2859 2859 2859 2859 2859 2883 2883 2908 2908 2933 2933 2933 2933 2933 2933 2958 2958 2958 2984 2984 2984 2984 2958 2933 2933 2933 2933 2933 2933 2908 2908 2908 2883 2883 2883 2883 2883 2908 2908 2908 2908 2908 2908 2908 2908 2143 2143 2143 2129 2129 2129 2129 2143 2143 2143 2835 2883 2908 2908 2908 2908 2933 2933 2933 2933 2958 2958 2984 2984 2984 2984 2984 2984 0 0 0 0 0 5548 5548 5548 5640 5640 5640 5548 5548 5548 5548 5548 5548 5548 5640 5640 5640 5640 5548 5548 5460 5460 5460 5460 5460 5548 5548 5548 5640 5640 5734 5734 0 0 0 0 0 2184 2184 2184 2198 2198 2212 2212 2212 2226 2226 2226 2226 2226 2226 2226 2226 2226 2226 2226 2226 2226 2226 2226 2226 2226 2226 2226 2226 2226 2226 2241 2241 2241 2241 2241 2241 2256 2256 2241 2241 2256 2256 2256 2256 2256 2256 2256 2256 2256 2256 2256 2256 2256 2256 2256 2256 2271 2271 2271 2271 2271 2271 2271 2271 2271 2271 2271 2271 2271 2271 2271 2271 2271 2271 2271 2271 2271 2271 2271 2271 2271 0 0 0 0 0 0 0 0 0 0 0 0 0 0 0 0 0 0 0 0 0 0 0 0 0 0 0 0 0 0 0 0 0 0 0 0 0 0 0 0 0 0 0 0 0 0 0 0 0 0 0 0 0 0 0 0 0 0 0 0 0 0 0 0 0 0 0 0 0 0 0 0 0 0 0 0 0 0 0 0 0 0 0 0 0 0 0 0 0 0 0 0 0 3774 3774 3816 3859 3816 3816 3816 3816 3774 3774 3732 3692 3692 3653 3653 3653 3653 3653 3692 3692 3692 3692 3732 3774 3816 3859 3859 3903 3903 4983 4983 4911 4911 4911 4911 4911 4911 4842 4842 4842 3816 3816 3859 3859 3903 3859 3859 3859 3859 3859 3859 0 0 0 0 0 0 2958 2933 2933 2933 2933 2958 2958 2958 2933 2933 2933 2933 2958 2958 2958 2958 2958 2958 2958 2958 2958 2958 2933 2933 2933 2933 2958 2958 0 0 0 3576 3539 3539 3539 3539 3539 3576 3576 3576 3614 3614 3614 3653 3653 3653 2883 2883 2908 2933 2933 2933 2958 2984 2958 2933 2933 2933 2933 2933 2933 2933 2933 2933 2933 2908 2883 2883 5056 4983 4983 4983 4983 4983 4983 4983 4983 4983 4983 4983 4983 4911 4911 0 0 3859 3859 0 0 0 0 0 0 0 0 0 0 0 0
