0 0 0 0 0 0 0 0 0 0 0 0 0 0 0 0 0 0 0 0 0 0 0 0 0 0 0 0 0 0 0 0 0 2103 2103 2103 2103 2103 2103 2103 2103 2103 2103 2103 2116 2116 2116 2116 2116 2116 2116 2103 2103 2103 2090 2090 2090 2103 2103 2103 2103 2103 2103 2103 2103 2103 2103 2103 2103 2103 2090 2090 2090 2090 2090 2090 2090 2103 2103 2103 2103 2103 2103 2103 2103 2103 2103 2103 2103 2103 2103 2103 2103 2103 2103 2103 2103 2103 2103 2103 2103 2103 2103 2103 2103 2103 2103 2103 2103 2103 2103 2103 2103 2116 2116 2116 2116 2103 2103 2103 2116 2103 2103 2103 2103 2103 2103 2103 2103 1688 1688 1688 1688 1688 1616 1616 1609 1609 1609 1609 1601 1601 1609 1609 1609 1616 1616 1624 1624 1624 1624 1624 1647 1655 2103 2116 2116 2116 2116 2103 2103 2116 2116 2116 2116 2116 2129 2129 2129 2143 1843 1843 1853 1853 1853 1863 1873 1873 1883 1883 1883 1894 1894 2090 2065 2053 2040 2040 2040 2040 2040 2040 2040 2040 2040 2053 2078 2090 2103 2103 2129 2129 2129 2129 2116 2103 2090 2090 2078 2078 2078 2078 2078 2078 2090 2090 2090 2090 2103 2116 2129 2129 2143 2143 1550 1550 1550 1550 1550 1550 1550 1550 1550 1550 1550 1550 1550 1557 1564 1564 1572 1579 1579 1579 1586 2129 2129 2129 2129 2129 2129 2129 2129 2129 2129 2129 2129 2129 2129 2129 2129 2129 2129 2129 2129 2129 2129 2129 2129 2143 2143 1853 1853 1863 1863 1873 1883 1883 1883 1883 1433 1433 1433 1439 1439 1439 1439 1439 1439 1439 1439 1439 1439 1439 1439 1439 1439 1445 1445 1445 1439 1439 1439 1439 1439 1439 1433 1433 1433 1433 1433 1433 1427 1427 1427 1421 1421 1421 1427 1427 1427 1427 1427 1427 1421 1421 1421 1421 1421 1421 1421 1415 1415 1415 1415 1410 1410 1410 1410 1410 1410 1410 1410 1410 1410 1410 1410 1410 1410 1410 1410 1410 1410 1404 1404 1398 1398 1398 1398 1398 1398 1392 1392 1392 1392 1392 1392 1392 1392 1392 1392 1392 1387 1387 1387 1387 1387 1387 1387 1387 1387 1387 1387 1387 1381 1381 1381 1381 1376 1376 1370 1370 1365 1365 1359 1359 1354 1354 1354 1354 1354 1354 1354 1359 1359 1359 1359 1365 0 0 0 0 0 1757 1748 1748 1748 1748 1757 1748 1748 1757 1757 1757 1757 1757 1757 1757 2116 2116 2129 2116 2116 2116 2116 2116 2116 2116 2116 2116 2116 2116 2116 2129 2116 2116 2116 2116 2129 1833 1833 1833 1833 1833 1833 1833 1833 1833 1833 1833 2129 2129 2129 2116 2116 2116 2116 2103 2103 2103 2103 2103 2103 2103 2103 2103 2103 2103 2103 2103 2103 2103 2103 2103 2103 2103 2103 2116 2116 2116 2129 2129 1415 1415 1415 1415 1415 1415 1415 1410 1410 1410 1404 1404 1404 1404 1404 1404 1404 1404 1404 1404 1404 1398 1398 1398 1404 2090 2090 2090 2090 2090 2090 2090 2090 2090 2090 2090 2090 2090 2090 2090 2090 2090 2103 2103 2090 2090 2090 2090 2090 2090 2090 2090 2090 2090 2090 2090 2090 2090 2090 2090 2090 2090 2090 2090 2090 2090 2090 2090 2090 2090 2090 2090 2090 2090 2090 2090 2090 2090 2090 2090 2090 2090 2090 2090 2090 2090 2090 2090 2090 2090 2090 2090 2090 2078 2078 2078 2078 2078 2065 2065 2078 2078 2065 2065 2065 2078 2065 2065 2065 2065 2065 2065 2053 2053 2053 2065 2065 2065 2065 2065 2065 2065 2065 2065 2053 2053 2065 2065 2053 2053 2065 2065 2065 2065 2065 2065 2065 2065 2053 2053 0 0 0 0 0 0 0 0
0 0 0 0 0 0 0 0 0 0 0 0 0 0 0 0 0 0 0 0 0 0 0 0 0 0 0 0 0 0 0 0 0 2103 2103 2103 2103 2103 2103 2090 2090 2103 2103 2103 2103 2103 2103 2103 2103 2103 2103 2103 2103 2103 2090 2090 2090 2103 2103 2103 2103 2103 2103 2103 2103 2103 2103 2103 2103 2103 2090 2090 2090 2090 2090 2090 2090 2090 2090 2090 2090 2090 2090 2090 2090 2090 2090 2090 2090 2090 2090 2090 2090 2090 2090 2090 2090 2090 2090 2090 2103 2103 2103 2103 2103 2103 2103 2103 2090 2090 2103 2103 2103 2103 2103 2103 2103 2103 2103 2103 2103 2103 2103 2103 2103 2103 2103 2103 2103 1688 1688 1688 1688 1688 1616 1616 1609 1609 1609 1609 1601 1601 1609 1609 1609 1609 1616 1616 1624 1624 1624 1624 1647 1655 2090 2103 2103 2103 2103 2103 2103 2116 2103 2103 2103 2116 2116 2116 2116 2129 1833 1833 1853 1853 1853 1863 1863 1873 1883 1883 1883 1894 2090 2090 2078 2065 2053 2040 2040 2040 2040 2040 2040 2040 2040 2053 2078 2090 2090 2103 2116 2116 2116 2116 2103 2090 2090 2090 2078 2078 2078 2078 2078 2078 2090 2090 2090 2090 2103 2116 2129 2129 2143 2143 1550 1550 1550 1550 1550 1550 1550 1550 1550 1550 1550 1550 1550 1557 1564 1564 1572 1579 1579 1579 1586 2116 2116 2116 2116 2116 2129 2129 2129 2116 2116 2116 2116 2116 2116 2129 2129 2129 2129 2129 2129 2129 2129 2129 2129 2129 1853 1853 1853 1863 1863 1873 1873 1873 1883 1883 1433 1433 1433 1439 1439 1439 1439 1439 1439 1439 1439 1439 1439 1439 1439 1439 1445 1445 1445 1445 1439 1439 1439 1439 1439 1439 1439 1433 1433 1433 1433 1427 1421 1421 1421 1421 1415 1415 1421 1421 1421 1421 1421 1421 1427 1427 1427 1421 1421 1421 1421 1421 1415 1415 1415 1410 1410 1410 1410 1410 1410 1410 1410 1410 1410 1410 1410 1410 1410 1410 1410 1410 1410 1410 1404 1404 1404 1398 1398 1398 1398 1398 1392 1392 1392 1392 1392 1392 1392 1392 1392 1392 1392 1387 1387 1392 1387 1387 1387 1387 1387 1387 1387 1387 1387 1387 1381 1381 1376 1376 1370 1370 1365 1365 1359 1359 1354 1354 1354 1354 1359 1359 1359 1359 1359 1365 1365 1365 0 0 0 0 0 1757 1748 1748 1748 1748 1757 1748 1748 1757 1757 1757 1757 1757 1757 1757 2116 2116 2116 2116 2116 2116 2116 2116 2116 2116 2116 2103 2103 2116 2116 2116 2116 2116 2116 2116 2116 2116 1843 1843 1843 1843 1843 1843 1843 1843 1833 1833 2116 2116 2116 2103 2103 2103 2103 2103 2103 2103 2103 2103 2103 2103 2103 2103 2103 2103 2103 2103 2103 2103 2103 2103 2103 2103 2103 2103 2103 2103 2103 0 1415 1415 1415 1421 1421 1415 1415 1410 1410 1410 1404 1404 1404 1404 1404 1404 1404 1404 1404 1404 1404 1398 1398 1404 1404 2090 2078 2078 2078 2078 2078 2090 2090 2090 2090 2090 2090 2090 2090 2090 2090 2090 2090 2090 2090 2090 2090 2090 2090 2090 2078 2078 2090 2090 2078 2078 2078 2078 2078 2090 2090 2090 2090 2090 2090 2090 2090 2090 2090 2090 2090 2090 2090 2078 2078 2078 2078 2078 2078 2090 2090 2090 2090 2090 2090 2078 2078 2090 2090 2090 2090 2090 2090 2078 2065 2065 2065 2065 2065 2065 2065 2065 2065 2065 2065 2065 2065 2065 2065 2065 2065 2053 2053 2053 2053 2053 2053 2053 2065 2065 2065 2065 2065 2065 2053 2053 2053 2053 2053 2053 2053 2053 2065 2053 2053 2053 2053 2053 2040 2040 0 0 0 0 0 0 0 0
0 0 0 0 0 0 0 0 0 0 0 0 0 0 0 0 0 0 0 0 0 0 0 0 0 0 0 0 0 0 0 0 0 2078 2078 2090 2090 2078 2078 2090 2090 2090 2090 2090 2103 2103 2103 2103 2103 2103 2103 2103 2090 2090 2090 2090 2090 2090 2090 2090 2090 2090 2103 2103 2090 2090 2090 2090 2090 2090 2078 2078 2078 2078 2078 2090 2090 2090 2090 2090 2090 2090 2090 2090 2090 2090 2090 2090 2078 2078 2090 2090 2090 2090 2090 2090 2090 2090 2090 2090 2090 2090 2090 2103 2103 2103 2103 2103 2090 2090 2103 2103 2103 2103 2103 2103 2090 2090 2090 2090 2103 2103 2103 2103 2103 2103 2103 2103 2103 1688 1688 1688 1688 1688 1680 1624 1616 1609 1609 1609 1601 1601 1609 1609 1609 1609 1609 1616 1624 1624 1624 1639 1647 1655 1655 2103 2090 2090 2090 2090 2103 2103 2103 2103 2103 2103 2103 1833 1833 1833 1833 1833 1843 1843 1853 1853 1863 1863 1873 1883 1883 1894 2090 2090 2078 2078 2065 2040 2040 2040 2040 2040 2040 2040 2040 2040 2078 2090 2090 2103 2103 2116 2116 2116 2103 2090 2090 2090 2078 2078 2078 2078 2078 2078 2090 2090 2090 2090 2103 2116 2116 2129 2129 2129 1550 1550 1550 1550 1550 1550 1550 1550 1550 1550 1550 1550 1557 1557 1564 1572 1572 1579 1579 1579 1586 2116 2116 2116 2116 2116 2116 2116 2116 2116 2116 2116 2116 2116 2116 2116 2116 2116 2116 2116 2116 2116 2116 2116 2129 1853 1853 1853 1853 1863 1863 1873 1873 1873 1883 1883 1433 1433 1433 1439 1439 1439 1439 1439 1439 1439 1439 1439 1439 1439 1445 1445 1445 1445 1445 1445 1445 1445 1445 1439 1439 1445 1439 1439 2005 2016 2016 1427 1421 1421 1421 1421 1415 1415 1421 1421 1421 1421 1421 1421 1421 1421 1421 1427 1427 1427 1421 1421 1415 1415 1415 1415 1410 1410 1410 1410 1410 1410 1410 1410 1410 1410 1410 1410 1410 1410 1410 1410 1410 1410 1410 1404 1404 1404 1404 1398 1398 1398 1392 1392 1392 1392 1392 1392 1392 1392 1392 1392 1392 1392 1392 1392 1387 1387 1387 1387 1387 1387 1387 1387 1387 1387 1381 1381 1381 1376 1370 1370 1365 1365 1365 1359 1359 1359 1359 1359 1359 1359 1359 1365 1365 1365 1370 1376 1381 1381 0 0 0 1766 1757 1757 1748 1748 1757 1757 1757 1757 1757 1757 1757 1757 1757 1766 2103 2103 2103 2103 2103 2103 2103 2103 2103 2103 2103 2103 2103 2103 2103 2116 2103 2103 2116 2116 2116 2116 1843 1843 1843 1843 1843 1843 1843 1843 1843 1843 2116 2116 2103 2103 2103 2103 2103 2103 2103 2103 2103 2103 2103 2103 2103 2103 2103 2103 2103 2103 2103 2103 2103 2103 2103 2103 2103 2103 2103 2103 2103 0 1421 1421 1421 1421 1421 1421 1415 1415 1415 1410 1404 1404 1404 1404 1404 1404 1404 1404 1404 1404 1404 1404 1404 1404 2078 2078 2078 2078 2078 2078 2078 2090 2090 2090 2090 2090 2090 2090 2090 2090 2090 2090 2090 2090 2090 2090 2090 2078 2078 2078 2078 2078 2078 2078 2078 2078 2078 2078 2078 2078 2078 2078 2078 2078 2078 2078 2078 2078 2078 2078 2078 2078 2078 2078 2078 2078 2078 2078 2078 2078 2078 2078 2078 2078 2078 2078 2078 2078 2078 2078 2078 2078 2078 2065 2065 2065 2065 2065 2065 2065 2065 2065 2065 2065 2065 2065 2065 2053 2053 2053 2053 2053 2053 2053 2053 2053 2053 2053 2053 2053 2053 2065 2065 2053 2053 2053 2053 2053 2053 2053 2053 2053 2053 2053 2053 2040 2040 2040 2040 2040 0 0 0 0 0 0 0 0
0 0 0 0 0 0 0 0 0 0 0 0 0 0 0 0 0 0 0 0 0 0 0 0 0 0 0 0 0 0 0 0 0 2065 2065 2065 2065 2065 2065 2078 2078 2090 2090 2090 2090 2090 2090 2090 2090 2090 2090 2090 2078 2078 2090 2090 2090 2090 2090 2090 2090 2090 2090 2090 2090 2090 2090 2078 2078 2078 2065 2065 2065 2065 2065 2078 2078 2078 2078 2078 2090 2078 2078 2078 2078 2078 2078 2078 2078 2078 2078 2078 2090 2090 2090 2090 2090 2090 2090 2090 2090 2090 2090 2090 2090 2090 2090 2090 2090 2090 2090 2090 2090 2090 2090 2090 2090 2090 2090 2090 2090 2090 2090 2090 2090 2090 2103 2103 1688 1688 1688 1688 1688 1688 1680 1624 1616 1616 1609 1609 1601 1601 1609 1609 1609 1609 1609 1616 1624 1632 1639 1647 1647 1655 1655 2090 2090 2090 2090 2090 2090 2090 2090 2090 2090 2090 1823 1823 1833 1833 1833 1833 1843 1843 1853 1853 1863 1863 1873 1883 1883 2090 2090 2090 2078 2078 2065 2053 2040 2040 2040 2040 2040 2040 2040 2040 2078 2078 2090 2090 2103 2103 2116 2103 2103 2090 2090 2090 2078 2078 2078 2078 2078 2078 2090 2090 2090 2090 2103 2116 2116 2129 2129 2129 1557 1557 1557 1557 1557 1557 1557 1557 1557 1557 1557 1557 1557 1557 1564 1572 1572 1579 1579 1579 2103 2103 2103 2103 2103 2103 2103 2103 2103 2103 2103 2116 2103 2103 2116 2116 2116 2116 2116 2116 2116 2116 2116 2116 1843 1843 1843 1853 1853 1853 1853 1863 1873 1873 1883 1883 1883 1439 1439 1439 1439 1439 1439 1439 1439 1439 1439 1445 1445 1445 1445 1445 1452 1452 1452 1452 1445 1445 1445 1445 2005 2005 2005 2005 2005 2016 1843 1843 1843 1853 1853 1853 1863 1873 1873 1421 1421 1421 1421 1421 1421 1421 1421 1427 1427 1427 1421 1421 1421 1415 1415 1415 1410 1410 1410 1410 1410 1410 1410 1410 1410 1410 1410 1410 1410 1410 1410 1410 1410 1410 1410 1410 1404 1404 1404 1398 1398 1398 1392 1392 1392 1392 1392 1392 1392 1392 1392 1392 1392 1392 1392 1392 1392 1392 1392 1387 1387 1387 1387 1387 1387 1387 1387 1381 1381 1376 1370 1370 1365 1365 1365 1359 1359 1359 1359 1365 1365 1365 1365 1365 1365 1365 1370 1381 1381 1381 0 1776 0 1766 1757 1757 1757 1757 1757 1757 1757 1757 1757 1757 1757 1757 1757 1757 2103 2103 2103 2103 2103 2103 2103 2090 2090 2090 2090 2090 2090 2103 2103 2103 2103 2103 2103 2103 2103 2103 1843 1843 1843 1843 1843 1843 1843 1843 1843 1843 2103 2103 2103 2090 2090 2090 2090 2090 2090 2090 2090 2090 2090 2090 2090 2090 2090 2090 2090 2090 2090 2090 2090 2090 2090 2090 2090 2090 2090 2090 2090 0 1415 1415 1421 1421 1421 1421 1415 1415 1415 1410 1404 1404 1404 1404 1404 1404 1404 1404 1404 1404 1404 1404 1404 2078 2078 2078 2078 2078 2078 2078 2078 2078 2078 2078 2078 2078 2078 2078 2078 2078 2078 2078 2090 2090 2090 2090 2078 2078 2078 2078 2078 2078 2078 2078 2078 2078 2078 2078 2078 2078 2078 2078 2078 2078 2078 2078 2078 2078 2078 2078 2078 2078 2078 2078 2078 2065 2065 2065 2065 2065 2065 2065 2065 2065 2065 2065 2065 2065 2065 2065 2065 2065 2065 2053 2053 2053 2053 2053 2053 2053 2053 2053 2053 2053 2053 2053 2053 2053 2053 2053 2053 2053 2040 2040 2040 2040 2040 2040 2040 2040 2040 2040 2040 2040 2028 2028 2028 2028 2028 2028 2028 2040 2040 2040 2040 2040 2040 2040 2028 2028 0 0 0 0 0 0 0 0
0 0 0 0 0 0 0 0 0 0 0 0 0 0 0 0 0 0 0 0 0 0 0 0 0 0 0 0 0 0 0 0 0 2065 2065 2065 2065 2065 2065 2065 2065 2078 2078 2078 2078 2078 2078 2078 2078 2078 2078 2078 2078 2078 2078 2078 2090 2090 2090 2078 2078 2078 2078 2065 2065 2065 2078 2065 2065 2065 2065 2065 2065 2065 2065 2065 2065 2065 2065 2078 2078 2078 2078 2065 2065 2065 2065 2065 2065 2065 2078 2078 2078 2078 2090 2078 2078 2078 2078 2090 2090 2090 2090 2090 2090 2090 2090 2090 2078 2078 2090 2078 2078 2090 2090 2090 2090 2090 2090 2090 2090 2090 2090 2090 2090 2090 2090 2090 1688 1688 1688 1696 1696 1696 1680 1616 1609 1609 1609 1609 1609 1609 1609 1609 1609 1616 1616 1624 1624 1632 1639 1647 1647 1655 2090 2090 2090 2090 2090 2090 2090 2090 2090 2090 2090 2090 1823 1823 1833 1833 1833 1833 1843 1843 1853 1853 1853 1863 1873 2090 2090 2090 2090 2090 2078 2078 2065 2053 2040 2040 2040 2040 2040 2040 2040 2040 2078 2078 2090 2090 2103 2103 2103 2103 2103 2090 2090 2090 2078 2078 2078 2078 2078 2078 2090 2090 2090 2090 2103 2116 2116 2116 2129 2129 1557 1557 1557 1557 1557 1557 1557 1557 1557 1557 1557 1557 1557 1557 1564 1572 1579 1579 1579 1586 1586 2103 2103 2090 2090 2103 2103 2103 2103 2103 2103 2103 2103 2103 2103 2103 2103 2103 2103 2116 2116 2116 2116 1843 1843 1843 1843 1843 1843 1853 1853 1853 1873 1873 1883 1883 1883 1439 1439 1439 1439 1439 1439 1439 1439 1439 1439 1445 1445 1445 1445 1452 1464 1458 1458 1970 1445 1445 2005 2005 2005 2005 2005 2005 2005 1833 1833 1843 1853 1853 1853 1853 1863 1873 1873 1883 1883 1421 1415 1415 1421 1421 1421 1427 2090 2090 2090 2078 2078 2078 1415 1415 1410 1410 1410 1415 1410 1410 1410 1410 1410 1410 1410 1410 1415 1410 1410 1410 1410 1410 1410 1410 1404 1404 1404 1404 1404 1398 1398 1392 1392 1392 1392 1392 1392 1392 1392 1392 1392 1392 1392 1392 1392 1392 1392 1387 1387 1387 1387 1387 1387 1387 1387 1381 1381 1381 1376 1370 1365 1365 1365 1359 1359 1359 1359 1365 1365 1365 1365 1365 1365 1365 1370 1365 1365 1365 0 1776 1776 1766 1757 1757 1757 1757 1757 1757 1757 1757 1757 1757 1757 1757 1757 1757 2090 2090 2103 2103 2090 2090 2090 2090 2090 2090 2090 2090 2090 2090 2090 2090 2090 2090 2090 2090 2090 2090 1843 1843 1843 1843 1843 1843 1843 1843 1843 1843 2103 2103 2103 2090 2090 2090 2090 2090 2090 2090 2090 2090 2090 2090 2090 2090 2090 2090 2090 2090 2090 2090 2090 2090 2090 2090 2090 2090 2090 2090 0 1415 1415 1415 1421 1421 1421 1421 1415 1415 1415 1415 1404 1404 1404 1404 1404 1404 1404 1404 1404 1410 1404 1404 1410 1415 2065 2065 2065 2065 2065 2065 2065 2078 2078 2078 2078 2078 2078 2078 2078 2078 2078 2078 2078 2078 2078 2078 2078 2065 2065 2065 2065 2065 2065 2065 2078 2065 2065 2065 2078 2078 2078 2078 2078 2078 2078 2065 2065 2065 2065 2065 2065 2065 2065 2078 2065 2065 2065 2065 2065 2065 2065 2065 2053 2053 2065 2053 2053 2065 2065 2065 2065 2065 2053 2053 2040 2040 2040 2040 2040 2040 2040 2040 2040 2040 2040 2053 2040 2040 2040 2040 2053 2040 2028 2028 2040 2040 2040 2040 2040 2040 2040 2040 2040 2028 2028 2028 2028 2028 2028 2028 2028 2028 2028 2028 2028 2028 2028 2028 2028 2028 0 0 0 0 0 0 0 0
0 0 0 0 0 0 0 0 0 0 0 0 0 0 0 0 0 0 0 0 0 0 0 0 0 0 0 0 0 0 0 0 0 2065 2065 2065 2065 2053 2053 2065 2065 2065 2065 2078 2065 2065 2065 2065 2065 2065 2065 2078 2078 2078 2078 2078 2078 2078 2078 2078 2078 2065 2065 2065 2065 2065 2065 2065 2065 2065 2065 2065 2065 2053 2053 2053 2053 2053 2053 2053 2078 2065 2065 2053 2053 2053 2053 2053 2053 2053 2065 2078 2078 2078 2078 2078 2078 2078 2078 2090 2090 2090 2090 2090 2090 2078 2078 2078 2078 2078 2078 2078 2078 2078 2078 2078 2078 2078 2078 2090 2090 2090 2078 2078 2078 2090 2090 2090 1688 1688 1696 1705 1696 1696 1688 1616 1609 1609 1609 1609 1609 1609 1609 1609 1609 1616 1616 1624 1624 1632 1639 1647 1655 1655 1663 2090 2090 2090 2090 2090 2090 2090 2090 2078 2078 2078 1823 1823 1823 1823 1823 1833 1843 1843 1853 1853 1853 1863 1873 2065 2065 2078 2090 2078 2078 2078 2065 2065 2053 2040 2040 2040 2040 2040 2040 2065 2078 2078 2090 2090 2090 2090 2103 2103 2090 2090 2090 2090 2090 2078 2078 2078 2078 2078 2078 2090 2090 2090 2090 2103 2116 2116 2103 2103 2103 1557 1557 1557 1557 1557 1557 1557 1557 1557 1557 1557 1557 1557 1564 1572 1579 1579 1579 1586 1586 2090 2090 2090 2090 2090 2090 2090 2090 2090 2090 2090 2103 2090 2090 2090 2103 2103 2103 2116 2116 1843 1843 1843 1843 1843 1843 1843 1843 1853 1853 1853 1873 1883 1883 1883 1439 1439 1439 1439 1439 1439 1439 1439 1439 1439 1445 1445 1445 1445 1445 1452 1470 1464 1464 1981 1981 1993 2005 2016 2016 2005 2005 2016 1823 1823 1833 1843 1843 1853 1853 1853 1863 1873 1873 1873 2090 2078 1415 1415 1421 1421 1421 2078 2078 2078 2078 2078 2078 2078 2078 1415 1410 1410 1410 1415 1410 1410 1410 1410 1410 1410 1410 1410 1415 1415 1410 1410 1415 1415 1415 1415 1410 1410 1404 1404 1404 1404 1404 1404 1398 1398 1398 1392 1392 1392 1392 1392 1392 1392 1392 1392 1392 1392 1392 1387 1387 1387 1387 1387 1387 1387 1387 1387 1387 1381 1376 1370 1370 1365 1365 1365 1359 1359 1359 1365 1365 1365 1365 1365 1365 1365 1359 1359 1365 1365 1349 1776 1776 1766 1757 1757 1757 1757 1757 1757 1757 1757 1757 1757 1757 1757 1757 1757 2090 2090 2090 2090 2090 2090 2090 2090 2090 2078 2078 2078 2078 2090 2090 2090 2090 2090 2090 2090 2090 2090 1843 1843 1843 1843 1843 1843 1843 1853 1843 1843 2078 2078 2078 2078 2078 2090 2090 2090 2090 2090 2090 2090 2090 2090 2090 2090 2078 2078 2078 2078 2078 2078 2078 2078 2078 2078 2090 2090 2090 2090 0 1421 1421 1421 1421 1421 1421 1421 1421 1421 1415 1415 1404 1404 1404 1404 1404 1404 1404 1404 1404 1410 1410 1410 1410 1415 2065 2065 2065 2065 2053 2053 2065 2065 2065 2065 2065 2065 2065 2065 2065 2065 2065 2065 2065 2078 2065 2065 2065 2065 2065 2053 2053 2053 2053 2053 2065 2053 2053 2053 2065 2065 2065 2065 2065 2065 2065 2065 2065 2053 2053 2053 2065 2065 2065 2065 2065 2065 2065 2053 2053 2053 2053 2053 2053 2053 2053 2053 2053 2053 2053 2053 2053 2053 2040 2028 2028 2028 2028 2028 2028 2028 2028 2040 2040 2028 2028 2040 2028 2028 2028 2028 2028 2028 2028 2028 2028 2028 2028 2028 2028 2028 2028 2028 2028 2028 2028 2016 2016 2028 2028 2028 2028 2028 2028 2028 2028 2028 2028 2028 2016 2016 0 0 0 0 0 0 0 0
0 0 0 0 0 0 0 0 0 0 0 0 0 0 0 0 0 0 0 0 0 0 0 0 0 0 0 0 0 0 0 0 0 2053 2053 2053 2053 2053 2053 2053 2053 2065 2065 2065 2065 2065 2065 2065 2065 2065 2065 2065 2065 2078 2078 2078 2078 2065 2065 2065 2065 2065 2065 2053 2053 2053 2053 2053 2053 2053 2053 2053 2053 2053 2053 2053 2053 2053 2053 2053 2065 2065 2053 2053 2053 2053 2053 2053 2053 2053 2053 2065 2065 2065 2078 2078 2078 2078 2078 2078 2078 2078 2078 2078 2078 2078 2065 2065 2065 2065 2065 2065 2065 2065 2065 2065 2078 2078 2078 2078 2078 2078 2078 2078 2078 2078 2078 2078 1696 1696 1696 1705 1705 1696 1696 1616 1609 1609 1609 1609 1609 1609 1609 1609 1609 1616 1616 1624 1632 1639 1647 1647 1655 1655 1663 2090 2078 2078 2078 2090 2090 2078 2078 2065 2065 1813 1813 1813 1823 1823 1823 1833 1843 1843 1853 1853 1853 1863 2053 2053 2065 2065 2090 2078 2078 2065 2065 2065 2053 2053 2053 2040 2040 2040 2040 2053 2078 2078 2090 2090 2090 2090 2090 2090 2090 2090 2090 2090 2090 2078 2078 2078 2078 2078 2078 2090 2090 2090 2090 2090 2103 2090 2090 2090 2090 1557 1557 1557 1557 1557 1557 1557 1557 1557 1557 1557 1557 1557 1564 1572 1572 1579 1579 1586 1586 2078 2090 2078 2078 2078 2078 2090 2090 2090 2090 2090 2090 2090 2090 2090 2090 2103 2103 2103 1833 1833 1833 1833 1833 1843 1843 1843 1843 1853 1853 1853 1873 1883 1883 1883 0 1439 1439 1439 1439 1445 1439 1439 1439 1439 1445 1445 1445 1445 1445 1452 1470 1470 1981 1981 1981 2005 2016 2016 2016 2005 2005 2016 1813 1813 1823 1833 1843 1853 1853 1853 1863 1873 1873 1873 2078 2078 2078 2078 2090 2090 2090 2078 2078 2078 2078 2078 2065 2065 2065 2078 2078 2078 1415 1415 1415 1410 1410 1415 1415 1415 1415 1415 1415 1415 1415 1415 1415 1415 1415 1415 1415 1410 1404 1404 1404 1404 1404 1404 1398 1398 1398 1398 1398 1398 1398 1398 1398 1398 1392 1392 1398 1392 1392 1387 1387 1387 1387 1387 1387 1387 1387 1387 1387 1381 1376 1370 1370 1365 1365 1365 1365 1365 1365 1365 1365 1365 1365 1365 1365 1365 1359 1359 1349 1349 1349 1757 1757 1757 1757 1757 1757 1757 1757 1757 1757 1757 1757 1757 1757 1757 1757 1757 2090 2090 2090 2090 2090 2090 2090 2090 2078 2078 2078 2078 2078 2078 2078 2078 2078 2078 2078 2078 2078 2078 1853 1853 1853 1853 1853 1853 1853 1853 1843 1843 2065 2065 2065 2078 2078 2078 2078 2078 2078 2078 2090 2090 2078 2078 2078 2078 2078 2078 2078 2078 2078 2078 2078 2065 2065 2078 2078 2078 2078 2078 0 1427 1427 1427 1427 1427 1421 1421 1421 1421 1421 1415 1410 1410 1404 1404 1404 1404 1404 1404 1410 1410 1410 1410 1415 2040 2053 2053 2053 2053 2053 2053 2053 2065 2065 2065 2065 2065 2053 2053 2065 2065 2065 2065 2065 2065 2065 2065 2065 2053 2053 2053 2053 2053 2053 2053 2053 2053 2053 2053 2053 2053 2053 2053 2053 2053 2053 2053 2053 2053 2053 2053 2053 2053 2053 2065 2065 2053 2053 2053 2053 2053 2053 2053 2040 2040 2040 2040 2040 2040 2040 2040 2040 2040 2040 2028 2028 2028 2028 2028 2028 2028 2028 2028 2028 2028 2028 2028 2028 2028 2028 2028 2028 2028 2016 2016 2016 2016 2016 2016 2016 2016 2016 2016 2016 2016 2016 2016 2016 2016 2028 2016 2016 2016 2028 2028 2016 2016 2016 2016 2016 2016 0 0 0 0 0 0 0 0
0 0 0 0 0 0 0 0 0 0 0 0 0 0 0 0 0 0 0 0 0 0 0 0 0 0 0 0 0 0 0 0 0 2053 2053 2053 2053 2053 2053 2053 2053 2053 2053 2065 2065 2065 2065 2065 2065 2065 2065 2065 2065 2065 2065 2065 2065 2065 2065 2053 2053 2053 2053 2053 2053 2053 2053 2053 2053 2053 2040 2040 2040 2040 2053 2053 2053 2053 2053 2053 2053 2053 2053 2053 2053 2053 2053 2040 2040 2040 2053 2053 2053 2053 2065 2065 2065 2065 2078 2078 2078 2078 2065 2065 2078 2065 2065 2053 2053 2053 2065 2065 2053 2053 2065 2065 2065 2065 2065 2065 2065 2065 2065 2065 2065 2078 2078 2078 1696 1696 1705 1705 1705 1705 1705 1624 1609 1609 1609 1609 1609 1609 1609 1609 1609 1616 1616 1624 1632 1639 1647 1647 1647 1655 1655 2078 2078 2078 2078 2090 2090 2078 2078 2065 2065 1813 1813 1813 1813 1813 1823 1823 1833 1843 1843 1843 1843 1843 2053 2053 2053 2065 2065 2065 2065 2065 2065 2065 2053 2053 2053 2040 2040 2040 2040 2053 2065 2065 2078 2078 2078 2090 2090 2090 2090 2090 2090 2090 2078 2078 2078 2078 2078 2078 2078 2078 2078 2078 2090 2090 2090 2090 2090 2090 2090 1557 1557 1557 1557 1557 1557 1557 1557 1557 1557 1557 1557 1557 1564 1572 1572 1579 1579 1586 1586 2078 2078 2078 2078 2078 2078 2078 2078 2078 2078 2078 2090 2090 2078 2078 2090 2090 2103 2103 1833 1833 1833 1833 1833 1833 1833 1843 1843 1843 1843 1853 1853 1883 1883 1883 1439 1439 1439 1439 1445 1445 1439 1439 1439 1439 1445 1445 1445 1445 1445 1452 1470 1470 1981 1981 1981 2016 2016 2016 2016 2016 2016 2016 1813 1813 1823 1833 1843 1853 1853 1853 1863 1873 1873 1873 2078 2078 2078 2078 2078 2078 2078 2065 2065 2078 2078 2078 2065 2065 2065 2078 2078 2065 2065 2065 2065 2065 2065 2053 2040 2040 2016 2005 1415 1415 1415 1415 1415 1421 1421 1421 1415 1415 1410 1410 1410 1410 1404 1404 1404 1404 1404 1398 1398 1398 1398 1398 1398 1398 1392 1392 1398 1392 1392 1387 1387 1387 1387 1387 1387 1387 1387 1387 1387 1381 1376 1370 1370 1370 1370 1365 1365 1365 1365 1365 1365 1365 1365 1365 1365 1365 1359 1359 1349 1349 1349 1757 1757 1757 1757 1757 1757 1757 1757 1757 1757 1757 1757 1757 1757 1766 1776 1776 2078 2078 2078 2078 2078 2065 2065 2065 2065 2065 2065 2065 2053 2053 2053 2053 2065 2065 2065 2065 2065 2065 1853 1853 1853 1853 1853 1853 1853 1853 1843 1843 2065 2065 2065 2053 2053 2065 2065 2065 2065 2065 2078 2078 2078 2078 2078 2078 2065 2065 2065 2065 2065 2065 2065 2065 2065 2065 2078 2078 2078 2078 1427 1427 1427 1427 1427 1427 1427 1421 1421 1421 1421 1415 1410 1410 1404 1404 1404 1404 1404 1404 1410 1410 1410 1415 1415 2040 2040 2040 2040 2040 2040 2040 2053 2053 2053 2053 2053 2053 2053 2053 2053 2053 2053 2053 2053 2053 2053 2053 2053 2053 2053 2053 2053 2040 2040 2040 2040 2040 2040 2040 2040 2040 2053 2053 2053 2053 2053 2053 2053 2040 2040 2040 2040 2053 2053 2065 2065 2053 2053 2053 2053 2053 2040 2040 2040 2040 2040 2040 2040 2040 2040 2040 2040 2040 2028 2016 2016 2016 2016 2016 2016 2028 2028 2028 2028 2028 2016 2016 2016 2016 2016 2016 2016 2016 2016 2016 2016 2016 2005 2005 2016 2016 2016 2005 2005 2016 2016 2016 2016 2016 2016 2016 2016 2016 2016 2016 2005 2005 2016 2005 2005 2005 0 0 0 0 0 0 0 0
0 0 0 0 0 0 0 0 0 0 0 0 0 0 0 0 0 0 0 0 0 0 0 0 0 0 0 0 0 0 0 0 0 2053 2053 2053 2040 2040 2040 2040 2040 2040 2053 2053 2053 2053 2053 2053 2053 2053 2053 2065 2065 2065 2065 2065 2065 2053 2053 2053 2053 2040 2040 2040 2040 2040 2040 2040 2040 2053 2040 2040 2040 2040 2040 2040 2040 2053 2040 2040 2040 2053 2040 2040 2040 2040 2040 2040 2040 2040 2040 2040 2053 2053 2053 2053 2053 2053 2053 2053 2053 2065 2065 2065 2065 2065 2053 2053 2053 2053 2053 2053 2053 2053 2053 2053 2065 2065 2065 2065 2065 2065 2065 2065 2065 2065 2065 2065 1705 1705 1705 1705 1705 1705 1705 1624 1601 1601 1609 1609 1609 1609 1609 1609 1609 1616 1616 1624 1632 1639 1639 1647 1647 1647 1655 2078 2078 2078 2078 2078 2078 2090 2090 2078 1804 1804 1813 1813 1813 1813 1823 1823 1833 1843 1843 1843 1843 1843 2053 2053 2053 2065 2065 2065 2065 2065 2053 2053 2053 2053 2053 2040 2040 2040 2040 2065 2065 2065 2078 2078 2078 2078 2078 2078 2090 2078 2078 2078 2078 2078 2078 2078 2078 2078 2078 2078 2078 2078 2078 2090 2090 2078 2078 2078 2078 2078 1557 1557 1557 1557 1557 1557 1557 1557 1557 1557 1557 1557 1564 1572 1572 1579 1579 1586 2078 2078 2078 2078 2078 2078 2078 2078 2078 2078 2078 2078 2078 2078 2078 2078 2090 2090 2090 2103 1823 1823 1823 1823 1823 1823 1823 1833 1833 1833 1833 1843 1853 1853 1853 0 1439 1439 1439 1445 1445 1445 1445 1445 1445 1445 1445 1445 1445 1445 1452 1452 1477 1993 1993 1993 2005 2016 2016 2016 2016 2016 2016 2016 1813 1813 1813 1833 1843 1843 1853 1853 1863 1873 1863 1863 2078 2078 2078 2078 2078 2078 2078 2065 2065 2065 2065 2078 2065 2065 2065 2065 2065 2065 2065 2065 2065 2065 2065 2053 2040 2040 2016 1993 1981 1981 1970 1970 1970 1970 1970 1981 1981 1415 1410 1410 1410 1410 1410 1404 1404 2040 2040 2040 2040 2040 2053 2053 1398 1398 1398 1398 1398 1392 1387 1387 1387 1387 1387 1387 1387 1392 1387 1387 1387 1381 1376 1370 1370 1370 1370 1370 1365 1365 1365 1365 1365 1365 1365 1365 1365 1365 1365 1365 1365 1365 1766 1766 1766 1766 1757 1757 1757 1757 1757 1757 1757 1757 1757 1766 1766 1766 1785 1785 2065 2065 2065 2065 2053 2053 2053 2053 2053 2053 2053 2053 2053 2053 2053 2053 2053 2053 2053 2053 2053 1853 1853 1863 1863 1863 1853 1853 1853 1853 1853 1853 2053 2053 2053 2053 2053 2053 2053 2053 2053 2053 2065 2065 2065 2065 2065 2065 2065 2065 2053 2053 2053 2053 2053 2053 2053 2053 2065 2065 2078 2078 1427 1427 1427 1427 1427 1427 1427 1427 1427 1427 1421 1421 1410 1410 1410 1410 1410 1404 1404 1410 1410 1410 1410 1415 1415 2040 2040 2040 2040 2040 2040 2040 2040 2053 2040 2040 2040 2040 2040 2040 2040 2040 2053 2053 2053 2053 2040 2040 2040 2040 2040 2040 2040 2040 2040 2040 2040 2040 2040 2040 2040 2040 2040 2040 2040 2040 2040 2040 2040 2040 2040 2040 2040 2040 2040 2053 2053 2053 2053 2040 2040 2040 2040 2040 2028 2028 2028 2028 2028 2028 2028 2028 2028 2028 2028 2016 2016 2016 2016 2016 2016 2016 2016 2016 2016 2016 2016 2016 2016 2016 2016 2016 2016 2016 2016 2016 2005 2005 2005 2005 2005 2005 2005 2005 2005 2005 2005 2005 2005 2005 2005 2005 1993 1993 2005 2005 1993 1993 2005 1993 1993 1993 0 0 0 0 0 0 0 0
0 0 0 0 0 0 0 0 0 0 0 0 0 0 0 0 0 0 0 0 0 0 0 0 0 0 0 0 0 0 0 0 0 2053 2040 2040 2040 2040 2040 2040 2040 2040 2040 2040 2040 2053 2053 2053 2053 2053 2053 2053 2053 2053 2053 2053 2053 2040 2040 2040 2040 2040 2040 2028 2028 2040 2040 2040 2040 2040 2040 2040 2040 2040 2040 2040 2040 2040 2040 2040 2040 2040 2040 2040 2040 2040 2040 2040 2040 2040 2040 2040 2040 2040 2053 2053 2053 2053 2053 2053 2053 2053 2053 2053 2053 2053 2053 2053 2053 2053 2053 2053 2053 2053 2053 2053 2053 2053 2053 2053 2053 2053 2053 2053 2053 2065 2065 2065 1705 1705 1705 1705 1705 1705 1705 1696 1601 1601 1609 1609 1609 1609 1609 1609 1616 1616 1624 1624 1632 1639 1639 1647 1647 1647 1655 2065 2065 2065 2065 2078 2078 2078 2078 1804 1794 1794 1804 1813 1813 1813 1823 1823 1833 1833 1833 1823 1823 2053 2053 2053 2053 2053 2053 2053 2053 2053 2053 2053 2053 2053 2053 2040 2040 2040 2040 2065 2065 2065 2065 2078 2078 2078 2078 2078 2078 2078 2078 2078 2078 2078 2078 2078 2078 2078 2078 2078 2078 2078 2078 2078 2078 2078 2065 2065 2065 2065 1557 1557 1557 1557 1557 1557 1557 1557 1557 1557 1557 1557 1564 1572 1579 1579 1579 1586 2078 2078 2078 2078 2078 2078 2078 2078 2078 2078 2078 2078 2078 2078 2078 2078 2078 2090 2090 1813 1813 1813 1823 1823 1823 1823 1823 1823 1833 1833 1833 1843 1853 1853 0 0 1445 1445 1445 1445 1445 1445 1445 1445 1445 1445 1445 1445 1445 1445 1452 1452 1477 1489 1993 2005 2005 2016 2016 2016 2016 2016 2016 2016 1804 1804 1813 1823 1833 1843 1843 1853 1863 1863 1863 1863 2078 2078 2065 2065 2078 2078 2078 2065 2065 2065 2065 2065 2065 2065 2065 2065 2065 2065 2065 2065 2065 2065 2053 2053 2040 2040 2016 1981 1981 1981 1970 1970 1970 1970 1970 1981 2005 2016 1410 1410 1410 1410 2053 2053 2053 2053 2053 2053 2053 2053 2053 2053 2053 2078 2078 1404 1398 1387 1387 1387 1387 1387 1387 1387 1387 1392 1392 1387 1387 1381 1376 1370 1370 1370 1370 1370 1370 1365 1365 1365 1365 1365 1365 1365 1365 1365 1359 1359 1359 0 1766 1766 1766 1766 1757 1757 1757 1757 1757 1757 1757 1757 1757 1766 1766 1766 1776 2053 2065 2065 2065 2053 2053 2053 2053 2053 2053 2053 2053 2053 2053 2053 2053 2053 2053 2053 2053 2053 2053 1853 1853 1863 1863 1863 1863 1863 1853 1853 1833 1833 2053 2040 2040 2040 2040 2040 2040 2040 2040 2040 2053 2053 2053 2053 2053 2053 2053 2053 2053 2053 2053 2053 2053 2053 2053 2053 2065 2065 2065 0 1427 1427 1427 1427 1427 1427 1427 1427 1427 1427 1427 1421 1415 1415 1415 1415 1410 1410 1410 1410 1410 1410 1410 1415 1415 2040 2040 2040 2040 2040 2040 2040 2040 2040 2040 2040 2040 2040 2040 2040 2040 2040 2040 2040 2040 2040 2040 2040 2040 2040 2040 2040 2040 2040 2040 2040 2040 2040 2040 2040 2040 2040 2040 2040 2040 2040 2028 2028 2028 2028 2028 2028 2028 2028 2040 2040 2040 2040 2040 2040 2040 2040 2040 2028 2028 2028 2028 2028 2028 2016 2016 2028 2028 2028 2016 2016 2016 2016 2016 2016 2016 2016 2016 2016 2016 2016 2016 2005 2005 2005 2016 2016 2005 2005 2005 2005 2005 2005 1993 1993 2005 2005 2005 2005 2005 2005 1993 1993 1993 1993 1993 1993 1993 1993 1993 1993 1981 1981 1993 1993 1993 1993 0 0 0 0 0 0 0 0
0 0 0 0 0 0 0 0 0 0 0 0 0 0 0 0 0 0 0 0 0 0 0 0 0 0 0 0 0 0 0 0 0 0 2040 2040 2040 2040 2040 2040 2040 2040 2040 2040 2040 2040 2053 2053 2053 2053 2053 2053 2053 2053 2040 2040 2040 2040 2040 2040 2040 2040 2053 2028 2028 2040 2040 2040 2040 2040 2028 2028 2028 2028 2040 2040 2040 2040 2028 2028 2028 2028 2028 2028 2028 2040 2028 2028 2040 2040 2040 2040 2040 2040 2040 2040 2040 2040 2040 2040 2040 2053 2053 2053 2053 2053 2053 2053 2040 2040 2040 2040 2040 2040 2040 2040 2040 2040 2040 2040 2053 2053 2053 2053 2053 2053 2053 2040 1705 1705 1705 1705 1713 1705 1705 1705 1594 1594 1609 1609 1609 1609 1609 1616 1616 1616 1624 1624 1632 1639 1639 1647 1647 1647 1647 2065 2040 2040 2053 2065 2065 2065 2078 1785 1785 1785 1794 1804 1804 1813 1813 1823 1823 1823 1823 1823 1823 2053 2053 2053 2053 2053 2053 2053 2053 2053 2053 2053 2040 2040 2040 2040 2040 2053 2053 2065 2065 2065 2065 2078 2078 2078 2078 2078 2078 2078 2078 2078 2078 2078 2065 2065 2078 2078 2078 2065 2065 2065 2065 2065 2065 2065 2065 2065 2053 2053 1557 1557 1557 1557 1557 1557 1557 1557 1557 1557 1557 1557 1564 1572 1579 1579 1579 1579 1564 1564 2065 2065 2065 2065 2065 2065 2065 2065 2065 2065 2065 2065 2065 2065 2078 2078 1813 1813 1813 1813 1813 1813 1813 1823 1823 1823 1823 1833 1833 1843 1843 2053 2065 2065 1445 1445 1445 1445 1445 1445 1445 1445 1445 1445 1445 1445 1445 1452 1452 1464 1477 1483 1489 2016 2016 2016 2016 2016 2016 2028 2016 1794 1794 1804 1813 1823 1833 1843 1843 1853 1863 1863 1863 1863 2065 2065 2065 2065 2065 2065 2078 2065 2065 2065 2065 2065 2065 2065 2065 2065 2065 2065 2065 2053 2053 2053 2053 2053 2053 2053 2005 1981 1981 1981 1970 1970 1970 1970 1970 1981 2005 2016 2028 2040 2053 2053 2053 2053 2053 2053 2053 2053 2053 2053 2053 2053 2053 2053 2053 2065 2065 1387 1387 1387 1387 1387 1387 1387 1387 1392 1392 1387 1387 1381 1370 1370 1370 1370 1370 1370 1370 1365 1365 1365 1365 1365 1365 1365 1365 1365 1359 1359 1359 0 1776 1776 1776 1766 1757 1757 1757 1757 1757 1757 1757 1757 1757 1766 1766 1766 1776 2053 2053 2053 2053 2053 2053 2053 2053 2053 2040 2040 2040 2040 2040 2040 2040 2040 2040 2053 2053 2053 1863 1853 1853 1863 1863 1863 1863 1863 1863 1853 1833 1833 2040 2040 2040 2040 2040 2040 2040 2040 2040 2040 2040 2040 2053 2053 2040 2040 2040 2040 2040 2040 2040 2040 2040 2040 2040 2040 2040 2053 2053 2053 1427 1427 1427 1427 1427 1427 1427 1427 1427 1427 1427 1427 1415 1415 1415 1415 1415 1410 1410 1410 1415 1415 1415 1415 1415 2028 2028 2028 2028 2028 2040 2040 2040 2040 2028 2028 2028 2028 2040 2028 2028 2040 2040 2040 2040 2040 2040 2040 2040 2040 2040 2040 2028 2028 2028 2028 2028 2028 2028 2028 2028 2028 2028 2028 2028 2028 2028 2028 2028 2028 2028 2028 2028 2028 2028 2028 2040 2028 2028 2028 2028 2028 2028 2028 2028 2016 2016 2016 2028 2016 2016 2016 2016 2016 2016 2016 2016 2016 2016 2016 2016 2016 2016 2005 2005 2005 2005 2005 1993 1993 2005 2005 1993 1993 1993 1993 1993 1993 1993 1993 1993 1993 1993 1993 1993 1993 1993 1993 1993 1993 1993 1993 1981 1981 1981 1981 1981 1981 1993 1993 1981 1981 0 0 0 0 0 0 0 0
0 0 0 0 0 0 0 0 0 0 0 0 0 0 0 0 0 0 0 0 0 0 0 0 0 0 0 0 0 0 0 0 0 0 2028 2028 2028 2028 2028 2028 2028 2028 2028 2028 2028 2028 2028 2040 2028 2028 2040 2040 2040 2040 2028 2028 2028 2028 2028 2028 2040 2040 2040 2040 2028 2028 2028 2016 2016 2028 2016 2016 2028 2028 2028 2028 2028 2028 2016 2016 2016 2016 2016 2016 2028 2028 2028 2028 2028 2028 2028 2028 2028 2028 2028 2028 2028 2028 2028 2040 2040 2040 2040 2053 2053 2053 2040 2040 2040 2040 2028 2028 2040 2040 2040 2040 2040 2040 2040 2040 2040 2040 2040 2040 2040 2053 2053 2040 2040 1705 1705 1713 1713 1705 1705 1705 1594 1594 1601 1609 1609 1609 1609 1609 1616 1616 1616 1624 1632 1639 1639 1647 1647 1647 1647 2053 2040 2040 2053 2053 2053 2040 2040 1785 1785 1785 1794 1804 1804 1804 1813 1813 1813 1823 1813 1813 1813 2053 2053 2053 2053 2053 2053 2053 2053 2053 2053 2053 2040 2040 2040 2040 2040 2040 2040 2053 2053 2065 2065 2065 2065 2065 2065 2065 2065 2065 2065 2065 2065 2065 2065 2065 2065 2065 2053 2053 2053 2053 2053 2053 2053 2053 2053 2053 2040 2040 2040 1564 1564 1557 1557 1557 1557 1557 1557 1557 1557 1557 1572 1572 1579 1579 1579 1579 1564 1564 2065 2065 2065 2065 2065 2065 2065 2065 2065 2053 2053 2053 2065 2065 2065 2078 1804 1804 1804 1813 1813 1813 1813 1813 1823 1823 1823 1823 1823 2053 2053 2053 2065 2065 1445 1445 1445 1445 1445 1445 1445 1445 1445 1445 1445 1445 1445 1452 1452 1464 1477 1483 1489 2016 2016 2016 2016 2016 2028 2028 2028 1794 1794 1804 1813 1813 1823 1833 1843 1853 1863 1863 1863 1863 1863 2065 2065 2065 2065 2065 2065 2053 2053 2053 2053 2053 2053 2053 2053 2053 2053 2053 2053 2053 2053 2053 2053 2053 2028 2028 2005 1981 1981 1981 1970 1970 1970 1970 1970 1981 2005 2016 2028 2040 2053 2053 2053 2053 2053 2040 2040 2040 2053 2053 2053 2053 2053 2053 2053 2053 2053 2053 2053 2053 2053 2053 2053 1392 1392 1392 1392 1387 1387 1381 1370 1370 1370 1370 1370 1370 1370 1365 1365 1365 1365 1365 1365 1365 1365 1365 1365 1365 1365 0 1776 1776 1776 1766 1766 1757 1757 1757 1757 1757 1766 1757 1757 1766 1766 1766 2053 2053 2053 2053 2053 2053 2040 2040 2040 2040 2040 2040 2040 2040 2040 2040 2040 2040 2040 2040 2040 2053 1853 1853 1853 1863 1863 1863 1863 1863 1863 1853 1853 2040 2040 2028 2028 2040 2040 2040 2028 2028 2040 2040 2040 2040 2040 2040 2040 2040 2040 2040 2040 2040 2028 2028 2040 2040 2040 2040 2040 2040 2053 2053 1433 1433 1427 1427 1427 1427 1427 1427 1427 1427 1427 1427 1415 1415 1415 1415 1415 1415 1415 1415 1415 1421 1421 1421 2016 2016 2016 2028 2028 2028 2028 2028 2028 2028 2028 2028 2028 2028 2016 2016 2016 2016 2028 2028 2028 2028 2028 2028 2028 2028 2028 2028 2028 2028 2028 2016 2016 2028 2028 2028 2028 2028 2028 2028 2028 2028 2016 2016 2028 2028 2028 2028 2028 2028 2028 2028 2028 2028 2028 2028 2028 2028 2028 2016 2016 2016 2016 2016 2016 2005 2005 2005 2005 2016 2016 2005 2005 2005 2005 2005 2016 2016 2005 2005 2005 2005 1993 1993 1993 1993 1993 1993 1981 1981 1981 1981 1981 1981 1981 1981 1993 1981 1981 1981 1981 1981 1981 1981 1981 1981 1981 1981 1981 1981 1981 1981 1981 1981 1981 1981 1981 1981 0 0 0 0 0 0 0 0
0 0 0 0 0 0 0 0 0 0 0 0 0 0 0 0 0 0 0 0 0 0 0 0 0 0 0 0 0 0 0 0 0 0 2016 2016 2016 2016 2028 2028 2028 2028 2028 2028 2028 2028 2028 2028 2028 2028 2028 2028 2040 2028 2028 2028 2028 2028 2028 2028 2028 2028 2040 2040 2028 2028 2028 2016 2016 2028 2016 2016 2016 2016 2028 2028 2016 2005 2005 2005 2016 2016 2005 2005 2016 2016 2016 2016 2016 2016 2016 2016 2016 2016 2016 2016 2016 2016 2016 2016 2016 2028 2028 2028 2040 2040 2028 2028 2016 2016 2016 2016 2016 2016 2016 2016 2016 2016 2016 2016 2028 2028 2028 2028 2028 2040 2040 2040 2040 2040 1713 1713 1705 1705 1705 1705 1594 1594 1601 1609 1609 1609 1609 1609 1616 1616 1616 1624 1632 1639 1639 1647 1647 1647 1647 2053 2028 2028 2028 2040 2040 2040 2040 1794 1785 1785 1794 1804 1804 1804 1804 1813 1813 1813 1813 1813 1813 2053 2053 2053 2053 2053 2053 2053 2053 2053 2053 2053 2040 2040 2040 2040 2040 2040 2040 2040 2040 2053 2053 2053 2053 2053 2053 2065 2065 2065 2065 2065 2065 2065 2053 2053 2053 2053 2053 2040 2040 2040 2040 2040 2040 2053 2053 2040 2040 2040 2040 1557 1557 1557 1557 1557 1557 1557 1557 1557 1557 1557 1572 1572 1579 1579 1579 1579 1564 1564 2040 2053 2053 2065 2065 2065 2065 2053 2053 2053 2053 2053 2053 2053 2053 2078 1785 1785 1794 1804 1804 1813 1813 1813 1813 1813 1823 1823 1823 2053 2040 2040 2040 2040 2040 1445 1445 1445 1445 1445 1445 1445 1445 1445 1445 1445 1452 1452 1458 1464 1470 1477 1477 2016 2016 2016 2016 2028 2028 2028 2028 1794 1794 1804 1813 1813 1823 1833 1843 1853 1863 1873 1863 1853 1853 2053 2053 2053 2065 2065 2065 2053 2053 2053 2040 2040 2040 2040 2040 2040 2040 2040 2040 2040 2040 2053 2053 2040 2028 2028 2005 1981 1981 1970 1970 1970 1970 1970 1970 1993 2005 2016 2016 2040 2040 2040 2040 2040 2040 2040 2040 2040 2040 2053 2053 2053 2053 2053 2053 2053 2053 2053 2053 2053 2053 2053 2053 2053 2053 2053 2053 1387 1387 1381 1370 1370 1370 1370 1370 1370 1370 1365 1365 1365 1365 1365 1365 1365 1365 1370 1370 0 0 0 0 1794 1785 1776 1766 1757 1757 1757 1757 1757 1766 1766 1766 1766 1766 1766 1766 2053 2053 2053 2040 2040 2040 2040 2040 2040 2040 2040 2040 2040 2040 2040 2040 2040 2040 2040 2040 2053 1853 1853 1853 1863 1863 1863 1863 1863 1863 1863 1863 2040 2028 2028 2028 2028 2040 2040 2028 2028 2040 2040 2040 2040 2040 2040 2040 2028 2028 2028 2028 2028 2028 2028 2028 2028 2028 2028 2028 2040 2040 2040 1433 1433 1427 1427 1427 1427 1427 1427 1427 1427 1427 1427 1415 1415 1415 1415 1421 1415 1415 1415 1421 1421 1421 1421 1993 2005 2016 2016 2016 2016 2016 2028 2028 2028 2016 2016 2016 2016 2005 2005 2005 2005 2016 2028 2016 2016 2016 2028 2028 2028 2016 2016 2016 2016 2005 2005 2005 2016 2016 2016 2016 2016 2016 2016 2016 2016 2016 2016 2016 2016 2016 2005 2005 2016 2016 2016 2016 2016 2016 2016 2005 2005 2016 2005 2005 2005 2005 2005 2016 2005 2005 2005 2005 2005 2005 2005 2005 2005 2005 2005 2005 2005 2005 1993 1993 1993 1993 1993 1981 1981 1981 1981 1981 1981 1970 1970 1970 1970 1970 1970 1981 1981 1981 1981 1981 1981 1981 1981 1981 1981 1981 1981 1981 1981 1970 1970 1970 1970 1970 1970 1970 1970 0 0 0 0 0 0 0 0
0 0 0 0 0 0 0 0 0 0 0 0 0 0 0 0 0 0 0 0 0 0 0 0 0 0 0 0 0 0 0 0 0 0 2016 2016 2016 2016 2016 2016 2028 2028 2028 2028 2016 2016 2028 2028 2016 2016 2028 2028 2040 2028 2028 2016 2016 2028 2028 2028 2028 2028 2028 2028 2028 2028 2028 2028 2016 2016 2016 2005 2005 2016 2016 2016 2016 2005 2005 2005 2005 2005 2005 2005 2005 2005 2005 2005 2005 2005 2005 2005 2005 2005 2016 2016 2016 2016 2016 2016 2016 2016 2016 2028 2028 2028 2016 2016 2016 2016 2016 2016 2016 2016 2016 2016 2005 2005 2005 2016 2016 2016 2016 2016 2028 2028 2028 2040 2040 2040 2040 2053 1705 1696 1696 1705 1632 1609 1609 1609 1609 1609 1616 1616 1616 1616 1624 1624 1632 1639 1639 1639 1647 1647 1647 2040 2028 2028 2028 2040 2040 1794 1785 1785 1785 1785 1794 1794 1804 1804 1804 1813 1813 1813 1813 1813 1813 2053 2053 2053 2053 2053 2053 2053 2040 2040 2040 2040 2040 2040 2040 2040 2040 2040 2040 2040 2040 2040 2040 2040 2040 2053 2053 2053 2053 2053 2053 2053 2053 2053 2053 2053 2053 2053 2040 2040 2040 2040 2040 2040 2040 2040 2040 2040 2040 2040 2040 1557 1557 1557 1557 1564 1557 1557 1557 1557 1564 1564 1572 1572 1579 1579 1579 1579 1564 1564 2040 2040 2053 2053 2053 2053 2053 2053 2053 2040 2040 2040 2040 2040 2040 2040 1785 1785 1794 1804 1804 1813 1813 1813 1813 1813 1823 1823 2053 2040 2040 2040 2028 2028 2028 1445 1445 1445 1445 1445 1445 1445 1445 1445 1445 1445 1452 1452 1458 1464 1470 1470 1477 2016 2016 2028 2028 2028 2028 2028 2028 1785 1785 1794 1813 1813 1823 1833 1843 1853 1863 1873 1873 1853 1853 2040 2040 2053 2053 2053 2053 2040 2040 2040 2040 2040 2040 2040 2040 2040 2040 2040 2040 2040 2040 2053 2040 2040 2028 2016 1993 1981 1981 1970 1970 1970 1970 1981 1981 1993 2005 2016 2016 2028 2028 2040 2040 2040 2040 2040 2040 2040 2040 2053 2053 2053 2053 2040 2040 2040 2040 2040 2040 2040 2040 2040 2040 2040 2053 2053 2040 2040 2040 1370 1370 1370 1370 1370 1370 1370 1370 1365 1365 1365 1365 1365 1365 1365 1365 1370 1370 0 0 0 0 1794 1794 1785 1766 1766 1766 1757 1757 1757 1757 1757 1757 1757 1757 1757 1766 2040 2040 2040 2040 2040 2040 2028 2028 2028 2028 2028 2028 2028 2028 2028 2028 2028 2040 2040 2040 2040 1853 1853 1853 1863 1863 1863 1863 1863 1863 1863 1863 2028 2028 2028 2028 2028 2028 2028 2028 2028 2028 2028 2028 2028 2028 2028 2028 2016 2016 2028 2016 2016 2016 2016 2016 2016 2016 2016 2016 2028 2040 2040 1427 1427 1427 1427 1427 1427 1427 1427 1427 1427 1427 1427 1421 1421 1421 1421 1421 1421 1421 1421 1421 1421 1421 1993 1993 2005 2005 2005 2005 2005 2005 2005 2005 1993 1993 1993 1993 1993 1993 1993 1993 1993 1993 2005 2005 2005 2005 2016 2016 2016 2005 2005 2005 2005 2005 2005 2005 2005 2005 2005 2005 2005 2005 2005 2005 2005 2005 2005 2005 2005 2005 2005 2005 2005 2005 2005 2005 2005 2005 2005 2005 2005 2005 1993 1993 2005 2005 2005 2005 1993 1993 1993 1993 2005 2005 1993 1993 1993 1993 1993 1993 1993 1981 1981 1981 1981 1981 1981 1981 1981 1981 1981 1981 1970 1970 1970 1970 1970 1970 1970 1981 1981 1981 1981 1981 1981 1981 1970 1970 1981 1970 1970 1970 1970 1970 1970 1970 1970 1970 1970 1970 1970 0 0 0 0 0 0 0 0
0 0 0 0 0 0 0 0 0 0 0 0 0 0 0 0 0 0 0 0 0 0 0 0 0 0 0 0 0 0 0 0 0 0 2016 2016 2016 2016 2016 2016 2028 2028 2028 2016 2016 2016 2016 2016 2016 2016 2016 2016 2028 2028 2028 2016 2016 2028 2016 2016 2028 2028 2028 2028 2028 2028 2016 2016 2016 2016 2005 2005 2005 2005 2005 2005 2005 2005 2005 2005 2005 2005 2005 2005 2005 2005 2005 2005 2005 2005 2005 2005 2005 2005 2005 2005 2005 2005 2005 2005 2005 2005 2005 2005 2016 2016 2016 2016 2005 2005 2005 2005 2005 2005 2005 2005 2005 2005 2005 2005 2005 2005 2005 2005 2016 2016 2016 2028 2040 2040 2040 2053 2053 1696 1696 1696 1688 1616 1616 1616 1616 1616 1616 1616 1616 1616 1624 1624 1632 1639 1639 1639 1647 1647 1647 2028 2028 2028 2028 2028 2028 1785 1776 1776 1785 1785 1785 1794 1794 1804 1804 1804 1813 1813 1813 1813 2040 2028 2028 2040 2040 2040 2040 2040 2040 2040 2040 2040 2028 2028 2028 2028 2028 2028 2028 2028 2040 2040 2040 2040 2040 2028 2028 2028 2028 2028 2040 2040 2040 2040 2040 2040 2040 2040 2040 2040 2040 2040 2040 2040 2040 2040 2040 2040 2040 2040 1564 1557 1557 1557 1557 1564 1557 1557 1557 1557 1564 1572 1572 1579 1579 1579 1579 1579 1572 1572 2028 2028 2040 2053 2053 2053 2053 2053 2053 2040 2040 2040 2040 2028 2028 2028 1785 1785 1785 1804 1804 1804 1813 1813 1813 1813 1813 2040 2040 2040 2028 2028 2016 2016 2016 1439 1439 1445 1445 1445 1445 1445 1445 1445 1445 1445 1452 1452 1458 1464 1470 1470 1477 1477 2028 2028 2028 2028 2028 2028 2040 1785 1785 1794 1794 1813 1813 1823 1843 1853 1863 1873 1873 1863 1863 2028 2028 2040 2040 2040 2040 2028 2028 2028 2028 2028 2028 2028 2028 2028 2028 2028 2028 2028 2028 2040 2040 2016 2016 2016 1993 1981 1981 1970 1970 1970 1970 1981 1981 1981 2005 2016 2016 2028 2028 2028 2028 2028 2028 2028 2028 2040 2040 2040 2040 2040 2040 2040 2040 2040 2040 2040 2040 2040 2040 2040 2040 2040 2040 2040 2040 2040 2040 1370 1370 1370 1370 1370 1370 1370 1370 1370 1370 1370 1365 1365 1365 1365 1365 1370 1370 0 0 0 0 1804 1794 1776 1766 1766 1766 1757 1757 1757 1757 1757 1757 1757 1757 1757 1757 2028 2028 2028 2028 2028 2028 2028 2028 2028 2016 2016 2016 2016 2016 2028 2028 2028 2028 2040 2040 2040 1853 1853 1863 1863 1863 1863 1863 1863 1863 1863 1863 2016 2016 2016 2016 2016 2016 2016 2016 2016 2016 2016 2016 2016 2016 2016 2016 2016 2016 2016 2016 2016 2016 2016 2016 2005 2005 2005 2016 2016 2028 2028 1427 1427 1427 1427 1427 1433 1427 1427 1427 1427 1427 1427 1421 1415 1415 1421 1421 1421 1421 1421 1421 1421 1427 1981 1981 1993 1993 2005 1993 1993 1993 1993 1993 1993 1993 1993 1993 1993 1993 1993 1993 1993 1993 1993 1993 1993 1993 1993 1993 1993 1993 1993 1993 1993 1993 1993 1993 1993 1993 1993 2005 2005 2005 2005 2005 2005 2005 1993 1993 1993 1993 1993 1993 1993 1993 1993 2005 2005 2005 2005 2005 2005 2005 1993 1993 1993 1993 2005 2005 1993 1993 1993 1993 1993 1993 1981 1981 1981 1981 1981 1981 1981 1981 1981 1981 1981 1981 1981 1970 1970 1970 1970 1970 1970 1970 1970 1970 1970 1970 1970 1970 1970 1970 1970 1970 1970 1970 1970 1970 1970 1970 1970 1970 1970 1970 1970 1970 1970 1970 1970 1970 1970 0 0 0 0 0 0 0 0
0 0 0 0 0 0 0 0 0 0 0 0 0 0 0 0 0 0 0 0 0 0 0 0 0 0 0 0 0 0 0 0 0 0 2005 2005 2005 2016 2016 2028 2028 2028 2028 2016 2016 2016 2016 2016 2016 2016 2016 2016 2028 2028 2016 2016 2016 2016 2016 2016 2016 2016 2016 2016 2016 2016 2016 2016 2016 2016 2005 2005 2005 2005 2005 2005 2005 2005 2005 2005 2005 1993 1993 2005 2005 1993 1993 1993 1993 1993 2005 2005 2005 2005 2005 2005 2005 2005 2005 2005 2005 2005 2005 2005 2005 2005 2005 2005 2005 2005 2005 2005 2005 2005 2005 2005 2005 2005 2005 2005 2005 2005 2005 2005 2005 2016 2016 2016 2016 2040 2040 2053 1705 1696 1696 1696 1705 1616 1616 1616 1616 1616 1616 1616 1624 1624 1624 1632 1632 1639 1639 1639 1647 1647 2016 2016 2016 2016 2028 2028 2028 1776 1776 1776 1776 1785 1785 1794 1794 1804 1804 1804 1813 1813 2028 2028 2028 2028 2028 2028 2028 2028 2028 2028 2028 2028 2028 2028 2028 2028 2028 2028 2028 2028 2028 2028 2040 2040 2040 2040 2028 2028 2028 2028 2028 2028 2028 2028 2028 2040 2040 2040 2040 2040 2040 2040 2040 2040 2040 2040 2040 2040 2040 2040 2040 2040 1564 1564 1564 1557 1557 1564 1557 1557 1557 1557 1564 1572 1572 1579 1579 1579 1579 1579 1572 1572 2028 2028 2040 2040 2040 2040 2040 2040 2040 2040 2040 2040 2028 2028 2028 1776 1776 1776 1785 1804 1804 1804 1813 1813 1813 1813 1813 2028 2028 2028 2028 2028 2016 2016 2016 1439 1439 1445 1445 1445 1445 1445 1445 1445 1452 1452 1452 1458 1458 1464 1470 1470 1477 1477 2016 2016 2028 2028 2028 2028 1776 1776 1776 1785 1785 1804 1813 1823 1843 1853 1863 1873 1873 1873 1883 2028 2028 2028 2028 2028 2028 2028 2028 2016 2016 2016 2016 2016 2016 2016 2016 2016 2016 2016 2028 2028 2028 2016 2016 2005 1993 1993 1981 1970 1970 1970 1970 1970 1981 1981 1993 2005 2016 2028 2028 2028 2028 2028 2028 2028 2028 2028 2028 2028 2028 2028 2028 2028 2028 2028 2028 2028 2028 2040 2028 2028 2028 2028 2028 2040 2028 2028 2028 1370 1370 1370 1370 1370 1370 1370 1370 1370 1370 1370 1370 1365 1365 1365 1370 1370 0 0 0 0 0 0 1794 1776 1766 1766 1766 1757 1757 1757 1757 1757 1757 1757 1757 1757 1757 2016 2028 2028 2028 2028 2028 2016 2016 2016 2016 2016 2016 2016 2016 2016 2016 2016 2016 2028 2028 2028 1853 1853 1863 1863 1863 1863 1863 1863 1863 1863 1863 2005 2005 2005 2016 2016 2016 2016 2016 2016 2016 2016 2016 2016 2005 2005 2005 2005 2005 2005 2005 2005 2005 2005 2005 2005 2005 2005 2005 2016 2016 2016 1427 1427 1427 1427 1427 1433 1427 1427 1427 1427 1427 1427 1421 1415 1415 1421 1421 1421 1421 1421 1421 1421 1427 1981 1981 1993 1993 1993 1993 1993 1993 1993 1993 1993 1981 1981 1993 1993 1993 1993 1993 1993 1993 1993 1993 1993 1993 1993 1993 1993 1993 1993 1993 1993 1993 1993 1993 1993 1993 1993 1993 1993 1993 1993 1993 1993 1993 1993 1993 1993 1993 1981 1981 1993 1993 1993 1993 1993 1993 1993 1993 1993 1993 1993 1993 1993 1993 1993 1993 1993 1993 1993 1993 1993 1993 1981 1981 1981 1970 1970 1981 1970 1970 1981 1981 1981 1981 1981 1970 1970 1970 1970 1970 1970 1959 1959 1959 1959 1970 1970 1970 1970 1970 1970 1970 1970 1970 1970 1970 1970 1970 1970 1959 1959 1959 1959 1959 1959 1959 1959 1959 1959 0 0 0 0 0 0 0 0
0 0 0 0 0 0 0 0 0 0 0 0 0 0 0 0 0 0 0 0 0 0 0 0 0 0 0 0 0 0 0 0 0 0 2005 2005 2005 2005 2016 2016 2016 2016 2016 2016 2016 2016 2016 2016 2005 2005 2016 2016 2016 2016 2005 2005 2005 2016 2005 2005 2016 2016 2016 2016 2005 2005 2005 2005 2005 2016 2005 2005 2005 2005 2005 1993 1993 1993 1993 1993 1993 1993 1993 1993 1993 1993 1993 1993 1993 1993 1993 1993 1993 1993 2005 2005 2005 2005 2005 2005 2005 2005 2005 2005 2005 2005 2005 2005 2005 2005 1993 1993 1993 1993 1993 1993 2005 1993 1993 2005 2005 2005 2005 2005 2005 2005 2005 2005 2016 2016 2016 2016 1705 1705 1705 1705 1705 1616 1616 1616 1616 1616 1616 1616 1624 1624 1624 1632 1632 1639 1647 1647 1647 1655 2005 2005 2005 2005 2005 1776 1748 1748 1776 1776 1776 1776 1785 1794 1794 1794 1794 1794 2028 2028 2028 2028 2028 2028 2028 2028 2028 2028 2028 2028 2028 2028 2028 2028 2016 2016 2016 2016 2016 2016 2016 2016 2028 2028 2028 2028 2028 2028 2028 2028 2028 2028 2028 2016 2016 2028 2028 2028 2028 2028 2028 2028 2028 2028 2028 2040 2040 2040 2040 2040 2040 2040 1564 1564 1564 1557 1557 1564 1557 1557 1557 1557 1564 1572 1572 1579 1579 1579 1579 1579 1572 1572 2028 2028 2028 2028 2028 2028 2028 2028 2028 2028 2028 2028 1766 1766 1766 1766 1776 1776 1776 1794 1794 1804 1804 1804 1813 1813 2028 2028 2028 2028 2028 2028 2016 2016 2016 1445 1445 1445 1445 1445 1445 1445 1445 1445 1452 1452 1452 1458 1458 1464 1470 1470 1470 1470 2016 2016 2016 2016 2028 2028 1766 1766 1766 1776 1776 1785 1794 1813 1843 1853 1863 1873 1873 1883 1894 2016 2016 2028 2028 2028 2028 2016 2016 2016 2016 2016 2016 2016 2016 2016 2016 2016 2016 2016 2016 2016 2016 2005 2005 2005 1993 1981 1981 1970 1970 1970 1970 1970 1981 1981 1993 2005 2016 2016 2028 2028 2016 2016 2016 2016 2016 2016 2016 2016 2016 2016 2016 2016 2016 2028 2028 2028 2028 2028 2028 2016 2016 2028 2028 2028 2028 2028 2028 1370 1370 1370 1370 1370 1370 1370 1370 1370 1370 1370 1370 1370 1370 1370 1370 1370 1381 0 0 0 0 0 1785 1776 1757 1757 1757 1757 1757 1757 1757 1757 1757 1757 1748 1748 1757 2016 2016 2016 2016 2016 2016 2016 2016 2016 2005 2005 2005 2005 2005 2005 2005 2016 2016 2016 2016 1853 1853 1863 1863 1863 1863 1863 1863 1863 1863 1863 1873 1993 2005 2005 2005 2016 2005 2005 2005 2005 2016 2016 2005 2005 2005 2005 2005 2005 2005 2005 2005 2005 2005 2005 2005 1993 1993 2005 2005 2005 2016 2016 1427 1427 1427 1427 1427 1433 1427 1427 1427 1427 1427 1427 1421 1421 1421 1421 1421 1421 1421 1421 1421 1421 1427 1981 1981 1993 1993 1993 1993 1993 1993 1981 1981 1981 1981 1981 1981 1981 1981 1981 1981 1981 1981 1981 1981 1981 1981 1993 1993 1993 1993 1993 1993 1993 1993 1993 1993 1993 1993 1993 1993 1993 1981 1981 1981 1981 1981 1981 1981 1981 1981 1981 1981 1981 1993 1993 1993 1993 1993 1993 1993 1993 1993 1993 1993 1981 1981 1981 1981 1981 1981 1981 1981 1981 1981 1970 1970 1970 1970 1970 1970 1970 1970 1970 1970 1970 1970 1970 1970 1970 1970 1970 1959 1959 1959 1947 1947 1947 1959 1959 1959 1959 1970 1970 1970 1970 1970 1959 1959 1959 1959 1959 1959 1959 1959 1959 1959 1947 1947 1947 1947 1947 0 0 0 0 0 0 0 0
0 0 0 0 0 0 0 0 0 0 0 0 0 0 0 0 0 0 0 0 0 0 0 0 0 0 0 0 0 0 0 0 0 0 2005 2005 2005 2005 2005 2005 2016 2005 2005 2005 2005 2005 2005 2005 2005 2005 2005 2005 1993 1993 2005 2005 2005 2005 2005 2005 2005 2005 2005 2005 2005 1993 1993 2005 2005 2005 2005 1993 1993 2005 2005 1993 1993 1993 1993 1993 1993 1993 1993 1993 1993 1981 1981 1981 1993 1993 1993 1993 1993 1993 1993 1993 1993 1993 1993 2005 1993 1993 1993 1993 1993 1993 1993 1993 1993 1993 1993 1993 1993 1993 1993 1993 1993 1993 1993 1993 1993 1993 2005 2005 2005 2005 2005 2005 2005 2005 2005 2005 1713 1705 1705 1705 1705 1616 1616 1616 1616 1616 1616 1616 1624 1624 1624 1624 1632 1632 1647 1647 1647 1655 2005 2005 2005 2005 1766 1766 1748 1748 1757 1766 1776 1776 1785 1794 1794 1794 1794 1794 2016 2016 2016 2016 2016 2016 2016 2016 2016 2016 2016 2016 2016 2016 2016 2016 2016 2016 2016 2016 2016 2016 2016 2016 2016 2016 2028 2028 2028 2028 2016 2016 2016 2016 2016 2016 2016 2016 2028 2028 2028 2028 2028 2028 2028 2028 2028 2028 2028 2028 2028 2028 2028 2028 1572 1564 1557 1557 1564 1564 1564 1564 1564 1564 1564 1572 1572 1579 1579 1579 1579 1579 1572 1572 2028 2028 2028 2028 2028 2028 2028 2028 2028 2028 2028 1757 1757 1757 1757 1766 1766 1776 1776 1785 1794 1804 1804 1804 1813 1813 2016 2016 2016 2028 2016 2016 2016 2016 2016 1439 1439 1445 1445 1445 1445 1445 1452 1452 1452 1452 1458 1458 1464 1464 1470 1470 1470 1470 2016 2016 2016 2016 2028 2028 1766 1766 1766 1776 1776 1785 1785 1813 1843 1863 1873 1883 1883 1883 1894 2016 2016 2016 2016 2016 2016 2016 2016 2016 2016 2016 2016 2016 2016 2016 2016 2016 2016 2016 2016 2016 2016 2005 2005 2005 1993 1981 1970 1970 1970 1970 1970 1981 1981 1981 1993 2005 2005 2016 2016 2016 2016 2016 2016 2016 2016 2016 2016 2016 2016 2016 2016 2016 2016 2016 2016 2016 2028 2016 2016 2016 2016 2016 2016 2016 2016 2016 2016 1376 1376 1376 1370 1370 1370 1370 1370 1370 1370 1370 1370 1370 1370 1370 1370 1370 1376 0 0 0 0 0 1785 1776 1757 1757 1757 1757 1757 1757 1757 1757 1757 1757 1748 1748 2005 2005 2005 2005 2005 2005 2005 2005 2005 2005 2005 2005 2005 2005 2005 2005 2005 2005 2005 2005 2005 1853 1853 1863 1863 1863 1863 1863 1863 1863 1863 1873 1873 1993 1993 1993 1993 2005 2005 2005 2005 2005 2005 2005 2005 2005 2005 1993 1993 1993 1993 1993 1993 1993 1993 1993 1993 1993 1993 1993 1993 2005 2005 2005 1427 1427 1427 1427 1427 1433 1427 1427 1427 1427 1427 1427 1421 1421 1421 1421 1421 1421 1427 1427 1427 1427 1427 1970 1981 1981 1981 1981 1981 1981 1981 1981 1981 1981 1981 1981 1981 1981 1981 1981 1981 1981 1981 1981 1981 1981 1981 1993 1993 1993 1993 1993 1993 1993 1993 1993 1981 1981 1981 1981 1981 1981 1981 1981 1981 1981 1981 1981 1981 1981 1981 1981 1981 1981 1981 1981 1981 1981 1981 1981 1981 1981 1981 1981 1981 1981 1981 1981 1981 1970 1970 1970 1981 1981 1981 1970 1970 1970 1959 1959 1959 1970 1970 1970 1959 1959 1959 1959 1959 1959 1959 1959 1959 1959 1959 1947 1947 1947 1959 1959 1959 1959 1959 1959 1959 1959 1959 1947 1947 1947 1947 1947 1947 1947 1947 1947 1947 1947 1936 1936 1936 1936 0 0 0 0 0 0 0 0
0 0 0 0 0 0 0 0 0 0 0 0 0 0 0 0 0 0 0 0 0 0 0 0 0 0 0 0 0 0 0 0 0 0 1993 1993 1993 1993 2005 2005 2005 2005 2005 2005 2005 2005 2005 2005 2005 2005 2005 1993 1993 1993 1993 1993 1993 2005 2005 1981 1981 1993 2005 2005 1993 1993 1993 2005 2005 2005 1993 1993 1993 1993 1993 1993 1981 1981 1981 1981 1981 1981 1981 1993 1981 1981 1981 1981 1981 1981 1981 1981 1993 1993 1981 1981 1981 1981 1993 1993 1993 1993 1993 1993 1993 1993 1993 1993 1993 1993 1993 1993 1993 1993 1993 1993 1993 1993 1993 1993 1993 1993 2005 2005 1993 1993 1993 1993 2005 1993 1993 1993 1713 1713 1713 1713 1713 1624 1624 1624 1616 1616 1616 1616 1624 1624 1624 1624 1632 1632 1639 1639 1647 1647 1993 2005 1993 1993 1748 1748 1748 1748 1748 1757 1766 1776 1785 1794 1794 1794 2005 1993 1993 2005 2005 2005 2005 2005 2005 2005 2005 2005 2005 2005 2005 2005 2005 2005 2005 2005 1993 1993 2005 2005 2005 2005 2016 2016 2028 2016 2016 2016 2016 2016 2016 2005 2005 2005 2005 2016 2016 2016 2016 2016 2016 2016 2016 2016 2028 2028 2028 2028 2028 2028 2028 2028 1557 1557 1557 1557 1557 1564 1564 1564 1564 1564 1564 1572 1572 1579 1579 1579 1586 1586 1594 2016 2016 2016 2016 2016 2016 2016 2016 2028 2028 2028 2028 1757 1757 1757 1757 1766 1766 1776 1776 1785 1794 1804 1804 1804 1813 2016 2005 2005 2016 2016 2016 2005 2005 2005 2005 1439 1439 1445 1445 1445 1445 1452 1452 1452 1452 1452 1458 1458 1464 1464 1470 1470 1470 1470 2016 2016 1757 1757 1757 1757 1757 1757 1757 1757 1766 1776 1785 1813 1853 1873 1873 1883 1894 1894 1993 1993 2005 2005 2016 2016 2016 2005 2005 2005 2005 2005 2005 2005 2005 2005 2005 2005 2005 2005 2005 2005 2005 2005 2005 1993 1993 1981 1970 1970 1970 1970 1970 1981 1970 1970 1993 1993 2005 2005 2005 2016 2016 2005 2005 2005 2005 2005 2005 2005 2016 2005 2005 2016 2016 2016 2016 2016 2016 2016 2016 2005 2005 2005 2016 2016 2016 2016 2016 1376 1376 1376 1376 1370 1370 1370 1370 1370 1370 1370 1370 1370 1370 1370 1370 1370 1376 0 0 0 0 0 1785 1766 1757 1757 1757 1757 1757 1757 1757 1757 1757 1757 1757 1757 2005 2005 2005 2005 2005 2005 2005 2005 2005 2005 2005 1993 1993 1993 1993 1993 1993 2005 2005 2005 2005 2005 1863 1863 1863 1863 1863 1863 1863 1863 1863 1873 1873 1981 1981 1993 1993 2005 2005 2005 2005 2005 2005 2005 1993 1993 1993 1993 1993 1993 1993 1993 1993 1993 1993 1993 1993 1993 1993 1993 1993 2005 2005 2005 1421 1421 1427 1427 1427 1433 1433 1433 1433 1427 1427 1427 1421 1421 1421 1421 1421 1427 1427 1427 1427 1427 1427 1970 1970 1981 1981 1981 1981 1981 1981 1981 1981 1981 1981 1981 1981 1981 1981 1981 1981 1981 1981 1981 1981 1981 1981 1981 1981 1993 1993 1993 1981 1981 1981 1981 1981 1981 1981 1981 1981 1981 1981 1981 1981 1970 1970 1970 1981 1981 1981 1970 1970 1981 1981 1981 1981 1981 1981 1981 1981 1981 1981 1970 1970 1981 1981 1981 1970 1970 1970 1970 1970 1970 1959 1947 1947 1947 1947 1947 1947 1959 1959 1959 1947 1947 1947 1947 1947 1947 1947 1947 1959 1947 1947 1947 1947 1947 1947 1947 1947 1959 1959 1959 1947 1947 1947 1947 1947 1947 1947 1947 1947 1947 1936 1936 1936 1936 1936 1936 1936 1936 0 0 0 0 0 0 0 0
0 0 0 0 0 0 0 0 0 0 0 0 0 0 0 0 0 0 0 0 0 0 0 0 0 0 0 0 0 0 0 0 0 0 1993 1993 1993 1993 1993 1993 1993 1993 1993 1993 1993 1981 1981 1993 1981 1981 1981 1981 1981 1981 1970 1970 1981 1981 1981 1981 1981 1993 1993 1993 1993 1993 1993 1993 1993 1993 1981 1981 1981 1993 1993 1981 1970 1970 1981 1981 1981 1970 1970 1970 1970 1970 1981 1970 1970 1981 1981 1981 1981 1981 1981 1981 1981 1981 1993 1993 1993 1993 1993 1993 1981 1981 1981 1993 1993 1993 1981 1981 1981 1981 1981 1981 1981 1981 1981 1993 1993 1993 1993 1993 1993 1993 1993 1993 1993 1993 1993 1993 1713 1713 1713 1722 1722 1624 1624 1616 1616 1616 1616 1616 1624 1624 1624 1624 1624 1632 1639 1639 1647 1647 1993 1993 1739 1739 1739 1739 1739 1739 1748 1748 1757 1776 1785 1794 1794 1993 1993 1993 1993 1993 1993 2005 2005 2005 2005 2005 2005 2005 2005 2005 2005 2005 2005 2005 2005 2005 1993 1993 1993 1993 1993 1993 2005 2005 2005 2005 2005 2005 2005 2005 2005 2005 2005 2005 2005 2005 2005 2005 2005 2005 2005 2016 2016 2016 2016 2016 2016 2016 2016 2005 2005 2005 1557 1557 1557 1557 1557 1564 1564 1564 1564 1564 1564 1572 1572 1579 1579 1586 1586 1579 1579 2016 2016 2016 2016 2016 2016 2016 2016 2016 2028 1748 1748 1748 1757 1757 1757 1766 1766 1776 1776 1785 1794 1804 1794 1794 1993 1993 1993 1993 2005 2005 2005 2005 2005 2005 2005 1445 1445 1445 1452 1452 1452 1452 1452 1452 1452 1452 1458 1458 1464 1470 1470 1470 1470 1470 2016 1757 1757 1757 1757 1748 1748 1757 1757 1757 1757 1766 1785 1813 1853 1873 1883 1883 1894 1894 1970 1981 1993 2005 2005 2005 2005 2005 2005 2005 2005 2005 2005 2005 2005 2005 2005 2005 1993 1993 1993 1993 1993 1993 1993 1993 1993 1981 1981 1981 1981 1970 1970 1970 1970 1970 1981 1993 1993 2005 2005 2005 2005 2005 2005 2005 2005 2005 2005 2005 2005 2005 2005 2005 2005 2005 2005 2005 2005 2005 2005 2005 2005 2005 2005 2005 2005 2016 2016 1376 1376 1376 1376 1376 1376 1370 1370 1370 1370 1370 1370 1370 1370 1370 1370 1370 1376 0 0 0 0 0 0 1766 1748 1748 1757 1757 1757 1757 1757 1757 1757 1757 1757 1993 1993 1993 1993 1993 2005 2005 1993 1993 1993 1993 1993 1993 1993 1993 1993 1993 1993 1993 1993 1993 1981 1981 1873 1863 1863 1863 1863 1863 1863 1863 1863 1873 1873 1947 1981 1981 1981 1993 1993 1993 1993 1993 1993 1993 1993 1993 1993 1993 1993 1993 1993 1993 1993 1993 1993 1993 1993 1993 1993 1993 1993 2005 2005 1421 1421 1421 1427 1427 1427 1433 1433 1433 1433 1433 1433 1427 1427 1421 1421 1421 1421 1427 1427 1427 1427 1427 1427 1970 1970 1970 1970 1970 1970 1970 1970 1970 1970 1970 1970 1970 1970 1970 1981 1981 1981 1981 1981 1981 1981 1981 1981 1981 1981 1981 1981 1981 1981 1981 1981 1981 1970 1970 1970 1970 1970 1970 1970 1970 1970 1970 1970 1970 1970 1970 1970 1970 1970 1981 1981 1981 1970 1970 1970 1970 1970 1970 1970 1970 1970 1970 1970 1970 1970 1959 1959 1959 1970 1959 1959 1947 1947 1947 1936 1936 1947 1947 1947 1936 1936 1936 1936 1936 1936 1926 1926 1936 1936 1936 1947 1947 1947 1947 1947 1947 1947 1947 1947 1947 1947 1947 1947 1936 1936 1936 1936 1936 1936 1936 1936 1936 1936 1936 1936 1936 1936 1936 0 0 0 0 0 0 0 0
0 0 0 0 0 0 0 0 0 0 0 0 0 0 0 0 0 0 0 0 0 0 0 0 0 0 0 0 0 0 0 0 0 0 1981 1981 1981 1981 1981 1981 1981 1981 1981 1981 1981 1981 1981 1981 1981 1981 1981 1981 1970 1970 1970 1970 1981 1981 1970 1970 1970 1981 1993 1970 1970 1970 1970 1993 1993 1993 1959 1959 1959 1959 1959 1981 1970 1970 1970 1970 1970 1959 1959 1959 1959 1959 1959 1959 1959 1970 1970 1970 1970 1970 1970 1970 1970 1970 1970 1993 1993 1993 1993 1981 1970 1970 1970 1981 1981 1981 1981 1981 1981 1981 1981 1981 1981 1981 1981 1993 1993 1993 1993 1993 1993 1993 1993 1993 1993 1993 1981 1981 1713 1713 1713 1713 1713 1624 1624 1616 1616 1616 1616 1616 1624 1624 1624 1624 1624 1632 1639 1639 1647 1647 1713 1713 1722 1731 1731 1739 1739 1739 1739 1748 1748 1776 1785 1993 1993 1993 1993 1993 1993 1993 1993 1993 1993 1993 1993 1993 1993 1993 1993 2005 2005 2005 1993 1993 1993 1993 1993 1993 1993 1993 1993 1993 1993 1993 1993 1993 1993 2005 2005 2005 2005 2005 1993 1993 1993 1993 1993 1993 1993 2005 2005 2005 2005 2005 2005 2005 2005 2005 2005 2005 2005 2005 1550 1550 1557 1557 1557 1564 1564 1564 1564 1564 1564 1572 1572 1579 1579 1586 1586 1579 1579 2005 2005 2005 2005 2005 2016 2016 2016 1739 1739 1739 1739 1748 1748 1757 1757 1757 1766 1766 1776 1785 1794 1794 1794 1794 1993 1993 1993 1993 2005 2005 2005 1993 1993 1981 1981 1445 1445 1445 1452 1452 1452 1452 1458 1458 1458 1458 1458 1458 1464 1470 1470 1470 1766 1766 1757 1748 1748 1757 1757 1748 1748 1748 1748 1748 1757 1757 1863 1863 1863 1873 1883 1894 1894 1915 1970 1981 1981 1993 2005 2005 2005 1993 1993 1993 1993 1993 1993 1993 1993 1993 1993 1993 1993 1993 1993 1993 1993 1981 1981 1981 1981 1981 1981 1981 1981 1981 1970 1970 1970 1970 1981 1981 1981 1981 1981 1981 1993 1993 1993 1993 1993 1993 2005 2005 1993 1993 2005 2005 2005 2005 2005 2005 2005 2005 2005 2005 2005 1993 1993 1993 2005 2005 1370 1370 1370 1376 1376 1376 1376 1376 1376 1376 1376 1370 1370 1370 1370 1370 1370 1376 1376 0 0 0 0 0 0 1748 1748 1748 1748 1748 1748 1748 1757 1757 1757 1757 1757 1993 1993 1993 1993 1993 1993 1993 1981 1981 1993 1993 1993 1993 1993 1993 1993 1993 1981 1981 1981 1981 1970 1936 1883 1873 1863 1863 1863 1863 1863 1863 1863 1873 1883 1947 1970 1981 1981 1993 1993 1993 1993 1981 1981 1981 1981 1981 1981 1981 1981 1981 1981 1981 1981 1981 1981 1981 1981 1981 1981 1993 1993 2005 2005 1421 1421 1421 1427 1427 1433 1433 1433 1433 1433 1433 1433 1433 1427 1421 1421 1421 1427 1427 1427 1427 1427 1433 1433 1970 1970 1970 1970 1970 1970 1970 1970 1970 1970 1959 1959 1959 1970 1970 1970 1970 1970 1970 1970 1970 1970 1970 1981 1981 1981 1981 1981 1970 1959 1959 1959 1959 1959 1959 1959 1959 1970 1970 1970 1970 1970 1959 1959 1970 1970 1959 1959 1959 1959 1970 1970 1959 1959 1959 1959 1959 1959 1970 1959 1959 1959 1970 1970 1970 1959 1959 1959 1959 1959 1959 1947 1936 1936 1936 1936 1936 1936 1936 1936 1936 1926 1926 1926 1926 1926 1926 1926 1926 1926 1936 1936 1936 1936 1936 1936 1936 1936 1936 1936 1936 1936 1936 1936 1936 1936 1936 1936 1936 1936 1936 1936 1936 1936 1936 1936 1936 1936 1936 0 0 0 0 0 0 0 0
0 0 0 0 0 0 0 0 0 0 0 0 0 0 0 0 0 0 0 0 0 0 0 0 0 0 0 0 0 0 0 0 0 0 1981 1981 1981 1970 1970 1981 1981 1981 1981 1981 1981 1981 1981 1981 1970 1970 1970 1970 1970 1970 1970 1970 1970 1970 1970 1970 1970 1970 1970 1970 1970 1970 1970 1970 1959 1959 1947 1947 1959 1959 1959 1959 1959 1959 1970 1959 1959 1959 1959 1959 1959 1959 1959 1959 1959 1959 1959 1959 1959 1970 1970 1970 1970 1970 1970 1970 1970 1981 1981 1970 1970 1970 1970 1970 1970 1970 1970 1970 1970 1970 1970 1970 1970 1970 1970 1981 1970 1970 1981 1981 1981 1981 1981 1981 1993 1981 1981 1981 1713 1713 1713 1713 1713 1647 1624 1616 1616 1616 1616 1616 1624 1624 1624 1624 1624 1632 1639 1639 1647 1655 1713 1713 1722 1722 1722 1739 1739 1739 1739 1739 1748 1748 1970 1970 1981 1981 1981 1981 1981 1981 1993 1993 1993 1993 1993 1993 1993 1993 1993 1993 1993 1993 1993 1993 1993 1993 1993 1981 1981 1993 1981 1981 1993 1993 1993 1993 1993 1993 1993 1993 1993 1993 1993 1993 1993 1993 1993 1993 1993 1993 1993 1993 1993 1993 1993 1993 1993 1993 2005 2005 1993 1993 1550 1550 1557 1557 1557 1564 1564 1564 1564 1564 1564 1572 1572 1579 1579 1586 1594 1579 1579 1993 1993 1993 1993 2005 2005 2005 2005 1739 1739 1739 1739 1748 1748 1757 1757 1757 1766 1766 1785 1785 1794 1794 1981 1981 1981 1981 1993 1993 1993 1993 1993 1993 1993 1981 1981 1981 1452 1452 1452 1452 1452 1458 1458 1458 1458 1458 1458 1464 1464 1470 1470 1470 1766 1766 1739 1739 1739 1748 1748 1739 1739 1739 1739 1748 1748 1748 1863 1863 1873 1883 1883 1894 1904 1915 1970 1981 1981 1993 1993 1993 1993 1993 1981 1981 1981 1981 1981 1981 1993 1993 1993 1993 1993 1993 1993 1993 1981 1981 1981 1981 1981 1981 1981 1981 1981 1970 1970 1970 1970 1970 1981 1981 1981 1981 1981 1981 1981 1981 1981 1981 1993 1993 1993 1993 1993 1993 1993 1993 1993 1993 1993 1993 1993 1981 1981 1981 1981 1981 1981 1981 1981 1981 1370 1370 1370 1376 1376 1376 1376 1376 1376 1376 1376 1370 1370 1370 1370 1370 1370 1392 1392 1398 1398 1398 0 0 0 1739 1739 1739 1739 1739 1748 1748 1757 1757 1757 1757 1757 1981 1981 1981 1981 1981 1981 1981 1981 1981 1981 1981 1981 1981 1981 1981 1981 1981 1981 1981 1981 1959 1947 1936 1873 1873 1863 1863 1863 1863 1863 1873 1873 1873 1883 1936 1959 1970 1970 1981 1981 1981 1981 1970 1970 1970 1970 1970 1970 1970 1970 1970 1970 1970 1970 1970 1970 1981 1981 1981 1981 1981 1993 1993 1993 1421 1421 1421 1427 1433 1433 1433 1433 1433 1433 1433 1433 1433 1427 1421 1421 1427 1427 1427 1427 1427 1427 1433 1433 1947 1947 1959 1959 1959 1959 1959 1959 1959 1959 1959 1959 1959 1959 1959 1959 1959 1959 1970 1970 1970 1970 1970 1970 1970 1970 1970 1959 1959 1947 1947 1947 1947 1947 1947 1959 1959 1959 1959 1959 1959 1959 1959 1959 1959 1959 1959 1959 1959 1959 1959 1959 1959 1959 1947 1947 1947 1959 1959 1947 1947 1947 1959 1959 1959 1959 1959 1959 1959 1959 1959 1947 1936 1936 1936 1936 1936 1936 1936 1936 1936 1926 1926 1926 1926 1926 1926 1926 1926 1926 1926 1936 1926 1926 1936 1936 1936 1926 1926 1926 1926 1926 1926 1926 1926 1926 1926 1926 1926 1936 1936 1926 1926 1926 1926 1926 1926 1926 1926 0 0 0 0 0 0 0 0
0 0 0 0 0 0 0 0 0 0 0 0 0 0 0 0 0 0 0 0 0 0 0 0 0 0 0 0 0 0 0 0 0 0 1970 1970 1970 1970 1970 1970 1970 1970 1970 1970 1970 1981 1981 1970 1970 1970 1970 1970 1970 1970 1970 1970 1970 1970 1970 1970 1970 1970 1970 1970 1970 1970 1970 1959 1959 1959 1947 1947 1947 1947 1959 1959 1959 1959 1959 1959 1959 1947 1947 1947 1947 1947 1947 1947 1959 1959 1959 1959 1959 1959 1959 1970 1970 1970 1970 1970 1970 1970 1970 1959 1959 1959 1970 1970 1970 1970 1959 1959 1959 1959 1959 1959 1959 1959 1970 1970 1970 1970 1970 1981 1981 1981 1981 1981 1993 1981 1959 1959 1713 1713 1713 1713 1713 1632 1624 1624 1624 1624 1616 1616 1624 1624 1624 1624 1624 1632 1639 1639 1647 1655 1688 1713 1722 1722 1722 1731 1739 1739 1739 1739 1748 1748 1959 1959 1970 1970 1981 1981 1981 1981 1981 1993 1981 1981 1993 1993 1993 1981 1981 1993 1993 1993 1993 1981 1981 1993 1981 1981 1981 1981 1981 1981 1993 1993 1993 1993 1993 1993 1993 1993 1993 1993 1993 1981 1981 1981 1981 1981 1981 1993 1993 1993 1993 1993 1993 1993 1993 1993 1993 1993 1993 1993 1993 1550 1550 1557 1557 1564 1564 1564 1564 1564 1564 1572 1579 1579 1579 1586 1594 1579 1579 1981 1981 1981 1981 1981 1993 1739 1739 1739 1739 1739 1739 1748 1748 1748 1757 1757 1766 1766 1776 1785 1970 1970 1981 1981 1981 1981 1981 1981 1981 1981 1981 1981 1981 1981 1981 1981 1452 1452 1458 1458 1458 1458 1458 1458 1458 1458 1458 1464 1464 1470 1470 1470 1470 1731 1731 1731 1739 1739 1739 1739 1739 1739 1739 1739 1739 1739 1873 1873 1873 1883 1883 1894 1904 1915 1970 1981 1981 1981 1981 1981 1981 1981 1970 1970 1970 1970 1970 1981 1981 1981 1981 1981 1981 1981 1981 1981 1981 1970 1970 1981 1981 1981 1981 1981 1981 1970 1970 1970 1970 1970 1970 1970 1970 1970 1970 1970 1981 1981 1981 1981 1981 1981 1981 1981 1981 1981 1981 1981 1981 1981 1981 1981 1981 1981 1981 1970 1970 1970 1970 1970 1970 1970 1376 1376 1376 1376 1376 1376 1376 1376 1376 1376 1376 1370 1370 1376 1376 1370 1370 1404 1398 1398 1398 0 0 0 0 1731 1731 1731 1731 1731 1739 1748 1748 1757 1757 1757 1757 1981 1970 1970 1970 1981 1970 1970 1970 1970 1970 1970 1970 1970 1970 1970 1981 1981 1970 1970 1959 1947 1936 1936 1873 1873 1863 1863 1863 1863 1863 1873 1873 1883 1894 1936 1947 1959 1959 1970 1970 1970 1970 1970 1970 1970 1970 1959 1959 1959 1959 1959 1970 1970 1959 1959 1970 1970 1970 1970 1970 1981 1981 1993 1993 1427 1427 1427 1427 1433 1433 1433 1433 1433 1433 1433 1433 1433 1427 1427 1427 1427 1427 1427 1427 1427 1427 1433 1433 1947 1947 1947 1947 1947 1947 1959 1947 1947 1947 1947 1947 1947 1947 1959 1959 1959 1959 1959 1959 1959 1959 1959 1959 1959 1959 1947 1947 1947 1947 1947 1947 1947 1947 1947 1947 1947 1959 1959 1959 1959 1959 1959 1959 1959 1959 1959 1947 1947 1947 1947 1947 1947 1947 1947 1947 1947 1947 1947 1947 1947 1947 1947 1947 1947 1947 1947 1947 1947 1947 1947 1936 1926 1926 1926 1926 1926 1926 1926 1926 1926 1926 1926 1926 1926 1926 1926 1926 1926 1926 1926 1926 1926 1926 1926 1926 1926 1926 1915 1915 1926 1926 1926 1926 1926 1926 1926 1926 1926 1926 1926 1926 1926 1926 1926 1926 1926 1926 1926 0 0 0 0 0 0 0 0
0 0 0 0 0 0 0 0 0 0 0 0 0 0 0 0 0 0 0 0 0 0 0 0 0 0 0 0 0 0 0 0 0 0 1970 1970 1970 1970 1970 1970 1970 1970 1970 1970 1970 1970 1970 1970 1970 1970 1970 1970 1959 1959 1959 1959 1970 1970 1970 1970 1970 1970 1970 1970 1970 1970 1959 1959 1959 1959 1947 1947 1947 1947 1947 1959 1947 1947 1959 1947 1947 1947 1947 1947 1947 1947 1947 1947 1959 1959 1959 1959 1959 1959 1959 1959 1959 1970 1959 1959 1959 1959 1959 1959 1959 1959 1959 1959 1959 1959 1959 1959 1959 1959 1959 1959 1959 1959 1959 1959 1959 1959 1970 1970 1970 1970 1970 1970 1981 1959 1959 1959 1713 1713 1713 1713 1713 1624 1624 1624 1624 1624 1624 1624 1624 1624 1624 1624 1632 1632 1639 1639 1655 1663 1688 1696 1722 1722 1722 1731 1731 1739 1739 1748 1748 1959 1959 1959 1959 1970 1970 1970 1970 1981 1981 1993 1970 1970 1981 1981 1981 1981 1981 1981 1981 1981 1981 1981 1981 1981 1981 1981 1981 1981 1981 1981 1981 1981 1981 1981 1981 1981 1981 1981 1981 1981 1981 1981 1981 1981 1981 1981 1981 1981 1981 1981 1981 1981 1981 1981 1981 1993 1993 1993 1993 1993 1993 1550 1550 1557 1557 1564 1564 1564 1564 1564 1564 1579 1579 1579 1579 1586 1594 1601 1609 1981 1981 1970 1970 1981 1981 1739 1739 1739 1739 1739 1739 1739 1748 1748 1757 1757 1766 1766 1776 1776 1970 1970 1970 1970 1970 1970 1981 1981 1981 1981 1981 1981 1981 1981 1981 1458 1452 1452 1458 1458 1458 1458 1458 1458 1458 1458 1464 1464 1464 1470 1470 1477 1477 1731 1731 1731 1731 1739 1739 1739 1739 1739 1739 1739 1739 1739 1873 1873 1883 1883 1883 1894 1904 1915 1970 1970 1981 1981 1981 1981 1981 1981 1970 1970 1970 1970 1970 1970 1970 1970 1981 1981 1981 1970 1970 1970 1970 1970 1970 1970 1970 1970 1970 1970 1970 1970 1970 1970 1970 1970 1970 1970 1970 1970 1970 1970 1970 1970 1970 1970 1981 1981 1970 1970 1970 1970 1970 1970 1970 1970 1970 1970 1970 1970 1970 1970 1959 1959 1970 1970 1970 1970 1376 1376 1376 1376 1376 1376 1376 1376 1376 1376 1376 1376 1376 1376 1376 1376 1376 1404 1404 1398 1398 1398 0 0 1722 1722 1722 1722 1722 1722 1731 1739 1748 1757 1757 1766 1766 1776 1959 1959 1959 1970 1959 1959 1959 1959 1959 1959 1959 1959 1959 1970 1970 1970 1959 1959 1959 1947 1936 1936 1904 1883 1873 1863 1863 1863 1873 1873 1873 1883 1904 1936 1947 1959 1959 1959 1959 1959 1959 1959 1959 1959 1959 1959 1959 1959 1959 1959 1959 1959 1959 1959 1959 1970 1959 1959 1970 1970 1970 1970 1970 1427 1427 1427 1433 1433 1433 1439 1433 1433 1433 1433 1433 1433 1427 1427 1427 1427 1427 1427 1427 1427 1427 1433 1433 1936 1936 1947 1947 1947 1947 1947 1947 1947 1936 1936 1936 1947 1947 1947 1947 1959 1959 1959 1959 1959 1959 1947 1947 1947 1947 1947 1936 1936 1936 1936 1936 1936 1936 1936 1947 1947 1947 1947 1947 1959 1947 1947 1947 1947 1947 1947 1947 1947 1947 1947 1947 1947 1947 1947 1947 1947 1947 1947 1947 1947 1947 1947 1947 1947 1947 1947 1947 1947 1947 1947 1936 1926 1926 1926 1926 1926 1926 1926 1926 1926 1926 1926 1926 1926 1926 1926 1915 1915 1915 1915 1915 1915 1915 1915 1915 1915 1915 1915 1915 1915 1915 1915 1915 1915 1915 1915 1915 1915 1926 1926 1915 1915 1915 1926 1915 1915 1926 1926 0 0 0 0 0 0 0 0
0 0 0 0 0 0 0 0 0 0 0 0 0 0 0 0 0 0 0 0 0 0 0 0 0 0 0 0 0 0 0 0 0 0 1959 1959 1959 1959 1959 1959 1959 1970 1970 1970 1970 1970 1970 1970 1970 1959 1959 1959 1959 1959 1959 1959 1959 1959 1959 1959 1959 1970 1959 1959 1959 1959 1959 1959 1959 1959 1947 1947 1947 1947 1947 1947 1947 1947 1947 1947 1947 1947 1947 1947 1947 1947 1947 1947 1959 1959 1959 1947 1947 1947 1947 1959 1959 1959 1959 1959 1959 1947 1947 1947 1947 1947 1959 1959 1959 1959 1947 1947 1959 1947 1947 1959 1959 1959 1959 1959 1959 1959 1959 1959 1959 1959 1959 1959 1970 1959 1959 1959 1722 1713 1713 1713 1713 1624 1624 1624 1624 1624 1624 1624 1624 1624 1624 1624 1632 1632 1639 1639 1655 1671 1688 1696 1722 1713 1713 1722 1731 1739 1739 1748 1947 1947 1959 1959 1959 1959 1970 1970 1970 1970 1970 1970 1970 1970 1970 1970 1970 1970 1970 1981 1981 1981 1981 1981 1981 1981 1970 1970 1970 1970 1970 1970 1970 1981 1981 1981 1981 1981 1981 1981 1981 1981 1981 1970 1970 1970 1970 1970 1981 1981 1981 1981 1981 1981 1981 1981 1981 1981 1981 1981 1981 1981 1981 1981 1550 1550 1557 1557 1557 1564 1564 1564 1564 1579 1579 1579 1586 1594 1601 1601 1609 1970 1970 1970 1970 1970 1739 1739 1739 1739 1739 1739 1739 1739 1739 1748 1757 1757 1766 1766 1776 1776 1970 1970 1970 1970 1970 1970 1970 1970 1970 1970 1970 1970 1970 1970 1970 1458 1458 1458 1458 1458 1458 1458 1458 1458 1458 1458 1464 1464 1470 1470 1470 1483 1483 1731 1731 1731 1731 1731 1731 1731 1731 1739 1739 1739 1739 1739 1883 1883 1883 1883 1883 1894 1904 1947 1959 1970 1970 1981 1981 1981 1981 1970 1959 1959 1970 1970 1970 1970 1970 1970 1970 1970 1970 1970 1970 1970 1970 1970 1970 1970 1970 1970 1970 1970 1970 1970 1970 1970 1970 1970 1970 1970 1970 1970 1970 1970 1970 1970 1970 1970 1970 1970 1970 1970 1970 1970 1970 1970 1970 1970 1970 1970 1970 1970 1970 1959 1959 1959 1959 1970 1970 1970 1970 1376 1376 1376 1376 1376 1376 1381 1381 1376 1376 1376 1376 1376 1381 1381 1381 1398 1398 1398 1696 1696 0 1713 1713 1713 1713 1713 1713 1722 1731 1739 1748 1757 1766 1766 1766 1776 1959 1959 1959 1959 1959 1959 1959 1959 1959 1959 1959 1947 1947 1947 1959 1959 1947 1947 1959 1947 1926 1926 1904 1883 1873 1873 1873 1873 1873 1873 1883 1894 1915 1936 1947 1947 1947 1959 1959 1959 1959 1959 1959 1959 1959 1959 1959 1959 1959 1959 1959 1959 1959 1959 1959 1959 1959 1959 1959 1970 1970 1970 1970 1427 1427 1427 1433 1439 1439 1439 1439 1439 1439 1433 1433 1433 1427 1427 1427 1427 1427 1427 1427 1427 1427 1427 1427 1936 1936 1936 1947 1947 1947 1947 1947 1947 1936 1936 1936 1947 1947 1947 1947 1947 1947 1947 1947 1947 1947 1947 1947 1947 1947 1936 1936 1936 1936 1936 1936 1936 1936 1936 1936 1936 1947 1947 1947 1947 1947 1947 1947 1947 1947 1947 1936 1936 1936 1936 1936 1936 1936 1936 1936 1936 1936 1947 1936 1936 1936 1936 1936 1936 1947 1947 1947 1947 1947 1936 1936 1926 1915 1915 1926 1926 1926 1926 1926 1926 1926 1926 1926 1926 1926 1915 1915 1904 1904 1904 1904 1904 1904 1904 1904 1904 1904 1904 1904 1904 1904 1904 1904 1904 1904 1904 1904 1904 1904 1904 1904 1904 1904 1915 1904 1904 1915 1915 0 0 0 0 0 0 0 0
0 0 0 0 0 0 0 0 0 0 0 0 0 0 0 0 0 0 0 0 0 0 0 0 0 0 0 0 0 0 0 0 0 0 1959 1959 1959 1959 1959 1959 1959 1959 1970 1970 1970 1959 1959 1959 1959 1959 1959 1959 1959 1959 1959 1959 1959 1959 1959 1959 1959 1959 1959 1959 1959 1959 1947 1947 1947 1947 1936 1936 1936 1936 1936 1947 1947 1936 1936 1947 1947 1947 1947 1936 1936 1947 1947 1947 1947 1947 1947 1947 1947 1947 1947 1947 1947 1959 1947 1947 1947 1947 1947 1947 1947 1947 1947 1947 1947 1947 1947 1947 1947 1947 1947 1947 1947 1947 1959 1959 1959 1959 1959 1959 1947 1947 1947 1947 1959 1947 1947 1947 1713 1713 1713 1713 1713 1624 1624 1624 1624 1624 1624 1624 1624 1624 1624 1624 1632 1632 1639 1639 1655 1671 1688 1688 1705 1705 1705 1713 1722 1731 1731 1748 1947 1947 1947 1947 1947 1959 1959 1959 1970 1970 1970 1959 1959 1959 1959 1959 1970 1970 1970 1970 1981 1981 1970 1970 1981 1970 1970 1970 1959 1959 1959 1970 1959 1959 1981 1981 1981 1981 1970 1970 1970 1970 1970 1970 1970 1959 1959 1959 1970 1970 1970 1970 1970 1970 1970 1970 1970 1981 1981 1981 1981 1981 1981 1981 1550 1550 1557 1557 1557 1564 1564 1564 1564 1579 1579 1586 1586 1594 1601 1601 1609 1970 1970 1970 1970 1970 1739 1739 1731 1731 1731 1731 1739 1739 1739 1748 1757 1766 1766 1766 1959 1959 1970 1970 1970 1970 1970 1970 1970 1970 1970 1970 1970 1970 1959 1959 1959 1458 1458 1458 1458 1458 1458 1458 1458 1458 1458 1458 1464 1464 1470 1470 1470 1483 1483 1722 1722 1722 1722 1731 1731 1731 1731 1731 1731 1739 1739 1883 1883 1883 1883 1883 1883 1894 1904 1947 1959 1970 1970 1970 1970 1970 1970 1970 1959 1959 1959 1959 1970 1970 1970 1970 1970 1970 1970 1970 1970 1970 1970 1970 1970 1970 1970 1970 1970 1970 1970 1970 1970 1970 1970 1970 1970 1959 1959 1959 1959 1959 1959 1959 1959 1970 1970 1970 1970 1970 1970 1970 1970 1970 1970 1970 1970 1970 1959 1959 1959 1959 1959 1959 1959 1959 1970 1970 1970 1376 1376 1376 1376 1376 1376 1376 1376 1376 1376 1376 1376 1381 1381 1381 1387 1398 1398 1696 1696 1696 1696 1705 1705 1705 1713 1713 1713 1722 1731 1739 1757 1776 1776 1766 1766 1947 1947 1947 1947 1947 1959 1959 1959 1959 1959 1959 1947 1947 1947 1947 1947 1947 1947 1947 1936 1936 1915 1904 1894 1883 1873 1873 1873 1873 1873 1873 1883 1894 1915 1926 1936 1947 1947 1959 1959 1947 1947 1947 1947 1947 1947 1947 1947 1947 1947 1947 1947 1947 1947 1947 1959 1959 1959 1959 1959 1959 1970 1970 1970 1433 1433 1433 1433 1439 1439 1439 1439 1439 1439 1433 1433 1433 1427 1427 1427 1427 1427 1427 1427 1427 1427 1427 1427 1926 1926 1936 1936 1936 1936 1936 1936 1936 1936 1936 1936 1947 1947 1947 1947 1947 1947 1947 1947 1936 1936 1936 1936 1936 1936 1926 1926 1926 1936 1936 1936 1936 1936 1936 1936 1936 1947 1947 1947 1947 1947 1947 1947 1947 1947 1936 1936 1936 1936 1936 1936 1936 1936 1936 1936 1936 1936 1936 1936 1936 1936 1936 1936 1936 1936 1936 1926 1926 1926 1926 1926 1926 1915 1915 1915 1915 1915 1915 1915 1915 1926 1926 1915 1915 1915 1904 1904 1894 1894 1904 1904 1904 1904 1904 1904 1904 1904 1894 1894 1894 1894 1894 1894 1894 1894 1894 1894 1894 1894 1894 1894 1894 1904 1915 1904 1904 1915 1915 0 0 0 0 0 0 0 0
0 0 0 0 0 0 0 0 0 0 0 0 0 0 0 0 0 0 0 0 0 0 0 0 0 0 0 0 0 0 0 0 0 0 1947 1947 1947 1959 1959 1959 1959 1959 1959 1959 1959 1959 1959 1959 1959 1959 1947 1947 1947 1947 1959 1959 1959 1959 1959 1959 1959 1959 1959 1959 1959 1947 1947 1947 1947 1947 1936 1936 1936 1936 1936 1936 1936 1936 1936 1936 1936 1936 1936 1936 1936 1936 1947 1947 1947 1947 1947 1947 1947 1947 1947 1936 1936 1947 1947 1947 1947 1936 1936 1947 1947 1947 1936 1936 1936 1936 1936 1936 1936 1947 1947 1947 1947 1947 1947 1947 1947 1947 1947 1947 1936 1936 1936 1936 1947 1936 1936 1947 1713 1713 1713 1713 1713 1624 1624 1624 1624 1624 1624 1624 1624 1624 1624 1624 1632 1632 1639 1639 1655 1671 1688 1688 1705 1705 1705 1713 1722 1722 1731 1947 1947 1947 1947 1947 1947 1959 1959 1959 1959 1959 1959 1947 1947 1947 1947 1959 1959 1959 1959 1959 1970 1970 1959 1959 1970 1959 1959 1959 1959 1959 1959 1959 1959 1959 1970 1981 1981 1981 1970 1970 1970 1970 1959 1959 1959 1959 1959 1959 1959 1959 1959 1970 1970 1970 1970 1970 1970 1970 1970 1970 1970 1970 1970 1970 1557 1557 1557 1564 1564 1572 1572 1572 1572 1579 1586 1586 1586 1594 1601 1601 1609 1970 1959 1959 1959 1739 1731 1731 1731 1731 1731 1731 1731 1739 1739 1748 1748 1757 1766 1766 1959 1959 1970 1970 1970 1970 1970 1970 1970 1970 1970 1970 1970 1970 1959 1959 1959 1464 1458 1458 1464 1458 1458 1458 1458 1458 1458 1464 1464 1464 1470 1470 1470 1680 1696 1705 1713 1722 1722 1722 1722 1731 1731 1731 1731 1739 1739 1883 1883 1883 1883 1883 1883 1894 1904 1947 1959 1970 1970 1970 1970 1970 1970 1970 1959 1959 1959 1959 1959 1959 1959 1959 1959 1959 1959 1959 1959 1959 1970 1959 1959 1959 1959 1959 1959 1959 1959 1959 1959 1959 1959 1959 1959 1959 1959 1959 1959 1959 1959 1959 1959 1959 1959 1959 1959 1959 1970 1959 1959 1959 1959 1959 1959 1959 1959 1959 1959 1959 1947 1947 1959 1959 1959 1959 1959 1376 1376 1376 1376 1376 1376 1376 1376 1376 1376 1376 1376 1381 1381 1381 1381 1387 1387 1696 1696 1696 1696 1696 1696 1705 1705 1705 1713 1722 1722 1739 1766 1776 1776 1776 1776 1947 1947 1947 1947 1947 1947 1947 1947 1947 1947 1947 1947 1947 1947 1947 1936 1936 1936 1936 1926 1926 1904 1894 1894 1883 1873 1873 1873 1873 1873 1873 1883 1894 1904 1915 1926 1936 1936 1947 1947 1947 1947 1947 1947 1936 1936 1936 1936 1936 1947 1947 1947 1947 1947 1947 1947 1947 1947 1947 1959 1959 1959 1959 1959 1433 1433 1433 1439 1439 1445 1439 1439 1439 1439 1439 1433 1433 1427 1427 1427 1427 1427 1427 1427 1427 1427 1427 1926 1926 1926 1936 1936 1936 1936 1936 1936 1936 1936 1936 1936 1936 1936 1936 1936 1936 1936 1936 1936 1936 1936 1936 1936 1936 1936 1926 1926 1926 1926 1926 1926 1926 1926 1926 1936 1936 1936 1936 1936 1936 1936 1936 1926 1926 1926 1926 1926 1926 1926 1926 1926 1926 1926 1926 1926 1936 1936 1936 1936 1936 1926 1926 1926 1926 1926 1926 1915 1915 1915 1915 1915 1915 1904 1904 1904 1915 1915 1915 1915 1915 1915 1915 1915 1915 1904 1904 1904 1894 1894 1904 1894 1894 1894 1894 1894 1894 1894 1894 1894 1894 1883 1883 1883 1894 1894 1894 1894 1894 1894 1894 1894 1894 1894 1904 1904 1904 1904 1915 0 0 0 0 0 0 0 0
0 0 0 0 0 0 0 0 0 0 0 0 0 0 0 0 0 0 0 0 0 0 0 0 0 0 0 0 0 0 0 0 0 0 1936 1936 1936 1947 1947 1959 1959 1959 1959 1959 1959 1959 1947 1947 1947 1947 1936 1936 1947 1947 1959 1959 1959 1959 1959 1947 1947 1947 1947 1947 1947 1947 1947 1947 1947 1947 1936 1936 1926 1926 1926 1926 1936 1936 1936 1936 1936 1936 1936 1926 1926 1936 1936 1947 1947 1947 1947 1947 1936 1936 1936 1926 1926 1926 1936 1936 1936 1936 1936 1936 1936 1947 1936 1926 1926 1936 1926 1926 1926 1936 1936 1947 1947 1947 1947 1947 1936 1936 1947 1936 1936 1936 1926 1926 1936 1936 1936 1713 1713 1713 1713 1713 1713 1632 1632 1624 1624 1624 1624 1624 1624 1624 1632 1632 1639 1639 1647 1647 1655 1671 1688 1688 1713 1705 1705 1713 1722 1722 1722 1936 1936 1936 1947 1947 1947 1947 1959 1959 1959 1959 1959 1947 1947 1947 1947 1947 1959 1959 1959 1959 1959 1959 1959 1959 1959 1947 1947 1947 1959 1959 1959 1959 1959 1959 1959 1959 1959 1959 1959 1959 1959 1959 1959 1959 1959 1947 1947 1959 1959 1959 1959 1959 1959 1959 1959 1959 1959 1959 1959 1970 1959 1959 1970 1970 1564 1557 1557 1564 1564 1572 1572 1572 1579 1579 1586 1586 1586 1594 1601 1601 1959 1959 1959 1947 1947 1731 1731 1731 1722 1722 1731 1731 1731 1731 1739 1739 1748 1757 1766 1766 1959 1959 1959 1959 1959 1959 1959 1959 1959 1959 1959 1959 1959 1959 1959 1959 1959 1464 1464 1464 1464 1458 1458 1458 1464 1464 1464 1464 1464 1464 1470 1470 1470 1680 1696 1705 1705 1705 1713 1713 1713 1722 1722 1731 1731 1731 1883 1883 1883 1883 1883 1883 1883 1894 1904 1959 1959 1970 1970 1970 1970 1970 1970 1970 1959 1959 1959 1959 1959 1959 1959 1959 1959 1959 1959 1959 1959 1959 1959 1959 1959 1959 1959 1959 1947 1947 1959 1959 1959 1959 1959 1959 1959 1947 1947 1947 1947 1947 1947 1947 1959 1959 1959 1959 1959 1959 1959 1959 1959 1959 1959 1959 1959 1959 1959 1959 1959 1959 1947 1947 1959 1959 1959 1959 1959 1376 1376 1376 1376 1376 1376 1376 1376 1376 1376 1376 1381 1381 1381 1381 1381 1387 1387 1696 1696 1696 1696 1696 1696 1696 1705 1696 1696 1722 1722 1739 1766 1776 1785 1776 1776 1947 1947 1947 1947 1947 1947 1947 1947 1947 1947 1947 1947 1936 1936 1936 1926 1926 1926 1926 1915 1915 1904 1894 1894 1883 1873 1873 1873 1873 1873 1883 1883 1894 1904 1915 1926 1926 1926 1936 1936 1936 1936 1936 1936 1936 1936 1936 1936 1936 1936 1936 1936 1936 1936 1936 1947 1947 1947 1947 1947 1947 1947 1947 1947 1439 1439 1439 1439 1439 1445 1445 1445 1439 1439 1439 1439 1433 1433 1427 1427 1427 1427 1427 1427 1433 1433 1926 1926 1926 1926 1926 1926 1926 1926 1926 1926 1926 1926 1926 1926 1926 1926 1936 1936 1936 1936 1936 1936 1936 1936 1926 1926 1936 1936 1926 1915 1915 1915 1915 1915 1915 1915 1915 1926 1926 1926 1926 1936 1936 1926 1915 1915 1915 1915 1915 1915 1915 1915 1915 1915 1915 1915 1915 1926 1926 1926 1926 1926 1926 1926 1926 1926 1926 1915 1915 1915 1915 1915 1904 1904 1904 1894 1894 1904 1904 1904 1904 1904 1904 1904 1904 1904 1904 1894 1894 1894 1894 1894 1894 1894 1894 1894 1894 1894 1894 1894 1894 1894 1883 1883 1883 1883 1883 1894 1894 1894 1894 1894 1894 1894 1894 1894 1894 1894 1894 1894 1904 0 0 0 0 0 0 0 0
0 0 0 0 0 0 0 0 0 0 0 0 0 0 0 0 0 0 0 0 0 0 0 0 0 0 0 0 0 0 0 0 0 0 1926 1926 1926 1926 1926 1926 1926 1936 1936 1936 1936 1936 1936 1936 1936 1936 1936 1936 1936 1947 1947 1959 1959 1959 1947 1947 1947 1947 1936 1936 1936 1947 1947 1947 1936 1936 1926 1926 1926 1926 1926 1926 1926 1926 1926 1926 1936 1936 1936 1926 1926 1926 1926 1936 1936 1936 1936 1936 1926 1926 1926 1926 1926 1915 1915 1926 1926 1926 1926 1926 1926 1926 1926 1926 1926 1926 1926 1926 1926 1936 1936 1936 1936 1936 1947 1936 1936 1936 1936 1936 1926 1926 1926 1926 1936 1936 1936 1713 1713 1713 1713 1713 1713 1713 1632 1624 1624 1624 1624 1624 1624 1624 1632 1632 1639 1647 1647 1647 1671 1680 1688 1696 1713 1705 1705 1713 1722 1722 1936 1936 1936 1936 1936 1947 1947 1947 1947 1947 1959 1947 1947 1947 1947 1947 1947 1947 1947 1947 1947 1947 1959 1947 1947 1947 1959 1947 1947 1947 1947 1947 1947 1947 1947 1947 1947 1947 1959 1959 1959 1959 1959 1959 1947 1947 1947 1947 1947 1947 1947 1947 1947 1959 1959 1959 1959 1959 1959 1959 1959 1959 1959 1959 1970 1970 1564 1564 1572 1572 1579 1579 1579 1579 1579 1579 1586 1586 1586 1594 1594 1601 1959 1959 1959 1947 1947 1731 1722 1722 1722 1722 1731 1731 1731 1731 1739 1739 1748 1757 1766 1766 1947 1947 1959 1947 1947 1947 1947 1947 1947 1947 1947 1947 1959 1947 1936 1936 1936 1464 1458 1458 1464 1458 1458 1458 1464 1464 1464 1464 1464 1464 1470 1470 1470 1477 1696 1696 1705 1705 1705 1705 1705 1713 1713 1722 1722 1731 1883 1883 1883 1883 1883 1883 1883 1894 1904 1947 1959 1959 1959 1970 1959 1959 1959 1970 1959 1959 1947 1947 1947 1947 1947 1947 1947 1947 1947 1947 1947 1959 1959 1959 1947 1947 1947 1947 1947 1947 1947 1947 1947 1947 1947 1947 1947 1936 1936 1936 1947 1947 1947 1947 1947 1959 1959 1959 1959 1959 1959 1959 1959 1959 1959 1959 1959 1959 1959 1959 1959 1959 1947 1947 1959 1959 1959 1959 1959 1381 1381 1381 1381 1376 1376 1381 1381 1376 1376 1381 1381 1381 1381 1381 1381 1387 1387 1688 1688 1688 1696 1696 1696 1696 1696 1696 1696 1722 1722 1757 1776 1785 1785 1776 1776 1947 1947 1947 1947 1947 1947 1947 1947 1947 1947 1947 1947 1936 1936 1936 1926 1926 1926 1926 1915 1904 1904 1894 1894 1883 1873 1873 1873 1873 1873 1883 1883 1894 1904 1904 1915 1926 1926 1926 1926 1926 1936 1936 1936 1926 1926 1926 1926 1926 1926 1926 1936 1936 1936 1936 1936 1936 1936 1936 1936 1936 1936 1936 1936 1439 1439 1433 1433 1445 1445 1445 1445 1445 1439 1439 1439 1439 1433 1427 1427 1427 1427 1427 1433 1433 1433 1433 1926 1915 1915 1915 1915 1926 1915 1915 1915 1915 1915 1915 1915 1915 1915 1915 1915 1926 1926 1926 1926 1926 1926 1926 1926 1926 1926 1915 1915 1915 1915 1915 1915 1915 1915 1915 1915 1915 1915 1915 1915 1915 1915 1915 1904 1904 1904 1904 1904 1904 1904 1915 1915 1915 1915 1915 1915 1915 1915 1915 1915 1915 1915 1915 1915 1915 1915 1915 1904 1904 1904 1904 1904 1904 1894 1894 1894 1894 1894 1904 1904 1904 1894 1894 1894 1894 1894 1894 1894 1883 1883 1894 1883 1883 1883 1894 1894 1883 1883 1883 1883 1883 1883 1883 1883 1883 1883 1883 1883 1883 1883 1883 1883 1883 1894 1894 1894 1894 1894 1894 0 0 0 0 0 0 0 0
0 0 0 0 0 0 0 0 0 0 0 0 0 0 0 0 0 0 0 0 0 0 0 0 0 0 0 0 0 0 0 0 0 0 1926 1926 1926 1926 1926 1926 1926 1926 1926 1936 1936 1936 1926 1926 1926 1926 1926 1926 1936 1936 1947 1947 1947 1947 1947 1936 1926 1926 1926 1926 1936 1936 1926 1926 1926 1926 1926 1926 1915 1915 1926 1915 1915 1926 1926 1926 1926 1926 1926 1915 1915 1915 1915 1915 1915 1915 1915 1915 1915 1915 1915 1915 1915 1915 1915 1915 1915 1915 1915 1915 1915 1915 1915 1915 1915 1915 1915 1915 1915 1926 1926 1926 1926 1926 1926 1926 1915 1915 1915 1926 1926 1926 1926 1926 1936 1936 1936 1722 1713 1713 1722 1722 1713 1713 1632 1624 1624 1624 1624 1624 1624 1624 1632 1639 1639 1647 1655 1655 1671 1680 1688 1688 1705 1705 1705 1705 1722 1722 1936 1936 1936 1936 1936 1936 1947 1947 1947 1947 1947 1947 1947 1947 1947 1936 1936 1936 1936 1936 1936 1947 1947 1947 1947 1947 1947 1947 1947 1947 1947 1947 1947 1947 1947 1947 1947 1947 1947 1947 1947 1947 1947 1947 1947 1947 1947 1947 1947 1947 1947 1947 1947 1947 1959 1959 1947 1947 1947 1959 1959 1959 1959 1959 1970 1970 1564 1564 1572 1572 1579 1579 1579 1579 1579 1579 1586 1586 1586 1594 1594 1601 1601 1680 1680 1680 1680 1696 1696 1696 1705 1705 1722 1731 1731 1731 1739 1739 1748 1757 1766 1947 1947 1947 1947 1947 1936 1936 1947 1947 1947 1947 1947 1947 1947 1936 1936 1936 1936 1464 1458 1458 1458 1458 1458 1458 1464 1464 1464 1464 1464 1464 1470 1470 1470 1477 1696 1696 1696 1696 1696 1705 1705 1713 1713 1705 1705 1731 1883 1883 1883 1883 1883 1883 1894 1894 1904 1936 1947 1947 1947 1947 1959 1959 1959 1959 1947 1947 1947 1936 1936 1936 1936 1936 1936 1936 1936 1936 1947 1947 1947 1947 1947 1936 1936 1936 1936 1936 1936 1936 1936 1936 1936 1936 1936 1936 1936 1936 1936 1936 1936 1936 1936 1947 1947 1947 1947 1947 1959 1947 1947 1947 1947 1947 1947 1947 1947 1947 1947 1947 1947 1947 1947 1959 1959 1959 1959 1959 1381 1381 1381 1381 1381 1381 1381 1376 1376 1381 1381 1381 1381 1381 1381 1381 1376 1376 1688 1688 1688 1696 1696 1696 1696 1688 1688 1722 1776 1776 1785 1785 1785 1785 1785 1936 1936 1936 1936 1936 1936 1936 1936 1936 1936 1936 1936 1936 1926 1926 1926 1926 1915 1915 1915 1904 1894 1894 1894 1883 1873 1873 1873 1873 1873 1883 1883 1894 1904 1904 1915 1915 1915 1926 1915 1915 1926 1926 1926 1915 1915 1915 1915 1915 1915 1915 1926 1926 1926 1926 1926 1926 1926 1926 1936 1936 1936 1936 1936 1433 1433 1433 1433 1445 1445 1445 1445 1445 1445 1439 1439 1439 1433 1433 1433 1427 1427 1427 1433 1433 1427 1427 1427 1904 1904 1904 1915 1915 1904 1904 1915 1915 1904 1904 1904 1904 1915 1915 1915 1915 1915 1915 1915 1926 1915 1915 1926 1926 1926 1904 1904 1904 1904 1904 1904 1904 1904 1904 1904 1915 1904 1904 1904 1904 1904 1904 1904 1904 1904 1904 1904 1904 1904 1904 1904 1904 1904 1904 1904 1904 1904 1904 1904 1904 1904 1904 1904 1904 1904 1904 1904 1904 1904 1904 1904 1904 1894 1894 1894 1894 1894 1894 1894 1894 1883 1883 1883 1883 1883 1883 1883 1883 1883 1883 1883 1883 1883 1883 1883 1883 1883 1883 1883 1883 1883 1883 1883 1883 1883 1883 1883 1883 1883 1883 1883 1883 1883 1883 1883 1883 1883 1894 0 0 0 0 0 0 0 0
0 0 0 0 0 0 0 0 0 0 0 0 0 0 0 0 0 0 0 0 0 0 0 0 0 0 0 0 0 0 0 0 0 0 1915 1915 1915 1926 1926 1926 1926 1926 1926 1926 1926 1926 1926 1926 1926 1926 1926 1926 1926 1936 1936 1936 1936 1936 1936 1926 1926 1926 1926 1926 1926 1926 1926 1926 1926 1926 1915 1915 1915 1915 1915 1915 1915 1915 1915 1915 1915 1915 1915 1915 1915 1915 1915 1915 1915 1915 1915 1915 1915 1915 1915 1915 1915 1915 1915 1915 1915 1915 1915 1915 1915 1915 1915 1915 1915 1915 1915 1915 1915 1915 1926 1926 1926 1926 1926 1915 1915 1915 1915 1915 1915 1915 1915 1915 1926 1926 1926 1722 1713 1713 1722 1722 1713 1713 1632 1624 1624 1624 1624 1624 1624 1624 1624 1632 1632 1639 1647 1655 1671 1680 1680 1688 1705 1705 1705 1705 1705 1926 1926 1926 1926 1926 1926 1936 1936 1936 1936 1936 1936 1936 1936 1936 1936 1936 1936 1926 1926 1926 1936 1936 1936 1936 1936 1947 1947 1947 1947 1947 1947 1947 1947 1947 1947 1947 1947 1947 1947 1947 1947 1947 1947 1947 1947 1947 1947 1947 1947 1947 1947 1947 1947 1947 1947 1947 1947 1947 1947 1947 1947 1947 1947 1959 1970 1970 1564 1564 1572 1572 1579 1579 1579 1579 1579 1579 1586 1586 1586 1586 1594 1594 1594 1671 1671 1671 1680 1680 1688 1696 1696 1705 1705 1731 1731 1731 1731 1739 1970 1959 1947 1936 1936 1936 1936 1936 1936 1936 1936 1936 1936 1936 1936 1936 1936 1936 1936 1936 1936 1936 1458 1458 1458 1458 1458 1458 1464 1464 1464 1464 1464 1464 1470 1470 1470 1470 1696 1696 1696 1696 1696 1696 1696 1705 1705 1696 1696 1883 1883 1883 1883 1894 1894 1894 1894 1894 1904 1936 1936 1947 1947 1947 1947 1947 1947 1947 1936 1926 1926 1926 1936 1926 1926 1926 1936 1936 1936 1936 1936 1936 1926 1926 1936 1936 1936 1926 1926 1926 1936 1936 1936 1936 1936 1936 1936 1926 1926 1926 1936 1936 1926 1926 1936 1936 1936 1936 1936 1936 1936 1936 1947 1947 1936 1936 1947 1936 1936 1947 1947 1947 1936 1936 1936 1947 1947 1947 1959 1959 1376 1376 1381 1381 1381 1381 1381 1376 1376 1381 1381 1381 1381 1381 1381 1370 1370 1376 1376 1688 1688 1688 1688 1696 1696 1688 1688 1722 1785 1785 1785 1785 1785 1785 1785 1926 1926 1926 1926 1926 1926 1936 1936 1936 1926 1926 1926 1926 1915 1915 1915 1915 1915 1915 1904 1904 1894 1894 1894 1883 1873 1873 1873 1873 1873 1883 1883 1894 1894 1904 1904 1915 1915 1915 1915 1915 1915 1915 1915 1915 1915 1915 1915 1915 1915 1915 1915 1915 1926 1926 1926 1926 1926 1926 1926 1926 1926 1926 1433 1433 1433 1433 1433 1445 1445 1445 1445 1445 1445 1445 1439 1439 1439 1433 1433 1427 1427 1427 1433 1433 1427 1427 1427 1894 1894 1894 1904 1904 1894 1894 1894 1894 1894 1894 1904 1904 1904 1915 1915 1915 1915 1915 1915 1915 1915 1915 1915 1915 1915 1904 1904 1904 1904 1904 1904 1904 1904 1904 1904 1904 1904 1904 1904 1904 1904 1904 1904 1904 1904 1904 1904 1904 1904 1904 1894 1894 1894 1894 1904 1904 1904 1904 1904 1904 1904 1904 1904 1904 1904 1904 1904 1904 1904 1904 1904 1904 1894 1883 1883 1883 1883 1894 1883 1883 1883 1883 1873 1873 1873 1873 1883 1883 1883 1883 1883 1883 1883 1883 1883 1873 1873 1873 1883 1873 1873 1873 1873 1873 1883 1883 1883 1883 1883 1883 1883 1883 1883 1873 1873 1873 1883 1883 0 0 0 0 0 0 0 0
