0 0 0 0 0 0 0 0 0 0 0 0 0 0 0 0 0 0 0 0 0 0 0 0 0 0 0 0 0 0 0 0 0 0 0 1671 1671 1680 1680 1680 1680 1688 1688 1688 1688 1688 1688 1696 1696 1696 1696 1696 1696 1696 1696 1696 1696 1696 1696 1696 1696 1696 1705 1705 1705 1705 1696 1696 1688 1688 1688 1696 1696 1688 1688 1688 1688 1688 1688 1688 1688 1688 1688 1696 1688 1688 1688 1688 1688 1688 1688 1688 1688 1688 1688 1688 1688 1688 1688 1688 1688 1688 1696 1696 1696 1696 1696 1696 1696 1696 1696 1696 1696 1696 1696 1696 1696 1696 1705 1705 1705 1705 1705 1705 1705 1705 1705 1705 1696 1696 1688 1688 1680 1663 1663 1663 1663 1663 1663 1663 1671 1671 1680 1680 1696 1696 1705 1713 1713 1713 1713 1713 1713 1713 1705 1705 1705 1705 1705 1696 1696 1705 1705 1705 1705 1705 1705 1705 1705 1705 1705 1705 1705 1705 1705 1705 1705 1705 1705 1705 1713 1713 1713 1713 1713 1713 1713 1713 1705 1705 1713 1713 1713 1713 1713 1713 1722 1713 1713 1722 1722 1713 1713 1713 1713 1722 1722 1731 1731 1731 1731 1722 1722 1722 1722 1713 1713 1713 1713 1722 1722 1731 1731 1731 1739 1739 1739 1739 1739 1739 1739 1739 1739 1739 1739 1739 1739 1739 1739 1739 1739 1739 1731 1731 1731 1731 1731 1731 1731 1731 1731 1731 1739 1739 1739 1739 1731 1731 1731 1731 1731 1731 1731 1731 1731 1731 1731 1731 1731 1731 1731 1731 1731 1739 1731 1731 1731 1739 1739 1739 1739 1739 1739 1739 1739 1731 1731 1722 1713 1705 1705 1705 1705 1705 1705 1705 1713 1713 1722 1731 1739 1739 1739 1739 1739 1739 1739 1739 1748 1748 1748 1748 1748 1748 1748 1748 1748 1748 1748 1739 1739 1739 1739 1739 1739 1739 1739 1739 1739 1739 1731 1731 1731 1731 1731 1731 1731 1731 1731 1731 1731 1731 1739 1731 1731 1731 1739 1739 1748 1748 1748 1748 1748 1757 1757 1748 1748 1748 1748 1748 1739 1739 1739 1739 1739 1748 1748 1748 1748 1748 1757 1757 1757 1757 1748 1748 1748 1748 1748 1739 1739 1739 1739 1739 1748 1748 1748 1748 1748 1757 1757 1757 1757 1757 1757 1757 1757 1757 1757 1757 1757 1757 1757 1757 1757 1757 1757 1757 1757 1757 1757 1757 1757 1757 1757 1757 1739 1739 1748 1748 1748 1748 1748 1748 1748 1748 1748 1748 1748 1748 1748 1748 1748 1748 1748 1748 1748 1748 1748 1748 1748 1748 1748 1748 1757 1757 1748 1748 1757 1748 1748 1748 1748 1757 1757 1757 1757 1757 1757 1757 1757 1757 1757 1757 1757 1757 1757 1757 1757 1757 1757 1757 1757 1757 1757 1757 1757 1757 1757 1757 1757 1757 1757 1757 1757 1757 1757 1757 1757 1748 1748 1748 1757 1757 1757 1757 1757 1757 1757 1748 1748 1748 1748 1757 1748 1748 1748 1748 1748 1748 1748 1748 1748 1766 1748 1748 1757 1757 1748 1748 1748 1748 1757 1757 1757 1757 1757 1757 1757 1757 1757 1757 1748 1748 1748 1748 1757 1757 1748 1748 1757 1757 1757 1757 1757 1757 1757 1766 1766 1766 1757 1757 1757 1757 1757 1757 1757 1757 1757 1757 1757 1757 1757 1757 1748 1748 1748 1748 1748 1748 1748 1748 1748 1748 1748 1748 1748 1748 1748 1748 1748 1748 1748 1748 1748 1757 1757 1757 1757 1757 1766 1748 1748 1748 1748 1748 1748 1739 1739 1739 1739 1739 1739 1739 1739 1739 1739 1748 1748 1748 1748 1748 1748 1748 1748 1748 1757 1748 1748 1757 1757 1757 1757 1766 1766 1766 1766 1766 1766 1766 1766 1766 1766 0 0 0 0 0 0 0
0 0 0 0 0 0 0 0 0 0 0 0 0 0 0 0 0 0 0 0 0 0 0 0 0 0 0 0 0 0 0 0 0 0 0 1663 1663 1671 1671 1671 1671 1680 1680 1680 1680 1680 1680 1688 1688 1696 1696 1696 1696 1688 1688 1688 1688 1688 1688 1688 1688 1688 1688 1688 1688 1688 1696 1688 1688 1688 1688 1688 1688 1680 1680 1688 1688 1688 1688 1688 1688 1680 1680 1688 1680 1680 1680 1680 1680 1680 1688 1688 1688 1688 1688 1688 1688 1688 1688 1688 1688 1688 1688 1688 1688 1688 1688 1688 1688 1688 1688 1688 1688 1688 1696 1696 1696 1696 1696 1696 1696 1696 1696 1696 1696 1696 1696 1696 1696 1696 1688 1688 1680 1663 1663 1671 1671 1671 1671 1671 1671 1671 1680 1680 1680 1688 1688 1688 1696 1696 1696 1705 1705 1705 1696 1696 1696 1696 1696 1688 1688 1688 1696 1696 1696 1696 1696 1696 1696 1696 1705 1705 1705 1705 1705 1705 1705 1705 1705 1705 1705 1705 1713 1713 1713 1713 1713 1713 1713 1713 1713 1713 1713 1713 1713 1713 1713 1713 1713 1713 1713 1713 1713 1713 1713 1722 1722 1713 1713 1713 1722 1722 1722 1713 1713 1713 1713 1713 1713 1713 1713 1722 1722 1731 1731 1739 1739 1739 1739 1739 1739 1731 1731 1731 1731 1731 1739 1739 1739 1739 1739 1739 1731 1731 1731 1731 1731 1731 1731 1731 1731 1731 1731 1731 1731 1731 1731 1731 1731 1731 1731 1731 1731 1731 1731 1731 1731 1731 1731 1731 1731 1731 1731 1731 1731 1731 1731 1731 1739 1739 1739 1739 1739 1739 1739 1731 1731 1722 1713 1705 1705 1705 1705 1705 1705 1705 1713 1713 1722 1731 1731 1731 1731 1731 1731 1739 1739 1739 1739 1739 1739 1739 1739 1748 1739 1739 1739 1739 1739 1739 1739 1739 1739 1739 1739 1739 1739 1739 1739 1739 1731 1731 1731 1731 1731 1731 1731 1731 1731 1731 1731 1731 1731 1731 1731 1731 1731 1731 1731 1739 1739 1739 1739 1748 1748 1748 1739 1739 1748 1748 1739 1739 1739 1739 1739 1739 1748 1748 1748 1748 1748 1748 1748 1757 1748 1748 1748 1748 1748 1739 1739 1739 1739 1739 1739 1748 1748 1748 1748 1757 1757 1757 1757 1757 1757 1757 1757 1757 1757 1757 1757 1757 1757 1757 1757 1748 1748 1757 1748 1748 1748 1748 1748 1748 1748 1748 1731 1731 1739 1739 1739 1748 1748 1748 1748 1748 1748 1748 1748 1748 1748 1748 1748 1748 1748 1748 1748 1748 1748 1748 1748 1748 1748 1748 1748 1748 1748 1748 1748 1748 1748 1748 1748 1748 1748 1748 1748 1748 1748 1748 1748 1748 1748 1748 1757 1757 1757 1757 1757 1748 1748 1757 1757 1757 1748 1748 1757 1757 1757 1757 1757 1757 1757 1757 1757 1757 1757 1757 1757 1748 1748 1748 1748 1748 1748 1748 1748 1748 1748 1748 1748 1748 1748 1748 1739 1739 1748 1739 1739 1748 1739 1739 1739 1739 1739 1739 1748 1748 1748 1748 1748 1748 1748 1748 1757 1748 1748 1757 1757 1757 1757 1757 1748 1748 1748 1748 1748 1748 1748 1748 1748 1748 1757 1757 1757 1757 1757 1757 1766 1757 1757 1757 1757 1748 1748 1748 1748 1757 1757 1757 1748 1748 1748 1748 1748 1748 1739 1739 1739 1739 1739 1739 1739 1739 1748 1748 1748 1748 1748 1748 1748 1748 1748 1748 1748 1748 1748 1748 1748 1757 1757 1748 1748 1748 1748 1748 1748 1739 1739 1739 1739 1739 1739 1739 1739 1731 1731 1739 1739 1739 1739 1739 1739 1739 1739 1739 1748 1748 1748 1748 1748 1748 1757 1757 1757 1757 1766 1766 1766 1766 1766 1766 1766 0 0 0 0 0 0 0
0 0 0 0 0 0 0 0 0 0 0 0 0 0 0 0 0 0 0 0 0 0 0 0 0 0 0 0 0 0 0 0 0 0 0 1663 1663 1663 1663 1671 1671 1671 1671 1671 1680 1680 1680 1688 1688 1688 1688 1688 1696 1688 1688 1688 1688 1688 1688 1680 1680 1688 1688 1688 1688 1688 1688 1680 1680 1680 1680 1680 1680 1680 1680 1680 1688 1688 1688 1688 1688 1680 1680 1680 1680 1680 1680 1680 1680 1680 1680 1680 1688 1680 1680 1688 1680 1680 1688 1688 1688 1688 1688 1688 1688 1688 1688 1688 1688 1688 1688 1688 1688 1688 1688 1688 1688 1688 1688 1688 1688 1688 1688 1688 1688 1696 1696 1696 1696 1688 1688 1688 1680 1671 1671 1671 1671 1671 1671 1671 1671 1671 1680 1680 1680 1688 1688 1688 1688 1696 1696 1696 1705 1705 1696 1688 1688 1688 1688 1688 1688 1688 1688 1688 1688 1688 1688 1688 1688 1688 1688 1688 1688 1688 1696 1696 1696 1696 1696 1705 1705 1705 1705 1705 1705 1705 1705 1705 1705 1705 1705 1705 1705 1705 1713 1713 1713 1713 1713 1713 1713 1713 1713 1713 1713 1713 1713 1713 1713 1713 1713 1713 1713 1713 1713 1713 1713 1713 1713 1713 1713 1722 1722 1731 1731 1731 1731 1731 1739 1739 1731 1731 1731 1731 1731 1731 1739 1739 1739 1739 1739 1739 1731 1731 1722 1722 1731 1722 1722 1722 1722 1722 1731 1731 1731 1731 1722 1722 1722 1731 1731 1731 1731 1731 1731 1731 1731 1731 1731 1731 1731 1731 1731 1731 1731 1731 1731 1731 1731 1739 1739 1739 1739 1739 1739 1731 1713 1713 1705 1705 1705 1705 1705 1705 1705 1705 1713 1713 1722 1731 1731 1731 1731 1731 1731 1731 1731 1739 1739 1739 1739 1739 1739 1739 1739 1739 1739 1739 1739 1739 1739 1739 1739 1739 1739 1739 1739 1739 1739 1739 1731 1731 1731 1731 1731 1731 1731 1731 1731 1731 1731 1731 1731 1731 1731 1731 1731 1731 1731 1731 1731 1731 1739 1739 1739 1731 1731 1731 1739 1739 1731 1731 1731 1731 1731 1739 1739 1739 1739 1739 1739 1748 1748 1731 1731 1739 1748 1748 1739 1739 1739 1739 1739 1739 1739 1739 1739 1739 1739 1748 1748 1757 1757 1757 1757 1757 1748 1748 1757 1757 1757 1757 1757 1748 1748 1748 1748 1748 1748 1748 1748 1748 1748 1739 1739 1739 1731 1731 1739 1739 1739 1739 1748 1748 1748 1748 1748 1748 1748 1748 1739 1739 1748 1748 1748 1739 1739 1739 1739 1739 1739 1739 1739 1748 1748 1748 1748 1748 1748 1748 1739 1739 1748 1748 1748 1748 1748 1748 1748 1748 1748 1748 1748 1748 1748 1748 1748 1748 1748 1739 1739 1748 1748 1748 1748 1748 1748 1748 1748 1748 1748 1748 1757 1757 1748 1748 1757 1748 1748 1748 1748 1748 1748 1748 1748 1748 1748 1748 1748 1748 1748 1748 1748 1748 1739 1739 1739 1739 1739 1739 1739 1739 1739 1739 1739 1739 1739 1739 1739 1739 1739 1748 1748 1748 1748 1748 1748 1757 1757 1748 1748 1748 1748 1748 1748 1748 1748 1748 1748 1748 1748 1748 1748 1757 1757 1757 1757 1757 1757 1757 1748 1748 1748 1748 1748 1748 1748 1748 1748 1748 1748 1748 1748 1748 1748 1739 1739 1739 1739 1739 1739 1739 1739 1739 1748 1748 1748 1748 1748 1748 1748 1748 1748 1748 1748 1748 1748 1748 1748 1748 1757 1739 1739 1748 1748 1748 1748 1739 1739 1739 1731 1731 1731 1731 1731 1731 1731 1731 1731 1731 1731 1739 1739 1739 1739 1739 1748 1748 1748 1748 1748 1748 1748 1748 1757 1757 1757 1757 1757 1757 1757 1757 1757 0 0 0 0 0 0 0
0 0 0 0 0 0 0 0 0 0 0 0 0 0 0 0 0 0 0 0 0 0 0 0 0 0 0 0 0 0 0 0 0 0 0 1663 1663 1663 1663 1663 1663 1663 1671 1671 1671 1671 1671 1680 1680 1688 1688 1688 1688 1688 1688 1688 1688 1680 1680 1680 1680 1680 1680 1688 1688 1688 1688 1680 1680 1680 1680 1680 1680 1680 1680 1680 1680 1688 1688 1688 1688 1680 1680 1680 1680 1680 1680 1680 1680 1680 1680 1680 1680 1680 1680 1680 1680 1680 1680 1680 1680 1688 1688 1688 1688 1680 1680 1688 1680 1680 1680 1680 1680 1688 1688 1688 1688 1688 1688 1688 1688 1688 1688 1688 1688 1688 1688 1688 1688 1688 1688 1680 1680 1671 1671 1671 1671 1671 1671 1671 1671 1671 1680 1680 1680 1680 1688 1688 1688 1688 1688 1688 1696 1696 1688 1688 1688 1688 1688 1688 1688 1680 1680 1680 1688 1688 1688 1688 1688 1688 1688 1688 1688 1688 1688 1688 1688 1696 1696 1696 1705 1705 1705 1705 1705 1705 1705 1705 1696 1696 1705 1705 1705 1705 1705 1705 1713 1705 1705 1713 1713 1705 1705 1705 1705 1705 1705 1705 1705 1713 1713 1713 1713 1713 1705 1705 1705 1705 1705 1705 1713 1713 1713 1722 1722 1713 1713 1713 1713 1713 1713 1713 1713 1722 1722 1713 1713 1722 1713 1713 1713 1713 1705 1705 1705 1705 1705 1705 1705 1705 1713 1713 1722 1722 1722 1722 1722 1722 1722 1722 1722 1722 1722 1731 1731 1722 1722 1722 1722 1722 1731 1731 1731 1731 1731 1731 1731 1731 1731 1731 1731 1731 1731 1731 1731 1722 1713 1713 1705 1705 1705 1705 1705 1705 1705 1705 1713 1713 1722 1731 1731 1731 1731 1731 1731 1731 1731 1731 1731 1739 1739 1739 1739 1739 1739 1731 1731 1739 1739 1739 1739 1739 1739 1739 1739 1739 1739 1739 1739 1739 1731 1731 1731 1731 1731 1731 1731 1731 1731 1731 1731 1722 1722 1722 1722 1722 1722 1722 1731 1731 1731 1731 1731 1731 1731 1731 1722 1722 1731 1731 1722 1722 1731 1731 1731 1731 1739 1739 1739 1739 1739 1739 1739 1731 1731 1731 1731 1731 1731 1731 1731 1739 1731 1731 1739 1739 1739 1739 1739 1739 1739 1739 1739 1739 1739 1748 1739 1739 1748 1748 1748 1748 1748 1748 1739 1739 1739 1739 1739 1739 1739 1739 1739 1739 1739 1739 1731 1731 1739 1739 1739 1739 1739 1748 1748 1739 1739 1739 1739 1739 1739 1739 1739 1739 1739 1739 1739 1739 1739 1739 1739 1739 1739 1739 1739 1739 1739 1739 1739 1739 1739 1739 1739 1739 1748 1739 1739 1748 1748 1748 1748 1748 1748 1748 1748 1748 1748 1748 1739 1739 1739 1739 1739 1739 1739 1739 1739 1748 1748 1748 1748 1748 1748 1748 1748 1748 1748 1748 1748 1748 1748 1748 1748 1748 1748 1748 1748 1748 1748 1748 1748 1739 1739 1748 1739 1739 1739 1739 1739 1739 1739 1739 1739 1739 1739 1739 1739 1739 1739 1739 1739 1739 1739 1739 1739 1739 1739 1739 1739 1739 1739 1739 1748 1739 1739 1748 1739 1739 1739 1739 1739 1748 1748 1748 1748 1757 1757 1757 1757 1757 1748 1748 1748 1739 1739 1748 1748 1748 1748 1748 1748 1748 1748 1748 1739 1739 1739 1739 1739 1739 1739 1739 1739 1739 1739 1739 1748 1748 1748 1748 1748 1748 1748 1739 1739 1748 1748 1748 1748 1748 1757 1739 1739 1739 1739 1739 1739 1739 1739 1739 1731 1731 1731 1731 1731 1722 1722 1731 1731 1731 1731 1731 1739 1739 1739 1739 1748 1748 1748 1748 1748 1748 1748 1748 1748 1748 1748 1757 1757 1757 1757 1757 1757 0 0 0 0 0 0 0
0 0 0 0 0 0 0 0 0 0 0 0 0 0 0 0 0 0 0 0 0 0 0 0 0 0 0 0 0 0 0 0 0 0 0 1655 1655 1655 1663 1663 1663 1663 1663 1671 1671 1671 1671 1671 1671 1680 1680 1680 1688 1688 1680 1680 1680 1680 1671 1671 1680 1680 1680 1680 1680 1680 1688 1671 1671 1671 1671 1671 1671 1680 1680 1680 1680 1688 1680 1680 1680 1671 1671 1680 1671 1671 1671 1671 1680 1680 1680 1680 1680 1680 1671 1671 1671 1680 1680 1680 1680 1680 1680 1680 1680 1680 1680 1680 1680 1680 1680 1680 1680 1680 1680 1680 1680 1680 1688 1688 1688 1688 1688 1688 1688 1688 1688 1680 1680 1680 1680 1680 1680 1671 1671 1671 1671 1671 1671 1671 1671 1671 1671 1680 1680 1680 1680 1680 1680 1688 1688 1688 1688 1688 1688 1680 1680 1680 1680 1680 1680 1680 1680 1680 1680 1680 1680 1680 1680 1680 1680 1680 1680 1680 1688 1680 1680 1688 1688 1688 1696 1696 1696 1696 1696 1696 1696 1696 1696 1696 1705 1705 1705 1705 1705 1705 1705 1705 1705 1713 1705 1705 1705 1705 1705 1705 1705 1705 1705 1705 1705 1705 1705 1705 1705 1705 1705 1705 1705 1705 1713 1713 1713 1713 1713 1713 1713 1713 1713 1713 1713 1713 1713 1713 1713 1713 1713 1713 1713 1713 1713 1713 1705 1705 1705 1705 1705 1705 1705 1705 1705 1705 1705 1713 1713 1713 1713 1713 1713 1713 1713 1713 1713 1722 1722 1713 1713 1722 1722 1722 1722 1722 1722 1722 1722 1722 1722 1731 1731 1731 1731 1722 1722 1731 1722 1722 1713 1713 1705 1705 1705 1705 1705 1705 1705 1705 1705 1713 1713 1722 1731 1731 1722 1722 1722 1722 1722 1722 1722 1731 1731 1731 1731 1731 1731 1731 1731 1731 1731 1731 1731 1731 1731 1739 1739 1739 1739 1739 1739 1731 1722 1722 1722 1722 1722 1722 1731 1722 1722 1722 1722 1722 1722 1722 1722 1722 1722 1722 1731 1731 1731 1731 1731 1731 1731 1722 1722 1722 1722 1722 1722 1722 1731 1731 1731 1731 1731 1731 1731 1731 1731 1731 1731 1731 1731 1731 1731 1731 1731 1731 1731 1731 1731 1731 1731 1731 1731 1731 1731 1731 1739 1731 1731 1731 1739 1739 1739 1739 1739 1739 1739 1739 1739 1739 1739 1731 1731 1731 1739 1739 1739 1739 1739 1739 1739 1739 1722 1722 1731 1731 1731 1739 1739 1739 1739 1739 1731 1731 1731 1731 1731 1731 1731 1739 1739 1731 1731 1731 1739 1739 1739 1731 1731 1739 1739 1731 1731 1731 1731 1731 1731 1731 1731 1739 1748 1739 1739 1739 1739 1748 1748 1748 1748 1748 1748 1739 1739 1748 1739 1739 1739 1739 1739 1739 1739 1739 1739 1748 1748 1739 1739 1748 1748 1748 1748 1748 1748 1748 1748 1748 1748 1748 1748 1748 1748 1748 1748 1748 1748 1739 1739 1739 1739 1748 1731 1731 1739 1739 1739 1739 1739 1739 1739 1739 1731 1731 1739 1731 1731 1731 1739 1739 1739 1739 1739 1739 1739 1739 1739 1739 1739 1739 1739 1739 1739 1739 1739 1739 1739 1739 1739 1739 1739 1739 1739 1748 1748 1757 1748 1748 1748 1748 1739 1739 1739 1739 1739 1748 1748 1748 1748 1748 1739 1739 1739 1739 1739 1739 1739 1739 1739 1739 1739 1739 1739 1739 1739 1739 1739 1739 1739 1739 1739 1739 1739 1739 1739 1739 1748 1748 1748 1739 1739 1739 1739 1739 1739 1739 1731 1731 1731 1731 1722 1722 1722 1722 1722 1722 1722 1722 1731 1731 1731 1731 1731 1739 1739 1739 1739 1739 1739 1739 1748 1748 1748 1748 1748 1757 1748 1748 1748 1748 1748 0 0 0 0 0 0 0
0 0 0 0 0 0 0 0 0 0 0 0 0 0 0 0 0 0 0 0 0 0 0 0 0 0 0 0 0 0 0 0 0 0 0 1655 1655 1655 1655 1663 1663 1663 1663 1663 1671 1671 1671 1671 1671 1671 1671 1671 1671 1680 1680 1680 1680 1671 1671 1671 1671 1671 1671 1671 1671 1680 1680 1671 1671 1671 1671 1663 1663 1671 1671 1671 1671 1680 1680 1671 1671 1671 1671 1671 1671 1671 1671 1671 1671 1671 1671 1671 1671 1671 1671 1671 1671 1671 1680 1680 1680 1680 1680 1680 1680 1680 1680 1680 1680 1680 1680 1680 1680 1680 1680 1680 1680 1680 1680 1680 1680 1680 1680 1680 1680 1680 1680 1671 1671 1680 1680 1671 1671 1671 1671 1671 1671 1671 1671 1671 1671 1671 1671 1671 1671 1680 1680 1680 1680 1688 1688 1688 1680 1680 1680 1680 1680 1680 1680 1680 1680 1680 1680 1680 1680 1680 1680 1680 1680 1680 1680 1680 1680 1680 1680 1680 1680 1680 1680 1688 1688 1696 1696 1696 1696 1696 1696 1688 1688 1688 1696 1696 1696 1696 1705 1705 1705 1705 1705 1705 1705 1705 1705 1705 1705 1705 1705 1705 1705 1705 1705 1705 1705 1705 1705 1705 1705 1705 1705 1705 1705 1705 1705 1705 1705 1705 1705 1705 1705 1705 1705 1705 1705 1705 1713 1713 1713 1713 1713 1713 1713 1713 1705 1705 1705 1705 1705 1705 1705 1705 1705 1705 1705 1705 1705 1705 1705 1705 1705 1705 1705 1705 1705 1713 1713 1713 1713 1713 1713 1713 1722 1722 1722 1722 1722 1722 1722 1722 1722 1722 1713 1713 1722 1722 1722 1713 1713 1713 1705 1705 1705 1705 1705 1705 1705 1705 1705 1705 1713 1713 1722 1722 1722 1722 1722 1722 1722 1722 1722 1722 1722 1731 1731 1731 1731 1731 1731 1731 1731 1731 1731 1731 1731 1731 1731 1731 1731 1731 1731 1731 1722 1722 1722 1722 1722 1722 1722 1722 1722 1722 1722 1713 1713 1713 1722 1722 1722 1722 1722 1722 1722 1722 1722 1722 1722 1722 1713 1713 1713 1713 1722 1722 1722 1722 1722 1731 1731 1731 1731 1731 1722 1722 1731 1722 1722 1731 1731 1731 1731 1731 1731 1731 1731 1731 1731 1731 1731 1731 1731 1731 1731 1731 1731 1731 1731 1731 1731 1731 1739 1739 1731 1731 1731 1731 1731 1731 1731 1731 1731 1731 1731 1731 1731 1739 1731 1731 1722 1722 1731 1731 1731 1731 1731 1722 1722 1731 1731 1731 1731 1731 1731 1731 1731 1731 1731 1731 1731 1731 1731 1731 1739 1731 1731 1731 1731 1722 1722 1722 1722 1722 1722 1722 1722 1731 1731 1739 1739 1739 1739 1739 1739 1739 1739 1739 1739 1739 1739 1739 1739 1739 1739 1739 1739 1739 1739 1739 1739 1739 1739 1739 1739 1739 1739 1739 1739 1739 1739 1739 1739 1739 1739 1748 1748 1748 1748 1748 1748 1748 1748 1739 1739 1739 1739 1739 1731 1731 1739 1739 1739 1739 1739 1739 1739 1739 1731 1731 1731 1731 1731 1731 1731 1731 1731 1731 1731 1731 1731 1731 1731 1731 1739 1739 1739 1739 1739 1739 1739 1731 1731 1731 1739 1739 1739 1739 1739 1739 1739 1739 1739 1739 1739 1739 1739 1739 1739 1739 1739 1739 1739 1739 1739 1739 1739 1739 1739 1739 1739 1739 1739 1731 1731 1731 1731 1739 1739 1739 1739 1739 1739 1739 1739 1739 1739 1739 1739 1739 1739 1739 1739 1748 1748 1739 1739 1739 1739 1739 1739 1731 1731 1731 1731 1722 1722 1722 1722 1722 1722 1722 1722 1722 1731 1731 1731 1731 1731 1739 1739 1739 1739 1739 1739 1739 1739 1748 1748 1748 1748 1748 1748 1748 1748 1748 1748 0 0 0 0 0 0 0
0 0 0 0 0 0 0 0 0 0 0 0 0 0 0 0 0 0 0 0 0 0 0 0 0 0 0 0 0 0 0 0 0 0 0 1655 1655 1655 1655 1655 1663 1663 1663 1663 1663 1663 1663 1663 1663 1663 1663 1663 1663 1663 1671 1671 1671 1671 1671 1671 1671 1671 1671 1671 1671 1671 1671 1655 1655 1655 1663 1663 1663 1663 1663 1663 1663 1671 1671 1671 1671 1663 1663 1663 1663 1663 1663 1671 1671 1671 1671 1671 1671 1663 1663 1663 1663 1671 1671 1671 1671 1680 1680 1680 1680 1680 1680 1680 1680 1680 1680 1680 1680 1680 1671 1671 1680 1680 1680 1680 1680 1680 1680 1671 1671 1671 1671 1671 1671 1671 1671 1671 1671 1671 1671 1671 1663 1663 1671 1671 1663 1663 1671 1671 1671 1680 1680 1680 1680 1680 1680 1680 1680 1680 1671 1671 1671 1671 1671 1680 1680 1680 1680 1680 1680 1680 1680 1680 1680 1680 1680 1680 1680 1680 1680 1680 1680 1680 1680 1680 1688 1688 1688 1688 1688 1688 1688 1680 1680 1688 1688 1688 1688 1688 1696 1696 1696 1696 1705 1705 1705 1705 1705 1705 1705 1705 1696 1696 1696 1696 1696 1696 1696 1705 1705 1696 1696 1705 1705 1705 1705 1705 1705 1705 1705 1705 1705 1705 1705 1705 1705 1705 1705 1705 1705 1705 1713 1705 1705 1713 1713 1713 1705 1705 1705 1705 1705 1705 1705 1705 1705 1705 1705 1705 1705 1705 1705 1705 1705 1705 1705 1705 1705 1705 1705 1705 1705 1713 1713 1713 1713 1713 1713 1713 1713 1713 1713 1713 1713 1713 1713 1713 1713 1713 1713 1713 1713 1713 1705 1705 1705 1705 1705 1705 1705 1705 1705 1705 1705 1705 1705 1705 1705 1705 1722 1713 1713 1713 1713 1713 1713 1722 1722 1722 1722 1722 1722 1722 1722 1722 1722 1722 1722 1731 1731 1731 1731 1731 1731 1731 1722 1722 1722 1722 1722 1722 1722 1722 1722 1722 1713 1713 1713 1713 1713 1722 1722 1722 1722 1722 1722 1713 1713 1713 1713 1713 1713 1713 1713 1713 1713 1713 1722 1722 1722 1722 1722 1722 1722 1722 1722 1722 1722 1722 1722 1722 1722 1722 1731 1722 1722 1731 1731 1731 1731 1731 1731 1731 1731 1731 1731 1731 1731 1731 1731 1731 1731 1731 1731 1731 1731 1731 1731 1731 1731 1731 1731 1731 1731 1731 1731 1731 1731 1731 1731 1731 1722 1722 1722 1722 1722 1722 1722 1722 1722 1722 1722 1722 1722 1722 1722 1722 1722 1722 1722 1722 1722 1722 1722 1731 1731 1731 1731 1731 1722 1722 1722 1722 1722 1722 1722 1722 1722 1722 1722 1722 1731 1731 1731 1731 1739 1739 1731 1731 1731 1731 1731 1731 1731 1731 1731 1731 1731 1731 1731 1731 1731 1731 1731 1731 1731 1739 1739 1739 1731 1731 1731 1739 1731 1731 1739 1739 1748 1748 1748 1748 1748 1748 1739 1739 1731 1731 1731 1731 1731 1731 1731 1739 1739 1739 1739 1739 1731 1731 1731 1731 1731 1731 1731 1731 1731 1731 1731 1731 1731 1731 1731 1731 1722 1722 1731 1731 1731 1731 1731 1731 1731 1731 1722 1722 1722 1731 1731 1731 1739 1739 1739 1739 1731 1731 1731 1731 1722 1722 1722 1731 1731 1731 1731 1731 1739 1739 1731 1731 1731 1731 1731 1731 1731 1722 1722 1722 1731 1731 1731 1731 1731 1739 1739 1731 1731 1739 1739 1731 1731 1731 1739 1739 1739 1739 1739 1731 1731 1731 1731 1731 1731 1731 1731 1731 1722 1722 1722 1722 1713 1713 1722 1722 1722 1722 1722 1731 1731 1731 1731 1731 1739 1739 1739 1739 1739 1739 1739 1739 1739 1739 1739 1748 1748 1739 1739 1748 1748 0 0 0 0 0 0 0
0 0 0 0 0 0 0 0 0 0 0 0 0 0 0 0 0 0 0 0 0 0 0 0 0 0 0 0 0 0 0 0 0 0 0 1655 1655 1655 1655 1655 1663 1663 1663 1663 1663 1663 1663 1663 1663 1663 1663 1663 1663 1663 1663 1663 1663 1663 1663 1663 1671 1663 1663 1663 1671 1671 1671 1655 1655 1655 1655 1655 1655 1655 1655 1655 1655 1663 1663 1663 1663 1663 1663 1663 1663 1663 1663 1663 1663 1663 1663 1663 1663 1655 1655 1663 1663 1663 1671 1671 1671 1680 1680 1680 1680 1671 1671 1671 1671 1671 1671 1671 1671 1671 1663 1663 1671 1671 1671 1680 1680 1680 1680 1671 1671 1671 1663 1663 1663 1663 1663 1663 1663 1663 1671 1671 1663 1663 1663 1663 1663 1663 1663 1663 1671 1671 1671 1671 1680 1680 1680 1671 1671 1680 1671 1671 1671 1671 1671 1671 1671 1671 1671 1671 1671 1671 1671 1671 1680 1680 1680 1680 1680 1680 1680 1680 1680 1680 1680 1680 1680 1680 1680 1680 1680 1680 1680 1680 1680 1680 1680 1680 1688 1688 1688 1688 1696 1696 1696 1696 1696 1696 1696 1696 1696 1696 1696 1696 1696 1696 1696 1696 1696 1696 1696 1696 1696 1696 1696 1696 1696 1696 1696 1696 1696 1705 1705 1705 1705 1705 1705 1705 1705 1705 1705 1705 1705 1705 1705 1705 1705 1705 1696 1696 1696 1696 1696 1696 1696 1705 1705 1705 1705 1705 1705 1705 1696 1696 1696 1696 1696 1696 1705 1705 1705 1705 1705 1705 1705 1705 1705 1705 1705 1713 1705 1705 1705 1713 1713 1713 1705 1705 1713 1713 1713 1713 1713 1713 1713 1705 1705 1705 1705 1705 1705 1705 1705 1705 1705 1705 1705 1705 1705 1705 1705 1705 1705 1713 1713 1713 1713 1713 1713 1713 1722 1722 1722 1722 1722 1722 1713 1713 1713 1722 1722 1722 1722 1722 1722 1722 1722 1722 1722 1722 1722 1713 1713 1705 1705 1705 1705 1705 1705 1705 1705 1713 1713 1713 1722 1722 1722 1713 1713 1705 1705 1713 1705 1705 1705 1705 1713 1713 1713 1722 1722 1722 1722 1713 1713 1713 1713 1713 1722 1722 1722 1722 1722 1722 1722 1722 1722 1722 1722 1722 1722 1722 1722 1722 1722 1722 1722 1722 1722 1722 1731 1731 1731 1731 1731 1731 1722 1722 1722 1722 1722 1722 1722 1731 1731 1731 1731 1731 1731 1731 1731 1731 1722 1722 1722 1722 1722 1722 1722 1722 1722 1722 1722 1722 1722 1722 1722 1722 1722 1722 1722 1722 1722 1722 1722 1722 1722 1722 1722 1722 1722 1722 1722 1722 1722 1722 1722 1713 1713 1722 1722 1722 1722 1722 1731 1731 1722 1722 1722 1731 1731 1722 1722 1722 1722 1722 1731 1731 1731 1731 1731 1731 1731 1731 1731 1731 1731 1731 1731 1731 1731 1731 1722 1722 1722 1722 1731 1731 1731 1731 1731 1731 1731 1731 1731 1731 1731 1731 1731 1731 1722 1722 1722 1722 1722 1722 1731 1739 1722 1722 1722 1722 1731 1722 1722 1722 1722 1722 1722 1722 1722 1722 1722 1722 1722 1722 1722 1722 1722 1722 1731 1731 1731 1731 1722 1722 1722 1722 1722 1731 1731 1731 1731 1731 1722 1722 1722 1722 1722 1722 1722 1722 1731 1731 1731 1731 1731 1731 1731 1731 1722 1722 1722 1722 1722 1722 1713 1713 1722 1722 1722 1722 1722 1731 1731 1731 1731 1731 1731 1731 1731 1731 1731 1731 1731 1731 1739 1731 1731 1731 1731 1731 1722 1722 1722 1722 1722 1722 1722 1713 1713 1713 1713 1713 1713 1722 1722 1722 1731 1731 1731 1731 1731 1731 1739 1739 1739 1739 1739 1739 1739 1739 1739 1739 1739 1739 1739 1739 1739 0 0 0 0 0 0 0
0 0 0 0 0 0 0 0 0 0 0 0 0 0 0 0 0 0 0 0 0 0 0 0 0 0 0 0 0 0 0 0 0 0 0 1647 1647 1655 1655 1655 1655 1655 1663 1663 1663 1663 1663 1655 1655 1663 1663 1663 1663 1663 1663 1663 1663 1663 1663 1663 1663 1663 1663 1663 1663 1663 1663 1655 1655 1655 1655 1655 1655 1655 1655 1647 1647 1655 1663 1655 1655 1655 1655 1663 1663 1655 1655 1663 1663 1663 1663 1663 1663 1655 1655 1655 1663 1663 1671 1671 1671 1671 1671 1671 1671 1671 1671 1671 1671 1671 1671 1663 1663 1663 1663 1663 1663 1663 1663 1671 1671 1671 1671 1671 1671 1671 1663 1663 1663 1663 1663 1663 1663 1663 1663 1663 1663 1663 1663 1663 1663 1663 1663 1663 1663 1671 1671 1671 1671 1671 1680 1671 1671 1671 1663 1663 1663 1663 1663 1671 1671 1671 1671 1671 1671 1671 1671 1671 1671 1671 1671 1671 1671 1671 1680 1671 1671 1680 1680 1680 1680 1680 1680 1680 1680 1680 1680 1680 1680 1680 1680 1680 1680 1680 1688 1688 1688 1688 1688 1696 1696 1696 1696 1696 1696 1696 1696 1696 1688 1688 1696 1696 1696 1680 1680 1680 1688 1696 1696 1696 1696 1696 1696 1696 1696 1696 1696 1696 1696 1696 1696 1705 1705 1696 1696 1696 1705 1705 1705 1705 1705 1705 1696 1696 1688 1688 1696 1696 1696 1696 1696 1696 1696 1705 1705 1696 1696 1696 1696 1696 1696 1696 1705 1705 1705 1705 1705 1705 1705 1705 1705 1705 1705 1705 1705 1705 1705 1705 1705 1705 1705 1705 1705 1705 1705 1705 1705 1705 1705 1705 1705 1705 1705 1705 1705 1705 1705 1705 1705 1705 1705 1705 1705 1705 1705 1705 1705 1713 1713 1713 1713 1713 1713 1713 1713 1713 1713 1705 1705 1705 1705 1705 1713 1713 1713 1722 1722 1722 1722 1722 1713 1713 1713 1713 1713 1713 1705 1705 1705 1705 1705 1705 1705 1705 1705 1713 1713 1713 1713 1705 1696 1696 1696 1696 1696 1696 1705 1705 1705 1705 1705 1705 1705 1713 1713 1713 1713 1705 1705 1713 1713 1713 1713 1722 1722 1722 1722 1722 1722 1722 1722 1722 1722 1722 1722 1722 1722 1722 1722 1722 1722 1722 1722 1722 1731 1731 1731 1722 1722 1722 1722 1722 1722 1722 1722 1722 1722 1722 1722 1722 1722 1722 1722 1722 1722 1722 1722 1722 1722 1722 1722 1722 1722 1722 1722 1722 1722 1722 1722 1722 1722 1722 1722 1722 1722 1713 1713 1722 1722 1722 1722 1722 1722 1722 1722 1722 1713 1713 1713 1713 1713 1713 1713 1713 1722 1722 1722 1722 1722 1731 1722 1722 1722 1722 1722 1722 1722 1722 1722 1722 1722 1722 1722 1722 1722 1722 1722 1722 1722 1722 1722 1722 1722 1722 1722 1722 1722 1722 1722 1722 1722 1722 1722 1722 1722 1722 1722 1722 1722 1722 1722 1722 1722 1722 1713 1713 1713 1713 1713 1722 1731 1731 1722 1722 1722 1722 1722 1722 1722 1722 1722 1722 1722 1722 1722 1722 1722 1713 1713 1713 1713 1722 1722 1722 1722 1731 1731 1722 1722 1722 1722 1722 1722 1722 1722 1722 1731 1731 1722 1722 1722 1722 1722 1722 1722 1722 1722 1722 1722 1731 1731 1731 1722 1722 1722 1722 1722 1713 1713 1713 1713 1713 1713 1713 1713 1713 1713 1713 1713 1722 1722 1722 1722 1722 1722 1722 1722 1722 1722 1731 1731 1731 1722 1722 1722 1722 1713 1713 1713 1722 1722 1722 1722 1713 1713 1713 1713 1713 1713 1713 1713 1722 1722 1722 1722 1731 1731 1731 1731 1739 1739 1739 1739 1739 1739 1739 1739 1739 1739 1739 1739 1739 1739 0 0 0 0 0 0 0
0 0 0 0 0 0 0 0 0 0 0 0 0 0 0 0 0 0 0 0 0 0 0 0 0 0 0 0 0 0 0 0 0 0 0 1639 1639 1647 1647 1655 1655 1655 1663 1663 1663 1663 1663 1655 1655 1663 1663 1663 1663 1663 1663 1663 1663 1663 1663 1663 1663 1663 1663 1663 1663 1663 1663 1647 1647 1647 1647 1647 1647 1647 1647 1647 1647 1647 1655 1655 1647 1647 1655 1655 1655 1655 1655 1655 1655 1663 1663 1663 1663 1655 1655 1655 1663 1663 1663 1663 1663 1671 1663 1663 1663 1663 1663 1663 1663 1663 1663 1663 1663 1663 1655 1655 1663 1663 1663 1663 1663 1663 1671 1671 1663 1663 1663 1663 1663 1663 1663 1663 1663 1663 1663 1663 1655 1655 1655 1655 1663 1663 1663 1663 1663 1663 1671 1671 1671 1671 1671 1671 1671 1671 1655 1655 1655 1655 1663 1663 1671 1671 1671 1671 1671 1671 1671 1671 1671 1671 1671 1671 1671 1671 1671 1671 1671 1671 1671 1671 1671 1680 1680 1680 1671 1671 1671 1671 1671 1671 1671 1671 1680 1680 1680 1680 1680 1680 1680 1680 1680 1680 1688 1688 1688 1688 1688 1688 1688 1688 1680 1680 1680 1680 1680 1680 1688 1696 1688 1688 1696 1688 1688 1688 1688 1696 1696 1696 1688 1688 1696 1696 1696 1696 1696 1696 1696 1696 1696 1705 1705 1705 1696 1696 1688 1688 1696 1696 1696 1696 1696 1696 1696 1696 1696 1696 1696 1696 1696 1696 1696 1696 1696 1696 1696 1705 1696 1696 1696 1696 1705 1705 1705 1705 1705 1705 1705 1705 1705 1705 1705 1705 1705 1705 1705 1705 1705 1705 1705 1705 1705 1705 1705 1705 1705 1705 1705 1705 1705 1705 1705 1705 1705 1705 1705 1705 1705 1713 1705 1705 1705 1713 1713 1713 1713 1713 1705 1705 1705 1705 1705 1705 1705 1713 1713 1713 1713 1713 1713 1713 1705 1705 1705 1705 1705 1696 1696 1696 1696 1696 1696 1696 1696 1696 1705 1705 1705 1705 1705 1705 1696 1696 1696 1696 1696 1696 1696 1696 1705 1705 1705 1705 1705 1705 1705 1705 1705 1705 1705 1705 1705 1705 1713 1713 1713 1722 1722 1722 1722 1722 1722 1722 1722 1722 1722 1713 1713 1713 1713 1722 1722 1722 1722 1722 1722 1722 1722 1722 1722 1722 1722 1722 1722 1722 1722 1722 1722 1722 1722 1722 1722 1722 1722 1722 1722 1722 1722 1722 1722 1722 1713 1713 1713 1713 1713 1713 1713 1722 1722 1722 1722 1713 1713 1713 1713 1713 1713 1713 1713 1713 1722 1722 1713 1713 1713 1713 1713 1713 1713 1713 1713 1713 1713 1713 1713 1713 1713 1722 1722 1722 1722 1722 1722 1722 1722 1722 1713 1713 1713 1713 1722 1722 1722 1722 1722 1722 1722 1722 1722 1722 1722 1722 1722 1722 1722 1722 1722 1722 1722 1722 1722 1722 1722 1722 1722 1722 1722 1722 1722 1722 1722 1722 1722 1722 1713 1713 1713 1713 1713 1722 1722 1722 1722 1722 1722 1722 1722 1713 1713 1713 1713 1713 1713 1713 1713 1713 1713 1713 1713 1713 1713 1713 1713 1722 1722 1722 1722 1722 1722 1722 1722 1722 1722 1722 1722 1722 1722 1722 1713 1713 1713 1713 1713 1713 1713 1722 1722 1722 1722 1722 1722 1722 1713 1713 1713 1713 1713 1713 1713 1713 1713 1713 1713 1713 1713 1713 1713 1713 1713 1713 1713 1713 1713 1713 1713 1713 1713 1713 1713 1722 1722 1722 1722 1713 1713 1713 1713 1713 1713 1713 1713 1713 1713 1713 1713 1713 1705 1705 1705 1705 1705 1713 1722 1722 1722 1722 1731 1731 1731 1731 1739 1739 1739 1739 1739 1731 1731 1731 1731 1731 1731 1731 1731 0 0 0 0 0 0 0
0 0 0 0 0 0 0 0 0 0 0 0 0 0 0 0 0 0 0 0 0 0 0 0 0 0 0 0 0 0 0 0 0 0 0 1639 1639 1647 1647 1647 1655 1655 1655 1655 1655 1655 1655 1655 1655 1655 1655 1655 1655 1655 1655 1663 1655 1655 1655 1655 1663 1663 1655 1655 1655 1655 1655 1647 1647 1647 1647 1647 1647 1647 1647 1639 1639 1647 1647 1647 1647 1647 1647 1647 1655 1655 1655 1655 1655 1655 1655 1655 1655 1655 1655 1655 1663 1663 1655 1655 1655 1655 1655 1655 1655 1655 1655 1663 1663 1663 1663 1663 1655 1655 1655 1655 1655 1655 1663 1663 1663 1663 1663 1663 1663 1663 1655 1655 1655 1655 1655 1655 1655 1655 1663 1663 1655 1655 1655 1655 1655 1663 1655 1655 1663 1663 1663 1663 1663 1663 1671 1663 1663 1663 1655 1655 1655 1655 1655 1655 1663 1663 1663 1671 1671 1663 1663 1671 1671 1671 1671 1671 1671 1671 1671 1671 1671 1671 1671 1671 1671 1671 1671 1671 1671 1671 1671 1671 1671 1671 1671 1671 1671 1680 1680 1680 1680 1680 1680 1680 1680 1680 1680 1680 1688 1688 1680 1680 1680 1680 1680 1680 1680 1680 1680 1680 1680 1688 1688 1688 1688 1688 1688 1688 1688 1688 1688 1688 1680 1680 1688 1688 1688 1688 1688 1688 1688 1688 1688 1696 1696 1696 1688 1688 1696 1688 1688 1688 1688 1688 1688 1696 1696 1696 1696 1696 1696 1696 1696 1696 1696 1696 1696 1696 1696 1696 1696 1696 1696 1696 1696 1696 1696 1705 1705 1705 1705 1705 1705 1705 1696 1696 1696 1705 1705 1696 1696 1705 1705 1705 1705 1705 1705 1705 1705 1705 1696 1696 1696 1696 1705 1705 1705 1705 1705 1705 1705 1705 1705 1705 1705 1705 1705 1705 1705 1696 1696 1696 1696 1696 1696 1705 1705 1705 1705 1705 1705 1713 1705 1705 1696 1696 1696 1696 1696 1696 1696 1696 1696 1696 1696 1696 1696 1696 1705 1705 1705 1696 1696 1696 1696 1696 1696 1696 1696 1696 1696 1696 1696 1696 1705 1705 1705 1705 1705 1696 1696 1696 1696 1705 1705 1705 1713 1713 1713 1722 1722 1722 1722 1713 1713 1713 1713 1713 1713 1713 1705 1705 1705 1713 1713 1713 1713 1713 1713 1713 1722 1722 1722 1722 1713 1713 1722 1722 1722 1722 1722 1722 1722 1713 1713 1713 1722 1722 1713 1713 1722 1722 1713 1713 1713 1713 1713 1713 1713 1713 1713 1713 1713 1713 1713 1713 1713 1713 1713 1713 1713 1713 1713 1713 1713 1713 1713 1713 1713 1713 1713 1713 1713 1705 1705 1705 1705 1713 1713 1713 1713 1713 1722 1722 1722 1722 1722 1713 1713 1713 1713 1713 1713 1713 1722 1722 1722 1722 1722 1722 1722 1722 1722 1722 1722 1722 1722 1722 1722 1713 1713 1713 1722 1722 1713 1713 1713 1713 1713 1713 1713 1722 1722 1722 1722 1722 1722 1722 1713 1713 1713 1713 1713 1713 1713 1713 1713 1713 1713 1713 1713 1713 1713 1713 1713 1713 1713 1713 1713 1713 1713 1713 1713 1713 1713 1713 1713 1713 1713 1713 1722 1722 1713 1713 1713 1713 1713 1713 1713 1713 1713 1713 1713 1713 1713 1713 1713 1713 1713 1713 1722 1713 1713 1713 1713 1713 1713 1713 1713 1713 1713 1713 1713 1713 1713 1713 1713 1713 1713 1713 1713 1713 1713 1713 1713 1713 1713 1713 1713 1713 1713 1705 1705 1713 1713 1713 1705 1705 1705 1705 1705 1705 1705 1713 1713 1713 1713 1713 1705 1705 1705 1705 1705 1705 1705 1713 1713 1713 1713 1713 1722 1722 1731 1731 1731 1731 1731 1739 1739 1722 1722 1722 1722 1731 1731 1731 1731 0 0 0 0 0 0 0
0 0 0 0 0 0 0 0 0 0 0 0 0 0 0 0 0 0 0 0 0 0 0 0 0 0 0 0 0 0 0 0 0 0 0 1639 1639 1639 1639 1647 1647 1655 1655 1655 1655 1655 1655 1655 1655 1655 1655 1655 1655 1655 1655 1655 1647 1647 1647 1655 1655 1655 1655 1655 1655 1655 1655 1647 1647 1647 1647 1647 1647 1647 1647 1639 1639 1647 1647 1647 1647 1647 1647 1647 1647 1647 1647 1655 1655 1655 1655 1655 1655 1655 1655 1655 1655 1655 1655 1655 1655 1655 1655 1655 1655 1647 1647 1655 1655 1655 1655 1655 1655 1655 1655 1655 1655 1655 1655 1655 1663 1663 1663 1663 1663 1663 1655 1655 1655 1655 1655 1655 1655 1655 1655 1655 1655 1655 1655 1655 1655 1655 1655 1655 1655 1655 1663 1663 1663 1663 1663 1663 1663 1663 1655 1655 1655 1655 1655 1655 1655 1655 1663 1663 1663 1663 1663 1663 1663 1663 1663 1663 1663 1663 1663 1663 1663 1663 1663 1663 1663 1663 1663 1663 1663 1663 1671 1671 1671 1671 1671 1671 1671 1671 1671 1680 1680 1680 1680 1680 1680 1680 1680 1680 1680 1680 1680 1680 1680 1680 1688 1680 1680 1680 1680 1680 1680 1680 1680 1680 1680 1680 1680 1680 1680 1680 1680 1688 1680 1680 1688 1688 1688 1688 1688 1688 1688 1688 1688 1688 1696 1696 1688 1688 1680 1680 1680 1680 1688 1680 1680 1688 1696 1696 1696 1688 1688 1688 1688 1688 1696 1696 1696 1696 1696 1696 1696 1696 1696 1696 1696 1696 1696 1696 1696 1696 1696 1696 1696 1696 1696 1696 1696 1696 1696 1696 1696 1696 1696 1696 1696 1696 1696 1696 1696 1696 1696 1696 1696 1696 1696 1696 1696 1705 1696 1696 1696 1696 1696 1696 1696 1696 1696 1696 1696 1688 1688 1696 1696 1696 1696 1705 1705 1705 1705 1705 1705 1705 1705 1705 1696 1696 1696 1696 1696 1696 1696 1696 1696 1696 1696 1696 1696 1696 1696 1696 1696 1696 1696 1696 1696 1696 1696 1696 1696 1696 1696 1696 1696 1696 1696 1696 1696 1696 1696 1696 1696 1696 1696 1696 1696 1696 1696 1696 1705 1713 1713 1713 1713 1713 1705 1705 1705 1705 1705 1705 1705 1705 1705 1705 1705 1705 1705 1705 1705 1705 1705 1705 1705 1713 1705 1705 1713 1713 1713 1713 1713 1705 1705 1705 1705 1705 1705 1705 1705 1713 1713 1705 1705 1705 1705 1705 1705 1705 1705 1713 1713 1713 1713 1713 1713 1713 1713 1713 1713 1713 1713 1713 1713 1713 1713 1713 1713 1713 1713 1713 1713 1713 1713 1705 1705 1705 1705 1713 1713 1713 1713 1713 1713 1722 1722 1722 1713 1713 1713 1713 1713 1713 1713 1713 1713 1713 1713 1713 1713 1713 1722 1713 1713 1713 1713 1713 1713 1713 1713 1713 1713 1713 1713 1713 1713 1713 1713 1713 1713 1713 1713 1713 1722 1722 1722 1722 1722 1722 1713 1713 1713 1713 1713 1713 1713 1713 1705 1705 1705 1705 1705 1705 1705 1705 1713 1713 1705 1705 1713 1713 1713 1713 1705 1705 1705 1713 1713 1713 1713 1713 1713 1713 1713 1713 1713 1713 1713 1713 1713 1713 1713 1713 1713 1713 1713 1713 1713 1713 1713 1713 1713 1713 1713 1713 1713 1713 1713 1713 1713 1713 1713 1705 1705 1705 1705 1705 1705 1705 1705 1705 1705 1705 1705 1713 1713 1713 1713 1713 1705 1705 1705 1705 1705 1705 1713 1705 1705 1705 1705 1705 1705 1705 1705 1705 1705 1705 1713 1705 1705 1705 1705 1705 1705 1705 1705 1705 1713 1713 1713 1713 1713 1722 1722 1722 1722 1731 1731 1731 1731 1722 1722 1722 1722 1731 1731 1722 1722 0 0 0 0 0 0 0
0 0 0 0 0 0 0 0 0 0 0 0 0 0 0 0 0 0 0 0 0 0 0 0 0 0 0 0 0 0 0 0 0 0 0 1632 1632 1639 1639 1639 1639 1639 1647 1647 1647 1647 1647 1647 1647 1655 1655 1655 1647 1647 1655 1655 1647 1647 1647 1647 1655 1655 1655 1647 1647 1647 1647 1639 1639 1639 1639 1639 1639 1639 1639 1639 1639 1647 1647 1647 1647 1647 1647 1647 1647 1647 1647 1647 1647 1647 1647 1647 1647 1647 1647 1655 1655 1655 1655 1655 1655 1647 1647 1655 1655 1647 1647 1655 1655 1655 1655 1655 1647 1647 1647 1647 1647 1655 1655 1655 1655 1655 1655 1655 1655 1655 1655 1655 1655 1655 1655 1655 1655 1655 1655 1655 1655 1655 1655 1655 1655 1655 1655 1655 1655 1655 1655 1655 1655 1655 1663 1663 1663 1663 1647 1647 1647 1647 1655 1655 1655 1655 1655 1663 1663 1655 1655 1655 1655 1655 1655 1655 1663 1663 1655 1655 1655 1663 1655 1655 1655 1655 1655 1663 1663 1663 1663 1663 1663 1671 1671 1671 1671 1671 1671 1671 1671 1671 1671 1671 1680 1680 1671 1671 1671 1671 1680 1680 1680 1680 1680 1680 1680 1680 1680 1680 1680 1680 1680 1680 1680 1680 1680 1680 1680 1680 1680 1680 1680 1680 1680 1680 1680 1680 1680 1680 1688 1688 1688 1688 1680 1680 1671 1671 1671 1671 1671 1680 1680 1680 1680 1680 1688 1688 1688 1680 1680 1688 1680 1680 1688 1696 1696 1688 1688 1696 1688 1688 1688 1696 1696 1696 1696 1696 1696 1696 1696 1696 1696 1696 1696 1696 1696 1696 1696 1696 1696 1688 1688 1688 1688 1696 1696 1696 1696 1696 1696 1696 1696 1696 1696 1696 1696 1696 1696 1696 1696 1696 1696 1696 1696 1696 1696 1696 1688 1688 1688 1688 1696 1696 1696 1696 1705 1705 1705 1705 1705 1696 1696 1696 1688 1688 1688 1688 1696 1696 1696 1696 1696 1696 1696 1696 1696 1696 1696 1696 1696 1696 1696 1696 1696 1696 1696 1696 1696 1696 1696 1696 1696 1696 1696 1696 1696 1696 1696 1696 1696 1696 1696 1696 1696 1696 1696 1696 1696 1696 1696 1696 1705 1705 1705 1696 1696 1696 1696 1696 1696 1696 1696 1705 1705 1705 1705 1705 1705 1705 1705 1705 1705 1705 1705 1705 1705 1705 1705 1705 1705 1705 1705 1705 1705 1696 1696 1705 1705 1705 1705 1696 1696 1705 1705 1705 1705 1705 1705 1705 1705 1713 1713 1713 1713 1713 1705 1705 1705 1705 1713 1713 1705 1705 1713 1713 1713 1713 1705 1705 1705 1705 1705 1705 1705 1705 1705 1705 1713 1713 1713 1713 1713 1713 1713 1713 1713 1705 1705 1713 1713 1713 1713 1713 1713 1713 1705 1705 1705 1705 1713 1713 1713 1713 1713 1713 1713 1713 1713 1713 1713 1713 1713 1713 1713 1713 1713 1713 1713 1713 1713 1713 1713 1713 1713 1713 1713 1713 1705 1705 1705 1705 1705 1705 1705 1713 1705 1705 1705 1705 1705 1705 1705 1705 1705 1705 1705 1705 1705 1705 1705 1705 1705 1705 1705 1705 1705 1705 1705 1705 1705 1705 1705 1705 1713 1713 1713 1713 1713 1713 1713 1713 1705 1705 1713 1713 1713 1713 1713 1713 1713 1705 1705 1705 1705 1705 1705 1705 1705 1705 1705 1705 1705 1705 1705 1705 1705 1705 1705 1705 1705 1705 1705 1705 1705 1705 1705 1705 1705 1705 1705 1696 1696 1705 1705 1705 1696 1696 1696 1696 1696 1696 1696 1705 1705 1705 1705 1705 1696 1696 1696 1696 1696 1696 1696 1696 1696 1705 1705 1705 1713 1713 1713 1713 1713 1713 1713 1722 1722 1722 1722 1722 1722 1731 1731 1722 1722 0 0 0 0 0 0 0
0 0 0 0 0 0 0 0 0 0 0 0 0 0 0 0 0 0 0 0 0 0 0 0 0 0 0 0 0 0 0 0 0 0 0 1632 1632 1632 1632 1632 1632 1632 1632 1632 1639 1639 1639 1639 1639 1647 1647 1647 1647 1647 1647 1655 1647 1647 1647 1647 1647 1647 1647 1647 1647 1647 1639 1632 1632 1639 1639 1639 1639 1632 1632 1632 1639 1647 1647 1647 1647 1647 1647 1647 1647 1647 1647 1647 1647 1647 1647 1647 1647 1647 1647 1647 1647 1655 1647 1647 1647 1647 1647 1647 1647 1647 1647 1647 1647 1647 1647 1647 1647 1647 1647 1647 1647 1647 1647 1647 1647 1655 1655 1655 1655 1655 1655 1655 1655 1655 1647 1647 1647 1647 1647 1655 1655 1655 1647 1647 1655 1655 1655 1655 1655 1655 1655 1655 1655 1655 1655 1655 1655 1655 1647 1647 1647 1647 1647 1647 1647 1647 1655 1655 1655 1655 1647 1647 1655 1655 1655 1655 1655 1655 1655 1655 1655 1663 1655 1655 1655 1655 1655 1663 1655 1655 1663 1663 1663 1671 1671 1663 1663 1671 1671 1671 1671 1671 1671 1671 1671 1671 1671 1671 1671 1671 1671 1671 1671 1671 1671 1671 1671 1671 1671 1671 1671 1671 1671 1680 1680 1680 1680 1680 1680 1680 1680 1680 1680 1680 1680 1680 1680 1680 1680 1680 1680 1680 1680 1680 1680 1680 1671 1671 1671 1671 1671 1671 1671 1680 1680 1680 1680 1680 1680 1680 1680 1680 1680 1680 1688 1688 1688 1688 1688 1688 1688 1688 1688 1688 1696 1696 1696 1696 1696 1696 1696 1696 1696 1696 1696 1688 1688 1688 1696 1688 1688 1680 1680 1680 1688 1688 1688 1696 1696 1696 1696 1696 1696 1696 1696 1688 1688 1688 1696 1696 1688 1688 1688 1688 1688 1696 1696 1688 1688 1688 1688 1688 1688 1696 1696 1696 1696 1696 1696 1696 1696 1696 1696 1696 1688 1688 1688 1688 1688 1688 1688 1688 1688 1688 1688 1688 1696 1696 1696 1696 1696 1696 1696 1688 1688 1688 1688 1688 1688 1688 1688 1696 1696 1696 1696 1696 1696 1696 1696 1696 1696 1696 1696 1696 1696 1696 1696 1696 1696 1696 1696 1696 1696 1696 1696 1696 1696 1696 1696 1696 1696 1696 1696 1696 1696 1696 1696 1696 1696 1696 1705 1705 1705 1696 1696 1696 1705 1705 1696 1696 1696 1696 1696 1696 1696 1696 1696 1696 1696 1696 1705 1696 1696 1696 1696 1696 1696 1696 1696 1696 1696 1696 1696 1696 1696 1705 1705 1696 1696 1696 1696 1696 1696 1696 1705 1705 1705 1705 1705 1705 1705 1705 1705 1705 1705 1705 1705 1705 1705 1705 1713 1713 1713 1705 1705 1713 1713 1705 1705 1705 1705 1705 1705 1705 1705 1705 1705 1705 1705 1705 1705 1713 1713 1713 1713 1705 1705 1713 1713 1705 1705 1705 1705 1713 1713 1705 1705 1705 1705 1705 1705 1705 1713 1713 1713 1713 1713 1713 1705 1705 1705 1705 1705 1705 1705 1705 1705 1705 1705 1705 1705 1705 1705 1705 1705 1705 1705 1705 1705 1705 1705 1705 1705 1705 1705 1705 1705 1705 1705 1696 1696 1705 1705 1705 1705 1705 1705 1713 1713 1713 1713 1713 1705 1705 1705 1705 1705 1705 1705 1705 1705 1705 1705 1705 1705 1705 1705 1705 1705 1705 1705 1705 1696 1696 1696 1696 1696 1696 1696 1696 1696 1696 1705 1705 1705 1705 1705 1705 1705 1705 1696 1696 1696 1696 1696 1705 1696 1696 1696 1696 1696 1696 1696 1696 1696 1696 1696 1696 1696 1696 1696 1696 1696 1696 1696 1696 1696 1696 1705 1705 1705 1705 1705 1705 1705 1713 1713 1713 1713 1713 1713 1713 1722 1722 1722 1722 1722 0 0 0 0 0 0 0
0 0 0 0 0 0 0 0 0 0 0 0 0 0 0 0 0 0 0 0 0 0 0 0 0 0 0 0 0 0 0 0 0 0 0 1632 1632 1632 1632 1632 1632 1632 1632 1632 1632 1632 1632 1632 1632 1639 1639 1639 1639 1647 1647 1647 1647 1647 1647 1647 1647 1647 1639 1639 1639 1639 1639 1624 1624 1632 1632 1632 1639 1632 1632 1632 1639 1639 1639 1639 1639 1639 1639 1639 1639 1639 1639 1639 1639 1639 1647 1647 1647 1647 1647 1647 1647 1647 1647 1647 1647 1647 1647 1647 1647 1647 1647 1647 1647 1647 1647 1647 1647 1647 1647 1647 1647 1647 1647 1647 1647 1647 1655 1655 1655 1655 1655 1647 1647 1647 1647 1647 1647 1647 1647 1647 1647 1647 1647 1647 1647 1647 1647 1647 1647 1647 1655 1655 1655 1655 1655 1655 1655 1655 1647 1647 1647 1647 1647 1647 1647 1647 1647 1655 1647 1647 1647 1647 1647 1647 1647 1647 1655 1655 1655 1655 1655 1655 1655 1655 1655 1655 1655 1655 1655 1655 1655 1655 1655 1663 1663 1663 1663 1663 1663 1663 1663 1663 1671 1671 1671 1671 1663 1663 1663 1663 1671 1671 1671 1671 1671 1671 1671 1663 1663 1671 1671 1671 1671 1671 1671 1680 1680 1680 1680 1680 1680 1680 1671 1671 1680 1680 1680 1680 1671 1671 1680 1680 1680 1680 1671 1671 1671 1671 1671 1671 1671 1671 1671 1671 1671 1671 1671 1671 1671 1680 1680 1680 1680 1671 1671 1680 1680 1680 1680 1680 1680 1680 1680 1688 1688 1688 1696 1696 1696 1688 1688 1688 1688 1688 1688 1688 1680 1680 1688 1688 1680 1680 1680 1680 1688 1688 1688 1688 1688 1688 1688 1688 1696 1696 1696 1688 1688 1688 1688 1688 1688 1680 1680 1688 1688 1688 1688 1680 1680 1680 1680 1680 1680 1688 1696 1696 1696 1696 1696 1696 1696 1688 1688 1688 1680 1680 1680 1680 1688 1688 1688 1688 1688 1688 1688 1688 1688 1688 1688 1688 1696 1696 1688 1688 1688 1688 1688 1688 1688 1688 1688 1688 1688 1688 1688 1688 1688 1688 1696 1696 1696 1688 1688 1688 1688 1688 1688 1688 1688 1688 1688 1688 1688 1696 1696 1696 1696 1696 1688 1688 1688 1688 1688 1696 1696 1696 1696 1696 1696 1696 1696 1696 1696 1696 1696 1696 1696 1696 1696 1696 1696 1696 1696 1696 1696 1696 1696 1696 1696 1696 1696 1688 1688 1688 1688 1688 1696 1688 1688 1688 1688 1688 1688 1696 1696 1696 1705 1696 1696 1696 1696 1688 1688 1696 1696 1696 1696 1696 1688 1688 1688 1688 1696 1705 1696 1696 1705 1705 1705 1705 1705 1705 1705 1705 1705 1705 1705 1705 1696 1696 1705 1705 1705 1705 1705 1705 1705 1705 1705 1696 1696 1705 1705 1705 1705 1705 1705 1705 1705 1705 1705 1705 1705 1713 1713 1696 1696 1696 1705 1705 1705 1705 1713 1713 1705 1705 1713 1713 1705 1705 1705 1705 1705 1705 1705 1705 1696 1696 1705 1705 1705 1705 1705 1705 1705 1705 1696 1696 1705 1705 1705 1705 1705 1705 1705 1705 1705 1705 1705 1696 1696 1696 1696 1705 1696 1696 1696 1705 1705 1705 1705 1705 1705 1705 1705 1705 1705 1705 1705 1705 1705 1705 1705 1705 1705 1705 1705 1705 1705 1696 1696 1696 1688 1688 1688 1688 1688 1688 1696 1696 1696 1696 1696 1696 1705 1705 1696 1696 1696 1696 1696 1688 1688 1696 1696 1696 1696 1696 1696 1696 1696 1696 1696 1696 1696 1696 1696 1696 1696 1696 1696 1696 1696 1696 1696 1696 1696 1696 1696 1696 1696 1696 1705 1705 1705 1705 1705 1713 1713 1705 1705 1713 1713 1713 1713 1713 1713 0 0 0 0 0 0 0
0 0 0 0 0 0 0 0 0 0 0 0 0 0 0 0 0 0 0 0 0 0 0 0 0 0 0 0 0 0 0 0 0 0 0 1632 1632 1632 1632 1632 1632 1632 1624 1624 1632 1632 1632 1632 1632 1632 1632 1632 1639 1639 1639 1647 1647 1647 1647 1647 1647 1647 1639 1639 1639 1639 1639 1624 1624 1624 1632 1632 1632 1632 1632 1632 1639 1632 1632 1639 1639 1639 1639 1639 1639 1639 1639 1639 1639 1639 1639 1647 1647 1647 1647 1647 1647 1647 1647 1647 1647 1639 1639 1639 1639 1647 1647 1647 1647 1647 1647 1639 1639 1647 1647 1647 1639 1639 1639 1639 1647 1647 1647 1647 1647 1647 1647 1647 1647 1647 1647 1647 1647 1647 1647 1647 1647 1647 1647 1647 1647 1647 1647 1647 1647 1647 1647 1647 1647 1647 1655 1655 1655 1655 1647 1647 1647 1647 1647 1647 1647 1647 1647 1647 1647 1647 1647 1647 1647 1647 1647 1647 1647 1647 1647 1647 1647 1655 1647 1647 1647 1655 1655 1655 1647 1647 1655 1655 1655 1655 1655 1655 1655 1655 1663 1663 1655 1655 1663 1663 1663 1663 1655 1655 1655 1655 1655 1663 1663 1663 1663 1663 1663 1663 1663 1671 1663 1663 1663 1671 1671 1671 1671 1671 1671 1671 1671 1671 1671 1671 1671 1671 1671 1671 1671 1671 1680 1680 1680 1680 1671 1671 1671 1671 1671 1671 1671 1671 1671 1671 1671 1671 1671 1671 1671 1671 1671 1671 1671 1671 1671 1680 1680 1680 1671 1671 1671 1671 1680 1680 1688 1688 1688 1688 1688 1688 1680 1671 1671 1671 1671 1671 1671 1671 1671 1680 1680 1680 1680 1680 1680 1680 1680 1680 1680 1680 1680 1688 1688 1680 1680 1680 1680 1680 1688 1680 1680 1680 1680 1680 1680 1680 1680 1680 1680 1680 1680 1680 1680 1688 1696 1696 1696 1696 1696 1696 1688 1688 1688 1688 1680 1680 1680 1680 1680 1680 1688 1688 1688 1688 1688 1688 1688 1688 1688 1688 1688 1688 1688 1688 1688 1688 1680 1680 1688 1688 1688 1688 1688 1688 1688 1688 1688 1688 1688 1688 1688 1688 1688 1688 1688 1688 1688 1688 1688 1688 1688 1688 1688 1688 1688 1688 1688 1688 1688 1688 1688 1688 1688 1688 1688 1688 1688 1696 1696 1696 1696 1696 1696 1696 1696 1696 1696 1696 1696 1696 1696 1696 1696 1696 1696 1696 1696 1696 1696 1696 1696 1688 1688 1688 1688 1688 1688 1688 1688 1688 1688 1688 1688 1688 1688 1688 1688 1688 1696 1688 1688 1688 1688 1688 1688 1688 1688 1688 1688 1688 1680 1680 1688 1688 1688 1688 1696 1696 1696 1696 1696 1696 1696 1696 1696 1688 1688 1688 1696 1696 1696 1696 1696 1705 1705 1705 1696 1696 1696 1696 1696 1696 1696 1696 1696 1696 1696 1696 1705 1696 1696 1696 1696 1705 1696 1696 1696 1696 1696 1696 1696 1696 1705 1705 1705 1705 1705 1705 1696 1696 1696 1696 1696 1696 1696 1696 1696 1696 1696 1696 1696 1696 1705 1696 1688 1688 1688 1688 1696 1696 1696 1705 1696 1696 1696 1696 1696 1696 1696 1696 1696 1696 1696 1696 1696 1696 1696 1696 1696 1705 1696 1696 1696 1696 1705 1705 1705 1705 1705 1705 1705 1705 1705 1705 1705 1705 1705 1705 1696 1688 1688 1688 1688 1688 1688 1688 1688 1688 1688 1688 1688 1688 1688 1696 1696 1696 1696 1696 1696 1696 1688 1688 1688 1688 1688 1688 1688 1688 1688 1688 1688 1688 1688 1688 1688 1688 1688 1688 1696 1696 1688 1688 1688 1688 1696 1688 1688 1688 1696 1696 1696 1696 1696 1696 1705 1705 1705 1705 1713 1705 1705 1705 1713 1713 1713 1713 1713 0 0 0 0 0 0 0
0 0 0 0 0 0 0 0 0 0 0 0 0 0 0 0 0 0 0 0 0 0 0 0 0 0 0 0 0 0 0 0 0 0 0 1624 1624 1624 1624 1632 1632 1624 1624 1624 1624 1624 1624 1624 1632 1632 1632 1632 1632 1632 1632 1639 1639 1639 1639 1639 1639 1647 1639 1639 1639 1639 1639 1624 1624 1624 1632 1632 1632 1632 1632 1639 1639 1632 1632 1639 1632 1632 1639 1639 1639 1639 1639 1639 1639 1639 1639 1639 1647 1639 1639 1647 1647 1647 1647 1639 1632 1632 1639 1639 1639 1639 1639 1639 1639 1639 1647 1639 1632 1632 1632 1632 1639 1639 1639 1639 1639 1639 1639 1639 1639 1639 1647 1639 1639 1639 1639 1647 1639 1639 1647 1647 1647 1647 1647 1647 1639 1639 1647 1647 1647 1647 1647 1647 1647 1647 1647 1647 1647 1647 1639 1639 1639 1639 1639 1639 1647 1647 1647 1647 1647 1647 1647 1647 1647 1647 1647 1647 1647 1647 1647 1647 1647 1647 1647 1647 1647 1647 1647 1647 1647 1647 1647 1647 1647 1655 1655 1655 1655 1655 1655 1655 1655 1655 1655 1655 1655 1655 1655 1655 1655 1655 1655 1655 1655 1655 1655 1655 1655 1655 1655 1655 1655 1663 1663 1663 1663 1663 1663 1671 1671 1671 1671 1671 1671 1671 1671 1671 1671 1671 1671 1671 1680 1671 1671 1671 1671 1671 1663 1663 1663 1663 1663 1663 1671 1671 1671 1671 1671 1671 1671 1671 1671 1671 1671 1671 1671 1671 1671 1671 1671 1671 1671 1671 1671 1671 1680 1680 1688 1688 1680 1680 1671 1671 1671 1671 1671 1671 1671 1671 1671 1671 1671 1671 1671 1671 1680 1680 1680 1671 1671 1671 1671 1680 1680 1671 1671 1680 1680 1680 1680 1680 1680 1671 1671 1680 1680 1680 1680 1680 1680 1680 1680 1671 1671 1680 1680 1688 1688 1688 1688 1688 1688 1688 1688 1688 1680 1680 1680 1680 1680 1680 1680 1680 1688 1688 1688 1680 1680 1680 1680 1688 1688 1688 1688 1688 1688 1688 1680 1680 1680 1680 1680 1680 1688 1688 1688 1680 1680 1688 1688 1688 1688 1688 1688 1688 1688 1688 1688 1688 1680 1680 1680 1680 1688 1688 1688 1688 1688 1688 1688 1688 1688 1688 1688 1688 1688 1688 1688 1688 1696 1696 1696 1696 1696 1688 1688 1696 1688 1688 1688 1688 1688 1688 1688 1688 1688 1688 1696 1696 1696 1696 1696 1688 1680 1680 1680 1680 1680 1680 1680 1680 1680 1680 1680 1688 1688 1688 1688 1688 1688 1688 1680 1680 1680 1680 1680 1680 1688 1688 1688 1680 1680 1680 1680 1680 1680 1688 1688 1688 1696 1696 1696 1688 1688 1688 1688 1688 1688 1688 1688 1696 1696 1696 1696 1696 1688 1688 1688 1688 1688 1688 1688 1688 1688 1688 1688 1688 1688 1688 1688 1688 1696 1696 1696 1696 1696 1696 1696 1696 1696 1696 1696 1696 1696 1696 1696 1696 1696 1696 1688 1688 1688 1688 1688 1688 1688 1680 1680 1680 1688 1688 1688 1688 1688 1680 1680 1688 1688 1688 1696 1696 1696 1696 1696 1696 1696 1688 1688 1688 1688 1688 1688 1688 1688 1688 1688 1688 1688 1688 1688 1696 1696 1696 1696 1696 1696 1696 1696 1696 1696 1696 1696 1696 1696 1696 1696 1696 1696 1696 1696 1688 1688 1688 1680 1680 1680 1680 1680 1680 1680 1680 1680 1680 1688 1688 1696 1696 1696 1696 1696 1688 1688 1680 1680 1688 1688 1688 1688 1688 1688 1688 1688 1688 1688 1688 1688 1688 1688 1688 1688 1688 1688 1688 1688 1688 1688 1680 1680 1680 1688 1688 1688 1688 1696 1696 1696 1696 1696 1705 1705 1705 1705 1705 1705 1713 1713 1705 1705 0 0 0 0 0 0 0
0 0 0 0 0 0 0 0 0 0 0 0 0 0 0 0 0 0 0 0 0 0 0 0 0 0 0 0 0 0 0 0 0 0 0 1624 1616 1616 1624 1624 1624 1624 1624 1624 1624 1624 1624 1624 1624 1624 1624 1632 1632 1632 1632 1639 1639 1639 1639 1639 1639 1639 1639 1639 1632 1632 1632 1624 1624 1624 1632 1632 1632 1632 1632 1632 1632 1632 1632 1639 1624 1624 1639 1639 1632 1632 1632 1632 1632 1632 1632 1632 1639 1639 1639 1639 1647 1647 1639 1632 1632 1632 1632 1632 1639 1639 1639 1639 1639 1639 1647 1632 1632 1624 1624 1624 1632 1632 1632 1632 1639 1639 1639 1639 1639 1632 1632 1639 1639 1639 1639 1639 1639 1639 1647 1647 1647 1639 1639 1639 1639 1639 1647 1647 1639 1639 1647 1647 1647 1647 1647 1647 1647 1647 1639 1639 1639 1639 1639 1639 1639 1639 1639 1647 1647 1647 1647 1647 1647 1639 1639 1639 1639 1639 1639 1639 1639 1647 1647 1647 1647 1647 1647 1647 1647 1647 1647 1647 1647 1647 1647 1647 1647 1647 1647 1647 1647 1647 1647 1647 1655 1647 1647 1647 1647 1647 1647 1647 1655 1655 1655 1655 1655 1647 1647 1655 1655 1655 1655 1655 1663 1663 1663 1663 1663 1671 1663 1663 1663 1663 1663 1671 1671 1671 1671 1671 1671 1671 1671 1671 1671 1671 1663 1663 1663 1663 1663 1663 1663 1663 1663 1663 1671 1671 1671 1671 1671 1671 1671 1671 1671 1671 1663 1663 1663 1663 1663 1663 1671 1671 1671 1680 1680 1680 1680 1671 1671 1671 1671 1671 1671 1671 1671 1671 1671 1671 1671 1671 1671 1671 1671 1671 1671 1671 1671 1671 1671 1671 1671 1671 1671 1671 1671 1671 1671 1671 1671 1671 1671 1671 1671 1671 1671 1671 1671 1671 1671 1671 1671 1671 1680 1680 1680 1680 1688 1688 1680 1680 1688 1688 1680 1680 1680 1680 1680 1680 1680 1680 1680 1680 1680 1680 1671 1671 1671 1671 1680 1671 1671 1671 1671 1671 1671 1671 1680 1680 1680 1680 1680 1680 1680 1680 1680 1688 1688 1688 1688 1688 1688 1680 1680 1680 1680 1680 1680 1671 1671 1671 1680 1680 1680 1680 1680 1680 1680 1680 1680 1680 1680 1680 1680 1688 1688 1688 1688 1688 1688 1688 1688 1688 1688 1688 1688 1688 1688 1688 1688 1688 1688 1688 1688 1688 1688 1688 1688 1688 1688 1680 1680 1680 1680 1680 1680 1680 1680 1680 1680 1680 1680 1680 1680 1680 1688 1680 1680 1680 1680 1680 1680 1680 1680 1680 1680 1680 1680 1680 1671 1671 1680 1680 1680 1680 1688 1688 1688 1688 1688 1688 1688 1688 1680 1680 1680 1688 1688 1688 1696 1696 1688 1688 1688 1688 1688 1688 1688 1680 1680 1688 1688 1688 1688 1688 1688 1688 1688 1688 1688 1688 1688 1696 1688 1688 1688 1688 1696 1696 1696 1696 1696 1696 1696 1696 1696 1696 1688 1688 1680 1680 1688 1680 1680 1680 1680 1680 1680 1680 1680 1680 1680 1680 1680 1680 1688 1688 1688 1688 1688 1688 1688 1688 1688 1688 1688 1688 1688 1688 1688 1688 1688 1688 1688 1688 1688 1688 1688 1688 1688 1688 1688 1688 1688 1696 1696 1688 1688 1688 1688 1688 1688 1688 1688 1696 1696 1696 1688 1680 1680 1680 1680 1680 1680 1680 1680 1680 1680 1680 1680 1680 1680 1688 1688 1688 1688 1688 1688 1688 1680 1680 1680 1680 1688 1688 1680 1680 1680 1688 1688 1688 1688 1688 1688 1688 1680 1680 1680 1680 1680 1680 1680 1680 1680 1680 1680 1680 1688 1688 1688 1688 1688 1696 1696 1696 1696 1696 1705 1705 1705 1705 1705 1705 1705 1705 1705 0 0 0 0 0 0 0
0 0 0 0 0 0 0 0 0 0 0 0 0 0 0 0 0 0 0 0 0 0 0 0 0 0 0 0 0 0 0 0 0 0 0 1616 1616 1616 1624 1624 1624 1624 1624 1624 1624 1624 1624 1624 1624 1624 1624 1624 1624 1632 1632 1632 1632 1632 1632 1632 1632 1632 1632 1632 1632 1632 1632 1624 1624 1624 1624 1624 1632 1632 1632 1632 1632 1632 1632 1624 1624 1624 1624 1624 1632 1632 1632 1632 1632 1632 1632 1632 1639 1639 1639 1639 1647 1647 1639 1632 1632 1632 1632 1632 1632 1639 1639 1632 1632 1632 1632 1624 1624 1624 1624 1624 1624 1624 1624 1632 1632 1632 1632 1632 1632 1632 1632 1632 1632 1632 1632 1632 1632 1639 1639 1639 1639 1639 1639 1639 1639 1639 1639 1639 1639 1639 1639 1647 1647 1639 1639 1639 1639 1639 1632 1632 1632 1632 1632 1639 1639 1639 1639 1639 1639 1639 1647 1639 1639 1639 1639 1639 1639 1639 1639 1639 1639 1647 1647 1647 1647 1647 1647 1647 1639 1639 1639 1647 1647 1647 1647 1647 1647 1647 1647 1647 1647 1647 1647 1647 1647 1647 1647 1647 1647 1647 1647 1647 1647 1647 1647 1647 1647 1647 1647 1647 1647 1647 1647 1655 1663 1663 1663 1663 1663 1663 1663 1663 1663 1663 1663 1663 1663 1663 1663 1663 1663 1663 1663 1663 1663 1663 1655 1655 1663 1663 1663 1663 1663 1663 1663 1663 1663 1663 1663 1663 1663 1663 1663 1663 1663 1663 1663 1663 1663 1663 1663 1663 1663 1671 1671 1671 1671 1671 1671 1671 1671 1663 1663 1663 1663 1663 1663 1663 1663 1663 1671 1671 1671 1671 1671 1671 1671 1671 1671 1671 1671 1671 1671 1671 1671 1671 1671 1671 1671 1671 1671 1671 1671 1671 1671 1671 1671 1671 1671 1671 1671 1671 1671 1671 1671 1671 1671 1671 1671 1671 1680 1680 1680 1680 1671 1671 1671 1671 1671 1680 1680 1680 1680 1680 1671 1671 1663 1663 1663 1663 1671 1663 1663 1663 1671 1671 1663 1663 1671 1671 1671 1671 1680 1680 1680 1671 1671 1680 1680 1680 1680 1680 1680 1680 1680 1680 1680 1680 1680 1671 1671 1671 1671 1680 1680 1680 1680 1680 1671 1671 1680 1680 1680 1680 1680 1688 1688 1688 1688 1688 1688 1688 1688 1688 1688 1688 1688 1688 1688 1688 1688 1688 1688 1688 1688 1688 1688 1688 1688 1688 1688 1680 1680 1680 1680 1680 1680 1680 1680 1680 1680 1680 1680 1680 1680 1680 1688 1680 1680 1680 1680 1680 1680 1680 1680 1680 1680 1680 1680 1671 1671 1671 1671 1671 1671 1680 1680 1680 1688 1688 1688 1688 1688 1688 1680 1680 1680 1680 1688 1688 1688 1688 1688 1688 1688 1680 1680 1680 1688 1680 1680 1680 1688 1688 1688 1688 1688 1688 1680 1680 1680 1680 1688 1688 1688 1688 1688 1688 1688 1688 1688 1688 1696 1688 1688 1688 1688 1696 1680 1680 1680 1680 1680 1680 1680 1671 1671 1680 1680 1680 1680 1680 1680 1680 1680 1680 1680 1680 1680 1680 1680 1680 1688 1688 1680 1680 1680 1680 1680 1680 1680 1680 1680 1680 1680 1680 1680 1680 1680 1680 1680 1680 1688 1688 1688 1688 1688 1688 1688 1688 1688 1688 1688 1688 1688 1688 1696 1688 1688 1680 1680 1680 1680 1680 1680 1680 1680 1680 1680 1680 1680 1680 1680 1688 1688 1688 1688 1688 1688 1680 1680 1680 1680 1680 1680 1680 1680 1680 1680 1680 1680 1688 1688 1680 1680 1680 1680 1680 1671 1671 1671 1671 1671 1671 1671 1671 1671 1671 1680 1680 1680 1680 1688 1688 1696 1696 1696 1696 1696 1696 1696 1696 1705 1705 1705 1705 1705 0 0 0 0 0 0 0
0 0 0 0 0 0 0 0 0 0 0 0 0 0 0 0 0 0 0 0 0 0 0 0 0 0 0 0 0 0 0 0 0 0 0 1609 1601 1601 1609 1609 1609 1609 1609 1609 1609 1609 1616 1616 1624 1624 1624 1624 1624 1624 1624 1624 1624 1624 1624 1624 1624 1632 1632 1624 1624 1624 1624 1616 1616 1616 1616 1624 1624 1632 1632 1632 1624 1624 1624 1624 1616 1616 1616 1624 1624 1624 1624 1624 1624 1624 1632 1632 1632 1632 1632 1632 1632 1632 1624 1624 1624 1624 1616 1616 1624 1624 1624 1624 1624 1624 1624 1624 1616 1616 1616 1616 1616 1616 1616 1624 1624 1624 1624 1624 1624 1624 1624 1624 1624 1624 1632 1632 1632 1632 1632 1632 1639 1639 1639 1639 1632 1632 1632 1632 1632 1632 1632 1632 1632 1639 1639 1639 1632 1632 1624 1624 1624 1624 1624 1632 1632 1632 1632 1639 1639 1639 1639 1639 1639 1639 1639 1639 1639 1639 1639 1639 1639 1639 1639 1647 1639 1639 1639 1639 1639 1639 1639 1639 1639 1647 1647 1647 1647 1647 1647 1639 1639 1647 1647 1647 1647 1639 1639 1647 1647 1647 1647 1647 1647 1647 1647 1647 1647 1647 1647 1647 1647 1647 1647 1655 1655 1655 1655 1655 1655 1655 1655 1655 1655 1663 1663 1663 1663 1663 1663 1663 1663 1663 1655 1655 1655 1655 1655 1655 1655 1655 1655 1655 1663 1663 1663 1663 1663 1663 1663 1663 1663 1663 1663 1663 1663 1663 1663 1663 1663 1663 1663 1663 1663 1671 1671 1671 1671 1663 1663 1663 1663 1663 1663 1663 1663 1663 1663 1663 1663 1663 1671 1671 1663 1663 1671 1663 1663 1663 1663 1663 1663 1671 1671 1671 1671 1671 1671 1671 1671 1671 1671 1671 1671 1671 1671 1671 1671 1671 1671 1671 1671 1663 1663 1663 1671 1671 1671 1671 1671 1671 1671 1671 1671 1671 1671 1663 1663 1671 1671 1671 1671 1680 1680 1671 1671 1663 1663 1663 1663 1663 1663 1663 1663 1663 1663 1663 1663 1663 1663 1663 1663 1671 1671 1671 1671 1671 1671 1671 1680 1680 1671 1671 1671 1671 1671 1671 1671 1671 1671 1671 1671 1671 1671 1671 1671 1671 1671 1671 1671 1671 1671 1671 1680 1680 1680 1680 1680 1680 1680 1680 1680 1680 1680 1680 1680 1680 1680 1680 1680 1680 1680 1680 1680 1680 1680 1680 1680 1680 1680 1680 1680 1671 1671 1671 1671 1671 1680 1680 1680 1680 1680 1680 1680 1680 1680 1680 1688 1680 1680 1671 1671 1680 1680 1680 1671 1671 1680 1680 1680 1671 1663 1663 1671 1671 1671 1671 1680 1680 1680 1680 1688 1680 1680 1680 1680 1680 1680 1680 1680 1688 1688 1688 1680 1680 1680 1680 1680 1680 1680 1680 1680 1680 1680 1680 1680 1680 1680 1680 1680 1680 1680 1680 1680 1680 1680 1680 1680 1688 1688 1688 1688 1688 1688 1688 1688 1688 1688 1688 1680 1680 1680 1680 1680 1680 1680 1671 1671 1671 1680 1680 1680 1680 1680 1680 1680 1680 1680 1680 1680 1680 1680 1680 1680 1680 1680 1680 1680 1680 1680 1680 1680 1680 1680 1680 1680 1680 1680 1680 1680 1680 1680 1680 1680 1680 1688 1688 1688 1688 1688 1688 1688 1680 1680 1680 1680 1688 1680 1680 1680 1680 1680 1680 1680 1680 1680 1671 1671 1680 1671 1671 1671 1680 1680 1680 1680 1680 1680 1680 1680 1680 1680 1680 1680 1680 1680 1680 1671 1671 1680 1680 1680 1680 1680 1680 1671 1671 1671 1671 1671 1671 1671 1671 1671 1671 1671 1671 1671 1671 1671 1671 1680 1680 1680 1688 1688 1688 1688 1680 1680 1688 1688 1696 1696 1696 1696 1696 1696 0 0 0 0 0 0 0
0 0 0 0 0 0 0 0 0 0 0 0 0 0 0 0 0 0 0 0 0 0 0 0 0 0 0 0 0 0 0 0 0 0 0 1601 1594 1594 1601 1601 1601 1601 1609 1609 1609 1609 1616 1616 1624 1624 1624 1624 1624 1624 1624 1616 1616 1624 1624 1624 1624 1624 1624 1624 1624 1624 1624 1616 1616 1616 1616 1624 1624 1624 1624 1624 1624 1624 1616 1616 1616 1616 1616 1624 1624 1624 1624 1624 1624 1624 1624 1624 1624 1624 1624 1632 1624 1624 1624 1624 1624 1616 1616 1616 1616 1616 1616 1616 1624 1624 1624 1624 1616 1616 1616 1616 1616 1616 1616 1616 1616 1624 1624 1624 1624 1624 1624 1624 1624 1624 1632 1632 1632 1632 1632 1632 1632 1632 1632 1632 1632 1632 1624 1624 1632 1632 1632 1632 1632 1624 1624 1624 1624 1624 1624 1624 1624 1624 1624 1624 1624 1624 1624 1632 1632 1632 1632 1632 1632 1632 1632 1632 1632 1639 1639 1639 1639 1639 1639 1639 1632 1632 1639 1639 1632 1632 1632 1632 1632 1639 1639 1639 1639 1639 1639 1632 1632 1639 1639 1639 1639 1639 1639 1639 1639 1639 1639 1639 1639 1647 1647 1647 1647 1647 1647 1647 1647 1647 1647 1647 1647 1647 1647 1647 1655 1647 1647 1655 1655 1655 1655 1655 1655 1655 1655 1655 1655 1655 1655 1655 1655 1655 1647 1647 1647 1655 1655 1655 1655 1655 1663 1663 1663 1663 1663 1663 1663 1655 1655 1655 1655 1655 1655 1655 1655 1663 1663 1663 1663 1663 1663 1663 1663 1663 1663 1663 1663 1663 1663 1663 1663 1663 1663 1663 1663 1663 1663 1663 1663 1663 1663 1663 1663 1663 1663 1663 1663 1663 1663 1663 1663 1663 1663 1663 1671 1671 1671 1663 1663 1663 1663 1663 1663 1663 1663 1663 1663 1663 1663 1663 1663 1663 1663 1671 1671 1671 1671 1671 1671 1671 1663 1663 1663 1663 1663 1663 1671 1671 1671 1663 1663 1663 1663 1663 1655 1655 1663 1663 1663 1663 1663 1663 1663 1663 1663 1663 1663 1663 1663 1671 1671 1663 1663 1663 1663 1663 1663 1663 1663 1671 1663 1663 1663 1663 1671 1671 1671 1671 1671 1671 1671 1671 1663 1663 1663 1663 1671 1671 1671 1671 1680 1680 1680 1680 1680 1680 1680 1680 1680 1680 1680 1680 1671 1671 1680 1671 1671 1680 1671 1671 1671 1680 1680 1680 1680 1680 1671 1671 1671 1671 1671 1671 1671 1671 1671 1671 1680 1680 1680 1671 1671 1671 1680 1680 1680 1671 1671 1680 1680 1671 1671 1671 1671 1671 1671 1663 1663 1663 1663 1663 1671 1671 1671 1671 1680 1680 1680 1680 1680 1680 1680 1680 1680 1680 1680 1680 1680 1680 1680 1680 1680 1680 1680 1680 1680 1680 1680 1680 1680 1680 1680 1680 1680 1680 1680 1680 1680 1680 1680 1680 1680 1680 1680 1680 1680 1688 1688 1688 1688 1688 1688 1688 1680 1680 1671 1671 1671 1671 1671 1671 1671 1671 1671 1671 1671 1671 1671 1671 1671 1671 1671 1671 1671 1680 1680 1680 1680 1680 1680 1680 1671 1671 1671 1671 1680 1680 1680 1680 1680 1680 1680 1680 1680 1680 1680 1680 1680 1680 1680 1680 1680 1680 1680 1680 1680 1680 1680 1680 1680 1680 1680 1680 1680 1680 1680 1680 1680 1680 1680 1680 1680 1671 1671 1671 1671 1671 1671 1680 1680 1680 1680 1680 1680 1680 1671 1671 1671 1671 1680 1680 1680 1680 1671 1671 1671 1671 1671 1671 1671 1671 1671 1671 1671 1671 1671 1671 1671 1671 1671 1671 1671 1671 1671 1671 1671 1671 1671 1680 1680 1688 1688 1680 1680 1680 1680 1680 1680 1688 1688 1696 1696 1696 1696 0 0 0 0 0 0 0
0 0 0 0 0 0 0 0 0 0 0 0 0 0 0 0 0 0 0 0 0 0 0 0 0 0 0 0 0 0 0 0 0 0 0 1594 1594 1594 1594 1594 1594 1601 1601 1601 1601 1601 1609 1609 1616 1616 1624 1624 1624 1624 1616 1616 1616 1616 1624 1624 1624 1624 1624 1624 1624 1624 1624 1616 1616 1609 1609 1616 1616 1616 1616 1624 1616 1616 1616 1616 1616 1616 1616 1616 1616 1616 1616 1616 1624 1624 1616 1616 1616 1624 1624 1624 1616 1616 1624 1616 1616 1616 1616 1609 1609 1609 1616 1616 1616 1616 1616 1624 1616 1616 1616 1616 1616 1616 1616 1616 1616 1616 1616 1624 1624 1624 1624 1624 1624 1624 1624 1624 1624 1624 1624 1624 1632 1632 1632 1624 1624 1624 1624 1624 1624 1624 1624 1624 1624 1624 1624 1624 1624 1624 1616 1616 1616 1616 1616 1616 1624 1624 1624 1624 1624 1632 1632 1624 1624 1632 1624 1624 1624 1624 1632 1632 1632 1632 1632 1632 1624 1624 1632 1639 1632 1632 1624 1624 1632 1632 1632 1632 1632 1632 1632 1632 1632 1632 1632 1632 1639 1639 1639 1639 1639 1639 1639 1639 1639 1639 1639 1639 1639 1639 1639 1639 1639 1639 1639 1639 1639 1639 1639 1647 1647 1647 1647 1647 1647 1647 1647 1647 1647 1647 1647 1647 1647 1647 1647 1647 1647 1647 1639 1639 1639 1639 1639 1647 1647 1655 1655 1655 1655 1655 1655 1655 1655 1655 1655 1655 1655 1655 1655 1655 1655 1655 1663 1663 1663 1663 1663 1663 1663 1663 1663 1663 1663 1663 1663 1663 1663 1663 1655 1655 1655 1663 1663 1655 1655 1655 1663 1663 1663 1663 1663 1663 1663 1663 1663 1663 1663 1663 1663 1663 1663 1663 1663 1663 1663 1663 1663 1663 1663 1663 1663 1663 1663 1663 1663 1663 1663 1663 1663 1663 1663 1663 1663 1663 1663 1671 1663 1655 1655 1663 1663 1663 1663 1663 1663 1655 1655 1663 1655 1655 1655 1655 1663 1655 1655 1655 1655 1663 1655 1655 1663 1663 1663 1663 1663 1663 1663 1663 1663 1663 1663 1663 1663 1663 1663 1663 1663 1663 1663 1663 1663 1663 1663 1663 1663 1663 1663 1663 1663 1663 1663 1663 1671 1671 1671 1671 1671 1671 1671 1671 1671 1680 1671 1671 1671 1671 1671 1671 1671 1671 1671 1671 1671 1671 1663 1663 1671 1671 1671 1671 1671 1671 1671 1663 1663 1663 1663 1671 1671 1671 1671 1671 1671 1671 1671 1671 1671 1671 1671 1671 1671 1671 1671 1671 1671 1671 1671 1671 1671 1671 1663 1663 1663 1663 1663 1663 1663 1663 1671 1671 1671 1680 1680 1680 1680 1680 1671 1671 1671 1671 1671 1680 1671 1671 1671 1671 1671 1680 1671 1671 1671 1671 1680 1680 1680 1680 1680 1680 1680 1680 1680 1680 1680 1680 1680 1680 1680 1680 1680 1680 1680 1680 1680 1680 1680 1680 1680 1680 1680 1680 1671 1671 1671 1671 1671 1671 1671 1671 1671 1671 1671 1671 1671 1671 1671 1663 1663 1671 1671 1671 1671 1671 1671 1671 1671 1671 1671 1671 1671 1671 1671 1671 1671 1671 1671 1671 1671 1671 1671 1671 1671 1671 1671 1671 1671 1671 1680 1671 1671 1680 1680 1680 1680 1671 1671 1671 1671 1680 1671 1671 1671 1671 1671 1671 1671 1671 1671 1671 1671 1671 1671 1671 1671 1671 1671 1671 1680 1671 1671 1671 1671 1671 1671 1671 1671 1671 1680 1680 1671 1671 1671 1671 1671 1671 1671 1671 1663 1663 1671 1671 1663 1663 1663 1663 1671 1671 1671 1671 1671 1671 1671 1671 1671 1671 1671 1680 1680 1680 1680 1680 1680 1680 1680 1680 1680 1688 1696 1696 1696 0 0 0 0 0 0 0
0 0 0 0 0 0 0 0 0 0 0 0 0 0 0 0 0 0 0 0 0 0 0 0 0 0 0 0 0 0 0 0 0 0 0 1594 1594 1594 1594 1594 1594 1594 1601 1601 1601 1601 1601 1601 1601 1616 1616 1616 1624 1624 1616 1616 1616 1616 1616 1616 1616 1624 1624 1624 1624 1624 1624 1609 1609 1609 1609 1609 1616 1616 1616 1616 1616 1616 1609 1609 1616 1609 1609 1609 1616 1616 1616 1616 1616 1616 1616 1616 1616 1616 1616 1624 1616 1616 1616 1616 1609 1609 1609 1609 1601 1601 1609 1609 1616 1616 1616 1616 1616 1616 1616 1616 1616 1609 1609 1616 1616 1616 1616 1616 1616 1616 1616 1624 1616 1616 1624 1624 1624 1624 1624 1624 1624 1624 1624 1624 1624 1624 1624 1624 1624 1624 1624 1616 1616 1616 1616 1616 1616 1616 1616 1616 1616 1616 1616 1616 1616 1616 1616 1624 1624 1624 1624 1616 1616 1624 1624 1624 1624 1624 1624 1624 1624 1632 1632 1632 1624 1624 1624 1624 1624 1624 1624 1624 1624 1624 1624 1624 1624 1624 1632 1632 1632 1632 1632 1632 1632 1639 1632 1632 1639 1639 1639 1639 1639 1639 1639 1639 1639 1639 1639 1639 1632 1632 1639 1639 1639 1639 1639 1639 1647 1647 1647 1647 1647 1647 1647 1639 1639 1639 1639 1647 1639 1639 1639 1639 1639 1639 1639 1639 1639 1639 1639 1639 1639 1639 1647 1639 1639 1639 1639 1639 1639 1647 1647 1647 1647 1647 1647 1647 1639 1639 1639 1639 1647 1647 1647 1647 1647 1647 1655 1655 1655 1655 1655 1663 1663 1655 1655 1655 1655 1655 1655 1647 1647 1647 1663 1663 1663 1663 1663 1663 1663 1663 1655 1655 1655 1655 1663 1663 1663 1663 1663 1663 1655 1655 1655 1655 1655 1655 1655 1655 1655 1655 1655 1663 1655 1655 1663 1663 1655 1655 1655 1655 1655 1663 1655 1655 1655 1655 1655 1663 1663 1663 1647 1647 1647 1655 1655 1655 1655 1655 1655 1655 1655 1655 1655 1655 1655 1655 1655 1655 1655 1655 1663 1663 1663 1663 1663 1663 1663 1663 1663 1663 1663 1663 1663 1663 1663 1663 1663 1663 1663 1663 1663 1663 1663 1663 1655 1655 1663 1663 1663 1663 1663 1663 1663 1663 1663 1671 1671 1671 1671 1671 1671 1671 1671 1671 1671 1663 1663 1663 1663 1663 1663 1663 1663 1671 1671 1671 1671 1671 1663 1663 1655 1655 1663 1671 1671 1671 1671 1671 1671 1671 1671 1663 1663 1663 1663 1663 1663 1663 1663 1671 1671 1663 1663 1663 1663 1663 1663 1663 1663 1663 1663 1663 1663 1663 1671 1671 1671 1671 1671 1671 1671 1671 1671 1671 1671 1663 1663 1663 1671 1663 1663 1663 1663 1663 1671 1671 1671 1671 1671 1671 1671 1671 1671 1671 1671 1671 1671 1671 1680 1680 1671 1671 1680 1671 1671 1671 1671 1680 1680 1680 1680 1680 1680 1680 1671 1671 1671 1671 1671 1671 1671 1671 1671 1671 1671 1671 1671 1663 1663 1663 1663 1663 1663 1663 1663 1663 1663 1663 1671 1671 1663 1663 1663 1663 1663 1663 1663 1663 1663 1671 1671 1671 1671 1671 1671 1671 1671 1671 1671 1671 1671 1671 1671 1671 1671 1671 1671 1671 1671 1671 1671 1671 1671 1671 1671 1671 1671 1671 1671 1671 1671 1671 1671 1671 1671 1671 1671 1671 1671 1671 1671 1671 1671 1671 1671 1671 1671 1671 1671 1671 1671 1671 1671 1671 1663 1663 1663 1663 1671 1671 1671 1663 1663 1663 1663 1663 1663 1663 1663 1663 1663 1663 1663 1663 1663 1663 1671 1671 1671 1671 1671 1671 1671 1671 1671 1671 1671 1671 1671 1680 1680 1680 1688 1688 1688 0 0 0 0 0 0 0
0 0 0 0 0 0 0 0 0 0 0 0 0 0 0 0 0 0 0 0 0 0 0 0 0 0 0 0 0 0 0 0 0 0 0 1594 1594 1594 1594 1594 1594 1594 1601 1601 1601 1601 1601 1594 1594 1601 1601 1601 1601 1609 1601 1601 1601 1601 1616 1616 1616 1616 1616 1624 1624 1624 1624 1609 1609 1609 1609 1609 1609 1609 1609 1609 1609 1609 1609 1609 1609 1609 1609 1609 1616 1616 1616 1616 1616 1616 1609 1609 1616 1616 1616 1616 1616 1616 1616 1616 1601 1601 1601 1601 1601 1601 1609 1609 1609 1616 1616 1616 1616 1616 1616 1616 1609 1609 1609 1609 1609 1609 1609 1609 1616 1616 1616 1616 1616 1616 1616 1624 1624 1624 1624 1624 1624 1624 1624 1624 1624 1624 1616 1616 1616 1616 1616 1616 1616 1616 1616 1616 1616 1616 1616 1616 1616 1616 1616 1616 1616 1616 1616 1616 1616 1616 1616 1616 1616 1616 1616 1616 1616 1616 1616 1616 1616 1624 1624 1624 1624 1616 1616 1616 1624 1624 1616 1616 1624 1624 1624 1624 1624 1624 1624 1624 1632 1632 1632 1632 1632 1639 1632 1632 1632 1639 1632 1632 1632 1632 1639 1639 1639 1639 1639 1639 1632 1632 1632 1632 1632 1639 1639 1639 1647 1647 1639 1639 1639 1639 1639 1639 1639 1639 1639 1639 1639 1639 1639 1639 1639 1639 1639 1639 1639 1639 1639 1639 1639 1639 1639 1639 1639 1639 1639 1639 1639 1639 1639 1639 1639 1639 1639 1639 1639 1639 1639 1639 1639 1639 1639 1639 1639 1647 1647 1647 1647 1647 1647 1639 1639 1647 1647 1647 1647 1639 1639 1639 1639 1639 1647 1647 1647 1655 1655 1647 1647 1647 1647 1639 1639 1647 1655 1655 1655 1655 1655 1655 1655 1655 1655 1655 1655 1655 1647 1647 1647 1647 1655 1655 1655 1655 1655 1655 1655 1655 1655 1655 1655 1655 1647 1647 1647 1647 1647 1647 1647 1655 1639 1639 1647 1655 1655 1655 1655 1655 1655 1655 1655 1655 1655 1655 1655 1655 1655 1655 1655 1655 1655 1655 1663 1663 1663 1663 1663 1663 1655 1655 1655 1655 1655 1655 1655 1663 1663 1663 1663 1655 1655 1663 1655 1655 1655 1655 1655 1663 1663 1663 1663 1663 1663 1663 1663 1663 1671 1671 1671 1663 1663 1671 1671 1663 1663 1663 1663 1663 1663 1663 1663 1663 1663 1663 1663 1663 1663 1663 1663 1655 1655 1655 1655 1663 1663 1663 1663 1663 1663 1663 1663 1663 1663 1663 1663 1663 1663 1663 1663 1663 1663 1663 1663 1663 1663 1663 1663 1663 1663 1663 1663 1663 1663 1663 1663 1663 1663 1663 1663 1663 1663 1663 1663 1663 1663 1663 1663 1663 1663 1655 1655 1655 1663 1663 1663 1671 1671 1671 1671 1671 1671 1671 1671 1671 1671 1671 1671 1671 1671 1671 1671 1671 1671 1671 1671 1671 1671 1671 1671 1671 1671 1671 1663 1663 1663 1663 1663 1663 1663 1663 1663 1663 1663 1663 1663 1663 1671 1663 1663 1663 1663 1655 1655 1663 1663 1663 1663 1663 1663 1663 1663 1663 1663 1663 1663 1663 1663 1663 1663 1663 1671 1671 1671 1671 1663 1663 1663 1663 1663 1663 1663 1663 1671 1671 1671 1671 1671 1671 1671 1671 1663 1663 1671 1671 1663 1663 1663 1671 1671 1663 1663 1663 1663 1671 1671 1671 1671 1671 1671 1671 1671 1671 1671 1671 1671 1671 1671 1671 1671 1671 1671 1671 1671 1671 1663 1663 1663 1663 1663 1663 1663 1663 1663 1663 1663 1663 1663 1663 1663 1663 1663 1663 1663 1663 1663 1663 1663 1663 1663 1671 1671 1671 1671 1671 1671 1671 1671 1671 1671 1680 1680 1680 1680 1680 1688 0 0 0 0 0 0 0
0 0 0 0 0 0 0 0 0 0 0 0 0 0 0 0 0 0 0 0 0 0 0 0 0 0 0 0 0 0 0 0 0 0 0 1586 1586 1586 1594 1594 1594 1594 1601 1601 1601 1601 1601 1594 1594 1594 1601 1601 1601 1601 1601 1601 1601 1601 1601 1601 1609 1616 1616 1616 1616 1616 1616 1609 1609 1601 1601 1601 1609 1609 1609 1609 1609 1609 1609 1609 1609 1609 1609 1609 1609 1609 1609 1609 1616 1609 1609 1609 1609 1616 1616 1616 1601 1601 1609 1609 1601 1601 1601 1601 1601 1601 1601 1601 1609 1616 1616 1616 1616 1616 1616 1609 1609 1609 1609 1609 1609 1609 1609 1609 1609 1616 1616 1616 1616 1616 1616 1616 1616 1616 1616 1616 1624 1624 1624 1616 1616 1624 1616 1616 1616 1616 1616 1616 1616 1616 1616 1616 1616 1616 1616 1616 1616 1616 1609 1609 1616 1616 1616 1616 1616 1616 1609 1609 1609 1609 1616 1616 1609 1609 1616 1616 1616 1616 1616 1624 1616 1616 1616 1616 1616 1616 1616 1616 1616 1616 1616 1616 1616 1616 1616 1624 1624 1632 1632 1632 1632 1632 1632 1632 1632 1632 1632 1632 1632 1632 1632 1632 1632 1632 1632 1632 1632 1632 1632 1632 1632 1632 1632 1632 1639 1639 1639 1639 1632 1632 1632 1639 1639 1632 1632 1639 1639 1639 1639 1639 1639 1639 1632 1632 1632 1632 1632 1632 1632 1632 1639 1632 1632 1632 1632 1632 1639 1639 1639 1639 1639 1639 1639 1639 1639 1639 1639 1639 1639 1639 1639 1639 1639 1639 1639 1639 1639 1647 1639 1639 1639 1639 1639 1639 1639 1639 1639 1639 1639 1639 1639 1639 1647 1647 1647 1639 1639 1639 1639 1639 1639 1639 1639 1647 1647 1647 1647 1655 1655 1647 1647 1647 1639 1639 1639 1639 1639 1639 1639 1639 1647 1647 1647 1655 1655 1655 1655 1647 1647 1647 1639 1639 1639 1639 1639 1639 1639 1639 1639 1639 1639 1647 1655 1655 1639 1639 1647 1647 1647 1647 1647 1655 1655 1655 1655 1655 1655 1655 1655 1655 1655 1655 1663 1663 1663 1663 1655 1655 1655 1655 1655 1655 1655 1655 1655 1655 1655 1655 1655 1655 1647 1647 1655 1655 1655 1663 1663 1663 1663 1663 1663 1663 1663 1663 1663 1663 1663 1663 1663 1663 1663 1663 1663 1663 1663 1663 1663 1663 1663 1663 1663 1663 1663 1663 1663 1663 1655 1655 1655 1655 1655 1655 1655 1655 1655 1655 1663 1663 1655 1655 1655 1655 1655 1655 1655 1655 1655 1655 1655 1655 1655 1655 1655 1655 1655 1655 1655 1655 1655 1655 1655 1655 1655 1655 1655 1663 1663 1655 1655 1663 1663 1663 1663 1663 1663 1663 1663 1655 1655 1655 1655 1655 1655 1663 1663 1663 1663 1663 1663 1663 1663 1663 1663 1663 1663 1663 1671 1671 1663 1663 1663 1663 1671 1663 1663 1663 1663 1663 1663 1663 1663 1663 1663 1663 1663 1663 1663 1663 1663 1663 1663 1663 1663 1663 1663 1655 1655 1655 1655 1647 1647 1655 1655 1663 1663 1663 1663 1663 1655 1655 1655 1655 1655 1655 1655 1655 1655 1663 1663 1663 1663 1663 1663 1663 1663 1663 1655 1655 1655 1655 1663 1663 1663 1663 1663 1663 1663 1663 1663 1663 1663 1663 1663 1663 1663 1671 1663 1663 1663 1663 1663 1663 1663 1663 1663 1663 1663 1663 1663 1663 1663 1663 1663 1663 1663 1671 1663 1663 1663 1663 1663 1663 1655 1655 1663 1663 1663 1663 1663 1663 1655 1655 1655 1655 1655 1655 1655 1663 1663 1663 1663 1663 1663 1663 1663 1663 1663 1671 1671 1671 1671 1671 1671 1671 1671 1671 1671 1671 1671 1671 1680 1680 1680 0 0 0 0 0 0 0
0 0 0 0 0 0 0 0 0 0 0 0 0 0 0 0 0 0 0 0 0 0 0 0 0 0 0 0 0 0 0 0 0 0 0 1586 1586 1586 1586 1586 1594 1594 1594 1601 1594 1594 1594 1594 1594 1594 1594 1601 1601 1601 1601 1601 1601 1601 1601 1601 1609 1609 1609 1616 1609 1609 1609 1601 1601 1601 1601 1601 1609 1601 1601 1609 1609 1609 1609 1609 1601 1601 1609 1609 1601 1601 1601 1601 1609 1609 1601 1601 1609 1609 1601 1601 1601 1601 1609 1609 1601 1601 1601 1601 1601 1601 1601 1601 1609 1609 1609 1609 1616 1609 1609 1609 1609 1601 1601 1609 1601 1601 1601 1609 1609 1609 1609 1616 1616 1616 1616 1616 1616 1616 1616 1616 1616 1616 1616 1616 1616 1616 1616 1616 1616 1616 1616 1609 1609 1616 1616 1616 1616 1616 1616 1609 1609 1609 1609 1609 1609 1609 1609 1609 1609 1609 1609 1609 1609 1609 1609 1609 1609 1609 1609 1616 1616 1616 1616 1616 1616 1616 1616 1616 1616 1616 1616 1616 1616 1616 1616 1616 1616 1616 1616 1616 1624 1624 1624 1624 1624 1624 1624 1624 1624 1624 1616 1616 1616 1624 1632 1632 1624 1624 1624 1632 1624 1624 1624 1624 1624 1632 1632 1632 1632 1639 1639 1639 1632 1632 1632 1632 1632 1632 1632 1639 1632 1632 1639 1639 1639 1639 1632 1632 1632 1632 1632 1632 1632 1632 1632 1632 1632 1632 1632 1632 1632 1632 1632 1632 1632 1632 1632 1632 1632 1632 1632 1632 1639 1639 1639 1639 1639 1639 1639 1639 1639 1639 1639 1639 1639 1639 1639 1639 1639 1639 1639 1639 1639 1639 1639 1639 1639 1639 1639 1639 1639 1639 1639 1639 1639 1639 1639 1639 1639 1639 1647 1639 1639 1639 1639 1639 1639 1639 1639 1639 1639 1639 1639 1639 1639 1639 1639 1639 1639 1639 1647 1639 1639 1647 1639 1639 1632 1632 1632 1632 1632 1632 1632 1632 1639 1639 1647 1639 1639 1639 1647 1647 1647 1647 1647 1647 1647 1647 1647 1647 1647 1647 1647 1655 1655 1655 1655 1655 1655 1655 1655 1655 1655 1655 1655 1655 1655 1655 1655 1655 1655 1647 1647 1655 1647 1647 1647 1655 1655 1655 1655 1655 1655 1655 1655 1655 1655 1663 1663 1663 1663 1663 1663 1663 1663 1663 1663 1663 1663 1663 1663 1663 1663 1663 1663 1663 1663 1663 1663 1663 1655 1655 1647 1647 1647 1655 1655 1655 1655 1655 1655 1655 1655 1655 1655 1655 1655 1655 1655 1655 1655 1655 1655 1655 1655 1655 1655 1655 1655 1655 1655 1655 1655 1655 1655 1655 1655 1655 1655 1655 1655 1655 1655 1655 1655 1655 1655 1655 1655 1655 1655 1655 1655 1655 1655 1655 1655 1655 1655 1655 1663 1663 1663 1663 1663 1663 1663 1663 1655 1655 1663 1663 1663 1663 1663 1663 1663 1663 1663 1663 1663 1663 1663 1663 1655 1655 1655 1655 1655 1655 1655 1655 1655 1655 1663 1655 1655 1655 1647 1647 1647 1647 1647 1647 1647 1647 1655 1655 1655 1655 1655 1655 1655 1655 1655 1647 1647 1655 1655 1655 1655 1655 1663 1663 1663 1663 1663 1663 1655 1655 1655 1647 1647 1655 1655 1655 1655 1655 1655 1655 1655 1655 1655 1647 1647 1647 1655 1655 1663 1663 1663 1663 1663 1663 1663 1663 1663 1663 1663 1663 1655 1655 1655 1655 1655 1655 1655 1655 1663 1663 1663 1663 1655 1655 1663 1663 1655 1655 1655 1655 1663 1663 1655 1655 1655 1655 1655 1647 1647 1647 1647 1647 1655 1655 1655 1663 1663 1663 1663 1663 1663 1671 1671 1671 1671 1671 1671 1671 1671 1671 1671 1671 1671 1671 1671 1671 1680 0 0 0 0 0 0 0
0 0 0 0 0 0 0 0 0 0 0 0 0 0 0 0 0 0 0 0 0 0 0 0 0 0 0 0 0 0 0 0 0 0 0 1579 1579 1579 1586 1586 1586 1594 1594 1594 1594 1594 1594 1586 1586 1594 1594 1601 1601 1601 1601 1601 1601 1601 1601 1601 1601 1609 1609 1609 1609 1609 1609 1601 1601 1601 1601 1601 1601 1601 1601 1601 1601 1601 1601 1601 1601 1601 1601 1594 1594 1594 1594 1601 1601 1601 1601 1601 1609 1601 1601 1601 1601 1601 1609 1609 1601 1601 1601 1601 1601 1601 1601 1601 1601 1609 1601 1601 1601 1601 1601 1601 1601 1601 1601 1601 1601 1601 1601 1601 1601 1609 1609 1609 1609 1609 1609 1609 1609 1609 1609 1609 1616 1616 1616 1616 1616 1616 1616 1609 1609 1616 1616 1609 1609 1616 1616 1616 1616 1616 1616 1609 1609 1609 1601 1601 1601 1601 1601 1609 1609 1609 1609 1609 1609 1609 1609 1609 1609 1609 1609 1609 1609 1616 1616 1616 1616 1616 1616 1616 1616 1616 1616 1616 1609 1609 1616 1616 1616 1616 1616 1616 1616 1616 1616 1616 1624 1624 1624 1624 1616 1616 1616 1616 1616 1616 1616 1624 1624 1624 1624 1624 1624 1624 1624 1624 1624 1624 1624 1624 1632 1632 1632 1632 1632 1632 1632 1632 1632 1632 1632 1632 1632 1632 1632 1632 1639 1639 1632 1632 1632 1632 1632 1624 1624 1624 1624 1624 1624 1624 1624 1624 1632 1632 1632 1632 1632 1632 1632 1632 1632 1632 1632 1632 1632 1632 1632 1632 1632 1639 1639 1632 1632 1639 1639 1639 1639 1639 1639 1639 1639 1639 1639 1639 1639 1639 1639 1639 1639 1639 1639 1639 1639 1639 1639 1632 1632 1632 1639 1639 1639 1639 1639 1639 1639 1639 1639 1639 1639 1639 1639 1639 1639 1639 1639 1639 1639 1639 1639 1639 1639 1639 1639 1639 1639 1639 1632 1632 1632 1632 1632 1632 1632 1632 1632 1632 1639 1639 1639 1639 1639 1639 1639 1639 1639 1639 1639 1639 1639 1639 1639 1639 1639 1639 1639 1647 1647 1647 1655 1655 1655 1655 1655 1655 1647 1647 1647 1647 1647 1647 1647 1647 1647 1647 1647 1655 1655 1647 1647 1647 1655 1655 1655 1655 1655 1655 1655 1655 1655 1655 1655 1655 1655 1655 1655 1655 1655 1655 1655 1655 1655 1655 1655 1663 1663 1655 1655 1655 1655 1655 1655 1655 1655 1647 1647 1647 1647 1647 1647 1655 1655 1655 1655 1655 1655 1655 1647 1647 1647 1647 1647 1655 1655 1655 1655 1655 1655 1655 1647 1647 1655 1647 1647 1655 1655 1655 1655 1655 1655 1655 1655 1655 1655 1655 1655 1655 1655 1655 1655 1655 1655 1655 1655 1647 1647 1647 1647 1647 1647 1655 1655 1655 1655 1655 1655 1655 1655 1655 1655 1655 1655 1655 1655 1655 1655 1655 1655 1655 1655 1663 1663 1663 1663 1663 1663 1663 1655 1655 1655 1655 1655 1655 1647 1647 1647 1655 1655 1655 1655 1655 1647 1647 1647 1647 1647 1647 1647 1647 1647 1647 1647 1647 1655 1655 1647 1647 1647 1647 1647 1647 1647 1647 1647 1647 1655 1663 1663 1663 1655 1655 1655 1655 1647 1647 1647 1647 1655 1655 1655 1655 1655 1655 1647 1647 1647 1647 1647 1647 1647 1647 1647 1647 1647 1647 1647 1647 1655 1655 1655 1655 1655 1655 1655 1655 1655 1655 1655 1655 1655 1655 1655 1655 1655 1655 1655 1655 1655 1663 1647 1647 1647 1647 1655 1655 1647 1647 1647 1647 1647 1647 1647 1647 1647 1647 1655 1655 1655 1655 1655 1663 1663 1663 1663 1671 1671 1671 1671 1671 1671 1671 1671 1671 1671 1671 1671 1671 1671 1671 1671 0 0 0 0 0 0 0
0 0 0 0 0 0 0 0 0 0 0 0 0 0 0 0 0 0 0 0 0 0 0 0 0 0 0 0 0 0 0 0 0 0 0 1572 1572 1579 1586 1586 1586 1586 1594 1594 1594 1586 1586 1586 1586 1594 1594 1594 1594 1601 1601 1601 1594 1594 1594 1594 1601 1601 1601 1601 1601 1601 1601 1601 1601 1601 1601 1601 1601 1594 1594 1601 1594 1594 1594 1594 1594 1594 1594 1594 1594 1594 1594 1594 1594 1601 1601 1601 1601 1601 1601 1601 1601 1601 1609 1609 1601 1601 1601 1601 1594 1594 1601 1601 1601 1601 1601 1601 1601 1601 1601 1601 1601 1601 1601 1601 1594 1594 1601 1601 1601 1601 1601 1609 1609 1601 1601 1601 1601 1601 1601 1601 1609 1609 1609 1609 1609 1609 1609 1601 1601 1609 1609 1609 1609 1609 1609 1609 1609 1609 1609 1601 1601 1601 1601 1601 1601 1601 1601 1601 1601 1601 1601 1601 1601 1601 1601 1601 1601 1601 1609 1609 1609 1609 1609 1609 1609 1609 1609 1609 1609 1609 1609 1609 1609 1609 1609 1609 1609 1609 1616 1616 1616 1616 1616 1616 1616 1616 1616 1616 1616 1616 1616 1616 1616 1616 1616 1624 1624 1624 1624 1624 1624 1624 1624 1624 1624 1624 1624 1616 1616 1616 1616 1616 1624 1616 1616 1624 1632 1632 1632 1624 1624 1624 1624 1632 1632 1632 1632 1632 1632 1624 1624 1624 1624 1616 1616 1616 1624 1624 1624 1624 1624 1624 1624 1624 1624 1632 1632 1632 1632 1632 1632 1632 1632 1632 1632 1632 1632 1632 1632 1632 1632 1632 1632 1639 1639 1639 1639 1639 1632 1632 1632 1639 1639 1639 1632 1632 1639 1639 1639 1639 1632 1632 1632 1632 1632 1632 1632 1632 1632 1639 1639 1639 1639 1639 1639 1639 1639 1639 1639 1639 1639 1639 1639 1639 1639 1639 1639 1639 1639 1639 1639 1639 1639 1639 1632 1632 1632 1632 1632 1632 1632 1632 1632 1632 1632 1632 1632 1632 1632 1632 1632 1632 1632 1632 1632 1632 1639 1639 1639 1639 1639 1639 1639 1639 1639 1647 1647 1639 1639 1647 1647 1647 1639 1639 1639 1639 1639 1639 1639 1639 1639 1639 1639 1647 1655 1647 1647 1647 1647 1647 1655 1655 1655 1647 1647 1655 1655 1655 1655 1655 1655 1655 1655 1655 1655 1655 1655 1655 1655 1655 1655 1655 1655 1655 1655 1655 1655 1655 1655 1655 1655 1647 1647 1639 1639 1647 1647 1647 1647 1647 1655 1647 1647 1647 1647 1647 1647 1647 1647 1647 1647 1647 1647 1655 1647 1647 1647 1647 1647 1647 1647 1647 1647 1655 1655 1647 1647 1655 1647 1647 1647 1647 1647 1647 1647 1647 1647 1647 1647 1647 1647 1647 1647 1647 1647 1647 1647 1647 1647 1655 1655 1655 1655 1655 1655 1655 1655 1655 1655 1655 1655 1655 1655 1655 1655 1655 1655 1655 1655 1663 1663 1655 1655 1655 1655 1655 1655 1655 1655 1647 1647 1647 1647 1647 1647 1647 1647 1647 1647 1647 1647 1647 1647 1647 1647 1647 1647 1647 1647 1647 1647 1647 1647 1647 1647 1639 1639 1647 1647 1647 1647 1647 1655 1655 1655 1655 1655 1655 1647 1647 1647 1647 1647 1647 1647 1647 1647 1647 1647 1647 1647 1647 1647 1647 1647 1647 1639 1639 1647 1647 1647 1647 1647 1647 1647 1647 1647 1647 1647 1647 1647 1647 1647 1647 1647 1655 1647 1647 1655 1655 1655 1647 1647 1647 1655 1655 1639 1639 1639 1639 1647 1647 1647 1647 1647 1647 1647 1647 1647 1647 1647 1647 1655 1655 1655 1655 1655 1655 1663 1663 1663 1663 1671 1663 1663 1663 1663 1663 1663 1663 1663 1663 1671 1671 1671 1671 1671 0 0 0 0 0 0 0
0 0 0 0 0 0 0 0 0 0 0 0 0 0 0 0 0 0 0 0 0 0 0 0 0 0 0 0 0 0 0 0 0 0 0 1572 1572 1579 1579 1579 1579 1579 1586 1586 1586 1586 1579 1579 1586 1586 1586 1594 1594 1594 1594 1594 1594 1594 1594 1594 1594 1601 1601 1601 1601 1601 1601 1594 1594 1594 1594 1594 1594 1594 1594 1594 1594 1594 1594 1594 1594 1594 1594 1594 1594 1594 1594 1594 1594 1594 1594 1594 1594 1594 1594 1594 1601 1601 1601 1601 1601 1601 1601 1594 1594 1594 1594 1594 1594 1594 1594 1594 1594 1594 1594 1594 1594 1594 1594 1594 1594 1594 1594 1594 1594 1594 1594 1594 1594 1594 1594 1594 1594 1594 1594 1601 1601 1601 1601 1601 1601 1601 1601 1601 1601 1601 1601 1601 1601 1601 1601 1601 1601 1601 1601 1601 1594 1594 1594 1594 1601 1594 1594 1601 1601 1601 1601 1601 1601 1601 1601 1601 1601 1601 1601 1601 1609 1609 1609 1601 1601 1601 1601 1601 1601 1609 1609 1609 1609 1609 1609 1609 1609 1609 1609 1609 1616 1616 1616 1616 1616 1616 1616 1616 1616 1616 1616 1616 1616 1616 1616 1616 1616 1616 1616 1624 1624 1616 1616 1616 1616 1616 1616 1616 1616 1616 1616 1616 1616 1616 1616 1624 1624 1624 1624 1624 1624 1624 1624 1624 1632 1632 1624 1624 1624 1624 1624 1616 1616 1616 1616 1616 1616 1616 1616 1616 1624 1624 1624 1624 1624 1624 1624 1624 1624 1632 1632 1632 1632 1632 1632 1632 1632 1632 1632 1624 1624 1632 1632 1632 1632 1632 1632 1632 1632 1632 1632 1632 1632 1632 1632 1632 1632 1632 1639 1639 1632 1632 1632 1632 1632 1632 1632 1632 1632 1632 1639 1639 1639 1639 1639 1639 1639 1639 1639 1639 1639 1639 1632 1632 1632 1632 1632 1632 1639 1639 1639 1639 1639 1639 1632 1632 1632 1632 1632 1632 1632 1632 1632 1632 1632 1632 1632 1632 1632 1632 1632 1632 1632 1632 1632 1632 1632 1632 1632 1632 1632 1632 1639 1639 1639 1639 1639 1639 1639 1639 1639 1639 1639 1639 1639 1639 1639 1639 1639 1639 1639 1639 1639 1639 1639 1639 1639 1639 1647 1647 1639 1639 1647 1639 1639 1647 1647 1647 1655 1655 1655 1655 1655 1647 1647 1655 1647 1647 1639 1639 1647 1647 1647 1647 1655 1655 1655 1647 1647 1655 1647 1639 1639 1639 1639 1639 1639 1647 1647 1647 1647 1647 1647 1647 1647 1647 1639 1639 1639 1647 1647 1647 1647 1647 1647 1647 1647 1647 1647 1647 1647 1647 1647 1647 1647 1647 1647 1647 1647 1647 1647 1647 1647 1647 1647 1647 1647 1647 1647 1647 1647 1647 1647 1647 1647 1647 1647 1647 1647 1647 1647 1647 1647 1655 1655 1655 1655 1655 1655 1655 1655 1647 1647 1647 1647 1655 1655 1655 1655 1655 1655 1655 1655 1655 1655 1655 1655 1647 1647 1647 1639 1639 1639 1639 1647 1647 1647 1647 1639 1639 1639 1639 1639 1639 1639 1647 1647 1647 1647 1647 1647 1647 1639 1639 1639 1639 1639 1639 1639 1639 1647 1647 1647 1647 1655 1655 1647 1647 1647 1647 1639 1639 1639 1647 1647 1647 1647 1639 1639 1639 1639 1639 1639 1639 1639 1639 1639 1639 1647 1647 1647 1647 1639 1639 1647 1647 1647 1647 1647 1647 1647 1647 1647 1647 1647 1647 1647 1647 1647 1647 1647 1647 1647 1647 1647 1647 1639 1639 1639 1639 1639 1647 1639 1639 1639 1639 1639 1639 1647 1647 1647 1647 1647 1647 1647 1647 1647 1655 1655 1655 1663 1663 1663 1663 1663 1663 1663 1663 1663 1663 1663 1663 1671 1671 1671 1663 1663 0 0 0 0 0 0 0
0 0 0 0 0 0 0 0 0 0 0 0 0 0 0 0 0 0 0 0 0 0 0 0 0 0 0 0 0 0 0 0 0 0 0 1564 1564 1572 1572 1572 1572 1572 1579 1579 1579 1579 1579 1579 1579 1579 1579 1586 1586 1586 1594 1594 1586 1586 1594 1594 1594 1594 1594 1601 1601 1594 1594 1594 1594 1594 1594 1594 1594 1594 1594 1594 1594 1586 1586 1586 1586 1586 1586 1586 1586 1586 1594 1594 1594 1594 1594 1594 1594 1594 1594 1594 1594 1601 1601 1601 1594 1594 1594 1594 1594 1594 1586 1586 1594 1594 1594 1594 1594 1594 1594 1594 1594 1594 1594 1594 1594 1594 1594 1594 1594 1594 1594 1594 1594 1594 1594 1594 1594 1594 1594 1594 1601 1594 1594 1594 1594 1594 1594 1594 1594 1594 1594 1594 1594 1594 1594 1601 1601 1601 1601 1594 1594 1594 1586 1586 1594 1594 1594 1594 1601 1601 1601 1601 1594 1594 1601 1594 1594 1601 1601 1601 1609 1601 1601 1601 1601 1594 1594 1594 1594 1601 1601 1601 1601 1601 1609 1609 1609 1609 1609 1609 1609 1609 1616 1616 1616 1616 1616 1616 1616 1609 1609 1616 1616 1616 1616 1616 1616 1616 1616 1616 1616 1616 1616 1616 1616 1616 1616 1616 1609 1609 1609 1616 1616 1609 1609 1616 1624 1624 1624 1616 1616 1616 1616 1616 1624 1624 1616 1616 1616 1616 1616 1609 1609 1609 1609 1609 1609 1609 1616 1616 1616 1624 1616 1616 1616 1624 1624 1624 1624 1624 1624 1632 1632 1632 1632 1624 1624 1632 1632 1624 1624 1632 1632 1632 1632 1632 1632 1632 1632 1632 1632 1632 1632 1632 1632 1632 1632 1632 1632 1632 1632 1632 1632 1632 1632 1632 1632 1632 1632 1632 1632 1639 1639 1632 1632 1632 1639 1639 1639 1639 1632 1632 1632 1632 1632 1632 1632 1632 1632 1632 1632 1639 1639 1639 1632 1632 1632 1632 1624 1624 1632 1632 1632 1632 1632 1632 1632 1632 1632 1632 1632 1632 1624 1624 1632 1624 1624 1632 1632 1632 1632 1632 1632 1632 1632 1639 1632 1632 1632 1632 1632 1632 1632 1632 1632 1632 1632 1632 1632 1632 1632 1632 1639 1639 1639 1639 1639 1639 1639 1639 1639 1639 1632 1632 1639 1639 1639 1639 1639 1639 1639 1639 1639 1639 1632 1632 1632 1632 1632 1632 1639 1647 1647 1647 1647 1647 1647 1647 1647 1647 1647 1639 1639 1639 1639 1639 1639 1647 1647 1647 1647 1647 1647 1647 1639 1639 1639 1639 1639 1639 1639 1639 1639 1639 1639 1647 1647 1647 1639 1639 1639 1647 1647 1647 1647 1647 1647 1647 1647 1647 1647 1647 1639 1639 1647 1647 1647 1647 1647 1647 1647 1647 1647 1647 1647 1647 1647 1647 1647 1647 1647 1647 1647 1647 1647 1647 1647 1647 1647 1647 1647 1647 1647 1647 1647 1647 1647 1647 1647 1655 1655 1647 1647 1647 1647 1647 1647 1647 1647 1639 1639 1639 1639 1639 1639 1639 1639 1639 1639 1639 1639 1639 1639 1639 1639 1639 1639 1647 1639 1639 1647 1639 1639 1639 1639 1639 1639 1639 1639 1639 1639 1639 1647 1647 1647 1647 1647 1639 1639 1639 1639 1639 1639 1639 1639 1639 1639 1639 1639 1639 1639 1639 1639 1639 1639 1639 1639 1639 1639 1639 1639 1639 1639 1639 1639 1639 1639 1639 1639 1639 1647 1647 1647 1647 1647 1647 1647 1647 1647 1647 1647 1639 1639 1639 1639 1639 1639 1639 1639 1639 1639 1639 1639 1639 1639 1639 1639 1639 1647 1647 1647 1647 1647 1647 1647 1647 1647 1647 1655 1655 1655 1663 1663 1663 1663 1663 1663 1663 1663 1663 1663 1663 1663 1663 1663 1663 1663 1663 0 0 0 0 0 0
0 0 0 0 0 0 0 0 0 0 0 0 0 0 0 0 0 0 0 0 0 0 0 0 0 0 0 0 0 0 0 0 0 0 0 1564 1564 1572 1572 1572 1572 1572 1572 1572 1579 1572 1572 1572 1579 1579 1579 1579 1579 1586 1586 1586 1586 1586 1594 1586 1586 1594 1594 1594 1594 1594 1594 1586 1586 1594 1594 1594 1594 1594 1594 1586 1586 1586 1586 1586 1586 1586 1579 1579 1586 1586 1586 1586 1594 1594 1594 1594 1594 1594 1594 1594 1594 1594 1594 1594 1594 1594 1594 1586 1586 1586 1586 1586 1586 1586 1586 1594 1594 1594 1594 1594 1594 1594 1594 1594 1594 1594 1594 1586 1586 1594 1586 1586 1594 1594 1594 1594 1594 1594 1594 1594 1594 1594 1594 1594 1594 1594 1594 1594 1594 1594 1594 1594 1594 1594 1594 1594 1601 1601 1601 1586 1586 1586 1586 1586 1586 1586 1586 1594 1586 1586 1594 1594 1594 1594 1594 1594 1594 1594 1594 1601 1601 1601 1601 1594 1594 1594 1594 1594 1594 1601 1601 1601 1601 1601 1601 1601 1601 1601 1601 1609 1609 1609 1609 1609 1609 1609 1609 1609 1609 1609 1609 1609 1609 1609 1609 1616 1616 1616 1616 1616 1616 1616 1616 1616 1616 1616 1616 1609 1609 1609 1609 1609 1609 1609 1609 1616 1616 1616 1616 1616 1616 1616 1616 1616 1616 1616 1616 1609 1609 1616 1609 1609 1609 1609 1609 1609 1609 1609 1609 1609 1616 1616 1616 1616 1616 1616 1616 1624 1624 1624 1624 1632 1624 1624 1624 1624 1624 1624 1624 1624 1624 1624 1624 1624 1624 1624 1624 1624 1624 1624 1624 1624 1624 1624 1624 1632 1632 1632 1632 1632 1624 1624 1624 1624 1624 1624 1624 1632 1632 1632 1632 1632 1632 1632 1632 1632 1632 1632 1632 1632 1632 1632 1632 1632 1624 1624 1632 1632 1632 1632 1632 1632 1632 1632 1624 1624 1624 1624 1624 1624 1624 1632 1632 1632 1632 1632 1632 1632 1632 1632 1632 1624 1624 1624 1624 1624 1624 1632 1624 1624 1632 1632 1632 1632 1632 1632 1632 1632 1632 1632 1632 1632 1632 1632 1632 1632 1632 1632 1632 1632 1632 1632 1632 1632 1639 1639 1639 1639 1639 1639 1639 1632 1632 1632 1632 1632 1639 1639 1639 1639 1639 1639 1639 1632 1632 1632 1632 1632 1632 1632 1632 1632 1639 1639 1639 1647 1639 1639 1639 1639 1639 1632 1632 1632 1639 1639 1639 1639 1639 1639 1647 1639 1639 1639 1632 1632 1632 1639 1639 1639 1639 1639 1639 1639 1639 1639 1639 1639 1639 1639 1639 1639 1639 1639 1639 1647 1647 1639 1639 1639 1639 1639 1639 1639 1639 1639 1639 1639 1647 1647 1647 1647 1647 1647 1647 1647 1639 1639 1647 1647 1647 1647 1647 1647 1647 1647 1647 1647 1647 1647 1647 1639 1639 1647 1647 1647 1647 1647 1647 1647 1647 1647 1647 1647 1647 1647 1647 1647 1647 1639 1639 1639 1639 1639 1639 1639 1639 1639 1639 1639 1639 1639 1639 1639 1639 1639 1639 1639 1639 1639 1639 1639 1639 1639 1639 1639 1632 1632 1639 1639 1639 1639 1639 1647 1647 1639 1639 1639 1639 1639 1639 1639 1639 1639 1639 1639 1639 1632 1632 1639 1639 1639 1639 1639 1639 1639 1639 1639 1639 1639 1639 1639 1639 1639 1639 1639 1632 1632 1639 1639 1639 1639 1639 1639 1639 1639 1639 1639 1639 1639 1639 1639 1639 1639 1639 1639 1632 1632 1632 1632 1639 1639 1639 1639 1639 1639 1639 1639 1639 1639 1639 1639 1647 1647 1647 1647 1647 1647 1647 1655 1647 1647 1655 1655 1655 1655 1655 1655 1663 1663 1663 1663 1663 1663 1663 1663 1663 1663 0 0 0 0 0 0
