0 0 0 0 0 0 0 0 0 0 0 0 0 0 0 0 0 0 0 0 0 0 0 0 0 0 0 0 0 0 0 0 3064 3064 3064 3064 3092 3092 3092 3092 3120 3092 3092 3092 3092 3064 3064 3092 3092 3092 3092 3092 3092 3120 3120 3092 3092 3092 3092 3092 3092 3092 3092 3092 3092 3120 3120 3120 3120 3120 3120 3092 3092 3092 3092 3092 3092 3092 3092 3092 3092 3092 3092 3092 3092 3092 3092 3092 3092 3092 3092 3092 3120 3120 3120 3120 3120 3120 3120 3120 3120 3120 3120 3120 3120 3120 3120 3120 3120 3120 3120 3120 3120 3120 3149 3149 3149 3149 3149 3149 3149 3149 3149 3149 3120 3120 3120 3120 3120 3149 3178 3178 3178 3178 3178 3178 3178 3178 3178 3178 3149 3149 3120 3120 3037 3037 3010 2984 2984 2984 2984 2984 2984 2984 2984 2984 2958 2958 2958 2958 2958 2958 2958 2958 2933 2933 2958 2958 0 0 0 0 1349 1349 1349 1349 1354 1354 1354 1349 1349 1349 1354 1354 1354 1354 1354 1354 1354 1354 1354 1354 1354 1354 1354 1354 1354 1354 1354 1359 1359 1359 1359 1359 1359 1359 1359 1359 1359 1241 1241 1241 1241 1241 1241 1245 1245 1245 1245 1250 1250 1250 1245 1245 1259 1365 1365 1365 1365 1365 1365 1365 1370 1370 1376 1376 1376 1381 1381 1381 1381 1381 1381 1381 1381 1381 1278 1278 1273 1273 1376 1376 1278 1278 1278 1283 1278 1278 1283 1273 1273 1278 1278 1283 1283 1288 1288 1288 1288 1288 1288 1288 1288 1288 1288 1288 1288 1288 1288 1292 1292 1292 1292 1292 1292 1292 1292 1297 1297 1297 1297 1302 1302 1302 1302 1307 1307 1307 1307 1307 1307 1307 1307 1307 1312 1312 1312 1312 1317 1317 1322 1322 1322 1322 1322 1322 1322 1322 1328 1328 1328 1333 1333 1333 1333 1333 1338 1338 1338 1338 1338 1338 1328 1328 1328 1328 1328 1328 1328 1328 1328 1328 1328 1333 1333 1333 1338 1464 1464 1464 1464 1464 1470 1477 1477 1477 1477 1477 1477 1477 1477 1477 1477 1483 1483 1483 1483 1483 1483 1489 1489 1489 1489 1489 1489 1489 1489 1489 1489 1489 1489 1489 1489 1496 1496 1496 1496 1503 1503 1503 1503 1503 1509 1509 1509 1509 1509 1509 1509 1509 1509 1509 1509 1516 1516 1516 1516 1322 1317 1317 1317 1317 1317 1317 1317 1317 1322 1317 1317 1317 1317 1322 1322 1322 1328 1328 1328 1333 1333 1338 1338 1338 1338 1333 1333 1333 1333 1333 1333 1333 1333 1333 1338 1338 1338 1338 1338 1338 1338 1338 1338 1338 1338 1338 1338 1338 1338 1338 1338 1338 1343 1343 1343 1343 1343 1343 1343 1343 1349 1349 1349 1349 1349 1349 1354 1354 1354 1349 1349 1354 1354 1359 1359 1359 1359 1359 1359 1359 1359 1359 1365 1365 1365 1365 1365 1370 1370 1376 1376 1376 1376 1376 1376 1376 1376 1376 1376 1376 1376 1376 1381 1381 1381 1381 1381 1381 1381 1381 1381 1381 1376 1376 1381 1381 1381 1381 1381 1381 1381 1381 1381 1381 1387 1387 1609 1601 1601 1601 1601 1609 1609 1601 1601 1601 3149 3149 1632 1632 1632 1639 1639 1639 1639 1639 1632 1624 1616 1616 1609 1609 1609 1609 1609 1609 1609 1616 1616 1616 1616 1616 1616 1616 1616 1616 1616 1624 1624 1624 1624 1624 1632 1639 1639 3092 3092 3092 3092 3120 3120 3120 3120 3120 3120 3120 3120 3092 3092 3092 3092 3092 3092 3092 3092 3092 3092 3120 3092 3092 3064 3064 3092 3064 3064 3064 3064 3064 3064 3064 3037 3037 3037 3037 3037 3064 3064 3064 3064 3037 3037 0 0 0 0 0 0 0 0 0 0 0
0 0 0 0 0 0 0 0 0 0 0 0 0 0 0 0 0 0 0 0 0 0 0 0 0 0 0 0 0 0 0 0 3064 3064 3064 3064 3064 3064 3064 3092 3092 3092 3064 3064 3064 3064 3064 3064 3064 3064 3092 3092 3092 3092 3092 3092 3092 3092 3064 3064 3064 3092 3092 3092 3092 3092 3092 3092 3092 3092 3092 3064 3064 3064 3064 3064 3092 3092 3092 3064 3064 3092 3092 3092 3092 3092 3092 3092 3092 3092 3092 3092 3120 3120 3120 3120 3120 3120 3120 3092 3092 3092 3092 3092 3092 3092 3092 3092 3120 3120 3092 3092 3120 3120 3120 3120 3120 3149 3149 3149 3149 3120 3120 3120 3120 3092 3092 3120 3120 3120 3149 3149 3149 3149 3149 3149 3178 3149 3149 3178 3149 3149 3120 3120 3064 3037 3010 3010 2984 2984 2984 2984 2984 2984 2984 2984 2958 2958 2958 2958 2958 2958 2958 2958 2958 2958 2958 0 0 0 0 0 1343 1343 1349 1349 1349 1349 1349 1349 1349 1349 1349 1349 1354 1354 1354 1354 1354 1354 1354 1354 1354 1354 1354 1354 1354 1354 1354 1354 1354 1359 1359 1359 1359 1359 1359 1359 1359 1245 1245 1245 1245 1245 1245 1245 1245 1245 1250 1250 1250 1255 1255 1255 1259 1365 1365 1365 1365 1365 1365 1259 1259 1268 1376 1376 1376 1381 1381 1381 1381 1381 1273 1273 1273 1273 1278 1278 1273 1273 1278 1278 1278 1278 1278 1283 1278 1278 1283 1283 1283 1283 1283 1283 1288 1288 1288 1288 1288 1288 1288 1288 1288 1288 1288 1288 1288 1292 1292 1292 1292 1292 1292 1292 1292 1292 1292 1297 1297 1297 1297 1302 1302 1302 1302 1307 1307 1307 1307 1307 1307 1307 1312 1312 1312 1312 1312 1312 1317 1317 1322 1322 1322 1322 1322 1322 1322 1328 1328 1328 1333 1333 1333 1333 1333 1338 1338 1338 1338 1343 1343 1338 1333 1328 1328 1328 1328 1328 1333 1333 1333 1333 1333 1338 1338 1338 1338 1464 1464 1464 1470 1470 1477 1477 1477 1477 1477 1477 1477 1477 1477 1477 1483 1483 1483 1483 1483 1483 1483 1489 1489 1489 1489 1489 1489 1489 1489 1489 1489 1489 1489 1489 1489 1496 1496 1496 1503 1503 1503 1503 1503 1503 1509 1509 1509 1509 1509 1509 1509 1509 1509 1516 1516 1516 1516 1523 1523 1322 1322 1322 1322 1322 1322 1322 1322 1322 1322 1317 1317 1317 1317 1322 1322 1328 1328 1333 1333 1333 1338 1338 1338 1338 1338 1338 1338 1338 1338 1338 1338 1338 1338 1338 1338 1338 1338 1338 1338 1338 1338 1338 1338 1338 1338 1338 1338 1338 1343 1343 1343 1343 1343 1343 1343 1343 1343 1343 1343 1349 1349 1349 1349 1354 1354 1354 1354 1354 1354 1354 1354 1359 1359 1359 1359 1359 1359 1359 1359 1359 1359 1365 1365 1365 1365 1365 1365 1370 1370 1376 1376 1376 1376 1381 1376 1376 1376 1376 1376 1376 1376 1376 1381 1381 1381 1381 1381 1381 1381 1381 1381 1381 1381 1381 1381 1381 1381 1381 1381 1381 1381 1381 1387 1387 1392 1392 3064 3064 1609 1601 1601 1609 3149 3120 3120 3120 3120 3120 3120 1647 1647 1647 1647 1647 1647 1639 1632 1616 1616 1616 1609 1609 1609 1609 1609 1609 1609 1616 1616 1616 1616 1616 1616 1624 1624 1624 1624 1624 1632 1632 1624 1624 1624 1632 1632 1632 3092 3092 3092 3120 3120 3120 3120 3120 3120 3120 3120 3092 3092 3092 3092 3092 3064 3064 3064 3064 3064 3092 3092 3064 3064 3064 3064 3037 3037 3037 3037 3037 3037 3037 3037 3037 3037 3037 3037 3037 3037 3037 3037 3037 3037 0 0 0 0 0 0 0 0 0 0 0
0 0 0 0 0 0 0 0 0 0 0 0 0 0 0 0 0 0 0 0 0 0 0 0 0 0 0 0 0 0 0 0 3064 3064 3064 3064 3064 3064 3064 3064 3064 3064 3064 3037 3037 3064 3064 3064 3064 3064 3064 3092 3092 3092 3092 3092 3092 3092 3064 3064 3064 3092 3064 3064 3092 3092 3092 3092 3092 3092 3092 3064 3064 3064 3064 3064 3064 3064 3064 3064 3064 3064 3092 3092 3092 3092 3092 3092 3092 3092 3092 3092 3092 3092 3092 3092 3092 3092 3092 3092 3092 3092 3092 3092 3092 3092 3092 3092 3092 3092 3092 3092 3092 3092 3092 3092 3120 3120 3120 3120 3120 3092 3092 3092 3092 3092 3092 3092 3092 3120 3149 3149 3149 3149 3149 3149 3149 3149 3149 3149 3120 3120 3120 3120 3092 3064 3037 3010 3010 2984 2984 2984 2984 2984 2984 2984 2958 2958 2958 2958 2958 2958 2958 2958 2958 2958 2958 0 0 0 0 0 1343 1343 1343 1343 1343 1343 1343 1343 1343 1343 1349 1349 1349 1354 1354 1354 1354 1354 1354 1354 1354 1354 1354 1354 1354 1354 1354 1354 1354 1354 1359 1359 1359 1359 1359 1359 1359 1359 1245 1245 1245 1245 1250 1250 1250 1250 1250 1255 1255 1255 1259 1259 1264 1268 1268 1365 1273 1273 1273 1259 1259 1268 1278 1278 1278 1278 1278 1278 1273 1273 1273 1273 1273 1273 1278 1278 1278 1278 1278 1278 1283 1278 1278 1283 1283 1283 1283 1283 1283 1283 1283 1288 1288 1288 1288 1288 1288 1288 1288 1288 1288 1288 1288 1292 1292 1292 1292 1292 1292 1292 1292 1292 1292 1292 1292 1297 1297 1297 1297 1302 1302 1307 1307 1307 1307 1307 1307 1307 1307 1307 1312 1312 1312 1312 1312 1317 1317 1322 1322 1322 1322 1328 1328 1328 1328 1328 1328 1333 1333 1333 1333 1333 1338 1338 1338 1343 1343 1343 1343 1343 1333 1328 1328 1328 1328 1328 1333 1333 1333 1333 1338 1338 1338 1343 1343 1464 1464 1470 1470 1470 1477 1477 1477 1477 1477 1477 1477 1477 1477 1477 1483 1483 1483 1483 1483 1483 1489 1489 1489 1489 1489 1489 1496 1496 1489 1489 1489 1489 1496 1496 1496 1496 1496 1503 1503 1503 1503 1503 1503 1503 1509 1509 1509 1509 1509 1509 1516 1516 1516 1516 1516 1516 1523 1536 1536 1322 1322 1322 1322 1322 1322 1322 1322 1322 1322 1322 1322 1322 1322 1322 1322 1328 1328 1333 1333 1333 1338 1338 1338 1338 1338 1338 1338 1338 1338 1338 1338 1338 1338 1338 1338 1338 1338 1343 1343 1343 1343 1343 1343 1338 1338 1343 1343 1343 1343 1343 1343 1343 1343 1343 1343 1343 1349 1349 1349 1349 1354 1354 1354 1354 1354 1354 1354 1354 1354 1354 1359 1359 1359 1359 1359 1359 1359 1359 1365 1365 1365 1365 1365 1365 1365 1365 1370 1370 1370 1376 1376 1376 1376 1381 1376 1376 1376 1376 1376 1381 1381 1381 1381 1381 1381 1381 1381 1381 1381 1381 1381 1381 1381 1381 1381 1381 1381 1381 1381 1381 1381 1387 1387 1392 1392 1404 3064 3064 3092 3092 3120 3120 3120 3120 3120 3120 3120 3120 0 1647 1647 1647 1647 1647 1647 1639 1632 1616 1616 1609 1609 1609 1609 1609 1609 1609 1609 1616 1616 1616 1616 1616 1624 1624 1624 1624 1624 1632 1632 1632 1632 1624 1624 1632 1632 1632 3064 3064 3092 3120 3120 3092 3092 3120 3120 3092 3092 3092 3092 3092 3064 3064 3064 3064 3064 3064 3064 3064 3064 3064 3037 3037 3037 3037 3037 3037 3037 3037 3037 3037 3037 3037 3037 3010 3010 3010 3010 3037 3037 3010 3010 0 0 0 0 0 0 0 0 0 0 0
0 0 0 0 0 0 0 0 0 0 0 0 0 0 0 0 0 0 0 0 0 0 0 0 0 0 0 0 0 0 0 0 3064 3037 3037 3037 3064 3064 3064 3064 3064 3037 3037 3037 3037 3037 3037 3037 3037 3037 3064 3092 3092 3092 3092 3092 3092 3064 3064 3064 3064 3064 3064 3064 3092 3092 3092 3092 3092 3092 3092 3064 3064 3037 3037 3037 3064 3064 3064 3064 3064 3064 3064 3064 3092 3092 3092 3092 3092 3092 3092 3092 3092 3092 3092 3092 3092 3092 3092 3092 3092 3092 3064 3064 3092 3092 3092 3092 3092 3092 3092 3092 3092 3092 3092 3092 3092 3092 3092 3092 3092 3092 3092 3092 3092 3092 3092 3092 3092 3120 3120 3120 3120 3120 3120 3120 3149 3120 3120 3120 3120 3120 3120 3092 3092 3064 3037 3010 3010 2984 2984 2984 2984 2984 2984 2984 2958 2958 2958 2958 2958 2958 2958 2958 2958 2958 2958 0 0 0 0 0 1343 1343 1343 1343 1343 1343 1343 1343 1343 1343 1349 1349 1349 1354 1354 1354 1354 1354 1354 1354 1354 1354 1354 1354 1354 1354 1354 1354 1354 1354 1359 1359 1359 1359 1359 1359 1359 1359 1250 1250 1250 1250 1250 1250 1250 1250 1255 1255 1259 1259 1264 1264 1268 1268 1268 1273 1273 1273 1273 1273 1273 1278 1278 1278 1278 1278 1278 1278 1273 1273 1278 1278 1278 1278 1278 1278 1278 1278 1278 1283 1283 1283 1283 1283 1283 1288 1288 1283 1283 1288 1288 1288 1288 1288 1288 1288 1288 1288 1288 1288 1288 1288 1288 1292 1292 1292 1292 1292 1292 1292 1292 1292 1292 1297 1297 1297 1297 1302 1302 1307 1307 1307 1307 1307 1307 1307 1307 1307 1307 1307 1312 1312 1312 1312 1317 1317 1322 1322 1328 1328 1328 1328 1328 1328 1328 1328 1333 1333 1333 1333 1333 1333 1338 1338 1343 1343 1343 1343 1343 1343 1333 1333 1333 1333 1328 1328 1333 1333 1333 1338 1338 1338 1338 1343 1343 1464 1464 1470 1470 1470 1477 1477 1477 1477 1477 1477 1477 1477 1477 1483 1483 1483 1483 1483 1483 1489 1489 1489 1489 1489 1489 1489 1496 1496 1496 1496 1496 1496 1496 1496 1496 1496 1503 1503 1503 1503 1503 1503 1503 1503 1509 1509 1509 1509 1509 1509 1516 1516 1516 1516 1516 1523 1523 1536 1536 1328 1322 1322 1322 1322 1328 1328 1328 1328 1328 1322 1322 1322 1322 1322 1328 1328 1333 1333 1338 1338 1338 1338 1338 1338 1338 1338 1338 1338 1338 1338 1338 1338 1338 1338 1338 1338 1343 1343 1343 1343 1343 1343 1343 1343 1343 1343 1343 1343 1343 1343 1349 1349 1349 1349 1349 1349 1349 1349 1349 1354 1354 1359 1359 1359 1359 1359 1359 1359 1359 1359 1359 1359 1359 1359 1359 1359 1365 1365 1365 1365 1365 1365 1365 1365 1370 1370 1370 1376 1376 1376 1376 1381 1381 1381 1376 1376 1376 1376 1376 1381 1381 1381 1381 1381 1381 1381 1381 1381 1381 1381 1381 1381 1381 1381 1381 1381 1381 1381 1381 1381 1387 1387 1387 1392 1392 1398 1398 3092 3092 3092 3120 3120 3120 3120 3120 3092 3092 3092 0 1655 1655 1655 1647 1647 1647 1639 1624 1616 1616 1609 1609 1609 1609 1609 1609 1609 1609 1616 1616 1616 1616 1616 1624 1624 1624 1624 1624 1632 1632 1632 1632 1624 1624 1632 3037 3037 3037 3037 3064 3092 3064 3064 3064 3092 3092 3092 3064 3064 3064 3064 3064 3064 3037 3037 3037 3037 3037 3037 3064 3037 3037 3037 3037 3037 3037 3037 3037 3037 3037 3037 3037 3010 3010 3010 3010 3010 3010 3010 3010 3010 3010 0 0 0 0 0 0 0 0 0 0 0
0 0 0 0 0 0 0 0 0 0 0 0 0 0 0 0 0 0 0 0 0 0 0 0 0 0 0 0 0 0 0 0 3037 3037 3037 3037 3037 3037 3037 3037 3037 3037 3037 3037 3037 3037 3037 3037 3037 3037 3064 3064 3092 3092 3092 3092 3092 3037 3037 3037 3037 3037 3037 3037 3064 3092 3092 3092 3092 3092 3064 3037 3037 3037 3037 3037 3037 3037 3064 3037 3037 3064 3064 3064 3064 3064 3064 3064 3092 3064 3064 3064 3064 3064 3064 3064 3064 3064 3064 3064 3064 3064 3064 3064 3064 3064 3064 3064 3064 3064 3092 3064 3064 3064 3064 3064 3092 3092 3092 3092 3092 3092 3092 3092 3092 3092 3092 3092 3092 3092 3120 3092 3092 3092 3092 3092 3120 3092 3092 3092 3120 3120 3092 3092 3092 3064 3037 3037 3010 3010 2984 2984 2984 2984 2984 2984 2958 2958 2958 2958 2958 2958 2958 2958 2958 2958 2958 0 0 0 0 0 1343 1343 1343 1343 1343 1343 1343 1343 1343 1343 1349 1349 1349 1354 1354 1354 1354 1354 1354 1354 1354 1354 1354 1354 1354 1354 1354 1354 1354 1354 1359 1359 1359 1359 1359 1359 1359 1359 1255 1255 1250 1250 1255 1255 1255 1255 1255 1255 1259 1259 1264 1268 1273 1273 1273 1273 1273 1273 1273 1278 1278 1278 1278 1278 1278 1278 1278 1278 1278 1278 1278 1278 1278 1278 1278 1278 1278 1278 1278 1283 1283 1283 1283 1283 1283 1288 1288 1288 1288 1288 1288 1288 1288 1288 1288 1288 1288 1292 1292 1292 1292 1292 1292 1292 1292 1292 1292 1297 1297 1297 1297 1297 1297 1297 1297 1302 1302 1302 1307 1307 1307 1307 1307 1307 1312 1312 1312 1312 1312 1312 1312 1312 1317 1317 1317 1322 1328 1328 1328 1328 1328 1328 1333 1328 1328 1328 1333 1333 1333 1333 1333 1338 1338 1338 1343 1343 1343 1349 1349 1349 1338 1333 1333 1333 1333 1333 1338 1338 1338 1338 1338 1338 1343 1343 1470 1470 1470 1470 1470 1477 1477 1477 1477 1477 1477 1477 1477 1477 1477 1483 1483 1483 1483 1483 1489 1489 1489 1489 1489 1489 1489 1489 1496 1496 1496 1496 1496 1496 1496 1496 1503 1503 1503 1509 1509 1509 1509 1509 1509 1509 1509 1509 1509 1509 1516 1516 1516 1516 1516 1516 1516 1523 1523 1536 1536 1328 1328 1328 1328 1328 1328 1328 1328 1328 1328 1322 1322 1322 1322 1322 1328 1333 1338 1338 1338 1338 1338 1338 1338 1338 1343 1343 1343 1343 1343 1343 1343 1343 1338 1338 1343 1343 1343 1343 1343 1343 1343 1343 1343 1343 1343 1343 1343 1343 1349 1349 1349 1349 1349 1349 1349 1349 1349 1349 1354 1354 1354 1359 1359 1359 1359 1359 1359 1359 1359 1359 1359 1359 1359 1365 1365 1365 1365 1365 1365 1365 1365 1365 1365 1370 1370 1370 1370 1376 1376 1376 1376 1381 1381 1381 1376 1376 1376 1376 1381 1381 1381 1381 1381 1381 1381 1381 1381 1381 1381 1381 1381 1381 1381 1381 1381 1381 1381 1381 1381 1381 1387 1387 1392 1392 1392 1392 1398 3092 3092 3092 3120 3120 3092 3092 3092 3092 3092 3092 3092 1655 1655 1655 1647 1647 1647 1639 1624 1616 1616 1609 1609 1609 1609 1609 1609 1609 1609 1616 1616 1616 1616 1624 1624 1624 1624 1632 1632 1632 1639 1632 1632 1632 3037 3064 3037 3037 3037 3037 3037 3064 3037 3037 3037 3037 3037 3037 3037 3037 3037 3037 3037 3037 3037 3037 3037 3037 3037 3037 3037 3037 3037 3037 3037 3037 3037 3037 3037 3010 3010 3037 3010 3010 3010 3010 3010 3010 3010 3010 3010 3010 3010 0 0 0 0 0 0 0 0 0 0 0
0 0 0 0 0 0 0 0 0 0 0 0 0 0 0 0 0 0 0 0 0 0 0 0 0 0 0 0 0 0 0 0 3037 3037 3037 3037 3037 3037 3037 3037 3037 3037 3010 3010 3010 3010 3010 3010 3010 3010 3037 3037 3064 3064 3064 3064 3037 3037 3037 3010 3010 3037 3037 3037 3064 3064 3064 3064 3064 3064 3064 3010 3010 3010 3010 3010 3010 3037 3037 3037 3037 3064 3064 3064 3064 3064 3064 3064 3064 3064 3064 3064 3064 3064 3064 3064 3064 3064 3064 3064 3064 3064 3064 3064 3064 3064 3064 3064 3064 3064 3064 3064 3064 3064 3064 3064 3064 3064 3064 3064 3092 3092 3092 3092 3092 3064 3064 3092 3092 3092 3092 3092 3092 3092 3092 3092 3092 3092 3092 3092 3092 3092 3092 3092 3092 3064 3064 3037 3010 3010 2984 2984 2984 2984 2984 2984 2958 2958 2958 2958 2958 2958 2958 2958 2958 2958 2958 0 0 0 0 0 1343 1343 1343 1343 1343 1343 1343 1343 1343 1343 1349 1349 1349 1354 1354 1354 1354 1354 1354 1354 1354 1354 1354 1354 1354 1354 1354 1354 1354 1359 1359 1359 1359 1359 1359 1359 1359 1359 1255 1255 1255 1255 1255 1255 1255 1255 1255 1259 1259 1264 1268 1268 1273 1273 1273 1273 1273 1278 1278 1278 1278 1278 1278 1278 1278 1278 1278 1278 1278 1278 1278 1278 1278 1278 1278 1283 1278 1278 1278 1283 1283 1283 1283 1283 1288 1288 1288 1288 1288 1288 1288 1288 1288 1288 1288 1288 1288 1292 1292 1292 1292 1292 1292 1292 1292 1292 1297 1297 1297 1297 1297 1297 1297 1302 1302 1302 1302 1307 1307 1307 1307 1307 1307 1312 1312 1312 1312 1312 1312 1312 1312 1312 1317 1317 1322 1322 1328 1328 1328 1328 1333 1333 1333 1333 1333 1333 1333 1333 1338 1338 1338 1343 1343 1343 1349 1349 1349 1349 1349 1349 1338 1333 1333 1338 1333 1333 1338 1338 1338 1343 1343 1343 1343 1343 1470 1470 1470 1470 1477 1477 1477 1477 1477 1477 1477 1477 1477 1477 1477 1483 1483 1483 1483 1483 1489 1489 1489 1489 1489 1489 1489 1489 1496 1496 1496 1496 1496 1496 1503 1503 1503 1503 1503 1509 1509 1509 1509 1509 1509 1509 1509 1509 1509 1516 1516 1516 1516 1516 1516 1516 1516 1523 1523 1536 1536 1333 1333 1333 1328 1328 1328 1328 1328 1328 1328 1322 1322 1328 1328 1328 1333 1333 1338 1338 1338 1338 1338 1343 1343 1343 1343 1343 1343 1343 1343 1343 1343 1343 1343 1343 1343 1343 1343 1343 1343 1343 1343 1343 1343 1343 1343 1343 1343 1349 1349 1349 1349 1354 1354 1354 1354 1354 1354 1354 1354 1354 1359 1359 1359 1359 1359 1359 1359 1359 1359 1359 1359 1359 1365 1365 1365 1365 1365 1365 1365 1370 1365 1365 1370 1370 1376 1376 1376 1376 1381 1381 1381 1381 1381 1381 1376 1376 1376 1381 1381 1381 1381 1381 1387 1387 1387 1387 1387 1387 1381 1381 1381 1381 1381 1381 1381 1381 1381 1381 1387 1387 1387 1387 1392 1392 1392 1392 3064 3064 3064 3092 3092 3092 3092 3064 3064 3064 3064 3092 3092 1655 1655 1655 1647 1647 1647 1639 1632 1616 1616 1616 1616 1609 1609 1609 1609 1609 1616 1616 1616 1616 1616 1624 1624 1632 1632 1632 1632 1632 1639 1632 1632 3037 3037 3037 3037 3037 3037 3037 3037 3037 3037 3037 3037 3037 3037 3037 3037 3037 3037 3037 3037 3037 3037 3037 3037 3037 3037 3037 3037 3037 3037 3037 3010 3010 3010 3037 3010 3010 3010 3010 3010 3010 3010 3010 3010 3010 3010 3010 3010 3010 3010 0 0 0 0 0 0 0 0 0 0 0
0 0 0 0 0 0 0 0 0 0 0 0 0 0 0 0 0 0 0 0 0 0 0 0 0 0 0 0 0 0 0 0 3010 3010 3010 3010 3010 3010 3010 3010 3010 3010 3010 3010 3010 3010 3010 3010 3010 3010 3010 3010 3037 3037 3064 3064 3037 3010 3010 3010 3010 3010 3010 3010 3037 3037 3064 3064 3037 3037 3037 3010 3010 2984 2984 3010 3010 3010 3037 3037 3037 3037 3037 3037 3064 3064 3064 3064 3064 3064 3064 3064 3037 3037 3064 3037 3037 3064 3037 3037 3037 3037 3037 3037 3064 3064 3064 3064 3064 3064 3064 3064 3064 3064 3064 3064 3064 3064 3064 3064 3064 3064 3064 3064 3064 3064 3064 3064 3092 3092 3092 3092 3092 3092 3092 3092 3092 3064 3064 3064 3092 3092 3092 3092 3092 3064 3064 3037 3010 3010 2984 2984 2984 2984 2984 2984 2958 2958 2958 2958 2958 2958 2958 2958 2958 2958 2958 0 0 0 0 0 1343 1343 1343 1343 1343 1343 1343 1343 1343 1343 1349 1349 1354 1354 1354 1354 1354 1354 1354 1354 1354 1354 1354 1359 1359 1359 1359 1359 1359 1359 1359 1359 1359 1359 1359 1365 1359 1255 1255 1255 1255 1255 1255 1255 1255 1255 1255 1259 1264 1268 1273 1273 1273 1273 1273 1278 1278 1278 1278 1278 1278 1278 1278 1278 1278 1278 1278 1278 1278 1278 1283 1283 1283 1283 1283 1283 1278 1278 1283 1283 1283 1283 1283 1283 1288 1288 1288 1288 1288 1288 1288 1288 1288 1288 1288 1292 1292 1292 1292 1292 1292 1292 1292 1292 1292 1297 1297 1302 1302 1302 1302 1302 1302 1302 1302 1302 1307 1307 1307 1312 1312 1312 1312 1312 1312 1312 1312 1312 1312 1312 1317 1317 1317 1322 1322 1328 1328 1328 1328 1328 1333 1333 1333 1333 1333 1333 1338 1338 1338 1338 1338 1343 1349 1349 1349 1349 1349 1349 1349 1349 1343 1343 1343 1343 1343 1343 1343 1343 1343 1343 1349 1349 1349 1349 1470 1470 1470 1470 1477 1477 1483 1477 1477 1483 1483 1483 1483 1483 1483 1483 1489 1489 1489 1489 1489 1489 1489 1489 1489 1489 1489 1496 1496 1496 1503 1503 1503 1503 1503 1503 1503 1503 1509 1509 1509 1509 1509 1509 1509 1509 1509 1516 1516 1516 1516 1516 1516 1516 1516 1516 1516 1523 1523 1523 1333 1333 1333 1333 1328 1328 1328 1328 1328 1328 1328 1322 1322 1328 1328 1333 1333 1338 1338 1338 1343 1343 1343 1343 1343 1343 1343 1343 1343 1343 1343 1343 1343 1343 1343 1343 1343 1343 1343 1349 1349 1349 1349 1349 1349 1349 1349 1349 1349 1349 1349 1354 1354 1354 1354 1359 1359 1359 1359 1359 1359 1359 1359 1359 1359 1359 1359 1359 1365 1365 1365 1365 1365 1365 1365 1365 1365 1365 1365 1365 1370 1370 1370 1370 1370 1376 1376 1376 1381 1381 1381 1381 1381 1381 1381 1381 1376 1376 1381 1381 1381 1381 1387 1387 1392 1392 1392 1392 1392 1392 1387 1387 1387 1381 1381 1381 1381 1387 1387 1387 1387 1387 1387 1387 1387 1387 1387 1387 3064 3064 3064 3064 3064 3064 3064 3064 3064 3064 3064 3064 3064 0 1655 1655 1655 1647 1647 1639 1632 1616 1616 1616 1616 1609 1609 1609 1609 1609 1616 1616 1616 1616 1616 1624 1624 1632 1632 1632 1632 1639 1639 1639 1639 3037 3037 3037 3010 3010 3010 3010 3037 3037 3037 3010 3010 3037 3037 3037 3037 3010 3010 3037 3037 3037 3037 3037 3010 3010 3010 3010 3037 3037 3010 3010 3010 3010 3010 3010 3010 3010 3010 3010 3010 3010 3010 2984 2984 2984 3010 3010 3010 2984 2984 0 0 0 0 0 0 0 0 0 0 0
0 0 0 0 0 0 0 0 0 0 0 0 0 0 0 0 0 0 0 0 0 0 0 0 0 0 0 0 0 0 0 0 3010 2984 2984 2984 3010 3010 3010 3010 3010 3010 2984 2984 2984 2984 2984 2984 2984 2984 2984 2984 3010 3010 3037 3037 3010 3010 3010 3010 3010 3010 3010 3010 3010 3010 3037 3037 3037 3037 3037 2984 2984 2984 2984 2984 2984 2984 3010 3010 3010 3037 3037 3037 3064 3037 3037 3037 3037 3037 3037 3064 3037 3037 3037 3037 3037 3037 3037 3037 3010 3010 3010 3010 3037 3037 3037 3037 3037 3037 3064 3037 3037 3037 3037 3064 3064 3064 3064 3064 3064 3064 3064 3064 3064 3064 3064 3064 3064 3064 3064 3064 3064 3064 3064 3064 3064 3064 3064 3064 3064 3092 3064 3064 3064 3064 3064 3037 3037 3010 3010 2984 2984 2984 2984 2984 2958 2958 2958 2958 2958 2958 2958 2958 2958 2984 2984 0 0 0 0 0 1349 1343 1343 1343 1343 1343 1343 1343 1343 1349 1349 1349 1354 1354 1354 1354 1354 1354 1354 1354 1354 1359 1359 1359 1359 1359 1359 1359 1359 1359 1359 1359 1365 1365 1365 1365 1365 1255 1255 1255 1255 1255 1255 1259 1259 1259 1259 1264 1268 1268 1273 1273 1273 1273 1273 1278 1278 1278 1278 1278 1278 1278 1278 1278 1278 1278 1278 1278 1278 1278 1283 1283 1283 1283 1283 1283 1278 1278 1283 1283 1283 1283 1283 1288 1288 1288 1288 1288 1288 1288 1288 1288 1292 1292 1292 1292 1292 1292 1292 1292 1292 1292 1292 1292 1297 1297 1297 1302 1302 1302 1302 1302 1302 1307 1307 1307 1307 1307 1307 1312 1312 1312 1312 1312 1312 1312 1312 1312 1312 1312 1317 1317 1322 1322 1322 1328 1328 1328 1328 1328 1333 1333 1333 1333 1333 1333 1338 1338 1338 1338 1343 1343 1349 1349 1349 1354 1354 1354 1354 1354 1343 1343 1343 1343 1343 1343 1343 1343 1343 1349 1349 1349 1349 1349 1477 1477 1470 1470 1477 1477 1483 1477 1477 1483 1483 1483 1483 1483 1483 1483 1489 1489 1489 1489 1489 1489 1489 1489 1489 1489 1496 1496 1503 1503 1503 1503 1509 1509 1509 1509 1509 1509 1509 1509 1509 1509 1509 1509 1509 1509 1516 1516 1516 1516 1516 1516 1516 1516 1516 1516 1516 1516 1523 1523 1333 1333 1333 1333 1328 1328 1328 1328 1328 1328 1328 1328 1328 1328 1333 1333 1338 1338 1338 1338 1343 1343 1343 1343 1343 1343 1343 1343 1343 1349 1349 1349 1349 1349 1343 1343 1343 1343 1343 1349 1349 1349 1354 1354 1354 1354 1349 1349 1349 1354 1354 1354 1359 1359 1359 1359 1359 1359 1359 1359 1359 1359 1359 1359 1359 1365 1365 1365 1365 1365 1365 1365 1365 1365 1365 1365 1365 1370 1370 1370 1370 1370 1370 1370 1376 1376 1376 1376 1381 1381 1381 1381 1381 1381 1381 1381 1376 1376 1381 1381 1381 1387 1387 1392 1398 1398 1392 1392 1392 1392 1387 1387 1387 1387 1387 1387 1387 1387 1387 1387 1387 1387 1387 1392 1387 1387 1387 1387 3037 3037 3037 3064 3064 3064 3064 3064 3064 3064 3064 3064 3064 0 1655 1655 1655 1647 1647 1639 1624 1616 1616 1616 1616 1616 1616 1616 1616 1616 1616 1616 1616 1616 1616 1624 1624 1632 1632 1639 1639 1639 1639 1639 1639 3037 3037 3037 3010 3010 3010 3010 3010 3010 3010 3010 3010 3010 3010 3010 3010 3010 3010 3010 3010 3010 3010 3010 3010 3010 3010 3010 3010 3010 3010 3010 3010 3010 3010 2984 2984 2984 2984 3010 2984 2984 2984 2984 2984 2984 2984 2984 2984 2984 2984 0 0 0 0 0 0 0 0 0 0 0
0 0 0 0 0 0 0 0 0 0 0 0 0 0 0 0 0 0 0 0 0 0 0 0 0 0 0 0 0 0 0 0 3010 2984 2984 2984 2984 2984 2984 2984 2984 2984 2984 2984 2984 2958 2958 2958 2958 2958 2958 2958 2984 2984 2984 2984 2984 2984 2984 2984 2984 2984 2984 3010 2984 2984 3010 3010 3010 3010 3010 2984 2984 2984 2984 2984 2984 2984 2984 2984 2984 3010 3010 3010 3037 3037 3037 3037 3037 3037 3037 3037 3037 3037 3037 3010 3010 3010 3010 3010 3010 2984 2984 3010 3010 3010 3010 3010 3037 3037 3037 3037 3037 3037 3037 3037 3037 3037 3064 3064 3064 3064 3064 3064 3064 3064 3064 3064 3064 3064 3064 3064 3064 3064 3064 3064 3064 3064 3064 3064 3064 3064 3064 3064 3064 3064 3037 3037 3037 3037 3010 3010 3010 3010 3010 3010 2958 2958 2958 2958 2958 2958 2958 2958 2958 2984 2984 2984 0 0 0 0 1349 1349 1349 1349 1349 1349 1349 1349 1349 1349 1354 1354 1354 1354 1354 1354 1354 1354 1354 1354 1354 1359 1359 1359 1359 1359 1359 1359 1359 1365 1365 1365 1365 1365 1365 1370 1370 1370 1255 1255 1259 1259 1259 1259 1259 1259 1259 1264 1268 1273 1273 1273 1273 1278 1278 1278 1278 1278 1278 1278 1278 1278 1278 1278 1278 1278 1278 1278 1278 1278 1283 1283 1283 1283 1283 1288 1283 1283 1283 1283 1288 1288 1288 1288 1288 1288 1288 1288 1288 1292 1288 1288 1292 1292 1292 1292 1292 1292 1292 1292 1292 1292 1292 1292 1297 1297 1297 1302 1302 1307 1307 1307 1307 1307 1307 1307 1307 1307 1312 1312 1312 1312 1312 1312 1317 1317 1317 1317 1317 1317 1317 1322 1322 1328 1328 1328 1328 1333 1333 1333 1333 1333 1333 1333 1338 1338 1338 1338 1338 1343 1343 1349 1349 1349 1354 1354 1354 1354 1354 1354 1349 1343 1343 1343 1343 1343 1349 1349 1349 1349 1349 1349 1349 1349 1477 1477 1477 1477 1477 1477 1483 1483 1483 1483 1483 1483 1483 1483 1483 1489 1489 1489 1489 1489 1489 1489 1496 1489 1489 1496 1496 1496 1503 1503 1509 1509 1509 1509 1509 1509 1509 1509 1509 1509 1509 1509 1509 1516 1516 1516 1516 1516 1516 1516 1516 1516 1516 1516 1516 1516 1516 1516 1516 1349 1343 1343 1338 1333 1333 1328 1328 1328 1333 1333 1333 1333 1333 1333 1338 1338 1338 1338 1343 1343 1343 1343 1343 1343 1343 1343 1343 1349 1349 1349 1349 1349 1349 1349 1343 1343 1343 1343 1349 1349 1354 1354 1354 1354 1354 1354 1354 1354 1354 1354 1359 1359 1359 1359 1359 1359 1359 1359 1359 1359 1359 1359 1359 1359 1359 1365 1365 1365 1365 1365 1365 1365 1365 1365 1365 1365 1370 1370 1370 1370 1370 1376 1376 1376 1376 1376 1376 1376 1381 1381 1381 1381 1381 1381 1381 1381 1376 1376 1381 1387 1387 1392 1398 1398 1398 1398 1398 1398 1392 1392 1387 1387 1387 1387 1387 1387 1387 1387 1392 1392 1392 1387 1387 1392 1392 1392 1392 2984 2984 2984 3010 3037 3037 3037 3037 3037 3037 3064 3064 3064 3064 1671 1663 1663 1663 1655 1647 1639 1624 1616 1616 1616 1616 1616 1616 1616 1616 1616 1616 1616 1616 1616 1616 1624 1624 1632 1632 1639 1639 1639 1639 1639 3037 3037 3037 3010 3010 3010 3010 3010 3010 3010 3010 3010 3010 3010 3010 3010 3010 3010 3010 3010 3010 3010 3010 3010 2984 2984 3010 3010 3010 3010 3010 3010 3010 3010 3010 2984 2984 2958 2958 2984 2958 2958 2958 2958 2958 2958 2984 2984 2958 2958 2958 0 0 0 0 0 0 0 0 0 0 0
0 0 0 0 0 0 0 0 0 0 0 0 0 0 0 0 0 0 0 0 0 0 0 0 0 0 0 0 0 0 0 0 2984 2958 2958 2958 2984 2984 2984 2984 2984 2984 2984 2958 2958 2933 2933 2933 2933 2933 2933 2958 2958 2984 2984 2984 2984 2984 2984 2984 2984 2984 2984 2984 2984 2984 2984 2984 2984 2984 2984 2958 2958 2984 2984 2958 2958 2958 2958 2984 2984 2984 2984 2984 2984 2984 2984 2984 2984 2984 2984 3037 3010 3010 3010 2984 2984 2984 2984 2984 2984 2984 2984 3010 3010 3010 3010 3010 3010 3010 3010 3010 3010 3037 3037 3037 3037 3037 3064 3037 3037 3037 3037 3037 3037 3037 3037 3037 3037 3064 3064 3037 3037 3037 3037 3037 3037 3037 3037 3037 3064 3064 3064 3064 3064 3064 3037 3037 3037 3037 3010 3010 3010 3010 3010 3010 2958 2958 2958 2958 2958 2958 2958 2958 2958 2958 2958 2984 2984 0 0 0 0 1349 1349 1349 1349 1349 1349 1354 1354 1354 1354 1354 1354 1354 1354 1354 1359 1359 1359 1359 1359 1359 1359 1359 1365 1365 1365 1365 1365 1365 1370 1370 1370 1370 1370 1376 1376 1376 1259 1259 1259 1259 1259 1259 1259 1259 1259 1268 1273 1273 1273 1273 1278 1278 1278 1278 1278 1278 1278 1278 1278 1278 1278 1278 1278 1278 1278 1278 1283 1283 1283 1283 1283 1288 1288 1288 1283 1283 1288 1288 1288 1288 1288 1288 1288 1288 1288 1288 1292 1292 1292 1292 1292 1292 1292 1292 1292 1297 1297 1292 1292 1297 1297 1297 1297 1302 1302 1302 1307 1307 1307 1307 1307 1307 1307 1307 1307 1307 1312 1312 1317 1317 1317 1317 1317 1317 1317 1322 1322 1322 1322 1328 1328 1328 1328 1328 1333 1333 1333 1333 1333 1338 1338 1338 1338 1338 1343 1343 1343 1343 1349 1349 1349 1354 1354 1354 1354 1354 1354 1354 1349 1343 1343 1343 1349 1349 1349 1349 1349 1349 1349 1349 1349 1349 1477 1477 1477 1477 1477 1483 1483 1483 1483 1483 1483 1483 1489 1489 1489 1489 1489 1489 1489 1489 1489 1489 1496 1496 1496 1496 1496 1503 1503 1503 1509 1509 1509 1509 1509 1509 1509 1509 1509 1509 1509 1516 1516 1516 1516 1516 1516 1516 1516 1516 1516 1516 1516 1516 1516 1516 1516 1516 1516 1349 1343 1343 1338 1333 1333 1328 1328 1333 1333 1333 1333 1338 1338 1338 1338 1338 1338 1343 1343 1343 1343 1343 1343 1349 1349 1349 1349 1349 1349 1354 1354 1354 1354 1354 1354 1354 1349 1349 1354 1354 1354 1354 1359 1354 1354 1359 1354 1354 1354 1359 1359 1359 1359 1359 1359 1359 1365 1365 1365 1365 1365 1365 1365 1365 1365 1365 1365 1365 1365 1365 1365 1365 1365 1365 1365 1365 1370 1370 1370 1376 1376 1376 1376 1376 1376 1381 1376 1376 1381 1381 1376 1376 1381 1381 1381 1381 1381 1381 1381 1392 1398 1404 1404 1404 1404 1404 1398 1398 1398 1392 1387 1387 1387 1387 1392 1392 1392 1392 1392 1392 1392 1387 1387 1392 1392 1392 1392 2984 2984 2958 2958 3010 3037 3037 3037 3037 3037 3037 3064 3064 3064 1671 1671 1663 1663 1655 1647 1639 1632 1616 1616 1616 1616 1616 1616 1616 1616 1616 1616 1616 1616 1624 1624 1624 1624 1632 1632 1639 1639 1647 1639 1639 3037 3037 3037 3010 2984 2984 3010 3010 3010 3010 3010 3010 3010 3010 2984 2984 2984 2984 2984 3010 2984 2984 2984 3010 2984 2984 2984 2984 3010 3010 3010 2984 2984 2984 2984 2984 2958 2958 2958 2984 2958 2958 2958 2958 2958 2958 2958 2958 2958 2958 2958 0 0 0 0 0 0 0 0 0 0 0
0 0 0 0 0 0 0 0 0 0 0 0 0 0 0 0 0 0 0 0 0 0 0 0 0 0 0 0 0 0 0 0 2958 2958 2958 2958 2958 2958 2958 2984 2958 2958 2958 2933 2933 2933 2933 2933 2933 2933 2933 2958 2958 2958 2984 2984 2984 2984 2984 2984 2984 2984 2984 2984 2984 2984 2984 2984 2984 2984 2984 2958 2958 2958 2958 2958 2958 2958 2958 2958 2958 2958 2958 2958 2984 2984 2984 2958 2958 2984 2984 2984 2984 2984 2984 2984 2984 2984 2984 2984 2984 2984 2984 2984 2984 2984 2984 2984 2984 2984 2984 3010 3010 3010 3037 3037 3037 3037 3037 3037 3037 3010 3010 3037 3037 3010 3010 3010 3037 3037 3037 3037 3037 3037 3037 3037 3037 3037 3037 3037 3064 3064 3064 3064 3064 3064 3037 3037 3037 3010 3010 3010 3010 3010 3010 3010 2984 2984 2958 2958 2958 2958 2958 2958 2958 2958 2958 2984 2984 0 0 0 0 0 1349 1349 1349 1354 1354 1354 1354 1354 1354 1354 1354 1354 1354 1354 1359 1359 1359 1359 1359 1365 1365 1365 1365 1365 1370 1370 1370 1370 1370 1370 1376 1376 1376 1376 1376 1376 1259 1259 1259 1259 1259 1259 1259 1264 1264 1268 1273 1273 1273 1278 1278 1278 1278 1278 1278 1278 1278 1278 1278 1278 1278 1278 1278 1278 1278 1278 1283 1283 1283 1288 1288 1288 1288 1292 1283 1283 1288 1288 1288 1288 1288 1288 1288 1288 1292 1292 1292 1292 1292 1292 1292 1292 1292 1292 1292 1297 1297 1297 1297 1297 1302 1302 1302 1302 1307 1307 1307 1307 1307 1307 1307 1307 1307 1307 1307 1312 1312 1312 1317 1317 1317 1317 1322 1322 1322 1322 1322 1322 1328 1328 1328 1328 1328 1333 1333 1333 1333 1333 1338 1338 1338 1338 1343 1343 1343 1343 1349 1349 1349 1349 1354 1354 1354 1354 1354 1354 1354 1354 1349 1349 1349 1349 1349 1349 1349 1349 1349 1349 1349 1349 1349 1349 1477 1477 1477 1477 1483 1483 1483 1483 1483 1483 1483 1489 1489 1489 1489 1489 1489 1489 1489 1489 1489 1496 1496 1496 1496 1496 1503 1503 1503 1509 1509 1509 1509 1509 1509 1509 1509 1509 1509 1509 1509 1516 1516 1516 1516 1516 1516 1516 1516 1516 1516 1516 1516 1516 1516 1516 1516 1516 1516 1349 1343 1343 1338 1338 1333 1333 1333 1333 1338 1338 1338 1338 1338 1338 1338 1343 1343 1343 1343 1343 1343 1343 1349 1349 1349 1349 1349 1354 1354 1354 1354 1359 1359 1359 1354 1354 1354 1354 1354 1359 1359 1359 1359 1354 1354 1359 1354 1354 1354 1359 1359 1359 1359 1365 1365 1365 1365 1365 1365 1365 1365 1365 1365 1365 1370 1370 1370 1370 1370 1370 1365 1365 1370 1370 1370 1370 1376 1376 1376 1376 1376 1381 1376 1376 1376 1381 1376 1376 1381 1381 1376 1376 1381 1381 1381 1381 1381 1381 1398 1398 1410 1410 1415 1415 1410 1404 1404 1404 1398 1398 1392 1392 1392 1392 1392 1392 1392 1398 1398 1398 1392 1392 1392 1392 1392 1392 2984 2958 2958 2958 2958 2958 2984 3010 3010 3010 3010 3037 3037 3037 0 1671 1671 1663 1663 1655 1647 1647 1639 1624 1624 1624 1616 1616 1616 1616 1616 1616 1616 1616 1624 1624 1624 1632 1632 1639 1639 1639 1639 1647 1647 1647 3037 3037 3037 3010 2984 2984 2984 3010 3010 3010 3010 2984 2984 2984 2984 2984 2984 2984 2984 2984 2984 2958 2958 2984 2984 2984 2984 2984 2984 2984 2984 2958 2958 2958 2984 2984 2958 2958 2958 2984 2958 2958 2933 2933 2933 2933 2933 2958 2958 2933 2933 0 0 0 0 0 0 0 0 0 0 0
0 0 0 0 0 0 0 0 0 0 0 0 0 0 0 0 0 0 0 0 0 0 0 0 0 0 0 0 0 0 0 0 2958 2933 2933 2958 2958 2933 2933 2958 2958 2933 2933 2933 2933 2908 2908 2933 2933 2933 2933 2933 2933 2958 2958 2958 2958 2958 2958 2958 2958 2958 2958 2958 2958 2958 2958 2984 2984 2984 2984 2958 2958 2958 2958 2958 2958 2958 2958 2958 2958 2958 2958 2958 2958 2958 2958 2958 2958 2958 2958 2958 2958 2984 2984 2984 2984 2984 2984 2984 2984 2984 2984 2984 2984 2984 2984 2984 2984 2984 2984 2984 2984 2984 2984 2984 3010 3010 3010 3010 3010 3010 3010 3010 3010 3010 3010 3010 3010 3010 3010 3010 3010 3037 3037 3037 3037 3037 3037 3037 3037 3037 3064 3064 3037 3037 3037 3010 3010 3010 3010 3010 3010 3010 3010 3010 2984 2984 2984 2958 2958 2958 2958 2958 2984 2984 2984 2984 2984 2984 0 0 0 1354 1354 1354 1354 1354 1354 1354 1354 1354 1359 1359 1359 1359 1359 1359 1359 1365 1365 1365 1365 1365 1370 1370 1370 1370 1370 1376 1376 1376 1376 1376 1376 1376 1376 1381 1381 1381 1255 1255 1259 1259 1264 1264 1264 1264 1264 1268 1273 1273 1273 1278 1278 1278 1278 1278 1278 1278 1283 1283 1283 1283 1283 1283 1283 1283 1283 1283 1283 1288 1288 1288 1288 1288 1288 1292 1288 1288 1288 1288 1288 1288 1288 1288 1292 1292 1292 1292 1292 1292 1292 1292 1297 1297 1297 1297 1297 1297 1302 1302 1302 1302 1302 1302 1302 1307 1307 1307 1307 1307 1312 1312 1312 1312 1312 1312 1312 1312 1312 1312 1317 1317 1322 1322 1322 1322 1322 1322 1322 1328 1328 1328 1328 1333 1333 1333 1333 1333 1338 1338 1338 1338 1343 1343 1343 1343 1349 1349 1349 1349 1349 1354 1354 1354 1354 1354 1354 1354 1354 1354 1349 1349 1349 1349 1349 1349 1349 1349 1349 1354 1354 1349 1349 1349 1483 1483 1483 1483 1483 1483 1483 1483 1489 1489 1489 1489 1489 1489 1489 1489 1489 1496 1496 1496 1496 1496 1496 1496 1503 1503 1503 1503 1509 1509 1509 1509 1509 1509 1509 1509 1509 1509 1509 1509 1516 1516 1516 1516 1516 1516 1516 1516 1516 1516 1516 1516 1516 1516 1516 1516 1509 1509 1354 1349 1349 1343 1338 1338 1333 1333 1333 1333 1338 1338 1338 1338 1338 1338 1338 1343 1343 1343 1343 1343 1343 1343 1349 1349 1349 1354 1354 1354 1354 1359 1359 1359 1359 1359 1359 1359 1359 1359 1359 1359 1359 1359 1359 1359 1359 1359 1359 1359 1359 1359 1359 1359 1359 1359 1365 1365 1365 1365 1370 1370 1365 1365 1365 1370 1370 1370 1370 1376 1376 1370 1359 1359 1365 1365 1365 1376 1381 1381 1381 1381 1381 1381 1381 1376 1376 1381 1381 1381 1381 1381 2984 2984 2984 2984 2984 2984 1427 1427 1427 1427 1421 1421 1421 1421 1415 1410 1404 1404 1404 1398 1398 1398 1392 1392 1398 1398 1398 1398 1398 1398 1398 1392 1392 1392 1392 2984 2984 2984 2958 2958 2958 2958 2984 3010 3010 3010 3010 3037 3037 3037 1671 1671 1671 1671 1663 1663 1655 1647 1639 1624 1624 1616 1616 1616 1616 1616 1616 1616 1616 1624 1624 1624 1632 1632 1639 1639 1639 1647 1647 1647 1647 1647 3037 3010 3010 2984 2984 2984 2984 2984 2984 2984 2984 2984 2984 2984 2958 2958 2958 2958 2958 2958 2958 2958 2958 2958 2958 2958 2958 2958 2958 2958 2958 2958 2958 2958 2958 2958 2958 2958 2958 2958 2958 2933 2933 2933 2933 2933 2933 2933 2933 2933 2933 0 0 0 0 0 0 0 0 0 0 0
0 0 0 0 0 0 0 0 0 0 0 0 0 0 0 0 0 0 0 0 0 0 0 0 0 0 0 0 0 0 0 0 2933 2933 2933 2933 2933 2908 2908 2933 2933 2933 2908 2908 2908 2908 2908 2908 2908 2908 2908 2908 2908 2933 2933 2933 2958 2958 2958 2958 2958 2933 2933 2958 2958 2958 2958 2958 2984 2984 2984 2958 2958 2958 2958 2958 2933 2933 2958 2958 2958 2958 2958 2958 2958 2958 2958 2933 2933 2958 2958 2958 2958 2958 2958 2958 2958 2958 2958 2958 2958 2958 2958 2958 2958 2958 2958 2984 2984 2984 2984 2984 2984 2984 2984 2984 2984 2984 3010 3010 3010 3010 3010 3010 2984 2984 2984 2984 2984 2984 2984 2984 2984 3010 3010 3010 3010 3010 3010 3010 3010 3010 3010 3010 3010 3010 3010 3010 3010 3010 3010 3010 3010 3010 3010 3010 2984 2984 2958 2958 2958 2958 2958 2958 2984 2984 2984 2984 2984 2984 2984 0 2958 0 0 1354 1354 1359 1359 1359 1359 1359 1359 1359 1359 1359 1359 1365 1365 1365 1365 1365 1365 1370 1370 1370 1376 1376 1376 1376 1376 1381 1381 1381 1381 1381 1381 1381 1381 1387 1255 1255 1259 1264 1264 1264 1264 1264 1268 1273 1273 1273 1273 1278 1278 1278 1278 1278 1283 1283 1288 1288 1288 1288 1283 1283 1283 1283 1283 1283 1288 1288 1288 1288 1292 1292 1292 1292 1288 1288 1288 1288 1288 1292 1292 1292 1292 1292 1292 1292 1292 1292 1292 1297 1297 1297 1297 1297 1297 1302 1302 1302 1302 1302 1307 1307 1307 1307 1307 1307 1312 1312 1312 1312 1312 1312 1312 1312 1312 1312 1312 1317 1322 1322 1322 1322 1328 1328 1328 1328 1328 1328 1328 1333 1333 1333 1333 1338 1338 1338 1338 1338 1343 1343 1343 1343 1343 1349 1349 1349 1349 1349 1349 1354 1354 1354 1354 1354 1359 1354 1354 1354 1349 1349 1349 1349 1349 1349 1349 1349 1349 1354 1354 1349 1349 1483 1483 1483 1483 1483 1483 1483 1483 1489 1489 1489 1489 1489 1489 1489 1489 1489 1489 1496 1496 1496 1496 1503 1503 1503 1503 1503 1503 1503 1509 1509 1509 1509 1509 1509 1509 1509 1509 1509 1509 1509 1509 1509 1509 1509 1509 1516 1516 1516 1516 1516 1516 1516 1516 1516 1516 1523 1509 1509 1354 1354 1349 1349 1343 1338 1338 1338 1338 1338 1338 1343 1343 1338 1338 1338 1343 1343 1343 1343 1343 1343 1343 1343 1349 1354 1354 1354 1354 1359 1359 1359 1359 1359 1359 1359 1359 1359 1359 1359 1365 1365 1365 1365 1365 1359 1359 1359 1359 1354 1354 1359 1359 1359 1359 1359 1365 1365 1365 1370 1370 1370 1370 1370 1370 1370 1376 1381 2028 2040 2040 2053 1359 1359 1365 1365 1365 1376 1381 3010 3010 3010 3010 3010 3010 3010 3010 3010 3010 3010 3010 3010 2984 2984 2984 2984 2984 0 0 1433 1433 1427 1427 1421 1421 1421 1415 1410 1404 1404 1404 1398 1398 1398 1398 1398 1398 1398 1398 1398 1404 1398 1398 1398 1398 1398 1398 2984 2984 2984 2984 2958 2958 2958 2984 2984 3010 3010 3010 3037 3037 3037 1671 1671 1671 1671 1671 1663 1663 1655 1639 1624 1624 1616 1616 1616 1616 1616 1616 1616 1616 1624 1624 1624 1632 1639 1639 1639 1639 1647 1647 1647 1647 1647 2958 2958 2958 2958 2933 2933 2958 2958 2958 2958 2958 2933 2933 2933 2933 2933 2933 2933 2933 2933 2933 2933 2933 2933 2933 2933 2958 2958 2958 2958 2958 2933 2933 2933 2933 2933 2933 2933 2933 2933 2933 2933 2908 2908 2908 2908 2933 2933 2933 2933 2933 0 0 0 0 0 0 0 0 0 0 0
0 0 0 0 0 0 0 0 0 0 0 0 0 0 0 0 0 0 0 0 0 0 0 0 0 0 0 0 0 0 0 0 2933 2908 2908 2908 2908 2908 2908 2908 2908 2908 2908 2908 2908 2883 2883 2883 2908 2908 2908 2908 2908 2908 2933 2933 2933 2958 2933 2933 2933 2933 2933 2933 2933 2933 2933 2933 2958 2958 2958 2933 2933 2933 2933 2933 2933 2933 2933 2933 2933 2933 2933 2933 2933 2933 2933 2933 2933 2933 2933 2933 2933 2958 2958 2958 2958 2958 2958 2958 2958 2958 2958 2958 2958 2958 2958 2984 2984 2984 2984 2984 2984 2984 2958 2958 2984 2984 2984 2984 2984 2984 2984 2984 2984 2984 2984 2984 2984 2984 2984 2984 2984 2984 2984 3010 2984 2984 2984 2984 3010 3010 3010 3010 2984 2984 2984 2984 2984 2984 3010 3010 3010 3010 3010 3010 2984 2984 2958 2958 2958 2958 2958 2958 2958 2958 2958 2958 2958 2958 2958 2958 0 0 0 0 1359 1359 1359 1359 1359 1359 1359 1359 1359 1359 1359 1365 1365 1365 1370 1370 1370 1370 1376 1376 1376 1376 1381 1381 1381 1381 1381 1381 1381 1381 1381 1387 1387 1387 1259 1259 1259 1264 1264 1268 1268 1268 1273 1273 1273 1278 1278 1278 1278 1278 1283 1283 1283 1283 1288 1288 1288 1288 1288 1288 1288 1288 1288 1288 1288 1292 1292 1292 1292 1292 1292 1292 1288 1288 1288 1292 1292 1292 1292 1292 1292 1292 1292 1292 1297 1297 1297 1297 1302 1302 1302 1302 1302 1302 1307 1307 1307 1307 1307 1307 1307 1307 1307 1307 1312 1312 1312 1312 1312 1312 1312 1312 1312 1312 1317 1317 1322 1322 1328 1328 1328 1328 1328 1328 1328 1328 1333 1333 1333 1333 1333 1338 1338 1338 1338 1338 1343 1343 1343 1343 1343 1349 1349 1349 1349 1349 1349 1354 1354 1354 1354 1354 1359 1359 1354 1354 1349 1349 1349 1349 1349 1354 1354 1354 1354 1354 1354 1354 1354 1483 1483 1483 1483 1483 1483 1483 1483 1489 1489 1489 1489 1489 1489 1489 1489 1489 1496 1496 1496 1496 1496 1503 1503 1503 1503 1503 1509 1509 1509 1509 1509 1509 1509 1509 1509 1509 1509 1509 1509 1509 1509 1509 1509 1509 1509 1516 1516 1516 1516 1516 1516 1523 1523 1970 1970 1970 1970 1359 1359 1354 1349 1349 1343 1343 1338 1338 1338 1338 1343 1343 1343 1338 1338 1343 1343 1343 1343 1343 1343 1343 1343 1343 1349 1354 1354 1354 1354 1354 1359 1359 1359 1365 1365 1359 1359 1359 1359 1365 1365 1365 1365 1365 1993 1993 1993 1993 1993 1354 1354 1359 1359 1359 1359 1359 1365 2005 2005 2005 1381 1381 1381 1381 2016 2016 2028 2028 2028 2028 2028 2040 2040 2984 2984 2984 3010 2984 2984 2984 2984 2984 3010 3010 3010 3010 3010 3010 3010 3010 3010 3010 2984 2984 2984 2984 2984 0 0 1439 1439 1427 1427 1421 1421 1421 1415 1415 1410 1410 1404 1398 1398 1398 1398 1398 1398 1398 1398 1404 1404 1404 1404 1404 1404 1404 1410 2984 2984 2984 2984 2958 2958 2958 2984 2984 2984 2984 2984 3037 3037 3037 1671 1671 1671 1671 1671 1671 1663 1655 1647 1639 1632 1624 1616 1616 1616 1616 1624 1624 1624 1624 1632 1632 1639 1639 1639 1639 1639 1647 1647 1647 1647 1647 2958 2958 2958 2958 2933 2933 2933 2933 2933 2933 2933 2933 2933 2933 2908 2908 2933 2908 2908 2933 2933 2933 2933 2933 2933 2933 2933 2933 2933 2933 2933 2933 2933 2933 2908 2908 2908 2908 2908 2908 2908 2908 2908 2908 2908 2908 2908 2908 2908 2908 2908 0 0 0 0 0 0 0 0 0 0 0
0 0 0 0 0 0 0 0 0 0 0 0 0 0 0 0 0 0 0 0 0 0 0 0 0 0 0 0 0 0 0 0 2908 2908 2908 2908 2908 2908 2908 2908 2908 2908 2908 2883 2883 2883 2883 2883 2908 2908 2908 2908 2908 2908 2908 2908 2908 2933 2908 2908 2933 2908 2908 2908 2908 2908 2933 2933 2933 2933 2933 2908 2908 2908 2908 2908 2908 2908 2908 2908 2908 2908 2908 2933 2933 2933 2933 2933 2933 2933 2933 2933 2933 2933 2933 2933 2958 2958 2958 2958 2958 2958 2958 2958 2958 2958 2958 2958 2958 2958 2958 2958 2958 2958 2958 2958 2958 2984 2984 2984 2984 2984 2984 2984 2984 2984 2984 2984 2984 2984 2984 2984 2984 2984 2984 2984 2984 2984 2984 2984 2984 2984 2984 2984 2984 2984 2984 2984 2984 2984 2984 2984 2984 2984 2984 2984 2958 2958 2958 2958 2958 2958 2958 2958 2958 2958 2958 2958 2958 2958 2958 2958 2958 0 0 0 1359 1359 1359 1359 1359 1359 1359 1359 1359 1365 1365 1365 1365 1370 1370 1370 1370 1376 1376 1376 1376 1381 1381 1381 1381 1381 1381 1381 1387 1387 1387 1387 1387 1392 1392 1264 1264 1268 1268 1268 1268 1273 1273 1273 1273 1278 1278 1278 1278 1278 1283 1283 1283 1283 1288 1288 1288 1288 1292 1292 1292 1292 1292 1292 1292 1292 1292 1292 1292 1292 1292 1292 1288 1288 1292 1292 1292 1292 1292 1292 1292 1292 1292 1292 1297 1297 1302 1302 1302 1302 1307 1307 1307 1307 1307 1307 1307 1307 1307 1307 1312 1312 1312 1312 1312 1312 1312 1312 1312 1312 1317 1317 1317 1317 1317 1322 1328 1328 1328 1328 1328 1328 1328 1328 1328 1333 1333 1333 1333 1333 1338 1338 1343 1343 1343 1343 1343 1349 1349 1349 1349 1349 1349 1349 1349 1349 1354 1354 1354 1354 1354 1354 1359 1359 1354 1354 1354 1354 1354 1354 1354 1354 1354 1354 1354 1354 1354 1354 1354 1483 1483 1483 1483 1483 1483 1483 1489 1489 1489 1489 1489 1489 1489 1496 1489 1489 1496 1496 1496 1496 1496 1503 1503 1503 1503 1503 1509 1509 1509 1509 1509 1509 1509 1509 1509 1509 1509 1509 1509 1509 1509 1509 1509 1509 1516 1516 1516 1516 1516 1959 1959 1970 1970 1970 1970 1970 0 1359 1359 1354 1349 1349 1343 1343 1343 1343 1343 1343 1343 1343 1349 1343 1343 1343 1343 1343 1343 1343 1343 1343 1343 1343 1343 1349 1354 1354 1354 1354 1359 1981 1993 1993 1993 1993 1993 1993 1993 1993 1993 1993 1993 1993 1993 1993 1993 1993 1993 1993 1993 2005 2005 2005 2005 2005 2005 2005 2005 2005 2005 2005 2005 2005 2016 2016 2016 2016 2028 2028 2028 2040 2040 2984 2984 2984 2984 2984 2984 2984 2984 2984 2984 2984 3010 2984 2984 3010 3010 3010 3010 3010 2984 2984 2984 2984 2984 0 1445 1445 1445 1433 1427 1427 1421 1421 1415 1415 1410 1410 1404 1398 1398 1398 1398 1398 1398 1398 1404 1404 1404 1404 1404 1404 1404 1410 1410 2984 2984 2984 2958 2958 2958 2958 2958 2958 2984 2984 2984 2984 2984 0 1663 1663 1663 1671 1671 1663 1663 1655 1647 1639 1632 1624 1616 1616 1616 1616 1624 1624 1632 1632 1632 1639 1639 1639 1639 1647 1647 1647 1647 1647 1647 1647 2958 2958 2958 2958 2933 2933 2933 2933 2933 2933 2933 2933 2933 2933 2908 2908 2908 2908 2908 2908 2908 2908 2908 2933 2908 2908 2908 2908 2908 2908 2908 2908 2908 2908 2908 2908 2908 2908 2908 2883 2883 2883 2883 2883 2883 2883 2883 2908 2908 2908 2908 0 0 0 0 0 0 0 0 0 0 0
0 0 0 0 0 0 0 0 0 0 0 0 0 0 0 0 0 0 0 0 0 0 0 0 0 0 0 0 0 0 0 0 2908 2908 2908 2908 2908 2883 2883 2883 2883 2883 2883 2883 2883 2883 2883 2883 2883 2883 2883 2883 2883 2908 2908 2908 2908 2908 2908 2908 2908 2908 2908 2908 2908 2908 2908 2933 2933 2933 2933 2908 2908 2883 2883 2883 2883 2883 2883 2883 2883 2908 2908 2908 2908 2908 2908 2908 2908 2908 2933 2908 2908 2933 2933 2933 2933 2958 2958 2933 2933 2933 2933 2933 2933 2958 2958 2958 2958 2958 2958 2958 2958 2958 2958 2958 2958 2958 2958 2958 2958 2958 2958 2958 2958 2958 2958 2958 2958 2958 2958 2958 2958 2984 2984 2984 2984 2984 2984 2984 2984 2984 2984 2984 2984 2984 2984 2958 2958 2958 2984 2984 2984 2984 2984 2984 2958 2958 2958 2958 2958 2958 2958 2958 2958 2958 2958 2958 2933 2933 2958 2958 2958 2958 0 0 0 1365 1365 1359 1359 1359 1365 1365 1365 1370 1370 1370 1370 1370 1376 1376 1376 1376 1376 1376 1381 1381 1381 1381 1381 1381 1387 1387 1387 1387 1387 1387 1392 1392 1392 1398 1268 1268 1268 1273 1273 1273 1273 1273 1278 1278 1278 1278 1283 1283 1288 1288 1288 1288 1288 1288 1292 1292 1292 1292 1292 1292 1292 1292 1292 1292 1297 1297 1297 1297 1297 1297 1292 1292 1292 1292 1292 1292 1292 1292 1292 1297 1297 1297 1302 1302 1302 1302 1302 1302 1307 1307 1307 1307 1307 1307 1312 1312 1312 1312 1312 1312 1312 1312 1312 1312 1317 1317 1317 1317 1317 1317 1317 1317 1317 1322 1328 1328 1328 1328 1328 1328 1328 1328 1328 1333 1333 1333 1333 1333 1338 1338 1338 1343 1343 1343 1349 1349 1349 1349 1349 1349 1349 1349 1349 1349 1354 1354 1354 1354 1354 1354 1359 1359 1359 1359 1354 1354 1354 1354 1354 1359 1359 1359 1359 1359 1359 1359 1359 1483 1483 1483 1483 1483 1489 1489 1489 1489 1489 1489 1489 1496 1496 1496 1496 1496 1496 1496 1496 1496 1496 1496 1496 1496 1503 1503 1509 1509 1509 1509 1509 1509 1509 1509 1509 1509 1509 1509 1509 1509 1509 1509 1509 1959 1959 1959 1959 1959 1959 1959 1959 1970 1970 1970 1970 1970 0 1359 1359 1354 1349 1349 1343 1343 1343 1343 1343 1343 1349 1349 1349 1343 1343 1343 1343 1343 1343 1343 1343 1343 1338 1338 1343 1349 1354 1993 1993 1993 1993 1993 1993 1993 1993 1993 1993 1993 1993 1993 1993 1993 1993 1993 1993 1993 1993 2005 2005 2005 2005 2005 2005 2005 2005 2005 2005 2005 2005 2016 2016 2016 2016 2016 2016 2016 2016 2016 2028 2028 2028 2040 2984 2984 2984 2984 2984 2984 2984 2984 2984 2984 2984 2984 3010 2984 2984 2984 2984 2984 2984 2984 2958 2958 2984 2984 0 0 1445 1445 1445 1433 1427 1427 1421 1421 1415 1415 1410 1410 1404 1398 1398 1398 1398 1404 1404 1404 1404 1404 1404 1404 1404 1404 1404 1410 1410 2958 2958 2958 2958 2958 2958 2958 2958 2958 2958 2958 2958 2984 2984 0 1663 1663 1663 1671 1671 1663 1663 1655 1647 1632 1632 1624 1616 1616 1624 1624 1632 1632 1632 1639 1639 1639 1639 1639 1647 1647 1647 1647 1647 1647 1647 1647 2933 2933 2933 2933 2908 2908 2933 2933 2933 2933 2933 2933 2933 2908 2908 2908 2908 2908 2908 2908 2908 2908 2908 2908 2908 2908 2908 2908 2908 2908 2908 2908 2908 2908 2908 2883 2883 2883 2883 2883 2859 2859 2859 2883 2883 2883 2883 2883 2883 2883 2908 0 0 0 0 0 0 0 0 0 0 0
0 0 0 0 0 0 0 0 0 0 0 0 0 0 0 0 0 0 0 0 0 0 0 0 0 0 0 0 0 0 0 0 2908 2908 2908 2883 2883 2883 2883 2883 2883 2883 2883 2883 2883 2859 2859 2883 2883 2883 2883 2883 2883 2883 2883 2883 2883 2908 2908 2908 2908 2908 2908 2908 2908 2908 2908 2908 2908 2908 2908 2908 2883 2883 2883 2883 2883 2883 2883 2883 2883 2883 2883 2908 2908 2908 2908 2908 2908 2908 2908 2908 2908 2933 2933 2908 2908 2933 2933 2908 2908 2908 2933 2908 2908 2933 2933 2933 2933 2933 2933 2933 2933 2933 2933 2933 2933 2958 2958 2958 2958 2958 2958 2958 2958 2958 2958 2958 2958 2958 2958 2958 2958 2958 2958 2958 2958 2984 2984 2984 2984 2984 2984 2958 2958 2958 2958 2958 2958 2958 2958 2958 2984 2984 2984 2984 2958 2958 2958 2958 2958 2958 2958 2958 2958 2958 2933 2933 2933 2933 2958 2958 2958 2958 0 0 0 0 0 1359 1359 1359 1365 1365 1365 1370 1370 1370 1370 1370 1376 1376 1376 1376 1376 1381 1381 1381 1381 1381 1381 1381 1387 1387 1387 1387 1392 1392 1392 1392 1392 1398 1273 1273 1273 1273 1273 1273 1273 1273 1278 1278 1278 1283 1283 1283 1288 1288 1288 1288 1292 1292 1292 1292 1292 1292 1292 1292 1292 1292 1292 1292 1297 1297 1297 1297 1297 1297 1292 1292 1292 1292 1292 1292 1297 1297 1297 1297 1297 1302 1302 1302 1302 1307 1307 1307 1307 1307 1307 1307 1307 1307 1312 1312 1312 1312 1312 1312 1312 1312 1317 1317 1317 1317 1317 1317 1322 1322 1317 1317 1322 1322 1328 1328 1328 1328 1328 1328 1328 1328 1328 1328 1328 1328 1333 1333 1338 1338 1338 1343 1343 1349 1349 1349 1349 1349 1349 1349 1349 1349 1349 1470 1470 1470 1470 1470 1470 1359 1359 1359 1359 1359 1354 1354 1354 1359 1359 1359 1359 1359 1359 1359 1359 1359 1359 1483 1483 1489 1489 1489 1489 1489 1489 1489 1489 1489 1489 1496 1496 1496 1496 1496 1496 1496 1496 1496 1496 1496 1496 1496 1503 1503 1509 1509 1509 1947 1947 1959 1959 1959 1959 1959 1959 1959 1959 1959 1959 1959 1959 1959 1959 1959 1959 1959 1959 1959 1959 1970 1970 1970 1970 1970 0 1359 1359 1354 1349 1349 1349 1349 1349 1349 1349 1349 1349 1349 1349 1343 1343 1343 1343 1343 1343 1343 1343 1338 1338 1338 1343 1993 1993 1993 1993 1993 1993 1993 1993 1993 1993 1993 1993 1993 1993 1993 1993 1993 1993 1993 1993 1993 2005 2005 2005 2005 2005 2005 2005 2005 2005 2005 2005 2005 2005 2016 2016 2016 2016 2016 2016 2028 2028 2028 2028 2028 2028 2040 2984 2984 2984 2984 2984 2984 2984 2984 2984 2984 2984 2984 2984 2984 2984 2984 2984 2984 2984 2984 2958 2958 2984 0 0 0 1445 1439 1439 1433 1427 1427 1421 1421 1410 1410 1410 1404 1404 1404 1398 1398 1398 1404 1404 1404 1404 1404 1404 1410 1410 1410 1410 1410 2908 2933 2933 2933 2958 2958 2958 2958 2958 2958 2958 2958 2958 2958 2958 1663 1663 1663 1671 1671 1671 1671 1663 1655 1639 1632 1624 1624 1624 1624 1624 1632 1632 1632 1639 1639 1639 1639 1647 1647 1647 1647 1647 1647 1647 1647 1647 2933 2933 2933 2933 2933 2908 2908 2908 2908 2908 2908 2908 2908 2908 2908 2908 2908 2908 2908 2908 2908 2908 2908 2908 2908 2883 2883 2883 2883 2908 2908 2883 2883 2883 2883 2883 2859 2859 2859 2859 2859 2859 2859 2859 2859 2859 2859 2859 2859 2883 2883 2883 0 0 0 0 0 0 0 0 0 0 0
0 0 0 0 0 0 0 0 0 0 0 0 0 0 0 0 0 0 0 0 0 0 0 0 0 0 0 0 0 0 0 0 2883 2883 2883 2883 2883 2883 2883 2883 2883 2883 2883 2859 2859 2859 2859 2883 2883 2883 2883 2883 2883 2883 2883 2883 2883 2883 2883 2883 2908 2908 2908 2908 2908 2908 2908 2908 2908 2908 2908 2883 2883 2883 2883 2883 2883 2859 2859 2859 2883 2883 2883 2883 2908 2908 2908 2908 2908 2908 2908 2908 2908 2908 2908 2908 2908 2933 2908 2908 2908 2908 2908 2883 2883 2908 2908 2908 2908 2933 2933 2933 2933 2933 2933 2933 2933 2933 2933 2933 2933 2933 2933 2933 2933 2933 2958 2958 2958 2958 2958 2958 2958 2958 2958 2958 2958 2958 2958 2958 2958 2958 2958 2958 2958 2958 2958 2958 2933 2933 2958 2958 2958 2958 2958 2958 2933 2933 2933 2933 2933 2933 2933 2933 2933 2933 2933 2933 2933 2933 2933 2933 2933 2958 0 0 0 0 0 1359 1359 1365 1365 1365 1365 1370 1370 1370 1370 1370 1376 1376 1376 1376 1376 1381 1381 1381 1381 1381 1381 1387 1387 1387 1392 1392 1392 1392 1392 1392 1392 1398 1273 1273 1273 1273 1273 1278 1278 1278 1278 1278 1283 1283 1288 1288 1292 1292 1292 1292 1292 1292 1292 1292 1292 1292 1292 1292 1292 1292 1297 1297 1297 1297 1297 1297 1297 1297 1292 1292 1292 1297 1297 1297 1297 1297 1297 1297 1302 1302 1302 1302 1302 1307 1307 1307 1307 1307 1307 1307 1307 1312 1312 1312 1312 1312 1312 1312 1312 1312 1317 1317 1322 1317 1317 1322 1322 1322 1322 1322 1322 1322 1328 1328 1328 1328 1328 1328 1328 1328 1328 1328 1328 1328 1328 1328 1333 1338 1338 1464 1464 1464 1464 1470 1470 1470 1470 1470 1470 1470 1470 1470 1470 1477 1477 1477 1477 1477 1359 1359 1359 1359 1359 1359 1359 1359 1359 1359 1359 1359 1359 1359 1365 1359 1359 1365 1483 1489 1489 1489 1489 1489 1489 1489 1489 1489 1496 1496 1496 1496 1496 1496 1496 1496 1496 1496 1496 1496 1496 1496 1503 1503 1509 1947 1947 1947 1947 1947 1959 1959 1959 1959 1959 1959 1959 1959 1970 1970 1970 1970 1970 1970 1970 1959 1959 1959 1959 1970 1970 1970 1970 1970 1365 1359 1359 1354 1349 1349 1349 1349 1349 1349 1349 1349 1349 1349 1349 1343 1343 1343 1343 1343 1343 1343 1338 1338 1338 1981 1993 1993 1993 1993 1993 1993 1993 1993 1993 1993 1993 1993 2005 2005 2005 2005 1993 1993 1993 1993 1993 2005 2005 2005 2005 2005 2005 2005 1993 1993 2005 2005 2005 2016 2016 2016 2016 2016 2016 2016 2016 2028 2028 2028 2028 2040 2040 2040 2984 2984 2958 2958 2958 2958 2958 2958 2958 2958 2958 2984 2984 2984 2984 2984 2984 2984 2984 2984 2958 2958 2958 0 0 0 1445 1439 1439 1433 1427 1427 1421 1415 1410 1410 1410 1404 1404 1404 1404 1404 1404 1404 1404 1404 1404 1404 1410 1410 1410 1410 1410 1410 2908 2908 2908 2933 2933 2933 2933 2933 2933 2958 2958 2958 2958 2958 0 1663 1663 1663 1671 1671 1671 1663 1663 1647 1639 1632 1624 1624 1624 1624 1624 1632 1632 1639 1639 1639 1639 1639 1647 1647 1647 1647 1655 1655 1655 1647 1647 2908 2933 2933 2933 2933 2908 2908 2908 2908 2908 2908 2908 2908 2908 2908 2908 2908 2908 2908 2908 2908 2883 2883 2883 2883 2883 2883 2883 2883 2883 2883 2883 2859 2859 2859 2859 2835 2835 2835 2859 2859 2859 2859 2859 2859 2859 2859 2859 2859 2859 2859 2859 0 0 0 0 0 0 0 0 0 0 0
0 0 0 0 0 0 0 0 0 0 0 0 0 0 0 0 0 0 0 0 0 0 0 0 0 0 0 0 0 0 0 0 2883 2883 2883 2859 2859 2859 2859 2859 2859 2859 2859 2835 2835 2859 2859 2859 2859 2859 2859 2859 2883 2883 2883 2883 2883 2883 2883 2883 2908 2883 2883 2883 2883 2883 2883 2883 2883 2908 2908 2883 2883 2859 2859 2859 2859 2859 2859 2859 2883 2883 2883 2883 2883 2883 2883 2908 2883 2883 2883 2883 2908 2908 2908 2908 2908 2908 2908 2908 2883 2883 2883 2883 2883 2883 2883 2908 2908 2908 2908 2908 2908 2908 2908 2908 2908 2933 2933 2933 2933 2933 2933 2933 2933 2933 2933 2933 2933 2933 2933 2958 2958 2933 2933 2933 2933 2933 2933 2933 2958 2958 2933 2933 2933 2933 2933 2933 2933 2933 2958 2958 2958 2958 2958 2958 2933 2933 2933 2933 2933 2933 2933 2933 2933 2933 2933 2933 2933 2933 2933 2933 2933 2933 0 0 0 0 0 1359 1359 1365 1365 1365 1365 1370 1370 1370 1370 1376 1376 1376 1376 1376 1381 1381 1381 1381 1381 1381 1381 1387 1387 1387 1392 1392 1392 1392 1392 1392 1392 1398 1273 1273 1273 1273 1273 1278 1278 1278 1278 1283 1283 1288 1292 1292 1292 1292 1292 1292 1292 1292 1292 1292 1292 1297 1297 1297 1297 1297 1297 1297 1302 1302 1302 1302 1302 1302 1297 1297 1297 1297 1297 1297 1302 1302 1302 1302 1302 1307 1307 1307 1307 1307 1307 1307 1307 1307 1307 1307 1307 1312 1312 1312 1312 1312 1312 1312 1312 1312 1317 1317 1322 1322 1322 1322 1322 1322 1322 1322 1322 1322 1328 1328 1328 1328 1328 1328 1328 1328 1328 1328 1328 1328 1328 1328 1333 1464 1464 1464 1464 1464 1464 1464 1464 1464 1470 1470 1470 1470 1470 1470 1470 1477 1470 1470 1477 1477 1477 1359 1359 1365 1359 1359 1359 1359 1359 1365 1365 1365 1365 1365 1365 1365 1365 1365 1489 1489 1489 1489 1489 1489 1489 1489 1489 1489 1489 1496 1496 1496 1496 1496 1496 1503 1503 1496 1496 1496 1496 1496 1503 1503 1516 1947 1947 1947 1947 1947 1959 1959 1959 1959 1959 1959 1959 1970 1970 1970 1970 1970 1970 1970 1970 1970 1970 1970 1970 1970 1970 1970 1970 1970 1365 1365 1365 1359 1349 1349 1349 1349 1349 1349 1349 1349 1354 1354 1354 1349 1349 1349 1349 1343 1343 1343 1338 1338 1981 1993 1993 1993 1993 1993 1993 1993 1993 1993 1993 1993 1993 1993 1993 1993 1993 1993 1993 1993 1993 1993 1993 1993 2005 1993 1993 2005 2005 1993 1993 1993 1993 2005 2005 2016 2016 2016 2016 2016 2016 2016 2016 2028 2028 2028 2028 2040 2040 2053 2958 2958 2958 2958 2958 2958 2958 2958 2958 2958 2958 2984 2984 2984 2984 2984 2984 2958 2958 2958 2933 2933 2933 0 0 1439 1439 1439 1439 1439 1427 1427 1421 1415 1415 1415 1415 1410 1410 1404 1404 1404 1404 1404 1404 1404 1404 1410 1410 1415 1415 1415 1415 1415 2908 2908 2908 2933 2933 2933 2933 2933 2933 2933 2933 2958 2958 2958 0 1671 1671 1671 1671 1671 1671 1663 1663 1647 1639 1632 1632 1632 1624 1624 1632 1632 1632 1639 1639 1639 1639 1647 1647 1647 1647 1647 1647 1647 1647 1647 2908 2908 2908 2908 2908 2908 2883 2883 2883 2883 2908 2883 2883 2883 2883 2883 2883 2883 2883 2883 2883 2883 2883 2883 2883 2859 2859 2859 2859 2859 2859 2859 2859 2859 2859 2859 2859 2835 2835 2835 2835 2835 2835 2835 2835 2835 2859 2835 2835 2835 2835 2835 2835 0 0 0 0 0 0 0 0 0 0 0
0 0 0 0 0 0 0 0 0 0 0 0 0 0 0 0 0 0 0 0 0 0 0 0 0 0 0 0 0 0 0 0 2883 2859 2859 2859 2859 2859 2859 2835 2835 2835 2859 2835 2835 2835 2835 2859 2859 2859 2859 2859 2883 2883 2883 2883 2883 2883 2883 2883 2883 2883 2883 2883 2883 2883 2883 2883 2883 2883 2883 2859 2859 2859 2859 2859 2859 2859 2859 2859 2859 2883 2883 2883 2883 2883 2883 2883 2883 2883 2883 2883 2883 2908 2908 2908 2908 2908 2883 2883 2883 2883 2883 2883 2883 2883 2883 2883 2883 2908 2908 2908 2908 2908 2908 2883 2883 2908 2908 2908 2908 2908 2908 2908 2933 2933 2933 2933 2933 2933 2933 2933 2933 2933 2933 2933 2933 2933 2933 2933 2933 2933 2933 2933 2933 2933 2933 2908 2908 2908 2933 2933 2933 2933 2933 2933 2908 2908 2908 2908 2908 2908 2908 2933 2933 2908 2908 2908 2908 2908 2933 2933 2933 2933 0 0 0 0 0 1359 1359 1365 1365 1365 1370 1370 1370 1376 1376 1376 1376 1376 1376 1381 1381 1381 1381 1381 1381 1381 1381 1387 1387 1392 1392 1392 1392 1392 1398 1392 1392 1398 1273 1273 1273 1273 1278 1278 1278 1278 1283 1283 1288 1288 1292 1292 1292 1292 1292 1292 1292 1292 1292 1292 1292 1297 1297 1297 1297 1297 1302 1302 1302 1302 1307 1307 1307 1307 1302 1302 1297 1297 1297 1297 1302 1302 1302 1302 1307 1307 1307 1307 1307 1307 1307 1307 1307 1307 1307 1307 1312 1312 1312 1312 1312 1312 1312 1312 1312 1312 1317 1317 1445 1445 1452 1452 1452 1328 1322 1322 1322 1322 1328 1328 1328 1445 1445 1328 1328 1328 1328 1328 1328 1328 1328 1458 1458 1464 1464 1464 1464 1464 1464 1464 1464 1464 1470 1470 1470 1470 1470 1470 1470 1477 1470 1470 1477 1477 1376 1365 1365 1365 1359 1359 1359 1365 1365 1365 1365 1365 1365 1365 1365 1365 1365 1370 1370 1489 1489 1489 1489 1489 1489 1489 1489 1489 1489 1496 1496 2349 2349 2349 2349 2349 1503 1496 1496 1496 1496 1947 1947 1947 1947 1947 1947 1947 1947 1959 1959 1959 1959 1959 1959 1959 1959 1970 1970 1970 1970 1970 1970 1970 1970 1970 1970 1970 1970 1970 1970 1970 1970 1970 1365 1365 1365 1359 1354 1354 1349 1349 1349 1349 1349 1354 1354 1354 1354 1349 1349 1349 1349 1349 1349 1349 1349 1981 1981 1981 1993 1993 1993 1981 1981 1993 1993 1993 1993 1993 1993 1993 1993 1993 1993 1993 1993 1993 1993 1993 1993 1993 1993 1993 1993 1993 1993 1993 1981 1981 1981 1993 2005 2005 2016 2016 2016 2016 2016 2016 2016 2016 2028 2028 2028 2040 2040 2053 2958 2958 2958 2958 2958 2958 2958 2958 2958 2958 2958 2958 2958 2958 2958 2958 2958 2958 2958 2958 2933 2933 2933 2933 0 0 1439 1439 1439 1439 1427 1427 1421 1421 1415 1415 1415 1415 1410 1404 1404 1404 1404 1410 1410 1410 1410 1410 1410 1415 1415 1421 1421 1439 2883 2883 2908 2908 2908 2908 2933 2933 2933 2933 2933 2933 2958 2958 0 1671 1671 1671 1671 1671 1671 1663 1655 1647 1639 1632 1632 1632 1624 1624 1632 1632 1632 1639 1639 1639 1639 1647 1647 1647 1647 1647 1647 1647 1647 1647 2883 2908 2908 2908 2908 2908 2883 2883 2883 2883 2883 2883 2883 2883 2883 2859 2859 2859 2859 2859 2859 2859 2859 2883 2859 2859 2859 2859 2859 2859 2859 2859 2859 2859 2859 2859 2859 2835 2835 2835 2835 2835 2835 2835 2835 2835 2835 2835 2835 2835 2835 2835 2835 0 0 0 0 0 0 0 0 0 0 0
0 0 0 0 0 0 0 0 0 0 0 0 0 0 0 0 0 0 0 0 0 0 0 0 0 0 0 0 0 0 0 0 2859 2859 2859 2859 2859 2859 2859 2835 2835 2835 2859 2835 2835 2835 2835 2859 2859 2859 2859 2859 2859 2859 2859 2883 2883 2883 2883 2883 2883 2883 2883 2883 2883 2883 2859 2859 2859 2883 2883 2859 2859 2859 2859 2859 2859 2859 2859 2859 2859 2859 2883 2883 2883 2883 2883 2883 2883 2883 2883 2883 2883 2883 2883 2883 2883 2883 2883 2883 2883 2883 2883 2883 2883 2883 2883 2883 2883 2883 2883 2908 2908 2883 2883 2883 2883 2883 2883 2883 2908 2908 2908 2908 2908 2908 2908 2908 2908 2908 2908 2908 2908 2908 2908 2908 2908 2908 2908 2908 2908 2908 2908 2908 2908 2908 2908 2908 2908 2908 2908 2908 2933 2933 2933 2908 2908 2908 2908 2883 2883 2883 2883 2883 2883 2883 2908 2908 2908 2908 2908 2933 2933 2933 2933 0 0 0 0 1359 1359 1365 1370 1370 1370 1370 1376 1376 1376 1376 1376 1376 1381 1381 1381 1381 1381 1381 1381 1381 1387 1387 1392 1392 1398 1398 1398 1398 1398 1398 1398 1398 1273 1273 1273 1273 1278 1278 1278 1278 1283 1283 1288 1288 1292 1292 1292 1292 1292 1292 1292 1292 1292 1292 1297 1297 1297 1302 1302 1302 1302 1302 1302 1307 1307 1307 1307 1307 1307 1302 1302 1297 1297 1297 1302 1302 1302 1302 1307 1307 1307 1302 1302 1307 1307 1307 1307 1307 1307 1307 1312 1312 1312 1312 1312 1312 1312 1312 1312 1312 1317 1445 1445 1445 1445 1452 1452 1452 1445 1445 1445 1445 1445 1445 1445 1445 1452 1452 1452 1452 1458 1458 1458 1458 1458 1458 1458 1464 1464 1464 1464 1464 1464 1464 1464 1464 1464 1464 1470 1470 1470 1477 1477 1477 1477 1477 1477 1477 1376 1370 1370 1370 1365 1365 1365 1365 1365 1365 1365 1365 1365 1365 1370 1370 1370 1370 1370 1489 1489 1489 1489 1496 1489 1489 1489 1496 2349 2349 2349 2349 2349 2349 2349 2365 2365 2365 1959 1959 1947 1947 1947 1947 1947 1947 1947 1947 1947 1959 1959 1959 1959 1959 1959 1970 1970 1970 1970 1970 1970 1970 1970 1970 1970 1970 1970 1970 1970 1970 1970 1970 1981 1981 1365 1365 1365 1354 1354 1354 1349 1349 1354 1354 1354 1354 1354 1354 1354 1349 1349 1354 1354 1349 1349 1349 1970 1970 1970 1981 1981 1981 1981 1981 1981 1993 1981 1981 1981 1981 1981 1981 1981 1970 1970 1981 1993 1993 1993 1981 1981 1993 1981 1981 1981 1915 1915 1915 1915 1915 1915 1981 1993 2005 2016 2016 2016 2016 2016 2016 2016 2016 2028 2028 2028 2040 2040 2053 2958 2958 2958 2958 2958 2958 2933 2933 2933 2933 2958 2958 2958 2958 2958 2958 2958 2933 2933 2933 2908 2908 2908 0 0 0 1439 1439 1439 1439 1427 1427 1427 1421 1421 1421 1421 1415 1410 1410 1410 1410 1410 1410 1410 1410 1410 1410 1410 1410 1410 1415 1421 1439 2883 2883 2883 2908 2908 2908 2933 2908 2908 2933 2933 2933 2933 2933 0 1671 1671 1671 1671 1671 1671 1663 1655 1647 1639 1632 1632 1632 1632 1632 1632 1632 1639 1639 1639 1639 1647 1647 1647 1647 1647 1655 1655 1655 1655 1655 2883 2883 2883 2883 2883 2883 2859 2859 2859 2883 2883 2859 2859 2859 2859 2835 2835 2859 2859 2859 2859 2859 2859 2859 2859 2835 2835 2835 2835 2835 2859 2859 2859 2859 2859 2859 2859 2835 2835 2835 2835 2835 2835 2835 2835 2835 2835 2835 2835 2812 2812 2835 2812 2812 0 0 0 0 0 0 0 0 0 0
0 0 0 0 0 0 0 0 0 0 0 0 0 0 0 0 0 0 0 0 0 0 0 0 0 0 0 0 0 0 0 0 2859 2835 2835 2835 2835 2835 2835 2835 2835 2835 2835 2835 2835 2835 2835 2835 2859 2859 2859 2859 2859 2859 2859 2859 2859 2883 2883 2883 2883 2883 2883 2883 2859 2859 2859 2859 2859 2859 2859 2835 2835 2835 2835 2835 2835 2835 2835 2835 2859 2859 2859 2859 2859 2859 2859 2859 2859 2859 2859 2883 2859 2859 2883 2883 2883 2883 2883 2883 2883 2883 2883 2883 2883 2883 2883 2883 2883 2883 2883 2883 2883 2883 2883 2883 2883 2883 2883 2883 2883 2883 2908 2908 2908 2908 2908 2908 2908 2908 2883 2883 2883 2883 2883 2908 2908 2883 2883 2908 2908 2908 2908 2883 2883 2908 2908 2908 2883 2883 2883 2883 2908 2908 2908 2883 2883 2883 2883 2883 2859 2859 2883 2883 2883 2883 2883 2883 2908 2908 2908 2933 2933 2933 2933 0 0 0 0 0 1365 1365 1370 1370 1376 1376 1376 1376 1376 1376 1376 1381 1381 1381 1381 1381 1381 1381 1381 1381 1387 1387 1392 1392 1398 1398 1398 1398 1398 1398 1398 1398 1278 1273 1273 1278 1278 1278 1278 1283 1283 1288 1288 1288 1292 1292 1292 1292 1292 1292 1292 1292 1292 1297 1297 1302 1302 1302 1302 1307 1302 1302 1302 1307 1307 1307 1307 1307 1307 1302 1302 1297 1297 1297 1302 1307 1302 1302 1307 1302 1302 1302 1302 1307 1307 1307 1307 1307 1307 1307 1312 1439 1439 1439 1439 1439 1439 1439 1439 1445 1445 1445 1445 1445 1445 1445 1445 1445 1445 1445 1445 1445 1445 1445 1445 1445 1452 1452 1458 1458 1458 1458 1458 1458 1458 1458 1458 1464 1464 1464 1464 1464 1464 1464 1464 1464 1464 1464 1464 1464 1470 1477 1477 1477 1477 1489 1489 1483 1376 1376 1370 1370 1365 1365 1365 1365 1365 1370 1370 1370 1370 1370 1370 1370 1370 1370 1370 1370 1509 1509 1509 1509 1516 1516 2349 2349 2349 2349 2349 2349 2349 2349 2365 2365 2365 0 1959 1959 1947 1947 1947 1947 1947 1947 1947 1959 1959 1959 1959 1959 1959 1959 1959 1970 1970 1970 1970 1970 1970 1970 1970 1970 1970 1970 1970 1970 1970 1970 1970 1970 1370 1370 1365 1365 1365 1354 1354 1354 1354 1354 1354 1354 1354 1354 1359 1359 1359 1354 1354 1354 1354 1354 1354 1359 1926 1936 1947 1970 1981 1981 1981 1959 1959 1981 1981 1981 1915 1915 1915 1915 1915 1915 1915 1915 1981 1981 1981 1915 1915 1883 1883 1894 1894 1894 1883 1883 1894 1894 1894 1883 1883 1915 2005 2016 2016 2016 2016 2016 2016 2028 2028 2028 2040 2040 2040 2053 2933 2933 2933 2933 2933 2933 2933 2933 2933 2933 2933 2933 2933 2933 2958 2958 2958 2933 2933 2933 2883 2883 2908 0 0 0 1439 1439 1439 1439 1433 1427 1427 1421 1421 1421 1421 1415 1410 1410 1410 1410 1410 1410 1410 1410 1410 1410 1410 1410 1410 1415 1421 1421 2859 2883 2883 2883 2883 2883 2883 2883 2883 2908 2908 2933 2933 2933 1680 1680 1680 1671 1671 1671 1671 1663 1655 1647 1639 1632 1632 1632 1632 1632 1632 1632 1639 1639 1639 1639 1647 1647 1647 1647 1647 1655 1655 1647 1647 1647 2883 2859 2859 2859 2859 2859 2835 2835 2859 2859 2859 2835 2835 2835 2835 2835 2835 2835 2835 2859 2859 2835 2835 2835 2835 2835 2835 2835 2835 2835 2859 2859 2859 2859 2859 2835 2835 2835 2835 2835 2835 2812 2812 2812 2812 2812 2812 2812 2812 2812 2812 2812 2812 2812 0 0 0 0 0 0 0 0 0 0
0 0 0 0 0 0 0 0 0 0 0 0 0 0 0 0 0 0 0 0 0 0 0 0 0 0 0 0 0 0 0 0 2835 2835 2835 2835 2835 2835 2812 2812 2812 2812 2835 2812 2812 2812 2812 2812 2812 2835 2835 2835 2859 2859 2859 2859 2859 2859 2859 2859 2859 2859 2859 2859 2859 2859 2835 2835 2835 2859 2859 2835 2835 2835 2835 2835 2835 2812 2812 2835 2835 2859 2859 2835 2835 2859 2859 2859 2859 2859 2859 2859 2859 2859 2859 2859 2859 2859 2859 2859 2859 2859 2859 2859 2859 2859 2859 2859 2859 2883 2883 2883 2883 2883 2883 2883 2883 2883 2883 2883 2883 2883 2883 2883 2883 2883 2883 2883 2883 2883 2883 2883 2883 2883 2883 2883 2883 2883 2883 2883 2883 2883 2883 2883 2883 2883 2883 2883 2883 2883 2883 2883 2883 2883 2883 2883 2883 2883 2859 2859 2859 2859 2859 2883 2859 2859 2883 2883 2883 2908 2908 2908 2933 2933 2933 0 0 0 0 0 1365 1365 1370 1376 1376 1376 1376 1376 1376 1376 1376 1381 1381 1381 1381 1381 1381 1381 1387 1387 1387 1392 1392 1398 1398 1398 1398 1398 1398 1398 1398 1398 1278 1278 1278 1278 1278 1283 1283 1283 1288 1288 1292 1292 1292 1292 1292 1292 1292 1292 1292 1292 1292 1292 1297 1302 1302 1302 1307 1307 1302 1302 1302 1307 1307 1307 1307 1307 1307 1307 1302 1297 1297 1297 1427 1427 1427 1427 1307 1302 1302 1302 1302 1307 1307 1307 1307 1307 1307 1439 1439 1439 1439 1439 1439 1439 1439 1439 1439 1445 1445 1445 1445 1445 1445 1445 1445 1445 1445 1445 1445 1445 1445 1445 1452 1452 1452 1458 1458 1458 1458 1458 1458 1458 1458 1458 1458 1464 1464 1464 1464 1464 1464 1464 1464 1464 1464 1464 1464 1464 1894 1904 1904 1904 1904 1915 1496 1376 1376 1376 1376 1376 1370 1370 1370 1370 1370 1370 1370 1370 1370 1370 1370 1370 1370 1370 1370 1370 2381 1516 1516 1516 1516 2365 2349 2349 2349 2349 2349 2365 2365 2365 2365 2381 2381 0 1959 1959 1959 1959 1947 1947 1947 1959 1959 1959 1959 1959 1959 1959 1959 1959 1970 1970 1970 1970 1970 1970 1970 1970 1970 1970 1970 1970 1970 1970 1970 1981 1981 1981 1370 1370 1365 1365 1365 1359 1354 1354 1354 1354 1354 1354 1354 1359 1359 1359 1359 1354 1354 1354 1354 1359 1359 1883 1883 1873 1873 1873 1873 1873 1883 1915 1915 1947 1970 1915 1915 1915 1915 1915 1904 1904 1904 1915 1915 1915 1915 1894 1883 1883 1883 1883 1873 1873 1873 1873 1883 1883 1883 1883 1883 1894 1926 2005 2005 2016 2016 2016 2016 2028 2028 2040 2040 2040 2040 2040 2040 2908 2908 2908 2933 2933 2908 2908 2908 2933 2933 2933 2933 2933 2933 2933 2933 2933 2908 2908 2883 2883 2883 2883 0 0 1439 1439 1439 1439 1433 1427 1427 1421 1421 1421 1421 1415 1415 1410 1410 1410 1410 1410 1410 1410 1410 1410 1410 1410 1410 1415 1421 1421 2859 2859 2859 2859 2859 2859 2883 2859 2859 2908 2908 2908 2933 2933 1680 1680 1680 1671 1671 1671 1671 1663 1655 1647 1639 1639 1632 1632 1632 1632 1632 1632 1639 1639 1639 1639 1647 1647 1647 1647 1647 1655 1647 1647 1647 1647 2859 2859 2859 2859 2859 2859 2835 2835 2835 2835 2835 2835 2835 2835 2835 2835 2835 2835 2835 2835 2835 2835 2835 2835 2835 2835 2835 2835 2835 2835 2835 2835 2835 2835 2835 2835 2835 2835 2835 2835 2835 2812 2812 2812 2812 2812 2812 2812 2812 2812 2812 2812 2812 2812 0 0 0 0 0 0 0 0 0 0
0 0 0 0 0 0 0 0 0 0 0 0 0 0 0 0 0 0 0 0 0 0 0 0 0 0 0 0 0 0 0 0 2812 2812 2812 2812 2812 2812 2812 2812 2812 2812 2812 2812 2812 2812 2812 2812 2812 2812 2812 2835 2835 2835 2835 2859 2859 2859 2835 2835 2859 2859 2835 2835 2835 2835 2835 2835 2835 2835 2859 2835 2835 2812 2812 2812 2812 2812 2812 2812 2812 2835 2835 2835 2835 2835 2835 2835 2835 2835 2835 2859 2859 2859 2859 2859 2859 2859 2859 2859 2859 2859 2859 2859 2859 2859 2859 2859 2859 2859 2883 2883 2883 2883 2883 2883 2859 2859 2859 2859 2859 2883 2883 2883 2883 2883 2883 2883 2883 2883 2859 2859 2883 2883 2883 2883 2883 2883 2883 2883 2883 2883 2883 2883 2883 2883 2883 2883 2883 2883 2883 2883 2883 2883 2883 2883 2859 2859 2859 2859 2859 2859 2859 2859 2859 2859 2859 2859 2859 2883 2883 2908 2933 2933 2933 0 0 0 0 0 1365 1365 1370 1376 1376 1376 1376 1376 1381 1381 1381 1381 1381 1381 1381 1381 1381 1387 1387 1392 1392 1392 1398 1398 1398 1398 1398 1398 1398 1398 1398 1398 1278 1278 1278 1278 1278 1283 1283 1283 1288 1288 1292 1292 1292 1292 1292 1292 1292 1292 1292 1292 1292 1292 1421 1421 1421 1421 1307 1307 1307 1307 1307 1307 1312 1307 1307 1307 1307 1307 1307 1421 1421 1427 1427 1427 1427 1427 1427 1433 1433 1302 1302 1307 1307 1307 1307 1439 1439 1439 1439 1439 1439 1439 1439 1439 1439 1439 1439 1439 1445 1445 1445 1445 1445 1445 1445 1445 1445 1445 1445 1445 1445 1445 1452 1452 1452 1458 1458 1458 1464 1873 1873 1883 1883 1883 1464 1464 1464 1464 1464 1464 1470 1883 1883 1883 1883 1894 1894 1894 1894 1904 1904 1904 1904 1915 1915 1376 1376 1376 1376 1376 1370 1370 1370 1370 1370 1370 1370 1370 1370 1370 1370 1370 1376 1376 1376 1376 1516 1516 1516 1516 1516 2365 2365 2349 2349 2365 2365 2365 2365 2381 2381 2398 2398 0 0 1959 1959 1947 1947 1959 1959 1959 1959 1959 1959 1959 1970 1970 1970 1970 1970 1970 1970 1970 1970 1970 1970 1970 1970 1970 1970 1970 1970 1970 1970 1970 1970 1370 1370 1370 1365 1365 1365 1359 1354 1354 1359 1354 1354 1359 1359 1359 1359 1359 1359 1359 1359 1359 1359 1359 1359 1873 1873 1873 1873 1873 1873 1873 1873 1873 1883 1883 1883 1883 1883 1894 1883 1883 1883 1883 1883 1883 1883 1883 1873 1873 1873 1873 1873 1873 1873 1873 1873 1873 1873 1873 1873 1873 1883 1883 1883 1915 2005 2016 2016 2016 2016 2028 2028 2040 2040 2040 2040 2040 2040 2908 2908 2908 2933 2933 2908 2908 2908 2908 2908 2908 2908 2908 2908 2933 2933 2933 2908 2908 2883 2883 2883 2883 0 0 1439 1439 1439 1439 1433 1427 1427 1421 1421 1421 1421 1415 1415 1415 1415 1415 1415 1415 1415 1415 1415 1415 1415 1415 1415 1421 1427 1427 2859 2859 2859 2859 2859 2859 2859 2859 2859 2883 2883 2908 2908 2908 1680 1680 1680 1671 1671 1671 1671 1663 1655 1647 1639 1639 1632 1632 1632 1632 1632 1632 1639 1639 1639 1647 1647 1647 1647 1647 1655 1655 1647 1647 1639 1639 2859 2859 2859 2859 2859 2859 2835 2835 2835 2835 2835 2835 2835 2835 2835 2835 2812 2812 2835 2835 2835 2835 2835 2835 2812 2812 2812 2812 2835 2835 2835 2835 2835 2835 2835 2835 2812 2812 2835 2835 2835 2812 2812 2812 2812 2812 2812 2812 2812 2812 2812 2812 2789 2789 0 0 0 0 0 0 0 0 0 0
0 0 0 0 0 0 0 0 0 0 0 0 0 0 0 0 0 0 0 0 0 0 0 0 0 0 0 0 0 0 0 0 2812 2812 2812 2812 2812 2812 2812 2812 2812 2812 2812 2812 2812 2812 2789 2789 2789 2789 2789 2812 2812 2812 2812 2835 2835 2835 2812 2812 2812 2812 2812 2812 2812 2812 2812 2812 2812 2835 2835 2812 2812 2812 2812 2812 2812 2812 2812 2812 2812 2812 2812 2812 2812 2812 2812 2812 2812 2835 2835 2835 2835 2835 2835 2859 2835 2835 2835 2859 2859 2859 2859 2859 2859 2859 2859 2859 2859 2859 2859 2859 2859 2859 2859 2859 2859 2859 2859 2859 2859 2859 2859 2883 2859 2859 2859 2859 2883 2859 2859 2859 2883 2883 2883 2883 2883 2883 2883 2883 2883 2883 2883 2883 2883 2883 2883 2883 2883 2883 2883 2883 2883 2883 2883 2883 2859 2859 2859 2859 2859 2859 2859 2859 2835 2835 2859 2859 2859 2859 2883 2883 2908 2933 2933 0 0 0 0 0 1370 1370 1376 1376 1376 1376 1381 1381 1381 1381 1381 1381 1381 1381 1381 1381 1387 1387 1392 1392 1392 1392 1398 1398 1398 1398 1398 1398 1398 1398 1398 1398 1278 1278 1278 1278 1283 1283 1288 1288 1288 1292 1292 1292 1292 1292 1292 1292 1292 1292 1292 1421 1421 1421 1421 1421 1421 1421 1421 1421 1421 1421 1421 1421 1312 1312 1421 1415 1415 1421 1421 1421 1421 1427 1427 1427 1427 1427 1427 1433 1433 1433 1439 1439 1439 1439 1439 1439 1439 1439 1439 1433 1433 1439 1439 1439 1439 1439 1439 1439 1439 1445 1445 1445 1445 1445 1445 1445 1445 1445 1445 1445 1445 1445 1452 1452 1452 1458 1464 1464 1873 1873 1873 1873 1873 1873 1873 1873 1873 1873 1873 1873 1873 1883 1883 1883 1883 1883 1894 1894 1894 1904 1904 1904 1915 1915 1915 1376 1376 1376 1376 1376 1370 1370 1370 1370 1370 1370 1370 1370 1370 1370 1376 1376 1376 1376 1376 1376 2365 2365 2365 2365 2365 2365 2365 2365 2365 2365 2365 2365 2381 2381 2398 2398 2398 0 1853 1853 0 1947 1947 1947 1959 1959 1959 1959 1959 1959 1959 1959 1959 1959 1959 1959 1959 1970 1970 1970 1970 1970 1970 1970 1970 1959 1959 1970 1959 1959 1959 1370 1370 1370 1370 1365 1365 1365 1359 1359 1359 1359 1359 1359 1359 1365 1365 1365 1365 1359 1359 1359 1359 1359 1365 1873 1873 1873 1873 1873 1873 1873 1873 1873 1883 1883 1883 1873 1873 1883 1883 1883 1883 1883 1883 1873 1873 1873 1873 1873 1873 1873 1873 1873 1873 1873 1873 1873 1873 1873 1873 1873 1873 1873 1873 1873 1873 2016 2016 2016 2016 2028 2028 2028 2040 2040 2040 2040 2040 2040 2883 2883 2883 2883 2883 2883 2883 2883 2908 2883 2883 2908 2908 2933 2933 2908 2908 2908 2883 2883 2883 2883 0 1439 1439 1439 1439 1439 1433 1427 1427 1427 1421 1421 1421 1421 1415 1415 1415 1415 1415 1415 1415 1415 1415 1415 1410 1410 1415 1421 1427 1427 2835 2835 2859 2835 2835 2835 2859 2835 2835 2859 2859 2883 2883 0 1680 1680 1680 1671 1671 1671 1671 1663 1655 1647 1647 1639 1639 1639 1632 1632 1639 1639 1639 1639 1647 1647 1647 1647 1647 1647 1655 1655 1647 1647 1639 1639 2859 2835 2835 2835 2835 2835 2812 2812 2835 2835 2835 2835 2835 2835 2835 2835 2812 2812 2835 2835 2835 2835 2835 2835 2812 2812 2812 2812 2835 2812 2812 2812 2812 2835 2835 2812 2812 2812 2812 2812 2812 2789 2789 2789 2812 2812 2812 2812 2789 2789 2789 2789 2789 2789 0 0 0 0 0 0 0 0 0 0
0 0 0 0 0 0 0 0 0 0 0 0 0 0 0 0 0 0 0 0 0 0 0 0 0 0 0 0 0 0 0 0 2812 2812 2812 2812 2812 2812 2789 2789 2789 2789 2789 2789 2789 2789 2789 2789 2789 2789 2789 2789 2789 2812 2812 2812 2812 2812 2812 2812 2812 2812 2812 2812 2812 2812 2812 2812 2812 2812 2812 2789 2789 2789 2789 2789 2789 2789 2789 2789 2789 2789 2789 2789 2789 2789 2789 2789 2789 2812 2835 2835 2835 2835 2835 2835 2835 2835 2835 2835 2835 2835 2835 2835 2835 2835 2835 2835 2835 2835 2859 2859 2859 2859 2859 2859 2859 2859 2859 2859 2859 2859 2859 2883 2859 2859 2859 2859 2859 2859 2859 2859 2859 2859 2883 2883 2859 2859 2859 2859 2859 2883 2883 2859 2859 2883 2883 2883 2883 2883 2883 2883 2883 2883 2883 2883 2859 2859 2859 2859 2859 2859 2859 2835 2835 2835 2859 2859 2859 2859 2859 2883 2883 2908 2933 0 0 0 0 1370 1370 1370 1376 1376 1376 1381 1381 1381 1381 1381 1381 1381 1381 1381 1381 1381 1387 1392 1392 1392 1392 1398 1398 1398 1398 1398 1398 1398 1398 1398 1398 1404 1278 1278 1283 1283 1283 1288 1288 1288 1292 1292 1292 1292 1292 1292 1292 1292 1292 1292 1415 1421 1421 1421 1421 1421 1421 1421 1421 1421 1421 1421 1421 1421 1421 1421 1421 1415 1415 1421 1421 1421 1421 1427 1427 1427 1427 1433 1433 1433 1433 1433 1433 1439 1439 1439 1439 1439 1439 1433 1433 1433 1433 1433 1433 1433 1433 1439 1439 1439 1439 1445 1445 1445 1445 1445 1445 1445 1445 1445 1445 1445 1445 1445 1863 1863 1863 1863 1863 1873 1873 1873 1873 1873 1873 1873 1863 1863 1863 1873 1873 1873 1873 1883 1883 1883 1883 1883 1894 1894 1894 1904 1904 1904 1915 1915 1915 1376 1376 1381 1381 1376 1370 1370 1370 1370 1370 1376 1376 1376 1376 1376 1376 1376 1376 1376 1376 1376 2365 2365 1833 1833 2365 2365 2365 2365 2365 2365 2365 2381 2381 2381 2398 2398 2398 1843 1853 1853 1853 1926 1926 1947 1947 1947 1959 1959 1959 1959 1959 1959 1959 1959 1959 1959 1959 1959 1959 1970 1970 1970 1970 1970 1947 1883 1883 1883 1883 1883 1883 1370 1370 1370 1370 1370 1370 1365 1365 1365 1365 1365 1365 1365 1365 1365 1365 1365 1365 1359 1359 1359 1365 1365 1863 1863 1863 1863 1863 1863 1873 1873 1873 1873 1873 1873 1873 1873 1873 1873 1873 1873 1873 1873 1873 1873 1873 1873 1863 1863 1863 1863 1863 1873 1863 1863 1863 1863 1873 1873 1873 1873 1873 1873 1873 1873 1873 2016 2016 2016 2028 2028 2028 2028 2040 2040 2040 2040 2040 2040 2859 2859 2859 2883 2883 2883 2883 2883 2883 2883 2883 2859 2859 2883 2883 2908 2883 2883 2883 2883 2883 2883 1439 1439 1439 1439 1439 1439 1439 1427 1427 1427 1421 1421 1421 1421 1421 1421 1415 1415 1415 1415 1415 1415 1415 1415 1410 1410 1415 1421 1427 2835 2835 2835 2835 2835 2835 2835 2835 2835 2835 2859 2859 2883 2883 0 1680 1680 1680 1680 1680 1671 1671 1663 1655 1655 1647 1639 1639 1639 1639 1639 1639 1639 1639 1647 1647 1647 1647 1647 1655 1655 1655 1655 1647 1647 1647 2835 2835 2835 2835 2835 2835 2835 2812 2812 2812 2835 2835 2812 2812 2812 2812 2812 2812 2812 2812 2835 2835 2835 2835 2812 2812 2812 2812 2812 2812 2812 2812 2812 2812 2812 2812 2789 2789 2789 2789 2789 2789 2767 2767 2767 2789 2789 2789 2789 2789 2789 2789 2789 2767 2767 0 0 0 0 0 0 0 0 0 0
0 0 0 0 0 0 0 0 0 0 0 0 0 0 0 0 0 0 0 0 0 0 0 0 0 0 0 0 0 0 0 0 2789 2789 2789 2789 2789 2789 2789 2789 2789 2789 2789 2789 2789 2789 2767 2767 2767 2767 2767 2789 2789 2789 2789 2789 2812 2789 2789 2789 2789 2789 2789 2789 2789 2789 2789 2789 2789 2789 2812 2789 2789 2789 2789 2789 2789 2789 2789 2767 2767 2789 2789 2789 2789 2789 2789 2789 2789 2789 2789 2789 2789 2789 2812 2812 2812 2789 2789 2789 2812 2812 2789 2789 2812 2812 2789 2789 2812 2812 2812 2812 2812 2835 2859 2859 2859 2859 2859 2859 2859 2859 2859 2859 2859 2859 2859 2859 2859 2859 2859 2859 2859 2859 2859 2859 2859 2859 2859 2859 2859 2859 2859 2859 2859 2859 2859 2859 2859 2859 2859 2859 2883 2883 2859 2859 2835 2835 2835 2835 2835 2835 2835 2835 2835 2835 2835 2835 2835 2859 2859 2859 2883 2883 0 0 0 0 0 1370 1370 1370 1376 1376 1381 1381 1381 1381 1381 1381 1381 1381 1381 1381 1381 1387 1392 1392 1392 1392 1398 1398 1398 1398 1398 1398 1398 1398 1398 1404 1404 1404 1404 1283 1283 1283 1283 1288 1288 1292 1292 1292 1292 1292 1292 1292 1292 1292 1292 1292 1415 1421 1421 1421 1421 1421 1421 1421 1421 1421 1421 1421 1421 1421 1421 1421 1427 1421 1421 1421 1421 1421 1421 1427 1427 1427 1427 1433 1433 1433 1433 1433 1433 1439 1439 1439 1439 1439 1439 1433 1433 1433 1433 1433 1433 1433 1433 1439 1439 1843 1843 1843 1843 1853 1853 1853 1853 1853 1863 1863 1863 1863 1863 1863 1863 1853 1853 1853 1863 1863 1863 1863 1863 1863 1863 1863 1863 1863 1863 1863 1863 1863 1873 1873 1873 1873 1873 1883 1883 1894 1904 1904 1915 1915 1915 1915 1915 1376 1376 1381 1381 1376 1370 1370 1370 1376 1376 1376 1376 1376 1376 1376 1376 1376 1376 1376 1376 1833 1833 1833 1833 1833 1843 1833 1833 2365 2381 2381 2381 2381 2381 2398 2398 2398 2398 1843 1843 1853 1853 1853 1863 1915 1936 1947 1947 1959 1959 1959 1947 1947 1947 1883 1883 1883 1883 1883 1883 1883 1883 1883 1883 1883 1883 1883 1883 1883 1883 1883 1883 1883 1370 1370 1370 1370 1370 1365 1365 1365 1365 1365 1365 1365 1365 1365 1365 1365 1365 1365 1365 1365 1365 1365 1863 1863 1863 1863 1863 1863 1863 1863 1863 1863 1873 1873 1863 1863 1863 1873 1873 1863 1863 1873 1863 1863 1863 1863 1863 1863 1863 1863 1863 1863 1863 1863 1863 1863 1863 1863 1863 1873 1873 1873 1873 1863 1863 2016 1427 1427 2028 2028 2028 2028 2040 2040 2040 2040 2883 1427 1427 1433 1433 1433 1433 1433 1433 1433 1433 1433 1433 2859 2859 2883 2883 2908 1439 1439 1439 1439 1439 1439 1439 1439 1439 1439 1439 1439 1439 1433 1427 1427 1427 1421 1421 1421 1421 1421 1421 1421 1421 1421 1421 1421 1421 1421 1421 1421 2812 2812 2812 2812 2812 2812 2835 2812 2812 2812 2835 2835 2835 2835 2859 2883 2883 1680 1680 1680 1680 1680 1680 1671 1671 1663 1655 1647 1647 1647 1639 1639 1639 1639 1639 1639 1647 1647 1647 1647 1655 1655 1655 1655 1655 1655 1647 1647 1647 2835 2835 2812 2812 2812 2812 2835 2812 2812 2812 2812 2812 2812 2812 2812 2812 2812 2812 2812 2812 2835 2835 2835 2812 2812 2812 2812 2812 2812 2812 2789 2789 2789 2789 2789 2789 2767 2767 2767 2767 2767 2767 2767 2767 2767 2767 2789 2789 2789 2789 2789 2789 2789 2767 2767 0 0 0 0 0 0 0 0 0 0
0 0 0 0 0 0 0 0 0 0 0 0 0 0 0 0 0 0 0 0 0 0 0 0 0 0 0 0 0 0 0 0 2767 2767 2767 2767 2767 2767 2789 2789 2789 2789 2789 2789 2789 2789 2767 2767 2767 2767 2767 2767 2767 2767 2767 2789 2789 2789 2789 2789 2789 2789 2789 2789 2789 2789 2789 2789 2789 2789 2789 2789 2789 2789 2789 2789 2789 2789 2789 2767 2767 2789 2767 2767 2767 2789 2789 2789 2789 2789 2789 2789 2789 2789 2789 2789 2789 2789 2789 2789 2789 2789 2789 2789 2789 2789 2789 2789 2789 2789 2812 2812 2812 2812 2835 2835 2835 2812 2812 2812 2812 2812 2812 2835 2835 2835 2835 2835 2835 2835 2835 2835 2835 2859 2835 2835 2859 2859 2859 2859 2859 2859 2859 2859 2859 2859 2859 2859 2859 2859 2859 2859 2859 2859 2859 2859 2835 2835 2835 2835 2835 2812 2812 2812 2835 2835 2835 2835 2835 2835 2859 2859 2859 2859 2859 0 0 0 0 1370 1370 1376 1376 1376 1381 1381 1381 1381 1381 1381 1381 1381 1381 1381 1381 1387 1392 1392 1392 1392 1398 1398 1398 1398 1398 1398 1398 1404 1404 1404 1404 1404 1404 1283 1283 1288 1288 1292 1292 1292 1292 1292 1292 1292 1292 1292 1297 1292 1292 1292 1415 1421 1421 1421 1421 1421 1421 1421 1421 1421 1421 1421 1421 1421 1421 1421 1427 1421 1421 1421 1421 1421 1421 1421 1427 1427 1427 1433 1433 1433 1433 1433 1433 1439 1439 1439 1433 1433 1433 1433 1433 1433 1433 1433 1433 1433 1433 1439 1843 1843 1843 1843 1843 1843 1843 1853 1853 1853 1853 1863 1853 1853 1863 1863 1863 1853 1853 1853 1853 1863 1853 1853 1853 1853 1863 1853 1853 1853 1853 1863 1863 1853 1853 1863 1863 1863 1863 1873 1883 1894 1904 1915 1915 1915 1915 1915 1915 1387 1387 1381 1381 1381 1376 1376 1376 1376 1376 1376 1376 1376 1381 1376 1376 1376 1370 1370 1833 1833 1833 1833 1833 1833 1833 1833 1833 1833 2381 2381 2381 2381 2398 2398 1843 1843 1843 1843 1843 1843 1843 1843 1853 1873 1883 1926 1926 1947 1947 1883 1883 1883 1873 1873 1873 1873 1873 1873 1873 1883 1873 1873 1873 1873 1873 1873 1873 1873 1873 1873 1883 1883 1376 1376 1370 1370 1370 1370 1365 1365 1365 1365 1365 1365 1365 1365 1370 1370 1370 1365 1365 1365 1365 1365 1853 1853 1853 1863 1863 1863 1863 1863 1863 1863 1863 1863 1863 1863 1863 1863 1863 1863 1863 1863 1863 1863 1863 1863 1863 1863 1863 1863 1863 1863 1863 1863 1863 1863 1863 1863 1863 1873 1873 1873 1873 1863 1863 1427 1427 1415 1415 1415 1415 1410 1410 2040 2040 1421 1421 1427 1427 1427 1427 1433 1433 1433 1433 1433 1433 1433 1433 1433 1433 1433 1439 1439 1439 1439 1433 1433 1433 1433 1439 1433 1433 1439 1439 1439 1439 1433 1433 1427 1427 1427 1421 1421 1421 1421 1421 1421 1421 1421 1421 1427 1421 1421 1421 1421 2789 2789 2812 2812 2812 2812 2812 2812 2812 2812 2812 2812 2812 2835 2859 2859 2859 1680 1680 1680 1680 1680 1680 1671 1671 1663 1655 1647 1647 1647 1647 1639 1639 1647 1647 1647 1647 1647 1647 1655 1655 1655 1655 1655 1663 1655 1655 1655 1655 2835 2835 2812 2812 2812 2812 2812 2812 2812 2812 2812 2812 2812 2812 2812 2789 2789 2812 2812 2812 2812 2812 2812 2812 2789 2789 2789 2789 2789 2789 2789 2789 2789 2789 2789 2767 2767 2767 2767 2744 2744 2744 2744 2744 2767 2767 2767 2767 2767 2767 2767 2767 2767 2767 2767 0 0 0 0 0 0 0 0 0 0
0 0 0 0 0 0 0 0 0 0 0 0 0 0 0 0 0 0 0 0 0 0 0 0 0 0 0 0 0 0 0 0 2767 2767 2767 2767 2767 2767 2767 2767 2767 2767 2767 2767 2767 2767 2744 2744 2744 2744 2767 2767 2744 2744 2744 2767 2789 2789 2789 2789 2789 2789 2789 2767 2767 2767 2767 2767 2767 2789 2789 2789 2789 2789 2789 2789 2789 2789 2767 2767 2767 2767 2767 2767 2767 2767 2767 2767 2767 2767 2767 2767 2789 2789 2789 2789 2789 2789 2789 2789 2789 2789 2789 2789 2789 2789 2789 2789 2789 2789 2789 2812 2812 2812 2812 2812 2812 2812 2812 2812 2812 2812 2812 2812 2812 2812 2812 2812 2812 2812 2812 2835 2835 2835 2835 2835 2835 2835 2835 2835 2835 2835 2835 2835 2835 2859 2859 2859 2859 2859 2859 2859 2859 2859 2859 2859 2835 2835 2812 2812 2812 2812 2812 2812 2812 2812 2812 2812 2835 2835 2835 2835 2835 2835 2835 0 0 0 0 0 1376 1376 1376 1376 1381 1381 1381 1381 1381 1381 1381 1381 1381 1381 1381 1387 1392 1392 1392 1392 1398 1398 1398 1398 1398 1398 1398 1404 1404 1404 1404 1404 1404 1288 1288 1288 1292 1292 1292 1292 1292 1292 1292 1292 1297 1297 1297 1297 1415 1415 1415 1421 1421 1421 1421 1421 1421 1421 1421 1421 1421 1421 1421 1421 1421 1427 1427 1421 1421 1421 1421 1421 1421 1421 1427 1427 1427 1427 1433 1433 1433 1433 1439 1439 1439 1439 1433 1433 1433 1843 1843 1843 1843 1843 1843 1843 1843 1843 1843 1843 1843 1843 1843 1843 1843 1843 1853 1853 1853 1853 1853 1853 1853 1853 1853 1853 1853 1853 1853 1853 1853 1853 1853 1853 1853 1853 1853 1853 1853 1853 1853 1853 1853 1853 1853 1853 1863 1863 1873 1894 1904 1915 1915 1915 1915 1915 1915 1387 1387 1387 1387 1381 1376 1376 1376 1376 1381 1381 1381 1381 1381 1381 1381 1376 1370 1365 1365 1833 1833 1833 1833 1833 1833 1833 1833 1833 1833 2381 2381 2381 2398 1843 1833 1833 1843 1843 1843 1843 1843 1843 1843 1853 1853 1853 1853 1853 1853 1853 1853 1853 1853 1853 1863 1863 1863 1863 1863 1863 1863 1863 1863 1863 1863 1873 1873 1873 1873 1873 1883 1883 1376 1376 1376 1376 1370 1370 1370 1370 1370 1365 1365 1365 1365 1370 1370 1370 1370 1365 1365 1365 1365 1365 1853 1853 1853 1853 1853 1853 1853 1853 1863 1863 1863 1853 1853 1853 1853 1863 1863 1863 1863 1863 1863 1853 1853 1853 1853 1853 1853 1853 1853 1863 1853 1853 1863 1863 1863 1863 1873 1873 1873 1873 1873 1873 1421 1421 1421 1415 1415 1415 1410 1410 1410 1415 1421 1421 1421 1427 1427 1427 1427 1433 1433 1433 1433 1433 1433 1433 1433 1433 1433 1433 1433 1433 1433 1433 1433 1433 1433 1433 1439 1433 1433 1439 1439 1439 1439 1433 1433 1427 1427 1427 1427 1427 1421 1421 1421 1421 1421 1427 1427 1427 1427 1427 1433 1433 2789 2789 2789 2789 2789 2789 2812 2812 2812 2812 2812 2812 2812 2812 2812 2859 2859 1671 1671 1671 1680 1680 1680 1671 1671 1663 1655 1655 1647 1647 1647 1639 1639 1647 1647 1647 1647 1647 1655 1655 1655 1655 1655 1663 1663 1655 1655 1655 2835 2835 2767 2767 2767 2767 2767 2789 2789 2789 2789 2789 2789 2789 2789 2789 2789 2789 2812 2812 2812 2812 2812 2812 2789 2789 2767 2767 2789 2789 2789 2789 2767 2767 2789 2767 2767 2744 2744 2744 2744 2744 2744 2744 2744 2744 2744 2744 2744 2767 2767 2767 2767 2767 2767 2767 0 0 0 0 0 0 0 0 0 0
0 0 0 0 0 0 0 0 0 0 0 0 0 0 0 0 0 0 0 0 0 0 0 0 0 0 0 0 0 0 0 0 2744 2744 2744 2767 2767 2767 2767 2767 2767 2767 2744 2744 2744 2744 2744 2744 2744 2744 2744 2744 2744 2744 2744 2767 2767 2767 2767 2767 2767 2767 2767 2744 2744 2767 2767 2767 2767 2767 2789 2789 2767 2767 2767 2767 2767 2767 2767 2767 2767 2767 2767 2767 2767 2767 2767 2767 2767 2767 2767 2767 2767 2767 2789 2789 2789 2789 2789 2789 2789 2789 2767 2767 2789 2789 2789 2789 2789 2789 2789 2789 2789 2789 2789 2789 2789 2789 2789 2789 2789 2789 2789 2789 2789 2812 2789 2789 2789 2789 2812 2812 2812 2812 2835 2835 2835 2835 2835 2835 2835 2835 2835 2835 2835 2835 2835 2835 2835 2812 2812 2835 2835 2835 2835 2835 2812 2812 2812 2812 2789 2789 2789 2789 2789 2789 2789 2789 2812 2812 2812 2812 2812 2812 2812 0 0 0 0 0 1376 1376 1376 1376 1381 1381 1381 1381 1381 1381 1381 1381 1381 1387 1387 1387 1392 1392 1392 1392 1392 1398 1398 1398 1398 1398 1398 1404 1404 1404 1404 1404 1404 1288 1288 1288 1292 1292 1292 1292 1292 1292 1297 1297 1297 1297 1297 1297 1415 1415 1415 1421 1421 1421 1421 1421 1421 1421 1421 1421 1421 1421 1421 1421 1421 1427 1427 1421 1421 1421 1421 1421 1421 1421 1427 1427 1427 1427 1433 1433 1439 1439 1439 1445 1843 1833 1833 1833 1833 1843 1843 1843 1843 1843 1843 1843 1843 1843 1843 1843 1843 1843 1843 1843 1843 1843 1843 1853 1853 1853 1853 1853 1853 1853 1853 1843 1843 1843 1843 1843 1843 1843 1843 1843 1843 1843 1843 1843 1843 1843 1843 1853 1853 1853 1853 1853 1853 1853 1863 1883 1904 1915 1915 1926 1915 1915 1915 1392 1392 1392 1387 1387 1376 1376 1376 1381 1381 1381 1381 1381 1387 1387 1381 1381 1376 1365 1365 1833 1833 1833 1833 1833 1833 1833 1833 1833 1823 1823 1833 1833 1823 1823 1833 1833 1833 1833 1843 1843 1843 1843 1843 1843 1843 1843 1843 1843 1843 1843 1843 1843 1853 1853 1853 1853 1853 1853 1853 1853 1853 1853 1853 1853 1863 1863 1863 1863 1873 1873 1873 1873 1381 1381 1376 1376 1376 1370 1370 1370 1370 1365 1365 1365 1365 1370 1370 1370 1370 1365 1365 1365 1365 1365 1843 1843 1843 1843 1843 1843 1843 1843 1853 1853 1853 1853 1853 1853 1853 1863 1863 1863 1853 1853 1863 1853 1853 1853 1853 1853 1843 1843 1853 1853 1853 1853 1853 1863 1863 1863 1873 1873 1863 1863 1873 1421 1421 1421 1415 1415 1415 1415 1410 1410 1410 1415 1421 1421 1421 1421 1427 1427 1427 1433 1433 1433 1433 1433 1433 1433 1433 1433 1433 1433 1433 1433 1433 1433 1433 1433 1433 1433 1439 1433 1433 1439 1439 1439 1439 1433 1433 1433 1427 1427 1427 1427 1427 1427 1427 1421 1421 1427 1427 1427 1427 1427 1433 1439 1452 2767 2789 2789 2789 2789 2789 2789 2789 2789 2789 2789 2789 2789 2812 2812 2812 1671 1671 1671 1680 1680 1680 1671 1671 1663 1655 1655 1647 1647 1647 1647 1647 1647 1647 1647 1647 1647 1655 1655 1655 1655 1663 1663 1663 1655 1655 1655 2744 2767 2767 2767 2767 2767 2767 2767 2767 2767 2767 2767 2767 2767 2767 2767 2767 2767 2767 2744 2744 2767 2767 2744 2744 2744 2744 2744 2744 2744 2767 2767 2744 2744 2767 2767 2744 2744 2744 2744 2744 2744 2744 2744 2744 2744 2744 2744 2744 2744 2744 2744 2744 2744 2744 2744 0 0 0 0 0 0 0 0 0 0
0 0 0 0 0 0 0 0 0 0 0 0 0 0 0 0 0 0 0 0 0 0 0 0 0 0 0 0 0 0 0 0 2744 2744 2744 2744 2744 2744 2744 2744 2744 2744 2744 2744 2744 2744 2744 2744 2723 2723 2744 2744 2723 2723 2723 2744 2744 2744 2744 2767 2767 2767 2767 2744 2744 2744 2767 2767 2767 2767 2767 2767 2767 2767 2767 2767 2767 2767 2767 2767 2767 2767 2767 2767 2767 2767 2767 2767 2767 2767 2767 2767 2767 2767 2767 2789 2789 2789 2789 2767 2767 2767 2767 2767 2767 2767 2767 2767 2767 2767 2767 2789 2789 2789 2789 2789 2789 2789 2789 2789 2789 2789 2789 2789 2789 2789 2789 2789 2789 2789 2789 2789 2789 2789 2812 2812 2812 2812 2812 2812 2812 2812 2812 2812 2812 2835 2835 2835 2835 2812 2812 2812 2812 2812 2812 2812 2789 2789 2789 2789 2789 2789 2767 2767 2767 2789 2789 2789 2789 2789 2812 2812 2789 2789 2789 0 0 0 0 0 1376 1376 1376 1381 1381 1381 1381 1381 1381 1381 1381 1381 1387 1387 1387 1387 1392 1392 1392 1392 1392 1398 1398 1398 1404 1404 1404 1404 1404 1404 1404 1404 1404 1288 1288 1288 1292 1292 1292 1292 1292 1292 1297 1297 1297 1297 1297 1297 1415 1415 1415 1421 1421 1421 1421 1421 1421 1421 1421 1421 1421 1421 1421 1421 1421 1427 1427 1421 1421 1421 1421 1421 1421 1421 1833 1833 1833 1439 1439 1833 1843 1843 1833 1833 1833 1833 1833 1833 1833 1833 1833 1833 1833 1833 1843 1843 1843 1843 1843 1843 1843 1843 1843 1843 1843 1843 1843 1843 1843 1843 1843 1843 1843 1843 1843 1843 1843 1843 1833 1833 1833 1843 1843 1843 1843 1843 1843 1843 1843 1843 1843 1843 1843 1843 1843 1843 1843 1853 1853 1873 1904 1915 1915 1926 1926 1926 1926 1392 1392 1392 1392 1387 1381 1381 1381 1381 1381 1381 1381 1387 1387 1387 1387 1387 1381 1381 1833 1833 1833 1833 1833 1833 1833 1833 1833 1833 1823 1823 1833 1833 1823 1823 1833 1833 1833 1833 1833 1843 1843 1843 1843 1843 1843 1843 1843 1843 1843 1843 1843 1843 1843 1843 1853 1853 1843 1843 1843 1843 1843 1843 1843 1853 1853 1853 1863 1863 1863 1863 1863 1863 1381 1381 1381 1376 1376 1370 1370 1370 1370 1365 1365 1365 1365 1370 1370 1370 1370 1365 1365 1365 1365 1365 1833 1833 1833 1833 1843 1843 1843 1843 1843 1843 1853 1843 1843 1853 1853 1853 1853 1853 1853 1853 1853 1853 1853 1410 1410 1410 1410 1410 1410 1410 1853 1853 1853 1410 1410 1410 1415 1415 1415 1415 1415 1421 1421 1415 1415 1415 1415 1415 1415 1415 1415 1415 1421 1421 1421 1421 1427 1427 1427 1427 1433 1433 1433 1433 1433 1433 1433 1433 1433 1433 1433 1433 1433 1433 1433 1433 1433 1433 1439 1433 1433 1439 1439 1439 1439 1433 1433 1433 1433 1427 1427 1427 1427 1427 1427 1427 1427 1427 1427 1433 1433 1433 1439 1445 1452 2767 2767 2767 2767 2767 2767 2767 2767 2767 2767 2767 2789 2789 2789 2812 2812 1680 1680 1680 1680 1680 1680 1671 1671 1663 1655 1655 1647 1647 1647 1647 1647 1647 1647 1647 1647 1655 1655 1655 1655 1663 1663 1671 1671 1671 1671 1671 2744 2744 2744 2744 2767 2767 2767 2767 2767 2767 2767 2767 2744 2744 2744 2744 2744 2744 2744 2744 2744 2744 2744 2723 2723 2744 2744 2744 2744 2744 2744 2744 2744 2744 2744 2744 2744 2744 2723 2723 2723 2723 2723 2723 2723 2723 2744 2723 2723 2723 2723 2723 2723 2723 2723 2723 0 0 0 0 0 0 0 0 0 0
