0 0 0 0 0 0 0 0 0 0 0 0 0 0 0 0 0 0 0 0 0 0 0 0 0 0 0 0 0 0 0 0 0 2226 2226 2226 2226 2226 2226 2226 2226 2226 2226 2226 2226 2226 2226 2226 2226 2226 2226 2226 2226 2226 2241 2241 2241 2241 2241 2241 2241 2241 2241 2241 2241 2241 2256 2241 2241 2241 2241 2226 2226 2226 2226 2226 2241 2241 2241 2241 2241 2256 2256 2241 2241 2241 2241 2241 2241 2256 2256 2256 2256 2256 2256 2256 2256 2256 2256 2256 2256 2256 2256 2256 2256 2256 2256 2256 2256 2256 2256 2256 2256 2256 2256 2256 2271 2271 2256 2256 2256 2256 2256 2256 2256 2256 2271 2271 2271 2271 2271 2271 2271 2271 2271 2271 2271 2286 2286 2286 2286 2271 2271 2271 2271 2271 2271 2271 2286 2286 2286 2301 2301 2301 2301 2301 2301 2301 2286 2286 2301 2301 2286 2286 2286 2286 2286 2286 2286 2286 2301 2301 2301 2317 2317 2317 2301 2301 2301 2301 2301 2301 2301 2301 2301 2301 1853 1853 1843 1833 1833 1833 1833 1833 1833 1833 1843 1843 1853 1863 1863 1873 1883 1926 1936 1936 1947 1947 2317 2317 2317 2317 2317 2317 2317 2333 2333 2349 2365 2349 2028 2028 2028 2028 2028 2040 2040 2053 2053 2065 2078 2078 2078 2078 2078 2333 2333 2333 2333 2333 2333 2301 2301 2286 2256 2241 2241 2226 2226 2226 2226 2241 2241 2241 2271 2286 2286 2286 2286 2286 1696 1696 1696 1696 1696 1696 1696 1696 1696 1696 1696 1696 1705 1705 1713 1713 2333 2317 2317 2333 2333 2349 2349 2349 2349 2349 2349 2349 2349 2349 2349 2349 2349 2349 2349 2349 2349 2349 2349 2349 2349 0 1536 1536 1536 1536 1536 1536 1536 1536 1536 1536 1543 1543 1543 1543 1543 1536 1536 1529 1529 1523 1523 1523 1523 1523 1516 1516 1516 1516 1509 1503 1503 1496 1496 1489 1489 1489 1489 1489 1489 1489 1483 1483 1483 1483 1483 1483 1483 1483 1483 1483 1483 1483 1477 1477 1477 1477 1477 1477 1477 1477 1477 1477 1477 1477 1477 1477 1477 1483 1483 1483 1483 1483 1483 1483 1483 1483 1483 1483 1483 1483 1483 1483 1483 1477 1477 1483 1483 1483 1483 1483 1483 1483 1483 1483 1483 1483 1483 1489 1365 1365 1365 1370 1370 1370 1370 1365 1365 1370 1370 1370 1376 1376 1381 1387 1387 1387 1470 1470 1470 1470 1470 1477 1477 1477 1477 1477 1477 1483 1483 1483 1489 1496 1503 1509 1516 1523 1543 1557 1564 1564 1579 1579 1586 1586 1586 1713 1713 1713 1713 1713 1722 1722 1722 1722 1722 1722 1722 1722 1731 1731 1739 1776 1776 2365 2365 2365 2365 2365 2381 2381 2381 2381 2381 2381 2381 2381 2381 2381 2381 2381 2381 2381 2381 2381 2381 2381 2381 2381 2381 2381 1766 1766 1766 1766 1766 1766 1757 1757 1748 1748 1748 1359 1359 1354 1354 1354 1349 1349 1349 1349 1349 1343 1343 1343 1338 1338 1338 1338 1338 1338 1338 1338 1338 1338 1338 1333 1333 1333 1333 1333 1333 1333 1333 1333 1333 1328 1322 1307 1307 1307 1307 0 0 0 2381 2381 2381 2381 2381 2381 2381 2365 2365 2365 2365 2381 2365 2365 2381 2381 2381 2381 2381 2381 2381 2381 2365 2365 2365 2365 2365 2365 2381 2381 2381 2381 2381 2365 2365 2365 2365 2365 2349 2349 2349 2349 2365 2349 2349 2349 2349 2349 2349 2349 2365 2365 2349 2349 2349 2349 2349 2365 2365 2365 2365 2365 2365 2349 2349 2349 2349 2349 2349 2365 2349 2349 2349 2349 2349 2349 2349 2349 2349 2349 2349 2349 2349 2349 2349 0 0 0 0 0 0 0 0 0
0 0 0 0 0 0 0 0 0 0 0 0 0 0 0 0 0 0 0 0 0 0 0 0 0 0 0 0 0 0 0 0 0 2226 2226 2226 2226 2212 2212 2226 2226 2226 2226 2226 2226 2226 2226 2226 2212 2212 2226 2226 2226 2226 2226 2226 2241 2241 2226 2226 2226 2241 2241 2241 2226 2226 2241 2241 2241 2226 2226 2226 2212 2212 2212 2212 2226 2226 2226 2226 2241 2241 2241 2241 2241 2241 2241 2241 2241 2241 2241 2241 2241 2241 2241 2241 2241 2241 2256 2256 2256 2256 2256 2256 2256 2256 2256 2256 2256 2256 2256 2256 2256 2256 2256 2256 2256 2256 2256 2256 2256 2256 2256 2256 2256 2256 2256 2256 2271 2271 2271 2271 2271 2271 2271 2271 2271 2271 2271 2271 2271 2271 2271 2271 2271 2271 2271 2271 2271 2271 2286 2286 2301 2301 2301 2286 2286 2286 2286 2286 2286 2286 2286 2286 2271 2271 2271 2271 2271 2286 2286 2286 2301 2301 2301 2301 2286 2286 2286 2301 2301 2301 2301 2301 2301 2301 1853 1853 1833 1833 1833 1833 1833 1833 1833 1833 1843 1843 1853 1863 1863 1873 1926 1936 1947 1947 1959 1959 2301 2301 2301 2301 2317 2317 2317 2317 2333 2016 2016 2016 2016 2028 2028 2028 2028 2040 2040 2053 2053 2065 2078 2078 2078 2078 2078 2317 2317 2333 2317 2317 2317 2301 2286 2286 2256 2241 2241 2226 2226 2226 2226 2241 2241 2241 2271 2286 2286 2271 2271 1696 1696 1696 1696 1696 1696 1696 1696 1696 1696 1696 1696 1696 1713 1713 1713 1722 2333 2317 2317 2333 2349 2349 2333 2333 2349 2349 2349 2349 2349 2349 2349 2349 2349 2349 2349 2349 2349 2333 2333 2333 2333 0 1543 1543 1536 1536 1536 1536 1536 1543 1543 1543 1543 1543 1543 1543 1543 1543 1536 1536 1529 1529 1523 1523 1523 1523 1516 1516 1516 1516 1509 1509 1503 1503 1496 1496 1496 1496 1496 1489 1489 1489 1489 1483 1483 1483 1483 1483 1483 1483 1483 1483 1477 1477 1470 1470 1470 1470 1470 1470 1470 1477 1477 1477 1477 1477 1477 1477 1477 1477 1477 1477 1477 1477 1477 1477 1477 1477 1477 1477 1477 1477 1477 1477 1477 1477 1477 1477 1477 1477 1477 1470 1470 1477 1483 1477 1477 1483 1483 1483 1370 1370 1370 1370 1370 1370 1370 1370 1370 1370 1370 1370 1376 1381 1387 1387 1387 1387 1470 1470 1464 1464 1470 1470 1470 1477 1477 1477 1477 1477 1483 1483 1489 1496 1503 1509 1523 1536 1550 1557 1564 1572 1579 1579 1586 1586 1586 1713 1713 1713 1713 1713 1722 1722 1722 1722 1722 1722 1722 1731 1731 1739 1748 1766 2349 2349 2365 2365 2365 2365 2381 2381 2381 2381 2381 2381 2365 2365 2381 2365 2365 2365 2365 2381 2381 2381 2381 2381 2381 2381 2365 2365 2365 1766 1766 1766 1766 1766 1757 1757 1748 1748 1748 1359 1359 1359 1354 1354 1354 1349 1349 1349 1349 1343 1343 1343 1338 1338 1338 1338 1338 1338 1338 1338 1338 1338 1338 1338 1333 1333 1333 1333 1333 1333 1333 1333 1333 1328 1328 1312 1312 1307 1307 0 0 0 2381 2381 2365 2365 2365 2365 2365 2365 2365 2365 2365 2365 2365 2365 2365 2365 2365 2365 2365 2365 2365 2365 2365 2365 2365 2365 2365 2365 2365 2365 2365 2365 2365 2365 2365 2365 2365 2365 2349 2349 2349 2349 2349 2349 2349 2349 2349 2349 2349 2333 2333 2333 2317 2317 2333 2333 2333 2349 2349 2349 2349 2333 2333 2333 2349 2333 2333 2349 2349 2349 2349 2349 2349 2349 2349 2349 2349 2349 2349 2349 2333 2333 2349 2349 2349 0 0 0 0 0 0 0 0 0
0 0 0 0 0 0 0 0 0 0 0 0 0 0 0 0 0 0 0 0 0 0 0 0 0 0 0 0 0 0 0 0 0 2212 2212 2212 2212 2212 2212 2212 2212 2212 2226 2226 2226 2226 2212 2212 2212 2212 2226 2226 2226 2226 2226 2226 2226 2226 2226 2226 2226 2226 2226 2226 2226 2226 2226 2226 2226 2212 2212 2212 2212 2212 2212 2212 2212 2212 2212 2212 2226 2226 2241 2241 2241 2241 2241 2241 2241 2241 2241 2241 2226 2226 2226 2226 2226 2226 2241 2241 2241 2241 2241 2241 2256 2256 2256 2241 2241 2256 2256 2256 2256 2256 2256 2256 2256 2256 2256 2256 2256 2256 2256 2256 2256 2256 2256 2256 2256 2256 2256 2256 2256 2256 2256 2256 2256 2256 2256 2256 2256 2256 2271 2271 2271 2271 2271 2271 2271 2271 2271 2286 2286 2286 2286 2286 2271 2271 2271 2271 2271 2271 2271 2271 2271 2271 2271 2271 2271 2271 2271 2286 2301 2301 2301 2286 2286 2286 2286 2286 2286 2286 2286 2286 2286 2286 1853 1853 1833 1833 1833 1833 1833 1833 1833 1833 1843 1843 1853 1863 1863 1873 1926 1936 1947 1959 1959 1970 2301 2301 2301 2301 2301 2301 2317 2317 2005 2005 2005 2005 2016 2016 2028 2028 2028 2040 2040 2053 2065 2065 2078 2090 2090 2301 2317 2317 2317 2317 2317 2317 2317 2301 2286 2286 2271 2256 2241 2241 2241 2241 2241 2241 2241 2256 2271 2271 2286 2271 2271 1696 1696 1696 1696 1696 1688 1688 1688 1696 1696 1696 1696 1696 1705 1713 1713 1722 1722 2317 2317 2333 2333 2333 2333 2333 2333 2333 2333 2317 2317 2333 2333 2333 2333 2333 2333 2333 2333 2333 2333 2333 2333 1550 1543 1543 1543 1543 1543 1543 1543 1543 1543 1543 1543 1543 1543 1543 1543 1543 1543 1536 1529 1529 1529 1529 1529 1523 1523 1523 1516 1516 1509 1509 1509 1503 1496 1496 1496 1496 1496 1489 1489 1489 1489 1483 1483 1483 1483 1483 1483 1477 1477 1477 1477 1477 1470 1470 1470 1470 1470 1470 1470 1470 1470 1470 1470 1470 1470 1470 1470 1470 1470 1470 1470 1464 1464 1470 1470 1470 1470 1470 1470 1470 1470 1470 1470 1470 1470 1470 1470 1470 1470 1470 1470 1470 1477 1477 1477 1477 1477 1483 1370 1370 1370 1370 1370 1370 1370 1370 1370 1370 1370 1376 1381 1381 1387 1392 1392 1392 1464 1464 1464 1464 1464 1464 1464 1470 1477 1477 1477 1477 1483 1483 1489 1496 1503 1509 1523 1543 1550 1564 1572 1572 1579 1579 1586 1586 1586 1713 1713 1713 1713 1713 1722 1722 1722 1722 1722 1722 1722 1731 1731 1739 1748 1766 1785 2333 2349 2349 2349 2349 2365 2365 2365 2365 2365 2365 2365 2365 2365 2365 2365 2365 2365 2365 2365 2365 2365 2365 2365 2365 2365 2365 1776 1776 1776 1766 1766 1766 1766 1757 1748 1748 1748 1359 1359 1359 1354 1354 1354 1354 1349 1349 1349 1343 1343 1343 1343 1343 1343 1343 1343 1343 1343 1343 1338 1338 1338 1338 1333 1333 1333 1333 1333 1333 1333 1333 1333 1328 1328 1317 1312 1312 1312 1312 0 2365 2365 2365 2365 2365 2365 2365 2365 2365 2365 2365 2365 2365 2365 2365 2365 2365 2349 2349 2365 2365 2365 2365 2365 2365 2349 2349 2349 2349 2365 2365 2365 2365 2365 2349 2349 2349 2349 2349 2349 2349 2333 2333 2349 2349 2349 2333 2333 2333 2333 2333 2317 2317 2317 2317 2317 2317 2333 2333 2333 2333 2333 2317 2317 2317 2317 2317 2317 2317 2317 2333 2333 2333 2333 2333 2333 2317 2317 2333 2333 2333 2333 2333 2333 2333 2333 0 0 0 0 0 0 0 0 0
0 0 0 0 0 0 0 0 0 0 0 0 0 0 0 0 0 0 0 0 0 0 0 0 0 0 0 0 0 0 0 0 0 2212 2212 2212 2212 2212 2212 2212 2212 2212 2212 2212 2212 2212 2212 2212 2212 2212 2212 2226 2226 2226 2226 2226 2226 2226 2226 2226 2226 2226 2226 2226 2226 2226 2226 2226 2226 2212 2212 2212 2198 2198 2198 2198 2212 2212 2212 2212 2212 2212 2226 2226 2226 2226 2226 2226 2226 2241 2226 2226 2226 2226 2226 2226 2226 2226 2226 2226 2226 2226 2241 2241 2241 2241 2241 2241 2241 2241 2241 2241 2241 2241 2241 2256 2256 2241 2241 2241 2241 2241 2241 2241 2241 2256 2256 2256 2256 2256 2256 2256 2256 2256 2256 2256 2256 2256 2256 2256 2256 2256 2256 2256 2256 2271 2271 2271 2271 2271 2271 2271 2271 2271 2286 2271 2271 2271 2271 2256 2256 2271 2256 2256 2256 2256 2256 2256 2271 2271 2256 2256 2256 2271 2271 2271 2271 2271 2271 2286 2286 2271 2271 2271 2271 2256 1873 1853 1833 1833 1833 1833 1833 1833 1833 1833 1843 1843 1853 1863 1863 1873 1926 1936 1947 1959 1959 1970 2286 2286 2301 2301 2301 2301 2301 2301 2005 2005 2005 2005 2016 2016 2028 2028 2028 2040 2040 2053 2053 2078 2078 2090 2286 2301 2301 2301 2301 2317 2317 2317 2317 2286 2286 2271 2256 2256 2241 2241 2241 2241 2241 2241 2241 2256 2271 2271 2271 2271 2271 1696 1696 1696 1696 1696 1688 1688 1688 1696 1696 1696 1696 1696 1705 1713 1705 1705 1705 2317 2317 2317 2317 2317 2317 2317 2317 2317 2317 2301 2301 2301 2317 2317 2317 2317 2317 2333 2333 2317 2317 2333 2333 1550 1550 1543 1543 1543 1543 1543 1543 1543 1543 1543 1543 1543 1543 1543 1543 1543 1543 1536 1536 1529 1529 1529 1529 1523 1523 1523 1523 1523 1509 1509 1509 1503 1503 1496 1496 1496 1496 1496 1489 1489 1489 1483 1483 1483 1483 1483 1483 1477 1477 1477 1477 1477 1470 1470 1470 1470 1470 1470 1470 1470 1464 1464 1470 1470 1470 1470 1464 1464 1464 1464 1464 1464 1464 1464 1464 1464 1470 1464 1464 1464 1464 1464 1464 1464 1464 1464 1464 1464 1464 1464 1464 1464 1470 1470 1470 1470 1470 1477 1370 1370 1370 1370 1370 1370 1370 1370 1370 1370 1370 1376 1381 1381 1387 1392 1392 1392 1458 1458 1458 1458 1458 1464 1464 1470 1470 1470 1477 1477 1483 1483 1489 1496 1509 1516 1523 1550 1557 1564 1572 1572 1572 1579 1579 2317 2317 1713 1713 1713 1722 1722 1722 1722 1722 1722 1722 1722 1722 1731 1731 1739 1748 1766 1785 2333 2333 2333 2349 2349 2365 2365 2365 2365 2349 2349 2349 2349 2365 2349 2349 2349 2349 2365 2365 2365 2349 2349 2365 2365 2365 2365 1776 1776 1776 1776 1766 1766 1766 1757 1748 1748 1748 1359 1359 1359 1354 1354 1354 1354 1354 1349 1349 1349 1343 1343 1343 1343 1343 1343 1343 1343 1343 1343 1338 1338 1338 1338 1338 1338 1333 1333 1333 1333 1333 1333 1333 1328 1328 1317 1312 1312 1317 1317 2349 2365 2365 2365 2365 2349 2349 2349 2365 2365 2365 2365 2365 2365 2365 2365 2349 2349 2333 2333 2349 2349 2349 2349 2349 2349 2349 2349 2349 2349 2349 2349 2349 2349 2349 2333 2333 2333 2333 2333 2333 2333 2333 2333 2333 2333 2333 2333 2317 2317 2317 2317 2301 2301 2301 2301 2301 2301 2317 2317 2333 2317 2317 2317 2301 2301 2317 2301 2301 2317 2317 2317 2333 2333 2333 2317 2317 2317 2317 2317 2317 2301 2301 2301 2317 2317 2317 0 0 0 0 0 0 0 0 0
0 0 0 0 0 0 0 0 0 0 0 0 0 0 0 0 0 0 0 0 0 0 0 0 0 0 0 0 0 0 0 0 0 2212 2212 2212 2212 2212 2212 2212 2212 2212 2212 2212 2212 2212 2212 2212 2212 2212 2212 2212 2212 2212 2226 2226 2226 2226 2226 2226 2226 2226 2226 2226 2226 2226 2226 2226 2226 2212 2198 2198 2198 2198 2198 2198 2198 2198 2198 2198 2198 2212 2212 2212 2212 2212 2212 2212 2226 2226 2226 2226 2226 2226 2226 2226 2212 2212 2212 2226 2226 2226 2226 2226 2226 2226 2241 2241 2241 2241 2241 2241 2241 2241 2241 2241 2241 2241 2241 2226 2226 2226 2226 2226 2241 2241 2241 2241 2241 2256 2256 2256 2256 2256 2256 2256 2241 2241 2256 2241 2241 2241 2256 2256 2256 2256 2256 2256 2256 2271 2271 2271 2271 2271 2271 2256 2256 2256 2256 2256 2256 2256 2256 2256 2256 2256 2256 2256 2256 2256 2256 2256 2256 2271 2256 2256 2256 2256 2256 2271 2271 2271 2256 2256 2256 2256 2241 2241 1833 1833 1833 1833 1833 1833 1833 1833 1843 1853 1853 1863 1863 1873 1915 1936 1947 1959 1959 2286 2286 2286 2286 2286 2286 2286 1993 1993 1993 2005 2005 2005 2016 2016 2028 2028 2028 2040 2040 2053 2053 2078 2286 2286 2286 2301 2301 2301 2301 2317 2317 2317 2301 2286 2286 2271 2256 2256 2241 2241 2241 2241 2241 2241 2241 2256 2271 2271 2271 2271 2271 1688 1688 1688 1688 1688 1688 1688 1688 1696 1696 1696 1696 1696 1705 1713 1705 1705 1705 2317 2317 2317 2317 2317 2301 2301 2317 2317 2317 2301 2301 2301 2301 2301 2301 2301 2301 2301 2317 2301 2301 2301 2301 1550 1550 1543 1543 1543 1543 1543 1543 1543 1543 1543 1543 1543 1543 1543 1543 1543 1543 1536 1536 1529 1529 1529 1529 1529 1523 1523 1523 1523 1516 1509 1509 1509 1503 1496 1496 1496 1496 1496 1489 1489 1489 1489 1483 1483 1483 1483 1483 1483 1483 1477 1477 1477 1470 1470 1470 1470 1470 1464 1464 1464 1464 1464 1464 1464 1464 1464 1464 1458 1458 1458 1458 1458 1458 1464 1464 1464 1464 1464 1464 1464 1464 1464 1464 1464 1464 1458 1458 1458 1458 1458 1458 1458 1458 1464 1464 1464 1464 1464 1376 1376 1370 1370 1370 1370 1370 1370 1370 1370 1376 1376 1381 1387 1392 1392 1392 1392 1452 1458 1458 1458 1458 1458 1458 1464 1470 1470 1477 1477 1483 1483 1489 1503 1509 1516 1536 1550 1557 1564 1564 1564 1564 1564 1579 2317 2317 1722 1722 1722 1722 1722 1722 1722 1722 1722 1722 1722 1722 1731 1731 1739 1748 1766 2317 2317 2333 2333 2333 2333 2333 2349 2349 2349 2349 2349 2349 2349 2349 2333 2333 2333 2333 2349 2349 2349 2349 2349 2349 2365 2365 2365 1776 1776 1776 1776 1776 1766 1766 1766 1748 1748 1748 1748 1359 1359 1354 1354 1354 1354 1354 1354 1349 1349 1349 1349 1343 1343 1343 1343 1343 1349 1343 1343 1343 1338 1338 1338 1338 1338 1333 1333 1333 1333 1333 1333 1333 1328 1328 1322 1317 1317 1317 1317 2349 2349 2349 2349 2349 2349 2349 2349 2349 2349 2349 2349 2349 2349 2349 2349 2333 2333 2333 2333 2333 2333 2333 2333 2333 2349 2349 2349 2349 2349 2349 2349 2333 2333 2333 2317 2317 2317 2317 2333 2317 2317 2317 2317 2317 2317 2317 2317 2317 2317 2317 2301 2301 2301 2301 2301 2301 2301 2301 2301 2301 2317 2317 2301 2301 2301 2301 2301 2301 2301 2301 2301 2301 2301 2317 2301 2301 2301 2301 2317 2301 2301 2301 2301 2301 2301 2317 0 0 0 0 0 0 0 0 0
0 0 0 0 0 0 0 0 0 0 0 0 0 0 0 0 0 0 0 0 0 0 0 0 0 0 0 0 0 0 0 0 0 2212 2198 2198 2198 2198 2198 2198 2198 2198 2198 2198 2184 2184 2198 2198 2198 2198 2198 2212 2212 2212 2212 2212 2212 2212 2212 2212 2212 2212 2212 2212 2212 2212 2212 2212 2212 2198 2198 2198 2198 2198 2198 2198 2198 2198 2198 2198 2198 2198 2198 2198 2198 2198 2198 2198 2212 2212 2212 2212 2212 2212 2212 2212 2212 2212 2212 2212 2212 2212 2212 2212 2226 2226 2226 2226 2226 2226 2226 2241 2241 2241 2241 2241 2241 2241 2226 2226 2226 2226 2226 2226 2241 2241 2241 2241 2241 2241 2241 2241 2256 2241 2241 2241 2241 2241 2241 2226 2226 2241 2241 2241 2256 2256 2256 2256 2256 2271 2271 2271 2271 2271 2271 2256 2256 2241 2241 2241 2241 2256 2256 2256 2241 2241 2256 2256 2256 2256 2256 2256 2256 2256 2256 2256 2256 2256 2256 2256 2256 2256 2256 2256 2256 2241 2241 2241 1833 1833 1833 1833 1833 1833 1833 1833 1843 1853 1853 1863 1863 1873 1915 1936 1947 1959 2256 2286 2271 2271 2286 2286 2286 1981 1981 1981 1993 1993 1993 2005 2016 2016 2016 2028 2028 2040 2040 2053 2053 2271 2271 2271 2286 2301 2301 2301 2301 2301 2301 2301 2301 2286 2286 2271 2271 2256 2241 2241 2241 2241 2241 2241 2241 2256 2256 2271 2271 2271 2271 1688 1688 1688 1688 1688 1688 1688 1688 1696 1696 1696 1696 1705 1713 1713 1713 1713 1713 2301 2301 2301 2301 2301 2301 2301 2301 2301 2301 2301 2286 2286 2301 2301 2301 2301 2301 2301 2301 2286 2286 2286 0 1550 1550 1550 1550 1543 1543 1543 1543 1543 1543 1543 1543 1543 1543 1543 1543 1543 1543 1536 1536 1529 1529 1536 1529 1529 1529 1529 1523 1523 1516 1516 1516 1509 1509 1503 1503 1496 1496 1496 1489 1489 1489 1489 1483 1483 1483 1483 1483 1483 1483 1477 1477 1477 1470 1470 1470 1470 1470 1464 1464 1464 1464 1458 1458 1458 1458 1452 1452 1452 1452 1452 1452 1452 1452 1452 1452 1452 1452 1452 1452 1452 1452 1452 1452 1452 1458 1452 1452 1452 1458 1458 1458 1458 1458 1458 1458 1458 1458 1458 1381 1381 1370 1370 1370 1370 1370 1370 1370 1370 1376 1376 1381 1387 1392 1392 1392 1398 1452 1452 1452 1458 1458 1458 1458 1464 1470 1470 1477 1483 1483 1489 1496 1509 1516 1536 1543 1550 1557 1564 1564 1564 1564 1564 2333 2317 2317 2317 1722 1722 1722 1722 1722 1722 1722 1722 1722 1722 1722 1731 1731 1739 1748 1776 2317 2317 2317 2317 2333 2333 2333 2333 2333 2333 2333 2333 2333 2333 2333 2333 2333 2333 2333 2333 2333 2333 2333 2333 2333 2333 2349 2349 1776 1776 1776 1776 1776 1776 1766 1766 1748 1748 1748 1748 1359 1354 1354 1354 1354 1354 1354 1354 1349 1349 1349 1349 1349 1349 1349 1349 1349 1349 1343 1343 1343 1338 1338 1338 1338 1338 1333 1333 1333 1333 1333 1333 1328 1328 1328 1322 1317 1317 1317 1317 2349 2349 2333 2333 2333 2333 2333 2333 2333 2333 2333 2333 2333 2333 2333 2333 2333 2333 2317 2317 2333 2333 2333 2333 2333 2333 2333 2333 2333 2333 2333 2333 2333 2333 2317 2317 2317 2317 2317 2317 2301 2301 2301 2301 2317 2317 2317 2317 2301 2301 2317 2301 2301 2301 2301 2301 2301 2301 2301 2301 2301 2301 2301 2301 2301 2301 2301 2301 2301 2301 2286 2286 2301 2301 2301 2301 2301 2301 2301 2301 2301 2301 2301 2301 2301 2301 2301 0 0 0 0 0 0 0 0 0
0 0 0 0 0 0 0 0 0 0 0 0 0 0 0 0 0 0 0 0 0 0 0 0 0 0 0 0 0 0 0 0 0 2198 2198 2198 2198 2198 2198 2198 2184 2184 2184 2184 2184 2184 2184 2184 2184 2198 2198 2198 2198 2198 2198 2212 2212 2212 2212 2212 2212 2212 2212 2212 2212 2212 2212 2212 2212 2198 2198 2198 2198 2184 2184 2198 2198 2198 2184 2184 2184 2198 2198 2184 2184 2184 2198 2198 2198 2198 2198 2198 2212 2212 2212 2198 2198 2198 2198 2212 2212 2212 2212 2212 2212 2212 2212 2212 2212 2212 2226 2226 2226 2226 2226 2226 2226 2226 2226 2226 2226 2212 2212 2226 2226 2226 2226 2226 2226 2226 2241 2241 2241 2241 2241 2241 2241 2241 2226 2226 2226 2226 2241 2241 2241 2256 2256 2256 2256 2256 2256 2256 2256 2256 2256 2241 2241 2241 2241 2241 2241 2241 2241 2241 2241 2241 2241 2256 2256 2241 2241 2241 2256 2241 2241 2241 2241 2241 2241 2241 2241 2241 2241 2241 2241 2241 2241 2241 1833 1833 1833 1833 1833 1833 1833 1833 1843 1853 1853 1863 1863 1873 1873 1947 1947 2256 2256 2286 2271 2271 2271 2271 2286 1981 1981 1981 1993 1993 1993 2005 2016 2016 2016 2028 2028 2028 2040 2053 2271 2271 2271 2271 2271 2286 2286 2286 2301 2301 2301 2301 2301 2286 2271 2256 2256 2256 2241 2241 2241 2241 2241 2241 2241 2256 2256 2256 2271 2271 2271 1688 1688 1688 1688 1696 1696 1696 1696 1696 1696 1696 1696 1705 1713 1713 1713 1713 1713 2301 2301 2301 2301 2286 2286 2286 2286 2286 2286 2286 2286 2286 2286 2286 2286 2286 2286 2286 2301 2286 2286 2286 0 1550 1550 1550 1550 1550 1543 1543 1543 1543 1543 1543 1543 1543 1543 1543 1543 1543 1543 1536 1536 1536 1536 1536 1529 1529 1529 1529 1523 1523 1523 1516 1516 1509 1509 1509 1503 1503 1503 1496 1496 1496 1496 1489 1489 1489 1489 1489 1483 1483 1483 1483 1477 1477 1477 1477 1470 1470 1470 1464 1464 1464 1464 1458 1458 1458 1458 1452 1452 1452 1452 1452 1452 1445 1445 1452 1445 1445 1445 1445 1445 1445 1445 1445 1445 1445 1452 1445 1445 1445 1452 1452 1452 1445 1445 1445 1445 1445 1445 1445 1387 1381 1376 1370 1370 1370 1370 1370 1370 1370 1376 1376 1381 1387 1392 1392 1398 1398 1445 1445 1452 1452 1452 1458 1458 1464 1470 1470 1477 1483 1483 1489 1503 1509 1523 1543 1550 1557 1557 1564 1564 1564 1564 2317 2317 2317 2317 2317 1722 1722 1722 1722 1722 1722 1722 1722 1722 1722 1722 1731 1731 1739 1748 1766 2317 2317 2317 2317 2317 2333 2333 2333 2333 2333 2333 2333 2333 2333 2333 2317 2317 2333 2333 2333 2333 2333 2333 2333 2333 2333 2333 2333 1776 1776 1776 1776 1776 1776 1776 1766 1757 1748 1748 1748 1354 1354 1354 1354 1354 1354 1354 1354 1349 1349 1349 1349 1349 1349 1349 1349 1349 1349 1343 1343 1343 1343 1343 1343 1338 1338 1338 1338 1338 1338 1333 1333 1328 1328 1328 1322 1317 1317 1333 1333 2333 2333 2317 2317 2333 2317 2317 2333 2333 2317 2317 2317 2317 2317 2333 2333 2317 2317 2317 2317 2333 2333 2333 2333 2333 2317 2317 2317 2317 2333 2317 2317 2317 2317 2317 2317 2301 2301 2317 2317 2301 2301 2301 2301 2301 2301 2301 2301 2301 2301 2301 2301 2301 2301 2301 2301 2301 2301 2301 2301 2301 2301 2301 2286 2286 2286 2286 2286 2286 2286 2286 2286 2301 2301 2301 2301 2301 2286 2286 2301 2301 2301 2301 2301 2301 2301 2301 0 0 0 0 0 0 0 0 0
0 0 0 0 0 0 0 0 0 0 0 0 0 0 0 0 0 0 0 0 0 0 0 0 0 0 0 0 0 0 0 0 0 2184 2184 2184 2184 2184 2184 2184 2184 2184 2170 2170 2170 2170 2184 2184 2184 2198 2198 2198 2198 2198 2198 2198 2198 2198 2198 2198 2198 2198 2198 2198 2198 2198 2198 2198 2198 2184 2184 2184 2184 2184 2184 2184 2198 2198 2184 2184 2184 2184 2184 2184 2184 2184 2184 2184 2184 2198 2198 2198 2198 2198 2198 2198 2198 2198 2198 2212 2212 2212 2212 2212 2212 2212 2212 2212 2212 2212 2212 2212 2212 2212 2212 2212 2212 2212 2212 2212 2212 2212 2212 2212 2212 2226 2212 2212 2212 2212 2226 2226 2226 2226 2226 2226 2226 2226 2226 2226 2226 2226 2226 2226 2241 2241 2241 2241 2241 2256 2256 2256 2241 2241 2241 2241 2241 2226 2226 2241 2241 2241 2241 2241 2241 2241 2241 2241 2241 2241 2241 2241 2241 2241 2241 2241 2226 2226 2226 2241 2241 2241 2241 2241 2241 2241 2241 2241 1833 1833 1833 1833 1833 1833 1833 1833 1843 1853 1853 1863 1863 1863 1970 1959 1959 1970 1981 2271 2271 2271 2271 2271 1981 1981 1981 1981 1993 1993 1993 2005 2016 2016 2016 2028 2028 2028 2040 2271 2256 2256 2256 2271 2271 2286 2286 2286 2286 2301 2301 2301 2301 2286 2271 2256 2256 2241 2241 2241 2241 2241 2241 2241 2241 2241 2241 2256 2271 2271 2271 1688 1688 1688 1688 1696 1696 1696 1696 1696 1696 1696 1696 1705 1713 1713 1713 1713 1713 2286 2286 2286 2286 2286 2286 2286 2286 2286 2286 2286 2286 2286 2286 2286 2286 2286 2286 2286 2301 2286 2286 2286 0 1550 1550 1550 1550 1550 1550 1543 1543 1543 1543 1543 1543 1543 1543 1543 1543 1543 1543 1536 1536 1536 1536 1536 1529 1529 1529 1529 1529 1529 1523 1516 1516 1516 1509 1509 1509 1509 1509 1503 1503 1496 1496 1489 1489 1489 1489 1489 1483 1483 1483 1483 1483 1483 1477 1477 1477 1470 1470 1464 1464 1464 1464 1464 1464 1458 1458 1452 1452 1452 1452 1445 1445 1445 1445 1445 1445 1445 1445 1445 1445 1439 1439 1439 1439 1439 1445 1445 1439 1439 1445 1445 1445 1445 1439 1439 1445 1439 1439 1439 1387 1381 1381 1376 1376 1376 1370 1370 1370 1376 1376 1381 1387 1387 1392 1398 1404 1415 1433 1439 1445 1445 1445 1452 1458 1458 1470 1470 1477 1483 1489 1496 1503 1523 1543 1550 1550 1557 1557 1564 1564 1564 1564 2317 2317 2317 2317 2317 1731 1731 1722 1722 1722 1722 1722 1722 1722 1722 1731 1731 1731 1739 1748 1757 2317 2317 2317 2317 2317 2317 2317 2317 2333 2333 2333 2317 2317 2317 2317 2317 2317 2317 2317 2317 2317 2317 2317 2333 2333 2333 2333 2333 1776 1776 1776 1776 1776 1776 1776 1766 1757 1757 1757 1354 1354 1354 1354 1354 1354 1354 1354 1354 1354 1354 1354 1354 1349 1349 1349 1349 1349 1349 1349 1349 1343 1343 1343 1343 1343 1343 1338 1338 1338 1338 1338 1333 1328 1328 1328 1322 1317 1317 1333 1333 2317 2317 2317 2317 2317 2317 2317 2317 2317 2317 2317 2317 2317 2317 2317 2317 2317 2317 2317 2317 2317 2317 2317 2317 2317 2317 2317 2317 2317 2317 2317 2317 2317 2317 2317 2301 2301 2301 2301 2301 2301 2301 2301 2301 2301 2301 2301 2301 2301 2301 2301 2301 2301 2301 2301 2301 2301 2301 2286 2286 2286 2286 2286 2286 2286 2286 2286 2286 2286 2286 2286 2286 2286 2286 2286 2286 2286 2286 2286 2286 2286 2286 2286 2286 2286 2301 2301 0 0 0 0 0 0 0 0 0
0 0 0 0 0 0 0 0 0 0 0 0 0 0 0 0 0 0 0 0 0 0 0 0 0 0 0 0 0 0 0 0 0 2184 2184 2184 2184 2184 2184 2184 2184 2170 2170 2170 2170 2170 2184 2184 2184 2184 2184 2198 2184 2184 2184 2184 2198 2198 2198 2198 2198 2198 2198 2184 2184 2198 2198 2184 2184 2170 2170 2184 2184 2184 2184 2184 2184 2184 2184 2184 2184 2184 2170 2170 2170 2170 2170 2184 2184 2184 2198 2198 2198 2198 2198 2198 2198 2198 2198 2198 2198 2198 2198 2198 2198 2198 2198 2198 2212 2212 2212 2212 2212 2212 2212 2212 2212 2212 2212 2212 2212 2212 2212 2212 2212 2212 2212 2212 2212 2212 2226 2226 2226 2212 2212 2226 2226 2226 2212 2212 2212 2212 2212 2212 2226 2226 2226 2226 2226 2241 2241 2241 2241 2241 2241 2226 2226 2226 2226 2226 2226 2226 2226 2226 2226 2226 2226 2241 2241 2241 2226 2226 2241 2226 2226 2226 2226 2226 2226 2226 2226 2226 2241 2241 2241 2241 2241 2241 2241 1843 1843 1843 1843 1833 1833 1833 1843 1853 1853 1863 1863 1863 1959 1959 1959 1970 1970 1970 2271 2271 2271 2271 1981 1981 1981 1981 1981 1993 2005 2005 2016 2016 2016 2028 2028 2028 2256 2256 2256 2256 2256 2256 2271 2271 2271 2271 2271 2286 2286 2286 2286 2271 2256 2256 2256 2241 2241 2241 2241 2241 2241 2241 2241 2241 2241 2256 2271 2271 2271 1696 1688 1688 1688 1688 1696 1696 1696 1696 1696 1696 1696 1705 1713 1713 1713 1713 1713 2286 2286 2271 2271 2271 2271 2271 2271 2271 2271 2271 2286 2286 2286 2271 2271 2271 2271 2286 2286 2286 2286 2286 0 1550 1550 1550 1550 1550 1550 1543 1543 1543 1543 1543 1543 1543 1543 1543 1543 1543 1543 1536 1536 1536 1536 1536 1529 1529 1529 1529 1529 1529 1523 1516 1516 1516 1516 1516 1509 1509 1509 1509 1503 1496 1496 1496 1489 1489 1489 1489 1483 1483 1483 1483 1483 1483 1477 1477 1477 1470 1470 1470 1464 1464 1464 1464 1464 1458 1458 1458 1458 1452 1452 1445 1445 1445 1445 1445 1439 1439 1439 1439 1439 1439 1439 1439 1439 1439 1439 1439 1439 1439 1439 1439 1439 1439 1439 1439 1439 1433 1433 1433 1387 1387 1387 1381 1381 1376 1376 1376 1376 1376 1381 1381 1387 1392 1392 1398 1410 1427 1433 1433 1439 1445 1445 1452 1458 1458 1470 1477 1477 1483 1489 1503 1509 1523 1543 1550 1557 1557 1557 1557 1564 2301 2301 2317 2317 2317 2317 2317 1739 1739 1731 1731 1722 1722 1722 1722 1722 1722 1731 1731 1731 1739 1748 1748 2301 2317 2301 2301 2317 2317 2317 2317 2317 2317 2317 2317 2317 2317 2317 2317 2317 2317 2317 2317 2317 2317 2317 2317 2317 2317 2333 2333 1776 1776 1776 1776 1776 1776 1776 1776 1766 1766 1766 1354 1354 1354 1354 1354 1354 1354 1354 1354 1354 1354 1354 1354 1349 1349 1349 1349 1349 1349 1349 1349 1349 1343 1343 1343 1349 1349 1343 1343 1338 1338 1338 1338 1333 1328 1328 1333 1328 1328 1333 1333 2317 2317 2317 2317 2317 2317 2317 2317 2317 2317 2317 2317 2317 2317 2317 2317 2317 2317 2317 2317 2317 2317 2317 2317 2317 2301 2301 2301 2301 2317 2317 2317 2317 2317 2301 2301 2301 2301 2301 2301 2301 2301 2301 2301 2301 2301 2286 2286 2286 2286 2286 2286 2286 2301 2286 2286 2286 2286 2286 2286 2286 2286 2286 2286 2286 2286 2286 2286 2286 2286 2286 2271 2271 2286 2286 2286 2286 2286 2286 2286 2286 2286 2286 2286 2286 2286 2286 0 0 0 0 0 0 0 0 0
0 0 0 0 0 0 0 0 0 0 0 0 0 0 0 0 0 0 0 0 0 0 0 0 0 0 0 0 0 0 0 0 0 2184 2170 2170 2184 2184 2184 2170 2170 2170 2170 2170 2170 2170 2170 2170 2184 2184 2184 2184 2184 2184 2184 2184 2198 2198 2184 2184 2184 2184 2184 2184 2184 2184 2184 2170 2170 2156 2156 2170 2170 2170 2170 2184 2184 2184 2170 2170 2170 2170 2170 2170 2170 2170 2170 2170 2184 2184 2170 2170 2184 2184 2184 2184 2184 2184 2184 2184 2184 2184 2184 2184 2184 2198 2198 2198 2198 2212 2212 2212 2212 2198 2198 2198 2198 2198 2198 2198 2198 2198 2198 2198 2198 2198 2198 2198 2212 2212 2212 2212 2212 2212 2212 2212 2212 2212 2212 2212 2212 2212 2212 2212 2212 2212 2212 2212 2226 2226 2226 2226 2226 2226 2241 2226 2212 2212 2212 2212 2212 2226 2226 2226 2226 2226 2226 2226 2226 2226 2226 2226 2226 2226 2226 2226 2226 2226 2226 2226 2226 2226 2226 2226 2226 2241 2241 2241 2241 1843 1843 1843 1843 1833 1833 1843 1843 1853 1853 1863 1873 1894 1959 1959 1959 1970 1959 1959 2271 2271 2271 2271 1970 1970 1970 1981 1981 1993 2005 2005 2016 2016 2028 2028 2028 2028 2256 2256 2256 2256 2256 2256 2256 2256 2271 2271 2271 2271 2271 2271 2271 2256 2256 2241 2241 2241 2241 2241 2241 2241 2241 2241 2241 2241 2241 2256 2271 2271 2271 1696 1688 1688 1688 1688 1696 1696 1696 1696 1696 1696 1696 1705 1705 1705 1705 1705 2271 2271 2271 2256 2256 2256 2256 2256 2256 2256 2256 2256 2256 2256 2256 2256 2256 2256 2256 2271 2271 2286 2286 2286 0 1550 1550 1550 1550 1550 1550 1543 1543 1543 1543 1543 1543 1543 1543 1543 1543 1543 1543 1543 1536 1536 1536 1536 1529 1529 1529 1529 1529 1529 1523 1516 1516 1516 1516 1516 1516 1509 1509 1509 1503 1503 1496 1496 1489 1489 1489 1489 1489 1483 1483 1483 1483 1483 1483 1483 1483 1477 1470 1470 1464 1464 1464 1464 1464 1458 1458 1458 1458 1452 1452 1452 1452 1445 1445 1445 1439 1439 1439 1439 1439 1439 1439 1439 1439 1439 1439 1439 1433 1433 1433 1433 1433 1433 1433 1433 1433 1433 1427 1427 1392 1387 1387 1387 1381 1381 1376 1376 1376 1381 1381 1387 1387 1392 1398 1410 1415 1427 1427 1433 1439 1439 1445 1452 1458 1458 1477 1483 1489 1496 1503 1516 1529 1529 1543 1550 1550 1550 1550 1557 2286 2286 2301 2301 2317 2317 2317 2317 1739 1739 1731 1731 1722 1722 1722 1722 1731 1731 1731 1731 1731 1739 1748 1748 2286 2301 2301 2301 2301 2317 2301 2301 2301 2301 2301 2301 2301 2301 2301 2301 2301 2301 2301 2301 2301 2317 2317 2317 2317 2317 2317 2317 1766 1766 1776 1776 1776 1776 1776 1776 1776 1776 1776 1354 1354 1354 1354 1354 1354 1354 1354 1354 1354 1354 1354 1354 1354 1354 1354 1354 1349 1349 1349 1349 1349 1349 1349 1349 1349 1349 1343 1343 1343 1343 1343 1338 1333 1333 1333 1333 1333 2317 2317 0 2317 2301 2301 2301 2301 2301 2301 2301 2301 2301 2301 2301 2301 2301 2301 2301 2317 2317 2317 2317 2317 2317 2317 2301 2301 2301 2301 2301 2301 2301 2301 2301 2301 2301 2301 2301 2301 2301 2301 2301 2286 2286 2286 2286 2286 2286 2286 2286 2286 2286 2286 2286 2286 2286 2286 2286 2286 2286 2286 2271 2271 2271 2271 2271 2271 2271 2271 2271 2271 2271 2271 2256 2256 2256 2271 2271 2271 2286 2286 2286 2286 2286 2286 2286 2286 2286 2286 0 0 0 0 0 0 0 0 0
0 0 0 0 0 0 0 0 0 0 0 0 0 0 0 0 0 0 0 0 0 0 0 0 0 0 0 0 0 0 0 0 0 2170 2170 2170 2170 2170 2170 2170 2170 2170 2170 2170 2170 2170 2170 2170 2170 2170 2170 2170 2170 2170 2170 2170 2184 2184 2170 2170 2170 2170 2170 2170 2170 2170 2170 2170 2170 2156 2156 2156 2156 2156 2156 2156 2184 2184 2170 2170 2170 2170 2156 2156 2156 2156 2156 2170 2170 2170 2170 2170 2170 2170 2170 2170 2184 2184 2184 2184 2184 2184 2184 2184 2184 2184 2184 2184 2184 2198 2198 2184 2184 2184 2184 2198 2198 2198 2198 2198 2198 2198 2198 2198 2198 2198 2198 2198 2198 2198 2198 2198 2198 2212 2212 2212 2212 2212 2212 2212 2212 2212 2212 2212 2212 2212 2212 2212 2212 2226 2226 2226 2226 2226 2226 2212 2212 2198 2198 2198 2212 2212 2212 2212 2212 2212 2212 2212 2226 2226 2226 2226 2226 2226 2212 2212 2212 2212 2212 2212 2226 2226 2226 2226 2226 2241 2241 2256 1843 1843 1843 1843 1843 1843 1843 1843 1843 1853 1863 1863 1873 1894 1959 1959 1959 1970 1959 1959 1959 1959 1959 1959 1959 1970 1970 1981 1981 1981 1993 2005 2016 2028 2028 2028 2028 2256 2241 2241 2256 2256 2256 2256 2256 2256 2256 2256 2256 2256 2256 2256 2256 2241 2241 2241 2241 2241 2241 2241 2241 2241 2226 2226 2241 2241 2241 2241 2271 2271 2271 1696 1688 1688 1688 1696 1696 1696 1696 1696 1696 1696 1705 1705 1705 1705 1705 1705 1713 2271 2271 2241 2241 2256 2256 2241 2241 2256 2256 2256 2256 2256 2256 2256 2256 2256 2256 2256 2256 2271 2286 2286 0 1550 1550 1550 1550 1550 1550 1550 1550 1550 1550 1550 1550 1550 1550 1550 1550 1543 1543 1543 1543 1536 1536 1536 1529 1529 1529 1529 1529 1529 1516 1516 1516 1516 1516 1516 1516 1509 1509 1509 1509 1503 1503 1496 1496 1496 1489 1489 1489 1489 1483 1483 1483 1483 1483 1483 1483 1477 1477 1470 1470 1470 1464 1464 1464 1464 1458 1458 1458 1458 1452 1452 1452 1445 1445 1445 1439 1439 1439 1439 1439 1439 1439 1433 1433 1433 1433 1433 1433 1433 1433 1433 1433 1433 1433 1433 1433 1427 1421 1421 1392 1387 1387 1387 1387 1381 1381 1381 1381 1381 1387 1387 1392 1392 1404 1410 1415 1421 1427 1427 1433 1439 1445 1452 1458 1458 1477 1483 1489 1503 1503 1516 1529 1536 1550 1557 1550 1550 1550 2271 2271 2286 2286 2301 2301 2301 2301 2301 2301 1748 1739 1731 1731 1731 1722 1722 1731 1731 1731 1731 1731 1739 1748 2271 2271 2286 2286 2286 2301 2301 2301 2301 2286 2286 2286 2286 2286 2271 2271 2286 2286 2286 2286 2286 2286 2286 2301 2301 2301 2301 2317 2317 1766 1766 1776 1776 1776 1776 1785 1785 1776 1776 1776 1354 1354 1354 1354 1354 1354 1354 1354 1354 1354 1354 1354 1354 1354 1354 1354 1354 1349 1349 1349 1349 1349 1349 1349 1349 1349 1349 1349 1343 1343 1343 1343 1338 1333 1333 1333 0 0 0 0 2317 2301 2301 2301 2301 2301 2301 2301 2301 2301 2301 2301 2301 2301 2301 2301 2301 2301 2301 2301 2301 2301 2301 2301 2286 2286 2301 2286 2286 2301 2301 2301 2301 2301 2301 2301 2301 2301 2301 2301 2301 2286 2286 2286 2286 2286 2286 2286 2286 2286 2286 2286 2286 2286 2286 2286 2286 2286 2286 2271 2271 2271 2271 2271 2271 2271 2271 2271 2256 2256 2256 2256 2241 2241 2256 2256 2271 2271 2271 2271 2271 2271 2271 2271 2271 2271 2256 2256 0 0 0 0 0 0 0 0 0
0 0 0 0 0 0 0 0 0 0 0 0 0 0 0 0 0 0 0 0 0 0 0 0 0 0 0 0 0 0 0 0 0 2156 2156 2156 2156 2156 2170 2170 2156 2156 2156 2156 2156 2156 2156 2156 2156 2170 2170 2170 2156 2156 2156 2156 2156 2156 2156 2156 2156 2156 2170 2170 2170 2170 2170 2170 2170 2156 2156 2156 2143 2143 2156 2156 2156 2156 2156 2156 2156 2156 2156 2156 2156 2156 2156 2156 2156 2170 2170 2170 2170 2170 2170 2170 2170 2170 2184 2184 2184 2170 2170 2184 2184 2170 2156 2156 2170 2184 2184 2170 2170 2184 2184 2184 2198 2198 2184 2184 2198 2198 2198 2198 2184 2184 2184 2184 2184 2184 2184 2184 2198 2198 2198 2212 2212 2212 2212 2212 2212 2212 2212 2198 2198 2198 2212 2212 2212 2212 2212 2212 2212 2212 2212 2212 2198 2198 2198 2198 2198 2198 2198 2198 2198 2198 2198 2198 2212 2212 2212 2212 2212 2212 2212 2212 2212 2212 2212 2212 2212 2212 2226 2226 2226 2226 2241 2241 1843 1843 1843 1843 1843 1843 1843 1843 1843 1853 1863 1863 1873 1947 1947 1959 1959 1959 1959 1959 1959 1947 1947 1959 1959 1959 1970 1970 1981 1981 1993 2005 2016 2028 2028 2028 2028 2241 2241 2241 2241 2241 2256 2256 2256 2256 2241 2241 2256 2241 2241 2256 2256 2241 2241 2241 2241 2241 2241 2241 2241 2241 2226 2226 2241 2241 2241 2241 2241 2241 2241 1696 1696 1688 1688 1696 1696 1696 1696 1696 1696 1705 1705 1705 1713 1713 1713 1713 1713 2241 2241 2241 2241 2241 2241 2241 2241 2241 2241 2241 2241 2241 2241 2241 2241 2241 2241 2241 2256 2256 2271 2271 2271 1550 1550 1550 1550 1550 1550 1550 1550 1550 1550 1550 1550 1550 1550 1550 1550 1550 1550 1543 1543 1543 1536 1536 1536 1536 1536 1529 1529 1529 1516 1516 1516 1516 1509 1509 1509 1509 1509 1509 1509 1503 1503 1496 1496 1496 1489 1489 1489 1489 1489 1489 1483 1483 1483 1483 1483 1477 1477 1477 1470 1470 1464 1464 1464 1464 1458 1458 1458 1458 1458 1458 1452 1445 1445 1445 1439 1439 1439 1439 1439 1433 1433 1433 1433 1433 1433 1433 1433 1433 1433 1427 1427 1427 1427 1427 1427 1427 1415 1415 1392 1392 1387 1387 1387 1387 1387 1381 1381 1381 1387 1387 1392 1398 1404 1410 1415 1421 1427 1427 1433 1439 1445 1452 1458 1464 1483 1489 1496 1503 1509 1516 1529 1536 1550 1557 1557 2271 2271 2271 2271 2271 2286 2286 2286 2286 2301 2301 1757 1748 1748 1739 1731 1731 1731 1731 1731 1739 1739 1739 1739 1748 1748 2271 2271 2286 2286 2286 2286 2286 2286 2286 2271 2271 2286 2271 2271 2271 2271 2286 2286 2286 2286 2286 2286 2286 2286 2286 2286 2286 2301 2301 1776 1776 1776 1776 1776 1776 1785 1785 1785 1785 1354 1354 1354 1354 1354 1354 1354 1354 1354 1354 1354 1354 1354 1354 1354 1354 1354 1354 1349 1349 1349 1349 1349 1349 1349 1349 1354 1349 1349 1349 1349 1349 1343 1338 1338 1333 1333 0 0 0 0 2301 2301 2301 2286 2286 2301 2301 2301 2301 2301 2286 2286 2301 2301 2301 2301 2301 2301 2301 2301 2301 2301 2301 2301 2286 2286 2286 2286 2286 2286 2286 2301 2301 2301 2301 2301 2301 2286 2286 2301 2286 2271 2271 2271 2271 2271 2271 2271 2286 2286 2286 2286 2271 2271 2286 2271 2271 2271 2271 2271 2256 2256 2256 2271 2256 2256 2256 2256 2241 2241 2241 2241 2241 2241 2241 2256 2256 2256 2256 2271 2271 2271 2271 2271 2256 2256 2241 2241 0 0 0 0 0 0 0 0 0
0 0 0 0 0 0 0 0 0 0 0 0 0 0 0 0 0 0 0 0 0 0 0 0 0 0 0 0 0 0 0 0 0 2143 2143 2156 2156 2156 2156 2156 2156 2156 2156 2156 2156 2156 2156 2143 2143 2156 2156 2156 2156 2156 2156 2156 2156 2156 2156 2156 2156 2156 2156 2156 2170 2170 2170 2170 2170 2143 2143 2143 2143 2143 2143 2143 2143 2143 2143 2143 2143 2143 2143 2143 2143 2143 2143 2143 2156 2156 2156 2156 2156 2156 2156 2156 2156 2156 2156 2156 2156 2156 2156 2156 2156 2170 2156 2156 2156 2156 2156 2156 2170 2170 2170 2170 2184 2184 2184 2184 2184 2184 2198 2184 2184 2184 2184 2184 2184 2184 2184 2184 2184 2198 2198 2198 2198 2198 2198 2198 2198 2198 2198 2198 2198 2198 2198 2198 2198 2212 2212 2212 2212 2212 2212 2212 2198 2198 2198 2198 2198 2198 2198 2198 2198 2198 2198 2198 2198 2198 2198 2198 2198 2198 2198 2198 2198 2198 2212 2212 2212 2212 2212 2212 2212 2226 2226 1853 1843 1843 1843 1843 1843 1843 1843 1843 1843 1853 1863 1863 1894 1947 1947 1959 1959 1959 1959 1947 1947 1947 1947 1947 1959 1959 1970 1970 1981 1981 1993 2005 2016 2028 2028 2226 2226 2241 2241 2241 2241 2241 2241 2241 2241 2241 2241 2241 2241 2241 2241 2241 2256 2241 2241 2241 2241 2241 2241 2226 2226 2241 2241 2241 2241 2241 2241 2241 2241 2241 2241 1705 1696 1696 1696 1696 1696 1696 1696 1696 1696 1705 1705 1713 1713 1713 1713 1713 1713 2226 2226 2226 2241 2241 2241 2241 2241 2241 2241 2241 2241 2241 2241 2241 2241 2241 2241 2241 2256 2256 2271 2271 2271 1543 1543 1543 1550 1550 1550 1543 1543 1550 1550 1550 1550 1550 1550 1550 1550 1550 1550 1543 1543 1543 1543 1543 1536 1536 1536 1529 1529 1529 1516 1509 1509 1516 1509 1509 1509 1509 1509 1509 1509 1509 1503 1496 1496 1496 1496 1489 1489 1489 1489 1489 1489 1483 1483 1483 1483 1477 1477 1477 1470 1470 1470 1464 1464 1464 1464 1458 1458 1458 1458 1458 1458 1452 1452 1445 1439 1439 1439 1439 1439 1433 1433 1433 1433 1433 1433 1433 1427 1427 1427 1427 1427 1427 1427 1427 1421 1421 1415 1415 1398 1392 1392 1392 1387 1387 1387 1387 1387 1387 1387 1387 1392 1398 1404 1415 1421 1421 1427 1427 1433 1433 1445 1452 1458 1470 1489 1496 1496 1503 1509 1516 1529 1536 1557 1557 2256 2256 2271 2271 2271 2271 2271 2271 2271 2271 2271 2271 1748 1748 1748 1739 1731 1731 1731 1731 1731 1739 1739 1739 1739 1748 1748 2271 2271 2271 2271 2271 2286 2271 2271 2271 2271 2271 2271 2271 2271 2271 2271 2271 2271 2271 2271 2271 2271 2271 2271 2271 2286 2286 2286 2286 1766 1766 1776 1776 1785 1785 1785 1785 1785 1785 1354 1354 1354 1354 1354 1354 1354 1354 1354 1354 1354 1354 1354 1354 1354 1354 1354 1354 1349 1349 1349 1349 1349 1349 1349 1349 1354 1349 1349 1349 1349 1349 1349 1343 1343 1343 0 0 0 0 0 2301 2301 2286 2286 2286 2286 2286 2286 2286 2286 2286 2286 2286 2286 2286 2286 2286 2286 2301 2301 2301 2301 2301 2286 2286 2286 2286 2271 2271 2286 2286 2286 2286 2301 2301 2301 2301 2286 2286 2286 2286 2256 2256 2256 2256 2256 2271 2271 2271 2271 2271 2256 2256 2256 2256 2256 2241 2241 2241 2241 2241 2256 2256 2256 2256 2256 2241 2241 2241 2241 2241 2241 2241 2241 2241 2241 2241 2241 2256 2256 2256 2256 2256 2256 2241 2241 2241 2241 0 0 0 0 0 0 0 0 0
0 0 0 0 0 0 0 0 0 0 0 0 0 0 0 0 0 0 0 0 0 0 0 0 0 0 0 0 0 0 0 0 0 2129 2129 2143 2143 2143 2143 2143 2156 2156 2143 2143 2143 2143 2143 2129 2129 2143 2156 2156 2156 2156 2156 2156 2156 2156 2143 2143 2156 2156 2156 2156 2156 2156 2156 2156 2156 2143 2143 2143 2143 2143 2143 2143 2143 2143 2143 2143 2143 2143 2143 2143 2143 2143 2143 2143 2143 2143 2143 2143 2143 2143 2143 2143 2143 2143 2143 2143 2143 2143 2143 2143 2156 2156 2156 2156 2156 2156 2143 2143 2156 2156 2170 2170 2170 2170 2170 2170 2170 2184 2184 2170 2170 2170 2156 2156 2156 2156 2170 2184 2184 2184 2184 2184 2184 2170 2170 2184 2184 2184 2184 2184 2184 2198 2198 2198 2198 2198 2198 2198 2198 2198 2198 2198 2184 2184 2198 2198 2184 2184 2198 2198 2184 2184 2198 2198 2198 2198 2198 2198 2198 2198 2198 2198 2198 2198 2198 2198 2198 2198 2198 2212 2212 2226 2226 1853 1853 1853 1853 1853 1853 1853 1843 1843 1843 1853 1863 1863 1894 1926 1947 1959 1959 1959 1947 1947 1947 1947 1947 1947 1959 1959 1970 1970 1981 1981 1993 1993 2212 2212 2212 2212 2226 2226 2226 2226 2241 2241 2241 2241 2241 2241 2241 2241 2241 2241 2241 2241 2241 2226 2226 2226 2226 2226 2226 2226 2226 2226 2226 2241 2241 2241 2241 2241 2241 2241 2241 1705 1705 1696 1696 1696 1696 1696 1696 1696 1696 1705 1705 1713 1713 1713 1713 1722 1722 2226 2226 2226 2226 2241 2241 2241 2241 2241 2241 2241 2226 2226 2226 2241 2241 2241 2241 2241 2241 2256 2271 2271 2271 1543 1543 1543 1543 1550 1550 1543 1543 1550 1550 1550 1550 1550 1550 1550 1557 1550 1550 1543 1543 1543 1543 1543 1536 1536 1536 1529 1529 1529 1516 1509 1509 1516 1509 1509 1516 1509 1509 1509 1509 1509 1503 1503 1503 1496 1496 1496 1489 1489 1489 1489 1489 1489 1483 1483 1483 1483 1483 1477 1477 1470 1470 1470 1464 1464 1464 1464 1464 1464 1458 1458 1458 1458 1458 1452 1445 1445 1439 1439 1439 1433 1433 1433 1433 1433 1433 1433 1427 1427 1427 1427 1427 1427 1427 1427 1421 1421 1415 1415 1398 1392 1392 1392 1392 1387 1387 1387 1387 1387 1387 1392 1392 1398 1404 1415 1421 1421 1427 1427 1433 1433 1445 1458 1464 1483 1496 1503 1503 1509 1509 1516 1529 1536 1557 2256 2256 2256 2256 2256 2256 2256 2271 2271 2271 2271 2271 2271 1748 1748 1748 1739 1731 1731 1731 1739 1739 1739 1739 1739 1739 1748 1748 2256 2256 2271 2271 2271 2271 2271 2271 2271 2271 2271 2271 2256 2256 2256 2271 2271 2271 2271 2271 2271 2271 2271 2271 2271 2271 2271 2271 2271 1766 1766 1776 1785 1785 1785 1785 1785 1785 1785 1354 1354 1354 1354 1359 1359 1359 1354 1354 1359 1354 1354 1354 1354 1354 1354 1354 1354 1349 1349 1349 1349 1349 1349 1349 1349 1349 1349 1349 1349 1349 1349 1349 1343 1343 0 0 0 0 0 0 2301 2286 2286 2271 2271 2271 2271 2271 2271 2271 2271 2271 2271 2271 2271 2271 2271 2271 2286 2286 2286 2286 2286 2271 2271 2271 2271 2271 2271 2271 2271 2271 2286 2286 2286 2286 2286 2286 2286 2271 2271 2256 2256 2241 2241 2256 2256 2256 2256 2256 2256 2256 2256 2256 2241 2241 2241 2241 2241 2241 2241 2241 2241 2241 2241 2241 2241 2241 2241 2241 2241 2241 2241 2241 2241 2241 2241 2241 2241 2256 2256 2256 2256 2241 2241 2241 2241 2241 0 0 0 0 0 0 0 0 0
0 0 0 0 0 0 0 0 0 0 0 0 0 0 0 0 0 0 0 0 0 0 0 0 0 0 0 0 0 0 0 0 0 2129 2129 2129 2129 2129 2143 2143 2143 2143 2129 2129 2143 2143 2129 2116 2116 2129 2143 2143 2143 2143 2156 2156 2156 2156 2143 2143 2143 2143 2143 2143 2143 2143 2143 2156 2156 2143 2143 2143 2129 2129 2129 2129 2143 2143 2143 2143 2143 2143 2143 2143 2143 2143 2129 2129 2143 2143 2143 2143 2143 2143 2143 2143 2143 2143 2143 2143 2143 2143 2143 2143 2156 2156 2156 2143 2143 2156 2143 2143 2143 2143 2156 2156 2156 2156 2156 2156 2170 2170 2170 2170 2170 2170 2156 2156 2156 2156 2170 2170 2170 2170 2170 2170 2170 2170 2170 2170 2170 2184 2184 2184 2184 2184 2184 2184 2184 2170 2170 2184 2184 2184 2184 2184 2170 2170 2184 2184 2184 2184 2184 2184 2170 2170 2170 2184 2184 2184 2184 2184 2184 2184 2184 2184 2198 2198 2198 2198 2198 2198 2198 2198 2198 2212 2226 1853 1853 1853 1853 1853 1853 1853 1853 1853 1853 1853 1863 1873 1894 1915 1936 1936 1947 1947 1947 1947 1947 1947 1947 1947 1959 1959 1959 1970 1970 1981 1981 2198 2198 2198 2198 2212 2212 2212 2212 2226 2226 2226 2226 2226 2226 2226 2226 2226 2241 2241 2241 2241 2241 2226 2226 2226 2226 2226 2226 2226 2226 2226 2226 2226 2226 2241 2241 2241 2241 2241 2241 1705 1705 1705 1696 1696 1696 1696 1696 1705 1705 1705 1705 1713 1713 1713 1713 1722 1722 1739 2226 2226 2226 2226 2226 2241 2241 2241 2241 2226 2226 2226 2226 2226 2226 2226 2226 2226 2241 2241 2256 2271 2271 1543 1543 1543 1543 1550 1550 1550 1550 1550 1550 1550 1550 1550 1557 1557 1557 1557 1550 1550 1543 1543 1543 1543 1536 1536 1536 1536 2053 2053 2053 1509 1509 1509 1509 1509 1509 1509 1509 1509 1509 1509 1503 1503 1503 1503 1503 1496 1496 1496 1496 1489 1489 1489 1489 1489 1483 1483 1483 1477 1477 1470 1470 1470 1464 1464 1464 1464 1464 1464 1464 1464 1464 1458 1458 1452 1445 1445 1445 1439 1439 1439 1439 1433 1433 1433 1433 1433 1427 1427 1427 1427 1427 1427 1427 1427 1421 1421 1415 1410 1398 1392 1392 1392 1392 1392 1392 1392 1392 1392 1392 1392 1392 1398 1410 1415 1421 1421 1427 1427 1433 1433 1452 1464 1483 1489 1496 1503 1503 1509 1509 2226 2212 2212 2226 2241 2256 2256 2256 2256 2256 2256 2256 2271 2256 2256 2256 2256 1739 1739 1748 1739 1739 1739 1739 1739 1739 1739 1739 1739 1739 1748 2241 2256 2256 2256 2256 2256 2271 2256 2256 2256 2271 2271 2271 2256 2256 2256 2256 2256 2256 2256 2256 2256 2256 2256 2256 2256 2271 2271 2271 1776 1776 1776 1776 1785 1785 1785 1785 1785 1785 1785 1359 1359 1359 1359 1359 1359 1359 1359 1359 1359 1354 1354 1354 1354 1354 1354 1354 1354 1349 1349 1349 1349 1349 1349 1349 1349 1349 1349 1349 1349 1349 1349 1349 1343 1343 0 0 0 0 0 0 0 2256 2256 2256 2256 2256 2256 2256 2271 2256 2256 2256 2271 2256 2256 2256 2256 2271 2271 2271 2271 2271 2271 2271 2256 2256 2271 2271 2271 2256 2256 2271 2271 2271 2271 2286 2286 2286 2271 2271 2271 2241 2241 2241 2241 2241 2241 2241 2241 2241 2241 2241 2241 2241 2241 2226 2226 2226 2226 2226 2226 2226 2241 2241 2241 2241 2241 2241 2226 2226 2226 2226 2226 2226 2226 2226 2226 2241 2241 2241 2241 2241 2241 2241 2241 2226 2226 2226 0 0 0 0 0 0 0 0 0
0 0 0 0 0 0 0 0 0 0 0 0 0 0 0 0 0 0 0 0 0 0 0 0 0 0 0 0 0 0 0 0 0 2129 2116 2116 2129 2129 2129 2129 2143 2129 2129 2129 2129 2129 2129 2116 2103 2103 2129 2116 2116 2116 2143 2143 2143 2143 2143 2143 2143 2143 2143 2143 2143 2129 2129 2129 2143 2129 2129 2129 2129 2129 2129 2129 2143 2143 2143 2143 2129 2129 2129 2129 2129 2129 2129 2129 2143 2143 2129 2129 2143 2143 2143 2129 2129 2129 2143 2143 2143 2143 2143 2143 2143 2143 2143 2143 2143 2143 2143 2143 2143 2143 2143 2143 2156 2156 2156 2156 2156 2156 2156 2156 2156 2156 2156 2156 2156 2156 2156 2156 2156 2156 2156 2156 2156 2156 2156 2170 2170 2170 2170 2170 2170 2170 2170 2170 2170 2170 2170 2170 2184 2184 2184 2170 2170 2170 2170 2170 2170 2170 2184 2184 2170 2170 2170 2184 2184 2184 2184 2184 2184 2184 2184 2184 2184 2184 2184 2184 2184 2184 2184 2198 2198 2212 1853 1853 1853 1853 1853 1853 1853 1853 1853 1853 1853 1853 1863 1873 1883 1904 1915 1926 1936 1936 1936 1936 1936 1936 1947 1947 1947 1947 1959 1959 1970 1981 1981 2198 2198 2198 2198 2198 2198 2212 2212 2212 2212 2212 2226 2226 2226 2226 2226 2226 2226 2226 2226 2226 2226 2226 2226 2226 2226 2226 2226 2226 2226 2226 2226 2226 2226 2226 2241 2241 2241 2241 2241 1705 1705 1705 1705 1705 1696 1696 1696 1705 1705 1705 1705 1713 1722 1722 1722 1722 1731 1731 2226 2226 2226 2226 2226 2226 2241 2241 2226 2226 2226 2226 2226 2226 2226 2226 2226 2226 2226 2241 2241 2256 2256 1543 1543 1543 1550 1550 1550 1550 1550 1550 1550 1550 1550 1557 1557 1564 1564 1557 1557 1550 1543 1536 1536 1536 1536 1536 2065 2053 2053 2053 2053 2053 1509 1509 1509 1509 1509 1509 1509 1509 1509 1509 1509 1503 1503 1503 1503 1496 1496 1496 1496 1489 1489 1489 1489 1489 1483 1483 1483 1483 1477 1477 1470 1470 1470 1470 1464 1464 1464 1464 1464 1464 1464 1464 1458 1458 1452 1452 1445 1439 1439 1439 1439 1439 1433 1433 1433 1433 1433 1427 1427 1427 1427 1427 1427 1427 1421 1421 1415 1410 1404 1398 1398 1392 1392 1392 1392 1392 1392 1392 1392 1392 1392 1398 1404 1415 1421 1421 1427 1427 1433 1439 1458 1477 1483 1489 1496 1503 1503 1509 1509 2226 2226 2226 2226 2241 2256 2256 2256 2256 2256 2256 2256 2256 2256 2256 2256 2256 1739 1739 1748 1739 1739 1739 1739 1739 1739 1748 1748 1739 1739 1748 2226 2241 2241 2241 2241 2256 2256 2256 2256 2256 2256 2256 2256 2256 2256 2256 2256 2256 2256 2256 2256 2256 2256 2256 2256 2256 2256 2271 2271 1776 1776 1776 1776 1785 1785 1785 1785 1785 1785 1785 1359 1359 1359 1359 1359 1359 1359 1359 1359 1359 1354 1354 1354 1354 1354 1354 1354 1354 1354 1354 1354 1354 1354 1349 1349 1349 1349 1349 1349 1349 1349 1349 1349 1349 0 0 0 0 0 0 0 2256 2256 2256 2256 2256 2256 2256 2256 2256 2241 2241 2256 2256 2256 2256 2256 2256 2256 2256 2256 2256 2256 2256 2256 2256 2256 2256 2256 2256 2256 2256 2271 2271 2271 2271 2271 2271 2271 2271 2271 2256 2241 2241 2226 2226 2241 2241 2241 2241 2241 2241 2241 2241 2226 2226 2226 2226 2226 2226 2226 2226 2226 2226 2226 2226 2226 2226 2226 2226 2226 2226 2226 2226 2226 2226 2226 2226 2226 2226 2241 2241 2241 2241 2241 2226 2226 2226 2226 0 0 0 0 0 0 0 0 0
0 0 0 0 0 0 0 0 0 0 0 0 0 0 0 0 0 0 0 0 0 0 0 0 0 0 0 0 0 0 0 0 0 0 2116 2116 2116 2116 2116 2116 2129 2116 2116 2116 2116 2129 2116 2103 2103 2103 2116 2116 2116 2116 2129 2129 2129 2129 2129 2129 2129 2129 2129 2129 2129 2116 2116 2129 2129 2129 2116 2116 2116 2116 2116 2129 2129 2129 2143 2129 2129 2129 2129 2129 2116 2116 2116 2116 2129 2129 2129 2129 2129 2129 2129 2129 2129 2129 2129 2129 2129 2129 2129 2143 2143 2143 2143 2143 2143 2143 2143 2143 2143 2143 2143 2143 2143 2143 2143 2156 2156 2156 2156 2156 2156 2156 2156 2156 2156 2156 2156 2156 2156 2156 2143 2143 2143 2156 2156 2156 2156 2156 2156 2156 2156 2156 2156 2156 2156 2156 2156 2156 2170 2170 2170 2170 2156 2156 2170 2170 2170 2170 2170 2170 2170 2170 2170 2170 2170 2170 2170 2184 2184 2184 2184 2184 2184 2184 2184 2184 2184 2184 2184 2184 2184 2198 1843 1843 1853 1853 1853 1853 1853 1853 1853 1853 1853 1863 1863 1873 1883 1904 1904 1915 1926 1936 1936 1936 1936 1936 1947 1947 1947 1947 1959 1959 1970 2212 2212 2198 2198 2198 2198 2198 2198 2198 2198 2198 2198 2198 2198 2198 2198 2198 2212 2212 2212 2212 2212 2212 2212 2198 2198 2198 2198 2198 2212 2212 2212 2212 2212 2226 2226 2226 2226 2226 2226 2241 1705 1705 1705 1705 1705 1705 1696 1696 1696 1705 1705 1705 1705 1713 1722 1722 1722 1731 1731 1731 2212 2212 2212 2226 2226 2226 2226 2226 2226 2226 2226 2212 2212 2226 2226 2226 2226 2226 2226 2226 2241 2241 2241 2241 1550 1543 1543 1550 1550 1550 1550 1550 1550 1550 1550 1557 1564 1564 1572 1572 1572 1550 1543 1536 1536 1536 1536 2053 2065 2065 2053 2053 2053 2053 1509 1509 1509 1509 1509 1509 1509 1509 1509 1503 1503 1503 1503 1503 1503 1503 1496 1496 1496 1496 1489 1489 1489 1489 1483 1483 1483 1483 1477 1477 1477 1470 1470 1470 1470 1464 1464 1464 1464 1464 1464 1464 1464 1458 1458 1452 1445 1445 1445 1439 1439 1439 1433 1433 1433 1433 1433 1433 1433 1433 1427 1427 1427 1427 1421 1421 1415 1415 1404 1398 1398 1392 1392 1392 1392 1392 1392 1392 1392 1392 1392 1398 1404 1410 1415 1421 1427 1427 1433 1445 1470 1477 1483 1489 1496 1503 1503 1509 1509 2226 2226 2226 2226 2241 2241 2241 2241 2241 2241 2241 2256 2256 2256 2256 2256 2256 1739 1739 1748 1739 1739 1739 1739 1739 1739 1739 1739 1739 1739 2212 2212 2226 2226 2241 2241 2241 2256 2256 2256 2256 2256 2256 2256 2241 2241 2241 2256 2256 2241 2241 2256 2241 2241 2241 2241 2241 2256 2271 1794 1785 1785 1785 1785 1785 1785 1785 1785 1785 1785 1785 1365 1359 1359 1365 1365 1365 1359 1359 1359 1359 1359 1354 1354 1354 1354 1354 1354 1354 1354 1354 1354 1354 1354 1349 1349 1349 1354 1354 1349 1349 1349 1349 1354 1354 1359 0 0 0 0 0 0 2256 2241 2241 2241 2241 2241 2256 2256 2256 2241 2241 2241 2256 2241 2241 2241 2241 2256 2256 2256 2241 2241 2256 2256 2241 2241 2256 2256 2256 2256 2256 2256 2256 2256 2256 2256 2256 2256 2256 2256 2256 2241 2226 2226 2226 2226 2226 2226 2226 2226 2226 2226 2226 2226 2226 2226 2226 2226 2226 2226 2226 2226 2226 2226 2226 2226 2226 2226 2226 2226 2226 2226 2226 2212 2212 2212 2212 2226 2226 2226 2226 2241 2241 2226 2226 2226 2226 2226 0 0 0 0 0 0 0 0 0
0 0 0 0 0 0 0 0 0 0 0 0 0 0 0 0 0 0 0 0 0 0 0 0 0 0 0 0 0 0 0 0 0 0 2103 2103 2103 2103 2116 2116 2116 2116 2116 2116 2116 2116 2116 2103 2103 2103 2116 2116 2116 2116 2116 2116 2129 2129 2129 2129 2116 2116 2116 2116 2116 2116 2116 2116 2116 2116 2103 2103 2103 2103 2116 2129 2129 2129 2129 2129 2129 2129 2116 2116 2116 2116 2103 2103 2116 2116 2116 2116 2116 2129 2116 2116 2116 2116 2129 2129 2129 2129 2129 2129 2143 2143 2143 2143 2143 2143 2143 2143 2129 2129 2129 2129 2129 2129 2143 2143 2143 2143 2143 2143 2143 2143 2143 2156 2156 2156 2143 2143 2143 2143 2143 2143 2143 2143 2143 2156 2156 2156 2156 2156 2156 2156 2156 2156 2156 2156 2156 2156 2156 2156 2156 2156 2156 2156 2156 2156 2156 2156 2156 2156 2156 2156 2170 2170 2170 2170 2170 2170 2184 2184 2184 2184 2184 2184 2184 2184 2184 2184 2184 2184 2184 2198 1843 1843 1853 1853 1853 1853 1853 1853 1853 1853 1853 1863 1863 1873 1883 1894 1894 1904 1915 1915 1936 1936 1936 1936 1947 1947 1947 1959 1959 1959 2198 2198 2198 2198 2198 2198 2198 2198 2198 2198 2198 2198 2198 2198 2198 2198 2198 2198 2198 2198 2198 2198 2198 2198 2198 2184 2184 2198 2198 2198 2198 2198 2184 2184 2184 2212 2212 2212 2212 2198 2198 2198 1705 1705 1705 1705 1705 1705 1705 1696 1696 1705 1705 1705 1705 1713 1722 1722 1731 1731 1731 1731 1739 2198 2212 2212 2212 2226 2226 2226 2226 2212 2212 2212 2212 2212 2212 2212 2212 2212 2212 2226 2226 2212 2212 2212 1550 1543 1543 1550 1550 1550 1550 1550 1550 1557 1557 1564 1564 1572 1579 1579 1579 1579 1579 2053 2053 2053 2053 2065 2065 2065 2065 2065 2065 2078 2078 1509 1509 1509 1509 1509 1509 1509 1509 1503 1503 1503 1496 1496 1503 1503 1496 1496 1496 1496 1496 1489 1489 1489 1483 1483 1483 1483 1477 1477 1477 1477 1470 1470 1470 1464 1464 1470 1464 1464 1464 1464 1464 1458 1458 1452 1452 1445 1445 1439 1439 1439 1439 1433 1433 1433 1433 1433 1433 1433 1427 1427 1427 1427 1421 1421 1415 1415 1404 1404 1398 1392 1392 1392 1392 1392 1392 1392 1392 1392 1392 1398 1404 1410 1415 1421 1427 1427 1439 1458 1470 1483 1483 1489 1496 1503 1503 1509 1509 2226 2226 2226 2226 2226 2241 2241 2241 2241 2241 2241 2241 2241 2241 2241 2241 2241 1739 1739 1748 1739 1739 1739 1739 1739 1739 1739 1739 1739 1739 2212 2212 2226 2226 2226 2226 2241 2256 2241 2241 2241 2241 2241 2241 2241 2241 2241 2241 2241 2241 2241 2241 2241 2241 2241 2241 2241 2241 2241 1794 1794 1785 1785 1785 1785 1785 1785 1785 1785 1785 1365 1365 1359 1359 1365 1365 1365 1359 1359 1359 1359 1359 1359 1359 1354 1354 1354 1354 1354 1354 1354 1354 1354 1354 1354 1354 1354 1354 1354 1354 1354 1354 1354 1354 1354 1359 0 0 0 0 0 0 2241 2241 2241 2241 2241 2241 2241 2241 2241 2241 2241 2241 2241 2241 2241 2241 2241 2241 2241 2241 2241 2241 2241 2241 2241 2241 2241 2241 2241 2241 2241 2241 2241 2241 2241 2241 2241 2241 2241 2241 2241 2226 2226 2212 2212 2212 2226 2226 2226 2226 2226 2226 2226 2226 2226 2226 2226 2226 2226 2226 2226 2226 2212 2212 2212 2212 2212 2212 2212 2212 2212 2212 2212 2212 2212 2212 2212 2212 2212 2226 2226 2226 2226 2226 2226 2226 2212 2212 0 0 0 0 0 0 0 0 0
0 0 0 0 0 0 0 0 0 0 0 0 0 0 0 0 0 0 0 0 0 0 0 0 0 0 0 0 0 0 0 0 0 0 2103 2103 2103 2103 2103 2103 2116 2103 2103 2103 2103 2103 2103 2103 2103 2103 2116 2116 2116 2116 2116 2116 2116 2116 2116 2116 2116 2116 2116 2116 2116 2116 2103 2103 2103 2116 2103 2103 2103 2103 2116 2129 2129 2129 2129 2116 2116 2116 2116 2116 2116 2103 2103 2103 2116 2116 2116 2116 2116 2116 2103 2103 2103 2116 2116 2116 2103 2103 2129 2129 2143 2143 2143 2143 2143 2143 2129 2129 2129 2129 2129 2129 2116 2116 2129 2129 2143 2129 2129 2129 2129 2143 2143 2143 2156 2156 2143 2143 2143 2143 2143 2143 2143 2143 2143 2143 2143 2156 2156 2156 2156 2143 2143 2156 2156 2156 2143 2143 2156 2156 2156 2143 2143 2143 2143 2143 2143 2143 2143 2143 2143 2143 2156 2156 2156 2156 2156 2170 2170 2170 2170 2170 2170 2170 2170 2170 2170 2170 2170 2170 2184 2184 1843 1843 1853 1853 1853 1853 1853 1853 1853 1853 1853 1863 1863 1873 1883 1894 1894 1904 1904 1904 1915 1936 1936 1936 1947 1947 1959 1959 1959 2198 2184 2184 2198 2198 2198 2198 2184 2184 2184 2184 2184 2184 2184 2198 2198 2198 2198 2198 2198 2198 2198 2198 2198 2198 2198 2184 2184 2184 2184 2184 2184 2184 2184 2184 2184 2198 2198 2184 2184 2184 2184 2184 1705 1705 1705 1705 1705 1705 1705 1705 1705 1705 1705 1705 1713 1713 1722 1731 1731 1731 1731 1731 1739 2184 2184 2198 2198 2198 2198 2198 2198 2198 2198 2198 2198 2198 2198 2198 2198 2184 2184 2198 2184 2184 2184 2198 2198 1543 1543 1550 1557 1550 1550 1550 1550 1557 1557 1564 1564 1572 1579 1579 1579 1586 0 2053 2053 2053 2065 2065 2078 2065 2065 2065 2065 2078 2090 2103 1509 1509 1509 1509 1509 1509 1509 1503 1503 1496 1496 1496 1503 1503 1496 1496 1496 1496 1496 1489 1489 1489 1489 1483 1483 1483 1477 1477 1477 1477 1470 1470 1470 1464 1464 1470 1464 1464 1464 1464 1464 1458 1458 1458 1452 1452 1452 1445 1439 1439 1439 1439 1433 1433 1433 1433 1433 1433 1433 1427 1427 1427 1421 1421 1415 1415 1404 1404 1398 1392 1392 1392 1392 1392 1392 1392 1392 1392 1392 1404 1410 1415 1415 1427 1433 1433 1458 1470 1477 1483 1489 1496 1503 1503 1503 1509 2212 2212 2212 2226 2226 2226 2226 2226 2226 2226 2226 2226 2241 2241 2241 2241 2241 1739 1739 1739 1748 1739 1739 1739 1739 1739 1739 1739 1739 1739 1739 1739 2198 2226 2226 2226 2226 2226 2241 2241 2226 2226 2226 2226 2226 2226 2226 2226 2226 2241 2241 2241 2241 2241 2226 2226 2226 2226 2241 1794 1794 1794 1785 1785 1785 1785 1785 1785 1785 1785 1785 1365 1365 1365 1365 1365 1365 1365 1359 1359 1359 1359 1359 1359 1359 1359 1354 1354 1354 1354 1354 1354 1354 1354 1354 1354 1354 1354 1354 1354 1354 1354 1349 1349 1349 1354 1354 0 0 0 0 0 0 2226 2226 2226 2226 2226 2226 2241 2241 2226 2226 2226 2226 2241 2241 2241 2241 2241 2241 2241 2241 2241 2226 2226 2241 2226 2226 2226 2226 2241 2241 2226 2226 2226 2241 2241 2241 2241 2241 2241 2241 2226 2212 2212 2212 2198 2198 2212 2212 2212 2212 2212 2212 2212 2212 2212 2212 2212 2212 2212 2212 2212 2212 2212 2212 2212 2212 2212 2212 2212 2212 2212 2198 2198 2212 2198 2198 2198 2198 2212 2212 2212 2226 2226 2226 2226 2226 2212 2212 0 0 0 0 0 0 0 0 0
0 0 0 0 0 0 0 0 0 0 0 0 0 0 0 0 0 0 0 0 0 0 0 0 0 0 0 0 0 0 0 0 0 0 2090 2090 2090 2090 2103 2103 2103 2103 2090 2090 2103 2103 2103 2103 2103 2103 2103 2116 2116 2116 2103 2103 2103 2103 2103 2116 2116 2116 2116 2116 2103 2103 2103 2103 2103 2103 2103 2090 2090 2103 2103 2116 2116 2129 2129 2116 2103 2103 2103 2103 2103 2103 2103 2103 2103 2116 2103 2103 2103 2103 2103 2103 2103 2103 2103 2116 2103 2103 2103 2116 2116 2129 2129 2143 2143 2129 2129 2116 2116 2116 2116 2116 2103 2103 2129 2129 2129 2116 2116 2129 2129 2129 2129 2129 2143 2143 2129 2129 2143 2143 2143 2143 2143 2143 2143 2143 2143 2143 2156 2143 2143 2143 2143 2143 2143 2143 2143 2143 2143 2156 2156 2143 2143 2143 2143 2143 2143 2143 2143 2143 2143 2143 2143 2143 2143 2143 2143 2156 2156 2156 2156 2156 2156 2156 2156 2156 2156 2156 2156 2170 2170 2184 1843 1843 1853 1853 1853 1853 1853 1853 1853 1853 1853 1863 1863 1873 1883 1894 1894 1904 1904 1904 1915 1926 1936 1936 1947 1947 1959 1959 2156 2170 2170 2184 2184 2184 2184 2184 2184 2184 2184 2184 2184 2184 2184 2184 2184 2184 2184 2184 2184 2184 2198 2198 2198 2198 2198 2170 2170 2184 2184 2184 2184 2184 2184 2184 2184 2184 2184 2184 2184 2170 2170 2170 1713 1705 1705 1705 1705 1705 1705 1705 1705 1705 1705 1705 1713 1722 1722 1731 1731 1731 1731 1731 2184 2184 2184 2184 2184 2184 2184 2184 2184 2184 2184 2184 2184 2184 2184 2184 2184 2184 2184 2184 2184 2184 2184 2198 1550 1543 1543 1550 1557 1557 1550 1550 1557 1557 1557 1564 1564 1572 1579 1579 1586 1586 0 2065 2065 2065 2065 2065 2078 2078 2065 2065 2078 2078 2090 2103 2116 2116 1509 1509 1509 1509 1509 1496 1496 1496 1496 1496 1503 1503 1496 1496 1496 1496 1496 1489 1489 1489 1489 1483 1483 1483 1483 1483 1477 1477 1477 1470 1470 1470 1470 1470 1470 1464 1464 1464 1464 1458 1458 1458 1458 1452 1452 1445 1439 1439 1439 1439 1439 1433 1433 1433 1433 1433 1433 1433 1433 1427 1421 1421 1421 1415 1410 1404 1398 1398 1392 1392 1392 1392 1392 1392 1392 1392 1398 1404 1410 1415 1415 1427 1445 1458 1470 1477 1483 1483 1489 1496 1503 1503 1503 1509 2212 2212 2212 2212 2212 2212 2226 2226 2226 2226 2226 2226 2226 2241 2241 2241 2241 1739 1739 1748 1748 1748 1739 1739 1739 1739 1739 1739 1739 1739 1739 1739 2198 2212 2212 2212 2212 2212 2226 2226 2226 2226 2226 2226 2226 2226 2226 2226 2226 2226 2241 2226 2226 2226 2226 2226 2226 2226 2226 1794 1794 1794 1785 1785 1785 1785 1785 1785 1785 1785 1785 1365 1365 1365 1365 1365 1365 1365 1359 1359 1359 1359 1359 1359 1359 1359 1354 1354 1354 1354 1354 1354 1354 1354 1354 1354 1354 1354 1354 1354 1354 1354 1349 1349 1349 1354 1354 0 0 0 0 0 2198 2198 2212 2212 2212 2226 2226 2226 2226 2226 2226 2226 2226 2226 2226 2226 2226 2226 2241 2241 2226 2226 2226 2226 2226 2226 2226 2226 2226 2241 2241 2226 2226 2226 2241 2241 2226 2226 2226 2226 2226 2226 2212 2212 2198 2198 2198 2198 2212 2198 2198 2198 2212 2212 2198 2198 2198 2198 2198 2198 2198 2212 2212 2198 2198 2198 2198 2198 2198 2198 2198 2184 2184 2184 2184 2184 2184 2184 2198 2198 2198 2198 2212 2212 2198 2198 2212 2184 2184 0 0 0 0 0 0 0 0 0
0 0 0 0 0 0 0 0 0 0 0 0 0 0 0 0 0 0 0 0 0 0 0 0 0 0 0 0 0 0 0 0 0 0 2090 2090 2090 2090 2103 2103 2090 2090 2090 2090 2090 2090 2090 2090 2103 2103 2103 2103 2103 2103 2103 2103 2103 2103 2103 2103 2103 2103 2103 2103 2103 2103 2103 2103 2103 2103 2090 2090 2090 2090 2103 2116 2116 2116 2116 2103 2103 2103 2103 2103 2090 2090 2090 2090 2103 2103 2103 2103 2103 2103 2103 2103 2103 2103 2103 2103 2103 2103 2103 2103 2103 2116 2116 2116 2129 2116 2103 2103 2103 2103 2116 2116 2103 2103 2116 2116 2116 2116 2116 2116 2116 2116 2116 2116 2116 2116 2116 2129 2129 2129 2129 2129 2129 2143 2143 2143 2143 2143 2143 2143 2143 2143 2143 2143 2143 2143 2129 2129 2143 2143 2156 2143 2143 2143 2143 2143 2143 2143 2143 2129 2129 2143 2143 2143 2143 2143 2143 2143 2156 2156 2156 2156 2156 2156 2156 2156 2156 2156 2156 2156 2156 2170 1843 1843 1843 1853 1853 1853 1853 1853 1853 1853 1853 1863 1863 1873 1883 1883 1894 1904 1904 1904 1915 1926 1936 1936 1947 1959 1970 1970 2156 2170 2170 2184 2184 2184 2184 2184 2184 2184 2184 2184 2170 2170 2170 2184 2184 2184 2184 2184 2184 2184 2184 2184 2184 2184 2184 2170 2170 2170 2170 2170 2170 2170 2184 2184 2184 2184 2184 2170 2170 2170 2170 2170 1705 1705 1705 1705 1705 1705 1705 1705 1705 1705 1705 1705 1713 1722 1722 1731 1731 1731 1731 1731 2170 2170 2170 2184 2184 2184 2184 2184 2184 2184 2184 2184 2184 2184 2184 2184 2184 2184 2184 2184 2184 2184 2184 2184 1550 1550 1550 1550 1557 1557 1557 1557 1557 1557 1557 1564 1572 1572 1579 1579 1586 1586 0 2065 2065 2065 2065 2065 2078 2078 2078 2078 2078 2090 2090 2103 2116 2143 2170 1509 1509 1509 1509 1496 1496 1489 1489 1489 1489 1496 1496 1496 1496 1489 1489 1489 1489 1489 1483 1483 1483 1483 1483 1483 1477 1477 1477 1470 1470 1470 1470 1470 1470 1470 1464 1464 1464 1464 1458 1458 1458 1452 1452 1445 1445 1445 1439 1439 1439 1439 1439 1439 1433 1433 1433 1433 1433 1427 1421 1421 1421 1415 1410 1404 1398 1398 1392 1392 1392 1392 1392 1392 1392 1398 1398 1404 1410 1415 1421 1433 1458 1470 1470 1477 1483 1483 1489 1489 1503 1503 1503 1503 2212 2212 2212 2212 2212 2212 2212 2212 2212 2212 2212 2212 2212 2226 2226 2226 2241 1739 1739 1748 1748 1748 1739 1739 1739 1739 1739 1739 1739 1739 1739 2184 2198 2198 2212 2212 2212 2212 2226 2226 2212 2212 2212 2212 2212 2212 2212 2212 2212 2226 2226 2226 2226 2226 2226 2212 2212 2212 2212 1794 1794 1794 1785 1785 1785 1785 1785 1785 1785 1785 1785 1365 1365 1365 1365 1365 1365 1365 1359 1359 1359 1359 1359 1359 1359 1359 1354 1354 1354 1354 1354 1354 1354 1359 1354 1354 1354 1354 1354 1354 1354 1354 1354 1349 1349 1354 1354 0 0 0 0 0 2198 2198 2198 2212 2212 2226 2212 2212 2226 2226 2226 2212 2212 2226 2226 2226 2226 2226 2226 2226 2226 2226 2226 2226 2226 2212 2212 2226 2226 2226 2226 2226 2226 2226 2226 2226 2212 2212 2212 2212 2212 2212 2212 2198 2198 2198 2198 2198 2198 2198 2198 2198 2198 2198 2198 2198 2198 2198 2184 2184 2184 2198 2198 2184 2184 2184 2184 2184 2184 2184 2184 2184 2184 2184 2170 2170 2170 2184 2184 2184 2184 2184 2184 2184 2184 2184 2184 2170 2170 0 0 0 0 0 0 0 0 0
0 0 0 0 0 0 0 0 0 0 0 0 0 0 0 0 0 0 0 0 0 0 0 0 0 0 0 0 0 0 0 0 0 0 2090 2090 2078 2078 2090 2090 2090 2090 2078 2078 2090 2090 2090 2090 2090 2090 2090 2103 2090 2090 2090 2090 2103 2103 2103 2103 2103 2103 2103 2103 2103 2103 2103 2103 2103 2103 2090 2078 2078 2090 2103 2103 2103 2103 2103 2103 2090 2090 2090 2090 2090 2090 2090 2090 2103 2103 2103 2103 2103 2103 2103 2103 2103 2090 2090 2090 2090 2090 2103 2103 2103 2103 2103 2116 2116 2103 2103 2103 2103 2103 2103 2103 2103 2103 2103 2103 2116 2116 2116 2116 2103 2103 2103 2103 2103 2116 2116 2116 2129 2129 2129 2129 2129 2129 2129 2129 2143 2143 2143 2143 2143 2143 2143 2143 2143 2129 2129 2129 2143 2143 2143 2129 2129 2129 2129 2129 2129 2129 2129 2129 2129 2129 2129 2129 2129 2129 2129 2129 2143 2143 2143 2143 2143 2143 2143 2143 2143 2143 2143 2143 2143 2156 2156 1843 1843 1853 1853 1853 1853 1853 1853 1853 1863 1863 1863 1873 1873 1883 1894 1904 1904 1904 1915 1926 1936 1936 1947 1959 2143 2156 2156 2170 2170 2170 2184 2184 2184 2184 2170 2170 2170 2170 2170 2170 2170 2170 2170 2184 2184 2184 2184 2184 2184 2184 2184 2184 2184 2170 2170 2170 2170 2170 2170 2170 2170 2170 2170 2170 2170 2170 2170 2170 2170 2170 1705 1705 1705 1705 1705 1705 1705 1705 1705 1705 1705 1705 1713 1713 1722 1722 1722 1731 1731 1731 2170 2170 2170 2170 2170 2170 2170 2170 2170 2184 2184 2184 2184 2184 2184 2184 2184 2184 2184 2170 2170 2184 2184 2184 1557 1557 1557 1557 1557 1557 1557 1557 1557 1557 1564 1564 1572 1572 1579 1579 1586 1586 2116 2078 2078 2078 2078 2078 2078 2078 2078 2078 2078 2090 2090 2103 2116 2143 2170 1516 1509 1509 2170 2170 2170 1489 1489 1489 1489 1489 1496 1496 1496 1489 1489 1489 1489 1489 1483 1483 1483 1483 1483 1483 1477 1477 1477 1477 1470 1470 1470 1470 1470 1464 1464 1464 1464 1464 1458 1458 1458 1458 1458 1452 1445 1445 1445 1439 1439 1439 1439 1439 1439 1433 1433 1433 1433 1427 1421 1421 1421 1415 1410 1410 1404 1398 1398 1398 1392 1392 1392 1398 1398 1398 1404 1404 1410 1415 1433 1439 1458 1470 1470 1477 1483 1483 1489 1489 1503 1503 1503 1503 2198 2198 2198 2212 2198 2198 2198 2198 2212 2212 2212 2212 2212 2212 2212 2212 2212 1739 1739 1748 1748 1748 1739 1739 1748 1739 1739 1739 1739 1739 1739 2184 2198 2198 2198 2198 2212 2212 2212 2212 2212 2212 2212 2212 2212 2212 2212 2212 2212 2212 2212 2212 2212 2212 2212 2212 2212 2212 2212 1794 1794 1794 1794 1794 1785 1785 1785 1785 1785 1785 1785 1365 1365 1365 1365 1365 1365 1365 1359 1359 1359 1359 1359 1359 1359 1359 1359 1359 1359 1359 1359 1359 1359 1359 1354 1354 1354 1354 1354 1354 1354 1354 1354 1354 1354 1354 1354 0 2028 2028 2028 0 2184 2184 2198 2198 2198 2212 2212 2212 2212 2212 2212 2212 2212 2212 2212 2212 2212 2212 2212 2212 2212 2212 2212 2212 2226 2212 2212 2212 2212 2226 2226 2212 2212 2212 2212 2226 2212 2212 2212 2212 2198 2198 2198 2198 2198 2184 2184 2198 2198 2198 2198 2198 2184 2184 2184 2184 2184 2184 2184 2184 2184 2184 2184 2184 2184 2184 2184 2184 2184 2170 2170 2184 2170 2170 2170 2170 2170 2170 2170 2170 2170 2184 2184 2170 2170 2170 2170 2170 2170 0 0 0 0 0 0 0 0 0
0 0 0 0 0 0 0 0 0 0 0 0 0 0 0 0 0 0 0 0 0 0 0 0 0 0 0 0 0 0 0 0 0 0 2078 2078 2078 2078 2078 2078 2078 2078 2078 2078 2078 2090 2090 2090 2090 2090 2090 2090 2090 2078 2078 2090 2090 2090 2090 2090 2090 2090 2103 2103 2090 2090 2090 2090 2090 2090 2078 2078 2078 2090 2090 2090 2090 2090 2103 2090 2090 2090 2090 2090 2090 2090 2090 2090 2090 2090 2090 2103 2103 2103 2090 2090 2090 2090 2090 2090 2090 2090 2090 2103 2103 2103 2103 2103 2103 2103 2103 2103 2103 2103 2103 2103 2103 2103 2103 2103 2103 2103 2103 2103 2103 2103 2103 2103 2103 2103 2116 2116 2116 2116 2116 2129 2129 2129 2129 2116 2116 2129 2129 2129 2129 2129 2129 2129 2129 2129 2116 2116 2129 2129 2129 2129 2116 2116 2129 2129 2129 2129 2129 2129 2129 2129 2129 2129 2129 2129 2129 2129 2129 2129 2143 2143 2143 2143 2143 2143 2143 2143 2143 2143 2143 2143 2143 1843 1843 1853 1853 1853 1853 1853 1853 1853 1863 1863 1863 1873 1873 1883 1894 1904 1904 1904 1915 1926 1936 1936 1947 2143 2143 2156 2156 2156 2156 2156 2170 2170 2170 2170 2170 2170 2170 2170 2170 2156 2156 2170 2170 2170 2170 2170 2184 2184 2184 2184 2184 2184 2184 2170 2170 2170 2170 2170 2170 2170 2170 2170 2170 2170 2170 2170 2170 2170 2170 2170 1705 1705 1705 1705 1705 1705 1705 1705 1705 1705 1705 1705 1705 1713 1713 1722 1722 2156 2156 2156 2156 2156 2170 2170 2170 2170 2170 2170 2170 2170 2170 2170 2170 2170 2170 2170 2170 2184 2184 2170 2170 2184 2184 2184 1557 1557 1557 1557 1557 1557 1557 1557 1557 1557 1564 1564 1572 1572 1579 1579 1586 1586 2116 2116 2090 2090 2090 2078 2078 2065 2065 2078 2090 2090 2090 2103 2116 2156 2170 2170 2170 2170 2170 2170 2170 2170 1904 1489 1489 1489 1915 1915 1915 1915 1496 1496 1483 1483 1483 1483 1483 1483 1483 1483 1477 1477 1477 1477 1470 1470 1470 1470 1470 1464 1464 1464 1464 1458 1458 1458 1458 1458 1458 1452 1452 1445 1445 1439 1439 1439 1439 1439 1439 1433 1433 1433 1433 1427 1421 1421 1421 1415 1410 1410 1404 1404 1398 1398 1398 1398 1398 1398 1398 1404 1404 1410 1410 1415 1439 1445 1464 1470 1470 1477 1483 1483 1483 1489 1503 2198 2198 2198 2198 2198 2198 2198 2198 2198 2198 2198 2198 2198 2198 2198 2198 2198 2198 2212 2212 1739 1739 1748 1748 1748 1739 1739 1748 1739 1739 1739 1739 1739 1739 2184 2198 2198 2198 2198 2198 2198 2212 2212 2212 2212 2212 2212 2198 2198 2198 2198 2198 2212 2212 2198 2198 2212 2212 2212 2212 2212 2212 1794 1794 1794 1794 1794 1785 1785 1785 1785 1785 1785 1785 1365 1365 1365 1365 1365 1365 1365 1365 1365 1365 1365 1359 1359 1359 1359 1359 1359 1359 1359 1359 1359 1359 1359 1359 1354 1354 1354 1354 1354 1354 1354 1354 1354 1354 1354 1354 2028 2028 2028 2028 0 2184 2184 2184 2198 2198 2198 2198 2198 2198 2198 2198 2198 2198 2198 2198 2198 2198 2198 2212 2212 2198 2198 2212 2212 2212 2212 2198 2198 2198 2212 2212 2198 2198 2212 2212 2212 2198 2198 2198 2198 2198 2198 2198 2184 2184 2184 2184 2184 2198 2184 2184 2184 2184 2184 2184 2184 2184 2184 2184 2184 2184 2184 2184 2184 2170 2170 2170 2170 2170 2170 2170 2170 2170 2170 2156 2156 2156 2170 2170 2170 2170 2170 2170 2170 2170 2170 2170 2156 2156 0 0 0 0 0 0 0 0 0
0 0 0 0 0 0 0 0 0 0 0 0 0 0 0 0 0 0 0 0 0 0 0 0 0 0 0 0 0 0 0 0 0 0 2078 2065 2065 2065 2065 2078 2065 2065 2065 2065 2078 2078 2078 2078 2078 2078 2078 2078 2078 2078 2078 2078 2090 2090 2090 2090 2090 2090 2090 2090 2090 2090 2090 2090 2090 2090 2078 2078 2078 2078 2078 2090 2090 2090 2090 2090 2090 2090 2078 2078 2078 2078 2078 2078 2090 2090 2090 2090 2090 2090 2090 2090 2090 2090 2090 2090 2078 2078 2078 2090 2090 2090 2103 2103 2103 2103 2103 2103 2103 2103 2103 2103 2103 2103 2103 2103 2103 2103 2090 2090 2103 2103 2090 2090 2103 2103 2103 2103 2116 2116 2116 2116 2116 2116 2116 2103 2103 2116 2116 2116 2116 2116 2116 2129 2129 2116 2116 2116 2116 2129 2116 2116 2103 2103 2116 2116 2103 2103 2116 2116 2116 2116 2116 2116 2129 2129 2129 2129 2129 2129 2129 2129 2129 2129 2129 2129 2129 2129 2143 2143 2143 2129 2129 1843 1843 1853 1853 1853 1853 1853 1853 1853 1863 1863 1863 1873 1883 1883 1894 1904 1904 1915 1915 1926 1936 1936 2143 2143 2143 2143 2156 2156 2156 2143 2143 2156 2156 2156 2156 2156 2156 2156 2156 2156 2156 2156 2156 2156 2156 2170 2170 2170 2170 2170 2170 2170 2170 2156 2156 2156 2156 2156 2156 2170 2170 2170 2170 2170 2170 2170 2156 2156 2156 2170 2170 1705 1705 1705 1705 1705 1705 1705 1705 1705 1705 1705 1705 1713 1713 1722 2143 2143 2143 2143 2156 2156 2170 2170 2170 2156 2156 2170 2156 2156 2170 2170 2170 2170 2170 2170 2170 1883 1883 1883 1883 1883 1894 1894 1557 1557 1557 1557 1557 1557 1557 1557 1557 1557 1564 1572 1572 1572 1579 1579 1586 2129 2129 2116 2103 2103 2090 2090 2078 2065 2065 2078 2090 2090 2090 2103 2116 2143 2156 2170 2170 2170 2170 2170 2170 2170 1904 1904 1915 1915 1915 1915 1915 1915 1915 1915 1483 1483 1489 1489 1483 1483 1483 1483 1477 1477 1477 1477 1477 1470 1470 1470 1470 1464 1464 1464 1464 1458 1458 1458 1458 1458 1458 1458 1452 1445 1445 1445 1439 1439 1439 1439 1439 1433 1433 1433 1433 1427 1427 1421 1421 1415 1410 1410 1404 1404 1398 1398 1398 1398 1398 1398 1398 1404 1404 1410 1415 1415 1452 1452 1464 1470 1470 1477 1483 1483 1483 1489 2184 2198 2198 2198 2198 2198 2198 2198 2198 2198 2184 2184 2198 2198 2198 2198 2198 2198 2198 2198 2212 1739 1739 1748 1748 1748 1739 1739 1748 1748 1739 1739 1748 1739 1739 2170 2170 2184 2184 2184 2198 2198 2198 2198 2198 2198 2198 2198 2198 2198 2198 2198 2198 2198 2198 2198 2198 2198 2198 2198 2198 2198 2198 1794 1794 1794 1794 1794 1794 1794 1785 1785 1785 1785 1785 1376 1370 1365 1365 1365 1370 1365 1365 1365 1365 1365 1365 1359 1359 1359 1359 1359 1359 1359 1359 1359 1359 1359 1359 1354 1354 1354 1354 1354 1354 1354 1354 1354 1354 1354 1359 2016 2028 2028 2028 2184 2184 2184 2184 2184 2198 2198 2198 2198 2198 2198 2198 2198 2198 2198 2198 2198 2198 2198 2198 2198 2198 2198 2198 2198 2198 2198 2198 2198 2198 2198 2198 2198 2198 2198 2198 2198 2198 2198 2198 2198 2198 2198 2198 2184 2184 2184 2184 2184 2184 2184 2184 2184 2184 2184 2170 2170 2170 2170 2170 2170 2170 2184 2184 2170 2170 2170 2170 2170 2170 2156 2156 2170 2170 2156 2156 2156 2156 2156 2170 2156 2156 2170 2170 2156 2156 2156 2156 2156 2156 0 0 0 0 0 0 0 0 0
0 0 0 0 0 0 0 0 0 0 0 0 0 0 0 0 0 0 0 0 0 0 0 0 0 0 0 0 0 0 0 0 0 0 2065 2065 2065 2065 2065 2065 2065 2065 2065 2065 2078 2078 2078 2078 2078 2078 2078 2078 2078 2065 2065 2078 2078 2078 2078 2090 2090 2090 2090 2090 2090 2090 2090 2090 2090 2090 2065 2065 2065 2078 2078 2078 2078 2078 2078 2078 2078 2078 2078 2078 2078 2078 2078 2078 2090 2090 2078 2078 2078 2090 2090 2078 2078 2078 2078 2078 2078 2078 2078 2078 2090 2090 2090 2090 2103 2090 2090 2090 2090 2090 2090 2090 2090 2090 2090 2090 2090 2090 2090 2090 2090 2090 2090 2090 2090 2090 2103 2103 2103 2090 2090 2103 2103 2103 2103 2103 2103 2103 2116 2116 2116 2103 2103 2116 2116 2116 2116 2116 2116 2116 2116 2116 2103 2103 2103 2103 2103 2103 2116 2116 2116 2116 2116 2116 2116 2116 2116 2116 2116 2116 2129 2129 2129 2129 2129 2129 2129 2129 2129 2129 2129 2129 2129 1853 1853 1853 1853 1853 1853 1853 1853 1853 1863 1863 1863 1873 1883 1883 1894 1904 1904 1915 1915 1936 1936 2129 2143 2143 2143 2143 2143 2143 2143 2143 2143 2143 2156 2156 2156 2156 2156 2156 2143 2143 2156 2156 2156 2156 2156 2156 2156 2156 2156 2156 2156 2156 2156 2143 2143 2143 2156 2156 2156 2156 2156 2156 2156 2156 2156 2156 2156 2143 2143 2156 2156 1705 1705 1705 1705 1705 1705 1705 1705 1705 1705 1705 1713 1713 1713 1713 1713 2143 2143 2143 2143 2156 2156 2156 2156 2156 2156 2156 2156 2156 2156 2156 2156 2156 1883 1883 1883 1883 1883 1883 1883 1883 1894 1894 1564 1557 1557 1557 1557 1557 1557 1557 1557 1564 1564 1572 1572 1572 1579 1579 1579 2129 2116 2116 2103 2103 2090 2090 2078 2065 2065 2078 2090 2090 2103 2103 2116 2143 2156 2170 2170 2170 2170 2170 1873 1873 1873 1883 1904 1915 1915 1915 1915 1915 1915 1959 1959 1489 1489 1489 1489 1483 1483 1483 1483 1483 1477 1477 1477 1477 1477 1477 1477 1470 1464 1464 1464 1458 1458 1458 1458 1458 1458 1458 1452 1452 1452 1445 1445 1439 1439 1439 1439 1433 1433 1433 1433 1433 1427 1427 1421 1415 1415 1410 1404 1404 1404 1404 1398 1398 1404 1404 1404 1410 1410 1410 1415 1427 1452 1458 1464 1464 1470 1477 1483 1483 1489 1489 2170 2170 2184 2184 2198 2198 2184 2184 2184 2184 2170 2170 2184 2184 2184 2184 2184 2184 2184 2198 2198 1739 1739 1748 1748 1748 1739 1739 1748 1748 1748 1748 1748 1748 2129 2156 2156 2170 2170 2170 2184 2184 2184 2184 2184 2184 2198 2198 2198 2184 2184 2184 2198 2184 2184 2184 2184 2184 2184 2184 2184 2184 2184 1794 1794 1794 1794 1794 1794 1794 1794 1794 1785 1785 1785 1376 1370 1365 1365 1365 1370 1365 1365 1365 1365 1365 1365 1359 1359 1359 1359 1359 1359 1359 1359 1359 1359 1359 1359 1359 1354 1354 1354 1354 1354 1354 1354 1354 1354 1354 2016 2016 2028 2028 2040 2040 2116 2170 2170 2184 2184 2198 2198 2184 2184 2184 2184 2184 2184 2184 2184 2184 2198 2198 2198 2198 2184 2184 2198 2198 2198 2198 2198 2184 2184 2198 2198 2198 2198 2198 2198 2198 2198 2198 2184 2184 2184 2184 2184 2184 2184 2184 2170 2170 2170 2170 2170 2170 2170 2170 2170 2170 2170 2170 2170 2170 2170 2170 2170 2170 2170 2170 2170 2170 2156 2156 2156 2156 2156 2156 2143 2143 2143 2156 2156 2156 2156 2156 2156 2156 2156 2156 2156 2156 2156 0 0 0 0 0 0 0 0 0
0 0 0 0 0 0 0 0 0 0 0 0 0 0 0 0 0 0 0 0 0 0 0 0 0 0 0 0 0 0 0 0 0 0 2065 2065 2065 2065 2065 2065 2065 2065 2065 2065 2065 2065 2065 2065 2065 2065 2065 2065 2065 2065 2065 2065 2065 2078 2078 2078 2078 2065 2065 2065 2065 2065 2065 2065 2078 2078 2065 2065 2065 2065 2065 2078 2078 2078 2078 2078 2078 2078 2078 2078 2078 2078 2078 2078 2078 2078 2065 2065 2078 2078 2078 2065 2065 2078 2078 2078 2078 2065 2065 2078 2090 2090 2090 2090 2090 2090 2090 2090 2090 2090 2090 2090 2090 2090 2090 2090 2090 2090 2090 2090 2090 2090 2090 2090 2090 2090 2090 2090 2090 2090 2090 2090 2090 2103 2103 2103 2103 2103 2103 2103 2103 2103 2103 2116 2116 2103 2103 2116 2116 2116 2116 2116 2103 2103 2103 2090 2090 2103 2103 2103 2103 2103 2103 2116 2116 2116 2116 2116 2116 2116 2116 2116 2116 2129 2129 2129 2129 2129 2129 2129 2129 2129 2116 2116 1853 1853 1853 1853 1853 1853 1853 1853 1863 1863 1863 1873 1883 1883 1894 1904 1904 1915 1915 1936 1936 2129 2129 2143 2143 2143 2143 2143 2143 2143 2143 2143 2143 2143 2143 2143 2143 2143 2143 2143 2143 2143 2143 2143 2143 2156 2156 2156 2143 2143 2143 2143 2143 2143 2143 2143 2143 2143 2143 2156 2156 2156 2156 2156 2156 2156 2143 2143 2143 2156 2156 1705 1705 1705 1705 1705 1705 1705 1705 1705 1705 1713 1713 1713 1713 1713 1713 2129 2129 2129 2129 2143 2143 2143 2143 2143 2143 2143 2143 2143 2143 2156 1883 1883 1883 1883 1883 1883 1883 1883 1883 1883 1894 1894 1564 1557 1557 1557 1557 1557 1557 1557 1564 1564 1564 1572 1572 1572 1579 1579 1579 2129 2116 2116 2116 2103 2090 2090 2078 2065 2065 2078 2090 2090 2103 2116 2129 2143 2143 2156 2156 2156 2156 1873 1873 1873 1873 1883 1883 1904 1904 1904 1915 1915 1915 1959 1959 1970 1970 1970 1483 1483 1483 1489 1483 1483 1483 1483 1483 1477 1477 1477 1477 1470 1464 1464 1464 1458 1458 1458 1458 1458 1458 1458 1452 1452 1452 1452 1445 1439 1439 1439 1439 1439 1439 1439 1433 1433 1433 1427 1421 1421 1415 1410 1410 1410 1404 1404 1404 1404 1404 1404 1410 1410 1410 1415 1427 1439 1458 1458 1464 1464 1470 1477 1477 1483 1489 2156 2156 2156 2170 2170 2184 2184 2184 2170 2170 2170 2170 2170 2170 2170 2184 2170 2170 2170 2170 2184 2184 1739 1739 1739 1748 1748 1748 1748 1748 1748 1748 1748 1748 1748 2129 2143 2156 2156 2170 2170 2170 2170 2170 2170 2170 2170 2184 2184 2184 2170 2170 2184 2184 2170 2170 2170 2170 2170 2170 2170 2156 2156 2156 1794 1794 1794 1794 1794 1794 1794 1794 1794 1785 1785 1785 1376 1376 1370 1370 1370 1370 1370 1365 1365 1365 1365 1365 1365 1359 1359 1359 1359 1359 1359 1359 1359 1359 1359 1359 1354 1354 1354 1354 1354 1354 1359 1359 1354 1354 1354 2028 2028 2028 2040 2040 2040 2116 2170 2170 2184 2184 2184 2184 2184 2184 2184 2184 2170 2170 2184 2184 2184 2184 2184 2184 2184 2184 2184 2184 2184 2184 2184 2184 2184 2184 2184 2184 2184 2184 2184 2184 2198 2184 2184 2184 2184 2184 2184 2184 2170 2170 2170 2170 2170 2170 2170 2170 2170 2170 2170 2170 2170 2170 2170 2170 2156 2156 2156 2156 2156 2156 2156 2156 2156 2156 2143 2143 2143 2143 2143 2143 2143 2143 2143 2156 2156 2156 2156 2156 2156 2156 2156 2156 2156 2156 0 0 0 0 0 0 0 0 0
0 0 0 0 0 0 0 0 0 0 0 0 0 0 0 0 0 0 0 0 0 0 0 0 0 0 0 0 0 0 0 0 0 0 2053 2053 2065 2065 2065 2065 2065 2065 2065 2065 2065 2065 2065 2065 2065 2065 2065 2065 2065 2065 2065 2065 2065 2078 2065 2065 2065 2065 2065 2065 2065 2065 2065 2065 2065 2065 2053 2053 2053 2053 2053 2065 2065 2065 2065 2065 2065 2065 2053 2053 2053 2053 2053 2065 2065 2065 2053 2053 2065 2065 2065 2065 2065 2065 2065 2078 2065 2065 2065 2065 2078 2078 2078 2078 2090 2090 2090 2090 2090 2090 2090 2090 2090 2090 2090 2090 2090 2090 2090 2090 2078 2078 2078 2078 2090 2090 2090 2090 2090 2090 2090 2090 2090 2090 2090 2090 2090 2103 2103 2103 2103 2103 2103 2103 2103 2103 2103 2103 2103 2116 2103 2103 2090 2090 2090 2090 2090 2090 2103 2103 2103 2103 2103 2103 2103 2103 2103 2103 2103 2116 2103 2103 2116 2116 2116 2116 2116 2116 2129 2116 2116 2116 2116 2116 1853 1853 1853 1853 1853 1853 1853 1863 1863 1863 1863 1873 1883 1894 1904 1904 1904 1915 1915 2129 2129 2129 2129 2129 2129 2129 2129 2129 2129 2129 2129 2129 2143 2143 2143 2143 2143 2143 2143 2143 2143 2143 2143 2143 2143 2143 2143 2143 2143 2143 2143 2143 2143 2129 2129 2129 2129 2129 2143 2143 2143 2143 2143 2143 2143 2143 2129 2129 2129 2129 2129 1705 1705 1705 1705 1705 1705 1705 1705 1705 1705 1713 1713 1722 1722 1731 1731 2129 2129 2129 2129 2129 2129 2143 2143 2143 2143 2143 2143 2143 2143 1883 1883 1883 1883 1883 1883 1883 1883 1883 1883 1883 1894 1894 1564 1564 1564 1564 1557 1557 1564 1564 1564 1564 1572 1572 1572 1579 1579 1579 1579 2129 2116 2116 2116 2103 2090 2090 2078 2065 2065 2078 2090 2103 2103 2116 2129 2129 2143 2156 2156 1873 1873 1873 1873 1873 1883 1883 1883 1894 1894 1904 1915 1915 1915 1959 1959 1970 1970 1970 1483 1483 1483 1489 1483 1483 1483 1483 1483 1483 1477 1477 1477 1470 1464 1464 1464 1458 1458 1458 1458 1458 1458 1458 1458 1452 1452 1452 1452 1445 1439 1439 1439 1439 1439 1439 1433 1433 1433 1427 1421 1421 1415 1410 1410 1410 1410 1410 1410 1410 1410 1410 1410 1410 1410 1415 1433 1452 1458 1458 1464 1464 1470 1477 1477 1483 2143 2156 2156 2156 2170 2170 2184 2170 2170 2170 2170 2170 2170 2170 2170 2170 2170 2170 2170 2170 2170 2170 2170 1739 1739 1739 1748 1748 1748 1748 1748 1748 1748 1748 1748 1748 2129 2143 2143 2143 2156 2156 2156 2156 2156 2156 2156 2156 2156 2156 2156 2170 2170 2170 2170 2156 2156 2170 2170 2170 2170 2156 2143 2143 2143 1794 1794 1794 1794 1794 1794 1794 1794 1794 1794 1794 1376 1376 1376 1370 1370 1370 1370 1370 1370 1370 1365 1365 1365 1365 1359 1359 1359 1359 1359 1359 1359 1359 1359 1359 1359 1354 1354 1354 1354 1354 1354 1359 1359 1354 1354 1354 2028 2028 2028 2040 2053 2090 2129 2156 2170 2170 2184 2184 2184 2184 2184 2170 2170 2170 2170 2170 2184 2184 2184 2184 2184 2170 2170 2170 2170 2170 2170 2170 2170 2184 2184 2184 2184 2184 2184 2184 2184 2184 2184 2184 2184 2184 2184 2184 2170 2170 2170 2170 2170 2170 2170 2170 2170 2170 2156 2156 2156 2156 2156 2156 2156 2156 2156 2156 2156 2143 2143 2156 2156 2156 2143 2143 2143 2143 2143 2143 2143 2143 2143 2143 2143 2143 2156 2156 2156 2156 2156 2156 2156 2143 2143 0 0 0 0 0 0 0 0 0
0 0 0 0 0 0 0 0 0 0 0 0 0 0 0 0 0 0 0 0 0 0 0 0 0 0 0 0 0 0 0 0 0 0 2053 2053 2053 2053 2053 2065 2053 2053 2053 2053 2065 2065 2065 2065 2065 2065 2065 2065 2065 2053 2053 2053 2053 2053 2053 2065 2065 2065 2065 2065 2065 2065 2065 2053 2053 2065 2053 2053 2053 2053 2053 2053 2053 2053 2053 2053 2053 2053 2053 2053 2053 2053 2053 2053 2053 2053 2053 2053 2053 2065 2065 2053 2053 2065 2065 2065 2065 2053 2053 2065 2065 2065 2065 2065 2065 2078 2078 2078 2078 2078 2090 2090 2090 2090 2090 2090 2090 2090 2090 2078 2078 2078 2078 2078 2078 2078 2090 2090 2090 2090 2090 2090 2090 2090 2090 2090 2090 2103 2103 2103 2103 2090 2090 2103 2103 2103 2103 2103 2103 2103 2103 2103 2090 2090 2090 2090 2090 2090 2090 2090 2090 2090 2103 2103 2103 2103 2103 2103 2103 2103 2103 2103 2103 2103 2103 2103 2103 2116 2116 2116 2116 2116 2116 2116 2116 1853 1853 1853 1853 1863 1863 1863 1863 1863 1873 1873 1883 1894 1904 1904 1915 1926 1936 2090 2116 2116 2129 2129 2129 2129 2129 2129 2129 2129 2129 2129 2129 2129 2129 2129 2129 2129 2129 2129 2129 2143 2143 2143 2143 2143 2143 2143 2143 2143 2143 2143 2143 2129 2129 2129 2129 2129 2129 2129 2129 2129 2129 2129 2129 2129 2129 2129 2129 2129 2129 1705 1705 1705 1705 1705 1705 1713 1713 1713 1713 1713 1722 1722 1722 1731 1731 1731 2116 2116 2129 2129 2129 2129 2129 2129 2129 2129 2129 2129 1873 1873 1873 1873 1873 1883 1883 1883 1883 1883 1883 1883 1894 1894 1557 1557 1564 1564 1564 1564 1564 1564 1564 1572 1572 1572 1579 1579 1586 1586 2129 2129 2116 2116 2103 2103 2090 2090 2090 2078 2078 2078 2090 2103 2103 2116 2129 2129 2143 2143 2143 1873 1873 1873 1873 1873 1873 1883 1883 1894 1894 1904 1915 1947 1959 1959 1959 1970 1970 1970 1970 1489 1489 1489 1489 1489 2129 2129 2129 2129 2129 2129 1470 1470 1464 1464 1464 1458 1458 1458 1458 1458 1458 1458 1452 1452 1458 1452 1452 1445 1445 1439 1439 1439 1439 1439 1439 1433 1433 1427 1421 1415 1410 1410 1410 1410 1404 1404 1410 1410 1410 1410 1410 1410 1415 1415 1439 1452 1458 1458 1458 1464 1470 1477 1483 1483 2143 2156 2156 2156 2156 2170 2170 2170 2170 2170 2170 2156 2156 2156 2156 2156 2156 2156 2156 2156 2156 2156 2156 1739 1739 1739 1748 1748 1748 1748 1748 1748 1748 1748 1748 2116 2129 2143 2143 2143 2156 2156 2156 2156 2156 2156 2156 2156 2156 2156 2156 2156 2156 2156 2156 2156 2156 2156 2156 2156 2156 2143 2143 2143 1804 1794 1794 1794 1794 1794 1794 1794 1794 1794 1794 1794 1387 1381 1381 1376 1370 1370 1370 1370 1370 1370 1370 1370 1365 1365 1365 1365 1359 1359 1359 1359 1359 1359 1359 1359 1359 1354 1354 1359 1354 1354 1354 1359 1359 1359 1359 2028 2028 2028 2028 2040 2053 2116 2143 2156 2170 2170 2184 2184 2170 2170 2170 2156 2156 2170 2170 2170 2170 2170 2170 2170 2156 2156 2156 2156 2156 2156 2156 2170 2170 2170 2170 2170 2170 2170 2170 2170 2170 2170 2170 2170 2170 2170 2170 2170 2156 2156 2156 2156 2156 2156 2156 2170 2156 2156 2143 2143 2143 2143 2143 2143 2143 2143 2143 2143 2143 2143 2143 2143 2143 2143 2143 2143 2143 2129 2129 2129 2129 2129 2143 2143 2143 2143 2143 2143 2143 2143 2143 2143 2143 2143 2143 0 0 0 0 0 0 0 0 0
0 0 0 0 0 0 0 0 0 0 0 0 0 0 0 0 0 0 0 0 0 0 0 0 0 0 0 0 0 0 0 0 0 0 2040 2040 2040 2040 2040 2040 2028 2028 2040 2040 2053 2053 2053 2053 2053 2053 2053 2053 2053 2040 2040 2040 2040 2053 2053 2053 2053 2053 2053 2053 2053 2053 2053 2053 2053 2053 2053 2053 2053 2040 2040 2040 2040 2040 2040 2040 2040 2053 2053 2053 2053 2053 2053 2053 2053 2053 2053 2053 2040 2040 2053 2053 2053 2053 2065 2053 2053 2053 2053 2053 2053 2053 2053 2053 2053 2065 2053 2053 2065 2065 2078 2078 2078 2090 2090 2090 2078 2078 2078 2065 2065 2065 2078 2078 2078 2078 2078 2078 2078 2078 2078 2078 2078 2090 2090 2090 2090 2090 2103 2103 2090 2090 2090 2090 2090 2090 2090 2090 2090 2103 2103 2103 2090 2090 2090 2090 2090 2090 2090 2090 2090 2090 2090 2090 2090 2090 2090 2090 2090 2090 2090 2090 2090 2090 2090 2090 2090 2103 2103 2103 2103 2103 2103 1853 1853 1853 1853 1853 1853 1863 1863 1863 1863 1863 1873 1873 1883 1894 1904 1915 1947 1947 2065 2065 2090 2103 2116 2129 2129 2129 2116 2116 2116 2116 2116 2116 2129 2129 2129 2129 2129 2129 2129 2129 2129 2129 2129 2129 2129 2129 2129 2129 2129 2129 2129 2129 2129 2129 2129 2129 2129 2129 2129 2129 2129 2129 2129 2129 2129 2129 2116 2116 2116 2116 2116 1705 1705 1705 1705 1705 1705 1713 1713 1713 1713 1713 1722 1722 1731 1731 1731 1731 2116 2116 2116 2116 2129 2129 2129 2129 2129 2129 2129 2129 1873 1873 1873 1873 1873 1883 1883 1883 1883 1883 1883 1883 1894 1894 1557 1557 1564 1564 1564 1564 1564 1564 1564 1572 1572 1572 1579 1579 1586 1586 2129 2129 2116 2116 2103 2103 2090 2090 2090 2078 2078 2078 2090 2103 2103 2116 2116 2129 2143 2143 1873 1873 1873 1873 1873 1873 1873 1883 1883 1894 1894 1904 1947 1947 1959 1959 1959 1959 1970 1970 1981 1489 1489 1496 1496 2129 2129 2129 2129 2116 2116 2129 2129 2129 1464 1464 1464 1458 1458 1458 1458 1458 1458 1458 1452 1452 1458 1452 1452 1445 1445 1439 1439 1439 1439 1439 1439 1433 1433 1421 1421 1415 1410 1410 1410 1410 1404 1404 1410 1410 1410 1410 1410 1410 1415 1421 1439 1452 1458 1458 1458 1464 1470 1477 1483 2143 2143 2143 2156 2156 2156 2156 2156 2156 2156 2156 2156 2156 2156 2156 2156 2156 2156 2156 2156 2156 2156 2156 2156 1748 1748 1748 1748 1748 1748 1748 1748 1748 1748 1748 1748 2116 2129 2129 2143 2143 2143 2156 2143 2143 2143 2143 2143 2143 2143 2143 2143 2143 2156 2156 2156 2156 2156 2156 2156 2143 2143 2143 2143 2129 1804 1794 1794 1794 1794 1794 1794 1794 1794 1794 1794 1794 1387 1387 1387 1376 1370 1370 1370 1370 1370 1370 1370 1370 1370 1370 1370 1365 1365 1365 1365 1365 1365 1359 1359 1359 1359 1359 1359 1359 1359 1359 1359 1359 1359 1359 1359 2028 2028 2040 2040 2040 2116 2129 2143 2143 2156 2156 2170 2170 2170 2170 2170 2156 2156 2156 2156 2156 2156 2156 2156 2156 2156 2156 2156 2156 2156 2156 2156 2170 2170 2170 2156 2156 2156 2156 2156 2156 2156 2156 2156 2156 2156 2156 2156 2156 2156 2143 2143 2143 2143 2143 2143 2156 2143 2143 2143 2143 2143 2143 2129 2129 2129 2129 2129 2129 2129 2129 2129 2129 2129 2129 2129 2129 2129 2129 2129 2129 2129 2129 2129 2129 2129 2129 2129 2129 2129 2129 2129 2129 2129 2129 2129 0 0 0 0 0 0 0 0 0
0 0 0 0 0 0 0 0 0 0 0 0 0 0 0 0 0 0 0 0 0 0 0 0 0 0 0 0 0 0 0 0 0 0 2028 2028 2028 2028 2028 2040 2028 2028 2040 2040 2040 2053 2040 2040 2040 2053 2053 2040 2040 2040 2040 2040 2040 2053 2053 2053 2040 2040 2040 2040 2040 2053 2040 2040 2040 2053 2040 2040 2040 2040 2040 2040 2040 2040 2040 2040 2040 2040 2040 2040 2040 2040 2040 2040 2040 2040 2040 2040 2028 2028 2028 2028 2040 2040 2040 2040 2040 2040 2040 2040 2053 2053 2053 2053 2053 2053 2053 2053 2053 2053 2053 2065 2065 2065 2065 2053 2053 2053 2053 2053 2053 2053 2053 2078 2078 2078 2078 2078 2078 2065 2065 2078 2078 2078 2078 2090 2090 2090 2090 2090 2090 2078 2078 2078 2078 2078 2078 2078 2090 2090 2090 2090 2078 2078 2078 2078 2078 2078 2090 2090 2090 2090 2090 2090 2090 2090 2090 2090 2090 2090 2090 2090 2078 2078 2090 2090 2090 2090 2103 2103 2103 2103 2103 1853 1853 1853 1853 1853 1863 1863 1863 1863 1863 1863 1873 1883 1883 1904 1915 1926 1970 2016 2040 2053 2065 2078 2103 2116 2116 2116 2103 2103 2116 2103 2103 2116 2116 2116 2116 2116 2116 2116 2129 2129 2129 2129 2129 2129 2129 2129 2129 2129 2129 2129 2129 2129 2129 2129 2116 2116 2116 2116 2116 2116 2116 2116 2116 2116 2116 2116 2116 2116 2116 2116 2116 1713 1713 1705 1705 1705 1705 1713 1713 1713 1713 1722 1722 1731 1731 1731 1739 1739 2116 2116 2116 2116 2129 2129 2129 2129 2129 2129 2129 1853 1853 1863 1873 1873 1873 1873 1883 1883 1883 1883 1883 1883 1894 1894 1557 1557 1564 1564 1564 1564 1564 1564 1572 1572 1572 1579 1579 1579 1586 1586 2129 2129 2116 2116 2103 2103 2090 2090 2103 2090 2090 2090 2090 2103 2103 2116 2116 2129 2143 2143 1863 1863 1863 1873 1873 1873 1873 1883 1883 1883 1894 1915 1947 1959 1959 1959 1959 1959 1959 1970 1981 2116 2116 2129 2129 2129 2129 2129 2129 2116 2116 2129 2129 2116 2116 2116 1464 1458 1458 1458 1458 1458 1458 1458 1458 1458 1458 1452 1452 1452 1445 1445 1439 1439 1439 1439 1439 1433 1433 1421 1421 1415 1415 1410 1410 1410 1410 1410 1410 1410 1410 1410 1410 1415 1415 1421 1439 1445 1452 1452 1458 1458 1464 1470 1483 2143 2143 2143 2143 2156 2156 2156 2156 2156 2156 2156 2156 2156 2156 2156 2156 2156 2156 2156 2156 2156 2156 2143 2143 1748 1748 1748 1748 1748 1748 1748 1748 1748 1748 1748 1748 2116 2129 2129 2143 2143 2143 2143 2143 2143 2143 2143 2143 2143 2143 2143 2143 2143 2143 2143 2143 2143 2156 2143 2143 2143 2143 2129 2129 2129 2129 1804 1804 1804 1804 1794 1794 1804 1804 1804 1804 1804 1387 1381 1381 1370 1370 1370 1370 1370 1370 1370 1370 1370 1370 1370 1370 1365 1365 1365 1365 1365 1365 1359 1359 1359 1359 1359 1359 1359 1359 1359 1359 1359 1359 1359 1359 2028 2028 2040 2040 2053 2116 2129 2143 2143 2143 2156 2156 2156 2156 2156 2156 2156 2156 2156 2156 2156 2156 2156 2143 2143 2143 2143 2143 2143 2143 2156 2156 2156 2156 2156 2156 2156 2156 2143 2143 2143 2143 2143 2143 2143 2143 2143 2143 2143 2143 2129 2129 2129 2129 2129 2129 2129 2129 2129 2129 2129 2129 2129 2129 2129 2129 2129 2129 2129 2129 2129 2129 2129 2129 2129 2129 2129 2129 2129 2129 2129 2129 2129 2129 2129 2129 2129 2129 2129 2129 2129 2129 2129 2129 2129 2129 0 0 0 0 0 0 0 0 0
0 0 0 0 0 0 0 0 0 0 0 0 0 0 0 0 0 0 0 0 0 0 0 0 0 0 0 0 0 0 0 0 0 0 2028 2028 2028 2028 2028 2028 2028 2028 2028 2040 2040 2040 2040 2040 2040 2040 2040 2028 2028 2028 2028 2028 2028 2028 2028 2040 2040 2040 2040 2040 2040 2040 2040 2040 2040 2053 2040 2040 2040 2028 2028 2016 2016 2028 2028 2028 2028 2040 2040 2040 2040 2040 2040 2028 2028 2028 2028 2028 2028 2028 2028 2028 2028 2028 2028 2040 2040 2040 2040 2040 2040 2040 2040 2040 2040 2040 2040 2040 2040 2040 2053 2053 2065 2065 2053 2053 2053 2053 2053 2053 2053 2053 2053 2065 2065 2065 2053 2053 2065 2065 2065 2053 2053 2065 2065 2078 2078 2078 2078 2078 2078 2065 2065 2065 2065 2065 2065 2065 2065 2078 2078 2078 2065 2065 2065 2065 2065 2065 2078 2078 2078 2078 2078 2090 2090 2090 2078 2078 2078 2078 2078 2078 2078 2078 2078 2078 2090 2090 2090 2103 2103 2103 2103 1853 1853 1853 1853 1863 1863 1863 1863 1863 1863 1873 1873 1883 1894 1904 1915 1936 1993 2016 2040 2053 2053 2065 2090 2103 2103 2103 2103 2103 2103 2103 2103 2103 2116 2116 2116 2116 2116 2116 2116 2116 2116 2116 2116 2129 2129 2129 2116 2116 2116 2116 2116 2116 2116 2116 2103 2103 2116 2116 2103 2103 2116 2116 2116 2116 2116 2116 2116 2116 2116 2116 2116 2116 1713 1705 1705 1705 1705 1713 1713 1713 1713 1722 1731 1731 1731 1731 1739 1739 2116 2116 2116 2116 2116 2116 2116 2116 2129 2129 1853 1853 1853 1863 1863 1863 1873 1873 1873 1883 1883 1883 1883 1883 1894 1894 1557 1557 1564 1564 1564 1572 1572 1572 1572 1572 1572 1579 1579 1579 1586 1586 2116 2116 2103 2103 2103 2103 2103 2103 2103 2090 2090 2103 2103 2103 2103 2116 2116 2129 2129 1863 1863 1863 1863 1863 1873 1873 1873 1883 1883 1883 1894 1915 1947 1959 1959 1959 1959 1959 1959 1970 2103 2116 2116 2116 2129 2129 2129 2129 2129 2116 2116 2129 2129 2116 2116 2116 2116 1458 1458 1458 1458 1458 1458 1458 1458 1458 1458 1452 1452 1452 1445 1445 1439 1439 1439 1439 1439 1433 1433 1427 1421 1421 1415 1410 1410 1410 1410 1410 1410 1410 1410 1410 1415 1415 1415 1427 1433 1445 1452 1452 1458 1458 1464 1470 2129 2143 2143 2143 2143 2143 2156 2156 2156 2156 2156 2143 2143 2143 2143 2143 2143 2143 2143 2143 2143 2143 2143 2143 1757 1757 1748 1748 1748 1748 1748 1748 1748 1757 1757 1757 1757 2116 2116 2116 2129 2129 2143 2143 2143 2143 2129 2129 2143 2143 2143 2143 2143 2143 2143 2143 2143 2143 2143 2143 2143 2143 2129 2129 2129 2129 1823 1804 1804 1804 1804 1804 1804 1804 1804 1804 2116 2116 1381 1381 1376 1365 1365 1370 1370 1370 1370 1376 1370 1370 1376 1370 1370 1370 1365 1365 1365 1365 1365 1359 1359 1359 1359 1359 1359 1359 1359 1359 1359 1359 1359 1359 1359 2040 2040 2040 2053 2065 2116 2129 2129 2143 2143 2143 2143 2143 2156 2156 2156 2143 2143 2143 2156 2156 2143 2143 2143 2143 2143 2143 2143 2143 2143 2143 2143 2156 2156 2143 2143 2143 2143 2143 2143 2143 2143 2143 2143 2143 2143 2143 2143 2143 2143 2129 2129 2129 2129 2129 2116 2116 2129 2129 2129 2116 2116 2129 2129 2129 2116 2116 2116 2116 2116 2116 2116 2116 2116 2116 2116 2116 2129 2116 2116 2116 2116 2129 2116 2116 2116 2116 2129 2129 2129 2129 2129 2129 2129 2129 2129 0 0 0 0 0 0 0 0 0
