0 0 0 0 0 0 0 0 0 0 0 0 0 0 0 0 0 0 0 0 0 0 0 0 0 0 0 0 0 0 0 0 2723 2723 2723 2723 2723 2723 2723 2723 2723 2723 2723 2723 2723 2723 2723 2744 2744 2723 2723 2744 2744 2744 2744 2767 2767 2789 2789 2789 2789 2789 2789 2789 2789 2789 2789 2789 2789 2789 2789 2789 2789 2789 2789 2789 2789 2789 2789 2789 2767 2767 2789 2789 2789 2789 2789 2789 2789 2789 2789 2789 2812 2812 2835 2835 2835 2835 2812 2812 2835 2812 2812 2812 2812 2835 2835 2835 2835 2859 2859 2859 2859 2859 2859 2859 2859 1696 1696 1696 1705 1713 1705 1705 1713 1713 1713 1713 1713 1713 1722 1722 1722 1731 1739 1739 1757 1766 1794 1813 1804 1804 1813 1804 1804 1804 1804 1804 1804 1804 1804 1804 1804 1813 1813 1813 1813 1804 1804 1804 1804 1813 1813 1813 1813 1813 1813 1813 1813 1813 1813 1813 1813 1813 1813 1813 1813 1813 1813 1813 1813 1813 1813 1813 1813 1813 1813 1823 1823 1813 1813 1813 1813 1813 1586 1579 1579 1579 1579 1579 1579 1579 1579 1579 1579 1579 1586 1586 1586 1594 1601 1823 1823 1833 1833 1833 1833 1833 1833 1833 1833 1833 1833 1833 1843 1843 1843 1843 1843 1843 1843 1833 1833 1445 1445 1439 1439 1439 1439 1439 1439 1439 1439 1433 1433 1433 1427 1427 1427 1427 1427 1421 1421 1421 1421 1421 1415 1415 1415 1415 1410 1410 1410 1404 1404 1404 1404 1404 1398 1398 1398 1398 1392 1392 1392 1392 1387 1387 1387 1381 1381 1376 1376 1376 1376 1376 1376 1376 1370 1370 1370 1370 1370 1370 1370 1370 1365 1365 1365 1365 1365 1365 1365 1370 1370 1370 1370 1370 1376 1376 3149 3149 3178 3149 3149 3149 2365 2365 2365 2381 2398 2398 2415 2415 2415 2415 2415 2432 0 0 0 0 0 0 1288 1288 1288 1288 1288 1288 1288 1288 1288 1288 1288 1288 1292 1292 1297 1297 1302 1302 1302 1307 1307 0 1894 1894 1894 1894 1894 1904 1904 1904 1904 1904 1904 1904 1904 1904 1904 1915 1904 1904 1904 1904 1904 1915 1926 1926 1926 1936 1926 1926 1926 1926 1926 1915 1915 1915 1926 1926 1926 1926 1926 1926 1926 1926 1926 1926 1926 1410 1410 1410 1410 1410 1410 1410 1410 1404 1404 1410 1410 1404 1404 1398 1398 1392 1392 1387 1387 1387 1387 1387 1381 1381 1387 1387 1381 1381 1381 1381 1376 1376 1370 1370 1370 1370 1365 1365 1365 1365 1365 1365 1365 1365 1359 1359 1359 1359 1359 1359 1354 1354 1354 1354 1349 1349 1343 1343 1343 1343 1338 1338 1338 1338 1338 1338 1338 1338 1333 1333 1328 1328 1322 1322 1322 0 1993 1993 1993 2005 2005 2005 2005 2005 2005 1993 1993 1993 1993 1993 1993 1993 2005 2005 3149 3149 3178 3208 3208 3208 3208 3208 3178 3178 3178 3178 3178 3178 3208 3208 3238 3238 3238 3238 3238 3208 3208 3208 3208 3208 3178 3178 3178 3178 3178 3208 3208 3208 3208 3238 3238 3238 3238 3238 3238 3238 3238 3238 3238 3208 3208 3208 3208 3208 3208 3238 3238 3238 3238 3238 3238 3238 3238 3238 3208 3208 3208 3208 3208 3208 3208 3208 3208 3208 3208 3208 3238 3238 3269 3269 3269 3269 3269 3269 3269 3269 3269 3238 3238 3238 3208 3208 3238 3238 3238 3238 3238 3208 3208 3208 3208 3208 3208 3238 3238 3238 3238 3238 3238 3238 3238 3238 3269 3269 3269 0 0 0 0 0 0 0 3238 3238 3208 3208 3208 3208 3208 3208 3208 3208 3208 3208 3208 3238 3238 0 0 0 0 0 0 0 0 0 0 0
0 0 0 0 0 0 0 0 0 0 0 0 0 0 0 0 0 0 0 0 0 0 0 0 0 0 0 0 0 0 0 0 2701 2701 2701 2701 2701 2701 2701 2723 2723 2723 2723 2723 2723 2723 2744 2723 2723 2723 2723 2723 2744 2744 2744 2744 2744 2767 2767 2767 2767 2767 2767 2789 2789 2789 2789 2789 2789 2789 2789 2789 2789 2767 2767 2767 2767 2767 2767 2767 2767 2767 2767 2767 2789 2789 2789 2789 2789 2789 2789 2789 2789 2789 2812 2812 2812 2812 2812 2812 2812 2789 2789 2789 2812 2812 2812 2812 2835 2835 2835 2859 2835 2835 2835 2835 2859 2859 1705 1705 1705 1713 1713 1713 1713 1713 1713 1713 1713 1713 1722 1722 1731 1739 1739 1739 1757 1766 1785 1794 1804 1804 1804 1804 1804 1804 1804 1804 1804 1804 1804 1804 1804 1804 1804 1804 1804 1794 1794 1804 1804 1804 1804 1804 1804 1804 1804 1804 1804 1804 1804 1804 1804 1804 1804 1804 1804 1804 1804 1804 1804 1804 1804 1804 1804 1804 1813 1813 1813 1813 1804 1804 1794 1794 1586 1579 1579 1579 1579 1579 1579 1579 1579 1579 1579 1579 1586 1586 1594 1601 1601 1823 1823 1833 1823 1823 1823 1823 1823 1823 1823 1823 1823 1823 1833 1833 1833 1833 1833 1823 1823 1823 1823 1823 1445 1439 1439 1439 1439 1439 1439 1439 1439 1439 1439 1433 1433 1433 1433 1433 1427 1427 1421 1421 1421 1421 1421 1415 1415 1415 1410 1410 1410 1410 1404 1404 1404 1404 1404 1398 1398 1398 1398 1392 1392 1392 1387 1387 1387 1381 1381 1376 1376 1376 1376 1376 1376 1376 1370 1370 1370 1370 1370 1370 1370 1365 1365 1365 1365 1365 1365 1365 1365 1365 1365 1365 1365 1365 1359 1359 1359 1365 1365 1365 1365 2365 2365 2365 2365 2381 2398 2398 2415 2415 2415 2415 2415 0 0 0 0 0 0 1292 1292 1292 1292 1292 1292 1292 1292 1288 1288 1288 1288 1292 1292 1292 1297 1302 1302 1307 1307 1307 1307 0 1894 1894 1894 1894 1894 1894 1894 1894 1894 1894 1894 1894 1904 1904 1904 1904 1904 1904 1904 1904 1904 1904 1904 1904 1904 1915 1904 1904 1904 1915 1915 1915 1915 1915 1915 1915 1915 1915 1915 1915 1915 1915 1915 1915 1915 1915 1915 1915 1915 1915 1915 1915 1915 1915 1415 1415 1415 1410 1404 1398 1398 1392 1392 1387 1387 1387 1387 1387 1381 1381 1387 1387 1381 1381 1381 1381 1381 1376 1376 1370 1370 1370 1370 1365 1365 1365 1365 1365 1365 1365 1359 1359 1359 1359 1359 1359 1359 1354 1354 1354 1354 1349 1343 1343 1343 1343 1343 1338 1338 1338 1338 1338 1338 1338 1338 1338 1333 1328 1322 1322 1322 0 1993 1993 1993 2005 2005 2005 2005 2005 2005 1993 1993 1993 1993 1993 1993 1993 2005 2005 3149 3149 3149 3178 3178 3178 3178 3178 3178 3178 3178 3178 3178 3178 3178 3208 3208 3208 3238 3238 3238 3208 3208 3178 3178 3178 3178 3178 3178 3178 3178 3178 3178 3178 3208 3208 3208 3238 3238 3238 3238 3238 3238 3208 3208 3208 3208 3208 3208 3208 3208 3208 3208 3208 3238 3208 3208 3208 3208 3208 3208 3178 3178 3178 3178 3178 3178 3178 3178 3178 3178 3178 3208 3238 3238 3238 3269 3269 3269 3238 3238 3238 3238 3238 3238 3238 3208 3208 3208 3208 3208 3238 3208 3208 3208 3208 3208 3208 3208 3208 3238 3238 3238 3238 3238 3238 3238 3238 3238 3238 0 0 0 0 0 0 0 3269 3208 3208 3178 3178 3178 3178 3178 3178 3178 3178 3178 3208 3208 3208 3208 0 0 0 0 0 0 0 0 0 0 0
0 0 0 0 0 0 0 0 0 0 0 0 0 0 0 0 0 0 0 0 0 0 0 0 0 0 0 0 0 0 0 0 2701 2701 2701 2701 2701 2701 2701 2701 2701 2723 2723 2723 2723 2723 2723 2723 2723 2723 2723 2723 2723 2723 2723 2744 2744 2744 2744 2744 2744 2744 2767 2767 2767 2767 2767 2789 2767 2767 2767 2767 2767 2767 2767 2767 2767 2767 2767 2767 2767 2767 2767 2767 2767 2767 2767 2767 2767 2789 2789 2789 2789 2789 2789 2789 2789 2789 2789 2789 2789 2789 2789 2789 2812 2789 2789 2812 2812 2812 2835 2835 2835 2835 2835 2835 2835 2835 1713 1713 1713 1713 1713 1713 1713 1713 1713 1713 1713 1713 1722 1722 1731 1739 1739 1739 1757 1766 1776 1794 1794 1794 1794 1794 1794 1794 1794 1794 1794 1794 1794 1794 1794 1794 1794 1794 1794 1785 1785 1785 1794 1794 1794 1794 1794 1794 1794 1794 1794 1794 1794 1794 1794 1794 1794 1804 1804 1804 1804 1804 1804 1804 1804 1804 1804 1804 1804 1804 1804 1804 1804 1794 1794 1794 1586 1586 1586 1586 1586 1586 1586 1579 1579 1579 1579 1586 1586 1586 1594 1601 1609 1609 1833 1823 1823 1823 1823 1813 1813 1823 1823 1823 1823 1823 1823 1823 1823 1823 1823 1813 1813 1823 1813 1813 1813 1439 1439 1439 1439 1439 1439 1439 1439 1439 1439 1439 1439 1439 1433 1433 1427 1427 1421 1421 1421 1421 1421 1421 1415 1415 1415 1415 1415 1410 1410 1410 1404 1404 1404 1404 1398 1398 1398 1392 1392 1392 1387 1387 1387 1381 1381 1376 1376 1376 1376 1376 1376 1376 1370 1370 1370 1370 1370 1370 1370 1365 1365 1365 1365 1365 1365 1365 1365 1365 1365 1359 1359 1359 1359 1359 1359 1359 1365 1365 1365 1365 1359 1359 2381 2381 2398 2398 2415 2415 2432 2432 0 0 0 0 0 0 0 1292 1288 1288 1297 1292 1292 1292 1292 1292 1292 1292 1292 1292 1297 1297 1297 1302 1307 1307 1307 1312 1312 0 1894 1894 1894 1883 1883 1883 1883 1883 1883 1883 1883 1883 1894 1894 1894 1894 1883 1883 1894 1894 1894 1894 1894 1894 1894 1894 1894 1894 1894 1894 1894 1904 1904 1904 1904 1904 1904 1894 1894 1904 1904 1904 1904 1915 1915 1915 1915 1915 1915 1915 1915 1915 1915 1915 1915 1415 1415 1410 1404 1398 1398 1387 1387 1387 1387 1387 1387 1387 1387 1387 1387 1387 1381 1381 1381 1381 1381 1381 1376 1376 1370 1370 1370 1365 1365 1365 1365 1365 1365 1365 1365 1359 1359 1359 1359 1359 1359 1354 1354 1354 1354 1349 1349 1343 1343 1343 1343 1343 1338 1338 1338 1338 1338 1338 1338 1338 1338 1338 1333 1333 1333 1993 1981 1981 1981 2005 2005 2005 2005 2005 2005 2005 1993 1993 1993 2005 2005 2005 2005 3120 3120 3120 3149 3149 3178 3178 3178 3178 3178 3178 3178 3178 3178 3178 3178 3178 3208 3208 3208 3238 3238 3208 3208 3178 3178 3178 3178 3178 3149 3149 3178 3178 3178 3178 3178 3178 3208 3208 3208 3208 3208 3208 3208 3208 3208 3208 3208 3208 3208 3208 3208 3208 3208 3208 3208 3208 3208 3178 3178 3208 3178 3178 3178 3178 3178 3178 3178 3178 3149 3149 3178 3178 3178 3208 3208 3238 3238 3238 3238 3238 3208 3208 3208 3208 3208 3208 3178 3178 3208 3208 3208 3208 3208 3178 3178 3178 3178 3178 3178 3208 3208 3208 3208 3208 3238 3238 3238 3238 3238 3238 0 0 0 0 0 0 0 3178 3178 3178 3178 3178 3178 3149 3149 3149 3149 3149 3149 3178 3178 3178 3178 0 0 0 0 0 0 0 0 0 0 0
0 0 0 0 0 0 0 0 0 0 0 0 0 0 0 0 0 0 0 0 0 0 0 0 0 0 0 0 0 0 0 0 2701 2680 2680 2680 2680 2701 2701 2701 2701 2723 2723 2723 2723 2723 2723 2723 2723 2723 2723 2723 2723 2723 2723 2723 2723 2723 2723 2723 2723 2723 2744 2744 2744 2744 2767 2767 2744 2744 2744 2744 2767 2767 2767 2767 2767 2744 2744 2767 2767 2767 2767 2767 2767 2767 2767 2767 2767 2767 2767 2767 2767 2789 2789 2789 2789 2789 2789 2789 2789 2789 2789 2789 2789 2789 2789 2789 2789 2789 2812 2812 2812 2812 2812 2812 2789 2789 2789 1713 1713 1713 1713 1713 1713 1713 1713 1713 1713 1722 1722 1722 1731 1739 1739 1739 1757 1766 1776 1785 1785 1785 1785 1785 1785 1785 1785 1785 1785 1785 1785 1785 1785 1785 1785 1785 1794 1785 1785 1785 1785 1785 1785 1785 1785 1785 1785 1785 1785 1794 1794 1794 1794 1794 1794 1794 1794 1794 1794 1794 1794 1794 1794 1794 1794 1794 1794 1794 1794 1794 1794 1794 1794 1794 1586 1586 1586 1586 1586 1586 1586 1586 1586 1586 1586 1586 1586 1594 1594 1601 1609 1609 1823 1823 1813 1813 1813 1813 1813 1813 1813 1813 1813 1813 1813 1813 1813 1813 1813 1813 1813 1813 1813 1813 1813 1813 1445 1445 1439 1439 1439 1439 1445 1445 1445 1439 1439 1439 1439 1433 1433 1427 1427 1421 1421 1421 1421 1421 1415 1415 1415 1415 1415 1415 1410 1410 1410 1410 1404 1404 1398 1398 1398 1398 1392 1392 1392 1392 1387 1387 1381 1376 1376 1376 1376 1376 1376 1376 1376 1370 1370 1370 1370 1370 1370 1370 1365 1365 1365 1365 1359 1359 1359 1359 1359 1359 1359 1359 1359 1359 1359 1359 1359 1359 1354 1354 1354 1354 1354 1354 1354 2398 2398 2432 2432 2432 2432 0 0 0 0 0 0 1297 1288 1288 1297 1297 1297 1297 1297 1292 1292 1292 1292 1292 1297 1297 1302 1302 1307 1307 1307 1312 1312 0 1894 1894 1894 1883 1883 1883 1883 1883 1883 1883 1883 1883 1883 1883 1883 1883 1883 1883 1883 1883 1883 1883 1883 1883 1883 1883 1883 1883 1883 1894 1894 1894 1894 1894 1894 1883 1883 1883 1883 1894 1894 1894 1894 1904 1904 1915 1915 1915 1904 1904 1904 1904 1904 1904 1904 1915 1915 1915 1904 1398 1398 1387 1387 1387 1387 1392 1387 1387 1387 1387 1387 1387 1387 1381 1381 1381 1381 1381 1381 1376 1376 1376 1370 1370 1365 1365 1365 1365 1365 1365 1365 1365 1359 1359 1359 1359 1359 1359 1359 1354 1354 1349 1349 1349 1343 1343 1343 1343 1343 1338 1338 1343 1343 1343 1338 1338 1338 1338 1338 1338 1338 1993 1993 1981 1981 2005 2005 2005 2005 2005 2005 2005 2005 2005 2005 2005 2005 2005 2005 3120 3092 3064 3064 3092 3149 3149 3149 3149 3149 3149 3149 3149 3149 3178 3178 3178 3178 3208 3208 3208 3208 3178 3178 3178 3178 3178 3178 3178 3149 3149 3149 3178 3178 3178 3178 3178 3178 3178 3208 3208 3178 3178 3178 3208 3178 3178 3178 3178 3178 3208 3178 3178 3178 3208 3208 3178 3178 3178 3178 3178 3178 3178 3178 3178 3178 3178 3178 3178 3149 3149 3178 3178 3178 3208 3208 3208 3238 3208 3208 3208 3208 3208 3208 3208 3208 3208 3178 3178 3208 3178 3178 3178 3178 3149 3149 3178 3178 3178 3178 3208 3208 3208 3208 3208 3208 3208 3208 3208 3238 3238 0 0 0 0 0 3269 3269 3178 3178 3178 3178 3178 3149 3149 3149 3149 3149 3149 3149 3149 3149 3178 3178 0 0 0 0 0 0 0 0 0 0 0
0 0 0 0 0 0 0 0 0 0 0 0 0 0 0 0 0 0 0 0 0 0 0 0 0 0 0 0 0 0 0 0 0 2680 2680 2680 2680 2701 2701 2701 2701 2701 2701 2701 2723 2723 2723 2723 2723 2701 2701 2701 2701 2701 2701 2723 2723 2723 2723 2723 2723 2723 2723 2723 2723 2723 2744 2744 2723 2723 2723 2723 2723 2723 2723 2723 2723 2723 2723 2744 2744 2744 2744 2767 2767 2767 2744 2744 2744 2744 2767 2767 2767 2767 2767 2767 2767 2767 2767 2789 2789 2789 2789 2789 2789 2767 2767 2767 2767 2789 2789 2789 2789 2789 2789 2789 2789 2789 2789 1722 1722 1713 1713 1713 1713 1713 1722 1722 1722 1722 1722 1722 1731 1739 1748 1748 1757 1757 1766 1776 1776 1785 1776 1776 1776 1776 1776 1776 1776 1776 1776 1785 1785 1785 1785 1785 1785 1776 1776 1776 1776 1776 1776 1776 1776 1776 1785 1785 1785 1785 1785 1785 1785 1785 1785 1794 1794 1794 1794 1794 1794 1785 1785 1785 1785 1785 1794 1794 1794 1794 1794 1794 1794 1794 1586 1586 1586 1586 1586 1586 1586 1586 1586 1586 1586 1586 1586 1594 1594 1609 1609 1609 1813 1813 1813 1804 1804 1804 1804 1804 1804 1804 1804 1804 1813 1813 1804 1804 1804 1804 1813 1813 1813 1813 1813 1813 1445 1445 1445 1445 1439 1439 1445 1445 1445 1439 1439 1439 1439 1439 1433 1433 1427 1427 1421 1421 1421 1421 1421 1421 1415 1415 1415 1415 1415 1410 1410 1410 1404 1404 1398 1398 1398 1398 1392 1392 1392 1392 1387 1387 1381 1381 1381 1376 1376 1376 1376 1376 1376 1376 1370 1370 1370 1370 1370 1370 1365 1365 1365 1359 1359 1359 1359 1359 1359 1354 1354 1354 1354 1359 1359 1359 1359 1359 1354 1354 1354 1354 1354 1354 1354 1359 1359 1359 2432 2432 0 0 0 1343 0 0 0 1297 1292 1292 1297 1297 1297 1297 1297 1297 1292 1292 1292 1297 1297 1302 1302 1307 1307 1307 1312 1312 1312 0 1894 1894 1894 1883 1883 1883 1883 1883 1883 1883 1883 1883 1883 1883 1883 1883 1883 1883 1883 1883 1883 1883 1883 1883 1873 1873 1873 1873 1873 1883 1883 1883 1883 1883 1883 1883 1883 1883 1883 1883 1883 1883 1894 1894 1894 1904 1904 1904 1904 1904 1904 1904 1904 1904 1904 1904 1915 1904 1894 1894 1883 1883 1883 1392 1392 1392 1894 1894 1894 1883 1883 1883 1387 1387 1387 1387 1381 1381 1381 1381 1381 1381 1376 1376 1370 1370 1365 1365 1365 1365 1365 1365 1365 1365 1365 1359 1359 1359 1359 1359 1359 1354 1349 1349 1343 1343 1343 1343 1343 1343 1343 1343 1343 1343 1343 1338 1338 1338 1338 1338 1338 1993 1993 1993 1993 2005 2005 2005 2005 2005 2005 2005 2005 2005 2005 2005 2005 2005 3120 3092 3092 3064 3064 3092 3092 3149 3149 3149 3149 3149 3149 3149 3149 3149 3149 3149 3149 3178 3178 3178 3208 3178 3178 3178 3178 3178 3178 3178 3149 3149 3149 3149 3149 3149 3149 3178 3178 3178 3178 3178 3178 3178 3178 3178 3178 3178 3178 3178 3178 3178 3178 3178 3178 3178 3178 3149 3149 3149 3149 3149 3149 3149 3149 3149 3149 3178 3178 3178 3149 3149 3178 3178 3178 3178 3178 3178 3178 3178 3178 3178 3178 3178 3178 3178 3178 3178 3149 3149 3149 3149 3149 3149 3149 3149 3149 3149 3149 3149 3149 3178 3178 3178 3178 3178 3178 3178 3178 3178 3208 3208 0 0 3149 0 0 3238 3238 3149 3149 3178 3149 3149 3149 3149 3149 3149 3149 3149 3149 3149 3149 3149 3149 0 0 0 0 0 0 0 0 0 0 0
0 0 0 0 0 0 0 0 0 0 0 0 0 0 0 0 0 0 0 0 0 0 0 0 0 0 0 0 0 0 0 0 0 2680 2680 2680 2680 2701 2701 2701 2701 2701 2701 2701 2701 2701 2723 2701 2701 2701 2701 2701 2701 2701 2701 2701 2723 2723 2723 2723 2723 2723 2723 2723 2723 2723 2723 2723 2701 2701 2723 2723 2723 2723 2723 2723 2723 2723 2723 2723 2723 2723 2723 2723 2744 2723 2723 2744 2744 2744 2744 2744 2744 2744 2767 2767 2767 2767 2767 2767 2767 2767 2767 2744 2744 2744 2744 2744 2744 2767 2767 2767 2789 2789 2789 2789 2767 2767 2767 1722 1722 1713 1713 1713 1713 1713 1722 1722 1722 1722 1722 1731 1731 1739 1748 1748 1748 1757 1757 1766 1766 1766 1766 1766 1766 1776 1776 1776 1776 1776 1776 1785 1785 1785 1785 1785 1785 1776 1776 1776 1776 1776 1776 1776 1776 1776 1776 1776 1776 1776 1776 1776 1776 1776 1776 1785 1785 1785 1785 1785 1785 1785 1785 1785 1785 1785 1785 1785 1785 1785 1785 1785 1785 1785 1586 1586 1586 1586 1586 1586 1586 1586 1586 1586 1586 1586 1586 1594 1594 1609 1609 1609 1616 1813 1813 1804 1794 1794 1794 1794 1794 1804 1794 1794 1794 1794 1794 1794 1794 1794 1804 1804 1813 1813 1813 1813 1445 1445 1445 1445 1439 1439 1445 1445 1445 1439 1439 1439 1439 1439 1439 1433 1433 1427 1427 1421 1421 1421 1421 1421 1415 1415 1415 1415 1415 1415 1410 1410 1410 1404 1404 1404 1398 1398 1398 1398 1392 1392 1392 1387 1387 1381 1381 1381 1381 1376 1376 1376 1376 1376 1370 1370 1370 1370 1370 1370 1365 1365 1365 1359 1359 1359 1359 1354 1354 1354 1354 1354 1354 1354 1354 1359 1354 1354 1354 1354 1354 1354 1354 1354 1354 1359 1359 1359 1359 1359 1354 1343 1343 1343 1343 1349 1349 1297 1297 1302 1297 1297 1297 1302 1297 1297 1297 1297 1297 1297 1302 1302 1302 1307 1307 1312 1312 1312 1312 1904 1894 1894 1894 1883 1883 1883 1883 1883 1883 1883 1883 1883 1883 1883 1873 1873 1873 1873 1873 1873 1873 1873 1873 1873 1873 1873 1873 1873 1873 1873 1873 1873 1873 1873 1873 1873 1883 1883 1883 1883 1883 1883 1883 1883 1883 1894 1894 1894 1894 1894 1894 1894 1894 1894 1894 1894 1894 1894 1883 1883 1873 1873 1873 1873 1873 1873 1883 1883 1883 1883 1883 1873 1873 1863 1387 1387 1381 1381 1381 1381 1381 1381 1381 1376 1376 1370 1370 1370 1370 1365 1365 1365 1365 1365 1365 1365 1359 1359 1359 1359 1359 1354 1349 1349 1343 1343 1343 1343 1343 1343 1343 1343 1343 1343 1343 1343 1343 1343 1343 1343 1349 1349 1993 1993 1993 2005 2005 2005 2005 2005 2005 2005 2005 2005 2005 2005 2005 2005 3120 3092 3092 3064 3064 3064 3092 3120 3120 3149 3149 3149 3149 3149 3149 3149 3149 3149 3149 3149 3149 3149 3149 3149 3149 3178 3149 3149 3149 3149 3149 3120 3120 3149 3149 3149 3149 3149 3178 3178 3178 3178 3178 3178 3178 3149 3149 3149 3149 3149 3149 3120 3120 3149 3149 3149 3149 3149 3149 3120 3120 3120 3120 3149 3149 3149 3149 3178 3149 3149 3149 3149 3178 3149 3149 3149 3149 3149 3149 3178 3178 3149 3149 3178 3178 3178 3149 3149 3149 3149 3120 3120 3120 3149 3120 3120 3120 3149 3149 3149 3149 3149 3149 3149 3149 3149 3149 3178 3178 3178 3178 3178 0 3149 0 3149 3149 3149 3149 3149 3149 3149 3149 3149 3149 3149 3149 3120 3120 3120 3149 3120 3120 3149 3149 0 0 0 0 0 0 0 0 0 0 0
0 0 0 0 0 0 0 0 0 0 0 0 0 0 0 0 0 0 0 0 0 0 0 0 0 0 0 0 0 0 0 0 0 2659 2659 2680 2680 2680 2701 2701 2701 2701 2701 2701 2701 2701 2701 2701 2701 2701 2701 2701 2701 2701 2701 2701 2701 2701 2723 2723 2723 2723 2723 2723 2723 2723 2723 2723 2701 2701 2701 2701 2701 2701 2701 2701 2701 2701 2701 2701 2701 2701 2701 2723 2723 2723 2701 2701 2723 2723 2723 2723 2723 2744 2744 2744 2744 2744 2744 2744 2744 2744 2744 2744 2723 2723 2723 2744 2744 2744 2744 2767 2767 2767 2767 2767 2744 2744 2744 1722 1722 1722 1722 1722 1722 1722 1722 1722 1722 1722 1722 1731 1739 1739 1748 1748 1748 1757 1757 1757 1757 1757 1766 1766 1766 1766 1766 1766 1766 1776 1776 1776 1776 1776 1776 1785 1785 1766 1766 1766 1766 1776 1776 1776 1776 1776 1776 1776 1766 1766 1766 1766 1766 1766 1776 1785 1776 1776 1785 1785 1776 1776 1776 1776 1776 1776 1785 1785 1785 1785 1785 1785 1776 1776 1586 1586 1586 1586 1586 1586 1586 1586 1586 1586 1586 1586 1594 1594 1601 1609 1609 1609 1616 1794 1794 1794 1785 1785 1785 1794 1785 1785 1785 1785 1794 1785 1785 1785 1785 1794 1794 1794 1794 1794 1794 1794 1445 1445 1445 1445 1445 1445 1445 1445 1445 1439 1439 1439 1439 1439 1439 1439 1433 1427 1427 1427 1421 1421 1421 1421 1421 1421 1421 1415 1415 1415 1415 1410 1410 1404 1404 1404 1398 1398 1398 1398 1392 1392 1392 1387 1387 1381 1381 1381 1381 1376 1376 1376 1376 1376 1376 1370 1370 1370 1370 1370 1365 1365 1365 1365 1359 1359 1359 1354 1354 1354 1354 1354 1354 1354 1354 1359 1354 1354 1354 1354 1354 1354 1354 1354 1354 1354 1354 1354 1354 1354 1354 1343 1343 1343 1343 1349 1343 1343 1302 1302 1302 1302 1302 1302 1302 1302 1302 1302 1302 1302 1302 1302 1307 1307 1312 1312 1312 1312 1312 1904 1904 1904 1894 1894 1883 1883 1883 1883 1883 1883 1883 1873 1873 1873 1873 1873 1873 1873 1873 1873 1873 1873 1873 1873 1873 1873 1873 1863 1863 1873 1863 1863 1863 1863 1873 1873 1873 1873 1873 1873 1883 1883 1883 1883 1883 1883 1883 1883 1883 1883 1883 1883 1883 1883 1883 1883 1883 1883 1873 1873 1873 1873 1873 1873 1873 1873 1873 1873 1863 1863 1873 1873 1873 1863 1863 1863 1873 1873 1863 1381 1381 1381 1381 1376 1376 1376 1370 1370 1370 1370 1365 1365 1365 1365 1365 1365 1365 1365 1359 1359 1359 1359 1354 1354 1349 1343 1343 1343 1343 1343 1343 1343 1343 1343 1343 1343 1343 1343 1343 1343 1349 1349 1993 1993 1993 2005 2005 2016 2005 2005 2005 2005 2005 2005 2005 2005 2005 2005 3092 3092 3092 3064 3064 3064 3092 3120 3120 3120 3120 3149 3149 3149 3149 3120 3120 3120 3120 3120 3120 3120 3120 3120 3120 3120 3149 3120 3120 3120 3120 3120 3120 3120 3120 3120 3149 3149 3149 3149 3149 3149 3149 3149 3149 3120 3120 3120 3120 3120 3120 3092 3092 3120 3120 3120 3092 3092 3120 3120 3120 3120 3120 3149 3149 3149 3149 3149 3149 3149 3149 3149 3149 3120 3120 3120 3120 3149 3149 3149 3149 3149 3149 3178 3178 3149 3149 3149 3120 3120 3120 3120 3120 3120 3120 3120 3120 3120 3120 3120 3120 3120 3120 3120 3120 3120 3120 3149 3149 3149 3149 3149 3149 3149 3120 3120 3120 3120 3120 3120 3120 3149 3149 3149 3120 3120 3120 3120 3120 3120 3120 3120 3120 3120 3149 0 0 0 0 0 0 0 0 0 0 0
0 0 0 0 0 0 0 0 0 0 0 0 0 0 0 0 0 0 0 0 0 0 0 0 0 0 0 0 0 0 0 0 0 2659 2659 2659 2659 2680 2680 2680 2680 2701 2701 2701 2701 2701 2701 2701 2701 2701 2701 2701 2701 2701 2701 2701 2701 2701 2701 2701 2701 2701 2701 2701 2701 2701 2723 2701 2701 2701 2701 2701 2701 2701 2701 2701 2701 2701 2701 2701 2701 2701 2701 2701 2701 2701 2701 2701 2723 2723 2723 2723 2723 2723 2723 2744 2744 2744 2744 2744 2744 2744 2723 2723 2723 2723 2723 2723 2744 2744 2744 2744 2767 2767 2767 2767 2744 2744 2767 2767 1722 1722 1722 1722 1722 1722 1722 1722 1722 1722 1731 1731 1739 1739 1739 1748 1748 1748 1757 1757 1757 1757 1757 1757 1757 1757 1757 1757 1757 1757 1757 1757 1757 1776 1776 1776 1776 1766 1766 1766 1766 1766 1766 1766 1766 1766 1766 1766 1766 1766 1766 1766 1757 1757 1766 1776 1766 1766 1766 1766 1766 1766 1766 1776 1776 1776 1776 1776 1776 1776 1776 1776 1776 1776 1776 1594 1594 1594 1594 1594 1594 1594 1594 1594 1594 1594 1594 1601 1601 1609 1609 1609 1616 1785 1785 1785 1785 1785 1785 1785 1785 1785 1785 1785 1785 1785 1785 1785 1785 1785 1785 1785 1785 1794 1794 1794 1445 1445 1445 1445 1445 1445 1445 1445 1445 1439 1439 1445 1439 1439 1439 1439 1439 1433 1427 1427 1427 1421 1421 1421 1421 1421 1421 1421 1415 1415 1415 1415 1410 1410 1404 1404 1398 1398 1398 1398 1392 1392 1392 1392 1387 1387 1387 1381 1381 1381 1381 1376 1376 1376 1376 1376 1370 1370 1370 1370 1370 1365 1365 1365 1359 1359 1359 1354 1354 1354 1354 1354 1354 1354 1354 1354 1354 1354 1354 1354 1354 1354 1354 1354 1354 1354 1354 1354 1354 1354 1354 1354 1349 1349 1349 1349 1343 1343 1302 1302 1302 1302 1302 1302 1302 1302 1302 1302 1302 1302 1302 1302 1307 1307 1312 1312 1312 1312 0 1904 1904 1894 1894 1894 1883 1883 1883 1883 1883 1883 1883 1873 1873 1873 1873 1873 1873 1873 1873 1873 1873 1873 1873 1873 1873 1863 1863 1863 1863 1863 1863 1853 1853 1863 1863 1863 1863 1863 1873 1873 1873 1873 1873 1873 1873 1873 1873 1883 1873 1873 1873 1873 1873 1873 1873 1873 1873 1873 1863 1863 1863 1863 1863 1863 1863 1863 1863 1863 1863 1863 1863 1863 1863 1863 1863 1863 1873 1873 1863 1863 1863 1873 1873 1381 1381 1381 1376 1376 1370 1370 1370 1370 1365 1365 1365 1365 1365 1365 1359 1359 1359 1359 1354 1354 1349 1349 1343 1343 1343 1343 1343 1343 1343 1343 1343 1343 1343 1343 1343 1343 1349 1349 2005 2005 2005 2005 2016 2016 2005 2005 2005 2005 2005 2005 2005 2005 2005 3064 3064 3064 3092 3064 3064 3064 3064 3092 3092 3120 3120 3120 3120 3092 3092 3092 3092 3092 3092 3092 3092 3092 3092 3092 3092 3092 3120 3120 3092 3092 3092 3092 3092 3092 3092 3092 3120 3120 3149 3149 3149 3149 3149 3149 3120 3120 3120 3120 3120 3092 3092 3092 3092 3092 3092 3092 3092 3092 3092 3092 3092 3092 3120 3120 3120 3149 3149 3149 3149 3149 3120 3120 3120 3120 3092 3092 3092 3120 3120 3149 3149 3149 3149 3178 3149 3149 3149 3120 3120 3092 3092 3092 3092 3092 3092 3092 3092 3092 3092 3092 3092 3092 3092 3092 3092 3092 3092 3092 3120 3120 3120 3120 3120 3092 3092 3120 3120 3120 3120 3120 3120 3120 3120 3120 3120 3120 3120 3120 3120 3120 3120 3120 3120 3120 3120 0 0 0 0 0 0 0 0 0 0 0
0 0 0 0 0 0 0 0 0 0 0 0 0 0 0 0 0 0 0 0 0 0 0 0 0 0 0 0 0 0 0 0 0 2659 2659 2659 2659 2680 2680 2680 2680 2680 2680 2680 2680 2680 2680 2680 2680 2680 2680 2680 2680 2680 2680 2680 2701 2701 2701 2701 2701 2701 2701 2701 2701 2701 2701 2701 2701 2680 2680 2680 2680 2680 2680 2680 2701 2701 2680 2680 2701 2701 2701 2701 2701 2701 2701 2701 2701 2701 2701 2701 2701 2723 2723 2723 2723 2723 2723 2723 2723 2723 2723 2723 2723 2723 2723 2723 2744 2744 2744 2744 2767 2767 2767 2767 2744 2744 2767 1823 1823 1731 1731 1731 1722 1722 1722 1731 1731 1731 1731 1731 1739 1739 1739 1748 1748 1748 1748 1748 1748 1757 1757 1757 1757 1757 1757 1757 1757 1757 1757 1757 1757 1757 1757 1757 1757 1757 1757 1757 1757 1757 1757 1757 1757 1757 1757 1748 1748 1748 1748 1748 1748 1748 1748 1748 1757 1757 1757 1757 1757 1757 1757 1757 1766 1766 1776 1776 1776 1776 1776 1776 1776 1776 1776 1594 1594 1594 1594 1594 1594 1594 1594 1594 1594 1594 1594 1601 1601 1609 1609 1609 1609 1776 1776 1776 1776 1776 1776 1776 1776 1776 1776 1776 1785 1785 1785 1785 1785 1785 1785 1785 1785 1785 1785 1785 1445 1445 1445 1445 1445 1445 1445 1445 1452 1445 1445 1445 1445 1445 1439 1439 1439 1433 1427 1427 1427 1421 1421 1421 1421 1421 1421 1421 1421 1415 1415 1415 1415 1410 1404 1404 1404 1398 1398 1398 1398 1392 1392 1392 1392 1392 1387 1387 1381 1381 1381 1376 1376 1376 1376 1376 1376 1370 1370 1370 1370 1370 1365 1365 1359 1359 1359 1354 1354 1354 1354 1354 1354 1354 1354 1354 1354 1354 1354 1354 1354 1354 1354 1354 1354 1354 1354 1354 1354 1349 1349 1349 1349 1349 1349 1349 1343 1343 1307 1302 1302 1302 1307 1302 1302 1302 1302 1302 1302 1302 1302 1307 1307 1307 1312 1312 1312 1312 0 1904 1904 1894 1894 1894 1883 1883 1883 1883 1883 1883 1883 1873 1873 1873 1873 1873 1873 1873 1873 1873 1873 1873 1873 1873 1863 1863 1863 1863 1863 1863 1863 1853 1853 1853 1853 1853 1853 1853 1863 1863 1863 1863 1863 1863 1863 1853 1853 1863 1873 1863 1863 1863 1863 1863 1863 1863 1863 1863 1853 1853 1863 1863 1853 1853 1853 1853 1863 1853 1853 1853 1853 1863 1863 1863 1863 1863 1863 1863 1863 1863 1863 1863 1863 1863 1863 1387 1381 1381 1381 1370 1370 1370 1365 1365 1365 1365 1365 1365 1359 1359 1359 1359 1354 1354 1349 1349 1343 1343 1343 1343 1343 1343 1343 1343 1343 1343 1343 1343 1343 1349 1349 2005 2005 2005 2005 2005 2016 2016 2005 2005 2005 2005 2005 2005 2005 2016 2016 3064 3064 3064 3064 3064 3064 3064 3064 3092 3092 3092 3092 3092 3092 3092 3064 3064 3064 3064 3064 3064 3064 3064 3064 3064 3064 3064 3064 3064 3064 3092 3092 3092 3092 3092 3092 3092 3120 3120 3120 3092 3092 3120 3120 3120 3120 3092 3092 3092 3092 3092 3064 3064 3064 3064 3092 3092 3064 3064 3092 3092 3064 3064 3092 3092 3092 3120 3120 3120 3120 3120 3092 3092 3092 3092 3092 3092 3092 3120 3120 3120 3120 3120 3149 3149 3120 3120 3120 3120 3092 3064 3064 3064 3064 3064 3064 3064 3092 3092 3092 3092 3092 3092 3064 3064 3064 3092 3092 3092 3092 3092 3092 3092 3092 3092 3092 3092 3120 3092 3092 3092 3092 3092 3092 3092 3092 3092 3092 3092 3092 3092 3092 3120 3120 3120 3120 0 0 0 0 0 0 0 0 0 0 0
0 0 0 0 0 0 0 0 0 0 0 0 0 0 0 0 0 0 0 0 0 0 0 0 0 0 0 0 0 0 0 0 0 2659 2659 2659 2659 2680 2680 2680 2680 2680 2680 2680 2680 2680 2680 2680 2680 2680 2680 2680 2680 2659 2659 2659 2680 2680 2680 2701 2701 2701 2701 2701 2701 2701 2701 2701 2701 2680 2680 2680 2680 2680 2680 2680 2680 2680 2680 2680 2680 2680 2680 2680 2680 2680 2680 2680 2680 2701 2701 2701 2701 2701 2701 2701 2701 2701 2701 2701 2701 2701 2701 2701 2701 2701 2701 2701 2723 2723 2723 2744 2744 2744 2744 2744 2744 2744 1813 1813 1813 1757 1731 1731 1731 1731 1731 1731 1731 1731 1731 1731 1739 1739 1739 1739 1748 1748 1748 1748 1748 1748 1748 1748 1748 1748 1748 1748 1748 1748 1748 1748 1748 1748 1748 1748 1748 1748 1739 1739 1748 1748 1748 1748 1748 1748 1748 1748 1748 1748 1748 1748 1748 1748 1748 1748 1748 1748 1748 1748 1748 1748 1748 1748 1757 1757 1757 1757 1757 1757 1757 1757 1757 1757 1757 1601 1601 1601 1601 1601 1601 1594 1594 1601 1601 1601 1601 1601 1609 1616 1616 1616 1616 1766 1766 1766 1766 1766 1766 1766 1766 1776 1776 1776 1776 1776 1776 1776 1776 1776 1776 1776 1776 1785 1785 1785 1452 1452 1452 1452 1452 1452 1452 1452 1452 1445 1445 1445 1445 1445 1445 1439 1439 1439 1433 1433 1427 1421 1421 1421 1421 1421 1421 1421 1421 1421 1415 1415 1415 1410 1410 1404 1404 1404 1398 1398 1398 1398 1398 1392 1392 1392 1392 1387 1387 1381 1381 1381 1381 1376 1376 1376 1376 1376 1376 1370 1370 1370 1370 1365 1365 1365 1359 1359 1359 1354 1354 1354 1354 1359 1354 1354 1354 1354 1354 1354 1354 1354 1354 1354 1354 1354 1354 1354 1349 1349 1349 1349 1349 1349 1349 1349 1333 1333 1312 1307 1307 1307 1307 1307 1302 1302 1302 1302 1302 1302 1302 1307 1307 1312 1317 1317 1317 1317 0 1904 1904 1904 1894 1894 1894 1894 1883 1883 1883 1883 1883 1883 1883 1873 1873 1873 1873 1873 1873 1873 1873 1873 1873 1873 1863 1863 1863 1863 1863 1863 1863 1853 1853 1853 1853 1853 1853 1853 1853 1853 1853 1853 1853 1853 1853 1843 1843 1853 1853 1853 1853 1853 1853 1853 1853 1853 1853 1853 1843 1843 1853 1853 1853 1853 1843 1843 1843 1843 1843 1843 1843 1853 1853 1853 1863 1863 1863 1863 1863 1863 1863 1863 1863 1853 1853 1843 1843 1833 1381 1370 1370 1365 1365 1365 1365 1365 1359 1359 1359 1359 1359 1359 1354 1354 1349 1349 1343 1343 1343 1343 1343 1343 1343 1343 1343 1343 1343 1343 1349 1349 1349 2016 2016 2016 2016 2016 2016 2016 2005 2005 2005 2005 2005 2005 2005 2016 2016 3037 3037 3037 3064 3037 3037 3064 3064 3064 3064 3064 3064 3064 3064 3064 3064 3064 3064 3064 3064 3064 3064 3064 3064 3064 3064 3064 3064 3064 3064 3064 3092 3092 3092 3092 3092 3092 3092 3092 3064 3064 3064 3092 3092 3092 3092 3092 3092 3092 3092 3092 3064 3064 3064 3064 3064 3064 3064 3064 3064 3064 3064 3064 3092 3092 3092 3092 3092 3092 3092 3092 3064 3064 3064 3064 3092 3092 3092 3092 3092 3120 3120 3120 3149 3120 3092 3092 3092 3092 3092 3064 3064 3064 3064 3064 3064 3064 3064 3064 3064 3064 3064 3064 3064 3064 3064 3064 3064 3064 3064 3092 3092 3092 3092 3092 3092 3092 3092 3092 3092 3092 3092 3064 3064 3064 3064 3064 3092 3092 3092 3092 3092 3092 3092 3092 3092 0 0 0 0 0 0 0 0 0 0 0
0 0 0 0 0 0 0 0 0 0 0 0 0 0 0 0 0 0 0 0 0 0 0 0 0 0 0 0 0 0 0 0 0 2639 2639 2639 2639 2659 2659 2659 2659 2659 2659 2659 2659 2659 2659 2659 2659 2659 2659 2659 2659 2659 2659 2659 2680 2680 2680 2680 2701 2701 2701 2701 2701 2701 2701 2680 2680 2680 2680 2680 2680 2680 2680 2680 2680 2680 2680 2680 2680 2659 2659 2659 2659 2659 2659 2680 2680 2680 2680 2701 2701 2701 2701 2701 2701 2701 2701 2701 2701 2701 2701 2701 2701 2701 2701 2701 2701 2701 2723 2723 2723 2723 2744 2744 2744 2744 1813 1813 1813 1757 1748 1731 1731 1731 1731 1731 1731 1731 1731 1731 1731 1731 1731 1739 1739 1739 1748 1739 1739 1748 1739 1739 1739 1739 1739 1731 1731 1731 1739 1731 1731 1731 1731 1739 1739 1739 1731 1731 1739 1739 1739 1739 1739 1739 1739 1739 1739 1739 1739 1739 1739 1739 1748 1748 1748 1748 1748 1748 1739 1739 1748 1748 1748 1748 1748 1748 1748 1748 1748 1748 1748 1748 1748 1601 1601 1601 1601 1601 1601 1601 1601 1601 1601 1601 1609 1609 1616 1616 1616 1616 1639 1739 1748 1748 1748 1748 1748 1748 1757 1757 1766 1766 1776 1776 1776 1776 1776 1776 1776 1776 1776 1776 1776 1458 1452 1452 1452 1452 1452 1452 1452 1452 1452 1445 1445 1445 1452 1452 1452 1445 1439 1439 1433 1433 1427 1421 1421 1421 1421 1421 1421 1421 1421 1421 1415 1415 1415 1415 1410 1410 1404 1404 1404 1404 1398 1398 1398 1398 1392 1392 1392 1392 1387 1387 1381 1381 1381 1381 1376 1376 1376 1376 1376 1376 1370 1370 1370 1370 1365 1365 1365 1365 1365 1359 1359 1359 1359 1359 1359 1354 1354 1354 1354 1354 1354 1354 1354 1354 1354 1354 1354 1354 1349 1349 1349 1349 1349 1349 1349 1349 1333 1328 1322 1317 1307 1307 1307 1307 1307 1302 1302 1302 1302 1307 1307 1307 1307 1312 1317 1317 1317 0 0 1915 1915 1904 1904 1894 1894 1894 1894 1883 1883 1883 1883 1883 1883 1873 1873 1873 1873 1873 1873 1883 1873 1873 1873 1873 1873 1873 1863 1863 1863 1863 1853 1853 1853 1853 1853 1853 1853 1853 1843 1843 1843 1843 1843 1843 1843 1843 1843 1843 1843 1853 1853 1853 1853 1853 1843 1843 1843 1853 1843 1843 1843 1843 1843 1843 1843 1843 1843 1843 1843 1843 1843 1843 1843 1853 1853 1863 1853 1853 1853 1853 1853 1853 1853 1853 1853 1843 1843 1833 1833 1833 1365 1365 1365 1365 1365 1359 1359 1359 1359 1359 1359 1359 1354 1354 1349 1349 1343 1343 1343 1343 1343 1343 1343 1343 1343 1343 1343 1343 1349 1349 2005 2005 2005 2016 2016 2016 2016 2005 2005 2005 2005 2005 2005 2005 2005 2016 2016 3010 3010 3037 3064 3037 3037 3037 3037 3064 3064 3064 3064 3064 3064 3037 3037 3064 3064 3064 3064 3064 3064 3064 3064 3037 3037 3037 3064 3064 3064 3064 3064 3064 3064 3064 3064 3064 3064 3064 3064 3064 3064 3064 3064 3092 3064 3064 3092 3092 3064 3064 3064 3064 3064 3064 3064 3064 3064 3064 3064 3064 3064 3064 3064 3092 3092 3092 3064 3064 3064 3064 3064 3064 3064 3064 3064 3064 3064 3092 3092 3092 3120 3120 3120 3120 3092 3092 3092 3092 3092 3064 3064 3064 3064 3064 3064 3064 3064 3064 3064 3064 3064 3064 3037 3037 3037 3064 3064 3064 3064 3064 3092 3092 3092 3092 3092 3092 3092 3092 3064 3064 3064 3064 3064 3064 3064 3064 3064 3092 3092 3064 3064 3064 3064 3064 3092 0 0 0 0 0 0 0 0 0 0 0
0 0 0 0 0 0 0 0 0 0 0 0 0 0 0 0 0 0 0 0 0 0 0 0 0 0 0 0 0 0 0 0 0 2639 2639 2639 2639 2639 2639 2639 2639 2639 2639 2639 2639 2639 2639 2659 2659 2659 2659 2659 2659 2639 2639 2639 2659 2659 2659 2659 2659 2680 2680 2680 2680 2680 2701 2680 2680 2659 2659 2659 2659 2659 2680 2680 2680 2680 2659 2659 2680 2659 2659 2659 2659 2659 2659 2680 2680 2680 2680 2680 2680 2701 2680 2680 2680 2680 2701 2701 2680 2680 2680 2701 2701 2701 2680 2680 2701 2701 2701 2723 2723 2723 2723 2723 2744 1823 1813 1804 1804 1776 1748 1739 1731 1731 1731 1731 1731 1731 1731 1731 1731 1731 1731 1739 1739 1739 1739 1739 1739 1739 1739 1739 1731 1731 1731 1731 1731 1731 1731 1731 1731 1731 1731 1731 1731 1731 1722 1722 1722 1722 1731 1731 1731 1731 1731 1739 1731 1731 1739 1739 1739 1739 1739 1739 1739 1739 1739 1739 1739 1739 1739 1748 1748 1748 1739 1739 1748 1748 1748 1748 1748 1748 1748 1757 1609 1601 1601 1601 1601 1601 1601 1601 1601 1601 1609 1609 1616 1616 1624 1624 1632 1739 1739 1748 1748 1748 1748 1748 1748 1748 1748 1757 1757 1757 1757 1757 1757 1757 1757 1757 1757 1757 1766 1458 1458 1458 1458 1458 1452 1452 1452 1452 1452 1452 1452 1452 1452 1458 1452 1452 1445 1439 1433 1433 1427 1427 1427 1427 1427 1421 1421 1421 1421 1421 1421 1415 1415 1415 1410 1410 1410 1404 1404 1404 1398 1398 1398 1398 1392 1392 1392 1392 1387 1387 1381 1381 1381 1381 1376 1376 1376 1376 1376 1376 1376 1376 1370 1370 1370 1370 1365 1365 1365 1365 1365 1365 1365 1365 1365 1359 1354 1354 1354 1354 1354 1354 1354 1354 1354 1354 1354 1354 1354 1349 1349 1349 1349 1349 1349 1349 1333 1328 1328 1322 1312 1307 1307 1307 1307 1307 1307 1307 1307 1307 1307 1307 1312 1317 1322 1322 1322 1322 0 1776 1904 1904 1904 1904 1894 1894 1894 1883 1883 1883 1883 1873 1873 1873 1873 1873 1873 1873 1883 1883 1883 1873 1873 1873 1873 1873 1863 1863 1863 1863 1853 1853 1853 1853 1853 1853 1843 1843 1843 1843 1843 1843 1843 1843 1843 1843 1843 1843 1843 1843 1843 1843 1843 1843 1843 1843 1843 1843 1833 1833 1843 1843 1843 1833 1833 1833 1833 1833 1833 1833 1833 1833 1833 1843 1843 1843 1843 1843 1843 1843 1843 1843 1843 1843 1843 1853 1853 1843 1843 1843 1359 1359 1359 1359 1359 1359 1359 1359 1359 1359 1359 1359 1354 1354 1349 1349 1343 1343 1343 1343 1343 1343 1343 1343 1343 1343 1343 1349 1354 1354 2005 2005 2005 2016 2016 2016 2016 2005 2005 2005 2005 2005 2005 2005 2005 2016 3010 3010 3010 3037 3037 3037 3037 3037 3037 3037 3037 3037 3037 3037 3037 3037 3037 3037 3037 3037 3037 3037 3037 3037 3037 3037 3037 3037 3037 3037 3037 3037 3064 3064 3064 3064 3064 3064 3064 3064 3037 3037 3037 3064 3064 3064 3064 3064 3064 3064 3064 3064 3064 3037 3037 3037 3064 3064 3064 3064 3064 3064 3064 3064 3064 3064 3064 3064 3064 3064 3064 3037 3037 3037 3037 3037 3037 3064 3064 3064 3064 3064 3064 3064 3092 3092 3092 3092 3092 3092 3092 3064 3064 3064 3064 3064 3064 3037 3037 3037 3037 3037 3037 3037 3037 3037 3037 3037 3037 3064 3064 3064 3064 3092 3092 3092 3064 3064 3064 3064 3064 3064 3064 3037 3037 3064 3064 3064 3064 3064 3064 3064 3064 3064 3064 3064 0 0 0 0 0 0 0 0 0 0 0 0
0 0 0 0 0 0 0 0 0 0 0 0 0 0 0 0 0 0 0 0 0 0 0 0 0 0 0 0 0 0 0 0 0 2639 2639 2639 2639 2618 2618 2618 2618 2618 2618 2618 2618 2618 2639 2639 2639 2659 2639 2639 2639 2639 2639 2639 2639 2639 2639 2639 2659 2659 2659 2680 2680 2680 2680 2680 2680 2659 2659 2659 2659 2659 2659 2659 2659 2659 2659 2659 2659 2659 2659 2659 2659 2659 2659 2659 2659 2659 2680 2680 2680 2680 2680 2680 2680 2680 2680 2680 2680 2680 2680 2680 2680 2680 2680 2680 2701 2701 2701 2701 2701 2701 2701 2701 2701 1823 1813 1804 1804 1766 1757 1748 1739 1731 1731 1731 1731 1731 1731 1731 1739 1731 1731 1739 1739 1739 1739 1739 1739 1739 1739 1731 1722 1722 1722 1722 1722 1722 1722 1722 1722 1722 1722 1722 1722 1722 1713 1713 1713 1713 1722 1722 1722 1722 1722 1731 1731 1731 1731 1731 1731 1731 1739 1739 1739 1739 1739 1739 1739 1739 1739 1739 1739 1739 1739 1739 1739 1739 1739 1739 1739 1739 1739 1748 1609 1609 1609 1609 1609 1609 1609 1609 1609 1609 1609 1609 1616 1624 1624 1624 1632 1739 1739 1739 1739 1739 1739 1739 1748 1748 1748 1748 1748 1748 1748 1757 1757 1757 1748 1748 1757 1757 1766 1464 1464 1458 1458 1458 1452 1452 1452 1452 1458 1452 1452 1458 1458 1464 1464 1458 1452 1445 1439 1433 1433 1427 1427 1427 1427 1427 1421 1421 1421 1421 1421 1421 1421 1415 1415 1415 1410 1410 1410 1404 1404 1398 1398 1398 1398 1392 1392 1392 1392 1392 1387 1381 1381 1381 1381 1381 1376 1376 1376 1376 1376 1376 1376 1370 1370 1370 1370 1370 1370 1365 1365 1365 1365 1365 1365 1359 1354 1354 1354 1354 1354 1354 1354 1354 1354 1354 1354 1354 1349 1349 1349 1349 1349 1349 1349 1349 1338 1328 1328 1328 1317 1312 1312 1307 1307 1307 1307 1307 1307 1307 1307 1307 1312 1317 1322 1328 1328 1343 0 0 1776 1915 1915 1915 1904 1904 1904 1883 1883 1883 1873 1873 1873 1873 1873 1873 1873 1883 1883 1883 1883 1873 1873 1873 1873 1873 1863 1863 1863 1863 1863 1853 1853 1853 1853 1843 1843 1843 1843 1843 1843 1843 1843 1843 1843 1843 1843 1843 1843 1843 1843 1843 1833 1833 1833 1833 1833 1833 1833 1833 1833 1833 1833 1833 1823 1823 1833 1823 1823 1823 1823 1833 1833 1833 1833 1833 1833 1833 1833 1843 1833 1833 1843 1843 1843 1853 1853 1863 1863 1863 1359 1359 1359 1359 1359 1359 1354 1354 1359 1359 1359 1359 1354 1354 1349 1349 1349 1349 1349 1349 1343 1343 1343 1343 1343 1349 1349 1349 1354 1354 2016 2016 2016 2016 2005 2005 2016 2005 2005 2005 2005 2005 2005 2005 2005 2016 3010 3010 3010 3037 3037 3010 3010 3010 3010 3037 3037 3037 3037 3037 3037 3037 3037 3037 3037 3037 3037 3037 3037 3037 3037 3037 3037 3037 3037 3037 3037 3037 3037 3037 3037 3037 3037 3037 3037 3037 3037 3037 3037 3064 3064 3064 3064 3064 3064 3064 3064 3037 3037 3037 3037 3037 3037 3037 3037 3037 3037 3037 3037 3037 3064 3064 3064 3064 3037 3037 3037 3037 3037 3037 3037 3037 3037 3037 3037 3064 3064 3064 3064 3064 3064 3064 3064 3064 3092 3092 3092 3064 3064 3064 3037 3037 3037 3037 3037 3037 3037 3037 3037 3037 3037 3037 3037 3037 3037 3037 3037 3037 3064 3064 3064 3064 3064 3064 3064 3064 3064 3064 3037 3037 3037 3037 3037 3037 3037 3037 3037 3037 3064 3064 3037 3037 0 0 0 0 0 0 0 0 0 0 0 0
0 0 0 0 0 0 0 0 0 0 0 0 0 0 0 0 0 0 0 0 0 0 0 0 0 0 0 0 0 0 0 0 0 2618 2618 2618 2618 2618 2618 2618 2618 2618 2618 2618 2618 2618 2618 2618 2639 2639 2639 2639 2639 2639 2639 2639 2639 2639 2639 2639 2639 2639 2639 2659 2659 2680 2680 2659 2659 2639 2639 2639 2639 2639 2639 2639 2639 2639 2639 2639 2639 2659 2659 2659 2659 2659 2659 2659 2659 2659 2659 2680 2680 2680 2680 2680 2680 2680 2680 2680 2680 2680 2680 2680 2680 2680 2680 2680 2680 2701 2701 2701 2701 2701 2701 2701 2701 2701 2701 1804 1804 1766 1757 1748 1739 1739 1739 1731 1731 1731 1731 1731 1739 1739 1739 1739 1739 1739 1739 1739 1739 1739 1739 1731 1722 1722 1722 1722 1722 1722 1722 1722 1722 1722 1722 1713 1713 1722 1713 1713 1713 1713 1722 1722 1713 1713 1713 1722 1722 1722 1722 1722 1731 1731 1731 1731 1731 1731 1731 1739 1731 1731 1731 1731 1731 1731 1731 1731 1731 1739 1731 1731 1731 1731 1722 1722 1609 1609 1609 1609 1609 1609 1609 1609 1609 1609 1609 1616 1616 1616 1624 1624 1632 1739 1739 1739 1739 1739 1739 1739 1739 1739 1739 1748 1748 1748 1748 1748 1748 1748 1748 1748 1748 1757 1757 1464 1464 1464 1464 1458 1458 1458 1458 1458 1458 1458 1458 1458 1464 1464 1464 1458 1458 1452 1445 1439 1439 1433 1433 1433 1427 1421 1421 1421 1421 1421 1421 1421 1421 1415 1415 1415 1415 1410 1410 1410 1404 1404 1398 1398 1398 1398 1392 1392 1392 1392 1387 1387 1387 1381 1381 1381 1381 1376 1376 1376 1376 1376 1376 1376 1370 1370 1370 1370 1370 1370 1365 1365 1365 1365 1365 1359 1359 1359 1359 1354 1354 1354 1354 1354 1354 1354 1354 1354 1349 1349 1349 1349 1349 1349 1349 1349 1338 1333 1328 1328 1317 1312 1312 1307 1307 1307 1307 1307 1307 1307 1307 1312 1312 1317 1322 1338 1343 1343 0 1766 1776 1776 1776 1785 1785 1785 1785 1785 1794 1794 1794 1804 1863 1873 1873 1873 1883 1883 1883 1883 1883 1873 1873 1873 1873 1873 1863 1863 1863 1863 1863 1853 1853 1853 1853 1843 1843 1843 1843 1843 1843 1843 1843 1843 1843 1843 1843 1843 1843 1843 1833 1833 1833 1833 1833 1833 1833 1833 1823 1823 1823 1823 1823 1823 1823 1823 1823 1823 1823 1823 1823 1823 1823 1823 1823 1823 1823 1833 1833 1833 1833 1833 1833 1833 1843 1843 1843 1863 1863 1359 1359 1359 1359 1359 1359 1359 1354 1354 1359 1359 1359 1359 1354 1354 1349 1349 1349 1349 1349 1349 1349 1349 1349 1349 1349 1349 1349 1349 1354 1354 2016 2016 2016 2016 2005 2005 2016 2005 2005 2005 2005 2005 2005 2005 2005 2016 3010 3010 3010 3010 3010 3010 3010 2984 2984 3010 3037 3037 3037 3010 3010 3010 3010 3010 3010 3037 3037 3037 3037 3037 3037 3037 3037 3037 3037 3037 3037 3010 3010 3037 3037 3037 3037 3037 3037 3037 3037 3037 3037 3037 3037 3037 3064 3064 3064 3064 3037 3037 3037 3037 3037 3037 3037 3037 3037 3037 3037 3037 3037 3037 3037 3037 3037 3037 3037 3037 3037 3010 3010 3010 3010 3010 3010 3037 3037 3037 3037 3037 3037 3037 3037 3064 3064 3064 3064 3064 3064 3037 3037 3037 3037 3037 3037 3037 3037 3037 3037 3037 3037 3037 3010 3010 3010 3037 3037 3037 3037 3037 3037 3064 3064 3064 3037 3037 3037 3037 3037 3037 3037 3037 3037 3037 3037 3037 3037 3010 3010 3010 3010 3010 3010 3037 0 0 0 0 0 0 0 0 0 0 0 0
0 0 0 0 0 0 0 0 0 0 0 0 0 0 0 0 0 0 0 0 0 0 0 0 0 0 0 0 0 0 0 0 0 2618 2598 2598 2598 2598 2598 2618 2618 2618 2618 2618 2618 2618 2618 2618 2618 2618 2618 2618 2618 2618 2618 2618 2618 2618 2618 2618 2639 2639 2639 2639 2639 2659 2659 2639 2639 2618 2618 2618 2618 2618 2618 2618 2618 2639 2639 2639 2639 2639 2639 2639 2639 2639 2639 2639 2639 2639 2659 2659 2659 2680 2659 2659 2680 2680 2680 2680 2659 2659 2659 2680 2680 2680 2680 2680 2680 2680 2701 2701 2701 2701 2701 2701 2701 2701 2701 2701 1757 1757 1757 1748 1748 1739 1739 1739 1731 1731 1731 1731 1739 1739 1739 1739 1739 1748 1739 1739 1739 1739 1739 1731 1722 1722 1722 1722 1722 1722 1713 1713 1713 1722 1722 1713 1713 1722 1713 1713 1705 1705 1713 1713 1713 1713 1713 1722 1713 1713 1713 1722 1722 1722 1722 1722 1722 1722 1722 1731 1722 1722 1722 1722 1722 1722 1722 1722 1722 1731 1722 1722 1722 1722 1713 1713 1609 1609 1609 1609 1609 1609 1609 1609 1609 1609 1609 1616 1616 1616 1624 1624 1632 1731 1731 1731 1731 1739 1739 1739 1739 1739 1739 1739 1739 1739 1739 1739 1739 1739 1739 1739 1748 1748 1748 1464 1464 1464 1464 1464 1458 1458 1458 1458 1458 1458 1458 1458 1464 1464 1470 1470 1470 1470 0 0 0 0 0 0 1427 1421 1421 1421 1421 1421 1421 1421 1421 1421 1415 1415 1415 1415 1410 1410 1404 1404 1398 1398 1398 1398 1398 1398 1392 1392 1392 1387 1387 1387 1387 1381 1381 1381 1381 1381 1376 1376 1376 1376 1370 1370 1370 1370 1370 1370 1370 1370 1370 1370 1370 1365 1359 1359 1359 1359 1354 1354 1354 1354 1354 1354 1354 1354 1349 1349 1349 1349 1349 1349 1349 1349 1338 1333 1328 1328 1317 1317 1312 1312 1312 1307 1307 1307 1307 1307 1312 1312 1317 1322 1333 1338 1343 1343 1766 1766 1766 1766 1776 1776 1776 1766 1766 1776 1776 1785 1785 1794 1794 1873 1873 1873 1883 1883 1883 1873 1873 1873 1873 1873 1863 1863 1863 1863 1863 1863 1863 1863 1863 1853 1853 1853 1843 1843 1843 1843 1843 1843 1843 1843 1843 1843 1843 1843 1843 1843 1833 1833 1833 1833 1833 1833 1823 1823 1813 1813 1823 1823 1823 1813 1813 1823 1823 1823 1813 1813 1813 1813 1813 1813 1813 1813 1813 1823 1823 1823 1823 1823 1823 1833 1833 1833 1843 1843 1359 1359 1359 1359 1359 1359 1359 1359 1354 1354 1359 1359 1359 1359 1359 1354 1349 1349 1349 1349 1349 1349 1349 1349 1349 1349 1349 1349 1349 1354 1354 1354 2016 2016 2005 2005 2005 2005 2005 2005 2005 2016 2016 2016 2016 2016 2016 2016 3064 3064 3010 3010 3010 2984 2984 2984 2984 3010 3010 3010 3010 3010 3010 3010 3010 3010 3010 3010 3010 3010 3010 3010 3037 3010 3010 3010 3010 3010 3010 2984 2984 3010 3010 3037 3037 3037 3037 3037 3037 3037 3037 3037 3037 3037 3037 3037 3037 3037 3037 3037 3037 3037 3010 3010 3037 3037 3037 3037 3037 3037 3037 3037 3037 3037 3037 3037 3010 3010 3010 3010 3010 3010 3010 3010 3010 3037 3037 3037 3037 3037 3037 3037 3037 3037 3037 3037 3064 3064 3064 3037 3037 3037 3010 3010 3010 3010 3010 3010 3010 3010 3037 3037 3010 3010 3010 3010 3010 3010 3010 3037 3037 3037 3037 3037 3010 3010 3037 3037 3037 3037 3037 3037 3037 3037 3037 3037 3010 2984 2984 2984 2984 2984 2958 2958 0 0 0 0 0 0 0 0 0 0 0 0
0 0 0 0 0 0 0 0 0 0 0 0 0 0 0 0 0 0 0 0 0 0 0 0 0 0 0 0 0 0 0 0 0 2598 2598 2579 2579 2579 2579 2598 2598 2598 2618 2618 2618 2618 2618 2618 2618 2618 2618 2618 2618 2618 2618 2618 2618 2618 2618 2618 2618 2618 2639 2639 2639 2639 2639 2639 2639 2618 2618 2618 2618 2618 2618 2618 2618 2618 2618 2618 2618 2618 2618 2639 2639 2618 2618 2639 2639 2639 2639 2639 2639 2659 2659 2659 2659 2659 2659 2659 2659 2639 2639 2659 2659 2659 2659 2659 2680 2680 2680 2680 2680 2680 2680 2680 2680 2701 2701 2701 2701 1757 1757 1748 1748 1739 1739 1739 1731 1731 1731 1731 1739 1739 1739 1739 1739 1748 1739 1739 1739 1739 1739 1722 1722 1722 1722 1722 1722 1722 1713 1713 1713 1713 1713 1713 1713 1713 1705 1705 1705 1705 1705 1705 1705 1705 1705 1713 1713 1713 1713 1713 1713 1713 1713 1713 1713 1713 1713 1713 1713 1713 1713 1713 1713 1713 1713 1713 1713 1713 1713 1713 1713 1713 1713 1713 1713 1609 1609 1609 1609 1609 1609 1609 1609 1609 1616 1616 1616 1616 1624 1624 1632 1639 1722 1722 1731 1731 1731 1731 1731 1731 1731 1739 1739 1739 1739 1739 1739 1739 1739 1739 1739 1739 1739 1470 1470 1470 1464 1464 1464 1464 1458 1458 1464 1458 1458 1458 1464 1464 1470 1470 1470 1470 0 0 0 0 0 0 0 1421 1421 1421 1421 1421 1421 1421 1421 1421 1415 1415 1415 1415 1415 1410 1404 1404 1398 1398 1398 1398 1398 1398 1398 1398 1392 1392 1392 1392 1392 1392 1387 1387 1387 1387 1381 1381 1376 1376 1376 1376 1376 1370 1370 1370 1370 1370 1370 1370 1370 1365 1365 1365 1359 1359 1354 1354 1354 1354 1354 1354 1354 1354 1354 1354 1349 1349 1349 1349 1349 1349 1338 1333 1328 1328 1322 1317 1317 1312 1312 1312 1312 1312 1312 1312 1312 1317 1322 1322 1333 1338 1343 1349 1766 1766 1766 1766 1766 1766 1766 1766 1766 1766 1766 1776 1776 1776 1776 1766 1766 1766 1766 1883 1883 1873 1873 1863 1863 1863 1863 1863 1863 1863 1863 1863 1873 1863 1863 1863 1863 1863 1853 1853 1843 1843 1843 1843 1843 1843 1843 1843 1843 1843 1843 1843 1843 1833 1833 1833 1833 1833 1823 1823 1813 1813 1813 1813 1813 1813 1813 1813 1813 1813 1804 1804 1804 1804 1804 1804 1804 1804 1804 1813 1813 1813 1813 1813 1813 1823 1823 1823 1823 1359 1359 1359 1359 1359 1359 1359 1359 1359 1359 1359 1359 1359 1359 1359 1359 1354 1354 1354 1349 1349 1349 1349 1349 1354 1354 1349 1349 1354 1354 1354 1354 1354 1354 2016 2005 2005 2005 2005 2005 2016 2016 2016 2016 2016 2016 2016 2016 2016 2984 2984 2984 2984 2984 2984 2984 2958 2958 2984 2984 2984 2984 2984 2984 2984 2984 2984 2984 2984 2984 2984 2984 2984 3010 2984 2984 2984 2984 2984 2984 2958 2958 2984 2984 3010 3010 3010 3010 3010 3010 3010 3010 3010 3010 3010 3010 3010 3010 3010 3010 3010 3010 3010 3010 3010 3010 3010 3037 3010 3010 3010 3010 3010 3010 3010 3010 3010 3010 3010 3010 3010 3010 3010 3010 3010 3010 3010 3010 3010 3010 3037 3010 3010 3037 3037 3037 3037 3037 3037 3037 3010 3010 3010 3010 2984 2984 2984 2984 2984 2984 2984 2984 2984 2984 2984 2984 2984 3010 3010 3010 3010 3010 3010 3010 3010 3010 3010 3010 3010 3010 3010 3010 3010 3010 3010 3010 3010 2984 2984 2984 2984 2984 2984 2958 2958 0 0 0 0 0 0 0 0 0 0 0 0
0 0 0 0 0 0 0 0 0 0 0 0 0 0 0 0 0 0 0 0 0 0 0 0 0 0 0 0 0 0 0 0 0 2598 2579 2579 2579 2579 2579 2598 2598 2598 2598 2598 2598 2598 2598 2598 2598 2598 2598 2598 2598 2618 2618 2618 2618 2618 2618 2618 2618 2618 2618 2618 2618 2639 2639 2618 2618 2598 2598 2618 2618 2618 2618 2618 2618 2618 2618 2618 2618 2618 2618 2618 2618 2618 2618 2618 2618 2618 2618 2618 2618 2639 2639 2639 2659 2659 2659 2659 2659 2639 2639 2659 2659 2659 2659 2659 2680 2680 2680 2680 2680 2680 2680 2680 2680 2680 2701 2701 2701 1757 1757 1748 1748 1739 1739 1739 1739 1739 1731 1731 1739 1739 1739 1739 1748 1748 1748 1739 1739 1739 1739 1722 1722 1722 1722 1722 1722 1722 1713 1713 1713 1713 1713 1713 1713 1713 1705 1705 1705 1705 1705 1705 1696 1696 1705 1705 1705 1705 1705 1705 1705 1705 1713 1713 1713 1713 1713 1713 1705 1705 1705 1705 1705 1705 1705 1713 1713 1713 1713 1713 1713 1713 1705 1705 1705 1705 1616 1616 1616 1616 1616 1616 1616 1616 1616 1616 1616 1616 1624 1632 1632 1639 1680 1713 1722 1722 1722 1722 1722 1722 1722 1731 1731 1731 1731 1731 1731 1731 1731 1731 1731 1739 1739 1470 1470 1470 1470 1464 1464 1464 1464 1464 1464 1458 1458 1458 1464 1464 1470 1470 1470 0 0 0 0 0 0 0 0 0 0 0 0 1427 1427 0 1421 1421 1415 1415 1415 1415 1410 1410 1404 1404 1398 1398 1398 1398 1398 1398 1398 1398 1398 1392 1392 1392 1392 1392 1387 1387 1387 1387 1381 1381 1381 1376 1376 1376 1376 1376 1376 1370 1370 1370 1370 1370 1370 1370 1370 1370 1365 1359 1359 1359 1359 1359 1359 1354 1354 1354 1354 1354 1354 1354 1349 1349 1349 1349 1338 1333 1328 1328 1322 1322 1322 1317 1317 1317 1312 1312 1312 1317 1317 1317 1322 1322 1333 1338 1338 1343 1349 1766 1766 1757 1757 1757 1757 1757 1757 1766 1766 1766 1766 1766 1766 1766 1766 1766 1757 1757 1757 1757 1757 1766 1766 1766 1766 1776 1794 1794 1794 1804 1863 1863 1863 1863 1863 1863 1853 1853 1853 1843 1843 1843 1843 1843 1843 1843 1843 1843 1843 1843 1843 1833 1833 1833 1833 1833 1823 1823 1813 1813 1813 1813 1804 1804 1804 1804 1804 1804 1804 1794 1794 1794 1794 1794 1794 1794 1794 1804 1804 1804 1804 1804 1813 1813 1823 1823 1359 1359 1359 1359 1359 1359 1359 1359 1359 1359 1359 1359 1359 1359 1359 1359 1359 1354 1354 1354 1354 1354 1349 1349 1354 1354 1354 1349 1349 1354 1354 1349 1349 1354 1354 2016 2005 2005 2005 2005 2016 2016 2016 2016 2016 2016 2016 2016 2016 2016 2984 2984 2984 2984 2984 2958 2958 2958 2958 2958 2958 2958 2958 2984 2984 2984 2958 2958 2958 2958 2958 2958 2984 2984 2984 2984 2984 2958 2958 2958 2958 2958 2958 2958 2958 2984 2984 2984 3010 3010 3010 3010 2984 2984 2984 2984 2984 3010 2984 2984 3010 2984 2984 3010 2984 2984 3010 3010 3010 3010 3010 3010 3010 3010 3010 3010 3010 3010 3010 3010 3010 3010 2984 2984 2984 2984 2984 3010 3010 3010 3010 3010 3010 3010 3037 3037 3037 3037 3037 3037 3037 3010 3010 3010 2984 2984 2984 2958 2958 2958 2984 2984 2984 2984 2984 2984 2984 2984 2984 2984 2984 2984 2984 2984 2984 2984 3010 3010 2984 2984 3010 3010 3010 3010 3010 3010 3010 3010 2984 2984 2984 2984 2984 2984 2984 2984 0 0 0 0 0 0 0 0 0 0 0 0
0 0 0 0 0 0 0 0 0 0 0 0 0 0 0 0 0 0 0 0 0 0 0 0 0 0 0 0 0 0 0 0 0 2579 2579 2579 2579 2579 2579 2598 2598 2598 2598 2579 2579 2579 2598 2598 2598 2598 2598 2598 2598 2598 2598 2598 2598 2598 2598 2598 2598 2598 2618 2618 2618 2618 2618 2618 2618 2598 2598 2598 2598 2598 2598 2598 2618 2618 2618 2618 2618 2618 2618 2618 2618 2618 2618 2618 2618 2618 2618 2618 2618 2618 2618 2618 2639 2639 2639 2639 2639 2618 2618 2639 2639 2639 2639 2639 2659 2659 2659 2659 2659 2680 2680 2680 2680 2680 2701 2701 2701 1757 1757 1748 1748 1748 1739 1739 1739 1739 1739 1739 1739 1739 1739 1748 1748 1748 1748 1748 1739 1739 1739 1722 1722 1722 1722 1722 1722 1722 1722 1713 1713 1713 1713 1713 1713 1713 1705 1705 1705 1696 1696 1696 1696 1696 1696 1696 1696 1696 1696 1696 1705 1705 1705 1705 1705 1705 1705 1705 1705 1705 1705 1705 1705 1705 1705 1705 1705 1705 1705 1705 1705 1705 1705 1705 1705 1696 1616 1616 1616 1616 1616 1616 1616 1616 1616 1616 1616 1624 1632 1632 1632 1639 1655 1688 1713 1713 1713 1713 1713 1713 1722 1722 1722 1722 1722 1731 1731 1731 1731 1731 1731 1739 1739 1470 1470 1470 1470 1470 1464 1464 1464 1464 1464 1458 1458 1458 1464 1464 1470 1470 1470 0 0 0 0 0 0 0 0 0 0 0 0 0 0 0 0 0 1415 1415 1415 1415 1410 1410 1404 1404 1398 1398 1398 1398 1398 1398 1398 1398 1398 1398 1398 1398 1392 1392 1392 1392 1387 1387 1381 1381 1381 1381 1376 1376 1376 1376 1376 1376 1370 1370 1370 1370 1370 1370 1370 1370 1365 1365 1359 1359 1359 1359 1359 1359 1359 1354 1354 1354 1354 1354 1354 1354 1354 1354 1343 1338 1333 1333 1328 1322 1322 1322 1322 1322 1317 1317 1317 1317 1317 1322 1322 1322 1333 1338 1338 1343 1349 1757 1757 1757 1757 1757 1757 1757 1757 1757 1757 1757 1757 1757 1757 1757 1757 1757 1757 1757 1757 1757 1757 1757 1766 1766 1766 1766 1776 1776 1776 1776 1863 1863 1863 1863 1863 1863 1853 1853 1853 1853 1853 1853 1843 1843 1843 1843 1843 1843 1843 1843 1843 1843 1833 1833 1833 1833 1833 1823 1813 1813 1813 1804 1804 1804 1804 1794 1794 1794 1794 1794 1794 1794 1794 1794 1794 1794 1794 1794 1794 1794 1794 1794 1794 1804 1813 1813 1359 1359 1359 1359 1359 1359 1359 1359 1359 1359 1359 1359 1359 1359 1359 1359 1359 1354 1354 1354 1354 1354 1354 1354 1354 1354 1354 1349 1349 1354 1354 1349 1349 1354 1354 2016 2005 2005 2005 2005 2016 2016 2016 2016 2016 2028 2028 2028 2028 2883 2883 2958 2984 2984 2984 2958 2958 2958 2958 2958 2958 2958 2958 2958 2958 2958 2958 2958 2958 2958 2958 2958 2958 2958 2958 2958 2958 2958 2958 2933 2933 2933 2933 2958 2958 2958 2984 2984 2984 2984 2984 2984 2984 2984 2984 2984 2984 2984 2984 2984 2984 2958 2958 2958 2958 2958 2984 2984 2984 2984 2984 2984 2984 3010 2984 2984 2984 2984 2984 2984 2984 2984 2984 2984 2984 2984 2984 2984 2984 2984 2984 3010 3010 3010 3010 3010 3010 3010 3037 3037 3037 2984 2984 2984 2984 2958 2958 2958 2958 2958 2958 2958 2958 2958 2958 2984 2984 2984 2984 2984 2984 2984 2984 2984 2984 2984 2984 2984 2984 2984 2984 3010 3010 3010 3010 3010 3010 2984 2958 2958 2958 2958 2958 2958 2958 2958 0 0 0 0 0 0 0 0 0 0 0 0
0 0 0 0 0 0 0 0 0 0 0 0 0 0 0 0 0 0 0 0 0 0 0 0 0 0 0 0 0 0 0 0 0 2560 2560 2560 2560 2560 2560 2560 2579 2579 2560 2560 2560 2560 2560 2560 2560 2560 2560 2579 2579 2598 2598 2598 2598 2598 2598 2598 2598 2598 2598 2598 2598 2618 2618 2618 2618 2598 2598 2598 2598 2598 2598 2598 2598 2598 2598 2618 2618 2618 2618 2618 2618 2618 2618 2618 2598 2598 2598 2598 2598 2618 2618 2618 2618 2618 2618 2618 2618 2618 2618 2618 2618 2618 2618 2639 2639 2639 2659 2659 2659 2659 2659 2659 2680 2680 2701 2701 2701 1757 1757 1757 1748 1748 1739 1739 1739 1739 1739 1739 1739 1748 1748 1748 1748 1748 1748 1748 1748 1739 1739 1731 1722 1722 1722 1722 1722 1722 1722 1713 1713 1722 1713 1713 1713 1713 1705 1705 1696 1696 1696 1696 1688 1688 1696 1688 1688 1688 1688 1688 1696 1696 1696 1705 1705 1696 1696 1696 1696 1696 1696 1696 1696 1705 1705 1705 1705 1705 1705 1705 1705 1705 1705 1705 1696 1696 1624 1616 1616 1616 1616 1616 1616 1616 1616 1616 1616 1624 1632 1632 1639 1639 1655 1680 1705 1705 1713 1713 1713 1713 1713 1713 1713 1722 1722 1722 1731 1731 1731 1731 1731 1739 1739 1470 1470 1470 1470 1470 1470 1470 1464 1464 1464 1458 1458 1458 1464 1464 1470 1470 1470 0 0 0 0 0 0 0 0 0 0 0 0 0 0 0 0 0 1705 1713 1713 1713 1713 1713 1713 1713 1722 1722 1398 1398 1398 1398 1404 1398 1398 1398 1398 1398 1398 1392 1392 1392 1392 1392 1387 1387 1381 1381 1381 1381 1376 1376 1376 1376 1376 1376 1370 1370 1370 1370 1370 1370 1365 1365 1359 1359 1359 1359 1359 1359 1359 1359 1359 1354 1354 1354 1354 1354 1354 1354 1343 1343 1338 1333 1328 1328 1322 1322 1322 1322 1322 1317 1317 1317 1322 1322 1322 1322 1333 1338 1343 1343 1349 1757 1757 1757 1757 1748 1748 1748 1748 1748 1748 1757 1757 1757 1757 1757 1757 1757 1757 1748 1748 1757 1757 1757 1757 1757 1766 1766 1766 1766 1766 1757 1757 1757 1757 1757 1757 1757 1766 1766 1853 1853 1853 1853 1853 1853 1843 1843 1843 1843 1833 1833 1833 1833 1833 1833 1833 1833 1833 1823 1813 1813 1813 1804 1804 1804 1804 1794 1794 1794 1794 1794 1794 1794 1794 1794 1794 1785 1785 1794 1794 1794 1794 1794 1794 1794 1794 1794 1365 1359 1359 1359 1359 1359 1359 1359 1359 1359 1359 1359 1359 1359 1359 1359 1359 1354 1354 1354 1354 1354 1354 1354 1354 1354 1354 1354 1354 1354 1354 1349 1349 1354 1354 2016 2005 2005 2005 2005 2016 2016 2016 2016 2016 2028 2028 2040 2040 2883 2883 2883 2958 2958 2958 2958 2958 2958 2958 2958 2958 2933 2933 2958 2958 2958 2933 2933 2933 2958 2958 2958 2958 2958 2958 2958 2958 2958 2933 2933 2933 2933 2933 2933 2958 2958 2958 2958 2958 2958 2958 2958 2958 2958 2958 2958 2958 2958 2958 2958 2958 2958 2958 2958 2958 2958 2958 2958 2984 2984 2984 2984 2984 2984 2984 2984 2958 2958 2984 2984 2984 2984 2958 2958 2958 2958 2958 2958 2958 2958 2958 2958 2984 2984 2984 2984 2984 2984 2984 3010 2984 2958 2958 2958 2958 2933 2933 2933 2933 2933 2933 2933 2933 2933 2933 2958 2958 2958 2958 2984 2984 2984 2958 2958 2958 2958 2958 2958 2958 2984 2984 3010 3010 2984 2984 3010 2984 2984 2958 2958 2958 2958 2958 2958 2933 2933 0 0 0 0 0 0 0 0 0 0 0 0
0 0 0 0 0 0 0 0 0 0 0 0 0 0 0 0 0 0 0 0 0 0 0 0 0 0 0 0 0 0 0 0 0 2560 2560 2560 2560 2560 2560 2560 2579 2560 2560 2560 2560 2560 2560 2560 2560 2560 2560 2560 2560 2560 2560 2560 2560 2560 2560 2560 2560 2560 2579 2579 2579 2579 2579 2579 2579 2579 2579 2579 2579 2579 2579 2579 2598 2598 2598 2598 2618 2618 2618 2618 2618 2618 2618 2598 2598 2598 2598 2598 2598 2598 2598 2598 2618 2598 2598 2598 2598 2598 2618 2618 2618 2618 2618 2618 2639 2639 2639 2639 2639 2639 2659 2659 2659 2659 2680 2701 2701 1757 1757 1757 1757 1748 1748 1748 1748 1748 1739 1739 1748 1748 1748 1748 1748 1748 1748 1748 1748 1739 1739 1739 1731 1731 1731 1731 1731 1722 1722 1722 1722 1722 1713 1713 1713 1713 1696 1696 1696 1696 1696 1696 1688 1688 1688 1688 1688 1688 1688 1688 1688 1688 1688 1696 1696 1688 1688 1688 1688 1688 1688 1688 1696 1696 1696 1696 1696 1696 1696 1696 1696 1696 1696 1696 1696 1647 1632 1624 1624 1624 1616 1616 1616 1616 1616 1616 1624 1624 1632 1632 1639 1647 1655 1671 1696 1705 1705 1705 1705 1705 1713 1713 1713 1713 1713 1722 1722 1731 1731 1731 1731 1739 1739 1470 1470 1470 1470 1470 1470 1470 1470 1464 1464 1458 1458 1458 1464 1464 1470 1470 1470 0 0 0 0 0 0 0 0 0 0 0 0 0 0 0 0 0 1705 1705 1705 1713 1705 1705 1705 1705 1705 1705 1398 1398 1398 1398 1404 1398 1398 1398 1398 1398 1398 1398 1392 1392 1392 1392 1387 1387 1387 1381 1381 1381 1376 1376 1376 1376 1376 1376 1376 1376 1376 1370 1370 1370 1365 1365 1365 1365 1365 1365 1359 1359 1359 1359 1359 1359 1359 1359 1354 1354 1354 1354 1343 1343 1338 1338 1333 1328 1328 1328 1328 1322 1322 1322 1322 1322 1322 1322 1328 1328 1333 1338 1343 1343 1757 1748 1748 1739 1739 1739 1739 1739 1739 1739 1739 1748 1748 1748 1748 1748 1757 1748 1748 1748 1748 1748 1748 1748 1757 1757 1757 1757 1757 1757 1757 1757 1757 1757 1748 1748 1748 1757 1757 1757 1757 1766 1853 1853 1843 1843 1843 1843 1843 1833 1833 1833 1833 1833 1833 1833 1833 1833 1833 1833 1823 1823 1823 1813 1813 1804 1804 1804 1794 1794 1794 1794 1794 1794 1794 1794 1794 1785 1785 1794 1794 1785 1785 1785 1785 1785 1785 1785 1365 1365 1365 1365 1365 1359 1359 1359 1359 1359 1359 1359 1359 1359 1359 1359 1359 1359 1359 1359 1359 1354 1354 1354 1354 1354 1354 1354 1354 1354 1354 1349 1349 1354 1354 2016 2016 2016 2016 2016 2016 2016 2016 2016 2028 2028 2028 2040 2859 2883 2883 2883 2883 2933 2958 2933 2933 2933 2933 2933 2933 2933 2933 2933 2933 2933 2933 2933 2933 2933 2933 2933 2933 2958 2958 2958 2958 2958 2933 2933 2933 2933 2933 2933 2933 2933 2958 2958 2958 2958 2958 2958 2933 2933 2933 2933 2933 2958 2958 2958 2958 2958 2958 2958 2958 2958 2958 2958 2958 2958 2958 2958 2958 2958 2958 2958 2958 2958 2958 2958 2958 2958 2958 2958 2958 2958 2958 2958 2958 2958 2958 2958 2958 2958 2958 2958 2958 2984 2984 2958 2958 2933 2933 2933 2933 2933 2933 2933 2933 2933 2933 2933 2933 2933 2933 2933 2958 2958 2958 2958 2958 2958 2958 2958 2958 2958 2958 2958 2958 2958 2984 2984 2984 2984 2984 2984 2984 2958 2933 2933 2933 2933 2933 2908 2883 2883 0 0 0 0 0 0 0 0 0 0 0 0
0 0 0 0 0 0 0 0 0 0 0 0 0 0 0 0 0 0 0 0 0 0 0 0 0 0 0 0 0 0 0 0 0 2560 2560 2560 2560 2560 2560 2560 2560 2560 2541 2541 2541 2541 2541 2541 2541 2541 2541 2560 2560 2560 2560 2560 2560 2560 2560 2560 2560 2560 2560 2560 2560 2560 2579 2579 2579 2560 2560 2579 2579 2579 2579 2579 2579 2579 2579 2598 2579 2579 2598 2598 2598 2598 2579 2579 2579 2598 2598 2598 2598 2598 2598 2598 2598 2598 2598 2598 2598 2598 2598 2618 2618 2618 2618 2618 2618 2618 2618 2639 2639 2639 2639 2639 2639 2659 2680 2701 2701 1757 1757 1757 1757 1748 1748 1748 1748 1748 1739 1739 1748 1748 1748 1748 1748 1748 1748 1748 1748 1739 1739 1739 1739 1731 1731 1731 1731 1731 1722 1722 1722 1722 1713 1713 1713 1713 1696 1696 1696 1696 1696 1696 1688 1688 1688 1688 1688 1688 1680 1680 1688 1688 1688 1688 1688 1680 1680 1688 1688 1688 1688 1688 1688 1696 1696 1696 1688 1688 1688 1688 1688 1696 1696 1688 1688 1647 1632 1624 1624 1624 1616 1616 1616 1616 1616 1616 1624 1624 1632 1639 1639 1647 1655 1671 1688 1696 1705 1705 1705 1705 1705 1705 1713 1713 1713 1722 1722 1731 1731 1731 1739 1739 1748 1748 1470 1470 1470 1470 1470 1470 1470 1470 1470 1464 1464 1464 1464 1470 1470 1477 1477 0 0 0 0 0 0 0 0 0 0 0 0 0 0 0 0 0 1696 1696 1696 1705 1705 1705 1705 1705 1705 1705 1696 1696 1398 1398 1404 1404 1404 1404 1398 1398 1398 1398 1392 1392 1392 1392 1392 1387 1387 1387 1387 1381 1381 1381 1381 1381 1381 1381 1376 1376 1376 1370 1370 1370 1370 1370 1365 1365 1365 1365 1365 1365 1365 1359 1359 1359 1359 1359 1359 1354 1354 1354 1349 1343 1338 1338 1333 1328 1328 1328 1328 1322 1322 1322 1322 1322 1322 1322 1328 1333 1333 1338 1338 1343 1343 1748 1731 1731 1731 1731 1731 1731 1731 1731 1731 1739 1739 1739 1739 1748 1748 1748 1739 1739 1739 1748 1748 1748 1748 1748 1748 1748 1757 1757 1757 1748 1748 1748 1748 1748 1748 1748 1748 1748 1739 1731 1731 1731 1731 1739 1739 1739 1739 1757 1833 1833 1833 1843 1843 1843 1843 1833 1833 1833 1823 1823 1823 1813 1813 1813 1813 1804 1804 1794 1794 1794 1794 1794 1794 1794 1794 1785 1785 1785 1785 1785 1785 1785 1785 1785 1785 1785 1785 1365 1365 1365 1365 1365 1365 1359 1359 1359 1359 1359 1359 1359 1359 1359 1359 1359 1359 1359 1359 1354 1354 1354 1354 1354 1354 1354 1354 1354 1354 1349 1349 1354 1354 1354 2016 2016 2016 2016 2016 2016 2028 2028 2028 2040 2040 2053 2859 2883 2859 2859 2883 2908 2908 2908 2883 2883 2908 2908 2908 2908 2908 2908 2908 2908 2908 2908 2908 2908 2908 2933 2933 2933 2933 2933 2933 2933 2933 2933 2908 2908 2933 2933 2933 2933 2933 2933 2933 2933 2933 2933 2933 2933 2933 2933 2933 2933 2933 2958 2933 2933 2933 2933 2933 2933 2933 2933 2933 2958 2958 2958 2958 2933 2933 2933 2933 2933 2958 2958 2958 2958 2958 2958 2958 2933 2933 2933 2933 2933 2933 2933 2958 2958 2958 2958 2958 2958 2958 2958 2958 2933 2933 2933 2933 2933 2933 2933 2933 2933 2933 2933 2933 2933 2933 2933 2933 2933 2933 2933 2933 2958 2933 2933 2933 2933 2933 2958 2958 2958 2958 2958 2958 2958 2958 2958 2958 2933 2933 2933 2908 2883 2883 2883 2859 2859 0 0 0 0 0 0 0 0 0 0 0 0
0 0 0 0 0 0 0 0 0 0 0 0 0 0 0 0 0 0 0 0 0 0 0 0 0 0 0 0 0 0 0 0 0 2541 2541 2541 2541 2560 2541 2541 2541 2541 2541 2541 2522 2522 2541 2541 2541 2541 2541 2541 2560 2560 2560 2560 2560 2560 2560 2560 2560 2560 2560 2560 2560 2560 2560 2560 2560 2560 2560 2560 2560 2560 2579 2560 2560 2579 2579 2579 2579 2579 2579 2579 2579 2579 2579 2579 2579 2579 2579 2598 2598 2579 2579 2598 2579 2579 2579 2579 2579 2579 2598 2598 2598 2598 2598 2598 2598 2598 2598 2618 2618 2639 2639 2639 2639 2639 2639 2659 2659 1748 1748 1748 1748 1757 1748 1748 1748 1748 1739 1739 1748 1748 1748 1757 1757 1748 1748 1748 1748 1739 1739 1739 1739 1739 1731 1731 1739 1731 1722 1722 1722 1722 1722 1713 1713 1713 1705 1705 1696 1696 1696 1696 1688 1688 1688 1688 1688 1688 1680 1680 1688 1688 1688 1688 1688 1680 1680 1688 1688 1688 1688 1688 1688 1688 1688 1688 1680 1680 1680 1680 1680 1688 1688 1680 1671 1655 1647 1632 1624 1624 1616 1616 1616 1616 1616 1624 1624 1624 1632 1639 1647 1647 1655 1671 1688 1696 1696 1705 1705 1705 1705 1705 1705 1713 1713 1722 1722 1731 1731 1739 1739 1739 1748 1748 1470 1470 1470 1470 1470 1470 1470 1470 1470 1464 1464 1464 1470 1470 1477 1477 1477 0 0 0 0 0 0 0 0 0 0 0 0 0 0 0 1671 1671 1688 1688 1696 1696 1705 1705 1705 1705 1696 1696 1696 1696 1696 1696 1404 1404 1410 1404 1404 1404 1404 1398 1398 1392 1392 1392 1392 1392 1387 1387 1381 1381 1381 1381 1381 1381 1381 1381 1381 1376 1376 1376 1376 1370 1370 1370 1370 1370 1370 1365 1365 1365 1365 1365 1365 1365 1365 1359 1359 1359 1359 1354 1349 1343 1343 1338 1338 1333 1328 1328 1328 1328 1322 1322 1322 1322 1322 1328 1328 1333 1333 1338 1338 1338 1739 1739 1731 1731 1731 1731 1731 1731 1731 1731 1731 1731 1731 1739 1739 1739 1739 1739 1739 1739 1739 1739 1739 1739 1739 1739 1739 1739 1748 1748 1739 1739 1739 1739 1739 1739 1739 1739 1739 1739 1739 1731 1731 1731 1731 1739 1739 1739 1739 1748 1757 1785 1833 1833 1843 1843 1843 1843 1843 1833 1823 1823 1823 1823 1813 1813 1813 1804 1804 1804 1794 1794 1794 1794 1794 1794 1794 1785 1785 1785 1785 1785 1785 1785 1785 1785 1785 1785 1365 1365 1365 1365 1365 1365 1365 1365 1365 1359 1359 1359 1359 1359 1359 1359 1359 1359 1359 1359 1359 1359 1359 1359 1359 1354 1354 1359 1359 1354 1354 1354 1354 1354 1354 2028 2028 2028 2028 2028 2028 2028 2028 2028 2028 2040 2040 2053 2859 2859 2859 2859 2883 2883 2883 2883 2883 2883 2883 2883 2883 2883 2883 2883 2883 2908 2908 2908 2908 2908 2908 2908 2908 2908 2908 2908 2908 2908 2908 2908 2908 2908 2883 2883 2883 2883 2908 2908 2908 2883 2883 2883 2883 2883 2883 2883 2908 2908 2908 2933 2933 2908 2908 2933 2933 2933 2933 2933 2933 2933 2933 2933 2933 2933 2933 2933 2933 2933 2958 2958 2958 2958 2958 2958 2958 2933 2933 2933 2933 2933 2933 2933 2958 2958 2958 2933 2933 2958 2958 2933 2933 2933 2933 2933 2933 2933 2933 2933 2933 2933 2933 2933 2933 2933 2933 2933 2933 2933 2933 2933 2933 2933 2933 2933 2933 2933 2933 2933 2933 2933 2958 2958 2958 2933 2933 2933 2933 2908 2908 2908 2883 2883 2883 2859 2835 2835 0 0 0 0 0 0 0 0 0 0 0 0
0 0 0 0 0 0 0 0 0 0 0 0 0 0 0 0 0 0 0 0 0 0 0 0 0 0 0 0 0 0 0 0 0 2541 2541 2541 2541 2541 2541 2541 2541 2522 2522 2522 2522 2522 2522 2522 2522 2541 2541 2541 2541 2541 2541 2541 2541 2541 2541 2541 2541 2541 2541 2541 2541 2560 2560 2560 2560 2541 2541 2560 2560 2560 2560 2560 2560 2560 2560 2560 2560 2560 2560 2560 2560 2560 2560 2560 2560 2579 2579 2579 2579 2579 2579 2579 2560 2560 2560 2579 2579 2579 2579 2598 2598 2598 2598 2598 2598 2598 2598 2598 2598 2598 2618 2618 2618 2618 2618 2618 2618 1748 1748 1748 1748 1757 1748 1748 1748 1748 1748 1748 1748 1748 1748 1757 1757 1748 1748 1748 1748 1748 1739 1739 1739 1739 1739 1739 1739 1731 1731 1722 1722 1722 1722 1713 1713 1713 1705 1705 1705 1705 1696 1696 1696 1696 1688 1688 1688 1688 1688 1688 1688 1688 1688 1688 1688 1680 1680 1680 1680 1680 1680 1680 1680 1680 1680 1680 1680 1680 1680 1680 1680 1680 1680 1671 1663 1655 1647 1639 1632 1632 1624 1624 1624 1624 1624 1624 1632 1632 1639 1639 1647 1647 1655 1663 1680 1688 1696 1696 1696 1705 1705 1705 1705 1713 1713 1722 1731 1731 1739 1739 1739 1748 1748 1748 1470 1470 1470 1470 1470 1470 1470 1470 1470 1464 1464 1464 1470 1470 1477 1477 1477 1489 0 0 0 0 0 0 0 0 0 0 0 0 0 0 1671 1671 1680 1680 1688 1688 1696 1696 1696 1696 1696 1696 1696 1696 1688 1688 1696 1696 1415 1410 1410 1404 1404 1398 1392 1392 1392 1392 1392 1392 1387 1387 1381 1381 1381 1381 1387 1381 1381 1381 1381 1376 1376 1376 1376 1376 1370 1370 1370 1370 1370 1370 1365 1365 1365 1365 1365 1365 1365 1365 1359 1359 1359 1354 1349 1349 1343 1343 1338 1333 1333 1328 1328 1328 1328 1322 1322 1322 1328 1328 1328 1333 1338 1338 1343 1343 1731 1731 1722 1722 1722 1722 1722 1722 1722 1722 1722 1722 1731 1731 1731 1731 1731 1731 1731 1731 1731 1731 1731 1731 1739 1739 1739 1739 1739 1739 1739 1739 1739 1739 1739 1739 1739 1739 1739 1731 1731 1731 1731 1731 1731 1739 1739 1739 1739 1739 1748 1757 1823 1833 1833 1833 1833 1843 1843 1833 1823 1823 1823 1823 1823 1813 1813 1813 1813 1804 1804 1794 1794 1794 1794 1794 1794 1785 1785 1794 1785 1785 1785 1785 1785 1785 1785 1785 1365 1365 1365 1365 1365 1365 1365 1365 1365 1359 1359 1359 1359 1359 1359 1365 1359 1359 1359 1359 1359 1359 1359 1359 1359 1354 1354 1359 1359 1354 1354 1354 1354 1354 1354 2028 2028 2028 2028 2028 2028 2028 2028 2028 2028 2040 2040 2053 2859 2859 2859 2859 2859 2883 2883 2859 2859 2859 2859 2883 2883 2883 2883 2883 2883 2883 2883 2883 2883 2883 2883 2883 2883 2883 2883 2883 2908 2908 2883 2883 2883 2883 2883 2859 2859 2883 2883 2883 2883 2883 2883 2883 2883 2883 2883 2883 2883 2908 2908 2908 2908 2883 2883 2883 2908 2908 2908 2908 2908 2908 2933 2908 2908 2908 2933 2933 2933 2933 2933 2933 2933 2933 2933 2933 2933 2933 2933 2933 2933 2933 2933 2933 2933 2933 2933 2933 2933 2933 2933 2933 2933 2908 2908 2908 2908 2908 2908 2908 2908 2908 2908 2908 2908 2908 2908 2933 2933 2933 2933 2933 2933 2933 2908 2908 2908 2933 2933 2933 2933 2933 2933 2933 2933 2933 2933 2933 2908 2908 2908 2883 2859 2859 2859 2835 2812 2812 0 0 0 0 0 0 0 0 0 0 0 0
0 0 0 0 0 0 0 0 0 0 0 0 0 0 0 0 0 0 0 0 0 0 0 0 0 0 0 0 0 0 0 0 0 2522 2522 2522 2522 2541 2541 2522 2522 2522 2522 2503 2503 2503 2522 2522 2522 2522 2522 2522 2522 2522 2522 2541 2541 2541 2541 2541 2541 2541 2541 2541 2541 2541 2560 2560 2560 2541 2541 2541 2560 2560 2560 2541 2541 2560 2560 2560 2541 2541 2541 2560 2541 2541 2541 2541 2541 2560 2560 2560 2560 2560 2560 2560 2560 2560 2560 2560 2560 2560 2579 2579 2579 2579 2598 2598 2598 2579 2579 2579 2598 2598 2598 2598 2598 2598 2598 2618 2618 1748 1748 1748 1748 1757 1748 1748 1748 1748 1748 1748 1748 1748 1748 1757 1757 1757 1748 1748 1748 1748 1748 1739 1739 1739 1739 1739 1739 1731 1731 1731 1722 1722 1722 1722 1722 1722 1713 1713 1705 1705 1705 1705 1696 1696 1696 1688 1688 1688 1688 1688 1688 1688 1688 1680 1680 1680 1680 1680 1680 1680 1680 1680 1680 1680 1680 1671 1671 1671 1671 1671 1671 1671 1671 1671 1663 1655 1647 1639 1639 1632 1624 1624 1624 1632 1632 1632 1632 1639 1639 1639 1647 1647 1655 1663 1680 1680 1688 1688 1696 1696 1705 1705 1713 1713 1713 1722 1731 1731 1739 1739 1748 1748 1748 1757 1477 1477 1477 1477 1470 1470 1470 1470 1470 1464 1464 1470 1470 1477 1483 1483 1483 1489 1496 0 0 0 0 0 0 0 0 0 0 0 1671 1671 1671 1671 1680 1680 1680 1680 1688 1688 1688 1688 1688 1688 1688 1688 1688 1688 1696 1696 1688 1688 1688 1688 1688 1398 1392 1392 1392 1392 1663 1663 1663 1671 1381 1381 1381 1381 1387 1387 1387 1387 1387 1381 1381 1376 1376 1376 1370 1370 1370 1370 1370 1370 1365 1365 1370 1365 1365 1370 1365 1365 1359 1359 1359 1354 1349 1349 1349 1343 1338 1333 1333 1333 1328 1328 1328 1328 1328 1328 1328 1328 1333 1338 1343 1343 1349 1349 1713 1713 1713 1705 1705 1713 1713 1713 1713 1722 1722 1722 1722 1722 1722 1722 1722 1731 1722 1722 1731 1731 1731 1731 1731 1731 1731 1731 1731 1731 1731 1731 1731 1731 1731 1731 1731 1731 1731 1731 1731 1731 1731 1731 1731 1731 1731 1739 1739 1739 1739 1757 1823 1833 1833 1833 1833 1843 1843 1843 1823 1823 1823 1823 1823 1823 1823 1823 1813 1813 1804 1804 1804 1794 1794 1794 1794 1794 1794 1794 1794 1794 1785 1785 1785 1785 1785 1365 1365 1365 1365 1365 1365 1365 1365 1365 1365 1365 1359 1359 1359 1359 1359 1365 1365 1359 1359 1359 1359 1359 1359 1359 1359 1359 1359 1359 1359 1359 1359 1359 1359 1365 1365 2028 2028 2028 2028 2028 2028 2028 2028 2028 2040 2040 2040 2053 2859 2859 2835 2835 2859 2859 2883 2859 2859 2859 2859 2859 2859 2859 2859 2859 2859 2859 2859 2883 2883 2883 2883 2883 2883 2883 2883 2883 2883 2883 2859 2859 2859 2859 2859 2859 2859 2859 2859 2859 2859 2859 2859 2883 2883 2883 2883 2883 2883 2883 2883 2908 2908 2883 2883 2883 2883 2883 2883 2883 2883 2883 2908 2908 2908 2908 2908 2908 2908 2908 2908 2908 2933 2933 2933 2933 2933 2933 2933 2933 2933 2933 2933 2933 2933 2933 2933 2933 2933 2933 2933 2933 2933 2908 2908 2908 2908 2908 2908 2883 2883 2883 2883 2883 2883 2908 2908 2908 2908 2908 2908 2908 2908 2908 2908 2908 2908 2908 2908 2933 2933 2933 2933 2933 2933 2933 2908 2883 2883 2859 2859 2835 2835 2835 2835 2812 2812 2812 0 0 0 0 0 0 0 0 0 0 0 0
0 0 0 0 0 0 0 0 0 0 0 0 0 0 0 0 0 0 0 0 0 0 0 0 0 0 0 0 0 0 0 0 0 2503 2503 2503 2503 2522 2522 2522 2522 2522 2503 2503 2503 2503 2503 2503 2503 2503 2503 2503 2522 2522 2522 2522 2541 2522 2522 2522 2522 2522 2522 2522 2522 2541 2541 2541 2541 2522 2522 2541 2541 2541 2541 2541 2541 2541 2541 2541 2541 2541 2541 2541 2541 2541 2541 2541 2541 2541 2541 2541 2560 2560 2560 2560 2541 2541 2541 2541 2541 2560 2560 2579 2579 2579 2579 2579 2579 2579 2579 2579 2579 2579 2598 2598 2579 2579 2598 2598 2618 2618 1748 1748 1757 1757 1748 1748 1757 1748 1748 1748 1748 1748 1757 1757 1757 1757 1757 1748 1748 1748 1748 1748 1748 1739 1739 1739 1739 1731 1731 1731 1722 1722 1722 1722 1722 1722 1713 1713 1705 1705 1705 1705 1705 1696 1696 1696 1688 1688 1688 1688 1688 1688 1688 1680 1680 1680 1680 1680 1680 1680 1680 1680 1680 1680 1680 1671 1671 1671 1663 1663 1663 1663 1663 1663 1655 1655 1647 1647 1639 1632 1632 1624 1624 1632 1632 1632 1639 1639 1639 1639 1647 1647 1655 1671 1680 1680 1680 1688 1696 1696 1705 1705 1713 1713 1722 1731 1739 1739 1739 1748 1748 1757 1757 1766 1477 1477 1477 1477 1477 1477 1477 1477 1477 1470 1470 1470 1477 1477 1483 1489 1489 1489 1489 0 0 0 0 0 0 0 0 0 0 1671 1663 1663 1671 1671 1671 1671 1680 1680 1680 1680 1680 1680 1680 1680 1680 1680 1688 1688 1688 1688 1688 1688 1688 1688 1688 1688 1680 1680 1680 1671 1671 1671 1671 1671 1680 1387 1381 1381 1387 1387 1387 1387 1387 1381 1381 1376 1376 1376 1370 1370 1370 1370 1370 1370 1370 1370 1370 1365 1365 1370 1365 1365 1365 1359 1359 1354 1354 1349 1349 1343 1343 1338 1338 1333 1328 1328 1328 1328 1328 1328 1328 1328 1333 1338 1343 1343 1349 1349 1705 1705 1705 1696 1696 1705 1705 1713 1713 1713 1713 1713 1713 1713 1713 1713 1713 1713 1713 1722 1722 1722 1722 1722 1722 1722 1722 1722 1722 1722 1722 1722 1722 1722 1722 1722 1722 1722 1722 1722 1722 1722 1722 1722 1722 1731 1731 1731 1731 1731 1739 1748 1833 1833 1843 1843 1843 1843 1843 1843 1833 1823 1823 1823 1823 1823 1823 1823 1823 1813 1813 1804 1804 1804 1794 1794 1794 1794 1794 1794 1794 1794 1794 1785 1785 1785 1785 1365 1365 1365 1365 1365 1365 1365 1365 1365 1365 1365 1359 1359 1359 1359 1359 1365 1365 1365 1365 1365 1359 1359 1359 1359 1359 1359 1359 1359 1359 1359 1359 1359 1359 1359 2028 2028 2028 2028 2028 2028 2028 2028 2028 2028 2040 2040 2040 2053 2053 2859 2835 2835 2859 2859 2859 2835 2835 2835 2859 2859 2859 2859 2859 2859 2859 2859 2859 2859 2859 2859 2859 2859 2859 2859 2859 2859 2859 2859 2859 2859 2859 2859 2859 2859 2859 2859 2859 2859 2859 2859 2859 2859 2883 2883 2883 2883 2883 2883 2883 2883 2883 2859 2859 2859 2859 2883 2883 2883 2883 2883 2883 2883 2883 2883 2908 2908 2908 2883 2883 2908 2908 2908 2908 2908 2908 2908 2933 2908 2908 2933 2933 2933 2933 2933 2933 2933 2908 2908 2933 2908 2908 2908 2908 2908 2908 2908 2883 2883 2883 2883 2883 2883 2883 2883 2908 2908 2883 2883 2883 2883 2883 2883 2883 2883 2908 2908 2908 2908 2908 2908 2908 2908 2908 2883 2883 2859 2835 2835 2835 2812 2812 2812 2789 2767 2767 2767 0 0 0 0 0 0 0 0 0 0 0 0
0 0 0 0 0 0 0 0 0 0 0 0 0 0 0 0 0 0 0 0 0 0 0 0 0 0 0 0 0 0 0 0 0 2503 2485 2485 2485 2503 2503 2503 2503 2503 2503 2503 2485 2485 2485 2485 2485 2485 2485 2503 2503 2503 2503 2522 2522 2522 2522 2522 2522 2522 2522 2522 2522 2522 2522 2522 2541 2522 2522 2522 2522 2541 2541 2541 2541 2541 2541 2541 2541 2541 2541 2522 2522 2522 2522 2522 2522 2541 2541 2541 2541 2541 2541 2541 2541 2541 2541 2541 2541 2541 2560 2579 2579 2579 2579 2579 2579 2579 2560 2560 2560 2560 2579 2579 2579 2579 2579 2598 2598 2598 1757 1757 1757 1757 1748 1748 1757 1748 1748 1748 1748 1748 1757 1757 1757 1757 1757 1757 1757 1748 1748 1748 1748 1748 1739 1739 1739 1731 1731 1731 1731 1731 1731 1731 1731 1731 1713 1713 1713 1705 1705 1705 1705 1696 1696 1696 1696 1688 1688 1688 1688 1688 1688 1680 1680 1680 1680 1680 1680 1680 1680 1680 1680 1680 1671 1671 1671 1663 1663 1663 1663 1663 1663 1655 1655 1647 1647 1647 1639 1632 1632 1632 1632 1632 1632 1632 1639 1639 1639 1639 1647 1647 1655 1663 1671 1680 1680 1688 1688 1696 1705 1705 1713 1713 1722 1739 1739 1739 1748 1748 1757 1757 1757 1766 1766 1477 1477 1477 1477 1477 1477 1477 1477 1470 1470 1477 1477 1483 1483 1489 1489 1489 1489 1496 0 0 0 0 0 0 0 0 1663 1663 1663 1663 1671 1671 1671 1671 1671 1671 1671 1671 1671 1671 1671 1671 1671 1671 1680 1680 1680 1688 1688 1688 1688 1688 1688 1688 1680 1671 1671 1671 1671 1671 1671 1671 1671 1671 1671 1392 1392 1392 1392 1392 1387 1387 1387 1376 1376 1376 1370 1370 1370 1370 1370 1370 1370 1370 1370 1370 1370 1370 1370 1365 1365 1359 1359 1354 1354 1349 1349 1349 1343 1343 1338 1338 1333 1328 1328 1328 1328 1328 1333 1333 1333 1343 1343 1343 1343 1705 1705 1705 1696 1696 1696 1696 1705 1705 1705 1705 1705 1713 1705 1705 1705 1705 1705 1705 1705 1705 1705 1713 1713 1713 1713 1713 1713 1722 1722 1722 1713 1713 1722 1722 1722 1722 1713 1713 1722 1722 1722 1722 1722 1722 1722 1722 1722 1722 1731 1731 1731 1739 1739 1833 1843 1843 1843 1843 1843 1843 1833 1833 1823 1823 1823 1823 1823 1823 1823 1823 1823 1813 1813 1804 1804 1804 1794 1794 1794 1794 1794 1794 1794 1785 1785 1785 1359 1359 1365 1365 1365 1365 1365 1365 1365 1365 1365 1365 1365 1365 1365 1359 1359 1365 1365 1365 1365 1359 1359 1359 1359 1359 1359 1359 1359 1359 1359 1359 1359 1359 1359 1359 2040 2040 2040 2028 2028 2028 2028 2028 2028 2028 2040 2040 2040 2053 2053 2835 2835 2835 2859 2859 2859 2835 2835 2835 2835 2835 2835 2859 2859 2859 2859 2859 2859 2859 2859 2859 2859 2859 2859 2859 2859 2859 2859 2859 2859 2859 2859 2859 2835 2835 2835 2835 2859 2859 2859 2859 2859 2859 2859 2859 2859 2859 2859 2859 2859 2859 2859 2859 2859 2859 2859 2859 2859 2859 2859 2859 2859 2883 2883 2883 2883 2883 2883 2883 2883 2883 2883 2883 2883 2883 2883 2883 2908 2908 2908 2908 2908 2908 2908 2908 2908 2908 2908 2908 2908 2908 2908 2908 2908 2908 2908 2908 2883 2883 2883 2859 2859 2859 2859 2883 2883 2883 2883 2883 2883 2883 2883 2883 2883 2883 2908 2908 2908 2883 2883 2883 2883 2908 2883 2883 2859 2835 2835 2835 2812 2812 2812 2789 2789 2767 2767 2767 0 0 0 0 0 0 0 0 0 0 0 0
0 0 0 0 0 0 0 0 0 0 0 0 0 0 0 0 0 0 0 0 0 0 0 0 0 0 0 0 0 0 0 0 0 2485 2485 2485 2485 2485 2485 2503 2503 2503 2485 2485 2485 2485 2485 2485 2485 2485 2485 2485 2485 2485 2485 2503 2503 2503 2503 2503 2503 2503 2503 2503 2503 2522 2503 2503 2522 2503 2503 2522 2522 2522 2522 2522 2522 2541 2541 2522 2522 2522 2522 2522 2522 2522 2522 2522 2522 2522 2522 2522 2541 2541 2541 2541 2541 2541 2541 2541 2541 2541 2560 2560 2560 2560 2560 2560 2560 2560 2541 2541 2541 2541 2560 2560 2560 2560 2560 2579 2598 1766 1757 1757 1757 1757 1757 1757 1757 1757 1757 1757 1757 1757 1757 1757 1757 1757 1757 1757 1757 1757 1748 1748 1748 1748 1739 1739 1739 1739 1731 1731 1731 1731 1731 1731 1731 1731 1722 1713 1713 1713 1713 1705 1705 1705 1705 1705 1705 1696 1696 1696 1696 1696 1696 1688 1688 1688 1688 1680 1680 1680 1680 1680 1680 1680 1671 1671 1671 1663 1663 1663 1663 1663 1663 1655 1655 1647 1647 1647 1639 1632 1632 1632 1632 1632 1632 1632 1639 1639 1639 1639 1647 1647 1647 1663 1671 1680 1680 1688 1688 1696 1705 1705 1713 1722 1731 1739 1739 1748 1748 1748 1757 1757 1757 1766 1766 1776 1477 1477 1477 1477 1477 1477 1483 1477 1477 1477 1483 1483 1489 1489 1489 1489 1489 1489 0 0 0 0 0 0 0 1663 1663 1663 1663 1663 1663 1663 1671 1671 1671 1671 1671 1671 1671 1671 1671 1671 1671 1671 1671 1671 1680 1680 1680 1680 1680 1680 1680 1680 1680 1671 1671 1671 1671 1671 1671 1671 1671 1671 1671 1671 1671 1671 1671 1663 1663 1671 1671 1376 1376 1376 1370 1370 1370 1370 1370 1370 1370 1370 1370 1370 1370 1370 1370 1365 1365 1365 1365 1354 1354 1349 1349 1349 1343 1343 1343 1338 1333 1333 1328 1328 1328 1328 1333 1333 1333 1343 1343 1343 1354 1354 1705 1705 1696 1696 1696 1696 1696 1696 1696 1696 1705 1705 1696 1696 1696 1696 1696 1696 1696 1696 1696 1696 1696 1705 1705 1705 1705 1705 1713 1705 1705 1705 1713 1713 1713 1713 1713 1713 1713 1713 1713 1713 1713 1713 1713 1722 1722 1722 1722 1722 1731 1731 1731 1843 1843 1843 1843 1843 1843 1843 1833 1833 1823 1823 1823 1823 1823 1823 1823 1823 1823 1813 1813 1804 1804 1804 1804 1804 1794 1794 1794 1794 1794 1794 1794 1794 1359 1359 1359 1365 1365 1365 1365 1365 1365 1365 1365 1365 1365 1365 1365 1365 1365 1365 1365 1365 1365 1359 1359 1359 1359 1359 1359 1359 1359 1359 1359 1354 1354 1359 1359 1359 2028 2028 2028 2016 2016 2028 2028 2028 2028 2028 2028 2040 2040 2053 2859 2835 2835 2835 2859 2859 2859 2835 2835 2835 2835 2835 2835 2835 2835 2835 2835 2835 2835 2835 2835 2835 2835 2835 2835 2835 2835 2859 2859 2859 2859 2859 2835 2835 2835 2835 2835 2835 2835 2835 2835 2835 2835 2835 2859 2859 2859 2859 2859 2859 2859 2859 2859 2859 2859 2859 2859 2859 2859 2859 2859 2859 2859 2859 2859 2859 2883 2883 2883 2859 2859 2859 2859 2859 2859 2859 2859 2883 2883 2883 2883 2883 2883 2908 2908 2908 2908 2908 2883 2883 2883 2883 2883 2883 2883 2883 2883 2883 2883 2883 2859 2859 2859 2859 2859 2859 2859 2859 2859 2859 2859 2883 2883 2883 2883 2883 2883 2908 2883 2859 2859 2883 2883 2883 2883 2859 2859 2835 2835 2835 2812 2812 2789 2789 2789 2767 2767 2767 0 0 0 0 0 0 0 0 0 0 0 0
0 0 0 0 0 0 0 0 0 0 0 0 0 0 0 0 0 0 0 0 0 0 0 0 0 0 0 0 0 0 0 0 0 2485 2485 2485 2485 2485 2485 2485 2485 2485 2485 2485 2467 2467 2467 2467 2467 2467 2467 2485 2485 2485 2485 2485 2485 2485 2485 2485 2485 2485 2485 2485 2503 2503 2503 2503 2522 2503 2503 2503 2503 2503 2503 2503 2503 2522 2522 2522 2522 2522 2522 2522 2522 2522 2522 2522 2522 2522 2522 2522 2522 2522 2522 2522 2522 2522 2522 2541 2541 2541 2541 2560 2560 2560 2560 2560 2560 2560 2541 2541 2541 2541 2541 2541 2541 2541 2560 2560 2560 1757 1757 1757 1757 1757 1757 1757 1757 1757 1757 1757 1757 1757 1757 1757 1766 1766 1757 1757 1757 1757 1748 1748 1748 1748 1748 1748 1739 1739 1739 1731 1731 1731 1731 1731 1731 1731 1722 1713 1713 1713 1713 1713 1705 1705 1705 1705 1705 1705 1705 1705 1696 1696 1696 1696 1696 1688 1688 1688 1688 1680 1680 1680 1680 1680 1680 1671 1671 1671 1671 1663 1663 1663 1663 1655 1655 1647 1647 1647 1647 1639 1639 1639 1639 1639 1639 1639 1639 1639 1639 1639 1647 1647 1647 1663 1671 1680 1680 1688 1696 1705 1705 1705 1713 1722 1731 1739 1739 1748 1748 1757 1757 1766 1766 1766 1776 1776 1483 1477 1477 1477 1477 1477 1483 1477 1477 1477 1483 1483 1489 1489 1489 1489 1489 1489 1489 0 0 0 0 0 0 1647 1647 1655 1655 1663 1663 1663 1663 1663 1663 1663 1663 1663 1663 1663 1663 1671 1663 1663 1671 1671 1671 1671 1671 1671 1671 1671 1671 1671 1671 1671 1671 1663 1663 1663 1663 1663 1663 1663 1663 1663 1663 1663 1663 1663 1663 1663 1663 1663 1376 1376 1370 1370 1370 1365 1365 1370 1370 1370 1370 1370 1370 1370 1370 1370 1365 1365 1365 1359 1354 1354 1349 1349 1343 1343 1343 1338 1333 1333 1333 1333 1333 1333 1333 1333 1338 1343 1349 1349 1349 1354 1365 1696 1696 1688 1688 1696 1696 1696 1696 1696 1696 1696 1696 1696 1696 1696 1696 1696 1696 1688 1688 1696 1696 1696 1696 1696 1696 1705 1705 1705 1705 1696 1696 1705 1705 1705 1705 1705 1705 1713 1713 1705 1705 1705 1705 1713 1713 1713 1722 1722 1722 1731 1731 1843 1843 1843 1843 1843 1843 1843 1833 1833 1833 1833 1833 1823 1823 1823 1823 1823 1823 1813 1813 1813 1804 1804 1804 1804 1804 1804 1804 1804 1804 1794 1794 1359 1359 1359 1359 1365 1365 1365 1365 1365 1365 1370 1365 1365 1365 1365 1365 1365 1365 1365 1365 1365 1365 1365 1365 1365 1359 1359 1359 1359 1359 1359 1359 1354 1354 1359 1359 1359 2028 2028 2028 2016 2016 2028 2028 2028 2028 2028 2028 2040 2040 2040 2835 2835 2835 2835 2835 2859 2859 2835 2812 2812 2835 2835 2835 2835 2835 2835 2835 2835 2835 2835 2835 2835 2835 2835 2835 2835 2835 2835 2835 2835 2835 2835 2835 2835 2835 2812 2812 2835 2835 2835 2835 2835 2835 2835 2835 2835 2835 2835 2859 2859 2859 2835 2835 2835 2835 2835 2835 2859 2835 2835 2835 2835 2835 2859 2859 2859 2859 2859 2859 2859 2859 2859 2859 2859 2859 2859 2859 2859 2859 2883 2859 2859 2883 2883 2883 2883 2883 2883 2883 2883 2883 2883 2883 2883 2859 2859 2859 2883 2859 2859 2859 2835 2835 2835 2859 2859 2859 2835 2835 2835 2859 2859 2859 2859 2859 2859 2859 2883 2859 2859 2859 2859 2859 2859 2859 2835 2835 2835 2812 2812 2812 2812 2789 2767 2767 2744 2744 2744 0 0 0 0 0 0 0 0 0 0 0 0
0 0 0 0 0 0 0 0 0 0 0 0 0 0 0 0 0 0 0 0 0 0 0 0 0 0 0 0 0 0 0 0 0 2467 2467 2467 2467 2467 2467 2467 2485 2485 2485 2467 2467 2467 2467 2467 2467 2467 2467 2467 2467 2467 2467 2485 2485 2485 2485 2485 2485 2485 2485 2485 2485 2485 2485 2485 2503 2485 2485 2485 2503 2485 2485 2485 2485 2503 2503 2503 2503 2503 2503 2503 2503 2503 2522 2522 2522 2522 2522 2522 2522 2522 2522 2522 2522 2522 2522 2522 2522 2541 2541 2541 2541 2541 2541 2541 2541 2541 2541 2541 2541 2541 2541 2541 2541 2541 2541 2541 2560 1757 1757 1757 1757 1757 1757 1757 1757 1757 1757 1757 1757 1757 1757 1757 1766 1766 1766 1766 1757 1757 1757 1748 1748 1748 1748 1748 1739 1739 1739 1731 1731 1731 1731 1731 1731 1731 1722 1713 1713 1713 1713 1713 1713 1713 1713 1705 1705 1705 1705 1705 1705 1705 1705 1705 1705 1696 1696 1688 1688 1688 1680 1680 1680 1680 1680 1671 1671 1671 1671 1663 1663 1663 1663 1655 1655 1647 1647 1647 1647 1639 1639 1639 1639 1639 1639 1639 1639 1639 1647 1647 1647 1647 1647 1671 1671 1680 1688 1688 1696 1705 1705 1713 1713 1722 1731 1739 1748 1748 1757 1757 1757 1766 1766 1766 1776 1776 1489 1483 1483 1477 1477 1483 1483 1477 1477 1477 1483 1489 1489 1489 1496 1489 1489 1489 1489 0 0 0 1632 1632 1632 1639 1639 1647 1647 1647 1655 1655 1655 1655 1655 1655 1655 1655 1655 1655 1655 1655 1655 1655 1655 1655 1663 1663 1663 1663 1663 1671 1671 1671 1663 1663 1663 1663 1663 1663 1663 1663 1663 1663 1663 1663 1663 1663 1663 1663 1663 1663 1663 1663 1663 1663 1663 1370 1370 1365 1365 1370 1370 1370 1370 1370 1370 1370 1370 1370 1370 1365 1365 1359 1354 1354 1349 1349 1349 1343 1343 1343 1338 1333 1333 1333 1333 1333 1338 1338 1338 1343 1349 1349 1349 1354 1365 1688 1688 1688 1688 1688 1688 1688 1688 1688 1688 1696 1696 1688 1688 1688 1688 1688 1688 1688 1688 1688 1688 1688 1688 1696 1696 1696 1696 1696 1696 1696 1696 1696 1696 1705 1696 1696 1705 1705 1705 1705 1705 1705 1705 1713 1713 1713 1722 1722 1722 1731 1731 1731 1843 1843 1843 1843 1843 1843 1833 1833 1823 1823 1823 1823 1823 1823 1823 1823 1823 1813 1813 1813 1813 1804 1804 1804 1804 1804 1804 1804 1804 1804 1804 1359 1359 1359 1359 1365 1365 1365 1365 1365 1370 1370 1370 1370 1365 1365 1365 1365 1365 1365 1365 1365 1365 1365 1365 1365 1359 1359 1359 1359 1359 1359 1359 1354 1354 1354 1354 1354 2040 2040 2028 2016 2016 2028 2028 2028 2028 2028 2028 2040 2040 2040 2789 2789 2812 2812 2812 2835 2835 2812 2812 2812 2812 2835 2835 2835 2835 2835 2835 2835 2812 2812 2812 2835 2835 2835 2835 2835 2835 2835 2835 2835 2835 2835 2835 2835 2812 2812 2812 2812 2812 2812 2812 2812 2812 2812 2835 2835 2835 2835 2835 2835 2835 2835 2835 2835 2835 2835 2835 2835 2835 2835 2835 2835 2835 2835 2835 2835 2859 2859 2859 2859 2859 2859 2859 2859 2859 2859 2859 2859 2859 2859 2859 2859 2859 2859 2859 2859 2859 2859 2859 2859 2859 2859 2859 2859 2859 2859 2859 2859 2835 2835 2835 2835 2835 2835 2835 2835 2835 2835 2835 2835 2835 2835 2835 2835 2835 2835 2835 2859 2835 2835 2835 2835 2835 2835 2835 2835 2835 2835 2812 2812 2812 2789 2767 2767 2744 2744 2744 2744 2744 0 0 0 0 0 0 0 0 0 0 0
0 0 0 0 0 0 0 0 0 0 0 0 0 0 0 0 0 0 0 0 0 0 0 0 0 0 0 0 0 0 0 0 0 2467 2467 2467 2467 2467 2467 2467 2485 2485 2485 2467 2467 2467 2467 2467 2467 2450 2450 2467 2467 2467 2467 2485 2485 2485 2485 2485 2485 2485 2485 2485 2485 2485 2485 2485 2485 2467 2467 2467 2485 2467 2467 2485 2485 2485 2485 2485 2485 2503 2503 2503 2503 2503 2522 2503 2503 2503 2503 2522 2503 2503 2522 2522 2522 2522 2522 2522 2522 2522 2541 2541 2541 2541 2541 2541 2541 2541 2541 2541 2541 2541 2541 2541 2541 2541 2541 2541 2560 1776 1766 1766 1766 1757 1757 1757 1757 1757 1757 1757 1757 1757 1766 1766 1766 1766 1766 1766 1766 1757 1757 1748 1748 1748 1739 1739 1739 1739 1739 1731 1731 1731 1731 1731 1731 1731 1722 1713 1713 1713 1713 1713 1713 1713 1713 1713 1713 1705 1705 1705 1705 1705 1705 1705 1705 1705 1696 1696 1688 1688 1688 1680 1680 1680 1680 1671 1671 1671 1671 1663 1663 1663 1663 1655 1655 1655 1647 1647 1647 1639 1639 1639 1639 1639 1639 1639 1639 1647 1647 1647 1647 1647 1655 1671 1671 1680 1688 1696 1696 1705 1705 1713 1722 1722 1739 1748 1748 1757 1757 1766 1766 1766 1766 1766 1766 1776 1489 1489 1489 1489 1483 1483 1483 1483 1483 1483 1489 1489 1489 1489 1496 1496 1496 1496 1496 1496 0 1639 1632 1632 1632 1639 1639 1639 1639 1639 1647 1647 1647 1647 1647 1655 1647 1647 1655 1647 1647 1655 1655 1655 1647 1647 1655 1655 1655 1655 1655 1655 1655 1655 1655 1655 1655 1655 1655 1655 1655 1655 1655 1655 1655 1655 1655 1655 1655 1647 1647 1655 1655 1655 1655 1655 1663 1655 1655 1655 1655 1655 1370 1370 1663 1663 1671 1370 1370 1370 1370 1365 1365 1359 1354 1354 1349 1349 1349 1343 1343 1343 1338 1338 1338 1338 1338 1338 1338 1338 1343 1349 1349 1354 1354 1359 1365 1688 1688 1680 1680 1680 1680 1680 1680 1688 1688 1688 1688 1688 1688 1688 1688 1688 1688 1680 1680 1688 1688 1688 1688 1688 1688 1688 1688 1688 1688 1688 1688 1688 1696 1696 1696 1696 1696 1705 1705 1696 1696 1705 1705 1713 1713 1713 1713 1722 1722 1731 1731 1731 1843 1843 1843 1843 1843 1843 1833 1833 1823 1823 1823 1823 1823 1823 1823 1823 1823 1813 1813 1813 1813 1813 1813 1804 1804 1804 1804 1804 1804 1813 1813 1359 1359 1359 1359 1365 1365 1365 1365 1370 1370 1370 1370 1370 1370 1370 1365 1365 1365 1365 1365 1365 1365 1365 1365 1365 1359 1359 1359 1359 1359 1359 1359 1354 1354 1354 1354 1354 2040 2040 2040 2028 2028 2028 2040 2040 2040 2028 2028 2040 2040 2040 2789 2789 2812 2812 2812 2812 2812 2789 2789 2789 2789 2812 2812 2812 2812 2812 2812 2812 2812 2812 2812 2812 2812 2812 2812 2812 2812 2812 2812 2812 2812 2812 2812 2812 2789 2789 2789 2789 2789 2812 2812 2812 2812 2812 2812 2835 2835 2835 2835 2835 2835 2835 2835 2835 2835 2835 2835 2835 2835 2835 2835 2835 2835 2835 2835 2835 2835 2835 2835 2835 2835 2835 2835 2835 2835 2835 2835 2859 2859 2859 2859 2835 2835 2859 2859 2859 2859 2859 2835 2835 2835 2835 2859 2835 2835 2835 2835 2835 2835 2835 2835 2812 2812 2812 2812 2812 2812 2812 2812 2812 2835 2835 2835 2835 2835 2835 2835 2835 2835 2835 2835 2835 2835 2835 2835 2835 2835 2835 2812 2812 2789 2767 2767 2744 2744 2744 2744 2744 2744 2744 0 0 0 0 0 0 0 0 0 0
0 0 0 0 0 0 0 0 0 0 0 0 0 0 0 0 0 0 0 0 0 0 0 0 0 0 0 0 0 0 0 0 0 2450 2450 2450 2450 2450 2450 2450 2467 2467 2467 2467 2467 2467 2467 2467 2467 2450 2450 2467 2467 2467 2467 2467 2467 2467 2485 2485 2485 2467 2467 2467 2467 2467 2467 2467 2485 2467 2467 2467 2467 2467 2467 2485 2485 2485 2485 2485 2485 2485 2485 2485 2503 2503 2503 2503 2503 2503 2503 2503 2503 2503 2503 2503 2522 2522 2522 2522 2522 2522 2522 2522 2522 2522 2541 2541 2541 2541 2522 2522 2522 2522 2522 2522 2522 2541 2541 2541 2541 1776 1776 1785 1785 1757 1757 1757 1757 1757 1757 1757 1757 1757 1766 1766 1776 1776 1776 1776 1776 1766 1757 1757 1748 1748 1739 1739 1739 1739 1739 1731 1731 1731 1731 1722 1722 1722 1722 1713 1713 1713 1713 1713 1713 1713 1713 1713 1713 1705 1705 1705 1705 1705 1705 1705 1705 1705 1705 1696 1696 1688 1688 1680 1680 1680 1680 1680 1680 1671 1671 1671 1671 1663 1663 1663 1655 1655 1647 1647 1647 1639 1639 1639 1639 1639 1639 1639 1647 1647 1647 1647 1647 1647 1655 1671 1680 1688 1696 1696 1696 1705 1713 1713 1713 1722 1739 1748 1757 1757 1757 1766 1766 1766 1766 1766 1766 1776 1776 1489 1489 1489 1489 1489 1489 1483 1483 1483 1489 1489 1489 1489 1496 1496 1496 1496 1503 1503 1632 1632 1632 1632 1632 1639 1639 1639 1639 1639 1639 1639 1639 1639 1639 1647 1639 1639 1647 1647 1647 1647 1647 1647 1639 1639 1647 1647 1647 1647 1647 1647 1647 1647 1647 1647 1647 1647 1647 1647 1647 1655 1647 1647 1647 1647 1647 1647 1647 1639 1639 1647 1647 1655 1647 1647 1647 1655 1655 1655 1655 1655 1655 1655 1663 1655 1655 1655 1655 1663 1663 1655 1365 1359 1354 1354 1349 1349 1349 1343 1343 1343 1343 1338 1338 1338 1338 1338 1338 1343 1343 1349 1354 1354 1354 1359 1365 1688 1688 1671 1671 1671 1671 1671 1671 1680 1680 1680 1680 1680 1680 1680 1680 1680 1680 1680 1680 1680 1680 1680 1680 1688 1688 1688 1688 1688 1688 1688 1688 1688 1688 1688 1688 1688 1696 1696 1696 1696 1696 1696 1696 1705 1705 1713 1713 1722 1722 1731 1731 1853 1853 1843 1843 1853 1853 1853 1843 1833 1833 1833 1833 1823 1823 1823 1823 1823 1823 1823 1813 1813 1813 1813 1813 1813 1804 1804 1804 1804 1804 1813 1813 1813 1365 1365 1365 1365 1365 1370 1370 1370 1370 1370 1370 1370 1370 1370 1365 1365 1365 1365 1365 1365 1365 1365 1365 1365 1359 1359 1359 1359 1359 1359 1359 1359 1359 1359 1359 2040 2040 2040 2040 2028 2028 2040 2040 2040 2040 2040 2040 2040 2053 2812 2789 2789 2812 2789 2789 2789 2789 2767 2767 2789 2789 2789 2812 2812 2812 2812 2812 2789 2789 2789 2789 2789 2789 2789 2789 2789 2789 2812 2812 2812 2812 2812 2812 2789 2789 2789 2789 2789 2789 2789 2789 2789 2812 2812 2812 2812 2812 2812 2812 2812 2835 2812 2812 2812 2812 2812 2835 2835 2812 2812 2835 2835 2835 2812 2812 2835 2835 2835 2835 2835 2835 2835 2835 2835 2835 2835 2835 2835 2835 2835 2835 2835 2835 2835 2835 2835 2835 2835 2835 2835 2835 2835 2835 2835 2835 2835 2835 2835 2812 2812 2812 2812 2812 2812 2789 2789 2812 2812 2812 2812 2812 2812 2812 2812 2812 2835 2835 2835 2835 2835 2835 2835 2812 2812 2812 2812 2812 2812 2789 2789 2767 2744 2744 2744 2744 2744 2744 2744 2744 2744 0 0 0 0 0 0 0 0 0 0
