0 0 0 0 0 0 0 0 0 0 0 0 0 0 0 0 0 0 0 0 0 0 0 0 0 0 0 0 0 0 0 0 4645 4645 4708 4708 4708 4708 4708 4708 4708 4708 4708 4911 4911 4645 4645 4645 4645 4645 4645 4645 4708 4774 4842 4911 4911 4911 4911 4911 4842 4842 4842 4842 4842 4842 4842 4842 4842 4842 4774 4774 4774 4842 4842 4774 4774 4774 4774 4774 4774 4774 4842 4842 4708 4708 4708 4708 4708 4774 4774 4774 4842 4774 4774 4708 4708 4708 0 0 2789 2789 2789 2789 2767 2767 2767 2767 2767 2767 2767 2767 2767 2744 2744 2744 2744 2767 2767 2767 2767 2767 2767 2767 2767 2767 2767 2767 2767 2767 2767 2767 2767 2767 2767 2767 2767 2767 2789 2789 2789 2789 2789 2812 2812 2812 2812 2812 2835 2835 2859 2859 2859 2859 2883 2883 2908 2908 2958 3037 3064 3092 3092 2958 2883 2883 2859 2859 2859 2859 2859 2065 2053 2053 2053 2053 2053 2053 2053 2065 2065 2065 2078 2078 2078 2078 2078 2078 2078 2078 2078 2078 2078 2090 2090 2090 2090 2090 2090 2090 2090 2090 2103 2103 2103 2116 2116 2116 2116 2116 2116 2116 2116 2116 2116 2116 2116 2129 2129 2129 2129 2129 2129 2129 2143 2143 2143 2143 2143 2143 2143 2143 2143 2143 2143 2143 2143 2143 2156 2143 2143 2143 2143 2143 2129 2129 2129 2129 2129 2129 2129 2129 2143 2143 2156 2156 2156 2156 2156 2143 2143 2143 2984 2984 2958 2958 2984 2984 2984 2984 2984 3010 3010 3010 3037 2103 2090 2078 2078 2078 2078 2078 2065 2065 2065 2078 2078 2078 2078 2078 2090 2090 2078 2078 2078 2078 2078 2078 2078 2078 2078 2078 2078 2078 2090 2090 2090 2090 2090 2090 2090 2090 2090 2090 2078 2078 2078 2090 2090 2103 2103 2116 2116 2116 2116 2129 2129 2129 2116 2103 2103 2103 2090 2090 2090 2103 2090 2090 2103 2103 2103 2103 2103 2103 2103 2103 2103 2103 2103 2103 2103 2090 2090 2090 2090 2078 2078 2078 2078 2078 2078 2078 2078 2078 2090 2090 2103 2103 2103 2103 2103 2116 2116 2116 2103 2103 2103 2103 2103 2103 2103 2103 2103 2103 2103 2103 2103 2103 2103 2103 2103 2103 2103 2103 2103 2103 2103 2103 2103 2103 2103 2103 2103 2103 2103 2103 2103 2103 2103 2103 2103 2103 2103 2090 2090 2090 2090 2103 2103 2103 2103 2090 2090 2090 2078 2078 2078 2078 2078 2078 2078 2078 2090 2103 2103 2103 2103 2103 2103 2103 2090 2090 2090 2090 2090 2090 2090 2090 2065 2065 2065 2065 2078 2090 2090 2090 0 0 0 0 0 0 0 0 0 0 0 3859 3859 3859 3859 3903 3903 3903 3903 3903 3948 3948 3948 3948 0 0 0 0 0 0 0 0 0 0 0 0 3732 3732 3732 3692 3692 3692 3692 3692 3692 3692 3692 3692 3692 3692 3653 3576 3503 3433 3399 3399 3365 3365 3365 3333 3333 3300 3269 3269 3269 3269 3269 3238 3238 3238 3238 3238 3238 3238 3238 3238 3238 3238 3238 3238 3238 3238 3269 3238 3238 3238 3238 3178 3149 3092 3037 3037 3010 3010 3010 3010 3010 3010 3010 3037 3037 3037 3037 3037 3037 3037 3037 3037 3037 3037 3037 3010 3010 3037 3037 3037 3037 3037 3064 3064 3064 3064 3064 3064 3064 3064 3037 3037 3064 3064 3064 3064 3037 3037 3010 3010 3010 3010 3010 3010 3010 3010 3010 3010 3010 3010 2984 2984 2984 2984 2984 2984 2984 2984 2984 2984 4911 4911 0 0 0 0 0 0 0 0 0 0 0 0 3816 3816 0 0 0 0 0 0 0 0 0 0 0 0
0 0 0 0 0 0 0 0 0 0 0 0 0 0 0 0 0 0 0 0 0 0 0 0 0 0 0 0 0 0 0 0 4645 4645 4645 4645 4645 4708 4645 4645 4645 4645 4582 4582 4582 4582 4582 4645 4645 4645 4645 4645 4708 4774 4842 4842 4911 4911 4911 4911 4911 4842 4842 4774 4774 4842 4842 4774 4774 4708 4708 4645 4645 4774 4774 4708 4708 4708 4708 4708 4645 4582 4582 4582 4708 4708 4708 4708 4774 4774 4774 4774 4842 4842 4842 4582 4582 4522 0 0 2767 2767 2767 2767 2767 2767 2767 2767 2767 2767 2767 2767 2767 2744 2744 2744 2744 2767 2767 2767 2767 2767 2767 2767 2767 2767 2767 2767 2767 2767 2767 2767 2767 2767 2767 2767 2767 2789 2789 2789 2789 2789 2789 2812 2812 2812 2812 2835 2835 2835 2859 2859 2859 2859 2883 2883 2908 2908 2958 3037 3064 3092 3092 2984 2883 2883 2859 2859 2835 2835 2835 2065 2053 2053 2053 2053 2053 2053 2053 2065 2065 2065 2078 2078 2078 2078 2078 2078 2078 2078 2078 2078 2078 2090 2090 2090 2090 2090 2090 2090 2090 2090 2103 2103 2103 2116 2116 2116 2116 2116 2116 2103 2103 2103 2116 2116 2116 2129 2129 2129 2143 2143 2143 2143 2143 2143 2143 2143 2143 2143 2143 2143 2143 2143 2143 2143 2143 2143 2156 2143 2143 2143 2143 2143 2129 2129 2129 2129 2129 2129 2129 2129 2129 2129 2143 2143 2143 2116 2078 2065 2053 2053 2053 2053 2053 2053 2053 2984 2053 2053 2984 3010 3010 2065 2065 2065 2078 2078 2078 2078 2078 2065 2065 2065 2065 2065 2065 2065 2065 2078 2078 2078 2078 2078 2078 2078 2078 2078 2078 2078 2078 2078 2078 2078 2078 2090 2090 2090 2090 2090 2090 2090 2090 2090 2078 2078 2078 2078 2090 2090 2090 2103 2103 2116 2103 2103 2103 2103 2103 2078 2078 2078 2078 2078 2078 2078 2078 2078 2078 2078 2103 2090 2090 2090 2090 2090 2090 2090 2090 2090 2090 2078 2078 2078 2078 2078 2078 2078 2078 2078 2078 2078 2078 2078 2078 2090 2090 2090 2090 2090 2090 2103 2103 2090 2090 2090 2090 2090 2090 2090 2103 2103 2090 2090 2103 2090 2090 2090 2090 2090 2090 2103 2090 2090 2090 2090 2103 2103 2103 2103 2103 2103 2103 2103 2103 2103 2103 2103 2103 2103 2090 2090 2090 2078 2078 2090 2090 2090 2090 2090 2078 2078 2078 2078 2078 2065 2065 2065 2065 2053 2053 2053 2065 2078 2078 2090 2090 2090 2090 2090 2090 2090 2078 2078 2053 2053 2053 2078 2065 2065 2065 2065 2065 2078 2065 2053 2053 0 0 0 0 0 0 0 0 0 3903 3859 3859 3859 3859 3903 3903 3903 3903 3903 3948 3948 3948 3948 0 0 0 0 0 0 0 0 0 0 0 3732 3732 3732 3732 3692 3692 3692 3692 3692 3692 3692 3692 3692 3692 3692 3653 3576 3468 3433 3399 3399 3399 3365 3365 3333 3333 3300 3300 3300 3269 3269 3269 3238 3238 3238 3238 3208 3208 3208 3208 3208 3208 3208 3208 3208 3208 3208 3208 3208 3208 3208 3178 3149 3120 3064 3064 3037 3037 3010 3010 3010 3010 3010 3037 3037 3037 3037 3037 3037 3064 3064 3064 3064 3037 3037 3037 3037 3037 3037 3064 3064 3064 3064 3092 3092 3064 3064 3064 3092 3092 3120 3064 3064 3092 3092 3064 3064 3064 3064 3010 3010 3010 3010 3010 3010 3010 3010 3010 3010 3010 3010 3010 2984 2984 2984 2984 2984 2984 2984 2984 2984 4911 4911 0 0 0 0 0 0 0 0 0 0 0 0 3816 3816 0 0 0 0 0 0 0 0 0 0 0 0
0 0 0 0 0 0 0 0 0 0 0 0 0 0 0 0 0 0 0 0 0 0 0 0 0 0 0 0 0 0 0 0 4645 4645 4645 4645 4645 4645 4645 4582 4582 4582 4582 4582 4582 4582 4582 4582 4645 4645 4645 4645 4645 4774 4774 4842 4842 4842 4842 4842 4842 4774 4774 4774 4774 4774 4774 4774 4774 4708 4708 4645 4645 4645 4645 4645 4645 4645 4645 4645 4645 4582 4582 4582 4645 4708 4708 4708 4774 4774 4774 4774 4774 4774 4582 4582 0 4522 0 4522 0 2767 2767 2767 2767 2767 2767 2767 2767 2767 2767 2767 2767 2744 2744 2744 2744 2767 2767 2767 2767 2767 2767 2767 2767 2767 2767 2767 2767 2767 2767 2767 2767 2767 2767 2767 2767 2789 2789 2789 2789 2789 2789 2812 2812 2812 2812 2835 2835 2835 2859 2859 2859 2859 2883 2883 2908 2908 2958 3037 3064 3092 3120 3064 2883 2883 2835 2835 2835 2835 2835 2065 2053 2053 2053 2053 2053 2053 2053 2065 2065 2065 2078 2078 2078 2078 2078 2078 2078 2078 2078 2078 2078 2090 2090 2090 2090 2090 2090 2090 2090 2090 2090 2103 2103 2116 2103 2103 2116 2116 2116 2103 2103 2103 2116 2116 2129 2129 2129 2129 2129 2143 2129 2129 2143 2143 2143 2143 2143 2143 2143 2143 2143 2143 2143 2143 2129 2129 2143 2143 2143 2143 2143 2129 2129 2116 2116 2116 2116 2129 2129 2129 2116 2116 2129 2129 2090 2078 2053 2053 2053 2053 2053 2053 2053 2053 2053 2053 2040 2040 2040 2040 2065 2053 2053 2065 2078 2078 2065 2065 2065 2065 2065 2053 2053 2053 2053 2053 2065 2065 2065 2078 2078 2078 2078 2078 2078 2078 2078 2078 2078 2078 2078 2078 2078 2078 2078 2090 2090 2090 2078 2078 2078 2078 2065 2065 2078 2078 2078 2090 2090 2090 2103 2090 2090 2090 2090 2078 2078 2065 2065 2065 2065 2065 2065 2065 2065 2065 2065 2065 2065 2078 2078 2078 2078 2078 2078 2078 2078 2065 2065 2065 2065 2065 2065 2065 2065 2065 2065 2065 2065 2065 2065 2078 2078 2078 2090 2090 2090 2090 2090 2090 2090 2090 2090 2090 2090 2090 2090 2090 2078 2078 2078 2078 2090 2078 2078 2078 2078 2078 2078 2078 2078 2078 2090 2090 2090 2090 2090 2090 2090 2090 2090 2103 2103 2090 2090 2090 2078 2078 2078 2078 2078 2065 2065 2065 2065 2065 2065 2065 2065 2065 2065 2065 2065 2053 2053 2053 2053 2053 2040 2040 2053 2053 2053 2065 2065 2053 2053 2053 2053 2053 2053 2053 2053 2053 2053 2065 2065 2065 2065 2065 2065 2065 2040 2040 2028 2028 0 2016 2005 2005 2005 0 0 0 3903 3903 3903 3903 3903 3903 3903 3903 3903 3903 3948 3948 3948 3948 0 0 0 0 0 0 0 0 0 0 0 3732 3732 3732 3732 3692 3692 3692 3692 3692 3692 3692 3692 3692 3692 3692 3653 3576 3468 3433 3399 3399 3399 3365 3365 3333 3333 3300 3300 3300 3269 3269 3269 3238 3238 3238 3208 3208 3208 3208 3208 3208 3208 3208 3208 3208 3208 3208 3208 3208 3178 3178 3149 3120 3092 3064 3037 3037 3037 3010 3010 3010 3010 3037 3037 3037 3037 3064 3064 3092 3120 3092 3092 3120 3064 3064 3064 3064 3064 3064 3092 3092 3092 3092 3120 3120 3092 3092 3092 3149 3149 3149 3092 3092 3120 3120 3092 3092 3092 3092 3064 3037 3037 3037 3037 3010 3010 3010 3010 3010 3010 3010 3010 3010 2984 2984 2984 2984 2984 2984 2984 4774 4774 4774 0 0 0 0 0 0 0 0 0 0 0 3859 3816 3816 0 0 0 0 0 0 0 0 0 0 0 0
0 0 0 0 0 0 0 0 0 0 0 0 0 0 0 0 0 0 0 0 0 0 0 0 0 0 0 0 0 0 0 4645 4582 4582 4582 4582 4582 4645 4645 4582 4582 4582 4582 4582 4522 4522 4522 4582 4582 4582 4582 4645 4645 4774 4774 4842 4842 4842 4842 4842 4645 4645 4645 4842 4842 4708 4708 4708 4708 4645 4582 4582 4582 4582 4582 4582 4582 4582 4645 4645 4645 4582 4582 4582 4645 4645 4645 4645 4708 4708 4708 4582 4582 4582 4582 4582 4582 4522 4522 4522 4522 2789 2789 2789 2767 2767 2767 2767 2767 2767 2767 2767 2767 2767 2767 2767 2767 2767 2767 2767 2767 2767 2767 2767 2767 2767 2767 2767 2767 2767 2767 2767 2767 2767 2767 2767 2767 2789 2789 2789 2789 2789 2789 2812 2812 2812 2812 2835 2835 2835 2859 2859 2859 2883 2883 2883 2908 2908 2958 3037 3064 3120 3120 3120 2883 2883 2835 2835 2835 2835 2859 2065 2053 2053 2053 2053 2053 2053 2053 2065 2065 2065 2065 2078 2078 2078 2078 2078 2078 2090 2090 2090 2090 2090 2090 2090 2090 2090 2090 2090 2090 2090 2090 2090 2090 2090 2090 2090 2103 2103 2103 2103 2103 2103 2103 2103 2090 2090 2116 2116 2129 2143 2129 2129 2129 2143 2143 2129 2129 2129 2129 2129 2129 2129 2129 2116 2116 2116 2116 2103 2103 2129 2129 2129 2116 2103 2103 2103 2116 2116 2103 2103 2116 2116 2116 2116 2053 2040 2040 2040 2040 2053 2053 2053 2053 2053 2053 2040 2028 2028 2028 2028 2040 2053 2053 2065 2065 2065 2065 2053 2053 2053 2053 2053 2040 2040 2053 2053 2065 2065 2065 2065 2065 2065 2065 2065 2065 2065 2065 2065 2065 2065 2065 2053 2053 2053 2053 2053 2053 2065 2053 2053 2053 2065 2065 2065 2065 2065 2065 2065 2065 2065 2065 2078 2078 2078 2078 2065 2065 2065 2065 2065 2053 2053 2065 2053 2053 2053 2065 2053 2053 2065 2065 2065 2065 2065 2065 2065 2065 2065 2065 2065 2065 2065 2065 2065 2065 2065 2065 2065 2065 2065 2065 2065 2065 2078 2078 2078 2078 2078 2065 2065 2065 2065 2065 2065 2065 2065 2065 2065 2065 2065 2065 2065 2065 2065 2065 2065 2065 2065 2065 2065 2065 2065 2065 2065 2065 2065 2078 2078 2078 2078 2078 2078 2078 2078 2078 2078 2065 2065 2065 2065 2065 2053 2053 2053 2053 2053 2053 2053 2053 2053 2053 2053 2053 2040 2040 2040 2040 2040 2040 2040 2040 2040 2040 2053 2053 2053 2053 2053 2053 2053 2053 2053 2040 2040 2040 2040 2053 2053 2053 2053 2053 2053 2040 2028 2028 2016 2016 2005 2005 2005 2005 2005 0 3903 3903 3903 3903 3903 3903 3903 3903 3903 3903 3903 3948 3948 3948 3948 0 0 0 0 0 0 0 0 0 0 0 3732 3732 3732 3732 3692 3692 3692 3692 3692 3692 3692 3692 3692 3692 3692 3653 3653 3468 3433 3433 3433 3399 3365 3365 3365 3333 3300 3300 3300 3269 3269 3269 3238 3238 3238 3208 3208 3208 3178 3178 3178 3178 3178 3178 3178 3178 3178 3178 3178 3178 3149 3149 3092 3092 3064 3037 3037 3037 3010 3010 3010 3010 3037 3037 3037 3064 3064 3092 3092 3149 3120 3120 3120 3092 3092 3092 3092 3092 3120 3120 3149 3120 3120 3149 3149 3149 3149 3149 3178 3178 3178 3120 3120 3120 3120 3120 3120 3120 3120 3092 3064 3037 3037 3037 3010 3010 3010 3010 3037 3037 3037 3010 3010 2984 2984 2984 2984 2984 2984 4774 4774 4708 4645 4645 0 0 0 0 0 0 0 0 0 0 3859 3816 3816 0 0 0 0 0 0 0 0 0 0 0 0
0 0 0 0 0 0 0 0 0 0 0 0 0 0 0 0 0 0 0 0 0 0 0 0 0 0 0 0 0 0 0 4582 4582 4582 4582 4582 4582 4645 4645 4582 4582 4582 4582 4582 4522 4522 4522 4582 4582 4582 4582 4645 4645 4708 4708 4774 4774 4774 4774 4708 4645 4645 4645 4645 4708 4708 4708 4708 4645 4582 4582 4582 4582 4582 4582 4582 4582 4582 4582 4582 4582 4582 4582 4582 4645 4645 4645 4645 4708 4708 4708 4582 4582 4582 4582 4582 4582 4522 4522 4522 4522 4522 2789 2789 2767 2767 2767 2767 2767 2767 2767 2767 2767 2767 2767 2767 2767 2767 2767 2767 2767 2767 2767 2767 2767 2767 2767 2767 2767 2767 2767 2767 2767 2767 2767 2767 2767 2789 2789 2789 2789 2789 2789 2812 2812 2812 2812 2835 2835 2835 2859 2859 2859 2883 2883 2883 2908 2908 2933 3037 3037 3064 3064 3120 2984 2908 2859 2859 2835 2835 2859 2859 2053 2053 2053 2053 2053 2053 2053 2065 2065 2065 2065 2078 2078 2078 2078 2078 2078 2078 2078 2078 2090 2090 2090 2090 2090 2090 2090 2078 2078 2078 2078 2078 2078 2078 2078 2090 2090 2090 2090 2078 2078 2078 2090 2078 2065 2065 2065 2078 2129 2143 2129 2129 2129 2129 2129 2129 2129 2129 2129 2129 2129 2116 2116 2103 2090 2090 2090 2065 2065 2103 2103 2103 2090 2090 2065 2065 2065 2065 2053 2040 2040 2028 2028 2028 2016 2016 2028 2028 2028 2040 2040 2040 2040 2040 2040 2028 2028 2028 2028 2028 2028 2040 2040 2040 2053 2065 2040 2040 2040 2040 2040 2028 2028 2028 2028 2040 2053 2053 2053 2053 2053 2053 2053 2053 2053 2053 2053 2053 2053 2053 2053 2053 2040 2040 2040 2040 2040 2040 2040 2040 2053 2053 2053 2053 2053 2053 2053 2053 2053 2053 2053 2053 2053 2040 2040 2040 2040 2040 2040 2040 2028 2028 2028 2028 2028 2028 2028 2053 2040 2040 2040 2040 2040 2040 2053 2053 2053 2053 2053 2053 2040 2040 2053 2053 2053 2053 2053 2053 2053 2053 2053 2053 2065 2065 2065 2065 2065 2065 2053 2053 2053 2053 2053 2053 2053 2053 2053 2040 2040 2040 2040 2040 2053 2053 2053 2053 2053 2053 2053 2053 2053 2053 2065 2065 2065 2065 2065 2065 2065 2065 2065 2065 2065 2065 2065 2065 2065 2065 2053 2053 2053 2040 2040 2040 2040 2040 2040 2053 2053 2053 2040 2040 2040 2040 2040 2040 2040 2040 2040 2028 2028 2028 2028 2040 2040 2040 2040 2040 2040 2053 2040 2040 2040 2040 2040 2040 2040 2040 2040 2040 2040 2040 2040 2016 2016 2016 2016 2005 1993 1981 1981 1981 1993 3903 3903 3903 3903 3903 3903 3903 3903 3903 3903 3903 3903 3903 3903 0 0 0 0 0 0 0 0 0 0 0 0 3732 3732 3732 3732 3692 3692 3692 3692 3692 3692 3692 3692 3692 3692 3692 3692 3653 3468 3433 3433 3433 3399 3365 3365 3365 3333 3300 3300 3300 3269 3269 3269 3238 3208 3208 3208 3208 3178 3178 3178 3178 3178 3178 3178 3178 3178 3178 3178 3178 3149 3149 3149 3092 3092 3064 3037 3037 3037 3010 3010 3010 3037 3037 3037 3037 3064 3092 3120 3149 3149 3149 3149 3149 3120 3120 3120 3120 3149 3149 3149 3178 3178 3178 3178 3178 3178 3208 3208 3178 3178 3178 3120 3120 3120 3120 3120 3120 3120 3120 3120 3092 3064 3037 3037 3037 3010 3010 3010 3037 3037 3010 3010 3010 2984 2984 2984 2984 3010 4708 4708 4645 4645 4582 4463 4463 0 0 0 0 0 0 0 0 0 3859 3816 3816 0 0 0 0 0 0 0 0 0 0 0 0
0 0 0 0 0 0 0 0 0 0 0 0 0 0 0 0 0 0 0 0 0 0 0 0 0 0 0 0 0 0 0 4582 4522 4522 4522 4582 4582 4582 4582 4522 4522 4582 4582 4582 4582 4582 4582 4582 4645 4645 4645 4645 4645 4645 4708 4708 4708 4708 4645 4645 4645 4645 4645 4645 4645 4645 4582 4582 4645 4582 4582 4522 4522 4522 4522 4522 4582 4582 4582 4582 4582 4522 4522 4522 4522 4582 4645 4645 4708 4708 4645 4645 4582 4582 4582 4582 4582 4522 4522 4522 4522 4522 4522 2789 2789 2767 2767 2767 2767 2767 2767 2767 2767 2767 2767 2767 2767 2767 2767 2767 2767 2767 2767 2767 2767 2767 2767 2767 2767 2767 2767 2767 2767 2767 2767 2767 2767 2789 2789 2789 2789 2789 2789 2789 2812 2812 2835 2835 2835 2835 2859 2859 2859 2883 2883 2883 2883 2883 2883 3037 3037 3064 3064 3037 2859 2859 2859 2859 2859 2859 2859 2859 2040 2040 2040 2040 2040 2053 2053 2053 2053 2053 2053 2053 2065 2065 2078 2078 2078 2078 2078 2078 2078 2078 2078 2078 2078 2078 2078 2065 2065 2065 2065 2053 2053 2065 2065 2065 2078 2065 2053 2053 2053 2053 2053 2040 2040 2040 2040 2040 2040 2143 2005 2005 1993 1993 1993 1993 1993 1993 1993 2129 2129 2040 2040 2053 2053 2040 2040 2053 2040 2040 2040 2053 2040 2040 2040 2040 2028 2028 2028 2028 2028 2028 2028 2005 2005 2005 2016 2016 2028 2028 2028 2028 2028 2028 2028 2028 2028 2028 2028 2028 2028 2028 2028 2040 2028 2028 2028 2028 2016 2016 2028 2016 2016 2016 2016 2028 2028 2040 2040 2040 2040 2040 2028 2028 2028 2040 2040 2040 2040 2040 2040 2028 2028 2028 2028 2028 2040 2040 2028 2028 2040 2040 2028 2028 2028 2028 2028 2040 2040 2028 2028 2028 2028 2028 2028 2028 2028 2028 2028 2028 2028 2016 2016 2016 2016 2016 2016 2016 2016 2028 2028 2028 2028 2028 2028 2028 2040 2053 2053 2053 2040 2040 2040 2040 2040 2040 2040 2040 2040 2040 2053 2053 2053 2053 2040 2040 2028 2028 2028 2028 2028 2028 2028 2028 2028 2028 2016 2016 2016 2016 2016 2016 2016 2028 2028 2028 2028 2028 2028 2028 2028 2028 2028 2028 2053 2040 2040 2053 2053 2053 2053 2053 2053 2053 2053 2053 2053 2053 2053 2040 2040 2040 2028 2028 2028 2028 2028 2040 2040 2040 2028 2028 2028 2028 2028 2028 2028 2028 2028 2016 2016 2016 2016 2016 2028 2028 2040 2040 2040 2040 2040 2040 2028 2028 2016 2016 2016 2016 2016 2028 2028 2028 2005 2005 2016 2005 2005 2005 1993 1981 1981 1993 1993 1993 3903 3903 3903 3903 3903 3903 3903 3903 3903 3903 3903 3903 3903 0 0 0 0 0 0 0 0 0 0 0 0 3732 3732 3732 3732 3692 3692 3692 3692 3692 3692 3692 3692 3692 3692 3692 3692 3653 3468 3433 3399 3399 3399 3365 3365 3365 3333 3300 3300 3300 3269 3269 3269 3238 3208 3208 3208 3208 3178 3178 3178 3178 3178 3178 3178 3178 3178 3178 3149 3149 3149 3120 3120 3064 3064 3037 3037 3010 3010 3010 3010 3010 3037 3037 3037 3064 3064 3092 3092 3149 3149 3149 3149 3149 3149 3149 3149 3149 3178 3178 3178 3178 3178 3178 3178 3178 3178 3178 3178 3178 3178 3149 3120 3120 3120 3120 3120 3120 3120 3120 3120 3092 3064 3064 3037 3037 3037 3037 3037 3037 3037 3010 3010 3010 2984 2984 2984 2908 2908 4708 4708 4645 4645 4582 4405 4405 0 0 0 0 0 0 0 0 0 3859 3816 3816 0 0 0 0 0 0 0 0 0 0 0 0
0 0 0 0 0 0 0 0 0 0 0 0 0 0 0 0 0 0 0 0 0 0 0 0 0 0 0 0 0 0 0 0 4463 4463 4463 4522 4582 4582 4582 4522 4522 4522 4522 4463 4463 4463 4463 4463 4582 4582 4582 4645 4645 4645 4708 4708 4708 4708 4645 4645 4645 4645 4645 4645 4645 4645 4582 4582 4582 4522 4522 4522 4522 4522 4522 4522 4522 4522 4522 4522 4522 4522 4522 4522 4522 4522 4582 4645 4708 4645 4645 4645 4582 4582 4582 4582 4582 4582 4582 4582 4582 4582 2789 2789 2789 2789 2789 2789 2767 2767 2767 2767 2767 2767 2767 2767 2767 2767 2767 2767 2767 2767 2767 2767 2767 2767 2767 2767 2767 2767 2767 2767 2767 2767 2767 2767 2767 2789 2789 2789 2789 2789 2789 2789 2812 2812 2812 2835 2835 2835 2859 2859 2883 2883 2883 2883 2883 2883 2883 3037 3037 3064 3064 3037 2859 2859 2859 2859 2883 2883 2883 2028 2028 2028 2040 2040 2040 2040 2040 2040 2040 2040 2040 2053 2065 2065 2065 2078 2078 2078 2078 2078 2078 2078 2078 2078 2065 2065 2065 2053 2040 2040 2040 2040 2040 2040 2040 2016 2016 1993 1993 2005 2016 2028 2028 2028 2028 2028 2028 2016 2005 2005 1993 1993 1993 1993 1993 1993 1993 1993 1993 1993 1993 2028 2028 2028 2028 2028 2028 2028 2028 2028 2040 2040 2040 2028 2028 2028 2016 2016 2016 2016 2016 2016 1993 1993 1993 1993 2005 2005 2005 2016 2016 2016 2028 2028 2016 2016 2016 2016 2028 2028 2028 2028 2028 2028 2028 2016 2016 2016 2005 2005 2016 2005 2005 2016 2016 2016 2016 2016 2016 2016 2016 2016 2005 2005 2005 2016 2016 2016 2016 2016 2016 2016 2016 2016 2016 2016 2028 2016 2016 2016 2016 2016 2005 2005 2005 2016 2016 2016 2016 2016 2016 2016 2016 2016 2016 2016 2016 2016 2016 2016 2016 2005 2005 2005 2005 2005 2005 2016 2016 2016 2016 2016 2016 2016 2016 2016 2016 2016 2016 2040 2053 2040 2040 2040 2040 2040 2028 2028 2028 2028 2028 2028 2028 2028 2028 2028 2016 2016 2016 2016 2016 2016 2016 2016 2016 2016 2016 2016 2016 2016 2005 2005 2005 2016 2016 2016 2016 2016 2016 2016 2016 2016 2005 2005 2005 2016 2016 2016 2016 2016 2016 2016 2016 2016 2016 2005 1993 1993 1993 2016 2016 2005 2005 2005 2005 2005 2005 2005 2005 2005 2005 2005 2005 2005 2005 2005 2005 2005 2005 2005 2005 2005 2005 2005 2005 2005 2005 2005 2005 2005 2005 2005 2005 2005 1993 1993 2005 2005 2005 2005 2005 2016 2005 2005 2005 2005 1993 1993 1981 1970 1970 1981 1981 1970 3903 3903 3903 3903 3903 3903 3903 3903 3903 3903 3948 3948 3948 0 0 0 0 0 0 0 0 0 0 0 0 3774 3732 3732 3732 3692 3692 3692 3692 3692 3692 3692 3732 3692 3692 3692 3692 3653 3468 3433 3399 3399 3399 3365 3365 3333 3333 3300 3300 3300 3300 3300 3269 3269 3238 3238 3208 3208 3178 3178 3178 3178 3178 3178 3178 3178 3149 3149 3149 3149 3120 3120 3092 3064 3064 3037 3037 3010 3010 3010 3010 3010 3037 3037 3037 3064 3092 3092 3092 3120 3120 3149 3149 3149 3149 3149 3149 3149 3149 3149 3149 3149 3149 3149 3149 3149 3149 3149 3149 3149 3149 3120 3092 3092 3092 3092 3092 3092 3120 3120 3120 3092 3064 3064 3037 3037 3037 3037 3037 3037 3037 3010 3010 3010 2984 2984 2958 2908 2908 4708 4708 4708 4645 4645 4405 4405 0 0 0 0 0 0 0 0 3816 3816 3816 3816 0 0 0 0 0 0 0 0 0 0 0 0
0 0 0 0 0 0 0 0 0 0 0 0 0 0 0 0 0 0 0 0 0 0 0 0 0 0 0 0 0 0 0 4582 4463 4463 4463 4522 4522 4522 4522 4463 4463 4522 4522 4463 4463 4405 4405 4463 4463 4463 4463 4522 4582 4582 4708 4708 4582 4582 4582 4582 4522 4522 4522 4522 4522 4522 4522 4522 4522 4522 4522 4522 4522 4522 4522 4522 4522 4522 4463 4463 4463 4522 4522 4522 4522 4522 4522 4645 4645 4645 4645 4645 4645 4645 4582 4582 4582 4645 4645 4645 4645 4645 2789 2789 2789 2789 2789 2789 2789 2767 2767 2767 2767 2767 2767 2767 2767 2767 2767 2767 2767 2767 2767 2767 2767 2767 2767 2767 2767 2767 2767 2767 2767 2767 2767 2767 2767 2789 2789 2789 2789 2789 2789 2789 2789 2812 2812 2835 2835 2835 2859 2859 2883 2883 2883 2908 2883 2883 2883 3037 3037 3064 3120 1981 1981 1981 1970 1970 1970 1970 1970 1993 1993 2005 2028 2028 2028 2040 2040 2040 2028 2028 2028 2040 2040 2040 2053 2053 2065 2078 2078 2078 2078 2078 2078 2065 2065 2053 2040 2028 2028 2028 2028 2028 2005 2005 2005 2005 1993 1993 1993 1993 2005 2005 2005 2005 2005 2016 2016 2005 2005 2005 1993 1993 1993 1993 1993 1993 1993 1993 1993 1993 1993 2005 2005 2005 2005 2005 2005 2016 2016 2016 2028 2028 2016 2016 2016 2016 2005 2005 2005 2005 2005 2005 1981 1981 1981 1981 1993 1993 1993 1993 1993 1993 2005 2005 1993 1993 1993 2005 2005 2016 2016 2016 2016 2016 2005 1993 1993 1993 1993 1993 1993 1993 1993 2005 2005 2005 1993 1993 1993 1981 1981 1981 1981 1993 1993 1993 1993 1993 2005 2005 2005 2005 2005 2016 2016 2016 2016 2005 2005 2005 2016 1993 1993 1993 1993 1993 2005 1993 1993 2005 1993 1993 2005 2005 2005 2005 2005 1993 1993 2005 2005 1993 1993 2005 2005 1993 1993 2005 2005 2005 2005 2005 2005 2005 2005 2005 2005 2005 2005 2005 2005 2005 2028 2016 2016 2005 2005 2005 2005 2005 2005 2005 2005 2016 2016 2016 2005 2005 2005 2005 2005 2005 2005 2005 2005 2005 2005 2005 2005 2005 2005 2005 2005 2005 2005 2005 2005 2005 2005 2005 2005 1993 1993 1993 1993 1993 2005 2005 2005 2016 2005 2005 2005 2005 1981 1981 1981 1993 1993 2005 2005 1993 1993 1993 1993 1993 1993 1993 1993 1993 1993 1993 1993 1993 1993 1993 1993 1993 1993 1993 1993 1993 1993 1993 1993 1993 1993 1993 1981 1981 1993 1993 1993 1993 1993 1981 1981 1981 1981 1981 1981 1993 1993 1993 1993 1993 1993 1981 1970 1970 1970 1970 1970 1970 1970 1970 3948 3948 3948 3948 3903 3903 3903 3903 3948 3948 0 0 0 0 0 0 0 0 3816 3816 3859 3816 3816 3774 3732 3732 3732 3692 3692 3692 3692 3692 3692 3692 3692 3692 3732 3692 3692 3653 3468 3433 3433 3399 3399 3365 3365 3333 3333 3300 3300 3300 3300 3300 3269 3269 3238 3238 3208 3208 3208 3178 3178 3178 3178 3149 3149 3149 3149 3149 3149 3149 3120 3092 3092 3064 3064 3037 3037 3037 3010 3010 3010 3010 3037 3037 3037 3064 3092 3092 3092 3120 3120 3120 3120 3149 3149 3149 3149 3149 3120 3120 3120 3149 3149 3149 3120 3120 3120 3120 3120 3120 3120 3120 3064 3064 3092 3092 3092 3092 3092 3092 3092 3064 3037 3037 3037 3037 3037 3037 3037 3037 3037 3010 3010 3010 2984 2984 2958 2908 2883 2835 2835 4708 4708 4645 4522 4522 0 0 0 0 0 0 0 3903 3816 3816 3816 3816 0 0 0 0 0 0 0 0 0 0 0 0
0 0 0 0 0 0 0 0 0 0 0 0 0 0 0 0 0 0 0 0 0 0 0 0 0 0 0 0 0 0 0 4463 4463 4522 4522 4522 4522 4522 4522 4405 4405 4463 4522 4522 4405 4405 4405 4405 4463 4463 4463 4463 4522 4522 4522 4522 4522 4522 4522 4522 4522 4463 4463 4522 4522 4522 4522 4522 4522 4463 4463 4522 4522 4463 4463 4522 4463 4463 4463 4463 4463 4463 4463 4463 4463 4463 4522 4522 4582 4582 4582 4582 4582 4582 4582 4582 4582 4582 4582 4582 4582 4645 4645 2789 2789 2789 2789 2789 2789 2789 2767 2767 2767 2767 2767 2767 2767 2767 2767 2767 2767 2767 2767 2767 2767 2767 2767 2767 2767 2767 2767 2767 2767 2767 2767 2767 2767 2789 2789 2789 2789 2789 2789 2789 2789 2835 2835 2835 2835 2835 2859 2883 2883 2883 2883 2908 2908 2908 1970 1959 1959 1970 1970 1970 1970 1970 1970 1959 1959 1959 1959 1970 1970 1981 1981 1993 1993 2028 2016 2016 2016 2005 2005 2028 2028 2005 1993 1993 1993 1993 2065 2078 2065 2065 2065 2040 2016 2005 2005 2005 2005 2005 2005 1993 1993 1993 1981 1981 1981 1981 1981 1981 1981 1993 1993 1993 1993 1993 1993 2005 1993 1993 1993 1993 1993 1993 1993 1993 1993 1993 1993 1993 1993 2005 2005 2005 2005 2005 2005 2005 2005 2005 2016 2016 2005 1993 1993 1993 1981 1981 1981 1981 1981 1993 1981 1981 1981 1981 1981 1981 1981 1981 1981 1981 1993 1993 1981 1981 1981 1981 1993 1993 1993 1993 1993 1993 1981 1981 1981 1981 1981 1981 1981 1981 1981 1993 1993 1993 1981 1981 1981 1981 1981 1981 1981 1981 1981 1981 1981 1981 1981 1993 1993 1993 1993 2005 2005 2005 1993 1993 1993 1993 1981 1981 1981 1981 1981 1981 1981 1981 1981 1993 1993 1993 1993 1993 1993 1993 1993 1981 1981 1981 1981 1981 1981 1993 1981 1981 1981 1981 1993 1993 1993 1993 1993 1993 1993 1981 1981 1993 1993 1993 1970 1970 2005 2005 2005 1993 1993 1993 1993 1993 1981 1981 1993 1993 1993 2005 2005 2005 2005 1993 1993 1993 1993 1993 1993 1993 1993 2005 2005 2005 2005 2005 2005 2005 2005 2005 2005 2005 1993 1993 1993 1993 1981 1981 1981 1993 1993 1993 1993 1993 1993 1981 1970 1970 1970 1970 1981 1981 1981 1993 1993 1993 1993 1981 1981 1981 1981 1981 1981 1981 1981 1981 1981 1981 1981 1981 1993 1993 1993 1981 1981 1981 1981 1981 1970 1970 1970 1981 1970 1970 1981 1981 1981 1981 1970 1970 1970 1959 1959 1970 1970 1970 1981 1981 1981 1981 1981 1970 1970 1970 1970 1970 1959 1959 1959 1959 1959 1959 3948 3948 3903 3903 3948 3948 3948 3994 0 0 0 0 0 0 0 3816 3816 3816 3859 3816 3816 3774 3774 3774 3774 3732 3732 3732 3732 3732 3692 3692 3692 3692 3732 3692 3692 3653 3468 3433 3433 3399 3399 3399 3365 3333 3333 3300 3300 3300 3269 3269 3269 3269 3238 3238 3208 3208 3208 3178 3178 3178 3178 3149 3149 3149 3149 3149 3149 3149 3120 3092 3064 3064 3064 3037 3037 3037 3010 3010 3010 3010 3037 3037 3064 3064 3064 3064 3092 3092 3092 3092 3092 3092 3092 3092 3092 3092 3092 3092 3092 3092 3092 3092 3092 3092 3092 3120 3120 3064 3064 3064 3037 3037 3037 3064 3064 3064 3064 3064 3064 3037 3037 3037 3037 3037 3037 3037 3037 3010 3010 3010 3010 3010 3010 2984 2984 2908 2883 2835 2835 4645 4645 4582 4522 4522 4522 0 0 0 0 4089 3994 3903 3859 3859 3859 3859 0 0 0 0 0 0 0 0 0 0 0 0
0 0 0 0 0 0 0 0 0 0 0 0 0 0 0 0 0 0 0 0 0 0 0 0 0 0 0 0 0 0 0 4463 4463 4463 4463 4522 4522 4522 4349 4349 4349 4349 4463 4463 4405 4405 4405 4405 4463 4463 4463 4463 4463 4463 4405 4405 4463 4522 4463 4463 4463 4463 4463 4463 4463 4463 4463 4463 4463 4463 4463 4463 4463 4405 4405 4463 4463 4463 4405 4405 4405 4463 4463 4463 4405 4405 4405 4405 4522 4522 4582 4582 4582 4582 4582 4582 4582 4582 4582 4582 4582 4582 4582 2789 2789 2789 2789 2789 2789 2789 2767 2767 2767 2767 2767 2767 2767 2767 2767 2767 2767 2767 2767 2767 2767 2767 2767 2767 2767 2767 2767 2767 2767 2767 2767 2767 2767 2789 2789 2789 2789 2789 2789 2789 2789 1947 1936 1936 1936 1936 1947 1947 1959 1981 1981 1981 1959 1959 1959 1959 1959 1959 1959 1959 1970 1970 1970 1959 1959 1959 1959 1959 1959 1959 1959 1959 1970 1981 1981 1970 1970 1981 1993 2005 2005 1981 1970 1970 1970 1970 1959 1959 1959 1970 1970 1970 1970 1981 1981 1981 1981 1981 1981 1981 1981 1981 1970 1970 1981 1981 1981 1981 1981 1981 1981 1981 1981 1981 1981 1981 1981 1981 1993 1993 1981 1981 1981 1981 1981 1993 1993 1993 1993 1993 1993 1993 1993 1993 1993 1993 1993 1993 1993 1981 1981 1981 1981 1981 1970 1970 1981 1981 1981 1981 1970 1970 1970 1970 1970 1970 1970 1981 1981 1981 1981 1981 1970 1970 1970 1970 1970 1970 1970 1981 1981 1981 1970 1970 1970 1970 1970 1970 1970 1981 1981 1981 1981 1981 1981 1970 1970 1970 1970 1970 1970 1981 1970 1970 1981 1970 1970 1970 1970 1981 1981 1981 1981 1981 1981 1981 1981 1981 1970 1970 1970 1970 1981 1981 1981 1981 1981 1981 1981 1981 1981 1981 1981 1981 1981 1970 1970 1970 1970 1970 1970 1970 1970 1970 1970 1970 1970 1970 1981 1981 1981 1981 1981 1970 1970 1981 1981 1970 1970 1970 1970 1970 1981 1981 1981 1981 1981 1981 1970 1970 1970 1981 1981 1993 1993 1993 1993 1981 1981 1981 1981 1981 1981 1981 1993 1993 1993 1993 1993 1993 1993 1993 1993 1993 1993 1993 1981 1981 1981 1981 1970 1970 1970 1981 1981 1981 1981 1981 1981 1970 1970 1970 1970 1970 1970 1970 1970 1981 1981 1981 1981 1970 1970 1970 1959 1959 1959 1970 1970 1970 1970 1970 1970 1970 1970 1970 1959 1959 1959 1959 1959 1959 1959 1959 1959 1970 1959 1959 1970 1970 1970 1970 1970 1959 1959 1959 1959 1959 1959 1959 1959 1970 1970 1970 1970 1959 1959 1959 1959 1959 1947 1947 1959 1959 1959 1959 1959 1959 1947 1904 1904 0 0 0 0 0 0 0 0 0 3816 3816 3816 3816 3816 3816 3859 3816 3816 3816 3774 3732 3732 3732 3732 3732 3732 3732 3732 3732 3732 3732 3692 3653 3468 3433 3399 3399 3399 3399 3365 3333 3333 3300 3300 3300 3269 3269 3269 3269 3238 3238 3238 3208 3208 3178 3178 3178 3149 3149 3149 3149 3149 3149 3149 3120 3120 3092 3064 3064 3064 3037 3037 3037 3010 3010 3010 3037 3037 3037 3064 3064 3064 3064 3092 3092 3092 3092 3092 3092 3092 3092 3092 3064 3064 3064 3064 3064 3064 3064 3064 3064 3064 3064 3064 3064 3064 3064 3037 3037 3037 3037 3037 3037 3037 3064 3064 3037 3037 3037 3037 3037 3010 3010 3010 3010 3010 3010 3010 3010 3010 3010 3010 3010 4645 4645 4645 4645 4645 4582 4522 4522 4522 4522 0 0 0 3994 3903 3903 3903 3859 3859 3859 0 0 0 0 0 0 0 0 0 0 0 0
0 0 0 0 0 0 0 0 0 0 0 0 0 0 0 0 0 0 0 0 0 0 0 0 0 0 0 0 0 0 0 4463 4463 4463 4463 4522 4405 4405 4349 4295 4295 4349 4349 4349 4349 4405 4405 4405 4463 4463 4463 4463 4463 4405 4405 4405 4405 4405 4405 4405 4463 4463 4463 4463 4405 4405 4463 4463 4463 4405 4405 4405 4405 4405 4405 4405 4405 4405 4405 4405 4405 4405 4405 4405 4349 4349 4349 4349 4522 4522 4582 4582 4522 4522 4522 4522 4522 4522 4522 4582 4582 4582 4582 2789 2789 2789 2789 2789 2789 2789 2789 2767 2767 2767 2767 2767 2767 2767 2767 2767 2767 2767 2767 2767 2767 2767 2767 2767 2767 2767 2767 2767 2767 2767 2767 2767 2767 2789 2789 2789 2789 2812 2812 1959 1959 1947 1936 1936 1936 1936 1947 1947 1947 1959 1947 1947 1947 1947 1959 1947 1947 1936 1936 1959 1959 1959 1959 1959 1959 1947 1947 1959 1959 1947 1947 1947 1959 1959 1970 1959 1959 1981 1981 1981 1981 1959 1959 1959 1959 1947 1947 1959 1959 1959 1970 1959 1959 1970 1970 1970 1959 1959 1959 1959 1959 1959 1959 1959 1970 1970 1970 1970 1970 1970 1970 1970 1981 1970 1970 1970 1970 1970 1981 1981 1981 1981 1981 1981 1981 1981 1981 1981 1981 1981 1981 1981 1981 1981 1981 1981 1981 1981 1981 1970 1970 1970 1970 1970 1959 1959 1970 1970 1970 1970 1959 1959 1970 1970 1959 1959 1959 1970 1970 1970 1970 1970 1970 1959 1959 1959 1959 1947 1947 1970 1970 1970 1970 1970 1970 1959 1959 1959 1959 1970 1970 1970 1970 1970 1970 1970 1970 1970 1970 1970 1970 1970 1970 1970 1970 1959 1959 1959 1959 1959 1970 1970 1970 1970 1970 1970 1970 1970 1970 1970 1970 1970 1970 1970 1970 1970 1970 1970 1970 1970 1970 1970 1970 1970 1970 1959 1959 1959 1959 1959 1959 1959 1959 1959 1959 1959 1959 1959 1970 1970 1970 1970 1970 1970 1970 1970 1970 1970 1959 1959 1959 1959 1970 1970 1970 1970 1970 1970 1970 1970 1970 1970 1970 1970 1970 1970 1970 1970 1970 1970 1970 1970 1970 1970 1970 1981 1981 1981 1981 1981 1981 1993 1993 1993 1993 1981 1970 1970 1970 1970 1970 1970 1970 1970 1981 1981 1981 1970 1970 1970 1970 1970 1959 1959 1959 1959 1959 1970 1970 1970 1959 1959 1959 1959 1959 1947 1947 1959 1959 1959 1959 1959 1959 1959 1959 1959 1947 1947 1947 1959 1959 1959 1959 1959 1959 1959 1959 1959 1959 1959 1959 1959 1959 1959 1947 1947 1947 1947 1947 1947 1959 1959 1959 1947 1947 1947 1947 1947 1947 1936 1936 1936 1947 1947 1947 1947 1947 1947 1947 1904 1904 0 0 0 0 0 0 1322 1322 1322 3816 3816 3816 3816 3816 3816 3816 3816 3816 3816 3774 3732 3732 3732 3732 3732 3732 3732 3732 3732 3732 3732 3692 3576 3468 3433 3399 3399 3399 3399 3365 3333 3333 3333 3300 3300 3269 3269 3269 3269 3238 3238 3238 3238 3208 3178 3178 3178 3149 3149 3149 3149 3149 3149 3149 3120 3120 3092 3064 3064 3064 3037 3037 3037 3037 3037 3037 3037 3037 3064 3064 3064 3064 3092 3064 3064 3064 3064 3064 3064 3064 3064 3064 3064 3064 3064 3064 3064 3064 3064 3064 3064 3064 3064 3064 3064 3064 3064 3037 3037 3037 3037 3037 3037 3037 3037 3037 3037 3037 3037 3037 3037 3010 3010 3010 3010 3010 3010 3010 3010 3010 3010 3037 3037 4522 4463 4463 4582 4582 4582 4522 4522 4522 4522 0 0 0 3994 3859 3859 3859 3859 3859 3859 0 0 0 0 0 0 0 0 0 0 0 0
0 0 0 0 0 0 0 0 0 0 0 0 0 0 0 0 0 0 0 0 0 0 0 0 0 0 0 0 0 0 0 4405 4405 4463 4463 4522 4405 4405 4295 4295 4295 4349 4349 4349 4349 4349 4405 4405 4405 4405 4405 4405 4349 4295 4295 4295 4349 4349 4349 4349 4405 4405 4405 4405 4405 4405 4405 4405 4405 4349 4349 4405 4405 4349 4349 4349 4405 4405 4405 4405 4405 4405 4405 4405 4349 4349 4349 4349 4463 4463 4522 4522 4522 4522 4522 4522 4522 4522 4522 4522 4522 4405 4405 2789 2789 2789 2789 2789 2789 2789 2789 2767 2767 2767 2767 2767 2767 2767 2767 2767 2767 2767 2767 2767 2767 2767 2767 2767 2767 2767 2767 2767 2767 2767 2767 2767 2767 2789 2789 2789 2789 2789 1947 1947 1947 1947 1936 1936 1947 1947 1947 1947 1926 1926 1926 1926 1936 1947 1947 1936 1936 1936 1936 1947 1959 1959 1959 1959 1947 1947 1947 1947 1947 1947 1947 1947 1947 1959 1959 1947 1947 1959 1970 1970 1970 1947 1947 1947 1947 1947 1947 1947 1947 1947 1959 1947 1947 1947 1947 1947 1947 1947 1947 1947 1947 1947 1947 1947 1947 1947 1947 1959 1959 1959 1959 1959 1970 1959 1959 1970 1959 1959 1959 1959 1970 1970 1970 1970 1970 1970 1959 1959 1959 1959 1959 1959 1970 1970 1970 1970 1970 1970 1970 1959 1959 1959 1959 1947 1947 1947 1959 1959 1959 1959 1959 1959 1959 1959 1947 1947 1947 1947 1947 1947 1959 1959 1959 1947 1947 1947 1947 1947 1947 1970 1970 1970 1959 1959 1959 1959 1947 1947 1959 1959 1959 1970 1970 1970 1970 1959 1959 1959 1959 1959 1959 1959 1959 1959 1959 1959 1959 1947 1947 1947 1947 1959 1959 1947 1947 1947 1947 1959 1959 1959 1959 1959 1970 1970 1970 1970 1970 1970 1970 1959 1959 1970 1970 1970 1959 1947 1947 1947 1947 1947 1936 1936 1936 1936 1947 1947 1947 1947 1959 1959 1959 1959 1959 1959 1959 1959 1959 1959 1959 1959 1959 1959 1959 1959 1959 1959 1959 1959 1959 1959 1959 1959 1959 1959 1959 1959 1959 1970 1970 1970 1959 1959 1959 1959 1959 1959 1959 1959 1959 1970 1970 1970 1970 1970 1970 1959 1959 1959 1959 1959 1959 1959 1959 1959 1970 1970 1970 1970 1959 1959 1959 1959 1959 1959 1959 1947 1947 1959 1959 1959 1947 1947 1947 1947 1947 1947 1947 1947 1947 1947 1947 1936 1936 1936 1936 1936 1936 1936 1947 1947 1947 1947 1959 1947 1947 1947 1947 1947 1947 1947 1947 1947 1947 1947 1936 1936 1947 1936 1936 1936 1947 1947 1947 1936 1936 1936 1936 1926 1926 1926 1926 1936 1947 1947 1947 1947 1936 1915 1904 1904 1904 0 0 0 0 0 1322 1317 1317 1322 1317 1317 1317 3816 3816 3816 3816 3816 3816 3816 3774 3732 3732 3732 3732 3732 3732 3732 3732 3732 3732 3732 3692 3576 3468 3433 3433 3399 3399 3399 3365 3365 3333 3333 3300 3300 3300 3269 3269 3269 3238 3238 3238 3238 3208 3178 3178 3178 3149 3149 3149 3149 3149 3149 3120 3120 3120 3092 3064 3064 3064 3064 3037 3037 3037 3037 3037 3037 3037 3037 3037 3064 3064 3064 3064 3064 3064 3064 3064 3064 3064 3064 3064 3064 3064 3064 3064 3064 3037 3037 3064 3064 3064 3064 3064 3064 3064 3064 3037 3037 3037 3037 3037 3037 3037 3037 3037 3037 3010 3010 3037 3037 3010 3010 3010 3010 3010 3010 3010 3037 3010 3010 3037 3037 4405 4405 4463 4522 4522 4522 4522 4522 4522 4522 4522 0 0 3859 3859 3859 3859 3903 3859 3859 0 0 0 0 0 0 0 0 0 0 0 0
0 0 0 0 0 0 0 0 0 0 0 0 0 0 0 0 0 0 0 0 0 0 0 0 0 0 0 0 0 0 0 4405 4405 4405 4349 4295 4295 4295 4295 4295 4295 4349 4349 4349 4349 4349 4405 4405 4405 4405 4349 4349 4349 4295 4295 4295 4349 4349 4349 4349 4405 4405 4405 4405 4349 4349 4349 4405 4405 4349 4349 4349 4349 4349 4349 4349 4349 4349 4349 4349 4349 4405 4405 4349 4349 4349 4405 4405 4405 4405 4463 4463 4463 4463 4463 4463 4463 4463 4463 4463 4463 4405 4405 4405 2789 2789 2789 2789 2789 2789 2789 2789 2789 2767 2767 2767 2767 2767 2767 2767 2767 2789 2767 2767 2767 2767 2767 2767 2767 2767 2767 2767 2767 2767 2767 2767 2767 2789 2789 2789 2789 2789 1936 1936 1936 1926 1926 1926 1926 1926 1947 1947 1926 1926 1926 1926 1926 1926 1926 1915 1915 1915 1915 1926 1926 1936 1936 1936 1936 1936 1936 1936 1936 1947 1947 1947 1947 1947 1947 1947 1947 1947 1947 1947 1947 1936 1936 1936 1936 1936 1936 1936 1936 1947 1947 1947 1947 1947 1947 1947 1947 1947 1947 1947 1947 1947 1947 1947 1947 1947 1947 1947 1947 1947 1947 1947 1959 1959 1959 1959 1947 1947 1947 1947 1947 1959 1947 1947 1947 1947 1947 1947 1947 1947 1947 1947 1947 1947 1959 1959 1959 1959 1959 1959 1947 1947 1947 1936 1936 1936 1947 1947 1947 1959 1947 1947 1947 1947 1947 1947 1947 1936 1936 1936 1947 1947 1936 1936 1936 1936 1936 1936 1936 1959 1959 1959 1947 1947 1947 1947 1936 1936 1936 1947 1947 1959 1959 1959 1947 1947 1947 1947 1947 1959 1959 1947 1947 1947 1947 1936 1936 1936 1936 1947 1947 1947 1947 1936 1936 1936 1936 1936 1936 1947 1947 1947 1959 1959 1959 1959 1959 1959 1959 1959 1959 1959 1959 1959 1947 1936 1936 1936 1926 1926 1926 1926 1926 1926 1926 1936 1936 1936 1947 1947 1947 1947 1947 1947 1947 1947 1947 1947 1947 1947 1936 1936 1947 1947 1947 1947 1947 1947 1947 1947 1947 1947 1947 1947 1936 1936 1959 1959 1959 1959 1947 1947 1959 1947 1947 1947 1947 1947 1947 1947 1947 1936 1936 1936 1947 1936 1936 1936 1947 1947 1947 1947 1947 1959 1959 1959 1959 1959 1959 1959 1959 1959 1959 1959 1959 1947 1947 1947 1947 1947 1936 1936 1936 1936 1936 1936 1936 1936 1936 1936 1936 1936 1936 1926 1926 1926 1915 1915 1926 1926 1926 1926 1936 1936 1936 1936 1936 1915 1915 1936 1936 1936 1936 1936 1926 1926 1936 1926 1926 1926 1926 1936 1926 1926 1926 1926 1926 1915 1915 1915 1915 1926 1936 1936 1936 1936 1926 1915 1904 1904 1904 1904 0 0 0 1307 1307 1312 1312 1312 1307 1307 1307 1307 1307 1307 3816 3816 3816 3816 3816 3774 3732 3732 3732 3732 3732 3732 3732 3732 3732 3732 3692 3503 3468 3433 3433 3399 3399 3399 3399 3399 3365 3365 3333 3300 3269 3269 3269 3238 3238 3238 3238 3208 3208 3178 3178 3178 3149 3149 3149 3149 3149 3149 3120 3120 3120 3092 3064 3064 3064 3064 3037 3037 3037 3037 3037 3037 3037 3037 3037 3064 3064 3064 3064 3064 3064 3064 3064 3064 3064 3064 3064 3064 3037 3037 3064 3064 3037 3037 3064 3064 3064 3064 3037 3037 3064 3064 3037 3037 3037 3037 3037 3037 3037 3037 3037 3010 3010 3010 3010 3010 3010 3010 3010 3010 3010 3010 3037 3037 3037 3037 3037 3037 4295 4295 4405 4463 4522 4522 4463 4463 4522 4522 4522 3903 3859 3859 3859 3859 3859 3903 3903 3903 0 0 0 0 0 0 0 0 0 0 0 0
0 0 0 0 0 0 0 0 0 0 0 0 0 0 0 0 0 0 0 0 0 0 0 0 0 0 0 0 0 0 0 4349 4349 4405 4295 4241 4241 4295 4295 4241 4241 4295 4295 4349 4349 4349 4349 4405 4349 4349 4349 4349 4295 4295 4295 4349 4349 4349 4405 4405 4405 4405 4405 4405 4349 4349 4349 4349 4349 4349 4349 4349 4349 4349 4349 4349 4349 4349 4349 4349 4349 4405 4405 4349 4349 4349 4349 4349 4349 4349 4349 4349 4405 4405 4405 4405 4405 4405 4405 4405 4405 4405 4405 4405 2789 2789 2789 2789 2789 2789 2789 2789 2789 2767 2767 2767 2767 2767 2767 2767 2767 2789 2767 2767 2767 2767 2767 2767 2767 2767 2767 2767 2767 2767 2767 2767 2789 2789 2789 2812 2812 1915 1915 1915 1926 1926 1926 1915 1915 1915 1915 1915 1915 1915 1915 1915 1915 1915 1915 1904 1904 1904 1915 1915 1915 1915 1915 1926 1926 1926 1926 1926 1926 1926 1926 1926 1926 1926 1936 1926 1926 1926 1926 1915 1915 1904 1904 1915 1915 1915 1915 1936 1936 1936 1936 1936 1936 1947 1936 1936 1936 1936 1936 1936 1936 1947 1947 1947 1936 1936 1936 1947 1947 1947 1947 1947 1947 1947 1947 1947 1936 1936 1936 1936 1936 1936 1936 1936 1947 1947 1947 1947 1947 1947 1947 1947 1947 1947 1947 1947 1947 1947 1947 1936 1936 1936 1936 1926 1926 1926 1936 1936 1936 1936 1926 1926 1936 1936 1926 1926 1926 1926 1926 1926 1936 1936 1926 1926 1926 1926 1936 1926 1926 1936 1936 1936 1936 1936 1936 1936 1926 1926 1936 1936 1936 1936 1936 1936 1936 1936 1936 1936 1936 1936 1936 1936 1926 1926 1936 1936 1936 1936 1936 1936 1936 1936 1936 1936 1936 1926 1926 1936 1936 1936 1936 1936 1947 1947 1947 1947 1947 1936 1936 1947 1936 1936 1947 1936 1936 1926 1926 1926 1915 1915 1915 1915 1915 1915 1915 1915 1915 1926 1926 1926 1926 1926 1926 1926 1936 1936 1936 1936 1936 1936 1926 1926 1936 1936 1936 1936 1936 1936 1936 1936 1936 1936 1936 1936 1926 1926 1926 1926 1926 1926 1926 1926 1936 1936 1936 1926 1926 1926 1926 1926 1926 1926 1926 1926 1926 1926 1926 1926 1926 1926 1936 1936 1947 1959 1959 1959 1959 1959 1947 1947 1947 1936 1936 1936 1936 1936 1936 1936 1936 1936 1926 1926 1936 1936 1936 1936 1936 1926 1926 1926 1915 1915 1915 1915 1915 1915 1915 1915 1915 1915 1915 1915 1915 1926 1926 1926 1915 1904 1904 1904 1915 1926 1926 1926 1915 1915 1926 1926 1915 1915 1915 1926 1915 1915 1915 1915 1915 1915 1904 1904 1915 1915 1915 1926 1926 1926 1926 1915 1904 1904 1904 1904 0 0 0 1302 1302 1307 1307 1307 1307 1307 1307 1307 1307 1307 3816 3816 3816 3816 3816 3774 3774 3732 3732 3732 3732 3732 3732 3732 3692 3692 3653 3503 3433 3433 3433 3433 3433 3433 3399 3399 3399 3399 3365 3300 3269 3269 3238 3149 3149 3149 3238 3208 3208 3178 3178 3178 3149 3149 3149 3149 3149 3149 3120 3120 3120 3092 3092 3064 3064 3064 3064 3037 3037 3037 3037 3037 3037 3037 3037 3064 3064 3064 3064 3064 3064 3064 3064 3064 3064 3064 3064 3064 3037 3037 3064 3037 3037 3037 3037 3037 3064 3037 3037 3037 3064 3064 3037 3010 3010 3037 3037 3010 3010 3037 3037 3010 3010 3010 3010 3010 3010 3010 3010 3010 3010 3037 3037 3037 3037 3037 3037 3037 4295 4295 4405 4463 4463 4463 4463 4463 4463 4522 4522 3903 3903 3859 3859 3859 3859 3903 3903 3903 0 0 0 0 0 0 0 0 0 0 0 0
0 0 0 0 0 0 0 0 0 0 0 0 0 0 0 0 0 0 0 0 0 0 0 0 0 0 0 0 0 0 0 4349 4349 4349 4241 4241 4241 4241 4241 4241 4241 4241 4295 4405 4349 4349 4349 4405 4349 4349 4349 4349 4295 4295 4295 4349 4349 4405 4349 4349 4349 4349 4349 4349 4349 4349 4349 4349 4349 4349 4295 4295 4295 4295 4295 4295 4349 4349 4349 4349 4349 4349 4349 4295 4295 4295 4295 4295 4349 4349 4349 4349 4349 4349 4349 4349 4349 4349 4349 4349 4349 4349 4349 4405 2835 2789 2789 2789 2789 2789 2789 2789 2789 2789 2767 2767 2767 2767 2767 2767 2789 2789 2767 2767 2767 2767 2767 2767 2767 2789 2789 2767 2767 2789 2789 2789 2789 2789 2812 2812 1904 1904 1904 1915 1915 1915 1915 1904 1904 1904 1904 1904 1904 1904 1904 1904 1904 1904 1904 1894 1894 1904 1904 1904 1904 1904 1904 1904 1904 1904 1915 1915 1915 1904 1904 1915 1915 1915 1915 1915 1915 1915 1904 1904 1904 1904 1904 1904 1904 1904 1904 1904 1904 1915 1915 1904 1904 1904 1904 1926 1915 1915 1926 1915 1915 1915 1915 1915 1915 1915 1926 1936 1936 1936 1936 1936 1936 1936 1936 1936 1926 1926 1926 1926 1926 1926 1926 1926 1926 1936 1936 1936 1936 1936 1936 1936 1926 1926 1936 1936 1936 1936 1936 1926 1926 1926 1926 1915 1904 1904 1915 1926 1926 1915 1915 1915 1915 1915 1915 1915 1904 1904 1915 1915 1915 1915 1915 1915 1926 1926 1926 1926 1926 1936 1936 1926 1926 1926 1926 1926 1915 1915 1915 1926 1926 1926 1926 1926 1926 1926 1915 1915 1915 1915 1915 1915 1915 1915 1926 1926 1926 1926 1926 1926 1926 1926 1926 1926 1926 1926 1915 1915 1926 1926 1926 1926 1936 1936 1936 1936 1936 1936 1936 1926 1926 1926 1926 1926 1926 1915 1915 1904 1904 1904 1904 1904 1904 1904 1904 1904 1915 1915 1915 1915 1915 1915 1915 1915 1926 1926 1926 1926 1926 1926 1926 1926 1926 1926 1926 1926 1926 1926 1926 1926 1926 1926 1926 1926 1915 1915 1915 1915 1915 1915 1915 1926 1926 1926 1915 1915 1915 1915 1915 1915 1915 1915 1915 1915 1915 1915 1915 1915 1926 1926 1926 1926 1926 1947 1947 1947 1947 1947 1936 1936 1926 1926 1926 1926 1926 1926 1926 1915 1915 1915 1915 1915 1915 1915 1915 1915 1926 1926 1915 1915 1904 1904 1904 1904 1904 1904 1904 1904 1904 1904 1904 1904 1904 1904 1904 1915 1904 1904 1904 1904 1904 1904 1904 1915 1904 1904 1915 1915 1915 1915 1915 1915 1915 1904 1904 1904 1904 1904 1904 1904 1904 1904 1904 1915 1915 1915 1915 1904 1904 1904 1904 1904 1904 1302 1302 1302 1302 1302 1307 1302 1302 1302 1302 1302 1302 1302 1302 1307 1307 1302 1302 1302 3774 3774 3774 3732 3732 3732 3732 3692 3692 3653 3653 3433 3433 3433 3399 3399 3399 3399 3399 3433 3399 3399 3399 3816 3816 3816 3238 3149 3149 3149 3238 3208 3208 3178 3178 3178 3149 3149 3149 3149 3149 3149 3120 3120 3120 3092 3092 3064 3064 3064 3064 3037 3037 3037 3037 3037 3037 3037 3037 3064 3064 3064 3037 3037 3037 3037 3064 3064 3064 3064 3064 3037 3037 3037 3037 3037 3037 3037 3037 3037 3064 3037 3037 3037 3064 3037 3037 3010 3010 3010 3037 3010 3010 3037 3037 3010 3010 3010 3010 3010 3010 3010 3010 3010 3010 3037 3037 3037 3037 3037 3037 4241 4241 4241 4349 4405 4463 4463 4463 4463 4463 4463 4463 3859 3859 3859 3859 3859 3859 3903 3903 3903 0 0 0 0 0 0 0 0 0 0 0 0
0 0 0 0 0 0 0 0 0 0 0 0 0 0 0 0 0 0 0 0 0 0 0 0 0 0 0 0 0 0 0 0 4349 4349 4241 4241 4241 4241 4241 4190 4190 4190 4241 4295 4349 4349 4349 4349 4349 4349 4295 4295 4295 4295 4295 4349 4349 4405 4349 4349 4349 4349 4349 4349 4349 4349 4349 4349 4349 4295 4295 4295 4295 4295 4295 4295 4295 4295 4295 4295 4295 4295 4295 4295 4295 4295 4295 4295 4295 4295 4349 4349 4349 4295 4295 4295 4295 4295 4295 4295 4349 4349 4349 2835 2835 2812 2812 2789 2789 2789 2789 2789 2789 2789 2767 2767 2767 2767 2767 2767 2789 2789 2789 2767 2767 2789 2767 2767 2767 2789 2789 2789 2789 2789 2789 2789 2789 2789 2812 2812 1894 1894 1894 1904 1904 1904 1904 1904 1904 1894 1894 1894 1894 1894 1894 1894 1894 1904 1904 1894 1894 1894 1894 1894 1894 1894 1894 1894 1894 1894 1894 1894 1904 1904 1904 1904 1904 1904 1904 1904 1904 1904 1904 1904 1904 1904 1904 1904 1904 1904 1894 1894 1894 1894 1894 1894 1894 1894 1904 1904 1904 1904 1915 1904 1904 1904 1904 1904 1904 1904 1915 1915 1926 1926 1926 1926 1915 1915 1904 1904 1904 1904 1904 1904 1904 1904 1904 1904 1904 1904 1926 1926 1926 1926 1926 1915 1915 1915 1915 1915 1926 1915 1915 1915 1915 1894 1894 1894 1894 1894 1904 1894 1894 1894 1904 1904 1904 1904 1904 1904 1904 1904 1904 1904 1904 1904 1904 1904 1926 1926 1926 1926 1926 1926 1926 1904 1904 1904 1904 1904 1904 1904 1904 1904 1904 1904 1904 1904 1915 1915 1904 1904 1904 1904 1904 1904 1904 1904 1904 1904 1904 1915 1915 1915 1915 1915 1915 1915 1915 1915 1915 1915 1915 1915 1915 1915 1926 1926 1926 1926 1926 1926 1926 1915 1915 1915 1915 1915 1915 1904 1904 1894 1894 1894 1894 1894 1894 1894 1894 1894 1894 1894 1894 1904 1904 1904 1904 1904 1904 1904 1915 1915 1915 1915 1915 1915 1915 1915 1915 1915 1915 1915 1915 1915 1915 1915 1915 1915 1915 1915 1904 1904 1904 1894 1894 1915 1904 1904 1915 1915 1915 1904 1904 1915 1904 1904 1915 1915 1915 1915 1915 1915 1915 1904 1904 1915 1904 1904 1894 1894 1904 1904 1915 1915 1915 1915 1915 1915 1915 1915 1915 1915 1915 1904 1904 1904 1904 1915 1904 1904 1915 1915 1904 1904 1894 1894 1894 1894 1894 1894 1894 1894 1894 1894 1894 1894 1894 1894 1894 1904 1894 1894 1894 1894 1894 1894 1894 1904 1894 1894 1904 1904 1904 1904 1904 1904 1904 1904 1904 1904 1894 1894 1894 1894 1894 1894 1894 1904 1904 1904 1904 1904 1904 1904 1904 1904 1904 1302 1302 1302 1302 1302 1302 1302 1302 1302 1302 1302 1302 1302 1302 1307 1307 1302 1302 1302 1302 3774 3774 3732 3732 3732 3732 3692 3692 3653 3653 3433 3433 3433 3399 3399 3399 3399 3399 3433 3433 3433 3433 3816 3816 3816 3816 3816 3903 3238 3238 3178 3178 3178 3178 3178 3149 3149 3149 3149 3149 3149 3120 3120 3092 3092 3092 3064 3064 3064 3064 3037 3037 3037 3037 3037 3037 3037 3037 3064 3064 3064 3037 3037 3037 3037 3064 3064 3064 3064 3064 3037 3037 3037 3037 3037 3037 3037 3037 3037 3064 3064 3037 3037 3064 3037 3037 3010 3010 3010 3037 3037 3037 3037 3037 3010 3010 3010 3010 3010 3010 3010 3010 3010 3010 3037 3037 3037 3037 3037 4241 4241 4241 4241 4295 4349 4405 4405 4463 4463 4463 4463 4463 3816 3816 3859 3859 3859 3903 3903 3948 3948 0 0 0 0 0 0 0 0 0 0 0 0
0 0 0 0 0 0 0 0 0 0 0 0 0 0 0 0 0 0 0 0 0 0 0 0 0 0 0 0 0 0 0 0 4295 4295 4190 4190 4190 4190 4190 4139 4139 4190 4241 4295 4349 4349 4349 4349 4349 4349 4295 4295 4295 4295 4295 4295 4349 4349 4349 4349 4349 4349 4295 4295 4295 4295 4295 4295 4295 4295 4295 4295 4295 4295 4295 4295 4295 4295 4295 4295 4295 4295 4241 4241 4241 4241 4241 4295 4295 4295 4295 4295 4349 4295 4295 4295 4295 4295 4295 4295 4295 4295 4405 2835 2835 2812 2812 2789 2789 2789 2789 2789 2789 2789 2789 2789 2789 2789 2789 2789 2789 2789 2789 2789 2789 2789 2767 2767 2789 2789 2789 2789 2789 2789 2812 2812 2812 2812 2812 2812 1883 1883 1883 1894 1894 1883 1883 1883 1883 1883 1883 1883 1883 1883 1883 1894 1894 1894 1894 1883 1883 1894 1894 1883 1883 1883 1883 1883 1883 1883 1883 1883 1894 1894 1894 1894 1894 1894 1894 1894 1894 1894 1894 1894 1894 1894 1894 1894 1894 1904 1894 1894 1894 1894 1894 1883 1883 1883 1894 1894 1904 1904 1894 1894 1894 1894 1883 1883 1883 1894 1894 1904 1904 1904 1904 1904 1904 1904 1894 1894 1894 1894 1894 1894 1904 1894 1894 1894 1894 1894 1904 1894 1894 1894 1894 1894 1894 1894 1894 1894 1894 1894 1904 1904 1904 1894 1894 1883 1883 1883 1883 1883 1883 1883 1894 1894 1894 1894 1894 1894 1894 1894 1894 1894 1894 1894 1894 1894 1904 1904 1894 1894 1894 1915 1904 1894 1894 1894 1894 1894 1894 1894 1894 1904 1904 1904 1904 1904 1904 1904 1894 1894 1894 1894 1894 1894 1894 1894 1894 1894 1894 1904 1904 1904 1904 1904 1904 1904 1904 1904 1904 1904 1904 1904 1904 1904 1904 1915 1915 1915 1904 1904 1915 1904 1904 1904 1904 1904 1904 1894 1894 1883 1883 1894 1894 1894 1883 1883 1883 1883 1883 1883 1883 1883 1883 1894 1894 1894 1894 1894 1894 1894 1894 1894 1904 1904 1904 1904 1904 1904 1915 1904 1904 1904 1915 1915 1915 1904 1904 1904 1894 1894 1894 1894 1894 1894 1894 1894 1894 1894 1904 1904 1904 1904 1894 1894 1904 1904 1904 1904 1904 1904 1904 1894 1894 1894 1894 1894 1883 1883 1894 1894 1894 1894 1894 1904 1904 1904 1904 1894 1894 1894 1894 1894 1894 1873 1873 1894 1894 1894 1894 1894 1894 1883 1883 1883 1894 1883 1883 1883 1883 1883 1883 1883 1883 1883 1883 1883 1883 1894 1894 1894 1894 1894 1894 1894 1894 1894 1894 1894 1894 1904 1894 1894 1894 1894 1894 1894 1894 1894 1883 1883 1883 1883 1894 1894 1894 1894 1894 1894 1904 1894 1894 1894 1904 1904 1302 1302 1302 1302 1302 1302 1302 1302 1302 1302 1302 1302 1302 1302 1307 1307 1307 1302 1302 1302 1302 1302 3732 3732 3732 3732 3732 3692 3653 3503 3503 3433 3433 3433 3433 3433 3433 3433 3433 3433 3433 3468 3774 3816 3816 3816 3816 3816 3816 3732 3732 3149 3149 3149 3149 3149 3149 3149 3149 3149 3149 3149 3120 3120 3092 3092 3092 3064 3064 3064 3064 3037 3037 3037 3037 3037 3037 3064 3064 3064 3064 3064 3064 3064 3064 3064 3064 3064 3064 3064 3064 3064 3037 3037 3064 3064 3064 3064 3064 3064 3064 3064 3064 3064 3064 3064 3037 3010 3010 3037 3037 3037 3037 3037 3037 3037 3010 3010 3010 3010 3010 3010 3010 3010 3010 3037 3037 3037 3037 3037 4241 4241 4241 4241 4295 4349 4349 4405 4405 4405 4405 4405 4405 3816 3816 3859 3859 3859 3903 3903 3948 3994 0 0 0 0 0 0 0 0 0 0 0 0
0 0 0 0 0 0 0 0 0 0 0 0 0 0 0 0 0 0 0 0 0 0 0 0 0 0 0 0 0 0 0 0 4241 4241 4190 4190 4190 4190 4139 4139 4139 4190 4241 4295 4349 4349 4349 4349 4295 4295 4241 4241 4241 4241 4241 4295 4295 4295 4295 4295 4241 4241 4241 4241 4295 4295 4295 4295 4295 4295 4295 4295 4295 4295 4241 4241 4241 4241 4241 4241 4241 4241 4241 4241 4241 4241 4241 4295 4295 4295 4295 4295 4295 4295 4295 4295 4295 4295 4295 4295 4295 4295 2859 2835 2835 2812 2812 2789 2789 2789 2789 2789 2789 2789 2789 2789 2789 2789 2789 2789 2789 2789 2789 2789 2789 2789 2789 2789 2789 2789 2789 2789 2789 2812 2812 2812 2812 2812 2812 2812 1873 1873 1873 1883 1873 1873 1873 1873 1873 1873 1873 1873 1873 1873 1873 1873 1883 1883 1883 1883 1883 1873 1873 1873 1873 1873 1873 1873 1873 1883 1873 1873 1883 1883 1883 1883 1883 1883 1883 1883 1883 1883 1883 1883 1883 1883 1883 1883 1883 1873 1873 1894 1894 1894 1883 1873 1873 1873 1873 1883 1883 1883 1883 1883 1883 1883 1873 1873 1873 1883 1883 1894 1894 1894 1894 1894 1894 1894 1894 1894 1894 1894 1894 1894 1894 1883 1883 1883 1883 1883 1883 1873 1873 1883 1883 1883 1883 1883 1883 1883 1883 1873 1873 1894 1894 1883 1883 1883 1873 1873 1873 1873 1873 1873 1873 1873 1873 1873 1873 1873 1873 1873 1873 1873 1873 1873 1883 1883 1883 1883 1873 1873 1873 1873 1873 1894 1883 1883 1883 1894 1894 1894 1894 1894 1894 1894 1894 1894 1904 1904 1894 1894 1894 1894 1894 1883 1883 1883 1894 1894 1894 1894 1894 1894 1894 1894 1894 1894 1894 1894 1894 1894 1894 1894 1894 1894 1894 1894 1894 1894 1883 1883 1883 1883 1894 1894 1894 1894 1894 1883 1883 1883 1883 1883 1883 1883 1883 1873 1873 1873 1873 1873 1873 1873 1873 1883 1883 1883 1883 1883 1883 1883 1883 1883 1883 1883 1883 1894 1894 1894 1894 1894 1894 1894 1894 1894 1894 1894 1883 1883 1883 1883 1883 1883 1883 1883 1883 1883 1883 1883 1894 1894 1894 1894 1883 1883 1894 1894 1894 1894 1894 1894 1894 1894 1883 1883 1883 1883 1883 1883 1883 1883 1883 1883 1883 1883 1894 1894 1883 1883 1883 1883 1883 1883 1883 1873 1873 1883 1883 1883 1894 1873 1873 1873 1873 1873 1873 1883 1883 1883 1873 1873 1873 1883 1873 1873 1873 1873 1873 1883 1894 1894 1894 1883 1883 1883 1883 1883 1883 1883 1894 1894 1894 1894 1883 1883 1883 1883 1883 1883 1883 1883 1883 1883 1883 1883 1883 1883 1883 1883 1894 1894 1894 1894 1904 1302 1302 1302 1302 1302 1302 1302 1302 1302 1302 1302 1297 1297 1302 1302 1302 1307 1302 1302 1302 1302 1302 1297 1297 1297 3732 3732 3732 3692 3653 3503 3468 3433 3433 3433 3433 3433 3433 3433 3433 3433 3433 3468 3774 3816 3816 3816 3816 3816 3816 3816 3816 3149 3120 3120 3120 3149 3149 3149 3149 3149 3149 3149 3120 3120 3120 3092 3092 3064 3064 3064 3064 3037 3037 3037 3037 3037 3037 3064 3064 3064 3064 3064 3064 3064 3064 3064 3064 3064 3064 3064 3064 3064 3064 3064 3064 3064 3064 3064 3064 3064 3064 3064 3064 3064 3064 3064 3037 3037 3037 3037 3037 3037 3037 3037 3010 3010 3010 3010 3010 3010 3010 3010 3010 3037 3037 3037 3037 3037 3037 3037 4241 4241 4241 4241 4295 4349 4349 4349 4405 4349 4295 4295 4295 3859 3859 3859 3859 3859 3903 3903 3948 3994 0 0 0 0 0 0 0 0 0 0 0 0
0 0 0 0 0 0 0 0 0 0 0 0 0 0 0 0 0 0 0 0 0 0 0 0 0 0 0 0 0 0 0 0 4190 4190 4190 4190 4139 4139 4139 4139 4139 4190 4190 4295 4349 4349 4349 4349 4295 4295 4241 4241 4241 4241 4241 4295 4241 4241 4241 4241 4241 4241 4241 4241 4241 4295 4295 4295 4295 4295 4295 4295 4295 4295 4241 4241 4241 4190 4190 4190 4190 4190 4190 4190 4190 4190 4190 4241 4241 4295 4295 4295 4295 4295 4295 4295 4241 4241 4241 4241 4295 4295 2835 2835 2835 2812 2812 2789 2789 2812 2789 2789 2789 2789 2789 2789 2789 2789 2789 2789 2789 2789 2789 2789 2789 2789 2789 2789 2789 2789 2789 2789 2789 2812 2812 2812 2812 2812 2812 2812 1863 1863 1863 1863 1863 1863 1863 1863 1873 1863 1863 1863 1873 1873 1873 1873 1873 1873 1873 1863 1863 1863 1863 1863 1863 1863 1863 1863 1863 1873 1873 1873 1873 1873 1873 1873 1873 1873 1873 1873 1873 1873 1873 1873 1873 1883 1883 1883 1883 1873 1873 1883 1883 1873 1863 1863 1863 1863 1863 1873 1873 1873 1873 1863 1863 1863 1863 1863 1863 1863 1873 1873 1873 1873 1873 1883 1873 1873 1883 1883 1883 1883 1894 1894 1894 1873 1873 1873 1873 1873 1863 1863 1863 1873 1873 1873 1873 1873 1873 1873 1873 1863 1863 1883 1883 1873 1863 1863 1863 1863 1863 1863 1863 1863 1863 1863 1873 1873 1863 1863 1863 1863 1863 1863 1863 1863 1873 1873 1873 1873 1863 1863 1863 1863 1853 1853 1863 1863 1873 1873 1883 1883 1883 1883 1883 1894 1894 1894 1894 1894 1894 1268 1268 1894 1894 1883 1883 1883 1883 1883 1883 1883 1883 1883 1883 1883 1883 1883 1883 1883 1883 1883 1883 1883 1883 1883 1883 1883 1873 1873 1873 1873 1873 1873 1873 1883 1883 1883 1883 1873 1873 1873 1873 1873 1873 1873 1873 1873 1873 1863 1863 1863 1863 1863 1863 1883 1883 1883 1873 1873 1873 1873 1873 1873 1873 1873 1873 1883 1883 1883 1883 1883 1883 1883 1883 1883 1894 1883 1883 1883 1873 1873 1873 1873 1873 1873 1873 1873 1873 1883 1883 1883 1883 1883 1883 1883 1883 1883 1873 1873 1873 1873 1873 1883 1883 1883 1873 1873 1873 1873 1873 1873 1873 1873 1883 1883 1883 1873 1873 1873 1873 1873 1873 1873 1873 1873 1873 1873 1863 1863 1863 1863 1863 1873 1873 1873 1873 1873 1873 1873 1873 1873 1873 1873 1873 1873 1863 1863 1873 1873 1883 1883 1883 1883 1883 1883 1883 1883 1883 1883 1883 1894 1894 1894 1883 1873 1873 1873 1873 1873 1873 1873 1873 1873 1873 1873 1873 1873 1873 1873 1883 1894 1894 1302 1302 1302 1302 1302 1302 1302 1302 1302 1302 1302 1302 1297 1297 1297 1297 1297 1302 1302 1302 1302 1302 1302 1302 1297 1297 1297 1297 1297 1297 3433 3433 3433 3433 3433 3433 3433 3433 3433 3433 3433 3433 3433 3468 3539 3774 3816 3859 3859 3859 3859 3859 3859 3859 3859 3120 3120 3120 3149 3149 3149 3149 3149 3149 3149 3120 3120 3120 3092 3092 3092 3064 3064 3064 3064 3064 3037 3037 3037 3037 3064 3064 3064 3064 3064 3064 3037 3037 3064 3064 3064 3064 3064 3064 3064 3064 3064 3064 3064 3064 3064 3064 3064 3064 3064 3064 3064 3064 3064 3037 3037 3037 3037 3037 3037 3037 3037 3010 3010 3010 3010 3010 3010 3010 3010 3010 3037 3037 3037 3037 3037 3037 3037 4241 4241 4241 4241 4295 4295 4295 4295 4295 4295 4241 4089 3994 3903 3903 3859 3859 3903 3903 3948 3994 4041 0 0 0 0 0 0 0 0 0 0 0 0
0 0 0 0 0 0 0 0 0 0 0 0 0 0 0 0 0 0 0 0 0 0 0 0 0 0 0 0 0 0 0 4089 4089 4139 4190 4139 4139 4139 4139 4139 4139 4190 4190 4241 4295 4349 4349 4349 4295 4241 4190 4190 4190 4190 4190 4295 4241 4241 4241 4190 4190 4190 4190 4241 4241 4295 4295 4295 4295 4295 4241 4241 4241 4241 4241 4241 4241 4190 4190 4190 4190 4190 4190 4190 4190 4190 4190 4190 4190 4241 4295 4295 4295 4295 4295 4241 4241 4241 4241 4241 4241 4241 2835 2812 2812 2812 2789 2789 2789 2812 2812 2789 2789 2789 2789 2789 2789 2789 2789 2789 2789 2789 2789 2789 2789 2789 2789 2789 2789 2789 2789 2789 2789 2812 2812 2812 2812 2812 2812 2812 1843 1843 1843 1843 1853 1853 1853 1863 1863 1863 1863 1863 1863 1863 1863 1863 1863 1863 1863 1853 1853 1853 1853 1853 1853 1853 1853 1853 1853 1853 1863 1853 1853 1863 1863 1863 1863 1863 1863 1863 1863 1863 1863 1863 1863 1873 1863 1863 1863 1863 1863 1873 1873 1873 1863 1863 1863 1863 1863 1863 1863 1863 1863 1863 1863 1863 1863 1863 1853 1853 1853 1853 1853 1863 1863 1863 1863 1863 1873 1863 1863 1863 1863 1863 1863 1863 1863 1863 1863 1863 1863 1863 1863 1863 1863 1863 1863 1863 1863 1863 1873 1863 1863 1873 1873 1863 1853 1853 1853 1853 1853 1853 1853 1863 1863 1863 1863 1863 1863 1863 1863 1853 1853 1853 1853 1853 1853 1863 1863 1853 1853 1853 1853 1853 1843 1843 1853 1853 1863 1873 1883 1873 1873 1255 1255 1259 1894 1894 1894 1894 1268 1268 1264 1259 1259 1259 1259 1883 1873 1873 1873 1873 1863 1863 1863 1863 1863 1863 1863 1863 1863 1863 1863 1863 1863 1853 1853 1853 1853 1853 1853 1853 1853 1853 1853 1863 1863 1863 1863 1863 1863 1863 1863 1863 1863 1863 1863 1863 1853 1853 1853 1853 1853 1853 1853 1873 1873 1863 1863 1863 1863 1853 1853 1853 1853 1853 1853 1873 1873 1873 1883 1883 1883 1873 1873 1883 1883 1883 1883 1883 1873 1873 1873 1873 1873 1873 1863 1863 1873 1873 1873 1873 1873 1873 1873 1873 1873 1873 1863 1863 1873 1873 1873 1873 1873 1873 1873 1873 1873 1873 1873 1873 1873 1873 1873 1873 1873 1873 1873 1873 1873 1873 1873 1873 1863 1863 1863 1853 1853 1863 1863 1863 1863 1873 1873 1873 1873 1873 1873 1873 1873 1873 1873 1873 1863 1863 1863 1863 1873 1873 1883 1883 1883 1883 1278 1278 1278 1278 1278 1873 1873 1883 1883 1883 1873 1873 1863 1863 1873 1873 1873 1873 1873 1873 1873 1873 1873 1873 1873 1302 1302 1302 1302 1302 1302 1302 1302 1302 1302 1302 1302 1302 1302 1297 1297 1297 1297 1297 1297 1297 1297 1302 1297 1297 1297 1297 1302 1297 1297 1297 1297 1297 0 0 3433 3433 3433 3433 3433 3433 3433 3433 3433 3433 3433 3433 3468 3539 3774 3816 3859 3859 3859 3816 3816 3859 3859 3859 3859 3120 3120 3149 3149 3149 3149 3149 3149 3149 3120 3120 3120 3092 3092 3092 3064 3064 3064 3064 3064 3064 3037 3037 3037 3064 3064 3064 3064 3064 3064 3037 3037 3064 3064 3064 3064 3064 3064 3064 3064 3064 3064 3064 3064 3064 3064 3064 3064 3064 3064 3064 3064 3064 3037 3037 3037 3037 3037 3037 3037 3037 3010 3010 3037 3037 3037 3010 3010 3010 3037 3037 3037 3037 3037 3037 3037 3037 4190 4190 4190 4190 4241 4241 4241 4295 4295 4241 4241 4089 3994 3948 3948 3903 3903 3948 3948 3948 3994 4041 0 0 0 0 0 0 0 0 0 0 0 0
0 0 0 0 0 0 0 0 0 0 0 0 0 0 0 0 0 0 0 0 0 0 0 0 0 0 0 0 0 0 0 4089 4089 4139 4041 4041 4089 4089 4089 4139 4139 4139 4139 4139 4139 4190 4241 4295 4190 4139 4139 4139 4190 4190 4190 4190 4190 4190 4190 4190 4190 4190 4190 4190 4241 4241 4295 4295 4295 4295 4241 4241 4241 4241 4190 4190 4190 4190 4139 4139 4139 4190 4139 4139 4139 4139 4139 4190 4190 4190 4190 4241 4241 4241 4241 4190 4190 4190 4190 4190 4190 4190 2812 2812 2812 2789 2789 2789 2789 2789 2789 2789 2789 2789 2789 2789 2789 2789 2789 2789 2789 2789 2789 2789 2789 2789 2789 2789 2789 2789 2789 2789 2789 2789 2789 2789 2812 2812 2812 2812 1833 1833 1833 1833 1833 1833 1843 1843 1853 1853 1853 1853 1853 1853 1843 1843 1853 1853 1853 1843 1843 1843 1843 1843 1853 1853 1843 1843 1843 1843 1853 1843 1843 1853 1853 1853 1853 1853 1853 1853 1853 1853 1853 1863 1863 1863 1863 1863 1863 1863 1863 1863 1863 1863 1863 1863 1853 1853 1853 1853 1853 1853 1853 1853 1853 1853 1853 1853 1843 1843 1833 1833 1843 1843 1853 1853 1853 1853 1853 1853 1853 1853 1853 1853 1853 1853 1853 1853 1853 1853 1853 1853 1853 1863 1863 1863 1863 1863 1863 1863 1863 1863 1863 1863 1863 1853 1853 1853 1853 1853 1853 1853 1853 1853 1853 1853 1853 1853 1853 1853 1853 1853 1843 1843 1853 1853 1853 1853 1843 1833 1833 1833 1833 1833 1823 1823 1833 1843 1853 1873 1873 1873 1255 1255 1255 1259 1259 1264 1264 1264 1264 1264 1259 1259 1259 1259 1259 1259 1873 1873 1863 1863 1853 1853 1853 1853 1853 1853 1853 1853 1853 1853 1853 1853 1853 1843 1843 1843 1853 1853 1853 1853 1853 1853 1853 1853 1853 1853 1853 1853 1833 1833 1843 1843 1843 1843 1843 1843 1843 1843 1843 1843 1843 1833 1833 1843 1843 1833 1833 1833 1833 1833 1833 1843 1843 1843 1843 1843 1843 1853 1853 1873 1873 1873 1245 1245 1245 1883 1883 1883 1873 1873 1873 1863 1863 1863 1863 1853 1853 1863 1863 1863 1863 1863 1863 1853 1853 1853 1853 1853 1863 1863 1863 1863 1863 1863 1863 1863 1863 1863 1873 1873 1873 1873 1873 1873 1873 1863 1863 1873 1873 1873 1873 1873 1863 1863 1863 1853 1853 1863 1863 1863 1863 1873 1873 1873 1873 1873 1873 1873 1873 1863 1863 1863 1863 1863 1863 1863 1863 1863 1883 1883 1278 1278 1278 1278 1278 1278 1278 1278 1278 1278 1283 1873 1863 1863 1863 1863 1873 1873 1873 1292 1292 1297 1302 1302 1302 1302 1302 1302 1302 1302 1302 1302 1302 1302 1302 1302 1302 1302 1302 1302 1302 1297 1297 1297 1297 1297 1297 1297 1297 1297 1297 1297 1297 1297 1302 1297 1297 1297 1297 1297 0 0 3433 3433 3433 3433 3433 3433 3433 3433 3433 3433 3433 3433 3468 3539 3732 3774 3816 3816 3816 3816 3816 3816 3859 3859 3859 3859 3859 3149 3149 3149 3149 3149 3149 3149 3120 3120 3092 3092 3092 3092 3064 3064 3064 3064 3064 3064 3064 3064 3064 3064 3064 3064 3064 3064 3064 3064 3064 3064 3064 3064 3064 3064 3064 3064 3064 3064 3064 3064 3064 3064 3064 3064 3064 3064 3064 3064 3064 3064 3037 3037 3037 3037 3037 3037 3037 3037 3037 3037 3037 3037 3037 3037 3037 3037 3037 3037 3037 3037 3037 3037 3037 4190 4190 4190 4190 4190 4241 4241 4241 4295 4241 4241 4241 4139 4041 3994 3948 3903 3903 3948 3994 3994 4041 4089 0 0 0 0 0 0 0 0 0 0 0 0
0 0 0 0 0 0 0 0 0 0 0 0 0 0 0 0 0 0 0 0 0 0 0 0 0 0 0 0 0 0 0 4041 4041 4041 4041 4041 4089 4089 4089 4089 4089 4089 4139 4041 4041 4089 4089 4089 4089 4089 4089 4089 4139 4190 4190 4190 4190 4190 4190 4190 4190 4190 4190 4190 4241 4241 4295 4295 4295 4241 4241 4241 4241 4190 4139 4139 4139 4139 4139 4139 4139 4139 4139 4139 4139 4139 4139 4139 4190 4190 4190 4190 4190 4190 4190 4190 4139 4139 4139 4139 4139 4139 2812 2812 2789 2789 2789 2789 2789 2789 2789 2789 2789 2789 2789 2789 2789 2789 2789 2789 2789 2789 2789 2789 2789 2789 2789 2789 2789 2789 2789 2789 2789 2789 2789 2789 2789 2812 2812 2812 1823 1823 1823 1823 1823 1823 1833 1833 1843 1843 1843 1843 1843 1843 1843 1843 1843 1843 1843 1833 1833 1833 1833 1833 1843 1833 1833 1833 1833 1833 1833 1833 1833 1833 1823 1823 1843 1843 1843 1843 1843 1843 1853 1853 1853 1853 1853 1853 1853 1853 1853 1853 1853 1853 1853 1853 1843 1843 1843 1843 1843 1853 1843 1843 1843 1843 1833 1833 1833 1833 1833 1833 1833 1833 1843 1843 1843 1843 1843 1843 1843 1843 1843 1843 1853 1843 1843 1843 1843 1843 1843 1843 1843 1853 1853 1853 1853 1853 1853 1853 1853 1853 1853 1843 1843 1833 1833 1833 1833 1833 1843 1843 1843 1843 1843 1843 1843 1843 1853 1853 1853 1843 1833 1833 1843 1843 1843 1843 1823 1823 1823 1823 1823 1823 1813 1813 1823 1823 1833 1833 1255 1255 1255 1255 1255 1255 1259 1259 1259 1259 1259 1259 1259 1259 1255 1255 1255 1255 1255 1255 1853 1853 1833 1833 1833 1833 1843 1843 1843 1843 1843 1843 1843 1843 1833 1833 1833 1833 1833 1843 1843 1843 1843 1843 1843 1843 1843 1843 1843 1833 1823 1823 1823 1833 1833 1833 1833 1833 1833 1823 1823 1833 1833 1833 1833 1823 1823 1813 1813 1823 1823 1823 1833 1833 1833 1833 1843 1843 1843 1843 1843 1873 1873 1245 1245 1245 1245 1250 1255 1255 1255 1255 1255 1255 1255 1250 1250 1250 1833 1833 1843 1843 1843 1843 1843 1843 1843 1843 1843 1843 1843 1843 1843 1843 1853 1853 1853 1853 1853 1268 1268 1268 1268 1268 1268 1268 1268 1264 1264 1264 1268 1268 1268 1268 1264 1264 1268 1268 1268 1853 1853 1853 1853 1873 1873 1873 1264 1259 1259 1264 1264 1264 1268 1863 1863 1863 1863 1863 1278 1278 1273 1273 1278 1278 1278 1278 1278 1278 1278 1278 1278 1278 1278 1278 1278 1278 1278 1283 1283 1283 1288 1288 1292 1292 1297 1297 1297 1297 1302 1302 1297 1297 1302 1302 1302 1302 1302 1302 1302 1302 1302 1302 1297 1297 1297 1297 1297 1297 1297 1297 1297 1297 1297 1297 1297 1297 1302 1297 1297 1297 1297 1297 0 0 3433 3433 3433 3433 3433 3433 3433 3433 3433 3433 3433 3433 3468 3539 3653 3774 3816 3816 3774 3774 3816 3816 3859 3859 3859 3859 3859 3859 3859 3859 3149 3149 3149 3149 3120 3120 3092 3092 3092 3092 3064 3064 3064 3064 3064 3064 3064 3064 3064 3064 3064 3064 3064 3064 3064 3064 3064 3064 3064 3064 3064 3064 3064 3064 3064 3064 3064 3064 3064 3064 3064 3064 3064 3064 3064 3064 3064 3064 3037 3037 3037 3037 3037 3037 3037 3037 3037 3037 3037 3037 3037 3037 3037 3037 3037 3037 3037 3037 3037 3037 3037 4190 4190 4190 4190 4241 4241 4241 4241 4295 4241 4241 4139 4089 3994 3948 3948 3903 3903 3948 3994 3994 4041 4089 0 0 0 0 0 0 0 0 0 0 0 0
0 0 0 0 0 0 0 0 0 0 0 0 0 0 0 0 0 0 0 0 0 0 0 0 0 0 0 0 0 0 0 3994 3994 4041 3994 3994 4041 3994 3948 3948 3948 3859 3859 3994 3994 4089 4089 4089 4089 4089 4089 4089 4139 4190 4190 4190 4190 4139 4139 4139 4139 4139 4139 4190 4190 4241 4241 4241 4295 4241 4241 4190 4139 4139 4139 4089 4089 4089 4089 4089 4089 4089 4089 4089 4139 4139 4139 4139 4139 4139 4190 4190 4190 4190 4190 4190 4139 4139 4139 4139 3399 3399 3399 3399 2767 2767 2789 2789 2789 2789 2789 2789 2789 2789 2789 2789 2789 2789 2789 2789 2789 2789 2789 2789 2789 2789 2789 2789 2789 2789 2789 2789 2789 2789 2789 2789 2789 2789 2789 2789 1804 1804 1813 1813 1813 1813 1823 1823 1833 1833 1833 1843 1833 1833 1833 1833 1833 1833 1833 1823 1823 1823 1823 1823 1823 1823 1823 1823 1823 1823 1823 1823 1823 1823 1813 1813 1813 1823 1833 1833 1833 1833 1843 1843 1843 1843 1833 1833 1833 1833 1823 1823 1843 1843 1843 1843 1833 1833 1823 1823 1823 1823 1823 1833 1823 1823 1823 1823 1823 1823 1823 1823 1823 1823 1833 1833 1833 1833 1833 1833 1833 1833 1833 1833 1833 1843 1833 1833 1833 1833 1843 1843 1843 1843 1843 1843 1823 1823 1823 1823 1833 1833 1833 1833 1833 1823 1823 1823 1823 1823 1813 1813 1823 1813 1813 1813 1813 1813 1813 1813 1823 1823 1823 1823 1823 1823 1823 1823 1813 1813 1813 1813 1813 1813 1813 1813 1813 1823 1833 1833 1255 1255 1255 1250 1250 1255 1255 1255 1255 1259 1259 1259 1255 1255 1255 1255 1255 1255 1255 1255 1259 1843 1813 1813 1813 1823 1823 1823 1823 1833 1833 1833 1833 1833 1833 1823 1823 1823 1823 1833 1823 1823 1833 1843 1843 1833 1833 1823 1823 1823 1813 1813 1813 1833 1833 1823 1823 1833 1833 1823 1823 1823 1823 1823 1823 1813 1813 1813 1813 1813 1813 1813 1823 1823 1833 1833 1833 1833 1833 1833 1833 1833 1245 1245 1245 1245 1245 1250 1250 1255 1255 1250 1250 1255 1255 1250 1250 1250 1823 1823 1833 1833 1833 1843 1843 1843 1843 1843 1833 1833 1833 1833 1833 1833 1843 1853 1853 1268 1268 1268 1268 1268 1268 1268 1268 1268 1264 1264 1264 1264 1264 1264 1264 1264 1264 1264 1264 1264 1264 1264 1264 1264 1264 1264 1264 1264 1264 1259 1259 1264 1264 1264 1268 1273 1278 1278 1278 1278 1278 1273 1273 1273 1273 1273 1278 1278 1278 1278 1278 1278 1278 1278 1278 1278 1278 1278 1278 1278 1283 1283 1283 1288 1288 1288 1292 1292 1292 1297 1297 1297 1297 1297 1302 1302 1302 1302 1302 1302 1302 1302 1302 1302 1297 1297 1297 1297 1297 1297 1297 1297 1297 1297 1297 1297 1297 1297 1302 1297 1297 1297 1297 1297 0 0 0 3433 3433 3433 3433 3433 3433 3433 3433 3433 3433 3468 3468 3539 3614 3653 3774 3774 3774 3774 3816 3816 3859 3859 3859 3859 3859 3859 3859 3859 3859 3149 3149 3120 3120 3092 3092 3092 3092 3064 3064 3064 3064 3064 3064 3064 3064 3064 3064 3064 3064 3064 3064 3064 3064 3064 3064 3064 3064 3064 3064 3064 3064 3064 3064 3064 3064 3064 3064 3064 3064 3064 3064 3064 3064 3064 3064 3064 3037 3037 3037 3037 3037 3037 3037 3037 3037 3037 3037 3037 3037 3037 3037 3037 3037 3037 3037 3037 3037 3037 3037 3037 4190 4190 4190 4190 4241 4241 4241 4241 4241 4190 4089 4041 3994 3948 3948 3948 3948 3948 3994 4041 4041 0 0 0 0 0 0 0 0 0 0 0 0 0
0 0 0 0 0 0 0 0 0 0 0 0 0 0 0 0 0 0 0 0 0 0 0 0 0 0 0 0 0 0 0 3994 3994 4089 3994 3994 4041 3994 3948 3948 3948 3859 3859 3948 3948 3994 4041 4041 4041 4041 4089 4089 4139 4190 4190 4139 4139 4139 4139 4139 4139 4139 4139 4139 4190 4190 4190 4190 4241 4241 4190 4139 4139 4139 4139 4089 4089 4041 4041 4041 4041 4041 4041 4041 4089 4089 4089 4139 4139 4139 4139 4139 4190 4190 4190 4190 4190 4139 4139 4190 3399 3399 3399 3399 2767 2767 2767 2767 2789 2789 2812 2812 2789 2789 2789 2789 2789 2789 2789 2789 2789 2789 2789 2789 2789 2789 2789 2789 2812 2812 2789 2789 2789 2789 2789 2789 2789 2789 2789 2789 1794 1794 1794 1804 1813 1813 1823 1823 1823 1823 1833 1833 1833 1823 1823 1823 1823 1823 1823 1813 1813 1813 1813 1813 1813 1813 1813 1813 1813 1813 1813 1813 1813 1804 1804 1804 1804 1813 1823 1823 1823 1823 1823 1823 1823 1823 1823 1823 1823 1823 1813 1813 1813 1813 1833 1823 1823 1823 1823 1813 1813 1813 1813 1813 1813 1813 1813 1813 1813 1813 1813 1813 1813 1813 1823 1823 1823 1823 1813 1813 1813 1813 1813 1823 1823 1823 1823 1823 1833 1833 1833 1833 1833 1833 1823 1823 1823 1823 1823 1823 1823 1823 1823 1823 1823 1813 1813 1813 1813 1813 1813 1813 1823 1813 1813 1813 1813 1813 1813 1813 1813 1813 1813 1813 1813 1813 1813 1813 1804 1804 1804 1804 1804 1804 1804 1804 1813 1823 1823 1250 1250 1250 1255 1250 1250 1255 1255 1255 1255 1255 1255 1255 1255 1255 1255 1255 1255 1255 1255 1255 1259 1804 1804 1804 1804 1813 1813 1813 1813 1823 1833 1833 1823 1823 1813 1804 1804 1813 1813 1813 1813 1813 1823 1823 1823 1813 1813 1813 1813 1813 1804 1804 1804 1813 1813 1813 1813 1813 1813 1813 1813 1804 1804 1804 1804 1804 1804 1804 1804 1804 1804 1813 1813 1823 1823 1823 1833 1823 1823 1823 1833 1833 1245 1245 1245 1245 1245 1250 1250 1250 1250 1250 1250 1250 1250 1250 1250 1250 1255 1259 1833 1833 1833 1833 1833 1843 1843 1843 1833 1823 1823 1823 1823 1833 1843 1255 1255 1264 1264 1264 1268 1268 1268 1268 1268 1268 1264 1264 1264 1264 1259 1259 1264 1264 1264 1264 1264 1264 1264 1264 1264 1264 1264 1264 1264 1264 1264 1259 1259 1264 1264 1264 1268 1273 1273 1273 1273 1273 1273 1273 1273 1273 1273 1273 1278 1278 1273 1273 1278 1278 1278 1278 1278 1278 1278 1278 1278 1278 1283 1283 1283 1283 1283 1283 1288 1288 1288 1292 1292 1292 1297 1297 1297 1297 1302 1302 1302 1302 1302 1302 1302 1302 1302 1302 1302 1297 1297 1297 1297 1297 1297 1297 1297 1297 1297 1297 1302 1297 1297 1297 1292 1292 1292 0 3433 3433 3433 3433 3433 3433 3433 3433 3433 3433 3468 3468 3468 3539 3614 3653 3732 3774 3774 3774 3816 3816 3859 3859 3859 3859 3859 3859 3859 3859 3859 3859 3149 3120 3120 3092 3092 3092 3092 3064 3064 3064 3064 3064 3064 3064 3064 3064 3064 3064 3064 3064 3064 3064 3064 3064 3064 3064 3064 3064 3064 3064 3092 3064 3064 3064 3092 3092 3092 3092 3092 3092 3064 3064 3064 3064 3064 3064 3037 3037 3037 3064 3037 3037 3037 3037 3037 3037 3037 3037 3037 3037 3037 3037 3037 3037 3037 3037 3064 3037 3037 3037 4089 4190 4190 4190 4190 4241 4241 4241 4190 4089 4041 4041 3994 3948 3948 3948 3948 3994 3994 4041 4041 0 0 0 0 0 0 0 0 0 0 0 0 0
0 0 0 0 0 0 0 0 0 0 0 0 0 0 0 0 0 0 0 0 0 0 0 0 0 0 0 0 0 0 0 4139 4139 4139 4041 4041 4041 3994 3948 3948 3948 3859 3859 3903 3948 3994 4041 4041 3994 3994 3994 4089 4139 4139 4139 4139 4089 4089 4089 4089 4089 4089 4089 4089 4139 4139 4139 4139 4190 4190 4139 4089 4089 4089 4089 4041 4041 4041 4041 4041 3994 3994 3994 3994 4041 4041 4089 4089 4089 4139 4139 4089 4089 4139 4089 4089 4139 3300 3300 3333 3333 3333 3365 3365 3365 2744 2744 2767 2789 2789 2812 2812 2812 2812 2812 2812 2812 2812 2789 2789 2789 2789 2789 2789 2789 2789 2789 2789 2812 2812 2789 2789 2789 2789 2789 2789 2767 2767 2767 1794 1794 1794 1794 1794 1794 1804 1813 1813 1813 1823 1823 1823 1823 1813 1813 1804 1804 1804 1804 1804 1794 1794 1794 1804 1794 1794 1794 1804 1804 1804 1804 1794 1794 1794 1794 1794 1794 1813 1813 1813 1813 1813 1813 1813 1823 1813 1813 1813 1813 1813 1813 1813 1813 1813 1813 1813 1813 1813 1813 1804 1804 1804 1804 1804 1813 1804 1804 1813 1813 1804 1804 1813 1813 1813 1813 1813 1813 1813 1804 1804 1804 1804 1804 1804 1804 1813 1813 1813 1823 1823 1823 1823 1833 1823 1823 1823 1813 1813 1813 1813 1823 1823 1823 1823 1823 1813 1813 1813 1813 1813 1813 1813 1813 1813 1804 1804 1804 1813 1813 1813 1813 1813 1813 1813 1804 1804 1804 1804 1804 1804 1804 1804 1804 1804 1804 1804 1813 1250 1250 1255 1250 1250 1255 1250 1250 1255 1255 1255 1255 1255 1255 1255 1255 1255 1255 1255 1255 1255 1255 1255 1259 1785 1785 1785 1785 1804 1804 1804 1804 1813 1813 1813 1804 1804 1804 1804 1794 1794 1794 1794 1804 1804 1804 1813 1813 1804 1804 1813 1813 1804 1794 1794 1794 1804 1804 1804 1804 1804 1804 1804 1804 1794 1794 1794 1794 1794 1794 1794 1794 1794 1804 1804 1813 1813 1813 1823 1813 1804 1804 1823 1823 1245 1245 1241 1241 1245 1245 1245 1250 1250 1250 1245 1245 1245 1250 1250 1250 1250 1255 1259 1268 1268 1833 1833 1833 1833 1843 1843 1813 1804 1804 1823 1823 1823 1259 1255 1255 1264 1264 1264 1264 1268 1268 1268 1268 1268 1264 1264 1264 1264 1259 1259 1264 1264 1264 1264 1264 1264 1264 1264 1264 1264 1264 1264 1264 1264 1264 1264 1264 1264 1264 1264 1268 1273 1273 1268 1268 1268 1273 1273 1273 1273 1273 1278 1278 1278 1273 1273 1273 1278 1278 1278 1278 1278 1278 1278 1278 1278 1283 1283 1283 1283 1283 1283 1288 1288 1288 1288 1292 1292 1292 1292 1297 1297 1302 1302 1302 1302 1302 1302 1302 1302 1302 1302 1302 1297 1297 1297 1302 1302 1302 1302 1302 1302 1297 1297 1302 1302 1297 1297 1292 1292 1292 0 3433 3433 3433 3433 3433 3433 3433 3433 3433 3468 3468 3503 3539 3576 3614 3653 3692 3732 3732 3774 3816 3816 3859 3859 3859 3859 3859 3859 3859 3816 3816 3816 3816 3120 3092 3092 3092 3092 3064 3064 3064 3064 3064 3064 3064 3064 3064 3064 3064 3064 3064 3064 3064 3064 3064 3064 3064 3064 3064 3064 3064 3092 3092 3064 3064 3064 3092 3092 3092 3092 3092 3092 3092 3092 3064 3064 3064 3064 3037 3037 3037 3064 3037 3037 3037 3037 3037 3037 3037 3037 3037 3037 3037 3037 3064 3064 3064 3064 3064 3064 3064 3064 4089 4089 4089 4089 4089 4190 4139 4139 4089 4089 4041 3994 3994 3948 3948 3948 3948 3994 3994 4041 0 0 0 0 0 0 0 0 0 0 0 0 0 0
0 0 0 0 0 0 0 0 0 0 0 0 0 0 0 0 0 0 0 0 0 0 0 0 0 0 0 0 0 0 0 4089 4089 4139 4139 4089 3994 3948 3948 3903 3903 3859 3859 3859 3948 3994 4041 4041 3994 3994 3994 4089 4139 4089 4089 4139 4089 4089 4089 4089 4089 4089 4089 4089 4139 4139 4139 4139 4139 4139 4089 4041 4041 4041 4041 4041 4041 4041 3994 3994 3994 3994 3994 3994 3994 4041 4041 4089 4089 4089 4089 4089 4089 4089 4089 4089 4139 3300 3300 3300 3333 3333 3333 3333 3333 2744 2744 2767 2789 2812 2812 2812 2812 2812 2812 2812 2812 2812 2789 2789 2789 2789 2812 2789 2789 2812 2812 2812 2812 2812 2789 2789 2812 2789 2789 2789 2767 1804 1804 1794 1785 1785 1794 1794 1794 1794 1794 1804 1804 1804 1813 1813 1804 1804 1804 1804 1794 1794 1804 1794 1785 1785 1785 1785 1785 1785 1785 1785 1785 1794 1785 1776 1776 1776 1785 1785 1785 1794 1813 1813 1813 1813 1813 1813 1813 1804 1804 1804 1794 1794 1794 1785 1785 1785 1804 1804 1804 1804 1804 1794 1794 1794 1794 1794 1794 1794 1794 1794 1804 1804 1804 1804 1804 1804 1804 1804 1804 1804 1804 1794 1794 1804 1804 1804 1804 1804 1804 1813 1813 1813 1813 1813 1823 1823 1813 1813 1813 1813 1813 1813 1813 1823 1823 1823 1823 1813 1813 1813 1813 1813 1813 1813 1813 1804 1804 1794 1794 1804 1804 1804 1804 1804 1804 1804 1804 1794 1794 1794 1794 1804 1804 1804 1804 1804 1804 1255 1255 1250 1250 1255 1250 1250 1250 1250 1250 1250 1250 1250 1250 1255 1255 1255 1255 1255 1255 1255 1255 1255 1255 1259 1259 1776 1776 1785 1785 1794 1794 1794 1794 1794 1794 1794 1785 1785 1785 1785 1785 1785 1785 1785 1794 1794 1794 1804 1804 1794 1794 1794 1794 1794 1785 1785 1794 1794 1794 1794 1794 1794 1794 1794 1785 1785 1794 1794 1794 1794 1794 1794 1794 1794 1794 1794 1794 1804 1804 1804 1804 1804 1804 1804 1245 1245 1245 1241 1241 1245 1245 1245 1245 1245 1245 1245 1245 1245 1245 1245 1250 1250 1250 1255 1264 1264 1264 1268 1833 1833 1843 1250 1250 1804 1255 1255 1255 1255 1259 1259 1259 1264 1264 1264 1264 1268 1268 1268 1268 1264 1264 1264 1264 1264 1259 1259 1264 1264 1264 1264 1264 1264 1264 1264 1264 1264 1264 1264 1264 1264 1264 1264 1264 1264 1264 1268 1268 1268 1273 1268 1268 1268 1268 1268 1268 1273 1273 1278 1278 1273 1273 1273 1273 1278 1278 1278 1278 1278 1278 1278 1278 1278 1283 1283 1283 1283 1283 1283 1288 1288 1288 1288 1288 1292 1292 1292 1297 1297 1302 1302 1302 1302 1302 1302 1302 1302 1302 1302 1302 1302 1302 1302 1302 1302 1302 1302 1302 1302 1302 1302 1302 1302 1302 1302 1722 1739 1739 0 3399 3399 3399 3433 3399 3399 3399 3433 3433 3468 3503 3539 3539 3576 3614 3653 3653 3732 3732 3774 3816 3859 3859 3859 3859 3859 3859 3859 3859 3816 3816 3816 3816 3816 3092 3064 3064 3064 3064 3064 3064 3064 3064 3064 3064 3064 3064 3064 3064 3064 3064 3064 3064 3064 3064 3064 3064 3064 3064 3064 3064 3092 3092 3064 3064 3064 3092 3092 3092 3092 3092 3092 3092 3092 3064 3064 3064 3064 3037 3037 3037 3064 3692 3037 3037 3037 3037 3037 3037 3037 3037 3037 3037 3037 3064 3064 3064 3064 3064 3064 3064 4041 4041 4089 4041 4041 4089 4139 4139 4139 4089 4041 3994 3994 3994 3948 3948 3948 3948 3948 3948 3994 0 0 0 0 0 0 0 0 0 0 0 0 0 0
0 0 0 0 0 0 0 0 0 0 0 0 0 0 0 0 0 0 0 0 0 0 0 0 0 0 0 0 0 0 0 4089 4089 4139 4089 3994 3994 3948 3948 3903 3903 3859 3859 3859 3948 3994 3994 3994 3994 3994 4041 4041 4089 4041 4041 4139 4089 4089 4089 4089 4089 4041 4041 4089 4089 4089 4089 4089 4089 4089 4089 4041 4041 4041 4041 4041 4041 3994 3994 3994 3948 3948 3948 3948 3948 3994 4041 4041 4089 4089 4089 4089 4089 4089 4089 4089 4139 3300 3300 3300 3300 3333 3333 3333 3333 3333 2789 2789 2812 2812 2812 2812 2812 2812 2812 2812 2812 2812 2812 2812 2812 2812 2812 2812 2812 2812 2812 2812 2812 2812 2789 2789 2812 2789 2789 2789 2789 1766 1766 1766 1766 1766 1785 1785 1785 1785 1785 1785 1785 1794 1794 1794 1804 1794 1794 1794 1794 1794 1794 1785 1776 1776 1776 1776 1776 1776 1776 1785 1785 1785 1776 1776 1776 1776 1776 1776 1776 1776 1785 1785 1804 1804 1804 1794 1794 1794 1794 1794 1776 1776 1785 1785 1776 1776 1785 1785 1785 1785 1785 1785 1785 1785 1785 1785 1785 1785 1785 1785 1794 1794 1794 1794 1804 1804 1804 1804 1804 1804 1804 1794 1794 1804 1794 1794 1794 1794 1794 1804 1794 1794 1813 1219 1219 1219 1219 1219 1804 1804 1813 1813 1813 1823 1823 1823 1823 1813 1813 1804 1804 1804 1813 1813 1813 1236 1236 1236 1236 1236 1241 1241 1245 1250 1785 1785 1794 1794 1794 1794 1794 1804 1804 1804 1804 1804 1250 1250 1255 1250 1250 1250 1250 1250 1250 1250 1250 1250 1250 1250 1250 1250 1250 1250 1250 1255 1255 1255 1255 1255 1255 1255 1255 1776 1776 1776 1776 1785 1785 1785 1785 1785 1785 1785 1776 1776 1776 1785 1776 1776 1785 1785 1785 1794 1785 1785 1785 1785 1785 1785 1785 1785 1776 1776 1785 1785 1785 1785 1785 1776 1776 1776 1776 1776 1776 1776 1785 1785 1785 1785 1785 1785 1785 1794 1785 1785 1794 1794 1804 1804 1804 1804 1245 1245 1245 1241 1241 1245 1245 1245 1245 1245 1245 1245 1245 1245 1245 1245 1245 1245 1250 1250 1259 1259 1259 1264 1264 1259 1255 1250 1250 1259 1255 1255 1255 1255 1259 1259 1259 1264 1264 1264 1264 1268 1268 1268 1268 1264 1264 1264 1264 1264 1264 1264 1264 1264 1264 1264 1264 1264 1264 1264 1264 1264 1264 1264 1264 1264 1264 1264 1264 1264 1264 1264 1268 1268 1273 1268 1268 1268 1268 1268 1268 1273 1273 1278 1278 1273 1273 1273 1273 1278 1278 1278 1278 1278 1278 1278 1278 1283 1283 1283 1283 1283 1283 1288 1288 1288 1288 1288 1288 1292 1297 1297 1297 1297 1302 1302 1302 1302 1302 1302 1302 1302 1302 1302 1302 1302 1302 1302 1302 1302 1302 1302 1302 1302 1302 1302 1302 1302 1302 1302 1731 1731 1731 1722 3399 3399 3399 3399 3399 3399 3399 3399 3433 3503 3503 3576 3576 3614 3614 3614 3653 3653 3732 3774 3816 3859 3859 3859 3859 3859 3859 3859 3859 3816 3816 3816 3816 3816 3816 3064 3064 3064 3064 3064 3064 3064 3064 3064 3064 3064 3064 3064 3064 3064 3064 3092 3092 3064 3064 3064 3064 3064 3468 3468 3468 3614 3653 3614 3614 3653 3653 3692 3149 3149 3692 3692 3692 3692 3692 3692 3692 3692 3692 3692 3692 3692 3692 3064 3064 3064 3064 3064 3064 3064 3064 3064 3064 3064 3064 3064 3064 3064 3064 3064 3064 4041 4041 4089 4041 4041 4089 4139 4041 4041 4041 4041 3994 3948 3948 3948 3948 3948 3948 3948 3948 3994 3994 0 0 0 0 0 0 0 0 0 0 0 0 0
0 0 0 0 0 0 0 0 0 0 0 0 0 0 0 0 0 0 0 0 0 0 0 0 0 0 0 0 0 0 0 4041 4041 4041 3994 3994 3994 3948 3948 3903 3903 3903 3903 3903 3948 3948 3994 3994 3994 3994 4041 4041 4089 3994 3994 4089 4089 4089 4089 4089 4089 4041 4041 4041 4041 4041 4041 4041 4041 4041 3994 3994 3994 3994 3994 3994 3994 3994 3994 3994 3948 3948 3948 3948 3948 3948 3994 4041 4089 4089 4089 4089 4089 4089 4089 4089 3300 3300 3300 3300 3300 3333 3333 3333 3333 3333 2789 2789 2812 2812 2812 2812 2812 2812 2812 2812 2812 2812 2812 2812 2812 2812 2812 2812 2812 2812 2812 2812 2812 2812 2812 2812 2812 2812 2789 2789 1757 1748 1748 1748 1748 1748 1757 1766 1766 1766 1766 1766 1776 1766 1766 1766 1794 1794 1785 1776 1776 1785 1785 1776 1766 1766 1766 1766 1766 1776 1776 1776 1776 1776 1776 1776 1776 1776 1776 1776 1776 1766 1766 1785 1785 1785 1776 1776 1776 1785 1776 1776 1776 1776 1776 1776 1776 1776 1776 1785 1785 1785 1785 1776 1776 1776 1776 1776 1776 1776 1776 1785 1785 1785 1794 1794 1794 1794 1794 1794 1804 1785 1785 1785 1785 1794 1794 1794 1794 1794 1794 1223 1223 1223 1223 1219 1219 1219 1219 1219 1223 1223 1804 1804 1813 1813 1813 1813 1813 1804 1804 1804 1804 1804 1804 1232 1232 1232 1232 1236 1236 1236 1236 1236 1241 1245 1250 1250 1250 1250 1250 1245 1245 1245 1250 1250 1250 1250 1250 1250 1255 1250 1250 1250 1250 1250 1250 1250 1250 1250 1250 1250 1250 1250 1250 1250 1250 1255 1255 1255 1255 1255 1255 1255 1255 1757 1757 1766 1766 1766 1776 1776 1776 1766 1766 1766 1766 1766 1776 1776 1776 1776 1776 1776 1776 1776 1776 1776 1776 1776 1776 1776 1776 1776 1766 1766 1776 1776 1776 1766 1766 1766 1766 1766 1766 1766 1766 1766 1766 1776 1785 1785 1785 1776 1776 1776 1776 1776 1785 1785 1794 1794 1794 0 1245 1245 1245 1241 1241 1245 1241 1241 1245 1245 1245 1245 1245 1245 1245 1245 1245 1245 1250 1250 1259 1259 1259 1264 1264 1259 1255 1255 1255 1259 1259 1259 1259 1259 1264 1259 1259 1264 1264 1264 1264 1264 1264 1268 1268 1264 1264 1264 1264 1264 1264 1264 1264 1264 1264 1264 1264 1264 1264 1264 1264 1264 1264 1264 1264 1264 1264 1264 1264 1264 1264 1264 1268 1268 1268 1268 1268 1268 1268 1268 1268 1273 1273 1278 1278 1273 1273 1273 1278 1278 1278 1278 1278 1278 1283 1283 1283 1283 1283 1283 1283 1283 1283 1288 1288 1292 1292 1292 1292 1292 1297 1297 1297 1302 1302 1302 1302 1302 1302 1302 1302 1302 1302 1302 1302 1302 1302 1302 1302 1302 1302 1302 1302 1302 1302 1302 1302 1302 1302 1302 1731 1731 1722 1722 1722 1713 1713 3399 3399 3399 3399 3399 3433 3468 3503 3539 3576 3576 3614 3614 3614 3653 3692 3732 3859 3903 3903 3903 3903 3903 3903 3859 3859 3859 3859 3859 3859 3859 3859 3064 3064 3064 3064 3064 3064 3064 3064 3064 3064 3064 3064 3064 3064 3064 3064 3092 3576 3576 3539 3539 3468 3468 3503 3539 3576 3614 3653 3614 3614 3653 3653 3692 3149 3149 3692 3692 3692 3732 3692 3692 3692 3692 3692 3692 3692 3653 3653 3653 3692 3064 3064 3064 3064 3064 3064 3064 3064 3064 3064 3064 3064 3064 3092 3092 3092 4041 4041 4041 4041 4041 4041 4089 4041 4041 4041 4041 3994 3948 3948 3948 3948 3948 3948 3948 3948 3948 3994 0 0 0 0 0 0 0 0 0 0 0 0 0
0 0 0 0 0 0 0 0 0 0 0 0 0 0 0 0 0 0 0 0 0 0 0 0 0 0 0 0 0 0 0 3994 3994 3948 3948 3948 3948 3948 3948 3948 3948 3948 3903 3903 3948 3948 3994 3994 3994 3994 3994 4041 4041 3994 3994 4041 4041 4041 4041 4041 4041 3994 3994 4041 4041 4041 4041 3994 3994 4041 3994 3994 3994 3994 3994 3994 3948 3948 3948 3948 3948 3948 3948 3903 3903 3948 3994 4041 4041 4041 4089 4089 4089 4089 4089 3300 3300 3300 3300 3300 3300 3300 3300 3300 3300 3300 2812 2812 2812 2812 2812 2812 2812 2812 2812 2812 2812 2812 2812 2812 2835 2835 2835 2835 2835 2835 2835 2835 2835 2835 2812 2812 2812 2835 2835 1748 1748 1739 1739 1739 1739 1739 1739 1757 1748 1748 1748 1757 1757 1766 1766 1766 1794 1181 1181 1185 1189 1193 1202 1202 1202 1202 1766 1766 1766 1766 1766 1757 1757 1757 1757 1757 1757 1757 1757 1757 1757 1757 1766 1766 1776 1766 1766 1766 1766 1776 1776 1776 1766 1766 1766 1766 1766 1766 1776 1776 1785 1785 1776 1776 1776 1776 1776 1776 1776 1776 1776 1776 1785 1785 1785 1785 1776 1776 1776 1776 1766 1766 1776 1785 1785 1794 1794 1794 1794 1223 1219 1219 1223 1223 1223 1223 1219 1219 1223 1223 1223 1223 1223 1227 1232 1232 1232 1236 1813 1804 1804 1804 1804 1232 1232 1232 1232 1232 1232 1236 1236 1236 1236 1236 1241 1245 1245 1250 1250 1250 1250 1245 1245 1245 1250 1250 1250 1250 1250 1250 1255 1250 1250 1250 1250 1250 1250 1250 1250 1250 1250 1250 1250 1250 1250 1255 1255 1255 1255 1255 1255 1255 1255 1259 1259 1748 1757 1757 1757 1766 1766 1766 1766 1766 1766 1766 1766 1766 1766 1766 1766 1766 1776 1766 1766 1776 1766 1766 1766 1766 1766 1766 1766 1766 1757 1757 1757 1757 1757 1757 1757 1757 1757 1757 1757 1757 1757 1757 1766 1766 1766 1766 1766 1766 1766 1766 1766 1766 1776 1776 1785 1794 1794 0 1245 1245 1245 1241 1241 1245 1241 1241 1245 1245 1245 1245 1245 1245 1245 1245 1245 1245 1250 1250 1259 1264 1264 1264 1264 1259 1255 1255 1255 1259 1259 1259 1259 1259 1264 1259 1259 1264 1264 1264 1264 1264 1264 1264 1264 1264 1264 1264 1264 1264 1264 1264 1264 1264 1264 1264 1264 1268 1264 1264 1264 1264 1264 1264 1264 1264 1264 1264 1264 1264 1264 1268 1268 1268 1268 1268 1268 1268 1273 1268 1268 1273 1273 1278 1278 1278 1278 1278 1278 1278 1278 1278 1278 1278 1283 1283 1283 1283 1283 1288 1288 1288 1288 1292 1292 1292 1292 1292 1292 1292 1297 1297 1297 1302 1302 1302 1302 1302 1302 1302 1302 1302 1302 1302 1302 1302 1302 1307 1307 1307 1307 1307 1307 1307 1307 1307 1307 1307 1302 1302 1731 1722 1722 1722 1713 1713 1713 1713 1713 1713 1713 1713 3433 3468 3503 3539 3576 3576 3614 3614 3614 3653 3653 3692 3859 3903 3948 3948 3948 3948 3903 3903 3859 3859 3859 3859 3859 3859 3859 3064 3064 3064 3064 3064 3064 3064 3064 3064 3064 3064 3064 3064 3064 3653 3614 3576 3576 3576 3576 3539 3503 3503 3539 3539 3576 3653 3653 3614 3614 3692 3692 3732 3774 3692 3692 3732 3732 3732 3692 3692 3692 3692 3692 3692 3692 3653 3653 3653 3692 3064 3064 3092 3092 3064 3064 3064 3064 3064 3064 3064 3064 3064 3064 3064 3092 4041 4041 3994 3994 4041 4041 4041 4041 4041 4041 4041 3994 3948 3948 3948 3948 3948 3948 3948 3948 3948 3994 3994 0 0 0 0 0 0 0 0 0 0 0 0
0 0 0 0 0 0 0 0 0 0 0 0 0 0 0 0 0 0 0 0 0 0 0 0 0 0 0 0 0 0 0 3994 3994 3948 3948 3948 3948 3948 3948 3948 3948 3948 3948 3948 3948 3948 3994 3994 3994 3994 3994 3994 3994 3948 3948 3994 3994 3994 3994 3994 3994 3994 3994 3994 3994 3994 3994 3994 3994 4041 3994 3948 3948 3948 3948 3948 3948 3948 3948 3948 3948 3948 3948 3903 3903 3948 3948 3994 3994 3994 4041 4041 4089 4089 3269 3269 3269 3269 3269 3269 3269 3300 3300 3269 3269 3269 3300 2812 2812 2812 2812 2812 2812 2812 2812 2812 2812 2812 2812 2812 2835 2835 2835 2835 2835 2835 2835 2835 2835 2835 2812 2812 2835 2835 2835 1731 1731 1731 1722 1722 1731 1731 1731 1731 1731 1739 1739 1739 1757 1766 1766 1189 1189 1181 1181 1185 1189 1193 1193 1193 1197 1197 1197 1197 1757 1757 1748 1748 1748 1748 1748 1748 1748 1748 1748 1748 1739 1739 1748 1748 1748 1748 1748 1757 1757 1757 1757 1757 1757 1757 1757 1757 1757 1766 1776 1776 1776 1776 1776 1776 1766 1766 1766 1766 1757 1757 1766 1776 1776 1776 1785 1785 1776 1776 1776 1776 1766 1766 1223 1223 1219 1219 1219 1223 1223 1223 1219 1219 1223 1223 1223 1223 1223 1223 1223 1223 1223 1223 1223 1227 1232 1232 1232 1236 1232 1232 1236 1236 1236 1232 1232 1232 1232 1232 1232 1236 1236 1236 1236 1241 1241 1245 1245 1245 1245 1245 1250 1245 1245 1245 1250 1250 1250 1250 1250 1250 1255 1255 1255 1255 1250 1250 1250 1250 1250 1250 1250 1250 1250 1250 1250 1255 1255 1255 1255 1255 1255 1255 1259 1259 1259 1739 1748 1748 1748 1757 1757 1757 1757 1757 1757 1757 1757 1757 1766 1766 1766 1766 1766 1757 1757 1757 1757 1757 1757 1757 1757 1757 1757 1757 1748 1748 1748 1748 1748 1748 1748 1748 1748 1748 1748 1748 1748 1757 1757 1757 1757 1757 1757 1757 1757 1757 1757 1757 1766 1766 1766 1766 1766 0 1245 1245 1245 1241 1241 1245 1241 1241 1241 1245 1245 1245 1245 1245 1245 1245 1245 1245 1250 1250 1259 1259 1259 1264 1264 1264 1259 1259 1259 1259 1259 1259 1259 1259 1264 1259 1259 1264 1264 1264 1264 1264 1264 1264 1264 1264 1264 1264 1264 1264 1264 1264 1264 1264 1264 1268 1268 1268 1264 1264 1264 1264 1264 1264 1264 1264 1264 1264 1264 1264 1264 1268 1268 1273 1273 1273 1273 1273 1273 1273 1273 1278 1278 1278 1278 1278 1278 1278 1278 1278 1278 1278 1283 1283 1283 1283 1283 1283 1288 1288 1288 1292 1292 1292 1292 1297 1292 1292 1297 1297 1297 1297 1302 1302 1302 1302 1302 1302 1302 1302 1302 1302 1307 1307 1307 1307 1307 1307 1307 1307 1307 1307 1307 1312 1307 1307 1307 1307 1302 1302 1731 1722 1713 1713 1713 1713 1713 1713 1705 1705 1713 1713 3433 3468 3503 3539 3576 3576 3614 3614 3614 3614 3653 3692 3692 3948 3948 3948 4089 3948 3948 3948 3903 3859 3859 3859 3859 3859 3092 3064 3064 3064 3064 3064 3064 3064 3064 3092 3092 3092 3092 3064 3064 3653 3576 3576 3576 3539 3539 3539 3539 3539 3539 3539 3576 3653 3653 3653 3653 3692 3732 3774 3774 3774 3732 3732 3732 3732 3732 3732 3732 3692 3692 3692 3692 3653 3653 3692 3692 3653 3092 3092 3092 3064 3064 3064 3064 3064 3064 3064 3064 3010 3010 3064 4041 3994 3994 3994 3994 3994 4041 4041 3994 3994 3994 3994 3994 3948 3948 3948 3948 3948 3994 3994 3994 3994 3994 3994 0 0 0 0 0 0 0 0 0 0 0 0
0 0 0 0 0 0 0 0 0 0 0 0 0 0 0 0 0 0 0 0 0 0 0 0 0 0 0 0 0 0 0 3994 3994 3948 3948 3994 3948 3948 3948 3948 3948 3948 3948 3948 3948 3948 3994 3948 3948 3948 3948 3948 3948 3948 3948 3948 3994 3994 3994 3994 3994 3994 3994 3994 3994 3994 3994 3994 3994 3994 3948 3948 3948 3948 3948 3948 3948 3948 3948 3948 3948 3948 3948 3903 3903 3948 3948 3948 3994 3994 4041 4041 4089 4089 3269 3269 3269 3269 3269 3238 3238 3269 3269 3269 3269 3269 3269 2812 2812 2812 2812 2812 2812 2812 2812 2812 2812 2812 2812 2812 2835 2835 2835 2835 2835 2835 2835 2835 2835 2835 2835 2835 2835 2835 2835 1722 1722 1722 1722 1722 1731 1731 1722 1722 1722 1731 1731 1731 1757 1757 1189 1189 1189 1189 1189 1189 1189 1193 1193 1193 1193 1193 1193 1193 1193 1757 1748 1748 1748 1739 1739 1739 1739 1739 1739 1739 1731 1731 1739 1739 1739 1739 1739 1748 1748 1739 1739 1739 1748 1748 1748 1748 1757 1757 1766 1766 1766 1776 1219 1219 1214 1214 1210 1210 1210 1210 1214 1214 1214 1214 1219 1214 1214 1214 1214 1214 1214 1214 1219 1219 1219 1219 1219 1223 1223 1223 1223 1223 1223 1223 1227 1223 1223 1223 1223 1223 1223 1223 1227 1232 1232 1232 1232 1232 1232 1232 1232 1232 1236 1232 1232 1232 1232 1232 1236 1236 1236 1236 1236 1241 1241 1245 1245 1245 1245 1245 1245 1245 1245 1250 1250 1250 1250 1250 1250 1250 1255 1255 1255 1255 1255 1250 1250 1250 1250 1250 1250 1250 1250 1250 1250 1255 1255 1255 1255 1255 1255 1255 1255 1255 1255 1739 1739 1739 1739 1748 1748 1748 1748 1748 1748 1748 1748 1757 1757 1757 1757 1757 1757 1748 1748 1748 1748 1748 1748 1748 1748 1748 1748 1748 1739 1739 1739 1739 1739 1739 1739 1739 1739 1739 1739 1739 1739 1748 1748 1748 1748 1748 1748 1748 1748 1748 1748 1748 1748 1748 1757 1757 1722 0 1250 1241 1241 1241 1241 1245 1241 1241 1241 1245 1245 1245 1245 1245 1245 1245 1245 1245 1250 1250 1259 1259 1259 1264 1264 1264 1259 1259 1259 1259 1259 1259 1259 1259 1264 1259 1259 1264 1264 1264 1264 1264 1264 1264 1264 1264 1264 1264 1264 1264 1264 1264 1264 1264 1268 1268 1268 1268 1264 1264 1264 1264 1264 1264 1264 1264 1264 1264 1264 1264 1268 1268 1273 1273 1273 1273 1273 1273 1278 1278 1278 1278 1278 1278 1278 1278 1278 1278 1283 1283 1283 1283 1283 1283 1283 1283 1288 1288 1288 1292 1292 1292 1292 1297 1297 1297 1297 1297 1297 1297 1297 1302 1302 1302 1302 1302 1302 1307 1307 1307 1307 1307 1307 1307 1307 1307 1307 1307 1312 1312 1312 1312 1312 1312 1312 1312 1307 1307 1302 1302 1731 1722 1713 1713 1713 1713 1713 1713 1705 1705 1713 1713 1696 1696 1696 1696 3576 3576 3576 3614 3614 3614 0 0 3614 0 0 0 4089 4089 4041 3948 3903 3903 3903 3903 3903 3903 3092 3064 3064 3064 3092 3092 3092 3092 3092 3092 3092 3092 3092 3092 3692 3653 3576 3576 3539 3539 3539 3539 3539 3539 3539 3539 3576 3653 3692 3732 3732 3774 3774 3859 3903 3903 3774 3774 3816 3816 3774 3774 3732 3732 3732 3692 3692 3692 3692 3692 3692 3064 3064 3092 3092 3092 3064 3064 3064 3064 3037 3037 3037 3010 3010 3010 3994 3994 3994 3994 3994 3994 3994 3994 3994 3994 3994 3994 3948 3948 3903 3903 3948 3948 3994 3994 3994 3994 3994 3994 0 0 0 0 0 0 0 0 0 0 0 0
