0 0 0 0 0 0 0 0 0 0 0 0 0 0 0 0 0 0 0 0 0 0 0 0 0 0 0 0 0 0 0 3576 3576 3576 3576 3576 3576 3539 3539 3503 3503 3539 3539 3539 3576 3576 3576 3576 3576 3576 3576 3576 3576 3576 3539 3539 3539 3539 3539 3576 3576 3576 3576 3576 3614 3614 3614 3614 3614 3614 3576 3576 3576 3576 3576 3576 3576 3576 3576 3576 3576 3576 3614 3614 3576 3576 3614 3614 3614 3614 3539 3539 3576 3576 3539 3539 3576 3576 3576 3614 3614 3614 3614 3614 3614 3614 3576 3576 3576 3576 3539 3539 3576 3539 3539 3503 3399 3269 3269 3238 3238 3238 3269 3269 3365 3539 3576 3576 3614 3614 3614 3653 3653 3653 3692 2883 2883 2883 2883 2908 2883 2883 2883 2883 2883 2883 2883 2883 2883 2883 2883 2883 2883 2883 2883 2883 2859 2859 2859 2859 2859 2859 2859 2859 2859 2883 2883 2883 2883 2883 2883 2883 2883 2883 2883 2908 2933 2933 2933 2933 2933 2958 2958 2958 2958 2958 0 1557 1564 1564 1564 1564 1572 1579 1579 1579 1579 1579 1579 1579 1572 1572 1572 1572 1579 1579 1579 1572 1572 1579 1579 1579 1579 1579 1579 1579 1579 1579 1579 1586 1579 1579 1579 1579 1579 1572 1572 1572 1214 1214 1214 1210 1210 1210 1210 1210 1210 1214 1214 1214 1214 1214 1219 1219 1223 1223 1223 1227 1227 1223 1223 1223 1223 1223 1223 1223 1227 1227 1227 1227 1227 1227 1232 1232 1232 1232 1232 1232 1232 1232 1232 1236 1236 1236 1236 1236 1236 1236 1236 1236 1236 1236 1236 1236 1241 1241 1245 1245 1245 1245 1250 1250 1250 1250 1250 1250 1250 1250 1250 1255 1255 1255 1255 1255 1255 1259 1259 1264 1264 1264 1264 1264 1268 1268 1268 1268 1273 1273 1273 1273 1278 1278 1278 1278 1283 1278 1278 1278 1278 1283 1283 1283 1288 1283 1283 1283 1288 1288 1288 1288 1292 1292 1292 1292 1297 1297 1297 1297 1302 1302 1302 1302 1302 1302 1302 1302 1302 1302 1302 1302 1302 1307 1307 1307 1307 1312 1312 1312 1579 1579 1579 1579 1579 1586 1586 1586 1586 1586 1586 1586 1586 1586 1586 1586 1586 1579 1579 1579 1586 1586 1579 1579 1586 1586 1586 1594 1594 1586 1586 1586 1586 1586 1586 1586 1586 1594 1594 1594 1594 1594 1594 1594 1594 1594 1594 1586 1586 1586 1586 1586 1586 1586 1586 1579 1579 1579 1579 1302 1302 1302 1297 1297 1292 1292 1292 1288 1288 1292 1292 1292 1297 1297 1297 1297 1297 1297 1297 1297 1297 1297 1302 1302 1302 1302 1307 1307 1307 1579 1572 1572 1317 1317 1317 1317 1317 1317 1317 1572 1572 1572 1572 1572 1572 1572 1572 1572 1586 1579 1579 1579 1307 1307 1273 1264 1264 1579 1579 1579 1579 1579 1579 1579 1579 1579 1579 1579 1579 1586 1586 1586 1579 1579 1579 1579 1579 1579 1579 1579 1579 1579 1579 1579 1572 1572 1572 1572 1572 1572 1572 1579 1579 1579 1572 1572 1572 1579 1579 1579 1579 1579 1586 1586 1586 1586 1376 1376 1370 1370 1370 1359 1359 1359 1359 1359 1359 1359 1359 1359 1359 1365 1365 1370 1376 1586 1586 1586 1586 1586 1586 1586 1586 1586 1594 1594 1594 1601 1601 1601 1601 1601 1609 1609 1609 1609 1609 1609 1609 1609 1609 1609 1609 1609 1609 1616 1616 1616 1609 1609 1609 1609 0 0 0 0 0 0 0 3692 3692 3653 3653 3653 3149 3149 3149 3149 3149 3149 3149 3120 3120 3149 3149 3149 3149 3178 3539 3539 3576 3576 3576 3576 3576 3576 3576 3576 3576 3576 0 0 0 0 0 0 0 0 0 0 0 0
0 0 0 0 0 0 0 0 0 0 0 0 0 0 0 0 0 0 0 0 0 0 0 0 0 0 0 0 0 0 0 3539 3539 3539 3539 3576 3539 3539 3539 3503 3503 3503 3503 3539 3539 3539 3539 3539 3539 3539 3539 3539 3539 3539 3539 3539 3539 3539 3539 3539 3539 3539 3576 3576 3614 3614 3614 3614 3614 3614 3539 3539 3539 3539 3539 3539 3539 3539 3539 3539 3539 3539 3539 3576 3539 3539 3576 3576 3576 3614 3539 3539 3576 3576 3539 3539 3539 3576 3576 3576 3576 3576 3576 3614 3576 3576 3576 3576 3539 3539 3539 3539 3539 3539 3503 3503 3468 3300 3269 3238 3238 3238 3269 3269 3365 3503 3576 3576 3614 3614 3614 3653 3653 3653 2883 2883 2883 2883 2883 2908 2908 2908 2883 2883 2883 2883 2883 2883 2883 2883 2883 2883 2883 2883 2883 2883 2859 2859 2859 2859 2859 2859 2859 2859 2883 2883 2883 2883 2883 2883 2883 2883 2883 2883 2883 2908 2933 2933 2933 2933 2958 2958 2958 2958 2958 0 0 0 1557 1557 1557 1564 1564 1564 1564 1564 1572 1572 1572 1564 1564 1564 1564 1564 1564 1564 1564 1564 1564 1572 1572 1572 1572 1572 1579 1579 1579 1572 1572 1579 1572 1572 1572 1572 1572 1572 1572 1572 1214 1214 1214 1214 1210 1210 1210 1214 1214 1214 1214 1214 1219 1219 1219 1223 1223 1223 1227 1227 1227 1223 1223 1223 1223 1223 1223 1223 1227 1227 1227 1232 1232 1232 1232 1232 1232 1232 1232 1232 1232 1232 1232 1236 1236 1236 1236 1236 1236 1236 1236 1236 1241 1241 1241 1241 1241 1245 1245 1250 1250 1250 1250 1250 1250 1250 1250 1255 1255 1255 1255 1255 1255 1255 1255 1259 1259 1259 1264 1264 1264 1264 1264 1264 1268 1268 1268 1268 1273 1273 1273 1273 1278 1278 1278 1278 1283 1278 1278 1278 1278 1283 1283 1283 1288 1283 1283 1283 1288 1288 1288 1288 1292 1292 1292 1292 1297 1297 1297 1297 1302 1302 1302 1302 1302 1307 1302 1302 1302 1302 1302 1307 1307 1307 1307 1307 1312 1312 1312 1317 1317 1572 1572 1572 1572 1572 1572 1572 1572 1572 1579 1579 1579 1579 1579 1579 1579 1572 1572 1572 1572 1572 1572 1572 1579 1579 1579 1586 1586 1579 1579 1579 1579 1579 1579 1579 1579 1586 1586 1586 1586 1586 1586 1586 1586 1586 1586 1586 1579 1579 1579 1579 1579 1579 1579 1572 1572 1572 1572 1307 1307 1302 1302 1297 1297 1292 1292 1292 1292 1292 1297 1297 1297 1297 1297 1297 1297 1297 1297 1297 1297 1297 1302 1302 1302 1302 1307 1572 1572 1572 1564 1564 1564 1564 1564 1564 1564 1564 1564 1572 1572 1572 1572 1564 1564 1572 1572 1572 1572 1564 1564 1564 1564 1564 1564 1264 1264 1564 1564 1564 1564 1564 1564 1564 1564 1564 1572 1572 1572 1579 1579 1579 1564 1564 1564 1564 1564 1564 1564 1564 1564 1557 1557 1557 1557 1557 1557 1564 1564 1564 1564 1572 1572 1572 1572 1572 1572 1572 1572 1579 1572 1572 1579 1579 1586 1376 1376 1376 1370 1370 1370 1359 1359 1359 1359 1359 1359 1359 1359 1359 1365 1365 1370 1370 1376 1586 1586 1586 1586 1586 1586 1586 1586 1586 1594 1594 1594 1601 1601 1601 1609 1609 1609 1609 1609 1609 1609 1609 1609 1609 1609 1609 1609 1609 1609 1616 1616 1616 1609 1601 1601 0 0 0 0 0 0 0 0 3653 3653 3653 3653 3653 3149 3149 3149 3149 3149 3149 3149 3149 3149 3149 3149 3149 3149 3149 3539 3539 3539 3539 3539 3539 3539 3576 3576 3576 3576 3576 0 0 0 0 0 0 0 0 0 0 0 0
0 0 0 0 0 0 0 0 0 0 0 0 0 0 0 0 0 0 0 0 0 0 0 0 0 0 0 0 0 0 0 3503 3503 3503 3503 3503 3503 3503 3503 3468 3468 3503 3503 3503 3503 3503 3539 3539 3539 3503 3503 3503 3503 3503 3503 3503 3503 3503 3503 3503 3503 3503 3539 3539 3576 3576 3576 3576 3539 3539 3503 3503 3503 3503 3503 3539 3539 3539 3539 3539 3539 3539 3539 3539 3539 3539 3576 3576 3576 3576 3576 3539 3539 3539 3539 3539 3539 3539 3539 3539 3539 3539 3539 3539 3539 3539 3539 3539 3503 3503 3503 3503 3539 3503 3503 3468 3468 3300 3300 3269 3269 3269 3269 3269 3365 3503 3576 3576 3614 3614 3614 3614 3614 3614 2883 2883 2883 2908 2908 2908 2908 2908 2908 2908 2883 2883 2883 2883 2883 2883 2883 2883 2883 2908 2883 2883 2859 2859 2859 2859 2859 2859 2883 2883 2883 2883 2883 2883 2883 2883 2883 2883 2883 2883 2883 2908 2933 2933 2933 2933 2958 2958 2958 2958 2958 0 0 0 1557 1557 1557 1557 1557 1557 1557 1557 1564 1564 1564 1557 1557 1557 1557 1557 1557 1557 1557 1557 1557 1564 1564 1564 1564 1564 1572 1572 1564 1564 1564 1564 1557 1557 1564 1564 1564 1564 1564 1564 1214 1214 1214 1214 1214 1214 1214 1214 1219 1219 1219 1219 1219 1219 1223 1223 1227 1227 1227 1227 1227 1223 1223 1223 1223 1223 1223 1227 1227 1227 1227 1232 1232 1232 1232 1232 1232 1232 1232 1232 1232 1236 1236 1236 1236 1236 1236 1236 1241 1241 1241 1241 1241 1241 1241 1241 1241 1245 1245 1250 1250 1250 1250 1250 1250 1250 1255 1255 1255 1255 1255 1255 1255 1255 1255 1259 1259 1264 1264 1268 1264 1264 1268 1268 1268 1268 1268 1268 1273 1273 1278 1278 1278 1278 1278 1278 1283 1283 1278 1278 1278 1283 1283 1283 1288 1283 1283 1283 1288 1557 1557 1550 1550 1557 1557 1297 1297 1297 1297 1297 1302 1307 1307 1307 1307 1307 1307 1307 1307 1307 1307 1307 1307 1307 1312 1312 1312 1312 1317 1317 1317 1322 1564 1564 1564 1564 1564 1564 1564 1564 1572 1572 1572 1572 1572 1572 1572 1572 1572 1572 1572 1572 1572 1572 1572 1572 1572 1579 1579 1572 1572 1572 1572 1572 1572 1572 1572 1572 1572 1572 1572 1579 1579 1579 1579 1579 1579 1579 1572 1572 1572 1564 1564 1564 1564 1564 1564 1564 1564 1312 1307 1307 1302 1302 1297 1297 1297 1292 1292 1292 1297 1297 1297 1297 1297 1297 1297 1297 1297 1297 1297 1297 1302 1302 1564 1564 1564 1564 1564 1564 1564 1564 1557 1557 1557 1557 1557 1557 1557 1564 1564 1564 1564 1564 1564 1564 1564 1564 1564 1564 1564 1564 1564 1564 1564 1564 1564 1557 1557 1557 1557 1557 1564 1564 1564 1564 1564 1564 1564 1564 1564 1564 1557 1557 1557 1557 1557 1557 1557 1557 1557 1557 1557 1557 1557 1557 1557 1557 1557 1564 1564 1564 1564 1564 1557 1557 1564 1564 1564 1564 1564 1564 1572 1572 1572 1376 1376 1376 1370 1370 1370 1365 1365 1359 1359 1359 1359 1359 1365 1365 1365 1365 1370 1376 1594 1594 1586 1586 1586 1586 1586 1586 1594 1594 1594 1601 1601 1609 1609 1609 1609 1609 1609 1609 1609 1609 1609 1609 1609 1609 1609 1609 1609 1609 1609 1616 1616 1616 1609 1601 1601 0 0 0 0 0 0 3576 3576 3614 3614 3614 3614 3614 3149 3149 3149 3149 3149 3149 3149 3149 3149 3149 3149 3149 3149 3149 3539 3539 3539 3539 3539 3539 3539 3539 3539 3539 3539 3576 0 0 0 0 0 0 0 0 0 0 0 0
0 0 0 0 0 0 0 0 0 0 0 0 0 0 0 0 0 0 0 0 0 0 0 0 0 0 0 0 0 0 0 3503 3503 3503 3468 3468 3468 3468 3468 3468 3468 3503 3503 3503 3503 3503 3503 3503 3503 3503 3503 3503 3503 3503 3503 3468 3468 3468 3468 3468 3468 3503 3503 3503 3503 3539 3539 3503 3503 3503 3503 3468 3468 3503 3503 3503 3503 3503 3503 3503 3503 3503 3503 3503 3503 3539 3539 3539 3539 3539 3503 3503 3503 3503 3503 3503 3503 3503 3503 3539 3539 3539 3539 3539 3539 3539 3539 3539 3503 3503 3503 3503 3503 3503 3468 3433 3333 3238 3238 3238 3238 3238 3238 3269 3333 3468 3539 3576 3614 3614 3614 3614 3614 3614 2883 2883 2908 2908 2908 2908 2933 2908 2908 2908 2883 2883 2883 2883 2883 2908 2883 2883 2883 2908 2883 2883 2859 2859 2859 2859 2859 2859 2883 2883 2883 2883 2883 2883 2883 2883 2883 2883 2908 2883 2883 2908 2933 2933 2933 2933 2933 2933 2958 2958 2958 0 0 0 1550 1550 1557 1557 1557 1557 1557 1557 1557 1557 1557 1557 1557 1557 1557 1557 1557 1557 1557 1557 1557 1557 1557 1557 1557 1557 1557 1557 1557 1557 1557 1557 1557 1557 1557 1557 1557 1557 1557 1564 1564 1214 1214 1214 1214 1214 1214 1214 1219 1219 1219 1219 1219 1223 1223 1223 1227 1227 1232 1232 1232 1227 1227 1223 1223 1227 1227 1227 1232 1232 1232 1232 1232 1232 1236 1236 1236 1236 1236 1236 1236 1236 1236 1236 1236 1236 1241 1241 1241 1241 1241 1241 1245 1245 1245 1245 1245 1250 1250 1250 1250 1250 1255 1255 1255 1255 1255 1255 1255 1255 1255 1255 1255 1255 1259 1259 1259 1264 1264 1268 1264 1264 1268 1268 1268 1268 1268 1268 1273 1273 1278 1278 1278 1278 1278 1283 1283 1283 1278 1278 1278 1283 1283 1283 1288 1288 1543 1550 1550 1550 1550 1550 1550 1550 1550 1543 1543 1550 1550 1557 1557 1312 1307 1307 1312 1312 1312 1307 1307 1307 1307 1307 1312 1312 1312 1312 1312 1317 1317 1317 1317 1322 1564 1564 1557 1557 1557 1557 1557 1557 1564 1564 1564 1564 1564 1564 1564 1564 1564 1564 1564 1564 1564 1564 1564 1564 1564 1572 1572 1572 1572 1572 1572 1572 1564 1564 1564 1564 1564 1564 1564 1564 1564 1564 1564 1572 1572 1564 1564 1557 1557 1557 1557 1557 1557 1557 1557 1564 1317 1312 1307 1307 1302 1302 1297 1297 1297 1297 1297 1297 1297 1297 1297 1297 1297 1297 1297 1297 1297 1297 1297 1297 1543 1550 1557 1557 1557 1557 1557 1557 1557 1557 1557 1557 1557 1557 1550 1550 1550 1550 1550 1557 1557 1557 1557 1557 1557 1557 1557 1557 1557 1557 1557 1557 1557 1557 1557 1557 1557 1557 1557 1557 1557 1557 1557 1557 1557 1557 1557 1557 1557 1557 1550 1550 1550 1550 1550 1550 1557 1557 1557 1557 1557 1557 1557 1557 1557 1557 1557 1557 1557 1557 1557 1557 1557 1557 1557 1557 1564 1564 1564 1564 1572 1572 1572 1381 1376 1376 1376 1370 1370 1365 1365 1365 1365 1365 1365 1365 1365 1365 1365 1365 1370 1376 1594 1594 1586 1586 1586 1586 1594 1594 1594 1594 1594 1601 1601 1609 1609 1609 1609 1609 1616 1616 1609 1609 1616 1609 1609 1616 1616 1609 1609 1616 1616 1616 1616 1616 1616 1616 0 0 0 3576 3539 3539 3539 3539 3576 3576 3576 3576 3576 3576 3149 3149 3149 3149 3149 3149 3149 3149 3149 3149 3149 3149 3149 3539 3539 3539 3539 3539 3539 3539 3539 3539 3539 3539 3539 3539 0 0 0 0 0 0 0 0 0 0 0 0
0 0 0 0 0 0 0 0 0 0 0 0 0 0 0 0 0 0 0 0 0 0 0 0 0 0 0 0 0 0 0 3468 3468 3468 3433 3433 3433 3433 3433 3433 3468 3468 3468 3468 3468 3503 3503 3503 3503 3503 3503 3468 3468 3468 3468 3468 3468 3468 3468 3468 3468 3468 3468 3468 3503 3503 3503 3503 3503 3503 3468 3468 3468 3468 3468 3503 3503 3503 3503 3503 3503 3503 3503 3503 3503 3503 3539 3539 3539 3503 3503 3503 3503 3503 3468 3468 3503 3503 3503 3503 3503 3539 3539 3503 3503 3503 3539 3539 3503 3503 3503 3503 3503 3468 3433 3399 3300 3238 3238 3238 3238 3238 3238 3269 3333 3365 3539 3576 3576 3576 3576 3576 3576 3576 3576 2908 2908 2908 2908 2908 2908 2908 2908 2908 2883 2883 2883 2883 2883 2908 2883 2883 2883 2883 2883 2883 2859 2859 2859 2859 2859 2859 2859 2859 2883 2883 2883 2883 2883 2883 2883 2883 2883 2883 2883 2908 2908 2933 2933 2933 2933 2933 2958 2958 2958 0 0 0 1550 1550 1550 1550 1550 1550 1550 1550 1550 1550 1550 1550 1550 1550 1550 1550 1550 1550 1550 1550 1550 1550 1550 1550 1543 1536 1536 1543 1543 1543 1543 1543 1550 1550 1550 1550 1550 1550 1557 1564 1219 1214 1214 1219 1214 1214 1214 1219 1219 1219 1219 1219 1223 1223 1223 1223 1227 1232 1232 1232 1232 1227 1227 1227 1227 1227 1227 1232 1232 1232 1232 1232 1232 1232 1236 1236 1236 1236 1236 1236 1236 1236 1236 1236 1236 1241 1241 1241 1241 1245 1245 1245 1245 1245 1245 1245 1250 1250 1250 1250 1250 1250 1255 1255 1255 1255 1255 1255 1255 1255 1255 1255 1255 1259 1259 1259 1259 1264 1264 1268 1268 1268 1268 1268 1268 1273 1268 1268 1273 1273 1278 1278 1283 1283 1283 1283 1283 1283 1278 1278 1283 1283 1543 1536 1536 1543 1543 1543 1543 1543 1543 1543 1543 1543 1543 1543 1543 1543 1543 1543 1543 1317 1312 1312 1312 1312 1312 1307 1307 1307 1307 1307 1312 1312 1312 1312 1317 1317 1317 1322 1322 1322 1557 1557 1550 1550 1550 1550 1550 1550 1550 1557 1557 1564 1557 1557 1557 1557 1557 1557 1557 1557 1557 1557 1557 1557 1557 1557 1564 1564 1564 1564 1564 1564 1557 1557 1557 1557 1557 1557 1557 1557 1557 1564 1564 1557 1557 1550 1543 1543 1543 1543 1543 1543 1543 1550 1550 1550 1317 1317 1312 1307 1307 1302 1297 1297 1297 1297 1297 1297 1297 1302 1302 1302 1302 1302 1297 1297 1297 1297 1529 1536 1536 1543 1543 1543 1550 1550 1550 1550 1550 1550 1550 1550 1550 1543 1543 1543 1543 1543 1543 1543 1543 1550 1550 1550 1550 1557 1557 1557 1557 1557 1557 1557 1557 1550 1550 1550 1550 1550 1557 1557 1557 1557 1557 1557 1557 1557 1557 1550 1550 1550 1543 1543 1550 1550 1550 1550 1550 1550 1550 1550 1550 1557 1557 1557 1557 1557 1557 1557 1557 1557 1557 1557 1557 1557 1557 1557 1564 1564 1564 1564 1572 1572 1381 1381 1381 1381 1376 1376 1370 1365 1365 1365 1365 1365 1365 1370 1370 1370 1376 1376 1376 1601 1601 1601 1601 1601 1601 1601 1594 1594 1601 1601 1601 1609 1609 1616 1609 1609 1616 1616 1616 1616 1616 1616 1616 1616 1616 1616 1616 1616 1616 1616 1616 1616 1616 1616 1624 0 0 0 0 3576 3539 3539 3539 3539 3539 3539 3539 3539 3539 3120 3120 3149 3149 3149 3149 3149 3149 3149 3149 3149 3149 3149 3468 3468 3503 3503 3503 3503 3503 3468 3468 3539 3539 3503 3503 3539 0 0 0 0 0 0 0 0 0 0 0 0
0 0 0 0 0 0 0 0 0 0 0 0 0 0 0 0 0 0 0 0 0 0 0 0 0 0 0 0 0 0 0 3468 3468 3433 3433 3433 3433 3433 3433 3433 3433 3468 3468 3468 3468 3468 3468 3468 3468 3468 3468 3468 3468 3468 3468 3433 3433 3433 3433 3433 3433 3468 3468 3468 3468 3468 3503 3468 3468 3468 3433 3433 3433 3433 3433 3468 3468 3468 3468 3468 3468 3468 3503 3503 3503 3503 3503 3503 3503 3503 3503 3503 3503 3503 3468 3468 3468 3468 3503 3503 3503 3503 3503 3503 3503 3503 3503 3503 3503 3503 3503 3503 3468 3433 3433 3399 3300 3269 3238 3238 3238 3238 3269 3269 3333 3365 3468 3539 3576 3576 3576 3576 3576 3576 3576 3576 2958 2908 2908 2908 2908 2908 2908 2908 2883 2883 2883 2883 2883 2908 2883 2883 2883 2883 2883 2883 2859 2859 2859 2859 2859 2859 2859 2859 2883 2883 2883 2883 2883 2883 2883 2883 2883 2883 2883 2908 2908 2933 2933 2933 2933 2933 2958 2958 2958 2958 0 1550 1550 1550 1550 1550 1550 1550 1550 1550 1543 1543 1543 1543 1543 1543 1543 1543 1543 1543 1543 1543 1543 1543 1536 1536 1536 1536 1536 1536 1536 1536 1536 1536 1543 1543 1543 1543 1543 1543 1543 1543 1219 1219 1219 1219 1219 1219 1219 1219 1219 1219 1219 1219 1223 1223 1223 1227 1232 1232 1232 1236 1236 1232 1232 1232 1232 1232 1232 1232 1232 1232 1232 1236 1236 1236 1236 1236 1236 1236 1236 1236 1236 1236 1236 1236 1241 1241 1241 1245 1245 1245 1245 1245 1245 1245 1245 1245 1250 1250 1250 1250 1250 1250 1255 1255 1255 1255 1255 1255 1255 1255 1255 1255 1259 1259 1259 1264 1264 1264 1264 1268 1268 1268 1268 1268 1268 1273 1273 1523 1523 1523 1523 1523 1523 1523 1529 1529 1529 1529 1536 1536 1536 1536 1536 1536 1536 1536 1536 1536 1536 1543 1536 1536 1536 1536 1536 1536 1536 1536 1536 1536 1328 1322 1317 1317 1312 1312 1312 1307 1307 1307 1307 1307 1312 1312 1312 1317 1317 1317 1322 1322 1322 1322 1543 1550 1550 1550 1550 1543 1543 1550 1550 1550 1550 1557 1550 1550 1550 1550 1550 1550 1550 1550 1550 1550 1550 1550 1550 1550 1557 1557 1557 1557 1557 1557 1543 1543 1543 1550 1550 1550 1550 1550 1550 1550 1550 1550 1550 1543 1536 1536 1536 1536 1536 1536 1536 1543 1543 1543 1317 1317 1312 1307 1307 1302 1302 1297 1297 1297 1297 1297 1302 1302 1302 1302 1302 1302 1302 1302 1529 1529 1536 1536 1536 1536 1536 1536 1543 1543 1543 1543 1543 1543 1543 1543 1536 1536 1536 1536 1536 1536 1536 1536 1543 1543 1543 1543 1543 1550 1550 1550 1550 1550 1550 1550 1550 1550 1550 1550 1550 1550 1550 1550 1557 1557 1557 1557 1557 1557 1557 1550 1550 1550 1543 1543 1543 1550 1550 1550 1550 1550 1550 1550 1550 1557 1557 1557 1557 1557 1557 1557 1557 1557 1557 1557 1557 1557 1564 1564 1564 1572 1572 1572 1579 1579 1381 1381 1381 1381 1376 1376 1370 1370 1370 1365 1365 1365 1370 1370 1370 1376 1376 1376 1376 1392 1601 1601 1601 1601 1601 1601 1601 1601 1609 1609 1609 1609 1609 1616 1616 1616 1616 1616 1616 1616 1616 1616 1616 1616 1616 1624 1624 1624 1624 1624 1624 1624 1624 1624 0 1624 0 0 3539 3539 3539 3539 3539 3539 3539 3539 3539 3539 3539 3120 3120 3149 3149 3149 3149 3149 3149 3149 3149 3149 3149 3149 3468 3468 3503 3503 3468 3468 3503 3468 3468 3503 3503 3503 3503 3539 0 0 0 0 0 0 0 0 0 0 0 0
0 0 0 0 0 0 0 0 0 0 0 0 0 0 0 0 0 0 0 0 0 0 0 0 0 0 0 0 0 0 0 3433 3433 3433 3433 3433 3433 3433 3433 3433 3433 3433 3433 3433 3433 3468 3468 3433 3433 3433 3468 3468 3468 3468 3468 3433 3433 3433 3433 3433 3433 3468 3468 3468 3468 3468 3468 3468 3468 3468 3433 3433 3433 3433 3433 3433 3433 3468 3468 3468 3468 3468 3468 3468 3468 3468 3468 3468 3468 3468 3468 3468 3468 3468 3468 3468 3468 3468 3468 3468 3468 3468 3503 3503 3468 3468 3468 3468 3468 3468 3468 3468 3468 3433 3433 3399 3333 3269 3238 3238 3238 3238 3269 3269 3333 3333 3433 3539 3539 3539 3576 3539 3539 3539 3539 3576 2958 2958 2933 2933 2933 2933 2908 2908 2883 2883 2883 2883 2908 2908 2908 2883 2883 2883 2883 2883 2859 2859 2859 2859 2859 2859 2859 2883 2883 2883 2883 2883 2883 2883 2883 2908 2883 2883 2883 2908 2933 2933 2933 2933 2933 2933 2933 2933 2933 0 0 0 1543 1529 1529 1529 1543 1536 1536 1536 1536 1536 1536 1536 1536 1529 1529 1529 1529 1529 1529 1529 1529 1529 1529 1529 1529 1529 1529 1529 1529 1529 1529 1529 1536 1536 1536 1536 1536 1536 1536 1536 1219 1219 1219 1219 1219 1219 1219 1219 1219 1223 1223 1223 1223 1223 1227 1227 1232 1232 1236 1236 1236 1232 1232 1232 1232 1232 1232 1236 1236 1236 1236 1236 1236 1236 1236 1236 1236 1236 1241 1241 1241 1241 1241 1241 1241 1241 1241 1241 1245 1245 1245 1250 1245 1245 1250 1250 1250 1250 1250 1250 1250 1250 1255 1255 1255 1255 1255 1255 1255 1255 1255 1259 1259 1259 1523 1523 1523 1523 1523 1268 1268 1523 1523 1523 1523 1523 1523 1523 1523 1523 1523 1523 1523 1523 1529 1529 1529 1523 1523 1523 1523 1523 1529 1529 1529 1529 1529 1529 1536 1536 1536 1536 1536 1529 1529 1529 1529 1529 1523 1523 1328 1328 1322 1322 1317 1312 1312 1307 1307 1312 1312 1312 1312 1312 1317 1317 1322 1322 1322 1322 1322 1536 1536 1543 1543 1543 1543 1543 1543 1543 1543 1543 1543 1543 1543 1543 1543 1543 1543 1543 1543 1543 1543 1543 1543 1543 1543 1543 1543 1543 1543 1550 1550 1543 1543 1543 1543 1543 1543 1543 1543 1543 1543 1550 1543 1543 1543 1543 1536 1536 1536 1536 1536 1529 1529 1536 1536 1536 1317 1317 1312 1312 1307 1302 1302 1302 1302 1297 1297 1302 1302 1302 1302 1302 1302 1307 1302 1302 1529 1529 1529 1529 1529 1529 1536 1536 1536 1536 1536 1536 1536 1536 1536 1536 1536 1536 1536 1536 1536 1536 1536 1536 1536 1543 1543 1543 1543 1543 1543 1543 1543 1543 1543 1543 1543 1543 1543 1543 1550 1550 1550 1550 1557 1557 1557 1557 1557 1557 1557 1550 1550 1550 1543 1543 1543 1550 1550 1550 1550 1550 1550 1550 1550 1557 1557 1557 1557 1557 1557 1557 1557 1557 1557 1557 1557 1557 1564 1564 1564 1572 1572 1572 1579 1579 1381 1381 1381 1381 1376 1376 1376 1370 1370 1370 1370 1370 1370 1376 1376 1376 1376 1376 1376 1392 1601 1601 1601 1601 1601 1609 1609 1609 1609 1609 1609 1609 1616 1616 1616 1616 1616 1616 1616 1616 1624 1624 1624 1624 1624 1624 1624 1624 1632 1632 1632 1632 1632 0 0 0 3539 0 3539 3539 3539 3539 3539 3539 3539 3539 3539 3539 3399 3178 3178 3178 3149 3149 3149 3149 3149 3149 3149 3149 3149 3149 3468 3503 3503 3503 3468 3468 3468 3433 3433 3468 3503 3468 3468 3503 0 0 0 0 0 0 0 0 0 0 0 0
0 0 0 0 0 0 0 0 0 0 0 0 0 0 0 0 0 0 0 0 0 0 0 0 0 0 0 0 0 0 0 3433 3433 3433 3433 3433 3399 3399 3399 3433 3433 3433 3433 3433 3433 3433 3433 3399 3399 3433 3468 3468 3468 3468 3468 3433 3433 3433 3433 3433 3433 3433 3433 3433 3433 3433 3433 3433 3433 3433 3399 3399 3399 3399 3433 3433 3433 3433 3433 3433 3433 3433 3468 3468 3468 3468 3468 3468 3468 3468 3468 3468 3468 3468 3468 3468 3468 3468 3468 3468 3468 3468 3468 3468 3468 3468 3468 3468 3468 3468 3468 3468 3468 3433 3399 3365 3333 3300 3269 3269 3269 3269 3269 3269 3333 3333 3399 3503 3539 3539 3539 3503 3503 3503 3503 3503 3503 2958 2958 2958 2958 2933 2933 2908 2908 2908 2908 2908 2908 2908 2908 2883 2883 2883 2883 2883 2859 2859 2859 2859 2883 2883 2883 2883 2883 2883 2883 2883 2883 2883 2908 2908 2908 2908 2908 2908 2933 2933 2933 2933 2933 2933 2933 2933 2933 0 0 0 1543 1523 1523 1529 1529 1529 1529 1523 1516 1516 1523 1516 1509 1509 1509 1516 1509 1509 1516 1516 1516 1523 1523 1523 1523 1523 1523 1529 1529 1529 1529 1529 1529 1529 1529 1529 1529 1529 1529 1529 1223 1219 1219 1219 1219 1219 1219 1219 1223 1223 1223 1223 1223 1227 1227 1232 1232 1232 1236 1236 1236 1232 1232 1232 1232 1232 1232 1236 1236 1236 1236 1236 1236 1236 1236 1236 1236 1236 1241 1241 1241 1241 1241 1241 1241 1241 1241 1241 1245 1245 1245 1250 1245 1245 1250 1250 1250 1250 1250 1250 1255 1255 1255 1255 1255 1259 1259 1259 1259 1259 1259 1259 1264 1516 1516 1516 1523 1516 1516 1523 1523 1523 1523 1523 1523 1523 1523 1516 1516 1523 1516 1516 1523 1523 1523 1523 1523 1523 1523 1523 1523 1523 1523 1523 1523 1523 1523 1523 1523 1523 1523 1523 1523 1523 1523 1523 1523 1523 1516 1516 1328 1328 1328 1322 1317 1312 1312 1307 1307 1312 1312 1312 1317 1317 1317 1322 1322 1322 1322 1322 1322 1322 1516 1516 1536 1536 1536 1536 1536 1536 1536 1536 1536 1543 1543 1543 1543 1543 1536 1536 1543 1536 1536 1536 1536 1536 1536 1536 1536 1536 1536 1543 1543 1543 1536 1536 1536 1543 1543 1543 1543 1543 1543 1543 1543 1536 1536 1536 1529 1529 1529 1529 1529 1529 1529 1529 1529 1529 1322 1317 1312 1312 1312 1307 1302 1302 1302 1302 1302 1302 1302 1302 1302 1302 1307 1307 1307 1307 1529 1529 1529 1529 1529 1529 1529 1529 1529 1529 1529 1536 1536 1536 1536 1536 1529 1529 1536 1536 1536 1536 1536 1536 1536 1536 1536 1536 1536 1536 1543 1543 1543 1543 1543 1543 1543 1543 1543 1543 1550 1550 1550 1550 1550 1557 1557 1557 1557 1557 1557 1550 1550 1557 1550 1550 1550 1550 1550 1550 1550 1550 1557 1557 1557 1557 1557 1557 1557 1557 1557 1557 1557 1557 1564 1564 1564 1564 1564 1564 1572 1572 1572 1572 1579 1579 1381 1381 1381 1381 1376 1376 1376 1370 1370 1370 1370 1376 1376 1376 1376 1381 1381 1381 1381 1601 1601 1601 1601 1609 1609 1609 1609 1609 1609 1609 1616 1616 1616 1616 1616 1616 1624 1624 1624 1624 1624 1624 1624 1624 1624 1632 1632 1639 1639 1639 1639 1639 1639 0 0 0 0 3539 3503 3503 3539 3539 3539 3539 3539 3539 3539 3539 3399 3178 3178 3178 3149 3149 3149 3149 3149 3149 3149 3149 3149 3208 3468 3503 3468 3468 3433 3433 3433 3433 3433 3433 3433 3433 3433 3468 3468 0 0 0 0 0 0 0 0 0 0 0
0 0 0 0 0 0 0 0 0 0 0 0 0 0 0 0 0 0 0 0 0 0 0 0 0 0 0 0 0 0 0 3399 3399 3399 3399 3399 3399 3399 3399 3399 3433 3433 3433 3433 3433 3433 3433 3399 3399 3399 3399 3399 3399 3399 3399 3399 3399 3399 3433 3399 3399 3433 3399 3399 3399 3399 3399 3399 3399 3399 3399 3399 3399 3399 3399 3399 3399 3433 3433 3433 3433 3433 3433 3433 3433 3433 3433 3468 3468 3468 3468 3468 3468 3468 3468 3468 3433 3433 3468 3468 3468 3468 3468 3468 3468 3468 3433 3433 3433 3433 3433 3468 3433 3433 3399 3365 3333 3300 3269 3269 3269 3269 3269 3300 3333 3333 3399 3468 3503 3503 3503 3503 3503 3503 3503 3503 3503 2958 2958 2958 2958 2958 2933 2933 2933 2908 2908 2908 2908 2908 2908 2883 2883 2883 2883 2883 2859 2859 2859 2859 2883 2883 2883 2883 2883 2883 2883 2908 2908 2908 2908 2908 2908 2908 2908 2933 2933 2933 2933 2933 2933 2933 2933 2933 2933 0 2933 0 1516 1516 1516 1516 1516 1509 1509 1503 1503 1509 1509 1509 1509 1509 1509 1509 1509 1509 1509 1509 1509 1516 1516 1516 1516 1516 1516 1516 1516 1516 1516 1516 1516 1516 1516 1516 1516 1516 1516 1516 1223 1223 1223 1219 1219 1219 1219 1223 1223 1223 1223 1223 1223 1227 1227 1232 1232 1236 1236 1236 1236 1232 1232 1232 1232 1232 1236 1236 1236 1236 1236 1236 1232 1232 1232 1232 1236 1236 1241 1241 1241 1241 1245 1245 1245 1245 1245 1245 1245 1245 1245 1250 1250 1250 1245 1245 1250 1250 1250 1250 1255 1255 1255 1255 1255 1516 1523 1523 1523 1516 1516 1516 1516 1516 1516 1516 1516 1516 1516 1523 1523 1516 1516 1516 1516 1516 1516 1516 1516 1516 1516 1516 1523 1516 1516 1523 1523 1523 1523 1523 1523 1523 1523 1516 1516 1516 1516 1516 1516 1516 1516 1516 1516 1516 1516 1516 1516 1516 1516 1516 1338 1328 1328 1322 1317 1312 1312 1312 1312 1312 1312 1312 1317 1317 1317 1322 1322 1322 1322 1322 1322 1322 1509 1509 1523 1529 1529 1529 1529 1529 1529 1529 1529 1529 1529 1536 1536 1536 1529 1529 1536 1529 1529 1529 1529 1529 1529 1529 1529 1529 1529 1529 1529 1536 1529 1529 1536 1536 1536 1536 1536 1536 1536 1536 1536 1536 1536 1536 1529 1523 1523 1523 1523 1523 1523 1523 1523 1523 1328 1322 1317 1317 1312 1307 1302 1302 1302 1302 1302 1302 1302 1302 1307 1307 1307 1312 1312 1317 1529 1529 1529 1529 1529 1523 1523 1529 1529 1529 1529 1536 1536 1536 1536 1529 1529 1529 1529 1529 1529 1529 1536 1536 1536 1536 1536 1536 1536 1536 1536 1536 1536 1536 1536 1543 1543 1543 1543 1543 1550 1550 1550 1550 1550 1550 1557 1557 1557 1557 1557 1557 1557 1557 1550 1550 1550 1550 1550 1550 1550 1557 1557 1557 1557 1557 1557 1557 1557 1557 1557 1557 1564 1564 1564 1564 1564 1572 1572 1572 1572 1579 1579 1579 1586 1392 1387 1387 1381 1381 1376 1376 1376 1370 1370 1376 1376 1376 1376 1376 1376 1381 1381 1381 1601 1601 1609 1609 1609 1609 1609 1609 1609 1616 1616 1616 1616 1616 1616 1624 1624 1624 1624 1624 1624 1624 1624 1624 1624 1632 1632 1639 1639 1639 1639 1639 1639 1639 1639 0 0 0 0 3539 3503 3503 3539 3539 3539 3539 3539 3539 3503 3503 3468 3178 3178 3178 3149 3149 3149 3149 3149 3149 3149 3178 3178 3300 3433 3468 3433 3433 3433 3433 3433 3399 3399 3433 3433 3433 3433 3468 3468 0 0 0 0 0 0 0 0 0 0 0
0 0 0 0 0 0 0 0 0 0 0 0 0 0 0 0 0 0 0 0 0 0 0 0 0 0 0 0 0 0 0 3399 3399 3399 3399 3399 3399 3399 3399 3399 3399 3399 3399 3365 3365 3399 3399 3399 3399 3399 3399 3399 3365 3365 3365 3399 3399 3399 3399 3399 3399 3399 3399 3399 3399 3399 3399 3399 3399 3399 3399 3365 3365 3399 3399 3399 3399 3399 3399 3399 3365 3365 3399 3399 3399 3433 3433 3433 3433 3433 3433 3433 3433 3433 3433 3468 3433 3433 3468 3468 3468 3468 3433 3433 3433 3433 3433 3433 3433 3433 3433 3433 3433 3433 3399 3365 3333 3300 3269 3269 3269 3269 3269 3300 3333 3333 3399 3433 3468 3503 3503 3503 3468 3468 3468 3468 3503 2958 2958 2958 2958 2958 2933 2933 2933 2908 2908 2908 2908 2908 2908 2908 2908 2883 2883 2883 2859 2859 2859 2859 2883 2883 2883 2883 2883 2908 2908 2908 2908 2908 2933 2933 2933 2933 2933 2933 2933 2933 2933 2933 2933 2933 2933 2933 2933 2933 2933 0 1516 1516 1503 1503 1503 1503 1496 1496 1496 1503 1503 1503 1503 1503 1503 1503 1503 1503 1503 1503 1503 1503 1503 1503 1509 1509 1509 1509 1503 1503 1503 1503 1503 1503 1503 1509 1509 1509 1509 1509 1223 1223 1223 1219 1219 1219 1219 1223 1223 1223 1223 1223 1227 1227 1227 1232 1232 1236 1236 1236 1241 1232 1232 1236 1236 1236 1236 1489 1489 1489 1236 1236 1232 1232 1232 1232 1236 1236 1489 1496 1496 1496 1496 1496 1496 1489 1489 1489 1496 1503 1496 1250 1250 1250 1245 1245 1250 1250 1250 1250 1255 1496 1496 1503 1503 1509 1516 1516 1509 1509 1509 1509 1509 1509 1516 1516 1516 1516 1516 1516 1516 1516 1509 1509 1509 1516 1509 1509 1509 1509 1509 1509 1516 1516 1516 1516 1516 1516 1516 1523 1523 1523 1523 1516 1516 1516 1509 1509 1509 1509 1509 1509 1509 1509 1509 1509 1509 1509 1509 1509 1343 1328 1328 1322 1317 1312 1312 1312 1312 1317 1317 1317 1317 1317 1322 1322 1322 1322 1328 1322 1322 1503 1503 1509 1509 1509 1516 1523 1523 1523 1523 1523 1523 1523 1523 1523 1529 1529 1523 1523 1523 1523 1516 1516 1516 1516 1516 1516 1516 1523 1523 1523 1523 1523 1523 1523 1523 1529 1529 1529 1529 1529 1529 1529 1529 1529 1529 1529 1523 1516 1516 1523 1523 1516 1516 1516 1516 1523 1328 1322 1317 1317 1312 1307 1302 1302 1302 1302 1302 1302 1302 1307 1307 1307 1312 1312 1317 1317 1523 1523 1529 1529 1529 1523 1523 1529 1529 1529 1529 1529 1529 1529 1529 1529 1529 1529 1529 1529 1529 1529 1529 1529 1536 1536 1536 1536 1536 1536 1536 1536 1536 1536 1536 1543 1543 1543 1543 1543 1550 1550 1550 1550 1550 1550 1557 1557 1557 1557 1557 1557 1557 1557 1550 1550 1550 1550 1550 1557 1557 1557 1557 1557 1557 1564 1564 1564 1564 1557 1557 1564 1564 1564 1572 1572 1572 1572 1579 1579 1579 1579 1579 1586 1586 1392 1387 1387 1381 1381 1376 1376 1376 1376 1376 1376 1376 1376 1376 1376 1376 1381 1381 1381 1601 1609 1609 1609 1609 1609 1609 1616 1616 1616 1616 1616 1616 1624 1624 1624 1624 1624 1624 1624 1624 1624 1624 1624 1632 1632 1632 1639 1639 1639 1639 1639 1639 1639 1639 0 0 0 0 3539 3503 3503 3503 3503 3503 3503 3503 3503 3468 3468 3333 3238 3178 3178 3149 3149 3149 3149 3149 3149 3178 3178 3178 3300 3433 3468 3433 3433 3433 3433 3433 3399 3399 3433 3433 3433 3433 3433 3433 0 0 0 0 0 0 0 0 0 0 0
0 0 0 0 0 0 0 0 0 0 0 0 0 0 0 0 0 0 0 0 0 0 0 0 0 0 0 0 0 0 0 3365 3365 3399 3399 3399 3399 3399 3399 3399 3365 3365 3365 3365 3365 3365 3365 3365 3365 3365 3365 3365 3365 3365 3365 3365 3365 3365 3399 3365 3365 3399 3399 3399 3399 3399 3399 3399 3399 3399 3365 3365 3365 3399 3399 3399 3399 3399 3365 3365 3365 3365 3365 3365 3365 3399 3399 3399 3433 3399 3399 3433 3433 3433 3433 3433 3433 3433 3433 3433 3433 3433 3433 3433 3433 3433 3433 3433 3399 3399 3433 3433 3433 3433 3399 3365 3333 3333 3300 3269 3269 3269 3269 3269 3300 3333 3365 3399 3468 3468 3468 3468 3468 3468 3468 3468 3468 2958 2958 2958 2958 2958 2958 2933 2933 2933 2933 2933 2933 2933 2908 2908 2908 2883 2883 2883 2859 2859 2859 2859 2883 2883 2883 2883 2883 2908 2908 2908 2908 2908 2933 2933 2933 2933 2933 2933 2933 2933 2933 2933 2933 2933 2933 2933 2933 2933 2933 0 1496 0 1496 1496 1496 1489 1489 1489 1489 1496 1496 1496 1496 1496 1496 1496 1496 1496 1496 1496 1496 1496 1496 1496 1503 1503 1503 1503 1496 1496 1496 1496 1496 1496 1496 1496 1503 1496 1496 1496 1219 1219 1223 1223 1223 1223 1223 1223 1227 1227 1227 1227 1227 1227 1232 1232 1232 1236 1236 1236 1241 1236 1236 1236 1489 1483 1483 1483 1483 1483 1483 1489 1489 1489 1489 1489 1489 1489 1489 1496 1489 1489 1496 1496 1496 1496 1496 1496 1496 1503 1496 1496 1496 1496 1496 1496 1496 1496 1496 1489 1489 1489 1489 1496 1496 1496 1503 1496 1496 1503 1503 1509 1509 1509 1509 1509 1509 1509 1509 1503 1503 1503 1503 1503 1509 1509 1509 1509 1509 1509 1509 1509 1509 1509 1509 1516 1516 1516 1516 1516 1516 1516 1516 1509 1509 1509 1503 1503 1503 1503 1503 1503 1503 1503 1503 1503 1503 1509 1509 1349 1343 1328 1328 1322 1317 1312 1312 1312 1312 1317 1317 1317 1317 1317 1322 1322 1328 1328 1328 1503 1503 1503 1503 1509 1509 1509 1509 1509 1516 1516 1516 1516 1516 1516 1516 1516 1516 1516 1516 1509 1509 1509 1509 1509 1509 1509 1516 1516 1516 1516 1516 1516 1516 1516 1516 1516 1516 1523 1523 1523 1523 1523 1523 1523 1523 1523 1523 1523 1516 1516 1516 1516 1516 1509 1509 1509 1509 1516 1516 1328 1322 1317 1317 1307 1302 1302 1302 1302 1302 1302 1302 1307 1307 1307 1312 1312 1317 1317 1523 1523 1523 1523 1523 1523 1523 1523 1523 1523 1529 1529 1529 1529 1529 1529 1529 1529 1529 1529 1529 1529 1529 1529 1536 1536 1536 1536 1536 1536 1536 1536 1536 1536 1536 1543 1543 1543 1543 1550 1550 1550 1550 1550 1557 1557 1557 1557 1557 1557 1557 1557 1557 1557 1550 1550 1550 1557 1557 1557 1564 1564 1564 1564 1564 1564 1564 1564 1564 1564 1564 1564 1572 1572 1579 1579 1579 1579 1579 1586 1586 1586 1586 1594 1594 1392 1392 1392 1381 1381 1376 1376 1376 1376 1376 1376 1376 1376 1381 1381 1381 1376 1376 1381 1609 1609 1609 1609 1609 1616 1616 1616 1616 1616 1616 1616 1616 1624 1624 1624 1624 1624 1632 1632 1632 1632 1632 1632 1632 1632 1632 1639 1639 1639 1639 1639 1639 1639 1639 0 0 0 0 3503 3503 3468 3468 3468 3468 3468 3468 3468 3433 3399 3333 3269 3238 3178 3178 3149 3149 3149 3149 3149 3178 3208 3238 3333 3433 3433 3433 3433 3399 3399 3399 3399 3399 3399 3399 3399 3399 3399 3433 0 0 0 0 0 0 0 0 0 0 0
0 0 0 0 0 0 0 0 0 0 0 0 0 0 0 0 0 0 0 0 0 0 0 0 0 0 0 0 0 0 0 3365 3365 3399 3399 3399 3399 3399 3365 3365 3365 3365 3365 3365 3365 3365 3333 3333 3333 3333 3333 3333 3333 3333 3365 3365 3365 3365 3399 3365 3365 3399 3399 3399 3399 3399 3399 3399 3399 3399 3365 3365 3365 3399 3399 3365 3365 3365 3365 3365 3365 3365 3365 3365 3365 3365 3365 3399 3399 3399 3399 3399 3399 3399 3399 3433 3433 3433 3433 3433 3433 3399 3399 3399 3399 3399 3433 3399 3399 3399 3399 3399 3399 3399 3399 3399 3365 3333 3300 3300 3269 3269 3269 3269 3300 3333 3333 3399 3433 3468 3468 3468 3468 3468 3468 3468 3468 3468 2958 2958 2958 2958 2958 2933 2933 2933 2933 2933 2933 2908 2908 2908 2908 2883 2883 2883 2859 2859 2859 2859 2883 2883 2883 2883 2883 2908 2908 2908 2933 2933 2933 2933 2933 2933 2933 2933 2933 2933 2933 2933 2933 2958 2958 2933 2933 2933 2933 0 0 0 1483 1483 1489 1483 1483 1483 1483 1483 1483 1483 1483 1489 1496 1496 1496 1496 1496 1489 1489 1489 1489 1489 1489 1489 1489 1489 1483 1483 1489 1489 1489 1496 1496 1496 1496 1496 1483 1483 1219 1219 1223 1223 1223 1223 1223 1227 1227 1227 1232 1232 1232 1232 1232 1232 1236 1236 1236 1236 1241 1477 1483 1483 1483 1483 1483 1483 1483 1483 1483 1489 1489 1489 1489 1489 1489 1489 1489 1489 1489 1489 1489 1489 1489 1489 1489 1489 1489 1496 1496 1496 1496 1496 1496 1496 1496 1496 1489 1489 1489 1489 1489 1489 1489 1489 1489 1489 1489 1489 1489 1489 1489 1489 1489 1489 1489 1489 1489 1489 1489 1489 1489 1489 1489 1489 1489 1496 1496 1496 1496 1503 1503 1503 1509 1509 1509 1509 1509 1509 1509 1509 1509 1503 1503 1503 1496 1496 1496 1496 1496 1496 1496 1496 1496 1496 1496 1496 1496 1349 1343 1328 1328 1322 1317 1312 1312 1312 1312 1317 1317 1317 1317 1322 1322 1322 1328 1328 1503 1503 1503 1503 1503 1503 1503 1503 1503 1503 1509 1509 1509 1509 1509 1509 1509 1509 1509 1509 1509 1509 1509 1509 1509 1509 1509 1509 1509 1509 1509 1509 1509 1509 1509 1509 1509 1509 1509 1509 1509 1509 1509 1509 1509 1509 1509 1516 1516 1516 1509 1509 1509 1509 1509 1503 1503 1503 1509 1509 1509 1328 1322 1322 1317 1307 1302 1302 1302 1302 1302 1302 1307 1307 1307 1312 1312 1317 1317 1317 1523 1523 1523 1523 1523 1523 1523 1523 1523 1523 1529 1529 1529 1529 1529 1529 1529 1529 1529 1529 1529 1529 1529 1529 1536 1536 1536 1536 1536 1536 1536 1543 1536 1536 1536 1543 1543 1543 1550 1550 1550 1557 1557 1557 1557 1557 1557 1557 1557 1557 1557 1564 1564 1557 1557 1557 1557 1564 1564 1564 1572 1572 1572 1572 1572 1572 1572 1572 1572 1564 1564 1572 1579 1579 1579 1579 1579 1586 1586 1586 1586 1586 1594 1594 1594 1398 1398 1392 1387 1381 1381 1381 1376 1376 1376 1376 1376 1381 1381 1381 1381 1376 1376 1609 1609 1609 1609 1609 1609 1616 1616 1616 1616 1616 1624 1624 1624 1624 1624 1624 1624 1624 1632 1632 1632 1632 1632 1632 1632 1639 1639 1639 1639 1639 1639 1639 1639 1639 1639 0 0 0 0 3503 3468 3468 3433 3433 3433 3433 3433 3433 3399 3365 3333 3269 3238 3178 3178 3149 3149 3149 3149 3149 3178 3178 3269 3333 3399 3433 3399 3399 3399 3399 3399 3399 3399 3399 3399 3399 3399 3399 3399 0 0 0 0 0 0 0 0 0 0 0
0 0 0 0 0 0 0 0 0 0 0 0 0 0 0 0 0 0 0 0 0 0 0 0 0 0 0 0 0 0 0 3365 3365 3365 3399 3399 3399 3365 3365 3365 3333 3333 3333 3333 3333 3365 3333 3333 3333 3333 3333 3333 3333 3333 3333 3365 3365 3365 3365 3365 3365 3365 3365 3365 3399 3365 3365 3365 3399 3365 3365 3365 3365 3365 3365 3365 3365 3365 3365 3333 3333 3333 3333 3333 3333 3333 3365 3365 3365 3365 3365 3399 3399 3399 3399 3399 3433 3433 3399 3399 3399 3365 3365 3365 3399 3399 3399 3399 3399 3399 3399 3399 3399 3399 3399 3399 3365 3333 3333 3300 3269 3269 3269 3300 3300 3333 3333 3399 3433 3433 3433 3433 3433 3433 3433 3433 3468 3468 2958 2958 2958 2958 2958 2958 2933 2933 2933 2933 2933 2908 2908 2908 2908 2908 2883 2883 2859 2859 2883 2883 2883 2883 2908 2908 2908 2908 2908 2908 2933 2933 2933 2933 2933 2933 2933 2933 2933 2933 2933 2958 2958 2958 2958 2958 2958 2958 0 0 0 0 1483 1483 1483 1483 1483 1483 1483 1483 1483 1483 1483 1483 1489 1489 1489 1489 1489 1483 1483 1483 1483 1483 1483 1483 1483 1483 1483 1483 1483 1483 1489 1489 1489 1489 1489 1489 1477 1477 1477 1223 1223 1223 1223 1223 1223 1227 1232 1232 1232 1232 1232 1232 1232 1236 1236 1236 1483 1477 1477 1477 1477 1477 1477 1477 1477 1477 1477 1477 1477 1483 1483 1483 1483 1483 1483 1483 1483 1483 1483 1483 1477 1477 1483 1483 1483 1483 1483 1483 1483 1483 1483 1483 1489 1489 1483 1483 1489 1483 1483 1483 1483 1483 1483 1483 1483 1483 1483 1483 1483 1483 1483 1477 1477 1483 1477 1477 1483 1483 1483 1483 1483 1483 1483 1483 1483 1489 1489 1489 1489 1489 1489 1489 1489 1489 1489 1489 1489 1489 1489 1489 1489 1483 1483 1483 1483 1483 1483 1483 1483 1483 1483 1483 1483 1483 1483 1483 1483 1483 1338 1328 1328 1322 1317 1317 1317 1317 1317 1317 1322 1322 1322 1322 1322 1328 1328 1328 1496 1496 1496 1496 1496 1496 1496 1503 1503 1503 1503 1503 1503 1503 1503 1503 1496 1496 1496 1496 1496 1496 1496 1496 1503 1503 1503 1503 1503 1503 1503 1503 1503 1503 1503 1503 1503 1503 1503 1496 1496 1496 1503 1503 1503 1503 1503 1509 1509 1509 1503 1503 1503 1503 1503 1503 1503 1503 1503 1509 1509 1328 1322 1322 1317 1312 1307 1302 1302 1302 1307 1307 1307 1307 1312 1312 1317 1317 1317 1317 1523 1523 1523 1523 1523 1523 1523 1523 1523 1523 1529 1529 1529 1529 1529 1529 1529 1529 1529 1529 1529 1529 1536 1536 1536 1536 1536 1536 1536 1543 1543 1543 1543 1543 1543 1550 1550 1550 1550 1550 1557 1557 1557 1557 1557 1557 1564 1564 1564 1564 1564 1564 1564 1564 1564 1564 1564 1572 1572 1572 1572 1579 1572 1572 1572 1572 1572 1572 1572 1572 1572 1579 1579 1579 1579 1586 1586 1586 1586 1586 1586 1586 1586 1594 1398 1398 1398 1392 1387 1381 1381 1381 1381 1376 1376 1381 1381 1381 1381 1381 1381 1376 1376 1609 1609 1609 1609 1616 1616 1616 1616 1616 1616 1624 1624 1624 1624 1632 1632 1632 1632 1632 1632 1632 1632 1632 1632 1632 1632 1639 1639 1639 1639 1639 1639 1639 1639 1647 0 0 0 0 0 3503 3399 3399 3399 3399 3399 3399 3399 3399 3399 3365 3333 3269 3238 3178 3178 3149 3149 3149 3149 3149 3178 3178 3238 3333 3399 3399 3399 3399 3399 3399 3399 3399 3399 3399 3399 3399 3399 3399 3399 0 0 0 0 0 0 0 0 0 0 0
0 0 0 0 0 0 0 0 0 0 0 0 0 0 0 0 0 0 0 0 0 0 0 0 0 0 0 0 0 0 0 3365 3365 3365 3365 3365 3365 3365 3333 3333 3333 3333 3333 3333 3333 3365 3333 3333 3333 3333 3333 3333 3333 3333 3333 3333 3333 3333 3333 3365 3365 3365 3365 3365 3365 3365 3365 3365 3365 3365 3365 3333 3333 3365 3365 3365 3333 3333 3333 3333 3333 3333 3333 3333 3333 3333 3333 3365 3365 3365 3365 3399 3399 3399 3399 3399 3399 3399 3399 3399 3365 3365 3365 3365 3365 3365 3365 3365 3365 3365 3365 3365 3365 3399 3399 3399 3365 3333 3333 3300 3269 3269 3300 3300 3333 3333 3365 3399 3399 3433 3433 3433 3433 3433 3433 3433 3433 3433 2958 2958 2958 2958 2958 2958 2933 2933 2933 2933 2933 2908 2908 2908 2908 2908 2908 2883 2883 2883 2883 2883 2883 2883 2883 2908 2908 2908 2908 2908 2933 2933 2933 2933 2933 2933 2933 2933 2933 2933 2933 2958 2958 2958 2958 2958 2958 2958 2958 0 0 1477 1477 1477 1477 1477 1477 1477 1477 1477 1477 1477 1477 1477 1477 1477 1477 1477 1477 1477 1477 1477 1477 1477 1477 1477 1477 1477 1477 1477 1477 1477 1483 1483 1483 1483 1483 1483 1477 1477 1477 1223 1223 1223 1223 1223 1227 1227 1232 1232 1232 1232 1232 1236 1236 1236 1236 1236 1477 1470 1470 1470 1470 1470 1477 1477 1470 1470 1470 1470 1470 1470 1470 1470 1477 1477 1477 1477 1477 1477 1477 1477 1477 1477 1477 1477 1477 1477 1477 1477 1470 1470 1470 1477 1477 1477 1477 1477 1477 1477 1477 1477 1477 1477 1477 1477 1477 1477 1477 1477 1477 1477 1477 1470 1470 1477 1470 1470 1470 1470 1477 1477 1477 1477 1477 1477 1477 1483 1483 1483 1483 1483 1483 1483 1483 1483 1483 1483 1477 1477 1477 1477 1477 1477 1477 1477 1477 1477 1477 1483 1477 1477 1477 1477 1483 1483 1477 1477 1477 1477 1338 1338 1328 1322 1322 1317 1317 1317 1317 1322 1322 1322 1322 1322 1328 1328 1328 1328 1477 1483 1483 1483 1483 1489 1489 1489 1489 1489 1489 1489 1489 1489 1489 1489 1489 1489 1489 1489 1489 1489 1489 1489 1496 1496 1496 1496 1496 1496 1496 1496 1496 1496 1489 1489 1496 1496 1496 1496 1496 1496 1503 1503 1496 1496 1503 1509 1509 1509 1503 1503 1503 1503 1503 1503 1503 1503 1503 1509 1509 1328 1328 1322 1317 1312 1307 1302 1302 1307 1307 1307 1307 1312 1312 1312 1317 1317 1317 1516 1523 1523 1523 1523 1523 1523 1523 1523 1523 1523 1529 1529 1529 1529 1529 1529 1529 1529 1529 1529 1529 1536 1536 1536 1536 1536 1536 1536 1536 1543 1543 1550 1550 1550 1550 1550 1557 1557 1557 1557 1557 1557 1557 1557 1564 1564 1564 1564 1564 1564 1564 1564 1564 1564 1564 1564 1572 1572 1572 1572 1579 1579 1579 1579 1579 1579 1579 1579 1572 1572 1579 1579 1579 1579 1586 1586 1586 1586 1586 1586 1586 1586 1410 1404 1398 1398 1398 1392 1387 1381 1381 1381 1381 1381 1381 1381 1381 1381 1381 1381 1387 1387 1616 1616 1616 1616 1616 1616 1616 1616 1616 1616 1616 1616 1624 1624 1632 1632 1632 1632 1632 1632 1632 1632 1632 1632 1632 1632 1632 1639 1639 1639 1639 1639 1639 1639 1639 1647 0 0 0 3365 0 3433 3399 3399 3399 3399 3399 3399 3399 3399 3399 3365 3333 3269 3238 3178 3178 3178 3149 3149 3149 3178 3178 3178 3208 3300 3399 3399 3399 3365 3365 3365 3365 3365 3365 3365 3399 3399 3399 3399 3399 0 0 0 0 0 0 0 0 0 0 0
0 0 0 0 0 0 0 0 0 0 0 0 0 0 0 0 0 0 0 0 0 0 0 0 0 0 0 0 0 0 0 3333 3333 3333 3333 3333 3300 3300 3300 3300 3333 3333 3333 3333 3333 3333 3333 3333 3333 3333 3333 3300 3300 3300 3300 3333 3333 3333 3333 3333 3333 3333 3365 3365 3365 3365 3365 3365 3365 3365 3333 3333 3333 3365 3333 3333 3333 3333 3333 3333 3300 3300 3333 3333 3333 3333 3333 3333 3333 3333 3333 3365 3365 3365 3365 3365 3365 3365 3365 3365 3365 3333 3333 3333 3365 3365 3365 3365 3365 3365 3365 3365 3365 3365 3399 3399 3365 3333 3333 3300 3269 3269 3300 3300 3333 3333 3333 3365 3399 3399 3399 3433 3433 3433 3433 3433 3433 3433 2958 2958 2958 2958 2958 2958 2958 2958 2933 2933 2933 2908 2908 2908 2908 2908 2908 2908 2883 2883 2883 2883 2883 2883 2883 2908 2908 2908 2908 2908 2933 2933 2933 2933 2933 2933 2933 2933 2933 2958 2958 2958 2958 2958 2958 2958 2958 2984 2984 0 0 0 1470 1470 1477 1470 1470 1470 1470 1470 1470 1470 1470 1470 1470 1470 1470 1470 1470 1470 1470 1470 1470 1470 1477 1477 1477 1477 1477 1477 1477 1477 1477 1477 1477 1477 1470 1470 1470 1470 1477 1477 1227 1227 1227 1227 1227 1227 1232 1232 1232 1232 1232 1236 1236 1236 1236 1241 1477 1470 1470 1470 1470 1470 1470 1470 1464 1464 1464 1464 1470 1470 1470 1470 1470 1470 1470 1470 1470 1470 1470 1470 1470 1470 1470 1470 1470 1470 1470 1470 1470 1470 1470 1470 1470 1470 1470 1470 1470 1470 1470 1470 1470 1470 1470 1470 1470 1477 1477 1470 1470 1470 1470 1470 1470 1470 1470 1470 1470 1470 1470 1470 1470 1470 1470 1470 1470 1477 1477 1477 1477 1477 1477 1477 1477 1477 1477 1477 1470 1470 1470 1470 1470 1470 1470 1470 1470 1470 1470 1477 1477 1477 1470 1470 1477 1477 1470 1470 1470 1470 1338 1338 1328 1328 1322 1322 1322 1322 1322 1322 1322 1322 1328 1328 1328 1328 1328 1328 1328 1477 1477 1477 1483 1483 1483 1483 1483 1483 1483 1483 1483 1483 1483 1483 1483 1483 1483 1483 1483 1483 1483 1483 1483 1483 1489 1489 1489 1489 1489 1489 1489 1489 1489 1489 1489 1489 1489 1489 1489 1489 1496 1496 1496 1496 1496 1503 1503 1503 1503 1503 1503 1503 1503 1503 1503 1503 1503 1509 1509 1328 1328 1322 1322 1317 1307 1307 1307 1307 1307 1307 1307 1312 1312 1312 1317 1317 1317 1516 1523 1523 1523 1529 1529 1529 1529 1529 1529 1529 1529 1529 1529 1529 1536 1536 1536 1536 1536 1536 1536 1536 1536 1536 1536 1543 1543 1543 1543 1543 1550 1550 1550 1550 1550 1557 1557 1557 1557 1557 1557 1564 1564 1564 1564 1564 1564 1564 1564 1564 1572 1572 1572 1572 1572 1572 1579 1579 1579 1579 1579 1579 1579 1579 1579 1579 1579 1579 1579 1579 1579 1586 1586 1586 1586 1586 1586 1586 1586 1594 1594 1410 1410 1404 1404 1398 1398 1392 1387 1381 1381 1381 1381 1381 1381 1381 1381 1381 1381 1387 1392 1392 1616 1616 1616 1616 1616 1616 1616 1616 1616 1616 1616 1616 1624 1632 1632 1632 1639 1639 1639 1639 1632 1632 1632 1632 1632 1632 1639 1639 1639 1639 1639 1639 1639 1639 1639 1647 0 0 0 3365 3365 3365 3399 3399 3365 3365 3399 3399 3365 3365 3365 3333 3300 3269 3238 3178 3178 3149 3149 3149 3149 3149 3149 3178 3178 3300 3399 3399 3399 3365 3365 3365 3365 3365 3365 3365 3365 3365 3365 3365 3365 0 0 0 0 0 0 0 0 0 0 0
0 0 0 0 0 0 0 0 0 0 0 0 0 0 0 0 0 0 0 0 0 0 0 0 0 0 0 0 0 0 0 3333 3333 3333 3333 3300 3300 3269 3269 3269 3300 3300 3300 3300 3300 3300 3300 3300 3300 3300 3300 3300 3300 3300 3300 3300 3300 3300 3300 3300 3300 3333 3333 3333 3365 3365 3365 3365 3365 3365 3333 3333 3333 3333 3333 3333 3333 3333 3333 3300 3300 3300 3300 3300 3300 3300 3300 3333 3333 3333 3333 3333 3333 3333 3333 3333 3333 3365 3333 3333 3365 3333 3333 3333 3333 3365 3365 3365 3365 3365 3365 3365 3365 3365 3365 3365 3333 3333 3333 3300 3269 3269 3269 3300 3300 3333 3333 3365 3365 3399 3399 3399 3399 3399 3399 3399 3399 3433 2933 2933 2933 2958 2958 2958 2958 2958 2933 2933 2933 2908 2908 2908 2908 2908 2908 2908 2883 2883 2908 2908 2908 2908 2908 2908 2908 2908 2908 2908 2933 2933 2933 2933 2933 2958 2958 2958 2958 2958 2958 2958 2958 2958 2958 2958 2984 3010 3037 0 0 0 1470 1464 1464 1464 1464 1464 1464 1464 1464 1464 1464 1464 1464 1464 1464 1464 1464 1464 1464 1464 1464 1470 1470 1470 1470 1470 1470 1470 1470 1470 1470 1470 1470 1464 1464 1464 1464 1464 1470 1470 1227 1227 1227 1227 1227 1232 1232 1232 1232 1236 1236 1236 1236 1236 1241 1241 1470 1464 1464 1464 1464 1464 1464 1464 1464 1464 1464 1464 1464 1464 1464 1464 1464 1464 1470 1470 1470 1470 1470 1464 1464 1464 1464 1464 1464 1464 1464 1464 1464 1464 1464 1464 1464 1464 1464 1464 1464 1464 1464 1464 1464 1464 1464 1464 1470 1470 1470 1464 1464 1464 1464 1464 1464 1464 1464 1464 1464 1464 1464 1464 1464 1464 1464 1464 1464 1470 1470 1470 1470 1470 1470 1470 1470 1470 1470 1470 1470 1470 1464 1464 1464 1464 1464 1464 1464 1464 1464 1470 1464 1464 1464 1464 1464 1464 1470 1464 1464 1464 1338 1338 1328 1328 1328 1322 1322 1322 1322 1328 1328 1328 1328 1328 1328 1328 1328 1328 1328 1464 1464 1470 1470 1470 1470 1477 1477 1477 1477 1477 1477 1477 1477 1483 1483 1483 1483 1483 1483 1483 1483 1483 1483 1483 1483 1489 1489 1489 1489 1489 1489 1489 1489 1489 1489 1489 1489 1489 1489 1489 1496 1496 1496 1496 1496 1503 1503 1503 1496 1496 1503 1503 1503 1503 1503 1503 1503 1509 1509 1328 1328 1322 1322 1317 1307 1307 1307 1307 1307 1307 1312 1312 1312 1317 1317 1317 1317 1516 1523 1523 1529 1529 1529 1529 1529 1529 1529 1529 1529 1529 1536 1536 1536 1536 1536 1536 1536 1536 1536 1543 1543 1543 1543 1543 1550 1550 1550 1550 1557 1557 1557 1557 1557 1557 1557 1557 1557 1564 1564 1564 1564 1564 1564 1564 1564 1572 1572 1572 1572 1572 1572 1572 1572 1572 1579 1579 1579 1579 1586 1586 1586 1586 1579 1579 1579 1579 1586 1586 1586 1586 1586 1586 1586 1586 1586 1594 1594 1404 1404 1404 1410 1404 1404 1398 1398 1392 1387 1387 1381 1381 1381 1381 1381 1381 1381 1387 1387 1387 1392 1398 1616 1616 1616 1616 1616 1616 1616 1616 1616 1616 1616 1624 1624 1632 1632 1639 1639 1639 1639 1639 1639 1639 1639 1639 1639 1639 1639 1639 1639 1639 1639 1639 1647 1647 1647 1647 0 0 0 3365 3365 3365 3365 3365 3365 3365 3365 3365 3365 3365 3333 3300 3269 3238 3208 3178 3149 3149 3149 3149 3149 3149 3149 3149 3178 3300 3399 3365 3365 3365 3365 3365 3365 3333 3333 3333 3333 3333 3365 3365 3365 0 0 0 0 0 0 0 0 0 0 0
0 0 0 0 0 0 0 0 0 0 0 0 0 0 0 0 0 0 0 0 0 0 0 0 0 0 0 0 0 0 0 3333 3300 3300 3269 3269 3269 3269 3269 3269 3269 3269 3269 3269 3269 3269 3300 3269 3269 3269 3269 3300 3269 3269 3269 3269 3269 3300 3269 3269 3300 3300 3333 3333 3333 3333 3333 3333 3365 3365 3333 3333 3333 3333 3333 3333 3333 3333 3300 3300 3300 3300 3300 3300 3300 3300 3300 3300 3300 3300 3333 3333 3333 3333 3333 3333 3333 3333 3333 3333 3333 3333 3333 3333 3333 3333 3333 3333 3333 3333 3333 3333 3333 3333 3333 3333 3333 3300 3300 3269 3269 3269 3269 3300 3300 3333 3333 3333 3365 3365 3365 3365 3365 3365 3399 3399 3399 2883 2883 2933 2933 2958 2958 2958 2958 2958 2933 2933 2933 2908 2908 2908 2908 2908 2908 2908 2883 2883 2908 2908 2908 2908 2908 2908 2908 2908 2908 2908 2933 2933 2933 2933 2933 2958 2958 2958 2958 2958 2958 2958 2958 2958 2958 3010 3010 3037 3037 0 0 0 0 1452 1452 1452 1458 1458 1458 1458 1458 1458 1458 1458 1458 1458 1458 1458 1458 1458 1458 1458 1458 1458 1458 1464 1464 1464 1464 1464 1464 1464 1458 1458 1458 1458 1458 1458 1458 1464 1464 1464 1232 1232 1232 1232 1232 1232 1232 1232 1236 1236 1236 1236 1236 1236 1241 1241 1458 1452 1452 1452 1452 1452 1452 1452 1458 1458 1458 1458 1458 1458 1458 1458 1458 1458 1464 1464 1464 1464 1464 1464 1458 1458 1458 1458 1458 1458 1452 1452 1452 1452 1452 1458 1458 1458 1458 1458 1458 1458 1452 1452 1458 1458 1458 1458 1458 1464 1464 1458 1458 1458 1458 1458 1458 1458 1458 1464 1458 1458 1458 1458 1458 1458 1458 1458 1458 1464 1464 1464 1464 1464 1464 1464 1464 1464 1464 1464 1464 1464 1464 1464 1464 1458 1458 1458 1458 1458 1458 1458 1458 1452 1452 1458 1458 1458 1464 1464 1464 1464 1464 1338 1333 1328 1328 1322 1322 1322 1322 1328 1328 1328 1328 1328 1333 1333 1328 1328 1328 1464 1464 1464 1464 1470 1470 1470 1477 1477 1477 1477 1477 1477 1477 1477 1477 1483 1483 1483 1483 1483 1483 1483 1483 1483 1483 1483 1483 1483 1489 1489 1489 1489 1489 1489 1489 1489 1489 1489 1489 1489 1496 1496 1496 1496 1496 1503 1503 1503 1496 1496 1503 1503 1503 1503 1503 1503 1503 1503 1503 1328 1328 1322 1322 1317 1312 1307 1307 1312 1312 1312 1312 1317 1317 1317 1317 1317 1317 1516 1523 1529 1529 1529 1529 1529 1529 1529 1529 1529 1536 1536 1536 1536 1536 1536 1536 1543 1543 1543 1543 1550 1550 1550 1550 1550 1557 1557 1557 1557 1557 1557 1564 1564 1564 1564 1564 1564 1564 1564 1564 1564 1564 1564 1564 1564 1572 1572 1572 1572 1579 1579 1579 1579 1572 1572 1579 1579 1579 1579 1586 1586 1586 1586 1586 1586 1579 1579 1586 1586 1586 1586 1586 1586 1586 1586 1586 1404 1404 1404 1404 1404 1404 1404 1404 1398 1398 1392 1387 1387 1387 1387 1381 1381 1381 1387 1387 1387 1387 1387 1392 1616 1616 1616 1616 1616 1616 1616 1616 1616 1616 1616 1616 1624 1624 1632 1632 1639 1639 1639 1639 1639 1639 1639 1639 1639 1639 1639 1639 1639 1639 1639 1639 1639 1647 1647 1647 1647 0 0 0 3399 3399 3399 3365 3365 3365 3365 3365 3365 3365 3333 3300 3300 3269 3238 3208 3178 3149 3149 3149 3149 3149 3149 3149 3149 3178 3300 3399 3365 3365 3365 3365 3365 3333 3333 3333 3333 3300 3300 3333 3333 3333 0 0 0 0 0 0 0 0 0 0 0
0 0 0 0 0 0 0 0 0 0 0 0 0 0 0 0 0 0 0 0 0 0 0 0 0 0 0 0 0 0 0 3300 3300 3269 3269 3269 3238 3238 3238 3238 3269 3269 3238 3238 3238 3269 3269 3238 3238 3238 3269 3269 3269 3269 3269 3269 3269 3269 3238 3238 3269 3300 3300 3300 3300 3300 3333 3333 3333 3333 3300 3300 3300 3300 3300 3300 3300 3300 3300 3300 3300 3300 3300 3269 3269 3300 3300 3300 3300 3300 3300 3333 3333 3333 3333 3333 3333 3333 3300 3300 3333 3333 3333 3333 3333 3333 3333 3333 3333 3333 3333 3333 3333 3333 3333 3300 3300 3300 3300 3269 3269 3269 3269 3269 3300 3333 3333 3333 3333 3365 3365 3365 3365 3365 3365 3365 3399 2883 2859 2859 2933 2958 2958 2958 2958 2958 2958 2958 2933 2933 2908 2908 2908 2908 2908 2908 2908 2908 2908 2908 2908 2908 2908 2908 2908 2908 2908 2933 2933 2933 2933 2933 2933 2958 2958 2958 2958 2958 2958 2958 2958 2958 2984 3010 3010 3037 3064 0 0 0 1445 1445 1452 1452 1452 1452 1458 1458 1458 1458 1458 1458 1458 1458 1458 1452 1452 1452 1452 1452 1452 1452 1452 1452 1458 1458 1452 1452 1458 1452 1452 1452 1452 1452 1452 1452 1452 1452 1464 1241 1236 1236 1236 1236 1236 1236 1236 1236 1236 1236 1236 1236 1241 1241 1241 1241 1445 1445 1439 1439 1445 1445 1445 1445 1452 1452 1452 1452 1452 1452 1452 1452 1452 1452 1452 1452 1452 1458 1458 1458 1458 1458 1452 1452 1452 1452 1445 1445 1445 1452 1452 1452 1452 1452 1452 1452 1452 1452 1452 1452 1452 1452 1452 1452 1452 1452 1452 1452 1452 1458 1458 1458 1458 1458 1458 1458 1452 1452 1452 1452 1452 1452 1452 1452 1452 1458 1458 1458 1458 1458 1458 1458 1458 1458 1458 1458 1458 1458 1458 1458 1458 1458 1452 1452 1452 1452 1445 1445 1452 1452 1452 1452 1458 1458 1458 1458 1458 1464 1464 1338 1338 1333 1328 1328 1328 1328 1328 1328 1328 1328 1328 1333 1333 1333 1333 1333 1458 1464 1464 1464 1464 1464 1464 1470 1470 1470 1470 1470 1470 1470 1470 1477 1477 1477 1477 1483 1483 1483 1483 1483 1483 1483 1483 1483 1483 1483 1489 1489 1489 1489 1489 1489 1489 1489 1489 1489 1489 1489 1496 1496 1496 1496 1503 1503 1509 1509 1503 1503 1503 1503 1503 1503 1503 1503 1503 1503 1333 1333 1333 1322 1322 1317 1317 1317 1317 1317 1317 1317 1317 1317 1317 1317 1317 1317 1317 1523 1529 1529 1529 1536 1536 1536 1536 1536 1536 1536 1536 1536 1536 1536 1543 1543 1543 1543 1543 1550 1550 1550 1557 1557 1557 1557 1557 1557 1557 1557 1564 1564 1564 1564 1564 1564 1564 1564 1564 1564 1557 1557 1557 1557 1557 1564 1564 1572 1381 1381 1579 1579 1579 1579 1392 1387 1387 1387 1381 1381 1381 1381 1381 1381 1381 1381 1381 1381 1381 1381 1381 1381 1381 1579 1392 1392 1398 1404 1404 1404 1404 1404 1404 1404 1404 1398 1398 1392 1387 1387 1387 1387 1381 1381 1387 1387 1387 1387 1387 1387 1398 1415 1616 1616 1616 1616 1616 1624 1616 1616 1616 1624 1624 1624 1632 1632 1632 1639 1639 1639 1639 1639 1639 1639 1639 1639 1639 1639 1639 1639 1639 1647 1647 1647 1647 1647 1647 1647 0 0 0 3399 3365 3365 3365 3365 3365 3365 3365 3365 3333 3333 3300 3269 3238 3238 3208 3178 3178 3149 3149 3149 3149 3149 3178 3178 3178 3269 3365 3365 3365 3365 3365 3333 3300 3300 3300 3300 3300 3300 3300 3333 3333 0 0 0 0 0 0 0 0 0 0 0
0 0 0 0 0 0 0 0 0 0 0 0 0 0 0 0 0 0 0 0 0 0 0 0 0 0 0 0 0 0 0 3300 3300 3269 3269 3269 3238 3238 3238 3238 3238 3238 3238 3238 3238 3238 3238 3238 3238 3238 3269 3269 3269 3238 3238 3238 3238 3238 3238 3238 3238 3269 3269 3269 3269 3269 3300 3300 3333 3333 3300 3300 3300 3300 3300 3269 3269 3269 3269 3269 3269 3269 3269 3269 3269 3269 3269 3269 3269 3300 3300 3300 3300 3300 3300 3300 3300 3300 3300 3300 3300 3300 3300 3300 3300 3300 3269 3269 3300 3300 3300 3300 3300 3300 3300 3300 3300 3300 3300 3269 3269 3269 3269 3269 3300 3300 3300 3333 3333 3333 3333 3333 3333 3333 3365 3365 3333 3333 2859 2859 2958 2958 2958 2958 2958 2958 2958 2958 2933 2933 2908 2908 2908 2908 2933 2933 2908 2908 2908 2908 2908 2908 2908 2908 2933 2933 2933 2933 2933 2933 2933 2933 2933 2958 2958 2958 2958 2958 2958 2958 2958 2958 2984 3010 3037 0 3037 0 0 0 1445 1445 1445 1445 1445 1445 1445 1452 1452 1445 1445 1445 1445 1445 1445 1445 1445 1445 1445 1445 1452 1452 1452 1452 1452 1445 1445 1445 1445 1445 1445 1445 1445 1445 1445 1445 1445 1445 1445 1241 1236 1236 1236 1236 1236 1236 1236 1236 1236 1236 1236 1236 1241 1241 1241 1241 1433 1427 1427 1427 1433 1433 1439 1439 1439 1439 1445 1445 1445 1445 1445 1445 1445 1445 1445 1445 1445 1445 1445 1445 1445 1445 1445 1445 1445 1445 1445 1445 1445 1445 1445 1445 1445 1445 1445 1445 1445 1445 1445 1445 1439 1439 1439 1445 1445 1445 1445 1445 1445 1452 1452 1452 1452 1452 1445 1445 1445 1445 1445 1445 1445 1445 1445 1445 1445 1445 1445 1445 1445 1445 1445 1445 1452 1452 1452 1452 1452 1452 1452 1452 1452 1452 1445 1445 1445 1445 1445 1445 1445 1445 1445 1445 1452 1452 1452 1458 1458 1458 1458 1338 1338 1333 1333 1328 1328 1328 1328 1328 1328 1333 1333 1333 1338 1338 1338 1338 1458 1458 1458 1464 1464 1464 1464 1464 1470 1470 1470 1470 1470 1470 1470 1477 1477 1477 1477 1483 1483 1483 1483 1483 1483 1483 1483 1489 1489 1489 1489 1489 1489 1489 1489 1489 1489 1489 1489 1496 1496 1496 1496 1503 1503 1503 1503 1509 1509 1509 1509 1509 1509 1509 1503 1503 1503 1503 1503 1503 1333 1333 1328 1322 1322 1317 1317 1317 1317 1317 1317 1317 1322 1322 1322 1322 1322 1317 1317 1523 1529 1536 1536 1536 1536 1536 1536 1543 1543 1543 1543 1550 1550 1550 1550 1550 1550 1557 1557 1557 1557 1557 1557 1557 1557 1557 1557 1557 1557 1564 1564 1564 1564 1572 1572 1572 1572 1365 1365 1365 1365 1365 1365 1365 1557 1376 1376 1376 1376 1381 1381 1381 1381 1387 1387 1387 1387 1381 1381 1381 1376 1376 1381 1381 1381 1381 1381 1381 1381 1381 1381 1381 1381 1392 1392 1392 1398 1404 1404 1404 1404 1404 1404 1404 1404 1398 1398 1392 1387 1387 1387 1387 1387 1387 1387 1387 1387 1387 1387 1387 1398 1404 1616 1616 1624 1624 1624 1624 1624 1624 1624 1624 1624 1632 1632 1639 1639 1639 1639 1639 1639 1639 1639 1639 1639 1639 1639 1639 1639 1639 1647 1647 1647 1647 1647 1647 1647 1647 1647 0 3365 3365 3365 3333 3333 3333 3333 3333 3333 3333 3333 3300 3300 3269 3238 3238 3208 3178 3178 3149 3149 3149 3149 3149 3178 3178 3208 3238 3333 3333 3333 3333 3333 3333 3300 3300 3300 3300 3300 3300 3300 3300 3300 0 0 0 0 0 0 0 0 0 0 0
0 0 0 0 0 0 0 0 0 0 0 0 0 0 0 0 0 0 0 0 0 0 0 0 0 0 0 0 0 0 0 3300 3269 3269 3238 3238 3238 3238 3238 3238 3238 3238 3238 3238 3238 3238 3238 3238 3238 3238 3269 3269 3238 3238 3238 3238 3238 3238 3238 3238 3238 3238 3269 3269 3269 3269 3269 3300 3300 3300 3269 3269 3269 3269 3269 3238 3238 3238 3238 3238 3238 3238 3238 3238 3238 3238 3238 3238 3238 3269 3300 3300 3300 3300 3300 3300 3300 3300 3300 3300 3300 3300 3300 3300 3300 3269 3238 3238 3269 3269 3269 3269 3269 3300 3300 3300 3300 3269 3269 3269 3269 3269 3269 3269 3300 3300 3300 3333 3333 3333 3333 3333 3333 3333 3333 3333 3333 3300 3300 2958 2958 2958 2958 2958 2958 2958 2958 2958 2933 2933 2908 2908 2908 2908 2933 2933 2908 2908 2908 2933 2933 2933 2933 2933 2933 2933 2933 2933 2933 2933 2933 2933 2933 2958 2958 2958 2958 2958 2958 2958 2984 2984 2984 3010 3037 0 0 0 0 0 1439 1439 1439 1439 1439 1439 1439 1439 1439 1439 1439 1433 1433 1433 1439 1439 1433 1433 1439 1439 1445 1439 1439 1439 1439 1439 1439 1439 1433 1433 1433 1439 1439 1439 1439 1439 1439 1433 1433 1241 1236 1236 1236 1236 1236 1236 1236 1236 1236 1236 1241 1241 1241 1241 1241 1241 1236 1236 1421 1421 1427 1427 1433 1427 1427 1433 1433 1433 1439 1439 1439 1439 1439 1439 1439 1439 1439 1439 1439 1439 1439 1439 1439 1433 1433 1439 1439 1439 1439 1439 1439 1445 1445 1445 1445 1439 1439 1439 1439 1439 1433 1433 1433 1433 1433 1439 1439 1439 1439 1445 1445 1445 1439 1439 1439 1439 1445 1445 1439 1439 1439 1439 1439 1439 1439 1439 1439 1439 1439 1439 1439 1439 1439 1439 1445 1445 1445 1445 1445 1445 1445 1445 1439 1439 1439 1439 1439 1439 1439 1439 1439 1439 1445 1445 1452 1452 1452 1458 1458 1338 1338 1338 1333 1333 1333 1333 1333 1333 1333 1333 1338 1338 1338 1338 1338 1338 1458 1458 1458 1464 1464 1464 1464 1464 1470 1470 1470 1470 1470 1470 1477 1477 1477 1477 1477 1483 1483 1483 1483 1483 1483 1483 1483 1489 1489 1489 1489 1489 1489 1489 1489 1489 1496 1496 1496 1496 1496 1496 1503 1503 1503 1509 1509 1509 1516 1516 1509 1509 1509 1509 1509 1509 1503 1503 1338 1338 1338 1333 1328 1328 1322 1322 1317 1317 1317 1317 1317 1322 1322 1322 1322 1322 1322 1322 1322 1529 1536 1536 1536 1543 1543 1543 1543 1550 1550 1550 1550 1550 1557 1550 1550 1557 1557 1557 1557 1557 1365 1365 1365 1370 1370 1370 1376 1376 1557 1564 1564 1564 1564 1572 1572 1572 1365 1365 1365 1365 1365 1365 1365 1365 1370 1370 1376 1376 1376 1381 1381 1381 1381 1387 1387 1387 1381 1381 1381 1381 1376 1376 1381 1381 1381 1381 1381 1381 1381 1381 1381 1381 1381 1392 1392 1392 1398 1398 1404 1404 1404 1404 1410 1404 1404 1398 1398 1392 1392 1392 1392 1392 1392 1392 1392 1392 1392 1387 1387 1387 1398 1404 1616 1616 1624 1624 1624 1624 1624 1624 1624 1632 1632 1632 1639 1639 1639 1639 1639 1639 1639 1639 1639 1639 1639 1639 1639 1639 1639 1639 1647 1647 1647 1647 1647 1647 1647 1647 1647 0 3333 3333 3333 3300 3300 3300 3333 3300 3300 3300 3300 3300 3269 3269 3238 3238 3208 3178 3178 3149 3149 3149 3149 3149 3178 3178 3208 3238 3269 3269 3300 3300 3300 3300 3300 3300 3300 3300 3269 3269 3269 3300 3300 0 0 0 0 0 0 0 0 0 0 0
0 0 0 0 0 0 0 0 0 0 0 0 0 0 0 0 0 0 0 0 0 0 0 0 0 0 0 0 0 0 0 0 3269 3238 3238 3238 3238 3238 3238 3238 3238 3238 3238 3238 3238 3238 3238 3238 3238 3238 3238 3269 3238 3238 3238 3238 3238 3238 3238 3238 3238 3238 3238 3238 3238 3238 3269 3269 3269 3269 3238 3238 3269 3269 3269 3238 3238 3238 3238 3238 3208 3208 3208 3238 3238 3238 3238 3238 3238 3269 3269 3269 3300 3300 3300 3300 3300 3300 3300 3300 3300 3300 3269 3269 3269 3269 3238 3238 3238 3238 3238 3238 3269 3269 3269 3269 3269 3269 3269 3269 3269 3269 3269 3269 3269 3300 3300 3300 3300 3300 3300 3300 3300 3300 3300 3300 3300 3300 3300 2958 2958 2958 2958 2958 2958 2958 2958 2958 2933 2933 2908 2908 2933 2933 2933 2933 2908 2908 2933 2933 2933 2933 2933 2933 2933 2933 2933 2933 2933 2933 2933 2933 2933 2958 2958 2958 2958 2958 2958 2958 2984 2984 3010 3010 3037 0 0 0 0 0 1439 1433 1433 1433 1433 1433 1433 1433 1433 1433 1433 1427 1427 1427 1427 1427 1427 1427 1427 1427 1439 1433 1433 1433 1433 1433 1433 1433 1427 1427 1433 1433 1433 1433 1433 1433 1433 1427 1427 1427 1241 1236 1236 1236 1236 1236 1236 1236 1236 1236 1241 1241 1241 1241 1241 1241 1236 1236 1421 1421 1421 1421 1427 1421 1421 1427 1427 1427 1433 1433 1433 1433 1433 1433 1433 1433 1433 1433 1433 1433 1433 1433 1427 1427 1427 1433 1433 1433 1433 1433 1439 1439 1439 1439 1439 1439 1439 1433 1427 1427 1427 1427 1427 1427 1427 1427 1433 1433 1433 1439 1439 1439 1433 1433 1433 1433 1439 1439 1433 1433 1439 1439 1439 1433 1433 1433 1433 1433 1433 1439 1439 1439 1439 1439 1439 1439 1439 1439 1445 1445 1445 1445 1439 1439 1439 1439 1439 1439 1439 1439 1439 1439 1439 1439 1445 1445 1452 1452 1452 1338 1338 1338 1338 1333 1333 1333 1333 1333 1333 1338 1338 1338 1338 1338 1338 1338 1464 1464 1464 1464 1464 1464 1464 1470 1470 1470 1470 1477 1477 1477 1477 1477 1483 1483 1483 1483 1483 1483 1483 1483 1483 1489 1489 1489 1489 1489 1489 1489 1489 1489 1489 1489 1496 1496 1496 1503 1503 1503 1509 1509 1509 1516 1516 1516 1516 1516 1516 1516 1516 1516 1516 1509 1509 1516 1338 1338 1338 1333 1328 1328 1322 1322 1322 1317 1317 1322 1322 1322 1322 1322 1322 1322 1322 1322 1536 1536 1536 1536 1536 1543 1543 1543 1543 1550 1550 1550 1550 1557 1557 1557 1557 1557 1557 1557 1359 1359 1359 1365 1365 1370 1370 1370 1370 1370 1370 1370 1365 1365 1564 1365 1365 1365 1365 1365 1365 1365 1365 1365 1365 1365 1370 1370 1370 1370 1376 1381 1381 1381 1381 1381 1381 1381 1376 1376 1376 1376 1376 1376 1381 1381 1381 1381 1381 1381 1381 1381 1381 1381 1381 1392 1392 1392 1398 1398 1404 1404 1404 1404 1404 1404 1404 1404 1398 1398 1398 1398 1392 1392 1392 1392 1392 1392 1392 1387 1387 1387 1616 1616 1616 1616 1624 1624 1624 1624 1632 1632 1632 1632 1632 1639 1639 1639 1639 1639 1639 1639 1639 1639 1639 1639 1639 1639 1639 1639 1639 1639 1647 1647 1647 1647 1647 1647 1647 1647 1647 0 3300 3300 3300 3269 3269 3300 3300 3300 3269 3269 3269 3269 3269 3238 3238 3208 3178 3178 3178 3178 3178 3178 3178 3178 3178 3178 3208 3238 3269 3269 3269 3269 3300 3300 3269 3269 3269 3269 3269 3269 3269 3269 3269 0 0 0 0 0 0 0 0 0 0 0
0 0 0 0 0 0 0 0 0 0 0 0 0 0 0 0 0 0 0 0 0 0 0 0 0 0 0 0 0 0 0 0 3208 3208 3208 3208 3238 3238 3238 3238 3238 3238 3238 3238 3238 3238 3208 3208 3208 3238 3238 3238 3238 3238 3238 3208 3208 3208 3238 3238 3238 3238 3238 3238 3238 3238 3238 3238 3238 3238 3208 3208 3238 3238 3238 3208 3208 3208 3238 3238 3208 3208 3208 3208 3238 3238 3208 3208 3238 3238 3238 3238 3269 3269 3269 3269 3269 3269 3269 3269 3269 3269 3269 3269 3269 3238 3238 3238 3238 3238 3238 3238 3269 3269 3269 3269 3269 3269 3269 3269 3269 3269 3269 3269 3269 3269 3269 3300 3300 3300 3300 3300 3300 3300 3300 3300 3300 3300 3300 3300 2958 2958 2958 2958 2958 2958 2958 2958 2958 2933 2933 2933 2933 2933 2933 2933 2933 2933 2933 2933 2933 2933 2933 2933 2933 2933 2933 2933 2933 2933 2933 2933 2933 2933 2933 2958 2958 2958 2958 2958 2984 2984 3010 3037 3037 0 3037 0 0 0 1439 1433 1427 1427 1427 1427 1427 1427 1427 1427 1427 1421 1421 1421 1421 1421 1421 1421 1421 1421 1427 1427 1427 1427 1427 1427 1427 1427 1421 1421 1427 1427 1427 1427 1427 1427 1427 1427 1421 1421 1241 1241 1241 1236 1236 1236 1236 1236 1236 1241 1241 1241 1245 1245 1245 1245 1241 1241 1415 1415 1421 1421 1421 1421 1421 1421 1421 1421 1421 1427 1427 1427 1427 1427 1427 1427 1427 1427 1427 1427 1427 1427 1427 1427 1427 1427 1427 1427 1427 1427 1433 1433 1427 1427 1427 1427 1427 1421 1421 1421 1421 1421 1421 1421 1421 1421 1421 1421 1427 1427 1433 1433 1427 1427 1427 1427 1433 1427 1427 1427 1433 1433 1433 1433 1433 1433 1433 1433 1433 1433 1433 1433 1439 1439 1439 1439 1439 1439 1439 1439 1439 1439 1433 1433 1439 1439 1439 1433 1433 1433 1439 1439 1439 1439 1445 1445 1452 1452 1452 1338 1338 1338 1338 1333 1333 1333 1333 1333 1333 1338 1338 1338 1343 1343 1338 1338 1464 1464 1464 1464 1464 1464 1464 1470 1470 1470 1470 1477 1477 1477 1483 1483 1483 1483 1483 1483 1483 1483 1483 1489 1489 1489 1489 1496 1496 1496 1496 1496 1496 1496 1496 1496 1503 1503 1503 1503 1503 1509 1509 1509 1509 1516 1516 1516 1516 1516 1516 1516 1516 1516 1523 1516 1516 1523 1343 1343 1338 1333 1328 1328 1322 1322 1322 1317 1317 1322 1322 1322 1322 1322 1322 1322 1328 1333 1338 1536 1536 1543 1543 1543 1550 1550 1550 1550 1550 1550 1557 1557 1557 1359 1354 1354 1359 1359 1359 1359 1359 1365 1365 1365 1365 1370 1365 1365 1365 1365 1365 1365 1365 1365 1365 1365 1365 1365 1365 1365 1365 1365 1365 1365 1370 1370 1370 1370 1370 1376 1376 1376 1376 1381 1381 1381 1376 1376 1376 1376 1376 1376 1381 1381 1381 1381 1381 1381 1381 1381 1381 1381 1387 1392 1392 1392 1398 1398 1398 1398 1404 1404 1404 1404 1404 1398 1398 1398 1398 1398 1398 1398 1398 1398 1392 1392 1392 1387 1387 1616 1616 1624 1624 1624 1624 1632 1632 1632 1632 1632 1639 1639 1639 1639 1639 1639 1639 1639 1639 1639 1639 1639 1639 1639 1639 1639 1639 1639 1647 1647 1647 1647 1647 1647 1639 1639 1647 1647 1647 1632 3300 3300 3269 3269 3269 3269 3269 3269 3269 3269 3269 3269 3269 3238 3238 3208 3178 3178 3178 3178 3178 3178 3178 3178 3208 3208 3238 3238 3269 3269 3269 3269 3269 3269 3269 3269 3269 3269 3269 3269 3269 3269 3269 0 0 0 0 0 0 0 0 0 0 0
0 0 0 0 0 0 0 0 0 0 0 0 0 0 0 0 0 0 0 0 0 0 0 0 0 0 0 0 0 0 0 0 3208 3208 3208 3208 3208 3208 3238 3238 3238 3238 3238 3238 3238 3238 3208 3208 3208 3238 3238 3208 3208 3208 3208 3208 3208 3208 3208 3208 3238 3238 3238 3238 3238 3238 3238 3238 3238 3238 3208 3208 3208 3208 3208 3208 3208 3208 3208 3208 3208 3208 3208 3208 3208 3208 3208 3208 3208 3238 3238 3238 3269 3269 3269 3269 3238 3238 3238 3269 3269 3238 3238 3238 3238 3208 3208 3208 3208 3208 3238 3238 3238 3269 3269 3269 3269 3269 3269 3269 3238 3238 3269 3269 3269 3269 3269 3300 3300 3300 3300 3300 3300 3300 3300 3300 3300 3300 3300 3300 3269 2958 2958 2958 2958 2958 2958 2958 2958 2958 2933 2933 2933 2933 2933 2933 2933 2933 2933 2933 2933 2933 2933 2933 2933 2933 2933 2933 2933 2933 2933 2933 2933 2933 2933 2958 2958 2958 2958 2958 2958 3010 3010 3010 3037 3037 0 0 0 0 1433 1421 1421 1421 1421 1415 1415 1415 1415 1415 1415 1415 1415 1421 1415 1415 1421 1421 1421 1421 1421 1421 1421 1421 1421 1421 1421 1421 1421 1421 1421 1421 1421 1421 1421 1421 1421 1421 1421 1421 1241 1241 1241 1241 1241 1241 1241 1241 1241 1241 1245 1245 1245 1245 1250 1250 1250 1410 1410 1415 1415 1415 1415 1415 1415 1415 1415 1415 1415 1415 1421 1421 1421 1421 1421 1421 1421 1421 1421 1421 1421 1421 1421 1421 1421 1421 1421 1421 1421 1421 1421 1421 1421 1421 1421 1421 1421 1415 1415 1415 1415 1415 1415 1415 1421 1421 1421 1421 1421 1421 1421 1421 1421 1421 1421 1421 1421 1421 1421 1421 1427 1427 1427 1427 1427 1427 1427 1433 1433 1433 1433 1433 1433 1439 1439 1439 1439 1439 1439 1439 1439 1439 1433 1433 1433 1433 1439 1433 1433 1433 1439 1439 1439 1439 1445 1445 1445 1452 1333 1333 1338 1338 1338 1338 1333 1333 1338 1338 1338 1338 1338 1343 1343 1343 1338 1338 1464 1464 1464 1464 1464 1464 1470 1470 1477 1477 1477 1477 1477 1477 1483 1483 1483 1483 1483 1489 1489 1489 1489 1489 1489 1489 1496 1496 1496 1496 1503 1503 1503 1503 1503 1503 1503 1503 1503 1503 1509 1509 1516 1516 1516 1516 1516 1523 1523 1523 1516 1516 1516 1523 1523 1523 1523 1523 1343 1343 1338 1338 1333 1328 1328 1322 1322 1322 1322 1322 1322 1322 1322 1328 1328 1328 1333 1333 1338 1359 1359 1359 1359 1550 1550 1550 1557 1557 1557 1557 1359 1359 1359 1359 1354 1354 1359 1359 1359 1359 1359 1359 1365 1365 1365 1365 1365 1365 1365 1359 1359 1365 1365 1365 1365 1365 1365 1365 1365 1365 1365 1365 1365 1365 1365 1370 1370 1370 1370 1376 1376 1376 1376 1381 1381 1381 1376 1376 1376 1376 1376 1376 1381 1381 1381 1381 1381 1381 1381 1381 1381 1381 1387 1392 1392 1392 1398 1398 1398 1398 1404 1404 1404 1404 1398 1398 1398 1398 1398 1398 1398 1398 1398 1398 1398 1398 1392 1392 1616 1616 1616 1624 1624 1624 1624 1624 1632 1632 1639 1639 1639 1639 1639 1639 1639 1639 1639 1639 1639 1639 1639 1639 1639 1639 1639 1639 1647 1647 1647 1647 1647 1647 1647 1647 1639 1639 1632 1632 1632 1632 1632 3269 3269 3269 3269 3269 3269 3269 3269 3269 3269 3269 3269 3269 3238 3208 3208 3178 3178 3208 3208 3208 3208 3208 3238 3238 3238 3269 3269 3238 3238 3238 3238 3238 3238 3269 3269 3269 3238 3238 3238 3238 3238 0 0 0 0 0 0 0 0 0 0 0
0 0 0 0 0 0 0 0 0 0 0 0 0 0 0 0 0 0 0 0 0 0 0 0 0 0 0 0 0 0 0 0 3178 3178 3178 3178 3208 3208 3208 3238 3238 3238 3208 3208 3208 3208 3208 3208 3208 3208 3208 3208 3208 3208 3208 3178 3178 3178 3178 3178 3208 3208 3208 3238 3238 3238 3238 3238 3238 3238 3208 3208 3208 3208 3208 3208 3208 3208 3208 3208 3208 3208 3208 3208 3208 3208 3208 3208 3208 3208 3208 3208 3238 3269 3269 3238 3238 3238 3238 3238 3238 3238 3208 3208 3208 3208 3208 3208 3208 3208 3208 3208 3238 3238 3238 3238 3269 3269 3269 3269 3238 3238 3269 3269 3269 3269 3269 3300 3300 3300 3300 3300 3300 3300 3300 3300 3269 3269 3269 3269 3238 2984 2984 2984 2958 2958 2958 2958 2958 2958 2958 2958 2958 2958 2958 2958 2933 2933 2933 2933 2933 2933 2933 2933 2933 2933 2933 2933 2933 2958 2958 2933 2933 2933 2933 2933 2958 2958 2958 2958 2958 2984 3010 3010 3010 3037 0 0 0 0 1433 1415 1410 1410 1415 1410 1410 1410 1410 1410 1410 1410 1410 1410 1410 1410 1410 1410 1410 1404 1404 1404 1404 1404 1404 1404 1404 1404 1410 1410 1410 1410 1410 1415 1421 1415 1415 1415 1415 1415 1241 1241 1241 1241 1241 1241 1241 1241 1241 1241 1245 1245 1250 1250 1250 1255 1255 1410 1410 1410 1410 1410 1410 1410 1410 1410 1410 1410 1410 1410 1410 1410 1415 1410 1410 1415 1410 1410 1410 1410 1415 1415 1415 1415 1415 1415 1415 1415 1415 1415 1415 1415 1415 1410 1410 1410 1410 1410 1410 1410 1415 1415 1415 1415 1415 1421 1421 1415 1415 1415 1415 1415 1415 1415 1415 1415 1415 1415 1421 1421 1421 1421 1421 1421 1427 1427 1427 1433 1433 1433 1433 1433 1433 1433 1439 1439 1439 1439 1439 1439 1439 1439 1433 1433 1433 1433 1439 1439 1439 1439 1439 1439 1439 1439 1439 1445 1445 1452 1333 1333 1338 1343 1338 1338 1338 1338 1338 1338 1338 1343 1343 1343 1343 1343 1343 1343 1464 1464 1464 1470 1470 1470 1470 1477 1477 1477 1483 1483 1483 1483 1483 1483 1489 1489 1489 1489 1489 1489 1489 1489 1496 1496 1503 1503 1503 1503 1509 1509 1509 1509 1509 1509 1509 1509 1509 1509 1509 1509 1516 1516 1516 1516 1523 1523 1523 1523 1516 1516 1523 1523 1529 1529 1529 1529 1343 1343 1338 1338 1333 1333 1328 1328 1328 1322 1322 1322 1322 1322 1328 1328 1328 1328 1333 1338 1343 1359 1359 1359 1359 1359 1359 1354 1349 1349 1354 1354 1359 1359 1359 1359 1354 1354 1359 1359 1359 1359 1359 1359 1365 1365 1365 1365 1365 1359 1359 1359 1359 1365 1365 1365 1365 1365 1365 1365 1365 1365 1365 1365 1365 1365 1365 1370 1370 1370 1370 1376 1376 1376 1376 1381 1381 1381 1376 1376 1376 1376 1376 1376 1381 1381 1381 1381 1381 1381 1381 1381 1381 1387 1387 1392 1392 1392 1398 1398 1398 1398 1404 1404 1404 1404 1398 1398 1398 1398 1398 1398 1398 1398 1398 1398 1398 1398 1398 1392 1392 1616 1616 1624 1624 1624 1624 1624 1632 1632 1639 1639 1639 1639 1639 1647 1647 1647 1647 1647 1647 1647 1647 1639 1639 1647 1639 1639 1647 1647 1647 1647 1647 1647 1647 1647 1639 1639 1632 1632 1639 1632 1632 3269 3269 3238 3238 3238 3269 3269 3238 3238 3238 3269 3269 3238 3238 3238 3208 3178 3178 3208 3208 3208 3208 3208 3238 3238 3238 3238 3238 3238 3238 3238 3238 3238 3238 3238 3238 3238 3238 3238 3238 3238 3238 0 0 0 0 0 0 0 0 0 0 0
0 0 0 0 0 0 0 0 0 0 0 0 0 0 0 0 0 0 0 0 0 0 0 0 0 0 0 0 0 0 0 0 3178 3178 3178 3178 3178 3208 3208 3238 3208 3208 3208 3208 3208 3208 3178 3178 3208 3208 3208 3208 3208 3208 3178 3178 3149 3149 3178 3178 3178 3178 3178 3208 3208 3208 3208 3208 3208 3208 3178 3178 3208 3208 3208 3208 3208 3208 3208 3208 3208 3208 3208 3208 3208 3208 3208 3208 3208 3208 3208 3208 3208 3238 3238 3208 3208 3208 3208 3208 3208 3208 3208 3208 3208 3178 3178 3178 3208 3208 3208 3208 3208 3238 3238 3238 3238 3238 3238 3238 3238 3238 3269 3269 3269 3269 3269 3300 3300 3269 3269 3269 3269 3269 3269 3269 3269 3269 3269 3269 3149 2984 2984 2984 2958 2958 2958 2958 2958 2958 2958 2958 2958 2958 2958 2958 2933 2933 2933 2933 2933 2933 2933 2933 2933 2933 2933 2933 2933 2958 2933 2933 2933 2933 2933 2933 2958 2958 2958 2958 2958 2984 3010 3010 3010 3037 3037 0 0 0 0 1415 1410 1410 1410 1404 1404 1404 1404 1404 1404 1404 1404 1404 1404 1404 1404 1404 1398 1398 1398 1404 1398 1398 1398 1398 1404 1404 1404 1404 1404 1404 1404 1410 1410 1404 1404 1404 1404 1410 1410 1241 1241 1241 1241 1241 1241 1241 1241 1245 1245 1245 1250 1250 1255 1255 1259 1398 1398 1404 1404 1404 1404 1404 1404 1404 1404 1404 1404 1404 1404 1404 1404 1404 1404 1404 1404 1398 1398 1404 1404 1404 1404 1404 1410 1410 1410 1410 1410 1410 1410 1410 1410 1410 1404 1404 1404 1404 1404 1410 1410 1410 1410 1415 1415 1415 1415 1415 1415 1415 1415 1415 1415 1415 1415 1415 1415 1415 1415 1421 1421 1421 1421 1421 1421 1427 1328 1328 1433 1433 1433 1433 1433 1433 1439 1439 1439 1439 1439 1439 1439 1439 1433 1433 1433 1433 1433 1433 1433 1439 1439 1439 1439 1439 1439 1445 1338 1338 1338 1338 1343 1343 1343 1343 1338 1338 1343 1343 1343 1343 1343 1343 1343 1343 1343 1343 1470 1470 1470 1477 1477 1477 1477 1483 1483 1483 1483 1483 1483 1489 1489 1489 1489 1489 1489 1489 1489 1496 1496 1496 1496 1503 1509 1509 1509 1509 1509 1509 1509 1509 1509 1509 1509 1509 1509 1509 1516 1516 1516 1516 1516 1523 1523 1523 1523 1523 1523 1523 1523 1529 1529 1529 1529 1529 1343 1343 1338 1338 1333 1333 1328 1328 1328 1328 1328 1328 1328 1328 1328 1333 1333 1333 1338 1343 1343 1354 1354 1359 1359 1354 1354 1354 1349 1349 1354 1354 1354 1354 1359 1359 1354 1354 1359 1359 1359 1359 1359 1359 1365 1365 1365 1359 1359 1359 1359 1359 1359 1365 1365 1365 1365 1365 1365 1365 1365 1365 1365 1365 1365 1365 1365 1370 1370 1370 1370 1376 1376 1376 1376 1381 1381 1381 1376 1376 1376 1376 1376 1376 1381 1381 1381 1381 1381 1381 1381 1387 1387 1387 1392 1392 1398 1398 1398 1398 1404 1404 1404 1404 1404 1404 1404 1398 1398 1398 1398 1398 1398 1398 1398 1398 1398 1398 1398 1392 1392 1616 1616 1624 1624 1624 1624 1624 1632 1639 1639 1639 1639 1639 1647 1647 1647 1647 1647 1647 1647 1647 1647 1647 1647 1647 1647 1647 1647 1647 1647 1647 1647 1647 1655 1655 1647 1647 1647 1647 1639 1639 1639 3238 3238 3238 3238 3238 3238 3238 3238 3238 3238 3269 3238 3238 3238 3208 3208 3178 3178 3208 3208 3208 3208 3208 3238 3238 3238 3238 3238 3238 3238 3238 3238 3238 3238 3238 3238 3238 3208 3208 3208 3208 3208 0 0 0 0 0 0 0 0 0 0 0
0 0 0 0 0 0 0 0 0 0 0 0 0 0 0 0 0 0 0 0 0 0 0 0 0 0 0 0 0 0 0 0 3149 3149 3149 3149 3149 3178 3208 3208 3208 3208 3178 3178 3178 3178 3178 3178 3178 3208 3208 3178 3178 3208 3178 3178 3149 3149 3149 3149 3149 3149 3149 3178 3178 3208 3208 3208 3208 3208 3178 3178 3208 3208 3178 3178 3178 3178 3178 3178 3178 3178 3208 3208 3208 3178 3178 3178 3208 3178 3178 3208 3208 3208 3208 3208 3208 3208 3208 3208 3208 3208 3208 3208 3208 3178 3178 3178 3178 3208 3208 3208 3208 3208 3208 3208 3208 3238 3238 3238 3238 3238 3238 3238 3238 3238 3238 3269 3269 3269 3269 3269 3269 3269 3269 3269 3269 3269 3238 3208 3149 3149 2984 2984 2984 2958 2958 2958 2958 2958 2958 2958 2958 2958 2958 2958 2933 2933 2933 2933 2933 2933 2933 2933 2933 2958 2958 2958 2958 2958 2933 2933 2933 2933 2933 2933 2958 2958 2958 2958 2958 2984 3010 3010 3010 3037 3037 0 0 0 0 0 1404 1398 1398 1398 1398 1404 1404 1404 1404 1398 1398 1398 1398 1398 1398 1398 1398 1398 1398 1398 1398 1398 1398 1398 1398 1398 1398 1398 1398 1398 1398 1404 1398 1398 1398 1398 1404 1404 1404 1245 1245 1245 1241 1241 1245 1245 1245 1250 1250 1250 1250 1255 1255 1259 1259 1392 1392 1392 1392 1392 1392 1392 1392 1392 1392 1398 1398 1398 1392 1392 1398 1392 1392 1392 1392 1392 1398 1398 1398 1398 1398 1398 1398 1398 1398 1404 1404 1404 1404 1404 1404 1404 1404 1404 1404 1404 1404 1404 1410 1410 1410 1410 1415 1415 1415 1415 1415 1415 1415 1415 1415 1415 1415 1415 1415 1415 1415 1421 1415 1415 1421 1421 1421 1322 1322 1328 1328 1328 1328 1328 1328 1333 1439 1439 1439 1439 1439 1439 1439 1439 1433 1433 1433 1433 1433 1433 1433 1439 1338 1338 1338 1338 1338 1343 1338 1338 1343 1343 1343 1343 1343 1343 1343 1343 1343 1343 1343 1343 1343 1343 1343 1343 1349 1477 1477 1477 1477 1477 1477 1483 1483 1483 1483 1483 1483 1489 1489 1489 1489 1489 1489 1489 1489 1496 1496 1496 1496 1496 1503 1503 1509 1509 1509 1509 1509 1509 1509 1509 1509 1516 1516 1516 1516 1516 1516 1516 1516 1516 1523 1523 1523 1529 1529 1529 1523 1523 1529 1529 1536 1536 1536 1536 1349 1343 1343 1338 1338 1333 1333 1328 1328 1333 1333 1333 1333 1333 1333 1338 1338 1338 1343 1343 1349 1354 1354 1359 1359 1354 1354 1354 1354 1354 1354 1354 1354 1354 1359 1359 1354 1354 1359 1359 1359 1359 1359 1359 1365 1365 1365 1359 1359 1359 1359 1359 1359 1365 1365 1365 1365 1365 1365 1365 1365 1365 1365 1365 1365 1365 1370 1370 1370 1370 1370 1376 1376 1376 1376 1381 1381 1381 1376 1376 1376 1376 1376 1376 1381 1381 1381 1381 1381 1381 1381 1387 1387 1392 1392 1398 1398 1398 1398 1404 1404 1404 1404 1404 1404 1404 1404 1404 1404 1404 1398 1398 1398 1398 1398 1398 1398 1398 1398 1398 1616 1616 1616 1624 1624 1624 1624 1624 1632 1632 1632 1639 1639 1647 1647 1647 1655 1655 1655 1655 1647 1647 1647 1647 1647 1647 1647 1647 1647 1647 1647 1647 1647 1647 1655 1655 1655 1655 1655 1655 3269 3269 3269 3238 3238 3238 3238 3238 3238 3238 3238 3238 3238 3238 3238 3238 3238 3208 3208 3178 3178 3208 3208 3208 3208 3208 3238 3238 3238 3238 3238 3238 3238 3238 3238 3238 3208 3208 3208 3178 3178 3178 3178 3178 3178 0 0 0 0 0 0 0 0 0 0 0
0 0 0 0 0 0 0 0 0 0 0 0 0 0 0 0 0 0 0 0 0 0 0 0 0 0 0 0 0 0 0 0 3149 3149 3149 3149 3149 3149 3178 3178 3149 3149 3149 3149 3149 3149 3149 3149 3149 3149 3178 3178 3178 3178 3178 3178 3149 3149 3149 3149 3149 3149 3149 3149 3178 3178 3178 3208 3208 3208 3178 3178 3178 3178 3178 3178 3178 3178 3178 3178 3178 3178 3178 3178 3178 3178 3178 3178 3178 3178 3178 3178 3178 3178 3178 3178 3178 3178 3208 3208 3208 3208 3178 3178 3178 3178 3178 3178 3178 3178 3178 3178 3208 3208 3208 3208 3208 3208 3208 3208 3208 3208 3208 3208 3238 3238 3238 3238 3238 3238 3269 3269 3238 3238 3238 3238 3238 3238 3208 3178 3120 3120 3010 2984 2984 2984 2984 2984 2958 2958 2958 2958 2958 2958 2958 2958 2933 2933 2933 2933 2933 2933 2933 2933 2933 2958 2958 2958 2958 2958 2933 2933 2933 2933 2933 2933 2958 2958 2958 2958 2958 3010 3010 3010 3010 3037 3037 0 0 0 0 0 1392 1392 1392 1387 1387 1398 1398 1398 1398 1398 1392 1392 1392 1392 1392 1392 1387 1387 1392 1392 1392 1392 1392 1392 1392 1392 1392 1392 1392 1392 1392 1398 1392 1392 1392 1398 1398 1398 1398 1245 1245 1245 1245 1245 1245 1245 1250 1250 1250 1255 1255 1255 1259 1259 1264 1392 1392 1387 1387 1387 1387 1387 1387 1387 1387 1392 1392 1392 1392 1392 1392 1392 1392 1392 1392 1392 1392 1392 1392 1392 1398 1398 1398 1398 1398 1398 1398 1398 1398 1398 1398 1398 1398 1398 1398 1398 1398 1404 1404 1404 1410 1410 1415 1415 1415 1421 1421 1421 1421 1421 1421 1415 1415 1415 1415 1415 1415 1312 1312 1317 1317 1317 1317 1322 1322 1328 1328 1328 1328 1328 1328 1328 1328 1333 1333 1333 1333 1333 1333 1333 1333 1333 1333 1333 1328 1328 1328 1338 1338 1338 1338 1338 1338 1343 1343 1343 1343 1343 1349 1343 1343 1343 1343 1343 1343 1343 1343 1343 1349 1349 1349 1349 1349 1483 1483 1483 1483 1483 1483 1483 1483 1489 1489 1489 1489 1489 1489 1489 1496 1496 1496 1496 1496 1503 1503 1503 1503 1503 1503 1509 1509 1509 1516 1516 1516 1516 1516 1516 1516 1516 1516 1516 1516 1516 1516 1516 1523 1523 1523 1523 1523 1529 1529 1529 1529 1529 1529 1529 1536 1536 1536 1536 1349 1343 1343 1338 1338 1338 1333 1333 1333 1333 1333 1333 1333 1333 1338 1338 1338 1338 1343 1349 1349 1359 1359 1359 1359 1354 1354 1354 1354 1354 1354 1354 1354 1359 1359 1359 1359 1359 1359 1359 1359 1359 1359 1359 1365 1365 1365 1359 1359 1359 1359 1359 1359 1365 1365 1365 1365 1365 1365 1365 1365 1365 1365 1365 1365 1365 1370 1370 1370 1370 1376 1376 1376 1376 1376 1381 1381 1381 1376 1376 1376 1376 1381 1381 1381 1381 1381 1381 1381 1381 1381 1387 1387 1392 1392 1398 1398 1398 1398 1404 1404 1404 1404 1404 1404 1404 1404 1404 1404 1404 1404 1398 1398 1398 1404 1404 1404 1398 1398 1398 1616 1624 1624 1632 1632 1616 1616 1616 1616 1594 1594 1639 1647 1647 1647 1655 1663 1663 1663 1663 1655 1655 1655 1647 1647 1647 1647 1647 1647 1647 1647 1647 1647 1647 1655 1655 1671 1671 1671 1671 3269 3269 3269 3238 3238 3238 3238 3238 3238 3238 3238 3238 3238 3238 3238 3238 3208 3208 3208 3178 3178 3208 3208 3208 3208 3208 3208 3208 3208 3208 3238 3238 3238 3238 3238 3238 3208 3208 3178 3178 3178 3178 3178 3178 3178 0 0 0 0 0 0 0 0 0 0 0
0 0 0 0 0 0 0 0 0 0 0 0 0 0 0 0 0 0 0 0 0 0 0 0 0 0 0 0 0 0 0 0 3149 3120 3120 3149 3120 3120 3149 3149 3149 3149 3149 3149 3149 3149 3120 3120 3149 3149 3149 3178 3178 3178 3178 3149 3120 3120 3120 3120 3120 3120 3120 3149 3149 3149 3178 3149 3149 3178 3149 3149 3178 3178 3178 3178 3178 3178 3178 3178 3178 3178 3178 3178 3178 3178 3178 3178 3149 3149 3149 3149 3120 3120 3149 3149 3149 3178 3178 3208 3208 3178 3178 3178 3178 3178 3178 3178 3178 3178 3178 3178 3178 3178 3178 3208 3208 3208 3208 3208 3208 3208 3208 3208 3208 3208 3208 3238 3238 3238 3269 3238 3238 3238 3238 3238 3238 3208 3208 3149 3120 3064 3010 2984 2984 2984 2984 2984 2984 2958 2958 2958 2958 2958 2958 2958 2933 2933 2933 2933 2933 2933 2933 2933 2933 2958 2958 2958 2958 2958 2933 2933 2933 2958 2933 2933 2958 2958 2958 2958 2984 3010 3010 3010 3010 3037 3037 0 0 0 0 0 1387 1381 1381 1381 1381 1381 1387 1392 1392 1387 1387 1387 1387 1387 1387 1381 1381 1387 1387 1387 1387 1387 1387 1387 1387 1387 1387 1387 1387 1387 1392 1392 1392 1392 1392 1392 1392 1398 1398 1250 1250 1250 1250 1250 1250 1250 1250 1255 1255 1255 1255 1255 1259 1264 1264 1387 1387 1387 1387 1387 1387 1387 1381 1381 1387 1387 1387 1387 1392 1392 1392 1392 1392 1392 1392 1392 1392 1392 1392 1392 1392 1398 1398 1398 1398 1398 1398 1398 1392 1392 1392 1398 1398 1398 1398 1398 1398 1398 1404 1404 1410 1410 1415 1415 1415 1421 1421 1421 1307 1307 1307 1307 1307 1307 1312 1312 1312 1312 1312 1317 1317 1317 1317 1322 1322 1322 1322 1322 1328 1328 1328 1328 1328 1333 1333 1333 1333 1333 1333 1333 1333 1333 1333 1333 1328 1328 1328 1338 1338 1343 1343 1343 1343 1343 1343 1343 1349 1349 1349 1349 1343 1343 1343 1343 1343 1343 1343 1343 1349 1349 1349 1349 1349 1483 1483 1483 1483 1483 1483 1483 1489 1489 1489 1489 1489 1496 1496 1496 1496 1496 1496 1496 1503 1503 1503 1503 1509 1509 1509 1509 1509 1509 1516 1516 1516 1516 1516 1516 1516 1516 1523 1523 1523 1523 1523 1523 1523 1523 1523 1529 1529 1529 1529 1529 1529 1529 1529 1529 1536 1536 1536 1359 1349 1343 1343 1338 1338 1338 1333 1333 1333 1333 1333 1333 1333 1333 1338 1338 1338 1343 1349 1349 1354 1359 1359 1359 1359 1359 1359 1359 1354 1354 1354 1354 1359 1359 1359 1359 1359 1359 1359 1359 1359 1359 1359 1359 1365 1365 1365 1359 1359 1359 1359 1359 1365 1365 1365 1365 1365 1370 1365 1365 1365 1365 1370 1370 1370 1370 1370 1370 1376 1376 1376 1376 1381 1381 1381 1381 1381 1381 1376 1376 1376 1381 1381 1381 1381 1381 1381 1381 1381 1381 1387 1387 1392 1398 1398 1398 1398 1398 1398 1404 1404 1404 1404 1404 1404 1404 1404 1404 1404 1404 1404 1404 1404 1404 1404 1404 1404 1404 1404 1404 1639 1639 1639 1632 1632 1616 1616 1616 1609 1594 1594 1594 1663 1663 1663 1663 1671 1663 1663 1663 1655 1655 1655 1647 1647 1647 1647 1647 1647 1647 1647 1647 1647 1655 1655 1663 1671 1671 1671 1671 3269 3269 3238 3238 3238 3208 3208 3208 3208 3208 3238 3238 3238 3238 3208 3208 3178 3178 3178 3178 3178 3178 3178 3178 3178 3178 3208 3208 3208 3208 3208 3208 3208 3208 3208 3208 3178 3178 3149 3149 3149 3149 3149 3178 3178 0 0 0 0 0 0 0 0 0 0 0
0 0 0 0 0 0 0 0 0 0 0 0 0 0 0 0 0 0 0 0 0 0 0 0 0 0 0 0 0 0 0 0 3120 3120 3120 3120 3120 3120 3149 3120 3120 3120 3120 3120 3120 3120 3120 3120 3120 3120 3149 3149 3178 3178 3149 3149 3120 3120 3120 3120 3120 3120 3120 3120 3149 3149 3149 3149 3149 3178 3149 3149 3149 3149 3149 3149 3149 3149 3178 3178 3178 3178 3178 3178 3178 3149 3149 3149 3149 3149 3149 3120 3120 3120 3120 3149 3149 3149 3178 3178 3178 3178 3149 3149 3178 3149 3149 3149 3178 3178 3178 3178 3178 3178 3178 3178 3178 3178 3208 3208 3208 3208 3208 3208 3208 3208 3208 3238 3238 3238 3238 3238 3208 3208 3208 3208 3208 3208 3178 3149 3092 3010 3010 2984 2984 2984 2984 2984 2984 2958 2958 2958 2958 2958 2958 2958 2933 2933 2933 2933 2933 2933 2933 2933 2933 2958 2958 2958 2958 2958 2958 2933 2933 2958 2958 2958 2958 2958 2958 2958 2984 3010 3010 3010 3010 3037 3037 0 0 0 0 0 1381 1381 1381 1376 1376 1381 1381 1381 1381 1387 1381 1381 1381 1381 1381 1381 1381 1381 1381 1381 1381 1381 1381 1381 1381 1381 1381 1387 1387 1387 1387 1387 1381 1381 1381 1387 1387 1387 1255 1250 1250 1250 1250 1250 1250 1255 1255 1255 1255 1255 1255 1255 1259 1264 1264 1381 1381 1381 1381 1381 1381 1381 1381 1381 1381 1387 1387 1387 1392 1392 1392 1392 1392 1392 1392 1392 1392 1392 1392 1392 1392 1398 1398 1392 1392 1392 1392 1392 1392 1392 1392 1398 1398 1398 1398 1398 1398 1302 1302 1302 1302 1302 1302 1302 1302 1302 1302 1302 1307 1307 1307 1307 1307 1307 1312 1312 1312 1317 1317 1317 1317 1317 1317 1317 1322 1322 1322 1322 1328 1328 1328 1328 1333 1333 1333 1333 1333 1333 1333 1338 1333 1333 1333 1338 1333 1333 1338 1338 1343 1343 1343 1343 1343 1349 1349 1349 1349 1349 1349 1349 1343 1343 1343 1343 1343 1343 1343 1343 1349 1349 1349 1349 1349 1483 1483 1483 1483 1483 1483 1489 1489 1489 1489 1489 1496 1496 1496 1496 1503 1503 1503 1503 1503 1509 1509 1509 1509 1509 1509 1509 1516 1516 1516 1516 1516 1516 1516 1516 1523 1523 1523 1523 1523 1523 1523 1523 1523 1529 1529 1529 1529 1529 1536 1536 1529 1529 1529 1529 1536 1536 1536 1354 1349 1343 1343 1338 1338 1338 1333 1333 1338 1338 1338 1338 1338 1338 1338 1338 1343 1343 1349 1349 1354 1359 1359 1359 1359 1359 1359 1359 1359 1359 1359 1359 1359 1359 1359 1359 1359 1359 1359 1359 1359 1359 1359 1359 1365 1365 1365 1365 1365 1365 1365 1365 1365 1365 1365 1365 1370 1370 1370 1370 1370 1370 1370 1370 1370 1370 1370 1376 1376 1376 1381 1381 1381 1381 1381 1381 1381 1381 1376 1376 1376 1381 1381 1381 1381 1381 1381 1381 1381 1387 1387 1392 1392 1398 1398 1398 1404 1404 1404 1404 1404 1404 1404 1404 1404 1404 1404 1404 1404 1404 1404 1404 1404 1404 1404 1404 1404 1404 1404 1404 1639 1639 1639 1639 1632 1616 1616 1616 1609 1609 1609 3238 1663 1663 1663 1671 1671 1671 1663 1663 1655 1655 1655 1647 1647 1647 1647 1647 1647 1647 1647 1647 1655 1655 1663 1671 1671 1671 1671 1671 1671 3238 3238 3208 3208 3178 3149 3149 3178 3178 3208 3178 3178 3178 3178 3178 3149 3149 3149 3149 3149 3149 3149 3149 3149 3149 3178 3178 3178 3178 3178 3178 3208 3208 3208 3208 3178 3178 3149 3149 3149 3149 3149 3178 3178 0 0 0 0 0 0 0 0 0 0 0
0 0 0 0 0 0 0 0 0 0 0 0 0 0 0 0 0 0 0 0 0 0 0 0 0 0 0 0 0 0 0 0 3120 3120 3120 3120 3120 3120 3120 3120 3092 3092 3120 3120 3120 3120 3120 3120 3120 3120 3120 3149 3149 3149 3120 3120 3092 3092 3092 3092 3092 3092 3120 3120 3120 3149 3149 3149 3149 3149 3149 3149 3149 3149 3149 3149 3149 3149 3149 3149 3149 3149 3149 3149 3149 3149 3149 3149 3120 3120 3120 3120 3092 3092 3092 3120 3120 3120 3149 3149 3149 3149 3120 3120 3149 3149 3149 3149 3178 3178 3178 3178 3178 3178 3178 3178 3178 3178 3178 3208 3208 3208 3208 3208 3208 3208 3208 3208 3208 3208 3208 3208 3208 3208 3208 3208 3208 3178 3178 3149 3092 3010 3010 2984 2984 2984 2984 2984 2984 2958 2958 2958 2958 2958 2958 2958 2933 2933 2933 2933 2933 2933 2933 2933 2933 2958 2958 2958 2958 2958 2958 2933 2933 2933 2958 2958 2958 2958 2958 2958 2984 3010 3010 3010 3010 3037 3037 0 0 0 0 0 1376 1376 1370 1370 1370 1376 1376 1376 1376 1381 1376 1376 1376 1376 1376 1370 1370 1376 1376 1376 1376 1376 1376 1376 1376 1376 1376 1381 1381 1381 1381 1381 1381 1381 1381 1381 1381 1381 1255 1250 1250 1250 1250 1255 1255 1255 1255 1255 1255 1255 1255 1259 1259 1264 1376 1381 1376 1376 1376 1376 1376 1381 1381 1381 1381 1381 1387 1387 1387 1392 1392 1392 1392 1392 1392 1392 1392 1392 1392 1392 1392 1288 1288 1288 1288 1288 1288 1292 1292 1288 1288 1292 1292 1292 1292 1292 1297 1302 1302 1302 1302 1302 1302 1302 1302 1302 1302 1302 1307 1307 1307 1307 1307 1307 1312 1312 1312 1317 1317 1317 1317 1317 1317 1317 1322 1322 1322 1322 1322 1328 1328 1328 1333 1333 1333 1333 1333 1333 1338 1338 1333 1333 1333 1338 1333 1333 1338 1343 1343 1343 1349 1349 1349 1349 1349 1349 1349 1354 1354 1349 1343 1343 1343 1343 1343 1343 1343 1349 1349 1349 1349 1349 1349 1483 1483 1483 1483 1483 1483 1489 1489 1489 1489 1496 1496 1496 1496 1503 1503 1503 1503 1503 1503 1509 1509 1509 1509 1509 1509 1509 1516 1516 1516 1516 1516 1516 1516 1516 1523 1523 1523 1523 1523 1523 1523 1523 1523 1529 1529 1529 1536 1536 1536 1536 1529 1529 1529 1536 1536 1536 1536 1354 1349 1343 1343 1338 1338 1338 1338 1338 1338 1338 1338 1338 1338 1338 1338 1338 1343 1343 1349 1349 1354 1359 1359 1359 1359 1359 1359 1359 1359 1359 1359 1359 1359 1359 1359 1359 1359 1359 1359 1359 1359 1359 1359 1359 1365 1365 1365 1365 1365 1365 1365 1365 1365 1365 1365 1365 1370 1370 1376 1370 1370 1376 1376 1376 1370 1370 1376 1376 1381 1381 1381 1381 1381 1381 1381 1381 1381 1381 1381 1381 1381 1381 1381 1381 1381 1381 1387 1387 1387 1387 1387 1392 1398 1398 1398 1404 1404 1404 1404 1404 1404 1404 1404 1404 1404 1410 1404 1404 1404 1404 1404 1404 1404 1404 1404 1404 1404 1404 1404 1404 1639 1639 1639 1639 1632 1632 1632 3269 3269 3238 3238 3238 1663 1663 1663 1671 1671 1671 1671 1663 1655 1655 1655 1647 1647 1647 1647 1647 1647 1647 1647 1647 1655 1655 1663 1671 1671 1671 1671 1671 0 1671 3178 3178 3178 3178 3149 3149 3178 3178 3178 3178 3178 3178 3178 3178 3149 3149 3149 3149 3149 3149 3149 3149 3149 3149 3149 3149 3149 3149 3178 3178 3178 3178 3178 3178 3149 3149 3149 3149 3149 3149 3149 3149 3149 0 0 0 0 0 0 0 0 0 0 0
0 0 0 0 0 0 0 0 0 0 0 0 0 0 0 0 0 0 0 0 0 0 0 0 0 0 0 0 0 0 0 0 3120 3120 3092 3092 3120 3120 3120 3120 3092 3092 3120 3120 3092 3092 3092 3092 3120 3120 3120 3120 3120 3120 3120 3120 3092 3092 3092 3092 3092 3092 3092 3120 3120 3120 3120 3120 3120 3120 3120 3120 3120 3120 3120 3120 3120 3120 3149 3149 3149 3149 3149 3149 3149 3149 3120 3120 3120 3092 3092 3120 3092 3092 3092 3120 3120 3120 3120 3120 3120 3120 3120 3120 3149 3149 3149 3149 3149 3149 3149 3149 3149 3149 3178 3178 3178 3178 3178 3178 3178 3178 3178 3178 3178 3178 3178 3208 3208 3208 3208 3208 3208 3208 3178 3178 3178 3149 3149 3120 3092 3037 3010 3010 2984 2984 2984 2984 2984 2958 2958 2958 2958 2958 2958 2958 2933 2933 2933 2933 2933 2933 2933 2933 2933 2958 2958 2958 2958 2958 2958 2933 2933 2933 2958 2958 2958 2958 2958 2958 3010 3010 3010 3010 3037 3037 3037 0 0 0 0 0 1365 1365 1365 1365 1370 1365 1365 1370 1370 1376 1376 1370 1370 1370 1370 1370 1370 1370 1365 1365 1370 1370 1370 1370 1370 1370 1370 1376 1376 1376 1376 1376 1376 1376 1376 1376 1376 1381 1255 1255 1255 1255 1255 1255 1255 1255 1255 1255 1255 1259 1259 1259 1259 1264 1376 1381 1376 1376 1376 1376 1376 1376 1376 1376 1376 1381 1381 1381 1387 1387 1392 1392 1387 1387 1392 1392 1392 1387 1387 1387 1288 1288 1288 1288 1288 1288 1288 1292 1292 1288 1288 1292 1292 1292 1292 1292 1297 1297 1302 1302 1302 1302 1302 1302 1302 1302 1302 1302 1307 1307 1307 1307 1307 1307 1312 1312 1312 1317 1317 1317 1317 1317 1317 1317 1322 1322 1322 1322 1322 1328 1328 1328 1333 1333 1333 1333 1333 1338 1338 1338 1338 1338 1338 1338 1338 1338 1343 1343 1343 1343 1349 1349 1349 1349 1349 1349 1349 1349 1354 1349 1349 1349 1349 1349 1349 1349 1349 1349 1349 1354 1354 1354 1354 1489 1489 1489 1489 1489 1489 1489 1489 1496 1496 1496 1503 1503 1503 1503 1503 1503 1503 1503 1509 1509 1509 1509 1509 1509 1516 1516 1516 1516 1516 1516 1516 1516 1516 1516 1516 1523 1523 1523 1523 1523 1523 1523 1529 1529 1529 1536 1536 1536 1536 1536 1529 1529 1529 1536 1536 1536 1536 1354 1349 1343 1343 1338 1338 1338 1338 1338 1338 1338 1338 1338 1338 1338 1338 1343 1343 1343 1349 1354 1354 1359 1359 1359 1359 1359 1359 1359 1359 1359 1359 1359 1359 1359 1359 1359 1359 1359 1359 1359 1359 1359 1365 1365 1365 1365 1365 1365 1365 1365 1365 1365 1370 1370 1370 1370 1376 1376 1376 1376 1376 1376 1376 1376 1376 1376 1381 1381 1381 1381 1381 1381 1381 1381 1381 1381 1381 1387 1381 1381 1381 1381 1381 1387 1387 1387 1392 1392 1392 1392 1392 1398 1398 1398 1398 1404 1404 1404 1404 1404 1410 1404 1404 1404 1410 1410 1410 1404 1404 1404 1404 1404 1404 1404 1404 1404 1404 1404 1404 1404 1647 1639 1639 1639 1639 3300 3300 3269 3269 3238 3238 3238 1671 1671 1671 1671 1671 1671 1671 1663 1655 1655 1655 1647 1647 1647 1647 1647 1647 1647 1647 1647 1655 1663 1663 1671 1671 1671 1671 1680 1680 0 3178 3178 3178 3149 3149 3149 3149 3178 3178 3149 3149 3149 3149 3149 3149 3149 3149 3149 3149 3149 3149 3149 3149 3149 3149 3149 3149 3149 3178 3178 3178 3178 3178 3178 3149 3149 3149 3149 3149 3149 3149 3149 3149 0 0 0 0 0 0 0 0 0 0 0
