0 0 0 0 0 0 0 0 0 0 0 0 0 0 0 0 0 0 0 0 0 0 0 0 0 0 0 0 0 0 0 0 2680 2680 2680 2680 2680 2680 2680 2659 2659 2680 2680 2680 2680 2659 2659 2680 2680 2701 2701 2723 2723 2723 2723 2723 2723 2723 2723 2723 2723 2723 2723 2723 2723 2723 2723 2723 2701 2701 2701 2701 2701 2701 2701 2701 2701 2701 2701 2701 2723 2723 2723 2723 2723 2723 2723 2723 2723 2723 2723 2723 2723 2723 2723 2723 2723 2744 2744 2744 2767 2767 2767 2789 2789 2789 2789 2789 2789 2789 2789 2812 2812 2812 2812 2835 2835 2835 2859 2859 2859 2859 2859 2835 2835 2835 2835 2835 2835 2835 2859 2859 2859 2859 2859 2859 2859 2859 2859 2859 2859 2859 2859 2859 2859 2883 2883 2883 2883 2883 2883 2883 2883 2883 2883 2883 2883 2883 2883 2883 2883 2883 2883 2883 2883 2883 2883 2883 2883 2883 2908 2908 2908 1705 1705 1696 1696 1705 1713 1713 1564 1564 1572 1579 1579 1586 1586 1586 1586 1586 1594 1594 1601 1601 1609 1609 1609 1616 1624 2908 2908 2908 2908 2908 2908 2933 2933 2933 2933 2933 2933 2958 2958 2984 2984 3037 3037 1813 1813 1523 1523 1523 1523 1523 1523 1523 1523 1523 1516 1516 1509 1509 1509 1503 1503 1503 1503 1503 1496 1496 1496 1496 1496 1496 1496 1489 1489 1489 1483 1483 1483 1483 1477 1477 1477 1477 1477 1470 1470 1470 1470 1470 1464 1464 1458 1452 1452 1445 1445 1445 1445 1445 1445 1445 1445 1445 1445 1452 1458 1464 1464 1470 1470 1470 1823 1833 1843 1843 1843 1843 1843 1843 1843 1843 1843 1843 1843 1843 1843 1843 1843 1843 1853 1853 1853 1853 1853 1853 1853 1853 1853 1853 1853 1302 1302 1302 1302 1302 1302 1302 1297 1297 1297 1302 1297 1297 1302 1307 1307 1312 1317 1317 1312 1312 1312 1843 1843 1843 1853 1843 1843 1853 1863 1863 1873 1873 1873 1883 1883 1883 1883 1873 1873 1873 1873 1873 1873 1873 1873 1873 1873 1873 1883 1883 1883 1883 1883 1883 1883 1883 1883 2271 2271 2271 2256 2256 2256 2256 2256 2256 2256 2271 2271 2271 2271 3092 3092 3092 3092 3092 3120 3120 1210 1210 1210 1202 1202 1197 1197 1197 1197 1197 1197 1193 1193 1193 1193 1193 1193 1193 1193 1193 1193 1193 1193 1189 1189 1189 1185 1181 1177 1177 1177 1173 1173 1173 1173 1173 1173 1169 1169 1173 1169 1169 1165 1161 1161 1157 1157 1153 1149 1149 1149 1145 1145 1141 1141 1141 1141 1141 1141 1145 1145 1149 1153 1153 1312 1312 1312 1312 1307 1307 1307 1302 1302 1302 1302 1302 1302 1302 1302 1302 1297 1297 1297 1297 1297 1292 1292 1288 1288 1288 1283 1283 1283 1283 1278 1278 1278 1278 1278 1278 1278 1273 1273 1273 1273 1268 1268 1268 1264 1264 1264 1264 1255 1255 1255 1255 1255 1255 1255 1255 1255 1255 1250 1250 1250 1245 1245 1245 1245 1245 1241 1241 1241 1241 1241 1236 1236 1236 1236 1236 1232 1232 1232 1227 1227 1223 1223 1223 1219 1219 1219 1219 1219 1219 1219 1214 1214 1210 1210 1210 1206 1206 1206 1210 1206 1206 1206 1206 1202 1202 1197 1197 1197 1193 1193 1189 1189 1189 1189 1189 1189 1189 1189 1185 1185 1185 1185 1185 1185 1181 1181 1181 1177 1177 1177 1177 1177 1173 1173 1169 1169 1169 1165 1165 1169 1169 1169 1169 0 0 0 0 0 0 3149 3149 3149 3120 3120 3120 3120 3149 3149 3149 3149 3149 3149 3149 3149 3149 3149 3149 3149 3149 3149 3149 3149 0 0 0 0 0 0 0 0 0 0 0
0 0 0 0 0 0 0 0 0 0 0 0 0 0 0 0 0 0 0 0 0 0 0 0 0 0 0 0 0 0 0 0 2659 2659 2659 2659 2659 2659 2659 2659 2659 2659 2659 2659 2659 2659 2659 2659 2659 2680 2680 2680 2701 2701 2701 2701 2701 2701 2701 2723 2723 2723 2723 2701 2701 2701 2701 2701 2701 2701 2701 2701 2701 2701 2701 2701 2701 2701 2701 2701 2701 2723 2723 2723 2701 2701 2701 2701 2701 2701 2701 2701 2723 2723 2723 2723 2723 2723 2744 2744 2767 2767 2767 2789 2789 2789 2789 2789 2789 2789 2789 2789 2812 2812 2812 2835 2835 2835 2835 2835 2835 2835 2835 2835 2812 2812 2812 2812 2835 2835 2835 2859 2859 2859 2859 2859 2859 2859 2859 2859 2859 2859 2859 2859 2859 2859 2859 2859 2883 2883 2883 2883 2883 2883 2859 2859 2859 2859 2859 2859 2859 2859 2859 2859 2859 2859 2859 2859 2859 2883 2883 2883 2883 1705 1705 1696 1696 1705 1705 1713 1572 1572 1579 1579 1579 1586 1586 1586 1586 1586 1594 1594 1601 1601 1609 1616 1616 1616 1624 1624 2908 2908 2908 2908 2908 2908 2933 2933 2933 2933 2933 2933 2958 2958 1785 1785 1785 1785 1794 1794 1804 1804 1804 1813 1523 1523 1523 1523 1516 1516 1516 1516 1509 1509 1503 1503 1503 1503 1503 1496 1496 1496 1496 1496 1503 1489 1489 1489 1489 1483 1483 1483 1483 1477 1477 1477 1477 1477 1470 1470 1470 1470 1470 1464 1458 1458 1452 1445 1445 1445 1445 1445 1445 1445 1445 1445 1445 1452 1458 1464 1464 1470 1470 1470 1823 1823 1833 1833 1833 1833 1833 1833 1833 1833 1833 1833 1833 1843 1843 1843 1843 1843 1843 1843 1843 1843 1843 1843 1843 1843 1843 1843 1843 1302 1302 1302 1302 1302 1302 1302 1302 1302 1302 1302 1302 1302 1302 1307 1312 1312 1317 1317 1317 1317 1322 1843 1843 1843 1843 1843 1843 1843 1853 1853 1863 1873 1873 1873 1883 1873 1873 1873 1873 1873 1873 1873 1873 1873 1873 1873 1873 1873 1873 1873 1873 1873 1873 1873 1873 1873 1883 2271 2271 2271 2271 2271 2271 2271 2256 2256 2271 2271 2256 2256 3092 3092 3092 3092 3092 3092 3120 3120 3120 3120 3149 3120 3120 3120 1197 1197 1197 1197 1197 1193 1193 1193 1193 1193 1193 1193 1193 1193 1193 1193 1193 1189 1189 1189 1185 1181 1177 1177 1177 1173 1173 1173 1173 1173 1173 1173 1173 1173 1173 1169 1165 1161 1161 1157 1157 1157 1149 1149 1149 1149 1145 1145 1141 1141 1141 1141 1145 1145 1145 1149 1149 1153 1312 1312 1312 1312 1312 1307 1307 1307 1302 1302 1302 1302 1302 1302 1302 1302 1297 1297 1297 1297 1297 1292 1292 1288 1288 1288 1283 1283 1283 1283 1278 1278 1278 1278 1278 1278 1278 1273 1273 1273 1273 1268 1268 1268 1268 1264 1264 1264 1259 1259 1259 1255 1255 1255 1255 1255 1255 1255 1255 1250 1250 1250 1250 1250 1250 1245 1245 1245 1241 1241 1241 1236 1236 1236 1236 1236 1236 1236 1236 1232 1232 1232 1227 1227 1223 1223 1223 1219 1219 1219 1219 1219 1214 1214 1214 1214 1210 1210 1210 1210 1210 1206 1206 1206 1202 1202 1202 1197 1197 1193 1193 1193 1193 1193 1193 1189 1189 1189 1189 1189 1189 1185 1185 1185 1185 1181 1181 1181 1177 1177 1177 1177 1177 1173 1173 1169 1169 1165 1165 1165 1169 1169 1169 1169 0 0 0 0 3120 3120 3064 3064 3064 3064 3064 3064 3092 3092 3092 3120 3120 3120 3120 3120 3149 3149 3149 3149 3149 3149 3149 3149 3149 0 0 0 0 0 0 0 0 0 0 0
0 0 0 0 0 0 0 0 0 0 0 0 0 0 0 0 0 0 0 0 0 0 0 0 0 0 0 0 0 0 0 0 2659 2659 2639 2639 2639 2659 2659 2639 2639 2639 2659 2659 2639 2639 2639 2659 2659 2659 2659 2659 2680 2701 2701 2701 2701 2701 2701 2701 2701 2701 2701 2701 2701 2701 2701 2701 2680 2680 2680 2680 2680 2680 2680 2680 2680 2680 2701 2701 2701 2701 2701 2701 2701 2701 2701 2701 2701 2701 2701 2701 2701 2723 2723 2723 2723 2723 2744 2744 2767 2767 2767 2767 2767 2767 2789 2789 2789 2789 2789 2789 2812 2812 2812 2812 2812 2812 2835 2835 2812 2812 2812 2812 2812 2812 2812 2812 2812 2812 2835 2835 2835 2835 2835 2835 2835 2835 2835 2835 2859 2859 2859 2859 2859 2859 2859 2859 2859 2859 2883 2883 2883 2883 2859 2859 2859 2859 2859 2859 2859 2859 2859 2859 2859 2859 2859 2859 2859 2859 2859 2859 2859 2859 1696 1696 1696 1705 1705 1713 1579 1579 1579 1586 1586 1586 1586 1586 1586 1586 1594 1601 1609 1609 1616 1616 1616 1616 1616 1624 2859 2859 2859 2883 2883 2883 2908 2908 2933 2908 2908 2933 2958 1776 1776 1785 1785 1785 1794 1794 1794 1794 1794 1794 1794 1794 1794 1523 1516 1516 1516 1516 1516 1509 1509 1509 1509 1503 1503 1496 1496 1503 1503 1503 1503 1496 1489 1489 1489 1483 1483 1483 1483 1483 1477 1477 1477 1477 1470 1470 1470 1470 1464 1464 1458 1452 1452 1445 1445 1445 1445 1445 1445 1445 1445 1445 1452 1452 1458 1464 1470 1470 1470 1470 1813 1823 1823 1823 1823 1823 1823 1823 1823 1823 1823 1823 1823 1833 1833 1833 1833 1833 1833 1843 1833 1833 1833 1833 1833 1843 1843 1843 1843 1302 1302 1302 1302 1307 1307 1307 1302 1302 1302 1302 1302 1302 1307 1307 1312 1312 1317 1317 1317 1317 1322 1833 1833 1833 1833 1833 1833 1843 1843 1843 1853 1863 1873 1873 1873 1873 1873 1873 1873 1873 1873 1873 1873 1873 1873 1873 1873 1873 1873 1873 1873 1873 1873 1873 1873 1873 2271 2271 2271 2271 2271 2271 2271 2271 2271 2271 2271 2271 2256 2256 3092 3092 3092 3092 3092 3092 3092 3120 3120 3120 3120 3120 3092 3092 3092 3092 3092 3092 3092 1197 1197 1197 1193 1193 1193 1193 1193 1193 1193 1193 1193 1193 1189 1189 1189 1181 1177 1177 1177 1177 1173 1173 1173 1173 1173 1173 1173 1173 1173 1169 1169 1165 1161 1161 1157 1157 1153 1149 1149 1149 1145 1145 1145 1145 1141 1141 1145 1145 1145 1145 1145 1312 1312 1312 1312 1312 1312 1312 1312 1307 1307 1307 1307 1302 1302 1302 1302 1302 1297 1297 1297 1297 1297 1292 1292 1288 1288 1288 1283 1283 1283 1283 1278 1278 1278 1278 1278 1278 1278 1278 1278 1278 1273 1273 1268 1268 1268 1268 1264 1264 1259 1259 1259 1255 1255 1255 1255 1255 1255 1255 1255 1255 1250 1250 1250 1250 1250 1245 1245 1245 1241 1241 1241 1241 1236 1236 1236 1236 1236 1236 1236 1232 1232 1232 1232 1232 1227 1227 1223 1223 1223 1223 1223 1219 1219 1219 1219 1214 1214 1210 1210 1214 1210 1210 1206 1206 1206 1206 1202 1202 1202 1197 1193 1193 1193 1193 1193 1189 1189 1189 1189 1189 1189 1185 1185 1185 1185 1185 1185 1181 1181 1181 1177 1177 1177 1173 1173 1169 1169 1165 1165 1165 1165 1169 1169 1169 0 0 0 0 3120 3064 3064 3037 3037 3064 3037 3037 3064 3064 3064 3092 3092 3120 3120 3120 3120 3120 3120 3120 3120 3120 3120 3120 3120 0 0 0 0 0 0 0 0 0 0 0
0 0 0 0 0 0 0 0 0 0 0 0 0 0 0 0 0 0 0 0 0 0 0 0 0 0 0 0 0 0 0 0 2639 2639 2639 2639 2639 2639 2639 2639 2639 2639 2659 2659 2639 2639 2639 2639 2659 2659 2659 2659 2680 2680 2701 2701 2701 2701 2701 2701 2680 2680 2680 2680 2680 2680 2680 2680 2680 2659 2659 2659 2659 2659 2680 2680 2680 2680 2680 2680 2680 2680 2701 2701 2701 2680 2680 2701 2680 2680 2701 2701 2701 2723 2701 2701 2723 2723 2744 2744 2767 2767 2767 2767 2767 2767 2767 2767 2767 2767 2789 2789 2789 2789 2789 2789 2812 2812 2812 2812 2812 2812 2789 2789 2789 2789 2789 2789 2789 2789 2812 2812 2812 2812 2812 2812 2835 2835 2835 2835 2835 2835 2835 2835 2835 2859 2835 2835 2859 2859 2859 2859 2883 2859 2859 2859 2859 2835 2835 2835 2835 2835 2835 2835 2859 2859 2859 2859 2859 2859 2835 2835 2859 2859 1705 1705 1705 1705 1705 1713 1586 1586 1586 1586 1586 1586 1586 1586 1586 1594 1594 1601 1609 1609 1609 1616 1616 1616 1616 1624 2835 2835 2835 2859 2859 2883 2883 2908 2908 2908 2908 1785 1776 1776 1776 1776 1776 1785 1785 1785 1785 1785 1794 1785 1785 1785 1785 1794 1794 1794 1794 1794 1804 1804 1794 1794 1785 1509 1503 1503 1503 1503 1503 1503 1503 1496 1496 1496 1489 1483 1483 1483 1483 1483 1477 1477 1477 1477 1470 1470 1470 1470 1464 1458 1458 1452 1452 1445 1445 1445 1445 1445 1445 1445 1445 1445 1452 1452 1458 1464 1470 1470 1470 1470 1813 1813 1813 1813 1813 1813 1813 1813 1813 1813 1813 1813 1813 1823 1823 1823 1823 1823 1833 1833 1833 1833 1833 1833 1833 1833 1833 1833 1833 1302 1302 1302 1302 1307 1307 1307 1307 1302 1302 1307 1307 1307 1307 1307 1312 1312 1317 1317 1317 1317 1322 1833 1833 1833 1833 1833 1833 1833 1843 1843 1843 1863 1873 1873 1873 1873 1873 1873 1873 1873 1873 1873 1873 1873 1873 1873 1873 1873 1873 1873 1873 1873 1873 1863 1863 1873 2271 2271 2271 2271 2271 2271 2271 2271 2271 2271 2271 2271 2256 2256 2256 3092 3092 3092 3092 3092 3092 3092 3120 3120 3120 3120 3092 3092 3092 3092 3092 3092 3092 3092 3092 3092 1833 1197 1197 1193 1193 1193 1193 1193 1193 1193 1189 1189 1189 1181 1181 1181 1177 1177 1173 1173 1173 1173 1173 1173 1173 1173 1173 1169 1165 1161 1161 1157 1157 1157 1153 1153 1149 1149 1145 1145 1145 1145 1145 1145 1145 1145 1145 1145 1145 1312 1312 1317 1317 1312 1312 1312 1312 1312 1307 1307 1307 1307 1307 1302 1302 1302 1302 1297 1297 1297 1297 1292 1292 1288 1288 1288 1283 1283 1283 1283 1283 1278 1278 1278 1278 1278 1278 1278 1278 1278 1278 1273 1273 1268 1268 1268 1268 1268 1259 1259 1259 1259 1255 1255 1255 1255 1255 1255 1255 1255 1255 1250 1250 1250 1250 1250 1245 1245 1241 1241 1241 1241 1236 1236 1236 1236 1236 1236 1236 1232 1232 1232 1232 1232 1227 1227 1227 1223 1223 1223 1223 1223 1223 1219 1219 1219 1214 1214 1214 1214 1210 1210 1206 1206 1206 1206 1202 1202 1202 1202 1197 1197 1197 1197 1197 1193 1189 1189 1189 1189 1189 1189 1189 1189 1185 1185 1185 1185 1181 1181 1181 1181 1177 1173 1173 1169 1165 1165 1165 1165 1165 1169 1169 1169 1173 0 3092 3092 3092 3064 3037 3037 3037 3037 3037 3037 3037 3037 3064 3064 3092 3092 3120 3120 3092 3092 3092 3120 3120 3092 3092 3120 3120 0 0 0 0 0 0 0 0 0 0 0
0 0 0 0 0 0 0 0 0 0 0 0 0 0 0 0 0 0 0 0 0 0 0 0 0 0 0 0 0 0 0 0 2618 2618 2639 2639 2639 2639 2639 2639 2639 2639 2639 2639 2639 2639 2639 2639 2639 2639 2639 2639 2659 2680 2680 2701 2701 2680 2680 2680 2659 2659 2659 2659 2659 2659 2659 2659 2659 2659 2639 2639 2659 2659 2659 2659 2659 2659 2680 2680 2680 2680 2680 2680 2680 2680 2680 2680 2680 2680 2680 2701 2701 2701 2701 2701 2701 2723 2744 2744 2744 2767 2767 2767 2767 2767 2767 2767 2767 2767 2789 2789 2789 2789 2789 2789 2789 2789 2789 2789 2789 2789 2789 2789 2789 2789 2789 2789 2789 2789 2789 2789 2812 2812 2789 2789 2812 2812 2812 2812 2812 2835 2835 2835 2835 2835 2835 2835 2835 2835 2859 2859 2859 2859 2835 2835 2835 2835 2835 2835 2835 2835 2835 2835 2835 2835 2835 2835 2835 2835 2835 2835 2835 2835 1705 1705 1705 1705 1705 1705 1705 1586 1586 1586 1586 1586 1594 1594 1594 1594 1594 1601 1609 1609 1609 1616 1616 1616 1616 1624 1624 2835 2835 2835 2859 2859 2859 2908 2908 1776 1776 1776 1776 1776 1776 1776 1776 1776 1785 1785 1785 1785 1785 1785 1785 1785 1785 1785 1794 1794 1794 1794 1794 1794 1794 1785 1785 1785 1785 1785 1785 1785 1785 1776 1776 1785 1776 1776 1489 1489 1483 1483 1483 1483 1477 1477 1477 1477 1470 1470 1470 1470 1464 1458 1458 1452 1452 1445 1445 1445 1445 1445 1445 1445 1445 1445 1452 1452 1458 1464 1470 1470 1470 1794 1794 1804 1804 1804 1804 1804 1804 1804 1804 1804 1804 1804 1813 1813 1813 1813 1813 1813 1813 1813 1813 1823 1823 1823 1823 1823 1823 1833 1833 1302 1302 1302 1307 1307 1307 1307 1307 1307 1307 1307 1307 1307 1307 1307 1312 1317 1317 1322 1317 1317 1322 1823 1833 1833 1833 1833 1833 1833 1843 1843 1843 1863 1873 1873 1873 1873 1873 1873 1873 1873 1873 1873 1873 1873 1873 1873 1873 1873 1873 1873 1863 1863 1863 1863 1863 2271 2271 2271 2271 2271 2271 2271 2271 2271 2271 2271 2271 2271 2256 2256 2256 3064 3064 3064 3064 3064 3092 3092 3092 3092 3092 3092 3092 3092 3092 3092 3092 3064 3064 3064 3092 3092 1833 1833 1833 1833 1197 1197 1197 1193 1193 1193 1193 1823 1833 1843 1843 1181 1181 1177 1173 1173 1173 1173 1173 1177 1177 1173 1173 1169 1165 1161 1161 1157 1157 1157 1157 1153 1153 1149 1149 1145 1145 1145 1145 1145 1145 1145 1145 1149 1149 1312 1312 1317 1317 1317 1312 1312 1312 1312 1312 1312 1312 1307 1307 1302 1302 1302 1302 1297 1297 1297 1297 1297 1292 1292 1288 1288 1288 1283 1283 1283 1283 1278 1278 1278 1278 1278 1278 1278 1278 1278 1278 1273 1273 1273 1273 1268 1268 1268 1259 1259 1259 1259 1259 1259 1259 1255 1255 1255 1255 1255 1255 1250 1250 1250 1250 1250 1245 1245 1241 1241 1241 1241 1236 1236 1236 1236 1236 1236 1236 1232 1232 1232 1232 1232 1227 1227 1227 1227 1227 1223 1223 1223 1223 1223 1219 1219 1219 1219 1219 1214 1214 1210 1210 1206 1206 1206 1206 1206 1202 1202 1202 1202 1202 1197 1197 1193 1193 1193 1193 1189 1189 1189 1189 1189 1189 1185 1185 1185 1185 1185 1181 1181 1177 1173 1173 1169 1165 1165 1165 1165 1165 1169 1169 1169 1169 1169 3092 3092 3037 3037 3037 3037 3037 3037 3037 3037 3037 3037 3037 3064 3064 3064 3092 3092 3092 3092 3092 3092 3092 3092 3092 3092 3092 0 0 0 0 0 0 0 0 0 0 0
0 0 0 0 0 0 0 0 0 0 0 0 0 0 0 0 0 0 0 0 0 0 0 0 0 0 0 0 0 0 0 0 2618 2618 2618 2618 2618 2618 2618 2618 2618 2639 2639 2639 2618 2618 2639 2639 2639 2639 2639 2639 2659 2659 2659 2680 2659 2659 2659 2659 2639 2639 2639 2639 2639 2639 2659 2659 2639 2639 2639 2639 2639 2659 2659 2659 2659 2659 2680 2680 2680 2680 2680 2680 2680 2680 2680 2680 2680 2680 2680 2680 2701 2701 2701 2701 2701 2723 2723 2744 2744 2744 2767 2767 2767 2767 2767 2767 2767 2767 2767 2789 2789 2789 2789 2789 2789 2789 2789 2789 2789 2789 2789 2789 2789 2789 2789 2789 2789 2789 2789 2789 2789 2789 2789 2789 2789 2789 2789 2789 2812 2812 2812 2812 2812 2835 2835 2812 2812 2835 2835 2835 2835 2835 2835 2835 2835 2835 2835 2835 2835 2835 2835 2835 2835 2835 2835 2835 2835 2812 2812 2812 2812 2812 1705 1705 1705 1705 1705 1705 1705 1586 1586 1586 1586 1594 1594 1594 1594 1594 1594 1601 1609 1609 1609 1616 1616 1616 1616 1624 1624 2812 2812 2835 2859 2859 2859 2859 1776 1766 1766 1776 1776 1776 1776 1776 1776 1776 1785 1776 1776 1776 1785 1785 1785 1785 1785 1785 1794 1785 1785 1785 1785 1785 1785 1785 1776 1776 1785 1785 1785 1785 1785 1776 1776 1776 1776 1776 1776 1776 1776 1776 1766 1766 1766 1776 1776 1776 1776 1776 1785 1785 1464 1458 1452 1452 1452 1452 1452 1452 1445 1445 1445 1445 1452 1452 1452 1458 1464 1464 1470 1470 1470 1785 1785 1785 1794 1794 1794 1794 1804 1804 1804 1804 1804 1804 1804 1804 1804 1804 1813 1813 1813 1813 1813 1804 1804 1813 1813 1813 1813 1823 1823 1307 1307 1307 1307 1307 1307 1307 1307 1307 1307 1307 1307 1307 1307 1312 1312 1317 1322 1322 1322 1322 1328 1823 1823 1823 1823 1823 1833 1833 1833 1843 1843 1863 1873 1873 1873 1873 1873 1873 1873 1873 1873 1873 1873 1873 1873 1873 1873 1873 1873 1873 1863 1863 1863 1863 1863 2271 2271 2271 2271 2271 2271 2271 2271 2271 2271 2271 2271 2271 2271 2256 2256 3064 3064 3064 3064 3064 3064 3092 3092 3092 3092 3092 3092 3092 3092 3064 3064 3064 3064 3064 3064 3064 1833 1833 1833 1833 1833 1833 1833 1833 1823 1823 1823 1823 1833 1833 1833 1833 1833 1173 1173 1173 1173 1173 1173 1177 1177 1177 1173 1169 1165 1161 1161 1157 1157 1157 1157 1153 1153 1149 1149 1149 1145 1145 1145 1145 1149 1149 1149 1149 1149 1312 1312 1317 1317 1317 1317 1317 1317 1312 1312 1312 1312 1312 1307 1302 1302 1302 1302 1297 1297 1297 1297 1297 1292 1292 1292 1288 1288 1288 1283 1283 1283 1283 1283 1283 1278 1278 1278 1278 1278 1278 1278 1278 1273 1273 1273 1273 1273 1268 1264 1259 1259 1259 1259 1259 1259 1255 1255 1255 1255 1255 1255 1250 1250 1250 1250 1250 1245 1245 1241 1241 1241 1241 1236 1236 1236 1236 1236 1236 1236 1236 1236 1232 1232 1232 1232 1232 1227 1227 1227 1227 1227 1223 1223 1223 1223 1219 1219 1219 1219 1219 1214 1210 1210 1210 1210 1210 1206 1206 1206 1206 1202 1202 1202 1202 1202 1197 1197 1193 1193 1193 1193 1189 1189 1189 1189 1189 1185 1185 1185 1185 1185 1185 1177 1177 1177 1169 1169 1165 1165 1165 1165 1165 1165 1165 1169 1169 3037 3037 3037 3037 3037 3037 3037 3037 3037 3037 3037 3037 3037 3037 3064 3064 3064 3064 3064 3064 3092 3092 3092 3064 3064 3064 3092 0 0 0 0 0 0 0 0 0 0 0
0 0 0 0 0 0 0 0 0 0 0 0 0 0 0 0 0 0 0 0 0 0 0 0 0 0 0 0 0 0 0 0 2618 2618 2618 2618 2618 2618 2618 2618 2618 2618 2618 2618 2618 2618 2618 2639 2639 2639 2639 2639 2639 2659 2659 2659 2639 2639 2639 2639 2639 2639 2639 2639 2639 2639 2639 2639 2618 2618 2618 2618 2639 2639 2639 2639 2639 2639 2659 2659 2659 2659 2680 2680 2680 2680 2680 2680 2680 2680 2680 2680 2680 2701 2701 2701 2701 2701 2723 2723 2744 2744 2744 2744 2744 2744 2767 2767 2767 2767 2767 2767 2767 2767 2767 2767 2767 2767 2767 2789 2767 2767 2789 2789 2789 2789 2789 2789 2789 2767 2767 2767 2789 2767 2767 2767 2789 2789 2789 2789 2789 2789 2789 2812 2812 2812 2812 2812 2812 2812 2812 2812 2835 2835 2812 2812 2812 2812 2812 2812 2812 2812 2812 2835 2835 2835 2812 2812 2812 2812 2789 2789 2812 2812 1705 1705 1705 1705 1705 1705 1705 1586 1586 1586 1586 1594 1594 1594 1594 1601 1601 1609 1609 1609 1609 1616 1616 1616 1616 1624 1632 2812 2812 2835 2859 2859 2859 1766 1766 1766 1766 1776 1776 1766 1766 1766 1766 1776 1776 1776 1776 1776 1776 1785 1785 1785 1785 1785 1785 1785 1785 1785 1776 1776 1785 1776 1776 1776 1776 1776 1785 1776 1776 1766 1766 1766 1766 1766 1766 1766 1776 1766 1766 1766 1766 1766 1766 1766 1766 1776 1776 1785 1464 1458 1452 1452 1452 1452 1452 1452 1452 1445 1445 1445 1452 1458 1458 1458 1464 1464 1470 1470 1470 1776 1776 1776 1785 1785 1785 1794 1794 1794 1794 1794 1794 1804 1804 1794 1794 1804 1804 1804 1804 1804 1804 1804 1804 1804 1804 1804 1813 1813 1813 1307 1307 1307 1307 1307 1307 1307 1307 1307 1307 1307 1307 1307 1307 1312 1312 1317 1322 1328 1322 1322 1328 1813 1813 1813 1823 1823 1823 1833 1833 1843 1843 1863 1873 1873 1873 1873 1873 1873 1873 1873 1873 1873 1873 1873 1873 1873 1873 1873 1873 1873 1873 1873 1873 1873 1873 2271 2271 2271 2271 2271 2271 2271 2271 2271 2271 2271 2271 2271 2271 2256 2256 3037 3037 3037 3037 3037 3064 3064 3064 3064 3092 3064 3064 3064 3092 3064 3064 3064 3064 3064 3064 3064 1833 1833 1833 1833 1833 1833 1833 1833 1823 1823 1833 1833 1833 1833 1833 1833 1833 1833 1173 1173 1173 1173 1177 1177 1177 1177 1173 1169 1165 1161 1161 1161 1157 1157 1157 1157 1153 1153 1153 1149 1149 1149 1149 1149 1149 1149 1149 1153 1153 1312 1312 1317 1317 1317 1317 1317 1317 1317 1312 1312 1312 1312 1307 1307 1302 1302 1302 1297 1297 1297 1297 1297 1297 1292 1292 1292 1288 1288 1288 1283 1283 1283 1283 1283 1278 1278 1278 1278 1278 1278 1278 1278 1278 1278 1273 1273 1273 1273 1264 1259 1259 1259 1259 1259 1259 1255 1255 1255 1255 1255 1255 1250 1250 1250 1250 1250 1245 1245 1241 1241 1241 1241 1241 1241 1236 1236 1236 1236 1236 1236 1236 1236 1236 1232 1232 1232 1232 1227 1227 1227 1227 1223 1223 1223 1223 1223 1219 1219 1219 1219 1214 1214 1210 1210 1210 1210 1210 1210 1210 1206 1206 1206 1206 1202 1202 1197 1197 1197 1197 1197 1193 1193 1193 1193 1189 1189 1189 1189 1185 1185 1185 1185 1181 1177 1173 1169 1169 1165 1165 1165 1165 1165 1165 1165 1169 1169 3010 3010 3010 3010 3010 3010 3037 3037 3037 3037 3037 3037 3037 3037 3037 3037 3064 3064 3064 3064 3064 3064 3064 3064 3064 3064 3064 0 0 0 0 0 0 0 0 0 0 0
0 0 0 0 0 0 0 0 0 0 0 0 0 0 0 0 0 0 0 0 0 0 0 0 0 0 0 0 0 0 0 0 2598 2598 2598 2598 2598 2598 2598 2618 2618 2618 2618 2618 2618 2618 2618 2618 2618 2639 2639 2639 2639 2639 2639 2639 2639 2639 2639 2639 2639 2639 2639 2639 2639 2639 2639 2639 2618 2618 2618 2618 2618 2618 2618 2618 2618 2639 2659 2659 2659 2659 2659 2659 2659 2659 2659 2680 2680 2680 2680 2680 2680 2701 2701 2701 2701 2701 2723 2723 2723 2744 2744 2744 2744 2744 2744 2744 2744 2744 2767 2767 2767 2767 2767 2767 2767 2767 2767 2767 2767 2767 2767 2767 2767 2767 2767 2767 2767 2767 2767 2767 2767 2767 2767 2767 2767 2789 2789 2789 2789 2789 2789 2789 2789 2789 2789 2789 2789 2789 2789 2789 2812 2812 2789 2789 2789 2789 2789 2812 2812 2812 2812 2812 2812 2812 2812 2812 2812 2789 2789 2789 2789 2789 1705 1705 1705 1705 1705 1705 1713 1594 1594 1594 1594 1594 1601 1601 1601 1601 1601 1609 1609 1609 1616 1616 1616 1624 1624 1624 1639 2812 2812 1739 1739 1739 1748 1748 1748 1757 1757 1766 1757 1757 1766 1757 1757 1757 1757 1766 1766 1776 1776 1776 1776 1776 1776 1776 1776 1776 1776 1776 1776 1776 1776 1766 1766 1776 1776 1776 1776 1776 1776 1766 1766 1766 1766 1766 1766 1766 1766 1766 1766 1766 1766 1766 1766 1766 1766 1766 1776 1776 1776 1458 1452 1452 1452 1458 1458 1458 1452 1452 1452 1452 1452 1458 1458 1458 1464 1470 1470 1477 1477 1776 1776 1776 1776 1776 1776 1785 1785 1785 1785 1785 1794 1794 1785 1785 1785 1794 1794 1785 1785 1794 1794 1794 1794 1794 1794 1794 1804 1813 1813 1312 1312 1312 1312 1312 1312 1312 1307 1307 1307 1307 1307 1307 1312 1312 1317 1317 1322 1328 1322 1322 1328 1804 1813 1813 1813 1823 1823 1833 1843 1843 1843 1863 1873 1873 1883 1883 1883 1883 1883 1873 1873 1873 1873 1873 1873 1873 1873 1873 1873 1873 1873 1873 1883 1883 1947 2271 2271 2271 2271 2271 2271 2271 2271 2271 2271 2271 2271 2271 2256 2256 2984 3010 3010 3037 3037 3037 3037 3037 3037 3037 3064 3037 3037 3064 3064 3064 3064 3064 3064 3064 3092 3092 1833 1833 1833 1833 1833 1833 1833 1833 1823 1823 1833 1833 1833 1833 1833 1833 1833 1833 1833 1833 1173 1173 1177 1177 1177 1177 1173 1169 1165 1161 1161 1161 1157 1157 1157 1157 1157 1153 1153 1153 1153 1149 1149 1149 1149 1153 1153 1157 1157 1165 1317 1317 1317 1317 1317 1317 1317 1317 1317 1312 1312 1312 1307 1307 1302 1302 1302 1302 1297 1297 1297 1297 1297 1292 1292 1292 1292 1288 1288 1288 1283 1283 1283 1283 1283 1278 1278 1278 1278 1278 1278 1278 1278 1278 1273 1273 1273 1273 1264 1259 1259 1259 1259 1259 1259 1255 1255 1255 1255 1255 1255 1255 1255 1250 1250 1250 1245 1245 1241 1241 1241 1241 1236 1236 1236 1236 1236 1236 1236 1236 1236 1236 1236 1236 1232 1232 1232 1227 1227 1227 1227 1223 1223 1223 1223 1223 1219 1219 1219 1219 1219 1214 1214 1210 1210 1210 1210 1210 1210 1206 1206 1206 1206 1202 1202 1202 1202 1197 1197 1197 1197 1197 1193 1193 1189 1189 1189 1189 1189 1189 1185 1185 1181 1181 1173 1173 1169 1165 1165 1165 1165 1165 1165 1169 1169 3037 3010 3010 3010 3010 3010 3010 3010 3037 3037 3037 3037 3037 3037 3037 3037 3037 3037 3037 3037 3037 3064 3064 3064 3064 3064 3064 3064 0 0 0 0 0 0 0 0 0 0 0
0 0 0 0 0 0 0 0 0 0 0 0 0 0 0 0 0 0 0 0 0 0 0 0 0 0 0 0 0 0 0 0 2598 2598 2598 2598 2598 2579 2579 2579 2598 2598 2598 2598 2598 2598 2598 2618 2618 2618 2618 2618 2639 2639 2639 2639 2639 2639 2639 2639 2639 2639 2639 2618 2618 2618 2639 2639 2618 2618 2618 2618 2618 2618 2618 2618 2618 2618 2639 2639 2639 2639 2659 2659 2659 2659 2659 2680 2680 2680 2680 2680 2680 2680 2680 2680 2701 2701 2723 2723 2723 2744 2744 2744 2744 2744 2744 2744 2744 2744 2744 2744 2744 2744 2744 2744 2744 2744 2744 2744 2744 2744 2744 2767 2767 2767 2767 2767 2767 2767 2744 2744 2744 2744 2744 2767 2767 2767 2767 2767 2767 2767 2767 2767 2789 2789 2767 2767 2789 2789 2789 2789 2789 2789 2789 2789 2789 2789 2789 2789 2789 2789 2789 2812 2812 2812 2789 2789 2789 2789 2767 2767 2767 2767 1705 1705 1705 1705 1705 1705 1705 1713 1594 1594 1594 1594 1601 1601 1601 1609 1609 1609 1616 1616 1616 1616 1624 1624 1624 1639 1647 1647 1722 1722 1731 1739 1739 1739 1748 1748 1757 1757 1757 1757 1757 1757 1757 1757 1757 1757 1757 1757 1766 1766 1766 1766 1766 1776 1776 1776 1766 1766 1766 1766 1766 1766 1766 1766 1766 1766 1766 1766 1766 1757 1757 1757 1757 1757 1757 1757 1757 1757 1757 1757 1757 1766 1766 1766 1766 1766 1776 1776 1776 1458 1452 1452 1452 1458 1458 1458 1458 1452 1452 1452 1458 1458 1458 1464 1464 1470 1470 1477 1477 1483 1766 1776 1776 1776 1776 1776 1785 1785 1776 1776 1785 1785 1785 1776 1776 1785 1785 1785 1785 1785 1794 1794 1794 1794 1794 1794 1794 1813 1813 1312 1312 1312 1312 1312 1312 1312 1312 1307 1307 1307 1312 1312 1312 1312 1317 1317 1322 1328 1322 1322 1328 1328 1804 1813 1813 1823 1823 1833 1843 1843 1853 1873 1883 1883 1883 1883 1883 1883 1883 1883 1883 1883 1883 1883 1883 1873 1873 1873 1873 1873 1883 1883 1883 1894 1936 1936 2256 2271 2271 2271 2271 2271 2271 2271 2271 2271 2271 2271 2256 2256 2984 3010 3010 3010 3010 3010 3010 3010 3010 3010 3010 3010 3010 3010 3037 3037 3037 3037 3037 3037 3092 3092 1813 1813 1823 1823 1823 1823 1833 1833 1823 1823 1823 1823 1823 1823 1823 1823 1823 1823 1823 1823 1823 1823 1823 1823 1804 1173 1173 1165 1165 1161 1161 1161 1161 1161 1157 1157 1157 1157 1153 1153 1153 1153 1153 1153 1153 1157 1157 1157 1161 1165 1317 1317 1317 1317 1317 1317 1317 1317 1317 1317 1317 1312 1307 1307 1302 1302 1302 1302 1302 1297 1297 1297 1297 1297 1292 1292 1292 1288 1288 1288 1283 1283 1283 1283 1283 1278 1278 1278 1278 1278 1278 1278 1278 1278 1273 1273 1273 1273 1264 1264 1264 1259 1259 1259 1259 1255 1255 1255 1255 1255 1255 1255 1255 1255 1250 1250 1245 1245 1245 1245 1241 1241 1236 1236 1236 1236 1236 1236 1236 1236 1236 1236 1236 1236 1236 1236 1232 1232 1227 1227 1227 1223 1223 1223 1223 1223 1219 1219 1219 1219 1219 1214 1214 1210 1210 1210 1210 1210 1210 1206 1206 1206 1206 1206 1202 1202 1202 1202 1202 1197 1197 1197 1193 1193 1193 1189 1189 1189 1189 1189 1189 1189 1185 1185 1181 1173 1173 1169 1169 1169 1169 1169 1169 2984 2984 3010 3010 3010 3010 3010 3010 3010 3010 3010 3037 3037 3037 3037 3037 3037 3037 3037 3037 3037 3037 3037 3037 3064 3064 3064 3064 3037 3037 0 0 0 0 0 0 0 0 0 0 0
0 0 0 0 0 0 0 0 0 0 0 0 0 0 0 0 0 0 0 0 0 0 0 0 0 0 0 0 0 0 0 0 2598 2579 2579 2579 2579 2579 2579 2579 2579 2579 2579 2579 2579 2579 2598 2598 2598 2598 2598 2618 2618 2618 2618 2618 2618 2618 2618 2618 2618 2618 2618 2618 2618 2618 2618 2618 2598 2598 2598 2618 2618 2618 2618 2618 2618 2618 2639 2639 2639 2639 2659 2659 2659 2659 2659 2680 2680 2680 2680 2680 2680 2680 2680 2680 2680 2701 2701 2701 2723 2723 2723 2744 2723 2723 2723 2723 2723 2723 2723 2744 2744 2744 2744 2744 2723 2723 2723 2744 2744 2744 2744 2744 2744 2744 2744 2744 2744 2744 2744 2744 2744 2744 2744 2744 2767 2767 2767 2767 2767 2767 2767 2767 2767 2767 2744 2744 2767 2767 2767 2767 2767 2789 2767 2767 2767 2767 2767 2767 2767 2767 2767 2789 2789 2789 2789 2789 2789 2767 2767 2767 2767 2767 1705 1705 1705 1705 1705 1705 1705 1713 1601 1601 1601 1601 1601 1601 1601 1609 1609 1609 1616 1616 1616 1616 1624 1624 1624 1639 1647 1705 1713 1722 1731 1731 1739 1739 1748 1748 1748 1748 1748 1748 1748 1748 1748 1748 1748 1748 1748 1748 1748 1748 1757 1757 1757 1766 1766 1766 1766 1757 1757 1757 1757 1757 1757 1757 1757 1757 1757 1757 1757 1748 1748 1748 1748 1748 1748 1748 1748 1748 1748 1748 1748 1748 1757 1757 1757 1757 1766 1766 1766 1458 1458 1458 1458 1458 1458 1458 1458 1458 1452 1452 1458 1458 1464 1464 1470 1470 1477 1477 1483 1483 1489 1766 1766 1766 1776 1776 1776 1776 1776 1776 1776 1776 1776 1776 1776 1776 1776 1776 1776 1776 1776 1776 1776 1776 1776 1785 1794 1804 1804 1312 1312 1312 1312 1312 1312 1312 1312 1312 1312 1312 1312 1312 1312 1312 1317 1322 1328 1328 1322 1322 1322 1322 1322 1813 1813 1823 1833 1843 1843 1853 1873 1883 1883 1883 1883 1883 1883 1883 1883 1883 1883 1883 1883 1883 1883 1883 1883 1883 1883 1883 1883 1894 1904 1915 1936 1936 2256 2271 2271 2271 2271 2271 2271 2271 2286 2286 2286 2271 2271 2271 2984 2984 2984 2984 2984 3010 3010 3010 3010 3010 3010 3010 3010 3010 3010 3010 3010 3010 3037 3037 1804 1804 1804 1813 1813 1823 1823 1823 1823 1823 1813 1813 1813 1813 1804 1804 1804 1804 1804 1804 1804 1804 1813 1813 1804 1804 1804 1804 1165 1165 1161 1161 1161 1161 1161 1161 1157 1157 1157 1157 1157 1153 1153 1153 1153 1157 1157 1157 1161 1161 1161 1165 1169 1317 1317 1317 1317 1317 1317 1317 1317 1317 1317 1312 1307 1307 1302 1302 1302 1302 1302 1302 1297 1297 1297 1297 1297 1292 1292 1288 1288 1288 1288 1283 1283 1283 1283 1283 1283 1278 1278 1278 1278 1278 1278 1278 1273 1273 1273 1273 1264 1264 1264 1259 1259 1259 1259 1255 1255 1255 1255 1255 1255 1255 1255 1255 1250 1250 1245 1245 1245 1245 1241 1241 1241 1236 1236 1236 1236 1236 1236 1236 1236 1236 1236 1236 1236 1236 1232 1232 1232 1227 1227 1223 1223 1223 1223 1223 1219 1219 1219 1219 1219 1219 1214 1214 1214 1214 1210 1210 1210 1206 1206 1206 1206 1206 1206 1202 1202 1202 1202 1197 1197 1197 1193 1193 1193 1193 1189 1189 1189 1189 1189 1189 1189 1189 1185 1181 1177 1177 1177 1177 2933 2933 2933 2958 2984 3010 3010 3010 3010 3010 3010 3010 3010 3010 3010 3010 3010 3010 3037 3037 3010 3010 3037 3037 3037 3037 3037 3064 3037 3037 3037 3037 3037 0 0 0 0 0 0 0 0 0 0 0
0 0 0 0 0 0 0 0 0 0 0 0 0 0 0 0 0 0 0 0 0 0 0 0 0 0 0 0 0 0 0 0 2598 2579 2579 2579 2579 2579 2579 2579 2579 2579 2579 2579 2579 2579 2579 2598 2598 2579 2579 2598 2598 2598 2598 2598 2598 2618 2618 2618 2618 2618 2618 2618 2618 2618 2618 2618 2598 2598 2598 2598 2598 2618 2618 2618 2618 2618 2639 2639 2639 2639 2659 2659 2659 2659 2659 2659 2659 2659 2659 2680 2680 2659 2659 2680 2680 2680 2701 2701 2723 2723 2723 2723 2723 2723 2723 2723 2723 2723 2723 2723 2723 2723 2723 2723 2723 2723 2723 2723 2723 2723 2723 2723 2723 2723 2723 2723 2723 2744 2723 2723 2723 2723 2723 2744 2744 2744 2744 2744 2744 2744 2744 2744 2744 2744 2723 2723 2744 2744 2767 2767 2767 2767 2767 2767 2767 2767 2767 2767 2767 2767 2767 2767 2767 2789 2767 2767 2767 2767 2767 2767 2767 2767 1705 1705 1705 1705 1705 1705 1713 1713 1601 1601 1601 1601 1601 1601 1601 1609 1609 1609 1616 1616 1616 1616 1624 1624 1632 1647 1680 1705 1713 1722 1731 1731 1731 1739 1739 1739 1748 1748 1739 1739 1739 1739 1739 1739 1739 1739 1739 1739 1739 1748 1748 1748 1748 1757 1757 1757 1757 1757 1748 1748 1757 1748 1748 1748 1748 1748 1748 1748 1748 1739 1739 1739 1739 1739 1739 1739 1748 1748 1748 1748 1748 1748 1748 1748 1748 1748 1748 1748 1748 1458 1458 1458 1458 1464 1458 1458 1458 1458 1458 1458 1458 1464 1464 1464 1470 1470 1477 1483 1483 1489 1489 1757 1757 1766 1766 1766 1766 1766 1766 1766 1766 1766 1766 1766 1766 1766 1766 1766 1766 1766 1776 1776 1766 1766 1776 1776 1776 1804 1804 1317 1317 1317 1312 1312 1312 1312 1312 1312 1312 1312 1312 1312 1312 1317 1317 1322 1328 1328 1322 1322 1322 1322 1322 1322 1823 1833 1833 1843 1853 1873 1883 1883 1883 1883 1883 1883 1883 1883 1883 1883 1883 1883 1883 1883 1883 1883 1883 1883 1883 1894 1894 1904 1915 1926 1936 1947 2241 2256 2271 2271 2271 2271 2271 2271 2286 2286 2286 2271 2271 2271 2984 2984 2984 2984 2984 2984 2984 3010 3010 2984 2984 2984 2984 2984 2984 2984 2984 3010 3010 1804 1804 1804 1804 1804 1813 1813 1813 1813 1813 1813 1804 1804 1804 1804 1804 1804 1804 1794 1794 1794 1804 1794 1794 1804 1804 1804 1804 0 1161 1161 1161 1161 1161 1161 1161 1161 1157 1157 1157 1157 1157 1157 1157 1157 1157 1157 1157 1161 1161 1161 1161 1169 1169 1312 1312 1312 1312 1317 1317 1317 1317 1317 1312 1307 1307 1302 1302 1302 1302 1302 1302 1302 1297 1297 1297 1297 1297 1292 1292 1288 1288 1288 1288 1288 1283 1283 1283 1283 1283 1278 1278 1278 1278 1278 1278 1273 1273 1273 1273 1273 1264 1264 1264 1259 1259 1259 1259 1259 1255 1255 1255 1255 1255 1255 1255 1255 1250 1250 1250 1245 1245 1245 1241 1241 1241 1241 1236 1236 1236 1236 1236 1236 1236 1236 1236 1236 1236 1236 1236 1232 1232 1232 1227 1223 1223 1223 1223 1223 1223 1223 1219 1219 1219 1219 1214 1214 1214 1214 1210 1210 1210 1206 1206 1206 1206 1206 1206 1202 1202 1202 1202 1202 1202 1197 1197 1197 1193 1193 1189 1189 1189 1189 1189 1189 1189 1189 1185 1181 1177 1177 1177 0 2933 2933 2933 2958 2984 3010 3010 2984 2984 2984 2984 2984 2984 3010 3010 3010 3010 3010 3010 3010 3010 3010 3010 3010 3010 3037 3037 3037 3037 3037 3037 3010 3010 0 0 0 0 0 0 0 0 0 0 0
0 0 0 0 0 0 0 0 0 0 0 0 0 0 0 0 0 0 0 0 0 0 0 0 0 0 0 0 0 0 0 0 2579 2579 2579 2560 2560 2560 2560 2560 2560 2560 2560 2560 2560 2560 2560 2560 2560 2560 2560 2560 2579 2579 2579 2579 2579 2579 2598 2598 2618 2618 2618 2618 2618 2618 2618 2598 2598 2598 2598 2598 2598 2598 2598 2618 2618 2618 2618 2618 2618 2639 2639 2639 2639 2639 2639 2639 2639 2639 2659 2659 2659 2659 2659 2659 2680 2680 2680 2701 2701 2701 2701 2701 2701 2701 2701 2701 2701 2701 2723 2723 2701 2701 2701 2701 2701 2701 2701 2701 2701 2701 2701 2701 2723 2723 2723 2701 2701 2723 2723 2723 2723 2723 2723 2723 2744 2744 2744 2744 2744 2744 2744 2744 2723 2723 2723 2723 2723 2744 2744 2744 2767 2767 2744 2744 2744 2744 2744 2744 2744 2744 2744 2767 2767 2767 2767 2767 2767 2767 2767 2767 2767 2767 1713 1713 1705 1705 1705 1705 1705 1705 1609 1609 1609 1609 1601 1601 1609 1609 1609 1609 1616 1616 1616 1624 1624 1632 1632 1647 1688 1705 1713 1713 1722 1731 1731 1739 1739 1739 1739 1739 1739 1739 1739 1739 1739 1739 1739 1739 1739 1731 1731 1739 1739 1748 1748 1748 1748 1748 1748 1748 1748 1748 1748 1748 1748 1748 1748 1748 1748 1748 1748 1739 1739 1739 1739 1739 1739 1739 1739 1739 1739 1739 1739 1739 1739 1739 1739 1739 1739 1739 1739 1458 1458 1458 1458 1464 1464 1464 1464 1464 1464 1464 1464 1464 1464 1470 1470 1477 1483 1483 1483 1489 1489 1748 1748 1748 1757 1757 1757 1757 1757 1757 1757 1757 1757 1757 1757 1766 1757 1757 1766 1766 1766 1766 1766 1766 1766 1766 1776 1785 1785 1785 1317 1317 1317 1317 1312 1312 1312 1312 1312 1312 1312 1312 1317 1317 1317 1322 1322 1328 1322 1322 1317 1317 1317 1312 1312 1312 1843 1843 1853 1863 1873 1883 1883 1883 1883 1883 1883 1883 1883 1883 1883 1883 1883 1883 1883 1883 1883 1883 1883 1894 1894 1904 1915 1926 1926 1947 2241 2256 2271 2271 2271 2271 2271 2271 2286 2286 2286 2271 2271 2286 2958 2958 2958 2958 2984 2984 2984 3010 3010 2984 2984 2984 2984 2984 2958 2958 2984 2984 1804 1804 1804 1804 1804 1804 1804 1804 1804 1804 1804 1804 1794 1794 1794 1794 1794 1794 1794 1794 1794 1794 1794 1794 1794 1804 1804 1804 1804 0 1161 1161 1161 1161 1161 1161 1161 1161 1161 1161 1157 1157 1157 1157 1157 1157 1157 1157 1157 1161 1161 1161 1165 1169 1169 1302 1302 1307 1312 1312 1312 1317 1317 1317 1312 1307 1307 1302 1302 1302 1302 1302 1302 1302 1297 1297 1297 1297 1297 1292 1292 1288 1288 1288 1288 1288 1283 1283 1283 1283 1283 1278 1278 1278 1278 1278 1278 1273 1273 1273 1273 1273 1264 1264 1264 1259 1259 1259 1259 1259 1255 1255 1255 1255 1255 1255 1255 1255 1255 1255 1250 1245 1245 1245 1241 1241 1241 1241 1236 1236 1236 1236 1236 1236 1236 1236 1236 1236 1236 1236 1236 1232 1232 1232 1232 1227 1223 1223 1223 1223 1223 1223 1219 1219 1219 1219 1219 1219 1219 1214 1214 1214 1210 1210 1206 1206 1206 1206 1206 1202 1202 1202 1202 1202 1202 1202 1197 1197 1193 1193 1193 1193 1189 1189 1189 1189 1189 1189 1185 1185 1181 1181 1181 0 0 2933 2933 2958 2984 3010 3010 2984 2984 2984 2984 2984 2984 2984 2984 2984 2984 2984 3010 3010 2984 2984 2984 2984 3010 3010 3010 3010 3010 3010 3010 2984 2984 0 0 0 0 0 0 0 0 0 0 0
0 0 0 0 0 0 0 0 0 0 0 0 0 0 0 0 0 0 0 0 0 0 0 0 0 0 0 0 0 0 0 0 2579 2560 2560 2560 2560 2560 2560 2560 2560 2560 2560 2541 2541 2560 2560 2560 2560 2560 2560 2560 2560 2560 2560 2579 2579 2579 2579 2579 2598 2598 2598 2598 2598 2598 2598 2598 2579 2579 2579 2598 2598 2598 2598 2618 2618 2618 2618 2618 2618 2618 2639 2618 2618 2618 2639 2639 2639 2639 2639 2639 2639 2639 2659 2659 2680 2680 2680 2680 2680 2680 2701 2701 2701 2701 2701 2701 2701 2701 2701 2701 2701 2701 2701 2701 2701 2701 2701 2701 2701 2701 2701 2701 2701 2701 2701 2701 2701 2701 2701 2701 2701 2701 2701 2723 2723 2723 2744 2744 2744 2744 2744 2744 2723 2723 2723 2723 2723 2723 2744 2744 2744 2767 2744 2744 2744 2744 2744 2744 2744 2744 2744 2744 2744 2744 2744 2744 2744 2744 2744 2744 2744 2744 1713 1713 1705 1705 1705 1705 1705 1705 1609 1609 1609 1609 1601 1601 1609 1609 1609 1609 1616 1616 1616 1624 1632 1639 1639 1671 1696 1705 1713 1713 1722 1722 1731 1731 1731 1731 1731 1731 1722 1722 1731 1731 1731 1731 1731 1731 1731 1722 1722 1722 1731 1739 1739 1739 1739 1739 1739 1739 1739 1739 1731 1731 1739 1739 1739 1739 1739 1739 1739 1731 1731 1731 1731 1731 1731 1731 1739 1739 1739 1739 1739 1739 1739 1731 1731 1731 1731 1731 1731 1464 1464 1464 1464 1464 1464 1464 1464 1464 1464 1464 1464 1464 1464 1470 1470 1477 1483 1489 1489 1489 1496 1739 1739 1748 1748 1748 1748 1748 1748 1748 1748 1748 1748 1748 1748 1748 1748 1748 1748 1748 1748 1748 1748 1748 1757 1766 1766 1776 1776 1776 1317 1317 1317 1317 1317 1312 1312 1312 1312 1312 1312 1312 1317 1317 1317 1317 1322 1322 1322 1317 1317 1317 1317 1312 1312 1307 1307 1307 1307 1302 1302 1302 1302 1297 1297 1883 1883 1873 1873 1883 1883 1883 1883 1883 1883 1883 1883 1883 1894 1894 1894 1926 1926 1926 1926 1926 2256 2256 2271 2271 2271 2271 2271 2271 2271 2286 2286 2271 2271 2286 2958 2958 2958 2958 2984 2984 2984 2984 2984 2984 2958 2958 2958 2958 2958 2958 2958 1804 1804 1804 1804 1804 1804 1804 1804 1804 1804 1804 1804 1804 1785 1785 1785 1785 1785 1785 1785 1785 1794 1794 1794 1794 1794 1794 1794 1813 1813 0 1161 1161 1161 1161 1161 1161 1161 1161 1161 1161 1161 1157 1157 1157 1157 1157 1157 1157 1161 1161 1165 1165 1173 1173 1302 1302 1302 1307 1312 1312 1312 1317 1317 1804 1312 1307 1302 1302 1302 1302 1302 1302 1302 1302 1297 1297 1297 1297 1297 1292 1292 1288 1288 1288 1292 1288 1288 1288 1288 1283 1283 1283 1278 1278 1278 1278 1278 1278 1273 1273 1273 1273 1268 1264 1264 1259 1259 1259 1259 1259 1259 1255 1255 1255 1255 1255 1255 1255 1255 1255 1250 1250 1245 1245 1241 1241 1241 1241 1241 1236 1236 1236 1236 1236 1236 1236 1236 1236 1236 1236 1236 1232 1232 1232 1232 1227 1223 1223 1223 1223 1223 1223 1223 1223 1219 1219 1219 1219 1219 1214 1214 1214 1214 1210 1210 1206 1206 1206 1206 1202 1202 1202 1202 1202 1202 1202 1197 1197 1197 1197 1193 1193 1193 1193 1189 1189 1189 1189 1185 1185 1185 0 1185 0 0 2933 2933 2958 2984 3010 3010 2984 2984 2984 2984 2958 2958 2958 2984 2984 2984 2984 2984 2984 2984 2984 2984 2984 2984 3010 2984 2984 3010 2984 2984 2933 2933 0 0 0 0 0 0 0 0 0 0 0
0 0 0 0 0 0 0 0 0 0 0 0 0 0 0 0 0 0 0 0 0 0 0 0 0 0 0 0 0 0 0 0 0 2560 2560 2560 2541 2541 2560 2560 2541 2541 2541 2541 2541 2541 2541 2541 2541 2541 2560 2560 2560 2560 2560 2560 2560 2560 2579 2579 2579 2579 2579 2579 2579 2598 2598 2598 2579 2579 2579 2598 2598 2598 2598 2618 2618 2618 2618 2618 2618 2618 2618 2618 2618 2618 2618 2618 2618 2618 2618 2618 2618 2618 2618 2639 2659 2659 2659 2659 2680 2680 2680 2680 2680 2680 2680 2680 2680 2680 2680 2680 2701 2701 2680 2680 2680 2680 2680 2680 2680 2680 2680 2701 2701 2701 2701 2701 2701 2701 2701 2701 2701 2701 2701 2701 2701 2723 2723 2723 2723 2723 2723 2723 2723 2723 2701 2701 2723 2723 2723 2723 2744 2744 2744 2744 2744 2723 2723 2723 2723 2723 2723 2723 2723 2723 2744 2744 2744 2744 2744 2744 2744 2744 1713 1713 1705 1705 1705 1705 1705 1705 1609 1609 1609 1609 1601 1601 1609 1609 1609 1609 1616 1616 1624 1624 1632 1639 1647 1680 1688 1705 1705 1713 1713 1713 1722 1722 1722 1722 1722 1722 1713 1713 1722 1722 1722 1722 1722 1722 1722 1722 1722 1722 1722 1731 1731 1731 1731 1731 1731 1731 1731 1731 1722 1722 1731 1731 1731 1731 1731 1739 1739 1731 1731 1731 1731 1731 1731 1731 1731 1731 1731 1731 1731 1731 1731 1731 1731 1731 1731 1731 1731 1731 1464 1464 1464 1464 1464 1464 1464 1464 1464 1464 1464 1464 1470 1470 1477 1483 1483 1489 1489 1489 1739 1739 1739 1739 1739 1739 1739 1739 1739 1739 1739 1739 1739 1739 1739 1739 1739 1739 1739 1739 1739 1739 1748 1748 1748 1748 1757 1757 1766 1766 1317 1317 1317 1317 1317 1317 1317 1317 1312 1312 1312 1312 1317 1317 1317 1317 1322 1322 1317 1317 1312 1312 1312 1307 1307 1307 1307 1307 1302 1302 1302 1297 1297 1297 1297 1292 1292 1288 1288 1288 1288 1288 1288 1883 1883 1883 1883 1894 1894 1894 1278 1278 1278 1283 1283 2271 2271 2271 2271 2271 2271 2271 2271 2271 2271 2271 2271 2271 2271 2271 2271 2958 2958 2958 2958 2958 2958 2958 2958 2958 2958 2958 2958 2958 2958 2958 1804 1804 1804 1804 1804 1794 1794 1794 1804 1794 1794 1794 1794 1794 1785 1785 1785 1785 1785 1785 1785 1785 1785 1785 1785 1785 1785 1785 1785 1794 1794 0 0 1161 1161 1161 1161 1161 1161 1161 1161 1161 1161 1161 1157 1157 1157 1157 1157 1157 1161 1161 1165 1165 1165 1169 1169 1757 1776 1776 1776 1785 1794 1794 1794 1794 1794 1794 1302 1302 1302 1302 1302 1302 1302 1302 1297 1297 1297 1297 1297 1297 1292 1288 1288 1292 1292 1288 1288 1288 1288 1283 1283 1283 1283 1278 1278 1278 1278 1278 1278 1273 1273 1273 1268 1264 1264 1264 1259 1259 1259 1259 1259 1259 1259 1259 1255 1255 1255 1255 1255 1255 1250 1250 1245 1245 1245 1241 1241 1241 1241 1241 1236 1236 1236 1236 1236 1236 1236 1236 1236 1236 1232 1232 1232 1232 1232 1227 1227 1223 1223 1223 1223 1223 1223 1223 1219 1219 1219 1219 1219 1214 1214 1214 1210 1206 1206 1206 1206 1206 1206 1206 1202 1202 1202 1202 1202 1202 1197 1197 1197 1197 1197 1193 1193 1193 1193 1189 1189 1189 1185 1185 0 0 0 0 0 2958 2958 2984 2984 2984 2984 2984 2984 2984 2958 2933 2933 2933 2958 2958 2958 2958 2958 2958 2958 2958 2958 2958 2984 2984 2984 2984 2984 2984 2958 2933 2933 0 0 0 0 0 0 0 0 0 0 0
0 0 0 0 0 0 0 0 0 0 0 0 0 0 0 0 0 0 0 0 0 0 0 0 0 0 0 0 0 0 0 0 0 2541 2541 2541 2541 2541 2541 2541 2541 2522 2522 2522 2522 2541 2541 2541 2541 2541 2541 2560 2560 2560 2560 2560 2560 2560 2560 2560 2560 2560 2560 2560 2560 2579 2579 2579 2579 2598 2598 2598 2598 2598 2598 2598 2618 2618 2618 2618 2618 2618 2618 2618 2618 2618 2618 2618 2618 2618 2618 2618 2618 2618 2618 2639 2639 2659 2659 2659 2659 2659 2659 2659 2659 2659 2680 2680 2680 2680 2680 2680 2680 2659 2659 2659 2659 2680 2680 2680 2680 2680 2680 2680 2680 2680 2680 2680 2680 2680 2680 2680 2680 2680 2680 2680 2680 2701 2701 2701 2701 2701 2701 2701 2701 2701 2701 2701 2701 2701 2723 2723 2723 2744 2723 2723 2723 2723 2701 2701 2701 2701 2701 2701 2701 2723 2723 2723 2723 2723 2723 2723 2723 2723 1713 1713 1705 1705 1705 1705 1705 1705 1616 1616 1609 1609 1609 1609 1609 1609 1609 1609 1616 1616 1624 1632 1632 1639 1647 1680 1688 1696 1705 1705 1713 1713 1713 1713 1713 1713 1713 1713 1713 1713 1713 1713 1713 1713 1713 1713 1713 1713 1713 1722 1722 1722 1722 1722 1722 1722 1722 1722 1722 1722 1722 1722 1722 1731 1731 1731 1731 1731 1731 1722 1722 1722 1722 1722 1722 1722 1731 1731 1731 1722 1722 1722 1722 1722 1722 1722 1722 1731 1731 1731 1464 1464 1464 1464 1464 1464 1464 1464 1464 1464 1464 1464 1470 1470 1477 1483 1489 1489 1489 1489 1496 1731 1731 1731 1731 1731 1731 1731 1731 1739 1739 1739 1739 1739 1739 1739 1739 1739 1739 1739 1739 1739 1739 1739 1748 1748 1748 1748 1757 1757 1317 1317 1317 1317 1317 1317 1317 1317 1317 1312 1312 1312 1317 1317 1317 1317 1317 1322 1317 1312 1312 1312 1307 1307 1307 1307 1307 1302 1302 1302 1297 1297 1297 1297 1292 1288 1288 1288 1288 1288 1288 1288 1288 1288 1288 1883 1883 1278 1278 1278 1278 1278 1278 1283 1283 2226 2226 2256 2256 2256 2271 2271 2271 2271 2271 2271 2271 2271 2271 2271 2271 2286 2933 2933 2958 2958 2958 2933 2933 2933 2933 2933 2933 2933 2933 2933 1804 1804 1804 1804 1804 1794 1794 1794 1804 1794 1794 1794 1794 1794 1785 1785 1776 1776 1776 1776 1776 1776 1776 1785 1785 1785 1785 1785 1785 1785 1785 0 0 1165 1165 1165 1165 1161 1161 1161 1161 1161 1161 1161 1157 1157 1157 1157 1157 1161 1161 1161 1165 1169 1169 1169 1757 1757 1757 1757 1776 1776 1785 1785 1785 1785 1794 1785 1776 1776 1776 1302 1302 1302 1302 1302 1297 1297 1297 1297 1297 1297 1292 1292 1292 1292 1292 1288 1288 1288 1288 1283 1283 1283 1283 1283 1283 1278 1278 1278 1278 1278 1278 1278 1268 1268 1264 1264 1259 1259 1259 1259 1259 1259 1259 1259 1255 1255 1255 1255 1255 1255 1250 1250 1245 1245 1245 1241 1241 1241 1241 1241 1236 1236 1236 1236 1236 1236 1236 1236 1236 1236 1232 1232 1232 1232 1232 1227 1227 1227 1223 1223 1223 1223 1223 1223 1223 1219 1219 1219 1219 1214 1214 1214 1210 1206 1206 1206 1206 1206 1206 1206 1202 1202 1202 1202 1202 1197 1197 1193 1193 1197 1193 1193 1193 1193 1193 1189 1189 1189 1189 0 0 0 0 0 0 2958 2958 2984 2984 2984 2984 2958 2958 2958 2958 2933 2933 2933 2933 2933 2933 2933 2958 2958 2933 2933 2933 2933 2958 2933 2933 2933 2958 2958 2933 2933 2933 0 0 0 0 0 0 0 0 0 0 0
0 0 0 0 0 0 0 0 0 0 0 0 0 0 0 0 0 0 0 0 0 0 0 0 0 0 0 0 0 0 0 0 0 2522 2522 2522 2522 2522 2522 2522 2522 2522 2522 2522 2522 2522 2541 2541 2541 2541 2541 2541 2541 2541 2560 2560 2560 2560 2560 2560 2560 2560 2560 2560 2560 2560 2560 2579 2579 2579 2579 2598 2598 2598 2598 2598 2598 2598 2598 2618 2618 2618 2618 2618 2618 2618 2618 2618 2618 2618 2618 2618 2618 2618 2618 2618 2639 2639 2639 2639 2639 2639 2659 2639 2639 2659 2659 2659 2659 2659 2659 2659 2659 2659 2659 2659 2659 2659 2659 2680 2680 2680 2680 2680 2680 2680 2680 2680 2680 2680 2680 2680 2680 2680 2680 2680 2680 2680 2680 2680 2680 2680 2680 2680 2680 2680 2701 2701 2701 2701 2701 2701 2723 2723 2701 2701 2701 2701 2701 2701 2701 2680 2680 2680 2701 2701 2701 2723 2723 2723 2723 2723 2723 2723 1713 1713 1705 1705 1705 1705 1705 1705 1616 1616 1609 1609 1609 1609 1609 1609 1609 1609 1616 1616 1616 1624 1632 1639 1663 1680 1688 1696 1705 1705 1705 1705 1713 1713 1713 1713 1713 1713 1705 1705 1705 1705 1705 1705 1705 1713 1713 1713 1713 1713 1713 1713 1713 1713 1713 1713 1713 1713 1713 1713 1713 1713 1713 1722 1713 1713 1722 1722 1713 1705 1705 1713 1713 1713 1713 1713 1722 1722 1722 1713 1713 1722 1722 1722 1722 1722 1722 1722 1731 1731 1470 1464 1464 1470 1464 1464 1464 1464 1464 1464 1464 1464 1470 1470 1477 1483 1489 1489 1489 1496 1496 1722 1722 1731 1731 1731 1731 1731 1731 1731 1731 1731 1731 1731 1731 1731 1731 1731 1731 1731 1731 1731 1731 1731 1731 1731 1739 1739 1748 1748 1317 1317 1317 1322 1317 1317 1317 1317 1317 1312 1312 1312 1317 1317 1317 1317 1317 1322 1317 1312 1312 1307 1307 1307 1307 1307 1307 1302 1302 1297 1297 1297 1297 1292 1292 1288 1288 1288 1288 1288 1288 1288 1283 1283 1283 1283 1278 1278 1278 1278 1278 1278 1278 1278 1278 1278 2226 2256 2256 1273 1273 1273 1278 1278 1278 2286 2286 2286 2286 2286 2286 2286 2933 2933 2908 2908 2908 2933 2933 2933 2908 2908 2908 2908 2908 2908 1804 1804 1804 1804 1804 1804 1804 1804 1804 1794 1794 1794 1794 1794 1785 1776 1776 1776 1776 1766 1766 1766 1776 1776 1776 1776 1776 1776 1776 1776 1785 0 0 1165 1165 1165 1165 1165 1165 1161 1161 1161 1161 1161 1157 1157 1157 1157 1157 1161 1161 1165 1165 1169 1169 1169 1757 1757 1757 1757 1776 1776 1785 1785 1785 1785 1785 1785 1766 1766 1766 1776 1766 1766 1302 1302 1776 1776 1776 1776 1776 1776 1292 1292 1292 1292 1292 1292 1288 1288 1288 1288 1283 1283 1283 1283 1283 1283 1278 1278 1278 1278 1278 1273 1268 1268 1268 1264 1264 1264 1259 1259 1259 1259 1259 1259 1259 1259 1259 1255 1255 1255 1255 1250 1250 1245 1245 1241 1241 1241 1241 1241 1241 1241 1241 1241 1241 1236 1236 1236 1236 1236 1236 1232 1232 1236 1232 1232 1227 1227 1227 1223 1223 1223 1223 1223 1223 1223 1219 1219 1219 1214 1214 1214 1214 1210 1210 1206 1206 1206 1206 1206 1202 1202 1202 1202 1202 1197 1197 1193 1193 1197 1193 1193 1193 1193 1193 1193 1189 1189 1189 0 0 0 0 0 0 2958 2933 2933 2958 2933 2933 2933 2933 2933 2933 2908 2908 2933 2933 2933 2933 2933 2958 2958 2933 2933 2933 2933 2933 2933 2933 2933 2933 2933 2933 2933 2933 0 0 0 0 0 0 0 0 0 0 0
0 0 0 0 0 0 0 0 0 0 0 0 0 0 0 0 0 0 0 0 0 0 0 0 0 0 0 0 0 0 0 0 0 2503 2503 2503 2522 2522 2503 2503 2503 2503 2503 2503 2503 2503 2503 2522 2522 2522 2522 2541 2541 2541 2541 2560 2560 2560 2560 2560 2560 2560 2560 2560 2560 2560 2560 2579 2579 2579 2579 2598 2598 2579 2579 2598 2598 2598 2598 2618 2618 2618 2618 2618 2618 2618 2618 2618 2618 2618 2618 2618 2618 2618 2618 2618 2639 2639 2639 2639 2639 2639 2639 2639 2639 2639 2639 2639 2639 2639 2639 2639 2639 2639 2639 2639 2639 2639 2659 2659 2659 2659 2680 2680 2680 2659 2659 2680 2680 2680 2680 2680 2680 2680 2680 2680 2680 2659 2659 2680 2680 2680 2680 2680 2680 2680 2701 2701 2701 2701 2701 2701 2701 2701 2701 2701 2680 2680 2680 2680 2680 2680 2680 2680 2680 2680 2701 2701 2701 2701 2701 2701 2701 2701 1713 1713 1705 1705 1705 1705 1705 1705 1616 1616 1609 1609 1609 1609 1609 1609 1609 1609 1616 1616 1616 1624 1624 1639 1663 1680 1688 1696 1696 1696 1705 1705 1705 1705 1705 1705 1705 1705 1705 1705 1705 1705 1705 1705 1705 1705 1705 1705 1705 1705 1705 1713 1705 1705 1705 1705 1705 1705 1705 1705 1705 1705 1713 1713 1713 1713 1713 1713 1713 1705 1705 1705 1705 1705 1705 1705 1713 1713 1713 1705 1705 1705 1713 1713 1713 1713 1713 1722 1722 1722 1470 1470 1470 1470 1470 1470 1470 1470 1464 1464 1464 1464 1470 1470 1477 1483 1489 1496 1496 1496 1503 1713 1722 1722 1722 1731 1722 1722 1731 1731 1731 1731 1731 1731 1731 1731 1731 1731 1731 1731 1731 1731 1731 1731 1731 1731 1731 1731 1739 1739 1322 1322 1322 1322 1322 1317 1317 1317 1317 1317 1317 1317 1317 1317 1317 1317 1317 1322 1317 1312 1312 1307 1307 1307 1307 1307 1302 1302 1302 1297 1297 1297 1297 1292 1292 1288 1288 1288 1288 1288 1288 1288 1283 1283 1283 1283 1278 1278 1278 1278 1278 1278 1278 1278 1278 1278 1278 1268 1273 1273 1268 1268 1268 1273 1278 2286 2286 2286 2286 2286 2286 2933 1278 1278 2908 2908 2908 2908 2908 2908 2908 2908 2908 2908 2908 2908 1804 1804 1804 1804 1804 1804 1804 1804 1804 1794 1794 1794 1794 1794 1785 1776 1776 1776 1776 1766 1766 1766 1766 1766 1766 1766 1766 1766 1766 1776 1785 1785 0 1169 1169 1169 1169 1169 1169 1165 1165 1165 1161 1161 1161 1161 1161 1157 1157 1161 1165 1165 1169 1173 1173 1748 1748 1748 1757 1757 1757 1766 1776 1776 1776 1776 1776 1776 1766 1766 1766 1766 1766 1766 1766 1766 1766 1766 1766 1766 1766 1766 1776 1297 1297 1297 1297 1292 1292 1292 1288 1288 1288 1283 1283 1283 1283 1278 1278 1278 1278 1273 1273 1273 1268 1268 1268 1264 1264 1264 1259 1259 1259 1259 1259 1259 1259 1259 1259 1255 1255 1255 1255 1255 1250 1245 1245 1241 1241 1241 1241 1241 1241 1241 1241 1241 1241 1241 1236 1236 1236 1236 1236 1236 1236 1236 1232 1232 1232 1232 1227 1227 1223 1223 1223 1223 1223 1223 1223 1219 1219 1219 1214 1214 1214 1210 1210 1210 1206 1206 1206 1206 1202 1202 1202 1202 1202 1197 1197 1197 1197 1197 1197 1193 1193 1193 1193 1193 1189 1189 1189 0 0 0 0 0 0 0 2933 2933 2933 2933 2933 2933 2908 2908 2908 2908 2908 2908 2933 2933 2933 2933 2933 2933 2933 2933 2908 2908 2908 2908 2908 2908 2908 2933 2933 2933 2933 0 0 0 0 0 0 0 0 0 0 0
0 0 0 0 0 0 0 0 0 0 0 0 0 0 0 0 0 0 0 0 0 0 0 0 0 0 0 0 0 0 0 0 0 2485 2485 2503 2503 2503 2503 2503 2503 2503 2503 2503 2503 2503 2503 2503 2503 2503 2503 2522 2522 2541 2541 2541 2541 2560 2560 2560 2560 2560 2560 2560 2560 2560 2579 2579 2579 2579 2579 2579 2579 2579 2579 2579 2579 2579 2598 2598 2598 2598 2598 2598 2598 2598 2598 2598 2598 2598 2598 2598 2618 2618 2618 2618 2618 2618 2618 2618 2618 2618 2618 2618 2618 2618 2618 2639 2618 2618 2618 2618 2618 2618 2618 2618 2618 2639 2639 2639 2639 2659 2659 2659 2659 2639 2639 2639 2639 2659 2659 2659 2659 2659 2659 2659 2659 2659 2659 2659 2659 2680 2680 2680 2680 2680 2680 2680 2680 2680 2701 2701 2701 2701 2680 2680 2680 2680 2680 2680 2680 2680 2680 2680 2680 2680 2680 2680 2680 2680 2701 2701 2701 2701 1713 1713 1705 1705 1705 1705 1705 1705 1616 1616 1609 1609 1609 1609 1609 1609 1609 1609 1616 1616 1624 1624 1624 1639 1647 1671 1680 1688 1688 1696 1696 1696 1696 1696 1696 1696 1696 1696 1696 1696 1688 1688 1688 1688 1688 1696 1696 1696 1696 1705 1705 1696 1696 1696 1696 1696 1696 1705 1705 1705 1705 1705 1705 1705 1705 1705 1705 1705 1705 1696 1696 1696 1696 1696 1696 1696 1705 1705 1705 1705 1705 1705 1705 1705 1705 1705 1705 1713 1713 1713 1713 1470 1470 1470 1470 1470 1470 1470 1470 1464 1464 1470 1470 1470 1477 1483 1489 1496 1496 1496 1503 1713 1713 1722 1722 1722 1722 1722 1722 1722 1722 1722 1722 1722 1722 1722 1722 1722 1722 1722 1722 1722 1722 1722 1722 1722 1722 1722 1731 1731 1322 1322 1322 1322 1322 1317 1317 1317 1317 1317 1317 1317 1317 1317 1317 1317 1317 1322 1317 1312 1312 1307 1307 1307 1307 1307 1302 1302 1302 1297 1297 1297 1297 1297 1292 1292 1292 1292 1292 1288 1288 1288 1283 1283 1283 1283 1283 1278 1278 1278 1278 1278 1278 1273 1273 1268 1268 1268 1268 1268 1268 1268 1268 1268 1264 1264 1268 1273 1278 1278 1278 1278 1273 1273 2908 2908 2908 2908 2908 2908 2908 2908 2908 2908 2908 2908 1804 1804 1804 1804 1804 1804 1804 1804 1804 1794 1794 1794 1794 1794 1785 1776 1776 1776 1776 1766 1766 1766 1766 1766 1766 1766 1766 1766 1766 1776 1776 1776 0 1169 1169 1169 1169 1169 1169 1169 1165 1165 1165 1161 1161 1161 1161 1161 1161 1165 1165 1169 1169 1173 1173 1739 1739 1739 1748 1748 1757 1757 1766 1766 1766 1766 1766 1766 1766 1766 1766 1766 1766 1766 1766 1757 1757 1766 1757 1757 1757 1766 1766 1766 1766 1757 1297 1297 1297 1297 1292 1292 1757 1757 1757 1757 1283 1278 1278 1278 1278 1273 1273 1278 1268 1268 1268 1264 1264 1264 1264 1259 1259 1259 1259 1259 1259 1259 1259 1255 1255 1255 1255 1255 1250 1250 1245 1245 1241 1241 1241 1241 1241 1241 1241 1241 1241 1241 1241 1241 1236 1236 1236 1236 1236 1236 1232 1232 1232 1227 1227 1227 1227 1223 1223 1223 1223 1223 1223 1223 1219 1219 1219 1214 1214 1214 1214 1210 1210 1206 1206 1206 1206 1202 1202 1202 1202 1202 1197 1197 1197 1197 1197 1197 1193 1193 1193 1193 1193 1189 1189 0 0 0 0 0 0 0 2908 2908 2883 2883 2883 2883 2883 2883 2883 2908 2908 2908 2908 2933 2933 2933 2933 2933 2908 2908 2908 2908 2908 2908 2908 2908 2908 2933 2908 2908 2908 0 0 0 0 0 0 0 0 0 0 0
0 0 0 0 0 0 0 0 0 0 0 0 0 0 0 0 0 0 0 0 0 0 0 0 0 0 0 0 0 0 0 0 0 2485 2485 2485 2485 2485 2485 2485 2485 2485 2485 2485 2503 2503 2503 2503 2503 2503 2503 2503 2503 2522 2522 2541 2541 2541 2541 2541 2560 2560 2560 2560 2560 2560 2579 2579 2579 2579 2579 2560 2560 2560 2560 2560 2560 2579 2579 2579 2579 2598 2598 2598 2598 2598 2598 2598 2598 2598 2598 2598 2598 2598 2598 2598 2618 2618 2618 2618 2618 2618 2618 2618 2618 2618 2618 2618 2618 2618 2618 2618 2618 2618 2618 2618 2618 2618 2618 2618 2618 2639 2639 2639 2639 2618 2618 2618 2618 2639 2639 2639 2639 2639 2639 2639 2659 2639 2639 2639 2659 2659 2659 2659 2659 2659 2680 2680 2680 2680 2680 2680 2680 2680 2680 2680 2680 2680 2680 2659 2659 2659 2659 2659 2680 2680 2680 2680 2680 2680 2680 2680 2680 2680 1713 1713 1713 1713 1713 1713 1705 1705 1616 1616 1616 1609 1609 1609 1616 1616 1616 1616 1616 1624 1624 1624 1624 1639 1647 1671 1680 1680 1680 1688 1688 1688 1688 1688 1688 1688 1688 1688 1680 1680 1688 1680 1680 1688 1688 1688 1688 1696 1696 1696 1696 1696 1688 1688 1688 1688 1688 1688 1688 1688 1696 1696 1696 1696 1696 1696 1696 1696 1696 1688 1688 1688 1688 1688 1688 1688 1688 1688 1688 1688 1696 1696 1696 1696 1696 1696 1705 1705 1696 1696 1696 1477 1477 1470 1470 1470 1470 1470 1470 1470 1470 1470 1470 1477 1477 1489 1489 1496 1496 1503 1509 1705 1705 1705 1705 1713 1713 1713 1713 1713 1713 1713 1713 1713 1713 1713 1713 1713 1713 1713 1713 1713 1713 1713 1713 1722 1722 1722 1722 1722 1328 1322 1322 1322 1322 1322 1322 1322 1317 1317 1317 1317 1322 1322 1322 1322 1322 1322 1317 1312 1307 1307 1307 1307 1307 1307 1302 1302 1302 1297 1297 1297 1292 1292 1292 1292 1292 1292 1292 1288 1288 1283 1283 1283 1283 1283 1283 1283 1278 1278 1278 1278 1273 1273 1273 1268 1268 1268 1268 1268 1264 1264 1264 1264 1259 1259 1264 1268 1268 1268 1268 1268 1268 1268 1268 1268 2883 2883 2883 2908 2908 2908 2908 2908 2908 2908 1794 1794 1794 1804 1804 1804 1804 1804 1804 1804 1794 1794 1794 1794 1785 1776 1776 1776 1776 1766 1766 1766 1766 1766 1766 1766 1766 1766 1766 1776 1776 0 0 1173 1173 1173 1173 1173 1169 1169 1165 1165 1165 1165 1161 1161 1161 1161 1161 1165 1169 1169 1173 1177 1739 1739 1739 1739 1739 1739 1748 1748 1757 1757 1757 1766 1766 1766 1757 1757 1757 1757 1757 1757 1757 1757 1757 1757 1757 1757 1757 1757 1757 1757 1757 1757 1757 1757 1757 1757 1757 1757 1748 1748 1748 1748 1748 1278 1278 1278 1273 1273 1273 1273 1268 1268 1264 1264 1264 1264 1259 1259 1259 1259 1259 1259 1259 1259 1259 1255 1255 1255 1255 1255 1250 1250 1245 1245 1245 1245 1245 1245 1245 1241 1241 1241 1241 1241 1241 1241 1241 1236 1236 1236 1236 1236 1232 1232 1232 1227 1227 1227 1227 1223 1223 1223 1223 1223 1223 1219 1219 1219 1219 1214 1214 1214 1214 1210 1210 1206 1206 1206 1206 1202 1202 1202 1202 1202 1202 1202 1197 1197 1197 1193 1193 1193 1193 1193 1193 1189 1189 0 0 0 0 0 0 2835 2835 2859 2859 2859 2859 2859 2859 2859 2859 2859 2859 2883 2883 2908 2908 2908 2908 2908 2908 2908 2883 2883 2883 2908 2908 2908 2908 2908 2908 2908 2908 0 0 0 0 0 0 0 0 0 0 0
0 0 0 0 0 0 0 0 0 0 0 0 0 0 0 0 0 0 0 0 0 0 0 0 0 0 0 0 0 0 0 0 0 2485 2485 2485 2485 2485 2485 2485 2485 2485 2485 2485 2485 2485 2485 2485 2485 2485 2485 2503 2503 2503 2503 2522 2522 2541 2541 2541 2541 2541 2560 2560 2560 2560 2579 2579 2579 2579 2560 2560 2560 2541 2541 2560 2560 2560 2560 2560 2560 2579 2579 2579 2579 2579 2579 2579 2579 2579 2579 2579 2598 2598 2598 2598 2598 2598 2598 2598 2598 2598 2598 2598 2598 2618 2618 2618 2598 2598 2598 2598 2598 2598 2598 2598 2598 2618 2618 2618 2618 2618 2618 2618 2618 2618 2618 2618 2618 2618 2618 2639 2639 2639 2639 2639 2639 2639 2639 2639 2639 2659 2659 2659 2659 2659 2659 2659 2680 2680 2680 2680 2680 2680 2659 2659 2659 2659 2659 2659 2659 2659 2659 2659 2659 2659 2659 2680 2680 2680 2680 2659 2659 2659 1713 1713 1705 1705 1713 1713 1713 1713 1616 1616 1616 1616 1616 1616 1616 1616 1616 1616 1616 1624 1624 1624 1624 1639 1647 1663 1671 1680 1680 1680 1680 1680 1680 1680 1680 1680 1680 1680 1671 1671 1680 1680 1680 1680 1680 1680 1680 1688 1688 1688 1688 1688 1688 1680 1680 1680 1680 1680 1688 1688 1688 1688 1688 1688 1688 1688 1688 1696 1696 1688 1688 1680 1680 1680 1680 1680 1680 1680 1680 1688 1688 1696 1688 1688 1688 1688 1696 1688 1688 1688 1489 1477 1477 1477 1470 1470 1470 1470 1470 1470 1470 1470 1470 1477 1483 1489 1489 1503 1503 1503 1696 1696 1696 1696 1705 1705 1705 1705 1705 1705 1705 1705 1713 1713 1705 1705 1705 1705 1705 1705 1705 1713 1713 1705 1705 1705 1705 1705 1705 1705 1328 1328 1328 1328 1322 1322 1322 1322 1322 1322 1322 1322 1322 1322 1322 1322 1322 1322 1317 1312 1307 1307 1307 1307 1307 1307 1302 1302 1302 1297 1297 1292 1292 1292 1292 1292 1292 1292 1292 1288 1288 1283 1283 1283 1283 1283 1283 1278 1278 1278 1278 1273 1273 1273 1273 1268 1268 1268 1268 1268 1264 1264 1264 1264 1259 1259 1259 1264 1264 1264 1264 1264 1264 1264 1264 1264 2883 2883 2883 2908 2908 2908 2908 2908 2908 1241 1794 1794 1794 1794 1794 1804 1804 1804 1804 1804 1794 1794 1794 1794 1785 1785 1776 1776 1776 1766 1766 1766 1766 1766 1766 1766 1766 1766 1766 1776 1776 0 0 0 1173 1173 1173 1173 1173 1173 1169 1165 1165 1165 1165 1165 1165 1165 1165 1169 1169 1169 1173 1177 1739 1739 1739 1731 1731 1739 1739 1739 1739 1739 1748 1748 1757 1757 1757 1757 1757 1757 1757 1757 1757 1757 1757 1757 1757 1757 1757 1757 1757 1757 1757 1757 1757 1757 1757 1757 1757 1748 1748 1748 1748 1748 1748 1748 1748 1278 1273 1273 1268 1268 1268 1264 1264 1264 1264 1264 1259 1259 1259 1259 1259 1259 1259 1259 1259 1255 1255 1255 1255 1255 1250 1250 1250 1245 1245 1245 1245 1245 1245 1245 1241 1241 1241 1241 1241 1241 1241 1236 1236 1236 1236 1236 1232 1232 1227 1227 1227 1227 1227 1227 1223 1223 1223 1223 1223 1219 1219 1219 1219 1214 1214 1214 1214 1210 1210 1206 1206 1206 1206 1202 1202 1202 1202 1202 1202 1202 1197 1197 1197 1193 1193 1193 1193 1193 1193 1189 1177 1177 0 0 0 0 2812 2812 2835 2859 2859 2859 2859 2859 2859 2859 2859 2859 2859 2859 2883 2908 2883 2883 2883 2883 2883 2883 2883 2883 2883 2883 2883 2883 2883 2883 2883 2883 2883 0 0 0 0 0 0 0 0 0 0 0
0 0 0 0 0 0 0 0 0 0 0 0 0 0 0 0 0 0 0 0 0 0 0 0 0 0 0 0 0 0 0 0 0 2485 2485 2485 2485 2485 2485 2485 2485 2485 2485 2485 2485 2485 2485 2485 2485 2485 2485 2485 2485 2503 2503 2503 2522 2522 2522 2541 2541 2541 2541 2560 2560 2560 2560 2560 2579 2560 2541 2541 2541 2541 2541 2541 2541 2541 2560 2560 2560 2560 2560 2560 2579 2560 2560 2579 2579 2560 2560 2560 2579 2579 2579 2579 2598 2579 2579 2598 2598 2598 2598 2598 2598 2598 2598 2598 2598 2579 2579 2579 2579 2579 2579 2579 2598 2598 2598 2598 2598 2618 2618 2618 2618 2618 2618 2618 2618 2618 2618 2618 2618 2618 2618 2618 2618 2618 2618 2639 2639 2639 2639 2639 2639 2639 2659 2659 2659 2659 2659 2659 2659 2680 2659 2659 2659 2659 2659 2659 2659 2659 2659 2659 2659 2659 2659 2659 2659 2659 2659 2659 2659 2659 1713 1713 1705 1705 1713 1713 1713 1713 1616 1616 1616 1616 1616 1616 1616 1616 1616 1616 1624 1624 1624 1632 1632 1639 1647 1647 1663 1671 1671 1671 1671 1671 1671 1671 1671 1671 1671 1671 1671 1671 1671 1671 1671 1671 1671 1680 1680 1680 1680 1680 1680 1680 1680 1680 1680 1680 1680 1680 1680 1680 1680 1680 1680 1680 1680 1680 1680 1688 1688 1680 1680 1671 1671 1671 1680 1680 1671 1671 1680 1680 1680 1680 1680 1680 1680 1688 1688 1680 1671 1671 1489 1477 1477 1477 1477 1470 1470 1470 1470 1470 1470 1470 1470 1477 1483 1489 1489 1503 1503 1503 1688 1688 1680 1680 1688 1680 1680 1688 1688 1688 1688 1688 1688 1688 1688 1688 1688 1696 1696 1696 1696 1696 1696 1696 1696 1696 1696 1696 1705 1705 1328 1328 1328 1328 1328 1328 1328 1322 1322 1322 1322 1322 1328 1328 1322 1322 1322 1322 1317 1312 1312 1312 1307 1307 1307 1307 1307 1302 1302 1297 1297 1292 1292 1292 1292 1292 1292 1292 1292 1288 1288 1283 1283 1283 1283 1283 1283 1278 1278 1278 1273 1273 1273 1273 1268 1268 1268 1268 1268 1268 1264 1264 1264 1264 1259 1259 1259 1259 1259 1259 1259 1264 1264 1264 1264 1259 1259 1255 1255 1255 1250 1241 1241 1241 1241 1241 1241 1794 1794 1794 1794 1804 1804 1804 1804 1804 1794 1794 1794 1794 1785 1785 1785 1785 1776 1776 1766 1766 1766 1766 1766 1766 1766 1766 1766 1776 1776 0 0 0 1173 1173 1173 1173 1173 1173 1169 1169 1169 1169 1165 1165 1165 1165 1165 1169 1173 1173 1173 1177 1739 1739 1731 1731 1731 1731 1739 1739 1739 1739 1748 1748 1748 1748 1748 1748 1748 1748 1748 1748 1748 1748 1748 1748 1748 1748 1748 1748 1748 1757 1748 1748 1757 1748 1748 1748 1748 1748 1748 1748 1748 1748 1739 1739 1739 1739 1273 1273 1268 1268 1268 1264 1264 1264 1264 1264 1259 1259 1259 1259 1259 1259 1259 1259 1255 1255 1255 1255 1255 1255 1255 1255 1250 1250 1250 1250 1250 1245 1245 1245 1241 1241 1241 1241 1241 1241 1241 1236 1236 1236 1236 1236 1232 1232 1227 1227 1227 1227 1227 1227 1227 1227 1223 1223 1223 1223 1219 1219 1219 1219 1219 1214 1214 1210 1210 1206 1206 1206 1206 1206 1202 1202 1202 1202 1202 1202 1202 1197 1197 1193 1193 1193 1193 1193 1193 1189 1177 1177 0 0 0 0 2812 2812 2835 2835 2835 2835 2835 2835 2835 2835 2835 2835 2835 2859 2859 2883 2883 2859 2859 2859 2859 2859 2859 2859 2883 2883 2883 2883 2883 2883 2883 2859 2859 0 0 0 0 0 0 0 0 0 0 0
0 0 0 0 0 0 0 0 0 0 0 0 0 0 0 0 0 0 0 0 0 0 0 0 0 0 0 0 0 0 0 0 0 2485 2485 2485 2485 2485 2485 2485 2467 2467 2485 2485 2485 2485 2485 2485 2485 2485 2485 2485 2485 2485 2503 2503 2522 2522 2522 2541 2541 2541 2541 2560 2560 2560 2560 2560 2560 2541 2541 2541 2541 2541 2541 2541 2541 2541 2541 2541 2541 2541 2560 2560 2560 2560 2560 2560 2560 2560 2560 2560 2560 2579 2579 2579 2598 2579 2579 2579 2579 2579 2579 2579 2598 2598 2598 2598 2579 2579 2579 2579 2579 2579 2579 2579 2579 2598 2598 2598 2598 2598 2598 2598 2598 2598 2598 2598 2598 2598 2618 2618 2618 2618 2618 2618 2618 2618 2618 2618 2618 2618 2618 2618 2618 2618 2639 2639 2639 2639 2659 2659 2659 2659 2639 2639 2639 2639 2639 2639 2639 2639 2639 2639 2639 2639 2639 2639 2639 2659 2659 2659 2659 1705 1705 1705 1705 1705 1705 1713 1713 1713 1713 1616 1616 1616 1616 1616 1616 1616 1616 1624 1624 1624 1624 1632 1632 1639 1639 1647 1655 1655 1663 1663 1655 1655 1663 1655 1655 1655 1655 1655 1655 1663 1663 1671 1671 1671 1671 1671 1671 1671 1671 1671 1671 1671 1671 1671 1671 1671 1671 1671 1671 1671 1671 1680 1680 1680 1680 1680 1680 1680 1680 1671 1671 1671 1671 1671 1671 1671 1671 1671 1671 1671 1671 1671 1671 1671 1671 1671 1671 1671 1671 1671 1671 1483 1483 1477 1477 1477 1477 1477 1470 1470 1470 1477 1477 1483 1483 1489 1489 1503 1503 1503 1680 1680 1680 1671 1671 1680 1680 1680 1680 1680 1680 1680 1680 1680 1680 1680 1680 1688 1688 1688 1688 1688 1696 1696 1688 1688 1688 1688 1696 1696 1328 1328 1328 1328 1328 1328 1328 1328 1328 1322 1322 1322 1328 1328 1322 1322 1322 1322 1317 1317 1312 1312 1312 1307 1307 1307 1307 1302 1302 1302 1297 1292 1292 1292 1292 1292 1292 1292 1292 1292 1288 1288 1283 1283 1283 1283 1283 1283 1278 1273 1273 1273 1268 1268 1268 1268 1268 1268 1268 1268 1264 1264 1264 1264 1259 1259 1259 1259 1259 1259 1259 1259 1259 1259 1259 1255 1255 1250 1250 1250 1245 1241 1241 1241 1241 1241 1245 1245 1804 1794 1794 1804 1804 1804 1804 1804 1794 1794 1794 1794 1785 1785 1785 1785 1785 1776 1776 1776 1776 1776 1766 1766 1766 1776 1776 1776 0 0 0 0 1177 1173 1173 1173 1173 1173 1169 1169 1169 1169 1165 1165 1165 1165 1169 1169 1173 1173 1177 1177 1739 1722 1722 1722 1722 1731 1731 1731 1731 1731 1739 1739 1739 1739 1739 1739 1731 1731 1739 1739 1739 1739 1739 1739 1739 1739 1739 1739 1748 1739 1739 1739 1748 1739 1739 1739 1739 1739 1739 1739 1739 1739 1739 1731 1731 1731 1722 1722 1722 1268 1268 1264 1264 1264 1264 1264 1259 1259 1259 1259 1259 1259 1259 1255 1255 1255 1255 1255 1255 1255 1255 1255 1255 1250 1250 1250 1250 1245 1245 1245 1241 1241 1241 1241 1241 1241 1241 1236 1236 1236 1236 1236 1236 1232 1232 1227 1227 1227 1227 1227 1223 1223 1223 1223 1223 1223 1223 1219 1219 1219 1219 1214 1214 1210 1210 1210 1206 1206 1206 1206 1206 1206 1206 1202 1202 1202 1202 1202 1202 1197 1193 1193 1193 1193 1193 1193 1185 1185 0 0 0 0 2812 2812 2835 2835 2835 2835 2835 2835 2835 2835 2835 2835 2835 2835 2835 2859 2859 2859 2859 2835 2835 2835 2859 2859 2859 2859 2859 2859 2859 2859 2859 2859 2859 0 0 0 0 0 0 0 0 0 0 0
0 0 0 0 0 0 0 0 0 0 0 0 0 0 0 0 0 0 0 0 0 0 0 0 0 0 0 0 0 0 0 0 0 2485 2467 2467 2467 2467 2467 2467 2467 2467 2467 2467 2467 2467 2467 2467 2485 2485 2485 2485 2485 2485 2485 2503 2503 2522 2522 2541 2541 2541 2541 2541 2560 2560 2560 2560 2560 2541 2541 2541 2541 2541 2541 2541 2541 2541 2541 2541 2541 2541 2541 2541 2541 2541 2541 2541 2541 2541 2541 2541 2560 2560 2579 2579 2579 2560 2560 2560 2560 2560 2560 2560 2560 2579 2579 2579 2579 2560 2560 2579 2579 2579 2560 2560 2579 2579 2579 2579 2579 2598 2598 2598 2598 2598 2598 2598 2598 2598 2598 2598 2618 2618 2618 2618 2618 2618 2618 2618 2618 2618 2618 2618 2618 2618 2618 2618 2618 2618 2639 2639 2639 2639 2639 2639 2639 2639 2639 2639 2618 2618 2618 2618 2618 2618 2639 2639 2639 2639 2639 2639 2639 1705 1705 1705 1705 1705 1705 1713 1713 1713 1713 1616 1616 1616 1616 1616 1616 1616 1616 1624 1624 1624 1632 1632 1632 1639 1639 1647 1647 1655 1655 1655 1655 1655 1655 1655 1655 1655 1655 1655 1655 1655 1655 1663 1663 1671 1671 1671 1671 1671 1671 1671 1671 1671 1671 1671 1671 1671 1671 1671 1671 1671 1671 1671 1671 1671 1671 1671 1671 1671 1671 1671 1671 1663 1663 1663 1663 1663 1663 1663 1663 1663 1663 1663 1663 1671 1671 1671 1671 1663 1663 1663 1663 1489 1483 1483 1483 1477 1477 1477 1477 1477 1477 1477 1477 1483 1483 1489 1489 1503 1503 1671 1671 1671 1671 1671 1671 1671 1671 1671 1671 1671 1671 1671 1671 1671 1671 1671 1671 1680 1680 1688 1680 1680 1688 1688 1680 1680 1680 1688 1688 1688 1333 1328 1328 1328 1328 1328 1328 1328 1328 1322 1322 1322 1328 1328 1328 1328 1328 1328 1322 1317 1312 1312 1312 1307 1307 1307 1307 1307 1302 1302 1297 1297 1292 1292 1292 1292 1292 1292 1292 1292 1288 1288 1283 1283 1283 1283 1283 1283 1278 1273 1273 1273 1268 1268 1268 1268 1268 1268 1268 1268 1264 1264 1264 1259 1259 1259 1259 1259 1259 1259 1259 1259 1259 1259 1259 1255 1250 1250 1250 1250 1245 1245 1245 1245 1245 1245 1245 1245 1245 1245 1804 1804 1804 1804 1794 1794 1794 1794 1794 1794 1785 1785 1785 1785 1785 1776 1776 1776 1776 1776 1766 1766 1766 1776 1776 1776 0 0 0 1177 1177 1173 1173 1173 1173 1173 1173 1169 1169 1169 1169 1165 1165 1169 1169 1173 1173 1173 1177 1177 1185 1705 1713 1722 1722 1722 1731 1731 1731 1731 1731 1731 1722 1722 1731 1731 1722 1722 1722 1731 1731 1731 1731 1731 1731 1731 1731 1731 1731 1731 1731 1731 1731 1731 1731 1731 1731 1731 1731 1731 1731 1731 1731 1722 1722 1722 1722 1713 1713 1713 1713 1713 1264 1264 1264 1264 1259 1259 1259 1259 1259 1259 1259 1255 1255 1255 1255 1255 1255 1255 1255 1255 1255 1255 1250 1250 1250 1250 1245 1245 1241 1241 1241 1241 1241 1241 1241 1236 1236 1236 1236 1236 1236 1232 1232 1232 1232 1232 1227 1227 1223 1223 1223 1223 1223 1219 1219 1219 1219 1219 1219 1214 1214 1210 1210 1210 1206 1206 1206 1206 1206 1206 1206 1206 1206 1206 1206 1202 1202 1197 1197 1193 1193 1197 1197 1193 1193 0 0 0 0 2812 2812 2812 2812 2835 2835 2812 2812 2835 2835 2835 2835 2835 2835 2835 2835 2835 2835 2835 2835 2835 2835 2835 2835 2835 2859 2859 2859 2859 2859 2859 2835 2835 2835 0 0 0 0 0 0 0 0 0 0 0
0 0 0 0 0 0 0 0 0 0 0 0 0 0 0 0 0 0 0 0 0 0 0 0 0 0 0 0 0 0 0 0 0 2467 2467 2467 2467 2467 2467 2467 2467 2467 2467 2467 2467 2467 2467 2467 2467 2485 2485 2485 2485 2485 2485 2503 2503 2503 2503 2522 2522 2541 2541 2541 2541 2541 2541 2541 2541 2522 2522 2522 2522 2522 2522 2541 2541 2541 2541 2541 2541 2541 2541 2541 2541 2541 2541 2541 2541 2541 2541 2541 2541 2541 2560 2560 2560 2541 2541 2560 2560 2560 2560 2560 2560 2560 2579 2560 2560 2560 2560 2560 2560 2560 2560 2560 2560 2579 2579 2579 2579 2598 2598 2598 2598 2598 2598 2598 2598 2598 2598 2598 2598 2598 2598 2598 2598 2598 2598 2598 2598 2598 2598 2598 2618 2618 2618 2618 2618 2618 2618 2618 2618 2618 2618 2618 2618 2618 2618 2618 2618 2618 2618 2618 2618 2618 2618 2618 2618 2618 2618 2618 2618 1713 1713 1713 1713 1713 1713 1713 1713 1713 1713 1713 1616 1616 1616 1616 1616 1624 1624 1624 1624 1632 1632 1632 1639 1639 1639 1647 1647 1647 1647 1647 1647 1647 1647 1647 1647 1647 1647 1647 1647 1647 1647 1655 1655 1663 1663 1663 1663 1663 1663 1663 1663 1663 1663 1663 1663 1663 1663 1663 1663 1663 1663 1663 1663 1663 1663 1663 1663 1663 1663 1663 1663 1663 1663 1663 1663 1663 1663 1663 1663 1663 1663 1663 1663 1663 1663 1663 1663 1663 1663 1663 1663 1489 1483 1483 1483 1477 1477 1477 1477 1477 1477 1477 1483 1483 1489 1489 1496 1503 1503 1671 1671 1671 1671 1663 1663 1663 1671 1671 1671 1671 1671 1671 1671 1671 1671 1671 1671 1671 1671 1680 1671 1671 1680 1680 1680 1680 1680 1680 1688 1688 1333 1328 1328 1328 1328 1328 1328 1328 1328 1328 1328 1328 1328 1328 1328 1328 1328 1328 1328 1322 1317 1317 1317 1312 1312 1307 1307 1307 1302 1302 1302 1302 1297 1297 1297 1297 1292 1292 1292 1292 1288 1288 1288 1283 1283 1283 1283 1283 1278 1273 1273 1273 1268 1268 1268 1268 1268 1268 1264 1264 1264 1264 1264 1259 1259 1259 1259 1259 1259 1259 1259 1259 1255 1255 1255 1255 1250 1250 1250 1245 1245 1245 1245 1245 1245 1245 1245 1245 1245 1245 1250 1250 1804 1804 1794 1794 1794 1794 1794 1794 1785 1785 1785 1785 1785 1776 1776 1776 1776 1776 1776 1766 1766 1776 1776 0 0 0 0 1177 1177 1177 1177 1173 1173 1173 1173 1173 1173 1173 1169 1169 1169 1169 1173 1173 1173 1173 1177 1177 1185 1705 1713 1713 1713 1722 1722 1722 1722 1722 1722 1722 1722 1722 1722 1722 1713 1713 1722 1722 1722 1722 1722 1722 1722 1722 1722 1722 1722 1722 1722 1722 1722 1722 1722 1722 1722 1722 1722 1722 1722 1722 1722 1722 1722 1722 1713 1713 1713 1713 1713 1713 1713 1713 1713 1713 1713 1713 1713 1705 1705 1705 1705 1713 1713 1259 1259 1255 1255 1255 1255 1255 1255 1255 1250 1250 1250 1250 1245 1245 1245 1241 1241 1241 1241 1241 1241 1236 1236 1236 1232 1232 1232 1232 1232 1227 1227 1232 1227 1227 1227 1223 1223 1223 1223 1219 1219 1219 1219 1219 1219 1219 1214 1210 1210 1210 1206 1206 1206 1206 1206 1206 1206 1206 1206 1206 1206 1202 1202 1197 1197 1197 1197 1197 1197 1197 1197 0 0 0 0 2812 2812 2812 2812 2812 2812 2812 2812 2835 2812 2812 2835 2812 2812 2835 2835 2835 2835 2835 2835 2835 2835 2835 2835 2835 2835 2859 2859 2835 2835 2835 2835 2835 2812 2812 0 0 0 0 0 0 0 0 0 0
0 0 0 0 0 0 0 0 0 0 0 0 0 0 0 0 0 0 0 0 0 0 0 0 0 0 0 0 0 0 0 0 0 2467 2467 2467 2467 2467 2467 2467 2467 2467 2467 2467 2467 2467 2467 2467 2467 2485 2485 2485 2485 2485 2485 2485 2503 2503 2503 2503 2522 2522 2522 2522 2522 2522 2522 2522 2522 2522 2522 2522 2522 2522 2522 2522 2522 2522 2522 2522 2522 2522 2522 2522 2522 2522 2522 2522 2522 2522 2522 2522 2541 2541 2541 2541 2541 2541 2541 2541 2541 2541 2541 2541 2541 2560 2560 2560 2560 2541 2541 2560 2560 2541 2541 2541 2560 2560 2560 2560 2560 2560 2579 2579 2579 2598 2598 2579 2579 2579 2579 2579 2598 2598 2598 2598 2598 2598 2598 2598 2598 2598 2598 2598 2598 2598 2598 2598 2598 2598 2618 2618 2618 2618 2598 2598 2618 2618 2598 2598 2598 2598 2598 2598 2598 2598 2618 2618 2618 2618 2598 2598 2598 1713 1713 1713 1713 1713 1713 1713 1713 1713 1713 1705 1624 1616 1616 1616 1624 1624 1624 1624 1632 1632 1632 1632 1632 1639 1639 1639 1647 1647 1647 1647 1647 1647 1647 1647 1647 1647 1647 1647 1647 1647 1647 1647 1647 1655 1655 1655 1655 1655 1655 1655 1655 1655 1655 1655 1655 1655 1655 1655 1655 1655 1655 1655 1655 1655 1655 1655 1655 1655 1655 1655 1647 1647 1655 1655 1655 1655 1655 1655 1655 1655 1647 1647 1655 1655 1655 1655 1655 1655 1655 1655 1489 1483 1483 1483 1483 1483 1483 1477 1477 1477 1477 1483 1483 1483 1489 1489 1503 1503 1503 1663 1663 1663 1663 1663 1663 1663 1663 1663 1663 1663 1663 1663 1663 1671 1663 1663 1663 1671 1671 1671 1671 1671 1671 1671 1671 1671 1671 1680 1680 1680 1333 1328 1328 1328 1328 1328 1328 1328 1328 1328 1328 1328 1328 1328 1333 1333 1333 1328 1328 1322 1317 1317 1317 1312 1312 1307 1307 1307 1307 1302 1302 1302 1302 1302 1302 1297 1297 1297 1297 1292 1288 1288 1288 1288 1288 1283 1283 1283 1283 1278 1273 1273 1273 1273 1268 1268 1268 1268 1264 1264 1264 1264 1264 1264 1259 1259 1259 1259 1259 1255 1255 1255 1255 1255 1255 1255 1250 1250 1250 1245 1245 1245 1245 1245 1245 1245 1245 1245 1245 1245 1245 1245 1245 1245 1245 1245 1245 1245 1245 1794 1785 1785 1785 1785 1785 1776 1776 1776 1776 1776 1776 1776 1776 1776 1776 1776 0 0 1177 1177 1177 1177 1177 1177 1173 1173 1173 1173 1173 1173 1169 1169 1169 1169 1173 1173 1173 1173 1177 1177 1705 1705 1713 1713 1713 1722 1722 1722 1722 1722 1713 1713 1713 1713 1713 1713 1705 1705 1713 1713 1713 1713 1713 1713 1713 1713 1713 1713 1713 1713 1713 1713 1713 1713 1713 1713 1713 1713 1713 1713 1713 1713 1713 1713 1713 1713 1713 1713 1713 1713 1705 1705 1705 1705 1705 1705 1705 1705 1705 1705 1705 1705 1705 1713 1713 1713 1713 1259 1255 1255 1255 1255 1255 1250 1250 1250 1250 1250 1245 1245 1245 1241 1241 1241 1241 1236 1236 1236 1236 1236 1232 1232 1232 1232 1232 1227 1227 1232 1232 1227 1227 1227 1223 1223 1223 1223 1223 1223 1223 1219 1219 1219 1214 1210 1210 1210 1206 1206 1206 1206 1206 1206 1206 1206 1206 1206 1206 1206 1202 1197 1197 1197 1197 1197 1197 1197 0 0 0 0 0 2789 2789 2812 2812 2812 2812 2812 2812 2812 2812 2812 2812 2812 2812 2812 2812 2812 2812 2812 2812 2812 2812 2812 2812 2835 2835 2835 2835 2812 2812 2812 2812 2812 2789 2789 0 0 0 0 0 0 0 0 0 0
0 0 0 0 0 0 0 0 0 0 0 0 0 0 0 0 0 0 0 0 0 0 0 0 0 0 0 0 0 0 0 0 0 2467 2467 2467 2467 2467 2467 2467 2467 2467 2467 2467 2467 2467 2467 2467 2467 2467 2467 2485 2485 2485 2485 2485 2485 2485 2485 2503 2503 2503 2503 2503 2522 2522 2503 2503 2503 2503 2503 2503 2503 2503 2503 2522 2522 2522 2522 2522 2522 2522 2522 2522 2522 2522 2522 2522 2522 2522 2522 2522 2522 2522 2522 2522 2522 2522 2522 2541 2541 2541 2541 2541 2541 2541 2541 2541 2541 2541 2541 2541 2541 2541 2541 2541 2541 2541 2541 2541 2541 2560 2560 2560 2560 2579 2579 2579 2579 2560 2560 2579 2579 2579 2579 2579 2579 2579 2579 2598 2579 2579 2579 2579 2598 2598 2598 2598 2598 2598 2598 2598 2598 2598 2598 2598 2598 2598 2598 2598 2598 2598 2598 2598 2598 2598 2598 2598 2598 2598 2598 2598 2598 2598 1713 1705 1705 1713 1713 1713 1713 1705 1705 1647 1624 1624 1624 1624 1624 1624 1624 1624 1624 1632 1632 1632 1632 1639 1639 1639 1639 1639 1647 1639 1639 1647 1647 1639 1639 1647 1647 1647 1647 1647 1647 1647 1647 1647 1647 1647 1647 1647 1647 1647 1647 1647 1647 1647 1647 1647 1647 1647 1647 1647 1647 1647 1647 1647 1647 1647 1647 1647 1647 1655 1647 1647 1647 1647 1647 1647 1647 1647 1647 1647 1647 1647 1647 1647 1647 1647 1647 1647 1647 1647 1489 1483 1483 1483 1483 1483 1483 1477 1477 1477 1483 1483 1483 1489 1489 1496 1503 1503 1503 1663 1663 1663 1663 1655 1655 1663 1663 1663 1663 1663 1663 1663 1663 1663 1663 1663 1663 1663 1663 1663 1663 1663 1663 1663 1663 1671 1671 1671 1680 1680 1333 1333 1333 1333 1333 1333 1333 1333 1333 1328 1328 1328 1328 1328 1333 1333 1333 1328 1328 1322 1322 1322 1317 1317 1312 1312 1307 1307 1307 1307 1302 1302 1302 1302 1302 1297 1297 1297 1297 1297 1292 1288 1288 1288 1288 1283 1283 1283 1283 1278 1278 1278 1273 1273 1268 1268 1268 1268 1268 1264 1264 1264 1264 1264 1259 1259 1259 1259 1259 1255 1255 1255 1255 1255 1250 1250 1250 1250 1250 1245 1245 1245 1245 1245 1245 1245 1245 1245 1245 1245 1245 1245 1245 1245 1245 1245 1241 1241 1241 1241 1241 1241 1776 1776 1776 1776 1766 1766 1776 1776 1776 1776 1776 1776 1776 1776 0 0 1181 1181 1177 1177 1177 1177 1177 1173 1173 1173 1173 1173 1173 1173 1173 1173 1173 1173 1177 1177 1177 1181 1705 1705 1713 1713 1713 1713 1713 1713 1713 1713 1713 1705 1705 1705 1705 1705 1705 1705 1705 1705 1705 1705 1696 1696 1696 1705 1705 1705 1705 1713 1713 1713 1713 1705 1705 1713 1713 1705 1705 1705 1705 1705 1705 1705 1705 1713 1705 1705 1705 1705 1696 1696 1705 1705 1705 1705 1705 1705 1705 1696 1696 1696 1705 1705 1705 1705 1713 1713 1713 1255 1255 1255 1250 1250 1245 1245 1245 1250 1245 1245 1245 1241 1241 1241 1241 1236 1236 1236 1236 1236 1236 1236 1236 1232 1232 1232 1232 1232 1232 1232 1232 1227 1227 1223 1223 1223 1223 1223 1223 1223 1219 1219 1219 1214 1210 1210 1210 1210 1206 1206 1206 1206 1206 1206 1206 1206 1206 1202 1202 1197 1197 1197 1197 1197 1197 1197 0 0 0 0 2789 2789 2789 2789 2812 2812 2812 2812 2812 2812 2812 2812 2812 2812 2812 2789 2789 2789 2789 2789 2789 2789 2789 2812 2812 2812 2812 2812 2789 2789 2789 2789 2789 2789 2767 2767 0 0 0 0 0 0 0 0 0 0
0 0 0 0 0 0 0 0 0 0 0 0 0 0 0 0 0 0 0 0 0 0 0 0 0 0 0 0 0 0 0 0 0 2467 2450 2450 2450 2450 2467 2467 2467 2467 2467 2467 2467 2467 2467 2467 2467 2467 2467 2485 2485 2485 2485 2485 2485 2485 2485 2503 2503 2503 2503 2503 2503 2503 2503 2503 2503 2503 2503 2485 2485 2503 2503 2503 2503 2503 2503 2503 2503 2503 2503 2503 2503 2503 2503 2503 2503 2503 2503 2503 2522 2522 2522 2522 2522 2522 2522 2522 2522 2522 2522 2522 2541 2541 2522 2522 2522 2522 2541 2541 2541 2541 2541 2541 2541 2541 2541 2541 2541 2541 2560 2560 2560 2579 2579 2560 2560 2560 2560 2560 2560 2560 2579 2579 2579 2579 2579 2579 2579 2579 2579 2579 2579 2579 2598 2598 2598 2598 2598 2598 2598 2598 2579 2579 2598 2598 2598 2598 2579 2579 2579 2598 2598 2598 2598 2598 2598 2598 2598 2579 2579 2579 1705 1705 1705 1713 1713 1713 1713 1705 1705 1647 1624 1624 1624 1624 1624 1624 1624 1624 1624 1632 1632 1632 1632 1632 1632 1632 1639 1639 1639 1639 1639 1639 1639 1639 1639 1639 1639 1639 1639 1639 1639 1639 1639 1639 1639 1639 1647 1647 1647 1647 1647 1647 1647 1647 1639 1639 1639 1639 1639 1639 1639 1639 1647 1639 1639 1647 1647 1647 1647 1647 1639 1639 1639 1639 1639 1639 1639 1639 1647 1647 1639 1639 1639 1639 1639 1639 1639 1639 1639 1639 1639 1489 1483 1483 1483 1483 1483 1477 1477 1477 1483 1483 1483 1489 1489 1496 1503 1503 1503 1671 1663 1655 1655 1647 1647 1647 1655 1655 1655 1655 1655 1655 1655 1655 1655 1655 1655 1655 1655 1655 1655 1655 1655 1655 1663 1663 1663 1671 1671 1671 1333 1333 1333 1333 1333 1333 1333 1333 1333 1333 1333 1333 1333 1333 1333 1333 1333 1328 1328 1328 1322 1322 1322 1317 1312 1312 1307 1307 1307 1307 1302 1302 1302 1302 1302 1302 1297 1297 1297 1297 1292 1292 1292 1288 1288 1288 1288 1288 1283 1283 1278 1278 1278 1278 1273 1268 1268 1268 1268 1264 1264 1264 1264 1264 1264 1259 1259 1259 1259 1255 1255 1255 1255 1255 1250 1250 1250 1250 1250 1245 1245 1245 1245 1245 1245 1245 1245 1245 1245 1245 1245 1245 1245 1245 1245 1245 1241 1241 1241 1236 1236 1236 1236 1236 1241 1776 1766 1766 1776 1776 1776 1776 1776 1776 1776 1776 0 0 1181 1181 1181 1177 1177 1177 1177 1177 1173 1173 1173 1173 1173 1173 1173 1173 1173 1177 1177 1177 1177 1181 1705 1705 1713 1713 1713 1713 1713 1713 1713 1713 1713 1705 1705 1705 1696 1696 1696 1696 1705 1705 1696 1696 1696 1696 1696 1696 1696 1696 1696 1696 1705 1705 1705 1705 1705 1705 1705 1696 1696 1696 1696 1696 1696 1696 1696 1705 1705 1696 1696 1696 1696 1696 1696 1696 1696 1696 1696 1696 1696 1696 1696 1696 1696 1696 1705 1705 1705 1705 1705 1713 1713 1255 1250 1245 1245 1241 1241 1245 1241 1241 1245 1241 1241 1241 1241 1236 1236 1236 1236 1236 1236 1236 1236 1236 1236 1236 1236 1236 1236 1232 1232 1232 1232 1227 1227 1223 1223 1223 1223 1223 1219 1219 1219 1214 1214 1214 1214 1210 1210 1210 1210 1210 1206 1206 1206 1206 1206 1202 1202 1202 1197 1197 1197 1197 1197 1202 0 0 0 0 2789 2789 2789 2789 2812 2812 2812 2812 2812 2812 2812 2812 2812 2812 2812 2789 2789 2789 2789 2789 2789 2789 2789 2789 2789 2789 2789 2789 2767 2767 2767 2767 2767 2767 2767 2767 0 0 0 0 0 0 0 0 0 0
0 0 0 0 0 0 0 0 0 0 0 0 0 0 0 0 0 0 0 0 0 0 0 0 0 0 0 0 0 0 0 0 0 2432 2415 2415 2415 2432 2432 2432 2450 2450 2467 2467 2467 2467 2467 2467 2467 2467 2485 2485 2485 2485 2485 2485 2485 2485 2485 2485 2485 2485 2503 2503 2503 2503 2485 2485 2485 2467 2467 2485 2467 2467 2485 2485 2485 2485 2485 2485 2485 2485 2485 2485 2485 2485 2503 2503 2503 2503 2503 2503 2503 2503 2503 2503 2503 2522 2522 2522 2522 2522 2522 2522 2522 2522 2522 2522 2522 2522 2522 2541 2541 2541 2541 2541 2541 2541 2541 2541 2541 2541 2560 2560 2560 2560 2560 2541 2541 2541 2541 2541 2541 2541 2560 2560 2560 2560 2560 2579 2579 2579 2579 2579 2579 2579 2579 2579 2579 2579 2579 2579 2579 2579 2579 2579 2579 2579 2579 2579 2579 2579 2579 2579 2579 2579 2579 2579 2579 2579 2579 2579 2579 2579 1713 1713 1713 1713 1713 1713 1713 1713 1713 1647 1639 1632 1624 1624 1624 1624 1624 1632 1632 1632 1632 1632 1632 1632 1632 1632 1632 1632 1632 1639 1639 1639 1639 1639 1639 1639 1639 1639 1632 1632 1632 1632 1632 1632 1639 1639 1639 1639 1639 1639 1639 1639 1639 1639 1639 1639 1639 1639 1639 1639 1639 1639 1639 1639 1639 1639 1639 1639 1639 1639 1632 1632 1632 1632 1639 1639 1639 1639 1639 1639 1639 1639 1639 1632 1632 1632 1632 1632 1632 1632 1632 1489 1489 1483 1483 1483 1483 1483 1483 1483 1483 1483 1489 1489 1489 1496 1503 1503 1503 1663 1647 1647 1639 1639 1639 1639 1639 1647 1647 1639 1639 1647 1647 1647 1647 1647 1647 1647 1647 1647 1647 1647 1655 1655 1655 1663 1663 1663 1671 1671 1333 1333 1333 1333 1333 1333 1333 1333 1333 1333 1333 1333 1333 1333 1333 1338 1338 1328 1328 1328 1328 1322 1322 1322 1317 1312 1312 1312 1307 1307 1307 1307 1307 1302 1302 1302 1302 1297 1297 1297 1292 1292 1292 1288 1288 1288 1288 1288 1288 1283 1283 1278 1278 1278 1273 1268 1268 1268 1268 1268 1264 1264 1264 1264 1264 1264 1259 1259 1259 1259 1255 1255 1255 1250 1250 1250 1250 1250 1250 1245 1245 1245 1245 1245 1245 1245 1245 1245 1245 1245 1245 1241 1241 1241 1241 1241 1236 1236 1236 1232 1232 1232 1232 1232 1236 1236 1232 1232 1776 1776 1776 1776 1776 1776 1776 1223 1193 1193 1185 1185 1185 1181 1181 1181 1177 1177 1177 1177 1177 1173 1173 1173 1173 1173 1173 1177 1177 1177 1177 1181 1705 1705 1713 1713 1713 1713 1713 1713 1713 1713 1713 1705 1705 1705 1696 1696 1696 1696 1696 1688 1688 1688 1688 1688 1688 1688 1688 1688 1688 1688 1688 1696 1696 1696 1696 1696 1696 1688 1688 1688 1688 1696 1696 1696 1696 1696 1696 1680 1680 1680 1680 1688 1688 1688 1688 1696 1696 1696 1696 1696 1696 1696 1696 1696 1696 1696 1696 1696 1705 1696 1696 1696 1250 1245 1245 1241 1241 1245 1241 1241 1245 1245 1245 1241 1241 1236 1236 1236 1236 1232 1232 1236 1236 1236 1236 1236 1236 1236 1236 1232 1232 1232 1232 1227 1227 1223 1223 1223 1223 1223 1223 1223 1219 1214 1214 1214 1214 1210 1210 1210 1210 1210 1210 1210 1206 1206 1206 1202 1202 1202 1197 1197 1197 1197 1197 1202 0 0 0 0 2767 2767 2789 2789 2789 2812 2812 2812 2812 2812 2812 2812 2812 2789 2789 2789 2789 2789 2789 2789 2789 2789 2789 2789 2767 2767 2767 2767 2744 2744 2767 2767 2767 2744 2744 2744 0 0 0 0 0 0 0 0 0 0
0 0 0 0 0 0 0 0 0 0 0 0 0 0 0 0 0 0 0 0 0 0 0 0 0 0 0 0 0 0 0 0 0 2415 2415 2415 2415 2415 2415 2415 2450 2450 2450 2450 2450 2467 2467 2467 2467 2467 2467 2467 2467 2467 2467 2467 2467 2467 2467 2485 2467 2467 2467 2467 2467 2467 2467 2467 2467 2450 2450 2450 2467 2467 2467 2467 2467 2467 2467 2467 2467 2467 2467 2467 2485 2485 2485 2485 2485 2485 2485 2485 2485 2485 2485 2485 2485 2503 2503 2503 2503 2503 2503 2503 2522 2522 2503 2503 2522 2522 2522 2522 2522 2522 2522 2522 2522 2522 2522 2522 2541 2541 2541 2541 2541 2560 2541 2541 2541 2541 2541 2541 2541 2541 2541 2541 2560 2560 2560 2560 2560 2560 2560 2560 2560 2560 2560 2560 2560 2579 2579 2560 2560 2579 2579 2560 2560 2560 2560 2560 2560 2560 2560 2579 2579 2579 2579 2579 2579 2560 2560 2560 2579 2579 1713 1713 1713 1713 1713 1713 1713 1713 1713 1647 1639 1632 1624 1624 1624 1624 1624 1632 1632 1632 1632 1632 1632 1632 1624 1624 1632 1624 1624 1632 1632 1632 1624 1624 1632 1632 1632 1632 1632 1632 1624 1624 1624 1624 1632 1632 1639 1639 1639 1639 1639 1639 1632 1632 1624 1624 1624 1624 1624 1624 1632 1632 1632 1632 1632 1632 1632 1632 1632 1632 1624 1624 1632 1632 1632 1632 1639 1639 1639 1639 1639 1639 1632 1632 1632 1632 1632 1632 1632 1632 1632 1639 1489 1489 1489 1489 1489 1483 1483 1483 1489 1489 1489 1489 1489 1496 1503 1503 1503 1509 1639 1639 1639 1639 1639 1639 1639 1639 1639 1639 1639 1639 1639 1639 1639 1639 1639 1639 1639 1647 1647 1647 1647 1647 1655 1663 1663 1663 1671 1671 1333 1333 1333 1333 1333 1333 1333 1333 1333 1333 1333 1333 1333 1333 1338 1338 1338 1333 1328 1328 1328 1322 1322 1322 1317 1312 1312 1312 1307 1307 1307 1307 1307 1307 1302 1302 1302 1297 1297 1297 1292 1292 1292 1288 1288 1288 1288 1288 1288 1283 1283 1283 1278 1278 1273 1273 1268 1268 1268 1268 1268 1264 1264 1264 1264 1264 1264 1259 1259 1259 1255 1255 1255 1250 1250 1250 1250 1250 1250 1245 1245 1245 1245 1245 1245 1245 1245 1245 1245 1245 1241 1241 1241 1241 1241 1241 1236 1232 1232 1232 1232 1232 1232 1232 1232 1232 1232 1232 1232 1232 1232 1227 1227 1223 1223 1223 1193 1193 1193 1185 1185 1181 1181 1181 1181 1177 1177 1177 1177 1177 1177 1173 1173 1177 1177 1177 1177 1177 1177 1181 1647 1713 1713 1713 1713 1713 1713 1722 1713 1713 1713 1705 1705 1705 1696 1696 1696 1696 1688 1688 1688 1688 1688 1688 1688 1688 1688 1688 1688 1688 1688 1688 1688 1688 1688 1688 1688 1680 1680 1688 1688 1688 1688 1688 1688 1688 1680 1671 1671 1680 1680 1680 1680 1680 1680 1688 1688 1688 1688 1688 1688 1688 1688 1688 1688 1688 1696 1696 1696 1688 1688 1688 1688 1688 1688 1680 1680 1680 1680 1680 1680 1680 1680 1680 1680 1236 1236 1236 1223 1223 1223 1236 1236 1236 1236 1236 1236 1236 1236 1232 1232 1232 1232 1227 1227 1223 1223 1223 1223 1223 1223 1223 1219 1214 1214 1214 1214 1214 1210 1210 1210 1210 1210 1210 1210 1206 1206 1206 1206 1202 1202 1197 1197 1197 1202 0 0 0 0 0 2767 2767 2767 2789 2789 2789 2789 2812 2812 2789 2789 2789 2789 2767 2767 2767 2767 2767 2767 2767 2767 2767 2767 2767 2767 2767 2744 2744 2744 2744 2744 2744 2744 2744 2744 2744 0 0 0 0 0 0 0 0 0 0
0 0 0 0 0 0 0 0 0 0 0 0 0 0 0 0 0 0 0 0 0 0 0 0 0 0 0 0 0 0 0 0 0 2415 2398 2398 2415 2415 2415 2415 2450 2450 2450 2450 2450 2467 2467 2467 2467 2467 2467 2467 2467 2467 2467 2467 2467 2467 2467 2467 2467 2467 2467 2467 2467 2467 2467 2467 2467 2450 2450 2450 2450 2450 2450 2450 2450 2450 2467 2467 2467 2467 2467 2467 2467 2467 2467 2467 2467 2467 2467 2467 2467 2485 2485 2485 2485 2485 2485 2485 2485 2485 2485 2485 2503 2503 2503 2503 2522 2522 2522 2522 2522 2522 2522 2522 2522 2522 2522 2522 2541 2541 2541 2541 2541 2541 2522 2522 2522 2522 2522 2541 2541 2541 2541 2541 2541 2541 2541 2541 2541 2560 2541 2541 2560 2560 2560 2560 2560 2560 2560 2560 2560 2560 2579 2541 2541 2541 2541 2560 2541 2541 2541 2541 2541 2560 2560 2560 2560 2560 2541 2541 2560 2560 2560 1713 1713 1713 1713 1713 1713 1713 1713 1639 1639 1632 1632 1632 1632 1624 1624 1632 1632 1632 1632 1624 1624 1624 1624 1624 1624 1624 1624 1616 1616 1624 1624 1624 1624 1624 1624 1624 1624 1624 1624 1616 1616 1624 1624 1624 1632 1632 1624 1624 1624 1624 1624 1624 1624 1624 1624 1624 1624 1624 1624 1624 1624 1624 1624 1632 1632 1632 1632 1632 1624 1624 1624 1624 1624 1632 1632 1632 1632 1632 1632 1632 1632 1624 1624 1624 1624 1624 1624 1624 1624 1632 1489 1489 1489 1489 1489 1489 1489 1489 1489 1489 1489 1489 1496 1503 1503 1503 1503 1509 1516 1632 1632 1632 1632 1639 1639 1639 1639 1639 1639 1632 1632 1639 1639 1639 1639 1639 1639 1639 1639 1639 1647 1647 1655 1663 1663 1663 1680 1680 1333 1333 1333 1333 1338 1338 1338 1333 1333 1333 1333 1333 1338 1338 1338 1338 1343 1333 1333 1333 1328 1328 1322 1322 1322 1317 1312 1312 1312 1307 1307 1307 1307 1307 1307 1302 1302 1302 1297 1297 1297 1292 1292 1292 1292 1288 1288 1288 1288 1288 1283 1283 1283 1278 1278 1273 1273 1268 1268 1268 1268 1268 1264 1264 1264 1264 1264 1264 1264 1259 1259 1259 1255 1255 1255 1250 1250 1250 1250 1245 1245 1245 1245 1245 1245 1245 1245 1245 1245 1241 1241 1241 1241 1241 1236 1236 1232 1232 1232 1232 1232 1232 1232 1232 1227 1227 1227 1227 1227 1227 1227 1227 1227 1223 1223 1223 1223 1193 1193 1189 1189 1185 1185 1185 1181 1181 1177 1177 1177 1177 1177 1177 1177 1177 1177 1181 1181 1181 1185 1189 1647 1713 1713 1713 1713 1713 1722 1713 1713 1713 1713 1705 1705 1705 1696 1696 1696 1696 1688 1688 1688 1688 1688 1688 1688 1680 1680 1680 1680 1680 1680 1680 1680 1680 1680 1680 1680 1680 1680 1680 1680 1680 1680 1680 1680 1680 1680 1671 1671 1671 1671 1671 1671 1671 1671 1671 1671 1671 1671 1671 1671 1671 1680 1680 1680 1680 1680 1680 1680 1680 1680 1688 1680 1680 1680 1680 1680 1680 1680 1680 1680 1680 1680 1680 1680 2701 2701 2701 1223 1223 1223 1236 1236 1236 1236 1236 1236 1236 1236 1232 1232 1232 1227 1227 1223 1223 1223 1223 1219 1219 1223 1219 1219 1219 1219 1214 1214 1214 1214 1214 1210 1210 1210 1210 1210 1206 1206 1206 1206 1202 1202 1197 1197 1197 0 0 0 0 0 0 2744 2744 2767 2767 2767 2789 2789 2789 2789 2767 2767 2767 2767 2744 2744 2744 2744 2767 2767 2767 2767 2767 2767 2767 2767 2767 2744 2744 2744 2744 2744 2744 2744 2744 2744 2744 0 0 0 0 0 0 0 0 0 0
0 0 0 0 0 0 0 0 0 0 0 0 0 0 0 0 0 0 0 0 0 0 0 0 0 0 0 0 0 0 0 0 0 2398 2398 2398 2398 2398 2415 2415 2432 2432 2450 2450 2450 2450 2450 2450 2450 2450 2467 2467 2467 2467 2467 2467 2450 2450 2467 2467 2467 2467 2450 2450 2450 2450 2450 2450 2450 2432 2432 2450 2450 2450 2450 2450 2450 2450 2450 2450 2450 2450 2467 2467 2467 2467 2467 2467 2467 2467 2467 2467 2467 2467 2467 2485 2485 2485 2485 2485 2485 2485 2467 2467 2485 2485 2485 2485 2503 2503 2485 2485 2503 2503 2503 2485 2485 2503 2503 2522 2522 2522 2522 2522 2522 2522 2503 2503 2503 2503 2522 2522 2522 2522 2522 2541 2541 2541 2541 2541 2541 2541 2541 2541 2541 2541 2541 2541 2541 2541 2541 2541 2541 2541 2560 2541 2541 2541 2541 2541 2541 2522 2522 2541 2541 2541 2541 2541 2541 2541 2541 2541 2541 2541 2541 1713 1713 1713 1713 1713 1713 1713 1705 1639 1639 1639 1632 1632 1632 1632 1632 1632 1632 1632 1632 1624 1624 1624 1624 1624 1624 1624 1624 1616 1616 1624 1624 1624 1624 1624 1624 1624 1616 1616 1616 1616 1616 1616 1616 1616 1624 1624 1616 1616 1616 1616 1616 1616 1616 1616 1616 1616 1616 1616 1616 1616 1616 1624 1624 1624 1624 1624 1624 1624 1616 1616 1616 1616 1616 1624 1624 1624 1624 1624 1624 1624 1624 1616 1616 1616 1616 1616 1616 1624 1624 1632 1489 1489 1489 1489 1489 1489 1489 1489 1489 1489 1489 1496 1496 1503 1503 1503 1503 1509 1509 1632 1632 1632 1632 1632 1632 1632 1632 1632 1632 1632 1632 1632 1632 1632 1632 1632 1632 1639 1639 1639 1639 1647 1655 1663 1663 1671 1680 1680 1333 1333 1338 1338 1338 1338 1338 1338 1338 1338 1338 1338 1338 1338 1343 1343 1343 1333 1333 1333 1328 1328 1322 1322 1322 1317 1312 1312 1312 1312 1307 1307 1307 1307 1307 1302 1302 1302 1302 1297 1297 1297 1292 1292 1292 1292 1292 1288 1288 1288 1283 1283 1283 1283 1278 1278 1273 1273 1273 1273 1268 1268 1268 1264 1264 1264 1264 1264 1264 1259 1259 1259 1255 1255 1255 1250 1250 1250 1250 1250 1250 1245 1245 1245 1245 1245 1245 1245 1245 1241 1241 1236 1236 1236 1232 1232 1232 1232 1232 1232 1232 1232 1232 1232 1227 1227 1227 1227 1223 1223 1227 1223 1223 1223 1223 1223 1219 1219 1193 1193 1189 1185 1185 1185 1181 1181 1177 1177 1177 1177 1177 1177 1177 1177 1181 1181 1185 1185 1185 1189 1189 1713 1722 1713 1713 1713 1722 1713 1713 1713 1713 1705 1705 1705 1696 1696 1696 1696 1696 1688 1688 1688 1688 1688 1688 1680 1680 1680 1680 1680 1680 1680 1680 1680 1680 1680 1680 1680 1680 1680 1680 1671 1671 1680 1680 1671 1671 1663 1663 1663 1663 1663 1663 1663 1663 1663 1663 1663 1663 1663 1671 1671 1671 1671 1671 1671 1680 1680 1671 1671 1671 1671 1671 1671 1671 1671 1671 1671 1671 1671 1671 1680 1671 1671 1671 2723 2701 2701 2701 2659 2659 2659 2659 2680 2680 2723 1236 1236 1236 1232 1232 1232 1227 1223 1223 1223 1223 1223 1219 1219 1223 1219 1219 1219 1219 1214 1214 1214 1214 1214 1210 1210 1210 1210 1210 1210 1206 1206 1206 1202 1202 1197 1197 1197 0 0 0 0 0 0 2744 2744 2744 2744 2767 2767 2767 2767 2767 2744 2744 2744 2744 2744 2744 2744 2744 2744 2744 2744 2744 2744 2744 2744 2744 2744 2744 2744 2744 2744 2744 2744 2744 2744 2744 2744 0 0 0 0 0 0 0 0 0 0
