0 0 0 0 0 0 0 0 0 0 0 0 0 0 0 0 0 0 0 0 0 0 0 0 0 0 0 0 0 0 4983 4983 5056 5056 4983 4983 4983 4983 4983 4983 4983 4983 5056 5132 5291 5291 5291 5374 5832 0 0 0 0 0 0 0 0 0 0 0 0 0 0 0 0 0 0 0 5933 5832 5734 5734 5734 5734 5734 5734 5734 5734 5734 5734 5734 5832 5832 5640 5640 5640 5640 5640 5640 5640 0 0 0 0 0 0 0 0 0 5832 5832 5832 5832 5832 5832 5832 6038 6038 6146 6146 6146 6259 6146 6146 6146 0 0 0 0 0 0 0 0 0 0 0 0 0 0 0 2883 2883 2883 2883 2859 2859 2859 2859 2859 2859 2859 2859 2859 2859 2883 2883 2908 2908 2933 2933 2933 2933 2933 2933 2958 2933 2933 2933 2958 2958 2984 2984 2984 2984 2984 2958 2958 2958 2958 2958 2958 2958 2958 2958 2933 2908 2908 2908 2883 2883 2883 2883 2883 2883 2883 2883 0 0 0 0 0 0 0 0 0 0 2859 2859 2859 2859 2835 2835 2859 2859 2859 2883 2883 2908 2908 2908 2065 2065 2078 2053 2053 2065 2065 2065 2065 2078 2078 2078 2078 2078 2078 2078 2078 2078 2078 2078 2090 2090 2090 2090 2090 2090 2090 2090 2103 2103 2103 2103 2103 2103 2103 2103 2103 2103 2103 2103 2103 2103 2103 2103 2116 2116 2116 2116 2116 2116 2116 2116 2129 2116 2116 2116 2116 2116 2116 2116 2116 2116 2129 2129 2129 2129 2129 2129 2129 2129 2129 2129 2129 2129 2129 2129 2129 2129 2129 2129 2129 2129 2143 2143 2143 2143 2143 0 0 0 0 0 0 0 0 0 0 0 6497 6497 6375 6375 6259 6259 6375 6375 6375 6375 6375 6375 6375 6375 6259 6259 6259 6259 0 0 0 0 0 6753 6753 6753 6753 6753 0 0 0 0 0 0 0 0 0 0 0 0 0 0 0 0 0 0 0 2170 2170 2170 2184 2198 2198 2212 2212 2212 2212 2212 2212 2212 2212 2212 2226 2212 2212 2212 2212 2212 2226 2226 2226 2226 2226 2226 2226 2226 4911 4911 4983 4911 4911 4911 4911 4911 4911 4983 4983 4983 4983 4983 4911 4911 4911 4911 4911 4911 4911 4911 4983 5056 5056 5056 5056 5132 5132 5210 5210 5210 5291 5291 5291 5291 5291 2256 2256 2256 2256 2256 2256 2256 2256 2256 2256 2256 2271 2271 2271 2271 2286 0 0 0 0 0 0 0 0 0 0 0 0 0 0 0 0 0 0 0 0 0 0 0 0 0 0 4089 4089 4139 4139 4139 4139 0 0 0 0 0 0 0 0 0 0 0 0 0 0 0 0 0 0 0 0 0 4089 4041 4041 4041 4041 4041 4041 4089 4089 4089 4139 4139 4089 4041 4041 4041 4983 4983 4983 5056 5056 5056 5056 4983 4983 4983 4774 4774 4842 4842 3692 3692 3692 3653 3653 3692 3653 3653 3614 3614 3614 3614 3614 3614 3614 3614 3614 3576 3576 3576 3576 4983 4983 4983 4911 4911 4983 4911 4842 4842 4911 4911 4911 4911 4911 4983 4983 3732 3732 3774 3774 3774 3774 3774 3732 3732 3732 3732 3732 3732 3732 3732 3692 3692 3692 3692 3692 3692 3692 2958 2958 2908 2908 2908 2908 2883 2883 2883 2883 2883 2883 2883 2883 2883 2883 2883 2883 2883 2883 2883 2883 2883 2883 2908 2908 2908 2908 2908 2883 2883 2883 2883 2859 2859 2859 2859 2859 2859 2883 2908 2908 2908 2933 2933 2933 0 0 0 0 0 0 0 0 0 0 0 0 0 0 0
0 0 0 0 0 0 0 0 0 0 0 0 0 0 0 0 0 0 0 0 0 0 0 0 0 0 0 0 0 0 4983 4983 5056 5056 4983 4983 4983 4983 4983 4983 4983 4983 5056 5132 5210 5291 5374 5374 5832 5832 5832 5832 0 0 0 0 0 0 0 0 0 0 0 0 0 0 0 0 0 5832 5640 5640 5640 5640 5734 5734 5734 5734 5734 5734 5734 5734 5734 5640 5548 5548 5640 5548 5548 5548 5640 5734 5832 5832 5832 5832 5832 5933 5933 5832 5832 5832 5832 5832 5832 5832 5933 5933 6038 6146 6146 6146 6146 6146 0 0 0 0 0 0 0 0 0 0 0 0 0 0 0 0 2883 2835 2835 2835 2835 2835 2812 2812 2812 2812 2859 2859 2859 2859 2883 2883 2883 2908 2908 2908 2908 2908 2908 2933 2908 2908 2908 2908 2933 2958 2958 2984 2984 2984 2958 2958 2933 2933 2933 2933 2933 2933 2908 2908 2908 2883 2883 2883 2859 2859 2859 2859 2859 2859 2859 2883 0 0 0 0 0 0 0 2835 2835 2859 2859 2835 2835 2835 2835 2835 2835 2835 2835 2859 2859 2883 2883 2883 2065 2065 2065 2053 2053 2053 2065 2065 2078 2078 2078 2078 2078 2078 2078 2078 2078 2078 2078 2078 2090 2090 2090 2090 2090 2090 2090 2090 2103 2103 2116 2116 2116 2116 2103 2103 2103 2103 2116 2116 2116 2116 2116 2116 2116 2116 2116 2116 2116 2116 2129 2129 2129 2129 2116 2116 2116 2116 2116 2116 2116 2116 2116 2116 2129 2129 2129 2129 2129 2129 2143 2143 2129 2129 2129 2129 2129 2129 2129 2129 2129 2129 2143 2143 2143 2143 2143 2184 0 0 0 0 0 0 0 0 0 6038 6038 6038 6146 6038 6038 6146 6375 6375 6375 6375 6375 6375 6375 6375 6375 6375 6146 6146 0 0 0 0 0 6753 6753 6753 6753 6753 0 0 0 0 0 0 0 0 0 0 0 0 0 0 0 0 0 0 0 0 2184 2184 2198 2198 2198 2212 2212 2212 2212 2212 2226 2226 2226 2226 2226 2226 5132 5132 5132 2226 2226 2226 5132 5056 5056 5056 5056 4983 4983 4983 4983 4983 4911 4911 4983 4983 4983 4983 5056 4983 4983 4983 4911 4911 4911 4911 4911 4911 4911 4911 4983 4983 5056 4983 4983 5056 5132 5132 5210 5210 5291 5291 5291 5291 0 0 2256 2256 2256 2256 2256 2256 2256 2256 2256 2256 2256 2271 2271 2271 2271 0 0 0 0 0 0 0 0 0 0 0 0 0 0 0 0 0 0 0 0 0 0 0 0 0 4139 4089 4089 4139 4139 4139 4139 0 0 0 0 0 0 0 0 0 0 0 0 0 0 0 0 0 0 0 0 4089 4089 4041 4041 4041 4041 4041 4041 4041 4089 4089 4089 4089 4089 4041 3994 3994 4041 5056 5056 5056 5056 5056 5056 5056 4983 4983 4774 4774 4774 4774 3692 3692 3692 3653 3653 3653 3653 3653 3614 3614 3614 3614 3614 3614 3614 3614 3614 3576 3576 3576 4983 4983 4983 4983 4983 4983 4983 4911 4911 4911 4911 4911 4911 4911 4911 4983 5056 3732 3732 3774 3816 3816 3774 3774 3732 3732 3732 3732 3732 3732 3732 3732 3692 3692 3692 3692 3692 3692 3692 2958 2958 2933 2908 2908 2908 2908 2908 2883 2883 2883 2883 2883 2883 2883 2908 2908 2883 2883 2883 2883 2883 2883 2883 2883 2908 2908 2908 2908 2883 2883 2859 2859 2859 2859 2859 2859 2859 2883 2883 2908 2908 2908 2933 2933 0 0 0 0 0 0 0 0 0 0 0 0 0 0 0 0
0 0 0 0 0 0 0 0 0 0 0 0 0 0 0 0 0 0 0 0 0 0 0 0 0 0 0 0 0 0 4983 4983 5056 5056 4983 4983 4983 4983 4983 4983 4983 4983 5056 5056 5056 5132 5210 5210 5832 5832 5832 5832 0 0 0 0 0 0 0 0 0 0 0 0 0 0 0 0 0 5734 5640 5640 5640 5640 5734 5734 5734 5734 5734 5734 5734 5734 5734 5548 5548 5548 5640 5548 5548 5548 5640 5734 5734 5832 5832 5832 5832 5832 5832 5832 5832 5832 5832 5832 5832 5832 5832 5832 5832 6038 6038 6146 6146 5832 5832 0 0 0 0 0 0 0 0 0 0 0 0 0 0 0 2789 2789 2812 2812 2812 2812 2812 2812 2812 2812 2835 2835 2835 2835 2835 2835 2859 2859 2883 2883 2883 2883 2883 2908 2908 2883 2883 2908 2933 2958 2958 2958 2958 2958 2933 2933 2908 2908 2908 2883 2883 2883 2859 2859 2859 2859 2859 2859 2835 2835 2835 2859 2859 2859 2859 2859 2883 2883 0 0 0 0 2835 2835 2835 2859 2859 2835 2835 2835 2835 2835 2835 2835 2835 2859 2859 2859 2883 2883 2883 2065 2065 2053 2053 2053 2065 2065 2065 2078 2078 2078 2078 2078 2078 2078 2078 2078 2078 2078 2078 2090 2090 2090 2090 2090 2090 2103 2103 2103 2103 2103 2116 2116 2103 2103 2116 2116 2116 2116 2116 2116 2116 2116 2129 2129 2129 2129 2129 2129 2129 2129 2129 2129 2116 2116 2116 2116 2116 2116 2116 2116 2116 2116 2129 2129 2129 2129 2129 2143 2143 2143 2143 2143 2143 2143 2129 2129 2129 2143 2143 2143 2143 2143 2143 2156 2156 2184 0 0 0 0 0 0 0 0 0 6038 6038 6038 6038 6038 6038 6038 6259 6375 6375 6375 6375 6375 6375 6375 6146 6146 6038 6038 5933 5933 6038 0 0 0 0 0 0 0 0 0 0 0 0 0 0 0 0 0 0 0 0 0 0 0 0 0 0 0 2212 2212 2212 2212 2212 2212 2212 2212 2212 2226 2226 2226 2226 2226 2226 5056 5056 5132 5132 5132 5132 5132 5132 5056 5056 5056 5056 4983 4983 4983 4983 4983 4983 4983 4983 4983 4983 5056 5056 4983 4983 4983 4911 4911 4911 4911 4911 4911 4911 4911 4983 4983 4983 4983 4983 5056 5132 5132 5132 5132 5291 5291 5291 5291 0 2271 2256 2256 2256 2256 2256 2256 2256 2256 2256 2256 2256 2271 2271 2271 2271 0 0 0 0 0 0 0 0 0 0 0 0 0 0 0 0 0 0 0 0 0 0 0 0 0 4139 4139 4139 4139 4139 4139 4139 0 0 0 4089 4089 4089 4089 4089 0 0 0 0 0 0 0 0 0 0 4190 4139 4089 4089 4089 4089 4041 4041 3994 3994 4041 4041 4041 4089 4089 4041 4041 3994 3994 3994 4041 4041 4041 4041 4089 4089 4139 4139 4774 4774 4774 3692 3692 3692 3692 3692 3653 3653 3653 3653 3653 3614 3614 3614 3653 3653 3653 3653 3653 3653 3653 3653 3653 4983 4983 4983 4983 4983 4983 4983 4911 4911 4911 4911 4911 4911 4911 4842 4842 3816 3816 3816 3816 3816 3816 3774 3774 3732 3732 3732 3732 3692 3692 3692 3692 3692 3692 3653 3653 3692 3692 3692 2958 2958 2933 2908 2908 2908 2908 2908 2883 2883 2883 2883 2883 2883 2908 2908 2908 2883 2883 2883 2883 2883 2883 2883 2883 2908 2908 2908 2908 2908 2883 2859 2859 2859 2859 2859 2859 2883 2883 2883 2908 2908 2908 2933 2933 0 0 0 0 0 0 0 0 0 0 0 0 0 0 0 0
0 0 0 0 0 0 0 0 0 0 0 0 0 0 0 0 0 0 0 0 0 0 0 0 0 0 0 0 0 0 4983 4983 5056 5056 4983 4983 4983 4983 4983 4983 4983 4983 5056 5056 5056 5132 5210 5210 5933 5933 5832 5832 5933 5933 0 0 0 0 0 0 0 0 0 0 0 0 0 0 5734 5640 5548 5548 5548 5548 5640 5734 5734 5734 5734 5734 5734 5734 5640 5548 5548 5640 5640 5640 5548 5548 5640 5734 5734 5832 5832 5832 5832 5832 5832 5832 5832 5832 5832 5832 5734 5734 5832 5734 5734 6038 6038 5832 5832 5832 5832 0 0 0 0 0 0 0 0 0 0 0 0 0 0 0 2789 2789 2789 2789 2789 2789 2767 2767 2767 2767 2789 2789 2789 2789 2789 2789 2789 2789 2812 2812 2835 2835 2859 2859 2859 2812 2812 2812 2908 2908 2908 2908 2908 2908 2883 2835 2835 2812 2812 2812 2812 2812 2812 2835 2835 2835 2835 2835 2835 2835 2835 2835 2859 2859 2859 2859 2883 0 0 0 0 0 2812 2812 2835 2859 2835 2835 2835 2835 2835 2835 2835 2835 2835 2835 2835 2859 2859 2859 2883 2065 2065 2053 2053 2053 2065 2065 2065 2078 2078 2078 2078 2078 2078 2078 2078 2078 2078 2078 2078 2090 2090 2090 2090 2090 2103 2103 2103 2103 2103 2103 2116 2116 2103 2103 2116 2116 2116 2116 2116 2116 2116 2116 2129 2129 2129 2129 2129 2129 2129 2129 2129 2129 2129 2116 2116 2116 2116 2116 2116 2116 2116 2116 2129 2129 2129 2129 2143 2143 2143 2143 2143 2143 2143 2143 2129 2129 2143 2143 2143 2143 2143 2143 2143 2156 2170 2170 0 0 0 0 0 0 0 0 0 6038 6038 6038 6038 5933 5933 5933 6146 6259 6375 6375 6375 6375 6375 6146 6146 6146 6038 6038 5933 5933 6038 0 0 0 0 0 0 0 0 0 0 0 0 0 0 0 0 0 0 0 0 0 0 0 0 0 0 0 0 2212 2212 2212 2212 2212 2212 2212 2212 2226 2226 2226 2226 2226 5056 5056 5056 5132 5132 5132 5132 5132 5132 5132 5132 5056 5056 5056 5056 5056 4983 4983 4983 4983 4983 4983 4983 5056 4983 4983 4983 4983 4911 4911 4911 4911 4911 4911 4911 4983 4983 4983 4983 4983 4983 5056 5056 5132 5132 5132 5291 5291 5291 0 0 2271 2271 2256 2256 2256 2256 2256 2256 2256 2256 2256 2256 2256 2256 2271 2271 0 0 0 0 0 0 0 0 0 0 0 0 0 0 0 0 0 0 0 0 0 0 0 0 0 4139 4139 4139 4139 4139 4139 4139 4139 4139 4089 4089 4089 4089 4089 4089 4089 0 0 0 0 0 0 0 0 0 4139 4139 4139 4089 4089 4041 4041 4041 3948 3948 4041 4041 4041 4041 4041 4041 3994 3994 3994 3994 4041 4041 4041 4041 4089 4089 4089 4089 4089 3994 3692 3692 3692 3692 3692 3692 3692 3692 3653 3653 3653 3653 3653 3653 3653 3653 3653 3653 3653 3692 3653 3653 3653 4983 4911 4911 4983 4983 4983 4983 4983 4983 4911 4911 4911 4911 4911 4842 4842 3816 3816 3816 3816 3816 3816 3774 3774 3732 3732 3732 3732 3692 3692 3692 3692 3692 3653 3653 3653 3653 3653 3692 2933 2933 2933 2933 2933 2908 2908 2908 2908 2908 2908 2883 2883 2883 2908 2908 2908 2908 2908 2908 2908 2908 2908 2883 2883 2908 2908 2883 2883 2883 2883 2883 2883 2883 2883 2883 2883 2883 2883 2883 2908 2908 2908 2933 0 0 0 0 0 0 0 0 0 0 0 0 0 0 0 0 0
0 0 0 0 0 0 0 0 0 0 0 0 0 0 0 0 0 0 0 0 0 0 0 0 0 0 0 0 0 0 4911 4911 5056 5056 4983 4983 4983 4983 4983 4983 4983 4983 5056 5056 5056 5132 5132 5132 5933 5933 5832 5832 5933 5832 5832 0 0 0 0 0 0 0 0 0 0 0 0 0 5734 5640 5460 5460 5460 5460 5548 5548 5548 5548 5548 5548 5548 5548 5548 5374 5374 5460 5460 5460 5548 5548 5640 5734 5832 5832 5832 5734 5734 5734 5734 5832 5832 5734 5734 5734 5734 5734 5734 5734 5734 5734 5734 5734 5734 5734 5734 5832 0 0 0 0 0 0 0 0 0 0 0 0 0 2812 2789 2789 2789 2789 2789 2767 2767 2767 2767 2767 2723 2723 2744 2744 2767 2744 2744 2744 2767 2767 2789 2789 2812 2812 2812 2789 2789 2767 2767 2767 2767 2767 2767 2767 2767 2767 2767 2767 2767 2767 2789 2789 2789 2789 2812 2812 2835 2835 2835 2835 2835 2835 2859 2859 2859 2859 2908 0 0 0 0 0 2812 2812 2835 2859 2835 2835 2835 2859 2859 2835 2835 2835 2835 2835 2835 2835 2835 2835 2859 2859 2053 2053 2053 2053 2065 2065 2065 2078 2078 2078 2078 2078 2078 2078 2078 2078 2078 2078 2078 2078 2090 2090 2090 2090 2103 2103 2116 2116 2116 2116 2116 2116 2103 2103 2116 2116 2116 2129 2129 2129 2129 2129 2129 2129 2129 2129 2129 2129 2129 2908 2908 2129 2129 2908 2908 2908 2116 2116 2116 2859 2859 2859 2859 2859 2883 2883 2883 2883 2908 2908 2908 2156 2156 2143 2143 2143 2143 2143 2143 2143 2143 2143 2143 2156 2156 2170 0 0 0 0 0 0 0 0 0 6038 6038 6038 6038 5933 5933 5933 6038 6146 6259 6375 6375 6375 6375 6146 6146 6146 6038 5933 5933 5933 6038 0 0 0 0 0 0 0 0 0 0 0 0 0 0 0 0 0 0 0 0 0 0 0 0 0 0 0 0 2212 2212 2212 2212 2212 2212 2212 2212 2226 2226 2226 2226 2226 4911 4911 5056 5056 5132 5132 5132 5132 5132 5132 5132 5132 5056 5056 5056 5056 5056 5056 5056 4983 4983 4983 4983 4983 4983 4983 4983 4911 4911 4911 4911 4911 4911 4983 4983 4983 4983 4983 4983 4983 4983 5056 5056 5132 5210 5210 5291 5374 5374 0 0 0 2271 2256 2256 2256 2256 2256 2256 2256 2256 2256 2271 2256 2256 2256 2256 0 0 0 0 0 0 0 0 0 0 0 0 0 0 0 0 0 0 0 0 0 0 0 0 0 4139 4139 4089 4089 4089 4089 4089 4089 4089 4089 4089 4089 4089 4089 4089 4089 4089 4089 0 0 0 0 0 0 4089 4041 4041 4089 4089 4089 4041 3994 3994 3903 3903 3903 3994 3994 4041 3994 3994 3994 3948 3948 3994 4041 4041 4041 4041 4041 4041 4041 3994 3994 3994 3732 3692 3692 3692 3692 3692 3653 3653 3653 3614 3614 3653 3653 3653 3653 3653 3653 3653 3653 3692 3692 3692 4983 4983 4911 4911 4983 4983 4983 4983 4983 4983 4983 4911 4911 4911 4911 4842 3859 3859 3859 3859 3816 3816 3816 3816 3774 3732 3732 3732 3732 3732 3692 3692 3692 3692 3653 3653 3653 3653 3653 3653 2933 2933 2933 2908 2908 2908 2908 2908 2883 2883 2883 2908 2883 2883 2908 2908 2908 2908 2908 2908 2908 2908 2908 2883 2883 2908 2908 2883 2883 2883 2883 2883 2883 2883 2883 2883 2883 2883 2883 2883 2883 2883 2908 0 0 0 0 0 0 0 0 0 0 0 0 0 0 0 0 0 0
0 0 0 0 0 0 0 0 0 0 0 0 0 0 0 0 0 0 0 0 0 0 0 0 0 0 0 0 0 0 4911 4911 5056 5056 4983 4983 4983 4983 4983 4983 4983 5056 5056 5056 5056 5132 5132 5291 5832 5832 5832 5832 5832 5832 5832 0 0 0 0 0 0 0 0 0 0 0 0 0 5640 5640 5460 5460 5460 5460 5460 5460 5460 5460 5460 5460 5460 5374 5291 5291 5210 5210 5374 5374 5374 5734 5734 5734 5734 5734 5734 5734 5460 5460 5640 5640 5734 5734 5734 5734 5734 5734 5734 5640 5640 5640 5548 5548 5640 5640 5640 5734 5734 5734 5832 0 0 0 0 0 0 0 0 0 0 2812 2789 2789 2789 2789 2767 2767 2767 2767 2767 2767 2723 2723 2723 2723 2723 2723 2723 2723 2744 2744 2767 2767 2789 2789 2767 2767 2767 2744 2723 2723 2723 2744 2744 2744 2767 2767 2767 2767 2767 2767 2767 2789 2789 2789 2789 2812 2812 2812 2812 2835 2835 2859 2859 2859 2859 2883 2908 0 0 3120 0 0 2835 2835 2835 2859 2835 2835 2859 2859 2859 2835 2835 2835 2835 2835 2835 2835 2835 2835 2835 2835 2053 2053 2053 2053 2065 2065 2078 2078 2078 2078 2078 2078 2078 2078 2078 2078 2078 2078 2078 2078 2090 2090 2090 2103 2103 2116 2129 2129 2103 2103 2103 2103 2103 2103 2103 2116 2116 2116 2116 2129 2129 2129 2129 2129 2129 2129 2908 2908 2908 2908 2908 2908 2908 2908 2908 2908 2908 2883 2883 2883 2859 2859 2859 2883 2883 2883 2883 2883 2908 2908 2908 2908 2908 2156 2143 2129 2129 2129 2143 2143 2143 2143 2143 2156 2156 2170 2184 0 0 0 0 0 0 0 0 6038 6038 6038 6038 6038 6038 6038 6038 6146 6259 6375 6375 6375 6375 6038 6038 6038 5933 5933 5933 5933 5933 0 0 0 0 0 0 0 0 0 0 0 0 0 0 0 0 0 0 0 0 0 0 0 0 0 0 0 0 2212 2198 2198 2212 2212 2212 2212 2212 2226 2226 2226 2226 4911 4911 4911 5056 5056 5056 5132 5132 5132 5132 5132 5132 5056 5056 5056 5056 5056 5056 5056 5056 5056 5056 4983 4983 4983 4983 4983 4983 4911 4911 4911 4911 4911 4911 4983 4983 4983 4983 4983 4983 4983 4983 5056 5056 5132 5210 5210 5291 5374 5374 0 0 0 2271 2256 2256 2256 2256 2256 2256 2256 2256 2256 2271 2256 2256 2256 2256 0 0 0 0 0 0 0 0 0 0 0 0 0 0 0 0 0 0 0 0 0 0 0 0 0 0 4139 4089 4089 4089 4089 4089 4041 4041 4041 4041 4089 4089 4089 4089 4089 4089 4089 0 0 0 0 0 0 4041 3994 3994 4041 4041 3994 3994 3948 3948 3903 3859 3859 3816 3816 3816 3816 3859 3859 3859 3859 3903 3903 3948 3948 3948 3994 3948 3948 3948 3903 3859 3732 3732 3692 3692 3692 3692 3653 3653 3653 3614 3614 3653 3653 3653 3653 3653 3653 3653 3653 3692 3692 3692 4774 4842 4911 4911 4983 4983 4983 4983 4983 4983 4983 4911 4911 4911 3816 3816 3859 3859 3859 3859 3859 3859 3816 3816 3816 3774 3732 3732 3732 3732 3692 3692 3692 3653 3653 3614 3614 3653 3653 2933 2933 2933 2933 2908 2908 2908 2908 2908 2883 2883 2883 2908 2908 2908 2908 2908 2908 2908 2908 2908 2908 2908 2908 2908 2908 2933 2908 2883 2883 2883 2883 2883 2883 2883 2883 2883 2883 2883 2883 2908 2883 2883 2883 0 0 0 0 0 0 0 0 0 0 0 0 0 0 0 0 0 0
0 0 0 0 0 0 0 0 0 0 0 0 0 0 0 0 0 0 0 0 0 0 0 0 0 0 0 0 0 0 4911 4911 5132 5132 5056 5056 5056 5056 5056 4983 4983 5056 5056 5056 5132 5132 5210 5291 5734 5734 5832 5832 5832 5832 5832 0 0 0 0 0 0 0 0 0 0 0 0 0 0 5460 5460 5460 5460 5460 5460 5460 5460 5460 5460 5460 5374 5374 5291 5291 5210 5210 5291 5291 5291 5734 5734 5734 5734 5734 5734 5734 5460 5460 5640 0 0 5640 5548 5548 5640 5640 5548 5548 5548 5548 5548 5548 5548 5640 5640 5734 5734 5734 5832 0 0 0 0 0 0 0 0 0 0 2789 2789 2767 2767 2767 2767 2767 2767 2767 2767 2767 2723 2723 2723 2723 2723 2723 2723 2723 2723 2744 2744 2744 2767 2767 2767 2767 2767 2744 2723 2723 2723 2744 2744 2744 2744 2767 2767 2767 2767 2767 2767 2789 2789 2789 2789 2789 2812 2812 2812 2812 2835 2835 2859 2859 2859 2883 2908 2984 3037 3120 3149 3149 2835 2835 2835 2859 2859 2859 2859 2859 2859 2835 2835 2835 2835 2835 2835 2835 2835 2835 2835 2835 2053 2053 2053 2065 2065 2065 2078 2078 2078 2078 2078 2078 2078 2078 2078 2078 2078 2078 2078 2078 2859 2859 2883 2883 2908 2129 2129 2129 2103 2103 2103 2103 2103 2103 2103 2116 2116 2116 2116 2156 2129 2129 2129 2908 2908 2908 2908 2908 2908 2908 2908 2908 2908 2908 2908 2908 2908 2908 2908 2883 2883 2883 2883 2883 2883 2883 2883 2883 2908 2908 2908 2908 2908 2908 2143 2129 2129 2129 2143 2143 2143 2143 2143 2156 2170 2170 2184 0 0 0 0 0 0 0 0 6038 6038 6038 6038 6038 6038 6038 6038 6146 6259 6259 6259 5933 6038 6038 6038 6038 5933 5933 5933 5933 5933 5933 0 0 0 0 0 0 0 0 0 0 0 0 0 0 0 0 0 0 0 0 0 0 0 0 0 0 0 2212 2198 2198 2212 2212 2212 2212 2226 2226 2226 2226 2226 4911 4911 4911 4983 4983 4983 5056 5056 5056 5056 5056 5056 5056 5056 5056 5056 5132 5056 5056 5056 5056 4983 4983 4983 4983 4983 4983 4983 4983 4983 4983 4983 4983 4983 4983 4983 4983 4983 4983 4983 4983 4983 5056 5056 5132 5210 5210 5291 5460 0 0 0 0 0 0 2256 2256 2256 2256 2256 2256 2256 2256 2271 2256 2256 2256 2256 0 0 0 0 0 0 0 0 0 0 0 0 0 0 0 0 0 0 0 0 0 0 0 0 0 0 0 4089 4089 4089 4089 4089 4041 4041 4041 4041 4041 4089 4089 4089 4089 4139 4139 0 0 0 0 0 0 4041 3994 3994 4041 3994 3994 3948 3948 3948 3859 3816 3816 3774 3774 3774 3774 3816 3816 3859 3859 3903 3903 3903 3903 3903 3903 3903 3903 3903 3903 3859 3774 3732 3692 3692 3692 3692 3653 3653 3653 3653 3653 3653 3653 3653 3653 3653 3653 3692 3692 3692 3692 3692 4774 4842 4911 4911 4983 4983 4983 4983 4983 4983 4911 4911 4911 4911 3816 3816 3859 3859 3859 3859 3859 3859 3816 3816 3816 3774 3732 3732 3732 3692 3692 3692 3653 3653 3653 3614 3614 3653 2908 2908 2933 2933 2933 2908 2908 2908 2908 2908 2883 2883 2883 2908 2908 2908 2908 2908 2908 2908 2908 2908 2908 2908 2908 2908 2908 2933 2908 2883 2883 2883 2883 2883 2883 2883 2883 2883 2883 2883 2883 2908 2883 2883 2883 0 0 0 0 0 0 0 0 0 0 0 0 0 0 0 0 0 0
0 0 0 0 0 0 0 0 0 0 0 0 0 0 0 0 0 0 0 0 0 0 0 0 0 0 0 0 0 0 4911 4911 5056 5132 5056 5056 5056 5056 5056 5056 5056 5056 5056 5056 5132 5132 5210 5210 5374 5460 5548 5548 5734 5734 5832 0 0 0 0 0 0 0 0 0 5460 5460 5460 5460 5548 5460 5460 5460 5460 5460 5460 5460 5460 5460 5374 5374 5374 5374 5291 5291 5210 5210 5291 5291 5291 5734 5734 5734 0 0 0 0 0 0 0 0 0 5640 5548 5548 5640 5640 5548 5460 5460 5460 5460 5460 5548 5548 5640 5734 5734 5734 5832 0 0 0 0 0 0 0 0 0 0 2767 2767 2767 2767 2767 2767 2767 2767 2767 2744 2744 2723 2723 2723 2723 2723 2723 2723 2723 2723 2723 2744 2744 2767 2767 2767 2767 2744 2744 2723 2723 2723 2744 2744 2744 2744 2767 2767 2767 2767 2767 2767 2789 2789 2789 2789 2789 2812 2812 2812 2812 2835 2835 2859 2859 2859 2883 2908 2984 3037 3092 3120 3120 2835 2835 2835 2859 2859 2859 2859 2859 2859 2859 2835 2835 2835 2835 2835 2835 2835 2835 2835 2835 2053 2053 2053 2065 2065 2065 2078 2078 2078 2078 2078 2090 2090 2090 2090 2078 2078 2090 2859 2859 2859 2883 2883 2883 2908 2933 2933 2933 2933 2958 2958 2958 2984 3037 2116 2116 2129 2143 2170 2170 2170 2170 2933 2908 2908 2908 2908 2908 2908 2908 2908 2908 2908 2908 2908 2908 2908 2908 2908 2908 2883 2883 2883 2883 2883 2883 2883 2908 2908 2908 2908 2908 2908 2908 2170 2143 2143 2143 2143 2143 2143 2143 2156 2156 2170 2170 2184 2198 0 0 0 0 0 0 0 6038 6038 6038 5933 5933 6038 6038 6038 6146 6146 6146 6146 5933 5933 5933 5933 5933 5933 5933 5933 5933 5933 5933 5933 0 0 0 0 0 0 0 0 0 0 0 0 0 0 0 0 0 0 0 0 0 0 0 0 0 0 2212 2212 2212 2212 2212 2212 2226 2226 2226 2226 2226 2226 4842 4842 4842 4983 4983 4983 5056 5056 5056 5056 5056 5056 5056 5056 5056 5132 5056 5056 5056 5056 5056 4983 4983 4983 4983 4983 4983 4983 4983 4983 4983 4983 4911 4911 4911 4983 4983 4983 4983 4983 5056 5056 5132 5132 5132 5210 5291 5460 5460 0 0 0 0 0 0 2256 2256 2256 2256 2256 2256 2256 2256 2271 2256 2256 2256 2256 0 0 0 0 0 0 0 0 0 0 0 0 0 0 0 0 0 0 0 0 0 0 0 0 0 0 0 0 0 4089 4089 4089 4089 4089 4041 4041 4041 4089 4089 4089 4089 4139 0 0 0 0 0 0 0 0 3948 3948 3994 3948 3948 3948 3903 3903 3859 3816 3816 3774 3774 3774 3774 3774 3774 3774 3816 3859 3859 3859 3859 3859 3903 3903 3903 3903 3859 3816 3774 3732 3732 3692 3692 3692 3692 3692 3653 3653 3653 3692 3692 3692 3653 3653 3692 3692 3692 3692 3732 3732 4774 4842 4911 4911 4911 4911 4983 4983 4983 4983 4911 4911 4911 4911 3859 3859 3859 3859 3859 3859 3859 3859 3859 3816 3816 3774 3732 3692 3692 3692 3692 3692 3653 3653 3653 3653 3653 3653 2908 2908 2933 2933 2933 2933 2933 2933 2933 2908 2908 2908 2908 2908 2908 2908 2908 2908 2933 2908 2908 2908 2908 2908 2908 2908 2908 2933 2908 2883 2883 2883 2883 2883 2883 2883 2883 2883 2883 2908 2908 2908 2908 2883 2883 0 0 0 0 0 0 0 0 0 0 0 0 0 0 0 0 0 0
0 0 0 0 0 0 0 0 0 0 0 0 0 0 0 0 0 0 0 0 0 0 0 0 0 0 0 0 0 0 4911 4911 4983 5132 5056 5056 5056 5056 5056 5056 5056 5056 5056 5056 5132 5132 5132 5210 5291 5374 5548 5548 5640 5734 5734 0 0 0 0 0 0 0 5374 5374 5460 5460 5460 5460 5548 5460 5460 5460 5374 5374 5374 5374 5374 5374 5374 5374 5291 5291 5291 5291 5210 5210 5291 5291 5291 5291 0 0 0 0 0 0 0 0 0 0 0 0 0 0 0 0 5640 5374 5374 5460 5460 5460 5548 5548 5640 5734 5832 5832 0 0 0 0 0 0 0 0 0 0 0 2767 2767 2767 2767 2767 2767 2767 2767 2767 2744 2744 2723 2723 2723 2723 2723 2723 2723 2723 2723 2723 2744 2744 2767 2767 2767 2767 2744 2744 2744 2744 2744 2744 2744 2744 2744 2744 2744 2767 2767 2767 2767 2789 2789 2789 2789 2812 2812 2812 2812 2835 2835 2835 2859 2859 2859 2883 2908 2984 3037 3092 3120 3120 2859 2859 2859 2859 2859 2859 2859 2859 2859 2859 2835 2835 2835 2835 2835 2835 2835 2835 2859 2859 2040 2040 2053 2065 2065 2065 2078 2078 2078 2078 2078 2090 2090 2090 2090 2078 2078 2859 2859 2859 2883 2883 2883 2908 2908 2933 2933 2933 2933 2958 2958 2958 2984 3037 3092 3208 3208 2184 2184 2184 2198 2933 2933 2933 2908 2908 2908 2908 2908 2908 2908 2908 2908 2908 2908 2908 2908 2908 2908 2908 2883 2883 2883 2908 2908 2908 2908 2908 2908 2908 2908 2933 2908 2908 2170 2156 2156 2143 2143 2143 2143 2143 2156 2156 2156 2170 2184 2198 2212 0 0 0 0 0 0 6038 6038 6038 5933 5933 6038 6038 6038 6038 6146 6146 6146 5933 5933 5933 5933 5933 5933 5933 5933 5933 5933 5933 5933 0 0 0 0 0 0 0 0 0 0 0 0 0 0 0 0 0 0 0 0 0 0 0 0 0 0 2212 2198 2198 2212 2212 2212 2212 2226 2226 2226 2226 2226 4842 4842 4842 4983 4983 5056 5056 5132 5132 5132 5132 5056 5056 5056 5056 5056 5056 5056 5056 5056 4983 4983 4983 4983 4983 4983 4983 4983 4983 4983 4983 4983 4911 4911 4911 4983 4911 4911 4983 4983 4983 4983 5056 5132 5374 5374 5460 5460 5548 0 0 0 0 0 0 2256 2256 2271 2271 2271 2271 2256 2256 2271 2271 2256 2256 0 0 0 0 0 0 0 0 0 0 0 0 0 0 0 0 0 0 0 0 0 0 0 0 0 0 0 0 0 0 0 0 0 0 0 4089 4089 4089 4089 4089 4089 0 0 0 0 0 0 0 0 0 0 3948 3948 3994 3948 3948 3948 3903 3859 3816 3774 3774 3732 3732 3732 3732 3732 3732 3774 3816 3816 3859 3859 3859 3859 3903 3903 3903 3903 3859 3816 3774 3732 3732 3692 3692 3692 3692 3692 3653 3653 3653 3692 3692 3692 3692 3692 3692 3692 3692 3732 3732 3774 4842 4842 4911 4911 4911 4911 4983 4983 4983 4983 4911 4911 4911 4911 3859 3859 3859 3859 3859 3859 3859 3859 3859 3816 3816 3774 3732 3692 3692 3653 3653 3653 3653 3653 3653 3653 3653 2908 2908 2908 2933 2933 2933 2933 2908 2908 2908 2908 2908 2908 2908 2908 2908 2908 2908 2933 2933 2908 2908 2908 2908 2908 2933 2908 2908 2933 2908 2908 2908 2883 2883 2883 2883 2883 2883 2908 2908 2908 2908 2908 2908 2883 2883 0 0 0 0 0 0 0 0 0 0 0 0 0 0 0 0 0 0
0 0 0 0 0 0 0 0 0 0 0 0 0 0 0 0 0 0 0 0 0 0 0 0 0 0 0 0 0 0 4842 4842 4983 5132 5056 5056 5132 5132 5132 5056 5056 5056 5056 5056 5132 5132 5132 5210 5291 5374 5548 5548 5640 5640 5734 0 0 0 0 0 0 5374 5374 5374 5460 5460 5460 5460 5548 5460 5460 5374 5374 5291 5291 5291 5291 5374 5291 5291 5291 5291 5210 5132 5132 5132 5132 5132 0 0 0 0 0 0 0 0 0 0 0 0 0 0 0 0 0 0 0 5374 5374 5460 0 5548 5548 5548 0 0 0 0 0 0 0 0 0 0 0 0 0 0 0 2767 2767 2767 2767 2767 2767 2767 2767 2767 2767 2744 2723 2723 2723 2723 2723 2723 2723 2723 2723 2723 2744 2744 2744 2744 2767 2767 2744 2744 2744 2744 2744 2744 2744 2744 2744 2744 2744 2767 2767 2767 2767 2789 2789 2789 2812 2812 2812 2812 2812 2835 2835 2835 2859 2859 2859 2883 2908 2984 3064 3092 3120 3120 2859 2859 2859 2859 2859 2859 2859 2859 2859 2859 2859 2859 2835 2835 2835 2835 2835 2835 2835 2835 2040 2040 2053 2065 2065 2078 2078 2078 2078 2078 2078 2078 2090 2090 2883 2859 2859 2859 2859 2883 2883 2883 2883 2908 2908 2933 2933 2933 2958 2958 2958 2958 2984 3037 3092 3208 3208 2198 2198 2198 2212 2933 2933 2933 2908 2908 2908 2908 2908 2908 2908 2908 2908 2908 2908 2908 2908 2908 2908 2908 2908 2908 2908 2908 2908 2908 2908 2908 2908 2908 2908 2908 2908 2908 2908 2156 2156 2129 2129 2143 2143 2143 2156 2156 2156 2170 2184 2212 2212 0 0 0 0 0 0 0 6038 6038 5933 5933 5933 6038 6038 6038 6038 6038 5933 5933 5933 5933 5933 5933 5933 5933 5933 5933 5933 5933 5933 5832 5832 5832 5832 5832 0 0 0 0 0 0 0 0 5832 5832 0 0 0 0 0 0 0 0 0 0 2170 2170 2184 2198 2212 2212 2212 2212 2226 2226 2226 2226 2226 4911 4911 4911 4983 5056 5056 5056 5132 5132 5132 5132 5056 5056 5132 5132 5056 5056 5056 5056 4983 4983 4983 4983 4983 4983 4983 4983 4983 4983 4983 4983 4983 4983 4983 4983 4983 4911 4911 4983 4983 4983 4983 5056 5132 5374 5374 5460 5460 5548 0 0 0 0 0 2256 2256 2256 2271 2271 2271 2271 2271 2271 2271 2271 2271 2271 0 0 0 0 0 0 0 0 0 0 0 0 0 0 0 0 0 0 0 0 0 0 0 0 0 0 0 0 0 0 0 0 0 0 0 0 4089 4089 4089 4089 4089 0 0 0 0 0 0 0 0 0 0 3948 3948 3994 0 0 0 0 3859 3816 3774 3774 3732 3732 3732 3732 3732 3732 3774 3816 3816 3816 3859 3859 3859 3859 3859 3903 3903 3859 3816 3774 3732 3732 3692 3692 3692 3692 3692 3692 3692 3692 3692 3692 3692 3692 3692 3692 3692 3732 3732 3732 3774 4911 4911 4911 4911 4983 4983 4983 4983 4983 4983 4911 4911 4911 4911 3859 3859 3859 3859 3859 3859 3859 3859 3859 3816 3816 3732 3692 3614 3614 3653 3653 3653 3653 3653 3653 3653 3653 2908 2908 2933 2933 2958 2933 2908 2908 2908 2908 2908 2908 2908 2908 2908 2908 2908 2908 2933 2933 2933 2933 2933 2933 2933 2933 2933 2933 2933 2908 2908 2908 2908 2908 2883 2859 2859 2883 2883 2908 2908 2908 2908 2908 2883 2883 2883 0 0 0 0 0 0 0 0 0 0 0 0 0 0 0 0 0
0 0 0 0 0 0 0 0 0 0 0 0 0 0 0 0 0 0 0 0 0 0 0 0 0 0 0 0 0 0 4842 4842 5056 5210 5132 5132 5132 5132 5132 5056 5056 5056 5056 5056 5132 5132 5132 5210 5291 5374 5460 5548 5548 5640 5734 0 0 0 0 5291 5291 5291 5374 5374 5460 5548 5460 5460 5548 5374 5374 5374 5291 5291 5291 5291 5291 5374 5291 5291 5210 5210 5210 5132 5132 5132 5132 5132 5132 5374 5374 5374 0 0 0 0 0 0 0 0 0 0 0 0 0 0 0 0 0 0 0 0 0 0 0 0 0 0 0 0 5548 5548 5460 5460 5460 5460 0 0 0 2767 2767 2767 2767 2767 2767 2767 2767 2767 2767 2767 2744 2744 2723 2723 2723 2723 2723 2723 2744 2744 2744 2744 2744 2744 2767 2767 2744 2744 2744 2744 2744 2744 2744 2744 2744 2744 2767 2767 2767 2767 2767 2789 2789 2789 2789 2812 2812 2812 2812 2835 2835 2835 2859 2859 2859 2883 2908 2984 3064 3092 3120 3120 2883 2883 2859 2859 2859 2859 2883 2859 2859 2859 2859 2859 2835 2835 2835 2835 2835 2835 2835 2835 2053 2053 2053 2065 2065 2078 2078 2078 2078 2078 2078 2078 2789 2835 2859 2859 2859 2859 2859 2883 2883 2883 2883 2908 2933 2933 2933 2933 2958 2958 2958 2984 2984 3037 3092 3208 3208 3208 2198 2198 2226 2933 2933 2933 2908 2908 2908 2908 2908 2908 2908 2908 2908 2908 2908 2908 2908 2908 2908 2908 2908 2908 2908 2908 2908 2908 2908 2908 2908 2908 2908 2908 2908 2908 2908 2143 2129 2129 2129 2143 2143 2143 2156 2156 2156 2170 2184 2212 2212 0 0 0 0 0 0 0 0 0 5933 5933 5933 5933 5933 5933 5933 5933 5933 5933 5933 5933 5933 5933 5933 5933 5933 5933 5933 5933 5933 5832 5832 5832 5734 5734 5832 5832 0 0 0 0 5933 5832 5832 5832 0 0 0 0 0 0 0 0 0 0 2170 2170 2184 2198 2212 2212 2212 2212 2226 2226 2226 2226 2226 4911 4911 4911 5056 5056 5056 5056 5132 5132 5132 5132 5132 5132 5132 5056 5056 4983 4983 4983 4983 4983 4983 4983 4983 4983 4983 4983 4983 4983 5056 5056 5056 4983 4983 4983 4983 4983 4983 4983 4983 5056 5056 5132 5132 5374 5374 5460 5460 5460 5460 0 0 0 0 2256 2256 2256 2271 2271 2271 2271 2271 2271 2271 2271 2271 2271 0 0 0 0 0 0 0 0 0 0 0 0 0 0 0 0 0 0 0 0 0 0 0 0 0 0 0 0 0 0 0 0 0 0 0 0 0 0 0 0 0 0 0 0 0 0 0 0 0 0 0 0 0 0 0 0 0 0 0 0 3816 3774 3774 3774 3774 3774 3732 3732 3774 3774 3816 3816 3859 3859 3859 3859 3859 3859 3859 3859 3816 3774 3732 3732 3692 3692 3692 3692 3692 3692 3692 3692 3692 3692 3692 3692 3692 3692 3692 3732 3732 3774 3774 4911 4911 4911 4911 4983 4983 4983 4983 4983 4983 4911 4911 4911 4983 3816 3816 3859 3859 3859 3859 3859 3859 3859 3859 3816 3653 3539 3539 3614 3653 3653 3653 3653 3653 3653 3692 2933 2908 2908 2933 2933 2958 2933 2908 2908 2908 2908 2908 2908 2908 2908 2908 2933 2933 2933 2933 2933 2933 2933 2933 2933 2933 2933 2933 2933 2933 2908 2908 2908 2908 2908 2859 2859 2859 2883 2883 2908 2908 2908 2908 2908 2908 2883 2883 0 0 0 0 0 0 0 0 0 0 0 0 0 0 0 0 0
0 0 0 0 0 0 0 0 0 0 0 0 0 0 0 0 0 0 0 0 0 0 0 0 0 0 0 0 0 0 4842 4842 5056 5132 5132 5132 5132 5210 5210 5132 5132 5132 5132 5132 5132 5132 5210 5210 5210 5291 5374 5460 5548 5548 5640 5640 5460 5460 5460 5291 5291 5291 5374 5374 5460 5548 5460 5460 5460 5374 5374 5374 5291 5291 5291 5291 5291 5374 5291 5291 5210 5210 5210 5132 5132 5132 5132 5132 5132 5291 5291 5291 0 0 0 0 0 0 0 0 0 0 0 0 0 0 0 0 0 0 0 0 0 0 0 0 5734 5460 5460 5460 5460 5460 5460 5460 5460 5460 5548 0 0 2767 2767 2767 2767 2767 2767 2767 2767 2767 2767 2767 2767 2767 2767 2744 2744 2744 2744 2744 2767 2767 2767 2767 2767 2767 2767 2767 2744 2744 2744 2744 2744 2744 2744 2744 2744 2744 2767 2767 2767 2789 2789 2789 2789 2789 2789 2812 2812 2812 2812 2835 2835 2835 2859 2859 2859 2883 2908 2984 3037 3092 3120 3120 2908 2883 2859 2859 2859 2883 2883 2859 2859 2859 2859 2859 2859 2835 2835 2835 2835 2835 2835 2835 2053 2053 2065 2065 2078 2078 2078 2065 2065 2065 2065 2078 2789 2835 2859 2859 2859 2859 2859 2883 2883 2883 2883 2908 2908 2933 2933 2933 2933 2958 2958 2984 3010 3037 3092 3208 3208 3208 2933 2226 2226 2933 2933 2933 2908 2908 2908 2908 2908 2908 2908 2908 2908 2908 2908 2908 2908 2908 2908 2908 2908 2908 2908 2908 2908 2908 2908 2908 2933 2908 2908 2908 2908 2908 2908 2129 2129 2129 2143 2143 2143 2143 2156 2156 2156 2170 2184 0 0 0 0 0 0 0 0 0 0 0 5933 5933 5933 5933 5933 5933 5933 5933 5933 5933 5933 5933 5933 5933 5832 5832 5832 5933 5933 5832 5832 5832 5832 5832 5734 5734 5734 5734 5734 0 0 0 5933 5832 5832 5832 0 0 0 0 0 0 0 0 0 0 2170 2170 2184 2198 2212 2212 2212 2212 2226 2226 2226 2226 2226 2226 5132 5132 5056 5056 5056 5132 5132 5132 5132 5132 5132 5132 5132 5056 5056 4983 4983 4983 4983 4983 4983 4983 4983 4983 4983 4983 4911 4911 5056 5056 5056 4983 4983 4983 4983 4983 4983 5056 5056 5056 5056 5132 5210 5374 5460 5460 5460 5460 5460 5460 0 0 0 2256 2256 2271 2271 2271 2271 2271 2271 2271 2271 2271 2271 2271 0 0 0 0 0 0 0 0 0 0 0 0 0 0 0 0 0 0 0 0 0 0 0 0 0 0 0 0 0 0 0 0 0 0 0 0 0 0 0 0 0 0 0 0 0 0 0 0 0 0 0 0 0 0 0 0 0 0 0 0 3816 3816 3774 3774 3774 3774 3774 3774 3774 3774 3816 3816 3859 3859 3859 3859 3859 3859 3859 3859 3816 3774 3732 3732 3692 3692 3692 3692 3692 3692 3692 3692 3692 3692 3692 3692 3692 3692 3692 3732 3774 3774 3816 4911 4911 4911 4983 4983 4983 4983 4983 4983 4983 4983 4983 4983 3774 3774 3816 3859 3859 3859 3859 3859 3859 3859 3816 3816 3653 3539 3539 4983 4983 4983 4983 3653 3653 3653 3692 2933 2933 2933 2958 2958 2958 2933 2908 2908 2908 2908 2908 2908 2908 2908 2933 2933 2933 2933 2933 2933 2933 2933 2933 2933 2933 2933 2933 2933 2933 2908 2908 2908 2908 2883 2859 2859 2859 2883 2883 2908 2883 2883 2908 2908 2908 2908 2908 0 0 0 0 0 0 0 0 0 0 0 0 0 0 0 0 0
0 0 0 0 0 0 0 0 0 0 0 0 0 0 0 0 0 0 0 0 0 0 0 0 0 0 0 0 0 0 4774 4774 4911 5132 5132 5132 5132 5210 5210 5132 5132 5132 5132 5132 5132 5132 5132 5210 5210 5210 5291 5291 5460 5548 5640 5640 5460 5460 5374 5374 5291 5291 5374 5374 5460 5548 5460 5460 5460 5374 5374 5374 5291 5291 5374 5291 5291 5374 5291 5210 5210 5132 5132 5132 5132 5132 5132 5132 5132 5291 5291 5291 0 0 0 0 0 0 0 0 0 0 0 0 0 0 0 0 0 0 0 0 0 0 0 0 5460 5460 5460 5460 5460 5374 5374 5374 5374 5374 5548 5548 0 2744 2744 2767 2767 2767 2767 2767 2767 2789 2789 2789 2767 2767 2767 2767 2767 2744 2744 2744 2767 2767 2767 2767 2767 2767 2767 2767 2744 2744 2744 2744 2744 2744 2744 2744 2744 2767 2767 2767 2767 2789 2789 2789 2789 2789 2789 2812 2812 2812 2812 2835 2835 2835 2859 2859 2859 2883 2908 2984 3037 3064 3064 2958 2908 2883 2883 2859 2859 2859 2859 2859 2859 2859 2859 2859 2859 2835 2835 2835 2835 2835 2812 2812 2065 2065 2065 2078 2078 2078 2078 2065 2065 2053 2053 2723 2789 2835 2859 2859 2859 2883 2883 2883 2883 2883 2883 2908 2908 2908 2908 2933 2933 2958 2933 2933 3010 3064 3178 3178 3208 3037 2958 2933 2933 2933 2933 2933 2908 2908 2908 2908 2908 2908 2908 2908 2908 2908 2908 2908 2908 2908 2908 2908 2908 2908 2908 2908 2908 2908 2908 2908 2933 2908 2908 2908 2908 2908 2908 2129 2129 2156 2156 2156 2156 2156 2156 2156 2156 2170 2170 0 0 0 0 0 0 0 0 0 0 0 0 5933 5933 5933 5933 5933 5933 5933 5933 5933 5933 5933 5832 5832 5832 5832 5832 5933 5933 5832 5734 5734 5734 5734 5640 5640 5734 5734 5734 5734 0 5832 5832 5832 5734 5734 5832 0 0 0 0 0 0 0 0 0 2184 2184 2198 2198 2212 2212 2212 2212 2226 2226 2226 2226 2226 0 5132 5132 5132 5132 5132 5132 5132 5132 5132 5132 5132 5132 5132 5056 5056 4983 4983 4983 4983 4983 4983 4983 4983 4983 4983 4983 4911 4911 5056 5056 5056 5056 4983 4983 4983 4983 5056 5056 5132 5132 5132 5132 5291 5374 5460 5460 5460 5460 5460 5460 2286 2271 2271 2271 2271 2271 2271 2271 2271 2271 2271 2271 2271 2271 2271 0 0 0 0 0 0 0 0 0 0 0 0 0 0 0 0 0 0 0 0 0 0 0 0 0 0 0 0 0 0 0 0 0 0 0 0 0 0 0 0 0 0 0 0 0 0 0 0 0 0 0 0 0 0 0 0 0 0 0 0 0 0 3816 3816 3774 3774 3774 3774 3774 3774 3816 3816 3816 3816 3816 3816 3859 3859 3859 3859 3859 3816 3774 3732 3732 3692 3692 3692 3692 3692 3692 3692 3692 3692 3692 3692 3692 3692 3692 3692 3732 3774 3816 3859 3903 4911 4911 4983 4983 4983 4983 4983 4983 4983 4983 4983 4983 3774 3774 3859 3859 3859 3859 3859 3859 3859 3859 3816 3816 4983 4983 4983 4983 4983 4983 4983 4983 3653 3653 3692 2958 2958 2958 2958 2958 2958 2958 2908 2908 2908 2908 2908 2908 2908 2908 2933 2933 2933 2933 2933 2933 2933 2933 2933 2933 2933 2933 2933 2933 2933 2908 2908 2908 2908 2883 2859 2859 2859 2883 2883 2908 2883 2883 2908 2908 2908 2908 2908 0 0 0 0 0 0 0 0 0 0 0 0 0 0 0 0 0
0 0 0 0 0 0 0 0 0 0 0 0 0 0 0 0 0 0 0 0 0 0 0 0 0 0 0 0 0 0 4774 4774 4842 5056 5056 5056 5132 5132 5132 5132 5132 5056 5056 5132 5132 5132 5132 5132 5132 5210 5210 5291 5374 5548 5640 5640 5640 5374 5374 5374 5291 5291 5374 5374 5460 5460 5460 5460 5460 5374 5374 5291 5291 5291 5374 5291 5291 5291 5291 5210 5132 5132 5132 5132 5132 5132 5132 5132 5210 5210 5210 5210 5210 5210 0 0 0 0 0 0 0 0 0 0 0 0 0 0 0 0 0 0 0 0 0 0 5460 5460 5460 5460 5460 5374 5374 5374 5374 5374 5460 5460 2744 2744 2744 2767 2767 2767 2767 2767 2767 2767 2789 2767 2767 2767 2767 2767 2767 2744 2744 2767 2767 2767 2767 2767 2767 2767 2767 2767 2744 2744 2744 2744 2744 2744 2744 2744 2744 2767 2767 2767 2767 2789 2789 2789 2789 2789 2812 2812 2812 2812 2812 2835 2835 2835 2859 2859 2859 2883 2908 2984 2984 3010 3010 2958 2908 2883 2859 2859 2859 2859 2859 2859 2859 2859 2859 2859 2859 2859 2859 2859 2835 2835 2812 2812 2812 2065 2065 2065 2065 2078 2078 2065 2065 2053 2053 2723 2789 2835 2859 2859 2883 2883 2883 2883 2883 2883 2883 2933 2933 2908 2908 2933 2958 2958 2933 2933 3010 3064 3120 3120 3149 3037 2958 2958 2933 2933 2933 2933 2933 2933 2933 2908 2908 2908 2908 2908 2908 2908 2908 2908 2908 2908 2908 2908 2908 2908 2908 2908 2908 2908 2908 2908 2933 2908 2908 2908 2908 2908 2908 2156 2156 2156 2156 2156 2156 2156 2170 2170 2170 2170 2170 0 0 0 0 0 0 0 0 0 0 0 0 0 0 5832 5832 5832 5832 5832 5832 5832 5832 5933 5832 5832 5832 5832 5832 5933 5933 5933 5734 5734 5734 5734 5640 5640 5734 5734 5734 5734 5734 5734 5734 5640 5640 5640 5832 5734 5734 5734 5734 0 0 0 0 0 2212 2198 2198 2212 2212 2212 2212 2212 2226 2226 2226 2226 2226 0 5132 5132 5132 5132 5132 5132 5132 5210 5132 5132 5056 5056 5132 5132 5056 4983 4983 2241 2241 2271 2271 2286 2301 4911 4983 4983 5056 5056 5056 5056 5056 5056 5056 4842 4842 4911 5056 5056 5056 5056 5056 5132 5291 5374 5460 5460 2286 2286 2286 2286 0 2286 2271 2271 2271 2271 2271 2271 2271 2271 2271 2271 2271 2271 2271 0 0 0 0 0 0 0 0 0 0 0 0 0 0 0 0 0 0 0 0 0 0 0 0 0 0 0 0 0 0 0 0 0 0 0 0 0 0 0 0 0 0 0 0 0 0 0 0 0 0 0 0 0 0 0 0 0 0 0 0 0 0 3816 3816 3774 3774 3774 3774 3774 3774 3816 3816 3816 3816 3816 3816 3859 3859 3859 3859 3859 3816 3774 3732 3732 3692 3692 3692 3692 3692 3692 3692 3692 3692 3692 3692 3692 3692 3692 3732 3774 3816 3903 3903 3903 4983 4983 4983 4983 4983 4983 4983 4983 4983 4983 4983 4983 3816 3816 3859 3859 3859 3859 3859 3859 3859 3859 3859 4983 4983 4983 4983 4983 4983 4983 4983 4983 3692 3692 2984 2958 2958 2958 2958 2958 2958 2958 2933 2933 2933 2908 2908 2908 2908 2908 2933 2933 2933 2933 2933 2933 2933 2933 2933 2933 2933 2933 2958 2958 2933 2908 2908 2908 2908 2908 3539 3539 3503 3503 3503 2908 2883 2883 2908 2933 2933 2908 2908 0 0 0 0 0 0 0 0 0 0 0 0 0 0 0 0 0
0 0 0 0 0 0 0 0 0 0 0 0 0 0 0 0 0 0 0 0 0 0 0 0 0 0 0 0 0 0 4774 4774 4842 4983 5056 5056 5056 5132 5132 5056 5056 4983 4983 4983 5056 5056 5056 5132 5132 5210 5210 5210 5291 5548 5640 5640 0 5374 5374 5374 5374 5374 5374 5374 5460 5460 5460 5460 5460 5291 5291 5210 5210 5291 5291 5291 5291 5291 5291 5132 5132 5132 5132 5056 5056 5210 5210 5210 5132 5132 5132 5210 5210 5210 0 0 0 0 0 0 0 0 0 0 0 0 0 0 0 0 0 0 0 0 0 0 5548 5460 5374 5374 5374 5374 5374 5374 5374 5374 5460 5460 2744 2744 2744 2767 2767 2767 2767 2767 2767 2767 2789 2767 2767 2767 2767 2767 2767 2767 2767 2767 2767 2767 2767 2767 2767 2767 2767 2767 2744 2744 2744 2744 2744 2744 2744 2767 2767 2767 2767 2767 2767 2789 2789 2789 2789 2812 2812 2812 2812 2835 2835 2835 2835 2859 2859 2859 2883 2883 2908 2984 2984 2984 2958 2958 2908 2883 2859 2859 2859 2859 2859 2859 2859 2859 2859 2859 2859 2859 2859 2859 2859 2859 2835 2835 2859 2065 2065 2065 2065 2078 2078 2065 2065 2065 2078 2723 2812 2835 2859 2859 2883 2883 2883 2883 2883 2883 2883 2933 2933 2908 2908 2958 2958 2958 2958 2958 3010 3037 3092 3064 3064 3010 2958 2958 2933 2933 2933 2933 2933 2933 2933 2908 2908 2933 2908 2908 2908 2908 2908 2908 2908 2908 2933 2908 2908 2908 2908 2908 2908 2908 2908 2908 2933 2908 2908 2908 2908 2908 2908 2908 2156 2156 2156 2156 2156 2156 2156 2156 2170 2170 2170 0 0 0 0 0 0 0 0 0 0 0 0 0 0 5832 5734 5734 5832 5832 5832 5832 5832 5933 5832 5832 5832 5832 5832 5933 5933 5933 5832 5734 5734 5734 5640 5640 5640 5640 5640 5640 5640 5640 5734 5640 5640 5640 5640 5640 5640 5640 5640 0 0 0 0 0 2212 2212 2212 2212 2212 2212 2212 2212 2226 2226 2226 2226 2226 2241 0 5210 5210 5132 5132 5210 5210 5210 5132 5056 5056 5056 5132 5132 5132 2226 2226 2241 2241 2271 2271 2271 2271 2271 2271 2271 2286 2286 2286 2286 2286 2256 2256 2271 2286 2286 2286 2286 4983 4983 4983 5056 5374 5374 2301 2301 2286 2286 2286 2286 2286 2286 2271 2271 2271 2271 2271 2271 2271 2271 2271 2271 2271 2271 0 0 0 0 0 0 0 0 0 0 0 0 0 0 0 0 0 0 0 0 0 0 0 0 0 0 0 0 0 0 0 0 0 0 0 0 0 0 0 0 0 0 0 0 0 0 0 0 0 0 0 0 0 0 0 0 0 0 0 0 0 0 0 0 0 3774 3774 3859 0 0 0 0 3816 3816 3816 3816 3859 3859 3859 3859 3859 3859 3816 3774 3732 3732 3732 3692 3692 3692 3692 3692 3692 3692 3692 3692 3692 3692 3692 3692 3732 3774 3859 3859 3859 4983 4983 4983 4983 4983 4983 4983 4983 4983 4983 4983 4983 5056 3816 3816 3859 3859 3859 3903 3859 3859 3903 3903 4983 4983 4983 4983 4983 4983 5056 5056 4983 4983 4983 4983 2984 2984 2984 2958 2958 2958 2958 2958 2933 2933 2933 2908 2908 2908 2908 2933 2933 2933 2933 2933 2933 2933 2933 2933 2933 2933 2933 2958 2958 2958 2958 2908 2908 2908 2908 3539 3539 3539 3539 3503 3503 3503 2908 2908 2933 2933 2933 2933 2933 0 0 0 0 0 0 0 0 0 0 0 0 0 0 0 0 0
0 0 0 0 0 0 0 0 0 0 0 0 0 0 0 0 0 0 0 0 0 0 0 0 0 0 0 0 0 0 4774 4774 4842 4983 5056 5056 5056 5132 5132 5056 5056 4983 4983 4983 5056 5056 5056 5132 5132 5210 5210 5210 5210 5548 5548 5548 0 0 5210 5210 5291 5291 5291 5291 5374 5460 5460 5460 5460 5291 5291 5132 5132 5132 5210 5210 5210 5210 5132 5056 5056 5056 5056 5056 5056 5132 5132 5210 5132 5132 5132 5210 5132 5132 0 0 0 0 0 0 0 0 0 0 0 0 0 0 0 0 0 0 0 5056 5056 5132 5460 5374 5374 5374 5374 5374 5374 5374 5374 5374 5374 5374 2767 2767 2767 2767 2767 2789 2767 2767 2767 2789 2789 2767 2767 2767 2767 2767 2767 2767 2767 2767 2767 2767 2767 2767 2767 2767 2767 2767 2767 2767 2744 2744 2744 2744 2744 2767 2767 2767 2767 2767 2767 2789 2789 2789 2789 2812 2812 2812 2812 2835 2835 2835 2835 2859 2859 2859 2883 2908 2933 2984 2984 2984 2958 2933 2908 2883 2859 2859 2859 2859 2859 2859 2859 2859 2859 2859 2859 2859 2859 2859 2859 2859 2859 2859 2859 2859 2078 2078 2078 2078 2078 2078 2078 2078 2078 2859 2859 2859 2883 2883 2883 2883 2883 2908 2908 2908 2908 2933 2933 2908 2908 2933 2958 2958 2958 2984 3010 3037 3064 3064 3064 3010 2984 2958 2933 2933 2933 2933 2933 2933 2933 2908 2908 2933 2908 2908 2908 2908 2933 2908 2908 2908 2933 2908 2908 2908 2908 2908 2908 2908 2908 2908 2933 2908 2908 2908 2908 2908 2908 2908 2156 2156 2156 2156 2156 2156 2156 2156 2170 2170 2170 0 0 0 0 0 0 0 0 0 0 0 0 0 0 0 5734 5734 5832 5832 5832 5832 5832 5832 5832 5832 5832 5832 5832 5933 5933 5933 5832 5734 5734 5734 5548 5548 5640 5640 5640 5640 5640 5640 5734 5640 5640 5640 5640 5640 5640 5640 5548 5548 5734 0 0 0 2226 2212 2212 2226 2212 2212 2212 2226 2226 2226 2226 2226 2241 2241 2241 5210 5210 5210 5210 2271 2271 2271 2271 5056 5056 5056 2241 2226 2226 2226 2226 2241 2241 2271 2271 2271 2271 2271 2271 2271 2271 2271 2286 2271 2271 2256 2256 2271 2286 2286 2286 2286 4983 4983 4983 2301 2286 2286 2286 2286 2286 2271 2271 2286 2271 2271 2271 2271 2271 2271 2271 2271 2271 2271 2271 2271 2271 2271 0 0 0 0 0 0 0 0 0 0 0 0 0 0 0 0 0 0 0 0 0 0 0 0 0 0 0 0 0 0 0 0 0 0 0 0 0 0 0 0 0 0 0 0 0 0 0 0 0 0 0 0 0 0 0 0 0 0 0 0 0 0 0 0 0 0 0 0 0 0 0 0 0 3859 3859 3859 3859 3859 3859 3859 3859 3859 3816 3774 3732 3732 3732 3692 3692 3692 3692 3692 3692 3692 3692 3692 3692 3692 3692 3692 3732 3774 3859 3859 3859 4983 4983 4983 4983 4983 4983 4983 4983 4983 4983 5056 5056 5640 3859 3859 3859 3859 3859 3903 3903 3903 3903 4983 4983 4983 4983 4983 4983 5056 5056 5056 4983 4983 4983 3010 2984 2984 2984 2958 2958 2958 2958 2958 2933 2933 2933 2908 2908 2908 2908 2933 2933 2933 2933 2933 2933 2933 2933 2933 2933 2958 2958 2958 2958 2958 2958 2908 2908 2908 3539 3539 3539 3539 3539 3539 3539 3539 2908 2908 2933 2933 2958 2933 2933 0 0 0 0 0 0 0 0 0 0 0 0 0 0 0 0 0
0 0 0 0 0 0 0 0 0 0 0 0 0 0 0 0 0 0 0 0 0 0 0 0 0 0 0 0 0 0 4774 4774 4842 4842 4983 5056 5056 5132 5056 5056 4983 4911 4911 4983 4983 4983 5056 5056 5056 5210 5210 5210 5132 5132 5132 0 0 0 5210 5210 5210 5210 5210 5291 5291 5460 5460 5460 5056 5056 5056 5056 5056 5132 5132 5132 5132 5132 4983 4983 4983 4983 5056 5056 5056 5132 5132 5132 5210 5132 5132 5210 5132 5132 0 0 0 0 0 0 0 0 0 0 0 0 0 0 0 0 0 0 5056 5056 5056 5132 5460 5374 5374 5374 5291 5291 5291 5291 5291 5291 5210 5210 2789 2789 2789 2789 2789 2789 2789 2789 2789 2789 2789 2767 2767 2767 2767 2767 2767 2767 2767 2767 2767 2767 2767 2767 2767 2767 2767 2767 2767 2767 2767 2744 2744 2767 2767 2767 2767 2767 2767 2767 2767 2789 2789 2789 2789 2812 2812 2835 2835 2835 2835 2835 2835 2859 2859 2859 2883 2908 2933 2958 2958 2958 2958 2933 2908 2883 2883 2859 2859 2859 2859 2859 2859 2859 2859 2859 2859 2859 2859 2859 2859 2859 2859 2859 2859 2933 2078 2078 2078 2078 2078 2078 2078 2078 2078 2090 2859 2859 2883 2883 2883 2908 2908 2908 2908 2908 2933 2933 2933 2933 2933 2933 2958 2958 2958 2958 3010 3010 3010 3037 3037 3010 2984 2958 2958 2933 2933 2933 2933 2933 2933 2908 2908 2933 2908 2908 2908 2908 2933 2908 2908 2908 2933 2908 2908 2908 2908 2908 2908 2908 2908 2908 2933 2933 2933 2933 2933 2933 2933 2933 2170 2170 2156 2156 2156 2170 2170 2170 2170 2170 0 0 0 0 0 0 0 0 0 0 0 0 0 0 0 5640 5640 5640 5734 5832 5832 5832 5832 5832 5832 5832 5832 5832 5832 5548 5734 5734 5734 5734 5734 5640 5548 5548 5548 5548 5548 5640 5640 5640 5640 5548 5548 5548 5548 5640 5640 5640 5548 5548 5734 5734 0 0 2226 2226 2212 2212 2212 2212 2212 2226 2226 2226 2226 2226 2241 2241 2241 2241 2286 5210 5210 2271 2271 2271 2271 2271 2256 2241 2241 2226 2226 2226 2226 2241 2256 2271 2271 2271 2271 2271 2271 2271 2271 2271 2271 2271 2271 2271 2271 2286 2286 2286 2286 2286 2286 2286 2286 2286 2286 2271 2271 2271 2271 2271 2271 2286 2271 2271 2271 2271 2271 2271 2271 2271 2271 2271 2271 2271 2271 2271 0 0 0 0 0 0 0 0 0 0 0 0 0 0 0 0 0 0 0 0 0 0 0 0 0 0 0 0 0 0 0 0 0 0 0 0 0 0 0 0 0 0 0 0 0 0 0 0 0 0 0 0 0 0 0 0 0 0 0 0 0 0 0 0 0 0 0 0 0 0 0 0 0 0 0 0 0 3859 3859 3859 3859 3859 3816 3816 3774 3774 3732 3732 3692 3692 3692 3692 3692 3692 3692 3692 3692 3692 3692 3692 3732 3816 3859 3903 3903 4983 4983 4983 4983 4983 4983 5056 5056 5056 5056 5056 5056 5640 3859 3859 3859 3859 3859 3903 3903 3903 3903 4983 4983 5056 5056 5056 5056 5056 5056 5056 4983 4983 4983 2984 2984 2984 2984 2958 2958 2958 2958 2933 2933 2933 2933 2933 2933 2933 2933 2933 2958 2933 2933 2933 2933 2933 2933 2933 2958 2958 2958 2958 2933 2933 2933 3653 3653 3614 3539 3539 3539 3539 3539 3539 3539 3539 3539 2933 2933 2933 2958 2933 2933 2933 0 0 0 0 2933 2933 0 0 0 0 0 0 0 0 0 0
0 0 0 0 0 0 0 0 0 0 0 0 0 0 0 0 0 0 0 0 0 0 0 0 0 0 0 0 0 0 4774 4774 4774 4774 4774 4842 4911 4911 4983 4911 4911 4911 4911 4911 4983 4983 4983 5056 5056 5132 5132 5210 5132 5132 5132 5132 5056 5056 5132 5132 5132 5132 5210 5210 5210 5132 5132 5132 5056 5056 4983 4983 5056 5132 5132 5132 5132 5132 4983 4983 4983 4983 5056 5056 5056 5132 5132 5132 5210 5210 5210 5291 5291 5291 5291 0 0 0 0 0 5132 5132 5132 5132 0 0 0 0 0 0 0 0 5056 5056 5132 5132 5374 5374 5374 5374 5291 5291 5291 5291 5210 5210 5210 5210 2789 2789 2789 2789 2789 2789 2767 2767 2767 2789 2767 2767 2767 2767 2767 2767 2767 2767 2767 2767 2767 2767 2767 2767 2767 2767 2767 2767 2767 2767 2767 2767 2767 2767 2767 2767 2767 2767 2767 2767 2789 2789 2789 2812 2812 2812 2812 2835 2835 2835 2835 2835 2835 2859 2859 2859 2883 2908 2933 2958 2958 2958 2958 2933 2933 2908 2883 2883 2883 2859 2859 2859 2859 2859 2859 2859 2859 2859 2859 2859 2859 2859 2859 2883 2883 2933 2933 2078 2078 2078 2078 2078 2078 2078 2078 2090 2883 2883 2883 2883 2908 2908 2908 2908 2908 2933 2933 2933 2933 2933 2933 2933 2958 2958 2958 2958 2984 3010 3010 3037 3037 3010 3010 2984 2984 2958 2933 2933 2933 2933 2933 2933 2908 2908 2908 2908 2908 2933 2933 2908 2908 2933 2933 2908 2908 2908 2908 2908 2908 2908 2908 2908 2933 2933 2933 2933 2933 2933 2933 2933 2170 2156 2156 2156 2156 2156 2156 2156 2156 2156 2170 2170 0 0 0 0 0 0 0 0 0 0 5734 5734 5832 5734 5640 5640 5734 5734 5734 5832 5832 5832 5734 5734 5734 5734 5548 5548 0 5734 5734 5734 5640 5640 5548 5548 5548 5548 5548 5548 5548 5640 5640 5548 5548 5548 5548 5640 5640 5548 5548 5548 5548 5548 5548 0 2226 2226 2212 2212 2212 2212 2212 2226 2226 2226 2226 2241 2241 2241 2241 2271 2286 2271 2271 2271 2271 2271 2271 2256 2256 2241 2241 2241 2241 2241 2241 2256 2256 2271 2271 2271 2271 2271 2271 2271 2271 2271 2271 2271 2271 2271 2271 2271 2286 2271 2271 2286 2286 2286 2286 2286 2286 2271 2271 2271 2271 2271 2271 2271 2271 2286 2271 2271 2271 2271 2271 2271 2271 2271 2271 2271 2271 2271 2333 0 0 0 0 0 0 0 0 0 0 0 0 0 0 0 0 0 0 0 0 0 0 0 0 0 0 0 0 0 0 0 0 0 0 0 0 0 0 0 0 0 0 0 0 0 0 0 0 0 0 0 0 0 0 0 0 0 0 0 0 0 0 0 0 0 0 0 0 0 0 0 0 0 0 0 0 0 3692 3653 3653 3816 3816 3816 3774 3774 3732 3732 3692 3692 3692 3692 3692 3692 3692 3692 3692 3692 3692 3732 3732 3816 3903 3903 3903 3994 4983 4983 4983 4983 5056 5056 5056 5056 5056 5132 3903 3903 3859 3859 3859 3903 3903 3903 3903 3903 5056 5056 5056 5056 5056 5056 5056 5056 5056 5056 4983 4983 3010 2984 2984 2984 2984 2958 2958 2958 2933 2933 2908 2908 2908 2908 2908 2908 2933 2933 2958 2933 2933 2933 2933 2933 2933 2933 2933 2933 2958 2958 2933 2933 3692 3692 3653 3614 3539 3539 3539 3539 3539 3539 3539 3539 2933 2933 2933 2933 2958 2933 2933 2933 2933 2933 2958 2958 2933 2933 0 0 0 0 0 0 0 0 0 0
0 0 0 0 0 0 0 0 0 0 0 0 0 0 0 0 0 0 0 0 0 0 0 0 0 0 0 0 0 0 4774 4774 4774 4774 4774 4842 4842 4911 4911 4911 4911 4911 4911 4911 4983 4983 4983 5056 5056 5132 5132 5132 5132 5132 5132 5132 5056 5056 5056 5056 5056 5056 5132 5132 5132 5132 5132 5132 5056 5056 4983 4983 5056 5132 5056 5056 5056 4911 4911 4842 4842 4842 5056 5056 5056 5056 5132 5132 5132 5210 5210 5291 5291 5291 5291 0 0 0 5132 5132 5132 5132 5132 5132 5132 0 0 0 0 0 0 0 5132 5056 5056 5132 5132 5132 5291 5374 5291 5291 5291 5210 5132 5132 5132 5132 5132 2789 2789 2789 2789 2767 2767 2767 2767 2767 2767 2767 2767 2767 2767 2767 2767 2767 2767 2767 2767 2767 2767 2767 2767 2767 2767 2767 2767 2767 2767 2767 2767 2767 2767 2767 2767 2767 2767 2767 2789 2789 2789 2812 2812 2812 2812 2835 2835 2835 2835 2835 2835 2859 2859 2859 2883 2908 2933 2958 2958 2958 2958 2933 2933 2908 2883 2883 2883 2859 2859 2859 2859 2859 2859 2859 2859 2859 2859 2859 2883 2883 2883 2883 2883 2933 2933 2078 2078 2078 2078 2078 2078 2078 2078 2090 2883 2883 2883 2908 2908 2908 2908 2908 2933 2933 2933 2933 2933 2933 2958 2958 2958 2958 2958 2958 2984 3010 3037 3037 3037 3037 3010 3010 2984 2958 2958 2933 2933 2933 2933 2933 2908 2908 2908 2908 2908 2908 2933 2933 2933 2933 2908 2908 2908 2908 2908 2908 2933 2933 2933 2933 2933 2933 2933 2933 2933 2933 2933 2933 2933 2156 2156 2156 2156 2156 2156 2156 2156 2156 2156 2170 0 0 0 0 0 0 0 0 0 0 5734 5734 5734 5640 5640 5640 5640 5734 5640 5640 5640 5640 5640 5548 5460 5460 5548 5548 0 5640 5640 5640 5548 5548 5460 5460 5460 5460 5460 5460 5548 5548 5460 5460 5460 5548 5548 5548 5548 5548 5548 5548 5548 5548 5548 0 2226 2226 2212 2212 2212 2212 2212 2226 2226 2226 2226 2241 2241 2241 2256 2271 2271 2271 2271 2271 2271 2271 2271 2256 2256 2256 2256 2256 2256 2256 2256 2256 2256 2271 2271 2271 2271 2271 2271 2271 2271 2271 2271 2271 2271 2271 2271 2271 2286 2271 2271 2286 2271 2271 2271 2286 2286 2271 2271 2271 2271 2271 2271 2271 2271 2271 2271 2271 2271 2271 2271 2271 2271 2271 2271 2271 2286 2301 2333 0 0 0 0 0 0 0 0 0 0 0 0 0 0 0 0 0 0 0 0 0 0 0 0 0 0 0 0 0 0 0 0 0 0 0 0 0 0 0 0 0 0 0 0 0 0 0 0 0 0 0 0 0 0 0 0 0 0 0 0 0 0 0 0 0 0 0 0 0 0 0 0 0 0 0 0 0 3692 3653 3653 3774 3774 3774 3774 3774 3732 3732 3692 3692 3692 3692 3692 3692 3692 3692 3692 3692 3692 3732 3732 3859 3903 3948 3948 3994 4911 4983 4983 4983 5056 5056 5056 5056 5056 5132 3903 3903 3903 3903 3903 3903 3903 3903 3903 3903 5056 5056 5056 5056 5056 5056 5056 5056 5056 5056 5056 5056 3010 2984 2984 2958 2958 2958 2958 2958 2933 2933 2908 2908 2908 2908 2908 2908 2933 2933 2958 2933 2933 2933 2933 2933 2933 2933 2933 2933 2958 2958 2958 3692 3692 3653 3653 3614 3576 3576 3576 3539 3539 3539 3539 3539 2933 2933 2933 2933 2958 2933 2933 2933 2933 2933 2958 2958 2933 2933 0 0 0 0 0 0 0 0 0 0
0 0 0 0 0 0 0 0 0 0 0 0 0 0 0 0 0 0 0 0 0 0 0 0 0 0 0 0 0 0 4774 4774 4774 4774 4774 4774 4774 4842 4842 4842 4842 4842 4842 4911 4911 4983 4983 4983 4983 5056 5056 5056 5056 5056 5056 5056 5056 5056 4911 4911 4983 4983 4983 5132 5132 5132 5132 5210 5056 5056 4983 4983 5056 5056 5056 4983 4911 4911 4842 4774 4774 4842 4983 5056 5056 5056 5132 5132 5132 5210 5210 5210 5291 5210 5132 5132 5132 5132 5132 5132 5132 5132 5132 5132 5132 0 0 0 0 0 5210 5132 5132 5056 5056 5132 5132 5132 5132 5374 5291 5291 5291 5210 5132 5132 5132 5132 5132 2789 2789 2767 2767 2767 2767 2767 2789 2767 2767 2767 2767 2767 2767 2767 2767 2767 2767 2767 2767 2767 2767 2767 2767 2767 2767 2767 2767 2767 2767 2767 2767 2767 2767 2767 2767 2767 2767 2767 2789 2789 2789 2812 2789 2789 2812 2812 2835 2835 2835 2835 2835 2859 2859 2859 2883 2908 2908 2958 2958 2958 2958 2933 2933 2908 2908 2883 2883 2883 2883 2859 2859 2859 2859 2859 2859 2859 2859 2883 2883 2883 2883 2859 2859 2908 2908 2908 2078 2078 2078 2078 2090 2090 2090 2090 2883 2883 2883 2883 2908 2908 2908 2908 2933 2933 2933 2933 2933 2933 2958 2958 2958 2958 2958 2958 2984 2984 3010 3037 3037 3037 3010 3010 2984 2958 2958 2933 2933 2933 2933 2933 2908 2908 2908 2908 2908 2908 2908 2933 2933 2933 2908 2908 2908 2908 2908 2908 2933 2933 2933 2933 2933 2933 2933 2933 2933 2933 2933 2933 2933 2156 2156 2156 2156 2156 2156 2156 2156 2156 2156 2170 0 0 0 0 0 0 0 0 5548 5548 5640 5640 5640 5640 5640 5640 5640 5548 5548 5548 5548 5548 5548 5460 5460 5460 5460 5460 5548 5640 5640 5548 5548 5548 5460 5460 5374 5374 5291 5291 5460 5460 5460 5460 5460 5460 5460 5548 5548 5548 5548 5548 5548 5548 5548 5548 2226 2226 2212 2212 2226 2212 2212 2226 2226 2226 2226 2241 2241 2241 2256 2256 2271 2271 2256 2256 2256 2256 2256 2256 2256 2256 2256 2256 2256 2256 2256 2256 2271 2271 2271 2271 2271 2271 2271 2271 2271 2271 2271 2271 2271 2271 2271 2271 2286 2271 2271 2271 2271 2271 2271 2286 2286 2271 2271 2271 2271 2271 2271 2271 2271 2271 2271 2271 2271 2271 2271 2271 2271 2271 2271 2271 2286 2301 2317 0 0 0 0 0 0 0 0 0 0 0 0 0 0 0 0 0 0 0 0 0 0 0 0 0 0 0 0 0 0 0 0 0 0 0 0 0 0 0 0 0 0 0 0 0 0 0 0 0 0 0 0 0 0 0 0 0 0 0 0 0 0 0 0 0 0 0 0 0 0 0 0 0 0 0 0 0 0 3653 3653 3774 3774 3774 3732 3732 3732 3692 3692 3692 3692 3692 3692 3692 3692 3692 3692 3692 3732 3732 3774 3859 3903 3948 3994 4041 4911 4983 4983 4983 5056 5056 5056 5056 5132 5132 3859 3859 3859 3903 3903 3903 3903 3903 3903 3903 5056 5056 5056 5056 5056 5056 5056 5056 4983 4983 5056 3010 3010 2984 2984 2958 2958 2958 2958 2958 2958 2958 2933 2933 2933 2933 2933 2933 2933 2933 2958 2933 2933 2933 2933 2933 2933 2933 2933 2958 2984 2984 3732 3692 3653 3653 3653 3614 3576 3576 3576 3539 3539 3539 3539 3539 3539 2933 2933 2933 2958 2933 2933 2933 2933 2933 2958 2958 2933 2933 0 0 0 0 0 0 0 0 0 0
0 0 0 0 0 0 0 0 0 0 0 0 0 0 0 0 0 0 0 0 0 0 0 0 0 0 0 0 0 0 4774 4774 4774 4708 4708 4708 4774 4774 4774 4842 4842 4842 4842 4911 4911 4911 4983 4983 4983 4983 4983 5056 5056 5056 5056 5056 5056 5056 4911 4911 4911 4911 4911 4911 4911 4911 4911 5210 5210 4983 4983 4983 4983 5056 4983 4911 4911 4842 4842 4774 4774 4842 4983 5056 5056 5056 5132 5132 5132 5132 5132 5210 5210 5210 5132 5132 5132 5132 5132 5132 5132 5132 5132 5132 5132 0 0 0 0 0 5210 5132 5132 5132 5132 5132 5132 5132 5132 5291 5291 5291 5210 5132 5132 5132 5132 5056 5056 5056 5056 2767 2767 2767 2767 2767 2767 2767 2767 2767 2767 2767 2767 2767 2767 2767 2767 2767 2767 2767 2767 2767 2767 2767 2767 2767 2767 2767 2767 2767 2767 2767 2767 2767 2767 2767 2767 2789 2789 2789 2812 2812 2789 2789 2812 2812 2835 2835 2835 2835 2835 2859 2859 2859 2883 2908 2908 2933 2933 2958 2958 2933 2933 2933 2908 2883 2883 2883 2883 2859 2859 2859 2859 2859 2859 2859 2859 2883 2883 2859 2859 2859 2859 2859 2908 2078 2078 2078 2078 2078 2090 2090 2090 2090 2883 2883 2883 2883 2908 2908 2908 2908 2933 2933 2933 2933 2933 2933 2958 2958 2958 2958 2958 2958 2984 2984 3010 3037 3064 3037 3010 3010 2984 2958 2958 2933 2933 2933 2933 2933 2933 2958 2933 2933 2908 2908 2908 2933 2933 2908 2908 2908 2908 2908 2908 2908 2933 2933 2933 2933 2933 2933 2933 2933 2933 2933 2933 2933 2170 2156 2156 2156 2156 2156 2170 2156 2156 2156 2170 2170 0 0 0 0 0 0 0 0 5548 5548 5640 5548 5548 5640 5640 5548 5548 5548 5548 5548 5548 5548 5548 5460 5460 5374 5374 5374 5548 5548 5548 5548 5460 5460 5460 5374 5374 5374 5291 5291 5460 5460 5460 5460 5460 5460 5460 5460 5460 5460 5548 5548 5548 5548 5548 5548 2226 2226 2212 2212 2226 2212 2212 2226 2226 2226 2226 2241 2241 2241 2241 2256 2256 2256 2256 2256 2256 2256 2256 2241 2241 2256 2256 2256 2256 2256 2256 2271 2271 2271 2271 2271 2271 2271 2271 2271 2271 2271 2271 2271 2271 2271 2271 2271 2286 2271 2271 2271 2271 2271 2271 2286 2286 2271 2271 2271 2271 2271 2271 2271 2271 2271 2271 2271 2271 2271 2271 2271 2271 2271 2271 2271 2286 2301 2301 2301 0 0 0 0 0 0 0 0 0 0 0 0 0 0 0 0 0 0 0 0 0 0 0 0 0 0 0 0 0 0 0 0 0 0 0 0 0 0 0 0 0 0 0 0 0 0 0 0 0 0 0 0 0 0 0 0 0 0 0 0 0 0 0 0 0 0 0 0 0 0 0 0 0 0 0 0 0 0 3774 3774 3774 3732 3732 3732 3732 3692 3692 3692 3692 3692 3692 3692 3692 3692 3692 3692 3732 3732 3774 3859 3903 3994 4983 4983 4983 4983 4983 4983 5056 5056 5132 5132 5132 5132 3859 3859 3859 3903 3903 3903 3903 3903 3903 3903 5056 5056 5056 5056 5056 5056 5056 5056 4983 4983 4983 2958 2958 2958 2958 2958 2958 2958 2958 2958 2958 2958 2933 2933 2933 2933 2933 2933 2958 2958 2958 2958 2958 2958 2933 2933 2933 2933 2958 2958 3692 3692 3732 3653 3653 3653 3614 3614 3576 3576 3576 3576 3576 3539 3539 3539 3539 2933 2933 2933 2933 2933 2933 2933 2933 2933 2958 2958 2958 2958 0 0 0 0 0 0 0 0 0 0
0 0 0 0 0 0 0 0 0 0 0 0 0 0 0 0 0 0 0 0 0 0 0 0 0 0 0 0 0 0 4774 4774 4708 4708 4645 4645 4708 4774 4774 4774 4774 4842 4842 4911 4911 4911 4911 4983 4983 4983 4983 5056 5056 5056 5056 5056 5056 5056 4911 4911 4911 4911 4911 4911 4911 4911 4911 4983 4983 4983 4983 4983 4983 5056 4983 4911 4911 4842 4842 4774 4774 4842 4842 4911 4983 4983 4983 4983 4983 4983 5056 5056 5056 5132 5056 5056 5056 5056 5056 5056 5056 5056 5132 5132 5132 0 0 0 0 0 5132 5132 5132 5056 5056 5056 5056 5132 5132 5291 5291 5210 5132 5132 5132 5132 5132 5056 5056 4983 4983 4983 2767 2767 2767 2767 2767 2767 2767 2767 2767 2767 2767 2767 2767 2767 2767 2767 2767 2767 2767 2767 2789 2767 2767 2767 2767 2767 2767 2767 2767 2767 2767 2767 2767 2767 2789 2789 2789 2812 2812 2812 2789 2789 2812 2835 2835 2835 2835 2835 2859 2859 2859 2859 2883 2883 2908 2933 2933 2958 2958 2933 2933 2933 2908 2883 2883 2883 2883 2883 2883 2859 2859 2859 2859 2859 2859 2883 2883 2859 2859 2859 2859 2859 2859 2078 2078 2078 2078 2078 2090 2090 2090 2090 2116 2883 2883 2908 2908 2908 2908 2908 2908 2933 2933 2933 2933 2933 2958 2958 2958 2984 2958 2958 2958 2984 3010 3064 3064 3037 3037 2116 2116 2129 2129 2129 2129 2170 2933 2933 2933 2958 2958 2170 2170 2156 2156 2156 2156 2156 2156 2908 2908 2908 2908 2908 2933 2933 2933 2933 2933 2933 2933 2933 2933 2933 2933 2184 2156 2156 2156 2156 2156 2156 2170 2156 2156 2156 2170 2170 0 0 0 0 0 0 0 0 0 0 5548 5548 5548 5548 5548 5460 5460 5460 5460 5548 5548 5548 5460 5460 5374 5374 5374 5291 5291 5460 5460 5460 5460 5460 5460 5374 5374 5374 5291 5291 5460 5548 5460 5460 5460 5460 5460 5460 5460 5460 5460 5548 5548 5548 5548 5548 5548 2212 2212 2212 2226 2226 2226 2226 2226 2226 2226 2241 2241 2241 2241 2256 2256 2256 2256 2256 2256 2256 2256 2241 2241 2256 2256 2256 2256 2271 2271 2271 2271 2271 2271 2271 2271 2271 2271 2271 2271 2271 2271 2286 2271 2271 2271 2271 2286 2271 2271 2271 2271 2271 2271 2286 2286 2271 2271 2271 2271 2271 2271 2271 2271 2271 2271 2271 2271 2271 2271 2271 2271 2271 2271 2286 2286 2286 2286 2286 0 0 0 0 0 0 0 0 0 0 0 0 0 0 0 0 0 0 0 0 0 0 0 0 0 0 0 0 0 2212 2212 2212 2226 2226 0 0 0 0 0 0 0 0 0 0 0 0 0 0 0 0 0 0 0 0 0 0 0 0 0 0 0 0 0 0 0 0 0 0 0 0 0 0 0 0 0 0 0 0 0 3732 3732 3732 3732 3732 3732 3692 3692 3692 3692 3692 3692 3692 3692 3692 3692 3692 3732 3732 3774 3859 3903 3903 4983 4983 4983 5056 5056 5056 5056 5056 5132 5132 5132 5210 3859 3859 3859 3903 3903 3903 3903 3903 3903 3903 5132 5056 5056 5132 5056 5056 5056 5056 5056 5056 2958 2958 2958 2958 2958 2958 2958 2958 2958 2958 2958 2958 2933 2933 2933 2933 2933 2933 2958 2958 3010 3010 3010 3010 2958 2958 2958 2958 2984 3732 3732 3732 3774 3614 3614 3614 3614 3614 3614 3576 3576 3576 3576 3576 3576 3576 3576 2933 2933 2933 2933 2933 2933 2933 2933 2933 2958 2958 2958 2958 0 0 0 0 0 0 0 0 0 0
0 0 0 0 0 0 0 0 0 0 0 0 0 0 0 0 0 0 0 0 0 0 0 0 0 0 0 0 0 0 4774 4708 4708 4708 4645 4645 4708 4708 4774 4774 4774 4774 4842 4842 4911 4911 4911 4911 4911 4911 4911 4983 4911 4911 4911 4983 4983 4911 4708 4708 4774 4842 4842 4842 4842 4842 4911 4911 4911 4842 4842 4842 4911 4983 4983 4911 4842 4842 4774 4774 4774 4842 4842 4911 4911 4983 4983 4983 4983 4983 4983 4983 4983 5056 4983 4983 4983 4983 4983 4911 4911 5056 5056 5056 4911 4911 4911 4983 4983 0 5056 5056 5056 5056 5056 5056 5056 5056 5132 5132 5132 5132 5132 5132 5132 5132 5132 5056 5056 4983 4983 4983 2767 2767 2767 2789 2789 2789 2767 2767 2767 2767 2767 2767 2767 2767 2767 2767 2767 2767 2789 2789 2789 2789 2789 2789 2767 2767 2767 2767 2767 2767 2767 2767 2767 2767 2767 2789 2789 2812 2812 2812 2789 2789 2812 2835 2835 2835 2835 2835 2859 2859 2859 2859 2883 2883 2908 2933 2933 2958 2958 2958 2958 2933 2933 2933 2883 2883 2883 2883 2883 2859 2859 2859 2859 2859 2859 2883 2883 2859 2859 2859 2859 2859 2859 2078 2078 2078 2078 2078 2090 2090 2090 2090 2116 2859 2859 2883 2883 2883 2883 2908 2908 2933 2933 2933 2933 2933 2958 2958 2958 2958 2958 2958 2958 2984 3010 2078 2078 2078 2090 2103 2116 2116 2129 2129 2129 2143 2143 2143 2143 2143 2143 2143 2143 2156 2156 2156 2156 2156 2143 2129 2129 2129 2129 2129 2933 2933 2933 2933 2933 2933 2933 2933 2933 2933 2933 2156 2156 2156 2170 2156 2156 2156 2156 2170 2170 2170 2170 2184 0 0 0 0 0 0 0 0 0 0 5548 5548 5548 5548 5548 5460 5460 5460 5460 5548 5374 5374 5460 5460 5374 5374 5374 5291 5291 5374 5374 5374 5374 5460 5374 5374 5374 5291 5291 5291 5460 5210 5210 5210 5210 5291 5291 5374 5374 5374 5374 5460 5460 5548 5548 5548 2212 2212 2212 2212 2212 2226 2226 2226 2226 2226 2226 2241 2241 2241 2241 2256 2256 2256 2256 2256 2256 2256 2256 2241 2241 2256 2256 2256 2256 2271 2271 2271 2271 2271 2271 2271 2271 2271 2271 2271 2271 2271 2271 2286 2286 2286 2286 2286 2286 2271 2271 2286 2286 2286 2286 2286 2286 2271 2271 2271 2271 2271 2271 2271 2271 2271 2271 2271 2271 2271 2271 2271 2271 2271 2271 2286 2286 2271 2271 2271 0 0 0 0 0 0 0 0 0 0 0 0 0 0 0 0 0 0 0 0 0 0 0 0 0 0 0 0 2184 2184 2198 2212 2212 2212 2212 2212 0 0 0 0 0 0 0 0 0 0 0 0 0 0 0 0 0 0 0 0 0 0 0 0 0 0 0 0 0 0 0 0 0 0 0 0 0 0 0 0 0 0 3692 3692 3692 3692 3692 3692 3692 3692 3692 3692 3692 3692 3692 3692 3692 3692 3692 3692 3732 3732 3732 3859 3859 5056 5056 4983 4983 5056 3399 3399 3399 3399 5132 5210 5210 5132 3859 3859 3859 3859 3859 3859 3859 3859 3903 3903 3433 3433 3433 3433 3433 3433 3433 3433 3399 3365 2984 2958 2958 2958 2958 2958 2958 2958 2958 2958 2958 2958 2933 2933 2933 2933 2958 2958 2958 2958 3010 3010 3037 3064 3010 2984 2984 2984 2984 3037 3614 3614 3614 3576 3576 3614 3614 3614 3576 3576 3576 3576 3576 3576 3576 3576 3576 2958 2933 2933 2933 2958 2958 2958 2933 2933 2958 2958 2958 2958 0 0 0 0 0 0 0 0 0 0
0 0 0 0 0 0 0 0 0 0 0 0 0 0 0 0 0 0 0 0 0 0 0 0 0 0 0 0 0 0 4774 4708 4708 4708 4708 4708 4708 4708 4708 4708 4708 4708 4708 4774 4842 4842 4842 4911 4911 4911 4911 4983 4911 4911 4911 4911 4911 4842 4708 4708 4708 4708 4842 4842 4842 4842 4842 4911 4911 4842 4842 4842 4911 4983 4983 4911 4842 4842 4774 4774 4774 4842 4842 4842 4842 4911 4911 4911 4911 4911 4983 4983 4983 4983 4911 4911 4911 4842 4842 4842 4911 4911 5056 4983 4911 4911 4911 4983 5056 5132 5056 5056 5056 5056 4983 4983 4983 5056 5056 5056 5132 5132 5132 5132 5132 5132 5132 5056 5056 4983 4983 4983 2744 2744 2744 2767 2767 2789 2767 2767 2767 2767 2767 2767 2767 2767 2767 2767 2767 2767 2767 2767 2789 2789 2789 2789 2767 2767 2767 2767 2789 2789 2789 2789 2789 2767 2767 2789 2789 2812 2812 2812 2812 2812 2812 2835 2835 2835 2835 2835 2859 2859 2859 2859 2883 2883 2908 2933 2933 2958 2958 2958 2958 2958 2933 2933 2933 2908 2883 2883 2883 2859 2859 2859 2859 2859 2859 2883 2883 2859 2859 2859 2859 2883 2078 2078 2078 2078 2078 2078 2090 2090 2090 2090 2116 2859 2859 2883 2883 2883 2883 2908 2908 2908 2908 2933 2933 2933 2958 2958 2958 2958 2984 2129 2116 2103 2090 2078 2078 2078 2090 2103 2116 2116 2129 2129 2129 2129 2129 2129 2129 2129 2143 2143 2143 2143 2143 2143 2143 2143 2143 2129 2129 2129 2129 2129 2143 2143 2143 2156 2156 2170 2170 2170 2170 2170 2170 2156 2156 2156 2170 2156 2156 2156 2156 2170 2170 2170 2170 2184 0 0 0 0 0 0 0 0 0 5291 5291 5374 5374 5460 5460 5374 5374 5374 5460 5460 5374 5374 5460 5460 5374 5374 5374 5291 5291 5374 5374 5374 5374 5374 5374 5374 5374 5291 5291 5291 5291 5210 5210 5210 5210 5291 5291 5291 5291 5291 5291 5291 5210 5210 5210 5210 2212 2212 2212 2212 2212 2226 2226 2226 2226 2226 2226 2241 2241 2241 2241 2256 2256 2256 2256 2256 2256 2256 2256 2256 2256 2256 2256 2271 2271 2271 2271 2271 2271 2271 2271 2271 2271 2271 2271 2271 2271 2271 2271 2286 2286 2286 2286 2286 2286 2286 2286 2286 2286 2286 2286 2286 2286 2271 2271 2271 2271 2271 2271 2286 2286 2271 2271 2271 2271 2271 2271 2271 2271 2271 2271 2271 2286 2256 2256 2256 0 0 0 0 0 0 0 0 2212 2212 2226 2226 2212 2212 2212 2226 0 2198 2198 2198 2198 2198 0 2170 2170 2184 2184 2184 2184 2184 2198 2198 2212 2212 2212 2198 2198 0 0 0 0 0 0 0 0 0 0 0 0 0 0 0 0 0 0 0 0 0 0 0 0 0 0 0 0 0 0 0 0 0 0 0 0 0 0 0 0 0 3653 3653 3692 3692 3692 3692 3692 3692 3692 3692 3692 3692 3692 3692 3692 3692 3692 3692 3692 3692 3399 3399 3365 3365 3365 3365 3399 3399 3399 3399 3399 3399 3399 3399 3399 3399 3399 3399 3399 3433 3859 3859 3859 3859 3433 3433 3399 3399 3399 3433 3433 3399 3399 3365 3365 3300 2984 2984 2984 2958 2958 2958 2958 2958 2958 2958 2958 2958 2933 2933 2933 2933 2958 2958 2958 2958 3010 3010 3037 3037 3120 3120 3120 3010 3010 3037 3010 3614 3614 3576 3576 3614 3614 3614 3576 3576 3576 3576 3576 3576 3576 3576 2984 2958 2958 2958 2958 2958 2958 2958 2958 2958 2958 2958 2958 2958 0 0 0 0 0 0 0 0 0 0
0 0 0 0 0 0 0 0 0 0 0 0 0 0 0 0 0 0 0 0 0 0 0 0 0 0 0 0 0 0 4774 4708 4708 4708 4708 4645 4645 4645 4708 4708 4708 4645 4645 4708 4708 4842 4842 4842 4842 4983 4983 4983 4842 4842 4842 4842 4842 4774 4708 4708 4708 4708 4774 4774 4774 4774 4842 4842 4842 4842 4842 4842 4842 4842 4774 4774 4774 4774 4774 4774 4774 4842 4842 4842 4842 4911 4911 4911 4911 4911 4911 4911 4911 4842 4842 4842 4842 4842 4842 4842 4842 4842 4911 4911 4911 4911 4911 4983 5056 5132 5056 5056 5056 5132 4983 4983 4983 5056 5056 5056 5056 5056 5056 5056 5056 5132 5132 5132 5132 5056 5056 5056 2744 2744 2744 2767 2767 2789 2789 2789 2789 2789 2767 2767 2767 2767 2767 2767 2767 2767 2767 2767 2789 2789 2789 2789 2789 2789 2767 2767 2789 2789 2789 2789 2789 2767 2767 2789 2789 2812 2812 2812 2812 2812 2812 2835 2835 2835 2835 2835 2835 2859 2859 2859 2883 2883 2883 2933 2933 2958 2958 2958 2958 2933 2933 2933 2908 2908 2883 2883 2883 2859 2859 2859 2859 2859 2859 2883 2883 2859 2859 2859 2859 2859 2078 2078 2078 2078 2078 2078 2090 2090 2090 2090 2103 2859 2859 2859 2859 2883 2883 2883 2908 2908 2908 2933 2933 2958 2958 2143 2129 2129 2129 2129 2116 2103 2090 2090 2090 2090 2090 2103 2116 2116 2116 2129 2129 2129 2129 2129 2129 2129 2129 2129 2129 2143 2143 2143 2143 2143 2143 2129 2129 2129 2129 2129 2143 2143 2143 2156 2156 2170 2170 2170 2170 2170 2170 2170 2156 2156 2156 2156 2170 2170 2170 2170 2170 2170 2170 2184 0 0 0 0 0 0 0 0 0 5291 5291 5291 5291 5374 5374 5291 5291 5374 5374 5374 5374 5374 5460 5460 5374 5374 5374 5291 5291 5374 5374 5374 5374 5374 5374 5374 5374 5374 5291 5291 5291 5210 5210 5210 5210 5210 5210 5210 5210 5210 5291 5291 5210 5210 5210 5210 2212 2212 2212 2212 2226 2226 2226 2226 2226 2226 2226 2241 2241 2241 2241 2256 2256 2256 2256 2256 2256 2256 2256 2256 2256 2256 2271 2271 2271 2271 2271 2271 2271 2271 2271 2271 2271 2271 2271 2271 2271 2271 2286 2286 2286 2286 2286 2286 2286 2286 2271 2271 2271 2271 2271 2271 2271 2271 2271 2271 2271 2271 2271 2271 2271 2256 2256 2256 2256 2256 2256 2256 2256 2271 2271 2271 2271 2226 2226 2226 0 0 0 0 0 0 0 2212 2212 2212 2226 2226 2212 2212 2212 2226 2226 2198 2198 2198 2198 2184 2184 2170 2170 2184 2184 2184 2184 2184 2198 2198 2198 2212 2198 2198 2184 2184 0 0 0 0 0 0 0 0 0 0 0 0 0 0 0 0 0 0 0 0 0 0 0 0 0 0 0 0 0 0 0 0 0 0 0 0 0 0 0 0 3653 3653 3692 3692 3692 3692 3692 3692 3692 3692 3692 3692 3692 3692 3692 3692 3692 3692 3653 3433 3399 3399 3365 3365 3365 3365 3399 3399 3365 3365 3399 3399 3399 3365 3365 3365 3399 3399 3399 3399 3399 3399 3399 3399 3399 3399 3399 3399 3399 3399 3399 3399 3365 3365 3333 3300 3238 3064 3010 3010 2984 2984 2984 2958 2958 2958 2958 2958 2933 2933 2958 2958 2958 2958 2958 2958 3010 3010 3037 3037 3037 3037 3037 3010 3010 3037 3010 2984 2984 2984 2984 2984 3614 3614 3614 3614 3614 3614 3010 3010 2984 2984 2984 2984 2958 2958 2958 2958 2958 2984 2958 2958 2984 2984 2984 0 0 0 0 0 0 0 0 0 0 0
0 0 0 0 0 0 0 0 0 0 0 0 0 0 0 0 0 0 0 0 0 0 0 0 0 0 0 0 0 0 4774 4708 4708 4708 4708 4645 4645 4645 4708 4708 4708 4645 4645 4645 4708 4708 4774 4774 4708 0 4842 4842 4842 4842 4774 4774 4774 4708 4708 4708 4708 4708 4774 4708 4708 4774 4774 4842 4842 4774 4774 4774 4774 4774 4774 4774 4774 4774 4774 4774 4774 4842 4842 4842 4842 4911 4911 4911 4911 4911 4911 4911 4911 4842 4842 4774 4774 4774 4842 4842 4842 4842 4911 4911 4842 4842 4911 4911 4983 4911 4911 4911 4983 5056 4983 4983 4983 5056 5056 5056 5056 5056 4983 4983 4983 4983 4983 5132 5132 5132 5132 2744 2744 2744 2744 2767 2767 2789 2789 2789 2789 2789 2789 2789 2789 2767 2767 2767 2767 2767 2789 2789 2789 2789 2789 2789 2789 2789 2767 2767 2789 2789 2789 2789 2789 2789 2789 2789 2789 2812 2812 2835 2812 2812 2812 2835 2835 2835 2835 2835 2835 2859 2859 2859 2883 2883 2883 2933 2933 2958 2958 2958 2958 2933 2933 2908 2908 2908 2883 2883 2883 2859 2859 2859 2859 2859 2859 2859 2859 2859 2835 2835 2859 2859 2078 2078 2078 2078 2078 2078 2090 2090 2090 2103 2103 2103 2090 2090 2859 2859 2859 2883 2883 2143 2143 2143 2143 2143 2143 2129 2129 2129 2129 2129 2116 2116 2116 2116 2116 2116 2116 2116 2116 2116 2116 2129 2129 2129 2129 2129 2129 2129 2129 2129 2129 2143 2143 2143 2143 2143 2143 2143 2129 2129 2143 2143 2143 2143 2143 2156 2156 2156 2156 2170 2170 2170 2170 2170 2170 2170 2156 2156 2170 2170 2170 2170 2170 2170 2170 2184 0 0 0 0 0 0 0 0 0 5210 5210 5291 5291 5291 5291 5291 5291 5291 5291 5291 5291 5291 5460 5460 5460 5460 5374 5374 5374 5374 5374 5374 5291 5291 5291 5374 5291 5291 5291 5291 5291 5210 5210 5210 5210 5210 5132 5132 5132 5132 5132 5210 5132 5132 5210 5210 2226 2226 2226 2226 2226 2226 2226 2226 2226 2241 2241 2241 2241 2241 2241 2256 2256 2256 2256 2256 2256 2256 2256 2256 2256 2256 2271 2271 2271 2271 2271 2271 2271 2271 2271 2271 2271 2271 2271 2271 2271 2271 2271 2271 2286 2286 2286 2286 2286 2271 2271 2271 2271 2271 2271 2271 2271 2256 2256 2271 2271 2271 2271 2271 2256 2241 2241 2256 2256 2256 2241 2241 2241 2241 2241 2241 2241 2212 2212 2212 2198 2198 2198 2184 2184 2198 2198 2198 2198 2212 2212 2212 2198 2184 2184 2198 2198 2184 2184 2184 2184 2170 2170 2170 2170 2184 2184 2184 2184 2184 2198 2198 2198 2198 2198 2198 2184 2170 2170 2156 2156 2156 2156 0 0 0 0 0 0 0 0 0 0 0 0 0 0 0 0 0 0 0 0 0 0 0 0 0 0 0 0 0 0 0 0 0 0 0 0 3653 3653 3653 3692 3692 3692 3692 3692 3692 3692 3692 3692 3692 3692 3692 3692 3692 3653 3433 3433 3399 3399 3365 3365 3365 3365 3399 3365 3365 3365 3365 3365 3365 3365 3365 3399 3399 3399 3399 3399 3399 3399 3365 3365 3365 3365 3365 3365 3365 3365 3365 3365 3333 3333 3300 3238 3064 3064 3010 3010 2984 2984 2958 2958 2958 2958 2984 2933 2933 2958 2958 2958 2984 2984 2984 3010 3010 3037 3037 3037 3010 3010 3010 3010 3010 2984 2958 2958 2958 2958 2958 2958 2958 2958 2984 2984 3010 3010 2984 2984 2984 2984 2984 2958 2958 2958 2958 2958 2984 2958 2958 2984 2984 2984 0 0 0 0 0 0 0 0 0 0 0
0 0 0 0 0 0 0 0 0 0 0 0 0 0 0 0 0 0 0 0 0 0 0 0 0 0 0 0 0 0 4774 4774 4708 4708 4708 4708 4708 4708 4708 4708 4708 4645 4645 4645 4645 4708 4708 4708 4708 4708 0 4708 4708 4708 4708 4708 4774 4708 4708 4708 4708 4708 4708 4708 4708 4708 4774 4774 4774 4708 4708 4708 4708 4708 4645 4645 4645 4582 4842 4842 4842 4842 4842 4842 4911 4911 4842 4842 4842 4842 4842 4842 4774 4774 4774 4774 4708 4708 4774 4774 4842 4842 4911 4911 4842 4842 4911 4911 4911 4911 4911 4911 4911 5056 4983 4983 4983 5056 5056 5056 4983 4983 4983 4983 4911 4911 4911 0 4842 0 0 0 0 2789 2789 2789 2789 2789 2789 2789 2789 2789 2789 2789 2789 2767 2767 2767 2767 2767 2767 2767 2789 2789 2789 2789 2789 2789 2767 2767 2767 2789 2767 2767 2767 2789 2789 2789 2789 2812 2812 2835 2835 2835 2835 2835 2835 2835 2835 2835 2835 2859 2883 2883 2883 2883 2908 2933 2933 2958 2958 2958 2958 2933 2933 2908 2908 2908 2908 2883 2883 2883 2883 2883 2883 2859 2859 2859 2859 2859 2835 2835 2859 2859 2078 2078 2078 2078 2078 2090 2090 2090 2090 2103 2103 2103 2090 2090 2103 2859 2859 2129 2129 2143 2143 2143 2143 2143 2129 2129 2129 2129 2129 2129 2116 2116 2116 2116 2129 2116 2116 2116 2116 2116 2129 2129 2129 2129 2129 2129 2129 2129 2129 2129 2129 2143 2143 2143 2143 2143 2143 2143 2143 2143 2156 2156 2156 2156 2170 2156 2156 2156 2156 2170 2170 2170 2170 2170 2170 2170 2170 2170 2170 2170 2170 2170 2170 2170 0 0 0 0 0 0 0 0 0 0 5291 5210 5210 5291 5291 5291 5291 5291 5291 5291 5291 5291 5291 5291 5374 5460 5460 5374 5374 5291 5291 5291 5291 5291 5210 5210 5210 5291 5291 5291 5210 5210 5291 5291 5210 5210 5132 5132 5132 5056 5056 5056 4911 4911 5056 5056 5056 2212 2212 2212 2212 2226 2226 2226 2226 2241 2241 2241 2241 2241 2241 2241 2241 2256 2256 2256 2256 2256 2256 2256 2256 2256 2256 2241 2241 2256 2256 2271 2271 2271 2271 2271 2271 2271 2271 2271 2271 2271 2256 2256 2271 2271 2271 2271 2271 2271 2271 2271 2271 2271 2271 2256 2256 2256 2256 2241 2241 2256 2256 2241 2226 2226 2226 2226 2226 2226 2226 2226 2212 2212 2212 2184 2184 2198 2198 2198 2198 2198 2184 2184 2184 2184 2184 2184 2198 2198 2198 2198 2198 2198 2198 2170 2170 2184 2184 2170 2170 2170 2170 2156 2156 2156 2156 2170 2170 2170 2170 2170 2184 2198 2198 2198 2198 2184 2184 2170 2156 2156 2156 2156 2156 2156 2143 2143 0 0 0 0 0 0 0 0 0 0 0 0 0 0 0 0 0 0 0 0 0 0 0 0 0 0 0 0 0 0 0 0 0 3653 3653 3653 3692 3692 3692 3692 3692 3692 3692 3692 3692 3692 3692 3692 3692 3692 3653 3433 3433 3399 3399 3365 3365 3365 3365 3365 3365 3365 3365 3365 3365 3365 3365 3365 3365 3365 3365 3365 3365 3333 3333 3333 3333 3333 3333 3333 3365 3333 3333 3333 3333 3300 3300 3269 3238 3064 3064 3037 3010 2984 2984 2958 2958 2958 2958 2984 2958 2958 2958 2958 2958 2984 2984 2984 2984 2984 3010 3010 3010 3010 3010 3010 3010 3010 2984 2958 2958 2958 2958 2958 2958 2958 2958 2958 2958 2984 2984 2984 2984 2958 2958 2984 2958 2958 2958 2984 2984 2984 2984 2984 2984 2984 2984 0 0 0 0 0 0 0 0 0 0 0
0 0 0 0 0 0 0 0 0 0 0 0 0 0 0 0 0 0 0 0 0 0 0 0 0 0 0 0 0 0 4774 4774 4708 4708 4708 4645 4645 4645 4708 4708 4645 4645 4645 4645 4645 4708 4708 4708 4708 4708 4708 4645 4645 4645 4708 4708 4708 4708 4708 4708 4708 4708 4708 4708 4708 4708 4774 4774 4774 4645 4645 4645 4645 4645 4582 4582 4582 4582 4582 4842 4774 4774 4774 4774 4842 4842 4774 4774 4842 4774 4774 4774 4708 4708 4708 4708 4708 4708 4708 4774 4774 4842 4842 4842 4842 4842 4842 4842 4911 4842 4842 4842 4842 4983 4983 4983 4983 4983 5056 5056 4983 4983 4911 4911 4842 4842 4842 4842 4842 0 0 2883 2812 2812 2812 2812 2789 2789 2789 2789 2789 2789 2789 2789 2789 2767 2767 2767 2767 2767 2767 2767 2789 2789 2789 2789 2789 2789 2767 2767 2767 2789 2767 2767 2767 2767 2767 2789 2789 2812 2812 2812 2812 2835 2835 2835 2835 2835 2835 2835 2835 2859 2883 2883 2883 2883 2908 2933 2933 2958 2958 2958 2958 2933 2933 2908 2908 2908 2908 2883 2883 2883 2883 2883 2883 2859 2859 2859 2859 2859 2835 2835 2859 2859 2078 2078 2078 2078 2078 2078 2090 2090 2090 2103 2103 2103 2090 2090 2103 2103 2103 2116 2116 2129 2129 2129 2129 2129 2129 2129 2129 2129 2129 2129 2116 2116 2129 2116 2116 2116 2116 2129 2129 2129 2129 2129 2129 2129 2129 2129 2129 2129 2129 2129 2129 2143 2143 2143 2143 2143 2143 2143 2143 2143 2156 2156 2170 2170 2170 2156 2156 2156 2156 2170 2170 2170 2170 2170 2170 2170 2170 2170 2170 2170 2170 2170 2170 2170 0 0 0 0 0 0 0 0 0 0 5291 5210 5210 5291 5210 5210 5210 5210 5210 5210 5210 5291 5291 5291 5291 5460 5460 5291 5210 5210 5210 5210 5210 5210 5210 5210 5210 5210 5291 5291 5210 5210 5291 5291 5210 2090 2090 2090 2103 5056 5056 5056 4911 4911 4842 4842 4842 2212 2212 2184 2184 2212 2226 2226 2226 2241 2241 2241 2241 2241 2241 2226 2226 2241 2241 2241 2241 2241 2241 2241 2226 2226 2212 2198 2198 2198 2212 2226 2256 2256 2256 2256 2256 2256 2256 2256 2256 2241 2241 2241 2256 2256 2256 2256 2256 2271 2271 2271 2256 2241 2241 2226 2226 2241 2241 2226 2226 2212 2212 2198 2198 2198 2198 2198 2198 2198 2198 2170 2170 2170 2170 2156 2156 2170 2170 2170 2170 2170 2170 2170 2170 2170 2170 2170 2156 2156 2156 2156 2156 2170 2156 2156 2156 2170 2170 2170 2170 2156 2156 2156 2156 2156 2156 2156 2156 2156 2156 2156 2184 2184 2198 2184 2184 2184 2170 2170 2156 2156 2156 2156 2143 2143 2129 2129 2143 2143 0 0 0 0 0 0 0 0 0 0 0 0 0 0 0 0 0 0 0 0 0 0 0 0 0 0 0 0 0 0 0 3614 3614 3653 3692 3692 3692 3692 3692 3692 3692 3692 3692 3692 3692 3732 3692 3692 3653 3433 3433 3399 3399 3365 3365 3365 3365 3365 3333 3333 3333 3333 3333 3333 3333 3333 3333 3333 3333 3365 3333 3333 3333 3300 3300 3333 3333 3333 3333 3333 3333 3300 3300 3300 3269 3238 3178 3092 3092 3064 3010 3010 3010 2958 2958 2958 2958 2984 2958 2958 2958 2958 2984 2984 2984 2984 2984 2984 2984 2984 3010 3010 2984 2984 2984 3010 2984 2958 2958 2958 2958 2958 2958 2958 2958 2958 2958 2984 2984 2984 2958 2958 2958 2984 2984 2984 2984 2984 2984 2984 2984 2984 3010 2984 2984 0 0 0 0 0 0 0 0 0 0 0
0 0 0 0 0 0 0 0 0 0 0 0 0 0 0 0 0 0 0 0 0 0 0 0 0 0 0 0 0 0 4774 4708 4708 4708 4645 4645 4645 4645 4645 4645 4645 4645 4645 4645 4645 4708 4708 4645 4645 4708 4708 4708 4645 4645 4708 4708 4708 4645 4645 4645 4645 4708 4708 4708 4708 4708 4774 4774 4774 4645 4645 4645 4645 4645 4582 4582 4582 4582 4582 4774 4774 4774 4774 4774 4774 4842 4774 4774 4842 4774 4774 4708 4708 4708 4708 4645 4645 4708 4708 4774 4774 4842 4842 4842 4842 4842 4842 4842 4842 4842 4774 4774 4842 4842 4911 4911 4983 4983 5056 5056 4983 4911 4911 4842 4842 4842 4842 4842 4842 4774 0 2883 2883 2859 2812 2812 2812 2812 2812 2789 2789 2789 2789 2789 2789 2767 2767 2767 2767 2767 2767 2767 2789 2789 2789 2789 2767 2767 2767 2767 2789 2789 2789 2789 2767 2767 2767 2789 2789 2812 2812 2812 2812 2835 2835 2835 2835 2835 2835 2835 2859 2859 2883 2883 2883 2908 2908 2933 2958 2958 2958 2958 2958 2933 2933 2908 2908 2933 2908 2883 2883 2883 2883 2883 2883 2883 2883 2883 2883 2859 2859 2859 2859 2859 2078 2078 2078 2078 2078 2078 2090 2090 2103 2103 2103 2103 2090 2090 2103 2103 2103 2116 2116 2116 2129 2129 2129 2129 2129 2129 2129 2129 2129 2129 2116 2116 2129 2116 2116 2116 2116 2129 2129 2129 2129 2129 2129 2129 2129 2129 2129 2129 2129 2129 2129 2143 2143 2143 2143 2143 2143 2143 2143 2143 2156 2170 2170 2170 2170 2156 2156 2156 2156 2170 2170 2170 2170 2170 2170 2170 2170 2170 2170 2170 2170 2170 2184 2184 0 0 0 0 0 0 0 0 0 5210 5210 5210 5210 5210 5210 5210 5210 5210 5210 5210 5210 5210 5291 5291 5291 5291 5291 5291 5210 5132 5132 5132 5210 5210 5210 5210 5210 5210 5291 5291 5291 5291 2116 2103 2103 2090 2090 2090 2103 2116 5056 5056 4911 4911 4842 4842 4842 2170 2170 2170 2184 2212 2226 2241 2241 2241 2241 2226 2226 2226 2226 2226 2226 2226 2226 2226 2226 2226 2226 2212 2212 2212 2170 2170 2170 2170 2184 2184 2170 2170 2226 2256 2256 2170 2170 2170 2170 2170 2170 2184 2198 2198 2226 2241 2256 2256 2256 2184 2170 2170 2170 2184 2184 2212 2212 2184 2184 2184 2184 2170 2170 2170 2170 2170 2170 2170 2170 2156 2156 2156 2156 2143 2143 2156 2156 2156 2156 2156 2156 2156 2156 2156 2156 2156 2156 2156 2156 2156 2156 2156 2156 2156 2156 2156 2156 2156 2156 2156 2156 2156 2156 2156 2156 2156 2156 2156 2156 2156 2170 2170 2170 2170 2170 2170 2170 2156 2156 2156 2156 2156 2143 2143 2129 2129 2129 2129 2143 0 0 0 0 0 0 0 0 0 0 0 0 0 0 0 0 0 0 0 0 0 0 0 0 0 0 0 0 0 0 3614 3614 3653 3692 3692 3692 3692 3732 3732 3732 3692 3692 3732 3732 3732 3732 3692 3692 3433 3433 3399 3399 3365 3365 3365 3365 3365 3333 3333 3333 3333 3333 3333 3333 3333 3333 3333 3333 3333 3300 3300 3300 3269 3269 3300 3300 3300 3300 3300 3300 3300 3300 3269 3269 3208 3120 3092 3092 3064 3010 3010 3010 2984 2984 2984 2984 2984 2958 2958 2958 2984 2984 2984 2984 2984 2984 2984 2984 2984 2984 3010 2984 2984 2984 2984 2984 2958 2958 2958 2958 2958 2984 2958 2958 2984 2984 2984 2984 2984 2958 2958 2958 2984 2984 2984 2984 2984 2984 2984 2984 2984 3010 2984 2984 0 0 0 0 0 0 0 0 0 0 0
0 0 0 0 0 0 0 0 0 0 0 0 0 0 0 0 0 0 0 0 0 0 0 0 0 0 0 0 0 0 0 4708 4708 4708 4645 4645 4645 4645 4645 4645 4645 4645 4645 4645 4645 4645 4645 4645 4645 4645 4708 4645 4645 4645 4645 4645 4645 4645 4645 4645 4645 4645 4645 4645 4645 4645 4708 4708 4708 4645 4645 4645 4645 4645 4645 4582 4582 4582 4582 4582 4774 4708 4708 4708 4774 4774 4774 4774 4774 4774 4774 4708 4708 4708 4708 4645 4645 4645 4708 4774 4842 4842 4842 4842 4774 4774 4842 4842 4842 4774 4774 4774 4774 4842 4911 4842 4842 4983 5056 4983 4911 4911 4842 4842 4774 4774 4774 4774 4774 4774 4774 2883 2883 2859 2835 2812 2812 2812 2812 2789 2789 2789 2789 2789 2789 2767 2767 2767 2767 2767 2767 2767 2789 2789 2789 2789 2767 2767 2767 2767 2789 2789 2789 2789 2789 2789 2789 2789 2789 2812 2812 2812 2812 2835 2835 2835 2835 2835 2835 2835 2859 2859 2883 2883 2883 2908 2908 2933 2958 3037 2958 2958 2984 2958 2933 2908 2908 2933 2933 2908 2908 2883 2883 2883 2883 2883 2883 2883 2883 2859 2859 2859 2859 2859 2078 2078 2078 2078 2078 2078 2090 2090 2103 2103 2103 2103 2090 2090 2103 2103 2103 2103 2103 2103 2116 2116 2116 2129 2129 2129 2129 2129 2129 2129 2116 2116 2129 2116 2116 2116 2129 2129 2129 2129 2129 2129 2129 2129 2129 2129 2129 2143 2143 2143 2143 2143 2143 2143 2143 2143 2143 2143 2143 2143 2156 2170 2170 2170 2170 2156 2156 2156 2156 2170 2170 2170 2170 2170 2170 2170 2170 2170 2170 2170 2170 2170 2184 2184 2184 0 0 0 0 0 0 0 0 5210 5210 5210 5210 5210 5210 5210 5210 5210 5132 5132 5132 5132 5291 5291 5291 5291 5291 5291 5210 5132 5132 5132 5132 5210 5210 5210 5210 5291 5291 2116 2116 2116 2103 2103 2090 2090 2090 2090 2103 2103 2103 2103 5132 5132 5132 5132 2129 2129 2143 2156 2170 2184 2198 2212 2226 2241 2241 2226 2226 2212 2212 2198 2198 2212 2212 2226 2212 2184 2184 2198 2184 2184 2156 2156 2156 2170 2170 2170 2170 2170 2184 2184 2170 2170 2170 2156 2156 2156 2156 2170 2170 2170 2170 2184 2184 2170 2170 2156 2156 2156 2156 2170 2170 2184 2184 2170 2156 2156 2156 2156 2156 2156 2156 2156 2156 2156 2156 2143 2143 2143 2143 2143 2143 2143 2143 2143 2143 2143 2143 2143 2143 2143 2143 2143 2143 2143 2143 2143 2143 2143 2143 2143 2143 2156 2156 2156 2156 2143 2143 2143 2143 2143 2143 2143 2143 2143 2143 2143 2156 2156 2156 2156 2156 2156 2156 2156 2156 2143 2143 2143 2143 2129 2129 2129 2129 2129 2129 2129 2129 2143 0 0 0 0 0 0 0 0 0 0 0 0 0 0 0 0 0 0 0 0 0 0 0 0 0 0 0 0 3653 3653 3692 3692 3732 3732 3732 3732 3732 3692 3692 3732 3732 3732 3732 3732 3692 3433 3433 3399 3365 3365 3365 3333 3333 3333 3333 3333 3333 3300 3300 3300 3300 3300 3300 3300 3300 3300 3300 3300 3269 3269 3269 3269 3269 3269 3269 3300 3300 3300 3269 3238 3238 3178 3120 3092 3092 3064 3010 3010 3010 2984 2984 2984 2984 2984 2984 2984 2984 2984 2984 2984 2984 2984 2984 2984 2984 2984 2984 3010 2984 2984 2984 2984 2984 2958 2958 2958 2958 2958 2984 2958 2958 2984 2984 2984 2984 2958 2958 2958 2958 2958 2958 2958 2958 2984 2984 2984 2984 2984 2984 3010 3010 0 0 0 0 0 0 0 0 0 0 0
0 0 0 0 0 0 0 0 0 0 0 0 0 0 0 0 0 0 0 0 0 0 0 0 0 0 0 0 0 0 0 4645 4645 4645 4645 4582 4582 4582 4645 4645 4582 4582 4582 4582 4645 4645 4645 4645 4645 4645 4708 4645 4645 4582 4582 4582 4582 4582 4582 4645 4645 4645 4582 4582 4582 4582 4645 4645 4708 4645 4645 4645 4645 4645 4645 4582 4582 4582 4582 4582 4582 4582 4582 4645 4774 4774 4708 4708 4774 4774 4774 4708 4708 4708 4708 4645 4645 4645 4774 4774 4774 4774 4774 4842 4774 4774 4774 4774 4774 4774 4774 4774 4774 4842 4842 4842 4842 4842 4983 4983 4842 4842 4842 4774 4774 4774 4774 4774 4774 4774 4774 4774 2883 2883 2835 2812 2812 2812 2812 2789 2789 2789 2812 2812 2789 2789 2767 2767 2767 2767 2767 2767 2789 2789 2789 2789 2767 2767 2767 2767 2767 2789 2789 2789 2789 2789 2789 2812 2812 2812 2812 2812 2835 2812 2812 2812 2812 2835 2835 2835 2859 2859 2883 2883 2883 2908 2908 2933 2958 3010 2984 2984 2984 2958 2933 2933 2933 2933 2933 2933 2933 2908 2908 2883 2883 2883 2883 2883 2883 2883 2859 2859 2859 2859 2859 2078 2078 2078 2090 2090 2090 2090 2103 2103 2103 2103 2090 2090 2103 2103 2103 2103 2103 2103 2116 2116 2116 2129 2129 2129 2129 2129 2129 2129 2116 2116 2129 2129 2129 2129 2129 2129 2129 2129 2129 2129 2129 2129 2129 2129 2129 2143 2143 2143 2143 2143 2143 2143 2143 2156 2156 2156 2156 2156 2156 2170 2170 2156 2156 2170 2156 2156 2156 2156 2156 2170 2170 2170 2170 2170 2170 2170 2170 2170 2170 2170 2170 2170 2170 2184 0 0 0 0 0 0 2078 2078 5210 5132 5132 5132 5210 5210 5210 5210 5132 5132 5132 5132 5132 2090 2090 2090 5291 5291 5056 5056 5056 5132 5132 5210 5210 5210 2116 2116 2116 2116 2116 2116 2103 2103 2090 2090 2090 2090 2103 2103 2103 2103 2116 2116 2116 2116 2116 2129 2129 2143 2156 2170 2198 2212 2226 2241 2226 2226 2198 2198 2184 2170 2170 2184 2170 2170 2170 2156 2156 2156 2156 2156 2143 2143 2156 2156 2156 2156 2156 2170 2170 2170 2156 2156 2156 2156 2156 2156 2156 2156 2156 2156 2156 2170 2170 2156 2156 2156 2156 2156 2156 2156 2156 2170 2170 2156 2143 2143 2143 2143 2143 2143 2143 2143 2143 2143 2143 2129 2129 2143 2143 2129 2129 2129 2129 2129 2129 2143 2129 2129 2143 2143 2129 2129 2129 2129 2129 2129 2129 2129 2129 2129 2143 2143 2143 2143 2143 2143 2143 2129 2129 2129 2129 2129 2129 2129 2129 2129 2129 2143 2143 2143 2143 2156 2156 2156 2156 2143 2143 2143 2129 2129 2129 2129 2129 2129 2116 2116 2129 2129 0 0 0 0 0 0 0 0 0 0 0 0 0 0 0 0 0 0 0 0 0 0 0 0 0 0 0 3653 3653 3653 3692 3692 3732 3732 3732 3732 3732 3732 3732 3732 3732 3732 3732 3732 3692 3433 3433 3399 3365 3365 3365 3333 3333 3333 3333 3300 3300 3300 3300 3300 3300 3300 3300 3300 3269 3269 3269 3269 3269 3269 3269 3269 3269 3269 3269 3269 3269 3269 3269 3238 3208 3149 3092 3064 3064 3064 3010 3010 3010 2984 2984 2984 2984 2984 2984 2984 2984 3010 3010 2984 2984 2984 2984 2984 2984 2984 3010 3010 2984 2984 2984 2984 2984 2958 2958 2958 2958 2958 2984 2984 2984 2984 2984 2984 2958 2958 2958 2958 2958 2958 2958 2958 2958 2984 2984 2984 2984 2984 2984 3010 3010 0 0 0 0 0 0 0 0 0 0 0
0 0 0 0 0 0 0 0 0 0 0 0 0 0 0 0 0 0 0 0 0 0 0 0 0 0 0 0 0 0 0 4463 4463 4645 4645 4582 4582 4582 4645 4645 4582 4582 4582 4582 4645 4645 4645 4645 4645 4708 4645 4645 4645 4582 4582 4582 4582 4582 4582 4582 4582 4582 4522 4522 4522 4463 4463 4463 4522 4645 4582 4582 4645 4645 4645 4582 4582 4582 4582 4582 4582 4582 4582 4645 4708 4708 4645 4645 4708 4774 4774 4708 4708 4708 4774 4645 4645 4708 4774 4774 4774 4774 4774 4774 4774 4774 4774 4774 4774 4842 4774 4774 4774 4842 4842 4842 4842 4842 4911 4842 4774 4774 4774 4774 4774 4774 4774 4774 4774 4708 4708 4708 2859 2859 2835 2812 2812 2812 2812 2789 2789 2789 2812 2812 2789 2789 2789 2789 2767 2767 2767 2767 2789 2812 2812 2789 2789 2789 2767 2767 2767 2789 2789 2789 2789 2789 2789 2812 2812 2812 2812 2812 2835 2812 2812 2812 2812 2835 2835 2835 2859 2859 2883 2883 2908 2933 2933 2958 2984 3010 3037 3064 3092 2958 2958 2958 2933 2933 2933 2933 2933 2908 2908 2883 2883 2883 2883 2883 2883 2883 2859 2859 2859 2859 2859 2090 2090 2090 2090 2090 2090 2090 2090 2090 2103 2103 2103 2103 2103 2103 2103 2103 2103 2103 2116 2116 2116 2129 2129 2129 2129 2129 2129 2129 2116 2116 2129 2129 2129 2129 2129 2129 2129 2129 2129 2129 2129 2129 2129 2129 2143 2143 2143 2143 2143 2143 2143 2143 2156 2156 2156 2156 2156 2156 2156 2170 2170 2156 2156 2170 2156 2156 2156 2156 2156 2156 2170 2170 2170 2170 2170 2170 2170 2170 2170 2170 2170 2170 2170 2184 0 0 0 0 0 2078 2078 2078 2078 2078 5132 5132 5210 5210 5210 5210 2065 2065 2090 2090 2090 2090 2090 2090 2090 5132 4983 4983 5056 5132 5210 5210 2103 2103 2103 2103 2116 2116 2103 2103 2103 2090 2090 2090 2090 2090 2103 2103 2103 2103 2103 2103 2103 2103 2116 2116 2116 2129 2143 2156 2170 2170 2226 2241 2226 2226 2143 2143 2143 2143 2143 2143 2143 2116 2116 2129 2129 2129 2143 2129 2129 2129 2143 2143 2143 2116 2116 2129 2156 2156 2143 2143 2143 2143 2143 2143 2143 2143 2143 2143 2143 2143 2143 2143 2143 2143 2156 2156 2156 2156 2156 2156 2156 2143 2143 2143 2143 2143 2143 2129 2129 2129 2129 2116 2116 2116 2116 2129 2129 2116 2116 2116 2116 2116 2116 2129 2116 2116 2129 2129 2129 2116 2116 2116 2116 2116 2116 2116 2116 2116 2129 2129 2129 2129 2129 2129 2129 2116 2116 2116 2116 2116 2116 2116 2116 2116 2116 2116 2116 2129 2143 2143 2143 2143 2143 2143 2143 2129 2129 2116 2116 2116 2116 2116 2116 2116 2116 2116 2116 0 0 0 0 0 0 0 0 0 0 0 0 0 0 0 0 0 0 0 0 0 0 0 0 0 0 3653 3653 3692 3732 3732 3732 3732 3732 3732 3732 3732 3732 3732 3732 3732 3732 3692 3653 3433 3433 3399 3399 3365 3365 3333 3333 3333 3333 3300 3300 3300 3300 3269 3269 3269 3269 3269 3269 3269 3238 3238 3269 3238 3238 3238 3269 3269 3269 3269 3269 3269 3238 3208 3178 3149 3092 3064 3064 3037 3037 3037 3010 3010 3010 3010 3010 3037 3010 3010 3010 3010 3010 3010 3010 3010 3010 3010 3010 3010 3010 3010 3010 3010 3010 3010 2984 2984 2958 2958 2958 2984 2984 2984 2984 2984 2984 2984 2958 2958 2958 2958 2958 2958 2958 2958 2958 2984 2984 2984 2984 2984 2984 3010 3010 0 0 0 0 0 0 0 0 0 0 0
