0 0 0 0 0 0 0 0 0 0 0 0 0 0 0 0 0 0 0 0 0 0 0 0 0 0 0 0 0 0 0 0 0 0 1915 1915 1915 1915 1915 1915 1915 1915 1915 1915 1915 1926 1926 1926 1926 1926 1926 1926 1926 1926 1926 1926 1926 1926 1926 1926 1926 1936 1936 1936 1936 1926 1926 1936 1936 1936 1926 1926 1926 1915 1915 1915 1926 1926 1926 1915 1915 1915 1915 1915 1915 1926 1915 1915 1926 1926 1926 1926 1926 1926 1926 1936 1936 1947 1947 1947 1947 1947 1947 1947 1947 1947 1947 1936 1936 1947 1936 1936 1947 1947 1947 1959 1959 1959 1959 1959 1959 1959 1959 1959 1959 1959 1959 1959 1959 1959 1947 1947 1947 1959 1959 1959 1959 1959 1959 1959 1970 1970 1970 1970 1970 1970 1970 1970 1970 1959 1959 1959 1970 1970 1970 1970 1970 1970 1970 1970 1970 1981 1981 1981 1981 1981 1981 1981 1981 1981 1981 1981 1981 1981 1993 1993 1993 1993 1993 1993 1993 1993 1993 1993 1993 1993 1993 1993 1993 1993 1993 2005 2005 2005 2005 2005 2005 2005 2005 2005 2005 2005 2005 2005 2005 1993 1993 2005 2005 2005 2005 2005 2005 2016 2016 2016 2028 2016 2016 2016 2016 2016 2016 2016 2016 2016 2028 2028 2028 2028 2028 2028 2028 2028 2040 2040 2040 2040 2040 2040 2040 2028 2028 2028 2028 2028 2028 2028 2040 2040 2040 2040 2040 2028 2028 2005 1993 1981 1970 1970 1959 1959 1970 1970 1970 1981 1981 1993 2016 2016 2028 2028 2028 2028 1843 1843 1843 1843 1833 1833 1639 1639 1639 1632 1632 1632 1624 1624 1624 1624 1624 1632 1632 1632 1632 1632 1632 1632 1632 1639 2065 2065 2065 2065 2065 2065 2065 2065 2065 2065 2065 2065 1601 1601 1601 1594 1586 1586 1586 1586 1579 1579 1579 1579 1586 1586 1586 1586 1586 1594 2040 2040 2053 2065 2065 2065 2065 2065 2065 2065 2065 2065 2065 2065 2065 2078 2078 2078 2065 2065 2065 2065 2065 2065 2065 2065 2078 2078 2078 2078 2065 2065 2078 2078 2078 2078 2078 2090 2090 2090 2090 2090 2090 1894 1894 1894 1883 1883 1873 1873 1873 1873 1863 1863 1853 1843 1843 1843 1843 1833 1823 1823 1823 1766 1757 1757 1757 1739 1739 1731 1731 1731 1731 1731 1731 1731 1739 1731 1731 1731 2116 2116 2116 2103 2103 2103 2103 2103 2103 2103 1904 1894 1894 1894 1894 1904 1894 1894 1883 1883 1883 1873 1873 1873 1873 1873 1863 1863 1863 1863 1863 1863 2116 2103 2103 2103 2103 2103 2103 2103 2103 1766 1766 1757 1757 1757 1748 1748 1748 1748 1748 1757 1757 1766 1776 1776 2116 2116 2116 2116 2116 2116 2129 2116 2116 2129 2129 2129 2129 2129 2129 2129 2143 2143 2143 2143 2143 2143 2143 2143 2143 2143 2143 2143 2143 2143 2143 2143 2129 2129 2129 2129 2129 2129 2129 2116 2116 2116 1947 1936 1936 1936 1926 1915 1904 1904 1904 1904 1894 1894 1894 1894 1883 1883 1883 1883 1883 1873 1873 1883 1883 2143 2143 2143 2129 2129 2143 2143 2143 2143 2143 2143 2129 2129 2129 2129 2143 2143 2143 2143 2143 2156 2156 2156 2156 2156 2156 2156 2156 2156 2156 2156 2156 2156 2156 2156 2156 2156 2156 2156 2156 2156 2170 2170 2156 2156 2156 2156 2156 2170 2156 2156 2170 2170 2156 2156 2143 2143 2143 2129 2129 2129 2129 2129 2129 2129 2129 2129 2129 2129 2129 2129 2143 2143 2156 2156 2143 2143 2143 2129 2129 2129 2129 2129 2143 2143 2156 2170 2170 2170 2170 2170 2170 2156 2156 2156 2156 2156 2156 2156 2156 0 0 0 0 0 0 0 0 0
0 0 0 0 0 0 0 0 0 0 0 0 0 0 0 0 0 0 0 0 0 0 0 0 0 0 0 0 0 0 0 0 0 0 1915 1915 1904 1904 1915 1915 1915 1915 1915 1915 1915 1915 1915 1915 1915 1915 1915 1915 1915 1915 1915 1915 1926 1915 1915 1926 1926 1926 1926 1926 1926 1926 1926 1926 1926 1926 1915 1915 1926 1915 1915 1915 1915 1915 1915 1915 1915 1915 1915 1915 1915 1915 1915 1915 1915 1926 1926 1926 1926 1926 1926 1926 1936 1936 1936 1936 1936 1947 1947 1947 1947 1947 1936 1936 1936 1947 1936 1936 1936 1947 1947 1947 1959 1959 1959 1959 1959 1959 1959 1959 1959 1959 1959 1959 1959 1959 1947 1947 1947 1947 1947 1959 1959 1959 1959 1959 1970 1970 1959 1959 1959 1959 1970 1970 1970 1959 1959 1959 1959 1959 1959 1959 1970 1970 1970 1970 1970 1981 1981 1970 1970 1970 1970 1970 1970 1970 1981 1981 1981 1981 1981 1981 1981 1981 1981 1981 1981 1981 1981 1981 1981 1981 1993 1993 1993 1993 1993 1993 1993 1993 1993 1993 2005 2005 2005 2005 2005 2005 2005 2005 1993 1993 1993 1993 1993 1993 1993 2005 2005 2005 2005 2005 2005 2005 2005 2005 2005 2005 2016 2016 2016 2016 2016 2028 2028 2028 2028 2028 2028 2028 2028 2028 2028 2028 2028 2028 2028 2028 2028 2028 2016 2016 2016 2028 2028 2028 2028 2028 2028 2028 2016 2005 1993 1981 1970 1970 1959 1959 1970 1970 1970 1981 1981 2005 2016 2016 2028 2028 2028 2028 2028 1843 1833 1833 1833 1639 1639 1639 1639 1632 1632 1632 1632 1624 1624 1624 1632 1632 1632 1632 1632 1632 1632 1632 1632 1639 2065 2053 2053 2053 2053 2053 2053 2065 2065 2065 2065 2065 2065 1601 1601 1586 1586 1586 1586 1586 1579 1579 1579 1579 1586 1586 1586 1586 1586 1586 2040 2053 2053 2053 2053 2065 2065 2065 2065 2065 2065 2065 2065 2065 2065 2065 2065 2065 2065 2065 2065 2065 2065 2065 2065 2065 2065 2065 2065 2065 2065 2065 2065 2065 2078 2078 2078 2078 2078 2078 2078 2078 2078 1894 1894 1894 1883 1883 1873 1873 1873 1863 1863 1853 1843 1843 1843 1833 1833 1833 1823 1823 1823 1766 1757 1757 1757 1739 1739 1739 1739 1731 1731 1731 1731 1731 1739 1731 1731 1739 2116 2103 2103 2103 2103 2103 2103 2103 2103 2103 2103 1894 1894 1894 1894 1894 1894 1883 1883 1883 1873 1873 1873 1873 1873 1863 1863 1863 1863 1863 1863 1853 1853 2103 2103 2103 2103 2103 2103 2103 2103 1776 1766 1766 1757 1757 1748 1748 1748 1748 1757 1757 1757 1757 1766 1766 2116 2116 2116 2116 2116 2116 2116 2116 2116 2116 2116 2129 2129 2129 2129 2129 2129 2129 2129 2129 2129 2129 2129 2129 2129 2129 2129 2129 2143 2143 2143 2143 2129 2129 2129 2129 2129 2129 2129 2116 2116 2116 2116 1936 1936 1936 1926 1915 1904 1904 1904 1904 1894 1894 1894 1894 1894 1894 1883 1883 1883 1883 1883 1883 1883 2143 2143 2129 2129 2129 2129 2129 2129 2129 2129 2129 2129 2129 2129 2129 2129 2129 2129 2143 2143 2143 2143 2143 2156 2156 2156 2156 2156 2156 2156 2143 2143 2143 2143 2143 2143 2143 2143 2143 2143 2143 2156 2156 2143 2143 2143 2143 2143 2156 2156 2156 2156 2156 2143 2143 2129 2129 2129 2129 2129 2129 2129 2129 2129 2129 2129 2129 2129 2129 2129 2129 2129 2129 2143 2143 2143 2129 2129 2129 2129 2129 2129 2129 2129 2143 2143 2156 2156 2156 2156 2170 2156 2143 2143 2143 2129 2129 2143 2143 2143 0 0 0 0 0 0 0 0 0
0 0 0 0 0 0 0 0 0 0 0 0 0 0 0 0 0 0 0 0 0 0 0 0 0 0 0 0 0 0 0 0 0 0 1904 1904 1904 1904 1904 1904 1915 1915 1915 1915 1915 1915 1915 1915 1915 1915 1915 1915 1915 1915 1915 1915 1915 1915 1915 1926 1926 1926 1926 1926 1926 1926 1926 1926 1926 1915 1915 1915 1915 1915 1915 1915 1915 1915 1915 1915 1904 1904 1904 1904 1915 1915 1915 1915 1915 1915 1915 1926 1926 1926 1926 1926 1936 1936 1936 1936 1936 1936 1936 1936 1936 1936 1926 1926 1926 1936 1926 1926 1936 1936 1947 1947 1947 1947 1947 1947 1959 1959 1959 1959 1959 1947 1947 1959 1959 1947 1947 1947 1947 1947 1947 1947 1947 1947 1947 1947 1959 1970 1959 1959 1959 1959 1970 1959 1959 1959 1959 1959 1959 1959 1959 1959 1959 1970 1959 1959 1959 1970 1970 1970 1970 1970 1970 1970 1970 1970 1970 1970 1970 1970 1970 1970 1970 1970 1981 1981 1981 1981 1981 1981 1981 1981 1981 1981 1981 1993 1993 1993 1993 1993 1993 1993 1993 2005 2005 1993 1993 1993 1993 1993 1993 1993 1993 1993 1993 1993 1993 1993 1993 1993 1993 2005 2005 2005 2005 2005 2005 2005 2005 2005 2005 2005 2016 2016 2016 2028 2028 2028 2028 2028 2028 2028 2028 2028 2028 2028 2028 2028 2028 2028 2016 2016 2016 2016 2016 2016 2016 2016 2028 2016 2016 2016 1993 1981 1981 1970 1970 1970 1970 1970 1970 1981 1981 1993 2005 2016 2016 2028 2028 2028 2028 1843 1833 1833 1833 1639 1639 1639 1639 1632 1632 1632 1632 1624 1624 1632 1632 1632 1632 1632 1632 1632 1639 1639 1639 1639 1639 2040 2040 2040 2040 2053 2053 2053 2065 2065 2065 2065 2065 1601 1601 1586 1586 1586 1586 1586 1586 1586 1586 1586 1586 1586 1586 1586 1586 1586 2053 2053 2053 2053 2053 2053 2065 2053 2053 2053 2053 2053 2065 2065 2065 2065 2065 2065 2065 2065 2065 2065 2065 2065 2065 2065 2065 2065 2065 2065 2065 2065 2065 2065 2065 2065 2065 2078 2078 2078 2065 2065 2065 2065 2065 2065 1883 1873 1873 1873 1863 1863 1853 1853 1843 1843 1843 1833 1833 1833 1823 1823 1804 1766 1757 1757 1757 1739 1739 1739 1739 1731 1731 1731 1731 1731 1739 1739 1739 1748 2103 2103 2103 2090 2090 2090 2090 2090 2090 2090 2090 2090 2090 1894 1894 1894 1883 1883 1873 1873 1873 1873 1873 1873 1873 1863 1863 1863 1863 1863 1853 1853 1843 1843 2103 2103 2103 2103 2103 2103 2103 1776 1766 1766 1757 1757 1748 1748 1748 1748 1757 1757 1757 1757 1757 1757 2103 2103 2103 2103 2103 2103 2103 2103 2103 2116 2116 2116 2116 2116 2116 2116 2129 2129 2129 2129 2129 2129 2129 2116 2116 2129 2129 2129 2129 2143 2143 2143 2129 2116 2116 2116 2116 2116 2116 2116 2103 2103 2103 2116 1936 1936 1926 1915 1904 1904 1904 1904 1894 1894 1894 1894 1894 1894 1883 1883 1883 1883 1883 1883 1894 1894 2129 2129 2129 2129 2129 2129 2129 2129 2129 2129 2129 2129 2129 2129 2129 2129 2129 2129 2129 2143 2143 2143 2143 2143 2143 2143 2143 2143 2143 2143 2143 2143 2143 2143 2143 2143 2143 2143 2143 2143 2156 2143 2143 2143 2143 2143 2143 2143 2143 2143 2156 2143 2129 2129 2129 2116 2116 2116 2116 2129 2129 2129 2129 2129 2129 2129 2129 2129 2129 2129 2129 2129 2129 2129 2129 2129 2129 2129 2129 2129 2116 2116 2129 2129 2143 2143 2156 2143 2143 2156 2143 2143 2129 2129 2129 2129 2129 2129 2129 0 0 0 0 0 0 0 0 0
0 0 0 0 0 0 0 0 0 0 0 0 0 0 0 0 0 0 0 0 0 0 0 0 0 0 0 0 0 0 0 0 0 0 1904 1904 1894 1894 1904 1904 1904 1904 1904 1904 1915 1904 1904 1904 1904 1915 1904 1904 1904 1915 1915 1915 1915 1915 1915 1915 1915 1926 1926 1926 1915 1915 1915 1926 1926 1915 1915 1915 1915 1915 1904 1904 1904 1915 1915 1915 1904 1904 1904 1904 1915 1915 1915 1915 1915 1915 1915 1915 1926 1926 1926 1926 1926 1926 1936 1926 1926 1926 1926 1926 1926 1926 1926 1926 1926 1926 1926 1926 1926 1926 1926 1947 1947 1947 1947 1947 1947 1947 1947 1947 1947 1947 1947 1947 1947 1947 1947 1947 1947 1947 1947 1947 1947 1947 1947 1947 1959 1959 1959 1959 1959 1959 1959 1947 1947 1947 1959 1959 1959 1959 1959 1959 1959 1959 1959 1959 1959 1970 1970 1959 1959 1959 1959 1959 1959 1959 1970 1970 1970 1970 1970 1959 1959 1970 1970 1970 1970 1970 1970 1981 1981 1981 1981 1981 1981 1981 1981 1981 1981 1993 1993 1993 1993 1993 1993 1993 1993 1993 1993 1993 1981 1981 1981 1993 1993 1981 1981 1993 1993 1993 1993 1993 1993 2005 1993 1993 2005 2005 1993 1993 2005 2005 2005 2005 2005 2016 2016 2016 2016 2016 2016 2016 2016 2016 2016 2016 2016 2016 2016 2028 2005 2005 2016 2016 2016 2016 2016 2016 2016 2016 2016 2005 2005 1981 1981 1970 1970 1970 1970 1970 1970 1981 1981 1993 2005 2005 2016 2016 2016 2016 2028 2028 2028 2028 2028 1639 1632 1632 1632 1632 1632 1632 1632 1624 1624 1632 1632 1632 1632 1632 1632 1632 1639 1639 1639 1639 1639 2028 2028 2028 2028 2040 2040 2053 2053 2053 2053 2053 2053 1601 1601 1586 1586 1594 1594 1586 1586 1586 1586 1586 1594 1594 1594 1586 1586 1586 2053 2053 2053 2053 2053 2053 2053 2053 2053 2053 2053 2053 2053 2053 2053 2065 2065 2065 2065 2065 2065 2065 2053 2053 2053 2053 2053 2065 2065 2065 2065 2065 2065 2065 2065 2065 2065 2065 2065 2065 2065 2065 2065 2065 2065 2065 2065 1873 1873 1873 1863 1853 1853 1843 1843 1833 1833 1833 1833 1833 1823 1823 1804 1776 1757 1757 1757 1739 1739 1739 1739 1731 1731 1739 1739 1739 1748 1748 1748 1757 2103 2103 2103 2090 2090 2090 2090 2090 2090 2090 2090 2090 2090 2090 2090 1894 1873 1873 1863 1863 1873 1873 1873 1863 1863 1863 1863 1863 1853 1853 1853 1843 1843 1843 2103 2103 2103 2103 2103 2103 2103 1776 1776 1766 1757 1757 1757 1748 1748 1748 1757 1757 1757 1757 1757 1757 1757 2090 2090 2103 2103 2103 2103 2103 2103 2103 2103 2103 2103 2103 2103 2103 2116 2116 2116 2116 2116 2116 2116 2116 2116 2116 2116 2116 2129 2129 2129 2129 2116 2103 2103 2103 2103 2103 2103 2103 2103 2103 2103 2103 2103 2103 1915 1904 1904 1904 1904 1894 1894 1894 1894 1894 1894 1894 1894 1894 1894 1883 1883 1883 1894 1894 2129 2129 2129 2129 2129 2129 2129 2129 2129 2129 2129 2116 2116 2116 2116 2116 2116 2129 2129 2129 2143 2143 2143 2143 2143 2143 2143 2143 2143 2143 2143 2143 2143 2143 2143 2143 2143 2143 2143 2143 2143 2143 2143 2143 2143 2143 2143 2143 2143 2143 2143 2143 2129 2129 2116 2116 2116 2116 2116 2116 2116 2116 2116 2129 2129 2129 2129 2129 2116 2116 2116 2116 2116 2116 2116 2116 2116 2116 2116 2116 2116 2116 2116 2129 2129 2143 2143 2143 2143 2143 2129 2129 2129 2129 2116 2116 2129 2129 2129 0 0 0 0 0 0 0 0 0
0 0 0 0 0 0 0 0 0 0 0 0 0 0 0 0 0 0 0 0 0 0 0 0 0 0 0 0 0 0 0 0 0 0 1904 1894 1894 1894 1894 1904 1904 1904 1904 1904 1904 1894 1894 1904 1904 1904 1894 1894 1904 1904 1904 1915 1915 1915 1915 1915 1915 1915 1915 1915 1915 1915 1915 1915 1915 1926 1926 1915 1915 1915 1904 1904 1904 1904 1904 1904 1904 1904 1904 1904 1904 1904 1904 1915 1915 1915 1915 1915 1915 1915 1915 1915 1915 1926 1926 1926 1915 1915 1915 1915 1915 1915 1915 1915 1915 1926 1926 1926 1926 1926 1926 1936 1936 1936 1936 1947 1947 1947 1947 1936 1936 1936 1936 1936 1947 1936 1936 1936 1947 1947 1947 1947 1947 1947 1947 1947 1959 1959 1959 1959 1959 1959 1947 1947 1947 1947 1947 1947 1947 1947 1947 1947 1959 1959 1959 1959 1959 1959 1959 1959 1959 1959 1959 1959 1959 1959 1970 1970 1970 1970 1970 1959 1959 1959 1959 1959 1970 1970 1970 1970 1970 1981 1981 1981 1981 1981 1981 1981 1981 1981 1993 1993 1993 1993 1993 1993 1993 1993 1981 1981 1981 1981 1981 1981 1981 1981 1981 1981 1981 1993 1993 1993 1993 1993 1993 1993 1993 1993 1993 1993 1993 1993 2005 2005 2005 2005 2016 2016 2016 2016 2016 2016 2016 2016 2016 2016 2016 2016 2016 2016 2005 2005 2005 2016 2016 2016 2016 2016 2016 2016 2005 2005 1993 1981 1981 1981 1970 1970 1970 1981 1981 1981 1981 1993 2005 2005 2016 2016 2016 2016 2016 2016 2028 2028 2016 1639 1632 1632 1632 1632 1632 1632 1632 1632 1632 1632 1632 1632 1632 1632 1632 1639 1639 1639 1639 1639 1639 2016 2016 2016 2028 2028 2040 2040 2053 2053 2053 2040 2040 1601 1601 1594 1594 1594 1594 1594 1586 1586 1586 1594 1594 1594 1594 1601 1601 1601 2053 2053 2053 2053 2053 2053 2053 2053 2053 2053 2053 2053 2053 2053 2053 2053 2053 2053 2053 2053 2053 2053 2053 2053 2053 2053 2053 2053 2053 2053 2053 2053 2053 2053 2053 2053 2065 2065 2065 2065 2065 2065 2065 2065 2065 2065 2065 1873 1873 1863 1853 1843 1843 1843 1833 1833 1833 1833 1833 1823 1823 1813 1804 1776 1757 1748 1748 1739 1739 1739 1731 1731 1731 1739 1739 1739 1748 1748 1748 2078 2078 2090 2090 2078 2078 2078 2078 2078 2090 2078 2078 2090 2078 2078 2078 2078 1873 1873 1863 1863 1863 1863 1863 1863 1863 1863 1863 1853 1853 1843 1843 1843 1833 1833 1833 2090 2090 2090 2103 1794 1794 1785 1766 1766 1757 1757 1757 1757 1757 1757 1757 1757 1757 1757 1757 1748 1748 2090 2090 2090 2103 2103 2103 2103 2103 2103 2103 2103 2103 2103 2103 2103 2103 2116 2116 2116 2116 2116 2116 2116 2116 2116 2116 2116 2116 2116 2116 2116 2103 2103 2103 2090 2090 2103 2103 2103 2103 2103 2103 2103 2103 2103 1915 1904 1904 1904 1904 1894 1894 1894 1894 1894 1894 1894 1894 1894 1894 1894 1894 1894 1894 1894 2129 2129 2129 2129 2129 2116 2116 2116 2116 2116 2116 2116 2116 2116 2116 2116 2116 2129 2129 2129 2129 2129 2143 2143 2143 2143 2143 2143 2129 2129 2143 2143 2129 2129 2129 2129 2129 2129 2129 2129 2143 2129 2129 2129 2143 2143 2143 2143 2143 2116 2116 2129 2116 2116 2116 2103 2103 2116 2116 2116 2116 2116 2116 2129 2116 2116 2116 2116 2116 2103 2103 2103 2116 2116 2116 2116 2116 2116 2116 2116 2116 2116 2116 2129 2129 2129 2129 2129 2129 2129 2129 2116 2116 2116 2116 2116 2116 2129 2129 0 0 0 0 0 0 0 0 0
0 0 0 0 0 0 0 0 0 0 0 0 0 0 0 0 0 0 0 0 0 0 0 0 0 0 0 0 0 0 0 0 0 0 1894 1894 1894 1894 1894 1894 1894 1894 1894 1894 1904 1894 1894 1894 1894 1894 1894 1894 1894 1904 1904 1915 1904 1904 1904 1915 1915 1915 1904 1904 1904 1904 1904 1904 1915 1915 1915 1915 1915 1904 1904 1904 1904 1904 1904 1904 1904 1904 1904 1904 1904 1904 1904 1915 1915 1915 1915 1915 1915 1915 1915 1915 1915 1915 1915 1915 1915 1915 1915 1915 1915 1915 1904 1904 1904 1915 1915 1915 1915 1915 1915 1926 1926 1936 1936 1936 1936 1936 1936 1926 1926 1926 1915 1915 1936 1936 1936 1936 1936 1936 1947 1947 1947 1947 1947 1947 1947 1947 1947 1947 1947 1947 1947 1947 1947 1947 1947 1947 1947 1947 1947 1947 1947 1947 1947 1947 1947 1947 1947 1947 1947 1947 1947 1947 1947 1959 1959 1959 1959 1959 1959 1947 1947 1947 1947 1959 1959 1959 1959 1959 1970 1970 1970 1970 1970 1970 1970 1970 1970 1981 1981 1981 1981 1981 1993 1993 1981 1981 1981 1981 1981 1981 1981 1981 1981 1981 1981 1981 1981 1981 1981 1981 1993 1993 1993 1993 1993 1993 1993 1993 1993 1993 1993 1993 1993 2005 2005 2005 2005 2005 2005 2005 2005 2005 2005 2005 2005 2005 2005 2016 2005 2005 2005 2005 2016 2016 2005 2005 2016 2005 2005 1993 1981 1981 1970 1970 1970 1970 1970 1981 1981 1981 1993 1993 2005 2005 2016 2016 2016 2016 2016 2016 2028 2016 2016 2016 1632 1632 1632 1632 1639 1632 1632 1632 1632 1632 1632 1632 1632 1632 1632 1639 1639 1639 1639 1647 2016 2005 2005 2005 2016 2028 2028 2028 2040 2040 2040 2028 2028 2028 1601 1601 1601 1601 1594 1594 1594 1594 1594 1594 1601 1601 1601 1601 1601 1601 2040 2040 2040 2040 2040 2040 2053 2053 2053 2040 2040 2040 2040 2040 2053 2053 2053 2053 2053 2053 2053 2053 2053 2053 2053 2053 2053 2053 2053 2053 2053 2053 2053 2053 2053 2053 2053 2053 2065 2065 2065 2053 2053 2053 2053 2053 2053 2065 2065 1863 1843 1843 1843 1843 1833 1833 1833 1833 1833 1823 1813 1813 1804 1776 1776 1748 1748 1739 1739 1739 1731 1731 1731 1739 1739 1739 1748 1757 2065 2065 2065 2078 2078 2078 2065 2065 2065 2065 2078 2078 2078 2078 2078 2078 2078 2078 2078 2078 1863 1863 1863 1863 1863 1863 1863 1863 1863 1853 1843 1843 1843 1843 1833 1833 1833 2090 2090 2090 2103 1794 1794 1785 1766 1757 1757 1757 1757 1757 1757 1757 1757 1757 1757 1757 1757 1748 1748 2078 2078 2090 2090 2090 2090 2090 2090 2090 2090 2090 2103 2103 2103 2103 2103 2103 2103 2103 2103 2103 2103 2103 2103 2103 2103 2103 2116 2116 2116 2116 2090 2090 2090 2090 2090 2090 2090 2090 2090 2090 2090 2103 2090 2090 2090 1904 1904 1904 1904 1904 1894 1894 1894 1894 1894 1894 1894 1894 1894 1894 1894 1894 1894 2116 2116 2116 2116 2116 2116 2116 2116 2116 2116 2116 2116 2116 2116 2116 2116 2116 2116 2116 2129 2129 2129 2129 2129 2129 2129 2129 2129 2129 2129 2129 2129 2129 2129 2129 2129 2129 2129 2129 2129 2129 2129 2129 2129 2129 2129 2129 2129 2129 2129 2116 2116 2116 2103 2103 2103 2103 2103 2116 2116 2116 2116 2116 2116 2116 2116 2116 2116 2116 2103 2103 2103 2103 2116 2116 2116 2116 2116 2116 2116 2116 2116 2116 2116 2129 2129 2129 2129 2129 2129 2129 2116 2116 2116 2116 2116 2116 2116 2129 2129 0 0 0 0 0 0 0 0 0
0 0 0 0 0 0 0 0 0 0 0 0 0 0 0 0 0 0 0 0 0 0 0 0 0 0 0 0 0 0 0 0 0 0 1883 1883 1883 1883 1894 1894 1894 1894 1894 1894 1894 1894 1894 1894 1894 1894 1894 1894 1894 1904 1915 1915 1904 1904 1904 1915 1904 1904 1904 1904 1904 1904 1904 1904 1904 1904 1904 1915 1915 1904 1904 1904 1904 1894 1894 1894 1904 1904 1904 1894 1894 1894 1904 1904 1904 1915 1915 1915 1915 1915 1915 1915 1915 1904 1904 1904 1904 1904 1904 1904 1904 1904 1904 1904 1904 1904 1904 1915 1915 1915 1915 1915 1915 1915 1926 1926 1926 1926 1926 1926 1915 1915 1915 1915 1926 1926 1926 1936 1936 1936 1936 1936 1936 1936 1947 1947 1947 1947 1947 1947 1947 1936 1936 1936 1936 1947 1947 1947 1947 1947 1947 1947 1947 1947 1947 1947 1947 1947 1947 1947 1947 1947 1947 1947 1947 1947 1959 1959 1959 1947 1947 1947 1947 1947 1947 1959 1959 1959 1959 1959 1970 1970 1970 1970 1970 1970 1970 1959 1959 1981 1981 1981 1981 1981 1981 1981 1981 1981 1981 1981 1981 1981 1981 1981 1981 1981 1981 1981 1981 1981 1981 1981 1981 1981 1981 1981 1993 1993 1993 1993 1993 1993 1993 1993 1993 1993 1993 2005 1993 1993 1993 1993 1993 2005 1993 1993 1993 2005 2005 2005 1993 1993 1993 2005 2005 2005 2005 2005 2005 2005 2005 1993 1981 1981 1970 1970 1970 1970 1970 1981 1981 1981 1981 1993 1993 1993 2005 2005 2005 2005 2016 2016 2016 2016 2016 2016 1639 1639 1639 1639 1639 1639 1632 1632 1632 1632 1632 1632 1632 1632 1632 1639 1639 1639 1639 1647 2016 2005 2005 2005 2016 2016 2028 2028 2028 2028 2028 2028 2028 2028 1601 1601 1601 1601 1594 1594 1594 1594 1594 1594 1601 1601 1601 1601 1594 1594 2028 2028 2028 2028 2040 2040 2040 2040 2040 2028 2028 2040 2040 2040 2040 2040 2040 2040 2040 2040 2040 2053 2053 2053 2053 2053 2053 2053 2040 2040 2040 2053 2053 2053 2053 2053 2053 2053 2053 2053 2053 2053 2053 2053 2053 2053 2053 2065 2065 2065 1843 1843 1843 1843 1833 1833 1833 1833 1833 1823 1813 1804 1794 1766 1757 1748 1748 1739 1739 1739 1731 1731 1731 1739 1739 1739 1757 1757 2040 2065 2065 2065 2065 2065 2065 2065 2053 2053 2065 2065 2065 2065 2065 2065 2078 2078 2078 2078 2078 1863 1863 1863 1863 1863 1863 1863 1863 1843 1843 1833 1833 1833 1833 1823 1823 1823 1823 1823 1813 1804 1794 1785 1766 1757 1757 1757 1757 1757 1757 1757 1757 1757 1757 1757 1757 1748 1748 2078 2078 2078 2090 2090 2090 2090 2090 2090 2090 2090 2090 2090 2090 2090 2090 2090 2090 2090 2090 2090 2103 2103 2103 2103 2103 2103 2103 2103 2103 2103 2090 2090 2090 2090 2090 2090 2090 2090 2090 2090 2090 2090 2090 2090 2090 2090 1904 1904 1904 1904 1894 1894 1894 1894 1894 1894 1894 1894 1894 1894 1894 1883 1883 2103 2103 2103 2116 2116 2116 2103 2103 2116 2103 2103 2103 2103 2103 2103 2103 2103 2103 2103 2116 2116 2116 2116 2129 2129 2129 2116 2116 2116 2116 2116 2116 2129 2129 2129 2129 2116 2116 2116 2116 2129 2129 2129 2129 2129 2129 2129 2129 2129 2129 2103 2103 2103 2090 2090 2103 2090 2090 2103 2103 2103 2116 2116 2116 2116 2103 2103 2103 2103 2103 2103 2103 2103 2103 2103 2103 2103 2116 2116 2116 2116 2103 2103 2103 2116 2116 2116 2116 2116 2129 2116 2116 2116 2116 2116 2116 2116 2116 2129 2129 0 0 0 0 0 0 0 0 0
0 0 0 0 0 0 0 0 0 0 0 0 0 0 0 0 0 0 0 0 0 0 0 0 0 0 0 0 0 0 0 0 0 0 1873 1873 1873 1873 1873 1873 1883 1883 1883 1883 1883 1883 1883 1883 1883 1883 1883 1883 1894 1894 1904 1904 1904 1904 1904 1904 1904 1904 1904 1894 1894 1894 1904 1904 1894 1894 1904 1904 1904 1894 1894 1894 1894 1894 1894 1894 1894 1894 1894 1894 1894 1894 1904 1904 1904 1904 1904 1904 1904 1904 1904 1904 1904 1904 1904 1904 1904 1904 1904 1904 1904 1904 1904 1904 1904 1904 1904 1904 1904 1915 1915 1915 1915 1915 1915 1915 1915 1915 1915 1915 1915 1915 1915 1915 1915 1915 1915 1915 1915 1926 1926 1926 1926 1926 1926 1936 1936 1936 1936 1936 1936 1936 1936 1936 1936 1936 1936 1936 1936 1936 1936 1947 1947 1947 1947 1947 1936 1936 1936 1936 1936 1936 1936 1947 1947 1947 1947 1947 1947 1947 1947 1947 1947 1947 1947 1947 1947 1947 1947 1959 1959 1959 1959 1959 1959 1959 1959 1959 1959 1959 1981 1970 1959 1959 1981 1981 1981 1981 1981 1981 1981 1981 1981 1981 1981 1970 1970 1981 1981 1981 1981 1981 1981 1981 1981 1981 1981 1981 1981 1981 1993 1993 1993 1993 1993 1993 1993 1993 1993 1993 1993 1993 1993 1993 1993 1993 1993 1993 1993 2005 1993 1993 1993 1993 1993 1993 1993 2005 2005 2005 1993 1993 1981 1981 1981 1981 1981 1970 1970 1981 1981 1981 1981 1993 1993 1993 1993 2005 2005 2005 2005 2016 2016 2016 2016 2016 1639 1639 1639 1639 1639 1639 1632 1632 1632 1632 1632 1632 1632 1632 1639 1639 1639 1639 1639 1647 2016 1993 1993 1993 2005 2005 2016 2016 2016 2016 2028 2016 2016 2016 1601 1601 1601 1601 1594 1594 1594 1594 1594 1601 1601 1601 1601 1601 1594 1594 2016 2016 2016 2016 2028 2028 2028 2028 2028 2028 2028 2028 2028 2028 2040 2040 2040 2040 2040 2028 2028 2040 2040 2040 2040 2040 2040 2040 2040 2040 2040 2040 2040 2040 2040 2053 2053 2053 2053 2053 2053 2053 2053 2053 2053 2053 2053 2053 2053 2065 1843 1843 1833 1833 1833 1833 1833 1833 1833 1823 1813 1804 1794 1766 1757 1757 1748 1739 1739 1739 1731 1731 1731 1739 1739 1748 1757 1757 2040 2053 2065 2065 2065 2053 2053 2053 2053 2053 2053 2053 2053 2065 2065 2065 2065 2065 2065 2065 2065 2065 1863 1863 1863 1863 1863 1863 1863 1843 1843 1833 1833 1833 1833 1823 1823 1823 1823 1823 1813 1804 1804 1785 1766 1766 1757 1757 1757 1757 1757 1757 1757 1757 1757 1757 1757 1757 2065 2065 2078 2078 2078 2078 2078 2078 2078 2078 2078 2090 2090 2090 2090 2090 2090 2090 2090 2090 2090 2090 2090 2090 2090 2090 2090 2090 2090 2090 2090 2090 2078 2078 2078 2090 2090 2090 2090 2090 2090 2090 2090 2090 2090 2090 2090 2090 1904 1904 1904 1904 1894 1894 1894 1894 1894 1894 1894 1894 1894 1883 1883 1883 1883 2090 2090 2103 2103 2103 2103 2103 2103 2103 2103 2103 2103 2103 2103 2103 2103 2103 2103 2103 2103 2116 2116 2116 2116 2116 2116 2103 2103 2103 2103 2103 2116 2116 2116 2116 2116 2116 2116 2116 2116 2116 2116 2116 2129 2129 2129 2129 2129 2129 2116 2103 2103 2103 2090 2090 2103 2090 2090 2103 2103 2103 2103 2103 2103 2103 2103 2103 2103 2090 2090 2090 2090 2090 2090 2090 2103 2103 2103 2103 2103 2103 2090 2090 2090 2103 2103 2103 2103 2116 2116 2116 2116 2116 2116 2116 2116 2116 2116 2116 2116 2116 0 0 0 0 0 0 0 0
0 0 0 0 0 0 0 0 0 0 0 0 0 0 0 0 0 0 0 0 0 0 0 0 0 0 0 0 0 0 0 0 0 0 1873 1873 1873 1873 1873 1873 1873 1873 1883 1883 1883 1883 1883 1883 1883 1883 1883 1883 1883 1894 1894 1894 1894 1894 1894 1894 1883 1883 1883 1883 1883 1883 1894 1894 1894 1894 1894 1894 1894 1894 1883 1883 1883 1883 1883 1883 1883 1883 1883 1894 1894 1894 1894 1894 1904 1904 1894 1894 1894 1894 1894 1894 1894 1894 1894 1894 1894 1894 1894 1894 1894 1904 1904 1904 1904 1904 1904 1904 1904 1904 1904 1904 1904 1904 1904 1904 1904 1904 1915 1915 1915 1915 1915 1915 1915 1915 1915 1915 1915 1915 1926 1926 1926 1926 1926 1926 1926 1926 1926 1926 1926 1926 1926 1926 1926 1926 1926 1926 1926 1926 1936 1926 1926 1936 1936 1936 1926 1926 1936 1936 1936 1936 1936 1936 1947 1947 1947 1947 1947 1947 1936 1936 1936 1936 1936 1947 1947 1947 1947 1947 1959 1947 1947 1947 1959 1959 1959 1959 1959 1959 1959 1959 1959 1959 1970 1970 1970 1970 1970 1970 1970 1970 1970 1970 1970 1970 1970 1970 1981 1981 1981 1981 1981 1981 1981 1981 1981 1981 1981 1981 1981 1981 1981 1981 1981 1981 1981 1981 1981 1981 1981 1981 1981 1981 1981 1981 1993 1993 1993 1993 1981 1981 1981 1981 1981 1993 1993 1993 1993 1993 1993 1981 1981 1981 1981 1981 1981 1970 1970 1981 1981 1981 1981 1981 1981 1981 1993 1993 1993 1993 1993 1993 2016 2016 2016 2016 1639 1639 1639 1639 1639 1639 1632 1632 1632 1632 1632 1632 1632 1632 1639 1639 1639 1639 1639 1647 2005 1993 1993 1993 2005 2005 2016 2016 2016 2016 2016 2016 2016 2016 1601 1601 1601 1601 1594 1594 1594 1601 1601 1601 1601 1601 1601 1601 1601 1601 1981 1981 2016 2016 2028 2028 2028 2028 2028 2016 2016 2016 2016 2028 2028 2028 2028 2028 2028 2028 2028 2028 2028 2040 2040 2040 2040 2028 2028 2028 2028 2040 2040 2040 2040 2040 2040 2040 2040 2053 2053 2053 2053 2053 2053 2040 2040 2053 2053 2053 2053 1843 1823 1823 1823 1823 1823 1833 1833 1823 1813 1804 1794 1766 1757 1748 1748 1739 1739 1739 1731 1731 1739 1739 1739 1748 1748 1766 2053 2053 2053 2053 2053 2053 2053 2053 2053 2053 2053 2053 2053 2053 2053 2053 2065 2065 2065 2065 2065 2065 2065 1863 1863 1863 1863 1863 1863 1843 1833 1833 1833 1833 1833 1823 1823 1823 1823 1823 1813 1804 1804 1794 1776 1766 1766 1766 1757 1757 1757 1757 1757 1757 1757 1757 1757 1757 2053 2053 2065 2065 2065 2065 2065 2065 2065 2078 2078 2078 2078 2090 2090 2090 2090 2090 2090 2090 2078 2078 2078 2090 2090 2090 2078 2078 2090 2078 2078 2078 2078 2078 2078 2078 2078 2078 2078 2078 2078 2078 2078 2090 2078 2078 2078 2078 1904 1904 1904 1904 1894 1894 1894 1894 1894 1894 1894 1894 1894 1883 1883 1883 2090 2090 2090 2090 2090 2090 2103 2103 2103 2103 2090 2090 2090 2090 2090 2090 2090 2090 2090 2090 2103 2103 2103 2103 2116 2116 2116 2103 2103 2103 2103 2103 2103 2103 2103 2103 2103 2103 2103 2103 2103 2103 2103 2116 2116 2116 2116 2116 2116 2103 2103 2103 2103 2103 2090 2090 2103 2090 2090 2090 2090 2090 2103 2103 2103 2090 2090 2090 2090 2078 2078 2090 2090 2090 2090 2090 2103 2103 2103 2090 2090 2090 2078 2078 2078 2090 2090 2090 2090 2103 2103 2116 2103 2103 2103 2116 2116 2116 2116 2116 2116 2116 0 0 0 0 0 0 0 0
0 0 0 0 0 0 0 0 0 0 0 0 0 0 0 0 0 0 0 0 0 0 0 0 0 0 0 0 0 0 0 0 0 0 1863 1863 1863 1863 1863 1863 1873 1873 1873 1873 1873 1873 1873 1873 1873 1873 1873 1883 1883 1883 1883 1883 1894 1894 1883 1883 1883 1883 1883 1883 1883 1883 1883 1883 1883 1883 1883 1883 1883 1883 1873 1873 1873 1873 1873 1873 1873 1873 1873 1883 1883 1883 1883 1883 1883 1883 1894 1894 1894 1894 1894 1894 1894 1894 1894 1894 1894 1894 1894 1894 1894 1894 1894 1894 1894 1904 1904 1904 1904 1904 1904 1894 1894 1904 1904 1904 1904 1904 1904 1904 1904 1904 1904 1904 1904 1904 1915 1915 1915 1915 1904 1904 1904 1915 1915 1915 1915 1915 1915 1915 1915 1915 1915 1915 1915 1915 1915 1915 1915 1915 1915 1915 1915 1926 1915 1915 1915 1915 1926 1926 1926 1926 1926 1926 1936 1936 1936 1936 1936 1936 1936 1936 1936 1936 1936 1936 1936 1936 1936 1947 1947 1947 1947 1947 1947 1947 1947 1947 1947 1947 1959 1959 1947 1947 1959 1959 1959 1970 1970 1970 1970 1970 1970 1970 1970 1970 1970 1970 1970 1970 1970 1970 1970 1981 1981 1970 1970 1981 1981 1981 1981 1981 1981 1981 1981 1981 1981 1981 1981 1981 1981 1981 1981 1981 1981 1981 1981 1993 1993 1993 1981 1981 1981 1981 1981 1981 1981 1981 1981 1981 1981 1981 1981 1981 1981 1981 1981 1970 1970 1981 1981 1981 1981 1981 1981 1981 1981 1981 1981 1993 1993 1993 2005 2016 2016 2016 2016 1639 1639 1639 1639 1639 1632 1632 1632 1632 1632 1632 1632 1639 1639 1639 1639 1639 1647 1647 1981 1981 1993 1993 1993 2005 2005 2005 2016 2016 2016 2016 2016 1609 1601 1601 1601 1601 1594 1594 1601 1601 1601 1601 1601 1601 1601 1601 1601 1601 1970 1970 2016 2016 2016 2016 2016 2016 2016 2016 2016 2016 2016 2016 2016 2016 2016 2016 2016 2016 2016 2028 2028 2040 2040 2040 2028 2028 2028 2028 2028 2028 2028 2028 2028 2040 2040 2040 2040 2040 2040 2040 2040 2040 2040 2040 2040 2040 2040 2040 2053 2053 1813 1813 1823 1823 1823 1823 1823 1823 1804 1804 1785 1766 1766 1748 1748 1739 1739 1739 1731 1731 1739 1739 1748 1748 1748 1766 2040 2040 2053 2053 2053 2040 2040 2040 2040 2040 2040 2040 2040 2053 2053 2053 2053 2053 2053 2053 2053 2053 2065 2065 1863 1863 1853 1853 1853 1833 1833 1833 1833 1833 1833 1823 1823 1823 1823 1823 1813 1804 1794 1785 1776 1766 1766 1766 1757 1757 1757 1757 1757 1757 1757 1757 1757 1757 2053 2053 2065 2065 2065 2065 2065 2065 2065 2065 2065 2078 2078 2078 2090 2090 2090 2090 2078 2078 2078 2078 2078 2078 2078 2078 2078 2078 2078 2078 2078 2078 2065 2065 2078 2078 2078 2078 2078 2078 2078 2078 2078 2078 2078 2078 2078 2078 1904 1904 1904 1904 1894 1894 1894 1894 1894 1894 1894 1894 1894 1883 1883 1883 2078 2078 2090 2090 2090 2090 2090 2090 2090 2090 2090 2090 2090 2090 2090 2090 2090 2090 2090 2090 2090 2090 2090 2090 2103 2103 2103 2103 2103 2103 2090 2090 2090 2090 2090 2103 2103 2090 2090 2090 2090 2103 2103 2103 2103 2103 2103 2103 2103 2103 2103 2103 2103 2103 2090 2090 2090 2090 2090 2090 2090 2090 2090 2090 2090 2078 2078 2078 2078 2078 2078 2078 2090 2090 2090 2090 2090 2090 2103 2090 2090 2090 2078 2078 2078 2078 2078 2078 2078 2090 2090 2103 2103 2103 2103 2103 2103 2103 2103 2116 2116 2116 0 0 0 0 0 0 0 0
0 0 0 0 0 0 0 0 0 0 0 0 0 0 0 0 0 0 0 0 0 0 0 0 0 0 0 0 0 0 0 0 0 0 1853 1853 1853 1863 1863 1863 1863 1873 1873 1873 1873 1873 1873 1873 1873 1873 1873 1873 1883 1883 1883 1883 1883 1883 1883 1883 1873 1873 1883 1873 1873 1883 1883 1883 1873 1873 1883 1883 1883 1873 1873 1873 1873 1873 1873 1873 1873 1873 1873 1883 1873 1873 1873 1873 1873 1883 1883 1883 1883 1883 1883 1883 1883 1883 1883 1894 1894 1894 1883 1883 1883 1894 1894 1894 1894 1894 1894 1894 1904 1904 1894 1894 1894 1894 1894 1894 1904 1904 1904 1904 1904 1904 1904 1904 1904 1904 1904 1904 1904 1904 1904 1904 1904 1904 1904 1915 1915 1915 1915 1915 1915 1915 1915 1915 1915 1915 1915 1915 1915 1915 1915 1915 1915 1915 1904 1904 1915 1915 1915 1926 1926 1915 1915 1926 1926 1926 1926 1926 1926 1926 1936 1936 1915 1915 1926 1926 1936 1926 1926 1936 1936 1936 1936 1936 1936 1947 1947 1947 1947 1947 1947 1947 1947 1947 1947 1947 1947 1959 1959 1959 1959 1959 1959 1959 1959 1959 1959 1959 1959 1959 1959 1970 1970 1970 1970 1970 1970 1970 1970 1981 1981 1981 1981 1981 1981 1981 1981 1981 1981 1981 1981 1981 1981 1981 1981 1981 1981 1981 1981 1981 1981 1981 1981 1981 1981 1981 1981 1981 1981 1981 1981 1981 1981 1981 1981 1981 1981 1970 1970 1981 1981 1981 1981 1981 1981 1981 1981 1981 1981 1981 1993 1993 2005 2005 2005 2016 2016 1647 1639 1639 1639 1639 1632 1632 1632 1632 1632 1632 1632 1639 1639 1639 1639 1639 1647 1647 1671 1981 1981 1981 1993 1993 2005 2005 2005 2016 2016 2016 2016 1609 1609 1601 1601 1601 1601 1601 1601 1601 1601 1601 1601 1601 1601 1601 1601 1601 1970 1970 2005 2005 2016 2016 2016 2016 2016 2016 2016 2016 2016 2016 2016 2016 2016 2016 2016 2016 2016 2016 2028 2028 2028 2028 2028 2016 2016 2016 2016 2028 2016 2016 2028 2028 2028 2028 2028 2028 2028 2028 2028 2028 2028 2028 2028 2028 2028 2040 2040 2040 1804 1804 1813 1813 1813 1823 1823 1813 1804 1804 1785 1766 1757 1748 1748 1739 1739 1739 1739 1739 1739 1748 1748 1748 1748 1748 2040 2040 2053 2053 2053 2040 2040 2040 2040 2040 2040 2040 2040 2040 2040 2040 2040 2053 2053 2053 2053 2040 2040 2040 2040 1863 1833 1833 1843 1833 1833 1833 1833 1833 1833 1823 1823 1823 1823 1823 1813 1804 1794 1785 1776 1766 1766 1766 1757 1757 1757 1757 1766 1757 1757 1757 1757 1757 2053 2053 2053 2053 2053 2053 2053 2053 2053 2065 2065 2065 2078 2078 2078 2078 2078 2078 2065 2065 2065 2065 2065 2065 2065 2065 2065 2078 2078 2078 2078 2078 2065 2065 2065 2065 2065 2065 2065 2065 2065 2065 2065 2065 2065 2065 2065 1926 1915 1915 1915 1904 1894 1894 1894 1894 1894 1894 1894 1894 1894 1883 1883 2065 2078 2078 2078 2078 2078 2078 2090 2078 2078 2090 2090 2090 2090 2078 2078 2078 2078 2090 2090 2090 2090 2090 2090 2090 2090 2090 2090 2090 2090 2090 2090 2090 2090 2090 2090 2090 2090 2090 2090 2090 2090 2090 2090 2090 2103 2103 2103 2103 2090 2090 2090 2090 2090 2090 2078 2078 2078 2078 2078 2078 2078 2078 2078 2078 2078 2078 2078 2078 2078 2065 2065 2078 2078 2078 2078 2078 2078 2090 2090 2078 2078 2078 2078 2078 2078 2078 2078 2078 2078 2078 2090 2090 2090 2090 2090 2090 2090 2103 2103 2103 2103 2103 0 0 0 0 0 0 0 0
0 0 0 0 0 0 0 0 0 0 0 0 0 0 0 0 0 0 0 0 0 0 0 0 0 0 0 0 0 0 0 0 0 0 1843 1843 1843 1853 1853 1853 1853 1863 1863 1863 1863 1863 1863 1863 1863 1863 1863 1873 1873 1873 1873 1873 1883 1883 1883 1873 1873 1873 1873 1873 1873 1873 1873 1873 1873 1873 1873 1873 1883 1873 1873 1873 1873 1873 1873 1873 1873 1873 1873 1873 1873 1873 1873 1873 1873 1873 1873 1873 1873 1873 1873 1883 1883 1883 1883 1883 1883 1883 1883 1883 1883 1883 1883 1883 1883 1894 1894 1894 1894 1894 1894 1894 1894 1894 1894 1894 1894 1894 1894 1894 1894 1894 1894 1904 1904 1904 1904 1904 1904 1904 1894 1894 1894 1904 1904 1904 1915 1915 1915 1904 1904 1904 1904 1904 1915 1915 1904 1904 1904 1915 1915 1915 1915 1915 1904 1904 1904 1904 1915 1915 1915 1915 1915 1915 1915 1915 1926 1926 1926 1926 1926 1926 1915 1915 1926 1926 1926 1926 1926 1936 1936 1936 1936 1936 1936 1936 1936 1936 1936 1947 1947 1936 1936 1947 1936 1936 1947 1947 1959 1947 1947 1947 1947 1947 1959 1947 1947 1947 1959 1959 1959 1947 1947 1947 1959 1959 1959 1959 1959 1970 1959 1959 1959 1970 1970 1970 1959 1959 1970 1970 1970 1970 1970 1970 1970 1970 1970 1970 1970 1970 1970 1959 1959 1970 1970 1970 1970 1970 1970 1981 1981 1970 1970 1970 1970 1970 1970 1970 1970 1981 1981 1981 1981 1981 1981 1981 1981 1981 1981 1981 1981 1981 1981 2005 2005 2016 1655 1647 1647 1647 1639 1639 1639 1639 1632 1632 1632 1632 1632 1639 1639 1639 1639 1639 1647 1655 1671 1981 1981 1981 1981 1993 1993 1993 1993 1993 2005 2005 2005 1609 1601 1601 1601 1601 1601 1601 1601 1601 1601 1601 1601 1601 1601 1601 1601 1981 1970 1970 1993 1993 2016 2016 2005 2005 2005 2005 2005 2005 2005 2005 2005 2005 2005 2005 2005 2016 2016 2016 2016 2016 2016 2028 2028 2016 2016 2016 2016 2016 2016 2016 2016 2016 2016 2016 2016 2016 2016 2016 2016 2016 2016 2016 2016 2016 2016 2028 2028 2040 1804 1804 1804 1804 1804 1813 1813 1804 1804 1794 1776 1766 1757 1757 1748 1739 1739 1739 1739 1739 1739 1748 1748 1748 1748 1748 2028 2028 2040 2040 2040 2040 2040 2040 2040 2040 2028 2028 2040 2040 2040 2040 2040 2040 2040 2040 2040 2040 2028 2028 2028 2028 1823 1823 1833 1823 1823 1823 1833 1833 1833 1823 1823 1823 1823 1823 1813 1804 1794 1785 1776 1776 1766 1766 1757 1757 1757 1757 1766 1757 1757 1757 1757 1757 2040 2053 2053 2053 2053 2053 2053 2053 2053 2053 2053 2053 2065 2065 2065 2065 2065 2065 2065 2053 2053 2053 2053 2053 2053 2065 2065 2065 2065 2065 2065 2065 2053 2053 2053 2053 2053 2053 2053 2053 2053 2053 2053 2053 2053 2053 2065 1926 1915 1915 1915 1904 1894 1894 1894 1894 1894 1883 1883 1883 1883 1883 1883 2065 2065 2065 2065 2065 2078 2078 2078 2078 2078 2065 2065 2065 2065 2078 2078 2078 2078 2078 2078 2078 2078 2078 2078 2078 2078 2078 2078 2090 2090 2090 2090 2090 2090 2090 2090 2090 2090 2090 2090 2090 2090 2090 2090 2090 2090 2090 2090 2090 2090 2090 2090 2090 2090 2090 2078 2078 2078 2078 2078 2078 2078 2078 2078 2078 2078 2078 2078 2078 2065 2065 2065 2065 2078 2078 2078 2078 2078 2078 2090 2078 2078 2078 2078 2065 2065 2065 2078 2078 2078 2078 2090 2090 2090 2090 2090 2090 2090 2090 2103 2103 2103 2103 0 0 0 0 0 0 0 0
0 0 0 0 0 0 0 0 0 0 0 0 0 0 0 0 0 0 0 0 0 0 0 0 0 0 0 0 0 0 0 0 0 0 1843 1843 1843 1853 1853 1853 1853 1863 1863 1863 1863 1863 1863 1853 1853 1853 1853 1863 1863 1873 1873 1873 1873 1883 1883 1873 1873 1873 1873 1873 1873 1873 1873 1873 1863 1863 1873 1873 1873 1863 1863 1863 1873 1863 1863 1873 1863 1863 1863 1873 1873 1873 1873 1873 1873 1873 1863 1863 1863 1873 1873 1873 1873 1873 1873 1873 1873 1873 1873 1873 1873 1873 1883 1883 1883 1894 1894 1894 1894 1883 1883 1883 1883 1883 1883 1883 1894 1894 1894 1883 1883 1894 1894 1894 1894 1894 1894 1904 1904 1904 1894 1894 1894 1904 1904 1904 1915 1915 1904 1904 1904 1904 1904 1904 1904 1904 1904 1904 1904 1904 1904 1904 1915 1915 1904 1904 1904 1904 1904 1904 1904 1915 1904 1904 1904 1904 1915 1915 1915 1926 1915 1915 1915 1915 1915 1926 1926 1915 1915 1926 1926 1926 1926 1926 1936 1936 1936 1936 1936 1947 1947 1936 1936 1947 1936 1936 1936 1947 1947 1947 1947 1947 1947 1947 1947 1947 1947 1947 1947 1947 1947 1947 1947 1947 1947 1947 1947 1947 1947 1959 1959 1959 1959 1959 1959 1959 1959 1959 1970 1970 1970 1959 1959 1959 1970 1970 1970 1970 1970 1970 1959 1959 1959 1959 1959 1970 1970 1970 1970 1970 1970 1970 1970 1970 1970 1970 1970 1970 1970 1970 1970 1970 1970 1970 1970 1970 1970 1970 1970 1970 1970 1970 1981 1981 2005 2005 1655 1655 1655 1647 1647 1639 1639 1639 1639 1639 1639 1639 1639 1639 1639 1639 1639 1647 1655 1655 1671 1981 1981 1981 1981 1993 1993 1993 1993 1993 1993 2005 2005 1601 1601 1601 1601 1601 1601 1601 1601 1601 1601 1601 1601 1601 1601 1601 1601 1601 1970 1970 1981 1993 2005 2005 2005 2005 2005 2005 2005 2005 2005 2005 2005 2005 2005 2005 2005 2005 2005 2016 2016 2016 2016 2016 2016 2016 2016 2016 2016 2016 2016 2016 2016 2016 2016 2016 2016 2016 2016 2016 2016 2016 2016 2016 2016 2016 2016 2016 2016 2016 2028 1804 1804 1804 1804 1813 1804 1804 1804 1794 1776 1766 1766 1757 1757 1739 1739 1739 1739 1739 1739 1748 1748 1748 1739 1739 2016 2016 2040 2040 2040 2028 2028 2028 2028 2028 2028 2028 2028 2028 2040 2040 2040 2040 2040 2040 2028 2028 2016 2016 2016 2016 1823 1813 1813 1813 1813 1823 1823 1823 1823 1823 1823 1823 1823 1813 1804 1794 1794 1785 1776 1776 1776 1766 1766 1766 1757 1757 1766 1757 1757 1757 1757 2040 2040 2040 2053 2053 2053 2053 2053 2053 2053 2053 2053 2053 2053 2065 2065 2065 2065 2053 2053 2053 2053 2053 2053 2053 2053 2053 2053 2053 2053 2065 2065 2065 2053 2053 2053 2053 2053 2040 2040 2040 2040 2053 2053 2040 2040 2040 2040 1926 1915 1915 1915 1904 1894 1894 1894 1894 1894 1883 1883 1883 1883 1894 2053 2053 2065 2065 2065 2065 2065 2065 2065 2065 2065 2065 2065 2065 2065 2065 2065 2065 2065 2078 2078 2065 2065 2078 2078 2078 2078 2078 2078 2078 2078 2078 2078 2078 2078 2078 2078 2078 2078 2078 2078 2078 2078 2090 2090 2090 2090 2090 2090 2090 2090 2090 2090 2090 2090 2090 2078 2078 2078 2078 2078 2065 2065 2065 2065 2065 2065 2065 2078 2078 2065 2065 2065 2065 2078 2078 2078 2078 2078 2078 2078 2078 2065 2065 2065 2065 2065 2065 2065 2078 2078 2078 2078 2078 2078 2078 2078 2078 2078 2078 2090 2078 2078 2090 0 0 0 0 0 0 0 0
0 0 0 0 0 0 0 0 0 0 0 0 0 0 0 0 0 0 0 0 0 0 0 0 0 0 0 0 0 0 0 0 0 0 1843 1843 1843 1843 1843 1853 1853 1853 1853 1863 1863 1853 1853 1853 1843 1843 1843 1853 1853 1863 1863 1863 1873 1873 1873 1873 1873 1873 1873 1863 1863 1863 1863 1863 1863 1863 1863 1863 1873 1863 1863 1863 1863 1863 1863 1873 1863 1863 1863 1873 1873 1873 1863 1863 1863 1863 1863 1863 1863 1863 1863 1873 1873 1873 1873 1873 1873 1873 1873 1873 1873 1873 1873 1883 1883 1883 1883 1883 1883 1883 1883 1883 1883 1883 1883 1883 1883 1894 1894 1883 1883 1894 1894 1894 1883 1883 1894 1894 1894 1894 1894 1894 1894 1904 1904 1904 1904 1904 1904 1904 1904 1904 1904 1904 1904 1904 1894 1894 1894 1904 1904 1904 1904 1904 1904 1904 1904 1904 1904 1904 1904 1904 1904 1904 1904 1904 1904 1915 1915 1915 1915 1915 1915 1915 1915 1915 1915 1915 1915 1926 1926 1926 1915 1915 1936 1936 1936 1936 1936 1936 1936 1936 1936 1936 1936 1936 1936 1936 1947 1936 1936 1936 1936 1947 1947 1947 1947 1947 1947 1947 1947 1947 1947 1947 1947 1947 1947 1947 1947 1947 1947 1947 1947 1947 1947 1959 1959 1959 1970 1959 1959 1947 1947 1959 1959 1959 1959 1959 1959 1959 1959 1959 1959 1959 1959 1959 1970 1970 1970 1970 1970 1970 1970 1970 1970 1970 1970 1970 1970 1970 1959 1959 1959 1959 1959 1959 1959 1970 1970 1970 1970 1970 1970 1970 1981 1981 1663 1663 1663 1655 1647 1639 1639 1639 1639 1639 1639 1639 1639 1639 1639 1647 1647 1647 1655 1655 1671 1722 1722 1731 1981 1993 1993 1993 1993 1993 1993 1993 1993 1601 1601 1601 1601 1601 1601 1601 1601 1601 1601 1601 1601 1601 1601 1601 1601 1601 1959 1970 1981 1981 1993 1993 2005 2005 2005 2005 2005 2005 2005 1993 1993 2005 2005 2005 2005 2005 2005 2005 2005 2005 2005 2016 2005 2005 2016 2005 2005 2005 2005 2016 2016 2016 2016 2016 2016 2016 2016 2016 2016 2016 2016 2016 2016 2016 2016 2016 2016 2016 2016 1794 1794 1804 1804 1804 1804 1804 1794 1794 1785 1776 1766 1757 1757 1739 1739 1739 1739 1739 1739 1748 1748 1748 1739 1739 2016 2016 2028 2028 2028 2016 2016 2016 2016 2028 2016 2016 2028 2028 2028 2028 2040 2040 2040 2040 2028 2028 2016 2016 2016 2016 2016 1813 1804 1804 1804 1813 1823 1823 1823 1823 1823 1823 1823 1813 1804 1794 1794 1785 1776 1776 1776 1766 1766 1766 1757 1757 1766 1757 1757 1757 1757 2040 2040 2040 2040 2040 2053 2053 2040 2040 2040 2040 2053 2053 2053 2053 2053 2053 2053 2053 2053 2053 2040 2040 2040 2040 2040 2040 2053 2053 2053 2053 2053 2053 2040 2040 2040 2040 2040 2040 2040 2040 2040 2040 2040 2040 2040 2028 2028 1926 1926 1915 1915 1904 1894 1894 1894 1894 1894 1883 1883 1894 1894 1894 2040 2040 2053 2053 2053 2053 2053 2065 2065 2065 2065 2065 2065 2053 2053 2053 2065 2065 2065 2065 2065 2065 2065 2065 2065 2065 2065 2065 2065 2078 2065 2065 2078 2065 2065 2065 2065 2065 2065 2065 2065 2065 2078 2078 2078 2078 2078 2078 2078 2078 2078 2078 2078 2078 2078 2078 2078 2065 2065 2078 2065 2065 2065 2065 2065 2065 2065 2065 2065 2065 2065 2065 2065 2065 2065 2065 2065 2065 2065 2065 2065 2065 2065 2065 2065 2065 2065 2065 2065 2078 2078 2078 2078 2078 2078 2078 2078 2078 2078 2078 2078 2078 2078 2078 0 0 0 0 0 0 0 0
0 0 0 0 0 0 0 0 0 0 0 0 0 0 0 0 0 0 0 0 0 0 0 0 0 0 0 0 0 0 0 0 0 0 1833 1833 1843 1843 1843 1843 1853 1853 1853 1853 1853 1853 1853 1843 1843 1843 1843 1843 1853 1853 1853 1863 1863 1873 1873 1873 1863 1863 1863 1863 1863 1863 1863 1863 1863 1863 1863 1863 1863 1863 1863 1863 1863 1863 1863 1863 1863 1863 1863 1863 1863 1863 1863 1863 1863 1863 1863 1863 1863 1863 1863 1863 1863 1863 1863 1863 1863 1863 1863 1863 1863 1863 1873 1873 1873 1873 1873 1873 1873 1873 1873 1873 1883 1873 1873 1873 1883 1873 1873 1873 1873 1873 1883 1883 1883 1883 1883 1894 1894 1894 1894 1894 1894 1894 1894 1904 1904 1904 1904 1904 1894 1894 1894 1894 1894 1894 1894 1894 1894 1894 1894 1904 1904 1904 1894 1894 1894 1894 1904 1904 1904 1904 1894 1894 1904 1904 1904 1904 1904 1904 1904 1904 1915 1915 1915 1915 1904 1904 1904 1904 1915 1915 1915 1915 1926 1936 1926 1926 1936 1936 1936 1936 1936 1936 1926 1926 1926 1936 1936 1936 1936 1936 1936 1936 1936 1936 1936 1936 1936 1947 1936 1936 1936 1947 1947 1947 1947 1947 1947 1947 1947 1947 1947 1947 1947 1947 1947 1947 1947 1947 1947 1947 1947 1947 1947 1947 1947 1947 1959 1959 1947 1947 1947 1947 1947 1959 1959 1959 1959 1959 1959 1959 1959 1959 1959 1970 1959 1959 1959 1959 1947 1947 1947 1959 1959 1959 1959 1959 1970 1970 1970 1970 1970 1970 1970 1970 1663 1663 1663 1655 1647 1647 1639 1639 1639 1639 1639 1639 1639 1647 1647 1647 1647 1647 1655 1663 1671 1722 1722 1731 1981 1981 1981 1981 1981 1981 1981 1981 1609 1601 1601 1601 1601 1601 1601 1601 1601 1601 1601 1601 1601 1609 1609 1609 1601 1601 1959 1970 1970 1981 1993 1993 1993 1993 1993 1993 1993 1993 1993 1993 1993 1993 1993 1993 1993 2005 2005 2005 2005 2005 2005 2005 2005 2005 2005 2005 2005 2005 2005 2005 2005 2005 2005 2016 2016 2016 2005 2005 2005 2005 2005 2005 2005 2005 2005 2016 2016 2016 2016 1794 1794 1794 1794 1804 1804 1804 1794 1794 1785 1776 1766 1757 1757 1739 1739 1739 1739 1739 1739 1748 1748 1748 1748 1748 2016 2016 2016 2028 2028 2016 2016 2016 2016 2016 2016 2016 2016 2016 2028 2028 2028 2028 2028 2028 2016 2016 2016 2016 2016 2016 2016 2016 1804 1804 1804 1813 1823 1823 1823 1823 1823 1823 1823 1804 1804 1794 1785 1785 1776 1776 1776 1776 1766 1766 1766 1766 1766 1766 1757 1757 1757 2028 2028 2028 2040 2040 2040 2040 2040 2040 2040 2040 2040 2040 2053 2053 2053 2053 2053 2040 2040 2040 2040 2040 2040 2040 2040 2040 2040 2053 2053 2053 2053 2053 2040 2040 2040 2040 2040 2040 2040 2040 2040 2040 2040 2028 2028 2028 2028 1915 1915 1915 1904 1904 1894 1894 1894 1894 1894 1894 1894 1894 1894 1904 2040 2040 2040 2040 2040 2040 2040 2053 2053 2053 2065 2065 2053 2053 2053 2053 2053 2053 2053 2053 2065 2065 2065 2065 2065 2065 2065 2065 2065 2065 2065 2065 2065 2065 2065 2065 2065 2065 2065 2065 2065 2065 2078 2065 2065 2065 2065 2078 2078 2078 2078 2078 2078 2078 2078 2078 2065 2065 2065 2065 2065 2065 2065 2065 2065 2065 2065 2065 2065 2065 2065 2053 2053 2053 2065 2065 2065 2065 2065 2065 2065 2065 2065 2065 2065 2065 2065 2065 2065 2065 2065 2065 2065 2065 2065 2065 2065 2065 2078 2078 2065 2065 2078 2078 0 0 0 0 0 0 0 0
0 0 0 0 0 0 0 0 0 0 0 0 0 0 0 0 0 0 0 0 0 0 0 0 0 0 0 0 0 0 0 0 0 0 1833 1833 1833 1843 1843 1843 1843 1843 1843 1843 1843 1843 1843 1843 1843 1843 1843 1843 1843 1843 1843 1853 1853 1863 1863 1863 1863 1863 1863 1863 1853 1853 1863 1863 1863 1863 1863 1863 1863 1853 1853 1863 1863 1863 1863 1863 1863 1863 1863 1863 1863 1863 1863 1863 1863 1863 1853 1853 1853 1853 1863 1863 1863 1863 1863 1863 1863 1863 1863 1863 1863 1863 1863 1873 1873 1873 1873 1873 1873 1873 1873 1873 1883 1873 1873 1873 1873 1873 1873 1873 1873 1873 1873 1883 1883 1883 1883 1883 1883 1883 1883 1883 1883 1883 1883 1894 1904 1904 1894 1894 1894 1894 1894 1894 1883 1883 1894 1883 1883 1883 1894 1894 1894 1894 1894 1894 1894 1894 1894 1894 1894 1894 1894 1894 1894 1894 1894 1904 1904 1904 1904 1904 1904 1904 1915 1915 1904 1904 1904 1904 1904 1915 1915 1915 1915 1926 1926 1926 1926 1926 1926 1926 1926 1936 1926 1926 1926 1926 1926 1926 1926 1926 1926 1926 1936 1926 1926 1936 1936 1936 1936 1936 1936 1947 1947 1936 1936 1947 1947 1947 1947 1947 1947 1947 1947 1947 1947 1947 1947 1936 1936 1936 1936 1947 1947 1947 1947 1947 1947 1947 1947 1947 1947 1947 1947 1959 1959 1947 1947 1947 1947 1947 1947 1947 1936 1936 1959 1959 1959 1947 1947 1947 1947 1947 1947 1947 1947 1959 1959 1959 1959 1959 1959 1959 1959 1959 1671 1671 1663 1655 1647 1647 1639 1639 1639 1639 1639 1639 1647 1647 1647 1647 1655 1655 1663 1663 1680 1713 1722 1731 1731 1981 1981 1981 1981 1981 1981 1981 1609 1609 1601 1601 1601 1601 1601 1601 1601 1601 1601 1609 1609 1609 1609 1609 1601 1601 1970 1970 1970 1981 1981 1981 1981 1981 1993 1981 1981 1981 1981 1981 1981 1981 1981 1981 1981 1993 1993 2005 2005 2005 2005 2005 1993 1993 1993 1993 1993 2005 2005 2005 2005 2005 2005 2005 2005 2005 2005 2005 2005 2005 2005 2005 2005 2005 2005 2005 2005 2005 2005 2016 2016 1794 1794 1794 1794 1794 1794 1785 1776 1776 1766 1757 1757 1739 1739 1739 1739 1739 1739 1748 1757 1757 1748 1748 2016 2016 2016 2016 2028 2005 2005 2005 2005 2005 2005 2005 2005 2016 2016 2016 2016 2016 2016 2016 2016 2005 2005 2005 2005 2005 2005 2005 2005 1804 1804 1804 1813 1823 1823 1823 1823 1823 1823 1804 1794 1794 1785 1785 1776 1776 1776 1776 1766 1766 1766 1766 1776 1766 1757 1757 1757 2016 2016 2028 2028 2040 2040 2040 2040 2040 2040 2040 2040 2040 2040 2040 2040 2040 2040 2040 2040 2040 2040 2040 2040 2040 2040 2040 2040 2040 2040 2040 2040 2040 2028 2028 2028 2028 2028 2028 2028 2028 2028 2028 2040 2028 2028 2028 2028 1915 1915 1915 1904 1904 1894 1894 1894 1894 1894 1894 1894 1894 1894 1904 2040 2040 2040 2040 2040 2040 2040 2053 2053 2053 2053 2053 2053 2053 2040 2040 2040 2040 2053 2053 2053 2053 2053 2053 2053 2053 2053 2053 2053 2053 2065 2053 2053 2053 2053 2053 2053 2065 2053 2053 2065 2065 2065 2065 2065 2065 2065 2065 2065 2065 2078 2065 2065 2065 2065 2065 2053 2040 2040 2040 2053 2053 2053 2053 2053 2065 2065 2053 2053 2053 2053 2040 2040 2040 2053 2053 2053 2053 2053 2065 2065 2065 2065 2065 2065 2065 2053 2053 2065 2065 2053 2053 2053 2053 2053 2053 2065 2065 2065 2065 2065 2065 2078 2078 0 0 0 0 0 0 0 0
0 0 0 0 0 0 0 0 0 0 0 0 0 0 0 0 0 0 0 0 0 0 0 0 0 0 0 0 0 0 0 0 0 0 1833 1833 1833 1833 1833 1833 1843 1843 1843 1843 1843 1843 1843 1843 1843 1843 1843 1843 1843 1843 1843 1843 1853 1853 1853 1853 1853 1853 1853 1853 1853 1853 1853 1853 1853 1863 1853 1853 1853 1853 1853 1853 1853 1853 1853 1863 1863 1863 1863 1863 1863 1863 1853 1853 1853 1853 1853 1853 1853 1853 1853 1853 1853 1863 1863 1863 1863 1863 1863 1863 1863 1863 1863 1863 1863 1873 1873 1863 1863 1873 1873 1873 1873 1873 1873 1873 1863 1863 1863 1863 1863 1863 1873 1873 1873 1873 1873 1873 1873 1873 1883 1883 1883 1883 1883 1883 1883 1883 1883 1883 1883 1883 1883 1883 1883 1883 1883 1883 1883 1883 1883 1883 1883 1883 1883 1883 1883 1883 1883 1883 1883 1883 1883 1883 1883 1883 1894 1904 1904 1904 1904 1904 1904 1904 1904 1904 1904 1904 1904 1904 1904 1915 1904 1904 1904 1904 1904 1915 1915 1915 1915 1915 1915 1915 1915 1915 1915 1915 1915 1915 1915 1915 1926 1926 1926 1915 1915 1926 1926 1926 1926 1926 1926 1936 1936 1936 1936 1936 1936 1936 1936 1936 1936 1936 1936 1936 1936 1936 1936 1936 1936 1936 1936 1936 1936 1947 1947 1947 1947 1947 1947 1947 1947 1947 1936 1936 1947 1936 1936 1936 1947 1947 1947 1936 1936 1936 1936 1936 1936 1936 1936 1936 1936 1936 1936 1936 1947 1947 1959 1959 1959 1959 1959 1947 1936 1936 1671 1671 1663 1663 1647 1647 1639 1639 1639 1639 1647 1647 1647 1647 1655 1655 1655 1655 1663 1671 1680 1713 1713 1722 1722 1981 1981 1981 1981 1981 1970 1970 1601 1601 1609 1609 1601 1601 1601 1601 1601 1601 1601 1609 1609 1609 1609 1609 1609 1609 1970 1970 1970 1970 1970 1970 1981 1981 1981 1981 1981 1981 1981 1981 1981 1981 1981 1981 1981 1981 1981 1981 1981 1981 1981 1981 1981 1981 1981 1981 1981 1981 1981 1993 1993 1993 2005 2005 2005 2005 2005 2005 2005 2005 2005 2005 2005 2005 2005 2005 2005 2005 2005 2005 2005 2016 2028 1794 1794 1794 1785 1785 1776 1776 1766 1757 1757 1739 1739 1739 1739 1739 1739 1748 1757 1757 1748 1748 2016 2016 2016 2016 2016 2005 2005 2005 2005 2005 2005 2005 2005 2005 2016 2016 2016 2016 2016 2005 2005 2005 2005 2005 2005 2005 2005 2005 2005 2005 1804 1804 1813 1823 1823 1823 1823 1823 1823 1804 1794 1794 1785 1785 1776 1776 1776 1776 1766 1766 1766 1766 1776 1766 1766 1766 2005 2016 2016 2016 2028 2028 2028 2028 2028 2028 2028 2028 2028 2028 2040 2040 2040 2040 2040 2040 2040 2040 2040 2040 2040 2040 2040 2040 2040 2040 2040 2040 2040 2040 2028 2028 2028 2028 2028 2028 2028 2028 2028 2028 2028 2028 2028 2016 2016 1936 1915 1915 1904 1904 1894 1894 1894 1894 1894 1894 1894 1894 1904 1915 2040 2040 2040 2040 2040 2040 2040 2053 2053 2053 2053 2053 2040 2040 2040 2040 2040 2040 2040 2040 2040 2040 2040 2040 2040 2040 2040 2040 2040 2053 2053 2053 2053 2053 2053 2053 2053 2053 2053 2053 2053 2053 2053 2053 2053 2053 2053 2053 2065 2065 2065 2053 2053 2053 2053 2053 2040 2040 2040 2040 2040 2040 2040 2040 2040 2040 2040 2040 2040 2028 2028 2028 2028 2040 2040 2040 2040 2053 2053 2053 2065 2065 2065 2065 2065 2053 2053 2053 2053 2053 2053 2040 2040 2053 2053 2053 2053 2053 2065 2065 2065 2065 2065 2065 0 0 0 0 0 0 0 0
0 0 0 0 0 0 0 0 0 0 0 0 0 0 0 0 0 0 0 0 0 0 0 0 0 0 0 0 0 0 0 0 0 0 1833 1833 1833 1833 1833 1833 1843 1843 1843 1843 1843 1843 1843 1843 1843 1843 1843 1843 1843 1843 1843 1843 1843 1843 1843 1843 1843 1843 1853 1843 1843 1843 1853 1853 1853 1853 1853 1853 1853 1843 1843 1843 1843 1843 1853 1853 1853 1853 1853 1853 1863 1853 1853 1853 1853 1853 1843 1843 1843 1843 1843 1843 1843 1853 1853 1853 1843 1843 1853 1853 1853 1853 1863 1863 1863 1863 1863 1863 1863 1863 1863 1873 1873 1873 1863 1863 1863 1863 1863 1863 1863 1863 1863 1873 1873 1873 1873 1873 1873 1873 1873 1873 1873 1873 1873 1873 1873 1873 1873 1873 1873 1883 1883 1883 1883 1883 1883 1883 1873 1873 1883 1883 1883 1883 1883 1883 1883 1883 1883 1883 1883 1883 1883 1883 1883 1883 1883 1894 1894 1894 1904 1904 1904 1904 1904 1904 1904 1894 1894 1904 1904 1904 1904 1904 1904 1904 1904 1904 1904 1915 1915 1915 1915 1904 1904 1904 1904 1904 1904 1904 1904 1915 1915 1915 1915 1915 1915 1915 1926 1926 1926 1926 1926 1936 1936 1936 1936 1936 1936 1936 1936 1936 1936 1936 1936 1936 1936 1926 1926 1926 1936 1936 1936 1936 1936 1936 1936 1936 1936 1936 1936 1936 1936 1936 1936 1936 1936 1936 1936 1936 1936 1936 1936 1936 1936 1936 1936 1936 1936 1936 1936 1936 1936 1936 1936 1936 1936 1936 1947 1947 1947 1947 1936 1936 1936 1936 1936 1671 1663 1663 1655 1647 1647 1647 1647 1647 1647 1647 1647 1655 1655 1655 1663 1663 1671 1671 1688 1713 1713 1722 1722 1981 1981 1981 1981 1970 1970 1970 1601 1601 1601 1601 1601 1601 1601 1601 1601 1601 1601 1609 1609 1609 1609 1609 1609 1609 1959 1959 1970 1970 1970 1970 1970 1970 1970 1970 1970 1970 1970 1970 1970 1970 1970 1970 1970 1981 1981 1981 1970 1970 1970 1970 1970 1970 1970 1970 1970 1981 1981 1981 1993 1993 1993 1993 1993 1993 1993 1993 1993 1993 1993 1993 1993 1993 1993 1981 1981 1981 1981 2005 2005 2005 2005 1794 1794 1785 1785 1785 1776 1776 1766 1757 1757 1748 1748 1748 1748 1748 1748 1757 1757 1757 1757 1757 2016 2016 2016 2016 2016 2005 2005 2005 2005 2005 2005 2005 2005 2005 2005 2005 2005 2005 2005 2005 2005 2005 2005 2005 2005 2005 2005 2005 2005 2005 2005 2005 1823 1823 1823 1833 1823 1823 1823 1804 1794 1794 1785 1785 1776 1776 1776 1776 1766 1766 1776 1776 1776 1776 1766 1766 2005 2005 2005 2016 2016 2028 2028 2028 2028 2028 2016 2016 2028 2028 2028 2028 2028 2028 2028 2040 2040 2040 2040 2028 2028 2028 2040 2040 2040 2040 2040 2040 2040 2040 2028 2016 2016 2016 2028 2028 2028 2028 2028 2028 2028 2016 2016 2016 1981 1926 1915 1915 1904 1904 1904 1894 1894 1894 1894 1894 1894 1894 1904 1915 2028 2028 2028 2028 2028 2040 2040 2040 2040 2040 2040 2040 2040 2040 2040 2040 2040 2040 2040 2040 2040 2040 2040 2040 2040 2040 2040 2040 2040 2040 2040 2040 2040 2040 2040 2040 2040 2040 2040 2040 2040 2040 2040 2040 2040 2053 2053 2053 2053 2053 2053 2053 2040 2040 2040 2040 2028 2028 2028 2028 2028 2028 2028 2028 2028 2040 2040 2040 2028 2028 2028 2028 2028 2028 2028 2028 2028 2040 2040 2040 2040 2040 2040 2053 2053 2040 2040 2040 2040 2040 2028 2028 2040 2040 2040 2040 2053 2053 2053 2053 2053 2065 2065 2065 0 0 0 0 0 0 0 0
0 0 0 0 0 0 0 0 0 0 0 0 0 0 0 0 0 0 0 0 0 0 0 0 0 0 0 0 0 0 0 0 0 0 1823 1823 1823 1833 1833 1833 1833 1833 1833 1843 1833 1833 1843 1843 1833 1833 1833 1843 1843 1843 1843 1843 1843 1843 1843 1843 1843 1843 1843 1843 1843 1843 1843 1843 1843 1843 1843 1843 1843 1833 1833 1843 1843 1843 1843 1853 1853 1853 1853 1853 1853 1843 1843 1843 1843 1843 1843 1843 1843 1843 1843 1843 1843 1843 1843 1853 1843 1843 1843 1843 1843 1853 1853 1863 1863 1863 1863 1853 1853 1863 1863 1863 1873 1863 1863 1863 1863 1853 1853 1853 1853 1853 1863 1863 1863 1863 1863 1873 1873 1873 1873 1873 1873 1873 1873 1873 1873 1873 1873 1873 1873 1873 1883 1873 1873 1873 1873 1873 1873 1873 1873 1873 1873 1873 1873 1873 1873 1873 1873 1873 1873 1873 1873 1873 1873 1873 1873 1883 1894 1894 1894 1894 1894 1894 1904 1894 1894 1894 1894 1894 1894 1904 1894 1894 1894 1894 1894 1904 1904 1904 1904 1904 1904 1904 1904 1904 1904 1904 1904 1904 1904 1904 1904 1904 1915 1904 1904 1915 1915 1915 1915 1915 1915 1915 1926 1926 1926 1926 1926 1926 1926 1926 1936 1926 1926 1936 1926 1926 1926 1926 1926 1936 1936 1936 1936 1936 1936 1936 1936 1936 1936 1936 1936 1936 1936 1936 1936 1936 1936 1936 1936 1936 1936 1926 1926 1926 1936 1936 1936 1936 1936 1936 1936 1936 1936 1936 1936 1936 1947 1947 1947 1947 1936 1936 1936 1936 1936 1671 1671 1663 1655 1647 1647 1647 1647 1647 1647 1647 1647 1655 1655 1655 1663 1663 1671 1680 1696 1713 1713 1722 1722 1722 1981 1970 1970 1970 1959 1959 1601 1601 1601 1601 1601 1601 1594 1594 1601 1601 1601 1609 1609 1609 1609 1609 1609 1609 1959 1959 1959 1970 1970 1970 1970 1970 1970 1970 1970 1970 1970 1970 1970 1970 1970 1970 1970 1970 1970 1970 1970 1970 1970 1970 1970 1970 1970 1970 1970 1970 1981 1981 1981 1993 1993 1981 1981 1981 1981 1981 1981 1981 1981 1981 1993 1981 1981 1981 1981 1981 1981 1981 1981 1993 1993 1993 2016 1785 1776 1776 1776 1776 1766 1766 1757 1748 1748 1748 1748 1748 1748 1757 1757 1757 1757 1757 2005 2005 2005 2005 2005 2005 2005 2005 1993 1993 1993 2005 2005 1993 1993 2005 2005 2005 2005 2005 2005 1993 1993 1993 1993 1993 1993 2005 2005 2005 2005 2005 2005 1823 1823 1833 1823 1823 1813 1804 1804 1794 1794 1785 1776 1776 1776 1776 1776 1776 1776 1776 1776 1776 1776 1776 1993 2005 2005 2005 2005 2016 2016 2005 2005 2016 2005 2005 2005 2016 2016 2016 2016 2028 2028 2028 2028 2028 2028 2028 2028 2028 2028 2028 2028 2028 2028 2028 2028 2028 2016 2016 2016 2016 2016 2016 2016 2016 2016 2016 2016 2016 2005 2005 1959 1926 1926 1915 1915 1904 1904 1904 1904 1904 1904 1904 1904 1904 1915 1936 2016 2028 2016 2016 2028 2028 2028 2040 2040 2040 2040 2040 2040 2040 2040 2040 2028 2028 2040 2040 2040 2040 2040 2040 2040 2040 2040 2040 2040 2040 2040 2040 2040 2040 2040 2040 2040 2040 2040 2040 2040 2040 2040 2040 2040 2040 2040 2053 2053 2053 2053 2053 2040 2040 2040 2040 2028 2028 2028 2028 2028 2028 2028 2028 2028 2028 2028 2028 2028 2028 2028 2016 2016 2028 2028 2028 2028 2028 2028 2040 2040 2040 2040 2040 2040 2028 2028 2028 2028 2028 2028 2028 2028 2040 2040 2040 2040 2040 2053 2053 2053 2053 2065 2065 0 0 0 0 0 0 0 0
0 0 0 0 0 0 0 0 0 0 0 0 0 0 0 0 0 0 0 0 0 0 0 0 0 0 0 0 0 0 0 0 0 0 1823 1823 1823 1833 1833 1833 1833 1833 1833 1833 1833 1833 1833 1833 1833 1833 1833 1833 1833 1843 1843 1843 1843 1843 1833 1833 1833 1833 1833 1833 1833 1843 1843 1843 1843 1843 1843 1843 1843 1833 1833 1833 1833 1833 1833 1833 1833 1833 1833 1843 1843 1843 1843 1843 1843 1843 1843 1843 1843 1843 1843 1843 1843 1833 1833 1833 1833 1833 1833 1843 1843 1843 1843 1853 1853 1853 1853 1853 1853 1853 1863 1853 1853 1853 1853 1853 1853 1853 1853 1853 1843 1843 1853 1863 1863 1863 1863 1873 1873 1873 1873 1873 1873 1873 1873 1873 1873 1873 1873 1873 1873 1873 1873 1873 1873 1873 1873 1873 1873 1873 1873 1873 1873 1873 1863 1863 1873 1873 1873 1873 1873 1873 1873 1873 1873 1873 1873 1873 1863 1863 1863 1863 1883 1883 1894 1894 1894 1883 1883 1894 1894 1894 1894 1894 1894 1894 1894 1894 1894 1894 1894 1904 1904 1904 1904 1904 1904 1904 1904 1904 1904 1904 1904 1904 1904 1904 1904 1904 1904 1904 1904 1904 1904 1915 1915 1915 1915 1926 1926 1926 1926 1926 1926 1926 1926 1926 1926 1926 1926 1926 1926 1926 1926 1936 1936 1936 1936 1936 1936 1936 1926 1926 1926 1926 1926 1926 1926 1926 1926 1926 1926 1926 1926 1926 1926 1926 1926 1926 1926 1926 1926 1926 1926 1936 1936 1936 1936 1936 1936 1936 1936 1936 1936 1936 1936 1936 1936 1671 1663 1663 1655 1647 1647 1647 1647 1647 1647 1647 1647 1655 1663 1663 1663 1671 1671 1688 1696 1705 1713 1713 1713 1713 1713 1970 1959 1959 1947 1947 1609 1609 1609 1601 1601 1601 1594 1594 1601 1601 1601 1609 1609 1609 1609 1609 1609 1609 1959 1959 1959 1959 1959 1959 1959 1959 1959 1959 1959 1959 1970 1970 1970 1970 1970 1970 1970 1970 1970 1970 1959 1959 1970 1970 1970 1970 1970 1970 1970 1970 1970 1981 1981 1981 1981 1981 1981 1981 1981 1981 1981 1981 1981 1981 1981 1970 1970 1970 1970 1970 1970 1981 1981 1981 1981 1981 1981 1785 1776 1776 1766 1766 1766 1757 1757 1757 1748 1748 1757 1757 1757 1757 1757 1757 1766 1785 2005 2005 2005 1993 1993 1993 1993 1993 1993 1993 1993 1993 1993 1993 1993 1993 1993 1993 1993 1993 1993 1993 1993 1993 1993 1993 1993 1993 1993 1993 2005 2005 1993 1993 1833 1823 1823 1823 1813 1804 1794 1794 1794 1785 1785 1776 1776 1776 1776 1776 1776 1776 1776 1785 1785 1785 1993 1993 1993 2005 2005 2005 2005 2005 2005 2005 2005 2005 2005 2005 2016 2016 2016 2016 2016 2028 2028 2028 2016 2016 2016 2016 2016 2028 2028 2028 2028 2028 2028 2028 2016 2005 2005 2005 2016 2005 2005 2005 2005 2016 2016 1993 1993 1993 1959 1926 1926 1915 1915 1904 1904 1904 1904 1904 1904 1904 1904 1904 1915 1947 2005 2016 2016 2016 2016 2016 2028 2028 2028 2028 2028 2040 2040 2040 2028 2028 2028 2028 2028 2028 2028 2028 2028 2028 2028 2028 2028 2028 2028 2028 2028 2028 2028 2028 2040 2040 2028 2028 2028 2028 2028 2028 2028 2028 2028 2040 2040 2040 2040 2040 2040 2040 2040 2040 2040 2040 2028 2028 2028 2028 2028 2028 2028 2028 2028 2028 2028 2016 2016 2016 2016 2016 2016 2016 2016 2028 2028 2028 2028 2028 2028 2028 2028 2028 2028 2028 2028 2028 2016 2016 2016 2016 2016 2028 2028 2028 2028 2040 2040 2040 2040 2053 2053 2065 0 0 0 0 0 0 0 0
0 0 0 0 0 0 0 0 0 0 0 0 0 0 0 0 0 0 0 0 0 0 0 0 0 0 0 0 0 0 0 0 0 0 1823 1823 1823 1823 1823 1823 1823 1823 1823 1833 1823 1823 1823 1833 1833 1833 1833 1833 1833 1833 1833 1833 1833 1833 1833 1833 1833 1833 1833 1833 1833 1833 1843 1843 1843 1843 1843 1843 1833 1833 1833 1823 1823 1823 1823 1823 1823 1833 1833 1833 1833 1833 1833 1843 1843 1843 1843 1843 1843 1843 1843 1833 1833 1833 1833 1833 1833 1833 1833 1833 1843 1843 1843 1843 1843 1843 1843 1843 1843 1843 1843 1843 1843 1853 1853 1853 1853 1843 1843 1843 1843 1843 1853 1853 1853 1853 1863 1863 1863 1863 1863 1863 1863 1863 1863 1863 1863 1863 1863 1863 1863 1863 1863 1863 1873 1873 1873 1873 1873 1873 1873 1863 1863 1873 1863 1863 1863 1863 1863 1863 1863 1863 1863 1863 1863 1863 1863 1873 1863 1863 1863 1863 1873 1873 1883 1883 1883 1883 1883 1883 1883 1883 1883 1883 1883 1883 1883 1883 1883 1894 1894 1894 1894 1904 1904 1904 1904 1904 1904 1904 1904 1904 1904 1904 1904 1904 1904 1904 1904 1904 1904 1904 1904 1904 1904 1915 1915 1915 1915 1915 1915 1915 1915 1915 1915 1915 1915 1915 1915 1915 1926 1926 1926 1936 1936 1936 1936 1936 1936 1936 1926 1926 1926 1926 1926 1926 1926 1926 1926 1926 1926 1926 1926 1926 1926 1926 1926 1926 1926 1926 1926 1926 1926 1926 1926 1926 1926 1936 1936 1936 1936 1936 1936 1936 1936 1936 1936 1671 1663 1663 1655 1655 1647 1647 1655 1655 1655 1655 1655 1663 1663 1663 1663 1671 1680 1688 1696 1705 1713 1713 1713 1705 1705 1970 1959 1959 1926 1926 1609 1609 1609 1609 1601 1601 1601 1601 1601 1601 1601 1609 1609 1609 1609 1609 1609 1959 1947 1947 1947 1947 1959 1959 1947 1947 1947 1947 1959 1959 1959 1959 1959 1959 1959 1959 1959 1959 1959 1970 1959 1959 1959 1959 1959 1970 1970 1970 1970 1970 1970 1970 1970 1970 1970 1970 1970 1970 1970 1970 1970 1970 1970 1970 1970 1970 1970 1970 1970 1970 1970 1970 1970 1981 1981 1981 1981 1981 1766 1766 1766 1766 1766 1757 1757 1757 1757 1757 1757 1757 1757 1757 1757 1766 1766 1785 1993 2005 1993 1993 1993 1993 1993 1981 1981 1981 1981 1981 1981 1981 1993 1993 1993 1993 1993 1993 1981 1981 1981 1981 1981 1981 1981 1981 1993 1993 1993 1993 1993 1993 1993 1823 1823 1823 1813 1804 1794 1794 1794 1785 1785 1776 1776 1776 1776 1776 1776 1776 1776 1776 1785 1981 1981 1993 1993 1993 2005 2005 2005 2005 2005 2005 2005 2005 2005 2005 2005 2005 2005 2016 2016 2016 2016 2016 2016 2016 2005 2005 2016 2016 2016 2016 2016 2016 2016 2016 2005 2005 2005 2005 2005 2005 2005 2005 2005 2005 2005 1993 1981 1970 1947 1926 1915 1915 1915 1904 1904 1904 1904 1904 1904 1904 1904 1915 1936 1970 2005 2016 2005 2005 2005 2016 2016 2016 2016 2016 2028 2028 2028 2028 2028 2028 2028 2028 2028 2028 2028 2028 2028 2028 2028 2028 2028 2028 2028 2028 2028 2028 2028 2028 2028 2028 2028 2028 2028 2028 2028 2028 2028 2028 2028 2028 2028 2028 2028 2028 2028 2028 2028 2028 2028 2028 2016 2016 2028 2028 2028 2016 2016 2016 2016 2016 2016 2016 2016 2016 2016 2016 2016 2016 2016 2016 2016 2016 2016 2028 2028 2028 2028 2028 2028 2016 2016 2016 2016 2016 2016 2016 2016 2028 2028 2028 2028 2028 2028 2028 2028 2028 2040 2040 0 0 0 0 0 0 0 0
0 0 0 0 0 0 0 0 0 0 0 0 0 0 0 0 0 0 0 0 0 0 0 0 0 0 0 0 0 0 0 0 0 0 1813 1813 1813 1823 1823 1823 1813 1813 1823 1823 1823 1823 1823 1823 1833 1833 1833 1833 1833 1833 1833 1833 1833 1833 1833 1833 1833 1833 1833 1833 1833 1833 1833 1833 1833 1833 1833 1833 1833 1823 1823 1823 1823 1823 1823 1823 1823 1823 1823 1833 1833 1833 1833 1833 1833 1833 1833 1833 1833 1833 1833 1833 1833 1833 1833 1833 1833 1833 1833 1833 1833 1833 1843 1843 1843 1843 1843 1843 1843 1843 1843 1843 1843 1843 1843 1843 1843 1843 1843 1843 1843 1843 1843 1843 1843 1853 1863 1863 1863 1863 1863 1863 1863 1863 1863 1853 1853 1853 1853 1863 1863 1863 1863 1863 1863 1863 1863 1863 1863 1863 1863 1863 1863 1863 1853 1853 1863 1863 1863 1863 1863 1863 1863 1863 1863 1863 1863 1863 1863 1863 1863 1863 1863 1863 1873 1873 1883 1873 1873 1873 1873 1873 1873 1883 1883 1883 1883 1883 1883 1883 1883 1894 1894 1894 1894 1894 1904 1904 1894 1894 1894 1894 1894 1904 1904 1904 1904 1894 1894 1904 1894 1894 1904 1904 1904 1904 1915 1915 1915 1904 1904 1904 1904 1915 1915 1915 1915 1915 1915 1915 1915 1926 1926 1926 1926 1926 1926 1926 1926 1926 1926 1926 1915 1915 1926 1926 1926 1926 1926 1926 1926 1926 1926 1926 1926 1915 1915 1915 1926 1926 1926 1926 1926 1926 1926 1926 1926 1926 1936 1936 1936 1936 1936 1936 1936 1926 1926 1926 1663 1663 1655 1655 1647 1647 1655 1655 1655 1655 1655 1663 1663 1663 1663 1671 1680 1688 1696 1705 1713 1713 1713 1705 1705 1705 1705 1936 1926 1926 1609 1609 1609 1609 1601 1601 1601 1601 1601 1601 1601 1609 1609 1609 1609 1609 1609 1947 1947 1947 1947 1947 1947 1947 1947 1947 1947 1947 1947 1959 1959 1959 1959 1959 1959 1959 1959 1959 1959 1959 1959 1959 1959 1959 1959 1959 1959 1959 1959 1959 1959 1959 1959 1970 1970 1970 1970 1970 1970 1970 1970 1970 1970 1970 1970 1970 1970 1970 1970 1970 1970 1970 1970 1970 1970 1970 1970 1970 1766 1766 1766 1766 1766 1757 1757 1757 1757 1757 1757 1757 1757 1757 1757 1757 1766 1766 1993 1981 1981 1981 1981 1970 1970 1970 1970 1970 1970 1970 1970 1970 1970 1970 1970 1981 1981 1981 1970 1970 1970 1970 1970 1970 1970 1981 1981 1981 1981 1981 1981 1981 1981 1981 1981 1823 1804 1794 1794 1794 1794 1785 1785 1785 1785 1785 1776 1776 1776 1776 1776 1776 1785 1981 1981 1981 1993 1993 1993 1993 1993 1993 1993 1993 1993 1993 2005 2005 2005 2005 2005 2005 2005 2005 2005 2005 2005 2005 2005 2005 2005 2005 2005 2005 2005 2005 2016 2016 1993 1993 1993 2005 2005 1993 1993 1993 1993 1993 1993 1993 1981 1959 1947 1926 1915 1915 1915 1904 1904 1904 1904 1904 1915 1915 1915 1926 1936 1970 1993 2005 2005 2005 2005 2005 2005 2016 2016 2016 2016 2016 2028 2028 2028 2028 2028 2028 2028 2016 2016 2016 2016 2028 2028 2016 2016 2028 2028 2016 2016 2016 2016 2028 2028 2028 2028 2028 2028 2028 2028 2028 2028 2028 2028 2028 2028 2016 2016 2028 2016 2016 2016 2028 2028 2028 2016 2016 2016 2016 2016 2016 2016 2016 2016 2016 2016 2016 2016 2016 2016 2016 2016 2016 2016 2016 2016 2016 2016 2016 2016 2016 2016 2016 2016 2016 2016 2016 2016 2016 2016 2016 2016 2016 2016 2028 2028 2028 2028 2028 2028 2028 2028 2028 0 0 0 0 0 0 0 0
0 0 0 0 0 0 0 0 0 0 0 0 0 0 0 0 0 0 0 0 0 0 0 0 0 0 0 0 0 0 0 0 0 0 1804 1804 1804 1813 1813 1813 1813 1813 1813 1813 1813 1813 1813 1813 1823 1823 1833 1833 1833 1833 1833 1833 1833 1833 1823 1823 1823 1823 1823 1833 1833 1833 1833 1833 1833 1833 1833 1833 1833 1823 1823 1823 1823 1823 1823 1823 1823 1823 1823 1823 1823 1823 1823 1833 1833 1833 1833 1833 1833 1833 1833 1823 1823 1823 1833 1833 1833 1833 1833 1833 1833 1833 1833 1833 1833 1833 1833 1833 1833 1843 1843 1843 1843 1843 1843 1843 1843 1833 1833 1843 1833 1833 1843 1843 1843 1843 1853 1853 1853 1863 1863 1863 1853 1853 1853 1853 1853 1853 1853 1853 1853 1863 1863 1863 1863 1863 1863 1863 1853 1853 1863 1853 1853 1853 1853 1853 1853 1853 1853 1863 1863 1863 1863 1863 1863 1863 1863 1863 1863 1863 1863 1863 1863 1863 1863 1863 1863 1873 1873 1863 1863 1873 1873 1873 1873 1873 1873 1883 1883 1883 1883 1894 1894 1894 1894 1894 1904 1904 1894 1894 1894 1894 1894 1894 1894 1894 1894 1894 1894 1894 1894 1894 1894 1894 1904 1904 1904 1904 1904 1904 1904 1904 1904 1904 1904 1904 1904 1904 1915 1915 1915 1915 1915 1915 1926 1926 1926 1926 1926 1926 1915 1915 1915 1915 1915 1915 1926 1926 1926 1915 1915 1926 1926 1926 1915 1915 1915 1915 1915 1915 1926 1926 1926 1926 1926 1926 1926 1926 1926 1926 1926 1926 1926 1926 1926 1926 1926 1663 1663 1663 1663 1655 1655 1655 1655 1655 1655 1655 1655 1663 1663 1663 1663 1671 1680 1688 1696 1713 1713 1713 1713 1705 1705 1696 1696 1696 1696 1926 1926 1609 1609 1609 1609 1609 1601 1601 1601 1601 1601 1609 1609 1609 1609 1609 1609 1947 1936 1936 1936 1936 1936 1936 1947 1947 1947 1947 1947 1947 1947 1947 1947 1947 1947 1959 1959 1959 1959 1959 1959 1959 1959 1959 1959 1959 1959 1959 1959 1959 1959 1959 1959 1959 1959 1959 1959 1959 1959 1959 1959 1959 1959 1970 1970 1959 1959 1959 1959 1970 1970 1970 1970 1970 1970 1970 1970 1970 1970 1766 1766 1766 1766 1757 1757 1757 1757 1757 1757 1757 1757 1757 1757 1757 1757 1757 1981 1970 1970 1970 1970 1959 1959 1959 1959 1959 1959 1959 1970 1970 1970 1970 1970 1970 1970 1970 1970 1970 1970 1970 1970 1970 1970 1970 1970 1981 1981 1981 1981 1981 1981 1981 1981 1981 1794 1794 1794 1794 1794 1794 1785 1785 1785 1785 1776 1776 1776 1776 1776 1776 1785 1970 1970 1970 1981 1993 1993 1993 1993 1993 1993 1993 1993 1993 1993 1993 1993 1993 1993 1993 1993 1993 1993 1993 1993 1993 1993 2005 2005 2005 2005 2005 2005 2005 2005 2005 1993 1993 1993 1993 1993 1993 1993 1993 1993 1993 1993 1981 1970 1959 1947 1926 1926 1915 1915 1915 1904 1904 1904 1915 1926 1926 1926 1936 1947 1970 1981 2005 2005 2005 2005 2005 2005 2005 1993 1993 2005 2005 2016 2016 2016 2016 2016 2016 2016 2016 2016 2016 2016 2016 2016 2016 2016 2016 2016 2016 2016 2016 2016 2016 2016 2016 2016 2016 2016 2028 2028 2028 2028 2028 2028 2028 2028 2016 2016 2028 2016 2016 2016 2016 2016 2016 2005 2005 2016 2016 2016 2016 2016 2016 2016 2016 2016 2005 2005 2005 2016 2005 2005 2005 2005 2005 2005 2005 2005 2005 2005 2016 2016 2005 2005 2016 2016 2016 2016 2016 2016 2016 2016 2016 2016 2016 2016 2028 2028 2028 2028 2028 2028 2028 0 0 0 0 0 0 0 0
0 0 0 0 0 0 0 0 0 0 0 0 0 0 0 0 0 0 0 0 0 0 0 0 0 0 0 0 0 0 0 0 0 0 1804 1804 1804 1813 1813 1813 1804 1804 1804 1813 1804 1804 1804 1804 1813 1813 1813 1813 1823 1823 1823 1823 1823 1823 1823 1823 1823 1813 1813 1823 1823 1823 1823 1823 1823 1823 1823 1823 1823 1823 1823 1823 1823 1823 1823 1813 1813 1823 1823 1823 1823 1823 1823 1823 1823 1823 1823 1823 1823 1833 1823 1823 1823 1823 1823 1833 1833 1833 1833 1833 1833 1833 1833 1833 1833 1833 1833 1833 1833 1833 1833 1833 1833 1843 1833 1833 1833 1833 1833 1833 1833 1833 1833 1833 1843 1843 1843 1843 1843 1853 1853 1853 1853 1843 1843 1843 1843 1843 1843 1843 1853 1853 1853 1863 1853 1853 1853 1853 1853 1853 1853 1853 1853 1853 1853 1853 1853 1853 1853 1853 1853 1853 1853 1863 1863 1863 1863 1863 1853 1853 1853 1853 1863 1863 1863 1863 1863 1863 1863 1863 1863 1863 1863 1863 1873 1873 1873 1873 1873 1873 1873 1883 1883 1883 1894 1894 1894 1894 1894 1894 1894 1894 1894 1894 1883 1883 1894 1894 1894 1894 1894 1894 1894 1894 1894 1904 1904 1904 1904 1904 1904 1904 1904 1904 1904 1904 1904 1904 1904 1904 1904 1915 1915 1915 1915 1915 1915 1915 1915 1915 1904 1904 1904 1904 1904 1904 1915 1915 1915 1915 1915 1915 1915 1915 1915 1915 1915 1915 1915 1915 1915 1915 1915 1915 1926 1926 1926 1926 1926 1926 1926 1926 1926 1926 1926 1926 1926 1663 1663 1663 1663 1655 1655 1655 1655 1655 1663 1663 1663 1663 1663 1663 1671 1680 1688 1688 1696 1713 1713 1713 1705 1705 1713 1696 1696 1696 1688 1688 1926 1609 1609 1609 1609 1609 1601 1601 1601 1601 1609 1609 1609 1609 1609 1616 1624 1936 1926 1926 1926 1926 1926 1936 1936 1936 1936 1936 1947 1947 1947 1947 1947 1947 1947 1947 1947 1947 1947 1959 1959 1947 1947 1947 1947 1947 1959 1947 1947 1947 1947 1947 1947 1959 1959 1959 1959 1959 1959 1959 1959 1959 1959 1959 1959 1959 1959 1959 1959 1959 1959 1959 1959 1959 1970 1970 1970 1970 1970 1757 1757 1757 1766 1766 1757 1757 1757 1757 1757 1757 1757 1757 1757 1757 1757 1757 1970 1970 1970 1970 1970 1959 1959 1959 1959 1959 1959 1959 1959 1959 1959 1959 1959 1970 1970 1970 1970 1970 1959 1959 1959 1959 1970 1970 1970 1970 1970 1970 1970 1970 1970 1970 1970 1959 1794 1794 1794 1794 1794 1794 1785 1785 1785 1785 1776 1776 1785 1776 1776 1776 1785 1970 1970 1970 1981 1981 1981 1970 1970 1981 1981 1981 1981 1981 1981 1981 1981 1981 1993 1993 1993 1993 1993 1993 1993 1993 1993 1993 1993 1993 1993 1993 1993 1993 2005 2005 1981 1981 1993 1993 1993 1993 1993 1993 1993 1981 1981 1970 1959 1947 1947 1936 1926 1926 1926 1915 1915 1915 1915 1915 1926 1926 1926 1936 1947 1959 1981 1993 1993 1993 1993 1993 1993 1993 1993 1993 2005 2005 2016 2005 2005 2016 2016 2016 2005 2005 2005 2005 2005 2005 2005 2005 2016 2016 2016 2016 2016 2016 2016 2016 2016 2016 2016 2016 2016 2016 2016 2016 2016 2016 2028 2016 2016 2016 2016 2016 2005 2005 2005 2005 2005 2016 2005 2005 2005 2005 2016 2005 2005 2005 2005 2005 2005 2005 2005 2005 2016 2005 2005 2005 2005 2005 2005 2005 2005 2005 2005 2005 2005 2005 2005 2005 2005 2016 2016 2016 2016 2016 2016 2016 2016 2016 2016 2016 2016 2028 2028 2028 2028 2028 0 0 0 0 0 0 0 0
0 0 0 0 0 0 0 0 0 0 0 0 0 0 0 0 0 0 0 0 0 0 0 0 0 0 0 0 0 0 0 0 0 0 1804 1804 1804 1804 1804 1804 1804 1804 1804 1804 1804 1804 1804 1804 1804 1804 1804 1804 1813 1813 1813 1813 1813 1813 1813 1813 1813 1813 1813 1813 1813 1823 1823 1823 1823 1823 1823 1823 1823 1823 1813 1813 1813 1813 1813 1813 1813 1813 1813 1823 1823 1823 1823 1823 1823 1823 1823 1823 1823 1823 1823 1823 1823 1823 1823 1823 1823 1823 1823 1823 1823 1833 1833 1833 1833 1833 1833 1833 1833 1833 1833 1833 1833 1833 1833 1833 1833 1823 1823 1823 1823 1823 1833 1833 1833 1833 1833 1843 1843 1843 1843 1843 1843 1843 1843 1843 1843 1843 1843 1843 1843 1853 1853 1853 1843 1843 1843 1843 1843 1843 1853 1843 1843 1853 1843 1843 1853 1853 1853 1853 1853 1853 1853 1853 1853 1863 1853 1853 1853 1853 1853 1853 1853 1853 1863 1863 1863 1863 1863 1863 1863 1863 1863 1863 1863 1873 1873 1863 1863 1863 1873 1873 1883 1883 1883 1894 1894 1894 1894 1894 1894 1894 1894 1894 1883 1883 1894 1894 1894 1894 1894 1894 1894 1894 1894 1894 1894 1894 1894 1894 1894 1904 1904 1904 1904 1904 1904 1904 1904 1904 1904 1904 1904 1904 1904 1904 1904 1904 1904 1904 1904 1904 1894 1894 1904 1904 1904 1904 1904 1904 1904 1904 1904 1904 1904 1904 1904 1904 1904 1904 1904 1915 1915 1915 1915 1915 1915 1926 1926 1926 1926 1926 1926 1926 1926 1915 1915 1663 1663 1663 1663 1663 1655 1655 1663 1663 1663 1663 1663 1663 1663 1663 1671 1680 1688 1696 1696 1713 1713 1713 1705 1705 1705 1705 1696 1696 1680 1647 1639 1616 1609 1609 1609 1609 1601 1601 1601 1601 1609 1609 1609 1609 1609 1609 1609 1936 1926 1926 1926 1926 1926 1926 1926 1926 1936 1936 1936 1947 1936 1936 1936 1936 1936 1936 1936 1947 1947 1947 1947 1947 1947 1947 1947 1947 1947 1947 1947 1947 1947 1947 1947 1947 1947 1947 1947 1947 1947 1947 1947 1947 1947 1959 1959 1959 1959 1959 1959 1959 1959 1959 1959 1959 1959 1959 1959 1959 1959 1757 1757 1757 1766 1766 1766 1757 1757 1757 1757 1757 1757 1757 1757 1757 1757 1757 1959 1959 1959 1959 1959 1959 1959 1959 1959 1959 1959 1959 1959 1959 1959 1959 1959 1959 1959 1959 1959 1959 1959 1959 1959 1959 1959 1959 1959 1970 1959 1959 1970 1970 1970 1970 1959 1959 1794 1785 1785 1794 1794 1794 1785 1785 1785 1785 1776 1776 1785 1785 1776 1776 1785 1970 1970 1970 1970 1970 1970 1970 1970 1970 1970 1970 1970 1970 1970 1970 1970 1970 1970 1981 1981 1981 1981 1981 1981 1981 1981 1993 1981 1981 1993 1993 1993 1993 1993 1993 1981 1981 1981 1981 1981 1981 1981 1981 1981 1981 1981 1970 1959 1947 1947 1936 1926 1926 1926 1915 1915 1915 1915 1915 1926 1926 1926 1936 1947 1959 1981 1981 1993 1993 1993 1993 1993 1993 1993 1993 1993 1993 2005 1993 1993 1993 2005 2005 1993 1993 1993 1993 1993 2005 2005 2005 2005 2005 2005 2016 2016 2016 2016 2016 2005 2005 1993 1993 2005 2005 2005 2005 2005 2005 2016 2005 2005 2005 2005 2005 2005 2005 2005 2005 2005 2005 1993 1993 2005 2005 2005 1993 1993 1993 1993 1993 1993 1993 2005 2005 2005 1993 1993 1993 1993 1993 1993 1993 1993 1993 1993 1993 2005 1993 1993 2005 2005 2005 2005 2016 2016 2016 2016 2016 2016 2016 2016 2016 2016 2016 2016 2028 2028 2028 0 0 0 0 0 0 0 0
0 0 0 0 0 0 0 0 0 0 0 0 0 0 0 0 0 0 0 0 0 0 0 0 0 0 0 0 0 0 0 0 0 0 1794 1794 1794 1794 1794 1794 1794 1794 1794 1804 1794 1794 1804 1804 1804 1804 1804 1804 1804 1804 1804 1804 1804 1804 1804 1804 1804 1804 1804 1804 1804 1813 1813 1813 1813 1813 1813 1813 1813 1804 1804 1804 1804 1804 1813 1813 1813 1813 1813 1813 1813 1823 1823 1823 1823 1823 1813 1813 1813 1813 1813 1813 1813 1823 1823 1823 1823 1823 1823 1823 1823 1823 1823 1833 1833 1833 1833 1833 1833 1833 1833 1833 1823 1823 1823 1823 1823 1823 1823 1823 1823 1823 1823 1823 1833 1833 1833 1833 1833 1833 1833 1833 1833 1833 1833 1833 1833 1843 1843 1843 1843 1843 1843 1853 1843 1843 1843 1843 1843 1843 1843 1843 1843 1843 1843 1843 1843 1843 1843 1853 1843 1843 1853 1853 1853 1853 1853 1853 1853 1853 1853 1853 1853 1853 1853 1853 1863 1863 1863 1863 1863 1863 1863 1863 1863 1873 1873 1863 1863 1863 1873 1873 1883 1883 1883 1883 1894 1894 1883 1883 1883 1883 1883 1883 1883 1883 1883 1894 1894 1894 1894 1894 1894 1894 1894 1894 1894 1894 1894 1894 1894 1894 1894 1894 1904 1904 1904 1904 1904 1904 1904 1894 1894 1894 1904 1904 1904 1904 1904 1904 1904 1894 1894 1894 1894 1904 1904 1904 1894 1894 1894 1894 1894 1894 1894 1894 1894 1894 1904 1904 1904 1904 1904 1904 1904 1915 1915 1915 1915 1915 1915 1915 1915 1915 1904 1904 1904 1671 1663 1663 1663 1663 1655 1655 1663 1663 1663 1663 1663 1663 1671 1671 1671 1680 1688 1696 1713 1713 1713 1713 1705 1705 1705 1696 1696 1688 1671 1647 1639 1624 1616 1609 1609 1609 1601 1601 1601 1601 1609 1609 1609 1609 1609 1609 1609 1926 1926 1926 1926 1926 1926 1926 1926 1926 1926 1926 1926 1926 1936 1926 1926 1926 1926 1936 1936 1936 1947 1947 1947 1947 1947 1936 1936 1936 1936 1936 1936 1936 1936 1936 1936 1936 1936 1936 1936 1936 1936 1936 1936 1936 1936 1947 1947 1947 1947 1947 1947 1947 1947 1947 1947 1959 1959 1959 1959 1959 1959 1959 1748 1748 1766 1766 1766 1757 1757 1757 1757 1757 1757 1757 1757 1757 1757 1970 1959 1959 1959 1959 1959 1947 1947 1947 1959 1959 1947 1947 1959 1959 1959 1959 1959 1959 1959 1959 1959 1959 1959 1959 1959 1959 1959 1959 1959 1959 1959 1959 1959 1959 1959 1959 1959 1959 1959 1785 1785 1794 1794 1794 1785 1785 1785 1785 1776 1776 1785 1785 1776 1776 1970 1959 1959 1959 1970 1970 1959 1959 1959 1970 1970 1959 1959 1959 1970 1970 1959 1959 1970 1970 1970 1970 1970 1970 1970 1981 1981 1981 1981 1981 1981 1981 1993 1981 1981 1981 1959 1959 1959 1959 1970 1970 1970 1970 1970 1970 1970 1959 1959 1947 1947 1926 1926 1926 1915 1915 1915 1915 1915 1915 1926 1926 1926 1936 1947 1959 1981 1981 1993 1993 1993 1993 1993 1993 1981 1981 1993 1993 1993 1993 1993 1993 1993 1993 1993 1993 1993 1993 1993 1993 1993 1993 1993 1993 1993 2005 2005 2005 2005 2005 1993 1993 1993 1993 1993 1993 1993 1993 2005 2005 2005 2005 2005 2005 2005 2005 2005 1993 1993 1993 1993 2005 1993 1981 1981 1993 1993 1993 1993 1993 1993 1981 1981 1981 1981 1981 1993 1981 1981 1981 1981 1981 1981 1981 1993 1981 1981 1993 1993 1993 1993 1993 2005 2005 2005 2005 2005 2005 2005 2005 2005 2005 2005 2005 2005 2016 2016 2016 2016 2016 0 0 0 0 0 0 0 0
0 0 0 0 0 0 0 0 0 0 0 0 0 0 0 0 0 0 0 0 0 0 0 0 0 0 0 0 0 0 0 0 0 0 1785 1785 1785 1785 1785 1794 1794 1794 1794 1794 1794 1794 1794 1794 1794 1804 1794 1794 1804 1804 1804 1804 1794 1794 1794 1804 1804 1804 1804 1804 1804 1804 1804 1804 1804 1813 1813 1813 1813 1804 1804 1804 1804 1804 1804 1804 1804 1804 1804 1804 1804 1804 1804 1804 1804 1804 1804 1804 1804 1804 1804 1804 1804 1804 1804 1813 1804 1804 1804 1813 1813 1813 1823 1823 1823 1823 1823 1823 1823 1823 1823 1823 1813 1813 1813 1813 1813 1813 1813 1813 1813 1823 1823 1823 1823 1823 1823 1823 1823 1823 1823 1833 1823 1823 1833 1833 1833 1833 1833 1833 1833 1833 1833 1833 1833 1833 1843 1843 1843 1843 1843 1843 1843 1843 1833 1833 1843 1843 1843 1843 1843 1843 1843 1843 1843 1853 1853 1853 1853 1853 1853 1853 1853 1853 1853 1853 1853 1853 1853 1853 1853 1853 1863 1863 1863 1863 1863 1863 1863 1863 1863 1863 1873 1873 1873 1873 1873 1873 1863 1863 1863 1863 1863 1873 1873 1873 1883 1883 1883 1883 1883 1883 1883 1883 1894 1894 1894 1894 1894 1894 1894 1894 1894 1894 1894 1894 1894 1894 1894 1894 1894 1894 1894 1894 1894 1904 1904 1904 1904 1904 1894 1894 1894 1894 1894 1894 1894 1894 1894 1894 1894 1894 1894 1894 1894 1894 1894 1894 1894 1894 1894 1894 1894 1904 1904 1904 1904 1915 1904 1904 1915 1915 1915 1904 1904 1894 1894 1671 1663 1663 1663 1663 1663 1663 1663 1663 1663 1663 1663 1663 1671 1671 1680 1688 1696 1696 1713 1713 1705 1705 1705 1705 1705 1696 1696 1688 1671 1647 1639 1632 1616 1616 1609 1609 1609 1609 1609 1609 1609 1609 1609 1609 1609 1609 1609 1926 1915 1915 1915 1915 1915 1926 1926 1926 1926 1926 1926 1926 1926 1926 1926 1926 1926 1926 1926 1926 1936 1936 1936 1936 1936 1936 1926 1926 1926 1926 1936 1926 1926 1926 1936 1936 1936 1936 1936 1936 1936 1936 1936 1936 1936 1936 1936 1936 1936 1936 1947 1947 1947 1947 1947 1947 1947 1947 1959 1959 1959 1959 1748 1748 1766 1766 1766 1757 1757 1757 1766 1766 1766 1757 1757 1757 1757 1959 1959 1959 1959 1959 1959 1947 1947 1947 1947 1947 1947 1947 1947 1947 1947 1947 1947 1947 1959 1959 1959 1959 1959 1959 1959 1959 1959 1959 1959 1959 1959 1959 1959 1959 1959 1959 1947 1947 1947 1785 1785 1794 1794 1794 1785 1785 1785 1785 1785 1785 1785 1785 1776 1776 1970 1959 1959 1959 1959 1959 1959 1959 1959 1959 1959 1959 1959 1959 1959 1959 1959 1959 1959 1970 1970 1970 1970 1970 1970 1970 1981 1981 1981 1981 1981 1981 1981 1981 1981 1981 1959 1959 1959 1959 1959 1959 1959 1959 1959 1959 1959 1959 1947 1947 1936 1926 1926 1915 1915 1915 1915 1915 1915 1915 1926 1936 1936 1936 1947 1959 1970 1981 1981 1981 1981 1993 1981 1981 1981 1981 1981 1981 1981 1981 1981 1981 1981 1981 1993 1993 1993 1993 1993 1993 1993 1993 1993 1993 1993 1993 1993 1993 1993 1993 1993 1993 1993 1993 1993 1993 1993 1993 1993 1993 1993 1993 1993 1993 1993 1993 1993 1993 1993 1993 1993 1993 1993 1981 1981 1981 1981 1981 1981 1981 1981 1981 1981 1981 1981 1981 1981 1981 1981 1981 1981 1981 1981 1981 1981 1981 1981 1981 1981 1981 1981 1981 1993 1993 1993 1993 1993 1993 1993 1993 1993 1993 1993 1993 1993 2005 2005 2016 2016 2016 0 0 0 0 0 0 0 0
0 0 0 0 0 0 0 0 0 0 0 0 0 0 0 0 0 0 0 0 0 0 0 0 0 0 0 0 0 0 0 0 0 0 1776 1776 1776 1776 1785 1785 1785 1794 1794 1794 1794 1794 1794 1794 1794 1794 1794 1794 1794 1804 1804 1794 1794 1794 1794 1794 1794 1794 1794 1794 1794 1804 1804 1804 1804 1804 1804 1804 1804 1804 1804 1804 1804 1804 1794 1794 1794 1794 1794 1794 1794 1794 1804 1804 1804 1804 1804 1794 1794 1794 1794 1804 1804 1804 1804 1804 1804 1804 1804 1804 1813 1813 1813 1813 1813 1813 1813 1813 1813 1823 1823 1823 1813 1813 1813 1813 1804 1804 1804 1804 1813 1813 1813 1813 1823 1823 1823 1823 1823 1823 1823 1823 1823 1823 1823 1823 1823 1823 1823 1823 1833 1833 1833 1833 1833 1833 1833 1843 1833 1833 1833 1833 1833 1833 1823 1823 1823 1823 1823 1823 1823 1823 1833 1833 1833 1843 1843 1843 1843 1843 1843 1843 1843 1843 1843 1853 1853 1853 1853 1853 1853 1853 1853 1853 1853 1863 1863 1863 1863 1863 1863 1863 1863 1863 1863 1853 1853 1853 1853 1863 1863 1863 1863 1863 1863 1873 1873 1873 1873 1873 1883 1883 1883 1883 1883 1883 1883 1883 1883 1883 1894 1894 1894 1894 1894 1894 1894 1894 1894 1894 1894 1894 1894 1894 1894 1894 1894 1894 1894 1894 1894 1894 1883 1883 1894 1894 1894 1894 1883 1883 1894 1894 1894 1894 1894 1894 1894 1894 1894 1894 1894 1894 1894 1894 1894 1894 1894 1904 1904 1904 1904 1904 1904 1904 1894 1883 1883 1671 1663 1663 1663 1663 1663 1663 1663 1663 1663 1663 1663 1671 1671 1671 1680 1688 1696 1696 1713 1713 1705 1705 1705 1705 1705 1696 1688 1680 1671 1647 1639 1632 1624 1616 1609 1609 1609 1609 1609 1609 1609 1609 1609 1609 1609 1609 1609 1915 1915 1915 1915 1915 1915 1926 1926 1926 1926 1926 1926 1926 1926 1926 1926 1926 1926 1926 1926 1926 1926 1936 1936 1926 1926 1926 1926 1926 1926 1926 1926 1926 1926 1926 1926 1926 1926 1926 1926 1926 1926 1926 1926 1926 1926 1926 1926 1926 1926 1926 1936 1936 1936 1936 1947 1947 1947 1947 1947 1959 1959 1970 1748 1748 1766 1766 1766 1757 1757 1757 1766 1766 1766 1766 1757 1757 1766 1947 1947 1947 1947 1947 1947 1947 1947 1947 1947 1947 1947 1947 1947 1947 1947 1947 1947 1947 1947 1947 1947 1947 1947 1947 1947 1947 1947 1947 1947 1947 1947 1947 1947 1947 1947 1947 1947 1947 1947 1785 1785 1785 1794 1794 1785 1785 1785 1785 1776 1776 1776 1776 1776 1776 1959 1959 1959 1959 1959 1959 1959 1959 1959 1959 1959 1959 1959 1959 1959 1959 1959 1959 1959 1959 1959 1970 1970 1970 1970 1970 1970 1970 1970 1970 1981 1981 1981 1981 1970 1970 1959 1959 1959 1959 1959 1959 1959 1959 1959 1959 1959 1947 1947 1947 1936 1926 1926 1915 1915 1915 1915 1915 1915 1915 1926 1936 1936 1947 1947 1959 1970 1970 1970 1981 1981 1981 1981 1981 1981 1981 1981 1981 1981 1981 1981 1981 1981 1981 1981 1981 1981 1981 1981 1981 1981 1981 1981 1981 1981 1993 1993 1993 1993 1993 1993 1993 1981 1981 1981 1981 1981 1981 1993 1993 1993 1993 1993 1993 1993 1993 1981 1981 1993 1993 1981 1981 1993 1981 1981 1981 1970 1970 1981 1981 1981 1970 1970 1981 1981 1981 1981 1970 1970 1981 1981 1981 1981 1981 1981 1981 1981 1981 1981 1981 1981 1981 1981 1981 1981 1981 1981 1993 1993 1993 1993 1993 1993 1993 1993 1993 1993 1993 1993 1993 0 0 0 0 0 0 0 0
0 0 0 0 0 0 0 0 0 0 0 0 0 0 0 0 0 0 0 0 0 0 0 0 0 0 0 0 0 0 0 0 0 0 1766 1766 1766 1766 1776 1776 1785 1785 1785 1794 1794 1794 1794 1794 1794 1794 1794 1794 1794 1804 1804 1794 1794 1794 1794 1794 1794 1794 1794 1794 1794 1794 1794 1794 1794 1794 1804 1804 1804 1794 1794 1794 1794 1794 1794 1794 1794 1794 1794 1794 1794 1794 1794 1794 1794 1794 1794 1794 1794 1794 1794 1794 1794 1794 1794 1804 1804 1804 1804 1804 1804 1804 1804 1804 1804 1804 1804 1804 1813 1813 1813 1813 1813 1813 1813 1813 1804 1804 1804 1804 1804 1804 1804 1804 1813 1813 1813 1813 1813 1823 1813 1813 1813 1813 1813 1813 1823 1823 1823 1823 1823 1823 1823 1823 1823 1833 1833 1833 1833 1833 1833 1833 1833 1833 1823 1823 1823 1823 1823 1823 1823 1823 1823 1823 1833 1843 1843 1843 1843 1843 1843 1833 1833 1843 1843 1843 1843 1843 1843 1843 1853 1853 1853 1853 1853 1853 1853 1853 1853 1853 1853 1853 1853 1853 1853 1853 1853 1843 1843 1843 1853 1853 1853 1853 1853 1853 1863 1863 1863 1863 1863 1863 1863 1863 1863 1863 1863 1863 1873 1873 1873 1873 1873 1873 1883 1883 1883 1883 1883 1883 1883 1883 1883 1883 1883 1883 1883 1883 1894 1894 1883 1883 1883 1883 1883 1883 1883 1883 1883 1883 1883 1883 1894 1894 1894 1894 1894 1894 1894 1894 1894 1894 1894 1894 1894 1894 1894 1894 1894 1894 1904 1904 1894 1894 1894 1883 1680 1680 1671 1671 1671 1663 1663 1663 1663 1663 1663 1663 1671 1671 1671 1671 1680 1688 1696 1705 1705 1705 1705 1705 1705 1705 1696 1696 1688 1680 1671 1655 1647 1632 1624 1616 1609 1609 1609 1609 1609 1609 1609 1609 1609 1609 1609 1609 1616 1915 1915 1915 1915 1915 1915 1915 1915 1915 1915 1915 1915 1915 1926 1926 1926 1926 1926 1926 1926 1926 1926 1926 1926 1915 1915 1915 1915 1915 1915 1926 1926 1926 1926 1926 1926 1926 1926 1926 1926 1926 1926 1926 1926 1926 1926 1926 1926 1926 1926 1926 1926 1936 1936 1936 1936 1936 1936 1936 1947 1947 1959 1970 1748 1748 1766 1766 1766 1757 1757 1757 1766 1766 1766 1766 1766 1766 1766 1936 1936 1936 1947 1947 1947 1947 1936 1936 1947 1947 1936 1936 1936 1936 1947 1947 1947 1947 1947 1947 1936 1936 1936 1947 1947 1947 1947 1947 1947 1947 1947 1947 1947 1947 1947 1947 1947 1947 1947 1785 1785 1785 1785 1785 1785 1785 1785 1785 1776 1776 1776 1776 1785 1785 1959 1947 1947 1947 1959 1959 1959 1959 1959 1959 1959 1959 1959 1959 1959 1959 1959 1959 1959 1959 1959 1959 1959 1959 1959 1959 1970 1970 1970 1970 1970 1970 1970 1970 1970 1959 1947 1947 1947 1947 1947 1947 1959 1959 1959 1947 1947 1947 1947 1936 1936 1926 1926 1926 1915 1915 1915 1915 1915 1926 1936 1936 1936 1947 1947 1947 1959 1959 1959 1970 1970 1970 1970 1970 1970 1970 1970 1981 1970 1970 1981 1981 1981 1981 1981 1981 1981 1981 1981 1981 1981 1981 1981 1981 1981 1981 1993 1993 1981 1981 1981 1981 1981 1981 1981 1981 1981 1981 1981 1981 1981 1981 1981 1981 1981 1981 1981 1981 1981 1981 1981 1981 1981 1970 1970 1970 1970 1970 1970 1970 1970 1970 1970 1981 1981 1981 1970 1970 1970 1970 1970 1970 1970 1970 1970 1970 1970 1981 1981 1981 1981 1981 1981 1981 1981 1981 1981 1981 1981 1981 1981 1981 1993 1981 1981 1981 1993 1993 1993 1993 0 0 0 0 0 0 0 0
0 0 0 0 0 0 0 0 0 0 0 0 0 0 0 0 0 0 0 0 0 0 0 0 0 0 0 0 0 0 0 0 0 0 1766 1766 1766 1766 1776 1776 1785 1785 1785 1794 1794 1794 1794 1794 1794 1794 1794 1794 1794 1794 1794 1794 1785 1785 1785 1794 1794 1794 1794 1794 1794 1794 1794 1794 1794 1794 1794 1794 1794 1785 1785 1794 1794 1794 1785 1785 1794 1794 1794 1794 1794 1794 1794 1794 1794 1794 1794 1794 1794 1794 1794 1794 1794 1794 1794 1794 1794 1794 1794 1794 1794 1804 1804 1794 1794 1794 1794 1804 1804 1813 1813 1813 1804 1804 1804 1804 1794 1794 1794 1794 1794 1804 1804 1804 1804 1804 1813 1813 1813 1813 1813 1804 1804 1813 1813 1813 1813 1813 1813 1813 1813 1813 1813 1813 1823 1823 1823 1833 1833 1833 1833 1833 1823 1823 1813 1813 1823 1823 1823 1823 1823 1823 1823 1823 1823 1823 1833 1833 1833 1833 1843 1823 1823 1833 1833 1833 1833 1833 1833 1833 1843 1843 1843 1853 1853 1853 1853 1853 1853 1853 1853 1853 1843 1843 1853 1843 1843 1843 1843 1843 1853 1853 1853 1853 1853 1853 1853 1853 1863 1863 1863 1863 1863 1863 1863 1863 1863 1863 1863 1863 1863 1873 1873 1873 1873 1873 1873 1873 1873 1873 1873 1873 1873 1873 1873 1873 1873 1873 1883 1883 1873 1873 1873 1883 1883 1883 1873 1873 1873 1883 1883 1883 1883 1883 1883 1883 1883 1883 1883 1883 1883 1883 1883 1883 1883 1883 1894 1894 1894 1894 1894 1894 1894 1894 1894 1894 1671 1671 1671 1671 1671 1671 1663 1663 1663 1663 1663 1663 1671 1671 1671 1671 1680 1688 1696 1696 1696 1705 1705 1705 1705 1705 1696 1696 1680 1671 1663 1647 1639 1639 1632 1616 1616 1609 1609 1609 1609 1609 1609 1609 1616 1616 1609 1609 1624 1904 1904 1904 1915 1915 1915 1915 1915 1915 1915 1904 1904 1904 1915 1915 1915 1915 1915 1915 1915 1915 1926 1926 1926 1915 1915 1915 1915 1915 1915 1926 1915 1915 1915 1915 1915 1915 1915 1915 1915 1926 1926 1926 1926 1926 1926 1926 1926 1926 1926 1926 1926 1926 1926 1926 1926 1926 1926 1936 1936 1947 1959 1959 1757 1757 1766 1766 1766 1766 1766 1766 1766 1766 1766 1766 1766 1766 1766 1926 1926 1936 1936 1936 1947 1936 1936 1936 1936 1936 1926 1926 1936 1936 1936 1936 1936 1936 1936 1936 1926 1926 1926 1936 1936 1936 1936 1936 1936 1947 1936 1936 1936 1936 1947 1947 1947 1947 1947 1947 1785 1785 1785 1785 1785 1785 1785 1785 1785 1785 1785 1785 1785 1785 1785 1947 1947 1947 1947 1947 1947 1947 1947 1947 1947 1947 1947 1947 1947 1959 1959 1959 1959 1959 1959 1959 1959 1959 1959 1959 1959 1959 1959 1959 1959 1959 1959 1959 1959 1959 1947 1947 1947 1947 1947 1947 1947 1947 1947 1947 1947 1947 1947 1936 1936 1926 1926 1926 1915 1915 1915 1915 1915 1926 1926 1936 1936 1936 1947 1947 1959 1959 1959 1959 1959 1959 1959 1959 1959 1959 1970 1970 1970 1970 1970 1970 1970 1970 1970 1959 1959 1959 1970 1970 1981 1981 1981 1981 1981 1981 1981 1981 1981 1981 1981 1981 1981 1970 1970 1970 1970 1981 1981 1970 1970 1981 1981 1981 1970 1970 1981 1981 1981 1981 1981 1981 1981 1970 1970 1970 1970 1970 1970 1970 1970 1970 1970 1970 1970 1970 1970 1970 1970 1970 1970 1970 1970 1970 1970 1970 1970 1970 1970 1970 1970 1970 1981 1981 1981 1981 1981 1981 1981 1981 1981 1981 1981 1981 1981 1981 1981 1981 1981 1981 0 0 0 0 0 0 0 0
0 0 0 0 0 0 0 0 0 0 0 0 0 0 0 0 0 0 0 0 0 0 0 0 0 0 0 0 0 0 0 0 0 0 1766 1766 1766 1766 1766 1776 1785 1785 1785 1794 1794 1794 1794 1785 1785 1785 1794 1794 1794 1794 1794 1794 1785 1785 1785 1785 1785 1785 1794 1794 1794 1794 1794 1785 1785 1785 1785 1785 1785 1785 1785 1785 1785 1785 1785 1785 1785 1794 1785 1785 1794 1794 1794 1794 1794 1794 1785 1785 1785 1785 1785 1785 1794 1794 1794 1794 1794 1794 1794 1794 1794 1794 1794 1794 1794 1794 1794 1794 1794 1804 1804 1804 1804 1804 1794 1794 1794 1794 1794 1794 1794 1794 1794 1804 1804 1804 1804 1804 1804 1804 1804 1804 1804 1804 1804 1804 1804 1804 1813 1813 1813 1813 1813 1813 1813 1823 1823 1833 1823 1823 1823 1823 1823 1823 1813 1813 1813 1813 1813 1813 1813 1813 1813 1813 1823 1823 1823 1823 1823 1823 1833 1823 1823 1823 1823 1823 1833 1833 1833 1833 1843 1843 1843 1853 1843 1843 1843 1843 1843 1843 1843 1843 1843 1843 1843 1843 1843 1843 1843 1843 1843 1853 1853 1853 1853 1853 1853 1853 1853 1853 1853 1853 1853 1853 1853 1853 1853 1853 1853 1853 1863 1863 1863 1863 1873 1873 1873 1873 1873 1873 1873 1873 1873 1873 1873 1873 1873 1873 1873 1873 1863 1863 1873 1873 1873 1873 1873 1873 1873 1873 1873 1883 1883 1883 1883 1883 1883 1883 1883 1883 1883 1883 1883 1883 1883 1883 1883 1883 1883 1883 1883 1883 1883 1883 1883 1883 1671 1671 1671 1671 1671 1671 1663 1663 1663 1663 1663 1663 1671 1671 1671 1671 1680 1680 1688 1696 1696 1705 1705 1705 1705 1696 1696 1696 1680 1671 1663 1647 1639 1639 1632 1624 1616 1616 1609 1609 1609 1609 1609 1609 1616 1616 1609 1609 1624 1904 1904 1904 1915 1915 1915 1915 1915 1915 1904 1904 1904 1904 1904 1904 1904 1915 1915 1915 1915 1915 1915 1904 1904 1904 1915 1915 1915 1915 1915 1915 1915 1915 1915 1915 1915 1915 1915 1915 1915 1915 1926 1926 1926 1926 1926 1926 1926 1926 1926 1926 1926 1926 1926 1926 1926 1926 1926 1926 1936 1936 1947 1947 1757 1757 1766 1766 1766 1766 1766 1766 1766 1766 1776 1766 1766 1766 1766 1915 1915 1926 1926 1926 1936 1926 1926 1926 1936 1936 1926 1926 1926 1926 1926 1926 1926 1926 1926 1926 1926 1926 1915 1915 1926 1926 1926 1926 1926 1936 1926 1926 1926 1936 1936 1936 1947 1947 1947 1947 1785 1785 1785 1785 1785 1785 1785 1785 1785 1785 1785 1785 1785 1785 1785 1947 1947 1947 1947 1947 1947 1947 1947 1947 1947 1947 1947 1947 1947 1947 1947 1947 1947 1947 1947 1947 1947 1947 1947 1947 1959 1959 1959 1959 1959 1959 1959 1959 1959 1959 1947 1947 1947 1947 1947 1947 1947 1947 1947 1947 1947 1947 1947 1936 1936 1926 1926 1926 1915 1915 1915 1915 1915 1926 1926 1936 1936 1936 1947 1947 1947 1947 1947 1947 1947 1947 1947 1947 1947 1947 1959 1959 1959 1959 1959 1959 1959 1959 1959 1959 1959 1959 1959 1959 1959 1959 1970 1970 1970 1970 1970 1981 1981 1981 1981 1981 1970 1970 1970 1959 1959 1970 1970 1970 1970 1970 1970 1970 1970 1970 1970 1970 1970 1970 1970 1970 1970 1959 1959 1959 1959 1959 1959 1970 1970 1970 1970 1970 1970 1970 1970 1970 1959 1959 1959 1959 1959 1959 1970 1970 1970 1970 1970 1970 1970 1970 1981 1981 1981 1981 1981 1981 1981 1981 1981 1981 1981 1981 1981 1981 1981 1981 1981 1981 0 0 0 0 0 0 0 0
