0 0 0 0 0 0 0 0 0 0 0 0 0 0 0 0 0 0 0 0 0 0 0 0 0 0 0 0 0 0 0 3300 3300 3300 3300 3300 3300 3300 3300 3300 3300 3269 3269 3269 3269 3269 3269 3269 3269 3269 3300 3300 3300 3300 3269 3269 3269 3269 3300 3300 3300 3300 3333 3333 3300 3300 3300 3300 3300 3269 3269 3300 3300 3300 3300 3300 3300 3333 3333 3333 3333 3333 3333 3333 3333 3300 3300 3300 3333 3333 3333 3333 3333 3333 3365 3365 3333 3333 3365 3333 3333 3333 3333 3333 3365 3365 3399 3399 3399 3399 3399 3399 3399 3365 3365 3399 3399 3399 3399 3399 3433 3433 3433 3433 3433 3433 3433 3433 3433 3433 3433 3433 3433 3433 3433 3433 0 0 0 0 0 1489 1489 1489 1489 1489 1489 1489 1489 1489 1489 1489 1489 1489 1503 1503 1509 1509 1509 1509 1601 1601 1601 1601 1594 1594 1594 1586 1586 1586 1586 1586 1586 1586 1586 1579 1579 1579 1579 1579 1579 1572 1572 1572 1572 1572 1564 1564 1564 1564 1564 1564 1564 1564 1564 1564 1564 1564 1564 1564 1557 1557 1557 1557 1557 1557 1557 1550 1550 1550 1550 1543 1543 1543 1543 1543 1543 1543 1543 1543 1543 1536 1410 1410 1410 1410 1415 1410 1410 1410 1410 1410 1404 1404 1404 1404 1398 1398 1398 1398 1398 1398 1392 1392 1392 1387 1387 1387 1387 1392 1392 1392 1392 1398 1489 1489 1496 1496 1489 1489 1489 1489 1489 1489 1489 1489 1489 1489 1489 1489 1483 1483 1477 1477 1483 1477 1477 1477 1477 1477 1477 1470 1470 1470 1470 1470 1470 1470 1470 1470 1470 1464 1464 1464 1464 1268 1264 1264 1264 1264 1264 1264 1264 1264 1264 1268 1268 1268 1268 1273 1273 1273 1268 1268 1268 1264 1264 1259 1259 1259 1255 1255 1255 1255 1255 1250 1250 1245 1245 1241 1236 1236 1236 1236 1236 1232 1232 1232 1410 1404 1404 1404 1398 1398 1398 1398 1232 1232 1232 1392 1392 1392 1398 1392 1392 1392 1392 1387 1387 1387 1387 1387 1387 1387 1387 1387 1387 1387 1387 1387 1387 1387 1381 1381 1381 1381 1381 1381 1376 1376 1376 1370 1370 1370 1370 1370 1370 1370 1370 1370 1370 1370 1370 1370 1370 1370 1365 1365 1365 1365 1365 1365 1365 1365 1365 1365 1365 1365 1359 1359 1359 1359 1359 1359 1359 1359 1359 1365 1365 1157 1157 1157 1157 1157 1157 1153 1153 1153 1153 1153 1153 1153 1153 1153 1157 1157 1157 1157 1333 1333 1338 1338 1343 1349 1349 1354 1354 1354 1354 1354 1354 1354 1349 1349 1349 1354 1349 1349 1354 1354 1354 1354 1354 1359 1359 1359 1354 1349 1349 1349 1349 1349 1349 1349 1349 1349 1354 1354 1354 1354 1359 1359 1359 1359 1365 1365 1365 1365 1365 1359 1359 1359 1354 1354 1359 1349 1349 1354 1354 1354 1359 1359 1354 1354 1359 1359 1359 1359 1365 1359 1359 1359 1354 1354 1343 1338 1333 1333 1328 1322 1322 1328 1328 1333 1333 1333 1333 1333 1338 1338 1338 1338 1338 1338 1343 1343 1349 1354 1354 1354 1354 1354 1359 1359 1359 1365 1365 1365 1365 1365 1365 1365 1359 1359 1359 1359 1359 1365 1365 1365 1365 1365 0 0 0 0 0 0 0 3774 3774 3774 3816 3816 3816 3859 3859 3859 3859 3859 3859 3859 3774 3774 3774 3774 3774 3774 3816 3816 3774 3774 3816 3816 3774 3774 3774 3774 3774 3774 3732 3732 3732 3732 3732 3732 3732 3732 3732 3732 3732 3732 3732 3732 3774 3774 3816 3816 3816 3816 3816 0 0 0 0 0 0 0 0 0 0 0 0 0 0 0 0 0 0 0
0 0 0 0 0 0 0 0 0 0 0 0 0 0 0 0 0 0 0 0 0 0 0 0 0 0 0 0 0 0 0 3300 3269 3269 3269 3269 3269 3269 3269 3269 3269 3269 3269 3238 3238 3238 3238 3238 3238 3238 3238 3238 3269 3269 3269 3269 3269 3269 3300 3269 3269 3300 3300 3300 3300 3269 3269 3269 3269 3238 3238 3300 3300 3300 3300 3300 3300 3300 3300 3300 3300 3300 3333 3300 3300 3300 3300 3300 3333 3333 3333 3333 3333 3333 3365 3333 3333 3333 3333 3333 3333 3333 3333 3333 3333 3365 3365 3365 3365 3365 3365 3365 3365 3365 3365 3365 3365 3365 3365 3399 3399 3399 3399 3399 3399 3399 3399 3433 3433 3433 3433 3433 3433 3433 3433 3433 0 0 0 0 0 1489 1489 1489 1489 1489 1489 1489 1489 1489 1489 1489 1489 1489 1503 1503 1509 1509 1509 1509 1609 1609 1609 1601 1601 1594 1594 1594 1586 1586 1586 1586 1586 1586 1586 1586 1579 1579 1579 1579 1579 1572 1564 1564 1572 1564 1564 1564 1564 1564 1564 1564 1564 1564 1564 1564 1564 1564 1564 1557 1557 1557 1557 1557 1557 1557 1557 1557 1550 1550 1550 1550 1550 1543 1543 1543 1543 1543 1543 1543 1543 1536 1536 1536 1536 1415 1415 1410 1410 1415 1410 1410 1404 1404 1404 1404 1398 1398 1398 1398 1398 1398 1398 1392 1392 1387 1387 1387 1392 1392 1392 1392 1392 1398 1398 1496 1496 1496 1489 1489 1489 1489 1489 1489 1489 1489 1489 1489 1489 1489 1483 1483 1483 1483 1483 1483 1477 1477 1477 1477 1477 1477 1477 1470 1470 1470 1470 1470 1470 1470 1470 1464 1464 1470 1268 1268 1264 1264 1264 1264 1264 1264 1264 1264 1264 1268 1268 1268 1268 1273 1273 1273 1268 1268 1268 1264 1264 1259 1259 1259 1255 1255 1255 1255 1255 1250 1250 1245 1245 1241 1236 1236 1236 1236 1236 1232 1232 1232 1232 1232 1232 1232 1232 1232 1232 1232 1232 1232 1227 1227 1227 1392 1398 1392 1392 1392 1392 1387 1387 1387 1387 1387 1387 1387 1387 1387 1387 1387 1387 1381 1381 1387 1381 1381 1381 1381 1381 1376 1376 1376 1376 1370 1370 1370 1370 1370 1370 1370 1370 1370 1370 1370 1370 1370 1365 1365 1365 1365 1365 1365 1365 1365 1365 1365 1365 1365 1365 1365 1359 1359 1359 1359 1359 1359 1359 1359 1359 1359 1359 1157 1157 1157 1157 1157 1157 1157 1153 1153 1153 1153 1153 1153 1153 1153 1157 1157 1157 1157 1157 1333 1333 1333 1333 1338 1338 1343 1343 1343 1349 1343 1343 1343 1343 1343 1343 1343 1343 1343 1349 1349 1349 1349 1349 1354 1349 1349 1343 1343 1343 1343 1343 1343 1343 1343 1343 1343 1349 1349 1349 1349 1354 1354 1354 1354 1354 1359 1354 1354 1354 1354 1349 1349 1349 1349 1349 1343 1343 1343 1343 1343 1343 1343 1349 1343 1343 1349 1349 1354 1354 1354 1354 1354 1349 1343 1333 1322 1322 1317 1317 1317 1317 1317 1317 1322 1328 1322 1322 1328 1333 1338 1338 1333 1333 1338 1338 1338 1338 1343 1343 1343 1349 1349 1349 1349 1349 1354 1354 1359 1359 1359 1359 1359 1359 1359 1359 1359 1359 1359 1359 1359 1359 1359 0 0 0 0 0 0 0 3774 3774 3774 3774 3774 3774 3816 3816 3816 3816 3816 3816 3816 3774 3774 3732 3732 3732 3732 3774 3774 3732 3732 3774 3816 3774 3774 3774 3774 3774 3774 3732 3732 3732 3732 3692 3692 3692 3692 3692 3692 3692 3692 3732 3732 3732 3732 3774 3774 3774 3774 3774 0 0 0 0 0 0 0 0 0 0 0 0 0 0 0 0 0 0 0
0 0 0 0 0 0 0 0 0 0 0 0 0 0 0 0 0 0 0 0 0 0 0 0 0 0 0 0 0 0 0 0 3238 3238 3269 3269 3269 3238 3238 3238 3238 3238 3238 3238 3238 3238 3238 3238 3238 3238 3238 3238 3238 3269 3238 3238 3238 3238 3269 3269 3269 3269 3269 3269 3269 3269 3269 3269 3238 3238 3238 3269 3269 3269 3269 3269 3269 3300 3300 3300 3300 3300 3300 3300 3300 3300 3300 3300 3300 3300 3300 3300 3333 3333 3333 3333 3333 3333 3333 3333 3333 3333 3333 3333 3333 3333 3333 3333 3365 3365 3333 3333 3333 3333 3333 3365 3365 3365 3365 3365 3399 3399 3399 3399 3399 3399 3399 3399 3399 3433 3433 3433 3433 3433 3433 3433 0 0 0 0 0 1496 1496 1489 1489 1496 1496 1489 1489 1489 1489 1489 1489 1489 1503 1503 1509 1509 1509 1509 1609 1616 1616 1609 1609 1616 1601 1594 1594 1594 1586 1586 1586 1586 1586 1586 1586 1579 1579 1579 1572 1572 1564 1564 1564 1564 1557 1557 1564 1564 1564 1564 1564 1564 1564 1564 1557 1557 1557 1557 1557 1557 1557 1557 1557 1557 1557 1557 1550 1550 1550 1550 1550 1550 1543 1543 1543 1543 1543 1543 1543 1536 1536 1536 1536 1536 1536 1529 1529 1529 1529 1529 1529 1529 1529 1404 1398 1398 1392 1392 1398 1398 1398 1398 1398 1392 1392 1392 1392 1392 1392 1392 1398 1398 1398 1496 1496 1496 1489 1489 1489 1489 1489 1489 1489 1489 1489 1489 1489 1489 1483 1483 1483 1483 1483 1483 1483 1477 1477 1477 1477 1477 1477 1470 1470 1470 1470 1470 1470 1470 1470 1464 1464 1464 1268 1268 1268 1268 1268 1268 1264 1264 1264 1264 1264 1268 1268 1268 1268 1273 1273 1268 1268 1264 1264 1264 1264 1259 1259 1259 1255 1255 1255 1255 1255 1250 1250 1250 1245 1245 1241 1241 1241 1236 1236 1236 1236 1236 1232 1232 1232 1232 1232 1232 1232 1232 1227 1227 1227 1227 1227 1227 1227 1227 1392 1392 1387 1387 1387 1387 1387 1387 1392 1387 1387 1387 1387 1387 1387 1381 1381 1381 1381 1381 1381 1381 1381 1376 1376 1376 1376 1376 1376 1376 1370 1370 1370 1370 1370 1370 1370 1370 1370 1365 1365 1365 1365 1365 1365 1365 1365 1365 1365 1359 1359 1365 1359 1359 1359 1359 1359 1354 1354 1354 1354 1354 1354 1359 1359 1157 1157 1157 1157 1157 1157 1157 1157 1153 1153 1157 1157 1157 1157 1157 1153 1153 1157 1157 1157 1328 1328 1328 1328 1333 1333 1338 1343 1343 1343 1338 1338 1338 1338 1338 1338 1338 1338 1338 1343 1343 1343 1343 1343 1343 1343 1343 1338 1338 1338 1338 1338 1338 1338 1338 1338 1338 1338 1338 1338 1343 1343 1349 1349 1343 1343 1349 1343 1343 1343 1343 1343 1343 1343 1343 1343 1338 1338 1338 1338 1338 1343 1343 1343 1343 1343 1343 1343 1343 1349 1349 1349 1349 1343 1317 1307 1307 1307 1307 1307 1307 1307 1312 1312 1312 1312 1317 1317 1322 1328 1333 1333 1328 1328 1328 1333 1333 1333 1338 1338 1338 1343 1343 1343 1343 1343 1343 1349 1349 1349 1349 1354 1354 1354 1354 1354 1354 1354 1354 1359 1354 1349 1349 0 0 0 0 0 0 0 0 3774 3774 3774 3774 3774 3774 3774 3774 3774 3774 3774 3774 3732 3732 3692 3692 3692 3732 3732 3732 3732 3732 3774 3774 3774 3732 3732 3774 3774 3732 3732 3692 3692 3692 3692 3692 3692 3692 3692 3692 3692 3692 3692 3692 3692 3692 3732 3732 3774 3774 3774 0 0 0 0 0 0 0 0 0 0 0 0 0 0 0 0 0 0 0
0 0 0 0 0 0 0 0 0 0 0 0 0 0 0 0 0 0 0 0 0 0 0 0 0 0 0 0 0 0 0 0 3238 3238 3238 3238 3238 3238 3238 3238 3238 3238 3208 3208 3208 3208 3208 3208 3208 3238 3238 3238 3238 3238 3238 3238 3238 3238 3269 3269 3269 3269 3269 3269 3238 3238 3238 3269 3208 3208 3208 3238 3238 3238 3269 3269 3269 3269 3269 3269 3269 3269 3269 3269 3300 3300 3300 3300 3300 3300 3300 3300 3300 3300 3333 3333 3333 3333 3333 3333 3333 3333 3333 3333 3333 3333 3333 3333 3333 3333 3333 3333 3333 3333 3333 3333 3333 3333 3333 3365 3365 3365 3365 3365 3365 3365 3365 3365 3399 3399 3399 3399 3399 3399 3399 3399 0 0 0 0 0 1496 1496 1496 1496 1496 1496 1496 1496 1496 1496 1496 1496 1496 1503 1503 1503 1509 1509 1503 1503 1624 1624 1616 1616 1624 1624 1609 1594 1594 1594 1586 1586 1586 1586 1586 1586 1586 1586 1579 1572 1572 1557 1557 1557 1557 1557 1557 1564 1564 1564 1564 1564 1564 1564 1557 1557 1557 1557 1557 1557 1557 1557 1557 1557 1557 1557 1557 1550 1550 1550 1550 1550 1550 1543 1543 1543 1543 1543 1536 1536 1536 1536 1536 1536 1536 1536 1536 1536 1529 1529 1529 1529 1529 1529 1529 1529 1529 1392 1392 1392 1398 1398 1398 1398 1392 1392 1392 1392 1392 1398 1398 1398 1398 1398 1496 1496 1496 1489 1489 1489 1489 1489 1489 1489 1489 1489 1489 1489 1489 1489 1489 1483 1483 1483 1483 1483 1477 1477 1477 1477 1477 1477 1470 1470 1470 1470 1470 1470 1470 1470 1464 1464 1464 1273 1268 1268 1268 1268 1268 1264 1264 1264 1264 1264 1268 1268 1268 1268 1268 1268 1268 1268 1264 1264 1264 1264 1259 1259 1259 1255 1255 1255 1255 1255 1255 1250 1250 1250 1245 1245 1245 1241 1241 1241 1241 1236 1236 1236 1232 1232 1232 1232 1232 1232 1232 1227 1227 1227 1227 1227 1227 1227 1227 1223 1223 1223 1223 1223 1223 1223 1223 1392 1387 1387 1387 1387 1387 1381 1381 1381 1381 1381 1381 1381 1381 1381 1376 1376 1376 1376 1376 1376 1376 1376 1376 1376 1370 1370 1370 1370 1370 1370 1365 1365 1365 1365 1365 1365 1365 1365 1365 1365 1359 1359 1365 1359 1359 1359 1359 1354 1354 1354 1354 1354 1354 1354 1354 1354 1157 1157 1157 1157 1157 1157 1157 1157 1157 1157 1157 1157 1157 1157 1157 1153 1153 1157 1157 1157 1328 1328 1328 1328 1328 1328 1333 1333 1333 1328 1328 1328 1328 1328 1328 1333 1333 1333 1333 1333 1328 1328 1328 1328 1328 1328 1328 1333 1333 1333 1333 1333 1333 1333 1328 1328 1333 1333 1333 1333 1333 1338 1338 1333 1328 1328 1338 1338 1338 1338 1338 1338 1343 1343 1338 1338 1333 1333 1333 1333 1333 1333 1333 1338 1338 1333 1333 1333 1333 1333 1328 1328 1322 1317 1307 1302 1302 1302 1302 1302 1302 1302 1302 1302 1307 1307 1307 1312 1317 1317 1322 1328 1328 1322 1322 1328 1328 1328 1328 1328 1328 1338 1338 1338 1338 1338 1343 1343 1343 1343 1343 1349 1354 1349 1349 1349 1349 1349 1354 1354 1349 1343 1338 1338 0 0 0 0 0 0 0 3774 3774 3774 3774 3774 3774 3774 3774 3774 3732 3732 3732 3692 3692 3692 3692 3692 3692 3692 3692 3692 3692 3732 3732 3732 3692 3692 3732 3732 3732 3692 3692 3692 3692 3692 3692 3692 3653 3653 3653 3653 3692 3692 3692 3692 3692 3732 3732 3732 3732 3732 3774 0 0 0 0 0 0 0 0 0 0 0 0 0 0 0 0 0 0
0 0 0 0 0 0 0 0 0 0 0 0 0 0 0 0 0 0 0 0 0 0 0 0 0 0 0 0 0 0 0 0 3238 3238 3238 3238 3238 3208 3208 3208 3208 3208 3208 3208 3208 3208 3208 3208 3208 3208 3208 3208 3208 3238 3238 3238 3238 3238 3238 3238 3238 3269 3238 3238 3238 3238 3238 3238 3208 3208 3208 3208 3238 3238 3238 3238 3238 3269 3238 3238 3238 3269 3269 3269 3269 3269 3269 3269 3269 3269 3300 3300 3300 3300 3300 3300 3300 3300 3300 3300 3300 3300 3300 3300 3300 3300 3300 3300 3333 3333 3333 3333 3333 3333 3333 3333 3333 3333 3333 3333 3333 3333 3333 3333 3333 3333 3365 3365 3365 3365 3365 3365 3399 3365 3365 3365 3399 0 0 0 0 1503 1503 1503 1503 1503 1503 1496 1496 1496 1496 1496 1496 1496 1503 1503 1503 1509 1509 1503 1503 1632 1632 1632 1632 1632 1639 1639 1632 1632 3503 3468 3468 3468 3468 3433 3433 3468 1586 1586 3503 3503 1557 1557 1557 1557 1557 1557 1564 1564 1564 1564 1564 1564 1564 1557 1557 1557 1557 1557 1557 1557 1557 1557 1557 1557 1557 1557 1550 1550 1550 1550 1550 1550 1543 1543 1543 1543 1543 1536 1536 1536 1536 1536 1536 1536 1536 1536 1536 1529 1529 1529 1529 1529 1529 1529 1529 1529 1392 1392 1392 1398 1398 1398 1398 1392 1392 1392 1392 1392 1398 1398 1398 1398 1398 1496 1496 1496 1496 1496 1496 1496 1496 1489 1489 1489 1489 1489 1489 1489 1489 1489 1489 1489 1489 1483 1483 1483 1483 1477 1477 1477 1477 1477 1477 1477 1470 1470 1470 1470 1470 1464 1464 1464 1273 1273 1268 1268 1268 1268 1264 1264 1264 1264 1264 1268 1268 1268 1268 1268 1268 1268 1268 1268 1268 1264 1264 1264 1259 1259 1255 1255 1255 1255 1255 1255 1255 1250 1250 1250 1250 1245 1241 1241 1241 1241 1236 1236 1236 1236 1232 1232 1232 1232 1232 1227 1227 1227 1227 1227 1227 1227 1227 1227 1223 1223 1223 1223 1223 1223 1223 1219 1219 1219 1219 1219 1214 1214 1214 1219 1381 1381 1214 1214 1214 1219 1219 1376 1376 1376 1376 1376 1376 1376 1376 1376 1376 1370 1370 1370 1370 1370 1370 1370 1370 1370 1370 1365 1365 1365 1365 1365 1365 1365 1365 1365 1359 1359 1359 1359 1354 1354 1354 1354 1349 1349 1354 1354 1354 1157 1157 1157 1157 1157 1157 1157 1157 1157 1157 1157 1157 1157 1157 1157 1157 1157 1157 1157 1157 1328 1322 1322 1322 1328 1328 1328 1322 1322 1328 1322 1322 1322 1322 1328 1328 1328 1328 1328 1328 1322 1322 1322 1322 1322 1322 1322 1322 1322 1322 1322 1328 1328 1328 1322 1322 1322 1328 1322 1322 1322 1328 1328 1328 1322 1322 1328 1328 1328 1333 1333 1338 1338 1338 1333 1333 1333 1328 1328 1322 1322 1322 1328 1328 1328 1322 1322 1322 1322 1322 1317 1317 1312 1312 1297 1297 1297 1297 1297 1297 1297 1297 1297 1302 1302 1302 1302 1302 1307 1307 1312 1317 1312 1312 1312 1312 1302 1302 1307 1307 1312 1328 1333 1333 1333 1333 1338 1338 1338 1338 1338 1343 1343 1343 1343 1343 1343 1343 1349 1343 1338 1333 1322 1322 0 0 0 0 0 0 0 3774 3774 3774 3774 3774 3774 3774 3732 3732 3732 3732 3732 3692 3692 3692 3692 3692 3692 3692 3692 3692 3692 3692 3732 3692 3692 3692 3692 3692 3692 3692 3692 3692 3692 3653 3653 3653 3653 3653 3653 3653 3653 3692 3692 3692 3692 3692 3732 3732 3732 3732 3774 0 0 0 0 0 0 0 0 0 0 0 0 0 0 0 0 0 0
0 0 0 0 0 0 0 0 0 0 0 0 0 0 0 0 0 0 0 0 0 0 0 0 0 0 0 0 0 0 0 0 3238 3208 3208 3208 3208 3208 3208 3208 3208 3208 3208 3208 3208 3208 3208 3208 3208 3208 3208 3208 3208 3208 3208 3238 3238 3238 3238 3238 3238 3238 3238 3238 3238 3238 3238 3238 3208 3208 3208 3208 3208 3208 3208 3208 3208 3238 3208 3208 3238 3238 3238 3238 3238 3238 3238 3269 3269 3269 3269 3269 3269 3269 3269 3269 3269 3269 3269 3300 3300 3300 3300 3300 3300 3300 3300 3300 3300 3300 3333 3333 3333 3333 3333 3333 3333 3333 3333 3333 3333 3333 3333 3333 3333 3333 3333 3333 3365 3365 3365 3365 3365 3333 3333 3365 3365 0 0 0 0 0 1503 1503 1503 1503 1503 1503 1503 1503 1503 1503 1503 1503 1503 1503 1509 1509 1509 1509 1509 1632 1632 1632 1632 1639 1639 1639 1639 1639 1639 3433 3433 3433 3433 3433 3433 3468 3468 3468 3468 3468 3468 3468 1557 1557 1557 1557 1557 1564 1564 1564 1564 1564 1564 1557 1557 1557 1557 1557 1557 1557 1557 1557 1557 1557 1557 1557 1557 1550 1550 1550 1550 1550 1543 1543 1543 1536 1536 1536 1536 1536 1536 1536 1536 1536 1536 1536 1536 1529 1529 1529 1529 1529 1529 1529 1529 1529 1529 1398 1398 1398 1398 1398 1398 1392 1392 1392 1392 1392 1398 1398 1398 1398 1404 1496 1496 1496 1496 1496 1496 1496 1496 1496 1489 1489 1489 1489 1489 1489 1489 1489 1489 1489 1489 1483 1483 1483 1483 1477 1477 1477 1477 1477 1477 1477 1477 1477 1477 1470 1470 1470 1464 1464 1273 1273 1273 1273 1268 1268 1268 1268 1268 1268 1268 1268 1268 1268 1268 1268 1268 1268 1268 1268 1268 1264 1264 1264 1259 1259 1255 1255 1255 1255 1255 1255 1255 1255 1250 1250 1250 1250 1241 1241 1241 1241 1236 1236 1236 1236 1232 1232 1232 1232 1232 1227 1227 1227 1227 1227 1227 1227 1223 1223 1223 1223 1223 1219 1219 1219 1219 1219 1219 1219 1219 1219 1214 1214 1214 1214 1214 1214 1214 1214 1214 1214 1214 1214 1214 1214 1376 1376 1376 1376 1376 1376 1376 1376 1376 1370 1370 1370 1370 1370 1370 1370 1370 1365 1365 1365 1365 1365 1365 1365 1365 1365 1365 1359 1359 1359 1359 1354 1354 1354 1349 1349 1354 1354 1354 1161 1161 1161 1161 1157 1157 1157 1157 1157 1157 1157 1157 1157 1157 1157 1157 1157 1157 1157 1157 1322 1322 1322 1322 1322 1322 1322 1322 1322 1322 1322 1322 1322 1322 1322 1322 1322 1322 1322 1322 1322 1317 1317 1317 1317 1317 1317 1317 1317 1322 1322 1322 1322 1317 1317 1317 1317 1317 1317 1317 1317 1322 1322 1322 1317 1317 1317 1317 1322 1322 1322 1328 1333 1333 1333 1328 1328 1322 1317 1317 1317 1317 1317 1317 1312 1307 1307 1312 1312 1307 1307 1307 1302 1302 1297 1297 1297 1297 1297 1292 1292 1297 1297 1297 1297 1297 1297 1297 1302 1302 1302 1302 1302 1302 1302 1302 1297 1297 1297 1302 1302 1312 1328 1328 1328 1328 1328 1328 1328 1328 1328 1328 1328 1328 1328 1338 1338 1333 1333 1328 1328 1328 1322 1322 1317 1317 0 0 0 0 0 0 3774 3732 3732 3732 3732 3732 3732 3732 3692 3692 3692 3653 3653 3653 3653 3653 3653 3692 3692 3692 3692 3692 3692 3692 3653 3653 3653 3653 3653 3653 3653 3653 3653 3653 3653 3653 3653 3653 3653 3653 3653 3653 3653 3653 3653 3692 3692 3732 3732 3732 0 0 0 0 0 0 0 0 0 0 0 0 0 0 0 0 0 0 0
0 0 0 0 0 0 0 0 0 0 0 0 0 0 0 0 0 0 0 0 0 0 0 0 0 0 0 0 0 0 0 0 3208 3208 3208 3208 3208 3208 3178 3178 3178 3178 3178 3178 3208 3178 3178 3208 3208 3208 3208 3208 3208 3208 3208 3208 3208 3208 3208 3208 3208 3238 3208 3208 3208 3208 3208 3208 3178 3178 3178 3208 3208 3208 3208 3178 3178 3208 3208 3208 3208 3208 3208 3208 3208 3208 3238 3238 3238 3238 3238 3238 3238 3238 3238 3238 3238 3238 3238 3269 3269 3300 3300 3300 3300 3300 3300 3300 3300 3300 3300 3300 3300 3300 3300 3300 3300 3300 3300 3300 3333 3333 3333 3333 3333 3333 3333 3333 3333 3333 3333 3333 3333 3333 3333 3333 3365 0 0 0 0 0 1503 1503 1503 1503 1503 1503 1503 1503 1503 1503 1503 1503 1503 1503 1509 1509 1509 1509 1509 1632 1639 1639 1639 1639 1647 1647 1647 1639 1639 3399 3399 3399 3399 3433 3433 3433 3433 3433 3433 3433 3433 3433 3433 3433 3433 1557 1557 1564 1564 1572 1564 1564 1564 1557 1557 1557 1557 1557 1557 1557 1550 1550 1550 1550 1557 1557 1557 1557 1550 1550 1550 1550 1543 1543 1543 1536 1536 1536 1536 1536 1536 1536 1543 1543 1543 1536 1536 1529 1529 1529 1529 1529 1529 1529 1529 1529 1529 1398 1398 1398 1398 1398 1398 1392 1392 1392 1398 1398 1398 1398 1398 1398 1404 1496 1496 1496 1496 1496 1496 1496 1496 1496 1489 1489 1489 1489 1489 1489 1489 1489 1489 1489 1489 1483 1483 1483 1483 1483 1477 1477 1477 1477 1477 1477 1477 1477 1477 1470 1470 1470 1464 1464 1273 1273 1273 1273 1273 1268 1268 1268 1268 1268 1268 1268 1268 1268 1268 1268 1273 1268 1268 1268 1268 1264 1264 1264 1259 1259 1255 1255 1255 1255 1255 1255 1255 1255 1255 1250 1250 1250 1245 1241 1241 1241 1236 1236 1236 1236 1232 1232 1232 1232 1232 1227 1227 1227 1227 1227 1227 1227 1223 1223 1223 1223 1223 1219 1219 1219 1219 1219 1219 1219 1219 1219 1214 1214 1214 1214 1214 1214 1214 1214 1214 1214 1214 1214 1214 1214 1214 1210 1210 1210 1210 1210 1210 1210 1210 1210 1206 1206 1210 1210 1206 1206 1206 1206 1370 1370 1365 1365 1365 1365 1365 1365 1365 1365 1359 1359 1359 1354 1354 1354 1349 1349 1354 1354 1354 1161 1161 1161 1161 1161 1161 1157 1157 1157 1157 1157 1157 1157 1157 1157 1157 1157 1157 1157 1322 1322 1322 1322 1322 1322 1322 1322 1322 1322 1322 1317 1317 1317 1317 1322 1322 1322 1322 1317 1317 1317 1317 1317 1317 1317 1317 1317 1317 1317 1317 1317 1317 1317 1312 1312 1312 1312 1312 1312 1312 1312 1312 1317 1317 1317 1317 1312 1312 1317 1317 1317 1317 1317 1322 1322 1322 1317 1312 1307 1307 1307 1307 1307 1307 1302 1302 1302 1307 1307 1307 1302 1302 1297 1297 1297 1292 1292 1292 1292 1292 1292 1292 1292 1292 1288 1288 1288 1288 1288 1288 1288 1288 1292 1292 1297 1297 1292 1292 1297 1297 1297 1302 1307 1312 1312 1317 1322 1322 1317 1317 1317 1317 1317 1317 1322 1322 1322 1322 1322 1322 1322 1322 1317 1317 1317 1317 0 0 0 0 0 0 3732 3732 3732 3732 3692 3692 3692 3692 3653 3653 3653 3653 3653 3653 3653 3653 3653 3692 3692 3653 3653 3653 3653 3653 3653 3653 3614 3614 3614 3653 3614 3614 3614 3614 3614 3653 3653 3653 3653 3653 3653 3653 3653 3653 3653 3692 3692 3692 3692 3692 0 0 0 0 0 0 0 0 0 0 0 0 0 0 0 0 0 0 0
0 0 0 0 0 0 0 0 0 0 0 0 0 0 0 0 0 0 0 0 0 0 0 0 0 0 0 0 0 0 0 0 3208 3178 3178 3178 3178 3178 3178 3178 3149 3149 3149 3149 3149 3178 3178 3178 3178 3178 3208 3178 3178 3178 3178 3208 3208 3208 3208 3208 3208 3208 3208 3208 3208 3208 3208 3208 3178 3178 3178 3178 3178 3178 3178 3178 3178 3208 3178 3178 3178 3208 3208 3208 3208 3208 3208 3208 3208 3208 3238 3238 3238 3208 3208 3208 3238 3238 3238 3238 3238 3269 3269 3269 3269 3269 3269 3269 3300 3300 3300 3300 3300 3300 3300 3300 3300 3300 3300 3300 3300 3300 3300 3300 3333 3300 3300 3300 3333 3333 3333 3333 3300 3300 3300 3333 3333 0 0 0 0 0 1503 1503 1503 1503 1503 1503 1503 1503 1503 1503 1503 1503 1503 1503 1509 1509 1509 1516 1516 1639 1639 1639 1639 1639 1647 1647 1647 1647 1647 3399 3399 3399 3399 3433 3433 3433 3433 3433 3433 3433 3433 3433 3399 3399 3399 3399 3399 3399 3399 3433 3433 3433 3399 3399 3433 1557 1557 1557 1557 1557 1543 1543 1550 1550 1550 1557 1557 1557 1557 1557 1543 1543 1536 1536 1536 1536 1536 1536 1536 1543 1543 1543 1543 1543 1536 1536 1536 1529 1529 1529 1529 1529 1529 1529 1529 1529 1529 1398 1398 1398 1398 1398 1398 1392 1392 1392 1398 1398 1398 1398 1404 1404 1404 1496 1496 1496 1496 1496 1496 1496 1496 1496 1496 1496 1496 1496 1489 1489 1489 1489 1489 1489 1489 1483 1483 1483 1483 1483 1477 1477 1477 1477 1477 1477 1477 1477 1477 1470 1470 1470 1464 1464 1273 1273 1273 1273 1273 1273 1268 1268 1268 1268 1268 1268 1268 1268 1268 1273 1273 1268 1268 1268 1268 1268 1268 1264 1264 1259 1259 1255 1255 1255 1255 1255 1255 1255 1255 1255 1255 1250 1245 1245 1245 1245 1241 1241 1236 1236 1236 1232 1232 1232 1232 1232 1227 1227 1227 1227 1227 1227 1223 1223 1223 1223 1223 1223 1223 1223 1223 1223 1223 1219 1219 1219 1214 1214 1214 1214 1214 1214 1214 1214 1214 1214 1214 1210 1210 1210 1210 1210 1210 1210 1210 1210 1210 1210 1210 1210 1206 1206 1210 1210 1206 1206 1206 1202 1202 1202 1206 1206 1365 1365 1365 1365 1365 1365 1359 1359 1359 1359 1354 1354 1354 1354 1354 1359 1359 1161 1161 1161 1161 1161 1161 1161 1161 1157 1157 1157 1157 1157 1157 1161 1161 1161 1157 1157 1322 1322 1322 1322 1322 1322 1322 1322 1322 1317 1317 1317 1317 1317 1317 1317 1317 1317 1317 1317 1317 1312 1312 1312 1312 1312 1312 1312 1312 1312 1312 1312 1312 1307 1307 1307 1307 1307 1307 1307 1307 1307 1307 1312 1312 1312 1312 1307 1307 1307 1307 1307 1307 1307 1307 1307 1307 1307 1307 1302 1302 1302 1302 1302 1302 1297 1297 1302 1302 1302 1302 1297 1297 1297 1292 1292 1288 1288 1288 1288 1288 1288 1288 1288 1288 1283 1278 1278 1278 1283 1283 1283 1283 1283 1288 1292 1292 1288 1288 1292 1292 1292 1292 1297 1302 1307 1312 1312 1312 1307 1307 1312 1312 1312 1312 1317 1317 1317 1312 1312 1317 1317 1312 1312 1312 1312 1312 1312 0 0 0 0 0 3732 3692 3692 3692 3692 3692 3692 3692 3653 3653 3653 3614 3614 3614 3614 3653 3653 3653 3653 3653 3653 3653 3653 3653 3653 3653 3614 3614 3614 3614 3614 3576 3576 3576 3614 3614 3653 3653 3653 3653 3653 3653 3653 3653 3653 3653 3653 3653 3653 3692 0 0 0 0 0 0 0 0 0 0 0 0 0 0 0 0 0 0 0
0 0 0 0 0 0 0 0 0 0 0 0 0 0 0 0 0 0 0 0 0 0 0 0 0 0 0 0 0 0 0 0 3178 3178 3178 3178 3178 3149 3149 3149 3120 3120 3120 3120 3120 3149 3149 3120 3120 3149 3178 3149 3149 3178 3178 3178 3208 3208 3208 3208 3208 3208 3208 3208 3208 3208 3208 3208 3178 3178 3178 3178 3178 3178 3178 3178 3178 3178 3178 3178 3178 3178 3178 3178 3208 3208 3208 3208 3208 3208 3208 3208 3208 3208 3208 3208 3208 3208 3208 3208 3208 3238 3238 3238 3238 3269 3269 3269 3269 3269 3300 3300 3300 3300 3300 3300 3300 3300 3300 3300 3300 3300 3300 3300 3300 3300 3300 3300 3300 3300 3300 3300 3300 3300 3300 3300 3333 0 0 0 0 0 1503 1503 1503 1503 1503 1503 1503 1503 1503 1503 1503 1503 1503 1509 1509 1509 1516 1516 1516 1639 1639 1639 1639 1647 1647 1647 1647 1647 1647 3399 3399 3399 3399 3399 3399 3399 3399 3399 3399 3399 3399 3399 3399 3399 3399 3399 3399 3399 3399 3399 3399 3399 3399 3399 3399 3399 3399 3399 3399 1543 1543 1543 1550 1550 1550 1557 1557 1557 1550 1550 1543 1536 1536 1536 1536 1536 1536 1536 1536 1543 1543 1543 1543 1543 1536 1536 1536 1529 1529 1529 1529 1529 1529 1529 1529 1529 1529 1398 1398 1398 1398 1398 1398 1398 1398 1398 1398 1398 1398 1404 1404 1404 1410 1496 1496 1496 1496 1496 1496 1496 1496 1496 1496 1496 1496 1496 1496 1489 1489 1489 1489 1489 1489 1483 1483 1483 1483 1483 1477 1477 1477 1477 1477 1477 1477 1477 1477 1470 1470 1470 1470 1470 1273 1273 1273 1273 1273 1273 1273 1268 1268 1268 1268 1268 1268 1273 1273 1273 1273 1273 1268 1268 1268 1268 1268 1268 1264 1264 1259 1259 1259 1259 1255 1255 1255 1255 1255 1255 1255 1255 1245 1245 1245 1245 1241 1241 1236 1236 1236 1232 1232 1232 1232 1232 1232 1232 1227 1227 1227 1227 1223 1223 1223 1223 1223 1219 1219 1219 1219 1219 1219 1219 1219 1219 1214 1214 1214 1214 1214 1214 1214 1214 1214 1214 1210 1210 1210 1210 1210 1210 1210 1210 1210 1210 1210 1210 1210 1210 1210 1210 1210 1210 1210 1210 1206 1202 1202 1202 1202 1202 1202 1365 1365 1365 1365 1365 1365 1359 1359 1359 1359 1359 1354 1354 1354 1359 1165 1161 1161 1161 1161 1161 1161 1161 1161 1157 1157 1157 1157 1157 1161 1161 1161 1161 1161 1317 1322 1328 1322 1322 1322 1322 1322 1322 1322 1317 1317 1317 1317 1317 1317 1317 1317 1317 1317 1317 1312 1312 1312 1312 1312 1307 1307 1307 1307 1307 1307 1307 1307 1307 1302 1302 1302 1302 1302 1302 1302 1302 1302 1307 1307 1307 1307 1302 1302 1302 1302 1302 1302 1302 1302 1302 1302 1302 1302 1302 1302 1302 1302 1297 1297 1292 1292 1292 1297 1297 1297 1297 1297 1297 1292 1288 1283 1283 1283 1283 1283 1283 1283 1283 1283 1278 1278 1278 1278 1278 1278 1278 1278 1283 1283 1288 1288 1288 1288 1288 1288 1288 1288 1288 1297 1297 1302 1302 1302 1302 1302 1302 1302 1302 1302 1307 1312 1307 1307 1307 1312 1312 1312 1312 1312 1312 1312 1312 0 0 0 0 0 0 3692 3692 3692 3692 3692 3653 3653 3653 3653 3653 3576 3576 3614 3614 3614 3614 3614 3653 3653 3653 3653 3653 3653 3614 3614 3576 3576 3576 3576 3576 3576 3576 3576 3614 3614 3614 3614 3653 3653 3653 3653 3614 3614 3614 3653 3614 3614 3653 3692 0 0 0 0 0 0 0 0 0 0 0 0 0 0 0 0 0 0 0
0 0 0 0 0 0 0 0 0 0 0 0 0 0 0 0 0 0 0 0 0 0 0 0 0 0 0 0 0 0 0 0 3149 3149 3178 3149 3149 3149 3149 3120 3120 3120 3120 3120 3120 3120 3120 3120 3120 3120 3120 3120 3120 3149 3149 3149 3178 3178 3178 3178 3178 3178 3149 3149 3178 3178 3178 3178 3178 3178 3178 3178 3178 3178 3178 3149 3149 3178 3178 3178 3178 3178 3178 3178 3178 3178 3178 3178 3208 3208 3208 3208 3208 3208 3208 3208 3208 3208 3208 3208 3208 3208 3208 3238 3238 3238 3238 3238 3238 3269 3269 3269 3269 3269 3269 3269 3269 3269 3269 3269 3269 3269 3269 3300 3269 3269 3269 3300 3300 3300 3300 3300 3300 3300 3300 3300 3300 0 0 0 0 0 1509 1503 1503 1503 1503 1503 1503 1503 1503 1503 1503 1503 1503 1509 1509 1509 1516 1516 1516 1516 1639 1639 1647 1647 1647 1647 1647 1647 1639 1639 3399 3399 3399 3399 3399 3399 3399 3399 3399 3399 3399 3399 3399 3399 3399 3399 3399 3399 3399 3399 3399 3399 3399 3399 3399 3399 3399 3399 3365 3365 3365 3365 1550 1550 1550 1557 1557 1557 1550 1550 1550 1536 1529 1529 1536 1536 1536 1536 1536 1543 1543 1543 1543 1543 1536 1536 1529 1529 1529 1529 1523 1523 1529 1529 1529 1529 1529 1398 1398 1404 1404 1398 1398 1398 1398 1398 1398 1398 1398 1404 1404 1410 1410 1496 1496 1496 1496 1496 1496 1496 1496 1496 1496 1496 1496 1496 1496 1496 1489 1489 1489 1489 1489 1483 1483 1483 1483 1483 1477 1477 1477 1477 1477 1477 1477 1477 1477 1470 1470 1470 1470 1470 1273 1273 1273 1273 1273 1273 1273 1268 1268 1273 1273 1273 1273 1273 1273 1273 1273 1273 1268 1268 1268 1268 1268 1268 1264 1264 1259 1259 1259 1259 1259 1255 1255 1255 1255 1255 1255 1255 1245 1245 1245 1245 1241 1241 1236 1236 1236 1236 1232 1232 1232 1232 1232 1232 1232 1227 1227 1227 1223 1223 1223 1223 1223 1219 1219 1219 1219 1219 1219 1219 1219 1219 1214 1214 1214 1214 1214 1214 1214 1214 1214 1214 1210 1210 1210 1210 1210 1210 1210 1210 1210 1210 1210 1210 1210 1210 1210 1210 1210 1210 1210 1206 1206 1206 1202 1202 1202 1202 1202 1202 1370 1370 1365 1365 1365 1359 1359 1359 1359 1359 1354 1354 1354 1354 1165 1161 1161 1165 1165 1165 1165 1161 1161 1161 1161 1161 1161 1161 1161 1161 1161 1165 1165 1317 1322 1328 1322 1322 1322 1322 1322 1322 1322 1317 1317 1317 1317 1317 1317 1317 1317 1317 1317 1312 1312 1312 1312 1312 1312 1307 1307 1307 1307 1302 1302 1302 1302 1302 1302 1302 1302 1302 1302 1302 1302 1302 1302 1302 1302 1302 1297 1297 1297 1297 1297 1297 1297 1297 1297 1297 1297 1297 1297 1297 1297 1297 1297 1297 1297 1288 1288 1288 1292 1292 1292 1292 1292 1292 1283 1283 1278 1278 1278 1278 1278 1278 1273 1273 1273 1273 1273 1273 1273 1278 1278 1278 1278 1278 1278 1283 1283 1283 1283 1283 1283 1278 1278 1278 1283 1288 1292 1292 1292 1292 1292 1292 1292 1292 1297 1302 1307 1307 1302 1302 1307 1307 1307 1302 1302 1302 1307 1307 0 0 0 0 0 0 3692 3692 3653 3653 3653 3653 3653 3653 3614 3614 3576 3576 3576 3576 3576 3576 3576 3614 3653 3614 3614 3614 3614 3614 3614 3576 3576 3576 3576 3576 3539 3539 3539 3576 3576 3576 3576 3576 3614 3576 3576 3576 3576 3576 3576 3614 3614 3692 3692 0 0 0 0 0 0 0 0 0 0 0 0 0 0 0 0 0 0 0
0 0 0 0 0 0 0 0 0 0 0 0 0 0 0 0 0 0 0 0 0 0 0 0 0 0 0 0 0 0 0 0 3120 3120 3149 3149 3120 3120 3120 3120 3120 3120 3120 3120 3120 3120 3120 3120 3120 3120 3120 3120 3120 3120 3120 3149 3149 3149 3149 3149 3149 3149 3149 3149 3149 3149 3149 3149 3149 3149 3149 3149 3149 3149 3149 3120 3120 3149 3120 3120 3120 3149 3149 3149 3149 3149 3149 3178 3178 3178 3208 3208 3208 3208 3208 3178 3178 3178 3178 3178 3208 3208 3208 3208 3208 3208 3208 3208 3208 3238 3238 3238 3238 3238 3238 3238 3238 3238 3238 3238 3238 3238 3269 3269 3269 3269 3269 3269 3269 3269 3269 3269 3269 3300 3300 3300 3300 0 3269 0 0 0 1503 1503 1509 1503 1503 1503 1503 1503 1503 1503 1503 1503 1509 1509 1516 1516 1516 1516 1516 1516 1647 1647 1647 1647 1647 1647 1647 1647 1639 1639 3399 3399 3399 3399 3399 3399 3399 3399 3365 3365 3399 3365 3365 3365 3365 3399 3399 3365 3365 3365 3365 3365 3365 3365 3365 3365 3365 3365 3365 3365 3365 3365 3399 3399 3399 3433 3433 3433 3433 3433 3433 3399 1529 1529 1536 1536 1536 1536 1543 1543 1550 1543 1543 1543 1536 1536 1529 1529 1529 1529 1523 1523 1523 1529 1529 1529 1404 1398 1398 1404 1404 1404 1404 1398 1398 1398 1398 1398 1398 1404 1404 1404 1410 1496 1496 1496 1496 1496 1496 1496 1496 1496 1496 1496 1496 1496 1496 1496 1496 1489 1489 1489 1489 1489 1489 1489 1489 1483 1483 1483 1483 1483 1477 1477 1477 1477 1477 1477 1470 1470 1470 1477 1273 1273 1273 1278 1273 1273 1273 1273 1273 1273 1273 1273 1273 1273 1273 1273 1273 1273 1273 1273 1273 1273 1268 1268 1268 1264 1264 1259 1259 1259 1259 1255 1255 1255 1255 1255 1255 1255 1250 1245 1245 1245 1245 1241 1241 1241 1236 1236 1236 1232 1232 1232 1232 1232 1232 1232 1232 1227 1227 1227 1223 1223 1223 1223 1223 1223 1223 1219 1219 1219 1219 1219 1214 1214 1214 1214 1214 1214 1214 1214 1214 1214 1214 1210 1210 1210 1210 1210 1210 1210 1210 1210 1210 1210 1210 1210 1210 1210 1210 1210 1206 1206 1206 1206 1202 1202 1202 1202 1202 1197 1197 1197 1197 1193 1193 1197 1197 1197 1206 1206 1206 1206 1206 1173 1173 1169 1169 1165 1165 1165 1165 1165 1165 1161 1161 1165 1165 1165 1165 1165 1165 1165 1169 1333 1333 1333 1333 1333 1328 1322 1322 1322 1322 1322 1317 1317 1322 1322 1322 1317 1317 1317 1317 1312 1312 1312 1312 1312 1312 1307 1307 1307 1307 1302 1302 1302 1302 1302 1302 1302 1302 1302 1302 1302 1302 1297 1297 1297 1297 1297 1297 1297 1297 1297 1292 1292 1292 1292 1292 1292 1292 1288 1288 1292 1292 1292 1292 1288 1288 1283 1278 1278 1283 1283 1283 1283 1283 1278 1278 1278 1273 1273 1273 1268 1268 1268 1268 1273 1273 1268 1268 1273 1273 1273 1273 1273 1273 1278 1278 1278 1278 1278 1278 1283 1278 1278 1278 1278 1278 1278 1283 1283 1283 1288 1292 1292 1288 1288 1292 1292 1292 1292 1292 1292 1297 1297 1297 1297 1297 1297 1297 1292 1292 0 0 0 0 0 3653 3653 3653 3653 3653 3653 3653 3614 3614 3614 3576 3576 3539 3539 3539 3576 3576 3576 3614 3614 3614 3614 3614 3576 3576 3576 3576 3576 3539 3539 3539 3539 3539 3539 3539 3539 3539 3539 3576 3539 3539 3539 3539 3539 3539 3539 3539 3539 0 0 0 0 0 0 0 0 0 0 0 0 0 0 0 0 0 0 0 0
0 0 0 0 0 0 0 0 0 0 0 0 0 0 0 0 0 0 0 0 0 0 0 0 0 0 0 0 0 0 0 0 3120 3092 3092 3120 3120 3120 3120 3120 3120 3092 3092 3092 3092 3120 3092 3092 3092 3092 3092 3092 3092 3092 3092 3120 3120 3149 3120 3120 3120 3120 3120 3120 3120 3120 3120 3120 3120 3120 3120 3120 3120 3120 3120 3092 3092 3120 3120 3092 3092 3120 3120 3120 3149 3149 3149 3149 3149 3149 3149 3149 3149 3178 3178 3178 3178 3178 3178 3178 3178 3178 3178 3178 3178 3178 3178 3178 3178 3208 3208 3208 3208 3208 3208 3208 3208 3208 3208 3238 3238 3238 3238 3269 3238 3238 3238 3238 3269 3269 3269 3269 3269 3269 3269 3269 3269 3269 0 0 0 0 1503 1503 1509 1503 1503 1503 1503 1503 1503 1503 1503 1509 1509 1509 1516 1516 1516 1516 1516 1516 1647 1647 1647 1647 1647 1647 1647 1647 3365 3365 3365 3365 3365 3365 3365 3365 3365 3365 3365 3365 3365 3365 3365 3365 3365 3365 3365 3365 3333 3333 3333 3333 3333 3333 3333 3333 3333 3365 3333 3333 3333 3365 3365 3365 3399 3399 3399 3399 3399 3399 3399 3399 3399 3365 3365 3365 3365 3399 3399 3399 3399 3399 3399 3399 1536 1536 1536 1529 1529 1529 1523 1523 1523 1523 1523 1529 1404 1404 1404 1404 1404 1404 1404 1398 1398 1398 1398 1398 1398 1404 1404 1404 1410 1496 1496 1503 1503 1496 1496 1496 1496 1496 1496 1496 1496 1496 1496 1496 1496 1496 1489 1489 1489 1489 1489 1489 1489 1489 1483 1483 1483 1483 1483 1477 1477 1477 1477 1477 1477 1470 1470 1477 1273 1273 1273 1278 1273 1273 1273 1273 1273 1273 1273 1273 1273 1273 1273 1273 1273 1273 1273 1273 1273 1273 1268 1268 1268 1268 1264 1264 1259 1259 1259 1259 1259 1259 1255 1255 1255 1255 1250 1250 1245 1245 1245 1241 1241 1241 1241 1236 1236 1232 1232 1232 1232 1232 1232 1232 1232 1232 1227 1227 1227 1223 1223 1223 1223 1223 1223 1219 1219 1219 1219 1219 1214 1214 1214 1214 1214 1214 1214 1214 1214 1214 1214 1210 1210 1210 1210 1210 1210 1210 1210 1210 1210 1210 1210 1206 1206 1206 1206 1206 1206 1206 1206 1206 1202 1202 1202 1197 1197 1197 1197 1197 1197 1193 1193 1197 1197 1197 1202 1202 1202 1202 1202 1202 1173 1169 1169 1169 1169 1169 1169 1169 1169 1165 1165 1165 1165 1165 1165 1165 1165 1165 1169 1333 1333 1338 1338 1333 1333 1328 1322 1322 1322 1322 1322 1322 1322 1322 1322 1322 1322 1322 1317 1317 1312 1312 1312 1312 1312 1312 1307 1307 1307 1302 1302 1302 1302 1302 1302 1302 1302 1302 1302 1302 1302 1297 1297 1297 1297 1297 1297 1297 1292 1292 1292 1292 1292 1288 1288 1288 1288 1288 1288 1288 1283 1283 1283 1283 1283 1278 1278 1278 1278 1278 1278 1278 1278 1273 1273 1273 1273 1273 1273 1268 1268 1268 1264 1264 1264 1264 1264 1268 1268 1268 1268 1268 1268 1268 1268 1268 1273 1273 1273 1273 1273 1268 1268 1268 1268 1268 1268 1273 1273 1283 1288 1283 1283 1283 1288 1283 1283 1283 1283 1283 1283 1283 1288 1288 1288 1288 1292 1288 1288 0 0 0 0 0 3539 3539 3539 3614 3614 3614 3614 3614 3576 3576 3576 3539 3539 3539 3539 3539 3576 3576 3576 3576 3576 3576 3576 3576 3576 3576 3576 3576 3539 3539 3539 3539 3539 3539 3539 3539 3539 3539 3539 3503 3503 3468 3468 3503 3503 3503 3503 3539 0 0 0 0 0 0 0 0 0 0 0 0 0 0 0 0 0 0 0 0
0 0 0 0 0 0 0 0 0 0 0 0 0 0 0 0 0 0 0 0 0 0 0 0 0 0 0 0 0 0 0 0 3092 3064 3064 3064 3064 3064 3092 3092 3092 3092 3092 3092 3092 3092 3092 3092 3092 3064 3064 3092 3092 3092 3092 3092 3092 3120 3120 3120 3120 3120 3120 3120 3120 3120 3120 3120 3092 3092 3092 3092 3092 3120 3120 3092 3092 3120 3092 3092 3092 3120 3120 3120 3149 3149 3149 3120 3120 3149 3120 3120 3120 3149 3149 3149 3149 3149 3149 3149 3149 3149 3149 3149 3149 3149 3178 3178 3178 3178 3178 3208 3208 3208 3208 3208 3208 3208 3208 3178 3178 3178 3178 3208 3208 3208 3208 3208 3238 3238 3238 3238 3238 3238 3238 3238 3238 3238 3238 0 0 0 1503 1503 1509 1509 1509 1509 1509 1509 1509 1509 1509 1509 1509 1509 1516 1516 1516 1523 1523 1523 1647 1647 1647 1647 1647 1647 1516 1516 1523 1516 1516 3365 3365 3365 3365 3333 3333 3333 3333 3333 3333 3333 3333 3333 3333 3333 3333 3333 3300 3300 3300 3300 3333 3333 3333 3333 3333 3333 3333 3333 3333 3333 3365 3365 3365 3365 3365 3365 3399 3399 3399 3365 3365 3365 3365 3365 3365 3399 3399 3399 3399 3399 3399 3399 3365 3365 3399 1529 1529 1529 1523 1523 1523 1523 1523 1523 1398 1398 1404 1404 1404 1404 1404 1398 1398 1398 1398 1398 1404 1404 1410 1410 1415 1415 1496 1503 1503 1496 1496 1496 1496 1496 1496 1496 1496 1496 1496 1496 1496 1496 1496 1489 1489 1489 1489 1489 1489 1489 1483 1483 1483 1483 1483 1477 1477 1477 1477 1477 1470 1470 1470 1477 1477 1278 1278 1278 1278 1278 1273 1273 1273 1273 1278 1278 1278 1278 1278 1278 1273 1273 1273 1273 1273 1273 1273 1268 1268 1268 1268 1264 1264 1264 1259 1259 1259 1259 1255 1255 1255 1255 1250 1250 1250 1245 1245 1245 1245 1241 1241 1241 1241 1236 1236 1236 1232 1232 1232 1232 1232 1232 1227 1227 1227 1223 1223 1223 1223 1223 1223 1223 1223 1223 1219 1219 1219 1219 1214 1214 1214 1214 1214 1214 1214 1214 1214 1214 1214 1210 1210 1210 1210 1210 1210 1210 1210 1210 1210 1206 1206 1206 1206 1206 1206 1206 1206 1206 1202 1202 1202 1197 1197 1197 1197 1197 1197 1193 1193 1197 1197 1197 1202 1202 1202 1202 1193 1193 1177 1173 1173 1169 1169 1169 1169 1169 1169 1169 1169 1169 1169 1169 1165 1165 1165 1169 1169 1338 1338 1338 1338 1338 1333 1328 1328 1328 1328 1328 1328 1322 1322 1322 1322 1322 1322 1322 1322 1317 1317 1317 1317 1317 1312 1312 1307 1307 1307 1302 1302 1302 1302 1302 1302 1302 1302 1302 1302 1302 1302 1297 1297 1297 1297 1297 1297 1297 1292 1292 1288 1288 1288 1288 1283 1283 1283 1283 1283 1283 1283 1283 1283 1283 1278 1273 1273 1273 1273 1273 1273 1273 1273 1273 1273 1273 1273 1268 1268 1268 1268 1268 1264 1264 1264 1259 1259 1264 1264 1264 1264 1264 1264 1264 1264 1264 1268 1268 1268 1268 1268 1268 1264 1264 1264 1264 1264 1264 1268 1268 1268 1268 1268 1273 1268 1268 1264 1264 1273 1273 1273 1273 1278 1273 1273 1273 1268 1268 1268 0 0 0 0 0 3539 3539 3539 3614 3614 3614 3576 3576 3539 3539 3539 3539 3539 3503 3503 3539 3539 3539 3539 3539 3539 3576 3576 3576 3576 3576 3539 3539 3539 3503 3503 3503 3503 3503 3503 3503 3503 3503 3503 3503 3503 3468 3468 3503 3503 3503 3503 3539 3539 0 0 0 0 0 0 0 0 0 0 0 0 0 0 0 0 0 0 0
0 0 0 0 0 0 0 0 0 0 0 0 0 0 0 0 0 0 0 0 0 0 0 0 0 0 0 0 0 0 0 0 3037 3037 3037 3037 3037 3064 3064 3064 3064 3064 3064 3064 3064 3064 3064 3064 3064 3064 3064 3064 3064 3092 3092 3092 3092 3120 3120 3120 3120 3120 3120 3120 3120 3092 3092 3092 3092 3064 3064 3064 3092 3092 3092 3092 3092 3092 3092 3092 3092 3092 3092 3092 3120 3120 3120 3120 3120 3120 3120 3120 3120 3120 3149 3149 3149 3149 3149 3149 3149 3149 3149 3149 3149 3149 3149 3178 3178 3178 3178 3178 3178 3178 3208 3208 3208 3208 3178 3178 3178 3178 3178 3178 3178 3178 3178 3208 3208 3208 3208 3208 3208 3208 3238 3238 3238 3238 3238 3269 0 0 0 1503 1503 1503 1509 1509 1509 1509 1509 1509 1509 1509 1509 1509 1516 1516 1516 1516 1516 1523 1523 1523 1647 1647 1647 1503 1503 1516 1516 1516 1516 1523 3333 3333 3365 3333 3333 3333 3333 3333 3333 3333 3333 3333 3333 3333 3333 3300 3300 3300 3300 3300 3300 3300 3333 3333 3333 3333 3333 3333 3333 3333 3333 3333 3333 3365 3333 3333 3333 3365 3365 3365 3365 3365 3365 3365 3365 3399 3399 3399 3399 3365 3365 3365 3365 3365 3365 3365 3399 3433 1523 1523 1523 1523 1398 0 1398 1398 1404 1404 1404 1404 1404 1404 1404 1404 1404 1404 1404 1404 1410 1410 1415 1415 1421 1496 1496 1496 1496 1496 1496 1496 1496 1496 1496 1496 1496 1496 1496 1496 1496 1489 1489 1489 1489 1489 1489 1489 1489 1489 1483 1483 1483 1477 1477 1477 1477 1477 1470 1470 1470 1477 1477 1283 1283 1283 1278 1278 1278 1278 1278 1278 1278 1278 1278 1278 1278 1278 1278 1273 1273 1273 1273 1273 1273 1273 1273 1268 1268 1268 1264 1264 1264 1264 1264 1259 1259 1259 1255 1255 1250 1250 1250 1250 1245 1245 1245 1245 1245 1241 1241 1241 1236 1236 1236 1236 1232 1232 1232 1232 1232 1227 1227 1227 1227 1227 1227 1227 1223 1223 1223 1223 1219 1219 1219 1219 1214 1214 1214 1214 1214 1214 1214 1214 1214 1214 1214 1210 1210 1210 1210 1210 1210 1210 1210 1206 1206 1206 1206 1206 1206 1206 1206 1206 1206 1202 1202 1202 1202 1202 1197 1197 1197 1197 1197 1197 1197 1197 1197 1197 1202 1202 1202 1202 1193 1193 1185 1177 1173 1173 1173 1173 1173 1173 1173 1169 1169 1169 1169 1169 1169 1165 1165 1169 1169 1338 1338 1338 1338 1338 1338 1333 1333 1333 1333 1333 1328 1328 1328 1328 1328 1328 1322 1322 1322 1317 1317 1317 1317 1317 1317 1312 1312 1307 1307 1307 1302 1302 1302 1302 1302 1302 1302 1302 1302 1302 1302 1302 1302 1297 1297 1297 1297 1297 1292 1288 1288 1288 1283 1283 1283 1283 1283 1283 1283 1283 1283 1283 1283 1278 1278 1273 1273 1273 1273 1273 1273 1273 1273 1268 1268 1268 1268 1268 1268 1268 1268 1268 1264 1264 1264 1259 1259 1264 1259 1259 1264 1264 1264 1264 1259 1259 1264 1264 1264 1264 1264 1264 1259 1259 1259 1259 1259 1259 1264 1264 1264 1264 1264 1264 1264 1264 1264 1264 1268 1268 1273 1273 1273 1273 1268 1264 1264 1264 1264 1273 1278 0 0 0 3653 3614 3576 3576 3539 3539 3539 3503 3503 3503 3503 3503 3503 3503 3503 3503 3503 3503 3539 3539 3539 3539 3539 3539 3539 3576 3539 3539 3503 3503 3503 3503 3503 3503 3468 3468 3468 3468 3433 3433 3468 3468 3468 3503 3503 3503 3503 3539 3539 3539 3539 3503 3503 3503 3503 0 0 0 0 0 0 0 0 0 0 0 0 0
0 0 0 0 0 0 0 0 0 0 0 0 0 0 0 0 0 0 0 0 0 0 0 0 0 0 0 0 0 0 0 0 3037 3010 3010 3037 3037 3037 3037 3037 3037 3037 3037 3037 3037 3064 3064 3037 3037 3064 3064 3064 3064 3064 3064 3064 3064 3092 3092 3092 3092 3092 3092 3092 3092 3092 3092 3092 3064 3064 3064 3064 3064 3064 3064 3064 3064 3092 3092 3064 3064 3092 3092 3092 3092 3092 3092 3092 3092 3092 3092 3092 3092 3120 3120 3120 3120 3149 3149 3120 3120 3120 3120 3120 3120 3120 3149 3149 3149 3178 3178 3178 3178 3178 3178 3178 3178 3178 3178 3149 3149 3149 3149 3178 3178 3178 3178 3178 3208 3208 3208 3208 3208 3208 3238 3238 3238 3238 3238 3269 0 0 0 1503 1503 1503 1509 1509 1509 1509 1509 1509 1509 1509 1509 1509 1516 1516 1516 1516 1516 1523 1523 1523 1516 1503 1503 1503 1503 1509 1516 1516 1516 1516 1516 1516 1509 1509 1503 1503 1503 1503 3269 3269 3269 3300 3300 3300 3300 3300 3300 3300 3300 3300 3300 3300 3300 3300 3300 3300 3300 3300 3300 3300 3300 3300 3333 3333 3333 3333 3333 3333 3333 3333 3333 3333 3333 3365 3365 3365 3365 3365 3365 3365 3365 3365 3365 3365 3365 3365 3399 3399 3433 0 3433 0 0 0 1398 1398 1404 1404 1404 1404 1404 1404 1404 1404 1404 1404 1404 1404 1410 1410 1415 1421 1421 1496 1496 1496 1496 1496 1496 1496 1496 1489 1489 1496 1496 1496 1496 1496 1496 1496 1489 1489 1489 1489 1489 1489 1489 1489 1483 1483 1483 1483 1477 1477 1477 1477 1477 1477 1477 1477 1477 1283 1283 1283 1278 1278 1278 1278 1278 1278 1278 1278 1278 1278 1278 1278 1278 1278 1273 1273 1273 1273 1273 1273 1273 1268 1268 1268 1264 1264 1264 1264 1264 1259 1259 1259 1255 1255 1250 1250 1250 1250 1250 1245 1245 1245 1245 1245 1245 1241 1241 1241 1236 1236 1236 1232 1232 1232 1232 1232 1227 1227 1227 1227 1227 1227 1227 1223 1223 1223 1223 1219 1219 1219 1219 1219 1219 1219 1219 1214 1214 1214 1214 1214 1214 1210 1210 1210 1210 1210 1210 1210 1210 1206 1206 1206 1206 1206 1206 1206 1206 1206 1202 1202 1202 1202 1202 1202 1197 1197 1197 1197 1197 1197 1197 1197 1197 1197 1202 1202 1202 1197 1193 1193 1185 1177 1173 1173 1173 1173 1173 1173 1173 1169 1169 1169 1169 1169 1169 1169 1169 1169 1169 1343 1343 1343 1343 1343 1338 1338 1338 1338 1338 1333 1333 1333 1333 1328 1328 1328 1328 1328 1328 1322 1317 1317 1317 1317 1317 1317 1312 1312 1307 1307 1307 1302 1302 1302 1302 1302 1302 1302 1302 1302 1302 1302 1302 1297 1297 1297 1297 1297 1292 1288 1288 1288 1283 1283 1283 1283 1283 1283 1283 1283 1283 1283 1278 1278 1278 1273 1273 1273 1273 1273 1273 1273 1268 1268 1268 1268 1268 1268 1268 1268 1264 1264 1264 1264 1259 1259 1259 1259 1259 1259 1259 1259 1259 1259 1259 1259 1259 1259 1259 1259 1259 1259 1259 1259 1259 1259 1259 1259 1259 1259 1264 1259 1259 1259 1259 1259 1259 1259 1264 1268 1268 1268 1268 1268 1264 1264 1259 1259 1259 1273 1278 0 0 0 3653 3614 3539 3539 3539 3539 3503 3503 3503 3503 3468 3468 3468 3468 3468 3468 3468 3468 3468 3468 3503 3503 3503 3503 3503 3503 3503 3468 3433 3433 3468 3468 3468 3468 3433 3433 3468 3433 3433 3433 3433 3433 3468 3468 3468 3503 3503 3539 3503 3503 3503 3503 3503 3503 3503 3503 0 0 0 0 0 0 0 0 0 0 0 0
0 0 0 0 0 0 0 0 0 0 0 0 0 0 0 0 0 0 0 0 0 0 0 0 0 0 0 0 0 0 0 0 3010 3010 3010 3010 3010 3010 3010 3010 3037 3037 3037 3037 3037 3037 3037 3037 3037 3037 3037 3037 3037 3037 3037 3037 3064 3064 3092 3092 3092 3092 3092 3092 3092 3092 3092 3092 3064 3037 3037 3037 3037 3064 3064 3064 3064 3064 3064 3064 3064 3064 3064 3064 3064 3064 3064 3064 3092 3092 3092 3092 3092 3092 3120 3120 3120 3120 3120 3120 3092 3092 3092 3092 3092 3092 3120 3149 3149 3149 3149 3149 3149 3149 3149 3149 3149 3178 3149 3149 3149 3149 3149 3149 3149 3149 3178 3178 3208 3208 3208 3208 3208 3208 3208 3238 3238 3238 3238 3238 0 0 0 0 1509 1509 1509 1509 1509 1509 1509 1509 1509 1509 1509 1509 1516 1516 1516 1516 1516 1523 1523 1516 1516 1503 1503 1509 1509 1509 1516 1509 1509 1509 1509 1509 1503 1503 1503 1503 1503 1503 1503 3269 3269 3269 3269 3269 3269 3300 3300 3269 3269 3269 3300 3300 3300 3300 3300 3300 3300 3300 3300 3300 3300 3300 3300 3300 3300 3300 3333 3333 3333 3333 3333 3333 3333 3333 3333 3333 3333 3365 3365 3365 3365 3365 3333 3333 3333 3333 3365 3365 3399 0 0 0 0 0 1398 1398 1404 1404 1404 1410 1410 1404 1404 1404 1404 1404 1404 1410 1415 1415 1415 1421 1421 1427 1427 1496 1496 1496 1496 1496 1496 1489 1489 1496 1496 1496 1496 1496 1496 1496 1496 1489 1489 1489 1489 1489 1489 1489 1483 1483 1483 1483 1483 1477 1477 1477 1477 1477 1477 1477 1477 1283 1283 1283 1283 1283 1283 1283 1278 1278 1278 1283 1283 1278 1278 1278 1278 1278 1278 1278 1273 1273 1273 1273 1273 1273 1268 1268 1268 1268 1268 1268 1264 1264 1259 1259 1259 1255 1250 1250 1250 1250 1250 1250 1250 1245 1245 1245 1245 1241 1241 1241 1241 1241 1236 1236 1236 1232 1232 1232 1232 1227 1227 1227 1227 1227 1227 1227 1223 1223 1223 1219 1219 1219 1219 1219 1219 1219 1219 1219 1219 1214 1214 1214 1214 1214 1214 1210 1210 1210 1210 1210 1210 1210 1210 1206 1206 1206 1206 1206 1206 1206 1202 1202 1202 1202 1202 1197 1197 1197 1197 1197 1197 1197 1197 1197 1197 1197 1197 1197 1197 1197 1193 1193 1185 1181 1177 1173 1173 1173 1173 1173 1173 1173 1169 1169 1169 1169 1169 1169 1169 1169 1169 1343 1343 1343 1343 1343 1343 1338 1338 1338 1338 1338 1338 1338 1333 1333 1333 1333 1328 1328 1328 1322 1322 1322 1322 1322 1317 1317 1317 1317 1312 1307 1307 1307 1307 1302 1302 1302 1302 1302 1302 1302 1302 1302 1302 1302 1302 1297 1297 1297 1292 1292 1288 1288 1283 1283 1283 1283 1283 1283 1283 1283 1283 1283 1278 1278 1278 1273 1273 1273 1273 1273 1273 1273 1268 1268 1268 1268 1268 1264 1264 1264 1264 1264 1264 1259 1259 1259 1259 1259 1259 1259 1259 1259 1259 1259 1259 1259 1259 1259 1259 1259 1255 1255 1259 1259 1259 1259 1259 1259 1259 1259 1259 1259 1255 1255 1255 1255 1255 1255 1255 1259 1259 1259 1264 1264 1259 1259 1259 1259 1259 0 0 0 0 0 0 0 3539 3539 3539 3503 3503 3503 3503 3503 3468 3468 3468 3468 3468 3468 3468 3468 3433 3433 3468 3468 3468 3503 3503 3503 3468 3468 3433 3433 3433 3433 3433 3433 3433 3433 3433 3433 3433 3433 3433 3433 3433 3433 3433 3433 3433 3433 3433 3433 3503 3433 3399 3399 3399 3433 3433 0 0 0 0 0 0 0 0 0 0 0
0 0 0 0 0 0 0 0 0 0 0 0 0 0 0 0 0 0 0 0 0 0 0 0 0 0 0 0 0 0 0 0 3010 3010 3010 3010 3010 3010 3010 3010 3010 3010 3010 3010 3010 3010 3010 3010 3010 3010 3010 3010 3010 3010 3010 3037 3037 3064 3064 3064 3092 3092 3092 3092 3064 3064 3064 3064 3037 3037 3037 3010 3010 3037 3037 3064 3064 3064 3064 3064 3064 3064 3064 3064 3064 3064 3064 3064 3064 3064 3064 3064 3092 3092 3092 3092 3092 3092 3092 3092 3092 3092 3092 3092 3092 3092 3092 3092 3120 3120 3120 3149 3149 3149 3149 3149 3149 3149 3149 3120 3120 3120 3120 3149 3149 3149 3178 3178 3208 3208 3208 3208 3208 3208 3208 3208 3208 3208 3238 3238 0 0 0 0 0 1509 1509 1509 1509 1509 1509 1509 1509 1509 1509 1509 1516 1516 1516 1516 1516 1516 1516 1516 1509 1509 1509 1509 1509 1509 1509 1509 1509 1509 1503 1503 1503 1503 1496 1496 1503 1503 1503 1503 1503 1503 1503 1503 1503 1503 1503 1503 3269 3269 3269 3269 3269 3269 3269 3300 3300 3300 3300 3300 3300 3300 3300 3300 3300 3300 3300 3300 3300 3300 3300 3300 3300 3300 3300 3300 3300 3300 3300 3300 3300 3300 3300 3300 3300 3333 3333 3333 3333 0 0 0 0 0 1398 1398 1404 1404 1404 1410 1410 1404 1404 1404 1404 1404 1410 1410 1415 1415 1421 1421 1427 1427 1427 2040 2040 2040 2040 2040 2040 1489 1489 2028 1503 1496 1496 1496 1496 1496 1496 1489 1489 1489 1489 1489 1489 1489 1489 1483 1483 1483 1483 1477 1477 1477 1477 1477 1477 1477 1283 1283 1283 1283 1283 1283 1283 1283 1278 1278 1278 1283 1283 1283 1283 1283 1283 1278 1278 1278 1278 1273 1273 1273 1273 1273 1268 1268 1268 1268 1268 1268 1264 1264 1259 1259 1259 1259 1250 1250 1250 1250 1250 1250 1250 1250 1250 1245 1245 1245 1241 1241 1241 1241 1241 1236 1236 1236 1232 1232 1232 1227 1227 1227 1227 1227 1227 1227 1227 1227 1227 1223 1223 1223 1219 1219 1219 1219 1219 1219 1219 1219 1214 1214 1214 1214 1214 1214 1214 1214 1214 1214 1210 1210 1210 1210 1210 1206 1206 1206 1206 1206 1206 1206 1202 1202 1202 1197 1197 1197 1197 1197 1197 1197 1197 1197 1197 1197 1197 1197 1197 1197 1193 1193 1189 1181 1177 1173 1173 1173 1173 1173 1173 1173 1169 1169 1169 1169 1169 1169 1169 1169 1169 1343 1343 1343 1343 1343 1343 1343 1343 1343 1338 1338 1338 1338 1338 1338 1333 1333 1333 1333 1333 1333 1322 1322 1322 1322 1322 1317 1317 1317 1317 1312 1312 1307 1307 1307 1307 1307 1307 1307 1307 1307 1307 1307 1302 1302 1302 1302 1302 1297 1297 1292 1288 1288 1288 1288 1288 1283 1283 1283 1283 1283 1283 1283 1283 1278 1278 1273 1273 1273 1273 1273 1273 1273 1268 1268 1268 1268 1264 1264 1264 1264 1264 1264 1264 1259 1259 1259 1259 1259 1259 1259 1259 1259 1259 1259 1259 1259 1255 1255 1255 1255 1255 1255 1255 1255 1255 1255 1255 1255 1255 1255 1255 1255 1255 1255 1255 1250 1250 1250 1250 1255 1255 1255 1255 1259 1259 1259 1259 1259 1259 0 0 0 0 0 0 0 0 0 3539 3468 3468 3468 3468 3468 3468 3468 3468 3468 3468 3468 3433 3433 3433 3433 3433 3433 3468 3468 3468 3468 3468 3433 3433 3433 3433 3433 3433 3433 3433 3433 3433 3433 3433 3433 3433 3433 3433 3433 3433 3433 0 3399 3399 3399 3433 3399 3399 3399 3399 3399 3399 0 0 0 0 0 0 0 0 0 0 0
0 0 0 0 0 0 0 0 0 0 0 0 0 0 0 0 0 0 0 0 0 0 0 0 0 0 0 0 0 0 0 0 3010 3010 3010 3010 3010 3010 3010 3010 3010 3010 3010 3010 3010 3010 3010 3010 3010 3010 3010 3010 3010 3010 3010 3010 3037 3037 3037 3064 3064 3037 3037 3037 3037 3037 3037 3037 3010 3010 3010 3010 3010 3010 3010 3037 3037 3037 3037 3037 3037 3037 3037 3037 3037 3037 3064 3064 3064 3064 3064 3064 3064 3092 3064 3064 3064 3064 3064 3064 3064 3064 3064 3064 3064 3064 3092 3092 3092 3092 3120 3120 3120 3120 3120 3120 3120 3120 3120 3120 3120 3120 3120 3120 3149 3149 3149 3178 3178 3178 3208 3208 3208 3208 3208 3208 3208 3208 3208 3238 3238 0 0 0 0 1509 1509 1509 1509 1509 1509 1509 1509 1509 1509 1509 1509 1516 1516 1516 1516 1516 1516 1516 1509 1509 1509 1503 1503 1509 1509 1509 1509 1509 1503 1503 1503 1503 1496 1496 1496 1496 1496 1496 1496 1496 1489 1489 1496 1496 1496 1496 1496 3269 3269 3269 3269 3269 3269 3269 3269 3269 3269 3300 3269 3269 3300 3300 3300 3300 3300 3300 3300 3300 3300 3300 3300 3300 3300 3300 3300 3300 3300 3300 3300 3300 3300 3300 3300 3300 3300 3300 3300 0 0 0 0 0 1398 1398 1404 1404 1410 1410 1410 1404 1404 1404 1404 1410 1410 1415 1415 1415 1421 1421 1427 1427 1439 1439 2016 2016 2028 2028 2028 2028 2028 2028 2028 2040 2028 2028 2028 1496 1496 1489 1489 1489 1489 1489 1489 1489 1489 1489 1483 1483 1477 1477 1477 1477 1477 1477 1477 1477 1283 1283 1288 1288 1283 1283 1283 1283 1283 1283 1283 1283 1283 1283 1283 1283 1283 1283 1278 1278 1278 1273 1273 1273 1273 1273 1273 1268 1268 1268 1268 1268 1268 1264 1264 1264 1259 1259 1255 1255 1255 1250 1250 1250 1250 1250 1250 1245 1245 1245 1245 1245 1245 1241 1241 1236 1236 1236 1232 1232 1232 1232 1232 1232 1232 1232 1227 1227 1227 1227 1227 1227 1223 1223 1223 1223 1223 1223 1219 1219 1219 1219 1219 1214 1214 1214 1214 1214 1214 1214 1214 1214 1214 1214 1210 1210 1210 1210 1206 1206 1206 1206 1206 1206 1206 1206 1202 1202 1197 1197 1197 1197 1197 1197 1197 1197 1197 1197 1197 1197 1197 1197 1193 1193 1189 1181 1177 1177 1173 1173 1173 1173 1173 1173 1173 1173 1173 1173 1169 1169 1169 1169 1169 1343 1343 1343 1343 1343 1343 1343 1343 1343 1343 1343 1338 1338 1338 1338 1338 1338 1338 1338 1338 1333 1328 1328 1328 1322 1322 1317 1317 1317 1317 1317 1312 1312 1312 1312 1312 1312 1312 1312 1312 1312 1312 1312 1307 1302 1302 1302 1302 1302 1297 1292 1292 1292 1288 1288 1288 1288 1288 1283 1283 1283 1283 1283 1283 1283 1283 1273 1273 1273 1273 1273 1273 1273 1268 1268 1268 1268 1264 1264 1264 1264 1264 1264 1264 1264 1259 1259 1259 1259 1259 1259 1259 1259 1259 1259 1255 1255 1255 1255 1255 1255 1255 1255 1255 1255 1255 1255 1255 1255 1255 1255 1255 1255 1250 1250 1250 1250 1250 1245 1245 1245 1245 1245 1245 1250 1250 1255 1255 1255 1255 0 0 0 0 0 0 0 0 0 0 3433 3433 3433 3433 3468 3433 3433 3433 3433 3433 3433 3399 3399 3399 3399 3399 3399 3433 3433 3433 3433 3433 3433 3399 3399 3399 3399 3399 3399 3399 3399 3399 3399 3399 3399 3433 3433 3399 3399 3468 3468 3365 3365 3365 3365 3365 3365 3365 3365 3365 3399 3399 0 0 0 0 0 0 0 0 0 0 0
0 0 0 0 0 0 0 0 0 0 0 0 0 0 0 0 0 0 0 0 0 0 0 0 0 0 0 0 0 0 0 0 3010 3010 3010 3010 3010 2984 2984 2984 2984 2984 2984 2984 3010 3010 3010 2984 2984 2984 2984 2984 2984 2984 2984 2984 3010 3037 3037 3037 3037 3010 3010 3037 3010 3010 3010 3010 3010 3010 3010 2984 2984 3010 3010 3010 3010 3037 3037 3037 3037 3010 3010 3037 3037 3037 3037 3037 3037 3037 3064 3064 3064 3064 3064 3064 3064 3064 3064 3037 3037 3064 3064 3064 3064 3064 3064 3092 3092 3092 3092 3092 3092 3092 3092 3092 3092 3120 3120 3092 3092 3092 3092 3120 3120 3120 3149 3149 3178 3178 3178 3178 3208 3208 3208 3208 3208 3208 3208 3238 3238 0 0 0 0 0 1509 1509 1516 1516 1516 1516 1516 1509 1509 1509 1509 1516 1516 1516 1516 1516 1516 1516 1516 1509 1509 1503 1503 1509 1509 1503 1503 1503 1503 1503 1503 1503 1496 1496 1496 1496 1496 1496 1496 1496 1489 1489 1489 1489 1489 1489 1489 1489 1489 1496 3269 3238 3238 3269 3238 3238 3269 3300 3269 3269 3300 3300 3300 3300 3300 3300 3300 3300 3300 3300 3300 3300 3300 3300 3300 3300 3300 3300 3300 3300 3300 3300 3300 3300 3300 3269 3269 0 0 0 0 0 1404 1404 1410 1410 1410 1415 1415 1410 1410 1410 1410 1410 1410 1415 1415 1421 1421 1421 1427 1433 1439 1439 2005 2016 2016 2016 2016 2028 2028 2028 2028 2028 2028 2028 2028 2016 2016 2028 1489 1489 1489 1489 1489 1489 1489 1489 1483 1483 1477 1477 1477 1477 1477 1477 1477 1283 1283 1283 1288 1288 1288 1288 1288 1283 1283 1283 1283 1283 1288 1288 1288 1288 1288 1283 1278 1278 1278 1273 1273 1273 1273 1273 1273 1273 1273 1273 1268 1268 1268 1264 1264 1264 1264 1259 1255 1255 1255 1250 1250 1250 1250 1250 1250 1250 1245 1245 1245 1245 1245 1245 1241 1241 1241 1241 1241 1236 1236 1232 1232 1232 1232 1232 1232 1232 1227 1227 1227 1227 1227 1223 1223 1223 1223 1223 1223 1223 1223 1219 1219 1219 1214 1214 1214 1214 1214 1214 1214 1214 1214 1214 1214 1210 1210 1210 1210 1210 1210 1210 1210 1206 1206 1206 1202 1202 1202 1197 1197 1197 1197 1197 1197 1197 1197 1197 1197 1197 1197 1197 1193 1193 1189 1185 1177 1177 1173 1173 1173 1173 1173 1173 1173 1173 1173 1173 1169 1169 1169 1169 1343 1343 1343 1343 1343 1343 1343 1343 1343 1343 1343 1343 1343 1343 1338 1338 1338 1338 1338 1338 1338 1338 1333 1333 1328 1328 1322 1322 1317 1317 1317 1317 1317 1312 1312 1312 1312 1312 1317 1312 1312 1317 1317 1317 1312 1307 1307 1307 1307 1302 1297 1297 1297 1297 1292 1292 1288 1288 1288 1283 1283 1283 1283 1283 1283 1283 1283 1273 1273 1273 1273 1273 1273 1273 1273 1268 1268 1268 1268 1268 1268 1268 1268 1264 1264 1264 1259 1259 1259 1259 1259 1259 1259 1259 1259 1259 1255 1255 1259 1259 1255 1255 1255 1255 1255 1255 1255 1255 1255 1255 1255 1255 1255 1255 1250 1245 1245 1245 1245 1241 1241 1245 1245 1245 1241 1241 1245 1250 1250 1250 1255 0 0 0 0 0 0 0 0 0 0 3399 3399 3433 3433 3433 3433 3433 3433 3433 3433 3433 3399 3399 3399 3399 3399 3399 3399 3433 3399 3399 3399 3399 3399 3399 3399 3399 3399 3399 3399 3399 3399 3399 3399 3399 3399 3399 3399 3399 3399 3333 3365 3365 3365 3365 3365 3365 3365 3365 3365 3399 3399 0 0 0 0 0 0 0 0 0 0 0
0 0 0 0 0 0 0 0 0 0 0 0 0 0 0 0 0 0 0 0 0 0 0 0 0 0 0 0 0 0 0 0 3010 3010 3010 3010 2984 2984 2984 2984 2984 2984 2984 2984 3010 3010 3010 2984 2984 2984 2984 2984 2984 2984 2984 2984 3010 3010 3010 3037 3037 3010 3010 3010 3010 3010 3010 3010 2984 2984 2984 2984 2984 2984 3010 3010 3010 3010 3010 3010 3010 3010 3010 3010 3010 3010 3010 3010 3037 3037 3037 3037 3064 3064 3037 3037 3037 3037 3037 3037 3037 3037 3037 3037 3064 3064 3064 3064 3064 3064 3092 3092 3092 3092 3092 3092 3092 3092 3092 3092 3092 3092 3092 3092 3120 3120 3149 3149 3178 3178 3178 3178 3178 3208 3208 3208 3208 3208 3208 3208 3208 0 0 0 0 0 1509 1509 1516 1516 1516 1516 1516 1516 1516 1516 1516 1516 1516 1516 1516 1516 1516 1516 1516 1509 1509 1503 1503 1509 1509 1503 1503 1503 1503 1503 1503 1503 1496 1496 1496 1496 1496 1496 1496 1496 1489 1489 1489 1489 1489 1489 1489 1489 1489 1489 1477 1470 1470 1470 1470 1470 1470 1477 1477 1477 3300 3300 3300 1477 1477 1470 1470 3300 3300 3300 3300 3300 3300 3300 3300 3300 3300 3300 3300 3269 3269 3269 3269 3269 3269 3238 3238 0 3208 0 0 0 1404 1404 1415 1415 1415 1415 1415 1410 1410 1410 1410 1415 1415 1415 1415 1421 1421 1427 1439 1439 1439 1445 2005 2005 2005 2016 2016 2016 2016 2016 2016 2016 2016 2016 2016 2016 2016 2016 2016 1489 1489 1489 2005 2005 1489 1489 2005 1483 1483 1483 1483 1483 1483 1483 1483 1283 1283 1288 1288 1288 1288 1288 1288 1288 1288 1283 1283 1288 1288 1288 1288 1288 1288 1288 1283 1278 1278 1273 1273 1273 1273 1273 1273 1273 1273 1273 1273 1268 1268 1268 1264 1264 1264 1264 1259 1255 1255 1255 1255 1250 1250 1250 1250 1250 1250 1245 1245 1245 1245 1245 1245 1241 1241 1241 1241 1236 1236 1232 1232 1232 1232 1232 1232 1232 1227 1227 1227 1227 1227 1227 1227 1227 1227 1223 1223 1223 1223 1223 1219 1219 1214 1214 1214 1214 1214 1214 1214 1214 1214 1214 1214 1214 1214 1210 1210 1210 1210 1210 1210 1210 1206 1206 1206 1202 1202 1197 1197 1197 1197 1197 1197 1197 1197 1197 1197 1197 1197 1197 1193 1193 1189 1185 1177 1177 1177 1177 1173 1173 1173 1173 1173 1173 1173 1173 1169 1169 1169 1169 1343 1343 1343 1349 1343 1343 1343 1343 1343 1343 1343 1343 1343 1343 1338 1338 1338 1338 1338 1338 1338 1338 1333 1333 1333 1328 1328 1322 1322 1322 1322 1317 1317 1317 1317 1317 1317 1317 1317 1317 1317 1317 1317 1317 1312 1312 1307 1307 1307 1302 1302 1297 1297 1297 1297 1292 1292 1292 1288 1288 1288 1288 1283 1283 1288 1283 1283 1278 1273 1273 1273 1273 1273 1273 1273 1273 1268 1268 1268 1268 1268 1268 1268 1268 1264 1264 1264 1264 1259 1259 1259 1259 1259 1259 1259 1259 1259 1259 1259 1259 1255 1255 1255 1255 1255 1255 1255 1255 1255 1255 1255 1255 1255 1255 1250 1245 1245 1245 1245 1241 1241 1245 1245 1245 1241 1241 1241 1245 1245 1245 1245 0 0 0 0 0 0 0 0 0 3399 3399 3399 3399 3399 3399 3399 3399 3399 3399 3399 3399 3399 3399 3399 3399 3399 3399 3399 3399 3399 3399 3399 3399 3399 3399 3365 3365 3365 3365 3365 3365 3399 3399 3399 3399 3399 3399 3365 3365 3365 3333 3333 3333 3333 3333 3333 3333 3333 3333 3365 3365 3399 0 0 0 0 0 0 0 0 0 0 0
0 0 0 0 0 0 0 0 0 0 0 0 0 0 0 0 0 0 0 0 0 0 0 0 0 0 0 0 0 0 0 0 2984 2984 2984 2984 2984 2984 2984 2984 2984 2984 2984 2984 2984 2984 2984 2984 2984 2958 2958 2958 2958 2958 2958 2984 2984 3010 3010 3010 3010 3010 3010 3010 3010 3010 3010 3010 2984 2984 2984 2984 2984 2984 2984 2984 2984 2984 2984 2984 2984 2984 2984 3010 3010 3010 3010 3010 3010 3010 3010 3010 3037 3037 3010 3010 3010 3010 3010 3010 3010 3010 3037 3037 3064 3064 3064 3064 3064 3064 3064 3064 3092 3092 3092 3092 3092 3092 3092 3092 3092 3092 3092 3092 3092 3120 3120 3149 3149 3178 3178 3178 3178 3178 3178 3178 3208 3208 3208 3178 3178 0 0 0 0 0 1509 1509 1516 1516 1516 1516 1516 1516 1516 1516 1516 1516 1516 1516 1516 1516 1516 1516 1516 1509 1509 1509 1509 1509 1509 1503 1503 1503 1503 1496 1496 1496 1496 1496 1496 1496 1496 1496 1489 1489 1489 1489 1489 1489 1489 1489 1489 1483 1483 1483 1477 1470 1470 1470 1470 1470 1470 1477 1477 1477 1477 1477 1470 1470 1477 1470 1470 1477 1477 1477 1477 1477 1477 1477 3269 3300 3300 3300 3300 3269 3269 3269 3269 3238 3238 3208 3208 3208 3208 0 0 0 1404 1404 1415 1415 1415 1421 1421 1415 1415 1410 1410 1415 1415 1415 1421 1421 1427 1427 1439 1439 1439 1445 1445 2005 2005 2005 2005 2005 2005 2005 1993 1993 1993 2005 2005 2005 2005 2005 2005 2005 1993 1993 1993 1993 1993 1993 1993 1993 1993 1993 1981 1981 1489 1489 1489 1283 1283 1288 1288 1288 1288 1288 1288 1288 1288 1283 1283 1288 1288 1288 1288 1292 1288 1288 1283 1283 1278 1273 1273 1273 1273 1273 1273 1273 1273 1273 1273 1273 1268 1268 1268 1268 1268 1264 1259 1259 1259 1259 1255 1255 1250 1250 1250 1250 1250 1245 1245 1245 1245 1245 1245 1245 1245 1245 1241 1241 1241 1236 1236 1232 1232 1232 1232 1232 1232 1232 1227 1227 1227 1227 1227 1227 1227 1227 1227 1227 1227 1223 1223 1219 1219 1214 1214 1214 1214 1214 1214 1214 1214 1214 1214 1214 1214 1210 1210 1210 1210 1210 1210 1210 1210 1210 1210 1206 1202 1202 1202 1202 1197 1197 1197 1197 1197 1197 1197 1197 1197 1197 1193 1193 1189 1185 1177 1177 1177 1177 1177 1173 1173 1173 1173 1173 1173 1173 1169 1169 1169 1169 1349 1349 1349 1349 1343 1343 1343 1343 1343 1343 1343 1343 1343 1343 1338 1338 1338 1338 1338 1338 1338 1338 1333 1333 1333 1328 1328 1322 1322 1322 1322 1322 1322 1317 1317 1317 1317 1317 1317 1317 1317 1317 1317 1317 1317 1312 1312 1312 1312 1307 1302 1302 1302 1302 1302 1297 1297 1297 1292 1292 1292 1288 1288 1288 1288 1288 1283 1278 1278 1278 1278 1278 1278 1278 1273 1273 1273 1273 1268 1268 1268 1268 1268 1268 1268 1268 1264 1264 1264 1264 1259 1259 1259 1259 1259 1259 1259 1259 1259 1259 1259 1259 1259 1255 1255 1255 1255 1255 1255 1255 1255 1255 1255 1250 1250 1250 1250 1245 1245 1245 1245 1245 1245 1241 1241 1241 1241 1245 1245 1245 1245 1255 0 0 0 0 0 0 0 0 3365 3365 3365 3365 3365 3365 3365 3365 3365 3399 3399 3399 3399 3365 3365 3365 3365 3365 3365 3399 3399 3399 3399 3399 3365 3365 3365 3365 3365 3365 3365 3365 3399 3399 3399 3399 3399 3365 3365 3365 3365 3333 3333 3333 3333 3333 3333 3333 3333 3333 3365 3365 3365 0 0 0 0 0 0 0 0 0 0 0
0 0 0 0 0 0 0 0 0 0 0 0 0 0 0 0 0 0 0 0 0 0 0 0 0 0 0 0 0 0 0 0 2984 2984 2984 2984 2958 2958 2958 2958 2958 2958 2958 2958 2958 2958 2958 2958 2958 2958 2933 2933 2933 2933 2933 2958 2958 2958 2984 3010 3010 2984 2984 3010 2984 2984 3010 2984 2984 2984 2984 2984 2984 2984 2984 2984 2984 2984 2984 2984 2984 2984 2984 3010 2984 2984 2984 2984 3010 3010 3010 3010 3010 3010 2984 2984 2984 2984 2984 2984 2984 3010 3010 3037 3037 3037 3064 3064 3064 3064 3064 3064 3064 3064 3064 3092 3092 3092 3092 3092 3092 3092 3092 3092 3092 3092 3120 3120 3120 3149 3178 3178 3178 3178 3178 3178 3178 3178 3178 3178 3178 0 0 0 0 0 1509 1509 1516 1516 1516 1516 1523 1516 1516 1523 1523 1523 1523 1516 1516 1516 1516 1516 1516 1509 1509 1509 1509 1509 1509 1503 1503 1503 1503 1496 1496 1496 1496 1496 1496 1496 1496 1496 1489 1489 1489 1489 1489 1489 1489 1483 1483 1483 1483 1483 1477 1477 1477 1477 1477 1477 1477 1477 1477 1477 1477 1477 1470 1470 1477 1477 1477 1477 1477 1477 1477 1477 1470 1464 1464 1458 1458 1464 1464 3269 3269 3269 3238 3238 3208 3208 3178 3178 3178 1445 1445 0 1421 1421 1421 1421 1421 1421 1421 1415 1415 1415 1415 1415 1415 1421 1421 1421 1427 1433 1439 1439 1439 1445 1445 1993 1993 1993 1993 1981 1981 1993 1993 1993 1993 1993 1993 1993 1993 1993 1993 1993 1993 1993 1993 1993 1993 1993 1993 1993 1993 1993 1981 1981 1981 1981 1283 1283 1283 1288 1292 1292 1292 1292 1288 1288 1288 1288 1288 1288 1288 1288 1292 1297 1292 1292 1288 1283 1278 1273 1273 1273 1273 1278 1278 1278 1278 1273 1273 1273 1273 1268 1268 1268 1268 1268 1264 1259 1259 1259 1259 1255 1255 1250 1250 1250 1250 1245 1245 1250 1245 1245 1245 1245 1245 1245 1245 1241 1241 1236 1236 1236 1236 1232 1232 1232 1232 1232 1232 1227 1227 1227 1227 1227 1227 1227 1227 1227 1227 1227 1227 1223 1219 1219 1214 1214 1214 1214 1214 1214 1214 1214 1214 1214 1214 1214 1214 1210 1210 1210 1210 1210 1210 1210 1210 1210 1206 1206 1206 1202 1202 1197 1197 1197 1197 1197 1197 1197 1197 1197 1193 1193 1189 1185 1177 1177 1177 1177 1177 1177 1173 1173 1173 1173 1173 1173 1169 1169 1165 1165 1349 1349 1349 1349 1349 1349 1343 1343 1343 1343 1343 1343 1343 1343 1338 1338 1338 1338 1338 1338 1338 1338 1333 1333 1333 1333 1328 1328 1322 1322 1322 1322 1322 1322 1317 1317 1322 1322 1322 1317 1317 1317 1317 1317 1317 1312 1312 1312 1312 1312 1307 1302 1302 1307 1307 1302 1302 1297 1297 1297 1297 1292 1292 1292 1292 1292 1288 1283 1278 1278 1283 1278 1278 1278 1278 1278 1278 1273 1273 1273 1273 1273 1273 1268 1268 1268 1264 1264 1264 1264 1264 1264 1259 1259 1259 1259 1259 1259 1259 1259 1259 1259 1259 1255 1255 1255 1255 1255 1255 1255 1255 1255 1250 1250 1250 1250 1250 1245 1245 1245 1245 1245 1245 1241 1241 1241 1241 1241 1241 1241 1241 1245 0 0 0 0 0 0 0 0 3333 3333 3333 3333 3365 3365 3333 3333 3365 3365 3365 3365 3365 3365 3365 3365 3365 3365 3365 3365 3365 3365 3365 3365 3365 3365 3365 3365 3365 3365 3365 3365 3365 3365 3365 3365 3365 3333 3333 3333 3333 3333 3333 3333 3300 3300 3333 3333 3333 3333 3365 3365 3365 0 0 0 0 0 0 0 0 0 0 0
0 0 0 0 0 0 0 0 0 0 0 0 0 0 0 0 0 0 0 0 0 0 0 0 0 0 0 0 0 0 0 0 2958 2958 2984 2958 2958 2958 2958 2958 2933 2933 2933 2933 2933 2933 2933 2933 2933 2933 2933 2908 2908 2933 2933 2933 2933 2958 2984 2984 2984 2984 2984 2984 2984 2984 2984 2984 2984 2984 2958 2958 2958 2958 2958 2958 2958 2958 2984 2984 2984 2984 2984 2984 2984 2984 2984 2984 3010 3010 2984 2984 3010 2984 2984 2984 2984 2984 2984 2984 2984 2984 3010 3010 3037 3037 3037 3037 3037 3037 3064 3064 3064 3064 3064 3092 3092 3092 3092 3092 3092 3092 3092 3092 3092 3092 3092 3120 3120 3120 3149 3149 3149 3149 3149 3178 3178 3178 3178 3178 3178 0 0 0 1632 0 1509 1509 1516 1516 1516 1523 1523 1523 1523 1523 1523 1523 1523 1516 1516 1516 1516 1516 1516 1509 1509 1509 1509 1509 1509 1503 1503 1503 1503 1503 1496 1496 1496 1496 1496 1496 1496 1496 1489 1489 1489 1489 1489 1489 1483 1483 1483 1483 1483 1483 1483 1477 1477 1477 1477 1477 1477 1477 1477 1477 1477 1477 1470 1470 1477 1477 1477 1477 1477 1477 1477 1470 1464 1464 1458 1458 1458 1458 1458 1458 1464 1464 1464 3238 3208 1439 1439 1445 1452 1445 1445 1439 1421 1421 1421 1421 1421 1421 1421 1415 1415 1415 1415 1415 1415 1421 1421 1421 1427 1433 1439 1439 1439 1445 1445 1981 1981 1981 1970 1970 1970 1981 1981 1981 1981 1981 1981 1981 1981 1981 1981 1981 1981 1981 1981 1981 1981 1981 1993 1993 1993 1993 1981 1981 1981 0 1283 1283 1283 1288 1292 1292 1292 1292 1292 1292 1288 1288 1288 1288 1292 1292 1292 1297 1302 1302 1302 1302 1302 1970 1970 1970 1970 1970 1288 1283 1283 1278 1273 1273 1273 1268 1268 1268 1268 1268 1264 1264 1264 1264 1259 1259 1259 1255 1255 1255 1250 1250 1250 1250 1250 1250 1245 1245 1245 1245 1245 1245 1241 1241 1241 1236 1236 1232 1232 1232 1232 1232 1232 1232 1232 1232 1227 1227 1227 1227 1227 1227 1227 1227 1227 1223 1223 1219 1219 1219 1219 1219 1214 1214 1219 1219 1214 1214 1214 1214 1214 1210 1210 1210 1210 1210 1210 1210 1210 1210 1210 1206 1206 1206 1206 1202 1202 1202 1202 1197 1197 1197 1197 1197 1193 1193 1193 1189 1181 1177 1177 1177 1177 1177 1173 1173 1173 1173 1173 1173 1169 1169 1165 1165 1349 1349 1349 1349 1349 1349 1343 1343 1343 1343 1343 1343 1343 1343 1343 1343 1338 1338 1338 1338 1338 1338 1333 1333 1333 1333 1328 1328 1328 1322 1322 1322 1322 1322 1322 1322 1322 1322 1322 1322 1317 1317 1317 1317 1317 1317 1317 1317 1317 1312 1312 1307 1307 1312 1307 1307 1302 1302 1302 1297 1297 1297 1297 1297 1297 1292 1292 1288 1283 1283 1283 1283 1283 1283 1278 1278 1278 1278 1278 1278 1273 1273 1273 1273 1273 1273 1268 1268 1268 1268 1268 1264 1264 1264 1264 1259 1259 1259 1259 1259 1259 1259 1259 1259 1255 1255 1255 1255 1255 1255 1255 1255 1250 1250 1250 1245 1245 1245 1245 1245 1245 1245 1245 1241 1241 1241 1241 1241 1241 1241 1241 1245 1255 0 0 0 0 0 0 0 3333 3333 3333 3333 3333 3333 3300 3300 3300 3333 3333 3333 3333 3333 3333 3333 3333 3333 3333 3333 3333 3365 3365 3365 3365 3365 3365 3365 3365 3365 3365 3365 3365 3365 3365 3365 3365 3333 3333 3333 3333 3333 3333 3333 3300 3300 3300 3300 3300 3300 3333 3333 3333 0 0 0 0 0 0 0 0 0 0 0
0 0 0 0 0 0 0 0 0 0 0 0 0 0 0 0 0 0 0 0 0 0 0 0 0 0 0 0 0 0 0 0 2958 2958 2958 2958 2933 2933 2933 2933 2933 2933 2933 2933 2933 2933 2933 2933 2933 2933 2908 2908 2908 2908 2908 2933 2933 2933 2958 2958 2984 2984 2984 2984 2984 2984 2984 2984 2958 2958 2958 2958 2958 2958 2958 2958 2958 2958 2958 2984 2984 2984 2984 2984 2984 2984 2984 2984 2984 2984 2984 2984 2984 2984 2984 2984 2984 2984 2984 2984 2984 2984 3010 3010 3010 3010 3010 3010 3037 3037 3037 3037 3064 3064 3064 3064 3064 3092 3092 3092 3092 3092 3092 3092 3092 3092 3092 3092 3120 3120 3120 3120 3120 3120 3120 3149 3149 3149 3149 3149 3149 0 0 0 1632 1632 1516 1516 1516 1523 1523 1523 1523 1523 1523 1523 1523 1523 1523 1516 1516 1516 1516 1516 1516 1509 1509 1509 1509 1509 1509 1503 1503 1503 1503 1503 1503 1496 1496 1496 1496 1496 1496 1496 1489 1489 1489 1489 1489 1483 1483 1483 1483 1477 1477 1477 1477 1477 1477 1477 1477 1477 1477 1477 1477 1477 1477 1477 1470 1470 1470 1477 1477 1477 1477 1470 1470 1470 1464 1464 1458 1458 1458 1458 1458 1458 1464 1464 1464 1464 1452 1439 1439 1445 1452 1445 1445 1439 1427 1427 1421 1421 1421 1421 1421 1415 1415 1415 1415 1415 1415 1421 1421 1421 1427 1433 1439 1439 1439 1445 1445 1445 1970 1970 1970 1970 1970 1970 1970 1970 1970 1970 1970 1981 1981 1981 1981 1981 1981 1970 1970 1970 1981 1981 1981 1981 1981 1981 1981 1981 1981 0 1283 1283 1283 1292 1292 1292 1292 1292 1292 1292 1292 1292 1292 1292 1292 1292 1302 1302 1307 1307 1307 1307 1307 1970 1970 1970 1970 1970 1970 1970 1970 1292 1292 1273 1273 1268 1268 1268 1268 1268 1264 1264 1264 1264 1264 1264 1264 1259 1255 1255 1250 1250 1250 1250 1250 1250 1245 1245 1245 1245 1245 1245 1245 1241 1241 1241 1241 1236 1236 1236 1232 1232 1232 1232 1232 1232 1232 1232 1232 1232 1232 1232 1227 1227 1227 1227 1227 1223 1223 1219 1219 1219 1219 1219 1219 1219 1219 1219 1214 1214 1214 1214 1214 1214 1210 1210 1210 1210 1210 1210 1210 1210 1210 1210 1206 1206 1202 1202 1202 1202 1202 1202 1197 1197 1197 1193 1193 1189 1181 1181 1181 1177 1177 1177 1177 1177 1177 1173 1173 1173 1173 1173 1173 1173 1173 1349 1349 1349 1349 1349 1349 1349 1343 1343 1343 1343 1343 1343 1343 1343 1343 1338 1338 1338 1338 1338 1338 1338 1333 1333 1328 1328 1328 1328 1328 1328 1328 1322 1322 1322 1322 1322 1322 1322 1317 1317 1317 1317 1317 1317 1317 1317 1317 1312 1312 1312 1312 1312 1312 1307 1307 1302 1302 1302 1297 1297 1297 1297 1297 1297 1297 1292 1288 1288 1288 1283 1283 1283 1283 1283 1278 1278 1278 1278 1278 1273 1273 1273 1273 1273 1273 1273 1273 1273 1268 1268 1268 1268 1268 1264 1264 1264 1264 1259 1259 1259 1259 1259 1255 1255 1255 1255 1255 1255 1255 1255 1250 1250 1250 1245 1245 1245 1245 1245 1245 1245 1245 1241 1241 1241 1241 1241 1241 1241 1241 1245 1241 1241 0 0 0 0 0 0 3300 3300 3333 3333 3333 3333 3300 3300 3300 3300 3300 3300 3300 3300 3300 3333 3333 3300 3300 3300 3300 3333 3333 3333 3333 3333 3333 3333 3333 3333 3333 3365 3365 3365 3365 3365 3333 3333 3333 3333 3300 3333 3333 3333 3269 3269 3300 3300 3300 3300 3300 3300 3300 0 0 0 0 0 0 0 0 0 0 0
0 0 0 0 0 0 0 0 0 0 0 0 0 0 0 0 0 0 0 0 0 0 0 0 0 0 0 0 0 0 0 0 2933 2933 2933 2933 2908 2908 2908 2933 2933 2908 2908 2933 2933 2933 2908 2908 2908 2908 2908 2908 2908 2908 2908 2908 2908 2908 2933 2933 2958 2958 2958 2958 2958 2958 2984 2958 2958 2958 2958 2958 2958 2958 2958 2958 2958 2958 2958 2958 2958 2958 2958 2958 2958 2958 2958 2984 2984 2984 2984 2984 2984 2984 2984 2984 2984 2984 2984 2984 2984 2984 2984 2984 2984 2984 2984 3010 3010 3010 3010 3037 3037 3064 3064 3064 3064 3064 3064 3092 3092 3092 3092 3092 3092 3092 3092 3092 3092 3092 3092 3092 3092 3092 3120 3120 3120 3120 3120 3149 3149 0 0 0 1632 1632 1632 1523 1523 1523 1523 1523 1523 1523 1523 1523 1523 1529 1529 1523 1523 1523 1523 1516 1516 1516 1516 1516 1509 1509 1509 1509 1509 1509 1503 1503 1503 1503 1496 1496 1496 1496 1496 1496 1489 1489 1489 1489 1489 1483 1483 1483 1477 1477 1477 1477 1477 1477 1477 1477 1477 1477 1477 1477 1477 1477 1470 1470 1470 1470 1470 1470 1470 1470 1470 1470 1470 1464 1464 1464 1464 1464 1464 1464 1464 1464 1464 1464 1464 1464 1452 1452 1452 1452 1452 1452 1445 1445 1433 1427 1427 1427 1427 1427 1427 1421 1421 1415 1415 1415 1415 1421 1421 1421 1427 1433 1439 1439 1439 1445 1445 1445 1959 1959 1959 1959 1959 1959 1959 1959 1970 1970 1970 1970 1970 1970 1970 1970 1970 1970 1970 1970 1970 1970 1970 1970 1970 1970 1970 1970 1970 0 1288 1288 1288 1292 1292 1292 1292 1292 1292 1292 1292 1292 1292 1292 1292 1292 1302 1307 1307 1307 1312 1312 1312 1970 1970 1970 1970 1970 1970 1970 1970 1970 1970 1981 1981 1981 1981 1959 1268 1268 1264 1264 1264 1264 1264 1264 1264 1259 1259 1255 1250 1250 1250 1250 1250 1250 1245 1245 1245 1245 1245 1245 1245 1245 1245 1241 1241 1241 1236 1236 1232 1232 1232 1232 1232 1232 1232 1232 1232 1232 1232 1232 1232 1227 1227 1227 1227 1223 1223 1219 1219 1219 1219 1219 1223 1223 1219 1219 1219 1219 1214 1214 1214 1214 1214 1210 1210 1210 1210 1210 1210 1210 1210 1210 1210 1210 1206 1206 1206 1206 1202 1202 1202 1197 1197 1193 1193 1189 1185 1181 1181 1181 1177 1177 1177 1177 1177 1177 1173 1173 1173 1173 1173 1173 1169 1169 1349 1349 1349 1349 1349 1349 1349 1349 1343 1343 1343 1343 1343 1343 1343 1338 1338 1338 1338 1338 1338 1338 1333 1333 1328 1328 1328 1328 1328 1328 1328 1328 1328 1322 1322 1322 1322 1322 1317 1317 1317 1317 1317 1317 1317 1317 1317 1312 1312 1312 1312 1312 1312 1307 1307 1307 1302 1302 1302 1297 1297 1297 1297 1297 1297 1292 1288 1288 1288 1288 1288 1288 1288 1283 1283 1278 1278 1278 1278 1278 1278 1278 1278 1278 1273 1273 1273 1273 1273 1273 1273 1268 1268 1268 1268 1268 1264 1264 1264 1264 1259 1259 1259 1259 1259 1255 1255 1255 1255 1255 1255 1250 1250 1250 1250 1250 1250 1250 1250 1245 1245 1245 1241 1241 1241 1241 1241 1241 1241 1245 1241 1241 0 0 0 0 0 0 3300 3300 3300 3300 3300 3300 3269 3269 3269 3269 3269 3300 3300 3300 3300 3300 3300 3300 3300 3269 3269 3269 3300 3300 3300 3333 3333 3333 3333 3333 3333 3333 3333 3333 3333 3333 3333 3300 3300 3300 3300 3300 3269 3269 3269 3269 3269 3269 3269 3269 3269 3269 3269 0 0 0 0 0 0 0 0 0 0 0
0 0 0 0 0 0 0 0 0 0 0 0 0 0 0 0 0 0 0 0 0 0 0 0 0 0 0 0 0 0 0 0 2908 2908 2908 2908 2908 2908 2908 2908 2908 2908 2908 2908 2908 2908 2908 2908 2908 2908 2908 2908 2908 2908 2908 2908 2908 2908 2908 2908 2908 2908 2908 2908 2908 2933 2933 2933 2933 2933 2933 2933 2958 2958 2958 2958 2958 2958 2958 2958 2958 2958 2958 2958 2958 2958 2958 2958 2958 2984 2984 2984 2984 2984 2984 2958 2958 2984 2984 2984 2984 2984 2984 2984 2984 2984 2984 3010 3010 3010 3010 3010 3037 3037 3064 3064 3064 3064 3064 3064 3064 3064 3064 3064 3092 3092 3092 3092 3092 3092 3092 3092 3092 3092 3092 3092 3092 3092 3092 3120 3149 0 0 0 1639 1639 1639 1523 1523 1529 1523 1523 1529 1529 1529 1529 1529 1529 1529 1523 1523 1523 1523 1523 1523 1516 1516 1516 1516 1516 1516 1509 1509 1509 1509 1503 1503 1503 1503 1496 1496 1496 1496 1496 1496 1496 1489 1489 1489 1483 1483 1483 1477 1477 1477 1477 1477 1477 1477 1477 1477 1477 1477 1477 1477 1477 1470 1470 1470 1470 1470 1470 1470 1470 1470 1470 1464 1458 1458 1464 1464 1464 1464 1464 1464 1464 1464 1464 1464 1458 1458 1452 1452 1458 1458 1452 1452 1445 1433 1433 1427 1427 1427 1427 1427 1421 1421 1421 1421 1421 1421 1421 1421 1421 1427 1433 1439 1445 1445 1445 1445 1445 1947 1947 1947 1947 1947 1947 1947 1947 1959 1959 1959 1959 1959 1959 1959 1959 1959 1959 1959 1959 1959 1959 1959 1959 1959 1959 1970 1970 0 0 0 1288 1288 1292 1297 1297 1297 1292 1292 1292 1292 1292 1292 1292 1292 1302 1307 1307 1312 1312 1312 1312 1322 1970 1970 1970 1970 1970 1970 1970 1970 1970 1970 1970 1970 1970 1959 1959 1959 1268 1264 1264 1264 1264 1264 1264 1264 1259 1255 1255 1250 1250 1250 1250 1250 1250 1250 1245 1245 1245 1245 1245 1245 1245 1245 1241 1241 1241 1241 1236 1236 1236 1236 1232 1232 1232 1232 1232 1232 1232 1232 1232 1232 1232 1227 1227 1227 1223 1223 1223 1223 1223 1223 1223 1223 1223 1219 1219 1219 1219 1219 1214 1214 1214 1214 1214 1210 1210 1210 1210 1210 1210 1210 1210 1210 1210 1210 1206 1206 1206 1206 1206 1206 1202 1202 1197 1193 1193 1185 1185 1185 1181 1181 1181 1177 1177 1177 1177 1177 1177 1177 1177 1177 1177 1169 1169 1354 1354 1349 1349 1349 1349 1349 1349 1343 1343 1343 1343 1343 1343 1343 1343 1343 1343 1343 1338 1338 1338 1333 1333 1328 1328 1328 1328 1328 1328 1328 1328 1328 1328 1322 1322 1322 1317 1317 1317 1317 1317 1317 1317 1317 1317 1317 1312 1312 1312 1312 1312 1312 1307 1307 1307 1307 1302 1302 1302 1302 1297 1297 1297 1297 1292 1292 1292 1292 1292 1292 1292 1288 1288 1288 1283 1283 1283 1278 1278 1278 1278 1278 1278 1278 1278 1273 1273 1273 1273 1273 1273 1273 1268 1268 1268 1268 1264 1264 1264 1259 1259 1259 1259 1259 1259 1255 1255 1255 1255 1255 1255 1255 1255 1255 1250 1250 1250 1250 1245 1245 1245 1245 1241 1241 1241 1241 1241 1241 1236 1236 1241 0 0 0 0 0 3300 3300 3300 3300 3300 3300 3300 3269 3269 3269 3269 3269 3269 3269 3300 3300 3269 3269 3269 3269 3269 3269 3269 3269 3269 3269 3300 3300 3300 3300 3300 3333 3333 3333 3333 3333 3333 3300 3300 3300 3300 3269 3269 3269 3269 3269 3269 3269 3269 3269 3269 3269 3269 3269 0 0 0 0 0 0 0 0 0 0 0
0 0 0 0 0 0 0 0 0 0 0 0 0 0 0 0 0 0 0 0 0 0 0 0 0 0 0 0 0 0 0 0 2883 2883 2883 2883 2883 2908 2908 2908 2883 2883 2883 2883 2883 2883 2883 2883 2883 2908 2908 2908 2908 2908 2908 2908 2883 2883 2883 2883 2883 2908 2908 2908 2908 2908 2908 2908 2883 2883 2883 2908 2908 2908 2908 2908 2908 2908 2908 2908 2908 2908 2908 2933 2933 2933 2933 2933 2933 2958 2958 2958 2958 2958 2958 2958 2958 2958 2958 2958 2958 2984 2984 2984 2984 2984 2984 2984 2984 2984 2984 3010 3037 3037 3037 3064 3064 3064 3064 3064 3064 3064 3064 3064 3064 3064 3064 3064 3064 3064 3064 3064 3064 3064 3092 3092 3092 3092 3092 3092 3092 0 0 0 1647 1639 1639 1523 1523 1529 1529 1529 1529 1529 1529 1529 1529 1529 1529 1523 1523 1523 1523 1523 1523 1516 1516 1516 1516 1516 1516 1509 1509 1509 1509 1509 1509 1503 1503 1503 1496 1496 1496 1496 1496 1496 1496 1489 1489 1489 1483 1483 1483 1477 1477 1477 1477 1477 1477 1477 1477 1477 1477 1477 1477 1477 1470 1470 1470 1470 1470 1470 1470 1470 1470 1464 1464 1458 1458 1458 1458 1458 1458 1464 1464 1464 1464 1458 1458 1458 1458 1458 1458 1458 1452 1452 1452 1452 1439 1439 1433 1427 1427 1427 1427 1421 1421 1421 1421 1421 1421 1421 1421 1427 1433 1439 1439 1445 1445 1445 1445 1445 1936 1936 1936 1936 1936 1936 1936 1936 1947 1947 1947 1947 1947 1947 1947 1947 1947 1947 1947 1947 1947 1947 1947 1947 1947 1947 1959 1959 1959 0 1288 1288 1288 1292 1297 1297 1297 1292 1292 1292 1292 1292 1292 1292 1297 1302 1307 1307 1312 1317 1317 1322 1322 1959 1959 1959 1959 1959 1959 1970 1970 1959 1959 1959 1959 1959 1947 1947 1947 1947 1947 1264 1264 1264 1264 1264 1264 1259 1255 1250 1250 1250 1250 1250 1250 1250 1250 1245 1245 1245 1245 1245 1245 1245 1245 1245 1241 1241 1241 1241 1236 1236 1236 1236 1232 1232 1232 1232 1232 1232 1232 1232 1232 1232 1227 1227 1227 1223 1223 1223 1223 1223 1223 1223 1223 1223 1223 1223 1219 1219 1219 1219 1219 1214 1214 1214 1214 1214 1210 1210 1210 1210 1210 1210 1210 1210 1210 1210 1210 1206 1206 1206 1206 1202 1202 1197 1193 1193 1189 1189 1185 1185 1181 1181 1177 1177 1177 1177 1177 1177 1177 1181 1181 1177 1177 1354 1354 1354 1354 1354 1354 1349 1349 1349 1343 1343 1343 1343 1343 1343 1343 1343 1343 1343 1343 1343 1338 1338 1338 1333 1333 1328 1328 1328 1328 1328 1328 1328 1328 1328 1322 1322 1322 1317 1317 1317 1317 1317 1317 1317 1317 1317 1317 1312 1312 1312 1312 1312 1312 1307 1307 1307 1307 1302 1302 1302 1302 1302 1302 1297 1297 1292 1292 1292 1292 1292 1292 1292 1292 1292 1288 1288 1288 1288 1283 1278 1278 1278 1278 1278 1278 1278 1278 1278 1278 1278 1273 1273 1273 1273 1273 1273 1268 1268 1264 1264 1264 1259 1259 1259 1259 1259 1255 1255 1255 1255 1255 1255 1255 1255 1255 1255 1255 1250 1250 1250 1250 1250 1245 1241 1241 1241 1241 1241 1241 1236 1232 1232 0 0 3300 3300 3300 3300 3300 3300 3300 3269 3269 3269 3238 3238 3269 3269 3269 3269 3269 3269 3269 3269 3269 3269 3269 3269 3269 3238 3238 3238 3269 3269 3269 3269 3269 3300 3300 3333 3333 3333 3333 3333 3300 3269 3238 3238 3238 3238 3269 3238 3238 3269 3269 3238 3238 3238 3238 3238 3269 0 0 0 0 0 0 0 0 0 0 0
0 0 0 0 0 0 0 0 0 0 0 0 0 0 0 0 0 0 0 0 0 0 0 0 0 0 0 0 0 0 0 0 2859 2859 2883 2883 2883 2883 2883 2883 2883 2883 2883 2883 2883 2883 2883 2883 2883 2883 2908 2908 2908 2908 2908 2883 2883 2883 2883 2883 2883 2883 2908 2908 2908 2908 2908 2908 2883 2883 2883 2883 2883 2883 2908 2908 2908 2908 2908 2908 2908 2908 2908 2933 2933 2933 2933 2933 2933 2933 2933 2933 2933 2958 2933 2933 2958 2958 2933 2933 2958 2958 2958 2958 2958 2958 2984 2984 2984 2984 2984 2984 3010 3010 3010 3037 3037 3037 3064 3064 3064 3064 3064 3064 3064 3064 3064 3064 3064 3064 3064 3064 3064 3064 3064 3064 3064 3064 3064 3092 3092 3092 0 1647 1647 1639 1639 1523 1523 1529 1529 1529 1529 1529 1529 1529 1529 1529 1529 1523 1523 1523 1523 1523 1523 1523 1516 1516 1516 1516 1516 1516 1516 1516 1516 1509 1509 1503 1503 1503 1496 1496 1496 1496 1496 1496 1496 1496 1496 1489 1489 1489 1483 1483 1483 1483 1483 1477 1477 1477 1477 1477 1477 1477 1477 1477 1470 1470 1470 1470 1470 1470 1470 1470 1470 1464 1464 1458 1458 1458 1458 1458 1458 1464 1458 1458 1458 1458 1458 1458 1458 1458 1458 1458 1452 1452 1452 1452 1445 1439 1433 1433 1427 1427 1427 1421 1421 1421 1421 1421 1421 1421 1427 1427 1433 1439 1439 1445 1445 1445 1445 1445 1926 1926 1926 1926 1926 1926 1926 1926 1936 1936 1936 1936 1936 1936 1936 1926 1926 1936 1936 1936 1936 1936 1936 1936 1936 1936 1947 1947 1947 0 1288 1288 1288 1292 1297 1297 1297 1297 1292 1292 1292 1292 1292 1292 1297 1302 1307 1307 1312 1317 1317 1322 1333 1959 1959 1959 1959 1959 1959 1959 1959 1959 1959 1959 1959 1947 1947 1947 1947 1947 1947 1947 1947 1959 1947 1264 1264 1264 1894 1250 1250 1250 1250 1250 1250 1250 1250 1245 1245 1245 1245 1245 1245 1245 1245 1245 1241 1241 1241 1241 1236 1236 1236 1236 1236 1232 1232 1232 1232 1232 1232 1232 1232 1232 1227 1227 1227 1223 1223 1223 1223 1223 1223 1223 1223 1223 1223 1223 1223 1219 1219 1219 1219 1219 1214 1214 1214 1214 1210 1210 1210 1210 1210 1210 1210 1210 1210 1210 1210 1210 1210 1206 1206 1202 1202 1197 1193 1193 1189 1189 1185 1185 1181 1181 1181 1181 1181 1181 1177 1177 1181 1185 1181 1177 1177 1354 1354 1354 1354 1354 1354 1354 1349 1349 1349 1349 1349 1343 1343 1343 1343 1343 1343 1343 1343 1343 1343 1338 1338 1338 1333 1333 1333 1333 1333 1333 1333 1333 1333 1328 1328 1322 1322 1322 1317 1317 1317 1317 1317 1317 1317 1317 1317 1312 1312 1312 1312 1312 1307 1307 1307 1307 1307 1302 1302 1302 1302 1302 1302 1297 1297 1292 1292 1292 1292 1292 1292 1292 1292 1292 1288 1288 1288 1288 1283 1283 1278 1278 1278 1278 1278 1278 1278 1278 1278 1278 1273 1273 1273 1273 1273 1273 1273 1268 1268 1268 1264 1264 1264 1264 1259 1259 1259 1259 1259 1255 1255 1255 1255 1255 1255 1255 1255 1255 1255 1255 1250 1250 1250 1245 1245 1245 1241 1241 1241 1241 1232 1232 0 3269 3269 3269 3269 3269 3269 3269 3269 3269 3269 3269 3238 3238 3238 3269 3269 3269 3269 3269 3269 3269 3238 3238 3238 3238 3238 3238 3238 3238 3269 3269 3269 3269 3269 3269 3269 3269 3269 3269 3238 3238 3238 3238 3208 3208 3208 3208 3238 3238 3238 3238 3238 3238 3238 3238 3238 3238 3238 0 0 0 0 0 0 0 0 0 0 0
0 0 0 0 0 0 0 0 0 0 0 0 0 0 0 0 0 0 0 0 0 0 0 0 0 0 0 0 0 0 0 0 2835 2835 2859 2859 2859 2883 2883 2883 2859 2859 2859 2859 2859 2883 2883 2883 2883 2883 2883 2908 2908 2883 2883 2883 2883 2883 2883 2883 2883 2883 2883 2883 2883 2908 2908 2908 2883 2883 2883 2883 2883 2883 2883 2883 2883 2883 2883 2883 2883 2883 2883 2908 2908 2908 2908 2933 2933 2933 2933 2908 2908 2933 2933 2933 2933 2933 2933 2933 2933 2933 2958 2958 2958 2958 2958 2984 2984 2984 2984 2984 2984 3010 3010 3010 3010 3037 3037 3037 3037 3037 3037 3037 3037 3037 3037 3037 3037 3037 3010 3010 3010 3037 3037 3037 3037 3064 3064 3064 3064 3064 0 1647 1647 1639 1639 1523 1523 1529 1529 1529 1529 1529 1529 1529 1529 1529 1536 1529 1529 1529 1529 1523 1523 1523 1516 1516 1516 1516 1516 1516 1516 1516 1516 1509 1509 1509 1503 1503 1496 1496 1496 1496 1496 1496 1496 1496 1496 1496 1489 1489 1489 1483 1483 1483 1483 1483 1483 1483 1477 1477 1477 1477 1477 1477 1470 1470 1470 1470 1470 1470 1470 1470 1470 1464 1464 1464 1464 1464 1458 1458 1464 1458 1458 1458 1458 1458 1452 1452 1452 1452 1452 1452 1452 1452 1452 1452 1445 1445 1439 1433 1433 1433 1433 1421 1421 1421 1421 1421 1421 1421 1427 1427 1433 1439 1439 1445 1445 1445 1445 1445 1915 1915 1915 1915 1926 1915 1915 1926 1926 1926 1926 1926 1926 1926 1926 1926 1926 1926 1926 1926 1926 1926 1926 1926 1936 1936 1936 1936 1936 0 1292 1292 1292 1297 1297 1302 1302 1297 1297 1297 1297 1292 1292 1292 1297 1302 1307 1312 1312 1317 1322 1328 1328 1333 1947 1947 1947 1947 1947 1959 1959 1959 1959 1947 1947 1947 1936 1936 1936 1947 1947 1947 1947 1947 1947 1936 1926 1904 1894 1883 1250 1250 2256 2271 2271 2271 2256 2256 2256 2271 1245 1245 1245 1245 1245 1245 1245 1245 1241 1241 1236 1236 1236 1236 1236 1232 1232 1232 1232 1232 1232 1232 1232 1227 1227 1227 1227 1223 1223 1223 1223 1223 1223 1223 1223 1223 1223 1223 1223 1223 1223 1219 1219 1219 1219 1214 1214 1214 1214 1214 1214 1210 1210 1210 1210 1210 1210 1210 1210 1210 1210 1210 1210 1206 1202 1202 1193 1193 1189 1189 1189 1189 1185 1185 1181 1181 1181 1181 1177 1177 1181 1185 1181 1181 1181 1359 1354 1354 1354 1354 1354 1354 1349 1349 1349 1349 1349 1349 1343 1343 1343 1343 1343 1343 1343 1343 1343 1338 1338 1338 1333 1333 1333 1333 1333 1333 1333 1333 1328 1328 1328 1322 1322 1322 1322 1317 1317 1317 1317 1317 1317 1317 1317 1312 1312 1312 1312 1312 1307 1307 1307 1307 1307 1307 1302 1302 1302 1302 1302 1302 1302 1297 1292 1292 1292 1292 1292 1292 1292 1292 1288 1288 1288 1288 1288 1283 1283 1283 1283 1278 1278 1278 1278 1278 1278 1278 1278 1278 1278 1273 1273 1273 1273 1268 1268 1268 1264 1264 1264 1264 1264 1264 1259 1259 1259 1259 1255 1255 1255 1255 1255 1255 1255 1255 1255 1255 1255 1255 1255 1250 1250 1245 1241 1241 0 0 3208 3238 3238 3238 3238 3269 3269 3269 3238 3238 3269 3269 3269 3269 3238 3238 3238 3269 3269 3269 3269 3238 3238 3238 3238 3238 3238 3238 3238 3238 3238 3238 3238 3238 3238 3238 3238 3238 3238 3269 3238 3208 3208 3208 3178 3178 3178 3178 3178 3178 3208 3238 3238 3238 3238 3238 3238 3238 3208 3208 3208 0 0 0 0 0 0 0 0 0 0 0
0 0 0 0 0 0 0 0 0 0 0 0 0 0 0 0 0 0 0 0 0 0 0 0 0 0 0 0 0 0 0 0 2835 2835 2835 2835 2835 2859 2859 2859 2835 2835 2835 2835 2835 2835 2835 2859 2859 2883 2883 2883 2883 2883 2883 2883 2883 2883 2883 2883 2883 2883 2883 2883 2883 2883 2883 2883 2859 2859 2859 2859 2859 2859 2859 2883 2883 2883 2883 2883 2883 2883 2883 2883 2883 2908 2908 2908 2908 2908 2908 2908 2908 2908 2908 2908 2908 2908 2908 2908 2908 2933 2933 2958 2958 2958 2958 2984 2984 2984 2984 2984 2984 2984 2984 2984 2984 3010 3010 3010 3010 3010 3037 3037 3037 3010 3010 3010 3010 3010 3010 3010 3010 3010 3037 3037 3037 3037 3037 3064 3064 3064 1639 1639 1639 1639 1639 1647 1529 1529 1529 1529 1529 1529 1529 1529 1529 1529 1536 1529 1529 1529 1529 1523 1523 1523 1523 1523 1516 1516 1516 1516 1516 1516 1516 1516 1516 1509 1509 1503 1503 1503 1503 1503 1496 1496 1496 1496 1496 1496 1489 1489 1489 1489 1483 1483 1483 1483 1483 1483 1477 1477 1477 1477 1477 1477 1477 1477 1477 1470 1470 1470 1470 1470 1470 1470 1470 1464 1464 1464 1458 1458 1464 1458 1458 1458 1458 1458 1452 1452 1452 1452 1452 1452 1452 1452 1452 1452 1445 1445 1445 1439 1433 1433 1433 1427 1421 1421 1421 1421 1421 1421 1427 1433 1433 1439 1445 1445 1445 1445 1445 1904 1904 1904 1904 1915 1915 1915 1915 1915 1915 1915 1915 1915 1915 1915 1915 1915 1915 1915 1915 1926 1926 1926 1926 1926 1926 1926 1926 1926 1926 1915 1292 1292 1292 1297 1297 1302 1302 1297 1297 1297 1297 1297 1297 1297 1302 1302 1307 1312 1312 1317 1322 1328 1328 1333 1947 1936 1936 1936 1936 1947 1936 1936 1936 1947 1947 1936 1926 1926 1936 1936 1936 1936 1936 1936 1936 1926 1926 1904 1894 1883 1883 2256 2256 2271 2271 2271 2256 2256 2271 2271 3208 3208 3208 3208 1250 1250 1245 1245 1241 1241 1236 1236 1236 1236 1236 1236 1232 1232 1232 1232 1232 1232 1232 1227 1227 1227 1227 1223 1223 1223 1227 1227 1223 1223 1223 1223 1223 1223 1223 1223 1223 1223 1223 1219 1219 1219 1214 1214 1214 1214 1214 1210 1210 1210 1214 1210 1210 1210 1210 1210 1210 1210 1210 1206 1206 1202 1193 1193 1193 1189 1189 1189 1185 1185 1181 1181 1181 1181 1181 1181 1181 1185 1185 1185 1185 1354 1354 1354 1359 1359 1354 1354 1349 1349 1349 1349 1349 1349 1343 1343 1343 1343 1343 1343 1343 1343 1343 1338 1338 1338 1333 1333 1333 1333 1333 1333 1333 1333 1328 1328 1328 1322 1322 1322 1322 1322 1322 1317 1317 1317 1317 1317 1317 1317 1317 1312 1312 1312 1307 1307 1307 1307 1307 1307 1302 1302 1302 1302 1302 1302 1302 1292 1292 1292 1292 1292 1292 1292 1292 1292 1292 1288 1288 1288 1288 1283 1283 1283 1283 1283 1283 1283 1283 1283 1278 1278 1278 1278 1278 1278 1278 1273 1273 1273 1273 1273 1268 1268 1268 1264 1264 1264 1259 1259 1259 1259 1259 1259 1259 1259 1259 1255 1255 1255 1255 1255 1255 1255 1255 1250 1250 0 0 1250 0 0 0 3208 3208 3238 3238 3238 3238 3238 3238 3238 3238 3238 3238 3238 3238 3238 3238 3238 3238 3238 3238 3238 3238 3238 3238 3238 3238 3238 3238 3208 3208 3208 3208 3178 3178 3208 3208 3238 3238 3238 3238 3208 3208 3178 3178 3178 3178 3178 3149 3149 3178 3208 3208 3238 3238 3238 3238 3238 3208 3208 3208 0 0 0 0 0 0 0 0 0 0 0
0 0 0 0 0 0 0 0 0 0 0 0 0 0 0 0 0 0 0 0 0 0 0 0 0 0 0 0 0 0 0 0 2812 2812 2835 2835 2835 2835 2835 2859 2835 2835 2835 2835 2835 2835 2835 2835 2835 2859 2859 2859 2859 2883 2883 2883 2883 2883 2883 2883 2883 2883 2883 2883 2883 2883 2883 2883 2859 2859 2859 2859 2859 2859 2859 2859 2859 2859 2859 2859 2883 2883 2883 2883 2883 2883 2883 2883 2883 2883 2883 2883 2883 2883 2883 2883 2908 2908 2908 2908 2908 2908 2933 2933 2958 2958 2958 2984 2984 2958 2958 2984 2984 2984 2984 2984 2984 2984 2984 2984 3010 3010 3010 3010 3010 2984 2984 3010 3010 3010 3010 3010 3010 3010 3010 3010 3037 3037 3037 3037 3064 3064 1639 1639 1639 1639 1639 1647 1529 1529 1529 1529 1529 1529 1529 1529 1536 1536 1536 1529 1529 1529 1529 1523 1523 1523 1523 1523 1523 1523 1516 1516 1516 1516 1516 1516 1516 1516 1509 1509 1503 1503 1503 1503 1496 1496 1496 1496 1496 1496 1489 1489 1489 1489 1489 1489 1489 1489 1489 1489 1483 1483 1477 1477 1477 1477 1477 1477 1477 1477 1470 1470 1470 1470 1470 1470 1470 1464 1464 1464 1464 1464 1464 1464 1458 1458 1458 1458 1458 1458 1458 1452 1452 1458 1452 1452 1452 1452 1452 1445 1445 1445 1439 1433 1433 1427 1421 1421 1421 1421 1421 1427 1427 1433 1433 1439 1445 1445 1445 1445 1452 1894 1894 1894 1894 1894 1904 1904 1904 1904 1904 1904 1904 1904 1904 1904 1904 1904 1904 1904 1904 1915 1915 1915 1915 1915 1915 1915 1915 1915 1915 1915 1292 1292 1292 1297 1302 1302 1302 1302 1302 1302 1297 1297 1297 1302 1302 1307 1307 1312 1312 1317 1322 1328 1333 1936 1936 1936 1936 1936 1936 1936 1926 1926 1926 1926 1926 1936 1926 1926 1926 1926 1926 1926 1926 1926 1926 1926 1926 1915 1894 1883 1883 2256 2271 2271 2271 2271 2271 2271 2271 2271 3149 3178 3178 3208 3208 3208 3208 1245 1245 3208 1236 1236 1236 1236 1236 1236 1236 1236 1232 1232 1232 1232 1227 1227 1227 1223 1223 1223 1223 1223 1227 1227 1223 1223 1223 1223 1223 1223 1223 1223 1223 1223 1223 1223 1219 1219 1219 1214 1214 1214 1214 1210 1210 1210 1214 1210 1210 1210 1210 1210 1210 1210 1210 1210 1206 1202 1197 1193 1193 1189 1189 1189 1185 1185 1181 1181 1181 1181 1181 1181 1181 1185 1185 1185 1185 1354 1359 1359 1359 1359 1354 1354 1354 1354 1349 1349 1349 1349 1349 1343 1343 1343 1343 1343 1343 1343 1343 1338 1338 1338 1333 1333 1333 1333 1333 1333 1333 1333 1328 1328 1328 1322 1322 1322 1322 1322 1322 1317 1317 1317 1317 1317 1317 1317 1317 1312 1312 1312 1312 1312 1307 1307 1307 1307 1307 1307 1302 1302 1302 1302 1302 1292 1292 1292 1292 1292 1292 1292 1292 1292 1292 1292 1292 1292 1288 1283 1283 1288 1288 1283 1283 1283 1283 1283 1278 1278 1278 1278 1278 1278 1278 1273 1273 1273 1273 1273 1268 1268 1268 1268 1264 1264 1264 1264 1264 1259 1259 1259 1259 1259 1259 1259 1259 1259 1259 1259 1259 1259 1259 1259 0 0 0 0 0 0 3238 3208 3208 3238 3238 3238 3238 3238 3238 3238 3238 3238 3208 3208 3178 3178 3208 3208 3208 3208 3208 3208 3208 3208 3208 3208 3208 3208 3208 3178 3178 3178 3208 3178 3178 3208 3208 3208 3178 3178 3178 3178 3178 3178 3178 3178 3149 3149 3149 3149 3178 3208 3208 3208 3208 3208 3208 3208 3178 3178 3178 0 0 0 0 0 0 0 0 0 0 0
