0 0 0 0 0 0 0 0 0 0 0 0 0 0 0 0 0 0 0 0 0 0 0 0 0 0 0 0 0 0 0 0 0 2381 2381 2398 2398 2398 2398 2398 2398 2398 2398 2415 2415 2415 2415 2415 2415 2415 2415 2415 2415 2415 2398 2398 2398 2398 2398 2398 2398 2398 2415 2415 2415 2398 2398 2398 2398 2398 2415 2415 2415 2415 2415 2415 2432 2415 2415 2415 2415 2432 2415 2415 2415 2415 2415 2432 2432 2432 2432 2432 2432 2432 2432 2432 2432 2432 2432 2432 2432 2432 2450 2450 2450 2450 2450 2450 1543 1536 1536 1536 1536 1543 1543 1550 1550 1543 1543 1550 1550 1550 1550 1557 1557 1557 1557 1564 1564 1477 1477 1477 1477 1477 1477 1477 1483 1483 1483 1483 1489 1489 1489 1489 1647 1647 1647 1647 1647 1655 1655 1655 1655 1655 1655 1647 1647 1647 1647 1647 1647 1647 1647 1647 1647 1647 1647 1647 1647 1647 1647 1655 1647 1647 1655 1655 1655 1655 1655 1655 1655 1655 1655 1655 1655 1655 1655 1663 1663 1663 1663 1655 1655 1655 1655 1655 1655 1655 1663 1663 1671 1671 1671 1671 1671 1671 1671 1671 1671 1671 1671 1671 1671 1671 1671 1671 1671 1671 1671 1671 1671 1671 1671 1671 1671 1671 1671 1671 1671 1680 1671 1671 1671 1671 1671 1680 1680 1680 1680 1529 1529 1529 1536 1543 1543 1543 1543 1543 1543 1543 0 0 0 2271 2271 2271 2271 2256 2256 2256 2028 2028 2028 2028 2028 2040 2053 2065 2065 2065 2065 2065 2078 2560 2560 2560 2560 2560 2541 2541 2560 1926 1926 1926 1926 1926 1926 1936 1936 1936 1936 1696 1688 1688 1688 1688 1688 1688 1688 1688 1688 1688 1688 1688 1489 1489 1489 1496 1496 1496 1496 1496 1503 1503 1503 1503 1509 1688 1696 1696 1696 1696 1696 1696 1705 1705 1705 1705 1705 1705 1696 1696 1696 1696 1696 1696 1696 1696 1705 1705 1705 1705 1705 1705 1705 1705 1705 1705 1705 1713 1705 1705 1705 1705 1705 1705 1705 1705 1705 1705 1713 1713 1713 1713 1713 1713 1713 1713 1713 1713 1722 1722 1722 1722 1722 1722 1722 1722 1722 1722 1722 1722 1722 1722 1722 1722 1722 1722 1722 1722 1722 1722 1722 1722 1722 1722 1722 1722 1722 1722 1722 1731 1731 1572 1572 1564 1564 1564 1557 1557 1557 1557 1557 1557 1557 1557 1557 1557 1557 0 0 0 0 0 2598 2598 2618 2618 2639 2639 2659 2659 2639 2639 2639 2639 2639 2639 2639 2639 2639 2639 2639 2639 2639 2639 2639 2639 2639 2639 2639 2639 2639 2639 2639 2639 2659 2659 2659 2680 2680 2680 2680 1722 1722 1722 1722 1722 1722 1722 1722 1722 1731 1731 1731 1731 1731 1739 1739 1739 1739 1739 1748 1748 1748 1748 1757 1757 2579 2579 2598 2598 2618 2618 2639 2639 2639 2639 2639 2639 2639 2618 2618 2618 2618 2618 2618 2618 2618 2618 2618 2618 2618 2639 2639 2639 2618 2618 2639 2639 2618 2618 2618 2618 2618 2618 2618 2618 2618 2618 2639 2639 2639 2639 2639 2639 2659 2659 2659 2659 2659 2659 2659 2659 2659 2659 2659 2659 2659 2659 2659 2659 2659 2659 2659 2659 2659 2659 2659 2659 2659 2659 2659 2659 2680 2680 2680 2680 2680 2680 2680 2680 2680 2680 2680 2680 2680 2659 2659 2659 2659 2659 2659 2659 2659 2659 2659 2659 2659 2639 2639 2659 2659 2659 2659 2639 2639 2639 2639 2639 2639 2639 2639 2639 2659 2659 2659 2659 2659 2659 2659 2659 2659 2639 2639 2639 2639 2618 2618 2598 2598 2618 2618 2618 2618 2618 2618 2618 2639 2639 0 0 0 0 0 0 0 0 0 0
0 0 0 0 0 0 0 0 0 0 0 0 0 0 0 0 0 0 0 0 0 0 0 0 0 0 0 0 0 0 0 0 0 2381 2381 2381 2381 2398 2381 2381 2398 2398 2398 2398 2398 2398 2398 2415 2415 2415 2415 2415 2415 2415 2398 2398 2398 2398 2398 2398 2398 2398 2415 2415 2415 2398 2398 2398 2398 2398 2398 2398 2398 2398 2398 2398 2398 2398 2398 2398 2415 2415 2415 2415 2415 2415 2415 2415 2415 2415 2415 2432 2432 2432 2432 2432 2415 2415 2415 2432 2432 2432 2432 2432 2432 2450 2450 2450 2450 1536 1536 1536 1536 1543 1550 1550 1550 1550 1550 1550 1550 1550 1557 1557 1557 1557 1557 1564 1564 1477 1477 1477 1477 1477 1477 1483 1483 1483 1483 1483 1489 1489 1489 1496 1647 1647 1647 1647 1647 1647 1647 1647 1655 1655 1655 1647 1647 1647 1639 1639 1639 1639 1639 1639 1639 1639 1647 1647 1647 1647 1647 1647 1647 1647 1647 1647 1655 1655 1655 1655 1655 1655 1655 1655 1655 1655 1655 1655 1655 1655 1655 1647 1647 1647 1647 1647 1647 1655 1655 1663 1663 1663 1663 1663 1663 1663 1663 1663 1663 1663 1663 1671 1671 1671 1671 1671 1671 1663 1663 1663 1663 1663 1671 1671 1671 1671 1671 1671 1671 1671 1671 1671 1671 1671 1671 1671 1671 1680 1680 1536 1536 1536 1543 1543 1543 1543 1543 1550 1543 1543 0 1550 0 2271 2271 2271 2256 2256 2256 2256 2256 2028 2028 2028 2028 2040 2053 2065 2065 2065 2065 2078 2541 2541 2541 2541 2560 2560 2560 2560 2560 2560 1926 1926 1926 1926 1926 1936 1936 1936 1936 1936 1680 1680 1688 1688 1688 1688 1688 1688 1688 1680 1680 1680 1489 1489 1489 1496 1496 1496 1503 1503 1503 1503 1503 1503 1509 1688 1688 1688 1688 1688 1688 1696 1696 1696 1696 1696 1696 1696 1688 1688 1696 1696 1696 1696 1696 1696 1696 1696 1696 1696 1696 1705 1696 1696 1696 1705 1705 1705 1705 1696 1696 1696 1696 1696 1696 1696 1696 1696 1705 1705 1705 1705 1705 1705 1705 1705 1705 1705 1713 1713 1713 1722 1713 1713 1713 1713 1713 1713 1713 1713 1713 1713 1713 1713 1713 1713 1722 1722 1722 1722 1722 1722 1722 1722 1722 1722 1722 1722 1722 1722 1731 1572 1572 1564 1564 1564 1557 1557 1557 1557 1557 1557 1557 1564 1564 1564 1564 0 0 0 0 0 2598 2598 2598 2618 2618 2639 2639 2659 2639 2639 2639 2639 2639 2639 2639 2639 2639 2618 2618 2639 2639 2639 2639 2639 2639 2639 2639 2639 2639 2639 2639 2639 2639 2639 2659 2639 2639 2659 2659 1722 1722 1722 1722 1722 1722 1722 1722 1722 1731 1731 1731 1731 1731 1739 1739 1739 1739 1739 1748 1748 1748 1748 1757 1757 2579 2579 2598 2598 2618 2618 2618 2618 2639 2639 2639 2639 2639 2618 2618 2618 2598 2598 2618 2618 2598 2598 2618 2618 2618 2618 2618 2618 2618 2618 2618 2618 2618 2618 2618 2618 2618 2618 2618 2618 2598 2598 2618 2639 2639 2639 2639 2639 2639 2639 2639 2659 2659 2659 2659 2659 2639 2639 2639 2639 2639 2639 2639 2639 2639 2639 2639 2639 2639 2639 2639 2659 2659 2659 2659 2659 2659 2659 2659 2659 2659 2659 2659 2659 2659 2659 2659 2659 2659 2659 2659 2659 2659 2659 2659 2659 2659 2659 2659 2659 2639 2639 2639 2639 2639 2639 2639 2639 2639 2639 2639 2639 2639 2639 2639 2639 2639 2639 2639 2639 2639 2639 2639 2639 2639 2639 2618 2618 2618 2598 2598 2598 2598 2598 2618 2618 2618 2618 2618 2618 2618 2618 0 0 0 0 0 0 0 0 0 0
0 0 0 0 0 0 0 0 0 0 0 0 0 0 0 0 0 0 0 0 0 0 0 0 0 0 0 0 0 0 0 0 0 2365 2365 2365 2381 2381 2381 2381 2381 2381 2381 2381 2381 2398 2398 2398 2398 2398 2398 2398 2398 2398 2398 2398 2398 2398 2398 2398 2398 2398 2398 2398 2398 2398 2398 2398 2398 2398 2398 2398 2398 2398 2398 2398 2398 2398 2398 2398 2398 2398 2398 2398 2398 2415 2415 2415 2415 2415 2415 2415 2415 2415 2415 2415 2398 2398 2398 2415 2415 2415 2415 2432 2432 2432 2432 2432 2432 1536 1536 1536 1536 1543 1550 1550 1550 1550 1550 1550 1550 1550 1557 1557 1557 1557 1557 1564 1564 1483 1477 1477 1477 1477 1477 1483 1483 1483 1483 1489 1489 1496 1503 1503 1647 1639 1632 1632 1632 1632 1639 1632 1632 1639 1639 1632 1632 1632 1632 1632 1632 1632 1639 1639 1639 1639 1639 1639 1639 1647 1647 1647 1647 1647 1647 1647 1647 1647 1647 1647 1647 1647 1647 1647 1647 1647 1647 1647 1647 1647 1647 1639 1639 1639 1639 1647 1647 1647 1647 1647 1655 1655 1655 1655 1655 1655 1655 1655 1655 1663 1663 1663 1663 1663 1663 1663 1663 1655 1655 1655 1655 1663 1663 1663 1663 1663 1663 1663 1663 1663 1663 1663 1671 1671 1671 1671 1671 1671 1671 1543 1543 1543 1543 1543 1543 1543 1550 1550 1543 1543 1550 1550 0 2301 2301 2301 2241 2241 2241 2241 2256 2028 2028 2028 2028 2040 2053 2065 2065 2065 2078 2078 2522 2522 2522 2541 2541 2541 2560 2560 2560 1926 1926 1926 1926 1926 1936 1936 1936 1936 1936 1936 1671 1671 1680 1680 1680 1680 1680 1680 1680 1680 1671 1671 1489 1489 1496 1496 1503 1503 1503 1503 1503 1509 1509 1509 1509 1688 1688 1688 1688 1688 1688 1688 1688 1688 1696 1696 1696 1696 1688 1688 1688 1688 1688 1688 1688 1688 1688 1688 1688 1688 1696 1696 1696 1696 1696 1696 1696 1696 1696 1696 1696 1696 1696 1696 1696 1696 1696 1696 1696 1696 1696 1705 1705 1705 1705 1705 1705 1705 1713 1713 1713 1713 1713 1713 1705 1705 1705 1705 1705 1705 1705 1705 1705 1705 1713 1713 1713 1713 1713 1713 1713 1713 1713 1713 1713 1713 1713 1713 1713 1722 1722 1572 1572 1564 1564 1564 1564 1557 1557 1564 1564 1564 1564 1564 1564 1564 0 0 0 0 0 2598 2598 2598 2598 2598 2618 2618 2618 2639 2618 2618 2618 2618 2618 2618 2618 2618 2618 2618 2618 2618 2618 2618 2618 2618 2618 2618 2618 2618 2618 2639 2639 2639 2639 2639 2659 2639 2639 2659 2659 1713 1713 1713 1722 1722 1722 1722 1722 1731 1731 1731 1731 1731 1731 1739 1739 1739 1739 1748 1748 1748 1748 1748 1757 2598 2579 2579 2598 2598 2618 2618 2618 2618 2618 2639 2639 2639 2639 2618 2618 2598 2598 2598 2598 2598 2598 2598 2598 2598 2598 2598 2598 2598 2598 2598 2598 2598 2598 2618 2618 2598 2598 2598 2598 2598 2598 2598 2618 2618 2618 2618 2618 2618 2618 2639 2639 2639 2639 2639 2639 2639 2639 2639 2618 2618 2618 2618 2639 2639 2639 2639 2639 2639 2639 2639 2639 2639 2639 2639 2639 2659 2659 2659 2659 2659 2659 2659 2659 2659 2659 2639 2639 2639 2639 2639 2639 2639 2639 2659 2659 2659 2659 2659 2639 2639 2639 2639 2639 2639 2639 2639 2639 2639 2639 2639 2639 2618 2618 2639 2639 2639 2639 2639 2639 2639 2639 2639 2639 2639 2618 2618 2598 2598 2598 2598 2598 2598 2598 2598 2618 2618 2618 2618 2618 2618 2618 2618 0 0 0 0 0 0 0 0 0 0
0 0 0 0 0 0 0 0 0 0 0 0 0 0 0 0 0 0 0 0 0 0 0 0 0 0 0 0 0 0 0 0 0 2365 2365 2365 2365 2365 2365 2365 2365 2365 2381 2381 2365 2365 2381 2398 2398 2398 2398 2398 2398 2398 2398 2398 2398 2398 2398 2398 2398 2398 2398 2398 2398 2381 2381 2398 2381 2381 2398 2381 2381 2398 2381 2381 2398 2398 2398 2398 2398 2398 2398 2398 2398 2398 2398 2398 2398 2398 2398 2398 2398 2398 2398 2398 2381 2381 2398 2398 2398 2398 2415 2415 2415 2432 2432 2432 2432 1550 1550 1550 1550 1550 1557 1557 1557 1550 1550 1557 1557 1557 1557 1557 1557 1557 1564 1564 1564 1564 1483 1483 1483 1483 1483 1483 1483 1489 1489 1489 1496 1503 1503 1509 1516 1632 1632 1632 1632 1632 1632 1632 1632 1632 1632 1624 1624 1624 1632 1632 1632 1632 1632 1632 1632 1632 1632 1632 1632 1632 1639 1639 1639 1639 1639 1639 1639 1639 1639 1639 1647 1639 1639 1639 1639 1647 1639 1639 1639 1639 1639 1639 1639 1639 1639 1639 1647 1647 1647 1647 1647 1647 1647 1655 1655 1655 1655 1655 1655 1655 1655 1655 1655 1655 1655 1655 1655 1655 1655 1655 1655 1655 1655 1655 1655 1655 1655 1655 1663 1663 1663 1663 1663 1663 1663 1671 1671 1671 1671 1543 1543 1550 1550 1543 1543 1543 1550 1550 1550 1550 1550 0 0 0 0 2226 2226 2241 2241 2241 2241 2040 2040 2040 2040 2053 2065 2065 2065 2065 2078 2078 2522 2522 2522 2522 2541 2541 2541 2560 2560 1926 1926 1926 1926 1936 1936 1936 1936 1936 1936 1936 1671 1671 1671 1671 1671 1671 1671 1671 1671 1671 1671 1671 1496 1496 1496 1503 1503 1503 1503 1503 1503 1509 1509 1509 1509 1680 1680 1671 1671 1680 1680 1680 1688 1688 1688 1688 1688 1688 1680 1680 1680 1680 1688 1680 1680 1688 1680 1680 1688 1688 1688 1696 1688 1688 1696 1696 1688 1688 1688 1688 1688 1688 1688 1688 1688 1688 1696 1696 1696 1696 1696 1696 1696 1696 1696 1696 1696 1696 1705 1705 1713 1713 1705 1705 1705 1696 1696 1696 1696 1696 1696 1696 1696 1705 1705 1705 1705 1705 1705 1705 1705 1705 1705 1705 1705 1705 1713 1713 1713 1713 1713 1713 1572 1564 1564 1564 1564 1557 1557 1564 1564 1564 1564 1564 1564 1572 0 0 0 0 2598 2598 2598 2598 2598 2598 2618 2618 2618 2639 2618 2618 2618 2618 2598 2598 2598 2598 2598 2598 2598 2618 2618 2618 2618 2618 2618 2618 2618 2618 2618 2618 2618 2618 2618 2618 2639 2618 2618 2639 2639 1713 1713 1713 1722 1731 1722 1722 1731 1731 1731 1731 1739 1739 1739 1739 1739 1739 1748 1748 1748 1748 1748 1748 1748 2598 2579 2579 2598 2598 2618 2618 2618 2618 2618 2618 2618 2618 2618 2598 2598 2598 2598 2598 2598 2598 2598 2598 2598 2598 2598 2598 2598 2598 2598 2598 2598 2598 2598 2598 2598 2598 2598 2598 2598 2598 2598 2598 2598 2598 2598 2618 2618 2618 2618 2618 2618 2618 2618 2618 2618 2618 2618 2618 2618 2618 2618 2618 2618 2618 2618 2618 2618 2618 2618 2618 2618 2618 2618 2618 2639 2639 2639 2639 2639 2639 2639 2618 2618 2618 2618 2639 2618 2618 2639 2639 2639 2639 2639 2639 2639 2639 2639 2639 2618 2618 2618 2618 2618 2618 2618 2618 2618 2618 2618 2618 2618 2618 2618 2618 2618 2618 2639 2639 2618 2618 2639 2618 2618 2618 2618 2598 2598 2598 2598 2598 2598 2598 2598 2598 2598 2598 2618 2598 2598 2618 2598 2598 0 0 0 0 0 0 0 0 0 0
0 0 0 0 0 0 0 0 0 0 0 0 0 0 0 0 0 0 0 0 0 0 0 0 0 0 0 0 0 0 0 0 0 2349 2349 2349 2365 2365 2349 2349 2349 2349 2365 2365 2365 2365 2365 2365 2365 2365 2381 2381 2381 2398 2398 2398 2398 2398 2398 2398 2398 2398 2398 2398 2398 2381 2381 2381 2381 2381 2381 2381 2381 2381 2381 2381 2398 2398 2398 2398 2398 2398 2398 2398 2398 2398 2398 2398 2398 2398 2398 2398 2398 2398 2381 2381 2381 2381 2381 2398 2398 2398 2415 2415 2415 2415 2432 2432 1550 1550 1550 1550 1550 1550 1557 1557 1557 1557 1557 1557 1557 1557 1557 1557 1557 1564 1564 1564 1572 1586 1483 1483 1483 1483 1483 1489 1489 1489 1496 1496 1496 1503 1509 1509 1516 1523 1624 1624 1624 1624 1624 1624 1624 1624 1624 1616 1616 1616 1616 1624 1624 1624 1624 1624 1624 1624 1624 1624 1624 1624 1624 1632 1632 1632 1632 1639 1639 1632 1632 1632 1639 1639 1639 1639 1639 1639 1639 1639 1639 1639 1639 1639 1632 1632 1632 1639 1639 1639 1639 1639 1639 1647 1647 1647 1647 1647 1647 1647 1647 1647 1647 1647 1647 1647 1647 1647 1647 1647 1647 1647 1647 1647 1655 1655 1655 1655 1655 1655 1655 1655 1655 1655 1655 1663 1663 1663 1671 1671 1671 1550 1550 1550 1550 1543 1543 1543 1550 1550 1550 1550 1550 0 0 0 0 2226 2226 2226 2226 2241 2241 2256 2053 2053 2053 2065 2065 2065 2065 2065 2065 2065 2503 2503 2503 2503 2522 2522 2522 2541 2541 1926 1926 1926 1936 1936 1936 1936 1936 1936 1936 1936 1663 1663 1671 1671 1671 1671 1671 1671 1671 1671 1671 1671 1496 1496 1496 1503 1503 1503 1509 1509 1509 1509 1509 1509 1516 1671 1671 1671 1671 1671 1671 1680 1680 1680 1680 1680 1688 1688 1680 1680 1680 1680 1680 1680 1680 1680 1680 1680 1680 1680 1680 1688 1680 1680 1688 1688 1680 1680 1688 1688 1688 1688 1688 1688 1688 1688 1688 1688 1696 1696 1696 1696 1696 1696 1696 1696 1696 1696 1696 1696 1696 1705 1696 1696 1696 1696 1696 1688 1688 1696 1696 1696 1696 1696 1696 1696 1696 1696 1696 1696 1696 1696 1696 1696 1696 1705 1705 1705 1705 1713 1705 1705 1572 1572 1572 1564 1564 1564 1564 1564 1564 1564 1564 1564 1564 1579 0 0 0 2598 2598 2598 2598 2598 2598 2598 2598 2618 2618 2618 2618 2618 2618 2598 2598 2598 2598 2598 2598 2598 2598 2598 2618 2618 2618 2618 2618 2618 2618 2618 2618 2618 2618 2618 2618 2618 2618 2618 2618 2639 2639 1722 1722 1722 1722 1731 1731 1731 1731 1731 1739 1739 1739 1739 1739 1748 1748 1748 1748 1748 1748 1748 1748 1748 1748 2579 2579 2579 2579 2598 2598 2618 2618 2618 2618 2618 2618 2598 2598 2579 2579 2579 2579 2579 2598 2598 2598 2598 2598 2598 2598 2598 2598 2598 2579 2579 2598 2598 2598 2598 2598 2598 2598 2598 2598 2598 2598 2598 2598 2598 2598 2598 2598 2598 2598 2618 2618 2618 2598 2598 2598 2598 2598 2598 2598 2598 2598 2598 2598 2598 2598 2598 2598 2598 2598 2618 2618 2618 2618 2618 2618 2639 2618 2618 2618 2618 2618 2618 2618 2618 2618 2618 2618 2618 2618 2618 2618 2618 2618 2618 2618 2618 2618 2618 2618 2618 2598 2598 2598 2618 2618 2598 2598 2598 2598 2618 2618 2618 2618 2618 2618 2618 2598 2598 2598 2598 2598 2598 2598 2579 2579 2579 2579 2579 2579 2579 2579 2579 2579 2598 2598 2598 2598 2579 2579 2579 2579 2579 0 0 0 0 0 0 0 0 0 0
0 0 0 0 0 0 0 0 0 0 0 0 0 0 0 0 0 0 0 0 0 0 0 0 0 0 0 0 0 0 0 0 0 2349 2349 2349 2349 2349 2349 2349 2349 2349 2365 2349 2349 2349 2365 2365 2365 2365 2365 2381 2381 2381 2381 2381 2398 2398 2398 2381 2381 2398 2398 2398 2381 2365 2365 2381 2381 2381 2381 2381 2381 2381 2381 2381 2381 2381 2381 2398 2398 2398 2381 2381 2381 2381 2381 2381 2381 2381 2381 2381 2381 2381 2381 2381 2381 2381 2381 2398 2398 2398 2398 2415 2415 2415 2415 2415 1557 1557 1557 1557 1557 1557 1557 1557 1557 1557 1557 1557 1557 1557 1557 1557 1557 1564 1564 1564 1572 1586 1483 1483 1483 1489 1489 1489 1489 1496 1496 1496 1503 1503 1509 1509 1516 1523 1616 1616 1616 1616 1624 1624 1624 1624 1624 1616 1616 1616 1616 1616 1616 1616 1616 1616 1616 1616 1616 1616 1616 1624 1624 1624 1624 1624 1624 1632 1632 1624 1624 1632 1632 1632 1632 1624 1624 1639 1639 1639 1639 1639 1639 1639 1632 1632 1632 1632 1632 1639 1639 1639 1639 1639 1639 1639 1639 1639 1639 1639 1639 1639 1639 1639 1639 1639 1639 1639 1639 1639 1639 1639 1639 1647 1647 1647 1647 1647 1647 1647 1647 1647 1647 1647 1647 1647 1647 1647 1655 1663 1557 1550 1550 1550 1550 1550 1550 1550 1550 1550 1550 1550 1550 0 0 0 0 2226 2226 2226 2226 2226 2226 2241 2053 2053 2053 2065 2065 2065 2065 2065 2065 2065 2503 2503 2503 2503 2522 2522 2522 2522 2522 1936 1936 1936 1936 1936 1936 1936 1936 1936 1936 1936 1663 1663 1663 1663 1663 1663 1663 1663 1671 1663 1663 1671 1496 1496 1503 1503 1509 1509 1509 1509 1509 1509 1509 1509 1516 1671 1671 1671 1671 1671 1671 1671 1671 1680 1680 1680 1680 1680 1671 1671 1671 1671 1671 1671 1671 1671 1671 1671 1671 1671 1671 1671 1671 1680 1680 1680 1671 1671 1680 1680 1680 1680 1680 1680 1688 1688 1688 1688 1688 1688 1688 1688 1688 1688 1688 1688 1696 1696 1696 1696 1696 1696 1696 1696 1696 1688 1688 1688 1688 1688 1688 1696 1696 1696 1696 1696 1696 1696 1696 1696 1696 1696 1696 1696 1696 1696 1696 1705 1705 1705 1705 1705 1572 1572 1572 1564 1564 1564 1564 1564 1564 1564 1564 1564 1572 1579 0 0 0 2579 2579 2598 2598 2598 2598 2598 2598 2598 2598 2618 2598 2598 2598 2598 2598 2579 2579 2598 2598 2598 2598 2598 2598 2598 2598 2598 2598 2598 2598 2598 2598 2618 2598 2598 2618 2618 2618 2618 2618 2618 1722 1722 1722 1722 1722 1731 1731 1731 1731 1731 1739 1739 1739 1739 1748 1748 1748 1748 1748 1748 1748 1748 1748 2522 2560 2579 2579 2579 2579 2598 2598 2598 2618 2618 2618 2598 2598 2598 2598 2579 2579 2579 2579 2579 2579 2579 2598 2598 2598 2598 2598 2598 2579 2579 2579 2579 2598 2598 2598 2579 2579 2598 2598 2598 2598 2579 2579 2579 2579 2598 2598 2598 2598 2598 2598 2598 2598 2598 2598 2598 2598 2598 2598 2598 2579 2579 2598 2598 2598 2598 2598 2598 2598 2598 2598 2598 2598 2598 2598 2598 2618 2618 2618 2618 2618 2598 2598 2598 2598 2598 2598 2598 2598 2598 2618 2618 2598 2598 2618 2598 2598 2598 2598 2598 2598 2598 2579 2579 2598 2598 2598 2579 2579 2579 2579 2598 2598 2598 2598 2598 2598 2598 2579 2579 2579 2579 2579 2579 2579 2579 2579 2579 2579 2579 2579 2579 2579 2579 2579 2579 2579 2579 2579 2579 2579 2579 2560 2560 0 0 0 0 0 0 0 0 0 0
0 0 0 0 0 0 0 0 0 0 0 0 0 0 0 0 0 0 0 0 0 0 0 0 0 0 0 0 0 0 0 0 0 2349 2349 2349 2349 2349 2349 2349 2349 2349 2365 2349 2349 2349 2349 2365 2365 2365 2365 2381 2381 2381 2381 2381 2398 2398 2381 2381 2381 2381 2381 2381 2381 2365 2365 2365 2365 2365 2365 2365 2365 2365 2365 2365 2381 2381 2381 2381 2398 2381 2381 2381 2381 2381 2381 2381 2381 2381 2381 2381 2381 2381 2381 2381 2381 2381 2398 2398 2398 2398 2398 2398 2398 2398 2398 2398 2398 1564 1564 1557 1557 1557 1557 1557 1557 1557 1557 1557 1557 1557 1557 1557 1564 1564 1564 1572 1572 1572 1489 1489 1489 1489 1489 1489 1489 1496 1496 1496 1503 1503 1509 1516 1516 1523 1616 1616 1616 1616 1616 1616 1616 1616 1616 1609 1609 1609 1616 1616 1616 1616 1616 1616 1616 1616 1616 1616 1616 1616 1616 1616 1616 1624 1624 1624 1624 1624 1624 1624 1624 1624 1624 1624 1624 1632 1632 1632 1632 1632 1624 1624 1624 1624 1624 1624 1624 1632 1632 1632 1639 1639 1639 1639 1639 1639 1632 1632 1632 1632 1639 1639 1639 1639 1639 1639 1639 1639 1639 1639 1639 1639 1639 1639 1639 1639 1639 1647 1647 1647 1639 1639 1639 1639 1639 1639 1639 1639 1557 1557 1557 1557 1557 1550 1550 1550 1550 1550 1550 1550 1557 1557 0 0 0 2226 2212 2198 2198 2198 2212 2078 2065 2065 2065 2065 2065 2065 2065 2065 2065 2065 2503 2503 2503 2503 2503 2522 2503 2503 2503 1936 1936 1936 1936 1936 1936 1936 1936 1936 1947 1947 1663 1663 1663 1663 1663 1663 1663 1663 1663 1663 1663 1663 1503 1503 1503 1509 1509 1509 1509 1509 1516 1516 1509 1509 1516 1671 1663 1663 1663 1663 1671 1671 1671 1671 1671 1671 1671 1671 1663 1663 1663 1663 1663 1663 1663 1663 1663 1663 1663 1671 1671 1671 1671 1671 1671 1671 1663 1663 1671 1671 1671 1671 1671 1680 1680 1680 1680 1680 1688 1688 1688 1688 1688 1688 1688 1688 1688 1688 1688 1688 1696 1688 1688 1688 1688 1688 1688 1688 1688 1688 1688 1688 1688 1688 1688 1696 1688 1688 1688 1688 1688 1688 1688 1688 1688 1696 1696 1696 1696 1696 1696 1696 1572 1572 1572 1572 1564 1564 1564 1564 1564 1564 1572 1572 1572 1579 0 0 0 2579 2579 2579 2579 2579 2579 2598 2598 2598 2598 2598 2598 2598 2579 2579 2579 2579 2579 2579 2579 2598 2598 2598 2598 2598 2598 2598 2598 2598 2598 2598 2598 2598 2598 2598 2598 2598 2598 2598 2598 2598 1722 1722 1722 1722 1731 1739 1739 1739 1739 1739 1748 1748 1748 1748 1748 1748 1748 1748 1748 1748 1748 1748 1748 2522 2560 2579 2579 2579 2579 2598 2598 2598 2598 2598 2598 2598 2598 2598 2598 2579 2579 2579 2579 2579 2579 2579 2579 2579 2579 2579 2579 2579 2579 2579 2579 2579 2579 2579 2579 2579 2579 2579 2579 2579 2579 2579 2579 2579 2579 2579 2579 2598 2598 2598 2598 2598 2598 2579 2579 2579 2579 2579 2579 2579 2579 2579 2598 2598 2598 2598 2598 2598 2598 2598 2598 2598 2598 2598 2598 2598 2598 2598 2598 2598 2598 2598 2598 2598 2598 2598 2598 2598 2598 2598 2598 2598 2598 2598 2598 2598 2598 2598 2598 2598 2598 2598 2579 2579 2579 2579 2579 2579 2579 2579 2579 2579 2579 2579 2579 2579 2579 2579 2579 2579 2579 2579 2579 2579 2579 2579 2579 2579 2579 2579 2579 2579 2579 2579 2579 2579 2579 2579 2579 2579 2560 2560 2560 2560 0 0 0 0 0 0 0 0 0 0
0 0 0 0 0 0 0 0 0 0 0 0 0 0 0 0 0 0 0 0 0 0 0 0 0 0 0 0 0 0 0 0 0 2349 2349 2349 2349 2349 2349 2349 2349 2349 2349 2349 2349 2349 2349 2349 2349 2349 2349 2365 2365 2381 2381 2381 2381 2381 2381 2365 2365 2365 2365 2365 2365 2349 2349 2365 2349 2349 2349 2349 2349 2349 2349 2349 2365 2365 2381 2381 2381 2381 2381 2365 2365 2381 2365 2365 2381 2381 2381 2381 2381 2381 2381 2381 2381 2381 2398 2398 2398 2398 2398 2398 2398 2398 2398 2398 2398 1564 1564 1557 1557 1557 1557 1557 1557 1557 1557 1557 1557 1557 1557 1564 1564 1564 1572 1572 1579 1594 1594 1489 1489 1489 1489 1489 1489 1496 1496 1496 1503 1503 1509 1516 1523 1601 1601 1609 1609 1616 1616 1616 1616 1616 1616 1609 1609 1609 1609 1609 1609 1609 1609 1609 1609 1609 1609 1616 1616 1616 1616 1616 1616 1616 1616 1616 1616 1616 1616 1616 1616 1616 1616 1616 1616 1624 1624 1624 1624 1624 1616 1616 1616 1616 1616 1616 1624 1624 1624 1632 1632 1632 1632 1632 1632 1632 1624 1624 1624 1624 1632 1632 1632 1632 1632 1632 1632 1632 1632 1632 1632 1639 1639 1639 1639 1639 1639 1639 1639 1639 1639 1639 1639 1639 1639 1639 1639 1639 1557 1557 1557 1557 1557 1550 1550 1550 1550 1550 1550 1557 1557 1557 0 0 0 0 2212 2198 2184 2184 2184 2078 2065 2065 2065 2065 2065 2065 2078 2078 2065 2065 2485 2485 2485 2503 2503 2503 2503 2503 1936 1936 1936 1936 1936 1936 1936 1936 1936 1936 1947 1947 1663 1663 1663 1663 1663 1655 1655 1655 1655 1655 1655 1655 1509 1509 1509 1509 1509 1516 1516 1516 1516 1516 1516 1516 1516 1663 1663 1663 1663 1663 1663 1671 1671 1671 1671 1671 1671 1663 1655 1655 1655 1663 1663 1663 1663 1663 1663 1663 1663 1663 1663 1663 1663 1663 1663 1663 1663 1663 1663 1663 1671 1671 1671 1671 1671 1671 1671 1680 1680 1680 1680 1680 1680 1680 1680 1680 1688 1688 1688 1688 1688 1680 1680 1680 1680 1680 1680 1680 1688 1688 1688 1688 1688 1688 1688 1688 1688 1688 1688 1688 1688 1688 1688 1688 1688 1688 1696 1696 1688 1688 1696 1696 1572 1572 1572 1572 1564 1564 1564 1572 1572 1572 1572 1572 1572 1579 0 0 0 2579 2579 2579 2579 2579 2579 2598 2598 2598 2598 2598 2579 2579 2560 2560 2560 2579 2579 2579 2579 2579 2579 2579 2579 2579 2579 2579 2579 2579 2579 2579 2579 2598 2598 2598 2598 2598 2598 2598 2598 2598 1739 1739 1731 1731 1739 1739 1739 1739 1739 1739 1748 1748 1748 1748 1748 1748 1748 1748 1748 1748 1748 1748 2485 2541 2560 2579 2579 2579 2579 2579 2579 2579 2579 2598 2598 2598 2579 2579 2598 2579 2579 2579 2579 2579 2579 2579 2579 2579 2579 2579 2579 2579 2579 2560 2560 2560 2579 2579 2579 2579 2579 2579 2579 2579 2579 2579 2579 2579 2579 2579 2579 2579 2579 2579 2579 2579 2579 2579 2579 2579 2560 2560 2579 2579 2579 2579 2579 2579 2579 2579 2579 2598 2598 2598 2598 2598 2598 2598 2598 2598 2598 2598 2598 2598 2598 2598 2598 2598 2598 2598 2579 2579 2598 2598 2598 2579 2579 2579 2598 2598 2598 2598 2598 2598 2598 2598 2579 2579 2579 2579 2579 2560 2560 2560 2560 2579 2579 2579 2579 2579 2579 2579 2560 2560 2560 2560 2579 2579 2579 2560 2560 2579 2579 2579 2579 2579 2579 2579 2560 2560 2579 2560 2560 2560 2560 2560 2560 2560 0 0 0 0 0 0 0 0 0 0
0 0 0 0 0 0 0 0 0 0 0 0 0 0 0 0 0 0 0 0 0 0 0 0 0 0 0 0 0 0 0 0 0 2333 2333 2333 2333 2349 2349 2349 2349 2349 2349 2333 2333 2333 2333 2349 2349 2349 2349 2365 2365 2365 2365 2365 2365 2365 2365 2349 2349 2349 2349 2349 2349 2349 2349 2349 2349 2349 2349 2349 2349 2349 2349 2349 2365 2365 2365 2365 2381 2381 2381 2365 2365 2365 2365 2365 2365 2365 2365 2381 2381 2381 2381 2381 2381 2381 2381 2381 2381 2381 2398 2398 2398 2398 2381 2381 2381 1564 1564 1557 1557 1557 1557 1557 1557 1557 1557 1557 1557 1557 1564 1564 1564 1564 1572 1579 1586 1586 1496 1489 1489 1489 1489 1489 1496 1496 1496 1496 1503 1503 1509 1516 1523 1601 1601 1609 1609 1609 1616 1616 1616 1616 1616 1609 1609 1609 1609 1609 1609 1609 1609 1609 1609 1609 1609 1609 1609 1609 1609 1609 1609 1609 1616 1616 1616 1616 1616 1616 1616 1616 1616 1616 1616 1616 1616 1616 1616 1616 1616 1616 1616 1616 1616 1616 1616 1616 1616 1624 1624 1624 1624 1624 1624 1624 1616 1616 1616 1616 1624 1624 1624 1624 1624 1624 1632 1632 1624 1624 1624 1632 1632 1632 1632 1639 1639 1639 1639 1639 1639 1639 1639 1632 1632 1639 1632 1632 1564 1557 1557 1557 1557 1550 1550 1550 1550 1550 1550 1557 1557 1557 0 0 0 0 0 2198 2184 2184 2184 2090 2078 2078 2078 2078 2078 2078 2078 2078 2065 2065 2065 2485 2485 2485 2503 2485 2485 2485 1936 1936 1936 1936 1936 1936 1936 1936 1936 1947 1947 1947 1671 1663 1663 1663 1655 1655 1647 1647 1647 1647 1647 1655 1655 1509 1509 1509 1516 1516 1516 1516 1523 1516 1516 1516 1523 1655 1655 1655 1655 1655 1663 1663 1663 1663 1663 1663 1663 1663 1655 1655 1655 1655 1655 1655 1655 1663 1663 1663 1663 1663 1663 1663 1663 1663 1663 1663 1663 1663 1663 1663 1663 1663 1663 1663 1671 1671 1671 1671 1671 1671 1671 1671 1671 1671 1671 1680 1680 1688 1688 1688 1680 1680 1671 1671 1671 1680 1680 1680 1680 1680 1680 1680 1680 1680 1680 1680 1680 1680 1680 1688 1688 1688 1688 1688 1688 1688 1688 1688 1688 1688 1688 1696 1579 1572 1572 1572 1572 1572 1572 1572 1572 1572 1572 1572 1579 1579 0 0 0 2579 2560 2560 2560 2579 2579 2579 2579 2560 2560 2560 2560 2560 2560 2560 2560 2560 2560 2560 2560 2579 2579 2579 2579 2560 2560 2560 2560 2560 2560 2560 2560 2560 2560 2560 2579 2579 2579 2579 2579 2579 1748 1748 1739 1739 1748 1748 1748 1748 1748 1748 1748 1748 1748 1748 1748 1748 1748 1748 1748 1748 1748 1748 2503 2541 2560 2560 2560 2560 2560 2579 2560 2560 2560 2579 2579 2579 2579 2579 2579 2560 2560 2560 2560 2579 2579 2579 2579 2560 2560 2560 2560 2560 2560 2560 2541 2541 2560 2560 2560 2541 2541 2560 2560 2579 2560 2560 2560 2560 2579 2579 2579 2560 2560 2579 2579 2579 2560 2560 2560 2560 2560 2560 2560 2579 2579 2579 2579 2579 2579 2579 2579 2579 2579 2598 2598 2598 2598 2598 2598 2579 2579 2579 2579 2579 2579 2579 2579 2579 2579 2579 2579 2579 2579 2579 2579 2579 2579 2579 2598 2598 2598 2579 2579 2598 2598 2598 2560 2560 2560 2560 2560 2560 2560 2560 2560 2560 2560 2560 2560 2560 2579 2560 2560 2560 2560 2560 2560 2560 2560 2560 2560 2560 2560 2560 2579 2560 2560 2560 2560 2560 2560 2560 2560 2560 2560 2541 2541 2541 0 0 0 0 0 0 0 0 0 0
0 0 0 0 0 0 0 0 0 0 0 0 0 0 0 0 0 0 0 0 0 0 0 0 0 0 0 0 0 0 0 0 0 2333 2333 2333 2333 2333 2333 2333 2333 2333 2333 2333 2333 2333 2333 2349 2349 2349 2349 2349 2349 2349 2349 2349 2349 2349 2349 2349 2349 2349 2349 2349 2349 2333 2333 2333 2333 2333 2333 2333 2333 2333 2333 2349 2349 2349 2349 2365 2365 2365 2365 2365 2365 2365 2365 2365 2365 2365 2365 2365 2381 2381 2381 2381 2381 2381 2381 2381 2381 2381 2381 2381 2381 2381 2381 2381 2381 1564 1564 1557 1557 1557 1557 1557 1557 1557 1557 1557 1564 1564 1564 1564 1564 1564 1572 1579 1586 1586 1496 1496 1489 1489 1489 1496 1496 1496 1503 1503 1503 1509 1509 1516 1523 1601 1601 1601 1601 1609 1609 1609 1609 1609 1609 1601 1601 1601 1601 1601 1601 1601 1601 1601 1601 1601 1609 1609 1609 1609 1609 1609 1609 1609 1609 1609 1609 1609 1609 1616 1616 1616 1616 1616 1616 1616 1616 1616 1616 1616 1616 1616 1609 1609 1616 1616 1616 1616 1616 1616 1616 1616 1616 1616 1616 1616 1616 1616 1616 1616 1616 1616 1616 1616 1616 1616 1624 1624 1616 1616 1624 1624 1624 1624 1632 1632 1632 1632 1632 1632 1632 1632 1632 1632 1632 1624 1616 1579 1564 1557 1557 1557 1557 1550 1550 1550 1550 1550 1557 1557 1557 1557 0 0 0 0 0 2184 2184 2184 2184 2090 2078 2078 2078 2078 2078 2078 2078 2078 2065 2065 2065 2485 2485 2485 2485 2485 2485 2485 1947 1947 1947 1947 1947 1947 1947 1947 1947 1947 1947 1959 1671 1671 1663 1655 1647 1647 1639 1639 1639 1639 1647 1647 1655 1516 1516 1516 1516 1516 1516 1523 1523 1523 1523 1523 1523 1655 1655 1655 1655 1655 1655 1647 1647 1647 1647 1655 1655 1655 1647 1647 1647 1647 1655 1655 1655 1655 1655 1655 1655 1655 1655 1655 1655 1655 1655 1655 1655 1655 1655 1655 1655 1655 1655 1655 1655 1663 1663 1663 1663 1663 1663 1663 1663 1663 1671 1671 1671 1680 1680 1680 1671 1671 1663 1663 1663 1671 1671 1671 1671 1671 1671 1680 1680 1671 1671 1671 1680 1680 1680 1680 1680 1680 1680 1680 1680 1688 1688 1688 1688 1688 1688 1572 1572 1572 1572 1572 1572 1572 1572 1572 1572 1572 1579 1579 1586 1586 0 0 0 2560 2541 2541 2541 2560 2560 2560 2560 2560 2560 2560 2541 2541 2541 2541 2541 2560 2560 2560 2560 2560 2560 2560 2560 2560 2560 2560 2560 2541 2541 2541 2541 2560 2541 2541 2560 2560 2560 2560 2560 2560 1748 1748 1748 1748 1748 1748 1748 1748 1748 1748 1748 1748 1748 1748 1748 1748 1748 1748 1748 1748 1739 1739 2522 2541 2541 2541 2541 2541 2560 2560 2560 2560 2560 2560 2579 2579 2560 2560 2560 2541 2541 2541 2541 2560 2560 2560 2560 2560 2560 2560 2541 2541 2541 2541 2541 2541 2560 2560 2560 2541 2541 2541 2541 2560 2541 2541 2560 2560 2560 2560 2560 2560 2560 2560 2541 2541 2541 2541 2541 2560 2541 2541 2560 2560 2560 2560 2560 2560 2579 2579 2579 2579 2579 2579 2598 2598 2598 2579 2579 2579 2579 2579 2579 2579 2579 2579 2579 2579 2579 2579 2579 2579 2579 2579 2579 2579 2579 2579 2579 2579 2579 2579 2579 2579 2579 2579 2560 2560 2560 2560 2560 2560 2560 2560 2560 2560 2560 2560 2560 2560 2560 2560 2560 2560 2560 2560 2560 2560 2560 2560 2560 2560 2560 2560 2560 2560 2560 2560 2560 2560 2560 2541 2541 2541 2541 2541 2541 2541 0 0 0 0 0 0 0 0 0 0
0 0 0 0 0 0 0 0 0 0 0 0 0 0 0 0 0 0 0 0 0 0 0 0 0 0 0 0 0 0 0 0 0 2333 2317 2317 2317 2333 2333 2333 2333 2333 2333 2317 2317 2333 2333 2333 2349 2349 2349 2349 2349 2349 2349 2349 2349 2349 2349 2349 2349 2349 2349 2349 2349 2333 2333 2333 2333 2333 2333 2333 2333 2333 2333 2333 2333 2333 2333 2333 2349 2349 2349 2349 2349 2349 2349 2349 2365 2365 2365 2365 2365 2365 2365 2365 2365 2365 2365 2381 2381 2381 2381 2381 2381 2381 2381 2381 2381 1557 1557 1557 1557 1557 1557 1557 1564 1564 1564 1564 1564 1564 1564 1564 1564 1564 1572 1579 1586 1586 1503 1496 1496 1496 1496 1496 1496 1496 1503 1503 1503 1509 1509 1516 1536 1586 1586 1594 1601 1601 1601 1601 1601 1601 1601 1594 1594 1594 1594 1594 1594 1594 1594 1594 1594 1601 1601 1601 1601 1601 1601 1601 1601 1601 1601 1601 1601 1601 1601 1609 1609 1609 1609 1609 1609 1609 1609 1609 1609 1609 1609 1609 1609 1609 1609 1609 1609 1609 1616 1616 1616 1616 1616 1609 1609 1616 1616 1616 1616 1616 1616 1616 1616 1616 1616 1616 1616 1616 1616 1616 1616 1616 1616 1616 1616 1624 1624 1624 1624 1624 1624 1624 1624 1624 1624 1616 1609 1579 1579 1564 1564 1557 1557 1550 1550 1550 1550 1557 1557 1557 1557 1557 0 0 0 0 0 2184 2184 2156 2156 2090 2078 2078 2078 2078 2078 2078 2078 2078 2065 2065 2065 2467 2467 2467 2467 2467 2467 2467 1947 1947 1947 1947 1947 1947 1947 1947 1947 1947 1947 1959 1680 1671 1663 1655 1639 1639 1639 1639 1639 1639 1639 1647 1655 1516 1516 1523 1523 1523 1523 1523 1523 1523 1523 1523 1655 1647 1647 1647 1647 1647 1647 1639 1639 1647 1647 1647 1647 1647 1639 1639 1647 1647 1647 1647 1647 1655 1655 1655 1655 1647 1647 1647 1647 1647 1647 1647 1647 1647 1647 1647 1647 1647 1655 1655 1655 1655 1655 1655 1655 1655 1655 1655 1655 1655 1655 1663 1663 1663 1663 1663 1663 1663 1663 1663 1663 1663 1663 1663 1663 1663 1663 1663 1663 1663 1663 1663 1663 1671 1671 1671 1671 1671 1671 1671 1671 1671 1680 1680 1671 1639 1586 1572 1572 1579 1572 1572 1572 1572 1572 1572 1572 1572 1579 1579 1586 1586 0 0 0 2541 2541 2541 2541 2541 2541 2541 2541 2541 2541 2541 2541 2541 2541 2541 2541 2560 2560 2560 2560 2560 2560 2560 2560 2560 2541 2541 2541 2541 2541 2541 2541 2541 2541 2541 2560 2560 2560 2560 2560 2560 1757 1748 1748 1748 1748 1748 1748 1748 1748 1748 1748 1748 1748 1748 1748 1757 1748 1748 1748 1748 1739 1739 2522 2541 2541 2541 2541 2541 2541 2560 2541 2541 2541 2560 2560 2560 2560 2560 2560 2541 2541 2541 2541 2541 2560 2541 2541 2541 2541 2541 2541 2541 2541 2541 2541 2541 2541 2541 2541 2541 2541 2541 2541 2541 2541 2541 2541 2541 2560 2560 2560 2541 2541 2541 2541 2541 2541 2541 2541 2541 2522 2522 2541 2541 2541 2560 2560 2560 2560 2579 2579 2579 2579 2579 2579 2579 2579 2579 2579 2579 2579 2579 2579 2579 2579 2579 2579 2579 2560 2560 2560 2560 2560 2560 2560 2579 2579 2579 2579 2579 2579 2579 2579 2579 2579 2579 2560 2560 2560 2560 2560 2560 2560 2560 2560 2560 2541 2541 2541 2541 2560 2560 2560 2560 2560 2560 2560 2560 2560 2560 2560 2560 2560 2560 2560 2560 2560 2560 2560 2560 2560 2541 2541 2541 2541 2522 2522 2522 0 0 0 0 0 0 0 0 0 0
0 0 0 0 0 0 0 0 0 0 0 0 0 0 0 0 0 0 0 0 0 0 0 0 0 0 0 0 0 0 0 0 0 2317 2317 2317 2317 2301 2301 2317 2317 2317 2317 2317 2317 2317 2333 2333 2333 2333 2349 2349 2333 2333 2333 2333 2333 2333 2333 2333 2333 2333 2333 2333 2333 2317 2317 2317 2333 2333 2333 2317 2317 2317 2317 2317 2317 2333 2333 2333 2333 2349 2349 2333 2333 2333 2333 2333 2349 2349 2349 2349 2349 2349 2349 2365 2365 2365 2365 2365 2381 2381 2381 2381 2381 2381 2381 2381 2381 1557 1557 1557 1557 1557 1557 1557 1564 1564 1564 1564 1564 1564 1564 1564 1564 1564 1572 1579 1586 1586 1503 1496 1496 1496 1496 1496 1503 1503 1503 1503 1509 1509 1516 1516 1536 1579 1579 1586 1594 1594 1594 1594 1594 1594 1594 1594 1594 1594 1594 1594 1594 1594 1594 1594 1594 1594 1594 1594 1594 1601 1601 1594 1594 1594 1594 1594 1594 1594 1594 1601 1601 1601 1601 1601 1601 1609 1609 1609 1609 1609 1609 1609 1609 1609 1609 1609 1609 1609 1609 1609 1609 1609 1609 1609 1609 1609 1609 1609 1609 1609 1616 1609 1609 1616 1616 1616 1616 1616 1616 1616 1616 1616 1616 1616 1616 1616 1616 1616 1616 1616 1616 1616 1616 1616 1616 1616 1601 1586 1579 1572 1564 1564 1564 1557 1550 1550 1550 1557 1557 1564 1572 1572 0 0 0 0 0 0 2170 2143 2143 2090 2078 2078 2078 2078 2078 2078 2078 2078 2065 2065 2065 2467 2467 2467 2467 2467 2467 2467 1936 1936 1936 1947 1947 1947 1947 1947 1947 1959 1959 1959 1705 1705 1731 1731 1632 1632 1632 1632 1632 1632 1639 1647 1655 1523 1523 1523 1523 1523 1523 1523 1523 1523 1523 1523 1647 1639 1639 1639 1639 1639 1639 1639 1639 1639 1639 1639 1647 1647 1639 1639 1639 1639 1639 1639 1639 1647 1647 1647 1647 1647 1647 1647 1647 1647 1639 1639 1639 1647 1647 1647 1647 1647 1647 1647 1655 1655 1655 1655 1655 1655 1655 1655 1655 1655 1655 1655 1655 1655 1663 1663 1663 1663 1663 1663 1655 1655 1655 1655 1655 1655 1655 1663 1663 1663 1663 1663 1663 1663 1663 1663 1663 1663 1663 1663 1663 1663 1663 1655 1655 1609 1586 1579 1579 1579 1579 1579 1572 1572 1572 1579 1579 1579 1579 1579 1586 1594 0 0 0 2541 2541 2522 2522 2541 2541 2541 2541 2522 2522 2541 2541 2541 2541 2541 2541 2541 2541 2541 2560 2560 2541 2541 2541 2541 2541 2541 2541 2541 2541 2541 2541 2541 2541 2541 2541 2560 2560 2560 2579 2579 1757 1757 1748 1748 1757 1757 1757 1757 1757 1757 1757 1757 1757 1757 1757 1757 1757 1757 1748 1731 1722 1722 2503 2522 2522 2541 2541 2541 2541 2541 2541 2541 2541 2541 2560 2560 2541 2541 2541 2522 2522 2522 2522 2541 2541 2541 2541 2522 2522 2522 2522 2522 2522 2522 2522 2541 2541 2541 2522 2522 2522 2522 2522 2522 2522 2522 2522 2522 2541 2541 2541 2541 2541 2522 2522 2522 2522 2522 2522 2522 2522 2522 2541 2541 2541 2541 2541 2541 2560 2560 2560 2579 2579 2579 2579 2579 2579 2560 2560 2560 2560 2560 2560 2560 2560 2560 2560 2560 2560 2560 2560 2560 2560 2560 2560 2560 2560 2560 2560 2560 2560 2579 2579 2579 2579 2579 2560 2560 2560 2560 2560 2541 2541 2541 2541 2541 2541 2522 2522 2522 2541 2522 2522 2541 2541 2541 2560 2560 2541 2541 2541 2541 2541 2541 2541 2541 2541 2541 2541 2541 2541 2522 2522 2522 2522 2522 2522 2522 0 0 0 0 0 0 0 0 0 0
0 0 0 0 0 0 0 0 0 0 0 0 0 0 0 0 0 0 0 0 0 0 0 0 0 0 0 0 0 0 0 0 0 2301 2301 2301 2301 2301 2301 2301 2301 2301 2317 2317 2317 2317 2317 2333 2333 2333 2333 2349 2333 2333 2333 2333 2333 2333 2333 2333 2333 2333 2333 2333 2333 2317 2317 2317 2317 2317 2317 2317 2317 2317 2317 2317 2317 2317 2317 2333 2333 2333 2333 2333 2333 2333 2333 2333 2333 2333 2333 2333 2333 2333 2333 2349 2349 2349 2349 2365 2365 2365 2381 2381 2381 2381 2381 2381 2381 2381 1557 1557 1557 1557 1557 1557 1564 1564 1564 1564 1564 1564 1564 1564 1564 1564 1572 1579 1586 1586 1503 1496 1496 1496 1496 1496 1503 1503 1503 1503 1509 1509 1516 1516 1536 1564 1572 1586 1586 1594 1594 1594 1594 1594 1594 1586 1586 1586 1594 1594 1594 1594 1594 1594 1594 1594 1594 1594 1594 1594 1594 1594 1594 1594 1594 1594 1594 1594 1594 1594 1594 1594 1594 1594 1594 1594 1601 1601 1601 1601 1609 1609 1601 1601 1601 1601 1601 1601 1601 1601 1601 1601 1601 1601 1609 1609 1609 1609 1609 1609 1609 1609 1609 1609 1609 1609 1609 1609 1609 1609 1609 1609 1609 1609 1609 1609 1609 1616 1616 1616 1616 1616 1616 1616 1616 1616 1601 1586 1579 1572 1564 1564 1564 1557 1557 1557 1557 1557 1564 1572 1572 1572 0 0 0 0 0 0 2156 2143 2143 2090 2078 2078 2078 2078 2078 2078 2078 2078 2065 2065 2065 2450 2450 2450 2450 2450 2450 2450 1936 1936 1936 1947 1947 1947 1959 1959 1959 1959 1959 1959 1705 1705 1731 1757 1632 1632 1632 1632 1632 1632 1639 1639 1647 1523 1523 1523 1523 1523 1523 1523 1523 1523 1523 1523 1632 1632 1632 1632 1632 1632 1632 1632 1639 1639 1639 1639 1639 1639 1632 1632 1632 1632 1632 1639 1639 1639 1639 1639 1639 1632 1632 1632 1632 1639 1639 1632 1632 1639 1639 1639 1639 1639 1647 1647 1647 1647 1647 1647 1647 1647 1647 1647 1647 1647 1647 1647 1647 1647 1655 1655 1655 1655 1655 1655 1655 1655 1655 1655 1655 1655 1655 1655 1655 1663 1655 1655 1655 1655 1655 1655 1655 1655 1663 1663 1663 1663 1655 1655 1647 1601 1586 1579 1579 1579 1579 1579 1572 1572 1579 1579 1579 1579 1586 1586 1594 1594 0 0 0 2522 2522 2522 2503 2503 2522 2522 2522 2522 2522 2522 2522 2522 2522 2541 2541 2541 2541 2541 2541 2541 2541 2541 2541 2541 2541 2541 2541 2541 2541 2541 2541 2541 2541 2541 2541 2541 2560 2560 2579 2579 1757 1757 1757 1757 1757 1757 1757 1757 1757 1757 1757 1757 1757 1757 1757 1757 1757 1757 1748 1713 1713 1713 2503 2522 2522 2522 2541 2541 2541 2541 2541 2541 2541 2541 2541 2541 2541 2541 2541 2522 2522 2522 2522 2522 2522 2522 2522 2522 2522 2522 2522 2522 2522 2522 2522 2522 2522 2522 2522 2522 2522 2522 2522 2522 2522 2522 2522 2522 2522 2522 2522 2522 2522 2522 2522 2522 2522 2522 2522 2522 2522 2522 2522 2541 2541 2541 2541 2541 2541 2560 2560 2560 2560 2560 2560 2579 2579 2560 2560 2560 2560 2560 2541 2541 2541 2541 2541 2541 2541 2541 2541 2541 2541 2541 2541 2541 2541 2541 2541 2560 2560 2560 2560 2560 2560 2560 2541 2541 2541 2541 2541 2541 2541 2541 2522 2522 2522 2522 2522 2522 2522 2522 2522 2522 2541 2541 2541 2541 2541 2541 2541 2541 2541 2541 2522 2522 2522 2541 2541 2522 2522 2522 2503 2503 2503 2503 2503 2503 0 0 0 0 0 0 0 0 0 0
0 0 0 0 0 0 0 0 0 0 0 0 0 0 0 0 0 0 0 0 0 0 0 0 0 0 0 0 0 0 0 0 0 2286 2286 2286 2286 2286 2286 2286 2301 2301 2301 2301 2301 2317 2317 2317 2317 2317 2333 2333 2317 2317 2317 2317 2317 2317 2317 2333 2333 2333 2333 2333 2333 2317 2317 2317 2317 2317 2317 2317 2317 2317 2317 2317 2317 2317 2317 2317 2317 2317 2317 2333 2317 2317 2333 2333 2333 2333 2333 2333 2333 2333 2333 2333 2333 2349 2349 2349 2349 2365 2365 2365 2365 2365 2365 2365 2365 2365 1557 1557 1557 1557 1557 1557 1564 1564 1564 1564 1564 1564 1564 1564 1564 1564 1572 1579 1586 1586 1509 1503 1496 1496 1496 1496 1503 1503 1503 1503 1509 1509 1516 1523 1543 1557 1564 1579 1586 1586 1586 1586 1586 1594 1594 1586 1586 1586 1586 1586 1586 1586 1586 1586 1586 1586 1586 1586 1586 1586 1586 1586 1586 1586 1586 1586 1586 1586 1586 1586 1586 1586 1586 1586 1586 1586 1594 1594 1601 1601 1601 1601 1601 1601 1601 1601 1594 1594 1594 1594 1601 1594 1594 1601 1601 1609 1609 1609 1609 1609 1609 1601 1601 1609 1601 1601 1601 1601 1609 1609 1601 1601 1601 1601 1609 1609 1609 1609 1616 1616 1616 1616 1609 1609 1609 1609 1594 1586 1579 1572 1572 1564 1564 1564 1564 1564 1564 1564 1572 1572 1572 1572 0 0 0 0 0 0 2156 2129 2129 2103 2078 2078 2078 2078 2078 2078 2078 2065 2065 2065 2065 2432 2432 2432 2432 2450 2450 2450 2450 1936 1936 1947 1947 1947 1959 1959 1959 1970 1959 1959 1722 1722 1739 1757 1616 1616 1624 1624 1624 1624 1632 1639 1639 1523 1523 1529 1523 1523 1523 1529 1529 1529 1523 1523 1624 1624 1624 1632 1632 1632 1632 1632 1632 1632 1632 1632 1632 1632 1632 1632 1632 1632 1632 1632 1632 1632 1632 1632 1632 1632 1632 1632 1632 1632 1632 1632 1632 1632 1632 1632 1632 1639 1639 1639 1639 1647 1647 1647 1647 1647 1639 1639 1639 1639 1639 1647 1639 1639 1647 1655 1655 1655 1655 1655 1655 1655 1647 1647 1647 1655 1655 1655 1655 1655 1655 1655 1655 1655 1655 1655 1647 1647 1655 1655 1655 1655 1655 1647 1647 1601 1586 1579 1579 1579 1579 1579 1579 1579 1579 1579 1586 1586 1594 1594 1594 1594 0 0 0 2522 2503 2503 2503 2503 2503 2503 2503 2503 2503 2503 2503 2522 2522 2522 2522 2522 2522 2522 2522 2522 2522 2522 2522 2522 2522 2522 2522 2522 2522 2522 2522 2522 2522 2522 2541 2541 2541 2560 2560 2560 1766 1766 1766 1757 1757 1757 1757 1757 1757 1757 1757 1757 1757 1757 1757 1757 1757 1748 1748 1713 1713 1713 2503 2522 2522 2522 2522 2541 2541 2541 2522 2522 2522 2541 2541 2541 2541 2541 2541 2503 2503 2503 2503 2503 2503 2522 2503 2503 2503 2503 2503 2503 2522 2522 2522 2522 2522 2522 2522 2522 2522 2522 2522 2522 2522 2522 2522 2522 2522 2522 2522 2522 2522 2522 2522 2522 2522 2522 2522 2522 2522 2522 2522 2522 2522 2522 2541 2541 2541 2541 2541 2541 2541 2541 2560 2560 2560 2541 2541 2541 2541 2541 2541 2541 2541 2541 2541 2541 2541 2541 2541 2522 2522 2522 2522 2522 2522 2541 2541 2541 2541 2560 2560 2560 2560 2560 2541 2541 2522 2522 2541 2522 2522 2522 2522 2522 2522 2522 2522 2522 2522 2522 2522 2522 2522 2522 2522 2522 2522 2522 2522 2522 2522 2522 2522 2522 2522 2522 2541 2522 2503 2503 2503 2503 2503 2503 2503 2503 0 0 0 0 0 0 0 0 0 0
0 0 0 0 0 0 0 0 0 0 0 0 0 0 0 0 0 0 0 0 0 0 0 0 0 0 0 0 0 0 0 0 0 2286 2286 2286 2286 2286 2286 2286 2286 2286 2286 2286 2286 2286 2286 2301 2301 2301 2301 2301 2301 2301 2301 2317 2317 2317 2317 2317 2317 2333 2333 2333 2333 2301 2301 2301 2301 2317 2317 2317 2317 2317 2317 2317 2317 2317 2317 2317 2317 2317 2317 2317 2317 2317 2317 2317 2317 2333 2317 2317 2333 2333 2333 2333 2333 2333 2333 2333 2333 2349 2349 2349 2349 2365 2365 2365 2365 2365 1557 1557 1557 1564 1564 1564 1564 1564 1564 1564 1564 1564 1564 1572 1572 1572 1572 1579 1586 1586 1509 1503 1503 1503 1503 1503 1503 1503 1509 1509 1509 1516 1516 1523 1543 1557 1564 1564 1572 1579 1579 1586 1586 1586 1586 1579 1579 1579 1586 1586 1579 1579 1579 1579 1579 1579 1579 1579 1579 1579 1579 1586 1586 1586 1586 1586 1586 1586 1586 1586 1586 1586 1586 1586 1586 1586 1586 1586 1594 1594 1594 1594 1594 1594 1594 1594 1586 1586 1586 1594 1594 1594 1594 1594 1594 1601 1601 1601 1601 1601 1601 1594 1594 1601 1601 1601 1601 1601 1601 1601 1601 1601 1601 1601 1601 1601 1601 1609 1609 1609 1609 1609 1609 1609 1609 1601 1594 1586 1586 1579 1572 1572 1572 1564 1564 1564 1564 1572 1572 1572 1572 1572 0 0 0 0 0 0 2129 2129 2116 2103 2078 2078 2078 2078 2078 2078 2078 2065 2065 2065 2065 2432 2432 2432 2432 2432 2432 2432 2432 1936 1936 1947 1959 1959 1959 1970 1970 1970 1970 1970 1731 1731 1748 1766 1616 1616 1624 1624 1624 1624 1632 1639 1523 1523 1523 1529 1523 1523 1523 1529 1529 1529 1529 1536 1609 1609 1616 1624 1624 1624 1632 1632 1632 1632 1632 1632 1632 1632 1624 1624 1624 1624 1624 1632 1632 1624 1624 1624 1624 1624 1624 1624 1624 1624 1624 1624 1624 1624 1632 1632 1632 1632 1632 1632 1639 1639 1639 1639 1639 1639 1639 1639 1639 1639 1639 1639 1639 1639 1639 1647 1647 1647 1647 1647 1647 1647 1647 1647 1647 1647 1647 1647 1655 1655 1655 1647 1647 1647 1647 1647 1647 1647 1655 1655 1655 1655 1647 1639 1639 1601 1594 1586 1586 1579 1579 1579 1579 1579 1586 1586 1586 1586 1594 1594 1594 1594 0 2503 0 2503 2503 2503 2503 2503 2503 2503 2503 2503 2503 2503 2503 2503 2522 2522 2522 2522 2522 2522 2522 2522 2522 2503 2503 2522 2503 2503 2503 2522 2522 2522 2522 2522 2522 2522 2522 2541 2541 2560 2560 2560 1776 1766 1766 1766 1766 1766 1757 1757 1757 1757 1757 1757 1757 1757 1757 1757 1757 1748 1748 1722 1713 1713 2503 2522 2522 2522 2522 2522 2522 2522 2522 2522 2522 2522 2541 2541 2541 2541 2541 2503 2503 2503 2503 2503 2503 2503 2503 2503 2503 2503 2503 2503 2503 2503 2503 2522 2522 2522 2522 2503 2503 2503 2503 2522 2522 2522 2522 2522 2503 2503 2522 2522 2522 2522 2522 2522 2522 2522 2522 2522 2522 2522 2522 2522 2522 2522 2522 2522 2522 2522 2522 2541 2541 2541 2522 2522 2522 2522 2522 2522 2522 2522 2522 2522 2522 2522 2522 2522 2522 2522 2522 2522 2522 2522 2522 2522 2522 2522 2522 2541 2541 2541 2541 2541 2541 2541 2522 2522 2522 2522 2522 2522 2522 2522 2522 2522 2522 2522 2522 2522 2522 2522 2522 2522 2522 2522 2522 2522 2522 2522 2522 2522 2503 2503 2503 2503 2503 2522 2522 2503 2503 2503 2503 2503 2485 2485 2485 2503 0 0 0 0 0 0 0 0 0 0
0 0 0 0 0 0 0 0 0 0 0 0 0 0 0 0 0 0 0 0 0 0 0 0 0 0 0 0 0 0 0 0 0 2286 2286 2286 2286 2286 2286 2286 2286 2286 2286 2286 2286 2286 2286 2286 2301 2301 2301 2301 2301 2301 2301 2301 2301 2301 2301 2317 2317 2301 2301 2301 2317 2286 2286 2286 2301 2301 2301 2301 2301 2301 2317 2301 2301 2301 2301 2301 2301 2301 2317 2317 2317 2317 2317 2317 2317 2317 2317 2317 2317 2317 2333 2333 2333 2333 2333 2333 2333 2333 2333 2333 2333 2349 2349 2333 2333 2333 1557 1557 1557 1564 1564 1564 1564 1564 1564 1564 1564 1564 1564 1572 1572 1572 1579 1579 1586 1586 1586 1509 1503 1503 1503 1503 1509 1509 1509 1509 1516 1516 1523 1536 1543 1557 1557 1564 1572 1572 1572 1579 1579 1579 1579 1572 1572 1572 1579 1579 1579 1579 1572 1572 1579 1579 1579 1579 1579 1579 1579 1579 1579 1579 1586 1586 1586 1586 1586 1586 1579 1579 1579 1579 1579 1579 1586 1586 1586 1594 1586 1586 1586 1586 1586 1586 1586 1586 1586 1586 1586 1586 1586 1586 1594 1594 1594 1594 1594 1594 1594 1594 1594 1594 1594 1594 1594 1594 1594 1594 1594 1594 1594 1594 1594 1594 1594 1601 1609 1609 1609 1609 1609 1609 1601 1601 1594 1586 1586 1579 1579 1572 1572 1572 1572 1572 1572 1572 1572 1579 1579 1579 1586 0 0 2432 0 0 2129 2129 2103 2090 2078 2078 2078 2078 2078 2078 2078 2065 2065 2065 2065 2432 2432 2432 2432 2432 2432 2432 2432 2432 1959 1959 1959 1959 1970 1970 1970 1981 1981 1981 1731 1731 1739 1757 1776 1616 1616 1624 1616 1616 1632 1523 1523 1523 1523 1529 1529 1529 1529 1529 1529 1536 1536 1536 1601 1609 1616 1616 1616 1624 1624 1624 1624 1624 1624 1624 1624 1624 1616 1616 1624 1624 1624 1624 1624 1624 1624 1624 1624 1624 1624 1624 1624 1624 1624 1624 1624 1624 1624 1624 1624 1624 1632 1632 1632 1632 1632 1632 1632 1632 1632 1632 1632 1632 1632 1632 1632 1632 1632 1639 1639 1639 1639 1647 1647 1639 1639 1639 1639 1639 1639 1647 1647 1647 1647 1639 1639 1647 1639 1639 1639 1639 1647 1647 1647 1647 1639 1632 1632 1601 1594 1586 1586 1586 1586 1579 1579 1586 1586 1586 1594 1594 1594 1594 0 1594 0 2503 2503 2503 2485 2485 2485 2485 2485 2485 2485 2485 2485 2485 2485 2503 2503 2503 2522 2522 2522 2522 2522 2503 2503 2503 2503 2503 2503 2503 2503 2503 2503 2503 2503 2503 2503 2522 2522 2541 2560 2560 2560 1785 1776 1776 1766 1766 1766 1766 1766 1757 1757 1757 1757 1757 1766 1757 1757 1757 1757 1757 1757 1748 1722 1722 2503 2503 2503 2503 2503 2503 2485 2485 2485 2485 2485 2503 2503 2522 2522 2522 2522 2503 2503 2503 2485 2485 2485 2485 2503 2485 2485 2503 2503 2503 2503 2503 2503 2503 2503 2503 2503 2503 2503 2503 2503 2503 2503 2503 2503 2503 2503 2503 2522 2522 2522 2522 2522 2522 2522 2522 2522 2522 2522 2522 2522 2522 2522 2522 2522 2522 2522 2522 2522 2522 2522 2522 2522 2522 2522 2522 2522 2522 2522 2522 2522 2522 2522 2522 2522 2522 2522 2522 2522 2522 2522 2522 2522 2522 2522 2522 2522 2522 2541 2541 2541 2541 2541 2522 2503 2503 2503 2503 2503 2503 2503 2503 2503 2503 2522 2522 2522 2522 2522 2522 2503 2503 2503 2503 2503 2503 2503 2503 2503 2503 2503 2503 2503 2503 2503 2503 2503 2503 2503 2485 2485 2485 2485 2485 2485 2485 0 0 0 0 0 0 0 0 0 0
0 0 0 0 0 0 0 0 0 0 0 0 0 0 0 0 0 0 0 0 0 0 0 0 0 0 0 0 0 0 0 0 0 2286 2286 2271 2271 2286 2286 2286 2286 2286 2271 2271 2286 2286 2286 2286 2286 2286 2286 2286 2286 2286 2301 2286 2286 2301 2301 2301 2301 2301 2301 2301 2301 2286 2286 2286 2286 2301 2301 2301 2301 2301 2301 2301 2301 2301 2301 2301 2301 2301 2301 2301 2301 2301 2301 2301 2301 2317 2317 2317 2317 2317 2317 2317 2317 2317 2317 2317 2317 2317 2333 2333 2333 2333 2333 2333 2333 2349 2349 1557 1557 1564 1564 1564 1564 1564 1564 1564 1564 1564 1564 1572 1572 1572 1579 1586 1586 1586 1586 1509 1503 1503 1503 1503 1509 1509 1509 1509 1516 1523 1529 1536 1543 1557 1557 1564 1564 1564 1572 1572 1572 1572 1572 1572 1564 1564 1564 1572 1572 1572 1564 1564 1572 1572 1572 1572 1572 1572 1572 1572 1579 1579 1579 1579 1579 1579 1579 1579 1579 1579 1579 1579 1579 1579 1579 1579 1579 1586 1586 1586 1586 1586 1586 1586 1579 1579 1579 1586 1586 1586 1586 1586 1586 1586 1586 1586 1586 1586 1586 1586 1586 1586 1586 1586 1586 1594 1594 1594 1586 1586 1594 1594 1594 1594 1594 1601 1601 1601 1601 1601 1601 1601 1601 1594 1586 1586 1586 1586 1579 1579 1579 1572 1572 1572 1572 1572 1572 1579 1579 1579 1586 0 0 2432 2432 2432 2432 2432 2103 2090 2078 2078 2078 2078 2078 2078 2078 2065 2065 2065 2432 2432 2432 2432 2432 2432 2415 2415 2432 2432 1959 1959 1970 1970 1970 1970 1970 1981 1981 1993 1731 1731 1739 1748 1748 1616 1616 1616 1616 1616 1632 1523 1523 1523 1529 1529 1529 1529 1529 1536 1536 1536 1543 1550 1594 1601 1609 1616 1616 1616 1616 1616 1624 1624 1624 1624 1624 1624 1616 1616 1616 1616 1616 1616 1616 1616 1616 1616 1616 1616 1616 1616 1616 1616 1616 1616 1616 1616 1616 1616 1616 1624 1624 1624 1632 1632 1632 1632 1632 1632 1632 1632 1632 1632 1632 1632 1632 1632 1632 1632 1632 1632 1632 1639 1632 1632 1632 1632 1632 1632 1639 1639 1639 1639 1639 1639 1639 1639 1639 1639 1639 1639 1647 1647 1647 1639 1632 1632 1624 1609 1601 1594 1594 1586 1586 1586 1586 1586 1594 1594 1594 1594 1601 1601 0 0 0 0 2485 2485 2485 2485 2467 2467 2467 2485 2467 2467 2467 2467 2485 2485 2485 2503 2503 2503 2503 2503 2522 2503 2503 2503 2503 2503 2503 2485 2485 2503 2503 2503 2485 2485 2485 2503 2503 2522 2560 2560 2560 1785 1785 1776 1776 1776 1766 1766 1766 1757 1757 1757 1757 1757 1766 1757 1757 1757 1757 1757 1766 2450 2467 2485 2485 2485 2485 2485 2485 2485 2485 2467 2467 2467 2485 2485 2485 2503 2503 2522 2522 2503 2503 2503 2485 2485 2485 2485 2467 2467 2467 2467 2467 2485 2485 2485 2485 2485 2485 2485 2485 2485 2485 2485 2485 2485 2503 2503 2503 2503 2503 2503 2503 2503 2503 2503 2522 2503 2503 2503 2503 2503 2503 2503 2503 2522 2522 2522 2522 2522 2503 2503 2503 2503 2522 2522 2503 2503 2522 2522 2522 2522 2522 2522 2522 2522 2522 2522 2522 2522 2522 2522 2522 2522 2522 2522 2522 2522 2522 2522 2522 2522 2522 2522 2522 2522 2522 2522 2503 2503 2485 2485 2503 2503 2503 2503 2503 2503 2503 2503 2503 2503 2503 2503 2503 2503 2503 2503 2503 2503 2503 2503 2503 2503 2503 2503 2503 2503 2503 2503 2485 2485 2485 2485 2485 2485 2485 2485 2485 2485 0 0 0 0 0 0 0 0 0 0
0 0 0 0 0 0 0 0 0 0 0 0 0 0 0 0 0 0 0 0 0 0 0 0 0 0 0 0 0 0 0 0 0 2271 2271 2271 2271 2271 2271 2271 2271 2271 2271 2271 2271 2271 2271 2271 2271 2286 2286 2286 2286 2286 2301 2286 2286 2286 2286 2301 2286 2286 2286 2286 2286 2286 2271 2271 2271 2286 2286 2286 2286 2286 2286 2286 2286 2286 2301 2301 2301 2301 2301 2301 2301 2301 2301 2301 2301 2301 2301 2301 2301 2317 2317 2317 2317 2317 2317 2317 2317 2317 2317 2317 2317 2333 2333 2333 2333 2333 2333 1564 1564 1564 1564 1564 1564 1564 1564 1564 1564 1564 1564 1572 1572 1579 1579 1586 1586 1586 1594 1509 1509 1509 1509 1509 1509 1509 1516 1516 1523 1523 1529 1536 1543 1557 1557 1564 1564 1564 1564 1564 1564 1564 1572 1572 1564 1564 1564 1564 1564 1564 1564 1564 1564 1564 1564 1564 1564 1564 1572 1572 1572 1572 1579 1579 1579 1579 1579 1579 1579 1572 1572 1572 1572 1572 1572 1572 1579 1579 1579 1579 1579 1579 1579 1579 1579 1579 1579 1579 1579 1579 1579 1586 1586 1586 1586 1586 1586 1586 1586 1586 1586 1586 1586 1586 1586 1586 1586 1586 1586 1586 1586 1586 1586 1586 1594 1594 1594 1594 1594 1594 1594 1594 1594 1594 1586 1586 1586 1586 1579 1579 1579 1572 1572 1572 1572 1572 1579 1579 1579 1579 1586 1586 0 2432 2432 2432 2432 2450 2103 2090 2078 2078 2078 2078 2078 2078 2078 2065 2065 2065 2415 2415 2415 2415 2415 2415 2415 2415 2432 1970 1970 1970 1970 1970 1970 1970 1970 1981 1981 1993 1731 1731 1739 1739 1739 0 0 2333 0 0 0 1529 1529 1529 1529 1536 1536 1536 1536 1536 1543 1543 1550 1557 1594 1601 1609 1609 1609 1609 1609 1609 1616 1616 1616 1616 1616 1616 1616 1609 1609 1609 1609 1616 1609 1609 1616 1609 1609 1609 1609 1609 1609 1609 1609 1609 1609 1609 1609 1609 1609 1616 1616 1624 1624 1624 1624 1624 1624 1624 1624 1624 1624 1624 1624 1624 1624 1624 1632 1632 1632 1632 1632 1632 1632 1632 1632 1632 1632 1632 1632 1632 1632 1632 1632 1632 1632 1632 1632 1632 1632 1632 1639 1632 1632 1632 1632 1624 1624 1609 1601 1594 1594 1586 1586 1586 1586 1594 1594 1594 1594 1594 1601 1601 1601 0 2467 0 2467 2467 2467 2467 2467 2467 2467 2467 2467 2467 2467 2467 2467 2467 2485 2485 2485 2485 2485 2503 2503 2503 2503 2485 2485 2503 2485 2485 2485 2485 2485 2485 2485 2485 2485 2485 2485 2503 2522 2560 1794 1785 1785 1776 1776 1776 1776 1766 1766 1757 1757 1766 1766 1766 1766 1757 1757 1757 1757 1757 2467 2467 2467 2467 2467 2485 2485 2485 2467 2467 2467 2467 2467 2467 2467 2485 2485 2485 2485 2503 2503 2485 2485 2485 2467 2467 2467 2467 2467 2467 2467 2467 2467 2467 2467 2467 2485 2485 2485 2467 2467 2467 2467 2467 2485 2485 2485 2485 2503 2503 2503 2503 2503 2503 2503 2503 2503 2503 2503 2503 2503 2503 2503 2503 2503 2503 2503 2503 2503 2503 2503 2503 2503 2503 2503 2503 2503 2503 2503 2503 2503 2522 2503 2503 2503 2522 2522 2522 2522 2522 2522 2522 2522 2503 2503 2522 2522 2522 2503 2503 2503 2522 2522 2522 2522 2522 2522 2503 2485 2485 2485 2485 2485 2485 2485 2503 2503 2503 2503 2503 2503 2503 2503 2503 2485 2485 2485 2485 2485 2485 2485 2485 2503 2503 2485 2485 2485 2485 2485 2485 2485 2485 2485 2485 2485 2467 2467 2467 2467 2485 0 0 0 0 0 0 0 0 0 0
0 0 0 0 0 0 0 0 0 0 0 0 0 0 0 0 0 0 0 0 0 0 0 0 0 0 0 0 0 0 0 0 0 2271 2271 2271 2271 2271 2271 2271 2271 2271 2271 2271 2271 2271 2271 2271 2271 2271 2271 2271 2286 2286 2301 2286 2286 2286 2286 2286 2286 2286 2286 2286 2286 2286 2271 2271 2271 2286 2286 2286 2286 2286 2286 2286 2286 2286 2286 2286 2286 2286 2301 2301 2301 2301 2301 2301 2301 2301 2301 2301 2301 2301 2301 2301 2301 2301 2301 2301 2301 2317 2317 2317 2317 2317 2317 2317 2317 2317 2317 1564 1564 1564 1564 1564 1564 1564 1564 1564 1564 1572 1579 1579 1579 1579 1586 1586 1586 1586 1586 1509 1509 1509 1509 1509 1509 1516 1516 1516 1523 1523 1529 1536 1543 1550 1557 1557 1564 1564 1564 1564 1564 1564 1564 1564 1557 1557 1557 1557 1557 1557 1557 1557 1557 1557 1557 1557 1557 1557 1557 1564 1564 1564 1564 1572 1579 1579 1579 1579 1572 1572 1572 1572 1572 1572 1572 1572 1572 1572 1572 1572 1572 1572 1572 1572 1572 1572 1579 1579 1579 1579 1579 1579 1579 1586 1579 1579 1579 1586 1579 1579 1579 1579 1579 1579 1579 1586 1586 1586 1586 1586 1586 1586 1586 1586 1586 1586 1586 1586 1586 1586 1594 1594 1594 1594 1586 1586 1586 1586 1586 1579 1579 1572 1572 1579 1579 1579 1579 1579 1579 1579 1586 1586 1586 2450 2450 2432 2432 2432 2432 2090 2090 2078 2078 2078 2078 2078 2078 2065 2065 2415 2415 2415 2415 2415 2415 2415 2415 2415 2415 1970 1970 1970 1970 1970 1970 1970 1981 1981 1981 1993 1993 1739 1739 1739 1739 0 0 0 0 0 0 0 1529 1529 1529 1536 1536 1536 1543 1543 1543 1550 1550 1557 1586 1594 1601 1609 1609 1609 1609 1609 1609 1609 1609 1609 1609 1609 1609 1601 1601 1601 1601 1609 1601 1601 1609 1609 1609 1601 1601 1601 1601 1601 1601 1601 1601 1609 1609 1609 1609 1609 1616 1616 1624 1624 1624 1624 1624 1624 1624 1624 1624 1624 1624 1624 1624 1624 1624 1624 1624 1624 1624 1624 1624 1624 1624 1624 1632 1632 1632 1632 1632 1632 1632 1632 1632 1632 1632 1632 1632 1632 1632 1632 1632 1624 1624 1624 1616 1609 1601 1601 1594 1594 1594 1594 1594 1594 1594 1594 1601 1601 1601 0 0 0 0 2467 2467 2467 2467 2467 2467 2467 2467 2467 2467 2467 2467 2467 2467 2467 2467 2467 2467 2485 2485 2485 2485 2485 2485 2485 2485 2485 2485 2485 2485 2467 2467 2467 2467 2467 2467 2467 2467 2485 2485 2485 1794 1785 1785 1785 1785 1776 1776 1776 1766 1766 1766 1766 1766 1766 1766 1766 1757 1757 1757 1757 2467 2467 2485 2467 2467 2467 2467 2467 2467 2467 2467 2467 2467 2467 2467 2467 2467 2485 2485 2485 2485 2485 2467 2467 2450 2450 2450 2450 2450 2450 2450 2450 2450 2467 2467 2467 2467 2467 2467 2467 2467 2467 2467 2467 2467 2467 2467 2485 2485 2485 2485 2485 2485 2485 2485 2485 2503 2503 2503 2503 2485 2485 2503 2485 2485 2503 2485 2485 2485 2485 2485 2485 2485 2485 2503 2503 2485 2485 2503 2503 2503 2503 2503 2503 2503 2503 2503 2503 2503 2503 2522 2522 2503 2503 2503 2503 2503 2503 2503 2503 2503 2503 2522 2522 2522 2522 2522 2503 2485 2485 2485 2485 2485 2485 2485 2485 2485 2485 2485 2485 2485 2485 2485 2485 2485 2485 2485 2485 2485 2485 2485 2485 2485 2485 2485 2485 2485 2485 2485 2467 2467 2467 2467 2485 2467 2467 2467 2467 2467 2467 0 0 0 0 0 0 0 0 0 0
0 0 0 0 0 0 0 0 0 0 0 0 0 0 0 0 0 0 0 0 0 0 0 0 0 0 0 0 0 0 0 0 0 2271 2271 2271 2271 2271 2271 2271 2256 2256 2256 2256 2271 2271 2271 2271 2271 2271 2271 2271 2286 2286 2286 2286 2286 2286 2286 2286 2286 2271 2271 2271 2286 2286 2271 2271 2271 2271 2271 2271 2271 2271 2286 2271 2271 2286 2286 2286 2286 2286 2286 2286 2286 2286 2286 2286 2286 2301 2301 2286 2286 2301 2301 2301 2301 2301 2301 2301 2301 2301 2301 2301 2301 2301 2301 2301 2301 2301 2301 1572 1572 1572 1572 1572 1572 1572 1572 1572 1572 1579 1586 1586 1586 1586 1586 1586 1594 1586 1586 1586 1516 1509 1509 1516 1516 1523 1523 1523 1529 1529 1529 1536 1543 1550 1550 1557 1557 1564 1564 1564 1564 1564 1564 1564 1557 1550 1550 1550 1550 1550 1550 1550 1557 1557 1557 1557 1557 1557 1557 1557 1557 1557 1557 1557 1564 1564 1564 1564 1564 1564 1564 1564 1564 1564 1564 1564 1564 1564 1564 1564 1564 1564 1564 1564 1572 1572 1579 1579 1579 1579 1579 1579 1579 1579 1579 1579 1579 1579 1579 1579 1579 1579 1579 1579 1579 1579 1579 1579 1586 1586 1586 1586 1586 1586 1586 1586 1586 1586 1586 1586 1586 1586 1594 1594 1586 1586 1586 1586 1586 1586 1586 1579 1579 1579 1579 1579 1579 1579 1579 1579 1586 1594 1594 2450 2450 2415 2415 2432 2432 2078 2078 2078 2078 2078 2078 2090 2078 2078 2078 2398 2415 2415 2415 2415 2415 2415 2415 2415 2415 1981 1970 1970 1970 1970 1970 1981 1981 1981 1981 1993 1993 1993 2333 2333 0 0 0 0 0 0 0 1543 1529 1529 1536 1536 1536 1543 1543 1543 1543 1550 1550 1564 1586 1594 1601 1601 1601 1601 1601 1601 1601 1609 1609 1609 1609 1609 1609 1601 1601 1601 1601 1601 1601 1601 1601 1601 1601 1601 1601 1601 1601 1601 1601 1601 1601 1601 1601 1601 1601 1609 1609 1609 1616 1616 1616 1624 1624 1624 1616 1616 1616 1616 1616 1616 1624 1624 1624 1624 1624 1624 1624 1624 1624 1624 1624 1624 1624 1624 1624 1624 1624 1632 1632 1632 1632 1632 1632 1632 1624 1624 1632 1624 1624 1624 1624 1624 1616 1609 1609 1601 1594 1594 1594 1594 1594 1594 1594 1594 1601 1601 1601 0 0 2450 2467 2467 2467 2467 2467 2467 2467 2450 2450 2450 2450 2450 2450 2450 2467 2467 2467 2467 2467 2467 2467 2467 2485 2485 2485 2485 2485 2485 2467 2467 2467 2467 2467 2467 2467 2467 2467 2467 2467 2467 2467 2467 1794 1785 1785 1785 1785 1785 1776 1776 1766 1766 1766 1766 1766 1766 1766 1766 1766 1766 1766 1766 2398 2467 2467 2467 2467 2467 2467 2467 2467 2467 2467 2467 2467 2467 2467 2467 2467 2467 2467 2467 2467 2467 2450 2450 2450 2450 2450 2450 2450 2450 2450 2450 2450 2450 2450 2450 2467 2467 2450 2450 2450 2450 2450 2450 2467 2467 2467 2467 2485 2485 2485 2485 2467 2467 2485 2485 2485 2485 2485 2503 2485 2485 2503 2485 2485 2485 2485 2485 2485 2485 2485 2485 2467 2467 2485 2485 2485 2485 2485 2485 2485 2503 2485 2485 2485 2503 2503 2503 2503 2503 2503 2503 2503 2485 2485 2485 2485 2503 2485 2485 2485 2485 2503 2503 2485 2485 2503 2503 2485 2485 2485 2485 2485 2485 2485 2485 2485 2485 2485 2485 2485 2485 2485 2485 2467 2467 2467 2467 2467 2467 2467 2467 2485 2485 2485 2485 2467 2467 2467 2467 2467 2467 2467 2467 2450 2450 2450 2450 2450 2450 0 0 0 0 0 0 0 0 0 0
0 0 0 0 0 0 0 0 0 0 0 0 0 0 0 0 0 0 0 0 0 0 0 0 0 0 0 0 0 0 0 0 0 2271 2271 2271 2271 2271 2271 2271 2256 2256 2256 2256 2256 2256 2256 2256 2256 2256 2271 2271 2271 2271 2286 2286 2286 2286 2271 2271 2271 2271 2271 2271 2271 2271 2271 2271 2271 2271 2271 2271 2271 2271 2271 2271 2271 2271 2271 2271 2271 2271 2286 2286 2286 2286 2286 2271 2271 2271 2271 2271 2271 2286 2286 2286 2286 2286 2286 2286 2301 2286 2286 2286 2301 2301 2301 2301 2301 2301 2301 2301 1572 1572 1572 1572 1572 1572 1572 1579 1579 1579 1579 1586 1586 1586 1586 1586 1594 1586 1586 1579 1523 1516 1516 1516 1523 1523 1523 1529 1529 1529 1529 1536 1536 1543 1550 1557 1557 1557 1557 1557 1557 1557 1557 1557 1550 1550 1550 1550 1550 1550 1550 1550 1550 1550 1550 1550 1550 1550 1550 1550 1557 1557 1557 1557 1557 1557 1564 1564 1564 1557 1557 1557 1564 1564 1564 1564 1564 1564 1564 1564 1564 1564 1564 1564 1572 1572 1579 1579 1579 1579 1579 1579 1579 1579 1579 1579 1579 1579 1579 1579 1579 1579 1579 1579 1579 1579 1579 1579 1586 1586 1586 1586 1586 1586 1586 1586 1586 1586 1586 1586 1586 1586 1594 1594 1586 1586 1586 1586 1586 1586 1586 1579 1579 1579 1579 1579 1579 1579 1579 1579 1586 1586 2365 2398 2398 2365 2365 2365 2365 2365 2078 2078 2078 2078 2078 2090 2078 2078 2078 2398 2398 2398 2398 2398 2415 2415 2398 2398 2398 1981 1981 1981 1981 1981 1981 1981 1981 1981 1993 1993 1993 2317 2333 2333 2333 2333 0 0 0 0 0 1543 1536 1536 1536 1543 1543 1543 1543 1543 1550 1550 1550 1564 1586 1594 1594 1601 1594 1594 1594 1594 1601 1601 1601 1601 1601 1601 1601 1594 1594 1594 1594 1594 1594 1594 1601 1601 1601 1601 1601 1601 1601 1601 1601 1601 1601 1601 1601 1601 1601 1601 1601 1601 1609 1616 1616 1616 1616 1616 1616 1609 1609 1609 1609 1609 1616 1616 1616 1616 1616 1616 1616 1616 1616 1616 1616 1616 1616 1616 1616 1616 1624 1624 1624 1624 1624 1624 1624 1624 1624 1624 1624 1624 1624 1624 1624 1624 1616 1609 1609 1601 1601 1601 1594 1594 1594 1594 1601 1601 1601 1601 1601 1601 0 2450 2450 2450 2450 2450 2450 2450 2450 2450 2450 2450 2450 2450 2450 2450 2450 2450 2467 2467 2467 2450 2450 2467 2467 2467 2467 2467 2467 2467 2467 2467 2467 2467 2467 2450 2450 2450 2450 2467 2467 2450 2450 2450 1794 1785 1785 1785 1785 1785 1776 1776 1766 1766 1766 1766 1766 1766 1766 1766 1766 1766 1766 1766 2398 2450 2467 2450 2450 2450 2467 2467 2467 2467 2467 2467 2467 2467 2467 2467 2467 2467 2467 2467 2467 2467 2450 2450 2450 2450 2450 2450 2450 2450 2450 2450 2450 2450 2450 2450 2450 2450 2450 2450 2450 2450 2450 2450 2467 2467 2467 2467 2467 2467 2467 2467 2467 2467 2467 2467 2467 2485 2485 2485 2485 2467 2467 2467 2467 2467 2467 2467 2467 2467 2467 2467 2467 2467 2467 2467 2467 2467 2467 2485 2485 2485 2467 2467 2467 2467 2467 2467 2467 2467 2467 2485 2467 2467 2467 2485 2485 2485 2485 2485 2485 2485 2485 2485 2485 2485 2485 2485 2485 2467 2467 2467 2467 2467 2467 2467 2467 2467 2467 2450 2450 2450 2450 2450 2450 2432 2432 2432 2450 2450 2450 2450 2467 2485 2467 2467 2467 2450 2450 2450 2450 2450 2450 2467 2450 2450 2450 2450 2450 2450 0 0 0 0 0 0 0 0 0 0
0 0 0 0 0 0 0 0 0 0 0 0 0 0 0 0 0 0 0 0 0 0 0 0 0 0 0 0 0 0 0 0 0 2271 2271 2271 2271 2271 2256 2256 2256 2256 2256 2256 2256 2256 2256 2256 2256 2256 2271 2271 2271 2271 2271 2271 2271 2271 2271 2271 2271 2271 2271 2271 2271 2271 2256 2256 2271 2271 2271 2271 2271 2271 2271 2271 2271 2271 2271 2271 2271 2271 2271 2271 2271 2271 2271 2271 2271 2271 2271 2271 2271 2271 2271 2286 2271 2271 2271 2271 2271 2286 2286 2286 2286 2286 2286 2286 2301 2301 2301 2301 1579 1579 1572 1572 1572 1572 1572 1579 1579 1579 1579 1586 1586 1586 1586 1594 1594 1594 1594 1579 1557 1523 1523 1523 1523 1529 1529 1529 1529 1529 1536 1536 1536 1543 1550 1550 1557 1557 1557 1557 1557 1557 1557 1557 1550 1550 1550 1550 1550 1550 1550 1550 1550 1550 1550 1550 1550 1550 1550 1550 1550 1557 1557 1557 1557 1557 1564 1564 1564 1557 1557 1557 1557 1564 1564 1564 1564 1564 1564 1564 1564 1572 1564 1564 1572 1572 1579 1579 1579 1579 1579 1579 1579 1579 1579 1579 1579 1579 1579 1579 1579 1579 1579 1579 1579 1579 1579 1579 1586 1586 1586 1586 1586 1586 1586 1586 1586 1586 1586 1586 1586 1586 1594 1594 1594 1586 1586 1586 1586 1586 1586 1579 1579 1579 1579 1579 1579 1579 1579 1579 1586 1586 2365 2365 2365 2365 2365 2349 2349 2365 2078 2078 2078 2078 2090 2090 2090 2078 2078 2398 2398 2398 2398 2398 2398 2398 2398 2398 2398 1981 1981 1981 1981 1981 1981 1981 1981 1981 1981 1981 1981 2317 2317 2333 2333 2333 0 0 0 0 0 1543 1536 1536 1543 1543 1543 1543 1543 1550 1550 1557 1557 1572 1579 1586 1594 1594 1594 1594 1594 1594 1594 1601 1601 1601 1601 1601 1601 1586 1586 1586 1594 1594 1594 1594 1594 1594 1594 1594 1594 1601 1601 1601 1601 1601 1601 1601 1601 1601 1601 1601 1601 1601 1601 1601 1601 1609 1609 1609 1609 1609 1609 1609 1609 1609 1609 1609 1609 1609 1609 1609 1609 1609 1609 1609 1609 1609 1609 1616 1616 1616 1616 1616 1616 1624 1624 1624 1624 1624 1616 1616 1624 1624 1624 1624 1624 1616 1616 1616 1609 1601 1601 1601 1601 1601 1601 1601 1601 1601 1601 1601 1601 1601 0 2450 2450 2450 2450 2450 2450 2450 2450 2450 2432 2432 2450 2450 2450 2450 2450 2450 2450 2450 2450 2450 2450 2467 2450 2450 2467 2450 2450 2467 2450 2450 2450 2450 2450 2450 2450 2450 2450 2467 2467 2450 2450 2450 1794 1794 1794 1785 1785 1785 1776 1776 1776 1766 1766 1766 1766 1766 1766 1766 1776 1776 1776 2415 2415 2450 2450 2450 2450 2450 2450 2450 2450 2450 2467 2467 2467 2467 2467 2467 2467 2467 2467 2467 2467 2450 2432 2432 2432 2432 2432 2432 2432 2450 2450 2450 2450 2450 2450 2450 2450 2450 2450 2450 2450 2450 2450 2450 2450 2450 2450 2450 2450 2450 2450 2450 2450 2450 2467 2467 2467 2467 2467 2467 2467 2450 2450 2450 2450 2450 2450 2450 2467 2467 2467 2467 2467 2467 2467 2467 2450 2450 2450 2467 2467 2467 2467 2467 2467 2467 2467 2467 2467 2467 2467 2467 2467 2467 2467 2467 2467 2485 2467 2467 2467 2467 2485 2467 2467 2467 2467 2467 2485 2467 2450 2450 2450 2450 2450 2450 2450 2450 2450 2450 2450 2450 2432 2432 2432 2432 2432 2432 2432 2432 2432 2432 2432 2450 2432 2432 2432 2432 2432 2432 2432 2432 2432 2432 2432 2432 2450 2450 2432 2432 0 0 0 0 0 0 0 0 0 0
0 0 0 0 0 0 0 0 0 0 0 0 0 0 0 0 0 0 0 0 0 0 0 0 0 0 0 0 0 0 0 0 0 2256 2256 2256 2256 2256 2256 2256 2256 2256 2256 2256 2256 2256 2256 2256 2256 2256 2256 2256 2256 2256 2256 2256 2256 2256 2256 2256 2256 2256 2271 2271 2271 2271 2256 2256 2256 2256 2256 2256 2256 2256 2256 2256 2256 2256 2256 2256 2256 2256 2256 2256 2256 2256 2256 2256 2256 2271 2271 2271 2271 2271 2271 2271 2271 2271 2271 2256 2256 2256 2256 2271 2271 2271 2286 2286 2286 2286 2286 2286 1579 1579 1579 1579 1579 1579 1579 1579 1579 1579 1586 1586 1586 1586 1586 1594 1594 1594 1594 1586 1557 1523 1523 1523 1529 1529 1529 1529 1529 1529 1536 1536 1536 1543 1543 1550 1550 1557 1557 1557 1557 1557 1557 1557 1550 1550 1550 1550 1550 1550 1550 1550 1550 1550 1550 1550 1550 1550 1550 1550 1550 1550 1557 1557 1557 1557 1557 1557 1564 1557 1557 1557 1557 1564 1564 1564 1564 1564 1564 1564 1564 1572 1564 1564 1572 1572 1579 1579 1579 1579 1579 1579 1579 1579 1579 1579 1579 1579 1579 1579 1579 1579 1579 1579 1579 1586 1579 1579 1586 1586 1586 1586 1586 1586 1586 1586 1586 1586 1586 1586 1586 1594 1594 1594 1594 1594 1594 1594 1586 1586 1586 1579 1579 1579 1579 1579 1579 1579 1579 1579 1586 1586 2365 2365 2365 2349 2349 2333 2333 2349 2078 2078 2078 2090 2090 2090 2090 2090 2090 2398 2381 2381 2381 2381 2381 2381 2381 2398 1981 1981 1981 1981 1981 1981 1981 1981 1981 1981 1981 1981 1981 2317 2317 2333 2333 2349 0 0 0 0 0 1543 1543 1543 1543 1543 1543 1550 1550 1550 1557 1557 1557 1572 1579 1579 1586 1586 1586 1586 1586 1586 1594 1594 1594 1594 1594 1594 1594 1579 1579 1579 1586 1586 1586 1586 1594 1594 1594 1594 1594 1594 1594 1594 1594 1594 1594 1594 1594 1594 1594 1594 1594 1594 1601 1601 1601 1601 1601 1601 1601 1601 1601 1601 1601 1601 1601 1601 1601 1601 1601 1601 1601 1601 1609 1609 1609 1601 1601 1609 1609 1609 1609 1609 1609 1616 1616 1616 1616 1616 1616 1616 1624 1624 1624 1624 1624 1616 1616 1616 1609 1601 1601 1601 1601 1601 1601 1601 1601 1601 1601 1601 1601 1601 2398 2432 2432 2432 2432 2432 2432 2432 2432 2432 2432 2432 2450 2450 2450 2450 2450 2450 2450 2450 2450 2450 2450 2450 2450 2450 2450 2450 2450 2450 2450 2450 2450 2450 2450 2450 2450 2450 2450 2450 2450 2450 2450 2450 2450 1785 1785 1785 1785 1785 1776 1776 1776 1776 1776 1776 1776 1776 1776 1776 1776 1776 1776 2415 2415 2432 2450 2450 2450 2450 2450 2450 2450 2450 2467 2467 2467 2467 2467 2467 2450 2450 2450 2450 2450 2450 2432 2432 2432 2432 2432 2432 2432 2432 2432 2432 2432 2450 2450 2450 2450 2450 2450 2450 2450 2450 2450 2450 2450 2450 2450 2450 2450 2450 2450 2450 2450 2450 2450 2450 2450 2450 2450 2450 2450 2450 2450 2450 2450 2450 2450 2450 2450 2450 2450 2450 2450 2450 2450 2450 2450 2450 2450 2467 2450 2450 2467 2467 2467 2467 2450 2450 2450 2450 2450 2450 2450 2450 2467 2467 2467 2485 2467 2467 2467 2467 2467 2467 2467 2467 2467 2467 2467 2450 2450 2450 2450 2450 2450 2450 2450 2450 2450 2450 2432 2432 2432 2432 2432 2432 2432 2432 2432 2432 2432 2432 2432 2432 2432 2432 2432 2432 2432 2432 2432 2432 2432 2432 2432 2432 2432 2432 2432 2432 0 0 0 0 0 0 0 0 0 0
0 0 0 0 0 0 0 0 0 0 0 0 0 0 0 0 0 0 0 0 0 0 0 0 0 0 0 0 0 0 0 0 0 2256 2256 2256 2256 2256 2256 2256 2241 2241 2241 2241 2241 2241 2241 2241 2241 2241 2256 2256 2256 2241 2241 2256 2241 2241 2241 2241 2241 2256 2256 2256 2271 2271 2256 2256 2256 2256 2241 2241 2256 2256 2256 2256 2256 2256 2256 2256 2256 2256 2256 2256 2256 2256 2256 2256 2256 2256 2256 2256 2256 2256 2271 2271 2256 2256 2256 2256 2256 2256 2256 2271 2271 2271 2271 2271 2271 2271 2271 2271 1579 1579 1579 1579 1579 1579 1579 1586 1586 1586 1586 1586 1586 1586 1586 1594 1594 1594 1594 1586 1523 1516 1516 1523 1529 1529 1529 1529 1529 1536 1536 1536 1536 1543 1543 1543 1550 1550 1557 1557 1557 1557 1557 1557 1550 1550 1550 1550 1550 1550 1550 1550 1550 1550 1550 1550 1550 1550 1550 1550 1550 1550 1557 1557 1557 1557 1557 1557 1564 1557 1557 1557 1557 1564 1564 1564 1564 1572 1572 1572 1572 1572 1572 1572 1572 1572 1579 1579 1579 1579 1579 1579 1579 1579 1579 1579 1579 1579 1586 1579 1579 1586 1586 1586 1586 1586 1586 1586 1586 1586 1586 1586 1586 1586 1594 1586 1586 1594 1594 1594 1594 1594 1601 1601 1601 1594 1594 1594 1594 1586 1586 1579 1579 1586 1586 1586 1586 1586 1586 1586 1586 2365 2365 2349 2349 2349 2349 2333 2333 2349 2078 2078 2090 2090 2090 2090 2090 2090 2090 2398 2365 2365 2365 2365 2381 2365 2365 2365 1981 1981 1981 1981 1981 1981 1981 1981 1981 1981 1970 1970 2349 2349 2349 2349 2349 2349 0 0 0 0 0 1550 1543 1543 1543 1543 1550 1550 1550 1550 1557 1557 1564 1572 1579 1579 1579 1579 1579 1579 1579 1579 1586 1586 1586 1586 1586 1586 1586 1579 1579 1579 1579 1586 1586 1586 1586 1586 1594 1594 1594 1594 1594 1594 1594 1594 1594 1594 1594 1594 1594 1594 1594 1594 1594 1594 1594 1594 1601 1601 1601 1601 1601 1601 1601 1601 1601 1601 1601 1601 1601 1601 1601 1601 1601 1601 1601 1601 1601 1601 1601 1601 1609 1609 1609 1609 1609 1616 1616 1616 1616 1616 1616 1624 1624 1616 1616 1616 1616 1616 1609 1609 1601 1601 1601 1601 1601 1601 1601 1601 1601 1601 1601 2398 2398 2398 2398 2415 2432 2432 2432 2432 2432 2432 2432 2432 2432 2432 2432 2450 2450 2450 2450 2450 2450 2432 2432 2450 2432 2432 2432 2432 2432 2450 2450 2450 2450 2450 2450 2450 2450 2450 2450 2450 2450 2450 2450 2450 1794 1785 1785 1785 1785 1785 1776 1776 1776 1776 1776 1776 1776 1776 1776 1776 1785 1776 1776 2398 2432 2432 2450 2432 2432 2450 2450 2450 2450 2450 2450 2450 2450 2450 2450 2450 2450 2450 2450 2450 2450 2432 2415 2415 2415 2415 2415 2415 2432 2432 2432 2432 2432 2432 2432 2432 2432 2432 2432 2432 2432 2432 2432 2432 2432 2432 2432 2432 2432 2432 2432 2432 2432 2450 2450 2450 2450 2450 2450 2450 2450 2432 2432 2432 2432 2432 2432 2450 2450 2450 2450 2450 2450 2450 2450 2450 2450 2450 2450 2450 2450 2450 2450 2450 2450 2450 2450 2450 2450 2450 2450 2450 2450 2450 2467 2467 2467 2467 2467 2467 2467 2467 2467 2450 2450 2450 2450 2450 2467 2450 2450 2450 2450 2450 2450 2432 2432 2432 2432 2432 2432 2432 2432 2432 2432 2432 2415 2415 2415 2432 2415 2415 2415 2432 2415 2415 2415 2432 2432 2432 2432 2432 2432 2432 2432 2415 2415 2415 2415 2415 0 0 0 0 0 0 0 0 0 0
0 0 0 0 0 0 0 0 0 0 0 0 0 0 0 0 0 0 0 0 0 0 0 0 0 0 0 0 0 0 0 0 0 2241 2241 2256 2256 2241 2241 2226 2226 2226 2226 2226 2226 2226 2226 2226 2226 2226 2241 2241 2241 2241 2241 2241 2241 2241 2241 2241 2241 2241 2241 2241 2256 2256 2241 2241 2241 2241 2241 2241 2241 2241 2256 2256 2256 2256 2256 2256 2256 2256 2256 2256 2256 2256 2241 2241 2256 2256 2256 2256 2256 2256 2256 2256 2256 2256 2256 2256 2256 2256 2256 2256 2256 2271 2271 2271 2271 2271 2271 2271 1586 1586 1579 1579 1586 1586 1586 1586 1586 1586 1586 1586 1586 1586 1586 1594 1594 1594 1594 1586 1523 1516 1516 1523 1529 1529 1529 1529 1529 1536 1536 1536 1536 1543 1543 1543 1550 1550 1557 1557 1557 1557 1557 1557 1550 1550 1550 1550 1550 1550 1550 1550 1550 1550 1550 1550 1550 1550 1550 1550 1550 1550 1557 1557 1557 1557 1557 1564 1564 1557 1557 1557 1557 1564 1564 1564 1564 1572 1572 1572 1572 1572 1572 1572 1572 1579 1579 1579 1579 1579 1579 1586 1586 1586 1586 1586 1586 1586 1586 1586 1586 1586 1586 1586 1586 1586 1586 1586 1586 1586 1594 1594 1594 1594 1594 1594 1594 1594 1594 1601 1601 1601 1601 1601 1601 1601 1601 1601 1594 1594 1594 1586 1586 1586 1586 1594 1594 1594 1594 1594 1594 1594 2333 2333 2333 2333 2333 2333 2333 2333 2090 2090 2090 2090 2103 2090 2090 2090 2090 2398 2365 2365 2365 2365 2365 2365 2349 2349 2349 1981 1981 1981 1981 1981 1981 1981 1981 1981 1970 1970 1970 2349 2349 2349 2349 2349 2349 0 0 0 0 1550 1543 1543 1550 1550 1550 1550 1550 1557 1557 1564 1564 1564 1572 1572 1579 1579 1579 1579 1579 1579 1579 1579 1579 1579 1579 1579 1579 1572 1572 1572 1579 1579 1579 1579 1586 1586 1586 1586 1586 1594 1594 1594 1594 1594 1594 1594 1594 1594 1594 1594 1594 1594 1594 1594 1594 1594 1594 1594 1601 1601 1601 1601 1601 1594 1594 1594 1594 1601 1601 1601 1601 1601 1601 1601 1601 1601 1601 1601 1601 1601 1601 1601 1609 1609 1609 1616 1616 1616 1616 1616 1616 1624 1624 1616 1616 1616 1616 1616 1609 1609 1609 1609 1609 1601 1601 1601 1601 1601 1601 1601 1601 2398 2398 2398 2398 2415 2432 2432 2432 2432 2432 2432 2432 2432 2432 2432 2432 2432 2432 2432 2432 2432 2432 2432 2432 2432 2432 2432 2432 2432 2432 2432 2432 2432 2432 2432 2432 2432 2432 2432 2432 2450 2450 2450 2450 2450 1794 1785 1785 1794 1785 1785 1776 1776 1776 1776 1776 1776 1776 1776 1776 1776 1785 1776 1776 2398 2415 2432 2432 2432 2432 2432 2450 2450 2450 2450 2450 2450 2450 2450 2450 2450 2450 2432 2432 2450 2432 2432 2415 2415 2415 2415 2415 2415 2415 2432 2432 2432 2432 2432 2432 2432 2432 2432 2432 2432 2432 2432 2432 2432 2432 2432 2432 2432 2432 2432 2432 2432 2432 2432 2450 2450 2450 2450 2432 2432 2432 2432 2432 2432 2432 2432 2432 2432 2432 2432 2432 2450 2450 2450 2450 2432 2432 2432 2432 2450 2450 2450 2450 2450 2450 2450 2432 2432 2432 2432 2432 2450 2450 2450 2450 2450 2450 2467 2467 2450 2450 2450 2450 2450 2450 2450 2450 2450 2450 2432 2432 2432 2432 2432 2432 2432 2432 2432 2432 2432 2415 2415 2415 2415 2415 2415 2415 2415 2415 2415 2415 2415 2415 2415 2415 2415 2415 2415 2415 2432 2415 2415 2432 2432 2415 2415 2415 2415 2415 2415 0 0 0 0 0 0 0 0 0 0
0 0 0 0 0 0 0 0 0 0 0 0 0 0 0 0 0 0 0 0 0 0 0 0 0 0 0 0 0 0 0 0 0 2241 2241 2241 2241 2241 2226 2226 2226 2226 2226 2226 2226 2226 2226 2226 2226 2226 2226 2226 2226 2226 2226 2226 2226 2226 2226 2226 2226 2226 2241 2241 2256 2256 2241 2241 2241 2241 2226 2226 2241 2241 2241 2256 2256 2241 2241 2241 2256 2241 2241 2241 2241 2241 2241 2241 2241 2241 2256 2256 2256 2256 2256 2256 2256 2256 2256 2256 2256 2241 2241 2256 2256 2256 2271 2271 2271 2271 2271 2271 1586 1586 1586 1586 1586 1586 1586 1586 1586 1586 1586 1586 1586 1586 1594 1594 1594 1594 1601 1594 1529 1523 1523 1523 1529 1529 1529 1529 1529 1536 1536 1536 1536 1543 1543 1543 1550 1557 1557 1557 1557 1557 1557 1557 1550 1550 1550 1550 1550 1550 1550 1550 1557 1557 1557 1557 1550 1550 1557 1557 1557 1557 1557 1557 1557 1557 1564 1564 1564 1564 1564 1564 1564 1564 1564 1564 1572 1572 1572 1572 1572 1579 1579 1579 1579 1579 1579 1579 1579 1586 1586 1586 1586 1586 1586 1586 1586 1586 1586 1586 1586 1586 1586 1586 1586 1586 1586 1586 1594 1594 1594 1594 1594 1594 1594 1601 1601 1601 1601 1601 1601 1601 1601 1609 1609 1601 1601 1601 1601 1594 1594 1586 1586 1586 1594 1594 1594 1594 1594 1594 1594 0 2333 2333 2333 2333 2333 2333 2333 2333 2349 2090 2090 2103 2103 2090 2090 2090 2103 2103 2365 2365 2365 2365 2365 2349 2349 2333 2333 1981 1981 1981 1981 1981 1981 1981 1981 1981 1970 1970 1970 2349 2349 2349 2349 2349 2349 0 0 0 0 1550 1550 1550 1550 1550 1550 1550 1550 1557 1564 1564 1564 1564 1572 1572 1579 1579 1579 1579 1579 1579 1579 1579 1579 1579 1579 1579 1579 1572 1572 1572 1579 1579 1579 1579 1586 1586 1586 1586 1586 1586 1586 1594 1586 1586 1586 1586 1586 1594 1594 1594 1594 1594 1594 1594 1594 1594 1594 1594 1601 1601 1601 1601 1594 1594 1594 1594 1594 1594 1601 1601 1601 1601 1601 1601 1601 1601 1601 1601 1601 1601 1601 1601 1609 1609 1609 1616 1616 1616 1616 1616 1616 1624 1624 1616 1616 1616 1616 1616 1616 1609 1609 1609 1609 1609 1609 1609 1609 1609 1601 1601 1601 2381 2381 2398 2398 2398 2415 2415 2415 2415 2415 2415 2432 2432 2432 2432 2432 2432 2432 2432 2432 2432 2432 2432 2432 2432 2415 2415 2415 2415 2415 2415 2415 2432 2432 2432 2432 2432 2432 2432 2432 2432 2450 2450 2450 1804 1794 1794 1794 1794 1785 1785 1785 1776 1776 1785 1785 1785 1785 1776 1776 1785 1785 1785 1785 2398 2415 2432 2432 2415 2415 2432 2432 2432 2432 2432 2432 2432 2432 2432 2450 2450 2432 2432 2432 2432 2432 2432 2398 2398 2398 2398 2398 2415 2415 2415 2415 2415 2415 2432 2432 2432 2415 2415 2415 2415 2415 2415 2415 2415 2415 2415 2415 2415 2415 2415 2432 2432 2432 2432 2432 2432 2432 2432 2432 2432 2432 2415 2415 2415 2415 2415 2432 2432 2432 2432 2432 2432 2432 2432 2432 2432 2432 2432 2432 2432 2432 2432 2432 2432 2432 2432 2432 2432 2432 2432 2432 2432 2432 2432 2450 2450 2450 2467 2450 2450 2450 2450 2450 2450 2450 2450 2450 2450 2450 2432 2432 2432 2432 2432 2432 2432 2432 2432 2432 2415 2415 2415 2415 2415 2415 2415 2415 2415 2415 2415 2415 2415 2415 2415 2415 2415 2415 2415 2415 2432 2415 2415 2415 2415 2415 2415 2415 2415 2415 2415 0 0 0 0 0 0 0 0 0 0
0 0 0 0 0 0 0 0 0 0 0 0 0 0 0 0 0 0 0 0 0 0 0 0 0 0 0 0 0 0 0 0 0 2226 2226 2226 2226 2226 2226 2226 2226 2226 2226 2226 2226 2226 2226 2226 2226 2226 2226 2226 2226 2226 2226 2226 2226 2226 2226 2226 2226 2226 2226 2226 2241 2241 2241 2241 2226 2226 2226 2226 2226 2226 2241 2241 2241 2241 2241 2241 2241 2241 2241 2241 2241 2241 2241 2241 2241 2241 2241 2241 2241 2256 2256 2256 2256 2256 2256 2241 2241 2241 2241 2241 2256 2256 2256 2256 2256 2256 2256 2256 1586 1586 1586 1586 1586 1586 1586 1586 1586 1586 1586 1586 1586 1594 1594 1594 1594 1601 1601 1609 1609 1523 1523 1523 1529 1529 1529 1529 1529 1536 1536 1536 1536 1543 1543 1543 1550 1557 1557 1557 1557 1557 1557 1557 1550 1550 1550 1550 1557 1557 1557 1557 1557 1557 1557 1557 1557 1557 1557 1557 1557 1557 1557 1557 1557 1557 1564 1564 1564 1564 1564 1564 1564 1572 1572 1572 1572 1572 1579 1579 1579 1579 1579 1579 1579 1579 1586 1586 1586 1586 1586 1586 1586 1586 1586 1586 1586 1586 1586 1586 1586 1594 1594 1594 1594 1594 1594 1594 1594 1601 1601 1601 1601 1601 1601 1601 1601 1601 1609 1609 1609 1609 1609 1609 1609 1609 1609 1601 1601 1601 1601 1594 1594 1594 1594 1594 1601 1601 1594 1594 1594 0 2333 2333 2333 2333 2333 2333 2333 2333 2103 2103 2103 2103 2103 2103 2103 2103 2103 2103 2349 2349 2349 2349 2349 2349 2349 2333 2333 1970 1970 1970 1981 1981 1981 1981 1981 1981 1970 1970 1970 2349 2349 2349 2349 2349 2349 0 0 0 0 0 1550 1550 1550 1550 1550 1550 1557 1557 1564 1564 1572 1572 1572 1572 1579 1579 1579 1579 1579 1579 1579 1579 1579 1579 1579 1579 1579 1572 1572 1572 1579 1579 1579 1579 1579 1579 1586 1586 1586 1586 1586 1594 1586 1586 1586 1586 1586 1594 1594 1594 1594 1594 1594 1594 1594 1594 1594 1594 1601 1601 1601 1601 1594 1594 1594 1594 1594 1594 1601 1601 1601 1601 1601 1601 1601 1601 1601 1601 1601 1601 1601 1601 1601 1609 1609 1609 1616 1616 1616 1616 1624 1624 1624 1624 1624 1616 1616 1616 1616 1609 1609 1609 1609 1609 1609 1609 1609 1609 1609 1609 1609 2381 2381 2398 2398 2398 2398 2415 2415 2415 2415 2415 2415 2415 2415 2415 2415 2415 2415 2415 2415 2415 2415 2415 2415 2415 2415 2415 2415 2415 2415 2415 2415 2415 2415 2415 2415 2415 2415 2415 2415 2415 2415 2432 2432 1804 1794 1794 1794 1794 1785 1785 1785 1776 1776 1785 1785 1785 1785 1785 1785 1785 1785 1785 1766 1766 2415 2415 2415 2415 2415 2415 2415 2415 2415 2415 2432 2432 2432 2432 2432 2432 2415 2415 2415 2415 2415 2398 2381 2381 2398 2398 2398 2398 2398 2398 2398 2398 2398 2415 2415 2415 2398 2398 2398 2415 2415 2415 2398 2398 2415 2415 2415 2415 2415 2415 2415 2415 2432 2432 2432 2432 2432 2432 2432 2432 2432 2415 2415 2415 2415 2415 2415 2432 2432 2432 2432 2432 2432 2432 2432 2432 2432 2432 2432 2432 2432 2432 2432 2432 2432 2432 2432 2432 2432 2432 2432 2432 2432 2432 2432 2450 2450 2450 2450 2450 2450 2450 2450 2432 2432 2432 2432 2432 2432 2432 2432 2432 2415 2415 2415 2415 2415 2415 2415 2415 2415 2415 2415 2415 2415 2415 2398 2398 2415 2415 2415 2415 2415 2415 2415 2415 2415 2415 2415 2415 2415 2415 2415 2415 2415 2415 2415 2398 2398 2398 0 0 0 0 0 0 0 0 0 0
0 0 0 0 0 0 0 0 0 0 0 0 0 0 0 0 0 0 0 0 0 0 0 0 0 0 0 0 0 0 0 0 0 2226 2226 2226 2226 2226 2226 2226 2226 2226 2212 2212 2212 2212 2212 2212 2212 2212 2226 2226 2226 2226 2226 2226 2226 2226 2226 2226 2226 2226 2226 2226 2226 2226 2212 2212 2212 2212 2212 2212 2226 2226 2226 2241 2241 2241 2241 2241 2241 2241 2241 2241 2241 2241 2241 2241 2241 2241 2241 2241 2241 2241 2241 2241 2241 2241 2241 2241 2241 2241 2241 2241 2256 2256 2256 2256 2256 2256 2256 2271 2271 1586 1586 1586 1586 1586 1586 1586 1586 1586 1586 1586 1594 1594 1594 1594 1601 1601 1609 1609 1609 1509 1509 1523 1529 1529 1529 1529 1529 1536 1536 1536 1543 1543 1550 1550 1550 1557 1557 1557 1557 1557 1557 1557 1550 1550 1550 1550 1557 1557 1557 1557 1564 1564 1557 1557 1557 1557 1557 1557 1557 1557 1557 1557 1564 1564 1564 1564 1564 1564 1564 1572 1572 1572 1572 1572 1579 1579 1579 1579 1579 1579 1579 1579 1579 1586 1586 1586 1586 1586 1586 1586 1586 1586 1586 1586 1586 1586 1594 1594 1594 1594 1594 1594 1594 1601 1601 1601 1601 1601 1601 1601 1609 1609 1609 1609 1609 1609 1609 1609 1609 1609 1609 1609 1609 1609 1609 1609 1609 1601 1601 1594 1594 1594 1594 1601 1601 1601 1594 1594 1594 0 2317 2317 2317 2317 2317 2317 2317 2333 2103 2103 2103 2103 2103 2103 2103 2103 2116 2349 2349 2349 2349 2349 2349 2349 2349 2333 2333 1970 1970 1970 1981 1981 1981 1981 1981 1981 1981 1970 1970 2349 2349 2349 2349 2349 2349 0 0 0 0 0 1557 1557 1557 1550 1550 1557 1557 1557 1564 1564 1572 1572 1572 1572 1572 1579 1579 1579 1579 1579 1579 1579 1579 1579 1579 1579 1579 1572 1572 1572 1579 1579 1579 1579 1579 1579 1586 1586 1586 1586 1586 1594 1586 1586 1586 1586 1594 1594 1594 1594 1594 1594 1594 1594 1594 1594 1594 1594 1601 1601 1601 1601 1601 1601 1601 1601 1601 1601 1601 1601 1601 1601 1601 1601 1601 1601 1601 1601 1601 1601 1601 1601 1601 1609 1609 1609 1616 1616 1616 1616 1624 1624 1624 1624 1624 1624 1624 1616 1616 1616 1609 1609 1609 1609 1609 1609 1609 1609 1609 1609 2333 2333 2381 2398 2398 2398 2398 2398 2398 2398 2398 2398 2415 2415 2415 2415 2415 2398 2398 2398 2415 2398 2398 2398 2398 2398 2398 2398 2398 2398 2398 2398 2398 2398 2398 2398 2398 2398 2398 2398 2398 2398 2398 2432 1804 1804 1794 1794 1794 1794 1785 1785 1785 1785 1785 1785 1785 1785 1785 1785 1785 1785 1785 1785 1766 1766 1766 2415 2415 2415 2415 2415 2415 2415 2415 2415 2415 2415 2415 2415 2432 2415 2415 2415 2398 2398 2398 2398 2381 2381 2381 2381 2381 2398 2398 2398 2398 2398 2398 2398 2398 2398 2398 2398 2398 2398 2398 2398 2398 2398 2398 2398 2398 2398 2398 2398 2398 2398 2415 2415 2415 2415 2415 2415 2415 2415 2415 2415 2415 2415 2415 2415 2415 2415 2415 2415 2415 2432 2415 2415 2415 2415 2415 2432 2432 2432 2432 2432 2432 2432 2432 2432 2432 2432 2432 2415 2415 2415 2432 2432 2432 2432 2450 2450 2450 2432 2432 2432 2432 2432 2432 2432 2432 2432 2432 2415 2415 2415 2415 2415 2415 2415 2415 2415 2415 2415 2415 2415 2398 2398 2398 2398 2398 2398 2398 2398 2398 2415 2415 2415 2415 2415 2415 2415 2415 2415 2415 2415 2415 2415 2398 2398 2398 2381 2381 2381 0 0 0 0 0 0 0 0 0 0
0 0 0 0 0 0 0 0 0 0 0 0 0 0 0 0 0 0 0 0 0 0 0 0 0 0 0 0 0 0 0 0 0 2212 2212 2212 2212 2212 2212 2212 2212 2212 2212 2212 2212 2212 2212 2212 2212 2212 2212 2212 2212 2212 2212 2212 2212 2212 2212 2212 2212 2226 2212 2212 2212 2212 2198 2198 2212 2212 2212 2212 2212 2212 2212 2226 2226 2226 2226 2226 2226 2226 2226 2226 2226 2226 2226 2226 2226 2226 2226 2226 2226 2226 2226 2226 2226 2226 2241 2241 2241 2241 2241 2241 2241 2241 2241 2241 2256 2256 2256 2271 2271 1586 1586 1586 1586 1586 1586 1586 1586 1586 1586 1594 1594 1594 1594 1594 1601 1601 1609 1609 1616 1509 1509 1523 1529 1529 1536 1536 1536 1536 1536 1543 1543 1550 1550 1557 1557 1557 1557 1557 1557 1557 1557 1557 1550 1550 1550 1557 1557 1557 1564 1564 1564 1564 1564 1564 1564 1557 1557 1557 1557 1564 1564 1564 1564 1564 1564 1564 1564 1564 1572 1572 1572 1572 1579 1579 1579 1579 1579 1579 1579 1579 1586 1586 1586 1586 1586 1586 1586 1586 1586 1586 1586 1586 1586 1586 1586 1594 1594 1594 1594 1601 1601 1601 1601 1601 1601 1601 1609 1609 1609 1609 1609 1609 1609 1609 1609 1609 1609 1609 1609 1609 1609 1609 1609 1609 1609 1609 1609 1609 1601 1594 1594 1594 1601 1601 1601 1601 1601 1601 1601 0 2301 2301 2301 2317 2317 2317 2317 2317 2103 2103 2103 2116 2116 2116 2116 2116 2116 2333 2333 2333 2333 2333 2333 2333 2333 2317 2317 1970 1970 1981 1981 1981 1981 1981 1981 1981 1981 1970 1970 2349 2349 2349 2349 2317 2317 0 2317 1572 1572 0 1557 1557 1557 1557 1557 1557 1557 1564 1564 1564 1572 1572 1572 1572 1572 1579 1579 1579 1579 1579 1579 1579 1579 1579 1579 1579 1579 1579 1579 1579 1579 1586 1586 1586 1586 1586 1586 1586 1586 1586 1586 1594 1594 1594 1594 1594 1594 1594 1594 1594 1594 1594 1601 1601 1601 1601 1601 1601 1601 1601 1601 1601 1601 1601 1601 1601 1601 1601 1601 1601 1601 1601 1601 1601 1601 1601 1601 1601 1609 1609 1609 1609 1616 1616 1616 1616 1624 1624 1624 1624 1624 1624 1624 1624 1624 1624 1624 1624 1616 1616 1616 1616 1609 1609 1616 1616 1616 1616 1624 1632 2333 2333 2365 2381 2381 2381 2381 2398 2398 2398 2398 2398 2398 2398 2398 2398 2381 2381 2381 2381 2381 2381 2381 2381 2398 2398 2398 2398 2398 2398 2398 2398 2398 2398 2398 2398 2398 2398 2398 2398 2398 2398 2398 2398 1804 1804 1794 1794 1794 1794 1785 1785 1785 1785 1785 1785 1785 1785 1785 1785 1785 1785 1785 1785 1766 1766 1766 2398 2398 2398 2398 2398 2398 2398 2398 2398 2415 2415 2415 2415 2415 2415 2398 2398 2398 2398 2398 2398 2381 2381 2381 2381 2381 2381 2381 2381 2381 2381 2381 2381 2381 2381 2381 2381 2381 2381 2381 2381 2381 2381 2381 2381 2381 2398 2398 2398 2398 2398 2398 2398 2398 2398 2398 2398 2398 2398 2398 2398 2398 2398 2398 2398 2398 2415 2415 2415 2415 2415 2415 2415 2415 2415 2415 2415 2415 2432 2432 2432 2432 2432 2432 2432 2432 2415 2415 2415 2415 2415 2432 2432 2432 2432 2432 2432 2432 2432 2432 2432 2432 2432 2432 2432 2432 2432 2432 2415 2415 2415 2398 2398 2398 2415 2415 2415 2415 2415 2415 2415 2398 2398 2398 2398 2381 2381 2381 2381 2398 2398 2398 2398 2398 2398 2398 2398 2398 2398 2398 2398 2398 2398 2398 2381 2381 2381 2381 2365 2365 0 0 0 0 0 0 0 0 0
0 0 0 0 0 0 0 0 0 0 0 0 0 0 0 0 0 0 0 0 0 0 0 0 0 0 0 0 0 0 0 0 0 2212 2212 2212 2212 2212 2212 2212 2212 2212 2212 2212 2212 2212 2212 2212 2212 2212 2212 2212 2212 2212 2212 2212 2212 2212 2212 2212 2212 2212 2212 2212 2212 2212 2198 2198 2198 2198 2198 2198 2198 2212 2212 2212 2212 2212 2212 2226 2226 2212 2212 2212 2212 2212 2212 2212 2212 2212 2212 2212 2212 2212 2212 2226 2226 2226 2226 2226 2226 2226 2226 2226 2226 2226 2241 2241 2241 2256 2256 2256 2256 1586 1586 1586 1586 1586 1586 1586 1594 1594 1594 1594 1594 1594 1594 1594 1601 1601 1609 1609 1616 1624 1523 1523 1529 1529 1536 1536 1536 1536 1543 1543 1550 1550 1557 1557 1557 1557 1564 1564 1564 1564 1557 1557 1550 1550 1550 1557 1557 1564 1564 1564 1564 1564 1572 1564 1564 1564 1564 1564 1564 1564 1564 1564 1572 1572 1572 1572 1572 1572 1572 1579 1579 1579 1579 1579 1579 1579 1579 1579 1579 1586 1586 1586 1586 1586 1586 1586 1586 1586 1586 1586 1586 1586 1586 1586 1594 1594 1594 1594 1601 1601 1601 1601 1601 1601 1601 1601 1609 1609 1609 1609 1609 1609 1609 1609 1609 1609 1609 1609 1609 1609 1609 1609 1609 1616 1609 1609 1609 1609 1609 1601 1594 1594 1601 1601 1601 1601 1601 1601 1601 0 2301 2301 2301 2317 2301 2301 2301 2301 2103 2103 2116 2116 2116 2116 2116 2116 2116 2301 2317 2317 2317 2333 2333 2333 2317 2317 2317 2317 1981 1981 1981 1981 1981 1981 1981 1981 1981 1981 1981 2333 2333 2349 2333 2317 2317 2317 2317 1572 1572 1572 1557 1557 1557 1557 1557 1557 1557 1564 1564 1572 1572 1572 1572 1572 1579 1579 1579 1579 1579 1579 1579 1586 1586 1579 1579 1586 1586 1586 1579 1579 1586 1586 1586 1586 1586 1586 1586 1586 1586 1594 1594 1594 1594 1594 1594 1594 1594 1594 1601 1601 1601 1601 1601 1601 1601 1601 1601 1601 1601 1601 1601 1609 1609 1609 1601 1601 1609 1609 1601 1601 1601 1601 1601 1601 1609 1601 1601 1609 1609 1616 1616 1616 1616 1624 1624 1624 1624 1624 1624 1624 1632 1632 1632 1632 1632 1632 1624 1624 1624 1624 1624 1624 1624 1624 1624 1624 1624 1624 1632 1632 2333 2333 2365 2381 2381 2381 2381 2381 2381 2381 2381 2381 2381 2381 2381 2381 2381 2381 2381 2381 2381 2381 2381 2381 2381 2381 2381 2381 2381 2398 2398 2398 2398 2398 2398 2398 2398 2381 2381 2381 2381 2381 2381 2381 1804 1804 1794 1794 1794 1794 1794 1785 1785 1785 1785 1785 1785 1785 1785 1785 1785 1785 1785 1785 1776 1776 2398 2398 2398 2398 2398 2398 2398 2398 2398 2398 2398 2398 2398 2398 2398 2398 2398 2398 2398 2398 2398 2381 2381 2381 2381 2381 2381 2381 2381 2381 2381 2381 2381 2381 2381 2381 2381 2381 2381 2381 2381 2381 2381 2381 2381 2381 2381 2381 2381 2381 2381 2381 2398 2398 2398 2398 2398 2398 2398 2398 2398 2381 2381 2381 2381 2381 2398 2398 2398 2398 2398 2398 2398 2398 2398 2398 2398 2398 2398 2415 2415 2415 2432 2432 2415 2415 2415 2415 2415 2398 2398 2415 2415 2415 2415 2432 2432 2415 2415 2415 2432 2432 2432 2432 2432 2432 2432 2432 2432 2415 2415 2398 2398 2398 2398 2415 2398 2398 2415 2415 2415 2415 2398 2398 2398 2398 2381 2381 2381 2381 2381 2398 2398 2398 2398 2398 2398 2398 2398 2398 2381 2381 2381 2381 2381 2381 2365 2365 2365 2365 2365 0 0 0 0 0 0 0 0 0
0 0 0 0 0 0 0 0 0 0 0 0 0 0 0 0 0 0 0 0 0 0 0 0 0 0 0 0 0 0 0 0 0 2212 2184 2184 2198 2198 2198 2198 2198 2212 2212 2212 2212 2212 2212 2212 2212 2212 2212 2198 2198 2212 2212 2212 2212 2212 2212 2212 2212 2212 2212 2212 2212 2212 2198 2198 2198 2198 2198 2198 2198 2198 2212 2212 2212 2212 2212 2212 2212 2212 2212 2212 2212 2212 2212 2212 2212 2212 2212 2212 2212 2212 2212 2212 2212 2226 2226 2226 2226 2226 2226 2226 2226 2226 2226 2226 2241 2241 2241 2256 2256 1586 1586 1586 1586 1586 1586 1586 1594 1594 1594 1594 1594 1594 1594 1594 1594 1601 1609 1616 1616 1632 1523 1523 1529 1529 1529 1529 1536 1536 1543 1543 1550 1550 1557 1557 1557 1564 1564 1564 1564 1564 1564 1564 1557 1557 1557 1557 1564 1564 1564 1572 1572 1572 1572 1572 1572 1572 1564 1564 1564 1572 1572 1572 1572 1572 1572 1572 1572 1572 1579 1579 1579 1579 1579 1579 1579 1579 1579 1579 1586 1586 1586 1586 1586 1586 1586 1586 1586 1586 1586 1586 1586 1594 1594 1594 1594 1594 1594 1601 1601 1601 1601 1601 1601 1609 1609 1609 1609 1609 1609 1609 1609 1609 1609 1609 1609 1609 1609 1609 1609 1616 1616 1616 1616 1616 1616 1609 1609 1609 1609 1601 1601 1601 1601 1601 1601 1601 1601 1601 1601 0 2301 2301 2301 2301 2301 2301 2286 2286 2116 2116 2116 2116 2116 2116 2116 2116 2129 2129 2317 2317 2317 2317 2317 2317 2317 2317 2317 2317 1981 1981 1981 1981 1981 1981 1981 1981 1981 1981 1981 2317 2317 2333 2333 2317 2317 2317 2317 0 1572 1572 1564 1564 1564 1557 1557 1557 1564 1564 1564 1572 1572 1572 1572 1572 1579 1579 1579 1579 1579 1586 1586 1586 1586 1586 1586 1594 1594 1586 1586 1586 1586 1586 1586 1586 1586 1594 1594 1594 1594 1594 1594 1594 1594 1594 1594 1594 1594 1601 1601 1601 1601 1601 1601 1601 1601 1601 1601 1601 1609 1609 1609 1609 1609 1609 1609 1609 1609 1609 1609 1609 1609 1609 1609 1609 1616 1609 1609 1616 1616 1624 1624 1624 1624 1624 1624 1624 1632 1632 1632 1632 1632 1632 1632 1632 1632 1632 1632 1624 1624 1624 1624 1624 1624 1624 1624 1624 1624 1624 1632 1632 2365 2365 2365 2365 2365 2365 2381 2381 2381 2381 2381 2381 2381 2381 2381 2381 2365 2365 2365 2365 2365 2381 2381 2381 2381 2381 2381 2381 2381 2381 2381 2381 2381 2381 2381 2398 2381 2381 2381 2381 2381 2365 2365 2365 1804 1804 1804 1794 1794 1794 1794 1794 1785 1785 1785 1785 1785 1785 1785 1785 1785 1785 1785 1785 1785 2381 2381 2381 2381 2381 2398 2398 2381 2381 2381 2381 2398 2398 2398 2398 2398 2398 2398 2398 2398 2398 2398 2381 2365 2365 2381 2381 2365 2365 2365 2365 2381 2381 2365 2365 2381 2381 2381 2381 2381 2381 2381 2381 2381 2381 2381 2381 2381 2381 2381 2381 2381 2381 2381 2381 2381 2381 2381 2381 2381 2381 2381 2381 2381 2381 2381 2381 2381 2381 2381 2381 2381 2398 2381 2381 2381 2381 2381 2398 2398 2398 2415 2415 2415 2415 2415 2415 2415 2398 2398 2398 2398 2398 2398 2398 2415 2415 2415 2398 2398 2415 2415 2415 2415 2415 2415 2432 2432 2432 2432 2398 2398 2381 2381 2381 2381 2381 2381 2398 2398 2398 2398 2415 2398 2398 2398 2381 2381 2381 2381 2381 2381 2381 2381 2398 2398 2381 2381 2381 2381 2381 2381 2381 2381 2365 2365 2365 2365 2365 2365 2365 2365 0 0 0 0 0 0 0 0 0
