0 0 0 0 0 0 0 0 0 0 0 0 0 0 0 0 0 0 0 0 0 0 0 0 0 0 0 0 0 0 0 0 0 2560 2560 2560 2560 2560 2560 2579 2579 2579 2579 2579 2598 2598 2598 2618 2618 2639 2639 2639 2659 2659 2659 2659 2659 2659 2680 2680 2701 2701 2701 2701 2701 2701 2723 2723 2723 2723 2723 2723 2744 2744 2744 2767 2767 2767 2767 2767 2767 2789 2789 2789 2789 2789 2812 2812 2812 2859 2859 2883 2883 2883 2883 2883 2883 2883 2883 2883 2908 2933 2958 2958 2958 2958 2958 2958 2958 2958 2958 2984 2984 2984 2984 2984 3010 3010 3010 3010 3037 3037 3037 3037 3064 3064 3064 3064 3064 3064 3092 3092 3092 3092 3120 3120 3120 3149 3149 3178 3178 3178 3178 3178 3178 3208 3208 3208 3208 3238 3238 3238 3238 3269 3238 3238 3269 3269 3269 3333 3333 3333 3333 3365 3365 3365 3399 3399 3399 3399 3399 3399 3399 3433 3433 3433 3433 3433 3468 3468 3468 3468 3468 3503 3503 3539 3539 3539 3539 3539 3539 3576 3576 3576 3576 3576 3576 3576 3614 3614 3653 3653 3653 3692 3692 3692 3692 3732 3732 3732 3732 3732 3774 3774 3816 3859 3859 3859 3859 3859 3859 3903 3903 3903 0 0 0 5548 5460 5460 5460 5460 5460 5460 5460 5460 5548 5548 5548 5548 5548 5640 5734 5734 5734 5734 5734 0 0 0 0 0 0 0 0 0 0 0 0 0 0 0 5933 5933 6146 6146 6146 6038 6038 5933 5933 5460 5460 5460 5460 5460 5460 5548 5548 5640 5640 5548 5548 5548 5460 5460 5374 5374 5460 5460 5374 5374 5374 5291 5291 5291 5291 5291 5291 5210 5210 5210 5132 5132 5132 5056 5056 5132 5210 5210 5291 5291 5291 5291 5291 5374 5374 5374 5291 5291 5291 5291 5291 5210 5210 5210 5210 5210 5210 5210 5210 5210 5210 5210 5210 5210 5291 5291 5291 5291 5374 5374 5460 5460 5460 5548 5548 5548 5548 5548 5548 0 2271 2271 2271 2271 2271 2271 2271 2286 2286 2286 2286 2271 2271 2256 2226 2226 2226 2226 2226 3178 3178 3178 3208 3238 3269 3300 3300 3300 3300 3333 3333 3333 3333 3269 3269 3269 3269 3269 3269 3269 3269 3269 2212 2198 2198 2212 2212 2212 2212 2212 2212 2198 2184 2184 2184 2184 2184 2184 2184 2170 2170 2156 2156 2156 2156 2156 2156 2143 2143 2143 2143 2129 2129 2129 2129 2129 2129 2129 2129 2129 2129 3120 3178 3178 3178 3178 3178 3178 3178 3178 3178 3178 3178 3178 3208 3178 3178 3178 3178 3178 3178 3178 3178 3178 3178 3178 3178 3178 3178 3149 3149 3178 3178 3178 3178 3178 3178 3178 3178 3149 3149 3120 3120 3120 3120 3120 3120 3120 3120 3120 3092 3092 3092 3092 3092 3092 3092 3092 3092 3092 3092 3092 3092 3092 1993 1993 1993 1970 1970 1970 1970 1970 1970 1970 1981 1981 1981 1981 1981 1981 1970 1970 1970 1970 1959 1959 1947 1947 1947 1947 1947 1947 1947 1947 1947 1947 1947 1947 1936 1936 1936 1936 1936 1936 1936 1936 1936 1936 1936 1936 1926 1926 1926 1915 1904 1904 1915 1915 1915 1915 1915 1904 1904 1904 1894 1894 1894 1894 1883 1883 1883 1883 1883 1883 1883 1883 1883 1873 1863 1853 1853 1853 1843 1843 1843 1843 1853 1813 1813 1823 1823 1823 1823 1823 1823 1823 1823 1813 1813 1813 1813 1813 1813 1813 1813 1813 5210 5132 5132 5210 5210 5210 5210 6038 6038 6038 6038 6038 6038 6038 6038 6038 6038 6038 5933 5933 5933 5832 5548 5291 5132 5132 5132 5132 5132 0 0 0 0 0 0 0 0 0 0 0 0 0
0 0 0 0 0 0 0 0 0 0 0 0 0 0 0 0 0 0 0 0 0 0 0 0 0 0 0 0 0 0 0 0 0 2560 2560 2560 2560 2560 2560 2579 2579 2598 2598 2598 2598 2598 2618 2618 2618 2639 2639 2639 2639 2659 2659 2659 2659 2659 2680 2680 2701 2701 2701 2701 2701 2701 2723 2723 2723 2701 2701 2723 2744 2744 2744 2767 2767 2767 2767 2767 2767 2789 2789 2789 2789 2789 2812 2812 2812 2859 2859 2883 2883 2883 2908 2908 2883 2883 2883 2883 2908 2933 2933 2958 2958 2958 2958 2958 2958 2958 2958 2984 2984 2984 2984 2984 3010 3010 3010 3010 3037 3037 3064 3064 3064 3064 3064 3064 3064 3092 3092 3092 3092 3092 3092 3120 3120 3149 3149 3178 3178 3178 3178 3178 3178 3208 3208 3208 3238 3238 3238 3238 3238 3269 3238 3238 3269 3269 3269 3300 3333 3333 3333 3365 3365 3365 3399 3399 3399 3399 3399 3399 3399 3433 3433 3433 3433 3433 3433 3468 3468 3468 3468 3503 3503 3539 3539 3539 3539 3539 3539 3539 3539 3576 3576 3576 3576 3576 3614 3614 3653 3653 3653 3692 3692 3692 3732 3732 3732 3732 3774 3774 3774 3816 3816 3859 3859 3859 3859 3859 3859 3903 3903 3903 3903 0 5460 5460 5460 5374 5374 5374 5374 5374 5374 5460 5548 5548 5548 5548 5548 5640 5734 5734 5734 5734 5734 0 0 0 0 0 0 0 0 0 0 0 0 0 0 0 0 6146 6146 6146 6146 6146 6038 6038 6038 5460 5460 5460 5460 5460 5460 5548 5548 5640 5640 5640 5640 5640 5548 5460 5460 5460 5460 5460 5374 5374 5374 5291 5291 5291 5291 5291 5291 5210 5132 5132 5132 5132 5132 5056 5056 5132 5210 5210 5291 5291 5291 5374 5374 5374 5374 5374 5291 5291 5291 5291 5291 5210 5210 5210 5210 5210 5210 5210 5210 5210 5210 5291 5291 5291 5291 5291 5291 5291 5291 5374 5460 5460 5548 5548 5548 5548 5548 5548 5548 2271 2271 2271 2271 2271 2271 2271 2286 2286 2286 2286 2286 2286 2286 2286 3120 3120 3120 3149 3149 3149 3120 3120 3149 3149 3149 3149 3149 3178 3178 3208 3208 3149 3149 3178 3208 3208 3208 3149 3149 3149 3149 3149 3149 3208 2212 2212 2212 2212 3238 2212 2212 2198 2184 2184 2184 2184 2184 2184 2184 2170 2170 2156 2156 2156 2156 2143 2143 2143 2143 2143 2143 2129 2129 2129 2129 2129 2129 2129 2129 2129 2143 3120 3178 3178 3178 3178 3178 3178 3178 3178 3178 3178 3178 3178 3208 3178 3178 3178 3178 3178 3178 3178 3178 3178 3178 3178 3178 3178 3178 3149 3149 3178 3178 3178 3178 3178 3178 3178 3178 3149 3149 3149 3149 3120 3120 3120 3120 3120 3120 3120 3092 3092 3092 3092 3092 3092 3092 3092 3092 3092 3092 3092 3092 1993 1993 1993 1993 1970 1970 1970 1970 1970 1970 1981 1981 1981 1981 1981 1981 1981 1970 1970 1970 1970 1959 1959 1947 1947 1947 1947 1947 1947 1947 1947 1947 1947 1947 1947 1936 1936 1936 1936 1936 1936 1936 1936 1936 1936 1926 1926 1926 1926 1926 1926 1926 1926 1926 1926 1926 1915 1915 1904 1904 1904 1894 1894 1894 1894 1883 1883 1883 1883 1883 1883 1883 1883 1883 1873 1863 1863 1863 1853 1853 1843 1843 1853 1853 1823 1823 1823 1833 1833 1833 1823 1823 1823 1823 1813 1813 1813 1813 1813 1813 1813 1813 1813 1833 1843 5132 5210 5210 5210 5210 6038 6038 6038 6038 6038 6038 6038 6038 6038 6038 5933 5933 5933 5832 5734 5374 5291 5132 5132 5132 5132 5132 0 0 0 0 0 0 0 0 0 0 0 0 0
0 0 0 0 0 0 0 0 0 0 0 0 0 0 0 0 0 0 0 0 0 0 0 0 0 0 0 0 0 0 0 0 0 2560 2560 2560 2579 2579 2579 2579 2579 2598 2598 2598 2598 2598 2618 2618 2618 2639 2639 2639 2639 2639 2639 2639 2659 2659 2680 2680 2701 2701 2701 2701 2701 2701 2723 2723 2723 2701 2701 2701 2723 2744 2744 2767 2767 2767 2767 2767 2789 2789 2789 2789 2789 2789 2812 2812 2812 2859 2859 2883 2883 2883 2883 2908 2883 2883 2883 2883 2883 2908 2933 2958 2958 2958 2958 2958 2958 2958 2984 2984 2984 2984 2984 2984 2984 3010 3010 3010 3037 3037 3064 3064 3064 3064 3064 3064 3064 3092 3092 3092 3092 3092 3092 3120 3120 3149 3149 3178 3178 3178 3178 3178 3178 3208 3208 3208 3238 3238 3238 3238 3269 3269 3238 3238 3269 3269 3300 3300 3333 3333 3333 3365 3365 3365 3399 3399 3399 3399 3399 3399 3433 3433 3433 3433 3433 3433 3433 3468 3468 3468 3468 3503 3503 3503 3539 3539 3539 3539 3539 3539 3539 3576 3576 3576 3576 3614 3614 3653 3653 3653 3692 3692 3692 3692 3732 3732 3732 3732 3774 3774 3774 3816 3816 3859 3859 3859 3859 3859 3859 3903 3903 3903 0 0 5460 5460 5460 5374 5374 5374 5374 5374 5374 5460 5548 5548 5548 5548 5548 5640 5734 5734 5734 5734 5734 0 0 0 0 0 0 0 0 0 0 0 0 0 0 0 0 6146 6146 6146 6146 6146 6259 6146 6146 5460 5460 5460 5460 5460 5460 5548 5548 5640 5640 5640 5640 5640 5548 5460 5460 5460 5460 5460 5374 5374 0 0 0 0 0 0 5291 5210 5132 5132 5132 5132 5132 5056 5056 5132 5210 5210 5291 5291 5291 5374 5460 5460 5374 5374 5291 5291 5291 5291 5291 5291 5291 5291 5210 5210 5291 5291 5291 5291 5291 5291 5291 5291 5291 5291 5291 5291 5291 0 0 0 0 0 0 0 5548 5548 5548 2271 2271 2271 2271 2271 2271 2286 2286 2286 2286 2286 2286 2286 2286 2286 3120 3120 3120 3149 3149 3120 3120 3120 3120 3120 3120 3120 3120 3120 3120 3120 3120 3120 3120 3120 3120 3120 3120 3120 3120 3120 3120 3120 3120 3120 3149 3149 3120 3120 3120 3120 3120 3120 3120 3092 2198 2184 2184 2184 2170 2170 2170 2156 2156 2156 2143 2143 2129 2129 2116 2116 2129 2129 2129 2129 2129 2129 2143 2143 2143 2143 2156 3178 3149 3149 3149 3149 3149 3149 3178 3178 3178 3178 3178 3178 3178 3178 3178 3178 3149 3149 3149 3178 3178 3178 3178 3178 3178 3178 3178 3178 3178 3178 3178 3178 3178 3178 3178 3178 3149 3149 3149 3149 3149 3149 3149 3120 3120 3120 3120 3120 3092 3092 3092 3092 3092 3092 3092 3064 3064 3064 3092 3092 3092 1993 1981 1981 1993 1981 1981 1981 1981 1981 1981 1981 1981 1981 1981 1981 1981 1981 1970 1970 1970 1970 1959 1959 1947 1947 1947 1947 1947 1947 1947 1947 1947 1947 1947 1947 1936 1936 1936 1936 1936 1936 1936 1936 1936 1936 1926 1926 1926 1926 1926 1926 1926 1915 1915 1926 1915 1915 1915 1904 1904 1904 1904 1894 1894 1894 1894 1883 1883 1883 1883 1883 1883 1883 1883 1883 1863 1863 1863 1863 1863 1853 1853 1853 1853 1853 1853 1853 1853 1853 1853 1843 1823 1823 1823 1813 1813 1813 1813 1823 1813 1813 1813 1813 1833 1843 1843 5210 5210 5210 5933 5933 5933 6038 6038 6038 6038 6038 6038 6038 6038 5933 5933 5933 5832 5640 5374 5210 5210 5132 5132 5132 5132 0 0 0 0 0 0 0 0 0 0 0 0 0
0 0 0 0 0 0 0 0 0 0 0 0 0 0 0 0 0 0 0 0 0 0 0 0 0 0 0 0 0 0 0 0 0 2560 2560 2560 2560 2579 2579 2579 2579 2598 2598 2598 2598 2598 2618 2618 2618 2639 2639 2639 2639 2639 2639 2639 2659 2659 2680 2680 2701 2701 2701 2701 2701 2701 2723 2723 2723 2701 2701 2701 2723 2744 2744 2767 2767 2767 2767 2767 2789 2789 2789 2789 2789 2812 2812 2835 2835 2835 2859 2859 2859 2859 2883 2883 2883 2883 2883 2883 2883 2908 2933 2958 2958 2958 2958 2958 2958 2958 2984 2984 2984 2984 2984 2984 2984 2984 3010 3010 3037 3037 3064 3064 3064 3064 3064 3064 3092 3092 3092 3092 3092 3092 3092 3120 3120 3149 3149 3178 3178 3178 3178 3178 3208 3208 3208 3208 3238 3238 3238 3269 3269 3269 3269 3269 3269 3300 3300 3300 3300 3333 3365 3365 3365 3365 3399 3399 3399 3399 3399 3433 3433 3433 3433 3433 3433 3433 3468 3468 3468 3468 3468 3503 3503 3503 3539 3539 3539 3539 3539 3539 3576 3576 3576 3576 3576 3614 3614 3614 3692 3692 3692 3692 3692 3692 3732 3732 3732 3732 3774 3774 3774 3816 3816 3859 3859 3859 3859 3859 3859 3903 3903 3903 0 0 5460 5460 5460 5460 5460 5460 5460 5460 5460 5460 5548 5640 5548 5548 5548 5640 5734 5734 5734 5734 5734 0 0 0 0 0 0 0 0 0 0 0 0 0 0 0 0 6146 6146 6146 6038 6038 6146 6146 6259 5548 5460 5460 5460 5460 5460 5548 5548 5640 5640 5640 5640 5640 5548 5460 5460 5460 5460 5460 5374 5374 0 0 0 0 0 0 0 0 5210 5132 5132 5132 5132 5132 5132 5132 5210 5291 5291 5291 5374 5460 5548 5548 5374 5374 5291 5291 5291 5291 5291 5291 5291 5291 5291 5291 5291 5291 5291 5374 5374 5291 5291 5291 5291 5291 5291 5291 0 0 0 0 0 0 0 0 0 0 0 2271 2271 2271 2271 2271 2271 2286 2286 2286 2286 2286 2286 2286 2286 2286 3149 3120 3120 3149 3149 3120 3120 3120 3120 3120 3120 3120 3120 3120 3120 3120 3120 3120 3120 3120 3120 3120 3120 3120 3120 3120 3120 3120 3120 3120 3120 3120 3120 3120 3120 3120 3120 3120 3120 3092 3092 3092 3120 3149 2170 2170 2170 2156 2156 2156 2143 2129 2129 2116 2116 2116 2116 2129 2129 2129 2129 2129 2143 2143 2143 2143 2156 2156 3120 3120 3120 3120 3149 3149 3149 3149 3149 3178 3178 3178 3178 3149 3149 3149 3149 3149 3149 3149 3149 3178 3149 3149 3149 3149 3149 3149 3149 3149 3178 3178 3178 3178 3178 3178 3149 3149 3120 3120 3120 3092 3092 3092 3092 3092 3092 3092 3092 3092 3064 3064 3064 3064 3064 3064 3064 3064 3064 3064 3092 3092 1981 1981 1981 1970 1970 1981 1981 1981 1981 1981 1981 1981 1981 1981 1981 1981 1970 1970 1970 1970 1959 1947 1947 1947 1947 1947 1947 1947 1947 1947 1947 1947 1947 1947 1947 1936 1936 1936 1936 1936 1936 1936 1936 1936 1926 1926 1926 1926 1926 1926 1915 1915 1915 1915 1915 1915 1904 1904 1904 1904 1904 1894 1894 1894 1894 1894 1894 1894 1883 1883 1883 1883 1883 1873 1873 1873 1863 1863 1863 1853 1853 1853 1853 1853 1853 1853 1843 1843 1853 1843 1833 1823 1823 1823 1813 1813 1813 1823 1823 1823 1823 1823 1833 1843 1843 0 1843 0 5933 5933 5933 6038 6038 6038 6038 6038 6038 6038 6038 5933 5933 5832 5734 5374 5374 5210 5210 5132 5132 5132 5132 0 0 0 0 0 0 0 0 0 0 0 0 0
0 0 0 0 0 0 0 0 0 0 0 0 0 0 0 0 0 0 0 0 0 0 0 0 0 0 0 0 0 0 0 0 0 2560 2560 2560 2560 2579 2579 2579 2579 2598 2598 2598 2598 2598 2618 2618 2639 2639 2639 2639 2639 2639 2639 2639 2659 2659 2680 2701 2701 2701 2701 2701 2701 2701 2723 2723 2723 2701 2701 2701 2744 2744 2767 2767 2767 2767 2767 2767 2789 2789 2789 2789 2789 2812 2812 2835 2835 2835 2859 2859 2859 2859 2883 2883 2883 2883 2883 2908 2908 2908 2933 2958 2958 2958 2958 2958 2958 2984 2984 2984 2984 2984 2984 2984 2984 2984 3010 3010 3037 3037 3037 3064 3064 3064 3064 3064 3092 3092 3092 3092 3092 3092 3092 3120 3120 3149 3178 3178 3178 3178 3178 3208 3208 3208 3208 3208 3238 3238 3238 3269 3269 3300 3269 3269 3300 3300 3300 3300 3300 3365 3365 3365 3365 3365 3399 3399 3399 3399 3399 3433 3433 3433 3433 3433 3433 3433 3468 3468 3468 3468 3468 3503 3503 3503 3539 3539 3539 3539 3539 3539 3576 3576 3576 3576 3614 3614 3614 3614 3653 3653 3692 3692 3692 3692 3732 3732 3732 3732 3774 3774 3816 3816 3816 3859 3859 3859 3903 3903 3903 3948 3994 0 0 0 5548 5548 5460 5460 5460 5460 5460 5460 5460 5548 5548 5640 5548 5548 5548 5640 5734 5734 5734 5734 5734 0 0 0 0 0 0 0 0 0 0 0 0 0 0 0 0 6146 6146 6146 6038 6038 6146 6146 6146 5548 5548 5548 5548 5548 5548 5548 5548 5640 5640 5640 5640 5640 5548 5548 5460 5460 5548 5548 5548 0 0 0 0 0 0 0 0 0 0 5132 5132 5132 5132 5132 5132 5132 5210 5291 5291 5291 5374 5548 5734 5832 5832 5460 5374 5374 5374 5374 5374 5291 5291 5374 5291 5291 5291 5291 5291 5291 5374 5291 5291 5291 5291 0 0 0 0 0 0 0 0 0 0 0 0 0 0 2271 2271 2271 2271 2271 2271 2286 2286 2286 2286 2286 2286 2286 2286 3149 3149 3120 3120 3149 3149 3120 3120 3120 3120 3120 3092 3092 3092 3092 3120 3120 3092 3092 3092 3092 3092 3092 3092 3120 3120 3120 3120 3120 3120 3120 3120 3120 3120 3120 3120 3120 3120 3120 3120 3120 3120 3120 3120 3120 3120 3149 3149 3064 3064 3037 2129 2129 2116 2116 2116 2116 2116 2129 2129 2143 2143 2143 2143 2143 2143 2156 2156 2156 3120 3092 3092 3092 3120 3149 3149 3149 3149 3149 3149 3149 3149 3149 3149 3149 3120 3120 3092 3092 3149 3178 3064 3064 3149 3092 3092 3092 3120 3120 3149 3149 3178 3178 3178 3178 3149 3149 3120 3120 3120 3092 3092 3092 3092 3064 3064 3064 3064 3064 3064 3064 3064 3064 3064 3064 3064 3064 3064 3064 3092 3092 1981 1981 1981 1970 1970 1981 1981 1981 1981 1981 1981 1981 1981 1981 1981 1970 1970 1959 1959 1959 1959 1947 1947 1947 1947 1947 1947 1947 1947 1947 1947 1947 1947 1947 1947 1936 1936 1936 1936 1936 1936 1936 1936 1936 1926 1926 1926 1926 1926 1926 1915 1915 1915 1915 1915 1904 1904 1904 1904 1894 1894 1894 1894 1894 1894 1894 1894 1894 1883 1883 1883 1883 1883 1873 1873 1863 1863 1863 1863 1853 1853 1853 1853 1853 1853 1853 1843 1843 1843 1843 1823 1823 1823 1823 1823 1813 1813 1813 1813 1823 1823 1823 1843 0 1843 0 0 0 6038 6038 6038 6038 6038 6038 6038 6038 6038 6038 6038 5933 5933 5832 5640 5374 5374 5210 5210 5210 5210 5210 5210 0 0 0 0 0 0 0 0 0 0 0 0 0
0 0 0 0 0 0 0 0 0 0 0 0 0 0 0 0 0 0 0 0 0 0 0 0 0 0 0 0 0 0 0 0 0 2560 2560 2560 2579 2579 2579 2579 2579 2598 2598 2598 2598 2598 2618 2618 2639 2639 2639 2639 2639 2639 2659 2659 2659 2659 2680 2701 2701 2701 2701 2723 2701 2701 2723 2723 2723 2701 2701 2701 2744 2744 2767 2767 2767 2767 2767 2789 2789 2789 2789 2812 2812 2812 2835 2835 2835 2835 2859 2859 2859 2859 2859 2859 2883 2883 2883 2908 2908 2908 2933 2958 2958 2958 2958 2958 2958 2984 2984 2984 2984 2984 2984 3010 3010 3010 3010 3037 3037 3037 3037 3064 3064 3064 3064 3092 3092 3092 3092 3092 3092 3092 3092 3120 3120 3149 3178 3178 3178 3178 3178 3208 3208 3208 3208 3238 3238 3238 3238 3269 3300 3300 3269 3269 3300 3300 3300 3300 3333 3365 3365 3365 3365 3365 3399 3399 3399 3399 3399 3433 3433 3433 3433 3433 3433 3433 3433 3433 3468 3468 3503 3503 3503 3539 3539 3539 3539 3539 3539 3539 3576 3576 3576 3614 3614 3614 3614 3614 3653 3653 3692 3692 3692 3692 3732 3732 3732 3732 3774 3774 3816 3816 3859 3859 3859 3859 3903 3903 3903 3948 3994 0 0 0 5548 5548 5460 5460 5460 5548 5460 5460 5460 5460 5548 5548 5548 5548 5548 5734 5734 5734 5832 5832 0 0 0 0 0 0 0 0 0 0 0 0 0 0 0 0 0 6146 6146 6146 6038 6038 6038 6038 6038 5548 5548 5548 5548 5548 5548 5548 5548 5640 5640 5640 5640 5640 5548 5548 5548 5548 5548 5548 5548 0 0 0 0 0 0 0 0 0 0 5132 5132 5132 5132 5132 5132 5132 5210 5291 5291 5291 5374 5640 5832 5933 6146 6375 6375 6375 6375 6259 5548 5291 5291 5374 5291 5291 5291 5291 5291 5291 5374 5374 5374 0 0 0 0 0 0 0 0 0 0 0 0 0 0 2256 2256 2271 2271 2271 2271 2286 2286 2286 2286 2286 2286 2286 2286 2286 2286 3149 3149 3120 3120 3149 3149 3120 3120 3120 3120 3120 3092 3092 3092 3092 3092 3092 3092 3092 3092 3092 3092 3092 3092 3092 3120 3120 3120 3092 3092 3092 3092 3120 3120 3120 3120 3120 3120 3120 3120 3120 3120 3120 3120 3120 3120 3120 3120 3064 3064 3037 3037 3037 2116 2116 2116 2116 2116 2129 2143 2143 2143 2143 2143 2143 2143 2156 2156 2156 3064 3064 3064 3064 3092 3092 3064 3064 3092 3092 3149 3149 3149 3120 3120 3149 3120 3120 3092 3092 3092 3064 3064 3064 3064 3092 3092 3092 3064 3064 3120 3149 3178 3178 3178 3178 3149 3149 3149 3092 3092 3064 3064 3037 3037 3037 3037 3037 3037 3037 3037 3037 3064 3064 3064 3064 3037 3037 3064 3064 3064 1993 1981 1981 1993 1981 1981 1981 1981 1981 1981 1981 1981 1981 1981 1981 1981 1970 1970 1959 1959 1959 1947 1947 1947 1959 1959 1959 1959 1947 1947 1947 1947 1947 1947 1947 1947 1947 1936 1936 1936 1936 1936 1936 1936 1936 1926 1926 1926 1926 1926 1926 1915 1915 1915 1915 1915 1904 1904 1904 1904 1894 1894 1894 1894 1894 1894 1894 1894 1883 1883 1883 1883 1883 1883 1873 1873 1863 1863 1863 1863 1853 1853 1853 1853 1853 1853 1853 1843 1843 1843 1843 1823 1823 1823 1823 1823 1813 1813 1813 1813 1813 1823 1823 1843 0 0 0 0 0 6038 6038 6038 6038 6038 6038 6038 6038 6038 6038 6038 5933 5933 5832 5640 5374 5374 5210 5210 5210 5210 5210 5210 0 0 0 0 0 0 0 0 0 0 0 0 0
0 0 0 0 0 0 0 0 0 0 0 0 0 0 0 0 0 0 0 0 0 0 0 0 0 0 0 0 0 0 0 0 0 2560 2560 2579 2579 2579 2579 2579 2598 2598 2598 2598 2598 2598 2618 2639 2639 2639 2639 2639 2639 2659 2659 2659 2659 2659 2680 2701 2701 2701 2701 2723 2723 2723 2723 2723 2723 2701 2701 2701 2744 2767 2767 2767 2767 2767 2789 2789 2789 2789 2789 2812 2812 2812 2835 2835 2835 2835 2859 2859 2859 2859 2859 2859 2883 2883 2883 2883 2883 2883 2933 2958 2958 2958 2958 2958 2958 2958 2984 2984 2984 2984 2984 3010 3010 3010 3010 3037 3037 3037 3064 3064 3064 3064 3092 3092 3092 3092 3092 3092 3092 3092 3092 3120 3120 3149 3178 3178 3178 3208 3208 3208 3208 3208 3208 3238 3238 3238 3269 3300 3300 3300 3269 3269 3300 3300 3300 3300 3300 3399 3399 3399 3399 3399 3399 3399 3399 3399 3399 3433 3433 3433 3433 3433 3433 3433 3433 3433 3468 3468 3468 3503 3539 3539 3539 3539 3539 3539 3539 3539 3576 3576 3576 3614 3614 3614 3653 3653 3653 3692 3692 3692 3692 3692 3692 3732 3732 3732 3774 3774 3816 3816 3859 3859 3859 3859 3903 3948 3948 0 0 0 0 0 0 5640 5374 5374 5460 5460 5460 5460 5460 5460 5548 5548 5548 5548 5548 5734 5734 5734 5832 5832 0 0 0 0 0 0 0 0 0 0 0 0 0 0 0 0 6146 6146 6146 6146 6038 6038 6038 6038 6038 5548 5548 5548 5548 5548 5548 5548 5548 5640 5640 5640 5640 5640 5548 5548 5548 5548 5548 5548 5548 0 0 0 0 0 0 0 0 0 0 5132 5132 5132 5132 5132 5132 5132 5210 5291 5291 5460 5640 5832 5933 6038 6259 6375 6375 6375 6375 6259 6259 6375 5548 5374 5291 5291 5291 5291 5291 5291 5291 5374 0 0 0 0 0 0 0 0 0 0 0 0 0 0 0 2256 2256 2271 2271 2271 2271 2271 2286 2286 2286 2286 2286 2286 2286 2286 2286 3178 3149 3120 3120 3149 3149 3120 3120 3120 3120 3120 3120 3120 3120 3092 3092 3092 3092 3092 3092 3092 3092 3092 3092 3092 3120 3120 3120 3092 3092 3092 3092 3092 3092 3092 3092 3092 3120 3120 3120 3120 3120 3120 3120 3120 3120 3120 3092 3064 3064 3037 3037 3037 3037 2103 2103 2116 2129 2129 2143 2143 2143 2143 2143 2143 2143 2143 2156 2156 3064 3064 2883 2883 3037 2958 2958 2958 2958 3064 2958 2958 2958 2984 2984 3037 3120 2958 2958 2984 2984 2984 2984 2984 2984 2984 2984 3092 3064 3064 3064 3149 3178 3178 3178 3178 3149 3149 3149 3092 3064 3037 3037 3010 3010 3010 3010 3010 3010 3010 3010 3010 3010 3037 3037 3037 3037 3037 3037 3064 1993 1993 1993 1993 1993 1981 1981 1981 1981 1981 1981 1981 1981 1981 1981 1981 1981 1970 1970 1959 1959 1959 1947 1947 1947 1959 1959 1959 1959 1959 1959 1959 1947 1947 1947 1947 1947 1947 1936 1936 1936 1936 1936 1936 1936 1936 1936 1926 1926 1926 1926 1926 1926 1926 1926 1926 1915 1915 1915 1904 1904 1904 1894 1894 1904 1894 1894 1894 1894 1883 1883 1883 1883 1883 1873 1873 1873 1863 1863 1863 1863 1863 1853 1853 1853 1853 1853 1853 1843 1843 1843 1843 1823 1823 1813 1813 1813 1813 1813 1813 1813 1813 1813 0 0 0 0 0 0 0 6038 6038 6038 6038 6038 6038 6038 6038 6038 6038 6038 6038 5933 5933 5832 5460 5374 5291 5291 5291 5291 5291 5460 0 0 0 0 0 0 0 0 0 0 0 0 0
0 0 0 0 0 0 0 0 0 0 0 0 0 0 0 0 0 0 0 0 0 0 0 0 0 0 0 0 0 0 0 0 0 2560 2560 2579 2579 2579 2598 2598 2598 2618 2618 2618 2618 2618 2618 2639 2639 2639 2639 2639 2639 2659 2659 2659 2659 2680 2701 2701 2701 2701 2701 2723 2723 2723 2723 2723 2723 2701 2701 2723 2744 2744 2767 2767 2767 2767 2767 2789 2789 2789 2789 2812 2812 2812 2835 2835 2835 2859 2859 2859 2859 2859 2859 2859 2883 2883 2883 0 2883 2883 2933 2958 2958 2958 2958 2958 2958 2958 2984 2984 2984 2984 3010 3010 3010 3010 3037 3037 3037 3037 3064 3064 3064 3064 3064 3092 3092 3092 3092 3092 3092 3092 3120 3120 3120 3149 3178 3178 3178 3208 3208 3208 3208 3238 3238 3238 3269 3269 3269 3300 3300 3300 3269 3269 3300 3300 3269 3269 3300 3300 3859 3859 3859 3399 3399 3399 3399 3399 3399 3433 3433 3433 3433 3433 3433 3433 3468 3468 3468 3468 3468 3503 3539 3539 3539 3539 3576 3576 3539 3539 1477 1477 1477 1477 1477 1477 1477 1477 1477 3653 3653 3692 3692 3692 3692 3692 3732 3732 3774 3774 3816 3816 3816 3859 3859 3859 3903 3948 3948 0 0 0 0 0 5640 5640 5374 5374 5374 5460 5460 5460 5460 5460 5548 5548 5548 5548 5548 5734 5734 5734 5832 5832 0 0 0 0 0 0 0 0 0 0 0 0 0 0 0 0 6146 6038 6038 6146 6038 6038 6038 6038 6038 5548 5548 5548 5548 5548 5548 5548 5548 5640 5640 5640 5640 5640 5548 5548 5548 5548 5548 5548 5548 5832 0 0 0 0 0 0 0 0 0 5132 5132 5132 5132 5132 5132 5132 5210 5291 5291 5460 5734 5832 5933 6038 6259 6375 6375 6497 6497 6375 6375 6375 6375 5460 5291 5291 5210 5210 5291 5291 5291 5291 0 0 0 0 0 0 0 0 0 0 0 0 0 0 0 2271 2271 2271 2271 2271 2271 2271 2286 2286 2286 2286 2286 2286 2286 2286 3208 3178 3178 3149 3149 3149 3149 3120 3120 3120 3120 3120 3120 3120 3120 3092 3092 3092 3092 3092 3092 3092 3092 3092 3092 3120 3120 3120 3120 3120 3120 3092 3092 3092 3092 3092 3092 3092 3120 3120 3120 3120 3120 3120 3149 3120 3120 3120 3092 3092 3064 3037 3037 3037 3037 2103 2103 2103 2116 2116 2129 2129 2129 2143 2143 2143 2143 2143 2156 2859 2859 2883 2883 2883 2908 2908 2958 2958 2958 2984 2958 2958 2958 2958 2958 2958 2933 2933 2933 2958 2958 2958 2958 2958 2958 2958 2984 2984 2984 2984 2984 3149 3178 3178 3178 3178 3149 3149 3149 3092 3037 3037 3010 3010 3010 3010 2984 2984 2984 2984 2984 2984 2984 3010 3010 3037 3010 3010 3037 3037 1993 1993 1993 1993 1993 1981 1981 1981 1981 1981 1981 1981 1981 1981 1981 1981 1981 1970 1970 1959 1959 1959 1959 1959 1959 1959 1959 1959 1959 1959 1959 1959 1947 1947 1947 1947 1947 1947 1936 1936 1936 1936 1936 1936 1936 1936 1936 1926 1926 1926 1926 1926 1926 1926 1926 1915 1915 1915 1904 1904 1904 1904 1894 1894 1894 1894 1894 1894 1894 1894 1883 1883 1883 1883 1873 1873 1873 1863 1863 1863 1863 1863 1853 1853 1853 1853 1853 1853 1843 1843 1843 1843 1823 1813 1813 1813 1813 1813 1813 1813 1813 1813 1813 0 0 0 0 0 0 0 6038 6038 6038 6038 6038 6038 6038 6038 6038 6038 6038 6038 5933 5933 5832 5548 5460 5291 5291 5291 5291 5374 5548 0 0 0 0 0 0 0 0 0 0 0 0 0
0 0 0 0 0 0 0 0 0 0 0 0 0 0 0 0 0 0 0 0 0 0 0 0 0 0 0 0 0 0 0 0 0 2579 2579 2579 2579 2598 2598 2598 2598 2618 2618 2618 2618 2618 2639 2639 2639 2639 2639 2639 2659 2659 2659 2659 2659 2680 2701 2701 2701 2701 2701 2723 2723 2723 2723 2723 2723 2701 2701 2701 2744 2744 2767 2767 2767 2767 2767 2789 2789 2789 2789 2812 2812 2812 2835 2835 2835 2859 2859 2859 2883 2883 2859 2859 0 2859 0 0 2883 2883 2933 2958 2958 2958 2958 2958 2958 2958 2984 2984 2984 3010 3010 3037 3037 3037 3037 3037 3064 3064 3064 3064 3064 3064 3064 3092 3092 3092 3092 3092 3120 3120 3120 3149 3149 3149 3178 3178 3178 3208 3208 3208 3208 3238 3238 3238 3269 3269 3300 3300 3300 3300 3269 3269 3269 3300 3269 3269 3300 3300 3816 3816 3816 3774 3433 3433 3433 3399 3399 3433 3433 3433 3433 3433 3433 3468 3468 3468 3468 3468 3468 3503 3539 3539 3539 3539 3539 1477 1483 1483 1477 1477 1477 1477 1477 1477 1477 1477 1477 3653 3653 3692 3692 3692 3692 3692 3692 3732 3774 3774 3816 3816 3816 3859 3859 3903 3903 3903 3903 3903 0 0 0 0 0 0 5374 5374 5374 5460 5460 5460 5460 5460 5548 5548 5640 5640 5640 5734 5734 5832 5832 0 0 0 0 0 0 0 0 0 0 0 0 0 0 0 0 6038 6038 6038 6038 6038 6038 6038 6038 6038 6038 5548 5548 5548 5548 5548 5548 5548 5640 5640 5640 5640 5640 5548 5548 5548 5548 5548 5548 5548 5548 5832 0 0 0 0 0 0 0 0 0 0 5132 5132 5132 5132 5132 5132 5210 5210 5291 5548 5832 5832 6038 6038 6375 6375 6375 6497 6497 6497 6497 6375 6259 6259 5291 5210 5210 5210 5291 5291 5291 5291 0 0 0 0 0 0 0 0 0 0 0 0 0 0 0 2271 2271 2271 2271 2271 2271 2271 2271 2271 2286 2286 2286 2286 2286 2301 3208 3178 3178 3178 3178 3149 3149 3149 3120 3120 3120 3120 3120 3120 3120 3092 3092 3092 3092 3092 3092 3092 3092 3092 3120 3120 3120 3120 3120 3120 3092 3092 3092 3092 3092 3092 3092 3092 3120 3120 3120 3120 3120 3149 3149 3120 3120 3092 3092 3092 3064 3037 3037 3037 3037 2103 2103 2103 2116 2116 2129 2129 2129 2143 2143 2143 2143 2143 2156 2859 2859 2883 2883 2908 2908 2908 2933 2933 2958 2958 2933 2933 2933 2933 2933 2908 2908 2908 2908 2933 2933 2933 2958 2958 2958 2958 2984 2984 2984 2958 2958 2984 2984 2883 2883 2883 2835 2835 3037 3037 3037 2984 2984 2984 2984 2984 2984 2984 2958 2958 2958 2958 2984 2984 3010 3010 3010 3010 3037 3037 1993 1993 1993 1993 1993 1981 1981 1981 1981 1981 1981 1981 1981 1981 1981 1981 1981 1970 1970 1959 1959 1959 1959 1959 1959 1959 1959 1959 1959 1959 1959 1959 1947 1947 1947 1947 1947 1947 1936 1936 1936 1936 1936 1936 1936 1936 1936 1926 1926 1926 1926 1926 1926 1926 1926 1915 1915 1915 1904 1904 1904 1894 1894 1894 1894 1894 1894 1894 1894 1894 1883 1883 1883 1883 1873 1873 1873 1863 1863 1863 1863 1863 1853 1853 1853 1853 1853 1843 1843 1843 1843 1833 1823 1813 1813 1813 1813 1813 1813 1813 1813 1813 1813 0 0 0 0 0 0 0 5933 5933 5933 6038 6038 6038 6038 6038 6038 6038 6038 6038 6038 5933 5832 5548 5460 5374 5374 5374 5374 5460 5548 0 0 0 0 0 0 0 0 0 0 0 0 0
0 0 0 0 0 0 0 0 0 0 0 0 0 0 0 0 0 0 0 0 0 0 0 0 0 0 0 0 0 0 0 0 0 2579 2579 2579 2579 2579 2598 2598 2598 2598 2618 2618 2618 2618 2639 2639 2639 2639 2639 2639 2659 2659 2680 2680 2680 2680 2701 2701 2701 2723 2723 2723 2723 2723 2723 2723 2723 2701 2701 2701 2744 2767 2767 2767 2767 2767 2767 2789 2789 2789 2789 2812 2812 2835 2835 2859 2859 2859 2859 2859 2859 2859 2859 0 0 0 0 0 0 2958 2958 2958 2958 2958 2958 2958 2958 2958 2984 2984 2984 3010 3010 3037 3037 3037 3064 3064 3064 3064 3064 3064 3064 3092 3092 3092 3092 3092 3120 3120 3120 3120 3149 3149 3149 3149 3178 3178 3178 3208 3208 3208 3208 3238 3238 3269 3269 3269 3300 3300 3300 3300 3269 3269 3269 3300 3300 3300 3300 3732 3732 3816 3816 3774 3732 3433 3433 3399 3399 3399 3399 3433 3433 3433 3468 3468 3468 3468 3468 3468 3468 3503 3539 3539 3539 3539 1477 1477 1477 1477 1477 1477 1477 1477 1477 1477 1477 1477 1477 1477 1477 3653 3653 3653 3692 3692 3692 3732 3732 3816 3774 3774 3774 3816 3859 3903 3903 3903 3903 0 3903 0 1427 0 1427 0 5374 5374 5374 5460 5460 5460 5460 5548 5548 5548 5640 5640 5640 5734 5734 5832 5832 0 0 0 0 0 0 0 0 0 0 0 0 0 0 0 6038 6038 6038 6038 6038 6038 6038 6038 6146 6146 5548 5548 5548 5548 5548 5548 5548 5548 5640 5640 5640 5640 5640 5548 5548 5548 5548 5548 5548 5548 5640 5933 0 0 0 0 0 0 0 0 0 0 5210 5132 5132 5132 5132 5132 5210 5210 5210 5374 5832 5832 6038 6038 6375 6375 6497 6497 6497 6497 6497 6375 6259 6259 5291 5210 5210 5210 5210 5210 5210 5210 0 0 0 0 0 0 0 0 0 0 0 0 0 0 0 2271 2271 2271 2271 2271 2271 2271 2271 2271 2286 2286 2286 2286 2286 2286 3208 3178 3178 3178 3178 3149 3149 3149 3120 3120 3120 3120 3120 3120 3120 3092 3092 3092 3092 3092 3092 3092 3092 3120 3120 3120 3120 3120 3120 3120 3092 3092 3092 3120 3120 3120 3120 3120 3120 3120 3120 3120 3120 3149 3149 3120 3120 3092 3092 3064 3037 3010 3010 3010 3010 2103 2103 2103 2129 2129 2129 2129 2129 2143 2143 2143 2143 2143 2156 2883 2883 2883 2908 2908 2908 2908 2933 2933 2958 2958 2933 2933 2933 2933 2933 2908 2883 2883 2908 2908 2933 2933 2958 2958 2958 2958 2984 2984 2984 2958 2958 2984 2984 2883 2883 2883 2835 2835 0 2958 2958 2958 2958 2958 2958 2958 2958 2958 2958 2958 2958 2958 2984 2984 3010 3010 3010 3010 3037 3037 1993 1993 1993 1993 1993 1981 1981 1981 1981 1981 1981 1981 1981 1981 1981 1981 1981 1970 1970 1959 1959 1959 1959 1959 1959 1959 1959 1959 1959 1959 1947 1947 1947 1947 1947 1947 1947 1947 1936 1936 1936 1936 1936 1936 1936 1936 1936 1936 1926 1926 1926 1926 1926 1915 1915 1915 1915 1904 1904 1904 1904 1894 1894 1894 1894 1894 1894 1894 1894 1894 1883 1883 1883 1883 1873 1873 1873 1863 1863 1863 1863 1863 1853 1853 1853 1853 1853 1843 1843 1843 1843 1833 1823 1813 1813 1813 1813 1813 1813 1813 1813 1804 1804 1813 0 0 0 0 0 0 5933 5933 5933 6038 6038 6038 6038 6038 6038 6038 6038 6038 6038 6038 5933 5640 5548 5460 5460 5460 5548 5548 5640 0 0 0 0 0 0 0 0 0 0 0 0 0
0 0 0 0 0 0 0 0 0 0 0 0 0 0 0 0 0 0 0 0 0 0 0 0 0 0 0 0 0 0 0 0 0 2560 2560 2579 2579 2579 2598 2598 2598 2598 2618 2618 2618 2618 2639 2639 2639 2639 2639 2659 2659 2659 2680 2680 2680 2701 2701 2701 2701 2723 2723 2723 2723 2723 2723 2723 2723 2701 2701 2723 2744 2767 2767 2767 2767 2767 2767 2789 2789 2789 2789 2812 2812 2812 2835 2859 2859 2859 2859 2859 2859 2859 2859 0 0 0 0 0 0 2958 2958 2958 2958 2958 2958 2958 2958 2958 2984 2984 2984 3010 3010 3037 3064 3064 3064 3064 3064 3064 3064 3064 3064 3092 3092 3092 3092 3092 3120 3120 3120 3149 3149 3149 3178 3178 3178 3178 3178 3208 3208 3208 3208 3238 3269 3269 3269 3300 3300 3300 3300 3300 3269 3269 3300 3300 3300 3300 3300 3732 3732 3774 3774 3732 3732 3433 3433 3399 3399 3399 3399 3433 3433 3433 3468 3468 3468 3503 3503 3503 3503 3539 3539 3539 3539 0 1477 1477 1477 1477 1477 1477 1477 1477 1477 1477 1477 1477 1477 1477 1477 1477 1477 3653 3653 1477 1477 1458 1452 3774 3774 3774 3774 3816 3859 3903 3903 3903 3903 3903 0 0 1427 1427 1427 1421 5374 5374 5374 5460 5460 5460 5460 5548 5548 5640 5640 5640 5640 5734 5832 5933 5933 0 0 0 0 0 0 0 0 0 0 0 0 0 0 0 5933 5933 6038 6038 6038 6038 6038 6038 6146 6146 5548 5548 5548 5548 5548 5548 5548 5548 5640 5640 5640 5640 5640 5548 5548 5548 5548 5548 5548 5548 5832 5933 0 0 0 0 0 0 0 0 0 0 5210 5132 5132 5132 5132 5132 5210 5210 5210 5374 5734 5734 5933 6038 6259 6375 6375 6497 6497 6497 6497 6375 6259 6259 6259 5210 5210 5210 5210 5210 5210 5210 0 0 0 0 0 0 0 0 0 0 0 0 0 0 0 2271 2271 2271 2271 2271 2271 2271 2271 2271 2286 2286 2286 2271 2271 2286 3208 3178 3178 3178 3178 3178 3178 3149 3149 3120 3120 3120 3120 3120 3120 3092 3092 3092 3092 3092 3092 3092 3120 3120 3120 3120 3120 3120 3120 3120 3120 3092 3092 3120 3120 3120 3120 3120 3120 3120 3120 3120 3120 3149 3149 3120 3120 3092 3092 3064 3037 3010 3010 3010 3010 2103 2103 2116 2129 2129 2129 2129 2129 2143 2143 2143 2143 2143 2883 2883 2883 2883 2908 2908 2908 2908 2908 2933 2933 2933 2933 2933 2933 2933 2933 2908 2883 2883 2908 2908 2933 2933 2958 2958 2958 2958 2984 2984 2984 2958 2958 2933 2883 2859 2835 2835 2835 2835 2835 2835 2958 2958 2958 2958 2958 2958 2958 2958 2958 2958 2958 2958 2984 2984 3010 3010 3010 3010 3010 3010 2005 1993 1993 1993 1993 1981 1981 1981 1981 1981 1981 1981 1981 1981 1981 1981 1981 1970 1970 1959 1959 1959 1959 1947 1947 1959 1970 1959 1959 1947 1947 1947 1947 1947 1947 1947 1947 1947 1947 1947 1947 1936 1936 1936 1936 1936 1936 1936 1926 1926 1926 1926 1915 1915 1915 1904 1904 1904 1904 1904 1894 1894 1894 1894 1894 1894 1894 1894 1894 1894 1883 1883 1883 1883 1873 1863 1863 1863 1863 1863 1863 1863 1853 1853 1853 1853 1853 1853 1843 1843 1843 1833 1823 1813 1813 1813 1813 1813 1813 1813 1813 1804 1804 1813 0 0 0 0 0 6038 6038 6038 6038 6038 6038 6038 6038 6038 6038 6038 6038 6038 6038 6038 5832 5640 5548 5460 5460 5460 5548 5640 5640 0 0 0 0 0 0 0 0 0 0 0 0 0
0 0 0 0 0 0 0 0 0 0 0 0 0 0 0 0 0 0 0 0 0 0 0 0 0 0 0 0 0 0 0 0 0 2560 2560 2579 2579 2579 2598 2598 2598 2618 2618 2618 2618 2639 2639 2639 2639 2639 2639 2659 2659 2659 2680 2680 2680 2701 2701 2701 2701 2723 2723 2723 2723 2723 2723 2723 2744 2723 2723 2744 2744 2767 2767 2767 2767 2767 2767 2789 2789 2789 2789 2789 2812 2812 2835 2859 2859 2859 2859 2883 2883 2883 2883 0 0 0 0 0 2933 2933 2958 2958 2958 2958 2958 2958 2958 2958 2984 2984 2984 3010 3010 3064 3064 3064 3064 3064 3064 3064 3064 3064 3064 3092 3092 3092 3092 3092 3120 3120 3120 3149 3149 3178 3178 3178 3178 3178 3208 3208 3208 3208 3238 3269 3269 3269 3300 3300 3300 3300 3300 3300 3269 3269 3300 3300 3300 3300 3300 3692 3692 3774 3774 3732 3732 3433 3433 3433 3399 3399 3399 3433 3433 3433 3433 3433 3468 3503 3503 3468 3468 3539 0 0 1477 0 1477 1477 1477 1477 1477 1477 1477 1477 1477 1477 1477 1477 1477 1477 1477 1477 1477 1477 1477 1477 1477 1458 1452 1452 1452 1452 1445 1445 1445 1439 1439 3903 3903 1433 1433 1427 1427 1427 1421 1421 1421 1421 1421 1421 1421 5460 5460 5460 5548 5640 5640 5640 5640 5734 5832 5832 5933 0 0 0 0 0 0 0 0 0 0 0 0 0 0 6038 5933 5933 6038 6038 6038 6038 6038 6038 0 0 5548 0 5548 5460 5460 5460 5548 5548 5640 5640 5640 5640 5548 5548 5548 5548 5548 5548 5548 5548 5832 5933 0 0 0 0 0 0 0 0 0 5132 5132 5132 5132 5132 5132 5132 5210 5210 5291 5374 5548 5734 5933 6146 6259 6375 6375 6375 6375 6497 6497 6375 6259 6259 5374 5210 5210 5210 5210 5210 5132 5132 0 0 0 0 0 0 0 0 0 0 0 0 0 0 0 2365 2271 2271 2271 2271 2271 2271 2271 2271 2286 2286 2286 2271 2271 2271 3208 3178 3178 3178 3178 3178 3178 3178 3149 3120 3120 3120 3120 3120 3120 3120 3120 3120 3120 3120 3120 3120 3120 3120 3120 3120 3120 3120 3120 3120 3120 3092 3092 3120 3120 3120 3120 3120 3120 3120 3120 3120 3149 3149 3149 3149 3120 3092 3064 3064 3037 3010 3010 3010 3010 3010 2129 2129 2129 2129 2129 2129 2143 2143 2143 2143 2143 2143 2883 2883 2908 2908 2908 2908 2908 2908 2908 2908 2933 2933 2933 2933 2933 2933 2933 2933 2908 2908 2908 2933 2933 2933 2958 2958 2958 2958 2984 2984 2984 2958 2933 2908 2883 2859 2835 2835 2835 2835 2835 2835 2835 2958 2958 2933 2933 2933 2933 2933 2908 2908 2933 2933 2933 2958 2958 2984 2984 2984 2984 2984 1993 1993 1993 1993 1993 1981 1981 1981 1981 1981 1981 1981 1981 1993 1981 1981 1981 1981 1970 1970 1970 1959 1947 1947 1947 1959 1970 1947 1947 1947 1947 1947 1947 1947 1947 1947 1947 1947 1947 1947 1947 1947 1947 1947 1947 1936 1936 1936 1926 1926 1915 1915 1915 1915 1904 1904 1904 1904 1904 1904 1894 1894 1894 1894 1894 1894 1894 1894 1883 1883 1883 1883 1883 1883 1873 1863 1863 1863 1863 1863 1863 1863 1853 1853 1853 1853 1853 1853 1843 1843 1843 1833 1823 1813 1813 1813 1813 1813 1813 1813 1813 1804 1804 0 0 0 0 0 6146 6038 6038 5933 5933 6038 6038 6038 6038 6038 6038 6038 6038 6038 6038 5933 5832 5640 5548 5460 5460 5460 5548 5640 5640 0 0 0 0 0 0 0 0 0 0 0 0 0
0 0 0 0 0 0 0 0 0 0 0 0 0 0 0 0 0 0 0 0 0 0 0 0 0 0 0 0 0 0 0 0 0 2579 2579 2579 2579 2579 2598 2598 2598 2618 2618 2618 2618 2639 2639 2639 2639 2639 2639 2639 2639 2659 2659 2680 2680 2680 2701 2701 2701 2723 2723 2723 2723 2723 2723 2744 2744 2723 2723 2744 2744 2767 2767 2767 2767 2767 2767 2789 2789 2789 2789 2789 2812 2812 2835 2835 2835 2859 2859 2883 2883 2883 0 0 0 0 0 0 2933 2933 2958 2958 2958 2958 2958 2958 2984 2984 2984 2984 2984 3010 3037 3064 3064 3064 3064 3064 3064 3064 3064 3092 3092 3092 3092 3092 3092 3092 3120 3120 3120 3149 3149 3178 3178 3178 3178 3178 3208 3208 3208 3208 3238 3269 3269 3269 3300 3300 3300 3300 3300 3300 3269 3269 3300 3300 3300 3300 3300 3692 3692 3732 3732 3692 3692 3576 3576 3433 3433 3433 3433 3433 3433 3433 3433 3433 3468 3503 3503 3468 3468 3539 0 0 0 0 1477 1477 1477 1477 1477 1477 1477 1477 1477 1477 1477 1477 1477 1477 1477 1477 1477 1477 1470 1464 1464 1458 1452 1452 1452 1452 1445 1445 1445 1439 1439 1433 1433 1427 1427 1427 1427 1427 1421 1421 1421 1421 1421 1421 1415 1415 1421 1421 1421 1421 1421 5640 5640 5734 5832 5832 5933 0 0 0 1398 1398 1398 1398 1398 0 0 0 0 0 0 6038 6038 6038 6038 6146 6146 6146 6146 6146 0 0 0 5548 5548 5460 5460 5460 5548 5548 5640 5640 5640 5640 5548 5548 5548 5548 5548 5548 5548 5640 5832 5933 0 0 0 0 0 0 0 0 5210 5132 5132 5210 5132 5132 5132 5132 5210 5210 5291 5374 5548 5734 5933 6146 6259 6375 6375 6375 6375 6375 6497 6375 6259 6259 5374 5291 5210 5210 5210 5210 5132 5132 0 0 0 0 0 0 0 0 0 0 0 0 0 0 0 2271 2271 2271 2271 2271 2271 2271 2271 2271 2286 2286 2286 2271 2271 2271 2271 2271 2271 3208 3208 3208 3208 3178 3178 3149 3120 3120 3120 3120 3120 3120 3120 3120 3120 3120 3120 3120 3120 3120 3120 3120 3120 3120 3120 3120 3120 3120 3120 3120 3120 3120 3120 3120 3120 3120 3120 3120 3149 3149 3149 3149 3120 3092 3064 3064 3037 3010 3010 3010 3010 3010 2129 2129 2143 2143 2129 2129 2143 2143 2143 2143 2143 2908 2908 2908 2908 2908 2933 2908 2908 2908 2908 2908 2908 2933 2933 2933 2933 2933 2933 2933 2908 2908 2908 2933 2933 2933 2958 2958 2958 2958 2984 2984 2958 2958 2933 2908 2859 2859 2835 2835 2835 2835 2812 2812 2835 2859 2835 2812 2812 2812 2789 2789 2789 2812 2812 2859 2859 2908 2933 2933 2958 2958 2958 2958 1993 1993 1993 2005 2005 1993 1993 1993 1993 1993 1993 1993 1993 1993 1993 1993 1981 1981 1970 1970 1970 1959 1947 1947 1947 1947 1970 1947 1947 1936 1936 1936 1947 1947 1947 1947 1947 1947 1947 1947 1947 1947 1947 1947 1947 1936 1936 1936 1926 1926 1915 1915 1904 1904 1904 1904 1904 1904 1904 1904 1894 1894 1894 1894 1894 1894 1894 1894 1883 1883 1883 1883 1883 1883 1883 1873 1873 1863 1863 1863 1863 1863 1863 1853 1853 1853 1853 1853 1843 1843 1833 1833 1823 1813 1813 1813 1813 1813 1813 1813 1813 1813 0 0 0 0 0 6038 6038 6038 6038 5933 5933 6038 6038 6038 6038 6038 6038 6038 6038 6038 6038 5933 5734 5548 5460 5460 5460 5460 5640 5640 5640 0 0 0 0 0 0 0 0 0 0 0 0 0
0 0 0 0 0 0 0 0 0 0 0 0 0 0 0 0 0 0 0 0 0 0 0 0 0 0 0 0 0 0 0 0 0 2579 2579 2579 2579 2598 2598 2618 2618 2618 2618 2618 2618 2618 2618 2639 2639 2639 2639 2639 2639 2659 2659 2680 2680 2680 2701 2701 2701 2723 2723 2723 2723 2723 2723 2723 2744 2723 2723 2744 2744 2767 2767 2767 2767 2767 2767 2789 2789 2789 2789 2789 2812 2812 2835 2835 2835 2859 2859 2859 2883 2883 0 0 0 0 0 0 2933 2933 2958 2958 2958 2958 2958 2958 2984 2984 2984 2984 2984 3010 3010 3064 3064 3064 3064 3064 3092 3092 3092 3092 3092 3092 3092 3092 3092 3092 3092 3120 3120 3149 3149 3178 3178 3178 3178 3178 3208 3208 3208 3208 3238 3269 3269 3269 3300 3300 3300 3300 3300 3300 3300 3300 3300 3300 3300 3333 3333 3433 3653 3692 3692 3692 3692 3576 3468 3433 3433 3433 3433 3433 3433 3433 3433 3433 3468 3503 3503 3503 3539 0 0 0 0 0 1477 1477 1477 1477 1477 1477 1477 1477 1477 1477 1477 1477 1477 1477 1477 1477 1477 1477 1470 1464 1458 1458 1452 1452 1452 1452 1445 1445 1445 1445 1439 1433 1433 1427 1427 1433 1433 1427 1421 1421 1421 1421 1421 1421 1415 1415 1421 1421 1421 1421 1421 1421 1421 1421 1421 5832 5933 5933 1398 1398 1398 1398 1398 1398 1392 1392 1392 0 0 0 0 6038 6038 6038 6038 6146 6146 6146 6146 6146 0 0 0 0 0 5374 5374 5374 5548 5548 5640 5640 5640 5640 5548 5548 5548 5548 5548 5548 5548 5640 5832 5933 0 0 0 0 0 0 0 0 5210 5132 5132 5210 5132 5132 5132 5132 5210 5210 5291 5374 5548 5734 5933 6146 6259 6375 6375 6375 6375 6375 6375 6259 6259 6146 5374 5291 5210 5210 5210 5210 5132 5132 0 0 0 0 0 0 0 0 0 0 0 0 0 0 0 2271 2271 2271 2271 2271 2271 2271 2271 2271 2286 2286 2286 2271 2271 2271 2271 2271 2271 2271 2271 2271 3208 3208 3208 3178 3178 2271 2271 2271 2286 2286 2286 3120 3120 3120 3120 3120 3120 3120 3120 3120 3120 3120 3120 3120 3120 3120 3092 3092 3092 3092 3092 3120 3120 3120 3120 3120 3149 3149 3149 3149 3120 3092 3064 3064 3037 3010 2984 2984 3010 2129 2129 2129 2143 2143 2143 2143 2143 2143 2143 2143 2143 2908 2908 2908 2933 2933 2933 2908 2908 2908 2908 2908 2908 2933 2933 2933 2933 2933 2933 2933 2908 2908 2908 2933 2933 2933 2933 2958 2958 2958 2984 2958 2958 2933 2908 2883 2859 2859 2835 2835 2835 2812 2812 2812 2812 2835 2812 2812 2812 2812 2789 2789 2789 2789 2789 2812 2812 2789 2789 2812 2933 2933 2933 2933 1993 1993 2005 2005 2005 1993 1993 1993 1993 1993 1993 1993 1993 1993 1993 1993 1981 1981 1970 1970 1970 1959 1959 1947 1947 1947 2680 1947 1947 1936 1936 1936 1947 1947 1947 1947 1947 1947 1947 1947 1947 1947 1947 1936 1936 1936 1936 1936 1915 1915 1904 1904 1894 1894 1894 1894 1894 1894 1894 1904 1894 1894 1894 1894 1894 1894 1894 1894 1894 1894 1883 1883 1883 1873 1873 1863 1863 1863 1863 1863 1863 1863 1853 1853 1853 1853 1853 1853 1843 1843 1833 1833 1823 1823 1813 1813 1813 1813 1813 1813 1813 1813 0 0 0 0 0 6038 6038 6038 6038 5933 5933 6038 6038 6038 6038 6038 6038 6038 6038 6038 5933 5933 5374 5374 5374 5374 5374 5460 5640 5640 5640 0 0 0 0 0 0 0 0 0 0 0 0 0
0 0 0 0 0 0 0 0 0 0 0 0 0 0 0 0 0 0 0 0 0 0 0 0 0 0 0 0 0 0 0 0 0 2579 2579 2579 2579 2598 2598 2598 2618 2618 2618 2618 2618 2618 2618 2639 2639 2639 2639 2659 2659 2659 2659 2680 2680 2701 2701 2701 2723 2723 2723 2723 2723 2723 2723 2723 2744 2723 2723 2744 2744 2767 2767 2767 2767 2767 2767 2789 2789 2789 2789 2812 2812 2812 2835 2835 2859 2859 2859 2859 2883 2883 0 0 0 0 0 2958 2958 2958 2958 2958 2984 2984 2984 2984 2984 2984 2984 2984 2984 3010 3010 3037 3037 3064 3064 3064 3064 3092 3092 3092 3092 3092 3092 3092 3092 3092 3092 3120 3120 3149 3149 3178 3178 3178 3178 3178 3208 3208 3208 3238 3238 3269 3269 3269 3300 3300 3300 3300 3300 3300 3300 3300 3300 3333 3333 3365 3399 3433 3614 3692 3692 3692 3653 3576 3468 3433 3433 3433 3433 3433 3433 3433 3433 3433 3433 3468 3468 3503 3539 0 0 0 0 0 1489 1483 1477 1477 1483 1483 1477 1477 1477 1477 1477 1477 1477 1477 1477 1477 1470 1470 1470 1464 1458 1458 1452 1452 1452 1452 1445 1445 1445 1445 1439 1439 1433 1433 1433 1433 1433 1427 1421 1421 1421 1421 1421 1421 1415 1415 1415 1415 1415 1421 1421 1421 1421 1415 1410 1410 1410 1404 1398 1392 1392 1392 1398 1392 1392 1387 1387 1387 1387 1387 1387 1387 6038 6038 6259 6259 6259 6259 6259 6375 6375 0 0 0 0 5374 5374 5374 5548 5548 5640 5640 5640 5640 5548 5548 5548 5548 1354 1354 1354 1354 1354 0 0 0 0 0 0 0 0 0 5132 5132 5132 5210 5132 5132 5132 5210 5210 5291 5291 5460 5640 5734 5933 6259 6259 6375 6375 6375 6375 6375 6375 6259 6146 6146 5374 5291 5291 5210 5210 5291 5210 5210 0 0 0 0 0 0 0 0 0 0 0 0 0 0 0 2271 2271 2271 2271 2271 2271 2271 2271 2271 2286 2286 2271 2271 2271 2271 2271 2271 2256 2256 2271 2271 2271 2271 2271 2271 2271 2271 2271 2271 2271 2286 2241 2226 2226 3120 3092 3092 3092 3092 3092 3092 3120 3120 3120 3120 3120 3120 3092 3092 3092 3092 3092 3120 3120 3120 3120 3120 3149 3149 3149 3120 3120 3092 3064 3064 3037 3010 2984 2984 2143 2129 2129 2129 2143 2143 2143 2143 2143 2143 2156 2143 2143 2908 2908 2908 2933 2933 2933 2933 2908 2908 2908 2908 2908 2933 2933 2933 2933 2933 2933 2933 2908 2908 2908 2933 2933 2933 2933 2958 2958 2958 2958 2958 2958 2933 2908 2883 2859 2859 2835 2835 2812 2812 2812 2812 2812 2812 2789 2789 2789 2789 2789 2789 2789 2789 2789 2789 2789 2789 2789 2789 2789 2789 2789 2789 2789 2005 2005 2005 2005 1993 1993 1993 1993 1993 1993 1993 1993 1993 1993 2744 2723 2723 2723 2723 1970 1970 1959 1959 1959 2680 2680 2680 2680 2680 3300 3300 1981 1981 1947 1947 3300 3300 3333 3365 1959 1959 3433 1936 1936 1936 1936 1936 1915 1915 1904 1904 1894 1894 1894 1894 1894 1894 1894 1904 1894 1894 1894 1894 1894 1894 1894 1894 1894 1894 1883 1883 1883 1873 1873 1863 1863 1863 1863 1863 1863 1863 1853 1853 1853 1853 1853 1853 1843 1843 1833 1833 1823 1823 1813 1813 1813 1813 1813 1813 1813 1823 0 0 0 0 0 6038 6038 6038 6038 5933 5933 6038 6038 6038 6038 6038 6038 5933 5933 5933 5832 5832 5291 5291 5291 5291 5291 5374 5548 5734 5734 0 0 0 0 0 0 0 0 0 0 0 0 0
0 0 0 0 0 0 0 0 0 0 0 0 0 0 0 0 0 0 0 0 0 0 0 0 0 0 0 0 0 0 0 0 0 2579 2579 2579 2579 2579 2579 2598 2598 2618 2618 2618 2618 2618 2618 2639 2639 2639 2639 2659 2659 2659 2659 2659 2680 2701 2701 2701 2723 2723 2723 2723 2723 2723 2723 2744 2744 2744 2744 2744 2767 2767 2767 2767 2767 2767 2767 2789 2789 2789 2789 2789 2812 2812 2812 2835 2859 2859 2859 2859 2883 2883 0 0 0 0 0 2958 2958 2958 2958 2958 2984 2984 2984 2984 2984 2984 2984 2984 2984 3010 3010 3037 3037 3064 3064 3064 3064 3092 3092 3092 3092 3092 3092 3092 3092 3092 3092 3120 3120 3149 3149 3178 3178 3178 3178 3178 3208 3208 3208 3208 3238 3238 3269 3269 3300 3300 3300 3300 3300 3300 3300 3300 3300 3333 3365 3399 3399 3433 3576 3653 3653 3653 3576 3468 3468 3433 3433 3433 3433 3433 3433 3433 3433 3433 3433 3468 3468 3503 3539 0 0 0 0 0 1489 1483 1477 1477 1483 1483 1477 1477 1477 1477 1477 1477 1477 1477 1477 1477 1470 1470 1464 1464 1458 1458 1452 1452 1452 1452 1445 1445 1445 1439 1439 1439 1433 1433 1433 1433 1433 1427 1427 1427 1421 1421 1421 1421 1415 1415 1415 1415 1415 1421 1421 1410 1410 1404 1404 1404 1404 1404 1398 1392 1392 1392 1392 1392 1387 1387 1387 1387 1387 1387 1381 1381 1381 1387 1387 1387 1392 1392 1392 0 0 0 0 0 0 0 0 0 1370 1343 1343 1343 1343 1349 1349 1343 1343 1349 1349 1349 1349 1349 1349 1349 1354 0 0 0 0 0 0 0 5132 5132 5132 5210 5132 5132 5132 5210 5210 5291 5291 5460 5640 5734 5933 6146 6259 6259 6259 6259 6375 6259 6259 6146 6146 6146 5374 5291 5291 5291 5291 5291 5210 5210 0 0 0 0 0 0 0 0 0 0 0 0 0 0 0 2271 2271 2271 2271 2271 2271 2271 2271 2286 2286 2286 2271 2271 2271 2271 2271 2271 2256 2256 2271 2271 2271 2256 2256 2256 2256 2256 2256 2256 2241 2226 2226 2226 2226 2226 2226 3092 3092 3092 3092 3092 3120 2226 2226 2226 2226 3120 3120 3120 3120 3120 3120 3120 3120 3120 3120 3149 3149 3149 3149 3120 3120 3092 3064 3064 3037 3010 3010 3010 2143 2143 2143 2143 2143 2143 2143 2143 2143 2156 2156 2156 2156 2933 2933 2933 2933 2933 2933 2933 2933 2933 2933 2908 2908 2933 2933 2933 2933 2933 2933 2933 2933 2933 2933 2933 2933 2933 2933 2958 2958 2958 2958 2958 2958 2933 2908 2883 2883 2859 2835 2835 2812 2812 2812 2812 2812 2812 2789 2789 2789 2789 2789 2789 2789 2789 2789 2789 2789 2789 2789 2789 2789 2767 2767 2789 2789 1993 1993 2005 2005 1993 1993 1993 1993 1993 1993 1993 1993 1993 2744 2723 2723 2723 2723 2723 2723 1981 1981 2723 2723 2723 2701 2701 2701 2701 3300 3300 3300 3269 3269 3269 3269 3300 3333 3365 3365 3399 3433 3433 3433 4089 4089 4089 4089 4139 4139 4139 1894 1894 1894 4139 4139 4139 1904 1904 1894 1894 1894 1894 1894 1894 1894 1894 1894 1894 1883 1883 1883 1873 1873 1863 1863 1863 1863 1863 1863 1863 1863 1853 1853 1853 1853 1853 1843 1843 1833 1833 1823 1823 1823 1813 1813 1813 1813 1813 1813 1823 0 0 0 0 0 6038 6038 6038 6038 6038 6038 6038 6038 6038 6038 6038 6038 5933 5933 5933 5832 5291 5291 5291 5291 5291 5291 5291 5374 5832 5832 0 0 0 0 0 0 0 0 0 0 0 0 0
0 0 0 0 0 0 0 0 0 0 0 0 0 0 0 0 0 0 0 0 0 0 0 0 0 0 0 0 0 0 0 0 0 2579 2579 2579 2579 2579 2579 2598 2598 2618 2618 2618 2618 2618 2618 2639 2639 2639 2639 2659 2659 2659 2659 2659 2680 2680 2701 2701 2723 2723 2723 2723 2723 2723 2723 2744 2744 2744 2744 2744 2767 2767 2767 2767 2767 2767 2789 2789 2789 2789 2789 2789 2812 2812 2812 2835 2859 2859 2859 2859 2859 2859 0 2859 0 2984 0 2958 2958 2958 2958 2984 2984 2984 2984 2984 2984 2984 2984 2984 2984 3010 3010 3037 3037 3064 3064 3064 3064 3092 3092 3092 3092 3092 3092 3092 3092 3092 3092 3120 3120 3149 3149 3178 3178 3178 3178 3178 3208 3208 3208 3208 3238 3238 3269 3269 3300 3300 3300 3300 3300 3300 3300 3300 3300 3333 3365 3365 3399 3433 3539 3614 3614 3614 3576 3468 3468 3433 3433 3433 3433 3433 3433 3433 3433 3433 3433 3468 3468 3503 3503 0 0 0 0 0 1489 1483 1483 1483 1483 1483 1477 1477 1477 1477 1477 1477 1477 1477 1477 1477 1470 1470 1464 1464 1458 1458 1452 1452 1452 1452 1445 1445 1445 1439 1439 1439 1433 1433 1433 1433 1433 1427 1427 1427 1421 1421 1415 1415 1415 1415 1410 1410 1415 1415 1415 1410 1410 1404 1404 1404 1404 1404 1398 1392 1392 1392 1392 1392 1387 1387 1387 1387 1387 1387 1381 1381 1381 1387 1387 1387 1387 1392 1392 1392 0 1376 1376 0 0 0 0 0 0 0 0 1343 1343 1343 1343 1343 1343 1349 1349 1349 1349 1349 1349 1349 1349 1349 0 0 0 0 0 0 5210 5210 5210 5210 5210 5210 5210 5210 5210 5291 5374 5460 5640 5734 5933 6146 6146 6259 6259 6259 6375 6259 6259 6146 5933 5933 5460 5374 2286 2286 2286 2271 2271 5291 0 0 0 0 0 0 0 0 0 0 0 0 0 0 0 2271 2271 2271 2271 2271 2271 2271 2271 2286 2286 2286 2286 2271 2271 2271 2271 2271 2256 2256 2256 2256 2256 2256 2256 2256 2256 2256 2256 2256 2241 2226 2226 2226 2226 2226 2226 2241 2241 3064 3064 3092 2226 2226 2226 2226 2226 2226 2226 2226 2226 3092 3092 3092 3120 3149 3149 3149 3149 3178 3149 3149 3120 3092 3064 3037 3037 3037 3037 3037 2143 2143 2143 2143 2143 2143 2143 2143 2143 2143 2156 2156 2156 2933 2933 2933 2933 2933 2958 2933 2933 2933 2933 2933 2933 2933 2933 2933 2933 2933 2933 2933 2933 2933 2933 2933 2933 2933 2933 2958 2958 2958 2958 2958 2933 2933 2908 2883 2859 2859 2835 2835 2812 2812 2812 2812 2812 2812 2789 2789 2789 2789 2789 2789 2789 2789 2789 2789 2767 2767 2789 2767 2767 2767 2767 2767 2767 1993 1993 2005 2005 2005 1993 1993 1993 2005 2005 1993 1993 2744 2744 2723 2723 2723 2723 2723 2723 2723 2723 2723 2723 2723 2723 2723 2723 2723 3300 3300 3269 3269 3269 3269 3269 3300 3333 3365 3399 3433 3433 3433 3433 4089 4089 4089 4089 4139 4139 4139 4139 4139 4139 4139 4139 4139 4139 1904 1904 1904 1904 1904 1894 1894 1894 1894 1894 1894 1883 1883 1883 1873 1863 1863 1863 1863 1863 1863 1863 1863 1863 1863 1863 1853 1853 1853 1843 1843 1833 1833 1823 1823 1823 1813 1813 1813 1813 1813 1813 1823 0 0 0 0 0 6038 6038 6038 6146 6038 6038 6038 6038 6038 6038 6038 6038 5933 5933 5832 5374 5210 5210 5210 5210 5210 5291 5291 5291 5832 0 0 0 0 0 0 0 0 0 0 0 0 0 0
0 0 0 0 0 0 0 0 0 0 0 0 0 0 0 0 0 0 0 0 0 0 0 0 0 0 0 0 0 0 0 0 0 2579 2579 2579 2579 2579 2579 2579 2598 2598 2618 2618 2618 2639 2639 2639 2639 2639 2659 2659 2659 2659 2659 2659 2680 2680 2701 2701 2723 2723 2723 2723 2723 2723 2723 2744 2744 2744 2744 2767 2767 2767 2767 2767 2767 2789 2789 2789 2789 2789 2789 2812 2812 2812 2812 2835 2859 2859 2859 2859 2859 2859 2859 2859 0 2984 2984 2958 2958 2958 2984 2984 2984 2984 2984 2984 2984 2984 2984 2984 2984 3010 3010 3037 3037 3064 3064 3064 3064 3092 3092 3092 3092 3092 3092 3092 3092 3092 3092 3120 3120 3149 3149 3178 3178 3178 3178 3178 3208 3208 3208 3208 3238 3238 3269 3269 3300 3300 3300 3300 3300 3333 3300 3300 3333 3333 3365 3365 3399 3433 3539 3576 3576 3576 3539 3468 3468 3433 3433 3433 3433 3433 3433 3433 3433 3433 3433 3468 3468 3503 3503 0 0 0 0 0 1489 1489 1489 1489 1483 1483 1483 1477 1477 1477 1477 1477 1477 1477 1477 1477 1477 1470 1464 1464 1458 1458 1452 1452 1452 1452 1445 1445 1445 1445 1439 1439 1433 1433 1433 1433 1433 1427 1427 1427 1421 1421 1415 1415 1415 1415 1410 1410 1410 1410 1410 1410 1410 1404 1404 1404 1404 1404 1398 1392 1392 1392 1392 1392 1387 1387 1387 1387 1387 1387 1381 1381 1381 1381 1381 1381 1381 1381 1381 1387 1387 1376 1376 0 0 0 0 0 0 0 1343 1343 1343 1343 1343 1343 1343 1343 1343 1349 1349 1349 1349 1349 1349 1343 1343 0 0 0 0 0 0 5210 5210 5132 5132 5210 5210 5210 5291 5374 5460 5548 5640 5734 5933 6146 6146 0 6146 2241 2241 6146 6146 6146 5933 5933 5374 2286 2286 2286 2286 2271 2271 5291 0 0 0 0 0 0 0 0 0 0 0 0 0 0 2271 2271 2271 2271 2271 2271 2271 2271 2271 2286 2286 2286 2286 2271 2271 2271 2271 2271 2256 2256 2256 2256 2256 2256 2256 2256 2256 2256 2271 2271 2241 2241 2241 2241 2241 2226 2226 2241 2241 2241 2241 2241 2226 2226 2226 2226 2226 2226 2226 2212 2212 2212 2212 2212 2212 2212 2212 2198 2198 3178 3178 3149 3120 3092 3037 3037 3037 3037 3037 3037 2143 2143 2143 2143 2143 2143 2143 2143 2143 2143 2156 2156 2156 2958 2933 2933 2933 2933 2958 2958 2958 2958 2933 2933 2933 2933 2933 2933 2933 2933 2933 2933 2933 2933 2933 2933 2933 2958 2958 2958 2958 2958 2958 2958 2933 2908 2908 2883 2859 2859 2835 2835 2812 2812 2812 2812 2812 2812 2789 2789 2789 2789 2789 2789 2789 2789 2789 2767 2767 2767 2767 2767 2767 2767 2767 2767 2767 1993 1993 2005 2005 1993 1993 1993 1993 2005 2005 2005 2005 2744 2744 2723 2723 2723 2723 2744 2744 2744 2744 2744 2744 2744 2723 2723 2723 2723 3269 3269 3269 3269 3269 3269 3269 3300 3333 3365 3399 3433 3433 3433 3468 4089 4089 4089 4089 4139 4139 4139 4139 4139 4139 4089 4089 4089 4139 4139 4089 4089 4139 4139 4089 4089 4089 4089 4041 4041 4041 4041 4041 1863 1863 1863 1863 1863 0 0 0 1863 1863 1863 1863 1863 1853 1853 1843 1843 1833 1833 1823 1823 1823 1813 1813 1813 1813 1813 1813 0 0 0 0 0 0 6038 6038 6146 6146 6146 6038 6038 6038 6038 6038 6038 6038 5933 5933 5374 5374 5210 5210 5210 5210 5210 5291 5291 5291 5933 0 0 0 0 0 0 0 0 0 0 0 0 0 0
0 0 0 0 0 0 0 0 0 0 0 0 0 0 0 0 0 0 0 0 0 0 0 0 0 0 0 0 0 0 0 0 0 2579 2579 2579 2579 2579 2579 2579 2598 2598 2618 2618 2618 2639 2639 2639 2639 2659 2659 2659 2659 2659 2659 2659 2680 2680 2701 2723 2723 2723 2744 2744 2744 2744 2744 2744 2744 2744 2744 2767 2767 2767 2767 2789 2789 2789 2789 2789 2789 2789 2789 2812 2812 2812 2812 2835 2859 2859 2859 2859 2859 2859 2859 2859 3300 2984 2984 2984 2958 2958 2984 2984 2984 2984 2984 2984 2984 2984 3010 3010 3010 3010 3010 3037 3064 3064 3064 3064 3092 3092 3092 3092 3092 3092 3092 3092 3092 3092 3120 3120 3120 3149 3149 3178 3178 3178 3178 3178 3178 3208 3208 3208 3238 3238 3269 3269 3300 3300 3300 3300 3300 3333 3300 3300 3333 3333 3365 3399 3399 3433 3503 3539 3539 3503 3503 3468 3468 3433 3433 3433 3433 3433 3433 3433 3433 3433 3433 3468 3503 3503 3503 0 0 0 0 0 1489 1489 1489 1489 1483 1483 1483 1483 1477 1477 1477 1477 1477 1477 1477 1477 1477 1470 1470 1464 1464 1458 1452 1452 1452 1452 1445 1445 1445 1445 1439 1439 1433 1433 1433 1433 1433 1427 1427 1427 1421 1421 1415 1415 1415 1415 1415 1410 1410 1410 1410 1410 1410 1404 1404 1404 1404 1404 1392 1392 1392 1392 1392 1392 1387 1387 1387 1387 1387 1387 1381 1381 1381 1381 1381 1381 1381 1381 1381 1381 1381 1376 1376 1376 1370 1370 1370 1370 1354 1349 1343 1343 1343 1343 1343 1343 1343 1343 1343 1343 1343 1343 1343 1349 1349 1343 1343 1343 0 0 0 0 0 0 0 5132 5132 5132 5210 5210 5374 5460 5548 5640 5640 5734 5933 6146 6146 2241 2241 2241 2241 2241 2226 2226 5374 5374 5374 2286 2286 2286 2286 2286 2286 5374 0 0 0 0 0 0 0 0 0 0 0 0 2241 2226 2226 2271 2271 2271 2271 2271 2271 2286 2286 2286 2286 2286 2286 2271 2271 2271 2271 2271 2256 2256 2256 2256 2256 2271 2271 2271 2271 2271 2271 2271 2241 2241 2241 2241 2241 2226 2226 2241 2241 2241 2241 2241 2226 2226 2226 2226 2226 2226 2226 2212 2212 2212 2212 2212 2198 2198 2198 2198 2184 2184 2184 2198 2198 2198 2170 2170 2184 2184 3037 2156 2143 2143 2143 2143 2143 2143 2143 2143 2143 2156 2156 2156 2908 2958 2958 2958 2933 2933 2958 2958 2958 2958 2958 2933 2933 2933 2933 2933 2933 2933 2933 2933 2933 2933 2933 2933 2933 2958 2958 2958 2958 2984 2958 2958 2933 2908 2883 2883 2859 2859 2835 2835 2812 2812 2812 2812 2812 2812 2789 2789 2789 2789 2767 2767 2767 2767 2767 2767 2767 2767 2767 2767 2767 2767 2767 2767 2767 2005 2005 2005 2005 1993 1993 1993 1993 1993 1993 1981 1981 2744 2744 2723 2723 2744 2744 2744 2744 2744 2744 2744 2744 2744 2744 2744 2744 2744 3238 3238 3238 3269 3269 3269 3269 3300 3333 3365 3399 3433 3433 3433 3433 3433 4089 4089 4089 4139 4139 4139 4139 4139 4089 4089 4089 4089 4089 4089 4089 4089 4089 4089 4089 4089 4089 4089 4089 4041 4041 4041 0 0 0 1863 1863 0 0 0 0 0 0 0 0 0 1853 1853 1843 1843 1843 1833 1823 1823 1823 1813 1813 1823 1823 1823 1823 0 0 0 0 0 0 6038 6038 6146 6146 6146 6038 6038 6038 6038 6038 6038 6038 5933 5933 5374 5291 5210 5210 5210 5210 5210 5291 5291 5291 5933 6038 0 0 0 0 0 0 0 0 0 0 0 0 0
0 0 0 0 0 0 0 0 0 0 0 0 0 0 0 0 0 0 0 0 0 0 0 0 0 0 0 0 0 0 0 0 0 2579 2579 2579 2579 2579 2579 2579 2598 2598 2618 2618 2618 2639 2639 2659 2659 2659 2659 2659 2680 2680 2680 2680 2680 2701 2701 2701 2723 2723 2723 2723 2723 2744 2744 2744 2744 2744 2744 2767 2767 2767 2767 2789 2789 2789 2789 2812 2789 2789 2812 2812 2812 2812 2812 2835 2859 2859 2859 2859 2859 2859 2859 3333 3300 3269 2984 2984 2984 2984 2984 2984 2984 2984 2984 2984 2984 2984 3010 3010 3010 3010 3010 3037 3064 3064 3064 3064 3064 3092 3092 3092 3092 3092 3092 3092 3092 3120 3120 3120 3149 3149 3149 3178 3178 3178 3178 3178 3178 3208 3208 3208 3238 3238 3269 3269 3269 3300 3300 3300 3333 3333 3300 3300 3333 3365 3399 3399 3399 3433 3468 3503 3503 3468 3468 3468 3468 3433 3433 3433 3433 3433 3433 3433 3433 3433 3433 3468 3503 3503 3503 3503 0 0 0 0 1496 1489 1489 1489 1483 1483 1483 1483 1477 1477 1477 1477 1477 1477 1477 1477 1470 1470 1464 1464 1464 1464 1458 1452 1452 1452 1452 1445 1445 1445 1439 1439 1433 1433 1433 1433 1433 1427 1427 1427 1427 1421 1421 1421 1415 1415 1415 1410 1410 1410 1410 1410 1410 1404 1404 1404 1404 1404 1392 1392 1392 1392 1392 1392 1392 1392 1387 1387 1387 1387 1381 1381 1381 1381 1381 1381 1381 1376 1376 1376 1376 1376 1370 1370 1370 1365 1365 1359 1354 1349 1349 1343 1343 1343 1343 1343 1343 1343 1343 1343 1343 1343 1343 1349 1349 1343 1343 1343 1343 1343 0 0 0 0 0 5210 5132 5132 5210 0 0 0 5933 0 5933 5933 5933 5933 2241 2241 2241 2241 2241 2241 2226 2226 2226 2226 5374 5374 2241 2241 2241 2241 2286 5460 0 0 0 0 0 0 0 0 0 0 2212 2212 2226 2226 2226 2241 2241 2256 2256 2271 2286 2286 2286 2286 2286 2286 2286 2286 2271 2271 2271 2271 2271 2271 2271 2256 2256 2271 2271 2271 2271 2271 2256 2256 2241 2241 2241 2241 2241 2241 2241 2241 2241 2241 2241 2241 2226 2226 2226 2226 2226 2212 2212 2212 2212 2212 2212 2212 2198 2198 2198 2198 2184 2184 2184 2184 2198 2198 2170 2170 2184 2184 2184 2156 2143 2143 2143 2143 2143 2143 2143 2143 2156 2156 2156 2908 2908 2958 2958 2958 2958 2958 2958 2958 2958 2958 2958 2958 2958 2958 2933 2933 2933 2933 2933 2933 2933 2933 2933 2933 2958 2958 2958 2958 2958 2984 2958 2958 2933 2908 2883 2883 2859 2859 2835 2835 2835 2812 2812 2812 2812 2812 2789 2789 2789 2789 2767 2767 2767 2767 2767 2767 2767 2767 2767 2767 2767 2767 2789 2789 2789 2005 2005 2005 2005 1993 1993 1993 1993 1993 1993 1981 1981 2744 2744 2723 2723 2744 2744 2744 2744 2744 2744 2744 2744 2744 2744 2744 2744 2744 3238 3238 3238 3269 3269 3269 3269 3300 3333 3399 3399 3433 3433 3433 3433 3433 4139 4139 4139 4139 4139 4139 4139 4139 4089 4089 4089 4089 4089 4089 4089 4089 4089 4089 4089 4089 4089 4089 4089 4041 4041 4089 0 0 0 0 0 0 0 0 0 0 0 0 0 1853 1853 1853 1843 1843 1843 1843 1823 1823 1823 1823 1823 1823 1823 1823 1823 0 0 0 0 0 0 6038 6038 6146 6146 6146 6146 6146 6146 6146 6038 6038 6038 5933 5933 5291 5291 5210 5210 5210 5210 5210 5291 5374 5832 5933 6038 0 0 0 0 0 0 0 0 0 0 0 0 0
0 0 0 0 0 0 0 0 0 0 0 0 0 0 0 0 0 0 0 0 0 0 0 0 0 0 0 0 0 0 0 0 0 2579 2579 2579 2579 2579 2579 2579 2598 2598 2618 2618 2639 2639 2659 2659 2659 2659 2659 2659 2680 2680 2680 2680 2680 2680 2701 2701 2723 2723 2723 2723 2723 2744 2744 2744 2767 2744 2744 2767 2767 2767 2767 2789 2789 2789 2789 2812 2789 2789 2812 2812 2812 2812 2812 2835 2859 2859 2859 2859 2859 2859 2883 3300 3300 3269 3010 2984 2984 2984 2984 2984 2984 2984 2984 2984 3010 3010 3010 3010 3010 3010 3037 3037 3064 3064 3064 3064 3064 3064 3092 3092 3092 3092 3092 3092 3092 3120 3120 3120 3149 3149 3178 3178 3178 3178 3178 3178 3178 3208 3208 3208 3238 3238 3269 3269 3269 3300 3300 3300 3333 3333 3300 3300 3333 3365 3399 3399 3433 3433 3468 3503 3468 3468 3468 3468 3468 3433 3433 3433 3433 3433 3433 3433 3433 3468 3468 3468 3503 3503 3503 3503 3539 0 0 0 1496 1489 1489 1489 1483 1483 1483 1483 1477 1477 1477 1477 1477 1477 1477 1477 1470 1470 1464 1464 1464 1464 1458 1452 1452 1452 1452 1445 1445 1445 1445 1439 1439 1433 1433 1433 1433 1433 1427 1427 1427 1421 1421 1421 1415 1415 1415 1415 1410 1410 1410 1410 1410 1404 1404 1404 1404 1404 1392 1392 1392 1392 1392 1392 1392 1392 1387 1387 1387 1387 1381 1381 1381 1381 1381 1381 1376 1376 1376 1376 1376 1376 1370 1370 1370 1365 1365 1359 1354 1349 1349 1349 1343 1343 1343 1343 1343 1343 1343 1343 1343 1343 1349 1349 1349 1349 1349 1343 1343 1343 0 0 0 0 0 0 0 0 0 0 0 0 0 0 2170 2184 2184 2241 2241 2241 2241 2241 2226 2226 2226 2226 2226 2226 2226 2226 2226 2226 2226 2226 2226 2226 2226 2212 2212 2212 2212 2170 2170 2170 2170 2184 2198 2198 2212 2212 2212 2226 2226 2241 2256 2271 2271 2286 2286 2271 2271 2286 2271 2271 2271 2271 2271 2271 2271 2271 2271 2271 2271 2271 2271 2271 2271 2256 2256 2256 2241 2241 2241 2241 2241 2241 2241 2241 2241 2241 2226 2226 2226 2226 2226 2226 2226 2212 2212 2212 2212 2212 2212 2212 2198 2198 2198 2198 2184 2184 2184 2184 2184 2198 2198 2184 2184 2184 2184 2170 2143 2143 2143 2143 2143 2143 2143 2143 2156 2156 2156 2184 2933 2933 2958 2958 2958 2958 2958 2958 2958 2958 2958 2958 2958 2958 2958 2958 2933 2933 2933 2958 2958 2933 2933 2958 2958 2958 2958 2958 2958 2984 2958 2958 2933 2908 2883 2883 2859 2859 2835 2835 2835 2812 2812 2812 2812 2812 2789 2789 2789 2789 2767 2767 2767 2767 2767 2767 2767 2767 2767 2767 2767 2767 2789 2789 2005 2005 2005 2005 2005 1993 1993 1993 1993 1993 1993 1993 1993 2744 2744 2744 2744 2744 2744 2744 2744 2767 2767 2767 2767 2767 2744 2744 2744 2744 3238 3238 3238 3269 3269 3269 3269 3300 3333 3399 3399 3433 3433 3433 3433 3433 4139 4190 4190 4190 4190 4190 4139 4139 4139 4089 4089 4089 4089 4089 4089 4089 4089 4089 4089 4089 4089 4089 4041 4041 4089 4089 0 0 0 0 0 0 0 0 0 0 0 0 0 1853 1853 1853 1843 1843 1843 1843 1823 1823 1823 1823 1823 1823 1823 1823 0 0 0 0 0 0 6146 6146 6146 6146 6146 6146 6146 6146 6146 6146 6038 6038 6038 5933 5832 5291 5291 5210 5210 5210 5210 5210 5291 5374 5832 5933 6038 0 0 0 0 0 0 0 0 0 0 0 0 0
0 0 0 0 0 0 0 0 0 0 0 0 0 0 0 0 0 0 0 0 0 0 0 0 0 0 0 0 0 0 0 0 0 2560 2560 2560 2598 2579 2579 2598 2598 2618 2618 2618 2639 2639 2659 2659 2659 2680 2680 2680 2680 2680 2680 2680 2680 2680 2701 2701 2723 2723 2723 2723 2723 2744 2744 2744 2767 2744 2744 2767 2767 2767 2789 2789 2789 2789 2789 2812 2812 2812 2812 2812 2835 2835 2835 2859 2859 2859 2859 2883 2883 2859 2859 3269 3269 3238 3208 3010 2984 2984 2984 2984 2984 2984 2984 2984 3010 3010 3010 3010 3010 3010 3037 3037 3064 3064 3064 3064 3064 3064 3092 3092 3092 3092 3092 3092 3092 3120 3120 3120 3149 3178 3178 3178 3178 3178 3178 3178 3178 3208 3208 3208 3208 3238 3300 3300 3300 3300 3300 3300 3333 3333 3300 3300 3333 3333 3399 3399 3433 3433 3468 3468 3468 3468 3468 3468 3433 3433 3468 3433 3433 3433 3433 3433 3433 3468 3468 3468 3503 3503 3503 3539 3539 0 0 0 0 1489 1489 1489 1489 1489 1489 1489 1489 1483 1483 1483 1483 1477 1477 1477 1477 1470 1470 1464 1464 1464 1458 1452 1452 1452 1452 1452 1445 1445 1445 1445 1439 1439 1433 1433 1433 1433 1427 1427 1427 1427 1421 1421 1415 1415 1415 1415 1410 1410 1410 1410 1410 1410 1404 1404 1404 1404 1392 1392 1392 1392 1392 1392 1387 1387 1387 1387 1387 1387 1381 1381 1381 1381 1376 1376 1376 1376 1376 1376 1376 1376 1370 1370 1370 1370 1365 1359 1359 1354 1354 1349 1349 1343 1343 1343 1343 1338 1338 1338 1343 1343 1343 1349 1349 1349 1349 1349 1349 1349 1349 0 0 0 0 0 0 0 0 0 0 0 0 0 0 0 2184 2184 2226 2226 2226 2226 2226 2226 2226 2226 2226 2226 2212 2212 2212 2198 2198 2212 2212 2198 2198 2212 2212 2212 2184 2170 2170 2156 2156 2170 2184 2184 2198 2212 2212 2226 2226 2241 2256 2256 2271 2271 2271 2271 2271 2271 2271 2271 2271 2271 2271 2271 2271 2271 2271 2271 2271 2271 2271 2271 2271 2256 2256 2256 2256 2256 2241 2241 2241 2241 2241 2241 2241 2241 2226 2226 2226 2226 2226 2226 2212 2212 2212 2212 2212 2212 2212 2212 2198 2198 2198 2198 2184 2184 2184 2184 2184 2198 2198 2184 2184 2184 2184 2170 2156 2143 2143 2143 2143 2143 2143 2143 2156 2156 2156 2184 2933 2933 2958 2958 2958 2958 2958 2958 2958 2958 2958 2958 2958 2958 2958 2958 2958 2958 2958 2958 2958 2958 2958 2958 2958 2958 2958 2958 2984 2984 2958 2958 2933 2933 2908 2883 2859 2859 2835 2835 2835 2812 2812 2812 2812 2812 2789 2789 2789 2789 2789 2789 2789 2789 2767 2767 2767 2767 2767 2767 2767 2789 2789 2789 2005 2005 2005 2005 2005 1993 1993 1993 1993 1993 1993 1993 1993 2744 2744 2744 2744 2767 2767 2767 2767 2767 2767 2767 2767 2767 2767 2767 2767 2767 3238 3238 3238 3238 3238 3269 3269 3333 3365 3399 3433 3433 3433 3433 3433 3433 4139 4190 4190 4190 4190 4190 4139 4139 4139 4139 4139 4139 4089 4089 4089 4089 4089 4089 4089 4089 4089 4089 4041 4041 4089 4089 0 0 0 0 0 0 0 0 0 0 0 0 0 1853 1843 1843 1843 1843 1843 1843 1833 1833 1823 1823 1823 1823 1823 1823 0 0 0 0 0 0 6038 6038 6038 6146 6146 6146 6146 6146 6146 6146 6038 6038 5933 5933 5460 5291 5291 5210 5210 5210 5210 5210 5291 5374 5832 6038 6146 0 0 0 0 0 0 0 0 0 0 0 0 0
0 0 0 0 0 0 0 0 0 0 0 0 0 0 0 0 0 0 0 0 0 0 0 0 0 0 0 0 0 0 0 0 0 2560 2560 2560 2598 2598 2598 2598 2598 2618 2618 2639 2639 2639 2659 2659 2659 2680 2680 2680 2680 2680 2680 2680 2680 2701 2701 2701 2723 2723 2723 2723 2723 2744 2744 2767 2767 2767 2767 2767 2767 2767 2789 2789 2789 2789 2789 2812 2812 2812 2812 2812 2835 2835 2859 2859 2859 2859 2859 2883 2883 2859 2859 3238 3238 3238 3208 3010 2984 2984 2984 2984 2984 2984 2984 2984 2984 3010 3010 3010 3010 3037 3037 3037 3064 3064 3064 3064 3064 3092 3092 3092 3092 3092 3092 3120 3149 3149 3149 3149 3149 3178 3178 3178 3178 3178 3178 3178 3178 3208 3208 3208 3208 3238 3269 3269 3300 3300 3300 3300 3333 3333 3300 3300 3300 3333 3399 3399 3433 3433 3468 3468 3468 3468 3468 3468 3433 3433 3468 3433 3433 3433 3433 3433 3433 3468 3468 3503 3539 3539 3539 3539 3576 0 0 0 0 1496 1489 1489 1489 1489 1489 1489 1489 1483 1483 1483 1483 1483 1483 1477 1477 1477 1470 1470 1464 1464 1458 1458 1452 1452 1452 1452 1445 1445 1445 1445 1439 1439 1439 1433 1433 1433 1433 1433 1427 1427 1421 1421 1421 1415 1415 1415 1415 1415 1415 1415 1410 1410 1404 1404 1404 1404 1392 1392 1392 1392 1392 1392 1387 1387 1387 1387 1387 1387 1381 1381 1381 1381 1376 1376 1376 1376 1376 1376 1376 1370 1370 1370 1370 1370 1370 1365 1359 1354 1349 1349 1343 1343 1343 1338 1338 1338 1338 1338 1338 1338 1343 1349 1349 1349 1349 1354 1354 1349 1349 0 0 0 0 0 0 0 0 0 0 0 0 2170 0 2170 2184 2184 2184 2212 2212 2226 2226 2226 2226 2226 2212 2212 2212 2198 2184 2184 2184 2198 2198 2184 2184 2198 2198 2198 2170 2170 2170 2156 2156 2170 2184 2184 2198 2212 2212 2212 2226 2241 2241 2241 2271 2271 2271 2271 2271 2271 2271 2271 2271 2271 2271 2271 2271 2271 2271 2271 2271 2271 2271 2271 2271 2256 2256 2256 2256 2256 2241 2241 2241 2241 2241 2241 2241 2241 2241 2241 2226 2226 2226 2226 2212 2212 2212 2212 2212 2212 2212 2212 2198 2198 2198 2198 2184 2184 2184 2184 2184 2198 2198 2184 2184 2184 2184 2170 2156 2143 2143 2143 2143 2143 2143 2143 2156 2156 2156 2933 2958 2958 2958 2958 2958 2958 2958 2958 2958 2958 2958 2958 2958 2958 2958 2958 2958 2958 2958 2958 2958 2958 2958 2958 2958 2958 2958 2958 2984 2984 2958 2958 2958 2933 2908 2883 2859 2859 2835 2835 2835 2835 2812 2812 2812 2812 2789 2789 2789 2789 2789 2789 2789 2789 2789 2767 2767 2789 2789 2767 2767 2789 2789 2789 2005 2005 2005 2005 2005 1993 1993 1993 1993 1993 1993 1993 1993 2744 2744 2744 2744 2767 2767 2767 2767 2767 2767 2767 2767 2767 2767 2767 2767 2767 3269 3269 3269 3238 3238 3269 3269 3365 3365 3433 3468 3433 3433 3433 3433 3433 4190 4139 4139 4139 4139 4139 4139 4139 4139 4139 4139 4139 4139 4089 4089 4089 4089 4089 4089 4089 4089 4089 4041 4041 4089 4089 0 0 0 0 0 0 0 0 0 0 0 0 0 0 1843 1843 1843 1843 1843 1843 1833 1833 1823 1823 1823 1823 1823 1823 0 0 0 0 0 0 6038 6038 6038 6038 6146 6146 6146 6146 6146 6146 6038 6038 5933 5933 5374 5291 5291 5210 5210 5210 5210 5210 5374 5734 5933 6038 6038 0 0 0 0 0 0 0 0 0 0 0 0 0
0 0 0 0 0 0 0 0 0 0 0 0 0 0 0 0 0 0 0 0 0 0 0 0 0 0 0 0 0 0 0 0 0 2598 2598 2618 2598 2598 2598 2598 2618 2618 2618 2639 2639 2639 2659 2659 2659 2680 2680 2680 2680 2680 2680 2680 2680 2701 2701 2701 2723 2723 2723 2723 2723 2744 2744 2767 2767 2767 2767 2767 2767 2767 2789 2789 2789 2789 2789 2812 2812 2812 2812 2812 2835 2835 2859 2859 2859 2859 2859 2883 2883 2883 2883 3238 3208 3208 3178 3010 2984 2984 2984 2984 2984 2984 2984 2984 2984 3010 3010 3010 3010 3037 3037 3064 3064 3064 3064 3064 3092 3092 3092 3092 3092 3092 3120 3149 3149 3149 3178 3178 3178 3178 3178 3178 3178 3178 3178 3178 3208 3208 3208 3238 3238 3238 3269 3269 3300 3300 3300 3300 3333 3333 3300 3300 3300 3333 3399 3433 3433 3433 3468 3468 3468 3468 3468 3468 3433 3433 3468 3433 3433 3468 3468 3468 3468 3468 3503 3503 3503 3503 3539 3539 3576 0 0 0 0 1496 1496 1496 1489 1489 1489 1489 1489 1489 1489 1489 1489 1483 1483 1477 1477 1477 1470 1470 1470 1464 1458 1458 1458 1452 1452 1452 1452 1452 1452 1445 1445 1439 1439 1439 1439 1433 1433 1433 1427 1427 1427 1421 1421 1421 1421 1415 1415 1415 1415 1415 1410 1410 1404 1404 1404 1404 1392 1392 1392 1392 1392 1392 1392 1387 1387 1387 1387 1381 1381 1381 1381 1376 1376 1376 1376 1376 1376 1370 1370 1370 1370 1370 1370 1370 1365 1365 1359 1354 1349 1349 1343 1343 1343 1338 1338 1338 1338 1338 1338 1338 1343 1349 1349 1349 1349 1354 1354 1354 1354 0 0 0 0 0 0 0 0 0 2184 2184 2184 2170 2170 2170 2143 2143 2170 2170 2184 2212 2184 2184 2212 2212 2212 2198 2198 2184 2184 2184 2184 2184 2184 2170 2170 2170 2170 2170 2170 2156 2156 2156 2156 2170 2170 2170 2184 2184 2198 2212 2226 2226 2226 2241 2256 2256 2256 2256 2256 2271 2271 2271 2271 2271 2271 2271 2271 2271 2256 2256 2256 2256 2256 2271 2256 2256 2256 2256 2256 2256 2241 2241 2241 2241 2241 2241 2241 2241 2241 2241 2226 2226 2226 2226 2212 2212 2212 2212 2212 2212 2212 2212 2198 2198 2198 2198 2198 2184 2184 2184 2184 2184 2198 2184 2184 2170 2170 2170 2156 2143 2143 2143 2143 2143 2143 2143 2156 2143 2143 2958 2958 2958 2958 2958 2958 2958 2958 2958 2958 2958 2958 2958 2958 2958 2958 2958 2958 2958 2958 2958 2958 2958 2958 2958 2958 2958 2958 2958 2984 2984 2958 2958 2958 2933 2908 2883 2859 2859 2835 2835 2835 2835 2812 2812 2812 2812 2812 2789 2789 2789 2789 2789 2789 2789 2789 2767 2767 2789 2789 2789 2789 2789 2789 2789 2016 2005 2005 2005 2005 1993 1993 1993 1993 1993 1993 1981 1981 2744 2744 2744 2744 2767 2767 2767 2767 2767 2767 2767 2767 2767 2767 2767 2767 3269 3269 3269 3269 3269 3269 3269 3269 3365 3399 3433 3468 3468 3468 3468 3468 3468 4190 4139 4139 4139 4139 4139 4139 4139 4139 4139 4139 4139 4139 4089 4089 4089 4089 4089 4089 4089 4089 4089 4089 4089 4089 0 0 0 0 0 0 0 0 0 0 0 0 0 0 0 1853 1853 1853 1853 1853 1843 1833 1833 1833 1833 1823 1823 1823 1833 0 0 0 0 0 0 5933 5933 5933 6038 6038 6146 6146 6146 6146 6038 6038 5933 5933 5933 5374 5291 5291 5210 5210 5210 5210 5210 5460 5832 5933 6038 6038 0 0 0 0 0 0 0 0 0 0 0 0 0
0 0 0 0 0 0 0 0 0 0 0 0 0 0 0 0 0 0 0 0 0 0 0 0 0 0 0 0 0 0 0 0 0 2579 2579 2618 2618 2618 2618 2618 2618 2618 2618 2639 2639 2639 2659 2659 2659 2680 2659 2659 2680 2680 2680 2680 2680 2680 2701 2701 2701 2701 2723 2723 2723 2723 2744 2744 2767 2744 2744 2767 2767 2767 2789 2789 2789 2789 2812 2812 2812 2812 2812 2812 2835 2835 2859 2859 2859 2859 2859 2883 2883 2908 2908 3178 3178 3178 3149 3010 2984 2984 2984 2984 2984 2984 2984 2984 2984 3010 3010 3010 3037 3037 3037 3064 3064 3064 3064 3064 3092 3092 3092 3092 3092 3120 3120 3149 3149 3149 3178 3178 3178 3178 3178 3178 3178 3178 3178 3178 3208 3208 3208 3238 3238 3238 3269 3269 3300 3300 3300 3333 3333 3333 3300 3300 3300 3333 3333 3433 3433 3433 3433 3433 3433 3468 3468 3468 3433 3433 3468 3433 3433 3468 3468 3468 3468 3468 3468 3503 3503 3503 3539 3539 3576 0 0 0 0 1503 1496 1496 1489 1489 1496 1496 1496 1489 1489 1489 1489 1483 1483 1477 1477 1477 1470 1470 1470 1464 1464 1458 1458 1452 1452 1452 1452 1452 1452 1452 1445 1445 1439 1439 1439 1433 1433 1433 1427 1427 1427 1421 1421 1421 1421 1415 1415 1415 1415 1415 1410 1410 1410 1404 1404 1404 1398 1392 1392 1392 1392 1392 1392 1392 1387 1387 1387 1381 1381 1381 1381 1376 1376 1376 1376 1376 1376 1370 1370 1370 1370 1370 1370 1370 1365 1365 1359 1354 1349 1349 1343 1343 1343 1343 1338 1338 1338 1338 1338 1343 1349 1349 1354 1354 1354 1359 1359 1359 1370 0 0 0 0 0 0 0 2156 2156 2170 2170 2170 2156 2129 2129 2129 2129 2170 2170 2184 2184 2184 2184 2184 2198 2198 2198 2170 2170 2170 2170 2170 2156 2156 2156 2156 2170 2170 2170 2156 2156 2156 2156 2156 2156 2170 2170 2170 2170 2184 2184 2198 2198 2198 2212 2226 2241 2256 2241 2241 2256 2271 2271 2271 2271 2271 2271 2271 2256 2256 2256 2256 2256 2256 2256 2256 2256 2256 2256 2256 2241 2241 2241 2241 2241 2241 2241 2241 2241 2241 2241 2226 2226 2226 2226 2212 2212 2212 2212 2212 2212 2212 2212 2212 2198 2198 2198 2198 2184 2184 2184 2184 2184 2198 2170 2170 2170 2170 2170 2156 2143 2143 2143 2143 2143 2156 2156 2156 2143 2143 2958 2958 2958 2958 2958 2958 2958 2958 2958 2958 2958 2958 2958 2958 2958 2958 2958 2958 2958 2958 2958 2958 2958 2958 2958 2958 2958 2958 2958 2984 2984 2958 2958 2958 2933 2908 2883 2859 2859 2835 2835 2835 2835 2835 2835 2812 2812 2812 2789 2789 2789 2789 2789 2789 2789 2789 2789 2789 2789 2789 2789 2789 2789 2789 2789 2016 2005 2005 2005 2005 1993 1993 1993 1993 1993 1993 1981 1981 2723 2744 2744 2744 2767 2767 2767 2767 2767 2767 2767 2767 2767 2767 2767 2767 3269 3269 3269 3269 3269 3269 3269 3300 3365 3399 3433 3468 3468 3468 3468 3503 4241 4190 4190 4190 4190 4190 4190 4190 4139 4139 4139 4139 4139 4139 4139 4139 4089 4089 4089 4089 4089 4089 4089 4089 4089 4089 0 0 0 0 0 0 0 0 0 0 0 0 0 0 0 1863 1853 1853 1853 1843 1843 1833 1833 1833 1833 1823 1823 1833 1833 0 0 0 0 0 0 5933 5933 5933 6038 6038 6038 6038 6038 6038 6038 5933 5933 5933 5933 5933 5291 5291 5210 5210 5210 5210 5291 5460 5832 5933 6038 6038 0 0 0 0 0 0 0 0 0 0 0 0 0
0 0 0 0 0 0 0 0 0 0 0 0 0 0 0 0 0 0 0 0 0 0 0 0 0 0 0 0 0 0 0 0 0 2579 2579 2618 2618 2618 2618 2618 2618 2618 2639 2639 2639 2639 2659 2659 2659 2680 2659 2659 2680 2680 2680 2680 2680 2680 2701 2701 2701 2701 2723 2723 2723 2723 2744 2744 2767 2744 2744 2744 2767 2767 2767 2767 2789 2789 2789 2789 2812 2812 2812 2812 2835 2859 2859 2859 2859 2859 2859 2883 2883 2908 2908 2984 3178 3178 3120 3010 2984 2984 2984 2984 2984 2984 2984 2984 2984 3010 3010 3010 3037 3037 3037 3064 3064 3064 3064 3064 3092 3092 3092 3092 3092 3120 3120 3149 3149 3149 3178 3178 3178 3178 3178 3178 3208 3208 3208 3208 3208 3208 3238 3238 3269 3269 3269 3300 3300 3300 3333 3333 3333 3333 3300 3300 3300 3333 3333 3433 3433 3433 3433 3433 3433 3468 3468 3468 3468 3468 3468 3468 3468 3468 3468 3468 3468 3468 3468 3503 3503 3503 3503 3539 3576 0 0 0 0 1503 1496 1496 1496 1496 1496 1496 1496 1496 1496 1496 1489 1489 1483 1483 1477 1477 1477 1470 1470 1464 1464 1458 1458 1458 1458 1458 1452 1452 1452 1452 1452 1445 1445 1445 1439 1433 1433 1433 1433 1427 1427 1427 1427 1421 1421 1421 1415 1415 1415 1415 1410 1410 1410 1410 1404 1404 1398 1392 1392 1392 1392 1392 1392 1392 1387 1387 1387 1381 1381 1381 1381 1381 1376 1376 1376 1376 1370 1370 1370 1370 1370 1370 1370 1370 1365 1365 1359 1354 1354 1349 1349 1343 1343 1343 1338 1338 1338 1338 1338 1343 1349 1349 1354 1354 1359 1359 1365 1370 1370 0 0 2129 2129 2116 2116 2116 2116 2129 2156 2156 2156 2143 2129 2129 2116 2116 2129 2129 2143 2170 2184 2184 2184 2184 2184 2156 2156 2143 2143 2129 2129 2143 2143 2143 2156 2156 2156 2156 2143 2143 2143 2143 2143 2156 2156 2156 2170 2170 2170 2156 2156 2184 2184 2184 2184 2184 2198 2129 2129 2226 2256 2271 2271 2271 2256 2256 2271 2256 2256 2226 2226 2256 2256 2256 2241 2241 2241 2241 2241 2241 2241 2241 2241 2241 2241 2241 2241 2241 2241 2226 2226 2226 2212 2212 2212 2212 2212 2212 2212 2212 2212 2212 2212 2198 2198 2198 2184 2184 2184 2184 2184 2184 2198 2170 2170 2170 2170 2170 2156 2156 2156 2156 2156 2156 2156 2156 2156 2156 2156 2958 2958 2958 2958 2958 2958 2958 2958 2958 2958 2958 2958 2958 2958 2958 2958 2958 2958 2958 2958 2958 2958 2958 2958 2958 2958 2958 2958 2958 2984 2984 2958 2958 2958 2933 2933 2883 2883 2859 2859 2835 2835 2835 2835 2835 2835 2812 2789 2789 2789 2789 2789 2789 2789 2789 2789 2789 2789 2789 2789 2789 2789 2789 1993 1993 2005 2005 2005 2016 2016 2005 2005 2005 2005 2005 2005 2005 2701 2723 2744 2744 2744 2767 2767 2767 2767 2767 2767 2767 2767 2767 2767 2767 2767 3269 3269 3269 3238 3238 3269 3269 3269 3399 3399 3468 3468 3468 3503 3503 3539 3539 4190 4190 4190 4190 4190 4139 4139 4139 4139 4190 4190 4190 4139 4139 4139 4139 4089 4089 4089 4089 4089 4089 4089 4089 4089 0 0 0 0 0 0 0 0 0 0 0 0 0 0 0 1863 1853 1853 1853 1843 1843 1833 1833 1833 1833 1823 1823 1833 0 0 0 0 0 0 0 0 6038 5933 5933 6038 6038 5933 5933 6038 5933 5933 5933 5832 5832 5832 5291 5210 5210 5210 5291 5291 5291 5460 5460 5460 0 0 0 0 0 0 0 0 0 0 0 0 0 0 0
0 0 0 0 0 0 0 0 0 0 0 0 0 0 0 0 0 0 0 0 0 0 0 0 0 0 0 0 0 0 0 0 0 2598 2598 2618 2618 2618 2618 2618 2618 2618 2639 2639 2639 2639 2659 2659 2659 2659 2659 2659 2680 2680 2680 2680 2701 2701 2701 2701 2701 2723 2723 2723 2723 2723 2744 2744 2744 2744 2744 2744 2767 2767 2767 2767 2789 2789 2789 2789 2812 2812 2812 2812 2835 2859 2859 2859 2859 2859 2859 2883 2883 2908 2933 2984 3092 3120 3010 3010 2984 2984 2984 2984 2984 2984 2984 3010 3010 3010 3010 3010 3037 3037 3037 3064 3064 3064 3064 3064 3092 3092 3092 3092 3120 3120 3149 3149 3149 3149 3178 3178 3178 3178 3178 3178 3208 3208 3208 3208 3208 3238 3238 3238 3269 3269 3269 3300 3300 3333 3333 3333 3333 3333 3300 3300 3300 3333 3333 3399 3399 3433 3433 3433 3468 3468 3468 3468 3468 3468 3468 3468 3468 3503 3503 3503 3503 3503 3503 3503 3503 3503 3503 3539 3576 0 0 0 0 1503 1496 1496 1496 1496 1496 1496 1496 1496 1496 1496 1489 1489 1489 1483 1483 1477 1477 1477 1470 1470 1470 1464 1464 1464 1458 1458 1458 1458 1458 1452 1452 1445 1445 1445 1445 1439 1439 1433 1433 1433 1427 1427 1427 1427 1421 1421 1415 1415 1415 1415 1415 1415 1415 1410 1410 1404 1398 1398 1392 1392 1392 1392 1392 1392 1387 1387 1387 1387 1381 1381 1381 1381 1381 1376 1376 1376 1370 1370 1370 1370 1370 1370 1370 1370 1365 1365 1359 1359 1354 1354 1349 1349 1343 1343 1343 1343 1343 1343 1343 1343 1349 1349 1354 1354 1359 1359 1365 1370 1370 0 2116 2116 2116 2116 2116 2116 2116 2129 2129 2129 2129 2129 2129 2129 2103 2103 2116 2116 2129 2129 2143 2143 2143 2129 2129 2129 2129 2129 2129 2129 2129 2129 2129 2143 2156 2156 2143 2143 2143 2143 2143 2143 2143 2156 2156 2156 2156 2156 2156 2129 2129 2129 2143 2143 2143 2129 2129 2116 2116 2116 2129 2116 2116 2116 2116 2129 2271 2256 2256 2198 2198 2256 2256 2241 2226 2226 2226 2226 2226 2226 2226 2226 2226 2241 2241 2226 2226 2241 2241 2226 2226 2226 2212 2212 2212 2212 2212 2212 2212 2212 2212 2212 2212 2198 2198 2198 2184 2184 2184 2184 2184 2184 2184 2170 2170 2170 2170 2156 2156 2156 2156 2156 2156 2156 2156 2156 2156 2156 2156 2958 2958 2958 2958 2958 2958 2958 2958 2958 2958 2958 2958 2958 2958 2958 2958 2958 2958 2958 2958 2958 2958 2958 2958 2958 2958 2958 2958 2958 2984 2984 2984 2958 2958 2958 2933 2883 2883 2859 2859 2835 2835 2835 2835 2835 2835 2812 2789 2789 2789 2789 2789 2789 2789 2789 2789 2789 2789 2789 2789 2789 2789 2789 1993 1993 2005 2005 2005 2016 2016 2005 2005 2005 2005 2005 2005 2005 2680 2723 2744 2744 2744 2767 2767 2767 2767 2767 2767 2767 2767 2767 2767 2767 2767 3269 3269 3269 3238 3238 3269 3269 3269 3399 3433 3468 3503 3503 3539 3539 3576 3732 4139 4139 4139 4139 4139 4139 4139 4190 4190 4190 4190 4190 4139 4139 4089 4089 4089 4089 4089 4089 4089 4089 4089 4089 4089 0 0 0 0 0 0 0 0 0 0 0 0 0 0 0 1863 1853 1853 1843 1843 1843 1833 1833 1833 1833 1823 1823 1833 0 0 0 0 0 0 0 0 0 5933 5933 5832 5734 5734 5832 5933 5832 5832 5832 5734 5734 5734 5291 5210 5210 5210 5291 5291 5291 5460 5460 0 0 0 0 0 0 0 0 0 0 0 0 0 0 0 0
0 0 0 0 0 0 0 0 0 0 0 0 0 0 0 0 0 0 0 0 0 0 0 0 0 0 0 0 0 0 0 0 0 2598 2598 2618 2618 2618 2618 2618 2639 2639 2639 2639 2639 2639 2659 2659 2659 2659 2659 2659 2680 2680 2680 2701 2701 2701 2701 2701 2701 2723 2723 2723 2723 2723 2744 2744 2744 2744 2744 2744 2767 2767 2767 2767 2789 2789 2812 2812 2812 2812 2812 2835 2835 2859 2859 2859 2859 2859 2883 2883 2883 2908 2933 2984 3010 3010 3010 3010 2984 2984 2984 2984 2984 2984 2984 2984 2984 3010 3010 3010 3037 3037 3037 3064 3064 3064 3064 3064 3092 3092 3092 3092 3120 3120 3149 3149 3149 3178 3178 3178 3178 3178 3178 3178 3208 3208 3208 3208 3208 3238 3238 3238 3269 3269 3300 3300 3300 3333 3333 3333 3333 3333 3300 3300 3333 3333 3333 3399 3399 3433 3433 3433 3468 3433 3433 3468 3468 3468 3468 3539 3539 3539 3539 3539 3539 3503 3503 3503 3503 3503 3539 0 0 0 0 0 0 1503 1503 1503 1496 1496 1496 1503 1496 1496 1496 1496 1496 1489 1489 1483 1483 1477 1477 1477 1477 1470 1470 1464 1464 1464 1458 1458 1458 1458 1458 1458 1452 1452 1445 1445 1439 1439 1439 1433 1433 1433 1427 1427 1427 1427 1421 1421 1421 1415 1415 1415 1415 1415 1415 1410 1410 1410 1398 1398 1398 1398 1398 1392 1392 1392 1392 1387 1387 1387 1381 1381 1381 1381 1381 1381 1381 1376 1376 1376 1376 1370 1370 1370 1370 1370 1370 1365 1365 1359 1354 1354 1354 1349 1349 1349 1349 1343 1343 1343 1343 1349 1349 1349 1354 1354 1359 1365 1370 1370 1370 1370 2103 2103 2090 2090 2078 2078 2078 2116 2078 2078 2078 2116 2116 2116 2090 2090 2103 2103 2103 2103 2103 2103 2103 2116 2116 2116 2116 2129 2116 2116 2116 2116 2129 2129 2143 2143 2129 2129 2143 2129 2129 2129 2129 2143 2143 2143 2143 2143 2129 2129 2129 2129 2129 2129 2129 2129 2129 2103 2103 2103 2116 2116 2103 2103 2116 2116 2116 2116 2116 2116 2116 2103 2103 2241 2226 2226 2226 2226 2226 2226 2226 2212 2212 2226 2226 2226 2226 2241 2241 2226 2226 2226 2212 2212 2212 2212 2212 2212 2212 2212 2212 2198 2198 2198 2198 2198 2198 2184 2184 2184 2184 2184 2184 2170 2170 2170 2170 2156 2156 2156 2156 2156 2156 2156 2156 2156 2156 2156 2156 2170 2958 2958 2958 2958 2958 2958 2958 2958 2958 2958 2958 2958 2958 2958 2958 2958 2958 2958 2958 2958 2958 2958 2958 2958 2958 2958 2958 2984 2984 2984 2984 2958 2958 2958 2933 2883 2883 2859 2859 2835 2835 2835 2835 2835 2835 2812 2812 2789 2789 2789 2789 2789 2789 2789 2789 2789 2789 2789 2789 2789 2789 2789 2005 2005 2005 2005 2005 2005 2016 2005 2005 2005 2005 2005 2005 2005 2680 2723 2744 2744 2744 2767 2767 2767 2767 2767 2767 2767 2767 2767 2767 2767 2789 3269 3269 3269 3238 3238 3269 3269 3300 3333 3433 3503 3503 3539 3576 3576 3614 3732 3903 4089 4139 4139 4139 4139 4139 4139 4139 4190 4190 4190 4139 4139 4089 4089 4089 4089 4089 4089 4089 4089 4089 4089 4089 0 0 0 0 0 0 0 0 0 0 0 0 0 0 0 1863 1853 1853 1843 1843 1843 1833 1833 1833 1833 1833 1833 1843 0 0 0 0 0 0 0 0 0 5640 5640 5640 5640 5640 5640 5734 5734 5734 5734 5734 5640 5460 5291 5291 5291 5291 5291 5291 5291 5460 5640 0 0 0 0 0 0 0 0 0 0 0 0 0 0 0 0
0 0 0 0 0 0 0 0 0 0 0 0 0 0 0 0 0 0 0 0 0 0 0 0 0 0 0 0 0 0 0 0 0 2598 2598 2598 2618 2618 2618 2618 2639 2639 2639 2639 2639 2639 2659 2659 2659 2659 2680 2680 2680 2701 2701 2701 2701 2701 2701 2723 2723 2723 2723 2723 2723 2744 2744 2744 2744 2744 2744 2744 2744 2744 2767 2767 2789 2789 2789 2789 2812 2812 2812 2812 2835 2859 2859 2859 2859 2859 2883 2883 2908 2908 2958 2984 3010 3010 3010 3010 2984 2984 2984 2984 2984 2984 2984 2984 2984 3010 3010 3010 3037 3037 3064 3064 3064 3064 3092 3092 3092 3092 3092 3092 3120 3120 3149 3149 3149 3149 3178 3178 3178 3178 3178 3178 3208 3208 3208 3208 3208 3208 3238 3269 3269 3300 3300 3300 3333 3333 3333 3333 3333 3365 3300 3300 3333 0 0 3399 3399 3433 3433 3433 3468 3433 3433 3468 3468 3468 3468 3576 3576 3614 3614 3614 3576 3539 3539 3503 3503 0 0 0 0 0 0 0 0 1503 1503 1503 1496 1496 1496 1503 1496 1496 1496 1496 1496 1496 1496 1489 1489 1483 1483 1483 1477 1477 1477 1470 1470 1470 1470 1464 1464 1458 1458 1458 1452 1452 1445 1445 1439 1439 1439 1439 1439 1433 1433 1433 1427 1427 1427 1427 1421 1421 1415 1415 1415 1415 1415 1415 1410 1410 1398 1398 1398 1398 1398 1392 1392 1392 1392 1392 1387 1387 1387 1387 1381 1381 1381 1381 1381 1381 1376 1376 1376 1370 1370 1370 1370 1370 1370 1365 1365 1359 1354 1354 1354 1349 1349 1349 1349 1343 1343 1343 1343 1349 1349 1349 1354 1354 1359 1365 1370 1370 1370 1370 2090 2090 2078 2078 2078 2078 2078 2103 2078 2078 2078 2116 2116 2116 2090 2090 2090 2090 2090 2103 2090 2090 2090 2103 2103 2103 2103 2116 2116 2116 2116 2116 2129 2129 2143 2143 1214 1214 2143 2129 1214 1214 1210 1210 2116 2116 2116 2116 2116 2116 2116 2116 2129 2129 2129 2103 2103 2103 2103 2103 2103 2103 2103 2103 2103 2103 2103 2103 2103 2103 2103 2103 2090 2090 2090 2116 2116 2116 2129 2184 2184 2198 2212 2226 2226 2241 2241 2241 2241 2226 2226 2226 2212 2212 2212 2212 2212 2212 2212 2212 2212 2198 2198 2198 2198 2198 2198 2184 2184 2184 2184 2184 2184 2170 2170 2170 2156 2156 2156 2156 2156 2156 2156 2156 2156 2156 2156 2156 2156 2156 2984 2984 2984 2958 2958 2958 2958 2958 2958 2958 2958 2958 2958 2958 2958 2958 2958 2958 2958 2958 2958 2958 2958 2958 2958 2958 2958 2984 2984 2984 2984 2958 2958 2933 2908 2883 2883 2859 2859 2859 2859 2835 2835 2835 2835 2812 2812 2789 2789 2789 2789 2789 2789 2789 2789 2789 2789 2789 2789 2789 2789 2789 2005 2005 2005 2005 2005 2005 2005 2005 2005 2005 2005 1993 1993 1993 1993 1993 2744 2744 2744 2767 2767 2767 2767 2767 2767 2789 2789 2767 2767 2789 2789 2789 3300 3269 3269 3269 3269 3300 3300 3333 3433 3503 3539 3539 3576 3576 3614 3903 3903 4089 4139 4139 4139 4139 4139 4139 4139 4190 4190 4190 4139 4139 4139 4089 4089 4089 4089 4089 4089 4089 4089 4089 4089 0 0 0 0 0 0 0 0 0 0 0 0 0 0 0 1863 1853 1853 1843 1843 1843 1833 1833 1833 1833 1833 1833 0 0 0 0 0 0 0 0 5548 5548 5548 5548 5548 5640 5640 5640 5640 5734 5640 5640 5640 5640 5291 5291 5291 5291 5291 5291 5291 5291 5460 5640 5734 5734 0 0 0 0 0 0 0 0 0 0 0 0 0 0
0 0 0 0 0 0 0 0 0 0 0 0 0 0 0 0 0 0 0 0 0 0 0 0 0 0 0 0 0 0 0 0 0 2598 2598 2598 2618 2618 2618 2618 2618 2639 2639 2639 2639 2639 2659 2659 2659 2659 2659 2659 2680 2701 2701 2701 2701 2701 2701 2723 2723 2723 2723 2723 2723 2744 2744 2744 2744 2744 2744 2744 2744 2744 2767 2767 2789 2789 2789 2789 2812 2812 2812 2812 2835 2859 2859 2859 2859 2883 2883 2883 2908 2908 2958 2984 3010 3037 3010 3010 2984 2984 2984 2984 2984 2984 2984 2984 3010 3010 3010 3037 3037 3064 3064 3064 3064 3064 3092 3092 3092 3092 3092 3092 3120 3120 3120 3149 3149 3149 3178 3178 3178 3208 3208 3208 3208 3208 3208 3208 3208 3208 3269 3269 3269 3300 3300 3300 3333 3333 3333 3333 3333 3399 3433 3433 0 0 0 0 0 0 0 0 0 3433 3433 3468 3468 3468 3539 3576 3576 3614 3614 3614 0 0 0 0 0 0 0 0 0 0 0 0 0 1503 1496 1496 1496 1496 1496 1503 1496 1496 1496 1496 1496 1496 1496 1496 1496 1489 1489 1483 1483 1477 1477 1470 1470 1470 1470 1470 1470 1464 1464 1464 1452 1452 1452 1452 1445 1445 1445 1439 1439 1439 1433 1433 1433 1433 1433 1427 1421 1421 1421 1421 1421 1421 1421 1415 1415 1415 1404 1398 1398 1398 1398 1392 1392 1392 1392 1392 1392 1392 1387 1387 1387 1387 1387 1387 1381 1381 1376 1376 1376 1370 1370 1370 1370 1370 1370 1365 1365 1359 1354 1354 1354 1349 1349 1349 1349 1349 1343 1343 1349 1349 1349 1354 1354 1354 1359 1370 1370 1370 1370 1376 2065 2065 2065 2078 2078 2053 2053 2053 2053 2065 2065 2065 2065 2078 2078 2078 2078 2078 2078 2078 2078 2078 2078 2103 2103 2090 2090 2116 2103 2103 2116 2116 2129 2129 1214 1214 1214 1214 1214 1214 1214 1214 1210 1210 1214 1214 2103 2116 2116 2116 2116 2116 2129 2090 2090 2090 2090 2090 2090 2090 2090 2103 2090 2090 2090 2090 2065 2065 2078 2078 2078 2078 2065 2065 2065 2078 2078 2078 2129 2184 2184 2198 2241 2241 2241 2241 2241 2241 2256 2226 2078 2078 2212 2212 2212 2212 2212 2212 2212 2212 2212 2198 2198 2198 2198 2198 2198 2184 2184 2170 2170 2170 2170 2156 2156 2156 2156 2156 2156 2156 2156 2156 2156 2156 2156 2156 2156 2156 2156 2156 2984 2984 2984 2958 2958 2958 2958 2958 2958 2958 2958 2958 2958 2958 2958 2958 2958 2958 2958 2958 2958 2958 2958 2958 2958 2958 2958 2984 2984 2984 2984 2958 2933 2933 2908 2883 2883 2859 2859 2859 2859 2835 2835 2835 2835 2812 2812 2812 2789 2789 2789 2789 2789 2789 2789 2789 2789 2789 2789 2789 2789 2789 2005 2005 2005 2005 2005 2005 2005 1993 1993 1993 1993 1993 1993 1993 1981 1981 1981 1981 1981 2767 2767 2767 2767 2767 1970 1970 1947 1947 1947 1947 1947 1947 1959 1970 1970 1959 1947 1947 1947 3433 1936 1936 1936 3539 3576 3576 3614 3614 4190 4190 4190 4190 4190 4190 4190 4190 4190 4190 4190 4190 4139 4139 4139 4089 4089 4089 4089 4089 4089 4089 4089 4089 4089 0 0 0 0 0 0 0 0 0 0 0 0 0 0 1863 1863 1853 1853 1843 1843 1843 1833 1833 1833 1833 1833 1833 0 0 0 0 0 0 0 0 5460 5460 5460 5548 5548 5548 5548 5640 5640 5640 5640 5640 5640 5548 5291 5291 5291 5291 5291 5291 5291 5291 5460 5548 5640 5640 0 0 0 0 0 0 0 0 0 0 0 0 0 0
0 0 0 0 0 0 0 0 0 0 0 0 0 0 0 0 0 0 0 0 0 0 0 0 0 0 0 0 0 0 0 0 0 2598 2598 2598 2618 2618 2618 2618 2618 2639 2639 2639 2639 2639 2659 2659 2659 2659 2659 2659 2680 2701 2701 2701 2701 2701 2723 2723 2723 2723 2744 2744 2744 2744 2744 2744 2744 2744 2744 2744 2767 2767 2767 2789 2789 2789 2812 2812 2812 2812 2812 2835 2835 2859 2859 2859 2859 2883 2883 2883 2908 2933 2958 2984 3010 3037 3037 3010 2984 2984 2984 2984 2984 2984 2984 3010 3010 3010 3010 3037 3037 3064 3064 3064 3064 3064 3092 3092 3092 3092 3120 3120 3120 3120 3120 3149 3149 3149 3178 3178 3208 3208 3208 3208 3208 3238 3238 3238 3238 3238 3269 3269 3269 3300 3300 3333 3333 3333 3333 3333 3365 3433 3468 0 0 0 0 0 0 0 0 0 0 0 3468 3468 3468 3503 3539 3576 3614 3653 3692 3692 0 0 0 0 0 0 0 0 0 0 0 0 0 1503 1496 1496 1496 1496 1496 1503 1503 1496 1496 1496 1496 1496 1496 1496 1496 1489 1489 1489 1483 1483 1477 1477 1470 1470 1470 1470 1470 1464 1464 1464 1458 1452 1452 1452 1452 1445 1445 1439 1439 1439 1433 1433 1433 1433 1433 1433 1427 1421 1421 1421 1421 1421 1421 1421 1415 1415 1404 1404 1398 1398 1398 1398 1398 1398 1392 1392 1392 1392 1392 1392 1387 1387 1387 1387 1381 1381 1376 1376 1376 1370 1370 1370 1370 1370 1370 1370 1365 1365 1359 1354 1354 1349 1349 1349 1349 1349 1343 1343 1349 1349 1354 1354 1354 1359 1365 1370 1370 1370 1376 1376 2053 2053 2028 2028 2028 2028 2016 2016 2016 2040 2040 2053 2053 2053 2053 2053 2065 2065 2065 2065 2065 2065 2078 2090 2090 2090 2090 2103 2103 2103 2103 1214 1214 1214 1214 1214 1214 1214 1214 1214 1214 1214 1214 1214 1214 1214 1219 2116 2116 2116 2116 2116 2116 2078 2078 2078 2078 2078 2078 2078 2090 2065 2065 2065 2090 2078 2065 2065 2065 2065 2065 2065 2065 2065 2065 2065 2065 2065 2065 2090 2065 2065 2053 2053 2065 2065 2065 2256 2065 2065 2065 2065 2065 2065 2065 2053 2053 2212 2212 2212 2198 2198 2198 2198 2184 2184 2170 2170 2170 2170 2170 2156 2156 2156 2156 2143 2143 2143 2143 2143 2143 2143 2156 2156 2156 2156 2156 2156 2156 2156 2984 2984 2040 2040 2958 2958 2958 2958 2958 2958 2958 2958 2958 2958 2958 2958 2958 2958 2958 2958 2958 2958 2958 2958 2958 2958 2984 2984 2984 2984 2984 2958 2933 2933 2908 2883 2883 2859 2859 2859 2859 2835 2835 2835 2812 2812 2812 2812 2812 2789 2789 2789 2789 2789 2789 2789 2789 2789 2789 2789 2789 2789 2005 2005 2005 2005 2005 2005 2005 1993 1993 1993 1993 1993 1993 1993 1981 1981 1981 1981 1981 1970 1970 2767 1970 1959 1959 1959 1947 1947 1947 1947 1947 1947 1959 1959 1959 1947 1947 1947 1936 1936 1936 1936 1936 1936 3503 3539 3539 3539 4241 4190 4190 4190 4190 4190 4190 4190 4139 4139 4139 4139 4139 4089 4089 4089 4089 4089 4089 4089 4089 4089 4089 4089 4089 4089 0 0 0 0 0 0 0 0 0 0 0 0 0 1853 1853 1853 1853 1853 1843 1843 1833 1833 1833 1833 1843 1843 0 0 0 0 0 0 0 0 5460 5460 5460 5548 5548 5548 5548 5640 5640 5640 5640 5640 5640 5548 5210 5210 5291 5291 5291 5291 5374 5460 5460 5548 5548 5640 5640 0 0 0 0 0 0 0 0 0 0 0 0 0
0 0 0 0 0 0 0 0 0 0 0 0 0 0 0 0 0 0 0 0 0 0 0 0 0 0 0 0 0 0 0 0 0 2598 2598 2598 2598 2598 2618 2618 2618 2639 2639 2639 2639 2639 2659 2659 2659 2659 2659 2680 2680 2701 2701 2701 2701 2701 2723 2723 2723 2723 2744 2744 2744 2744 2744 2744 2744 2744 2744 2744 2767 2767 2767 2789 2789 2789 2789 2812 2812 2812 2812 2835 2835 2859 2859 2859 2859 2883 2883 2883 2908 2933 2958 2984 2984 3037 3037 3010 3010 2984 2984 2984 2984 2984 3010 3010 3010 3010 3010 3037 3037 3064 3064 3064 3064 3064 3092 3092 3092 3092 3120 3120 3120 3120 3120 3149 3149 3149 3178 3208 3208 3208 3208 3208 3208 3238 3238 3238 3238 3238 3269 3269 3300 3300 3333 3333 3365 3365 3365 3365 3365 3468 0 0 0 0 0 0 0 0 0 0 0 0 0 3468 3468 3468 3468 3539 3576 3653 3692 3692 0 0 0 0 0 0 0 0 0 0 0 0 0 0 1496 1496 1496 1496 1496 1503 1503 1496 1496 1496 1496 1496 1496 1496 1496 1496 1489 1489 1483 1483 1477 1477 1477 1470 1470 1470 1470 1470 1464 1464 1458 1458 1452 1452 1452 1452 1445 1445 1445 1439 1439 1439 1439 1439 1433 1433 1433 1427 1427 1427 1421 1421 1421 1421 1421 1415 1410 1404 1404 1404 1398 1398 1398 1398 1398 1398 1392 1392 1392 1392 1387 1387 1387 1387 1387 1387 1381 1381 1376 1376 1376 1376 1376 1376 1376 1370 1370 1370 1365 1359 1359 1354 1354 1349 1349 1349 1349 1349 1349 1349 1354 1354 1354 1359 1370 1370 1370 1376 1376 1376 2016 2016 2005 2005 2005 2005 1993 1993 1993 2005 2005 2005 2005 2005 2005 1993 1993 2005 2016 2016 2016 2016 2028 2090 2090 2090 2090 2103 2103 1214 1214 1214 1214 1214 1214 1214 1214 1214 1214 1214 1214 1214 1214 1214 1214 1214 1219 1219 1219 1223 1227 2078 2078 2078 2053 2040 2040 2040 2053 2065 2053 2053 2053 2053 2065 2065 2065 2065 2053 2053 2053 2053 2053 2053 2053 2053 2053 2053 2053 2053 2053 2053 2040 2040 2053 2053 2053 2053 2053 2053 2053 2053 2053 2053 2053 2053 2053 2028 2028 2040 2040 2040 2065 2078 2116 2065 2065 2116 2116 2156 2156 2156 2156 2143 2143 2143 2143 2143 2143 2143 2143 2143 2156 2156 2005 2005 2143 2053 2053 2053 3010 3010 2040 2040 2958 2958 2958 2958 2958 2958 2958 2958 2958 2958 2958 2958 2958 2958 2958 2958 2958 2958 2958 2958 2958 2958 2984 2984 2984 2984 2984 2984 2958 2933 2908 2883 2883 2883 2859 2859 2859 2835 2835 2835 2812 2812 2812 2812 2812 2789 2789 2789 2789 2789 2789 2789 2789 2789 2789 2789 2789 2005 2005 2005 2005 2005 2005 2005 2005 1993 1993 1993 1993 1993 1993 1981 1981 1981 1981 1981 1981 1970 1970 1970 1970 1959 1959 1959 1959 1959 1947 1947 1959 1959 1959 1959 1959 1947 1947 1947 1936 1936 1936 1936 1936 1936 1947 1947 1947 1947 1947 1947 1936 1936 1936 4190 4139 4139 4139 4139 4139 4139 4139 4089 4089 4089 4089 4089 4089 4089 4089 4089 4089 4089 4089 4089 0 0 0 0 0 0 0 0 0 0 0 0 0 1853 1853 1853 1853 1853 1843 1843 1833 1833 1833 1833 1843 1843 0 0 0 0 0 0 0 0 5374 5374 5460 5548 5548 5548 5548 5548 5640 5548 5548 5548 5548 5374 5210 5210 5291 5291 5291 5374 5374 5460 5460 5548 5548 5640 5640 0 0 0 0 0 0 0 0 0 0 0 0 0
