0 0 0 0 0 0 0 0 0 0 0 0 0 0 0 0 0 0 0 0 0 0 0 0 0 0 0 0 0 0 0 0 0 0 1993 1993 1993 1993 1993 1993 2005 2005 2005 2005 2005 2005 2005 2005 2005 2005 2005 2005 2005 2005 2005 2016 2016 2016 2016 2016 2016 2016 2016 2005 2005 2005 2005 2005 2005 2005 2005 2005 2016 2005 2005 2005 2005 2005 2005 2005 2005 2005 2005 2005 2005 2005 2005 2005 2005 2005 2016 2016 2016 2028 2028 2028 2028 2040 2040 2040 2040 2040 2040 2028 2028 2028 2028 2028 2028 2028 2028 2028 2028 2028 2028 2028 2028 2028 2028 2040 2040 2040 2040 2040 2040 2040 2040 2040 2040 2040 2040 2040 2040 2040 2053 2053 2053 2053 2053 2053 2053 2053 2053 2053 2053 2053 2040 2040 2040 2040 2040 2053 2053 2065 2065 2065 2065 2078 2053 2053 2053 2053 2053 2053 2053 2053 2053 2053 2053 2053 2053 2053 2053 2065 2065 2065 2065 2078 2078 2078 2078 2078 2078 2078 2078 2078 2078 2078 2078 2078 2078 2078 2078 2078 2090 2090 2090 2090 2090 2090 2090 2090 2090 2090 2090 2090 2090 2090 2090 2090 2090 2090 2090 2103 2103 2103 2103 2103 2103 2103 2103 2103 2103 2103 2116 2103 2103 2103 2103 2103 2103 2103 2116 2116 2116 2116 2116 2116 2116 2116 2116 2116 2116 2103 2103 2103 2103 2103 2103 2103 2103 2103 2103 2103 2103 2103 2103 2103 2103 2103 2116 2116 2116 2116 2116 2116 2116 2116 2116 2116 2116 2116 2116 2116 2116 2129 2170 1936 1936 1936 1947 1947 1947 1947 1936 1936 1926 1926 1915 1904 1894 1894 1894 1894 1894 1883 1883 1883 1883 1883 2116 2116 2129 2129 2129 2129 1632 1632 1632 1624 1616 1616 1616 1609 1609 1609 1609 1609 1609 1616 1616 1624 1624 1624 1624 1632 1632 1624 1624 1624 1632 2116 2116 2116 2129 2129 2143 2143 1601 1601 1594 1594 1586 1586 1586 1579 1579 1579 1579 1586 1586 1594 1594 1594 1594 1601 1601 1601 2156 2156 2156 2156 2156 2143 2143 2156 2156 2156 2156 2156 2156 2156 2156 2170 2170 2156 2156 2156 2156 2156 2156 2156 2156 2170 2170 2170 1959 1947 1947 1947 1947 1936 1936 1936 1936 1936 1926 1926 1915 1915 1915 1915 1915 2170 2170 2170 2170 2184 2184 2198 2198 2198 2184 2184 1757 1757 1757 1757 1757 1757 1748 1748 1739 1739 1739 1739 1739 1739 1739 1739 1739 1739 1748 1947 1947 1947 1947 1947 1947 1947 1947 1947 1936 1936 1936 1936 1926 1926 1926 1915 1915 1915 2184 2184 2198 2198 2184 2184 2184 2184 2184 2184 2184 2184 2184 2198 2198 2198 2198 2198 2198 2198 1785 1785 1785 1785 1776 1776 1766 1766 1766 1766 1766 1766 1776 1785 1785 1785 1794 2170 2184 2184 2198 2198 2198 2198 2198 2198 2184 2184 2184 2184 2184 2184 2184 2184 2184 2184 2184 2184 2184 2184 2184 2184 2184 2184 2184 2184 2184 2184 1993 1993 1981 1981 1981 1981 1970 1970 1959 1959 1947 1947 1936 1936 1936 1926 1915 1904 1904 1894 1894 1894 1894 1904 1904 1904 1904 1904 1904 2184 2184 2184 2170 2170 2170 2170 2184 2184 2184 2184 2184 2184 2184 2198 2198 2198 2198 2198 2198 2198 2198 2198 2198 2198 2198 2198 2198 2198 2198 2198 2198 2198 2198 2198 2184 2184 2184 2198 2198 2184 2184 2184 2184 2184 2184 2184 2184 2184 2184 2184 2184 2184 2184 2170 2170 2170 2170 2170 2184 2184 2184 2184 2184 2184 2184 2184 2184 2184 2184 2184 2184 2184 2184 2184 2184 2198 2198 2198 2198 2184 2184 0 0 0 0 0 0 0 0 0
0 0 0 0 0 0 0 0 0 0 0 0 0 0 0 0 0 0 0 0 0 0 0 0 0 0 0 0 0 0 0 0 0 0 1981 1981 1981 1981 1981 1993 2005 2005 2005 2005 2005 2005 2005 2005 2005 2005 1993 1993 1993 2005 2005 2005 2005 2016 2016 2016 2016 2016 2005 2005 2005 2005 2005 2005 2005 2005 2005 2005 2005 2005 2005 1993 1993 2005 2005 2005 2005 2005 2005 2005 2005 2005 2005 2005 2005 2005 2005 2005 2016 2016 2016 2016 2016 2016 2016 2016 2016 2016 2016 2016 2028 2028 2028 2016 2016 2028 2028 2028 2028 2028 2028 2028 2028 2028 2028 2028 2028 2028 2028 2040 2040 2040 2040 2040 2040 2040 2040 2040 2040 2040 2040 2040 2053 2053 2053 2053 2053 2053 2053 2053 2040 2040 2040 2040 2040 2040 2040 2040 2053 2053 2053 2053 2065 2065 2053 2053 2053 2053 2040 2040 2040 2040 2040 2053 2053 2053 2053 2053 2053 2053 2053 2053 2053 2053 2065 2065 2065 2078 2065 2065 2065 2065 2065 2065 2078 2078 2078 2078 2078 2078 2078 2078 2090 2090 2090 2090 2090 2090 2090 2078 2078 2078 2078 2078 2078 2078 2078 2090 2090 2090 2090 2090 2090 2090 2090 2103 2103 2090 2090 2103 2103 2103 2103 2103 2103 2103 2103 2103 2103 2103 2103 2116 2116 2116 2103 2103 2103 2103 2103 2090 2090 2103 2103 2103 2103 2103 2103 2103 2103 2103 2103 2103 2103 2103 2090 2090 2103 2103 2103 2103 2103 2103 2103 2103 2103 2103 2103 2116 2116 2116 2116 2116 2116 1947 1947 1947 1947 1947 1947 1947 1936 1936 1926 1915 1904 1904 1894 1894 1894 1894 1894 1883 1873 1873 1873 1873 2116 2116 2129 2129 2129 2129 1632 1632 1632 1624 1624 1616 1616 1609 1609 1609 1609 1609 1609 1616 1616 1624 1624 1632 1632 1632 1632 1632 1639 1639 2103 2103 2116 2116 2116 2129 2129 2129 1601 1601 1601 1594 1594 1586 1586 1586 1579 1579 1586 1586 1594 1594 1594 1594 1594 1601 1601 1601 2129 2129 2143 2143 2156 2143 2143 2156 2156 2156 2156 2156 2156 2156 2156 2156 2156 2156 2156 2156 2156 2156 2156 2156 2156 2156 2156 2156 2170 1947 1947 1936 1936 1936 1936 1926 1926 1926 1926 1926 1915 1915 1915 1915 1915 2170 2170 2170 2170 2170 2184 2184 2184 2170 2170 2156 1757 1757 1757 1757 1757 1757 1748 1748 1739 1739 1739 1739 1739 1739 1739 1739 1739 1739 1739 1947 1947 1947 1947 1947 1947 1947 1947 1936 1936 1936 1936 1926 1926 1915 1915 1915 1915 1915 1915 2184 2198 2184 2184 2184 2184 2184 2184 2184 2184 2184 2184 2184 2184 2184 2184 2198 2198 1794 1785 1785 1785 1785 1776 1776 1776 1776 1776 1776 1776 1776 1776 1785 1785 1785 1794 2156 2170 2184 2198 2198 2198 2184 2184 2184 2170 2170 2170 2170 2170 2170 2184 2184 2184 2184 2184 2170 2170 2170 2170 2170 2170 2170 2170 2184 2184 2184 2170 2170 1981 1981 1981 1981 1970 1959 1959 1947 1936 1936 1936 1936 1936 1926 1915 1904 1904 1904 1894 1894 1904 1904 1904 1904 1904 1904 1904 2184 2184 2184 2170 2170 2170 2170 2170 2184 2184 2184 2184 2184 2184 2184 2184 2184 2198 2198 2198 2198 2198 2198 2198 2198 2198 2198 2198 2198 2198 2198 2198 2198 2198 2198 2184 2184 2184 2184 2184 2184 2184 2184 2184 2184 2184 2184 2184 2184 2184 2184 2170 2170 2184 2170 2170 2170 2170 2170 2170 2170 2170 2184 2184 2170 2170 2184 2184 2184 2184 2184 2184 2184 2184 2184 2184 2170 2170 2170 2170 2170 2170 0 0 0 0 0 0 0 0 0
0 0 0 0 0 0 0 0 0 0 0 0 0 0 0 0 0 0 0 0 0 0 0 0 0 0 0 0 0 0 0 0 0 0 1981 1981 1981 1970 1970 1981 1981 1993 1993 1993 1993 1993 1993 1993 1993 1993 1981 1981 1993 1993 2005 2005 2005 2005 2016 2016 2016 2016 2005 2005 2005 2005 2005 2005 2005 2005 2005 2005 2005 1993 1993 1993 1993 1993 1993 1993 1993 1993 1993 1993 1993 2005 2005 2005 2005 2005 2005 2005 2005 2016 2016 2016 2016 2016 2016 2016 2005 2005 2005 2005 2016 2016 2016 2016 2016 2016 2028 2016 2016 2016 2028 2028 2016 2016 2016 2016 2016 2016 2016 2016 2016 2028 2040 2028 2028 2040 2040 2040 2040 2040 2040 2040 2040 2053 2053 2053 2053 2053 2053 2053 2040 2040 2040 2040 2040 2040 2040 2040 2053 2053 2053 2053 2053 2065 2053 2053 2053 2040 2040 2040 2040 2040 2040 2040 2040 2040 2053 2053 2053 2053 2053 2053 2053 2053 2053 2053 2065 2065 2065 2065 2065 2065 2053 2053 2065 2065 2065 2078 2078 2078 2078 2078 2078 2078 2078 2078 2078 2078 2078 2078 2078 2078 2078 2078 2078 2078 2078 2078 2078 2090 2090 2090 2090 2090 2090 2090 2090 2090 2090 2090 2103 2090 2090 2090 2090 2090 2090 2103 2103 2103 2103 2103 2103 2103 2103 2090 2090 2090 2090 2090 2090 2090 2090 2090 2090 2090 2090 2090 2090 2090 2090 2090 2090 2090 2090 2090 2090 2090 2090 2090 2090 2090 2103 2103 2103 2103 2103 2103 2103 2103 2103 2116 2116 1947 1947 1947 1947 1947 1947 1947 1947 1936 1926 1915 1904 1894 1894 1883 1883 1883 1883 1883 1873 1873 1873 1873 1873 1843 1843 1843 2129 2129 1632 1632 1632 1632 1624 1624 1624 1616 1616 1616 1616 1616 1616 1616 1624 1624 1624 1632 1632 1632 1632 1639 1639 1639 2103 2103 2103 2116 2116 2116 2116 2116 1601 1601 1594 1594 1594 1586 1586 1586 1586 1586 1586 1586 1594 1594 1594 1594 1601 1601 1601 1601 2129 2129 2129 2129 2143 2143 2143 2143 2156 2156 2156 2156 2156 2143 2143 2143 2143 2143 2143 2143 2143 2143 2156 2156 2156 2143 2143 2156 2156 2156 1947 1936 1936 1936 1926 1926 1926 1926 1926 1926 1915 1915 1915 1915 1915 1915 1915 2170 2170 2170 2170 2170 2170 2170 2156 2143 2129 1757 1757 1757 1757 1757 1748 1748 1739 1739 1739 1739 1739 1739 1739 1739 1739 1739 1739 1947 1947 1947 1947 1947 1947 1947 1947 1936 1936 1936 1926 1926 1926 1915 1915 1915 1915 1915 1915 1915 2184 2184 2184 2170 2170 2170 2170 2170 2170 2170 2170 2170 2184 2184 2184 2184 2184 1794 1785 1785 1794 1785 1776 1776 1776 1776 1776 1776 1776 1776 1785 1785 1785 1785 1794 2156 2170 2170 2184 2184 2184 2184 2184 2184 2170 2170 2170 2170 2170 2170 2170 2184 2184 2184 2170 2170 2170 2170 2170 2170 2170 2170 2170 2170 2170 2170 2170 2170 2170 1981 1981 1981 1970 1959 1959 1947 1936 1936 1936 1936 1936 1926 1915 1904 1904 1904 1894 1894 1904 1904 1904 1904 1904 1894 1894 2170 2170 2170 2170 2170 2170 2170 2170 2170 2170 2184 2184 2184 2184 2184 2184 2184 2184 2198 2198 2198 2198 2198 2198 2198 2198 2198 2198 2198 2198 2198 2198 2198 2198 2198 2184 2184 2184 2184 2184 2184 2170 2170 2184 2184 2184 2170 2170 2170 2170 2170 2170 2170 2170 2170 2170 2170 2170 2170 2170 2170 2170 2170 2170 2170 2170 2170 2170 2170 2170 2170 2170 2170 2170 2170 2170 2170 2170 2170 2170 2170 2170 0 0 0 0 0 0 0 0 0
0 0 0 0 0 0 0 0 0 0 0 0 0 0 0 0 0 0 0 0 0 0 0 0 0 0 0 0 0 0 0 0 0 0 1970 1970 1970 1970 1970 1970 1970 1981 1981 1981 1981 1981 1981 1981 1981 1981 1981 1981 1981 1981 1993 1993 2005 2005 2005 2005 2005 2005 2005 2005 2005 2005 2005 2005 2005 2005 2005 2005 2005 1993 1993 1981 1981 1993 1993 1993 1993 1993 1993 1993 1993 1993 1993 1993 1993 1993 1993 2005 2005 2016 2016 2016 2016 2016 2016 2005 2005 2005 2005 2005 2005 2016 2005 2005 2005 2016 2016 2016 2005 2005 2016 2016 2016 2016 2016 2016 2016 2016 2016 2016 2016 2016 2016 2028 2028 2028 2040 2040 2028 2028 2028 2028 2040 2040 2040 2040 2040 2040 2053 2040 2040 2040 2028 2028 2040 2040 2040 2040 2040 2053 2053 2053 2053 2053 2053 2053 2040 2040 2040 2040 2040 2040 2040 2040 2040 2040 2040 2053 2053 2040 2040 2053 2053 2040 2040 2040 2040 2053 2053 2053 2053 2053 2053 2053 2053 2065 2065 2065 2078 2078 2078 2078 2078 2078 2078 2078 2078 2078 2078 2078 2078 2078 2078 2078 2078 2078 2078 2078 2078 2078 2078 2078 2078 2078 2090 2090 2078 2078 2078 2090 2090 2090 2090 2090 2090 2090 2090 2090 2090 2090 2090 2103 2103 2103 2090 2090 2090 2090 2090 2078 2078 2078 2078 2078 2078 2078 2078 2078 2078 2090 2090 2090 2090 2090 2090 2090 2090 2090 2090 2090 2090 2090 2090 2090 2090 2090 2090 2103 2103 2103 2103 2103 1981 1959 1959 1959 1959 1959 1959 1959 1959 1947 1936 1904 1904 1894 1894 1883 1883 1883 1883 1873 1873 1873 1863 1863 1853 1843 1843 1843 1843 1843 1632 1632 1632 1632 1624 1624 1624 1624 1616 1616 1616 1616 1616 1616 1624 1624 1624 1632 1632 1632 1632 1639 1639 2116 2103 2103 2103 2116 2116 2116 2116 2116 1594 1594 1594 1594 1594 1594 1594 1586 1586 1586 1586 1594 1594 1594 1594 1601 1601 1601 1601 1609 2116 2116 2129 2129 2129 2129 2143 2143 2143 2156 2156 2156 2156 2143 2143 2143 2143 2143 2143 2129 2129 2129 2143 2143 2143 2143 2143 2156 2156 2156 2156 1936 1936 1936 1926 1926 1926 1926 1926 1915 1915 1915 1915 1915 1915 1904 1894 1894 2156 2156 2156 2156 2156 2156 2143 2129 2129 1757 1757 1757 1757 1757 1748 1748 1739 1739 1739 1739 1739 1739 1739 1748 1739 1739 2170 1947 1947 1947 1947 1947 1947 1947 1947 1936 1936 1926 1926 1915 1915 1915 1915 1915 1915 1915 1915 1904 1904 2184 2170 2170 2170 2170 2170 2156 2156 2156 2156 2156 2170 2170 2156 2156 2156 1794 1785 1785 1794 1785 1776 1776 1776 1776 1776 1776 1776 1776 1785 1785 1785 1785 1785 2156 2170 2170 2170 2170 2170 2170 2170 2170 2156 2156 2156 2170 2170 2170 2170 2170 2184 2170 2170 2170 2170 2156 2156 2156 2156 2156 2156 2170 2170 2170 2170 2156 2156 2156 1993 1981 1959 1947 1947 1947 1936 1936 1936 1936 1936 1926 1915 1915 1904 1904 1904 1904 1904 1904 1904 1904 1894 1894 1894 2170 2170 2170 2170 2170 2170 2170 2170 2170 2170 2184 2184 2184 2184 2184 2184 2184 2184 2198 2198 2198 2184 2184 2198 2184 2184 2184 2184 2184 2184 2184 2184 2184 2184 2184 2170 2170 2170 2184 2170 2170 2170 2170 2170 2170 2170 2170 2170 2170 2170 2170 2156 2156 2156 2156 2156 2156 2143 2143 2156 2156 2156 2170 2170 2170 2170 2170 2170 2170 2170 2170 2170 2170 2170 2170 2170 2170 2170 2170 2170 2170 2170 0 0 0 0 0 0 0 0 0
0 0 0 0 0 0 0 0 0 0 0 0 0 0 0 0 0 0 0 0 0 0 0 0 0 0 0 0 0 0 0 0 0 0 1970 1970 1970 1970 1970 1970 1970 1981 1981 1981 1981 1981 1981 1981 1981 1981 1981 1981 1981 1981 1981 1981 1993 1993 1993 2005 1993 1993 1993 1993 1993 1993 1993 1993 2005 2005 2005 2005 2005 1981 1981 1981 1981 1981 1981 1993 1993 1993 1993 1993 1993 1993 1993 1993 1993 1993 1993 1993 2005 2005 2005 2016 2005 2005 2005 2005 2005 2005 2005 2005 2005 2005 2005 2005 2005 2005 2005 2005 2005 2005 2005 2005 2005 2005 2005 2005 2005 2005 2005 2005 2005 2005 2005 2016 2016 2016 2016 2016 2016 2016 2016 2028 2028 2040 2040 2040 2040 2040 2040 2040 2028 2028 2028 2028 2028 2028 2028 2028 2040 2040 2040 2040 2040 2053 2040 2040 2040 2040 2040 2040 2028 2028 2040 2040 2040 2040 2040 2040 2040 2040 2040 2040 2040 2040 2040 2040 2040 2040 2040 2040 2053 2053 2053 2053 2053 2053 2053 2053 2053 2053 2065 2065 2065 2065 2065 2078 2078 2078 2078 2078 2065 2065 2078 2078 2078 2078 2078 2078 2078 2078 2078 2078 2078 2078 2078 2078 2078 2078 2078 2078 2078 2090 2090 2090 2090 2090 2090 2090 2090 2090 2090 2090 2090 2090 2090 2090 2090 2090 2090 2078 2078 2078 2078 2078 2078 2078 2078 2078 2078 2078 2078 2078 2078 2078 2078 2078 2078 2078 2078 2078 2078 2078 2090 2090 2090 2090 2090 2103 2103 2090 2090 2078 1981 1970 1970 1970 1959 1959 1959 1959 1959 1959 1936 1904 1904 1894 1883 1883 1883 1883 1883 1873 1873 1863 1863 1863 1853 1843 1843 1843 1843 1843 1632 1632 1632 1632 1624 1624 1624 1624 1616 1616 1624 1616 1616 1624 1624 1624 1632 1632 1632 1632 1639 1639 1639 2103 2103 2103 2103 2116 2116 2116 2116 2116 2116 1594 1594 1594 1594 1594 1594 1586 1586 1594 1594 1594 1594 1594 1601 1601 1601 1601 1601 1609 2116 2116 2116 2116 2129 2129 2129 2129 2143 2143 2143 2143 2143 2129 2129 2129 2129 2129 2129 2129 2129 2129 2129 2129 2129 2129 2129 2143 2143 2143 2143 2156 2156 1947 1926 1926 1926 1926 1915 1915 1915 1915 1915 1904 1904 1904 1894 1883 1883 1883 2156 2156 2143 2143 2143 2129 2129 1757 1757 1757 1757 1757 1748 1748 1748 1748 1739 1739 1739 1739 1748 1748 1739 1739 1748 2143 1947 1947 1947 1936 1936 1936 1926 1926 1915 1915 1915 1915 1915 1915 1915 1915 1915 1915 1915 1904 1904 1904 2156 2156 2156 2156 2156 2156 2156 2156 2156 2156 2156 2156 2156 2156 2156 1794 1794 1794 1794 1785 1785 1785 1776 1776 1776 1776 1776 1776 1785 1785 1785 1785 1785 2143 2156 2156 2170 2170 2170 2170 2170 2170 2156 2156 2156 2156 2156 2156 2170 2170 2170 2170 2170 2170 2170 2156 2156 2156 2156 2156 2156 2156 2156 2156 2156 2156 2156 2143 2143 1981 1959 1947 1947 1947 1936 1936 1936 1936 1926 1926 1915 1915 1904 1904 1904 1904 1904 1904 1904 1894 1894 1894 1894 2170 2170 2170 2156 2156 2156 2156 2170 2170 2170 2170 2170 2170 2170 2184 2184 2184 2184 2184 2184 2184 2184 2184 2184 2184 2184 2184 2184 2184 2184 2184 2184 2184 2184 2184 2170 2156 2156 2170 2170 2170 2170 2170 2170 2170 2170 2170 2156 2156 2156 2156 2143 2143 2156 2143 2143 2143 2143 2143 2143 2143 2143 2156 2156 2156 2156 2156 2156 2170 2170 2156 2156 2170 2170 2156 2156 2156 2156 2156 2156 2156 2156 0 0 0 0 0 0 0 0 0
0 0 0 0 0 0 0 0 0 0 0 0 0 0 0 0 0 0 0 0 0 0 0 0 0 0 0 0 0 0 0 0 0 0 1970 1959 1959 1970 1970 1970 1970 1970 1970 1970 1970 1970 1981 1970 1970 1970 1981 1970 1970 1981 1981 1981 1981 1981 1981 1981 1981 1981 1981 1993 1993 1993 1993 1993 1993 1993 1993 1993 1993 1981 1981 1981 1981 1981 1981 1981 1981 1993 1981 1981 1981 1981 1981 1993 1993 1993 1993 1993 1993 1993 1993 2005 2005 1993 1993 1993 2005 2005 2005 1993 1993 2005 1993 1993 2005 2005 2005 1993 1993 1993 2005 2005 2005 2005 2005 2005 2005 2005 2005 2005 2005 2005 2005 2005 2005 2016 2016 2016 2016 2016 2016 2016 2028 2028 2028 2028 2028 2028 2040 2028 2028 2028 2028 2028 2028 2028 2028 2028 2028 2040 2040 2040 2040 2040 2040 2040 2040 2040 2028 2028 2028 2028 2028 2028 2028 2028 2028 2028 2028 2028 2028 2028 2040 2028 2028 2028 2028 2040 2040 2040 2040 2040 2040 2040 2040 2040 2040 2040 2040 2040 2053 2053 2065 2065 2065 2065 2065 2065 2065 2065 2065 2065 2065 2065 2065 2065 2065 2065 2078 2078 2078 2078 2078 2078 2078 2078 2078 2078 2078 2078 2078 2078 2078 2078 2090 2090 2090 2090 2090 2090 2090 2090 2090 2090 2090 2090 2090 2090 2078 2078 2078 2078 2078 2078 2078 2078 2078 2078 2078 2078 2078 2078 2078 2078 2078 2078 2078 2078 2078 2078 2078 2078 2078 2078 2090 2078 2078 2090 2090 2078 2078 2078 2078 1981 1970 1970 1970 1959 1959 1959 1970 1970 1947 1936 1904 1894 1883 1883 1883 1883 1873 1873 1863 1863 1863 1853 1853 1843 1843 1843 1843 1843 1632 1632 1639 1632 1632 1632 1624 1624 1616 1616 1624 1616 1616 1624 1624 1632 1632 1632 1632 1639 1639 1639 1639 2103 2103 2103 2103 2103 2103 2103 2116 2116 2116 1594 1594 1594 1594 1594 1594 1594 1594 1594 1594 1594 1594 1601 1601 1601 1601 1601 1601 1609 2103 2116 2116 2116 2116 2116 2129 2129 2129 2129 2129 2129 2129 2116 2116 2116 2116 2116 2116 2116 2116 2116 2116 2116 2116 2116 2116 2129 2129 2129 2129 2143 2143 2156 1926 1926 1926 1915 1915 1915 1915 1915 1915 1904 1904 1894 1883 1883 1873 1873 1873 1873 2143 2143 2143 2129 2129 1757 1757 1757 1757 1757 1757 1748 1748 1748 1748 1748 1748 1748 1748 1748 1739 1739 1748 2143 2143 1947 1947 1936 1936 1936 1926 1915 1915 1915 1915 1915 1904 1904 1915 1915 1904 1904 1915 1904 1904 1904 1894 1894 2143 2143 2156 2156 2156 2156 2156 2156 2143 2143 2143 2143 2143 1804 1794 1794 1794 1785 1785 1785 1785 1776 1776 1776 1776 1785 1785 1785 1785 1776 1776 2143 2143 2156 2156 2156 2156 2156 2156 2156 2143 2143 2143 2143 2143 2156 2156 2156 2170 2170 2156 2156 2156 2156 2156 2156 2156 2156 2156 2156 2156 2156 2143 2143 2143 2143 2143 2143 1959 1947 1947 1947 1936 1936 1936 1936 1926 1926 1915 1915 1915 1904 1904 1904 1904 1904 1904 1894 1894 1894 2184 2170 2170 2170 2156 2156 2156 2156 2156 2156 2156 2156 2156 2156 2156 2170 2170 2170 2184 2184 2184 2184 2184 2184 2184 2184 2184 2170 2170 2170 2170 2170 2170 2170 2170 2170 2156 2143 2143 2143 2143 2156 2156 2156 2170 2156 2156 2156 2156 2156 2143 2143 2143 2143 2143 2143 2143 2129 2129 2129 2129 2143 2143 2143 2156 2156 2156 2156 2156 2156 2156 2143 2143 2156 2156 2156 2156 2143 2143 2143 2143 2143 2156 0 0 0 0 0 0 0 0 0
0 0 0 0 0 0 0 0 0 0 0 0 0 0 0 0 0 0 0 0 0 0 0 0 0 0 0 0 0 0 0 0 0 0 1959 1959 1959 1970 1970 1970 1970 1970 1970 1970 1970 1970 1970 1970 1970 1970 1970 1970 1970 1970 1970 1970 1981 1981 1981 1981 1981 1981 1981 1981 1981 1981 1981 1981 1981 1981 1981 1981 1981 1970 1970 1970 1970 1970 1970 1959 1959 1981 1981 1981 1981 1981 1981 1981 1993 1981 1981 1993 1993 1993 1993 1993 1993 1981 1981 1981 1993 1993 1993 1993 1993 2005 1993 1993 2005 2005 1993 1993 1993 1993 1993 1993 1993 1993 1993 2005 2005 2005 2005 2005 2005 2005 2005 2005 2005 2005 2016 2016 2016 2016 2016 2016 2028 2016 2016 2016 2028 2028 2028 2028 2016 2016 2016 2028 2028 2028 2028 2028 2028 2040 2040 2040 2040 2040 2028 2028 2028 2028 2028 2028 2028 2028 2028 2028 2028 2028 2028 2028 2028 2028 2028 2028 2028 2028 2028 2028 2028 2028 2028 2028 2028 2040 2040 2040 2040 2040 2040 2040 2040 2040 2040 2040 2053 2053 2053 2065 2065 2065 2065 2065 2065 2065 2065 2065 2065 2065 2065 2065 2065 2078 2078 2065 2065 2065 2065 2065 2065 2065 2065 2065 2065 2078 2078 2078 2078 2078 2078 2078 2078 2078 2078 2090 2090 2078 2078 2078 2078 2078 2078 2065 2065 2078 2078 2078 2078 2078 2078 2078 2078 2078 2078 2078 2078 2078 2078 2078 2078 2078 2078 2078 2078 2078 2078 2078 2078 2078 2078 2078 2078 2078 2065 2053 2053 1981 1981 1970 1970 1970 1959 1959 1970 1970 1959 1959 1959 1904 1883 1873 1873 1873 1873 1863 1863 1853 1853 1853 1853 1843 1843 1843 1843 1843 1639 1639 1639 1632 1632 1632 1624 1624 1624 1624 1624 1624 1624 1624 1624 1632 1632 1632 1632 1639 1639 1639 1639 2103 2103 2103 2103 2103 2103 2103 2103 2103 2103 1594 1594 1594 1594 1594 1594 1594 1594 1594 1594 1594 1594 1601 1601 1601 1601 1609 1609 2103 2103 2103 2103 2103 2116 2116 2116 2116 2116 2116 2116 2116 2116 2116 2116 2116 2116 2116 2116 2116 2116 2116 2116 2116 2116 2116 2116 2116 2116 2116 2116 2116 2116 2129 2129 1926 1926 1915 1915 1904 1904 1904 1904 1904 1894 1883 1883 1883 1873 1873 1873 1873 2143 2143 2143 2129 2129 1757 1757 1757 1757 1757 1757 1748 1748 1748 1748 1748 1748 1748 1748 1748 1748 1748 1748 2143 2143 2143 2143 2129 1936 1936 1926 1915 1915 1915 1915 1904 1904 1904 1904 1904 1904 1904 1904 1904 1904 1894 1894 1894 1894 1873 1873 1873 2143 2143 2143 2143 2129 2129 2129 2116 2116 1804 1794 1794 1794 1785 1785 1785 1785 1785 1785 1785 1785 1785 1785 1785 1785 1776 1776 2143 2143 2156 2156 2156 2156 2156 2156 2156 2143 2143 2143 2143 2143 2143 2156 2156 2156 2156 2156 2156 2143 2143 2143 2143 2143 2143 2143 2143 2143 2143 2143 2143 2143 2143 2143 2143 2143 2143 1947 1936 1936 1936 1936 1936 1926 1926 1926 1915 1915 1915 1904 1904 1915 1915 1904 1904 1894 1894 2170 2156 2156 2156 2156 2156 2143 2143 2143 2143 2143 2156 2156 2156 2156 2170 2170 2170 2170 2184 2184 2184 2170 2170 2170 2170 2170 2170 2170 2170 2170 2170 2170 2170 2156 2156 2143 2143 2143 2143 2143 2143 2156 2156 2156 2156 2156 2156 2143 2143 2143 2143 2129 2129 2143 2129 2129 2129 2129 2129 2129 2129 2129 2143 2143 2143 2143 2143 2143 2143 2143 2143 2129 2129 2129 2129 2143 2143 2129 2129 2143 2143 2143 0 0 0 0 0 0 0 0 0
0 0 0 0 0 0 0 0 0 0 0 0 0 0 0 0 0 0 0 0 0 0 0 0 0 0 0 0 0 0 0 0 0 0 1959 1959 1959 1959 1959 1959 1959 1959 1970 1970 1970 1970 1970 1970 1970 1970 1970 1970 1970 1970 1970 1970 1970 1981 1981 1981 1981 1981 1981 1970 1970 1970 1970 1970 1981 1981 1981 1981 1981 1970 1959 1959 1959 1959 1959 1959 1959 1959 1959 1959 1970 1970 1970 1981 1981 1981 1981 1993 1993 1993 1993 1993 1993 1970 1970 1970 1993 1993 1993 1993 1993 1993 1993 1993 1993 1993 1993 1993 1981 1981 1993 1993 1993 1993 1993 1993 2005 2005 1993 1993 2005 2005 2005 2005 2005 2005 2005 2005 2016 2016 2016 2016 2016 2016 2016 2016 2016 2016 2016 2016 2005 2005 2016 2016 2016 2016 2016 2016 2028 2028 2040 2040 2040 2040 2028 2028 2028 2016 2016 2016 2016 2016 2016 2028 2028 2028 2028 2028 2028 2028 2028 2028 2028 2028 2028 2028 2028 2028 2028 2028 2028 2028 2040 2040 2040 2040 2040 2040 2040 2040 2040 2040 2040 2040 2053 2053 2053 2065 2053 2053 2053 2053 2053 2053 2053 2053 2053 2053 2065 2065 2065 2053 2053 2053 2053 2053 2053 2053 2053 2053 2065 2065 2065 2065 2078 2078 2078 2078 2078 2078 2078 2078 2078 2078 2078 2078 2078 2078 2078 2065 2065 2065 2065 2065 2065 2078 2065 2065 2065 2065 2065 2065 2065 2065 2065 2065 2065 2065 2065 2065 2065 2065 2078 2078 2078 2078 2078 2078 2078 2065 2065 2053 2028 1981 1981 1981 1970 1970 1959 1959 1970 1970 1970 1970 1970 1970 2065 1873 1873 1873 1873 1863 1853 1853 1853 1853 1853 1843 1843 1843 1853 1853 1639 1639 1639 1639 1632 1632 1624 1624 1624 1624 1624 1624 1624 1632 1632 1632 1632 1632 1639 1639 1639 1639 2103 2090 2090 2090 2090 2090 2090 2090 2090 2078 2078 1601 1601 1594 1594 1594 1594 1594 1594 1594 1594 1594 1594 1601 1601 1601 1609 1609 1609 2090 2090 2103 2103 2103 2103 2116 2116 2116 2103 2103 2103 2116 2116 2116 2116 2116 2116 2116 2116 2116 2116 2116 2103 2103 2116 2116 2116 2116 2116 2116 2103 2103 2116 2116 2116 1926 1915 1915 1915 1904 1904 1904 1904 1894 1883 1883 1883 1873 1873 1873 1873 1873 2129 2143 2143 2129 2129 1757 1757 1757 1757 1757 1748 1748 1748 1748 1748 1748 1748 1748 1748 1748 1757 1757 1757 2129 2129 2129 2129 2129 2129 2129 1926 1915 1915 1904 1904 1904 1904 1904 1904 1904 1904 1904 1904 1904 1904 1894 1894 1894 1883 1873 1873 1863 1863 1863 2129 2129 2129 2129 2116 2116 2103 2103 1794 1794 1794 1785 1785 1785 1785 1785 1785 1785 1785 1785 1785 1785 1785 1785 1785 2129 2143 2143 2156 2156 2156 2156 2156 2156 2143 2129 2129 2143 2143 2143 2156 2156 2156 2143 2143 2143 2143 2143 2143 2143 2143 2143 2143 2143 2143 2143 2143 2143 2143 2143 2143 2143 2143 2143 2143 1936 1936 1936 1936 1936 1926 1926 1926 1926 1926 1915 1915 1915 1915 1915 1904 1894 1894 1894 2156 2156 2156 2156 2143 2143 2143 2143 2143 2143 2143 2143 2143 2156 2156 2156 2156 2156 2170 2170 2170 2170 2170 2170 2170 2170 2170 2156 2156 2156 2170 2170 2156 2143 2143 2143 2129 2129 2129 2143 2143 2143 2156 2156 2156 2143 2143 2143 2143 2129 2129 2129 2129 2129 2129 2129 2129 2129 2129 2129 2129 2129 2129 2129 2143 2129 2129 2129 2129 2129 2129 2129 2129 2129 2129 2129 2129 2129 2129 2129 2129 2143 2143 0 0 0 0 0 0 0 0 0
0 0 0 0 0 0 0 0 0 0 0 0 0 0 0 0 0 0 0 0 0 0 0 0 0 0 0 0 0 0 0 0 0 0 1959 1959 1959 1959 1959 1959 1959 1959 1959 1959 1959 1959 1959 1970 1970 1970 1970 1970 1970 1970 1970 1970 1970 1970 1970 1970 1970 1970 1970 1970 1959 1959 1970 1970 1970 1970 1970 1970 1970 1959 1959 1959 1959 1959 1959 1959 1959 1959 1959 1959 1970 1970 1970 1970 1981 1981 1981 1981 1981 1981 1981 1970 1970 1959 1959 1970 1981 1981 1993 1993 1993 1993 1993 1993 1993 1993 1993 1981 1981 1981 1981 1981 1981 1981 1981 1993 1993 1993 1993 1993 1993 1993 1993 2005 2005 2005 2005 2005 2005 2016 2005 2005 2005 2005 2005 2005 2005 2005 2005 2005 2005 2005 2005 2005 2005 2005 2005 2016 2016 2016 2028 2028 2028 2028 2016 2016 2016 2016 2005 2005 2005 2005 2016 2016 2016 2016 2005 2005 2016 2016 2016 2016 2028 2028 2028 2028 2028 2028 2028 2028 2028 2028 2028 2028 2028 2028 2028 2028 2028 2040 2040 2040 2040 2040 2040 2053 2053 2053 2053 2053 2053 2053 2053 2053 2053 2053 2053 2040 2040 2053 2053 2040 2040 2040 2040 2040 2040 2040 2040 2053 2053 2065 2065 2065 2065 2065 2078 2065 2065 2065 2065 2065 2065 2078 2078 2065 2065 2065 2065 2053 2053 2053 2053 2065 2065 2065 2065 2065 2065 2065 2065 2053 2053 2053 2065 2065 2065 2065 2065 2065 2065 2065 2078 2065 2065 2065 2065 2078 2065 2065 2053 2053 2028 1993 1993 1981 1970 1970 1959 1959 1970 1970 1981 1981 1993 2005 2016 2053 1873 1863 1863 1853 1853 1853 1853 1853 1853 1843 1843 1843 1853 1853 1639 1639 1639 1639 1639 1632 1632 1632 1632 1632 1632 1624 1624 1632 1632 1632 1632 1632 1639 1639 1639 1639 2090 2078 2078 2078 2078 2078 2078 2078 2078 2078 2078 2078 1594 1594 1594 1594 1594 1594 1594 1594 1594 1594 1601 1601 1601 1609 1609 1609 1616 2090 2090 2103 2103 2103 2103 2103 2103 2103 2103 2103 2103 2103 2103 2103 2103 2103 2103 2103 2103 2103 2103 2103 2103 2103 2103 2103 2103 2103 2103 2103 2103 2103 2103 2116 2103 2103 1915 1904 1904 1904 1904 1894 1894 1883 1883 1883 1873 1873 1873 1873 1863 1863 1863 2143 2143 2129 1757 1757 1757 1757 1757 1757 1748 1748 1748 1748 1748 1748 1748 1748 1748 1748 1757 1757 1757 2129 2129 2129 2129 2129 2129 2129 2129 2129 1915 1904 1904 1904 1904 1904 1904 1904 1904 1904 1904 1904 1894 1894 1883 1883 1873 1873 1873 1863 1863 1863 1863 2129 2129 2129 2116 2116 2103 2103 1794 1794 1794 1785 1785 1785 1785 1785 1785 1785 1785 1785 1785 1785 1785 1785 1785 2129 2129 2129 2143 2143 2143 2143 2143 2143 2129 2129 2129 2129 2129 2129 2129 2129 2143 2143 2143 2143 2143 2143 2143 2143 2143 2143 2143 2143 2129 2129 2129 2129 2129 2129 2129 2129 2129 2129 2143 2143 1926 1926 1926 1926 1926 1926 1926 1915 1915 1915 1915 1915 1915 1915 1904 1894 1894 1894 2156 2143 2143 2143 2143 2143 2143 2143 2143 2143 2143 2143 2143 2143 2143 2156 2156 2156 2156 2156 2156 2156 2156 2156 2156 2156 2156 2156 2143 2143 2156 2143 2143 2143 2143 2143 2129 2129 2129 2129 2129 2129 2143 2143 2143 2143 2143 2143 2129 2129 2129 2129 2129 2129 2129 2129 2129 2129 2129 2129 2129 2129 2129 2129 2129 2129 2129 2129 2116 2116 2129 2129 2116 2116 2129 2129 2129 2129 2129 2129 2129 2143 2143 0 0 0 0 0 0 0 0 0
0 0 0 0 0 0 0 0 0 0 0 0 0 0 0 0 0 0 0 0 0 0 0 0 0 0 0 0 0 0 0 0 0 0 1947 1947 1947 1959 1959 1959 1959 1959 1959 1959 1959 1959 1959 1959 1959 1959 1959 1959 1959 1959 1959 1959 1959 1959 1970 1970 1970 1970 1959 1959 1959 1959 1959 1959 1970 1959 1959 1970 1970 1959 1959 1947 1947 1947 1959 1959 1959 1959 1959 1959 1959 1959 1959 1959 1959 1959 1970 1970 1970 1970 1959 1959 1959 1959 1959 1970 1970 1970 1981 1970 1970 1970 1970 1970 1970 1970 1970 1970 1970 1970 1970 1970 1970 1970 1970 1981 1981 1981 1981 1981 1993 1993 1993 1993 1993 1993 1993 1993 1993 2005 2005 2005 2005 2005 2005 2005 2005 2005 2005 2005 2005 2005 2005 2005 2005 2005 2005 2005 2016 2016 2016 2016 2028 2028 2005 2005 2005 2005 2005 2005 2005 2005 2005 2005 2005 2005 2005 2005 2005 2016 2016 2016 2016 2016 2016 2028 2028 2028 2028 2028 2028 2028 2028 2028 2028 2028 2028 2028 2028 2028 2028 2028 2028 2028 2040 2040 2040 2040 2040 2040 2040 2040 2040 2040 2040 2040 2040 2040 2040 2040 2040 2040 2040 2040 2040 2040 2040 2040 2040 2053 2053 2053 2053 2053 2065 2065 2065 2065 2065 2065 2065 2065 2065 2065 2065 2065 2065 2053 2053 2053 2040 2040 2040 2040 2053 2065 2065 2053 2053 2053 2053 2053 2053 2053 2053 2053 2053 2053 2065 2065 2065 2065 2065 2065 2065 2065 2065 2065 2065 2065 2053 2053 2016 2005 1993 1981 1970 1970 1959 1959 1970 1981 1981 1993 1993 2005 2016 2040 2065 1863 1853 1853 1853 1853 1853 1853 1853 1843 1843 1843 1853 1853 1639 1639 1639 1639 1639 1632 1632 1632 1632 1632 1632 1632 1632 1632 1632 1632 1632 1632 1639 1639 1639 1639 2065 2065 2078 2065 2065 2078 2078 2078 2078 2065 2065 2065 1594 1594 1594 1594 1594 1594 1594 1594 1594 1594 1601 1601 1601 1609 1609 1609 1616 2078 2090 2103 2090 2090 2103 2103 2103 2103 2090 2090 2090 2103 2103 2103 2103 2103 2103 2103 2103 2103 2103 2103 2103 2103 2103 2103 2103 2103 2103 2103 2103 2103 2103 2103 2103 2103 1915 1904 1894 1894 1894 1894 1894 1883 1883 1873 1873 1873 1873 1873 1863 1863 1863 1863 2143 2143 1757 1757 1757 1757 1757 1757 1748 1748 1748 1748 1748 1748 1748 1748 1757 1757 1757 1757 1757 2116 2129 2129 2129 2116 2116 2116 2116 2116 1915 1904 1904 1904 1904 1904 1904 1904 1894 1894 1904 1894 1894 1883 1883 1883 1873 1873 1863 1863 1863 1863 1853 1853 2129 2116 2116 2116 2103 2103 1794 1794 1794 1785 1785 1785 1785 1785 1785 1785 1785 1785 1785 1785 1785 2090 2116 2116 2116 2116 2129 2129 2129 2129 2129 2143 2129 2116 2116 2116 2116 2129 2129 2129 2129 2129 2129 2129 2129 2129 2129 2129 2129 2143 2143 2129 2129 2129 2129 2129 2129 2129 2129 2129 2129 2129 2129 2129 1926 1926 1926 1926 1926 1926 1915 1915 1915 1915 1915 1915 1915 1915 1915 1904 1894 1894 2143 2143 2143 2143 2143 2143 2143 2129 2129 2129 2129 2129 2129 2143 2143 2143 2143 2143 2143 2143 2143 2143 2143 2143 2143 2143 2143 2143 2143 2143 2143 2143 2143 2143 2143 2143 2129 2129 2129 2129 2129 2129 2129 2129 2129 2129 2129 2129 2129 2129 2116 2116 2116 2116 2116 2116 2116 2116 2116 2116 2116 2116 2116 2116 2129 2129 2116 2116 2116 2116 2116 2116 2116 2116 2116 2116 2116 2129 2129 2129 2129 2129 2143 0 0 0 0 0 0 0 0 0
0 0 0 0 0 0 0 0 0 0 0 0 0 0 0 0 0 0 0 0 0 0 0 0 0 0 0 0 0 0 0 0 0 0 1947 1947 1947 1947 1947 1959 1959 1959 1959 1959 1959 1959 1959 1959 1959 1959 1959 1959 1959 1959 1959 1959 1959 1959 1959 1959 1959 1959 1959 1959 1959 1959 1959 1959 1959 1959 1959 1959 1959 1959 1959 1947 1947 1947 1947 1947 1947 1947 1959 1959 1959 1947 1947 1959 1959 1959 1959 1959 1959 1959 1959 1959 1959 1959 1959 1959 1959 1959 1970 1970 1970 1959 1959 1959 1959 1959 1970 1970 1970 1970 1970 1970 1970 1970 1970 1970 1970 1981 1981 1981 1981 1981 1993 1993 1993 1993 1993 1981 1981 1970 1970 1981 1981 1981 1993 1993 1993 1993 1993 1993 1993 1993 1993 1993 1993 1993 1993 2005 2005 2005 2005 2005 2016 2016 2005 1993 1993 1993 1993 1993 1993 1993 1993 1993 1993 1993 1993 2005 2005 2005 2005 2005 2005 2016 2016 2028 2028 2016 2016 2016 2016 2028 2016 2016 2016 2016 2016 2016 2028 2028 2028 2028 2028 2028 2028 2040 2040 2040 2040 2040 2040 2040 2040 2040 2040 2040 2040 2040 2040 2040 2040 2040 2040 2040 2040 2040 2040 2040 2040 2040 2040 2053 2053 2053 2053 2053 2053 2053 2053 2053 2065 2065 2065 2065 2065 2065 2053 2053 2053 2040 2040 2028 2028 2040 2053 2053 2065 2053 2053 2053 2053 2053 2040 2040 2040 2040 2053 2053 2053 2053 2053 2053 2065 2065 2065 2065 2065 2065 2065 2053 2053 2040 2016 2005 1993 1981 1981 1970 1970 1970 1970 1981 1981 1993 2005 2016 2028 2040 2040 2065 1853 1853 1853 1853 1853 1853 1853 1843 1843 1843 1853 1853 1639 1639 1639 1639 1639 1632 1632 1632 1632 1632 1632 1632 1632 1632 1632 1632 1639 1639 1639 1639 1639 1639 2065 2065 2065 2065 2065 2065 2065 2065 2065 2065 2065 2065 1594 1594 1594 1594 1594 1594 1594 1594 1594 1594 1601 1601 1601 1609 1609 1609 1616 1616 2078 2103 2090 2090 2090 2090 2090 2090 2090 2090 2090 2090 2090 2090 2103 2103 2103 2103 2103 2103 2103 2103 2103 2103 2103 2103 2103 2103 2103 2103 2103 2103 2103 2103 2103 2103 2103 2103 1883 1883 1883 1883 1883 1883 1873 1873 1873 1873 1873 1863 1853 1853 1853 1853 1843 1823 1757 1757 1757 1757 1757 1757 1748 1748 1748 1748 1748 1748 1748 1748 1757 1757 1757 1757 1757 2103 2116 2116 2116 2116 2116 2116 2116 2116 2116 2129 1904 1904 1904 1904 1904 1904 1894 1894 1894 1894 1883 1883 1873 1873 1873 1873 1863 1863 1863 1863 1853 1853 1853 1853 2116 2116 2103 1804 1794 1794 1794 1785 1785 1785 1785 1785 1785 1785 1785 1785 1785 1794 1794 2090 2103 2103 2116 2116 2116 2116 2116 2129 2129 2129 2116 2103 2103 2103 2103 2116 2103 2103 2103 2116 2116 2116 2116 2116 2129 2129 2129 2143 2129 2129 2129 2129 2129 2129 2116 2116 2116 2116 2116 2116 2129 2129 2129 1926 1926 1926 1926 1926 1915 1915 1915 1915 1915 1915 1915 1926 1915 1915 1904 1904 2129 2129 2129 2143 2143 2129 2129 2129 2129 2129 2129 2129 2129 2129 2129 2129 2143 2143 2143 2143 2129 2129 2143 2129 2129 2129 2129 2129 2143 2143 2143 2143 2129 2129 2143 2143 2129 2129 2129 2129 2129 2129 2129 2129 2129 2129 2129 2129 2129 2116 2116 2116 2116 2116 2116 2116 2116 2116 2116 2116 2116 2116 2116 2116 2116 2116 2116 2116 2116 2116 2116 2116 2103 2103 2103 2103 2116 2116 2116 2116 2116 2129 2129 0 0 0 0 0 0 0 0 0
0 0 0 0 0 0 0 0 0 0 0 0 0 0 0 0 0 0 0 0 0 0 0 0 0 0 0 0 0 0 0 0 0 0 1936 1936 1947 1947 1947 1947 1959 1959 1959 1959 1959 1959 1959 1959 1959 1959 1959 1959 1959 1959 1959 1959 1959 1959 1959 1959 1959 1959 1959 1959 1947 1947 1947 1959 1959 1959 1959 1959 1959 1947 1947 1947 1947 1947 1947 1947 1947 1947 1947 1959 1959 1947 1947 1959 1959 1959 1959 1959 1959 1959 1959 1959 1959 1959 1959 1959 1959 1959 1959 1959 1959 1959 1959 1959 1959 1959 1959 1959 1959 1959 1959 1959 1959 1959 1959 1959 1959 1959 1970 1970 1970 1981 1981 1981 1981 1981 1981 1970 1970 1959 1959 1970 1970 1981 1981 1981 1981 1993 1993 1993 1981 1981 1993 1993 1993 1993 1993 1993 1993 1993 2005 2005 2005 2005 1993 1993 1993 1993 1993 1993 1981 1981 1981 1993 1993 1993 1993 1993 1993 1993 1993 1993 1993 1993 2005 2005 2005 2005 2005 2005 2016 2016 2005 2005 2005 2005 2005 2005 2005 2016 2016 2016 2016 2016 2028 2028 2028 2028 2028 2028 2028 2028 2028 2028 2028 2028 2028 2028 2028 2028 2028 2040 2040 2040 2040 2040 2040 2040 2040 2040 2040 2053 2040 2040 2040 2040 2053 2040 2040 2053 2053 2053 2053 2053 2053 2053 2053 2040 2040 2040 2028 2028 2028 2028 2040 2053 2053 2053 2053 2053 2040 2040 2040 2040 2040 2040 2040 2053 2053 2053 2053 2053 2053 2053 2053 2053 2053 2053 2053 2053 2053 2040 2016 2016 1993 1981 1981 1970 1970 1970 1970 1981 1981 1993 2005 2016 2028 2028 2040 2065 1853 1843 1843 1853 1853 1853 1843 1843 1843 1843 1853 1853 1639 1639 1639 1639 1639 1639 1632 1632 1632 1632 1632 1632 1632 1632 1632 1639 1639 1639 1639 1639 1639 1639 2065 2065 2065 2065 2065 2065 2065 2065 2065 2065 2065 2065 1594 1594 1594 1594 1594 1594 1594 1594 1594 1594 1601 1601 1601 1609 1609 1609 1616 1616 2078 2090 2090 2090 2090 2090 2078 2078 2078 2078 2078 2090 2090 2090 2090 2090 2090 2090 2090 2090 2090 2103 2103 2103 2103 2090 2090 2103 2090 2090 2103 2103 2103 2103 2103 2103 2103 2103 1883 1883 1883 1883 1883 1873 1873 1873 1863 1863 1863 1863 1853 1853 1853 1853 1843 1823 1813 1757 1757 1757 1757 1748 1748 1748 1748 1748 1748 1748 1748 1748 1757 1757 1757 1757 1757 2103 2103 2103 2103 2103 2103 2103 2103 2103 2103 2116 2116 1904 1904 1894 1894 1894 1894 1894 1894 1894 1883 1883 1873 1873 1873 1873 1863 1863 1863 1863 1863 1853 1853 1853 1863 2116 2116 1804 1804 1794 1794 1785 1785 1785 1785 1785 1785 1785 1785 1785 1785 1794 1794 1794 2103 2103 2103 2103 2116 2116 2116 2116 2116 2116 2103 2103 2103 2103 2103 2103 2103 2103 2103 2103 2116 2116 2116 2116 2116 2129 2129 2129 2129 2129 2129 2129 2116 2116 2116 2116 2116 2116 2116 2116 2116 2116 2129 1926 1926 1926 1926 1926 1926 1915 1915 1915 1915 1915 1915 1926 1926 1915 1915 2129 2129 2129 2129 2129 2143 2129 2129 2129 2129 2129 2116 2116 2129 2116 2116 2129 2129 2129 2129 2129 2129 2129 2129 2129 2129 2129 2129 2129 2129 2129 2129 2129 2129 2129 2129 2129 2116 2116 2116 2116 2116 2116 2116 2116 2116 2116 2116 2116 2116 2116 2116 2116 2116 2116 2116 2116 2103 2103 2116 2116 2116 2116 2116 2116 2116 2116 2116 2116 2116 2116 2116 2103 2103 2103 2103 2103 2103 2103 2103 2116 2116 2116 2116 2116 0 0 0 0 0 0 0 0
0 0 0 0 0 0 0 0 0 0 0 0 0 0 0 0 0 0 0 0 0 0 0 0 0 0 0 0 0 0 0 0 0 0 1936 1936 1936 1936 1947 1947 1947 1947 1947 1947 1947 1947 1959 1959 1959 1959 1947 1947 1959 1959 1959 1959 1959 1959 1959 1959 1947 1947 1947 1947 1936 1936 1947 1947 1959 1959 1959 1959 1959 1947 1947 1947 1947 1947 1947 1947 1947 1947 1947 1959 1959 1959 1947 1947 1947 1959 1959 1947 1947 1947 1947 1947 1959 1947 1947 1959 1959 1959 1959 1959 1959 1959 1959 1959 1959 1959 1959 1959 1959 1959 1959 1959 1959 1959 1959 1959 1959 1959 1959 1959 1970 1970 1970 1970 1970 1970 1970 1959 1959 1959 1959 1970 1970 1970 1981 1981 1981 1981 1981 1981 1981 1981 1981 1993 1993 1993 1993 1993 1993 1993 1993 1993 1993 2005 1993 1993 1993 1993 1993 1993 1981 1981 1981 1993 1993 1993 1993 1993 1993 1993 1993 1993 1993 1993 1993 1993 1993 2005 2005 2005 2005 2005 1993 1993 1993 1993 2005 2005 2005 2016 2016 2016 2016 2016 2016 2016 2016 2016 2016 2028 2028 2028 2028 2028 2028 2028 2028 2028 2028 2028 2028 2028 2028 2028 2028 2028 2028 2040 2040 2040 2040 2040 2040 2040 2040 2040 2040 2040 2040 2040 2040 2040 2040 2040 2040 2040 2040 2040 2040 2040 2028 2028 2028 2028 2040 2040 2040 2040 2040 2040 2040 2028 2028 2028 2028 2028 2040 2040 2040 2040 2053 2053 2053 2053 2053 2053 2053 2053 2053 2053 2040 2028 2016 2005 1993 1993 1981 1981 1970 1970 1981 1981 1993 1993 2005 2016 2028 2028 2040 2053 2065 1843 1843 1853 1853 1853 1843 1843 1843 1843 1843 1853 1639 1639 1639 1639 1639 1639 1632 1632 1632 1632 1632 1632 1632 1632 1632 1639 1639 1639 1639 1639 1639 1639 2065 2065 2065 2065 2065 2065 2065 2065 2065 2065 2065 2065 1601 1594 1594 1594 1594 1594 1594 1594 1594 1594 1601 1601 1601 1609 1609 1609 1616 1616 1624 2078 2078 2078 2078 2078 2065 2065 2078 2065 2065 2078 2078 2078 2078 2078 2078 2078 2078 2090 2090 2090 2090 2090 2090 2090 2090 2090 2090 2090 2103 2103 2103 2103 2103 2103 2103 2103 2103 1883 1883 1873 1873 1873 1873 1863 1863 1863 1863 1853 1843 1843 1843 1843 1843 1833 1823 1766 1766 1757 1757 1748 1748 1748 1748 1748 1748 1748 1748 1757 1757 1757 1757 1766 1766 2103 2103 2103 2103 2103 2103 2103 2090 2090 2103 2103 2103 2116 2129 1894 1894 1894 1894 1894 1894 1883 1873 1873 1873 1873 1873 1873 1863 1863 1863 1863 1863 1853 1853 1853 1843 1833 1823 1804 1804 1794 1794 1785 1785 1785 1785 1785 1785 1785 1785 1785 1785 1794 1794 1794 2103 2103 2103 2103 2103 2103 2103 2103 2103 2103 2103 2090 2090 2090 2090 2103 2090 2090 2090 2103 2103 2103 2103 2103 2103 2116 2116 2116 2116 2116 2116 2116 2103 2103 2103 2103 2103 2103 2103 2103 2116 2116 2129 2129 1926 1926 1926 1926 1926 1915 1915 1915 1915 1915 1915 1926 1926 1926 1926 2116 2116 2116 2116 2116 2129 2129 2129 2116 2103 2103 2103 2103 2116 2116 2116 2116 2129 2129 2129 2129 2129 2129 2129 2129 2129 2129 2129 2129 2129 2129 2129 2129 2129 2129 2129 2129 2116 2116 2116 2116 2116 2116 2116 2116 2116 2116 2116 2116 2116 2116 2116 2116 2103 2103 2103 2103 2103 2103 2103 2103 2116 2116 2103 2103 2116 2116 2116 2116 2103 2103 2103 2103 2103 2103 2103 2103 2103 2103 2103 2103 2116 2116 2116 2116 0 0 0 0 0 0 0 0
0 0 0 0 0 0 0 0 0 0 0 0 0 0 0 0 0 0 0 0 0 0 0 0 0 0 0 0 0 0 0 0 0 0 1926 1926 1926 1926 1936 1936 1936 1936 1936 1936 1947 1947 1947 1947 1947 1947 1947 1947 1947 1947 1936 1936 1947 1947 1959 1947 1947 1947 1936 1936 1926 1926 1936 1936 1947 1947 1959 1959 1959 1947 1947 1947 1936 1936 1947 1947 1947 1947 1947 1947 1947 1947 1947 1947 1947 1947 1947 1947 1947 1947 1947 1947 1947 1947 1947 1947 1947 1947 1959 1959 1959 1959 1959 1947 1947 1947 1959 1959 1947 1947 1947 1947 1959 1959 1959 1959 1959 1959 1959 1959 1959 1959 1959 1959 1959 1959 1959 1959 1959 1959 1959 1959 1959 1970 1970 1970 1970 1970 1970 1970 1970 1970 1970 1981 1981 1981 1981 1981 1981 1981 1993 1993 1993 1993 1981 1981 1981 1981 1981 1981 1981 1981 1981 1981 1981 1981 1993 1993 1993 1993 1993 1993 1993 1993 1981 1981 1993 1993 1993 1993 1993 1993 1993 1993 1993 1993 1993 1993 1993 2005 2005 2005 1993 1993 2005 2005 2005 2005 2005 2016 2016 2016 2016 2016 2016 2016 2016 2016 2016 2016 2028 2028 2028 2028 2028 2028 2028 2028 2040 2040 2040 2040 2028 2028 2040 2040 2040 2028 2028 2040 2040 2028 2028 2028 2028 2028 2040 2040 2040 2040 2028 2028 2028 2028 2028 2028 2028 2028 2028 2028 2028 2028 2028 2028 2028 2028 2028 2028 2028 2028 2028 2028 2028 2028 2028 2028 2040 2040 2040 2040 2028 2016 2016 2005 1993 1993 1981 1981 1970 1970 1981 1981 1993 2005 2016 2016 2028 2028 2028 2040 2053 2053 1843 1843 1843 1843 1843 1843 1843 1843 1843 1853 1632 1632 1639 1639 1639 1639 1632 1632 1632 1632 1632 1632 1632 1632 1639 1639 1639 1639 1639 1647 1647 1647 2053 2053 2053 2053 2053 2053 2053 2053 2053 2053 2053 2053 1601 1601 1601 1601 1601 1594 1594 1594 1594 1594 1601 1601 1601 1609 1609 1609 1616 1616 1624 2065 2078 2078 2078 2065 2065 2065 2065 2065 2065 2065 2065 2065 2065 2065 2078 2078 2078 2078 2078 2090 2090 2090 2090 2090 2090 2090 2090 2090 2090 2090 2103 2103 2103 2090 2090 2090 2090 2090 2090 1873 1873 1873 1873 1863 1863 1863 1863 1853 1843 1843 1843 1843 1843 1833 1823 1794 1776 1766 1757 1757 1748 1748 1748 1748 1748 1748 1748 1757 1757 1757 1757 1757 1766 2090 2090 2103 2103 2090 2090 2090 2090 2090 2090 2103 2103 2103 2116 2116 1894 1894 1894 1894 1883 1883 1873 1873 1873 1873 1863 1863 1863 1863 1863 1863 1863 1853 1853 1853 1843 1833 1823 1804 1804 1794 1794 1785 1785 1785 1785 1785 1785 1785 1785 1785 1785 1794 1794 1794 2090 2103 2103 2103 2103 2103 2103 2103 2103 2103 2090 2090 2090 2090 2090 2090 2090 2090 2090 2090 2090 2090 2090 2090 2103 2103 2103 2103 2103 2103 2103 2103 2103 2103 2090 2090 2103 2103 2103 2103 2103 2103 2103 2103 1936 1936 1926 1926 1926 1926 1926 1915 1915 1915 1915 1915 1926 1936 2103 2116 2116 2116 2116 2116 2116 2116 2116 2103 2103 2103 2103 2103 2103 2103 2103 2103 2103 2116 2116 2116 2116 2116 2129 2129 2129 2129 2116 2116 2116 2116 2116 2116 2129 2129 2129 2129 2116 2116 2116 2116 2116 2103 2103 2103 2103 2103 2116 2116 2116 2116 2116 2116 2103 2103 2103 2103 2103 2103 2090 2090 2103 2103 2103 2103 2103 2103 2103 2103 2103 2103 2103 2103 2090 2090 2090 2090 2090 2090 2090 2103 2103 2103 2103 2103 0 0 0 0 0 0 0 0
0 0 0 0 0 0 0 0 0 0 0 0 0 0 0 0 0 0 0 0 0 0 0 0 0 0 0 0 0 0 0 0 0 0 1926 1926 1926 1926 1926 1926 1936 1926 1926 1936 1936 1936 1936 1936 1936 1936 1936 1936 1936 1936 1936 1936 1936 1936 1947 1936 1936 1936 1936 1926 1926 1926 1926 1936 1936 1936 1947 1947 1959 1947 1947 1947 1936 1936 1947 1936 1936 1947 1947 1947 1947 1947 1936 1936 1947 1947 1936 1936 1936 1936 1936 1936 1936 1947 1947 1947 1947 1947 1947 1947 1947 1947 1947 1947 1947 1947 1947 1947 1947 1947 1947 1947 1947 1947 1947 1959 1959 1959 1959 1959 1959 1959 1959 1959 1959 1947 1947 1947 1947 1959 1959 1959 1959 1959 1959 1959 1959 1959 1959 1959 1959 1959 1970 1970 1970 1970 1970 1970 1981 1981 1981 1981 1981 1981 1981 1981 1981 1981 1981 1981 1970 1970 1981 1981 1981 1981 1981 1993 1993 1993 1993 1993 1993 1993 1981 1981 1993 1993 1993 1993 1993 1993 1993 1993 1993 1993 1993 1993 1993 1993 1993 1993 1993 1993 2005 2005 2005 2005 2005 2016 2016 2016 2016 2005 2005 2005 2005 2005 2016 2016 2016 2028 2028 2028 2028 2028 2028 2028 2028 2028 2028 2028 2028 2028 2028 2028 2028 2028 2028 2028 2028 2028 2028 2028 2028 2028 2028 2028 2028 2028 2028 2028 2028 2028 2028 2028 2028 2028 2028 2028 2028 2028 2028 2016 2016 2028 2028 2028 2028 2028 2028 2028 2028 2028 2028 2028 2028 2028 2028 2028 2028 2016 2005 2005 1993 1993 1981 1981 1981 1981 1981 1981 1993 2005 2016 2016 2028 2028 2028 2040 2040 2040 1843 1843 1843 1843 1843 1843 1843 1843 1843 1632 1632 1632 1639 1639 1639 1639 1632 1632 1632 1632 1632 1632 1632 1639 1639 1639 1639 1639 1639 1647 1647 1647 2028 2053 2053 2053 2053 2053 2053 2053 2053 2040 2040 2040 1601 1601 1601 1601 1601 1594 1594 1594 1594 1594 1601 1601 1601 1609 1609 1609 1616 1616 2065 2065 2065 2065 2065 2065 2065 2065 2065 2065 2065 2065 2065 2065 2065 2065 2065 2065 2078 2078 2078 2078 2078 2078 2078 2078 2078 2078 2078 2090 2090 2090 2090 2090 2090 2090 2090 2090 2090 2078 2078 2078 1863 1863 1863 1863 1863 1863 1853 1843 1843 1843 1843 1843 1843 1833 1823 1813 1785 1766 1757 1757 1748 1748 1748 1748 1748 1748 1748 1757 1757 1757 1757 1757 1757 2090 2090 2090 2090 2090 2090 2090 2078 2078 2090 2090 2090 2090 2103 2103 2116 2116 1894 1894 1883 1873 1873 1873 1863 1863 1863 1863 1863 1863 1863 1863 1853 1853 1853 1853 1843 1833 1823 1804 1804 1794 1794 1794 1785 1785 1785 1785 1785 1785 1785 1785 1785 1794 1785 1785 2090 2090 2103 2103 2103 2103 2103 2103 2103 2103 2090 2090 2090 2090 2090 2090 2090 2090 2090 2090 2090 2090 2090 2090 2090 2090 2103 2103 2103 2090 2090 2090 2090 2090 2090 2090 2090 2090 2090 2090 2090 2090 2090 2090 1936 1936 1936 1936 1926 1926 1926 1915 1904 1904 1915 1915 1926 1936 2103 2103 2103 2103 2103 2103 2103 2103 2103 2103 2090 2090 2090 2090 2103 2090 2090 2103 2103 2103 2103 2103 2103 2116 2116 2116 2116 2116 2103 2103 2103 2116 2116 2116 2116 2116 2129 2129 2116 2103 2103 2103 2103 2103 2103 2103 2103 2103 2103 2103 2103 2116 2103 2103 2103 2090 2090 2090 2090 2090 2090 2090 2090 2090 2090 2090 2103 2103 2103 2103 2103 2090 2090 2090 2090 2090 2090 2090 2090 2090 2090 2090 2090 2090 2090 2090 0 0 0 0 0 0 0 0
0 0 0 0 0 0 0 0 0 0 0 0 0 0 0 0 0 0 0 0 0 0 0 0 0 0 0 0 0 0 0 0 0 0 1915 1915 1926 1926 1926 1926 1926 1926 1926 1926 1926 1926 1936 1936 1936 1936 1926 1926 1926 1926 1926 1926 1926 1926 1926 1926 1926 1926 1926 1926 1926 1926 1926 1936 1936 1936 1936 1936 1947 1936 1936 1936 1936 1936 1926 1926 1926 1936 1936 1936 1936 1936 1936 1936 1947 1936 1926 1926 1936 1936 1936 1936 1936 1936 1936 1947 1947 1947 1947 1947 1947 1947 1936 1936 1936 1947 1936 1936 1947 1947 1947 1947 1947 1947 1947 1947 1947 1947 1959 1959 1947 1947 1947 1947 1947 1947 1947 1947 1947 1947 1947 1959 1959 1959 1959 1959 1959 1959 1959 1959 1959 1959 1959 1959 1959 1959 1959 1970 1970 1970 1981 1981 1981 1970 1970 1970 1970 1970 1970 1970 1970 1970 1970 1970 1970 1981 1981 1981 1993 1993 1993 1981 1981 1981 1981 1981 1981 1981 1981 1981 1981 1993 1993 1993 1993 1993 1993 1993 1993 1993 1993 1993 1993 1993 1993 2005 2005 2005 2005 2005 2005 2005 2005 1993 1993 1993 1993 2005 2005 2005 2016 2016 2016 2016 2016 2016 2016 2016 2028 2028 2028 2028 2016 2016 2016 2016 2016 2016 2016 2016 2016 2016 2016 2016 2016 2028 2028 2028 2028 2028 2016 2016 2016 2016 2016 2016 2016 2016 2016 2016 2016 2016 2016 2016 2016 2016 2028 2028 2028 2028 2028 2028 2028 2028 2028 2028 2028 2028 2028 2028 2016 2016 2005 1993 1993 1993 1981 1981 1981 1981 1981 1981 1993 2005 2016 2016 2028 2028 2028 2028 2028 2028 2040 1843 1843 1833 1833 1833 1833 1833 1833 1632 1632 1632 1639 1639 1639 1639 1639 1632 1632 1632 1639 1639 1639 1639 1639 1639 1639 1639 1647 1647 1647 1663 2028 2040 2040 2040 2053 2053 2053 2040 2040 2040 2040 2040 1601 1601 1601 1601 1601 1594 1594 1594 1594 1594 1601 1601 1601 1609 1609 1609 1609 1616 2053 2053 2065 2065 2065 2065 2053 2053 2053 2053 2053 2053 2053 2053 2065 2065 2065 2065 2065 2065 2065 2065 2065 2065 2065 2065 2065 2078 2078 2078 2078 2090 2090 2090 2078 2078 2078 2078 2078 2078 2078 2078 1863 1863 1863 1863 1863 1853 1853 1843 1843 1843 1843 1843 1843 1833 1823 1813 1804 1766 1757 1757 1748 1748 1748 1748 1748 1748 1748 1757 1757 1757 1757 1757 1757 2078 2078 2090 2090 2078 2078 2078 2078 2078 2078 2078 2078 2078 2078 2090 2103 2103 2090 2090 1883 1863 1863 1863 1863 1863 1863 1863 1863 1863 1863 1863 1853 1853 1853 1843 1833 1833 1823 1804 1804 1794 1794 1794 1785 1785 1785 1785 1785 1785 1794 1785 1785 1794 1785 1785 2090 2090 2090 2090 2103 2090 2090 2103 2103 2103 2078 2078 2078 2078 2078 2078 2078 2078 2078 2090 2090 2090 2090 2090 2090 2090 2090 2090 2090 2090 2090 2090 2090 2090 2090 2090 2090 2090 2090 2090 2090 2090 2090 1947 1936 1936 1936 1936 1926 1926 1926 1915 1904 1904 1904 1915 1915 1936 2103 2103 2103 2103 2103 2103 2103 2103 2103 2090 2090 2090 2090 2090 2090 2090 2090 2090 2103 2103 2103 2103 2103 2103 2103 2103 2103 2103 2103 2103 2103 2103 2103 2103 2103 2103 2116 2103 2090 2090 2090 2090 2090 2090 2090 2090 2090 2103 2103 2090 2090 2090 2090 2090 2090 2090 2090 2090 2090 2090 2090 2090 2090 2090 2090 2090 2090 2090 2090 2090 2090 2090 2090 2090 2078 2078 2078 2078 2078 2078 2078 2078 2078 2078 2078 2090 0 0 0 0 0 0 0 0
0 0 0 0 0 0 0 0 0 0 0 0 0 0 0 0 0 0 0 0 0 0 0 0 0 0 0 0 0 0 0 0 0 0 1915 1915 1915 1915 1926 1926 1926 1926 1926 1926 1926 1926 1926 1926 1926 1926 1926 1926 1926 1915 1915 1926 1926 1926 1926 1926 1926 1926 1926 1926 1926 1926 1926 1926 1926 1926 1926 1926 1926 1926 1926 1926 1926 1926 1926 1926 1926 1926 1926 1926 1926 1936 1936 1936 1936 1926 1926 1926 1926 1926 1926 1926 1926 1926 1936 1947 1947 1947 1947 1947 1947 1947 1936 1936 1936 1936 1936 1936 1936 1936 1936 1947 1947 1947 1947 1947 1947 1947 1947 1947 1947 1947 1947 1947 1947 1947 1947 1947 1947 1947 1947 1947 1947 1959 1959 1959 1959 1959 1959 1959 1959 1959 1959 1959 1959 1959 1959 1959 1959 1970 1970 1970 1970 1970 1959 1959 1970 1970 1970 1959 1959 1959 1970 1970 1970 1970 1981 1981 1981 1981 1981 1981 1981 1981 1981 1981 1981 1981 1981 1981 1981 1981 1981 1981 1981 1981 1981 1981 1981 1981 1981 1993 1981 1981 1993 1993 1993 1993 1993 2005 2005 2005 1993 1993 1993 1993 1993 2005 2005 2005 2005 2005 2005 2005 2005 2005 2005 2005 2016 2016 2016 2016 2016 2016 2016 2016 2005 2005 2005 2005 2005 2016 2016 2016 2016 2016 2016 2016 2016 2016 2016 2016 2016 2016 2016 2016 2016 2016 2016 2016 2016 2016 2016 2016 2016 2016 2016 2016 2016 2016 2028 2028 2028 2028 2028 2028 2028 2028 2016 2016 2016 2005 2005 1993 1993 1993 1981 1981 1981 1981 1981 1981 1993 2005 2016 2016 2028 2028 2028 2028 2028 2028 2040 2040 2040 1833 1833 1833 1833 1833 1833 1639 1639 1639 1639 1639 1639 1639 1639 1639 1639 1639 1639 1639 1639 1639 1639 1639 1639 1639 1647 1647 1655 1663 2028 2028 2028 2028 2040 2040 2040 2040 2040 2040 2040 2040 1601 1601 1601 1601 1601 1594 1594 1594 1594 1594 1601 1601 1601 1609 1609 1609 1609 1616 2040 2040 2053 2053 2053 2065 2053 2053 2053 2053 2053 2053 2053 2053 2053 2053 2053 2053 2065 2065 2065 2065 2065 2065 2065 2065 2065 2065 2065 2065 2078 2078 2078 2078 2078 2078 2078 2078 2078 2078 2078 2078 1863 1863 1863 1863 1863 1853 1853 1843 1843 1843 1843 1843 1843 1833 1823 1813 1804 1776 1757 1757 1757 1757 1748 1748 1748 1748 1748 1757 1757 1757 1757 1757 2065 2065 2065 2078 2078 2078 2078 2078 2065 2065 2065 2065 2065 2065 2065 2078 2078 2078 2078 2078 2090 1863 1863 1863 1863 1863 1863 1863 1863 1863 1863 1853 1853 1853 1843 1843 1833 1833 1823 1804 1804 1794 1794 1794 1785 1785 1785 1785 1785 1794 1794 1794 1794 1794 1785 1785 2090 2090 2090 2090 2090 2090 2090 2090 2090 2090 2078 2078 2078 2078 2078 2078 2078 2078 2078 2078 2078 2078 2078 2078 2078 2078 2078 2078 2090 2090 2090 2078 2078 2078 2078 2078 2090 2090 2090 2090 2090 2090 2090 1947 1936 1936 1936 1936 1926 1926 1926 1915 1915 1904 1904 1915 1915 2078 2090 2090 2090 2090 2090 2090 2090 2090 2090 2090 2090 2090 2090 2090 2090 2090 2090 2090 2090 2090 2090 2090 2090 2090 2090 2103 2103 2103 2103 2103 2103 2103 2103 2103 2103 2103 2103 2103 2090 2078 2078 2090 2090 2078 2078 2078 2078 2078 2078 2078 2078 2078 2078 2078 2078 2078 2078 2090 2090 2090 2090 2090 2090 2078 2078 2078 2078 2078 2078 2078 2090 2090 2078 2078 2078 2078 2078 2078 2078 2078 2078 2078 2078 2078 2078 2078 0 0 0 0 0 0 0 0
0 0 0 0 0 0 0 0 0 0 0 0 0 0 0 0 0 0 0 0 0 0 0 0 0 0 0 0 0 0 0 0 0 0 1915 1915 1915 1915 1915 1915 1915 1915 1915 1915 1915 1915 1915 1926 1915 1915 1926 1915 1915 1915 1915 1915 1926 1926 1915 1915 1915 1926 1926 1926 1926 1926 1926 1926 1926 1926 1926 1926 1926 1915 1915 1915 1915 1915 1915 1915 1915 1915 1915 1915 1915 1915 1915 1915 1915 1926 1926 1926 1926 1926 1926 1926 1926 1926 1936 1947 1947 1947 1947 1936 1936 1947 1926 1926 1926 1926 1926 1926 1936 1936 1936 1936 1936 1936 1936 1947 1947 1947 1947 1947 1936 1936 1936 1936 1936 1936 1936 1936 1936 1947 1947 1947 1947 1947 1959 1959 1959 1959 1959 1959 1959 1947 1947 1959 1959 1947 1947 1947 1959 1959 1959 1959 1959 1959 1947 1947 1959 1959 1959 1959 1959 1959 1959 1959 1970 1970 1970 1981 1981 1981 1981 1981 1981 1981 1970 1970 1970 1970 1970 1981 1981 1981 1981 1981 1981 1981 1981 1981 1981 1981 1981 1981 1981 1981 1981 1981 1981 1993 1993 1993 1993 1993 1993 1993 1993 1993 1993 1993 1993 1993 1993 1993 2005 2005 2005 2005 1993 1993 2005 2005 2005 2005 1993 1993 2005 1993 1993 2005 1993 1993 2005 2005 2005 2005 2005 2016 2016 2016 2016 2016 2005 2005 2005 2005 2005 2016 2016 2016 2016 2016 2016 2005 2005 2005 2005 2016 2016 2016 2016 2016 2016 2016 2016 2016 2016 2016 2016 2016 2016 2016 2016 2005 1993 1993 1993 1993 1993 1981 1981 1981 1981 1981 1993 2005 2016 2016 2016 2016 2028 2028 2028 2028 2028 2028 2028 2028 2028 2040 1833 1833 1639 1639 1639 1639 1639 1639 1639 1639 1639 1639 1639 1639 1639 1639 1639 1639 1639 1647 1647 1647 1647 1647 1655 1663 2016 2016 2016 2016 2028 2028 2028 2016 2016 2040 2040 2040 1616 1609 1609 1601 1601 1594 1594 1594 1594 1594 1601 1601 1601 1609 1609 1609 1616 1624 2016 2016 2028 2040 2040 2040 2040 2040 2053 2053 2053 2040 2040 2053 2053 2053 2053 2053 2053 2053 2065 2065 2065 2065 2065 2065 2065 2065 2065 2065 2065 2065 2065 2065 2065 2065 2065 2065 2065 2065 2065 2065 2065 1863 1863 1863 1863 1853 1853 1843 1843 1843 1843 1843 1843 1833 1823 1813 1794 1776 1766 1757 1757 1757 1757 1748 1748 1748 1757 1757 1757 1757 1757 1766 1766 2053 2065 2065 2078 2078 2078 2078 2065 2065 2065 2065 2053 2053 2065 2065 2065 2065 2065 2065 2065 1863 1863 1863 1853 1853 1863 1863 1863 1863 1863 1853 1853 1843 1843 1843 1833 1833 1833 1813 1804 1794 1794 1794 1785 1785 1785 1785 1785 1794 1794 1785 1785 1785 1785 1785 2078 2078 2078 2090 2090 2090 2090 2090 2090 2090 2078 2078 2078 2078 2078 2065 2065 2065 2078 2078 2078 2078 2078 2078 2078 2078 2078 2078 2078 2078 2078 2078 2078 2078 2078 2078 2090 2078 2078 2090 2090 2090 2090 1936 1936 1936 1936 1936 1936 1926 1926 1926 1926 1926 1926 1926 1926 2065 2078 2078 2090 2090 2090 2090 2090 2090 2090 2090 2090 2090 2090 2090 2090 2090 2090 2090 2090 2090 2090 2090 2090 2090 2090 2090 2090 2090 2090 2090 2090 2090 2090 2090 2090 2103 2103 2103 2090 2078 2078 2078 2078 2078 2078 2078 2078 2078 2078 2078 2078 2078 2078 2078 2065 2065 2078 2078 2078 2078 2078 2078 2078 2078 2078 2078 2078 2078 2078 2078 2078 2078 2078 2078 2078 2078 2078 2078 2078 2078 2078 2078 2078 2078 2078 2078 0 0 0 0 0 0 0 0
0 0 0 0 0 0 0 0 0 0 0 0 0 0 0 0 0 0 0 0 0 0 0 0 0 0 0 0 0 0 0 0 0 0 1915 1915 1904 1904 1904 1915 1915 1915 1915 1915 1915 1915 1915 1926 1915 1915 1926 1915 1915 1915 1915 1915 1926 1926 1915 1915 1915 1926 1926 1926 1915 1915 1926 1926 1926 1915 1915 1926 1926 1915 1915 1915 1915 1915 1915 1915 1915 1915 1915 1915 1904 1904 1915 1915 1915 1915 1915 1915 1915 1915 1926 1926 1926 1926 1936 1936 1936 1936 1936 1936 1936 1936 1926 1915 1915 1915 1915 1926 1915 1915 1926 1926 1926 1926 1926 1936 1936 1936 1936 1936 1936 1936 1936 1936 1936 1936 1936 1936 1936 1936 1936 1947 1947 1947 1947 1947 1959 1959 1959 1959 1947 1947 1947 1947 1947 1947 1947 1947 1947 1947 1947 1959 1959 1947 1947 1947 1947 1947 1947 1947 1947 1947 1947 1947 1959 1970 1970 1970 1981 1981 1981 1981 1981 1970 1970 1970 1970 1970 1970 1970 1970 1970 1981 1981 1981 1981 1981 1981 1981 1981 1981 1981 1981 1981 1981 1981 1981 1981 1993 1993 1993 1981 1981 1981 1981 1981 1981 1993 1993 1993 1993 1993 1993 1993 1993 1993 1993 1993 1993 1993 1993 1993 1993 1993 2005 1993 1993 1993 1993 1993 1993 1993 1993 2005 2005 2005 2005 2005 2005 2005 1993 1993 1993 2005 2005 2005 2005 2005 2005 2005 2005 2005 2005 2005 2005 2005 2016 2016 2016 2016 2016 2016 2016 2016 2016 2016 2016 2016 2016 2016 2005 2005 1993 1993 1993 1993 1981 1981 1981 1981 1981 1993 1993 2005 2005 2016 2016 2016 2028 2028 2028 2028 2028 2028 2028 2028 2028 2028 2028 2040 1639 1639 1647 1647 1647 1647 1647 1639 1639 1639 1639 1639 1639 1639 1639 1639 1639 1647 1647 1647 1647 1647 1655 1663 2016 2016 2016 2016 2016 2028 2028 2016 2016 2040 2040 2040 1616 1609 1609 1609 1601 1594 1594 1601 1601 1601 1601 1601 1601 1609 1609 1609 1616 1624 2016 2016 2016 2028 2028 2040 2040 2040 2040 2040 2040 2040 2040 2040 2040 2040 2040 2040 2040 2053 2053 2053 2053 2053 2053 2053 2053 2053 2053 2053 2053 2053 2053 2065 2065 2065 2065 2065 2053 2053 2053 2053 2053 1863 1863 1863 1863 1853 1843 1843 1843 1843 1843 1843 1833 1833 1813 1804 1794 1776 1766 1757 1757 1757 1757 1748 1748 1748 1757 1757 1757 1757 1766 1766 1766 2053 2053 2053 2065 2065 2065 2065 2065 2065 2053 2053 2053 2053 2053 2053 2053 2053 2053 2053 2065 2065 1863 1863 1853 1853 1853 1853 1853 1853 1853 1853 1843 1843 1843 1843 1833 1833 1823 1813 1804 1794 1794 1794 1785 1785 1785 1785 1785 1794 1794 1785 1785 1785 1785 1785 2065 2065 2078 2078 2078 2078 2078 2090 2090 2090 2078 2065 2065 2065 2065 2065 2065 2065 2065 2078 2065 2065 2065 2065 2065 2065 2065 2078 2078 2078 2078 2078 2078 2078 2078 2078 2078 2078 2078 2078 2078 2090 2090 1936 1936 1936 1936 1936 1936 1926 1926 1926 1926 1926 1926 1926 2040 2053 2078 2078 2090 2090 2090 2090 2090 2090 2090 2090 2090 2090 2090 2090 2090 2090 2078 2078 2090 2090 2090 2090 2090 2090 2090 2090 2090 2090 2090 2090 2090 2090 2090 2090 2090 2090 2103 2090 2078 2078 2078 2078 2065 2065 2065 2065 2065 2078 2065 2065 2065 2065 2065 2065 2065 2065 2065 2065 2078 2078 2065 2065 2065 2065 2065 2065 2065 2065 2065 2065 2065 2078 2078 2078 2078 2078 2078 2078 2078 2078 2078 2078 2078 2078 2078 2078 0 0 0 0 0 0 0 0
0 0 0 0 0 0 0 0 0 0 0 0 0 0 0 0 0 0 0 0 0 0 0 0 0 0 0 0 0 0 0 0 0 0 1904 1904 1894 1894 1904 1904 1904 1904 1904 1904 1915 1915 1915 1915 1915 1915 1915 1915 1915 1915 1915 1915 1915 1915 1915 1915 1915 1915 1915 1915 1915 1915 1915 1915 1915 1915 1915 1915 1926 1915 1904 1904 1904 1915 1915 1915 1904 1904 1904 1904 1904 1904 1904 1904 1915 1915 1915 1915 1915 1915 1915 1926 1926 1926 1926 1936 1936 1936 1926 1926 1926 1915 1915 1915 1915 1915 1915 1915 1915 1915 1915 1915 1926 1926 1926 1926 1936 1936 1936 1936 1936 1936 1926 1926 1926 1936 1926 1926 1936 1936 1936 1936 1936 1936 1936 1936 1947 1947 1947 1947 1947 1947 1947 1947 1947 1947 1947 1947 1947 1947 1947 1947 1947 1947 1947 1936 1936 1947 1947 1947 1947 1947 1947 1947 1947 1947 1959 1970 1970 1970 1970 1959 1959 1970 1959 1959 1959 1959 1959 1970 1970 1970 1970 1970 1970 1970 1981 1981 1981 1981 1981 1981 1981 1981 1981 1981 1981 1981 1981 1981 1981 1981 1981 1981 1981 1981 1981 1981 1981 1981 1981 1981 1981 1981 1981 1981 1981 1993 1993 1993 1993 1993 1993 2005 1993 1993 1993 1993 1993 1993 1993 1993 1993 1993 2005 2005 2005 2005 2005 2005 1993 1993 1993 1993 1993 1993 1993 1993 2005 1993 1993 1993 1993 2005 2005 2005 2005 2005 2005 2005 2005 2005 2005 2005 2005 2005 2005 2005 2005 2005 2005 1993 1993 1993 1993 1981 1981 1981 1981 1981 1981 1981 1993 2005 2005 2016 2016 2016 2016 2016 2028 2028 2016 2016 2016 2016 2016 2028 2028 2028 1655 1655 1655 1655 1655 1655 1655 1647 1639 1639 1639 1639 1639 1639 1639 1647 1647 1647 1647 1655 1655 1655 1663 1663 2005 2005 2005 2016 2016 2016 2028 2028 2028 2040 2040 2040 1609 1609 1609 1609 1601 1601 1601 1601 1601 1601 1601 1601 1601 1609 1609 1616 1616 2016 2016 2016 2016 2028 2028 2028 2028 2028 2028 2028 2028 2028 2028 2028 2028 2028 2028 2028 2040 2040 2053 2053 2053 2053 2040 2040 2040 2040 2040 2040 2040 2040 2053 2053 2053 2053 2053 2053 2040 2040 2040 2040 2053 2053 1863 1863 1863 1843 1843 1843 1843 1833 1833 1833 1833 1833 1813 1794 1785 1776 1766 1757 1757 1757 1757 1757 1748 1748 1757 1757 1757 1766 1766 1766 2053 2053 2053 2053 2053 2053 2053 2053 2053 2053 2053 2053 2053 2053 2053 2053 2053 2053 2053 2053 2053 2065 2065 2078 1853 1853 1853 1853 1853 1853 1853 1843 1843 1843 1833 1833 1833 1833 1823 1813 1804 1794 1794 1794 1794 1794 1794 1794 1794 1794 1794 1794 1794 1794 1794 1794 2065 2065 2065 2065 2065 2065 2078 2078 2078 2078 2065 2065 2065 2065 2065 2065 2065 2065 2065 2065 2065 2053 2053 2065 2065 2065 2065 2065 2065 2065 2065 2065 2065 2065 2065 2065 2078 2078 2078 2078 2078 2090 2090 2090 1936 1936 1936 1936 1936 1926 1926 1926 1926 1936 1936 1936 1981 2053 2065 2065 2078 2078 2078 2078 2078 2078 2090 2090 2090 2078 2078 2090 2078 2078 2078 2078 2078 2078 2078 2078 2078 2078 2078 2090 2090 2078 2078 2078 2078 2090 2090 2090 2090 2090 2090 2090 2078 2078 2065 2065 2065 2065 2065 2065 2065 2065 2065 2065 2065 2065 2065 2065 2065 2065 2065 2065 2065 2065 2053 2053 2065 2065 2065 2065 2065 2065 2065 2065 2065 2065 2078 2078 2078 2065 2065 2078 2065 2065 2065 2065 2065 2065 2065 2065 0 0 0 0 0 0 0 0
0 0 0 0 0 0 0 0 0 0 0 0 0 0 0 0 0 0 0 0 0 0 0 0 0 0 0 0 0 0 0 0 0 0 1904 1894 1894 1894 1894 1904 1904 1904 1904 1904 1915 1915 1915 1915 1915 1915 1904 1904 1904 1904 1904 1904 1915 1915 1915 1915 1915 1915 1915 1915 1915 1915 1915 1915 1915 1915 1915 1915 1915 1915 1904 1904 1904 1904 1904 1904 1904 1904 1894 1894 1904 1904 1904 1904 1915 1915 1915 1915 1915 1915 1915 1915 1915 1915 1915 1915 1926 1926 1915 1915 1915 1915 1915 1915 1915 1915 1915 1915 1915 1915 1915 1915 1915 1915 1926 1926 1926 1926 1926 1926 1926 1926 1926 1926 1926 1926 1926 1926 1926 1936 1936 1936 1936 1936 1936 1936 1947 1947 1947 1947 1947 1947 1947 1947 1947 1936 1936 1947 1936 1936 1947 1947 1947 1947 1936 1936 1936 1947 1947 1947 1947 1947 1936 1936 1947 1947 1947 1959 1959 1959 1959 1947 1947 1947 1947 1947 1959 1959 1959 1959 1959 1959 1959 1959 1959 1970 1970 1970 1970 1970 1970 1970 1970 1970 1970 1981 1981 1981 1981 1981 1981 1981 1981 1970 1970 1970 1981 1981 1981 1981 1981 1981 1981 1981 1981 1981 1981 1981 1981 1981 1993 1993 1993 1993 1993 1993 1993 1993 1993 1993 1993 1993 1993 1993 1993 1993 1993 1993 1993 1993 1981 1981 1981 1981 1981 1981 1981 1993 1993 1993 1993 1993 1993 1993 1993 1993 1993 1993 2005 2005 2005 1993 1993 2005 1993 1993 1993 2005 1993 1993 1993 1993 1993 1993 1993 1981 1981 1981 1981 1981 1981 1981 1981 2005 2005 2005 2016 2016 2016 2016 2016 2016 2016 2016 2016 2016 2016 2016 2016 2016 2028 2028 1655 1655 1655 1655 1655 1647 1647 1639 1639 1639 1639 1639 1639 1647 1647 1647 1655 1655 1655 1655 1663 1663 2005 2005 2005 2005 2016 2016 2016 2016 2028 2040 2040 2040 1609 1609 1609 1609 1601 1601 1601 1601 1601 1601 1601 1601 1609 1609 1609 1609 1616 2016 2016 2016 2016 2016 2016 2016 2016 2028 2028 2028 2028 2016 2016 2028 2016 2016 2016 2016 2028 2028 2040 2040 2040 2040 2028 2028 2028 2028 2028 2028 2040 2040 2040 2040 2040 2040 2040 2040 2040 2040 2040 2040 2040 2040 2040 1863 1863 1843 1843 1843 1843 1833 1833 1833 1833 1823 1804 1794 1785 1776 1766 1766 1757 1757 1757 1757 1757 1757 1757 1757 1766 1766 1776 1776 2053 2053 2040 2040 2053 2053 2053 2053 2053 2053 2053 2053 2053 2053 2053 2053 2053 2053 2053 2053 2053 2053 2053 2065 2065 2065 1853 1853 1853 1853 1843 1843 1833 1833 1833 1833 1833 1823 1823 1813 1804 1794 1794 1794 1794 1794 1794 1794 1794 1794 1794 1794 1794 1794 1794 1794 2053 2053 2053 2065 2065 2065 2065 2078 2078 2078 2053 2053 2053 2053 2053 2053 2053 2053 2053 2053 2053 2053 2053 2053 2053 2053 2053 2065 2065 2065 2065 2053 2053 2053 2053 2053 2065 2065 2065 2078 2078 2078 2078 1936 1936 1936 1936 1936 1936 1936 1936 1926 1926 1926 1936 1947 1981 2040 2053 2053 2065 2078 2078 2078 2078 2078 2078 2078 2078 2078 2078 2078 2078 2078 2078 2078 2078 2078 2078 2078 2078 2078 2078 2078 2078 2078 2078 2078 2078 2078 2078 2078 2078 2090 2078 2078 2065 2065 2053 2053 2053 2053 2053 2053 2053 2065 2065 2065 2065 2065 2065 2065 2053 2053 2053 2053 2053 2053 2040 2040 2053 2053 2053 2053 2053 2053 2065 2065 2065 2065 2065 2065 2078 2065 2065 2065 2065 2065 2065 2065 2065 2065 2065 2065 0 0 0 0 0 0 0 0
0 0 0 0 0 0 0 0 0 0 0 0 0 0 0 0 0 0 0 0 0 0 0 0 0 0 0 0 0 0 0 0 0 0 1894 1894 1894 1894 1894 1894 1894 1894 1904 1904 1904 1904 1904 1904 1904 1904 1904 1894 1894 1894 1894 1904 1904 1904 1904 1915 1915 1915 1915 1904 1904 1904 1904 1915 1915 1915 1915 1915 1915 1904 1904 1904 1904 1904 1904 1904 1904 1904 1894 1894 1894 1904 1904 1904 1915 1915 1915 1915 1915 1915 1915 1915 1915 1915 1915 1915 1915 1915 1915 1915 1915 1915 1915 1915 1915 1915 1915 1915 1915 1915 1915 1915 1915 1915 1915 1915 1926 1926 1926 1926 1926 1926 1915 1915 1915 1915 1915 1926 1926 1926 1926 1926 1936 1936 1936 1936 1947 1947 1947 1947 1947 1947 1947 1947 1936 1936 1936 1936 1936 1936 1947 1947 1947 1947 1936 1936 1936 1947 1947 1936 1936 1936 1936 1936 1936 1947 1947 1947 1947 1947 1947 1947 1947 1947 1947 1947 1947 1947 1947 1959 1959 1959 1959 1959 1959 1959 1959 1959 1959 1959 1959 1959 1959 1959 1947 1947 1959 1981 1981 1970 1970 1970 1970 1970 1970 1970 1970 1970 1970 1970 1970 1970 1970 1970 1970 1970 1981 1981 1981 1981 1981 1981 1981 1981 1981 1993 1993 1981 1981 1981 1981 1981 1981 1981 1981 1993 1993 1993 1993 1993 1981 1981 1981 1981 1981 1981 1981 1981 1981 1981 1981 1981 1981 1981 1981 1993 1993 1993 1993 1993 1993 1993 1993 1993 1993 1993 1993 1993 1993 1993 1993 1993 1993 1993 1993 1981 1981 1981 1981 1981 1981 1981 1981 1993 1993 2005 2005 2005 2005 2005 2016 2016 2005 2005 2005 2005 2016 2016 2016 2016 2016 2028 1663 1655 1655 1655 1655 1655 1647 1647 1647 1647 1647 1647 1647 1647 1655 1655 1663 1663 1663 1663 1663 1663 2005 2005 2005 2005 2016 2016 2016 2016 2016 2028 2040 2040 1609 1609 1609 1609 1609 1601 1601 1601 1601 1601 1601 1601 1609 1609 1609 1609 1616 2016 2016 2005 2005 2016 2016 2016 2016 2016 2016 2016 2016 2016 2016 2016 2016 2016 2016 2016 2016 2028 2028 2028 2028 2028 2028 2028 2028 2028 2028 2028 2028 2028 2040 2040 2040 2040 2028 2028 2028 2028 2028 2028 2028 2028 2028 2028 2028 2028 1843 1843 1843 1833 1833 1833 1823 1823 1804 1794 1785 1776 1766 1766 1757 1757 1757 1757 1757 1757 1757 1757 1766 1766 1776 2053 2040 2040 2040 2040 2040 2040 2028 2028 2040 2040 2040 2040 2040 2040 2040 2040 2040 2040 2040 2040 2053 2053 2053 2053 2053 2053 2065 2065 1853 1843 1843 1833 1833 1833 1833 1833 1833 1823 1823 1813 1804 1804 1794 1794 1794 1794 1794 1794 1794 1794 1794 1794 1794 1794 1794 2053 2053 2053 2053 2053 2053 2065 2065 2065 2065 2065 2053 2040 2040 2040 2040 2040 2040 2040 2053 2053 2053 2053 2053 2053 2040 2040 2040 2053 2053 2053 2053 2040 2040 2053 2053 2053 2053 2065 2065 2078 2078 2078 1936 1936 1936 1936 1936 1936 1936 1936 1936 1926 1926 1926 1936 1947 1959 2040 2040 2053 2053 2065 2065 2078 2078 2078 2078 2078 2078 2078 2078 2078 2078 2078 2078 2078 2078 2078 2078 2078 2078 2078 2078 2078 2078 2078 2078 2078 2078 2078 2078 2078 2078 2078 2078 2078 2065 2053 2040 2040 2040 2040 2053 2053 2053 2053 2053 2065 2065 2065 2065 2065 2053 2040 2040 2040 2040 2040 2028 2028 2040 2040 2040 2040 2053 2053 2053 2053 2053 2053 2053 2065 2065 2053 2053 2065 2065 2065 2053 2053 2065 2053 2053 2053 0 0 0 0 0 0 0 0
0 0 0 0 0 0 0 0 0 0 0 0 0 0 0 0 0 0 0 0 0 0 0 0 0 0 0 0 0 0 0 0 0 0 1894 1894 1894 1894 1894 1894 1894 1894 1894 1894 1904 1894 1894 1894 1904 1904 1894 1894 1894 1894 1894 1894 1894 1894 1894 1904 1904 1904 1894 1894 1894 1894 1904 1904 1904 1915 1915 1904 1904 1904 1894 1894 1894 1883 1883 1883 1894 1894 1894 1883 1883 1904 1904 1904 1904 1904 1915 1915 1915 1904 1904 1904 1904 1904 1904 1904 1904 1904 1904 1904 1904 1904 1904 1904 1904 1904 1904 1904 1904 1904 1915 1915 1904 1904 1915 1915 1915 1915 1926 1926 1915 1915 1915 1915 1915 1915 1915 1915 1915 1915 1926 1926 1926 1936 1936 1936 1936 1936 1936 1936 1926 1926 1926 1926 1926 1926 1926 1936 1936 1936 1936 1936 1936 1947 1936 1936 1936 1936 1936 1936 1936 1936 1936 1936 1936 1936 1947 1947 1947 1947 1947 1936 1936 1936 1947 1947 1947 1947 1947 1947 1947 1947 1947 1947 1947 1947 1947 1947 1947 1947 1947 1947 1947 1947 1947 1947 1947 1947 1970 1959 1959 1959 1959 1959 1959 1959 1959 1959 1959 1959 1959 1970 1970 1970 1970 1970 1970 1970 1970 1970 1970 1970 1981 1981 1981 1981 1981 1981 1981 1981 1981 1981 1981 1981 1981 1981 1981 1993 1993 1993 1981 1981 1981 1981 1981 1981 1981 1981 1981 1981 1981 1981 1981 1981 1981 1981 1993 1993 1993 1993 1993 1993 1981 1981 1981 1981 1981 1993 1993 1993 1993 1981 1981 1993 1981 1981 1981 1981 1981 1981 1981 1981 1981 1993 1993 1993 1993 1993 2005 2005 2005 2005 1993 1993 2005 2005 2005 2005 2005 2016 2016 2016 1663 1663 1663 1663 1655 1655 1655 1639 1639 1647 1647 1647 1655 1655 1655 1655 1663 1663 1663 1663 1663 1671 2005 2005 2005 2005 2005 2016 2016 2016 2016 2028 2028 2028 1609 1609 1609 1601 1601 1601 1601 1601 1601 1601 1609 1609 1609 1609 1609 1609 1616 2016 2005 2005 2005 2005 2005 2005 2005 2016 2016 2016 2016 2016 2016 2016 2016 2016 2016 2016 2016 2016 2016 2016 2028 2016 2016 2016 2016 2016 2016 2016 2028 2028 2028 2028 2028 2028 2016 2016 2016 2016 2016 2016 2016 2028 2028 2028 2016 2016 2016 1843 1833 1833 1833 1833 1823 1823 1804 1794 1785 1776 1776 1766 1757 1757 1757 1757 1757 1757 1757 1757 1766 1766 1776 2053 2040 2040 2040 2040 2040 2028 2028 2028 2028 2028 2028 2028 2028 2028 2028 2028 2028 2040 2040 2040 2040 2040 2040 2040 2040 2040 2040 2053 2053 1843 1843 1833 1833 1833 1833 1833 1833 1833 1823 1813 1804 1804 1804 1794 1794 1794 1794 1794 1794 1794 1794 1794 1794 1794 1794 2053 2053 2053 2053 2053 2053 2053 2053 2053 2053 2053 2040 2040 2040 2040 2040 2040 2040 2040 2053 2053 2040 2040 2040 2040 2040 2040 2040 2040 2040 2053 2040 2040 2040 2053 2053 2040 2040 2053 2065 2065 2065 2078 1936 1936 1936 1936 1936 1936 1936 1936 1936 1926 1926 1936 1936 1947 1959 2040 2040 2053 2053 2053 2065 2065 2065 2065 2078 2078 2078 2065 2065 2078 2065 2065 2065 2065 2065 2065 2065 2065 2065 2078 2078 2078 2078 2078 2078 2065 2065 2065 2065 2065 2065 2065 2065 2065 2053 2040 2040 2040 2040 2040 2040 2040 2053 2053 2053 2053 2053 2053 2053 2053 2040 2040 2028 2028 2028 2028 2028 2028 2040 2040 2040 2040 2040 2040 2040 2040 2040 2040 2040 2040 2053 2040 2040 2053 2053 2053 2053 2053 2065 2053 2053 2053 0 0 0 0 0 0 0 0
0 0 0 0 0 0 0 0 0 0 0 0 0 0 0 0 0 0 0 0 0 0 0 0 0 0 0 0 0 0 0 0 0 0 1894 1883 1883 1894 1894 1894 1894 1894 1894 1894 1894 1894 1894 1894 1894 1894 1883 1883 1894 1894 1894 1894 1894 1894 1894 1894 1904 1894 1894 1894 1894 1894 1894 1894 1894 1904 1894 1894 1894 1904 1894 1894 1894 1883 1883 1883 1894 1894 1883 1883 1883 1904 1904 1904 1904 1904 1904 1904 1904 1904 1904 1904 1894 1894 1894 1894 1894 1894 1904 1904 1904 1904 1904 1904 1904 1904 1894 1894 1904 1904 1904 1904 1904 1904 1904 1915 1915 1915 1915 1915 1915 1904 1904 1904 1915 1915 1915 1915 1915 1915 1915 1915 1926 1926 1926 1926 1926 1926 1926 1915 1915 1915 1915 1915 1915 1926 1926 1926 1926 1926 1936 1936 1936 1936 1936 1936 1936 1936 1936 1936 1936 1926 1926 1926 1936 1936 1936 1936 1936 1936 1936 1936 1936 1936 1936 1947 1947 1936 1936 1936 1947 1936 1936 1936 1947 1947 1947 1947 1947 1947 1947 1947 1947 1947 1947 1947 1947 1947 1959 1959 1959 1959 1959 1947 1947 1947 1947 1959 1959 1959 1959 1959 1959 1959 1959 1959 1959 1959 1959 1970 1970 1970 1970 1970 1970 1981 1981 1981 1981 1981 1981 1981 1981 1981 1981 1981 1981 1981 1981 1981 1981 1981 1981 1981 1981 1981 1970 1970 1970 1970 1970 1970 1970 1981 1981 1981 1981 1981 1981 1981 1981 1981 1981 1981 1981 1981 1981 1981 1981 1981 1981 1981 1981 1981 1981 1981 1981 1981 1981 1981 1981 1981 1981 1981 1981 1993 1993 1993 1993 1993 1993 1993 1993 1993 1993 1993 1993 1993 2005 2005 2005 2016 1663 1663 1663 1663 1655 1655 1655 1639 1639 1647 1655 1655 1655 1663 1663 1663 1663 1663 1671 1671 1671 1671 1993 1993 1993 2005 2005 2005 2005 2005 2005 2016 2028 2028 1609 1609 1609 1601 1601 1601 1601 1601 1601 1601 1609 1609 1609 1609 1609 1609 1616 2005 2005 2005 2005 2005 2005 2005 2005 2005 2016 2016 2016 2016 2016 2016 2005 2005 2005 2005 2016 2016 2016 2016 2016 2016 2016 2016 2016 2016 2016 2016 2016 2016 2028 2028 2028 2016 2016 2016 2016 2016 2016 2016 2016 2016 2016 2016 2016 2016 2016 1843 1833 1833 1833 1823 1823 1813 1794 1794 1785 1776 1776 1766 1757 1757 1757 1757 1757 1757 1757 1757 1766 1776 1776 2053 2040 2040 2028 2028 2028 2028 2028 2028 2028 2016 2016 2028 2028 2028 2028 2028 2028 2028 2028 2040 2028 2028 2040 2040 2028 2028 2028 2028 2028 2028 1843 1833 1833 1833 1833 1833 1833 1823 1823 1813 1804 1804 1804 1794 1794 1794 1794 1794 1794 1794 1794 1794 1794 1804 1804 2040 2040 2053 2053 2053 2053 2053 2053 2053 2053 2053 2028 2028 2040 2040 2040 2040 2040 2040 2040 2053 2040 2040 2040 2040 2040 2040 2040 2040 2040 2040 2040 2040 2040 2040 2040 2040 2040 2040 2053 2053 2065 2078 1936 1936 1936 1936 1936 1936 1936 1936 1936 1926 1926 1936 1936 1947 1959 2028 2040 2040 2053 2053 2053 2065 2065 2065 2065 2065 2065 2053 2053 2065 2065 2053 2053 2053 2065 2065 2065 2065 2065 2065 2065 2065 2065 2065 2065 2065 2065 2065 2053 2053 2053 2053 2053 2053 2040 2040 2028 2028 2028 2040 2040 2040 2053 2053 2053 2053 2053 2053 2053 2040 2040 2028 2028 2028 2028 2028 2028 2028 2028 2028 2028 2028 2028 2028 2040 2028 2028 2028 2028 2040 2040 2028 2028 2040 2053 2053 2053 2053 2053 2053 2053 2053 0 0 0 0 0 0 0 0
0 0 0 0 0 0 0 0 0 0 0 0 0 0 0 0 0 0 0 0 0 0 0 0 0 0 0 0 0 0 0 0 0 0 1883 1883 1883 1883 1883 1883 1883 1894 1894 1894 1894 1883 1883 1883 1883 1883 1883 1883 1883 1894 1894 1894 1894 1894 1894 1894 1894 1894 1894 1883 1883 1894 1883 1883 1883 1894 1894 1894 1894 1894 1883 1883 1894 1883 1883 1883 1894 1894 1883 1883 1883 1883 1904 1904 1904 1904 1904 1904 1904 1904 1894 1883 1883 1883 1883 1883 1883 1894 1894 1894 1904 1894 1894 1894 1894 1894 1883 1883 1894 1894 1904 1904 1904 1904 1904 1904 1904 1904 1904 1904 1904 1904 1904 1904 1904 1904 1904 1904 1915 1915 1915 1915 1926 1926 1926 1926 1926 1915 1915 1915 1915 1915 1915 1915 1915 1926 1926 1926 1926 1926 1926 1926 1926 1936 1936 1936 1936 1926 1926 1926 1926 1926 1926 1926 1936 1936 1936 1936 1936 1936 1936 1936 1936 1936 1936 1936 1936 1936 1936 1936 1936 1936 1936 1936 1947 1936 1936 1947 1947 1947 1947 1947 1947 1947 1947 1947 1947 1947 1947 1959 1947 1947 1947 1947 1947 1947 1947 1947 1947 1947 1947 1959 1959 1959 1959 1959 1959 1959 1959 1959 1959 1959 1959 1959 1970 1970 1970 1970 1970 1970 1970 1981 1981 1981 1981 1981 1981 1981 1981 1981 1970 1970 1970 1970 1970 1970 1970 1970 1970 1970 1970 1970 1970 1970 1970 1981 1981 1981 1981 1981 1981 1970 1970 1981 1981 1981 1981 1981 1981 1981 1981 1981 1981 1981 1981 1981 1981 1981 1981 1981 1981 1981 1981 1981 1981 1981 1981 1981 1981 1981 1993 1993 1981 1981 1981 1981 1981 1993 1993 1993 1993 2005 1663 1663 1663 1663 1655 1655 1655 1647 1647 1647 1655 1655 1655 1663 1663 1663 1663 1663 1671 1671 1671 1671 1680 1993 1993 2005 2005 2005 2005 2005 2005 2016 2016 2016 1609 1609 1601 1601 1601 1601 1601 1601 1601 1609 1609 1609 1616 1616 1616 1616 1616 2005 1993 1993 1993 2005 2005 2005 2005 2005 2005 2016 2016 2005 2005 2005 2005 2005 2005 2005 2016 2016 2016 2016 2016 2016 2016 2016 2016 2016 2016 2016 2016 2016 2016 2016 2016 2016 2016 2016 2016 2016 2016 2016 2016 2016 2016 2016 2016 2016 2016 2016 1833 1823 1823 1823 1813 1813 1794 1785 1785 1776 1776 1766 1757 1757 1757 1757 1757 1757 1757 1757 1766 2040 2040 2040 2040 2028 2028 2028 2028 2028 2016 2016 2016 2005 2005 2016 2016 2016 2016 2016 2016 2028 2028 2028 2028 2028 2028 2028 2028 2028 2016 2016 2016 2016 2016 2016 1833 1833 1833 1833 1833 1823 1823 1813 1804 1804 1804 1794 1794 1794 1794 1794 1794 1794 1794 1794 1794 1804 1804 2040 2040 2040 2040 2040 2040 2040 2040 2040 2040 2040 2028 2028 2028 2028 2040 2040 2040 2040 2040 2040 2040 2040 2040 2040 2028 2028 2040 2040 2040 2040 2040 2040 2040 2040 2040 2040 2040 2040 2040 2040 2028 2028 1936 1936 1936 1936 1936 1936 1936 1936 1936 1926 1926 1936 1936 1947 1970 2028 2028 2040 2040 2040 2053 2053 2053 2053 2053 2053 2053 2040 2040 2040 2040 2040 2040 2040 2053 2053 2053 2053 2053 2053 2053 2065 2053 2053 2065 2053 2053 2053 2053 2053 2053 2053 2053 2040 2028 2028 2028 2028 2028 2028 2040 2040 2040 2040 2040 2040 2040 2040 2040 2028 2028 2028 2028 2028 2028 2028 2028 2028 2028 2028 2028 2028 2028 2028 2028 2028 2028 2028 2028 2040 2040 2028 2028 2040 2040 2040 2040 2040 2040 2053 2053 2053 0 0 0 0 0 0 0 0
0 0 0 0 0 0 0 0 0 0 0 0 0 0 0 0 0 0 0 0 0 0 0 0 0 0 0 0 0 0 0 0 0 0 1873 1873 1873 1873 1873 1873 1873 1883 1883 1883 1883 1873 1873 1873 1873 1873 1873 1883 1883 1883 1883 1883 1883 1883 1883 1883 1894 1883 1883 1883 1883 1883 1883 1883 1883 1883 1894 1894 1883 1873 1873 1873 1883 1873 1873 1883 1883 1883 1883 1883 1883 1883 1894 1904 1904 1904 1904 1904 1894 1873 1873 1873 1873 1873 1873 1873 1873 1883 1883 1894 1894 1894 1894 1894 1894 1894 1883 1883 1883 1894 1904 1904 1904 1904 1904 1904 1904 1904 1904 1894 1894 1894 1894 1904 1904 1904 1904 1904 1904 1915 1915 1915 1915 1915 1915 1915 1915 1915 1915 1915 1915 1915 1915 1915 1915 1915 1915 1915 1926 1926 1926 1926 1926 1926 1926 1926 1926 1926 1926 1926 1926 1915 1915 1926 1926 1926 1926 1926 1936 1936 1936 1936 1936 1926 1926 1936 1936 1936 1936 1936 1936 1936 1936 1936 1936 1936 1936 1936 1947 1947 1947 1947 1947 1947 1947 1947 1947 1947 1947 1947 1947 1947 1947 1947 1947 1947 1947 1947 1947 1947 1947 1959 1959 1959 1959 1959 1959 1959 1959 1959 1959 1959 1959 1959 1959 1959 1959 1959 1970 1970 1970 1970 1970 1981 1970 1970 1981 1981 1981 1981 1970 1970 1970 1970 1970 1970 1970 1970 1970 1970 1970 1970 1970 1970 1970 1970 1970 1970 1970 1970 1970 1970 1970 1970 1970 1970 1970 1970 1981 1981 1981 1981 1981 1981 1981 1981 1970 1970 1970 1970 1970 1970 1981 1981 1981 1981 1981 1981 1981 1981 1981 1981 1981 1981 1981 1981 1981 1981 1981 1993 1993 1680 1671 1663 1663 1663 1655 1655 1655 1647 1647 1647 1655 1655 1655 1663 1663 1663 1663 1663 1671 1671 1671 1680 1680 1993 1993 1993 1993 2005 2005 1993 1993 2005 2016 2016 1609 1609 1601 1601 1601 1601 1609 1609 1609 1609 1616 1616 1616 1616 1616 1616 1609 1609 1981 1981 1993 1993 1993 1993 2005 2005 2005 2005 2005 2005 2005 2005 2005 2005 2005 2005 2005 2005 2016 2005 2005 2005 2005 2005 2005 2005 2005 2016 2016 2016 2016 2016 2016 2016 2016 2016 2016 2016 2016 2016 2016 2016 2016 2016 2016 2016 2016 2016 2016 1813 1813 1813 1804 1804 1785 1785 1785 1776 1766 1766 1757 1757 1757 1757 1757 1757 1757 1757 1766 2028 2028 2040 2040 2028 2028 2028 2028 2028 2016 2016 2016 2005 2005 2005 2005 2005 2005 2005 2005 2016 2016 2016 2016 2016 2016 2016 2016 2016 2016 2016 2016 2016 2005 2005 2005 2005 2005 1833 1833 1823 1823 1813 1804 1804 1804 1794 1794 1794 1794 1794 1794 1794 1794 1794 1794 1804 1804 2028 2028 2028 2040 2028 2028 2028 2028 2028 2028 2028 2028 2028 2028 2028 2028 2040 2040 2040 2040 2040 2028 2028 2028 2028 2028 2028 2028 2028 2028 2028 2028 2028 2028 2028 2028 2028 2028 2028 2028 2028 1993 1993 1947 1947 1947 1947 1947 1936 1936 1936 1936 1926 1926 1936 1936 1947 1981 2028 2028 2040 2040 2040 2040 2040 2040 2040 2040 2040 2040 2040 2040 2040 2040 2040 2040 2040 2040 2040 2040 2040 2040 2040 2053 2053 2053 2053 2053 2053 2053 2053 2053 2040 2040 2040 2040 2040 2028 2028 2028 2028 2028 2028 2028 2028 2028 2028 2040 2040 2028 2028 2028 2028 2028 2016 2016 2016 2016 2016 2016 2016 2028 2028 2028 2016 2016 2016 2028 2016 2016 2016 2028 2028 2028 2028 2028 2028 2040 2028 2028 2040 2040 2040 2053 2053 0 0 0 0 0 0 0 0
0 0 0 0 0 0 0 0 0 0 0 0 0 0 0 0 0 0 0 0 0 0 0 0 0 0 0 0 0 0 0 0 0 0 1873 1873 1873 1873 1873 1873 1873 1873 1873 1873 1873 1873 1873 1873 1873 1873 1873 1873 1873 1883 1883 1883 1883 1883 1883 1883 1883 1883 1883 1883 1883 1883 1883 1883 1883 1883 1894 1883 1883 1873 1873 1873 1873 1863 1863 1873 1873 1873 1873 1873 1873 1873 1873 1873 1873 1873 1873 1873 1873 1873 1873 1873 1873 1873 1873 1873 1873 1873 1873 1883 1883 1873 1873 1883 1883 1873 1873 1873 1873 1883 1894 1883 1883 1883 1894 1883 1883 1883 1883 1883 1883 1894 1894 1894 1904 1904 1904 1904 1904 1904 1904 1904 1915 1915 1915 1915 1915 1904 1904 1904 1904 1904 1915 1915 1915 1915 1915 1915 1915 1915 1915 1915 1915 1915 1915 1915 1915 1915 1915 1915 1915 1915 1915 1915 1926 1926 1926 1926 1936 1926 1926 1926 1926 1926 1926 1926 1926 1926 1926 1926 1936 1926 1926 1936 1936 1936 1936 1936 1936 1947 1947 1947 1947 1947 1947 1936 1936 1936 1947 1947 1947 1947 1947 1947 1947 1947 1947 1947 1947 1947 1947 1947 1947 1947 1947 1947 1947 1947 1947 1947 1959 1947 1947 1959 1959 1959 1959 1959 1959 1959 1959 1959 1970 1970 1970 1970 1970 1970 1970 1970 1970 1959 1959 1959 1959 1959 1959 1959 1959 1959 1959 1959 1959 1959 1959 1970 1970 1970 1970 1970 1970 1970 1970 1970 1970 1970 1970 1970 1970 1970 1970 1970 1970 1970 1970 1970 1970 1970 1970 1970 1970 1970 1970 1970 1970 1981 1981 1970 1970 1981 1981 1981 1981 1981 1981 1981 1981 1981 1981 1981 1981 1680 1671 1671 1663 1663 1655 1655 1655 1647 1647 1655 1655 1663 1663 1663 1663 1663 1663 1671 1671 1671 1680 1680 1688 1705 1981 1993 1993 1993 1993 1981 1981 2005 2005 2016 1616 1609 1609 1609 1601 1601 1609 1609 1609 1616 1616 1616 1616 1616 1616 1616 1601 1601 1601 1981 1993 1993 1993 1993 1993 1993 1993 2005 2005 2005 2005 2005 2005 2005 2005 2005 2005 2005 2005 2005 2005 2005 2005 2005 2005 2005 2005 2005 2016 2016 2016 2005 2005 2005 2005 2005 2005 2005 2005 2005 2005 2005 2005 2005 2005 2005 2005 2005 2005 1813 1813 1813 1804 1804 1785 1785 1785 1776 1766 1766 1757 1757 1757 1757 1757 1757 1757 1757 1766 2016 2016 2028 2028 2028 2016 2016 2016 2016 2016 2005 2005 2005 2005 2005 2005 2005 2005 2005 2005 2005 2005 2016 2016 2016 2016 2016 2016 2016 2005 2005 2005 2005 2005 2005 2005 2005 2005 2005 2005 1823 1823 1813 1813 1804 1804 1794 1794 1794 1794 1794 1804 1804 1794 1794 1794 1804 2016 2016 2016 2028 2028 2028 2016 2016 2016 2016 2016 2028 2016 2016 2016 2016 2028 2028 2028 2028 2028 2028 2028 2016 2016 2016 2016 2016 2028 2028 2028 2028 2028 2028 2028 2028 2028 2028 2028 2028 2016 2005 1993 1993 1959 1947 1947 1947 1947 1936 1936 1936 1936 1926 1926 1936 1936 1947 1981 2028 2028 2028 2040 2040 2040 2040 2040 2040 2028 2028 2028 2028 2028 2040 2028 2028 2040 2040 2040 2040 2040 2040 2040 2040 2040 2040 2040 2040 2040 2040 2040 2040 2040 2040 2040 2040 2040 2040 2028 2028 2028 2028 2028 2028 2028 2028 2028 2028 2028 2028 2028 2016 2016 2016 2016 2016 2016 2016 2016 2016 2016 2016 2016 2016 2016 2016 2016 2016 2016 2016 2016 2016 2028 2028 2028 2028 2028 2028 2028 2028 2028 2028 2028 2028 2040 2040 0 0 0 0 0 0 0 0
0 0 0 0 0 0 0 0 0 0 0 0 0 0 0 0 0 0 0 0 0 0 0 0 0 0 0 0 0 0 0 0 0 0 1863 1863 1863 1863 1863 1863 1873 1873 1873 1873 1863 1863 1863 1863 1863 1863 1863 1873 1873 1873 1873 1883 1883 1883 1883 1883 1873 1873 1883 1883 1883 1883 1883 1883 1873 1873 1883 1883 1883 1873 1863 1863 1863 1863 1863 1863 1863 1863 1873 1873 1873 1873 1873 1873 1873 1873 1873 1873 1873 1873 1873 1873 1873 1873 1873 1873 1873 1873 1873 1873 1873 1873 1873 1873 1873 1873 1873 1873 1873 1873 1883 1883 1883 1883 1883 1883 1883 1883 1883 1883 1883 1883 1894 1894 1894 1894 1894 1894 1894 1894 1894 1894 1894 1904 1904 1904 1904 1904 1904 1894 1894 1904 1904 1904 1904 1904 1904 1904 1904 1904 1904 1904 1915 1915 1904 1904 1904 1904 1904 1904 1904 1904 1904 1904 1904 1915 1915 1915 1915 1926 1926 1926 1926 1915 1915 1926 1926 1926 1926 1926 1926 1926 1926 1926 1936 1936 1936 1936 1936 1936 1936 1936 1936 1936 1936 1936 1936 1936 1936 1936 1936 1936 1936 1936 1936 1936 1936 1936 1947 1947 1947 1947 1947 1947 1947 1947 1947 1947 1947 1947 1947 1947 1947 1947 1947 1947 1947 1947 1947 1947 1947 1947 1947 1947 1959 1959 1970 1970 1970 1970 1959 1959 1959 1959 1959 1959 1959 1959 1959 1959 1959 1959 1959 1959 1959 1959 1959 1959 1959 1959 1959 1959 1959 1959 1970 1959 1959 1970 1970 1970 1970 1970 1970 1970 1970 1970 1970 1970 1970 1970 1970 1970 1970 1970 1970 1970 1970 1970 1970 1970 1970 1970 1970 1970 1970 1970 1970 1970 1970 1981 1981 1680 1671 1671 1663 1663 1655 1655 1655 1655 1655 1655 1655 1663 1663 1663 1663 1663 1663 1671 1671 1680 1680 1688 1688 1705 1713 1993 1993 1993 1981 1981 1981 1993 2005 2005 1616 1616 1609 1609 1601 1601 1609 1609 1609 1616 1616 1616 1616 1616 1616 1624 1601 1594 1594 1981 1981 1981 1981 1981 1981 1981 1981 1993 1993 1993 1993 1993 1993 2005 1993 1993 2005 2005 2005 1993 1993 2005 1993 1993 1993 2005 2005 2005 2005 2005 2005 2005 2005 2005 2005 2005 2005 2005 2005 2005 2005 2005 2005 2005 2005 2005 2005 2005 2005 2005 2005 1813 1804 1804 1785 1785 1776 1766 1766 1766 1757 1757 1757 1757 1757 1757 1757 1766 1766 1776 2016 2028 2016 2016 2016 2005 2005 2016 2005 2005 2005 2005 2005 2005 2005 2005 2005 2005 2005 2005 2005 2005 2005 2005 2005 2005 2005 2005 2005 2005 2005 2005 2005 2005 2005 2005 2005 2005 2005 1823 1823 1813 1813 1804 1804 1804 1794 1794 1794 1794 1804 1804 1794 1794 1794 2016 2016 2016 2016 2028 2016 2016 2016 2016 2016 2016 2016 2016 2016 2016 2016 2016 2016 2016 2016 2016 2016 2016 2016 2016 2016 2016 2016 2016 2016 2016 2016 2016 2016 2016 2016 2016 2016 2016 2016 2016 2016 2005 1993 1993 1981 1947 1947 1947 1947 1947 1936 1936 1936 1936 1936 1936 1947 1959 1993 2016 2028 2028 2028 2028 2028 2028 2028 2028 2028 2028 2028 2028 2028 2028 2028 2028 2028 2028 2028 2028 2028 2028 2028 2028 2028 2028 2040 2040 2040 2040 2040 2040 2040 2028 2028 2028 2028 2028 2016 2016 2016 2016 2016 2016 2016 2016 2016 2016 2016 2016 2016 2016 2016 2016 2016 2016 2016 2016 2016 2016 2016 2016 2016 2016 2016 2016 2016 2016 2016 2005 2005 2005 2016 2016 2016 2028 2028 2028 2028 2028 2028 2028 2028 2028 2028 2028 0 0 0 0 0 0 0 0
0 0 0 0 0 0 0 0 0 0 0 0 0 0 0 0 0 0 0 0 0 0 0 0 0 0 0 0 0 0 0 0 0 0 1853 1853 1853 1853 1853 1853 1863 1863 1863 1863 1863 1863 1863 1863 1863 1863 1863 1863 1873 1873 1873 1873 1873 1873 1873 1873 1873 1873 1873 1873 1873 1873 1873 1873 1873 1873 1873 1873 1883 1873 1863 1863 1863 1863 1863 1863 1863 1863 1873 1873 1873 1873 1873 1873 1873 1873 1873 1873 1873 1873 1873 1873 1873 1873 1873 1873 1873 1873 1873 1873 1873 1873 1873 1873 1873 1873 1873 1873 1873 1873 1883 1873 1873 1883 1873 1873 1873 1873 1873 1883 1883 1883 1883 1894 1894 1894 1894 1894 1894 1894 1894 1894 1894 1894 1894 1904 1904 1904 1904 1894 1894 1894 1894 1894 1894 1904 1904 1904 1904 1904 1904 1904 1904 1915 1904 1904 1904 1904 1904 1904 1904 1904 1904 1904 1904 1904 1904 1904 1904 1915 1915 1915 1904 1904 1904 1915 1915 1915 1915 1915 1915 1915 1915 1915 1915 1926 1926 1926 1926 1926 1926 1926 1926 1926 1926 1926 1926 1936 1936 1936 1936 1936 1936 1936 1936 1936 1936 1936 1936 1936 1936 1947 1947 1947 1936 1936 1947 1947 1947 1947 1947 1947 1947 1947 1947 1947 1947 1947 1947 1947 1947 1947 1947 1947 1947 1947 1947 1947 1947 1947 1947 1947 1947 1947 1947 1947 1947 1947 1947 1947 1947 1947 1947 1947 1947 1947 1947 1947 1959 1959 1959 1947 1947 1959 1959 1959 1959 1959 1959 1970 1970 1959 1959 1970 1970 1970 1970 1970 1970 1970 1959 1959 1959 1959 1970 1970 1970 1970 1970 1970 1970 1970 1970 1970 1970 1970 1970 1970 1970 1970 1970 1671 1671 1671 1663 1663 1655 1655 1655 1655 1655 1655 1655 1663 1663 1663 1663 1663 1663 1671 1671 1680 1680 1688 1696 1705 1713 1713 1970 1981 1981 1981 1981 1981 1993 1993 1616 1616 1609 1609 1601 1601 1609 1609 1616 1616 1616 1616 1616 1616 1616 1624 1579 1579 1594 1970 1981 1981 1981 1970 1970 1981 1981 1981 1981 1981 1981 1981 1981 1981 1981 1981 1993 1993 1993 1993 1993 1993 1993 1993 1993 2005 2005 2005 2005 2005 2005 2005 1993 1993 1993 1993 1993 1993 1993 1993 1993 1993 1993 1993 1993 1993 1993 2005 2005 2005 2005 2005 2005 1804 1785 1785 1776 1766 1766 1766 1757 1757 1757 1757 1757 1757 1766 1766 1776 1776 2005 2005 2005 2005 2005 2005 2005 2005 2005 1993 1993 1993 1993 2005 2005 2005 2005 2005 2005 2005 2005 2005 2005 2005 2005 2005 2005 2005 2005 2005 2005 2005 2005 2005 1993 1993 1993 2005 2005 1823 1813 1813 1813 1813 1804 1804 1804 1804 1804 1804 1804 1804 1804 1804 1804 2016 2005 2005 2005 2016 2005 2005 2016 2016 2016 2016 2016 2016 2005 2005 2005 2005 2016 2005 2005 2005 2005 2016 2016 2005 2005 2016 2016 2016 2005 2005 2005 2005 2005 2005 2005 2005 2005 2005 2005 2005 2005 1993 1993 1993 1981 1959 1947 1947 1947 1947 1936 1936 1936 1936 1936 1947 1947 1959 1993 2016 2028 2028 2028 2028 2028 2028 2028 2016 2016 2016 2016 2016 2016 2016 2016 2016 2016 2028 2028 2028 2028 2028 2028 2028 2028 2028 2028 2028 2028 2028 2028 2028 2028 2028 2028 2028 2028 2028 2016 2016 2016 2016 2016 2016 2016 2016 2016 2005 2005 2005 2005 2005 2005 2005 2005 2016 2016 2016 2016 2016 2016 2016 2016 2016 2016 2016 2016 2016 2005 2005 2005 2005 2016 2016 2016 2016 2028 2028 2028 2028 2028 2028 2028 2028 2028 2028 0 0 0 0 0 0 0 0
0 0 0 0 0 0 0 0 0 0 0 0 0 0 0 0 0 0 0 0 0 0 0 0 0 0 0 0 0 0 0 0 0 0 1843 1843 1843 1853 1853 1853 1853 1853 1853 1853 1853 1853 1853 1853 1853 1853 1853 1863 1863 1863 1863 1863 1863 1873 1873 1873 1863 1863 1873 1863 1863 1863 1863 1863 1863 1863 1863 1863 1873 1863 1863 1863 1863 1863 1863 1863 1863 1863 1863 1863 1863 1863 1863 1863 1863 1863 1863 1863 1863 1863 1863 1863 1863 1863 1863 1863 1863 1873 1873 1873 1873 1873 1873 1873 1873 1873 1873 1873 1873 1873 1873 1873 1873 1873 1873 1873 1873 1873 1873 1873 1873 1873 1883 1883 1883 1883 1894 1894 1873 1873 1883 1883 1883 1883 1894 1904 1904 1904 1894 1894 1894 1894 1894 1894 1894 1894 1894 1894 1894 1904 1904 1904 1904 1904 1894 1894 1894 1894 1904 1904 1904 1894 1894 1894 1894 1904 1904 1904 1904 1904 1904 1904 1904 1904 1904 1904 1904 1904 1904 1904 1904 1904 1904 1904 1915 1915 1915 1915 1915 1915 1915 1915 1915 1915 1915 1926 1926 1926 1926 1926 1926 1936 1936 1936 1936 1936 1936 1936 1936 1936 1936 1936 1936 1936 1936 1936 1936 1936 1936 1936 1936 1936 1936 1936 1936 1936 1936 1936 1936 1947 1947 1947 1947 1947 1947 1947 1936 1936 1936 1936 1936 1936 1936 1936 1936 1936 1936 1947 1947 1947 1936 1936 1947 1947 1947 1947 1947 1947 1947 1947 1947 1947 1947 1947 1959 1959 1959 1959 1959 1959 1959 1947 1947 1959 1959 1959 1959 1959 1959 1959 1959 1959 1959 1959 1959 1959 1970 1970 1970 1970 1970 1959 1959 1970 1959 1959 1959 1959 1959 1970 1671 1671 1671 1671 1663 1663 1663 1663 1655 1655 1655 1655 1663 1663 1663 1663 1663 1671 1671 1671 1680 1688 1688 1696 1696 1705 1713 1713 1722 1970 1970 1970 1970 1970 1993 1993 1616 1616 1609 1609 1609 1616 1616 1616 1616 1616 1616 1624 1624 1624 1624 1624 1572 1572 1586 1970 1970 1970 1970 1970 1970 1970 1970 1970 1970 1970 1970 1970 1970 1981 1970 1970 1981 1981 1981 1981 1981 1993 1993 1993 2005 1993 1993 2005 1993 1993 1993 1993 1993 1993 1993 1993 1993 1993 1993 1993 1993 1993 1993 1993 1993 1993 1993 1993 1993 1993 2005 2005 2005 1804 1785 1785 1776 1766 1766 1766 1757 1757 1757 1757 1757 1766 1766 1766 1776 1776 1776 2005 2005 2005 1993 1993 1993 1993 1993 1993 1993 1993 1993 1993 1993 1993 2005 2005 2005 2005 2005 2005 2005 2005 2005 2005 2005 2005 2005 1993 1993 1993 2005 2005 1993 1993 1993 2005 2005 2005 1813 1813 1813 1813 1813 1804 1804 1804 1804 1813 1813 1813 1813 1813 2016 2016 2005 2005 2005 2005 2005 2005 2005 2005 2005 2005 2005 2016 2005 2005 2005 2005 2005 1993 1993 1993 1993 2005 1993 1993 1993 2005 2005 2005 2005 2005 2005 2005 2005 2005 2005 1993 1993 1993 2005 2005 2005 1993 1993 1993 1981 1959 1959 1959 1947 1947 1936 1936 1936 1936 1936 1947 1959 1970 1993 2005 2016 2016 2005 2005 2016 2016 2016 2016 2005 2005 2016 2016 2016 2016 2016 2016 2016 2028 2016 2016 2016 2016 2016 2016 2016 2028 2028 2028 2028 2028 2028 2028 2028 2028 2028 2028 2028 2028 2005 2005 2016 2016 2005 2005 2005 2005 2005 2005 2005 2005 2005 2005 2005 2005 2005 2005 2005 2005 2005 2016 2016 2016 2016 2016 2005 2005 2005 2005 2005 2005 2005 2005 2005 2016 2016 2016 2016 2028 2028 2028 2028 2028 2028 2028 2028 2028 0 0 0 0 0 0 0 0
0 0 0 0 0 0 0 0 0 0 0 0 0 0 0 0 0 0 0 0 0 0 0 0 0 0 0 0 0 0 0 0 0 0 1843 1843 1843 1843 1843 1853 1853 1853 1853 1853 1853 1853 1853 1843 1843 1843 1853 1853 1853 1853 1853 1863 1863 1863 1863 1863 1863 1863 1863 1863 1853 1853 1853 1853 1853 1853 1853 1853 1863 1863 1863 1863 1863 1853 1853 1863 1853 1853 1853 1863 1863 1863 1863 1863 1863 1863 1863 1863 1863 1863 1863 1863 1863 1863 1863 1863 1863 1863 1863 1863 1863 1863 1863 1863 1863 1863 1873 1863 1863 1863 1863 1873 1873 1873 1873 1873 1873 1873 1873 1873 1873 1873 1873 1883 1883 1883 1883 1883 1873 1873 1873 1873 1883 1883 1883 1894 1904 1894 1894 1883 1883 1883 1883 1883 1894 1883 1883 1894 1894 1894 1894 1904 1904 1904 1894 1894 1894 1894 1894 1894 1894 1894 1894 1894 1894 1894 1894 1894 1894 1904 1904 1904 1904 1904 1904 1904 1904 1904 1904 1904 1904 1904 1904 1904 1904 1904 1915 1915 1915 1915 1915 1915 1915 1915 1915 1915 1915 1915 1926 1926 1926 1926 1926 1926 1926 1926 1926 1926 1926 1926 1936 1926 1926 1936 1936 1936 1926 1926 1936 1936 1936 1936 1936 1936 1936 1936 1936 1936 1936 1936 1936 1936 1936 1947 1947 1947 1936 1936 1936 1936 1926 1926 1926 1926 1926 1936 1936 1936 1936 1936 1936 1936 1936 1936 1936 1936 1936 1936 1936 1936 1936 1936 1936 1936 1936 1936 1936 1936 1936 1936 1936 1936 1936 1947 1959 1947 1947 1947 1947 1947 1947 1947 1947 1947 1947 1947 1959 1959 1959 1970 1970 1959 1959 1959 1959 1959 1959 1959 1959 1959 1671 1671 1671 1671 1671 1663 1663 1655 1655 1655 1655 1663 1663 1663 1663 1671 1671 1671 1671 1671 1680 1688 1688 1696 1705 1713 1713 1713 1722 1959 1970 1970 1970 1970 1981 1981 1624 1624 1616 1616 1616 1616 1616 1616 1616 1624 1624 1624 1624 1624 1624 1632 1564 1564 1586 1970 1970 1970 1970 1970 1970 1970 1970 1970 1970 1970 1970 1970 1970 1970 1970 1970 1970 1970 1981 1970 1970 1981 1981 1981 2005 1993 1993 1993 1993 1993 1981 1981 1981 1981 1981 1981 1981 1981 1993 1981 1981 1981 1981 1981 1981 1981 1981 1981 1993 1993 1993 2005 2005 2005 1785 1785 1776 1766 1766 1766 1766 1766 1766 1766 1766 1766 1766 1766 1776 1776 1776 1993 1993 1993 1981 1981 1981 1993 1993 1993 1993 1981 1981 1993 1993 1993 1993 1993 1993 1993 1993 1993 1993 1993 1993 1993 1993 1993 1993 1993 1993 1993 1993 1993 1993 1993 1993 1993 2005 2005 1813 1813 1813 1813 1813 1804 1804 1804 1804 1813 1813 1813 1813 1813 2016 2005 2005 2005 2005 2005 2005 2005 2005 2005 2005 2005 2005 2005 1993 1993 1993 1993 1993 1993 1993 1993 1993 1993 1993 1993 1993 1993 1993 1993 1993 1993 1993 1993 1993 1993 1993 1993 1993 1993 1993 1993 1993 1993 1993 1993 1981 1959 1947 1947 1947 1947 1936 1936 1936 1947 1947 1959 1970 1981 1993 2005 2005 2005 2005 2005 2005 2005 2005 2005 2005 2005 2005 2005 2005 2005 2005 2016 2016 2016 2016 2016 2016 2016 2016 2016 2016 2016 2016 2028 2028 2016 2016 2016 2016 2016 2016 2016 2016 2016 2005 2005 2005 2005 1993 1993 1993 1993 2005 1993 1993 1993 1993 1993 1993 1993 1993 1993 1993 2005 2005 2005 2005 2005 2016 2005 2005 2005 2005 2005 1993 1993 1993 1993 2005 2005 2005 2005 2016 2016 2016 2016 2016 2016 2016 2016 2016 2016 0 0 0 0 0 0 0 0
