0 0 0 0 0 0 0 0 0 0 0 0 0 0 0 0 0 0 0 0 0 0 0 0 0 0 0 0 0 0 0 3903 3903 3903 3903 3903 3948 3903 3903 3903 3903 3903 3903 3948 3948 3948 3948 3948 3948 3948 3948 3948 3948 3948 3948 3994 3948 3948 3948 3948 3948 3948 3948 3948 3948 3948 3994 3994 4041 4041 3994 3994 4041 4041 4041 4041 4041 4041 3994 3948 3948 3948 3948 3948 3238 3238 3238 3238 3238 3238 3238 3238 3238 3238 3238 3238 3238 3269 3269 3269 3269 3238 3208 3178 3178 3064 3064 3037 3037 3037 3064 3064 3064 3092 3120 3178 3269 3300 3333 3365 3399 3399 3433 3433 3433 3433 3433 2767 2767 2767 2767 2767 2767 2767 2767 2767 2767 2767 2767 2767 2767 2767 2767 2767 2767 2767 2767 2767 2767 2767 2767 2767 2767 2767 2767 2789 2767 2767 2767 2767 2767 2767 2767 2767 2767 2767 2789 2789 2789 2812 2812 2812 2812 2812 2812 2812 2835 2835 2835 2859 2859 2883 2908 2933 2958 2984 2958 2958 2958 2933 2933 2933 2933 2933 2933 2933 2933 2933 2933 2933 2933 2933 2933 2933 2933 2933 2933 2933 2933 2933 2933 2933 2933 2933 2933 2933 2933 2933 2933 2958 2958 2958 2958 2958 2958 2958 2984 2984 2984 3010 3010 3037 3037 3037 3064 3064 3092 3092 3120 3149 3149 3120 3120 3120 3120 3120 3120 3120 3120 3120 3092 3092 3092 3092 3092 3092 3092 3092 2053 2053 2065 2065 2053 2053 2040 2040 2040 2028 2028 2016 2005 2005 2005 1993 1981 1970 1970 1947 1936 1926 1915 1904 1904 1894 1894 1883 1873 1863 1853 1843 1843 1833 1833 1823 1823 1823 1813 1813 1813 1813 1813 1813 1804 1804 1804 1804 1804 1804 1804 1804 1804 1804 1804 1813 1813 1813 1813 1813 1813 1813 1813 1813 1813 1813 1823 1813 1813 1813 1813 1813 1813 1813 1813 1823 1813 1813 1813 1813 1813 1813 1813 1813 1813 1813 1823 1823 1823 1813 1813 1813 1823 1823 1823 1823 1823 1823 1833 1833 1833 1833 1843 1843 1843 1843 1833 1833 1843 1843 1843 1843 1843 1843 1843 1843 1833 1833 1833 1833 1843 1843 1843 1843 1853 1853 1853 1843 1843 1843 1853 1843 1843 1853 1853 1853 1853 1853 1853 1853 1853 1853 1853 1853 1853 1853 1853 1853 1853 1853 1853 1853 1853 1853 1863 1863 1421 1421 1421 1415 1415 1415 1410 1410 1404 1404 1404 1398 1398 1398 1398 1404 1404 1404 1404 1404 1410 1410 1415 1421 1421 1427 1427 1427 1427 1427 1433 1433 1433 1439 1439 1445 1445 1445 1445 1445 1445 1445 1452 1452 1452 1458 1458 1458 1464 1464 1470 1470 1470 1477 1477 1477 1477 1483 1483 1483 1483 1489 1496 1503 1503 1503 1503 1509 1509 1509 1509 1509 1509 1516 1557 1579 1579 1572 1572 1572 1572 1564 1564 1564 1564 1564 1557 1557 1557 1557 1557 1557 1557 1550 1550 1550 1550 1853 1853 1853 1853 1853 1853 1853 1853 1853 1863 1863 1853 1853 1853 1863 1863 1863 1863 1863 1873 1873 1873 1873 1863 1863 1863 1863 1863 1873 1873 1873 1883 1616 1616 1616 1616 1616 1616 1616 1609 1609 1609 1609 1609 1609 1609 1609 1609 1601 1601 1601 1601 1609 1609 1926 1926 1926 1936 1936 1936 1936 1936 1947 1947 1947 1947 1959 1959 1959 1970 1970 1981 1981 1970 1970 1981 1981 1981 1981 1981 1981 1993 1993 2005 2005 2005 2005 2016 1766 1766 1766 1766 1757 1757 1748 1748 1748 1748 1748 1748 1739 1739 1739 1739 1739 1739 1739 1739 1739 1739 1739 1739 0 0 0 0 0 0 0 0 0 0 0 0 0 0 0 0 0
0 0 0 0 0 0 0 0 0 0 0 0 0 0 0 0 0 0 0 0 0 0 0 0 0 0 0 0 0 0 0 3903 3903 3903 3903 3903 3903 3903 3903 3903 3903 3859 3859 3903 3903 3948 3948 3948 3948 3948 3948 3948 3903 3903 3903 3948 3948 3948 3903 3903 3903 3903 3903 3903 3948 3948 3948 3994 3994 4041 3994 3994 4041 3994 3994 3994 3994 3948 3948 3903 3903 3903 3903 3208 3208 3208 3238 3208 3208 3208 3208 3208 3208 3208 3238 3208 3208 3238 3238 3269 3269 3238 3208 3178 3120 3064 3064 3037 3037 3037 3064 3064 3064 3092 3120 3178 3269 3333 3333 3365 3399 3399 3433 3433 3433 3433 3433 2767 2767 2767 2767 2767 2767 2767 2767 2767 2767 2767 2767 2767 2767 2767 2767 2767 2767 2767 2767 2767 2767 2767 2767 2767 2767 2767 2767 2767 2767 2767 2767 2767 2767 2767 2767 2767 2767 2767 2789 2789 2789 2789 2789 2812 2812 2812 2812 2812 2812 2835 2835 2859 2883 2908 2933 2958 2984 2984 2958 2958 2958 2933 2933 2933 2933 2933 2933 2933 2933 2933 2933 2933 2933 2933 2933 2933 2933 2933 2933 2933 2933 2933 2933 2933 2933 2933 2933 2933 2933 2933 2933 2958 2958 2958 2958 2958 2958 2958 2958 2984 2984 3010 3010 3037 3037 3037 3064 3064 3092 3120 3120 3149 3149 3120 3120 3120 3120 3120 3120 3120 3120 3092 3092 3092 3092 3092 3092 3092 2065 2065 2065 2065 2065 2065 2065 2053 2053 2053 2053 2028 2028 2016 2005 2005 2005 1993 1993 1970 1970 1959 1947 1926 1915 1915 1915 1904 1894 1883 1873 1863 1853 1843 1843 1833 1833 1823 1813 1813 1813 1813 1804 1804 1804 1804 1794 1794 1785 1785 1794 1794 1794 1794 1794 1794 1794 1804 1804 1804 1804 1804 1804 1804 1804 1804 1813 1813 1804 1804 1804 1804 1804 1813 1804 1804 1804 1804 1804 1804 1804 1804 1804 1813 1813 1813 1813 1804 1804 1804 1804 1804 1804 1804 1804 1804 1804 1813 1813 1813 1823 1823 1823 1823 1833 1823 1823 1823 1813 1813 1833 1833 1833 1833 1833 1833 1833 1833 1833 1823 1823 1823 1823 1833 1833 1833 1833 1833 1833 1833 1833 1833 1833 1833 1833 1843 1843 1843 1843 1843 1843 1843 1843 1843 1843 1843 1843 1843 1843 1843 1843 1843 1843 1843 1843 1843 1853 1853 1421 1421 1421 1415 1415 1415 1415 1410 1410 1404 1404 1404 1398 1398 1404 1404 1404 1404 1404 1410 1410 1415 1427 1427 1427 1427 1427 1427 1427 1433 1433 1439 1439 1439 1445 1445 1445 1445 1445 1445 1452 1452 1452 1452 1458 1458 1458 1464 1464 1464 1470 1477 1477 1477 1477 1477 1483 1483 1483 1483 1483 1489 1496 1503 1503 1509 1509 1509 1509 1509 1509 1509 1509 1516 1579 1579 1579 1579 1572 1572 1572 1564 1564 1564 1564 1564 1557 1557 1557 1557 1557 1557 1557 1557 1557 1550 1550 1833 1843 1843 1853 1853 1843 1843 1843 1843 1843 1843 1833 1833 1833 1843 1843 1843 1853 1853 1863 1863 1863 1863 1863 1863 1863 1863 1863 1863 1863 1873 1616 1616 1616 1616 1616 1616 1616 1616 1616 1616 1609 1609 1609 1609 1609 1609 1609 1601 1601 1609 1609 1609 1926 1926 1926 1926 1936 1936 1936 1936 1936 1947 1947 1959 1959 1959 1959 1959 1981 1981 1981 1981 1970 1970 1981 1981 1981 1981 1981 1993 1993 1993 2005 2005 2016 2016 1766 1766 1757 1757 1766 1766 1757 1757 1748 1748 1748 1748 1748 1748 1748 1748 1748 1748 1739 1739 1739 1739 1748 1748 1748 0 0 0 0 0 0 0 0 0 0 0 0 0 0 0 0 0
0 0 0 0 0 0 0 0 0 0 0 0 0 0 0 0 0 0 0 0 0 0 0 0 0 0 0 0 0 0 0 3903 3903 3903 3903 3903 3903 3903 3903 3859 3859 3859 3859 3859 3903 3903 3948 3948 3903 3903 3903 3903 3903 3903 3903 3903 3903 3903 3903 3903 3903 3903 3903 3903 3903 3948 3948 3994 3994 3994 3948 3948 3948 3948 3948 3994 3948 3903 3903 3859 3859 3859 3859 3208 3208 3208 3238 3208 3208 3208 3208 3208 3208 3208 3208 3208 3208 3208 3238 3238 3238 3208 3178 3120 3092 3064 3037 3037 3037 3037 3064 3064 3064 3092 3092 3149 3269 3333 3365 3399 3399 3399 3433 3433 3433 3433 2767 2767 2767 2767 2767 2767 2767 2767 2767 2767 2767 2767 2767 2767 2767 2767 2767 2767 2767 2767 2767 2767 2767 2767 2767 2767 2767 2767 2767 2767 2767 2767 2767 2767 2767 2767 2767 2767 2767 2767 2789 2789 2789 2789 2789 2812 2812 2812 2812 2812 2812 2835 2859 2859 2908 2908 2933 2958 2984 2984 2958 2958 2958 2933 2933 2933 2933 2933 2933 2933 2933 2933 2933 2933 2933 2933 2933 2933 2933 2933 2933 2933 2933 2933 2958 2933 2933 2933 2933 2933 2933 2933 2933 2958 2958 2958 2958 2958 2958 2958 2958 2958 2984 3010 3037 3037 3037 3064 3064 3092 3092 3120 3149 3149 3149 3120 3120 3120 3120 3120 3120 3120 3092 3092 3092 3064 3064 3092 3092 3092 2065 2065 2065 2065 2065 2065 2065 2053 2053 2053 2053 2040 2028 2016 2016 2005 2005 1993 1993 1981 1981 1970 1947 1936 1926 1915 1915 1904 1904 1894 1873 1863 1853 1843 1843 1833 1833 1823 1813 1813 1813 1813 1804 1804 1804 1804 1785 1785 1785 1776 1776 1776 1776 1776 1785 1785 1785 1785 1794 1794 1794 1804 1804 1794 1794 1804 1804 1804 1794 1794 1794 1794 1804 1804 1794 1794 1794 1794 1794 1794 1794 1794 1804 1804 1804 1804 1804 1804 1804 1804 1804 1794 1794 1794 1794 1794 1794 1804 1804 1804 1813 1813 1813 1813 1813 1813 1813 1813 1813 1813 1813 1813 1823 1823 1823 1823 1823 1813 1813 1813 1813 1813 1813 1813 1813 1813 1813 1823 1823 1823 1823 1823 1823 1823 1823 1833 1833 1833 1833 1843 1843 1833 1833 1833 1833 1833 1833 1833 1833 1833 1833 1833 1833 1833 1833 1833 1843 1843 1843 1421 1421 1415 1415 1415 1415 1415 1410 1410 1410 1404 1404 1404 1404 1404 1404 1404 1404 1410 1410 1421 1427 1427 1427 1427 1427 1433 1433 1433 1439 1439 1439 1445 1445 1445 1452 1452 1452 1452 1452 1452 1452 1458 1458 1458 1464 1464 1470 1470 1477 1477 1477 1477 1477 1477 1483 1483 1483 1483 1483 1489 1503 1503 1509 1509 1509 1509 1509 1843 1833 1833 1579 1579 1586 1586 1579 1579 1579 1572 1572 1564 1564 1564 1564 1564 1564 1564 1564 1564 1557 1557 1557 1557 1557 1557 1833 1833 1833 1833 1843 1833 1833 1833 1833 1833 1833 1833 1823 1823 1833 1833 1833 1833 1833 1833 1843 1843 1843 1843 1843 1853 1853 1853 1853 1853 1863 1873 1616 1616 1616 1616 1616 1616 1616 1616 1616 1616 1616 1616 1609 1609 1609 1609 1609 1609 1609 1609 1609 1616 1926 1926 1926 1926 1936 1936 1936 1947 1947 1947 1947 1959 1959 1959 1970 1970 1981 1981 1981 1981 1970 1970 1981 1981 1993 1993 1993 1993 2005 2005 2005 2016 2016 2016 1766 1757 1757 1757 1766 1766 1757 1757 1748 1748 1748 1757 1748 1739 1739 1739 1748 1739 1739 1739 1739 1739 1739 1739 4241 4241 4241 4295 4295 4295 0 0 0 0 0 0 0 0 0 0 0 0
0 0 0 0 0 0 0 0 0 0 0 0 0 0 0 0 0 0 0 0 0 0 0 0 0 0 0 0 0 0 0 3903 3903 3903 3903 3903 3903 3816 3816 3816 3816 3859 3859 3859 3859 3903 3903 3903 3903 3903 3859 3859 3859 3859 3859 3859 3859 3859 3903 3903 3903 3903 3903 3903 3903 3948 3948 3994 3994 3994 3948 3903 3903 3903 3903 3903 3948 3903 3859 3859 3859 3859 3859 3208 3208 3208 3208 3208 3208 3178 3178 3208 3208 3208 3208 3208 3208 3208 3208 3208 3208 3178 3149 3120 3092 3064 3037 3037 3037 3037 3064 3064 3064 3092 3092 3149 3238 3333 3365 3399 3399 3399 3399 3399 3433 2789 2767 2767 2767 2789 2789 2767 2767 2767 2767 2767 2767 2767 2767 2767 2767 2767 2767 2767 2767 2767 2767 2767 2767 2767 2767 2767 2767 2767 2767 2767 2767 2767 2767 2767 2767 2767 2767 2767 2767 2767 2789 2789 2789 2789 2789 2789 2789 2789 2812 2812 2835 2835 2859 2883 2908 2933 2933 2958 3010 2984 2984 2984 2958 2958 2933 2933 2933 2933 2933 2933 2933 2933 2933 2933 2933 2933 2933 2933 2933 2933 2933 2933 2933 2933 2933 2933 2933 2933 2933 2933 2933 2933 2933 2958 2958 2958 2958 2958 2958 2958 2958 2958 2984 3010 3037 3037 3037 3064 3064 3092 3092 3120 3149 3149 3149 3149 3120 3120 3120 3120 3120 3120 3092 3092 3092 3064 3064 3092 3092 3092 2078 2078 2065 2065 2065 2065 2065 2065 2053 2053 2053 2040 2028 2028 2016 2016 2005 1993 1993 1981 1981 1970 1959 1947 1936 1926 1926 1915 1915 1904 1894 1883 1863 1853 1853 1833 1833 1823 1813 1813 1813 1804 1804 1794 1794 1785 1776 1776 1776 1776 1776 1766 1766 1766 1776 1776 1776 1785 1785 1785 1794 1794 1794 1785 1785 1785 1785 1785 1785 1794 1794 1794 1794 1794 1785 1785 1785 1785 1785 1785 1785 1794 1794 1794 1794 1794 1804 1794 1794 1794 1794 1794 1785 1785 1785 1785 1785 1794 1794 1794 1804 1804 1804 1804 1804 1804 1804 1804 1804 1794 1794 1804 1804 1813 1813 1813 1813 1804 1804 1804 1804 1804 1804 1804 1804 1804 1804 1804 1804 1804 1804 1804 1813 1813 1813 1823 1833 1823 1823 1823 1823 1823 1823 1823 1823 1823 1823 1823 1823 1823 1823 1823 1823 1823 1823 1833 1833 1833 1833 1421 1421 1415 1415 1421 1415 1415 1415 1410 1410 1404 1404 1404 1404 1404 1404 1404 1410 1410 1415 1427 1427 1427 1427 1433 1433 1433 1433 1433 1439 1439 1439 1445 1445 1452 1452 1452 1452 1452 1452 1452 1458 1458 1458 1458 1464 1464 1470 1470 1477 1477 1477 1477 1477 1477 1477 1483 1483 1483 1489 1503 1509 1509 1823 1823 1823 1823 1823 1833 1833 1833 1586 1586 1586 1586 1586 1586 1579 1579 1579 1572 1572 1572 1572 1564 1564 1564 1564 1564 1564 1564 1564 1557 1557 1557 1823 1823 1823 1823 1823 1823 1823 1823 1813 1813 1813 1823 1823 1823 1823 1823 1823 1823 1833 1833 1833 1833 1833 1833 1833 1843 1843 1853 1853 1853 1853 1863 1616 1616 1616 1616 1616 1616 1616 1616 1616 1616 1616 1616 1609 1609 1609 1609 1609 1609 1609 1609 1616 1926 1936 1936 1936 1936 1936 1936 1947 1947 1947 1947 1959 1959 1959 1959 1970 1970 1981 1981 1981 1981 1970 1970 1981 1981 1993 1993 1993 1993 2005 2005 2016 2016 2016 2016 1748 1748 1757 1757 1766 1766 1766 1757 1757 1748 1748 1757 1748 1739 1739 1739 1739 1739 1739 1739 1739 1739 1739 1739 4295 4241 4241 4241 4241 4241 0 0 0 0 0 0 0 0 0 0 0 0
0 0 0 0 0 0 0 0 0 0 0 0 0 0 0 0 0 0 0 0 0 0 0 0 0 0 0 0 0 0 0 3859 3859 3859 3859 3859 3816 3816 3816 3816 3816 3816 3816 3816 3859 3859 3859 3859 3859 3859 3816 3816 3816 3816 3816 3816 3816 3816 3859 3903 3903 3903 3903 3903 3903 3903 3903 3948 3948 3994 3948 3859 3859 3859 3859 3859 3903 3859 3859 3859 3859 3859 3178 3178 3208 3208 3208 3208 3208 3178 3178 3178 3178 3208 3208 3178 3178 3178 3208 3208 3178 3149 3120 3092 3092 3064 3064 3037 3037 3037 3064 3064 3064 3092 3092 3120 3208 3269 3333 3365 3365 3365 3399 2767 2767 2789 2789 2789 2789 2789 2789 2789 2789 2767 2767 2767 2767 2767 2767 2767 2767 2767 2767 2767 2767 2767 2767 2767 2767 2767 2767 2767 2767 2767 2767 2767 2767 2767 2767 2767 2767 2767 2767 2767 2767 2789 2789 2789 2789 2789 2789 2789 2789 2789 2812 2812 2835 2835 2859 2859 2908 2933 2933 2958 3010 2984 2984 2984 2958 2958 2933 2933 2933 2933 2933 2933 2933 2933 2933 2933 2933 2933 2933 2933 2933 2933 2933 2933 2933 2933 2933 2933 2933 2933 2933 2933 2933 2933 2933 2958 2958 2958 2958 2958 2958 2958 2984 2984 2984 3010 3037 3037 3037 3064 3064 3092 3092 3120 3149 3149 3149 3120 3120 3120 3120 3120 3120 3120 3092 3092 3092 3064 3064 3092 3092 3092 2078 2078 2078 2078 2078 2078 2065 2065 2065 2053 2053 2040 2028 2028 2016 2016 2005 1993 1993 1981 1981 1970 1959 1947 1936 1926 1926 1915 1915 1904 1894 1894 1873 1863 1853 1843 1833 1823 1813 1813 1813 1804 1804 1794 1785 1785 1776 1776 1766 1766 1766 1766 1757 1757 1757 1766 1766 1766 1766 1766 1766 1766 1766 1766 1766 1766 1766 1766 1766 1766 1766 1776 1776 1776 1766 1766 1766 1766 1776 1776 1776 1785 1785 1785 1785 1794 1794 1794 1794 1785 1785 1785 1776 1776 1776 1776 1776 1776 1785 1794 1794 1794 1794 1794 1794 1794 1794 1785 1785 1785 1785 1794 1794 1794 1804 1804 1804 1794 1794 1794 1794 1794 1794 1794 1794 1794 1794 1794 1794 1794 1794 1794 1794 1804 1804 1794 1794 1804 1804 1813 1813 1813 1813 1813 1813 1813 1813 1813 1813 1804 1804 1813 1813 1813 1813 1823 1823 1833 1833 1421 1421 1415 1415 1421 1421 1415 1415 1410 1410 1404 1404 1404 1404 1404 1404 1404 1410 1410 1415 1427 1427 1427 1433 1433 1433 1433 1433 1439 1439 1445 1445 1445 1445 1452 1452 1452 1452 1452 1452 1452 1458 1458 1458 1458 1464 1470 1470 1470 1477 1477 1477 1477 1477 1477 1477 1483 1483 1483 1489 1813 1804 1804 1813 1813 1813 1813 1813 1823 1823 1833 1586 1586 1586 1586 1586 1586 1586 1579 1579 1572 1572 1572 1572 1564 1564 1564 1564 1564 1564 1564 1564 1564 1794 1794 1813 1813 1813 1813 1813 1813 1813 1813 1813 1813 1813 1813 1823 1823 1823 1823 1823 1823 1823 1823 1823 1833 1833 1833 1833 1843 1843 1853 1853 1853 1853 1863 1616 1616 1616 1616 1616 1616 1616 1616 1616 1616 1616 1616 1609 1609 1609 1609 1609 1609 1609 1609 1616 1936 1936 1936 1936 1936 1947 1947 1947 1947 1947 1947 1959 1959 1959 1970 1970 1970 1981 1981 1981 1981 1970 1970 1981 1981 1993 1993 1993 1993 2005 2005 1739 1739 1739 1748 1748 1748 1757 1757 1766 1766 1766 1757 1757 1757 1757 1757 1748 1739 1739 1739 1739 1739 1739 1739 1739 1739 1739 4295 4295 4241 4241 4241 4241 4241 0 0 0 0 0 0 0 0 0 0 0 0
0 0 0 0 0 0 0 0 0 0 0 0 0 0 0 0 0 0 0 0 0 0 0 0 0 0 0 0 0 0 0 3816 3816 3816 3816 3816 3816 3816 3816 3816 3816 3816 3816 3816 3859 3859 3859 3859 3816 3816 3816 3816 3816 3816 3816 3816 3816 3816 3816 3859 3859 3859 3859 3859 3859 3859 3859 3903 3816 3816 3816 3816 3816 3859 3859 3859 3859 3859 3859 3859 3859 3859 3178 3178 3208 3208 3208 3208 3208 3178 3178 3178 3178 3178 3178 3178 3149 3149 3178 3178 3178 3149 3120 3092 3092 3064 3064 3037 3037 3037 3064 3064 3064 3092 3092 3092 3149 3269 3333 3365 3365 3365 3365 2767 2767 2789 2789 2789 2789 2789 2789 2789 2789 2789 2789 2789 2767 2767 2767 2767 2767 2767 2767 2767 2767 2767 2767 2767 2767 2767 2767 2767 2767 2767 2767 2767 2767 2744 2744 2767 2767 2767 2767 2767 2789 2789 2789 2812 2812 2789 2789 2789 2789 2789 2812 2812 2835 2835 2859 2859 2908 2933 2933 2958 2984 2984 2984 2984 2958 2958 2933 2933 2933 2933 2933 2933 2933 2933 2933 2933 2933 2933 2933 2933 2933 2933 2933 2933 2933 2933 2933 2933 2933 2933 2933 2933 2958 2958 2958 2958 2958 2958 2958 2958 2958 2958 2984 2984 2984 3010 3037 3037 3037 3037 3064 3064 3092 3120 3120 3149 3149 3120 3120 3120 3120 3120 3120 3120 3120 3092 3092 3064 3064 3092 3092 3120 2078 2078 2078 2078 2078 2078 2065 2065 2065 2053 2053 2053 2040 2028 2016 2016 2005 1993 1993 1981 1981 1970 1970 1959 1947 1936 1936 1926 1926 1915 1904 1894 1894 1883 1873 1853 1853 1843 1823 1823 1813 1813 1804 1794 1785 1785 1776 1776 1766 1766 1766 1757 1757 1757 1757 1757 1757 1757 1757 1757 1757 1757 1757 1757 1757 1766 1757 1757 1757 1757 1757 1757 1766 1766 1757 1757 1757 1757 1757 1757 1757 1757 1757 1757 1766 1766 1766 1766 1766 1766 1766 1766 1766 1766 1766 1766 1766 1766 1776 1776 1776 1776 1776 1776 1776 1766 1766 1766 1766 1766 1776 1776 1785 1785 1785 1785 1785 1785 1785 1785 1785 1785 1785 1785 1785 1785 1785 1785 1785 1785 1785 1785 1785 1794 1794 1776 1776 1785 1785 1785 1794 1794 1804 1804 1804 1804 1804 1794 1794 1794 1794 1794 1794 1804 1804 1813 1823 1833 1833 1427 1421 1421 1421 1415 1415 1415 1415 1410 1410 1404 1404 1404 1404 1404 1404 1410 1410 1415 1421 1427 1427 1427 1433 1433 1433 1433 1433 1439 1439 1439 1445 1445 1445 1452 1452 1452 1452 1452 1452 1452 1458 1458 1458 1458 1464 1470 1470 1470 1470 1477 1477 1477 1477 1477 1477 1483 1483 1489 1804 1804 1804 1804 1804 1804 1804 1804 1804 1813 1823 1823 1586 1586 1586 1586 1586 1586 1586 1586 1579 1572 1572 1572 1572 1572 1564 1564 1564 1564 1564 1564 1564 1564 1785 1794 1794 1794 1794 1804 1804 1813 1813 1813 1813 1813 1813 1813 1813 1813 1813 1813 1823 1823 1823 1823 1823 1823 1823 1823 1833 1833 1833 1843 1853 1853 1853 1863 1863 1616 1616 1616 1616 1616 1616 1616 1616 1616 1616 1616 1609 1609 1609 1609 1609 1609 1609 1616 1624 1936 1936 1936 1936 1936 1947 1947 1947 1947 1947 1959 1959 1970 1970 1970 1981 1981 1981 1981 1981 1981 1981 1981 1981 1981 1713 1713 1722 1993 2005 1731 1731 1731 1739 1748 1748 1748 1748 1757 1766 1766 1766 1757 1757 1757 1757 1757 1748 1748 1748 1748 1748 1748 1739 1739 1739 1739 1748 4295 4295 4241 4241 4241 4241 4241 0 0 0 0 0 0 0 0 0 0 0 0
0 0 0 0 0 0 0 0 0 0 0 0 0 0 0 0 0 0 0 0 0 0 0 0 0 0 0 0 0 0 0 3816 3774 3774 3816 3774 3774 3774 3774 3774 3816 3816 3816 3816 3816 3859 3816 3816 3816 3816 3816 3774 3774 3774 3816 3816 3816 3816 3816 3816 3816 3816 3816 3816 3816 3816 3859 3816 3816 3816 3816 3774 3774 3816 3816 3816 3859 3859 3859 3859 3859 3178 3178 3178 3208 3208 3208 3178 3178 3149 3149 3149 3149 3149 3178 3149 3120 3120 3178 3178 3149 3120 3120 3092 3092 3064 3064 3064 3064 3037 3037 3064 3064 3064 3064 3092 3120 3120 3399 3399 3399 3365 2767 2767 2767 2789 2789 2789 2789 2789 2789 2789 2789 2789 2789 2767 2767 2767 2767 2767 2767 2767 2767 2767 2767 2767 2767 2767 2767 2767 2767 2767 2767 2767 2767 2767 2744 2744 2744 2767 2767 2767 2767 2767 2789 2789 2812 2812 2812 2789 2789 2812 2812 2812 2812 2812 2835 2859 2859 2859 2908 2933 2933 2958 2984 2984 2984 2984 2958 2958 2933 2933 2933 2933 2933 2933 2933 2933 2933 2933 2933 2933 2933 2933 2933 2933 2933 2933 2933 2933 2933 2933 2933 2933 2933 2933 2958 2958 2958 2958 2958 2958 2958 2958 2984 2984 2984 2984 2984 3010 3037 3037 3037 3037 3064 3064 3092 3120 3120 3149 3149 3120 3120 3120 3120 3120 3120 3120 3120 3092 3092 3092 3092 3120 3120 3120 3120 2078 2078 2078 2078 2078 2065 2065 2065 2053 2053 2053 2040 2028 2016 2016 2005 1993 1993 1981 1981 1970 1970 1959 1959 1947 1936 1926 1926 1915 1904 1894 1894 1883 1873 1873 1863 1843 1833 1833 1823 1813 1804 1804 1794 1785 1776 1776 1766 1766 1766 1757 1757 1757 1748 1748 1748 1748 1748 1748 1739 1739 1739 1748 1748 1748 1739 1739 1739 1739 1739 1739 1739 1739 1731 1731 1731 1731 1731 1748 1748 1739 1739 1739 1748 1748 1748 1748 1748 1757 1757 1757 1757 1757 1757 1757 1757 1766 1757 1757 1757 1757 1766 1766 1757 1757 1757 1757 1766 1757 1757 1757 1766 1766 1766 1766 1766 1766 1766 1766 1766 1766 1766 1766 1766 1766 1766 1766 1766 1766 1766 1766 1766 1766 1766 1766 1766 1766 1766 1766 1766 1766 1776 1794 1794 1794 1794 1785 1785 1776 1776 1785 1785 1794 1794 1804 1813 1833 1833 1427 1421 1421 1421 1415 1415 1415 1415 1410 1410 1410 1410 1404 1404 1410 1410 1410 1410 1415 1421 1427 1427 1427 1433 1433 1433 1433 1433 1439 1439 1439 1439 1439 1439 1445 1445 1452 1452 1452 1452 1452 1458 1458 1458 1464 1464 1470 1470 1470 1470 1477 1477 1477 1785 1785 1785 1785 1785 1794 1794 1794 1794 1794 1794 1794 1794 1804 1804 1813 1813 1594 1594 1594 1594 1594 1586 1586 1586 1586 1579 1572 1572 1579 1572 1572 1572 1572 1572 1572 1564 1564 1776 1785 1785 1785 1785 1785 1785 1794 1794 1794 1794 1804 1804 1804 1804 1804 1813 1813 1813 1813 1813 1813 1823 1823 1823 1823 1823 1823 1833 1833 1833 1843 1853 1853 1853 1863 1863 1616 1616 1624 1624 1624 1624 1616 1616 1616 1616 1616 1609 1609 1609 1609 1609 1609 1609 1616 1632 1947 1947 1947 1947 1947 1947 1947 1947 1947 1947 1959 1970 1970 1705 1705 1705 1705 1981 1981 1981 1981 1981 1713 1713 1713 1713 1713 1722 1722 1722 1731 1731 1731 1739 1739 1748 1748 1748 1757 1766 1766 1766 1766 1757 1757 1757 1757 1748 1748 1748 1748 1748 1748 1748 1748 1748 1748 1748 4241 4241 4241 4241 4241 4241 4241 0 0 0 0 0 0 0 0 0 0 0 0
0 0 0 0 0 0 0 0 0 0 0 0 0 0 0 0 0 0 0 0 0 0 0 0 0 0 0 0 0 0 0 3774 3774 3774 3816 3774 3774 3774 3774 3774 3774 3774 3774 3816 3816 3816 3774 3774 3774 3774 3774 3774 3774 3774 3774 3774 3774 3774 3816 3816 3816 3816 3816 3816 3816 3816 3816 3816 3816 3816 3774 3774 3774 3816 3816 3816 3859 3859 3859 3859 3859 3178 3178 3178 3208 3208 3208 3178 3178 3120 3120 3120 3149 3149 3149 3120 3120 3120 3120 3149 3120 3120 3092 3092 3092 3064 3064 3064 3064 3037 3037 3064 3064 3064 3064 3092 3092 3092 3092 3092 2767 2767 2767 2767 2767 2789 2789 2789 2789 2789 2789 2789 2789 2789 2789 2767 2767 2767 2767 2767 2767 2767 2767 2767 2767 2767 2767 2767 2767 2767 2767 2767 2767 2767 2767 2767 2744 2744 2744 2767 2767 2767 2767 2767 2789 2789 2812 2812 2812 2812 2812 2812 2812 2812 2812 2835 2835 2859 2859 2883 2883 2908 2933 2984 3010 3010 2984 2984 2958 2958 2933 2933 2933 2933 2933 2933 2933 2933 2933 2933 2933 2933 2933 2933 2933 2933 2933 2933 2933 2933 2933 2958 2958 2958 2958 2958 2958 2958 2958 2958 2958 2958 2958 2958 2984 2984 2984 2984 2984 3010 3037 3037 3037 3037 3064 3064 3092 3120 3120 3149 3149 3120 3120 3120 3120 3120 3120 3120 3120 3092 3092 3092 3092 3120 3120 3120 3120 2090 2078 2078 2078 2078 2078 2065 2065 2065 2065 2053 2053 2040 2028 2016 2016 1993 1981 1981 1981 1981 1970 1970 1959 1947 1936 1936 1926 1915 1904 1904 1894 1883 1883 1873 1873 1853 1843 1843 1833 1823 1804 1804 1794 1785 1776 1776 1766 1766 1757 1757 1748 1748 1748 1739 1739 1739 1739 1739 1739 1739 1739 1739 1739 1739 1739 1739 1739 1739 1739 1739 1739 1739 1731 1731 1731 1731 1731 1739 1739 1731 1731 1731 1731 1739 1731 1731 1739 1748 1748 1748 1748 1748 1748 1748 1748 1748 1739 1739 1739 1739 1748 1748 1748 1748 1748 1757 1757 1748 1748 1748 1748 1757 1757 1757 1757 1757 1757 1757 1757 1766 1766 1766 1766 1757 1757 1757 1757 1757 1757 1757 1757 1757 1757 1757 1757 1757 1757 1757 1766 1766 1766 1776 1766 1766 1766 1766 1766 1766 1766 1766 1766 1776 1785 1785 1794 1833 1833 1427 1421 1421 1421 1415 1415 1410 1410 1410 1410 1410 1410 1410 1410 1410 1410 1410 1410 1415 1421 1421 1427 1427 1427 1433 1433 1433 1433 1439 1439 1439 1439 1439 1439 1445 1445 1445 1452 1452 1452 1452 1452 1452 1458 1458 1464 1470 1470 1470 1477 1477 1785 1785 1785 1785 1785 1785 1785 1785 1785 1785 1785 1785 1785 1785 1785 1794 1794 1804 1813 1594 1594 1594 1594 1594 1586 1586 1586 1586 1579 1572 1572 1579 1572 1572 1572 1572 1572 1572 1564 1564 1776 1776 1785 1785 1785 1785 1785 1785 1794 1794 1794 1794 1794 1804 1804 1804 1813 1813 1813 1813 1813 1813 1823 1823 1823 1823 1823 1823 1833 1833 1833 1843 1853 1853 1853 1863 1616 1616 1616 1624 1624 1624 1624 1616 1616 1616 1616 1616 1616 1616 1609 1609 1609 1616 1616 1624 1632 1936 1936 1947 1947 1947 1959 1959 1959 1959 1680 1680 1688 1688 1688 1696 1696 1705 1705 1705 1713 1713 1713 1713 1713 1713 1713 1713 1722 1722 1722 1731 1731 1731 1739 1739 1739 1748 1748 1757 1757 1757 1757 1766 1757 1757 1757 1757 1748 1748 1748 1748 1748 1748 1748 1757 1757 1757 4241 4241 4241 4241 4241 4241 4241 4241 0 0 0 0 0 0 0 0 0 0 0 0
0 0 0 0 0 0 0 0 0 0 0 0 0 0 0 0 0 0 0 0 0 0 0 0 0 0 0 0 0 0 0 3774 3774 3774 3816 3816 3816 3816 3816 3774 3774 3774 3774 3774 3774 3774 3774 3774 3774 3774 3774 3732 3732 3732 3774 3774 3774 3774 3774 3774 3774 3774 3774 3774 3774 3774 3774 3816 3816 3816 3774 3774 3774 3774 3774 3774 3816 3816 3774 3774 3774 3774 3208 3208 3238 3208 3208 3208 3178 3120 3092 3092 3092 3092 3120 3120 3120 3120 3120 3149 3120 3120 3092 3092 3092 3064 3064 3037 3037 3037 3037 3037 3064 3064 3064 3064 3092 3092 0 0 0 2767 2767 2767 2767 2789 2789 2789 2789 2789 2789 2789 2789 2789 2789 2767 2767 2767 2767 2767 2767 2767 2767 2767 2767 2767 2767 2767 2767 2767 2767 2767 2767 2767 2767 2767 2744 2744 2744 2767 2767 2767 2767 2767 2789 2789 2812 2812 2812 2812 2812 2812 2812 2812 2835 2835 2859 2859 2859 2859 2883 2908 2933 2958 3010 3010 2984 2984 2958 2958 2933 2933 2933 2933 2933 2933 2933 2933 2933 2933 2933 2933 2933 2933 2933 2933 2933 2933 2933 2933 2933 2933 2933 2958 2958 2958 2958 2958 2958 2958 2984 2984 2984 2984 2984 2984 2984 2984 2984 3010 3037 3037 3037 3037 3064 3064 3064 3092 3120 3149 3149 3120 3120 3120 3120 3120 3120 3120 3120 3120 3092 3092 3092 3120 3120 3120 3120 2090 2078 2078 2078 2078 2065 2065 2065 2065 2065 2065 2053 2053 2028 2028 2016 1993 1981 1981 1981 1981 1970 1970 1959 1947 1947 1936 1926 1915 1904 1904 1894 1894 1883 1883 1883 1873 1863 1853 1843 1833 1813 1804 1804 1794 1776 1776 1766 1766 1757 1757 1748 1748 1739 1739 1739 1739 1739 1731 1731 1739 1739 1739 1739 1739 1739 1731 1731 1731 1731 1731 1731 1731 1722 1722 1731 1731 1731 1731 1731 1731 1731 1731 1731 1731 1722 1722 1722 1731 1731 1731 1731 1731 1731 1731 1731 1731 1731 1731 1731 1731 1731 1739 1739 1739 1739 1748 1748 1748 1748 1739 1739 1748 1748 1748 1748 1748 1748 1748 1748 1748 1748 1748 1748 1748 1748 1748 1748 1739 1739 1739 1739 1739 1739 1748 1748 1748 1748 1757 1757 1757 1757 1757 1757 1757 1757 1757 1757 1757 1757 1757 1757 1766 1766 1776 1794 1445 1439 1427 1421 1421 1421 1415 1415 1410 1410 1410 1410 1410 1410 1410 1410 1410 1410 1410 1410 1415 1421 1421 1421 1427 1427 1427 1427 1427 1427 1433 1433 1433 1433 1433 1439 1445 1445 1445 1445 1445 1452 1452 1452 1452 1458 1458 1766 1766 1776 1776 1776 1776 1776 1776 1776 1766 1766 1766 1766 1766 1766 1776 1785 1785 1785 1785 1785 1785 1785 1794 1794 1594 1594 1594 1594 1594 1594 1586 1586 1586 1579 1572 1572 1579 1579 1579 1572 1572 1572 1572 1564 1564 1776 1776 1776 1776 1785 1785 1785 1785 1794 1794 1794 1794 1794 1804 1804 1804 1804 1804 1813 1813 1813 1813 1813 1823 1823 1823 1823 1833 1833 1833 1833 1843 1853 1853 1863 1863 1616 1616 1616 1624 1624 1624 1624 1616 1616 1616 1616 1616 1616 1616 1616 1616 1616 1616 1624 1624 1632 1936 1936 1947 1947 1947 1959 1959 1680 1680 1680 1680 1688 1688 1688 1696 1696 1705 1705 1705 1713 1713 1713 1705 1705 1705 1713 1722 1722 1722 1731 1731 1731 1731 1739 1739 1739 1748 1748 1757 1757 1757 1757 1757 1757 1757 1757 1757 1748 1748 1748 1748 1739 1739 1739 1748 1757 1748 1748 1748 4190 4190 4190 4190 4190 4190 0 0 0 0 0 0 0 0 0 0 0 0
0 0 0 0 0 0 0 0 0 0 0 0 0 0 0 0 0 0 0 0 0 0 0 0 0 0 0 0 0 0 0 3732 3732 3732 3774 3774 3816 3816 3816 3774 3774 3774 3774 3774 3774 3774 3774 3774 3732 3732 3732 3732 3692 3692 3732 3732 3732 3732 3732 3774 3774 3732 3732 3732 3774 3774 3774 3774 3774 3774 3732 3732 3774 3774 3774 3774 3774 3774 3774 3732 3732 3732 3238 3238 3238 3238 3208 3208 3178 3178 3092 3092 3092 3092 3092 3092 3092 3092 3120 3120 3120 3120 3092 3092 3092 3064 3064 3037 3037 3037 3037 3037 3064 3064 3064 3064 3092 3092 3120 3120 3120 3120 2767 2767 2767 2789 2789 2789 2789 2812 2789 2789 2789 2789 2789 2789 2789 2789 2767 2767 2767 2767 2767 2767 2767 2767 2767 2767 2767 2767 2767 2789 2767 2767 2767 2767 2767 2767 2767 2767 2767 2767 2789 2789 2789 2812 2812 2812 2812 2812 2812 2812 2812 2812 2835 2835 2859 2859 2859 2859 2883 2908 2933 2958 2984 2984 2984 2984 2958 2958 2958 2958 2958 2933 2933 2933 2933 2933 2933 2933 2933 2933 2933 2933 2933 2933 2933 2933 2933 2933 2933 2933 2933 2958 2933 2933 2958 2958 2958 2958 2984 2984 2984 2984 2984 2984 2984 2984 2984 3010 3037 3037 3037 3037 3064 3064 3064 3092 3120 3149 3149 3120 3120 3120 3120 3120 3120 3120 3120 3120 3120 3120 3120 3120 3120 3120 3120 3120 2078 2078 2078 2078 2065 2065 2065 2065 2065 2065 2065 2065 2040 2028 2016 2005 1981 1981 1981 1981 1970 1970 1959 1959 1947 1936 1926 1926 1915 1904 1894 1894 1883 1883 1883 1873 1863 1853 1853 1843 1823 1813 1804 1804 1785 1776 1766 1766 1757 1757 1748 1748 1739 1739 1739 1731 1731 1731 1731 1731 1731 1731 1731 1731 1731 1722 1722 1722 1722 1722 1722 1722 1713 1713 1713 1713 1713 1722 1722 1722 1722 1722 1722 1722 1713 1713 1713 1713 1705 1705 1705 1705 1705 1713 1713 1713 1722 1722 1722 1722 1722 1731 1731 1731 1731 1739 1739 1731 1731 1731 1731 1739 1739 1739 1739 1739 1731 1731 1731 1731 1731 1731 1731 1731 1731 1739 1739 1731 1731 1731 1731 1731 1739 1739 1739 1739 1739 1739 1748 1748 1748 1748 1748 1748 1748 1748 1748 1748 1748 1748 1748 1757 1757 1757 1757 1445 1439 1433 1427 1427 1421 1415 1415 1410 1410 1410 1410 1410 1410 1415 1415 1415 1415 1415 1415 1415 1421 1421 1421 1421 1421 1427 1427 1427 1427 1433 1433 1433 1433 1433 1439 1445 1445 1445 1445 1445 1452 1452 1452 1452 1757 1757 1757 1757 1757 1757 1757 1757 1757 1757 1757 1757 1757 1757 1757 1757 1757 1757 1757 1757 1757 1757 1757 1757 1757 1757 1586 1586 1594 1594 1594 1594 1594 1586 1586 1586 1586 1579 1579 1579 1579 1579 1572 1572 1564 1564 1550 1550 1757 1766 1776 1776 1776 1776 1776 1785 1785 1785 1785 1794 1794 1794 1794 1804 1804 1804 1813 1813 1813 1813 1813 1823 1823 1823 1823 1833 1833 1833 1833 1843 1853 1853 1863 1863 1616 1616 1624 1624 1624 1624 1624 1616 1616 1616 1616 1616 1616 1616 1616 1616 1616 1616 1632 1632 1647 1936 1936 1947 1947 1680 1680 1680 1680 1680 1680 1680 1688 1688 1688 1696 1696 1696 1705 1705 1713 1713 1713 1705 1705 1705 1713 1722 1722 1722 1731 1731 1731 1731 1739 1739 1748 1748 1748 1757 1757 1757 1757 1757 1766 1766 1766 1757 1748 1748 1748 1748 1739 1739 1739 1739 1748 1748 1748 1748 4089 4089 4139 4139 4139 4139 0 0 0 0 0 0 0 0 0 0 0 0
0 0 0 0 0 0 0 0 0 0 0 0 0 0 0 0 0 0 0 0 0 0 0 0 0 0 0 0 0 0 0 3692 3692 3692 3732 3774 3774 3774 3774 3732 3732 3732 3732 3774 3774 3774 3774 3732 3732 3732 3732 3692 3692 3692 3692 3692 3732 3692 3692 3774 3774 3732 3732 3732 3732 3732 3774 3774 3774 3774 3732 3732 3732 3732 3732 3774 3774 3774 3732 3732 3732 3732 3238 3238 3238 3238 3208 3208 3178 3178 3092 3092 3092 3092 3092 3092 3092 3092 3092 3092 3092 3092 3092 3064 3064 3064 3064 3064 3064 3037 3037 3064 3064 3064 3064 3064 3092 3120 3120 3120 3120 3120 2767 2767 2767 2789 2789 2789 2789 2789 2789 2789 2789 2789 2789 2789 2789 2789 2789 2789 2789 2767 2767 2767 2767 2767 2767 2767 2767 2789 2789 2789 2789 2789 2789 2789 2767 2767 2767 2767 2767 2789 2789 2789 2812 2812 2812 2812 2812 2812 2812 2812 2812 2812 2835 2835 2859 2859 2859 2859 2883 2908 2933 2958 2958 2984 2984 2984 2958 2958 2958 2958 2958 2958 2958 2933 2933 2933 2933 2933 2933 2933 2933 2933 2933 2933 2933 2933 2933 2933 2933 2933 2933 2958 2933 2933 2958 2958 2958 2958 2984 2984 2984 2984 2984 2984 2984 2984 2984 3010 3037 3037 3037 3037 3064 3064 3092 3092 3120 3149 3149 3120 3120 3120 3120 3120 3120 3120 3120 3120 3092 3092 3120 3120 3120 3120 3120 3120 2078 2078 2078 2078 2065 2065 2065 2065 2065 2065 2065 2065 2078 2053 2028 2016 1981 1981 1970 1970 1970 1959 1959 1947 1947 1936 1936 1926 1915 1915 1904 1894 1894 1883 1883 1873 1863 1863 1853 1843 1833 1823 1804 1804 1785 1776 1766 1766 1757 1757 1748 1748 1739 1739 1739 1731 1731 1722 1722 1722 1722 1722 1722 1722 1722 1722 1722 1722 1713 1713 1713 1713 1705 1705 1705 1705 1705 1705 1705 1713 1713 1713 1713 1713 1705 1705 1705 1705 1696 1696 1696 1696 1696 1705 1705 1705 1705 1713 1713 1713 1713 1722 1722 1722 1722 1731 1731 1731 1722 1722 1731 1731 1731 1731 1731 1731 1722 1722 1713 1713 1713 1722 1722 1722 1722 1731 1731 1722 1722 1731 1731 1731 1731 1731 1731 1731 1731 1731 1739 1739 1739 1739 1739 1739 1739 1739 1739 1739 1748 1748 1739 1731 1705 1705 1705 1445 1445 1439 1427 1427 1421 1415 1415 1410 1410 1410 1410 1415 1415 1415 1415 1415 1415 1415 1415 1415 1421 1421 1421 1421 1421 1427 1427 1427 1739 1739 1748 1739 1739 1739 1739 1739 1739 1748 1748 1748 1748 1748 1748 1748 1748 1748 1748 1748 1748 1748 1739 1739 1739 1739 1739 1739 1748 1748 1748 1748 1748 1748 1748 1748 1748 1748 1748 1748 1748 1748 1586 1586 1594 1594 1594 1594 1594 1594 1586 1586 1586 1579 1579 1579 1579 1579 1572 1572 1564 1564 1550 1550 1757 1766 1766 1776 1776 1776 1776 1785 1785 1785 1785 1785 1794 1794 1794 1804 1804 1804 1813 1813 1813 1813 1823 1823 1823 1823 1823 1833 1833 1833 1843 1843 1853 1853 1863 1639 1624 1624 1624 1632 1632 1624 1624 1624 1624 1616 1616 1616 1616 1616 1616 1616 1624 1624 1639 1647 1655 1671 1671 1680 1680 1680 1680 1680 1680 1680 1680 1680 1688 1688 1688 1696 1696 1696 1705 1705 1713 1713 1713 1705 1705 1713 1713 1722 1722 1722 1731 1731 1731 1739 1739 1739 1748 1748 1748 1757 1757 1757 1757 1757 1766 1766 1757 1757 1757 1757 1748 1748 1748 1739 1739 1739 1739 1748 1748 4089 4089 4089 4139 4139 4139 4139 0 0 0 0 0 0 0 0 0 0 0 0
0 0 0 0 0 0 0 0 0 0 0 0 0 0 0 0 0 0 0 0 0 0 0 0 0 0 0 0 0 0 0 3653 3653 3653 3692 3732 3732 3732 3692 3692 3692 3692 3692 3732 3732 3732 3774 3732 3732 3732 3732 3692 3692 3692 3692 3692 3692 3653 3653 3653 3653 3653 3692 3692 3692 3732 3732 3732 3732 3732 3732 3732 3692 3692 3732 3732 3732 3732 3732 3732 3732 3333 3269 3269 3269 3269 3238 3238 3208 3178 3092 3092 3064 3064 3064 3064 3064 3092 3092 3092 3092 3092 3092 3064 3064 3064 3064 3064 3064 3064 3064 3064 3064 3064 3064 3064 3064 3120 3092 3092 3120 3120 3149 2789 2789 2789 2789 2789 2789 2789 2789 2789 2789 2789 2789 2789 2789 2789 2789 2789 2789 2767 2767 2767 2767 2767 2767 2767 2789 2789 2789 2789 2789 2789 2789 2789 2767 2767 2767 2767 2789 2789 2789 2789 2812 2812 2812 2812 2812 2812 2835 2835 2835 2835 2835 2835 2859 2859 2859 2859 2883 2883 2933 2958 2958 2984 2984 2984 2958 2958 2958 2958 2958 2958 2958 2933 2933 2933 2933 2933 2933 2933 2933 2933 2933 2933 2933 2933 2933 2933 2933 2933 2933 2958 2958 2958 2958 2958 2958 2958 2984 2984 2984 2984 2984 2984 2984 2984 2984 3010 3037 3037 3037 3037 3064 3064 3092 3120 3120 3149 3149 3120 3120 3120 3120 3120 3120 3120 3120 3120 3092 3092 3120 3120 3120 3120 3120 3120 2078 2078 2078 2078 2078 2065 2065 2065 2065 2078 2078 2078 2090 2090 2078 2078 1981 1981 1970 1970 1959 1959 1947 1947 1936 1936 1936 1926 1926 1915 1904 1894 1894 1883 1883 1873 1873 1863 1863 1853 1843 1833 1813 1804 1785 1776 1776 1776 1766 1757 1757 1748 1739 1739 1739 1731 1722 1722 1722 1713 1713 1713 1713 1713 1713 1713 1713 1713 1705 1705 1705 1705 1696 1696 1696 1696 1696 1696 1696 1696 1696 1696 1705 1705 1696 1696 1696 1696 1696 1696 1688 1688 1688 1696 1696 1696 1696 1696 1696 1705 1696 1696 1713 1713 1713 1713 1713 1713 1713 1713 1713 1713 1722 1722 1722 1722 1713 1713 1705 1705 1705 1705 1705 1713 1722 1722 1722 1713 1713 1722 1722 1722 1722 1722 1722 1722 1722 1722 1731 1731 1731 1731 1731 1731 1731 1731 1731 1731 1731 1722 1713 1705 1705 1696 1696 1445 1439 1439 1427 1427 1421 1415 1415 1415 1415 1415 1415 1415 1415 1421 1421 1421 1421 1421 1421 1415 1415 1415 1415 1421 1722 1722 1731 1731 1731 1739 1739 1739 1739 1739 1739 1739 1739 1731 1731 1731 1731 1731 1739 1739 1739 1739 1739 1739 1739 1739 1731 1731 1722 1722 1731 1731 1731 1731 1731 1739 1739 1739 1739 1739 1739 1739 1739 1739 1739 1739 1594 1594 1594 1601 1601 1594 1594 1594 1594 1586 1586 1586 1586 1579 1579 1579 1564 1564 1557 1557 1757 1757 1757 1766 1766 1776 1776 1776 1776 1785 1785 1785 1785 1785 1794 1804 1804 1804 1804 1813 1813 1813 1813 1823 1823 1823 1823 1823 1833 1833 1833 1843 1843 1853 1853 1853 1863 1639 1632 1632 1632 1632 1632 1624 1624 1624 1624 1616 1616 1624 1624 1624 1624 1624 1632 1632 1647 1655 1663 1671 1671 1680 1680 1680 1680 1680 1680 1680 1680 1680 1688 1688 1688 1696 1696 1696 1705 1705 1713 1713 1713 1705 1705 1713 1722 1722 1722 1731 1731 1731 1739 1739 1739 1739 1748 1748 1748 1757 1757 1757 1757 1757 1757 1766 1757 1757 1757 1757 1757 1757 1748 1739 1739 1739 1739 1739 1739 4089 4089 4089 4089 4089 4139 4139 0 0 0 0 0 0 0 0 0 0 0 0
0 0 0 0 0 0 0 0 0 0 0 0 0 0 0 0 0 0 0 0 0 0 0 0 0 0 0 0 0 0 0 3653 3653 3653 3653 3653 3653 3653 3653 3653 3653 3653 3692 3692 3692 3692 3692 3653 3653 3732 3692 3692 3692 3692 3653 3653 3653 3653 3653 3653 3653 3653 3653 3653 3653 3692 3692 3732 3732 3732 3692 3692 3692 3692 3692 3692 3732 3732 3692 3692 3614 3333 3300 3269 3269 3269 3269 3238 3208 3178 3092 3092 3064 3064 3064 3064 3064 3064 3064 3092 3092 3092 3064 3064 3064 3064 3064 3064 3064 3064 3064 3064 3064 3064 3064 3064 3064 3092 3092 3092 3120 3120 3120 3120 2789 2789 2789 2789 2789 2789 2789 2789 2789 2789 2789 2789 2789 2789 2789 2789 2789 2767 2767 2767 2767 2767 2767 2767 2789 2789 2789 2789 2789 2789 2789 2789 2767 2767 2767 2767 2767 2789 2789 2789 2789 2812 2812 2812 2812 2812 2812 2835 2835 2835 2835 2835 2859 2859 2859 2859 2883 2883 2908 2933 2958 2984 2984 2984 2984 2958 2958 2958 2958 2958 2958 2933 2933 2933 2933 2933 2933 2933 2933 2958 2933 2933 2933 2933 2933 2933 2933 2933 2933 2933 2958 2958 2958 2958 2958 2958 2984 2984 2984 2984 2984 2984 2984 3010 3010 3037 3037 3037 3037 3064 3064 3092 3092 3120 3120 3149 3149 3120 3120 3120 3120 3120 3120 3120 3120 3120 3120 3120 3120 3120 3120 3120 3120 3120 2090 2078 2078 2078 2078 2065 2065 2065 2065 2078 2078 2078 2090 2090 2090 2090 2116 1970 1959 1959 1959 1947 1947 1947 1936 1936 1936 1926 1926 1926 1915 1904 1894 1883 1883 1873 1873 1863 1863 1853 1843 1843 1833 1813 1794 1785 1776 1776 1776 1766 1766 1748 1748 1739 1739 1731 1722 1713 1713 1713 1705 1705 1705 1705 1705 1705 1696 1696 1680 1680 1696 1696 1688 1688 1688 1688 1688 1688 1688 1688 1688 1688 1688 1688 1688 1688 1688 1688 1688 1688 1688 1688 1688 1688 1688 1688 1688 1696 1696 1696 1696 1696 1696 1696 1705 1696 1696 1705 1705 1705 1713 1713 1713 1713 1713 1713 1705 1705 1705 1705 1705 1696 1696 1705 1705 1705 1705 1705 1705 1713 1713 1713 1713 1722 1722 1722 1722 1722 1722 1722 1722 1722 1722 1722 1722 1722 1713 1713 1713 1713 1705 1705 1696 1688 1688 1688 1439 1439 1427 1427 1421 1415 1415 1415 1415 1415 1415 1415 1421 1421 1421 1421 1421 1421 1421 1415 1415 1415 1415 1713 1713 1713 1722 1722 1722 1722 1731 1731 1731 1731 1722 1722 1722 1722 1722 1722 1722 1722 1722 1722 1731 1731 1731 1731 1731 1722 1722 1722 1722 1722 1722 1722 1722 1722 1722 1731 1731 1731 1731 1731 1731 1731 1731 1731 1731 1731 1594 1594 1601 1601 1601 1594 1594 1594 1594 1586 1586 1586 1586 1579 1579 1579 1564 1564 1557 1557 1766 1757 1757 1766 1766 1776 1776 1776 1776 1785 1785 1785 1794 1794 1804 1813 1813 1813 1813 1813 1813 1823 1823 1823 1833 1833 1833 1843 1843 1853 1853 1853 1853 1853 1863 1863 1639 1639 1632 1632 1632 1632 1632 1624 1624 1624 1624 1624 1624 1624 1624 1624 1632 1632 1639 1639 1655 1663 1663 1671 1671 1671 1671 1680 1680 1680 1680 1680 1680 1688 1688 1688 1688 1696 1696 1696 1705 1705 1705 1713 1713 1705 1705 1713 1722 1722 1731 1731 1731 1731 1739 1739 1739 1748 1748 1757 1757 1757 1757 1757 1757 1757 1757 1757 1757 1757 1757 1757 1757 1757 1757 1748 1748 0 0 1748 0 0 4089 4089 4089 4089 4139 4139 0 0 0 0 0 0 0 0 0 0 0 0
0 0 0 0 0 0 0 0 0 0 0 0 0 0 0 0 0 0 0 0 0 0 0 0 0 0 0 0 0 0 0 3614 3614 3614 3614 3653 3653 3653 3653 3653 3653 3653 3653 3614 3614 3653 3653 3653 3653 3692 3692 3692 3692 3692 3653 3653 3653 3653 3653 3653 3653 3653 3653 3614 3614 3653 3653 3653 3653 3653 3614 3614 3653 3653 3653 3653 3653 3653 3692 3653 3539 3333 3300 3269 3269 3269 3269 3238 3208 3149 3092 3092 3064 3037 3037 3037 3064 3064 3064 3064 3064 3064 3064 3064 3064 3064 3064 3064 3064 3064 3064 3064 3064 3064 3064 3064 3092 3092 3092 3092 3092 3120 3120 3120 3120 2812 2789 2789 2789 2789 2789 2789 2789 2789 2789 2789 2789 2789 2789 2789 2789 2789 2767 2767 2767 2767 2767 2767 2789 2789 2789 2789 2789 2789 2789 2789 2767 2767 2767 2767 2767 2789 2789 2789 2789 2812 2812 2812 2812 2812 2812 2835 2835 2835 2835 2835 2859 2859 2859 2859 2883 2883 2908 2933 2958 2958 2984 2984 2984 2958 2958 2958 2958 2958 2958 2958 2933 2933 2933 2933 2933 2933 2958 2958 2933 2933 2933 2933 2933 2933 2933 2933 2933 2933 2958 2958 2958 2958 2958 2984 2984 2984 2984 2984 2984 2984 2984 3010 3010 3037 3037 3037 3037 3064 3064 3092 3092 3120 3149 3149 3149 3120 3120 3120 3120 3120 3120 3120 3120 3120 3120 3120 3092 3092 3120 3120 3120 3120 2090 2078 2078 2078 2078 2078 2078 2078 2078 2078 2078 2078 2090 2090 2090 2090 2116 1970 1959 1947 1947 1947 1947 1936 1936 1936 1936 1926 1926 1926 1915 1904 1894 1883 1883 1873 1873 1863 1863 1853 1843 1843 1833 1823 1813 1794 1785 1785 1776 1766 1766 1757 1748 1739 1739 1731 1722 1713 1713 1705 1705 1705 1705 1696 1696 1696 1688 1688 1671 1671 1671 1671 1663 1663 1663 1671 1671 1671 1671 1680 1680 1680 1680 1680 1680 1680 1680 1680 1680 1680 1680 1680 1680 1680 1688 1688 1688 1688 1688 1688 1688 1688 1688 1688 1696 1696 1696 1696 1696 1696 1705 1705 1705 1705 1705 1705 1696 1696 1696 1696 1696 1696 1696 1696 1705 1696 1696 1705 1705 1713 1705 1705 1713 1713 1713 1713 1713 1713 1713 1713 1713 1713 1713 1713 1713 1705 1705 1705 1705 1705 1705 1696 1696 1688 1688 1688 1439 1439 1427 1427 1421 1415 1415 1415 1415 1415 1415 1415 1421 1421 1421 1421 1421 1421 1421 1415 1415 1696 1705 1705 1705 1705 1713 1713 1713 1713 1713 1713 1713 1713 1713 1713 1705 1705 1705 1705 1705 1713 1713 1713 1722 1722 1722 1722 1722 1713 1713 1713 1713 1713 1713 1713 1713 1713 1722 1722 1722 1731 1731 1731 1731 1731 1731 1731 1731 1731 1601 1601 1601 1601 1601 1594 1594 1594 1594 1594 1586 1586 1586 1586 1586 1579 1564 1564 1557 1557 1766 1766 1766 1766 1766 1776 1776 1785 1785 1794 1794 1794 1794 1794 1804 1813 1813 1813 1813 1823 1823 1823 1833 1833 1833 1843 1843 1843 1853 1853 1853 1863 1863 1863 1863 1863 1639 1639 1639 1639 1639 1632 1632 1624 1624 1624 1624 1624 1624 1632 1632 1632 1632 1639 1639 1639 1655 1663 1663 1671 1671 1671 1671 1680 1680 1680 1680 1680 1680 1688 1688 1688 1688 1696 1696 1705 1705 1705 1705 1713 1713 1713 1713 1713 1722 1731 1731 1731 1731 1731 1739 1739 1739 1748 1757 1757 1766 1766 1766 1766 1766 1766 1757 1757 1757 1757 1757 1757 1757 1766 0 0 0 0 0 0 0 4089 4089 4089 4089 4089 4089 4089 0 0 0 0 0 0 0 0 0 0 0 0
0 0 0 0 0 0 0 0 0 0 0 0 0 0 0 0 0 0 0 0 0 0 0 0 0 0 0 0 0 0 0 3614 3614 3614 3614 3614 3653 3614 3614 3614 3614 3614 3614 3576 3576 3614 3614 3614 3614 3614 3692 3692 3692 3653 3653 3653 3653 3614 3614 3614 3614 3614 3614 3614 3614 3653 3653 3653 3653 3653 3614 3614 3614 3614 3614 3614 3653 3653 3614 3576 3468 3365 3300 3300 3269 3269 3269 3269 3208 3149 3149 3092 3037 3037 3037 3037 3037 3064 3064 3064 3064 3064 3064 3064 3064 3064 3064 3064 3064 3064 3064 3064 3064 3092 3092 3092 3092 3092 3092 3092 3092 3120 3120 3120 3120 3149 2812 2789 2789 2812 2812 2789 2789 2789 2789 2789 2789 2789 2789 2789 2789 2789 2789 2789 2789 2789 2789 2789 2789 2789 2789 2789 2789 2789 2789 2789 2767 2767 2767 2767 2767 2789 2789 2789 2789 2812 2812 2812 2812 2812 2835 2835 2835 2835 2835 2835 2859 2859 2859 2859 2883 2883 2908 2933 2958 2958 2958 2984 2984 2958 2958 2958 2958 2958 2958 2958 2933 2933 2933 2933 2933 2933 2958 2958 2933 2933 2933 2933 2933 2933 2933 2933 2933 2933 2958 2958 2958 2958 2958 2958 2984 2984 2984 2984 2984 2984 2984 3010 3010 3037 3037 3037 3064 3064 3064 3092 3120 3120 3149 3149 3149 3120 3120 3120 3120 3120 3120 3120 3120 3120 3120 3120 3092 3092 3120 3120 3120 2090 2078 2078 2078 2078 2078 2078 2078 2078 2078 2078 2078 2078 2090 2090 2090 2103 2116 2129 2143 1947 1947 1936 1936 1936 1936 1936 1936 1926 1926 1926 1915 1904 1894 1894 1883 1873 1873 1863 1863 1853 1853 1843 1843 1833 1823 1804 1794 1785 1785 1776 1776 1766 1757 1748 1739 1731 1731 1713 1713 1705 1705 1705 1696 1696 1696 1688 1671 1671 1663 1663 1663 1663 1663 1655 1655 1663 1663 1663 1663 1671 1671 1671 1671 1663 1663 1663 1671 1671 1671 1671 1680 1680 1680 1680 1680 1680 1680 1680 1680 1680 1680 1680 1680 1680 1688 1688 1688 1688 1688 1688 1688 1688 1688 1688 1688 1688 1688 1688 1688 1688 1688 1688 1688 1696 1696 1696 1696 1696 1696 1696 1705 1705 1705 1705 1705 1705 1705 1696 1696 1705 1696 1696 1705 1705 1705 1696 1696 1696 1696 1696 1696 1696 1696 1688 1688 1439 1439 1439 1427 1427 1427 1421 1415 1415 1415 1415 1415 1421 1421 1427 1427 1427 1427 1421 1421 1688 1688 1688 1696 1696 1696 1696 1696 1705 1705 1705 1705 1705 1705 1705 1705 1705 1696 1696 1696 1696 1696 1705 1713 1713 1713 1713 1713 1713 1705 1705 1705 1705 1705 1705 1705 1713 1713 1713 1713 1713 1713 1722 1722 1722 1722 1722 1722 1722 1722 1722 1616 1616 1609 1601 1601 1601 1601 1594 1594 1594 1594 1586 1586 1586 1586 1579 1564 1564 1557 1557 1766 1766 1766 1766 1776 1776 1785 1785 1785 1794 1794 1794 1804 1804 1813 1813 1813 1823 1823 1823 1823 1823 1833 1833 1843 1843 1843 1853 1853 1853 1853 1863 1863 1863 1632 1632 1639 1639 1639 1639 1639 1639 1632 1632 1632 1632 1632 1624 1624 1632 1632 1632 1639 1639 1639 1647 1655 1663 1671 1671 1671 1671 1671 1680 1680 1680 1680 1680 1680 1688 1688 1688 1688 1696 1705 1705 1705 1705 1713 1713 1713 1713 1713 1713 1722 1731 1731 1731 1739 1739 1739 1748 1748 1757 1757 1766 1766 1766 1766 1766 1766 1766 1757 1757 1757 1766 1766 1766 1766 0 0 0 0 0 0 0 4041 4089 4089 4089 4089 4089 4089 4089 0 0 0 0 0 0 0 0 0 0 0 0
0 0 0 0 0 0 0 0 0 0 0 0 0 0 0 0 0 0 0 0 0 0 0 0 0 0 0 0 0 0 0 3614 3614 3614 3614 3614 3614 3614 3614 3576 3576 3539 3539 3539 3539 3576 3576 3614 3614 3614 3653 3653 3653 3653 3614 3614 3614 3614 3614 3614 3614 3614 3614 3614 3614 3614 3614 3614 3614 3614 3614 3614 3614 3614 3614 3614 3614 3614 3614 3503 3433 3399 3333 3300 3300 3300 3300 3269 3269 3178 3120 3092 3037 3037 3037 3037 3037 3037 3037 3037 3037 3064 3064 3064 3037 3037 3064 3064 3064 3064 3064 3064 3092 3092 3092 3092 3092 3092 3092 3092 3092 3120 3120 3120 3120 3120 3149 2789 2789 2812 2812 2789 2789 2789 2789 2789 2789 2789 2789 2789 2789 2789 2789 2789 2789 2789 2789 2789 2789 2789 2789 2789 2789 2789 2789 2789 2767 2767 2767 2767 2789 2789 2789 2812 2812 2812 2812 2812 2812 2812 2835 2835 2835 2835 2835 2835 2859 2859 2859 2859 2883 2883 2908 2933 2958 2958 2958 2958 2958 2958 2958 2958 2958 2958 2958 2958 2933 2933 2933 2933 2958 2958 2933 2933 2933 2933 2933 2933 2933 2933 2933 2933 2933 2933 2958 2958 2958 2958 2958 2958 2984 2984 2984 2984 2984 2984 2984 3010 3010 3037 3037 3037 3064 3064 3092 3092 3120 3120 3149 3149 3149 3149 3120 3120 3120 3120 3120 3120 3120 3120 3120 3092 3092 3092 3092 3120 3120 2078 2078 2078 2078 2078 2078 2078 2078 2078 2078 2078 2078 2078 2090 2090 2103 2103 2116 2129 2143 2184 2212 1936 1936 1936 1936 1936 1936 1926 1926 1926 1915 1904 1894 1894 1883 1883 1873 1863 1863 1853 1853 1853 1843 1843 1833 1823 1804 1794 1794 1785 1776 1776 1766 1757 1748 1739 1731 1722 1713 1705 1705 1705 1696 1696 1688 1671 1671 1671 1663 1663 1663 1663 1655 1655 1655 1655 1655 1655 1655 1663 1663 1663 1663 1655 1655 1655 1663 1663 1663 1663 1663 1663 1663 1671 1671 1671 1671 1671 1671 1671 1671 1663 1663 1671 1671 1671 1680 1680 1680 1680 1680 1671 1671 1663 1663 1680 1680 1680 1680 1680 1680 1680 1680 1688 1688 1688 1688 1696 1696 1696 1696 1696 1696 1696 1696 1696 1696 1696 1696 1688 1688 1696 1696 1696 1696 1696 1696 1696 1696 1696 1696 1696 1696 1696 1696 1439 1439 1439 1433 1427 1427 1421 1421 1421 1421 1421 1421 1421 1427 1427 1427 1427 1427 1427 1427 1680 1680 1688 1688 1688 1688 1688 1688 1688 1688 1688 1688 1688 1696 1696 1696 1696 1696 1688 1688 1688 1688 1696 1696 1696 1705 1705 1705 1696 1696 1696 1696 1696 1696 1705 1705 1705 1713 1713 1713 1713 1713 1713 1713 1722 1722 1722 1722 1722 1722 1722 1609 1609 1609 1601 1601 1601 1601 1594 1594 1594 1594 1594 1594 1586 1586 1586 1572 1564 1564 1776 1776 1766 1766 1776 1776 1776 1785 1785 1785 1804 1804 1804 1804 1813 1813 1813 1823 1823 1823 1823 1823 1833 1843 1843 1843 1853 1853 1853 1863 1863 1863 1863 1863 1863 1632 1632 1639 1639 1639 1639 1639 1639 1639 1632 1632 1632 1632 1632 1632 1632 1632 1639 1639 1647 1647 1655 1663 1663 1671 1671 1671 1671 1671 1680 1680 1680 1680 1680 1680 1688 1688 1696 1696 1705 1705 1705 1713 1713 1713 1713 1722 1722 1722 1722 1722 1731 1731 1739 1739 1739 1739 1748 1748 1757 1757 1766 1766 1766 1766 1766 1766 1766 1766 1766 1766 1766 1766 1776 1776 1776 0 0 0 0 0 4041 4041 4041 4041 4041 4089 4089 4041 4041 0 0 0 0 0 0 0 0 0 0 0 0
0 0 0 0 0 0 0 0 0 0 0 0 0 0 0 0 0 0 0 0 0 0 0 0 0 0 0 0 0 0 0 3614 3614 3614 3614 3614 3614 3614 3576 3576 3576 3539 3539 3539 3539 3539 3576 3614 3614 3614 3614 3653 3653 3653 3614 3614 3614 3614 3614 3614 3614 3614 3614 3576 3576 3614 3614 3614 3614 3614 3614 3614 3614 3614 3614 3614 3614 3614 3576 3503 3433 3399 3333 3300 3300 3300 3300 3300 3300 3238 3120 3120 3037 3010 3010 3010 3010 3037 3010 3010 3037 3037 3037 3037 3037 3037 3037 3064 3064 3064 3064 3064 3092 3092 3092 3092 3092 3092 3092 3092 3092 3120 3120 3120 3120 3120 3149 2812 2812 2812 2789 2789 2789 2789 2789 2789 2789 2789 2789 2789 2789 2789 2789 2789 2789 2789 2789 2789 2789 2789 2789 2789 2789 2789 2789 2789 2767 2767 2767 2767 2767 2789 2789 2789 2789 2812 2812 2812 2812 2835 2835 2835 2835 2835 2835 2835 2859 2859 2859 2859 2883 2883 2908 2933 2958 2958 2958 2958 2958 2958 2958 2958 2958 2958 2958 2958 2958 2958 2933 2933 2933 2933 2933 2933 2933 2933 2933 2933 2933 2933 2933 2933 2933 2958 2958 2958 2958 2958 2958 2958 2984 2984 2984 2984 2984 2984 2984 3010 3010 3037 3037 3037 3064 3064 3092 3092 3120 3120 3149 3149 3178 3149 3149 3120 3120 3120 3120 3120 3120 3120 3120 3092 3092 3092 3092 3092 3092 2078 2078 2078 2078 2078 2078 2078 2078 2078 2078 2078 2078 2078 2090 2090 2103 2116 2116 2129 2156 2198 2212 2226 2226 1936 1936 1936 1926 1926 1926 1926 1915 1904 1894 1894 1883 1883 1873 1863 1863 1853 1853 1853 1843 1843 1833 1823 1813 1804 1804 1794 1785 1776 1766 1757 1748 1739 1739 1731 1722 1713 1705 1705 1696 1688 1688 1671 1671 1671 1663 1663 1663 1655 1647 1647 1647 1647 1647 1655 1655 1655 1655 1655 1655 1655 1655 1647 1647 1655 1655 1655 1655 1655 1655 1663 1663 1663 1663 1663 1663 1663 1663 1663 1663 1663 1663 1663 1663 1663 1663 1663 1663 1663 1663 1663 1663 1671 1671 1671 1671 1671 1671 1671 1671 1680 1680 1680 1688 1688 1688 1688 1688 1680 1680 1688 1688 1688 1688 1688 1688 1688 1688 1688 1688 1688 1688 1688 1688 1688 1688 1688 1696 1696 1696 1696 1696 1445 1445 1439 1427 1427 1427 1427 1421 1421 1421 1421 1421 1427 1427 1427 1427 1427 1427 1427 1427 1680 1680 1680 1680 1680 1680 1680 1680 1680 1680 1680 1680 1680 1688 1688 1688 1688 1688 1688 1688 1688 1688 1688 1688 1688 1696 1696 1696 1696 1696 1696 1696 1696 1696 1696 1696 1705 1705 1705 1713 1713 1713 1713 1713 1713 1722 1722 1722 1722 1722 1722 1609 1609 1609 1609 1601 1601 1601 1594 1594 1594 1594 1594 1594 1586 1586 1586 1572 1564 1564 1776 1776 1776 1776 1776 1776 1776 1785 1785 1794 1804 1804 1813 1813 1813 1813 1823 1823 1823 1823 1823 1833 1843 1843 1843 1853 1853 1853 1863 1863 1863 1863 1863 1863 1632 1632 1639 1639 1639 1639 1639 1639 1639 1639 1632 1632 1632 1632 1632 1632 1639 1639 1639 1639 1647 1655 1663 1663 1671 1671 1671 1671 1680 1680 1680 1680 1680 1680 1688 1688 1688 1688 1705 1705 1705 1705 1705 1713 1713 1713 1722 1722 1722 1722 1722 1731 1731 1731 1739 1739 1739 1748 1748 1757 1757 1766 1766 1766 1766 1766 1766 1766 1766 1766 1766 1766 1766 1776 1776 1776 1776 1776 0 0 0 0 3994 3994 4041 4041 4041 4041 4041 4041 4041 0 0 0 0 0 0 0 0 0 0 0 0
0 0 0 0 0 0 0 0 0 0 0 0 0 0 0 0 0 0 0 0 0 0 0 0 0 0 0 0 0 0 0 3614 3614 3614 3614 3614 3614 3614 3576 3539 3539 3539 3539 3539 3539 3539 3576 3576 3614 3614 3614 3614 3614 3614 3614 3614 3614 3576 3576 3576 3576 3576 3576 3576 3576 3614 3614 3614 3614 3614 3576 3576 3614 3614 3576 3576 3614 3576 3576 3468 3433 3399 3365 3300 3300 3300 3300 3300 3300 3269 3178 3178 3037 3010 3010 3010 3010 3037 3010 3010 3037 3037 3037 3037 3037 3037 3037 3064 3064 3064 3064 3064 3092 3092 3092 3092 3092 3092 3092 3092 3120 3120 3120 3120 3120 3120 3149 3178 2812 2812 2789 2789 2789 2789 2789 2789 2789 2789 2789 2789 2789 2789 2789 2789 2789 2789 2789 2789 2789 2789 2789 2789 2789 2789 2789 2789 2767 2767 2767 2767 2767 2789 2789 2789 2789 2789 2812 2812 2812 2812 2835 2835 2835 2835 2835 2835 2859 2859 2859 2883 2883 2908 2908 2933 2933 2958 2958 2958 2958 2958 2958 2958 2958 2958 2958 2958 2958 2958 2933 2933 2933 2933 2933 2933 2958 2958 2958 2958 2958 2958 2958 2958 2958 2958 2958 2958 2958 2958 2958 2958 2984 2984 2984 2984 2984 2984 2984 3010 3037 3037 3037 3037 3064 3064 3064 3064 3092 3120 3149 3178 3178 3149 3149 3120 3120 3120 3120 3120 3120 3120 3120 3092 3092 3092 3092 3092 3092 2078 2078 2078 2078 2078 2078 2078 2078 2078 2078 2078 2078 2078 2090 2090 2103 2116 2116 2143 2170 2198 2212 2226 2212 2212 1936 1936 1926 1926 1926 1926 1904 1904 1894 1894 1883 1883 1873 1873 1863 1863 1853 1843 1843 1843 1833 1823 1813 1804 1804 1794 1785 1785 1776 1766 1757 1748 1748 1739 1731 1713 1705 1705 1696 1688 1688 1680 1680 1671 1663 1663 1663 1655 1647 1647 1647 1647 1647 1647 1647 1647 1647 1647 1639 1639 1639 1639 1639 1639 1639 1639 1647 1647 1647 1655 1655 1655 1655 1655 1655 1655 1655 1655 1655 1655 1655 1655 1655 1655 1655 1655 1655 1655 1655 1655 1655 1655 1663 1663 1663 1663 1663 1663 1663 1663 1663 1671 1671 1680 1680 1680 1671 1671 1671 1671 1671 1671 1671 1671 1680 1671 1671 1671 1671 1671 1671 1680 1680 1680 1688 1688 1688 1696 1696 1696 1696 1445 1445 1439 1427 1427 1427 1427 1421 1421 1421 1427 1427 1427 1427 1427 1427 1427 1427 1427 1427 1663 1671 1671 1671 1671 1671 1671 1671 1671 1671 1671 1671 1680 1680 1680 1680 1688 1688 1688 1680 1680 1680 1680 1680 1680 1688 1688 1688 1688 1688 1688 1688 1688 1696 1696 1696 1696 1696 1705 1705 1705 1705 1705 1713 1713 1713 1713 1722 1722 1722 1731 1609 1609 1609 1601 1601 1601 1601 1594 1594 1594 1594 1594 1594 1586 1586 1586 1579 1579 1785 1785 1785 1785 1785 1785 1785 1785 1794 1794 1794 1813 1813 1813 1813 1813 1813 1823 1823 1833 1833 1833 1833 1843 1853 1853 1853 1853 1853 1863 1863 1863 1863 1873 1873 1632 1632 1639 1639 1639 1639 1639 1639 1639 1639 1632 1632 1632 1632 1632 1639 1639 1639 1639 1647 1655 1663 1663 1671 1671 1671 1671 1680 1680 1680 1680 1680 1680 1688 1688 1688 1696 1696 1705 1705 1705 1705 1713 1713 1713 1713 1722 1722 1722 1722 1731 1731 1731 1739 1739 1739 1748 1748 1748 1757 1766 1766 1766 1776 1776 1776 1776 1776 1766 1766 1766 1766 1776 1776 1776 1776 1776 0 0 0 0 4041 3994 3994 4041 4041 4041 4041 4041 4041 4041 0 0 0 0 0 0 0 0 0 0 0 0
0 0 0 0 0 0 0 0 0 0 0 0 0 0 0 0 0 0 0 0 0 0 0 0 0 0 0 0 0 0 0 3614 3614 3614 3576 3576 3614 3576 3539 3539 3503 3503 3539 3539 3539 3539 3576 3576 3576 3576 3614 3576 3576 3614 3614 3614 3576 3576 3576 3576 3576 3576 3576 3576 3576 3614 3614 3614 3614 3614 3576 3576 3576 3576 3576 3576 3576 3576 3576 3468 3433 3433 3365 3333 3300 3300 3300 3300 3300 3269 3178 3178 3037 3010 3010 3010 3037 3010 3010 3010 3037 3037 3037 3037 3037 3037 3064 3064 3064 3064 3064 3064 3092 3092 3092 3092 3092 3092 3092 3120 3120 3120 3120 3120 3120 3120 3149 3178 2835 2812 2812 2812 2789 2789 2789 2789 2789 2789 2789 2789 2789 2789 2789 2789 2789 2789 2789 2789 2789 2789 2789 2789 2789 2789 2767 2767 2767 2767 2767 2767 2767 2789 2789 2789 2789 2789 2812 2812 2812 2812 2835 2835 2835 2835 2835 2859 2859 2859 2859 2883 2883 2908 2908 2933 2933 2958 2958 2958 2958 2958 2958 2958 2958 2958 2958 2958 2958 2958 2933 2933 2933 2933 2933 2933 2958 2958 2958 2958 2958 2958 2958 2958 2958 2958 2958 2958 2958 2958 2984 2984 2984 2984 2984 3010 3010 3010 3010 3037 3037 3037 3037 3037 3064 3064 3064 3064 3092 3120 3149 3178 3178 3149 3149 3149 3120 3120 3120 3120 3120 3120 3120 3092 3092 3092 3092 3092 3092 2090 2090 2078 2078 2078 2078 2078 2078 2078 2078 2078 2078 2078 2090 2090 2103 2116 2116 2143 2184 2198 2212 2226 2212 2212 2226 2226 1926 1926 1926 1915 1904 1904 1894 1894 1883 1883 1873 1873 1863 1863 1853 1843 1843 1843 1833 1823 1813 1813 1804 1794 1785 1785 1776 1766 1766 1757 1757 1748 1739 1722 1713 1705 1705 1696 1688 1680 1680 1671 1663 1663 1655 1655 1639 1639 1639 1639 1632 1632 1632 1632 1632 1632 1632 1632 1632 1632 1632 1632 1632 1632 1639 1639 1639 1647 1647 1647 1647 1639 1639 1647 1647 1639 1639 1639 1639 1647 1647 1647 1647 1639 1639 1639 1639 1639 1639 1647 1647 1647 1647 1655 1655 1655 1655 1655 1655 1655 1663 1663 1663 1663 1663 1663 1663 1663 1663 1663 1663 1663 1671 1671 1671 1671 1663 1663 1663 1671 1671 1671 1680 1680 1688 1688 1696 1452 1452 1445 1445 1439 1433 1427 1427 1427 1427 1427 1427 1427 1427 1427 1427 1427 1427 1427 1427 1427 1433 1655 1663 1663 1663 1663 1663 1663 1663 1663 1663 1663 1663 1671 1671 1671 1671 1680 1680 1680 1680 1671 1671 1671 1680 1680 1680 1680 1680 1680 1680 1680 1688 1688 1688 1688 1688 1688 1696 1696 1705 1705 1705 1705 1713 1713 1713 1713 1722 1722 1722 1731 1609 1609 1609 1601 1601 1601 1601 1594 1594 1594 1594 1594 1594 1594 1586 1586 1579 1579 1785 1785 1785 1785 1785 1785 1785 1794 1794 1804 1813 1813 1813 1813 1813 1823 1823 1823 1823 1833 1833 1833 1843 1853 1853 1853 1853 1853 1853 1863 1863 1863 1863 1873 1873 1639 1639 1639 1647 1639 1639 1639 1639 1639 1639 1639 1632 1632 1639 1639 1639 1639 1639 1647 1647 1655 1663 1671 1671 1671 1671 1671 1680 1680 1680 1680 1680 1688 1688 1688 1696 1705 1705 1705 1705 1713 1713 1713 1713 1722 1722 1722 1731 1731 1731 1731 1731 1739 1739 1739 1748 1748 1757 1766 1766 1766 1776 1776 1776 1776 1776 1776 1776 1776 1766 1766 1766 1776 1776 1776 1776 1776 0 0 0 3994 3994 3994 3994 3994 4041 4041 4041 4041 3994 3994 0 0 0 0 0 0 0 0 0 0 0 0
0 0 0 0 0 0 0 0 0 0 0 0 0 0 0 0 0 0 0 0 0 0 0 0 0 0 0 0 0 0 0 3576 3576 3614 3576 3576 3614 3576 3539 3503 3503 3503 3503 3503 3503 3503 3539 3539 3539 3539 3576 3539 3539 3539 3576 3576 3576 3539 3539 3539 3576 3576 3576 3576 3576 3614 3614 3614 3614 3614 3576 3576 3576 3576 3539 3539 3539 3539 3539 3468 3433 3399 3365 3333 3300 3300 3300 3300 3300 3300 3269 3269 3010 3010 3010 3010 3010 3010 3010 3010 3010 3037 3037 3037 3064 3064 3064 3064 3064 3064 3064 3064 3092 3092 3092 3092 3092 3092 3120 3120 3120 3120 3120 3120 3120 3120 3120 2835 2835 2812 2812 2812 2789 2789 2789 2789 2789 2789 2789 2789 2789 2789 2789 2789 2789 2789 2789 2789 2789 2789 2789 2789 2789 2789 2767 2767 2767 2767 2767 2767 2767 2789 2789 2789 2789 2812 2812 2812 2812 2835 2835 2835 2835 2835 2835 2859 2859 2859 2883 2883 2883 2908 2908 2933 2933 2958 2958 2958 2958 2958 2958 2958 2958 2958 2958 2958 2958 2958 2933 2933 2933 2958 2933 2933 2958 2958 2958 2958 2958 2958 2958 2958 2958 2958 2958 2958 2958 2958 2984 2984 2984 2984 2984 3010 3010 3010 3010 3037 3037 3037 3037 3037 3064 3064 3064 3064 3092 3120 3149 3178 3178 3149 3149 3149 3149 3120 3120 3120 3120 3120 3120 3120 3120 3120 3092 3092 3092 2078 2078 2078 2078 2078 2078 2078 2078 2078 2078 2078 2078 2078 2090 2090 2103 2116 2116 2143 2198 2212 2226 2226 2226 2226 2226 2226 2226 1936 1926 1915 1904 1894 1894 1894 1883 1883 1873 1873 1863 1863 1853 1843 1843 1843 1833 1823 1813 1813 1804 1794 1785 1785 1776 1776 1766 1757 1757 1748 1739 1731 1722 1713 1705 1696 1688 1688 1680 1680 1663 1663 1655 1655 1639 1632 1632 1632 1632 1632 1624 1624 1632 1632 1624 1624 1624 1624 1624 1624 1624 1624 1632 1632 1632 1632 1632 1632 1632 1632 1632 1632 1632 1632 1632 1632 1632 1632 1632 1632 1639 1632 1632 1639 1639 1639 1639 1639 1639 1639 1639 1647 1647 1655 1647 1647 1647 1647 1639 1639 1639 1639 1647 1655 1655 1655 1663 1663 1663 1663 1663 1663 1655 1655 1655 1655 1655 1655 1663 1663 1663 1671 1680 1688 1688 1452 1452 1445 1445 1439 1433 1427 1427 1427 1427 1427 1427 1427 1427 1427 1427 1427 1427 1427 1427 1427 1433 1647 1655 1655 1655 1655 1655 1655 1655 1655 1655 1655 1655 1663 1663 1663 1671 1671 1671 1671 1671 1671 1671 1671 1671 1671 1671 1680 1680 1680 1680 1680 1680 1688 1688 1688 1688 1688 1696 1696 1705 1696 1696 1705 1705 1705 1713 1713 1713 1722 1594 1594 1601 1601 1601 1609 1601 1601 1601 1594 1594 1594 1594 1594 1594 1594 1594 1594 1579 1579 1794 1794 1785 1785 1794 1794 1794 1794 1813 1813 1813 1813 1813 1813 1823 1823 1823 1823 1833 1833 1833 1843 1843 1853 1853 1853 1853 1853 1863 1863 1863 1863 1873 1873 1873 1639 1639 1647 1647 1639 1639 1639 1639 1639 1639 1639 1639 1639 1639 1639 1639 1639 1647 1647 1647 1663 1663 1671 1671 1671 1671 1680 1680 1680 1680 1680 1680 1688 1688 1696 1696 1705 1705 1705 1705 1713 1713 1713 1722 1722 1722 1722 1731 1731 1731 1731 1739 1739 1748 1748 1748 1766 1766 1776 1776 1776 1776 1776 1776 1776 1776 1776 1776 1776 1776 1766 1766 1776 1776 1785 1794 1794 4041 3994 3994 3994 3994 3994 3994 3994 4041 4041 4041 3994 3994 3994 0 0 0 0 0 0 0 0 0 0 0 0
0 0 0 0 0 0 0 0 0 0 0 0 0 0 0 0 0 0 0 0 0 0 0 0 0 0 0 0 0 0 0 3576 3576 3576 3503 3503 3503 3503 3503 3503 3468 3468 3503 3503 3503 3503 3539 3539 3539 3539 3539 3539 3539 3539 3539 3539 3539 3539 3539 3539 3539 3539 3539 3576 3576 3614 3614 3576 3576 3576 3576 3576 3576 3576 3539 3539 3539 3539 3539 3468 3433 3399 3365 3333 3300 3300 3300 3333 3333 3333 3300 3300 3010 3010 3010 3010 3010 3010 3010 3010 3010 3037 3037 3037 3064 3064 3064 3064 3064 3064 3064 3064 3092 3092 3092 3092 3092 3092 3120 3120 3120 3120 3120 3120 3120 3092 3092 2835 2835 2812 2812 2812 2812 2789 2789 2789 2789 2789 2789 2789 2789 2789 2789 2789 2789 2789 2789 2789 2789 2789 2789 2789 2789 2789 2789 2789 2767 2767 2767 2767 2789 2789 2789 2812 2812 2812 2835 2812 2812 2835 2835 2835 2835 2835 2835 2859 2859 2859 2883 2883 2908 2908 2908 2933 2933 2958 2958 2958 2958 2958 2958 2958 2958 2958 2958 2958 2958 2958 2958 2958 2958 2958 2958 2958 2958 2958 2958 2958 2958 2958 2958 2958 2958 2958 2958 2958 2958 2958 2984 2984 2984 2984 2984 3010 3010 3010 3010 3037 3037 3037 3037 3037 3064 3064 3064 3064 3092 3092 3149 3178 3178 3149 3149 3149 3149 3120 3120 3120 3120 3120 3120 3120 3120 3120 3120 3064 3064 2078 2078 2078 2078 2078 2078 2078 2078 2078 2078 2078 2090 2090 2103 2103 2116 2116 2129 2143 2226 2226 2226 2226 2226 2226 2226 2226 2226 2226 2226 2226 1904 1894 1894 1894 1894 1883 1873 1873 1863 1863 1853 1843 1843 1843 1833 1823 1813 1813 1804 1804 1794 1785 1785 1776 1776 1766 1757 1748 1748 1739 1731 1722 1713 1705 1696 1688 1680 1680 1663 1663 1655 1655 1639 1632 1632 1624 1624 1624 1616 1616 1616 1616 1609 1609 1609 1609 1609 1609 1609 1609 1609 1624 1624 1624 1624 1624 1624 1624 1624 1632 1632 1632 1632 1624 1624 1624 1624 1624 1632 1632 1632 1632 1632 1632 1632 1632 1632 1632 1639 1639 1639 1647 1639 1639 1639 1639 1632 1632 1632 1632 1632 1647 1647 1647 1655 1655 1655 1647 1647 1647 1647 1647 1647 1647 1639 1639 1647 1655 1655 1655 1680 1458 1452 1452 1452 1452 1452 1439 1433 1433 1427 1427 1427 1427 1427 1427 1427 1427 1427 1427 1433 1433 1427 1427 1433 1639 1647 1647 1647 1647 1647 1655 1655 1655 1655 1655 1655 1655 1655 1663 1663 1663 1671 1671 1671 1663 1663 1663 1663 1671 1671 1680 1680 1680 1680 1680 1680 1688 1688 1688 1688 1688 1557 1557 1696 1696 1696 1564 1564 1564 1572 1572 1579 1586 1586 1594 1601 1601 1601 1601 1601 1601 1601 1594 1594 1601 1594 1594 1594 1594 1594 1594 1579 1579 1794 1794 1794 1794 1794 1794 1794 1813 1813 1813 1813 1813 1813 1813 1823 1823 1823 1823 1833 1843 1843 1843 1843 1853 1853 1853 1853 1863 1863 1863 1863 1873 1873 1883 1647 1647 1647 1647 1647 1647 1647 1639 1639 1639 1639 1639 1639 1639 1639 1639 1639 1639 1647 1647 1663 1663 1671 1671 1671 1671 1680 1680 1680 1680 1680 1680 1680 1688 1688 1696 1696 1705 1705 1705 1705 1713 1713 1713 1722 1722 1722 1731 1731 1731 1731 1739 1739 1739 1757 1766 1766 1776 1776 1776 1776 1776 1776 1776 1776 1776 1776 1776 1776 1776 1776 1776 1776 1776 1776 1785 1794 1794 4041 3994 3994 3994 3994 3994 3994 3994 3994 3994 3994 3994 3948 3948 0 0 0 0 0 0 0 0 0 0 0 0
0 0 0 0 0 0 0 0 0 0 0 0 0 0 0 0 0 0 0 0 0 0 0 0 0 0 0 0 0 0 0 3576 3503 3503 3468 3468 3468 3468 3503 3503 3468 3468 3503 3503 3503 3503 3539 3539 3539 3539 3539 3503 3503 3503 3539 3539 3503 3503 3503 3503 3539 3539 3539 3539 3539 3576 3576 3539 3539 3576 3539 3539 3539 3539 3539 3539 3539 3539 3503 3468 3433 3399 3365 3333 3300 3300 3300 3333 3333 3300 3269 3269 3010 3010 3010 3010 3010 3010 3037 3037 3037 3037 3037 3037 3064 3064 3064 3064 3064 3064 3064 3064 3064 3092 3092 3092 3092 3092 3120 3120 3120 3092 3092 3120 3120 3092 3064 2835 2835 2812 2812 2812 2812 2789 2789 2789 2789 2789 2789 2789 2789 2789 2789 2789 2789 2789 2789 2789 2789 2789 2789 2789 2789 2789 2789 2789 2767 2767 2767 2789 2789 2789 2789 2812 2812 2812 2812 2812 2812 2835 2835 2835 2835 2835 2859 2859 2859 2859 2883 2883 2908 2908 2908 2933 2933 2958 2958 2958 2984 2958 2958 2984 2984 2958 2958 2958 2958 2958 2958 2958 2958 2958 2958 2958 2958 2958 2958 2958 2958 2958 2958 2958 2958 2958 2958 2958 2958 2984 2984 2984 2984 2984 2984 3010 3010 3010 3037 3037 3037 3037 3064 3064 3064 3064 3064 3064 3092 3092 3149 3178 3178 3149 3149 3149 3149 3120 3120 3120 3120 3120 3120 3120 3120 3120 3120 3064 3064 3064 2090 2090 2090 2078 2078 2078 2078 2078 2078 2078 2090 2090 2103 2103 2116 2116 2129 2143 2226 2226 2226 2226 2226 2226 2226 2226 2226 2226 2226 2226 2226 1904 1894 1894 1894 1883 1873 1873 1863 1863 1853 1843 1843 1843 1833 1823 1813 1813 1813 1804 1804 1785 1785 1776 1776 1766 1766 1757 1757 1739 1731 1731 1722 1705 1696 1688 1688 1680 1671 1663 1663 1655 1639 1632 1632 1624 1624 1616 1616 1616 1609 1609 1609 1609 1609 1609 1609 1601 1601 1601 1601 1601 1609 1609 1609 1609 1609 1609 1609 1609 1609 1609 1609 1609 1609 1609 1609 1609 1616 1616 1624 1616 1616 1616 1616 1616 1616 1624 1624 1624 1624 1632 1632 1632 1632 1632 1624 1624 1624 1632 1632 1632 1632 1632 1639 1639 1647 1639 1632 1632 1632 1632 1632 1632 1632 1632 1632 1639 1639 1639 1639 1458 1452 1452 1458 1452 1452 1439 1433 1433 1433 1427 1427 1427 1427 1427 1427 1433 1433 1433 1433 1433 1433 1433 1632 1632 1632 1632 1639 1639 1647 1647 1647 1647 1647 1647 1647 1655 1655 1655 1655 1663 1663 1671 1671 1663 1663 1663 1663 1663 1671 1680 1680 1680 1680 1680 1680 1543 1543 1550 1557 1557 1557 1557 1557 1557 1557 1557 1564 1564 1572 1572 1579 1586 1586 1594 1594 1594 1601 1601 1601 1601 1601 1594 1594 1601 1594 1594 1594 1594 1594 1594 1579 1579 1794 1794 1794 1794 1804 1804 1804 1813 1813 1813 1813 1813 1813 1823 1823 1823 1823 1823 1833 1843 1843 1843 1853 1853 1853 1853 1853 1863 1863 1863 1873 1873 1883 1883 1647 1647 1647 1647 1647 1647 1647 1647 1639 1639 1639 1639 1639 1639 1639 1647 1647 1647 1647 1655 1663 1671 1671 1671 1671 1671 1680 1680 1680 1680 1680 1680 1688 1688 1688 1696 1696 1705 1705 1705 1705 1713 1713 1722 1722 1722 1731 1731 1739 1739 1739 1739 1748 1748 1766 1776 1785 1785 1785 1785 1785 1776 1776 1776 1776 1776 1776 1776 1776 1776 1776 1776 1776 1776 1776 1785 1794 1794 3994 3994 3994 3994 3994 3994 3994 3994 3994 3994 3948 3948 3948 3948 0 0 0 0 0 0 0 0 0 0 0 0
0 0 0 0 0 0 0 0 0 0 0 0 0 0 0 0 0 0 0 0 0 0 0 0 0 0 0 0 0 0 0 3503 3503 3503 3468 3468 3468 3468 3468 3468 3468 3468 3468 3503 3503 3503 3503 3503 3503 3503 3503 3503 3503 3503 3503 3503 3503 3503 3503 3503 3503 3503 3503 3539 3539 3576 3576 3539 3539 3539 3539 3503 3503 3503 3503 3503 3539 3503 3468 3433 3433 3399 3365 3333 3300 3300 3300 3333 3333 3300 3269 3269 3037 3037 3037 3037 3010 3010 3037 3037 3037 3037 3037 3037 3064 3064 3064 3064 3064 3064 3064 3064 3064 3092 3092 3092 3092 3092 3120 3120 3120 3092 3092 3120 3120 3092 3064 2812 2812 2812 2812 2812 2812 2789 2789 2789 2789 2789 2789 2789 2789 2789 2789 2789 2789 2789 2789 2789 2789 2789 2789 2789 2789 2789 2789 2789 2767 2767 2767 2789 2789 2789 2789 2812 2812 2812 2812 2835 2835 2835 2835 2835 2859 2859 2859 2859 2859 2859 2883 2908 2908 2908 2908 2933 2958 2958 2984 2984 2984 2984 2984 2984 2984 2958 2958 2958 2958 2958 2958 2958 2958 2958 2958 2958 2958 2958 2958 2958 2958 2958 2958 2958 2958 2958 2958 2958 2958 2984 2984 2984 2984 3010 3010 3010 3010 3037 3037 3037 3037 3064 3064 3064 3064 3064 3064 3064 3092 3120 3149 3178 3178 3149 3149 3149 3149 3120 3120 3120 3120 3120 3120 3120 3120 3120 3120 3064 3064 3064 2090 2090 2090 2090 2078 2078 2078 2078 2078 2090 2090 2103 2103 2116 2116 2116 2129 2143 2226 2226 2226 2226 2226 2226 2226 2226 2226 2226 2226 2226 2226 2226 1894 1894 1894 1883 1873 1873 1863 1863 1853 1843 1843 1843 1833 1823 1813 1813 1813 1804 1804 1785 1785 1776 1776 1766 1766 1757 1757 1748 1739 1739 1731 1722 1705 1705 1696 1688 1680 1671 1663 1655 1639 1632 1632 1624 1624 1616 1616 1616 1609 1601 1601 1601 1601 1601 1601 1594 1594 1601 1601 1601 1601 1601 1601 1601 1601 1601 1609 1601 1601 1601 1601 1601 1601 1601 1601 1601 1609 1609 1609 1609 1609 1609 1609 1609 1609 1616 1616 1616 1616 1616 1616 1609 1609 1616 1616 1616 1616 1624 1624 1624 1624 1624 1624 1616 1616 1616 1616 1616 1616 1616 1616 1616 1616 1624 1624 1624 1624 1624 1624 1464 1458 1458 1458 1458 1458 1445 1433 1433 1433 1427 1427 1427 1427 1433 1433 1433 1433 1433 1433 1433 1433 1433 1624 1624 1632 1632 1632 1632 1639 1639 1647 1647 1647 1647 1647 1647 1647 1655 1655 1663 1663 1671 1671 1663 1663 1663 1663 1663 1671 1680 1543 1536 1536 1536 1543 1543 1543 1543 1550 1557 1557 1557 1557 1557 1557 1557 1564 1572 1572 1572 1579 1586 1586 1594 1594 1594 1594 1601 1601 1601 1601 1601 1601 1601 1601 1594 1594 1594 1594 1594 1579 1579 1794 1794 1794 1804 1804 1804 1813 1813 1813 1813 1813 1813 1813 1823 1823 1823 1833 1833 1843 1843 1843 1843 1853 1853 1853 1853 1863 1863 1863 1873 1873 1873 1883 1894 1894 1647 1647 1647 1647 1647 1647 1647 1639 1639 1639 1639 1639 1639 1647 1647 1647 1647 1655 1663 1671 1671 1671 1671 1671 1671 1680 1680 1680 1680 1680 1688 1688 1696 1696 1696 1696 1705 1705 1713 1713 1713 1722 1722 1722 1731 1731 1731 1731 1731 1739 1739 1748 1766 1776 1794 1794 1794 1794 1794 1794 1785 1785 1785 1785 1776 1776 1776 1776 1776 1776 1776 1776 1776 1776 1785 1794 1794 3903 3948 3903 3903 3948 3903 3903 3948 3859 3859 3859 3903 3859 3859 0 0 0 0 0 0 0 0 0 0 0 0
0 0 0 0 0 0 0 0 0 0 0 0 0 0 0 0 0 0 0 0 0 0 0 0 0 0 0 0 0 0 0 3468 3468 3468 3433 3433 3433 3433 3468 3468 3468 3468 3468 3468 3468 3468 3468 3468 3468 3468 3503 3503 3503 3503 3503 3503 3503 3503 3503 3503 3503 3503 3503 3503 3539 3539 3539 3539 3539 3539 3503 3503 3503 3503 3503 3503 3503 3503 3468 3433 3433 3399 3365 3333 3333 3333 3333 3333 3333 3300 3269 3269 3010 3010 3010 3037 3010 3010 3037 3037 3037 3037 3037 3037 3064 3064 3037 3037 3064 3064 3064 3064 3092 3092 3092 3092 3092 3092 3120 3120 3120 3120 3120 3120 3120 3178 2812 2812 2812 2812 2812 2812 2812 2812 2789 2789 2789 2789 2812 2789 2789 2789 2789 2789 2789 2789 2789 2789 2789 2789 2789 2789 2789 2789 2789 2789 2767 2767 2767 2789 2789 2789 2789 2812 2812 2812 2812 2835 2835 2835 2835 2835 2859 2859 2859 2859 2859 2859 2883 2908 2908 2908 2908 2933 2958 2958 2984 2984 2984 2984 2984 2984 2984 2958 2958 2958 2958 2958 2958 2958 2958 2958 2958 2958 2958 2958 2958 2958 2958 2958 2958 2958 2958 2958 2958 2958 2958 2984 2984 2984 2984 3010 3010 3010 3010 3037 3037 3037 3037 3064 3064 3064 3064 3064 3064 3092 3092 3120 3149 3178 3178 3149 3149 3149 3149 3149 3149 3149 3149 3120 3120 3120 3120 3120 3120 3064 3064 3064 2090 2090 2090 2090 2090 2078 2078 2078 2078 2090 2090 2103 2103 2116 2116 2129 2129 2143 2212 2212 2226 2226 2226 2226 2226 2226 2226 2226 2226 2226 2226 2241 3816 3816 1894 1883 1873 1863 1863 1853 1853 1843 1843 1843 1833 1823 1823 1813 1813 1804 1804 1794 1785 1776 1776 1766 1766 1757 1757 1748 1739 1739 1731 1731 1713 1705 1705 1696 1688 1680 1671 1663 1647 1639 1632 1624 1624 1624 1616 1609 1609 1601 1601 1601 1594 1594 1594 1594 1594 1594 1594 1594 1594 1594 1594 1594 1594 1594 1601 1594 1594 1594 1594 1594 1594 1594 1594 1594 1594 1594 1594 1594 1594 1594 1594 1594 1601 1601 1609 1609 1609 1601 1601 1601 1601 1601 1601 1609 1609 1609 1609 1609 1609 1609 1609 1609 1601 1601 1601 1601 1601 1609 1609 1609 1609 1616 1616 1616 1616 1616 1616 1464 1458 1458 1458 1458 1458 1445 1433 1433 1433 1427 1427 1427 1427 1433 1433 1433 1433 1433 1433 1433 1624 1624 1624 1624 1624 1624 1624 1624 1624 1632 1632 1639 1647 1647 1647 1647 1647 1655 1655 1663 1663 1671 1671 1671 1671 1671 1671 1671 1536 1536 1536 1536 1536 1536 1543 1543 1543 1543 1550 1557 1557 1557 1557 1557 1557 1564 1564 1572 1579 1579 1586 1586 1586 1594 1594 1594 1594 1601 1601 1601 1601 1601 1601 1601 1601 1601 1594 1594 1594 1586 1586 1794 1794 1794 1794 1804 1804 1804 1813 1813 1813 1813 1823 1823 1823 1823 1823 1823 1833 1833 1843 1843 1843 1843 1853 1853 1853 1863 1863 1863 1863 1873 1873 1873 1883 1894 1894 1647 1647 1647 1647 1647 1647 1647 1647 1647 1639 1639 1639 1639 1647 1647 1655 1655 1663 1663 1671 1671 1671 1671 1671 1671 1680 1680 1680 1680 1680 1688 1688 1696 1696 1696 1696 1705 1705 1713 1713 1713 1722 1722 1722 1731 1731 1731 1731 1731 1739 1748 1757 1776 1785 1794 1804 1804 1804 1804 1794 1785 1785 1785 1785 1776 1776 1776 1776 1776 1776 1776 1776 1776 1776 1785 1785 1785 3903 3903 3903 3903 3903 3859 3859 3859 3816 3816 3859 3859 3859 3859 0 0 0 0 0 0 0 0 0 0 0 0
0 0 0 0 0 0 0 0 0 0 0 0 0 0 0 0 0 0 0 0 0 0 0 0 0 0 0 0 0 0 0 3433 3433 3399 3399 3399 3399 3399 3433 3433 3433 3468 3468 3468 3468 3468 3468 3468 3468 3468 3468 3468 3468 3468 3503 3468 3468 3468 3468 3468 3468 3503 3503 3503 3503 3503 3503 3503 3503 3503 3468 3468 3468 3468 3468 3468 3468 3503 3468 3433 3433 3399 3365 3333 3333 3333 3333 3333 3333 3300 3269 3269 3010 3010 3010 3037 3010 3010 3037 3037 3037 3037 3037 3037 3064 3064 3037 3037 3064 3064 3092 3092 3092 3092 3092 3092 3120 3539 3539 3120 3120 3120 3120 3120 3208 3208 2812 2812 2812 2812 2812 2812 2812 2812 2812 2812 2812 2812 2812 2789 2789 2789 2789 2789 2789 2789 2789 2789 2789 2789 2789 2789 2789 2789 2789 2789 2789 2789 2789 2789 2789 2789 2789 2812 2812 2812 2812 2835 2835 2835 2835 2835 2859 2859 2859 2859 2859 2859 2883 2908 2908 2908 2908 2933 2958 2958 2984 2984 2984 2984 2984 2984 2984 2984 2958 2958 2958 2958 2958 2958 2958 2958 2958 2958 2958 2958 2958 2958 2958 2958 2958 2958 2958 2958 2958 2958 2958 2958 2984 2984 2984 3010 3010 3010 3037 3037 3037 3037 3037 3064 3064 3064 3064 3064 3064 3092 3092 3120 3149 3178 3178 3149 3149 3149 3149 3149 3149 3149 3149 3120 3120 3120 3120 3120 3120 3092 3092 3092 2103 2090 2090 2090 2090 2078 2078 2078 2090 2090 2103 2103 2103 2116 2116 2129 2129 2143 2198 2212 2226 2226 2226 2226 2226 2226 2226 2226 2226 2226 2226 2241 3816 3816 3816 3816 1873 1863 1863 1843 1843 1843 1843 1843 1833 1823 1823 1813 1813 1813 1804 1794 1785 1785 1776 1766 1766 1766 1757 1748 1739 1739 1739 1731 1722 1713 1705 1705 1696 1688 1680 1671 1655 1639 1639 1632 1624 1624 1616 1609 1609 1601 1601 1594 1594 1594 1594 1594 1586 1586 1586 1586 1586 1586 1586 1586 1586 1586 1594 1586 1586 1586 1586 1586 1586 1586 1586 1586 1579 1579 1579 1579 1579 1579 1586 1586 1594 1594 1601 1601 1594 1594 1594 1594 1594 1594 1594 1594 1601 1601 1601 1601 1601 1601 1601 1601 1594 1594 1594 1601 1601 1601 1601 1601 1601 1609 1609 1601 1601 1609 1609 1464 1458 1458 1458 1458 1458 1445 1439 1433 1433 1427 1427 1433 1433 1433 1433 1433 1433 1433 1433 1433 1616 1616 1616 1616 1624 1624 1624 1624 1624 1632 1632 1639 1647 1647 1647 1647 1647 1655 1503 1503 1496 1496 1496 1496 1496 1503 1516 1529 1529 1536 1536 1536 1536 1536 1536 1543 1543 1550 1557 1557 1557 1557 1557 1557 1557 1564 1564 1572 1579 1579 1586 1586 1586 1594 1594 1594 1601 1601 1601 1609 1609 1609 1609 1609 1601 1601 1601 1594 1594 1586 1586 1794 1794 1794 1794 1804 1804 1804 1813 1813 1813 1823 1823 1823 1823 1823 1823 1823 1833 1843 1853 1853 1853 1853 1853 1853 1863 1863 1863 1863 1863 1873 1873 1883 1883 1894 1655 1647 1647 1647 1655 1647 1647 1647 1647 1647 1639 1639 1639 1647 1647 1655 1655 1655 1663 1663 1671 1671 1671 1671 1671 1671 1680 1680 1680 1680 1680 1688 1696 1696 1696 1705 1705 1705 1705 1713 1713 1713 1722 1722 1722 1731 1731 1731 1739 1739 1739 1748 1766 1785 1785 1794 1804 1804 1804 1804 1794 1794 1785 1785 1785 1785 1785 1785 1785 1785 1785 1776 1776 1766 1766 1766 1766 1766 3859 3859 3816 3816 3859 3774 3774 3816 3816 3816 3816 3816 3816 3816 0 0 0 0 0 0 0 0 0 0 0 0
0 0 0 0 0 0 0 0 0 0 0 0 0 0 0 0 0 0 0 0 0 0 0 0 0 0 0 0 0 0 0 3399 3399 3399 3399 3399 3399 3399 3433 3433 3433 3433 3433 3433 3433 3433 3433 3433 3433 3468 3468 3468 3468 3468 3468 3468 3468 3468 3468 3468 3468 3468 3468 3468 3503 3503 3503 3503 3503 3503 3468 3433 3433 3433 3433 3468 3468 3468 3468 3433 3433 3399 3365 3333 3333 3333 3300 3300 3300 3300 3269 3269 3010 3010 3010 3037 3037 3037 3037 3064 3064 3064 3064 3064 3064 3064 3064 3503 3503 3468 3468 3468 3503 3503 3503 3503 3503 3539 3539 3539 3539 3539 3539 3539 3539 3539 2812 2789 2789 2812 2812 2812 2812 2812 2812 2812 2812 2812 2812 2789 2789 2789 2789 2789 2789 2789 2789 2789 2789 2789 2789 2789 2789 2789 2812 2812 2789 2789 2789 2789 2789 2789 2812 2812 2812 2812 2835 2835 2835 2835 2835 2859 2859 2859 2859 2859 2859 2859 2883 2908 2908 2908 2908 2933 2958 2984 2984 3010 3010 3010 2984 2984 2984 2984 2958 2958 2958 2958 2958 2958 2958 2958 2958 2958 2958 2958 2958 2958 2958 2958 2958 2958 2958 2958 2958 2958 2958 2958 2984 2984 2984 2984 3010 3010 3037 3037 3037 3037 3037 3064 3064 3064 3064 3092 3092 3092 3120 3149 3149 3178 3178 3149 3149 3149 3149 3149 3149 3149 3149 3120 3120 3149 3149 3120 3120 3120 3120 3120 2090 2090 2090 2090 2090 2090 2090 2090 2090 2090 2103 2116 2116 2116 2129 2129 2143 2143 2198 2212 2226 2226 2226 2226 2226 2226 2226 2226 2226 2226 2226 2241 3732 3732 3732 3732 3732 1833 1833 1833 1833 1843 1843 1833 1833 1823 1823 1813 1813 1813 1804 1794 1785 1785 1776 1776 1766 1766 1757 1748 1739 1739 1739 1731 1722 1713 1705 1705 1696 1688 1688 1671 1655 1647 1639 1632 1624 1624 1616 1609 1601 1601 1594 1594 1594 1594 1586 1586 1586 1586 1579 1579 1572 1572 1579 1579 1579 1579 1579 1579 1579 1579 1572 1572 1579 1572 1572 1579 1572 1572 1572 1572 1572 1572 1579 1579 1579 1579 1586 1586 1586 1586 1586 1586 1586 1586 1586 1586 1586 1586 1586 1594 1594 1594 1594 1594 1594 1594 1594 1594 1594 1594 1594 1594 1594 1594 1594 1594 1594 1594 1601 1464 1464 1458 1458 1458 1458 1445 1439 1439 1433 1433 1433 1433 1433 1433 1439 1439 1439 1445 1445 1452 1616 1616 1616 1616 1616 1624 1624 1624 1624 1632 1639 1647 1647 1647 1647 1655 1503 1503 1503 1503 1496 1496 1496 1496 1496 1503 1516 1523 1529 1536 1536 1536 1536 1536 1536 1543 1543 1550 1557 1557 1557 1557 1557 1557 1564 1564 1572 1572 1579 1586 1586 1586 1594 1594 1594 1594 1594 1601 1601 1609 1609 1609 1609 1609 1609 1601 1601 1601 1601 1601 1794 1794 1794 1794 1804 1804 1804 1813 1813 1813 1813 1823 1823 1823 1823 1823 1823 1833 1843 1843 1853 1853 1853 1853 1853 1853 1863 1863 1863 1863 1863 1873 1873 1883 1883 1894 1655 1655 1655 1655 1655 1647 1647 1647 1647 1647 1647 1647 1647 1647 1647 1655 1663 1663 1671 1671 1671 1671 1671 1671 1680 1680 1680 1680 1680 1688 1688 1688 1696 1696 1696 1696 1696 1705 1705 1713 1713 1713 1722 1722 1722 1722 1722 1722 1731 1731 1739 1748 1766 1785 1785 1794 1804 1804 1804 1804 1804 1794 1794 1794 1785 1785 1785 1785 1785 1785 1785 1776 1776 1766 1766 1766 1766 1766 3774 3774 3774 3774 3774 3732 3732 3816 3816 3816 3816 3816 3816 3816 0 0 0 0 0 0 0 0 0 0 0 0
0 0 0 0 0 0 0 0 0 0 0 0 0 0 0 0 0 0 0 0 0 0 0 0 0 0 0 0 0 0 0 3399 3365 3365 3399 3399 3399 3399 3399 3433 3433 3433 3433 3433 3433 3433 3433 3433 3433 3433 3433 3468 3468 3468 3468 3468 3468 3468 3468 3468 3468 3468 3468 3468 3468 3468 3468 3468 3503 3468 3433 3433 3433 3433 3433 3468 3468 3468 3433 3433 3433 3399 3365 3333 3333 3333 3300 3300 3300 3269 3178 3178 3037 3010 3010 3037 3037 3037 3037 3064 3064 3064 3064 3064 3064 3064 3064 3468 3468 3468 3468 3468 3503 3503 3503 3503 3503 3539 3539 3539 3539 3503 3503 3503 3503 3503 2789 2789 2789 2789 2812 2812 2812 2812 2812 2812 2812 2812 2812 2812 2789 2789 2789 2789 2789 2789 2789 2789 2789 2789 2789 2789 2789 2789 2812 2812 2789 2789 2789 2789 2812 2812 2812 2812 2812 2835 2835 2835 2835 2835 2835 2859 2859 2859 2859 2859 2859 2859 2883 2908 2908 2908 2933 2933 2958 2984 2984 3010 3010 3010 3010 2984 2984 2984 2984 2958 2958 2958 2958 2958 2958 2958 2958 2958 2958 2958 2958 2958 2958 2958 2958 2958 2958 2958 2958 2958 2958 2958 2984 2984 2984 2984 3010 3010 3010 3037 3037 3037 3037 3064 3064 3064 3064 3092 3092 3092 3120 3149 3149 3149 3178 3149 3149 3149 3149 3149 3149 3149 3149 3149 3149 3149 3120 3120 3120 3120 3120 3120 2090 2090 2090 2090 2090 2090 2090 2090 2090 2103 2103 2116 2116 2116 2129 2129 2143 2143 2198 2212 2226 2226 2226 2226 2226 2226 2226 2226 2226 2226 2226 2241 3692 3692 3732 3732 3732 3692 1833 1833 1833 1843 1843 1833 1833 1823 1813 1813 1813 1813 1804 1804 1785 1785 1776 1776 1766 1766 1757 1748 1739 1739 1739 1731 1731 1722 1713 1705 1696 1688 1688 1671 1655 1655 1639 1639 1632 1624 1616 1609 1601 1601 1594 1594 1594 1594 1586 1586 1579 1579 1579 1572 1572 1572 1564 1564 1564 1564 1572 1564 1564 1572 1572 1572 1572 1572 1572 1572 1572 1572 1572 1572 1572 1572 1572 1572 1572 1572 1572 1579 1579 1579 1579 1579 1579 1579 1572 1572 1579 1579 1579 1586 1586 1586 1586 1586 1586 1586 1586 1586 1586 1586 1586 1586 1586 1586 1586 1586 1586 1594 1586 1586 1464 1464 1458 1458 1458 1452 1439 1439 1433 1433 1433 1433 1433 1439 1439 1439 1439 1445 1452 1452 1616 1616 1616 1616 1616 1624 1624 1624 1624 1489 1489 1496 1496 1503 1503 1503 1503 1503 1503 1503 1503 1503 1503 1509 1509 1516 1523 1523 1529 1536 1536 1536 1536 1536 1536 1543 1543 1550 1557 1557 1557 1557 1564 1564 1564 1564 1572 1579 1586 1586 1594 1594 1594 1594 1594 1594 1594 1601 1601 1609 1609 1609 1609 1609 1609 1609 1609 1601 1601 1601 1794 1794 1794 1804 1804 1813 1813 1813 1823 1823 1823 1823 1823 1823 1823 1823 1823 1833 1843 1843 1853 1853 1853 1853 1853 1853 1863 1863 1863 1863 1863 1863 1873 1883 1663 1655 1655 1655 1655 1655 1655 1647 1647 1647 1647 1647 1647 1647 1647 1647 1647 1655 1663 1663 1671 1671 1671 1671 1680 1680 1680 1680 1680 1680 1680 1688 1688 1688 1696 1696 1696 1696 1696 1705 1705 1705 1713 1713 1722 1713 1713 1722 1722 1722 1722 1722 1731 1757 1766 1785 1794 1794 1804 1804 1804 1804 1804 1794 1794 1794 1785 1785 1785 1785 1785 1785 1785 1785 1785 1766 1766 1776 1766 1766 3732 3732 3732 3732 3732 3732 3732 3732 3774 3816 3816 3816 3816 3816 0 0 0 0 0 0 0 0 0 0 0 0
0 0 0 0 0 0 0 0 0 0 0 0 0 0 0 0 0 0 0 0 0 0 0 0 0 0 0 0 0 0 0 3365 3365 3365 3365 3365 3365 3365 3399 3399 3433 3433 3433 3433 3433 3433 3433 3433 3433 3433 3433 3433 3433 3433 3433 3468 3468 3468 3433 3433 3468 3468 3468 3468 3468 3468 3468 3468 3468 3468 3433 3433 3433 3433 3433 3433 3433 3433 3433 3433 3399 3365 3365 3333 3333 3300 3300 3300 3300 3269 3178 3178 3064 3037 3037 3037 3037 3037 3037 3064 3064 3064 3064 3064 3064 3064 3468 3468 3468 3468 3468 3468 3468 3503 3503 3539 3539 3539 3539 3503 3503 3503 3468 3468 3468 3468 2789 2789 2789 2789 2812 2812 2812 2812 2835 2835 2835 2835 2812 2812 2812 2812 2812 2789 2789 2789 2812 2789 2789 2789 2789 2789 2789 2789 2812 2812 2789 2789 2789 2812 2812 2812 2812 2812 2835 2835 2835 2835 2835 2859 2859 2859 2859 2859 2859 2859 2859 2859 2883 2883 2908 2933 2933 2933 2958 2984 2984 3010 3010 3010 3010 2984 2984 2984 2984 2958 2958 2958 2958 2958 2958 2958 2958 2958 2958 2958 2958 2958 2958 2958 2958 2958 2958 2958 2958 2958 2984 2984 2984 2984 2984 2984 3010 3010 3010 3037 3037 3037 3037 3064 3064 3064 3064 3092 3092 3092 3120 3149 3149 3149 3178 3149 3149 3149 3149 3149 3149 3149 3149 3149 3149 3149 3120 3120 3120 3120 3120 3120 2090 2090 2090 2090 2090 2090 2090 2090 2090 2103 2103 2116 2116 2116 2129 2129 2143 2143 2184 2212 2226 2226 2226 2226 2226 2226 2226 2226 2226 2226 2226 2226 3692 3692 3732 3692 3692 3692 3732 1833 1833 1843 1843 1833 1833 1823 1813 1813 1813 1804 1804 1804 1785 1785 1776 1776 1766 1766 1766 1748 1748 1739 1739 1739 1731 1722 1713 1705 1705 1696 1688 1680 1663 1655 1647 1647 1639 1632 1624 1616 1609 1601 1601 1594 1594 1594 1586 1579 1579 1579 1572 1572 1572 1564 1564 1564 1564 1564 1564 1564 1564 1564 1564 1564 1564 1564 1564 1564 1564 1564 1564 1564 1564 1564 1572 1572 1572 1572 1572 1572 1572 1572 1572 1572 1572 1572 1572 1564 1564 1564 1572 1572 1572 1572 1579 1579 1579 1579 1579 1579 1579 1579 1579 1586 1579 1579 1579 1579 1579 1579 1579 1579 1464 1464 1458 1458 1458 1452 1445 1439 1439 1433 1433 1439 1439 1439 1445 1445 1445 1452 1452 1452 1616 1616 1616 1616 1616 1624 1624 1489 1489 1489 1489 1496 1496 1503 1503 1503 1503 1503 1503 1503 1503 1503 1509 1509 1509 1516 1523 1523 1529 1529 1536 1536 1536 1536 1536 1543 1543 1550 1557 1557 1557 1564 1564 1564 1564 1572 1572 1579 1586 1586 1594 1594 1601 1601 1601 1609 1609 1609 1609 1609 1609 1616 1616 1616 1616 1616 1616 1616 1813 1804 1804 1804 1804 1804 1813 1813 1813 1813 1823 1823 1823 1823 1823 1833 1833 1833 1833 1833 1843 1843 1853 1853 1853 1853 1853 1863 1863 1863 1863 1863 1863 1863 1873 1883 1663 1655 1655 1663 1655 1655 1655 1647 1647 1647 1647 1647 1647 1647 1647 1647 1647 1655 1663 1663 1671 1671 1671 1671 1680 1680 1680 1680 1680 1688 1688 1688 1688 1688 1688 1688 1696 1696 1705 1705 1705 1705 1705 1705 1705 1705 1705 1722 1713 1713 1722 1722 1731 1766 1785 1794 1804 1804 1804 1813 1804 1804 1804 1804 1794 1794 1794 1794 1794 1794 1794 1794 1794 1785 1785 1766 1766 1776 1766 1766 3692 3692 3692 3692 3692 3692 3692 3732 3774 3774 3774 3774 3774 3774 0 0 0 0 0 0 0 0 0 0 0 0
0 0 0 0 0 0 0 0 0 0 0 0 0 0 0 0 0 0 0 0 0 0 0 0 0 0 0 0 0 0 0 3365 3365 3365 3365 3365 3365 3365 3399 3399 3399 3399 3399 3399 3399 3399 3399 3399 3399 3399 3433 3399 3399 3399 3399 3399 3399 3399 3433 3433 3433 3468 3468 3468 3468 3468 3468 3468 3468 3468 3433 3433 3433 3433 3433 3433 3433 3433 3433 3433 3399 3365 3365 3333 3333 3300 3300 3300 3300 3269 3208 3208 3092 3037 3037 3037 3037 3037 3037 3064 3064 3064 3064 3064 3433 3468 3433 3433 3468 3468 3468 3468 3468 3503 3503 3503 3503 3503 3503 3503 3468 3468 3468 3468 3468 3468 3468 2789 2789 2789 2812 2812 2835 2835 2835 2835 2835 2835 2812 2812 2812 2812 2812 2812 2789 2789 2812 2812 2812 2789 2789 2789 2789 2812 2812 2812 2789 2789 2789 2812 2812 2812 2812 2812 2812 2812 2835 2835 2835 2859 2859 2859 2859 2859 2859 2859 2859 2883 2883 2883 2908 2933 2933 2933 2958 2984 2984 3010 3010 3010 3010 3010 3010 2984 2984 2984 2984 2958 2958 2958 2958 2958 2958 2958 2958 2958 2958 2958 2958 2958 2958 2958 2958 2984 2984 2984 2984 2984 2984 2984 2984 2984 3010 3010 3010 3037 3037 3037 3037 3037 3064 3064 3064 3092 3092 3092 3120 3149 3149 3149 3178 3149 3149 3149 3149 3149 3149 3149 3149 3149 3149 3149 3120 3120 3120 3120 3120 3120 3120 2103 2090 2090 2090 2090 2090 2090 2090 2103 2116 2116 2116 2116 2129 2129 2129 2143 2184 2212 2226 2226 2226 2226 2226 2226 2226 2226 2226 2226 2226 2226 2241 3692 3692 3692 3692 3692 3692 3732 3732 3732 1843 1833 1823 1813 1813 1813 1813 1804 1804 1804 1794 1785 1776 1776 1776 1766 1766 1757 1748 1748 1739 1739 1731 1722 1713 1705 1705 1696 1696 1688 1671 1663 1655 1655 1647 1639 1632 1624 1609 1609 1601 1601 1594 1594 1586 1579 1572 1572 1572 1564 1564 1564 1557 1557 1557 1557 1557 1557 1557 1557 1557 1557 1557 1557 1557 1557 1557 1557 1557 1557 1557 1564 1564 1564 1564 1564 1564 1564 1572 1564 1564 1564 1564 1564 1557 1557 1557 1557 1564 1564 1564 1564 1564 1572 1572 1572 1572 1572 1572 1579 1579 1579 1579 1579 1579 1579 1579 1579 1579 1579 1464 1464 1458 1458 1458 1452 1445 1445 1439 1439 1439 1439 1439 1445 1445 1452 1452 1458 1458 1470 1616 1616 1616 1616 1616 1624 1489 1489 1489 1489 1489 1496 1496 1503 1503 1503 1503 1503 1509 1509 1509 1509 1509 1509 1509 1516 1523 1523 1529 1529 1536 1536 1536 1536 1543 1550 1550 1557 1557 1564 1564 1564 1564 1564 1564 1572 1572 1579 1586 1586 1594 1594 1601 1609 1609 1609 1609 1609 1616 1616 1616 1616 1616 1616 1616 1616 1616 1616 1813 1804 1804 1804 1804 1813 1813 1813 1813 1813 1823 1823 1823 1823 1823 1833 1833 1833 1833 1833 1833 1843 1843 1853 1853 1853 1853 1853 1863 1863 1863 1863 1863 1863 1873 1680 1671 1663 1663 1663 1663 1655 1655 1647 1647 1647 1647 1647 1647 1647 1647 1647 1647 1655 1663 1663 1671 1671 1671 1680 1680 1680 1680 1680 1680 1688 1688 1688 1688 1688 1688 1688 1696 1696 1696 1696 1705 1705 1705 1705 1705 1705 1705 1722 1713 1713 1722 1722 1739 1776 1794 1804 1804 1804 1804 1813 1804 1804 1804 1804 1794 1794 1794 1794 1794 1794 1794 1794 1794 1785 1785 1794 3732 3692 3692 3653 3653 3653 3692 3692 3692 3692 3692 3732 3732 3732 3732 3732 3692 3692 0 0 0 0 0 0 0 0 0 0 0 0
0 0 0 0 0 0 0 0 0 0 0 0 0 0 0 0 0 0 0 0 0 0 0 0 0 0 0 0 0 0 0 3365 3365 3365 3365 3365 3365 3365 3365 3399 3399 3399 3399 3399 3399 3399 3399 3399 3399 3399 3399 3399 3399 3399 3399 3399 3399 3399 3399 3399 3433 3433 3433 3433 3468 3433 3433 3433 3433 3468 3433 3433 3433 3433 3433 3433 3433 3433 3399 3399 3399 3365 3365 3333 3333 3333 3333 3333 3300 3300 3269 3269 3092 3037 3037 3037 3037 3037 3037 3064 3064 3064 3064 3092 3433 3433 3433 3433 3433 3433 3433 3468 3468 3468 3503 3503 3503 3503 3468 3468 3468 3468 3468 3468 3468 3468 3468 3468 2789 2789 2812 2812 2835 2835 2835 2835 2835 2812 2812 2812 2812 2812 2812 2812 2812 2812 2812 2812 2812 2812 2812 2812 2812 2812 2812 2812 2812 2812 2812 2812 2812 2812 2812 2812 2812 2812 2835 2835 2835 2859 2859 2859 2859 2859 2859 2859 2859 2883 2883 2908 2908 2933 2933 2958 2958 2984 2984 2984 3010 3010 3010 3010 3010 3010 2984 2984 2984 2984 2958 2958 2958 2958 2958 2958 2958 2958 2958 2958 2958 2958 2958 2958 2984 2984 2984 2984 2984 2984 2984 2984 2984 3010 3010 3010 3037 3037 3037 3037 3037 3037 3064 3064 3064 3092 3092 3120 3120 3149 3149 3178 3178 3149 3149 3149 3149 3149 3149 3149 3149 3120 3120 3149 3120 3120 3120 3120 3120 3120 3120 2090 2090 2090 2090 2090 2090 2090 2090 2103 2116 2116 2116 2116 2116 2129 2129 2143 2184 2212 2226 2226 2226 2226 2226 2226 2226 2226 2226 2226 2226 2226 2241 3692 3692 3692 3692 3692 3692 3692 3732 3732 3732 3732 1823 1813 1813 1813 1813 1804 1804 1804 1794 1785 1776 1776 1776 1766 1766 1757 1748 1748 1739 1739 1731 1722 1713 1705 1705 1696 1696 1688 1671 1663 1663 1655 1647 1647 1639 1632 1624 1609 1609 1601 1594 1594 1586 1579 1572 1572 1564 1564 1564 1557 1550 1550 1550 1550 1550 1550 1550 1550 1543 1543 1543 1543 1550 1550 1550 1550 1550 1557 1557 1557 1557 1557 1557 1557 1564 1564 1564 1557 1557 1557 1557 1557 1550 1550 1550 1550 1557 1557 1557 1557 1557 1564 1564 1564 1564 1564 1564 1572 1572 1572 1572 1572 1572 1572 1572 1572 1572 1572 1464 1464 1458 1458 1458 1452 1445 1445 1439 1439 1439 1439 1445 1445 1452 1452 1458 1458 1464 1470 1477 1483 1489 1489 1489 1496 1489 1489 1489 1489 1496 1496 1496 1503 1503 1503 1503 1503 1509 1509 1509 1509 1509 1509 1516 1523 1523 1523 1529 1529 1536 1536 1536 1536 1543 1550 1550 1557 1557 1564 1564 1564 1564 1564 1572 1572 1579 1586 1586 1594 1594 1594 1601 1609 1609 1609 1616 1616 1616 1616 1616 1616 1616 1616 1616 1616 1616 1616 1813 1804 1804 1804 1804 1813 1813 1813 1813 1813 1823 1823 1823 1823 1823 1823 1833 1833 1833 1833 1833 1843 1843 1853 1853 1853 1853 1853 1863 1863 1863 1863 1863 1863 1680 1680 1671 1671 1671 1671 1663 1663 1655 1647 1647 1647 1647 1647 1647 1647 1647 1647 1655 1655 1663 1671 1671 1671 1680 1680 1680 1680 1688 1688 1688 1688 1688 1688 1688 1688 1688 1688 1688 1696 1696 1696 1705 3732 3732 3732 3732 3732 1713 1713 1713 1713 1766 1766 1776 1794 1804 1804 1804 1804 1813 1813 1804 1804 1804 1804 1804 1804 1804 1794 1794 1794 1794 1794 1794 1794 1794 1804 3653 3653 3653 3653 3653 3653 3653 3653 3653 3653 3692 3692 3732 3732 3692 3692 3692 3692 0 0 0 0 0 0 0 0 0 0 0 0
0 0 0 0 0 0 0 0 0 0 0 0 0 0 0 0 0 0 0 0 0 0 0 0 0 0 0 0 0 0 0 3365 3333 3333 3333 3365 3365 3365 3365 3365 3365 3365 3365 3365 3365 3365 3365 3365 3365 3365 3365 3365 3365 3365 3365 3365 3365 3365 3365 3399 3399 3433 3433 3433 3433 3433 3433 3399 3399 3433 3399 3399 3399 3399 3399 3433 3433 3433 3399 3399 3399 3365 3365 3333 3333 3333 3333 3333 3300 3300 3269 3269 3092 3037 3037 3037 3037 3037 3037 3064 3064 3064 3064 3092 3399 3399 3399 3433 3433 3433 3433 3433 3433 3468 3468 3468 3468 3468 3468 3468 3468 3468 3468 3468 3468 3468 3468 3468 3468 2835 2835 2835 2835 2835 2835 2835 2835 2812 2812 2812 2812 2812 2812 2812 2812 2812 2835 2812 2812 2812 2812 2812 2812 2812 2812 2835 2812 2812 2812 2812 2812 2812 2812 2812 2835 2835 2835 2835 2835 2859 2859 2859 2859 2859 2859 2859 2859 2883 2883 2908 2933 2933 2933 2958 2958 2984 2984 2984 3010 3010 3010 3010 3010 3010 3010 2984 2984 2984 2958 2958 2958 2958 2958 2958 2958 2958 2958 2958 2958 2958 2984 2984 2984 2984 2984 2984 2984 2984 2984 2984 2984 3010 3010 3010 3037 3037 3037 3037 3037 3037 3064 3064 3064 3092 3092 3120 3120 3149 3149 3149 3178 3149 3149 3149 3149 3149 3149 3149 3149 3120 3120 3149 3120 3120 3120 3120 3120 3120 3120 2103 2103 2090 2090 2090 2090 2090 2090 2103 2116 2116 2116 2116 2116 2129 2129 2143 2184 2212 2226 2226 2226 2226 2226 2226 2226 2226 2226 2241 2241 2241 2241 3692 3692 3692 3692 3692 3692 3692 3692 3692 3692 3692 3692 1813 1813 1804 1804 1804 1804 1804 1794 1785 1785 1776 1776 1766 1766 1757 1757 1748 1739 1739 1731 1722 1722 1713 1705 1705 1696 1688 1680 1671 1663 1663 1655 1655 1647 1639 1632 1616 1609 1601 1601 1594 1586 1579 1579 1572 1564 1564 1564 1557 1550 1550 1550 1543 1543 1543 1543 1536 1536 1536 1536 1536 1536 1536 1543 1543 1543 1543 1543 1543 1550 1557 1557 1557 1550 1550 1550 1550 1550 1550 1550 1550 1550 1550 1550 1550 1550 1550 1550 1550 1557 1557 1557 1557 1557 1564 1564 1564 1564 1572 1572 1572 1572 1572 1572 1572 1572 1572 1464 1464 1458 1458 1458 1458 1445 1445 1445 1445 1445 1445 1445 1445 1452 1458 1458 1464 1470 1477 1477 1483 1483 1489 1489 1496 1496 1489 1489 1489 1496 1496 1496 1496 1503 1503 1503 1503 1509 1509 1509 1509 1509 1516 1516 1523 1529 1529 1529 1536 1536 1536 1536 1543 1543 1550 1550 1557 1557 1564 1564 1564 1564 1564 1572 1579 1579 1586 1586 1594 1594 1601 1609 1609 1609 1616 1616 1616 1616 1616 1616 1616 1616 1616 1616 1616 1616 1616 1813 1804 1804 1813 1813 1813 1813 1813 1813 1813 1823 1823 1823 1823 1823 1823 1823 1823 1833 1833 1833 1843 1843 1843 1853 1853 1853 1863 1863 1863 1863 1863 1863 1873 1680 1680 1671 1671 1671 1671 1663 1663 1655 1655 1647 1647 1647 1647 1647 1647 1647 1647 1647 1655 1663 1671 1671 1680 1680 1680 1680 1680 1688 1688 1688 1688 1688 1688 1696 1688 1680 1680 1688 1696 1705 3774 3774 3732 3732 3732 3732 3732 0 1853 1804 1804 1804 1794 1794 1804 1813 1813 1813 1813 1813 1813 1804 1804 1804 1804 1804 1804 1804 1804 1804 1804 1804 1804 1804 1794 1794 1804 3653 3653 3653 3653 3653 3653 3653 3653 3653 3653 3653 3653 3653 3692 3653 3653 3653 3653 0 0 0 0 0 0 0 0 0 0 0 0
