0 0 0 0 0 0 0 0 0 0 0 0 0 0 0 0 0 0 0 0 0 0 0 0 0 0 0 0 0 0 0 3576 3576 3576 3576 3576 3614 3614 3614 3614 3614 3614 3614 3614 3539 3539 3539 3300 3300 3300 3333 0 0 0 0 0 0 3614 3614 3614 3653 3653 3614 3614 3576 3576 3614 3614 3614 3614 3614 3614 3614 3614 3614 3614 3614 3614 3653 0 0 0 0 0 0 0 0 0 0 0 1359 1359 1359 1359 1365 1365 1365 1365 1370 1376 1376 1376 1376 1387 1387 1387 1392 1392 1392 1392 1483 1483 1489 1489 1489 1489 1370 1370 1370 1376 1381 1381 1381 1496 1503 1509 1503 1503 1503 1365 1365 1365 1365 1483 1359 1359 1359 1359 1365 1359 1359 1365 1359 1359 1365 1483 1483 1483 1483 1489 1489 1489 1489 1483 1483 1483 1483 1483 1483 1489 1496 1359 1354 1354 1359 1359 1477 1470 1470 1470 1470 1470 1470 1470 1477 1470 1470 1470 1470 1470 1470 1470 1470 1470 1470 1464 1464 1464 1470 1470 1470 1470 1470 1470 1470 1470 1464 1464 1470 1470 1333 1333 1333 1333 1333 1333 1333 1333 1333 1333 1333 1338 1338 1343 1349 1354 1354 1354 1477 1477 1477 1477 1477 1470 1470 1470 1470 1470 1470 1470 1477 1477 1477 1483 1489 1489 1483 1477 1477 1477 1477 1477 1477 1477 1470 1464 1464 1464 1464 1464 1464 1464 1470 1470 1470 1470 1470 1464 1464 1464 1464 1464 1464 1464 1236 1236 1232 1232 1236 1236 1232 1232 1232 1232 1236 1236 1236 1236 1241 1241 1250 1489 1483 1464 1464 1464 1464 1464 1464 1464 1464 1464 1464 1464 1464 1464 1464 1464 1464 1464 1464 1464 1464 1464 1470 1470 1477 1477 1483 1483 1477 1470 1470 1464 1464 1464 1464 1464 1470 1470 1477 1477 1470 1470 1470 1470 1470 1464 1464 1470 1470 1464 1458 1458 1458 1458 1452 1452 1452 1464 1464 1458 1458 1458 1458 1464 1464 1464 1464 1464 1464 1464 1464 1464 1464 1464 1464 1464 1470 1470 1470 1470 1470 1470 1464 1464 1470 1470 1470 1470 1470 1470 1464 1464 1470 1470 1470 1477 1477 1477 1477 1477 1477 1477 1477 1464 1464 1470 1477 1477 1489 1181 1177 1177 1177 1177 1177 1181 1181 1181 1181 1177 1177 1177 1177 1177 1177 1177 1177 1445 1445 1452 1452 1458 1464 1464 1464 1470 1464 1464 1464 1470 1470 1464 1464 1464 1464 1477 1477 1477 1477 1477 1477 1470 1470 1470 1470 1470 1470 1464 1464 1464 1470 1470 1470 1470 1470 1470 1464 1464 1464 1458 1458 1458 1458 1458 1464 1464 1464 1470 1470 1470 1470 1470 1470 1470 1464 1464 1458 1452 1452 1445 1439 1433 1427 1427 1415 1415 1415 1427 1427 1427 1439 1439 1439 1452 1452 1452 1452 1452 1452 1452 1452 1452 1452 1452 1452 1452 1458 1458 1464 1464 1470 1477 1477 1477 1470 1470 1470 1464 1464 1464 1470 0 0 0 0 0 0 0 0 0 0 3859 3859 3859 3859 3859 3859 3859 3859 3859 3903 3903 3903 3948 3903 3903 3948 3948 0 0 0 0 0 0 0 3774 3774 3774 3816 3816 3816 3816 3816 3816 3816 3816 3859 3859 3816 3816 3816 3859 0 0 0 0 0 0 0 0 0 0 0 0 0 0 0 0 0 3692 3692 3692 3692 3692 3692 3653 3653 3653 3692 3692 3692 3692 3692 0 0 0 0 0 0 0 0 0 0 0 0 0 3120 3120 3120 3120 3120 3120 3149 3120 3120 3120 3092 3092 3092 3092 3064 3064 3064 3064 3037 3037 3037 0 0 0 0 0 0 0 0 0 0 0
0 0 0 0 0 0 0 0 0 0 0 0 0 0 0 0 0 0 0 0 0 0 0 0 0 0 0 0 0 0 0 3576 3576 3539 3539 3576 3576 3576 3576 3614 3614 3614 3576 3576 3539 3539 3399 3399 3300 3300 3333 0 0 0 0 0 0 3614 3614 3614 3614 3614 3614 3576 3576 3576 3576 3576 3576 3576 3614 3576 3576 3614 3614 3614 3614 3614 3576 3576 0 0 0 0 0 0 0 0 0 0 1359 1359 1359 1359 1365 1365 1365 1365 1376 1376 1376 1376 1376 1381 1387 1387 1392 1392 1392 1392 1387 1387 1489 1489 1376 1376 1370 1370 1370 1376 1376 1376 1381 1496 1370 1370 1370 1370 1370 1365 1365 1365 1365 1365 1359 1359 1359 1359 1365 1365 1365 1365 1365 1365 1365 1365 1365 1483 1354 1354 1359 1359 1359 1483 1483 1483 1483 1359 1359 1359 1359 1359 1359 1359 1354 1354 1354 1354 1354 1470 1470 1470 1470 1354 1354 1464 1464 1464 1470 1464 1464 1470 1470 1470 1470 1464 1464 1464 1464 1464 1464 1464 1464 1464 1464 1464 1464 1464 1464 1470 1470 1333 1333 1333 1333 1333 1333 1333 1333 1333 1333 1338 1338 1343 1349 1349 1354 1354 1470 1470 1470 1470 1464 1464 1464 1464 1464 1452 1452 1452 1458 1458 1458 1458 1470 1470 1470 1470 1470 1464 1464 1464 1470 1464 1458 1458 1458 1452 1452 1458 1458 1458 1458 1464 1464 1464 1458 1452 1452 1452 1452 1452 1464 1236 1236 1236 1232 1232 1236 1236 1236 1236 1236 1236 1236 1236 1236 1236 1241 1241 1489 1489 1458 1452 1452 1452 1452 1458 1458 1458 1458 1458 1458 1458 1458 1464 1464 1458 1458 1458 1458 1458 1458 1458 1458 1458 1458 1458 1464 1458 1452 1452 1452 1452 1452 1452 1458 1458 1464 1464 1470 1470 1470 1464 1464 1464 1464 1464 1464 1464 1464 1464 1458 1458 1445 1445 1445 1445 1445 1458 1452 1452 1445 1445 1452 1458 1458 1458 1458 1458 1458 1458 1458 1464 1464 1464 1464 1464 1464 1458 1458 1458 1458 1458 1458 1458 1458 1464 1458 1458 1458 1458 1452 1452 1464 1464 1464 1464 1464 1464 1470 1470 1470 1470 1470 1464 1458 1458 1464 1464 1464 1181 1177 1177 1181 1181 1181 1181 1181 1181 1181 1181 1177 1177 1181 1177 1177 1177 1177 1445 1445 1445 1445 1445 1445 1452 1452 1458 1452 1452 1452 1458 1458 1458 1458 1458 1458 1458 1458 1458 1452 1452 1452 1452 1452 1452 1452 1452 1452 1452 1452 1452 1452 1452 1452 1458 1458 1452 1452 1452 1452 1445 1445 1445 1445 1445 1452 1452 1452 1452 1452 1452 1458 1452 1452 1452 1452 1452 1452 1445 1439 1433 1427 1427 1421 1415 1410 1410 1410 1410 1415 1415 1415 1427 1433 1439 1439 1439 1439 1439 1445 1445 1439 1439 1445 1445 1445 1452 1458 1458 1458 1464 1464 1470 1470 1470 1458 1452 1452 1452 1439 1439 1445 1445 0 0 0 0 0 0 0 0 0 0 3859 3859 3859 3816 3816 3816 3859 3859 3859 3859 3903 3948 3903 3903 3948 0 0 0 0 0 0 0 3774 3732 3732 3774 3774 3816 3816 3816 3816 3816 3816 3816 3859 3859 3816 3816 3816 3816 3816 0 0 0 0 0 0 0 0 0 0 0 0 0 0 0 0 0 3692 3692 3692 3692 3692 3653 3653 3692 3692 3732 3692 3692 3732 0 0 0 0 0 0 0 0 0 0 0 0 3120 3120 3120 3120 3120 3120 3120 3120 3120 3120 3092 3092 3092 3092 3092 3064 3064 3064 3064 3037 3037 3037 0 0 0 0 0 0 0 0 0 0 0
0 0 0 0 0 0 0 0 0 0 0 0 0 0 0 0 0 0 0 0 0 0 0 0 0 0 0 0 0 0 0 3539 3539 3539 3539 3539 3539 3539 3539 3576 3576 3576 3539 3539 3503 3503 3365 3333 3333 3333 3333 0 0 0 0 0 0 3614 3614 3614 3614 3614 3576 3576 3576 3576 3576 3576 3576 3576 3576 3576 3576 3576 3576 3576 3576 3576 3539 3539 3539 0 0 0 0 0 0 0 0 0 1359 1359 1359 1359 1365 1365 1370 1370 1376 1376 1376 1376 1376 1381 1381 1387 1387 1387 1387 1387 1381 1381 1376 1376 1376 1376 1376 1376 1376 1376 1376 1376 1381 1370 1370 1370 1370 1370 1370 1370 1365 1365 1370 1365 1365 1365 1365 1365 1365 1365 1365 1365 1365 1365 1365 1365 1365 1359 1354 1354 1359 1359 1359 1359 1359 1359 1365 1359 1359 1359 1359 1359 1359 1359 1354 1354 1354 1354 1354 1354 1354 1349 1349 1354 1354 1354 1354 1354 1470 1464 1464 1470 1470 1470 1470 1464 1464 1464 1464 1458 1458 1464 1464 1464 1464 1464 1464 1464 1464 1470 1470 1338 1333 1333 1333 1333 1333 1333 1333 1333 1333 1338 1338 1343 1349 1349 1354 1354 1458 1458 1464 1458 1458 1458 1458 1452 1452 1452 1452 1452 1452 1452 1452 1452 1452 1452 1458 1458 1458 1458 1458 1458 1458 1458 1452 1452 1445 1445 1445 1445 1445 1452 1452 1452 1452 1458 1452 1445 1445 1445 1445 1445 1445 1236 1236 1236 1236 1236 1236 1236 1236 1236 1236 1236 1236 1236 1236 1241 1241 1250 1496 1439 1439 1445 1445 1445 1445 1452 1452 1452 1452 1452 1452 1452 1452 1452 1452 1452 1452 1452 1452 1452 1452 1452 1452 1452 1452 1452 1452 1452 1445 1445 1445 1445 1445 1452 1452 1452 1452 1458 1464 1464 1464 1464 1445 1445 1445 1445 1445 1445 1458 1452 1445 1445 1445 1445 1439 1439 1439 1452 1445 1445 1439 1439 1445 1452 1445 1445 1445 1452 1452 1452 1452 1452 1458 1458 1458 1458 1452 1452 1445 1445 1452 1452 1452 1452 1458 1458 1452 1452 1452 1452 1445 1445 1452 1452 1452 1452 1452 1452 1458 1458 1458 1458 1458 1458 1452 1452 1458 1458 1458 1181 1181 1181 1181 1181 1181 1181 1181 1181 1181 1181 1181 1181 1181 1181 1181 1181 1181 1439 1439 1439 1439 1445 1445 1445 1445 1452 1445 1445 1445 1452 1452 1445 1439 1439 1439 1439 1439 1439 1439 1439 1439 1439 1439 1439 1439 1445 1445 1445 1445 1445 1445 1445 1445 1445 1445 1445 1445 1445 1445 1445 1445 1439 1439 1439 1445 1445 1439 1439 1445 1445 1445 1445 1445 1445 1445 1445 1439 1439 1433 1427 1415 1410 1410 1410 1404 1404 1404 1404 1410 1410 1410 1410 1410 1421 1421 1415 1415 1415 1421 1421 1421 1415 1415 1421 1427 1427 1427 1427 1433 1439 1433 1433 1433 1433 1427 1427 1427 1427 1427 1427 1427 1427 1433 0 0 0 0 0 0 0 0 0 3816 3816 3816 3774 3774 3774 3816 3816 3816 3816 3859 3903 3903 3903 3948 0 0 0 0 0 0 3692 3692 3732 3732 3732 3732 3774 3816 3816 3816 3816 3816 3816 3816 3816 3774 3774 3774 3732 3732 0 0 0 0 0 0 0 0 0 0 0 0 0 0 0 0 0 3692 3692 3692 3692 3692 3653 3653 3692 3732 3732 3732 3732 3732 3774 0 0 0 0 0 0 0 0 0 0 3120 3120 3120 3120 3120 3120 3120 3120 3120 3120 3120 3092 3092 3092 3092 3092 3064 3037 3037 3037 3037 3037 3037 0 0 0 0 0 0 0 0 0 0 0
0 0 0 0 0 0 0 0 0 0 0 0 0 0 0 0 0 0 0 0 0 0 0 0 0 0 0 0 0 0 0 3503 3503 3503 3503 3503 3503 3539 3539 3539 3539 3539 3539 3539 3503 3503 3365 3333 3333 3333 3333 0 0 0 0 0 0 3653 3614 3614 3576 3576 3539 3539 3539 3539 3539 3539 3576 3576 3576 3576 3576 3576 3576 3576 3576 3576 3539 3539 3539 3539 0 0 0 0 0 0 0 0 1359 1359 1359 1359 1365 1365 1376 1376 1376 1376 1376 1381 1381 1381 1381 1387 1387 1381 1381 1387 1381 1381 1376 1376 1376 1376 1376 1376 1376 1381 1381 1381 1376 1370 1370 1376 1376 1376 1376 1370 1370 1370 1370 1365 1365 1365 1365 1365 1370 1370 1370 1370 1365 1365 1365 1365 1365 1359 1359 1359 1359 1359 1359 1359 1359 1359 1365 1359 1359 1359 1359 1359 1359 1359 1359 1359 1359 1359 1359 1354 1354 1349 1349 1354 1354 1354 1354 1354 1354 1354 1464 1464 1470 1470 1470 1464 1464 1464 1464 1458 1458 1458 1458 1458 1458 1458 1458 1354 1354 1359 1470 1338 1338 1338 1338 1333 1333 1333 1333 1333 1333 1338 1338 1343 1349 1349 1349 1349 1458 1458 1458 1458 1458 1452 1452 1452 1452 1445 1445 1452 1445 1445 1445 1445 1445 1452 1452 1452 1452 1452 1452 1452 1452 1452 1445 1445 1445 1445 1445 1445 1445 1445 1445 1445 1445 1452 1445 1445 1439 1439 1439 1439 1439 1241 1241 1241 1236 1236 1236 1236 1236 1236 1236 1236 1236 1236 1236 1241 1241 1250 1255 1439 1439 1439 1439 1439 1439 1445 1445 1445 1445 1445 1445 1445 1445 1445 1445 1445 1445 1445 1445 1445 1445 1445 1445 1445 1439 1439 1439 1445 1445 1445 1445 1445 1445 1445 1445 1445 1445 1445 1445 1439 1439 1439 1439 1439 1439 1439 1439 1439 1445 1445 1433 1433 1433 1433 1433 1433 1433 1439 1433 1433 1439 1439 1439 1445 1439 1439 1439 1445 1445 1445 1452 1452 1452 1452 1445 1445 1445 1445 1439 1439 1439 1439 1439 1445 1445 1445 1445 1439 1439 1439 1439 1439 1439 1439 1439 1439 1439 1445 1445 1452 1452 1445 1445 1445 1445 1445 1445 1445 1445 1181 1181 1181 1181 1185 1185 1185 1185 1185 1181 1181 1181 1181 1181 1181 1181 1185 1189 1439 1439 1439 1433 1433 1439 1439 1439 1439 1439 1439 1439 1439 1439 1439 1439 1439 1439 1433 1433 1433 1427 1427 1427 1433 1433 1433 1433 1439 1439 1439 1439 1433 1433 1433 1433 1433 1433 1433 1433 1433 1433 1433 1433 1433 1433 1433 1439 1439 1433 1433 1433 1439 1439 1439 1439 1439 1439 1439 1433 1433 1427 1415 1410 1410 1404 1404 1398 1398 1404 1404 1404 1404 1404 1410 1410 1410 1410 1404 1404 1410 1410 1410 1415 1415 1415 1415 1421 1421 1421 1421 1427 1427 1421 1421 1421 1421 1421 1421 1421 1421 1421 1421 1421 1421 1421 1427 0 0 0 0 0 0 0 0 3816 3732 3732 3732 3732 3732 3732 3732 3732 3732 3774 3859 3903 3903 0 0 0 0 0 0 3692 3692 3692 3692 3692 3692 3732 3774 3774 3774 3774 3774 3774 3732 3732 3732 3732 3732 3732 3732 3732 3732 0 0 0 0 0 0 0 0 0 0 0 0 0 0 0 0 3732 3732 3692 3692 3692 3692 3692 3692 3692 3692 3692 3692 3732 3732 0 0 0 0 0 0 0 0 0 3149 3120 3120 3120 3120 3120 3120 3120 3120 3120 3120 3092 3092 3092 3092 3092 3092 3064 3037 3037 3037 3010 3010 3037 0 0 0 0 0 0 0 0 0 0 0
0 0 0 0 0 0 0 0 0 0 0 0 0 0 0 0 0 0 0 0 0 0 0 0 0 0 0 0 0 0 0 3503 3503 3503 3503 3503 3503 3503 3503 3539 3503 3503 3503 3503 3503 3503 3399 3365 3333 3333 3333 3333 0 0 0 0 0 3614 3614 3576 3539 3539 3503 3503 3539 3539 3539 3539 3539 3576 3576 3576 3576 3576 3576 3576 3576 3576 3539 3539 3539 3539 3576 0 0 0 0 0 0 1349 1349 1354 1359 1359 1365 1370 1376 1376 1376 1381 1381 1381 1381 1381 1381 1381 1387 1381 1381 1387 1381 1381 1381 1381 1381 1381 1381 1381 1381 1381 1381 1381 1376 1370 1370 1376 1376 1376 1376 1370 1370 1370 1370 1365 1365 1365 1365 1365 1370 1370 1370 1370 1365 1365 1365 1365 1365 1365 1365 1365 1365 1365 1359 1359 1359 1365 1365 1359 1359 1359 1359 1359 1359 1359 1359 1359 1359 1359 1359 1354 1354 1354 1354 1354 1354 1354 1354 1354 1354 1354 1354 1354 1354 1359 1359 1365 1458 1464 1458 1458 1458 1458 1458 1458 1458 1458 1359 1354 1354 1354 1354 1338 1338 1338 1338 1333 1333 1333 1333 1333 1333 1338 1338 1343 1349 1349 1349 1349 1445 1452 1452 1452 1452 1452 1452 1445 1445 1445 1445 1445 1445 1445 1445 1445 1445 1445 1445 1445 1445 1445 1445 1445 1445 1445 1439 1439 1439 1439 1439 1439 1439 1439 1439 1439 1439 1439 1439 1439 1439 1439 1433 1433 1433 1241 1241 1241 1236 1236 1236 1236 1236 1236 1236 1236 1236 1236 1241 1250 1250 1255 1255 1427 1433 1433 1427 1427 1427 1433 1433 1433 1433 1433 1439 1433 1433 1427 1427 1439 1439 1439 1445 1439 1439 1439 1439 1433 1433 1433 1433 1439 1439 1439 1439 1439 1439 1445 1439 1427 1427 1433 1433 1433 1433 1433 1433 1427 1427 1433 1433 1433 1427 1427 1421 1421 1421 1421 1421 1427 1427 1427 1427 1427 1427 1433 1433 1439 1439 1439 1439 1439 1439 1439 1439 1439 1439 1439 1439 1439 1433 1433 1433 1433 1433 1433 1433 1433 1433 1439 1439 1433 1433 1433 1439 1439 1439 1439 1433 1433 1433 1433 1433 1433 1433 1433 1433 1439 1439 1439 1439 1439 1439 1181 1181 1181 1181 1185 1185 1185 1185 1185 1185 1181 1181 1181 1185 1185 1185 1185 1189 1189 1433 1433 1427 1427 1427 1427 1433 1433 1427 1427 1433 1433 1433 1433 1433 1427 1427 1427 1427 1427 1427 1421 1421 1427 1427 1427 1427 1433 1433 1427 1427 1427 1427 1427 1427 1427 1427 1427 1427 1427 1427 1421 1421 1427 1427 1427 1427 1427 1427 1427 1427 1427 1427 1427 1427 1433 1427 1427 1427 1421 1421 1410 1404 1404 1404 1398 1398 1398 1398 1398 1404 1398 1398 1398 1404 1404 1398 1398 1398 1404 1404 1404 1410 1410 1410 1410 1415 1415 1415 1415 1415 1415 1410 1410 1410 1410 1415 1410 1410 1415 1415 1421 1421 1421 1421 1421 0 0 0 0 0 0 0 0 0 3692 3692 3692 3692 3692 3732 3732 3732 3732 3774 3859 0 0 0 0 0 0 0 0 3692 3692 3692 3692 3692 3692 3732 3732 3732 3732 3732 3732 3732 3732 3732 3732 3732 3732 3732 3732 3732 3732 0 0 0 0 0 0 0 0 0 0 0 0 0 0 0 0 3732 3732 3692 3692 3692 3692 3692 3692 3692 3692 3692 3692 3732 3732 0 3149 3149 3149 3149 3149 3149 3149 3149 3120 3120 3120 3120 3120 3120 3120 3120 3120 3120 3120 3092 3092 3092 3092 3092 3092 3064 3064 3037 3037 3010 3010 3037 0 0 0 0 0 0 0 0 0 0 0
0 0 0 0 0 0 0 0 0 0 0 0 0 0 0 0 0 0 0 0 0 0 0 0 0 0 0 0 0 0 0 3468 3468 3468 3468 3468 3503 3503 3503 3503 3503 3503 3503 3503 3468 3468 3433 3399 3365 3333 3333 3333 0 3468 3468 0 0 3614 3576 3576 3503 3503 3503 3503 3503 3503 3503 3503 3539 3539 3539 3539 3539 3539 3539 3539 3539 3539 3539 3539 3503 3503 3503 3468 3399 3399 0 0 0 1349 1349 1354 1354 1359 1365 1376 1376 1381 1381 1381 1381 1381 1381 1381 1381 1381 1387 1381 1381 1387 1381 1381 1381 1381 1381 1381 1381 1381 1381 1381 1381 1381 1376 1376 1376 1376 1376 1376 1376 1370 1370 1370 1370 1370 1370 1370 1370 1370 1370 1370 1370 1370 1365 1365 1365 1365 1365 1365 1365 1365 1365 1365 1365 1365 1365 1365 1365 1359 1359 1359 1359 1359 1359 1359 1359 1359 1359 1359 1359 1354 1354 1354 1354 1354 1354 1354 1354 1354 1354 1354 1354 1354 1354 1359 1359 1359 1365 1365 1365 1365 1458 1458 1458 1452 1359 1359 1359 1359 1359 1354 1354 1343 1338 1338 1338 1338 1333 1333 1333 1333 1338 1338 1338 1343 1349 1349 1349 1349 1445 1452 1452 1452 1452 1445 1445 1445 1445 1445 1445 1445 1445 1445 1439 1439 1439 1445 1445 1445 1445 1445 1445 1445 1445 1445 1439 1439 1439 1439 1439 1439 1439 1439 1433 1433 1439 1433 1433 1433 1433 1433 1433 1427 1427 1245 1241 1241 1241 1241 1241 1236 1236 1236 1236 1236 1236 1236 1241 1250 1250 1255 1255 1264 1421 1421 1421 1421 1421 1421 1427 1427 1427 1427 1427 1427 1421 1421 1421 1421 1427 1427 1439 1439 1433 1433 1427 1427 1427 1427 1427 1433 1433 1439 1439 1439 1439 1433 1421 1421 1421 1427 1427 1427 1427 1427 1427 1421 1421 1427 1427 1427 1421 1421 1421 1421 1421 1421 1421 1421 1421 1421 1421 1421 1421 1427 1427 1433 1433 1433 1433 1433 1433 1433 1421 1421 1421 1421 1421 1427 1427 1427 1427 1427 1427 1421 1421 1427 1427 1427 1427 1427 1427 1433 1433 1433 1433 1433 1433 1427 1427 1421 1421 1421 1421 1421 1421 1427 1427 1433 1433 1433 1433 1177 1177 1181 1185 1185 1185 1185 1185 1185 1185 1185 1181 1181 1185 1189 1185 1185 1185 1427 1427 1421 1421 1421 1421 1421 1421 1427 1421 1421 1427 1421 1421 1427 1427 1427 1421 1421 1421 1421 1421 1415 1415 1415 1421 1421 1421 1427 1427 1421 1421 1421 1421 1421 1421 1421 1421 1421 1421 1421 1421 1421 1415 1415 1415 1415 1421 1421 1421 1421 1421 1421 1421 1421 1421 1421 1421 1421 1421 1415 1415 1410 1404 1404 1398 1392 1392 1392 1392 1392 1392 1392 1392 1392 1392 1392 1392 1392 1392 1398 1398 1398 1404 1404 1404 1410 1410 1410 1404 1404 1404 1392 1392 1392 1392 1404 1404 1404 1404 1410 1410 1415 1415 1415 1415 1415 1415 0 0 0 0 0 0 0 0 3692 3692 3692 3692 3692 3732 3732 3732 3732 3774 0 0 0 0 0 0 0 0 3653 3653 3692 3692 3692 3692 3692 3692 3732 3732 3732 3732 3732 3732 3692 3692 3692 3692 3692 3692 3732 3732 3732 0 0 0 0 0 0 0 0 0 0 0 0 0 0 0 0 0 0 3692 3692 3692 3692 3692 3692 3692 3692 3732 3732 3732 0 3120 3120 3149 3149 3149 3149 3149 3149 3120 3120 3120 3120 3120 3120 3120 3120 3120 3120 3120 3120 3120 3092 3092 3092 3092 3092 3064 3037 3037 3010 2984 2984 3010 0 0 0 0 0 0 0 0 0 0 0
0 0 0 0 0 0 0 0 0 0 0 0 0 0 0 0 0 0 0 0 0 0 0 0 0 0 0 0 0 0 0 3468 3468 3468 3468 3468 3468 3503 3503 3503 3468 3468 3468 3468 3468 3468 3433 3433 3399 3365 3365 3365 3468 3468 3468 3468 3653 3614 3539 3503 3468 3468 3503 3503 3468 3468 3468 3468 3468 3468 3503 3503 3503 3503 3503 3503 3503 3503 3539 3503 3503 3503 3503 3468 3399 3399 3433 0 0 0 0 1354 1354 1359 1376 1376 1381 1381 1381 1381 1381 1381 1381 1381 1381 1381 1387 1381 1381 1387 1387 1387 1381 1381 1381 1381 1381 1381 1381 1381 1381 1381 1381 1381 1381 1381 1376 1376 1376 1370 1370 1370 1370 1370 1370 1370 1370 1370 1370 1370 1370 1370 1365 1365 1365 1365 1365 1365 1365 1365 1365 1365 1365 1365 1365 1365 1365 1359 1359 1359 1359 1359 1359 1359 1359 1359 1359 1359 1359 1354 1354 1354 1354 1354 1354 1354 1354 1354 1354 1354 1354 1354 1354 1359 1359 1359 1365 1365 1359 1359 1359 1359 1359 1359 1359 1359 1359 1359 1359 1354 1354 1349 1343 1338 1338 1338 1338 1338 1333 1333 1338 1338 1338 1343 1349 1349 1349 1349 1445 1445 1445 1445 1445 1445 1445 1445 1445 1445 1445 1445 1445 1445 1439 1439 1439 1445 1445 1445 1445 1439 1439 1439 1439 1439 1433 1433 1433 1433 1433 1433 1433 1433 1433 1433 1433 1433 1433 1427 1427 1427 1427 1421 1421 1421 1241 1241 1241 1241 1241 1241 1241 1236 1236 1236 1241 1241 1245 1250 1250 1255 1255 1259 1264 1421 1421 1421 1421 1421 1421 1421 1421 1421 1421 1421 1421 1415 1415 1421 1421 1421 1421 1421 1421 1421 1421 1421 1421 1421 1421 1421 1427 1433 1427 1415 1415 1415 1415 1415 1415 1415 1415 1415 1415 1415 1421 1421 1421 1421 1421 1421 1421 1421 1415 1415 1415 1415 1415 1415 1415 1415 1415 1415 1415 1421 1421 1421 1427 1427 1427 1427 1427 1415 1415 1415 1415 1415 1410 1410 1410 1421 1421 1421 1421 1415 1415 1415 1415 1421 1421 1421 1415 1415 1421 1421 1421 1427 1421 1421 1421 1415 1415 1415 1415 1415 1415 1415 1415 1415 1427 1427 1427 1177 1177 1181 1185 1189 1189 1189 1189 1189 1189 1185 1185 1185 1189 1189 1185 1185 1197 1197 1415 1415 1415 1415 1415 1415 1415 1415 1421 1415 1415 1415 1415 1421 1421 1421 1415 1415 1421 1415 1415 1410 1410 1415 1415 1415 1415 1415 1421 1421 1421 1415 1415 1415 1415 1410 1410 1410 1415 1415 1415 1415 1410 1410 1415 1415 1410 1410 1410 1415 1415 1415 1415 1415 1415 1415 1415 1410 1410 1410 1410 1404 1398 1398 1392 1387 1381 1381 1381 1381 1381 1381 1381 1381 1381 1381 1381 1381 1381 1387 1392 1392 1398 1398 1398 1404 1404 1398 1392 1392 1392 1392 1392 1392 1392 1392 1392 1392 1398 1398 1404 1410 1410 1410 1410 1410 1415 0 0 0 0 0 0 0 0 0 3692 3692 3692 3692 3692 3732 3732 3732 3732 0 0 0 0 0 0 0 0 3653 3653 3653 3653 3653 3653 3692 3692 3692 3692 3692 3692 3732 3692 3692 3692 3692 3692 3692 3692 3732 3732 3732 0 0 0 0 0 0 0 0 0 0 0 0 0 0 0 0 0 0 0 3732 3692 3692 3692 3732 3732 3732 0 0 0 3120 3120 3120 3149 3149 3149 3149 3149 3149 3120 3120 3120 3120 3120 3120 3120 3120 3120 3120 3120 3120 3120 3092 3092 3092 3092 3092 3064 3037 3037 3010 2984 2984 3010 0 0 0 0 0 0 0 0 0 0 0
0 0 0 0 0 0 0 0 0 0 0 0 0 0 0 0 0 0 0 0 0 0 0 0 0 0 0 0 0 0 0 3433 3433 3468 3433 3433 3468 3468 3468 3468 3468 3468 3468 3468 3468 3468 3433 3433 3399 3365 3365 3399 3399 3399 3433 3468 3503 3503 3468 3468 3468 3468 3503 3503 3468 3468 3468 3468 3468 3468 3468 3468 3503 3503 3503 3503 3503 3503 3503 3503 3503 3468 3468 3468 3399 3399 3433 0 0 0 0 0 1359 1359 1376 1376 1381 1381 1381 1381 1381 1381 1381 1381 1381 1381 1387 1387 1387 1387 1387 1387 1387 1387 1381 1381 1381 1381 1381 1381 1381 1381 1381 1381 1381 1381 1376 1376 1376 1376 1376 1370 1370 1370 1370 1376 1376 1376 1376 1376 1370 1370 1370 1370 1370 1370 1370 1365 1365 1365 1365 1365 1365 1365 1365 1365 1365 1359 1359 1359 1359 1359 1359 1359 1359 1359 1359 1359 1359 1354 1354 1354 1354 1354 1359 1359 1359 1359 1359 1359 1354 1354 1354 1359 1359 1359 1359 1359 1359 1359 1359 1359 1359 1359 1359 1359 1359 1359 1359 1359 1354 1354 1343 1343 1338 1338 1338 1338 1338 1338 1338 1338 1343 1343 1354 1354 1354 1354 1445 1445 1445 1445 1445 1445 1445 1445 1445 1445 1445 1445 1445 1445 1445 1439 1439 1445 1445 1445 1445 1439 1439 1439 1439 1439 1433 1433 1433 1433 1433 1433 1433 1433 1427 1427 1427 1427 1427 1427 1421 1421 1421 1421 1421 1421 1245 1245 1245 1241 1241 1241 1241 1241 1241 1241 1241 1241 1245 1250 1250 1255 1255 1259 1264 1421 1415 1415 1421 1421 1421 1421 1415 1415 1415 1421 1415 1415 1415 1415 1415 1415 1415 1415 1415 1415 1415 1415 1415 1415 1415 1415 1415 1415 1410 1410 1410 1410 1410 1410 1415 1415 1410 1410 1410 1415 1415 1415 1415 1415 1415 1415 1415 1415 1410 1410 1410 1410 1410 1410 1410 1410 1410 1410 1410 1415 1415 1415 1415 1415 1415 1415 1415 1415 1410 1410 1410 1410 1410 1410 1410 1415 1415 1415 1415 1410 1410 1415 1415 1415 1410 1410 1410 1410 1410 1415 1415 1415 1415 1415 1415 1415 1415 1415 1410 1410 1410 1410 1410 1410 1415 1415 1415 1181 1181 1189 1189 1189 1189 1189 1189 1189 1189 1189 1185 1185 1189 1189 1189 1189 1197 1197 1410 1410 1410 1410 1410 1410 1410 1410 1415 1410 1410 1410 1410 1410 1415 1410 1410 1410 1410 1410 1410 1404 1404 1410 1410 1410 1410 1410 1410 1415 1415 1410 1410 1410 1410 1404 1404 1404 1404 1404 1410 1410 1410 1410 1410 1410 1404 1404 1404 1410 1410 1410 1410 1410 1410 1410 1410 1410 1410 1410 1404 1398 1392 1392 1387 1381 1381 1376 1376 1376 1376 1376 1376 1376 1376 1376 1370 1370 1370 1376 1381 1381 1387 1392 1392 1398 1392 1392 1392 1387 1387 1387 1387 1387 1387 1392 1387 1387 1387 1387 1392 1398 1398 1398 1398 1404 1404 0 0 0 0 0 0 0 0 0 0 3692 3692 3692 3692 3692 3692 3692 3732 3732 0 0 0 0 0 0 3653 3653 3653 3653 3653 3653 3653 3653 3692 3692 3692 3692 3692 3692 3692 3692 3692 3692 3692 3692 3692 3692 3692 3692 0 0 0 0 0 0 0 0 0 0 0 0 0 0 0 0 0 0 0 0 0 0 0 0 0 0 0 0 0 3149 3120 3120 3149 3149 3149 3149 3149 3120 3120 3120 3120 3120 3120 3120 3120 3120 3120 3120 3120 3120 3120 3120 3092 3092 3120 3120 3092 3064 3037 3037 2984 2984 3010 0 0 0 0 0 0 0 0 0 0 0
0 0 0 0 0 0 0 0 0 0 0 0 0 0 0 0 0 0 0 0 0 0 0 0 0 0 0 0 0 0 0 3433 3433 3433 3433 3433 3433 3468 3468 3468 3468 3468 3468 3468 3468 3468 3433 3433 3399 3365 3365 3365 3365 3399 3399 3433 3468 3468 3433 3433 3468 3468 3468 3468 3468 3468 3468 3468 3468 3468 3468 3468 3503 3468 3468 3468 3468 3468 3503 3468 3468 3468 3433 3433 3433 3433 3433 0 0 0 0 0 0 1376 1376 1381 1381 1381 1381 1381 1381 1381 1381 1387 1387 1387 1387 1387 1387 1387 1387 1387 1387 1387 1387 1387 1381 1381 1381 1381 1381 1381 1381 1381 1381 1381 1381 1381 1376 1376 1376 1370 1370 1370 1370 1376 1376 1376 1376 1376 1376 1376 1370 1370 1370 1370 1370 1370 1370 1370 1370 1365 1365 1365 1365 1365 1365 1359 1359 1359 1359 1359 1359 1359 1359 1359 1359 1359 1359 1354 1354 1354 1354 1354 1359 1359 1359 1359 1359 1359 1359 1359 1359 1359 1359 1359 1359 1359 1359 1359 1359 1359 1359 1359 1359 1359 1359 1359 1359 1359 1354 1354 1349 1343 1343 1338 1338 1338 1338 1338 1338 1338 1343 1343 1354 1354 1354 1354 1445 1445 1445 1445 1445 1445 1445 1445 1445 1445 1445 1445 1445 1445 1445 1445 1445 1445 1445 1445 1445 1445 1445 1439 1439 1439 1433 1433 1433 1433 1433 1433 1433 1433 1427 1427 1427 1427 1427 1427 1421 1421 1421 1415 1415 1415 1245 1245 1245 1245 1245 1245 1245 1241 1241 1241 1241 1241 1250 1250 1255 1255 1259 1268 1421 1415 1415 1415 1415 1415 1415 1415 1415 1415 1415 1415 1415 1415 1415 1415 1415 1415 1415 1415 1415 1415 1415 1415 1415 1415 1415 1415 1410 1410 1410 1410 1410 1410 1410 1410 1410 1410 1410 1410 1410 1410 1410 1410 1410 1410 1415 1415 1415 1410 1404 1404 1410 1410 1410 1410 1410 1410 1404 1404 1404 1410 1410 1410 1410 1410 1410 1410 1410 1410 1410 1410 1410 1410 1404 1404 1410 1410 1410 1410 1410 1410 1410 1410 1410 1410 1404 1404 1404 1404 1404 1404 1404 1410 1410 1410 1410 1410 1410 1410 1410 1410 1410 1410 1404 1404 1398 1398 1398 1193 1193 1189 1189 1189 1189 1189 1189 1189 1189 1189 1189 1189 1189 1189 1189 1193 1197 1197 1398 1398 1398 1398 1398 1404 1404 1404 1404 1404 1404 1404 1404 1410 1404 1404 1398 1398 1404 1398 1398 1398 1398 1404 1404 1404 1404 1404 1404 1404 1404 1398 1398 1404 1404 1398 1398 1398 1404 1404 1404 1398 1398 1404 1404 1398 1398 1398 1398 1398 1404 1404 1404 1404 1404 1404 1404 1404 1404 1404 1398 1392 1387 1381 1376 1370 1370 1370 1370 1370 1370 1370 1370 1370 1370 1370 1370 1365 1365 1370 1370 1376 1376 1381 1381 1387 1381 1381 1381 1381 1381 1381 1381 1381 1387 1387 1381 1381 1381 1387 1387 1387 1392 1392 1392 1392 1398 1398 0 0 0 0 0 0 0 0 0 3692 3692 3692 3692 3692 3692 3692 3692 3653 3653 3653 0 0 0 3653 3653 3653 3653 3653 3653 3653 3653 3653 3653 3653 3653 3653 3653 3692 3692 3692 3692 3692 3692 3692 3692 3692 3692 3692 0 0 0 0 0 0 0 0 0 0 0 0 0 0 0 0 0 0 0 0 0 0 0 0 0 0 0 0 3149 3149 3120 3120 3149 3149 3120 3120 3120 3120 3120 3120 3120 3120 3120 3120 3120 3120 3120 3120 3120 3120 3120 3120 3092 3092 3120 3120 3092 3064 3037 3037 3010 3010 3010 0 0 0 0 0 0 0 0 0 0 0
0 0 0 0 0 0 0 0 0 0 0 0 0 0 0 0 0 0 0 0 0 0 0 0 0 0 0 0 0 0 0 3468 3468 3433 3433 3433 3433 3433 3433 3433 3433 3433 3433 3433 3468 3433 3399 3399 3399 3365 3365 3365 3365 3399 3399 3433 3468 3468 3433 3433 3433 3433 3433 3433 3468 3468 3468 3468 3468 3468 3468 3468 3468 3468 3468 3468 3468 3468 3468 3468 3433 3433 3433 3433 3433 3433 3433 3433 0 0 0 0 0 1376 1376 1381 1381 1381 1381 1381 1381 1381 1387 1387 1387 1387 1392 1392 1392 1392 1392 1392 1387 1387 1387 1387 1387 1381 1381 1381 1381 1381 1381 1381 1381 1381 1381 1381 1381 1376 1376 1376 1376 1376 1376 1376 1376 1376 1376 1376 1376 1376 1370 1370 1370 1370 1370 1370 1370 1370 1370 1370 1370 1365 1365 1365 1370 1359 1359 1359 1359 1359 1359 1359 1359 1359 1359 1359 1359 1359 1359 1359 1359 1359 1359 1359 1359 1359 1359 1359 1359 1359 1359 1359 1359 1359 1359 1359 1359 1359 1359 1359 1359 1359 1359 1359 1359 1359 1359 1359 1354 1354 1354 1349 1343 1338 1338 1338 1338 1338 1338 1338 1343 1343 1354 1354 1354 1354 1445 1445 1445 1445 1445 1445 1445 1445 1445 1445 1445 1445 1445 1445 1445 1445 1445 1445 1445 1445 1445 1445 1445 1439 1439 1439 1433 1433 1433 1433 1433 1433 1433 1433 1433 1427 1427 1427 1427 1427 1421 1421 1421 1415 1415 1415 1415 1245 1245 1245 1245 1245 1245 1241 1241 1241 1241 1241 1250 1255 1255 1255 1259 1268 1421 1415 1415 1415 1415 1415 1415 1415 1415 1415 1415 1415 1415 1415 1415 1415 1415 1415 1415 1415 1415 1415 1415 1415 1415 1415 1415 1410 1410 1410 1410 1410 1410 1410 1410 1410 1410 1410 1410 1410 1410 1410 1410 1410 1410 1410 1410 1410 1410 1410 1404 1404 1404 1404 1404 1404 1404 1404 1398 1398 1398 1398 1398 1404 1404 1404 1404 1404 1404 1404 1404 1404 1404 1404 1404 1404 1404 1404 1404 1404 1404 1404 1404 1404 1404 1404 1404 1398 1398 1392 1392 1392 1398 1398 1404 1404 1404 1410 1410 1410 1404 1404 1398 1392 1392 1392 1392 1392 1392 1392 1189 1189 1189 1189 1193 1193 1193 1193 1189 1189 1189 1189 1189 1189 1189 1193 1197 1392 1392 1392 1392 1392 1392 1398 1398 1404 1404 1398 1398 1404 1404 1404 1392 1392 1392 1392 1392 1392 1392 1392 1392 1398 1398 1398 1398 1398 1398 1398 1392 1392 1392 1392 1392 1387 1387 1392 1392 1392 1392 1392 1392 1392 1392 1387 1387 1387 1387 1392 1398 1398 1398 1398 1398 1398 1398 1392 1392 1398 1387 1387 1376 1370 1365 1365 1365 1365 1365 1365 1365 1365 1365 1365 1365 1365 1365 1365 1365 1365 1365 1365 1365 1365 1365 1365 1365 1365 1370 1370 1370 1370 1376 1376 1381 1381 1376 1376 1381 1381 1381 1381 1381 1381 1381 1381 1376 1376 0 0 0 0 0 0 0 0 0 3732 3692 3692 3692 3692 3692 3692 3692 3653 3653 3653 0 0 0 3653 3653 3653 3653 3653 3653 3653 3653 3653 3653 3653 3653 3653 3653 3653 3653 3653 3653 3653 3692 3692 3692 3692 3692 3064 3064 3064 3064 0 0 0 0 0 0 0 0 0 0 0 0 0 0 0 0 0 0 0 0 0 0 0 0 0 0 3120 3120 3120 3120 3120 3120 3120 3120 3120 3120 3120 3120 3092 3092 3092 3120 3120 3120 3120 3120 3120 3120 3120 3120 3120 3120 3120 3092 3064 3037 3037 3010 3010 3010 0 0 0 0 0 0 0 0 0 0 0
0 0 0 0 0 0 0 0 0 0 0 0 0 0 0 0 0 0 0 0 0 0 0 0 0 0 0 0 0 0 0 3468 3468 3433 3433 3433 3433 3433 3433 3433 3399 3399 3399 3399 3399 3399 3399 3399 3399 3365 3365 3365 3399 3399 3399 3433 3433 3433 3399 3399 3433 3433 3433 3433 3433 3433 3433 3433 3433 3433 3433 3433 3468 3468 3468 3468 3468 3468 3468 3468 3433 3433 3433 3433 3433 3433 3433 3433 0 0 0 0 0 0 1381 1381 1381 1381 1381 1381 1381 1381 1387 1387 1387 1392 1392 1392 1392 1392 1392 1392 1392 1392 1387 1387 1387 1387 1387 1387 1387 1387 1387 1387 1387 1387 1381 1381 1381 1381 1381 1376 1376 1376 1376 1381 1381 1376 1376 1376 1376 1376 1376 1376 1376 1376 1370 1370 1376 1376 1370 1370 1370 1370 1370 1370 1370 1365 1365 1359 1359 1359 1359 1359 1359 1359 1359 1359 1359 1359 1359 1359 1359 1359 1359 1359 1359 1359 1359 1359 1359 1359 1359 1359 1359 1359 1359 1359 1359 1359 1359 1359 1359 1359 1359 1359 1359 1359 1359 1359 1359 1354 1354 1354 1349 1343 1338 1338 1338 1338 1338 1338 1349 1349 1354 1354 1354 1354 1359 1445 1445 1445 1445 1445 1445 1445 1445 1445 1445 1445 1445 1445 1445 1445 1445 1445 1445 1445 1445 1445 1445 1439 1439 1439 1433 1433 1433 1433 1433 1433 1433 1433 1433 1433 1433 1433 1427 1427 1421 1421 1421 1415 1415 1415 1415 1245 1245 1245 1245 1245 1245 1245 1245 1245 1245 1245 1250 1255 1255 1259 1264 1268 1415 1415 1415 1415 1415 1415 1415 1415 1415 1415 1415 1415 1415 1415 1415 1415 1415 1415 1415 1415 1415 1415 1415 1415 1415 1415 1415 1410 1410 1410 1410 1410 1410 1410 1410 1410 1410 1410 1410 1410 1410 1410 1404 1404 1404 1410 1410 1410 1410 1410 1404 1404 1404 1404 1404 1404 1398 1398 1398 1398 1398 1398 1398 1398 1398 1398 1398 1398 1398 1404 1404 1404 1404 1404 1398 1398 1392 1392 1392 1392 1392 1392 1398 1392 1392 1398 1398 1392 1392 1392 1392 1392 1392 1392 1398 1398 1398 1398 1404 1398 1398 1398 1392 1392 1392 1392 1387 1387 1387 1387 1189 1189 1189 1189 1193 1193 1193 1193 1193 1193 1193 1193 1193 1193 1193 1193 1392 1392 1392 1387 1387 1392 1392 1392 1392 1398 1392 1387 1387 1392 1392 1392 1387 1387 1387 1387 1387 1381 1381 1387 1387 1387 1392 1387 1387 1387 1387 1387 1387 1387 1387 1387 1387 1387 1387 1387 1387 1387 1381 1381 1381 1381 1381 1381 1376 1376 1381 1381 1387 1387 1387 1387 1392 1392 1392 1387 1387 1387 1387 1376 1370 1365 1365 1365 1365 1365 1365 1365 1365 1365 1365 1365 1365 1359 1359 1359 1359 1359 1365 1359 1359 1359 1359 1359 1359 1365 1365 1365 1365 1365 1370 1376 1376 1376 1376 1376 1376 1376 1376 1376 1376 1376 1376 1370 1365 1365 1365 1365 1365 0 0 0 0 0 0 0 3692 3692 3653 3653 3653 3653 3653 3653 0 0 0 0 0 3653 3653 3653 3653 3653 3614 3614 3614 3653 3653 3653 3653 3614 3614 3614 3653 3653 3653 3653 3692 3692 3692 3692 3692 3064 3064 3064 3064 0 0 0 0 0 0 0 0 0 0 0 0 0 0 0 0 0 0 0 0 0 0 0 0 0 0 3092 3092 3092 3120 3120 3120 3120 3120 3120 3120 3120 3092 3092 3092 3092 3092 3120 3120 3120 3120 3120 3120 3120 3120 3120 3120 3120 3092 3092 3064 3064 3037 3010 3010 0 0 0 0 0 0 0 0 0 0 0
0 0 0 0 0 0 0 0 0 0 0 0 0 0 0 0 0 0 0 0 0 0 0 0 0 0 0 0 0 0 0 3433 3433 3433 3433 3399 3399 3399 3399 3399 3399 3399 3399 3399 3365 3365 3365 3365 3365 3365 3365 3399 3399 3399 3399 3433 3433 3433 3399 3399 3433 3399 3399 3433 3433 3433 3433 3433 3433 3433 3433 3433 3433 3433 3433 3433 3433 3433 3433 3433 3433 3433 3433 3433 3433 3433 3433 3433 0 0 0 0 0 0 1381 1381 1381 1381 1381 1381 1387 1387 1387 1387 1387 1392 1392 1392 1392 1398 1398 1398 1398 1392 1392 1387 1387 1387 1387 1387 1387 1387 1387 1387 1387 1387 1387 1381 1381 1381 1381 1381 1381 1381 1381 1381 1381 1381 1381 1376 1376 1376 1376 1376 1376 1376 1376 1376 1376 1376 1376 1376 1376 1370 1370 1370 1370 1365 1365 1359 1359 1359 1359 1359 1359 1365 1359 1359 1359 1359 1359 1359 1359 1359 1359 1359 1359 1359 1359 1359 1359 1359 1359 1359 1359 1359 1359 1359 1359 1359 1359 1359 1359 1359 1359 1359 1359 1359 1359 1359 1359 1359 1354 1354 1354 1343 1343 1338 1338 1338 1343 1343 1349 1349 1354 1354 1359 1359 1359 1452 1452 1452 1452 1452 1445 1445 1445 1452 1445 1445 1452 1452 1452 1452 1452 1452 1452 1445 1445 1445 1445 1439 1439 1439 1433 1433 1433 1433 1433 1439 1439 1433 1433 1433 1433 1433 1433 1427 1427 1427 1421 1415 1415 1415 1415 1245 1245 1250 1250 1250 1245 1245 1245 1245 1245 1245 1250 1255 1255 1259 1264 1268 1415 1415 1415 1415 1415 1415 1415 1415 1415 1415 1415 1415 1415 1415 1415 1415 1415 1415 1415 1415 1415 1415 1415 1415 1415 1415 1415 1410 1410 1410 1410 1410 1410 1410 1410 1410 1410 1410 1410 1410 1404 1404 1404 1404 1404 1410 1410 1410 1410 1410 1404 1404 1404 1404 1404 1398 1398 1398 1392 1392 1392 1392 1392 1392 1392 1392 1392 1398 1398 1398 1398 1404 1404 1404 1398 1398 1392 1392 1392 1392 1392 1392 1392 1392 1392 1398 1392 1392 1392 1392 1392 1392 1392 1392 1392 1392 1392 1398 1398 1398 1392 1392 1392 1392 1392 1392 1387 1387 1387 1387 1193 1189 1189 1189 1193 1193 1193 1193 1193 1193 1193 1193 1197 1193 1193 1193 1387 1387 1387 1387 1387 1387 1387 1387 1392 1392 1387 1387 1381 1381 1387 1381 1381 1381 1376 1376 1376 1376 1376 1376 1376 1376 1381 1381 1381 1381 1381 1381 1376 1376 1381 1381 1376 1376 1381 1381 1381 1381 1381 1376 1376 1376 1376 1376 1376 1376 1376 1376 1381 1381 1381 1381 1387 1387 1387 1381 1381 1381 1370 1370 1365 1365 1359 1359 1359 1359 1365 1359 1359 1359 1359 1359 1359 1359 1359 1359 1359 1359 1359 1354 1354 1354 1354 1359 1359 1359 1359 1365 1365 1365 1365 1370 1370 1376 1370 1370 1370 1370 1370 1365 1365 1365 1365 1365 1359 1359 1359 1359 1359 1359 0 0 0 0 0 0 0 0 3653 3653 3653 3653 3653 3653 0 0 0 0 3614 3614 3614 3614 3614 3614 3614 3614 3614 3614 3614 3614 3614 3614 3614 3614 3614 3614 3614 3614 3653 3653 3653 3653 3653 3064 3064 3064 3064 3064 0 0 0 0 0 0 0 0 0 0 0 0 0 0 0 0 0 0 0 0 0 0 0 0 0 3092 3064 3064 3120 3120 3120 3120 3120 3120 3120 3092 3064 3064 3064 3064 3092 3120 3120 3120 3120 3120 3120 3120 3120 3120 3120 3120 3092 3064 3037 3037 3037 3010 3010 0 0 0 0 0 0 0 0 0 0 0
0 0 0 0 0 0 0 0 0 0 0 0 0 0 0 0 0 0 0 0 0 0 0 0 0 0 0 0 0 0 0 3433 3433 3433 3399 3399 3399 3399 3365 3365 3365 3365 3365 3365 3333 3333 3333 3365 3365 3365 3365 3365 3399 3365 3365 3399 3399 3399 3399 3399 3399 3399 3399 3433 3399 3399 3399 3399 3399 3399 3399 3399 3399 3399 3399 3399 3399 3399 3399 3399 3399 3433 3433 3399 3399 3433 3433 3433 0 0 0 0 0 0 1381 1381 1381 1387 1387 1387 1387 1387 1387 1387 1387 1387 1392 1392 1398 1404 1398 1398 1398 1392 1392 1392 1392 1392 1387 1387 1387 1387 1387 1387 1387 1387 1387 1381 1381 1381 1381 1381 1381 1381 1381 1381 1381 1381 1381 1381 1381 1381 1376 1376 1376 1376 1376 1376 1376 1376 1376 1376 1376 1370 1370 1370 1370 1365 1365 1365 1365 1365 1365 1365 1365 1365 1365 1365 1359 1359 1365 1365 1365 1365 1365 1365 1365 1365 1365 1359 1359 1359 1359 1359 1359 1359 1359 1359 1365 1365 1359 1359 1359 1359 1359 1359 1359 1359 1359 1359 1359 1359 1359 1354 1354 1349 1343 1343 1343 1343 1343 1343 1349 1349 1354 1359 1359 1359 1365 1458 1458 1458 1452 1452 1452 1452 1452 1452 1452 1452 1452 1452 1458 1458 1458 1458 1452 1452 1452 1452 1452 1445 1445 1445 1439 1439 1439 1439 1439 1439 1439 1439 1439 1439 1439 1439 1433 1433 1433 1433 1427 1421 1421 1421 1250 1245 1245 1250 1250 1250 1250 1250 1250 1250 1250 1250 1250 1255 1255 1259 1264 1268 1415 1415 1415 1415 1415 1415 1415 1415 1415 1415 1415 1415 1415 1415 1415 1415 1415 1415 1415 1415 1415 1415 1415 1415 1415 1415 1415 1415 1410 1410 1410 1410 1410 1410 1410 1410 1410 1410 1410 1410 1404 1404 1404 1404 1404 1404 1404 1404 1410 1410 1404 1404 1404 1404 1398 1398 1398 1398 1392 1392 1392 1392 1392 1392 1392 1392 1392 1398 1398 1398 1398 1398 1398 1398 1392 1392 1392 1392 1392 1392 1392 1392 1392 1392 1392 1392 1392 1392 1392 1392 1392 1387 1387 1392 1392 1392 1392 1392 1392 1392 1392 1392 1392 1387 1387 1387 1387 1381 1381 1381 1193 1193 1193 1193 1193 1193 1193 1197 1193 1193 1197 1197 1197 1193 1193 1193 1381 1381 1387 1381 1381 1381 1381 1381 1387 1387 1381 1376 1376 1376 1381 1376 1376 1376 1376 1376 1370 1370 1370 1370 1370 1370 1370 1370 1370 1370 1376 1376 1370 1370 1370 1370 1370 1370 1370 1370 1376 1376 1370 1370 1370 1370 1370 1370 1370 1370 1370 1370 1370 1370 1370 1376 1376 1370 1370 1370 1370 1370 1365 1365 1365 1359 1359 1359 1359 1359 1359 1359 1359 1359 1359 1359 1359 1354 1354 1354 1354 1354 1354 1349 1349 1349 1349 1354 1354 1354 1359 1359 1359 1359 1359 1365 1365 1365 1365 1365 1365 1365 1359 1359 1359 1354 1354 1354 1354 1354 1354 1354 1354 1354 0 0 0 0 0 0 0 0 0 0 3653 3653 3653 0 0 0 0 3576 3576 3576 3576 3576 3576 3576 3576 3576 3576 3576 3576 3576 3576 3576 3576 3576 3576 3576 3614 3614 3614 3653 3653 3653 3653 3064 3064 3037 3037 3037 0 0 0 0 0 0 0 0 0 0 0 0 0 0 0 0 0 0 0 0 3149 3149 3149 3120 3120 3092 3064 3064 3120 3120 3120 3120 3120 3120 3120 3092 3064 3064 3064 3064 3092 3120 3120 3120 3120 3120 3120 3120 3120 3120 3120 3120 3092 3064 3037 3037 3037 3010 3010 0 0 0 0 0 0 0 0 0 0 0
0 0 0 0 0 0 0 0 0 0 0 0 0 0 0 0 0 0 0 0 0 0 0 0 0 0 0 0 0 0 0 3399 3399 3399 3365 3365 3365 3365 3365 3365 3365 3365 3365 3365 3333 3333 3333 3333 3365 3365 3365 3365 3365 3365 3365 3365 3365 3365 3365 3365 3365 3365 3399 3399 3365 3365 3365 3365 3365 3333 3333 3333 3333 3333 3333 3333 3333 3333 3365 3365 3399 3399 3399 3399 3399 3399 3399 3399 0 0 0 0 0 0 1387 1381 1381 1387 1387 1387 1387 1387 1387 1387 1387 1387 1392 1392 1398 1404 1404 1404 1398 1398 1398 1392 1392 1392 1392 1392 1392 1392 1392 1387 1387 1387 1387 1387 1387 1387 1387 1387 1387 1381 1381 1381 1381 1381 1381 1381 1381 1381 1381 1381 1381 1381 1376 1376 1376 1376 1376 1376 1376 1376 1376 1376 1376 1370 1370 1365 1365 1365 1365 1365 1365 1365 1365 1365 1365 1365 1365 1365 1365 1365 1365 1365 1365 1365 1365 1359 1359 1359 1359 1359 1359 1359 1359 1365 1365 1365 1365 1359 1359 1359 1359 1359 1365 1365 1365 1365 1365 1359 1359 1359 1354 1354 1349 1349 1349 1349 1349 1349 1349 1354 1354 1359 1359 1365 1370 1464 1458 1458 1452 1452 1452 1452 1452 1452 1452 1458 1458 1458 1458 1458 1458 1458 1452 1452 1452 1452 1452 1445 1445 1445 1439 1439 1439 1439 1439 1439 1445 1445 1445 1445 1439 1439 1439 1439 1439 1439 1439 1433 1433 1433 1250 1250 1250 1250 1250 1250 1250 1250 1250 1255 1255 1255 1255 1259 1264 1264 1268 1268 1421 1415 1415 1415 1415 1415 1415 1415 1415 1415 1415 1415 1415 1415 1415 1415 1415 1415 1415 1415 1415 1415 1415 1415 1415 1415 1415 1415 1415 1415 1415 1415 1415 1415 1415 1415 1415 1410 1410 1410 1404 1404 1404 1404 1404 1404 1404 1404 1410 1410 1404 1404 1404 1404 1398 1398 1398 1398 1398 1392 1392 1392 1392 1392 1392 1392 1392 1398 1398 1392 1392 1398 1398 1392 1392 1392 1392 1392 1392 1392 1392 1392 1392 1392 1392 1392 1392 1392 1392 1387 1387 1387 1387 1392 1392 1392 1392 1392 1392 1392 1387 1387 1387 1387 1387 1387 1387 1381 1381 1381 1197 1193 1193 1193 1193 1197 1197 1197 1197 1197 1197 1197 1197 1193 1193 1193 1197 1381 1381 1381 1381 1381 1381 1381 1381 1381 1381 1376 1370 1370 1376 1376 1370 1370 1370 1370 1370 1370 1370 1370 1365 1365 1365 1365 1370 1370 1370 1370 1370 1370 1370 1370 1365 1365 1370 1370 1370 1370 1370 1370 1370 1365 1365 1365 1365 1365 1365 1365 1365 1365 1365 1365 1365 1365 1365 1365 1365 1365 1365 1365 1359 1359 1359 1359 1359 1359 1359 1359 1359 1354 1354 1354 1354 1354 1349 1349 1349 1349 1349 1349 1349 1343 1343 1349 1349 1349 1354 1354 1354 1359 1359 1359 1359 1359 1359 1359 1354 1354 1354 1354 1349 1349 1349 1349 1349 1349 1349 1349 1343 1343 0 0 0 0 0 0 0 0 0 0 0 0 0 0 0 0 0 3576 3576 3576 3576 3576 3576 3576 3576 3576 3576 3576 3576 3576 3576 3576 3539 3539 3576 3576 3576 3576 3576 3576 3576 3614 3614 3064 3064 3037 3037 3037 0 0 0 0 0 0 0 0 0 0 3149 3149 0 0 0 0 0 0 0 3149 3149 3149 3149 3120 3120 3120 3092 3092 3120 3120 3120 3120 3092 3092 3120 3120 3092 3092 3092 3092 3120 3120 3120 3120 3120 3120 3120 3120 3120 3120 3120 3149 3120 3092 3092 3092 3092 3037 3037 0 0 0 0 0 0 0 0 0 0 0
0 0 0 0 0 0 0 0 0 0 0 0 0 0 0 0 0 0 0 0 0 0 0 0 0 0 0 0 0 0 0 3365 3365 3365 3365 3365 3365 3365 3365 3365 3365 3365 3365 3365 3365 3333 3333 3333 3365 3365 3365 3365 3365 3365 3365 3365 3365 3365 3365 3365 3365 3365 3365 3365 3365 3365 3333 3333 3333 3333 3333 3333 3333 3333 3333 3333 3333 3333 3333 3333 3365 3365 3365 3365 3365 3365 3365 3365 0 0 0 0 0 0 1381 1381 1381 1387 1387 1387 1387 1387 1387 1387 1387 1387 1392 1398 1404 1404 1404 1404 1404 1398 1398 1398 1398 1392 1392 1392 1398 1398 1392 1392 1387 1387 1387 1387 1387 1387 1387 1387 1387 1381 1381 1381 1381 1381 1381 1381 1381 1381 1381 1381 1381 1381 1381 1381 1376 1376 1376 1376 1376 1376 1376 1381 1381 1370 1370 1370 1370 1370 1365 1365 1365 1365 1365 1365 1365 1365 1365 1365 1365 1365 1365 1365 1365 1365 1365 1365 1365 1365 1359 1359 1359 1365 1365 1365 1365 1365 1365 1365 1365 1365 1365 1365 1365 1365 1365 1365 1365 1359 1359 1359 1359 1354 1354 1354 1354 1349 1349 1349 1354 1354 1354 1359 1359 1365 1477 1470 1464 1458 1458 1458 1458 1458 1458 1458 1458 1458 1458 1458 1458 1458 1458 1458 1458 1458 1458 1452 1452 1452 1452 1452 1445 1445 1445 1445 1445 1445 1445 1445 1445 1445 1445 1445 1445 1439 1439 1439 1439 1439 1439 1439 1250 1250 1255 1255 1255 1255 1255 1250 1250 1255 1255 1255 1255 1259 1264 1264 1268 1421 1421 1421 1421 1421 1421 1421 1421 1421 1421 1421 1421 1421 1421 1421 1421 1421 1421 1421 1421 1415 1415 1415 1415 1415 1415 1415 1415 1415 1415 1415 1415 1415 1415 1415 1415 1415 1415 1415 1415 1415 1410 1410 1404 1404 1404 1404 1404 1404 1410 1410 1404 1404 1404 1404 1404 1398 1398 1398 1398 1398 1398 1398 1398 1398 1392 1392 1392 1392 1398 1392 1392 1392 1392 1392 1392 1392 1392 1392 1392 1392 1392 1392 1392 1392 1392 1392 1392 1392 1392 1387 1387 1387 1387 1387 1387 1387 1387 1392 1387 1387 1387 1387 1387 1387 1387 1387 1387 1381 1381 1197 1197 1197 1193 1193 1193 1197 1197 1197 1197 1197 1197 1197 1197 1193 1193 1197 1197 1381 1381 1381 1381 1381 1381 1381 1381 1381 1376 1370 1370 1370 1370 1370 1370 1370 1370 1370 1370 1365 1365 1365 1365 1365 1365 1365 1365 1365 1365 1365 1365 1365 1365 1365 1365 1365 1365 1365 1365 1365 1365 1365 1365 1365 1365 1365 1365 1365 1365 1359 1359 1359 1359 1359 1359 1359 1359 1359 1359 1359 1359 1359 1359 1359 1359 1359 1354 1354 1359 1354 1354 1349 1349 1349 1349 1349 1349 1349 1349 1349 1349 1343 1343 1343 1343 1343 1343 1349 1349 1349 1354 1354 1349 1349 1354 1354 1354 1349 1349 1349 1349 1343 1343 1343 1343 1343 1343 1343 1343 1343 1343 1343 0 0 0 0 0 0 0 0 0 0 0 0 0 0 0 0 0 3539 3539 3539 3539 3576 3539 3539 3576 3539 3539 3539 3539 3539 3539 3539 3539 3539 3539 3539 3539 3576 3576 3576 3576 3576 3576 3064 3064 3037 3037 3037 0 0 0 0 0 0 0 0 3178 3178 3149 3149 3149 3238 3238 3269 0 0 3208 3149 3149 3149 3149 3149 3149 3120 3092 3092 3120 3120 3092 3092 3092 3092 3120 3120 3120 3120 3120 3120 3120 3149 3149 3149 3149 3149 3149 3149 3149 3149 3149 3149 3149 3149 3149 0 0 0 0 0 0 0 0 0 0 0 0 0 0 0
0 0 0 0 0 0 0 0 0 0 0 0 0 0 0 0 0 0 0 0 0 0 0 0 0 0 0 0 0 0 0 3365 3365 3365 3365 3333 3333 3333 3333 3333 3333 3333 3333 3333 3333 3333 3333 3365 3365 3365 3333 3333 3365 3365 3365 3333 3333 3333 3333 3365 3365 3365 3365 3365 3333 3333 3333 3300 3300 3333 3333 3333 3333 3333 3333 3333 3333 3333 3333 3333 3333 3365 3365 3365 3365 3365 3333 3333 3365 0 0 0 0 0 1381 1381 1387 1387 1387 1387 1387 1387 1387 1392 1392 1392 1398 1398 1404 1404 1404 1404 1404 1404 1398 1398 1398 1398 1398 1398 1398 1398 1398 1392 1392 1392 1387 1387 1387 1387 1387 1387 1387 1387 1387 1387 1387 1387 1387 1381 1381 1381 1381 1381 1381 1381 1381 1381 1381 1381 1376 1376 1376 1381 1381 1381 1381 1376 1376 1370 1370 1370 1370 1370 1365 1365 1365 1365 1370 1370 1370 1370 1370 1370 1370 1370 1370 1370 1370 1365 1365 1365 1365 1365 1365 1365 1365 1365 1365 1365 1365 1365 1365 1365 1365 1365 1370 1370 1370 1370 1365 1365 1359 1359 1359 1354 1354 1354 1354 1354 1354 1354 1354 1354 1354 1359 1359 1365 1483 1477 1464 1464 1464 1458 1458 1464 1464 1458 1458 1458 1464 1464 1464 1464 1464 1464 1458 1458 1458 1458 1458 1452 1452 1452 1445 1445 1445 1445 1445 1445 1445 1445 1445 1445 1445 1445 1445 1445 1445 1445 1439 1439 1439 1439 1255 1255 1255 1255 1255 1255 1255 1255 1255 1255 1255 1255 1255 1259 1264 1264 1268 1273 1421 1421 1421 1421 1421 1421 1421 1421 1421 1421 1421 1421 1421 1421 1421 1421 1421 1421 1421 1421 1415 1415 1415 1415 1415 1415 1421 1421 1421 1421 1421 1421 1421 1421 1415 1415 1415 1415 1415 1415 1415 1415 1415 1410 1410 1415 1410 1410 1410 1410 1404 1404 1404 1404 1404 1404 1404 1404 1398 1398 1398 1398 1398 1398 1392 1392 1392 1392 1398 1392 1392 1392 1392 1392 1392 1392 1392 1392 1392 1392 1392 1392 1392 1392 1392 1392 1392 1392 1392 1387 1387 1387 1387 1387 1387 1387 1387 1392 1387 1387 1387 1387 1387 1387 1387 1387 1387 1387 1387 1197 1197 1197 1197 1197 1197 1197 1197 1197 1197 1197 1197 1197 1197 1197 1197 1197 1202 1381 1381 1381 1381 1381 1381 1381 1381 1381 1376 1370 1365 1365 1370 1370 1365 1365 1365 1365 1365 1365 1365 1365 1365 1365 1365 1365 1365 1365 1365 1365 1365 1365 1365 1365 1365 1365 1365 1365 1365 1365 1365 1365 1365 1365 1365 1365 1359 1359 1359 1359 1359 1359 1359 1359 1359 1359 1359 1359 1359 1359 1359 1359 1354 1354 1354 1354 1354 1354 1354 1349 1349 1349 1349 1349 1343 1343 1343 1343 1343 1343 1343 1343 1343 1343 1343 1343 1343 1343 1349 1349 1349 1349 1349 1343 1343 1349 1349 1338 1338 1338 1338 1333 1333 1333 1333 1338 1338 1338 1338 1338 1338 1338 1338 0 0 0 0 0 0 0 0 0 0 0 0 0 0 0 3539 3539 3539 3539 3539 3539 3539 3539 3539 3539 3539 3539 3503 3503 3503 3503 3503 3503 3539 3539 3539 3539 3539 3539 3576 3576 3064 3064 3064 3064 3064 3064 3092 0 0 0 0 3269 3269 0 3178 3178 3149 3149 3149 3208 3238 3238 3238 3208 3208 3149 3149 3149 3149 3149 3149 3120 3092 3092 3120 3120 3092 3092 3092 3092 3149 3149 3149 3149 3149 3178 3178 3178 3178 3149 3149 3149 3149 3149 3149 3178 3178 3178 3300 3365 3365 0 0 0 0 0 0 0 0 0 0 0 0 0 0 0
0 0 0 0 0 0 0 0 0 0 0 0 0 0 0 0 0 0 0 0 0 0 0 0 0 0 0 0 0 0 0 3365 3365 3365 3333 3333 3333 3333 3333 3333 3333 3333 3333 3333 3333 3333 3333 3333 3333 3333 3333 3333 3333 3333 3333 3333 3333 3333 3333 3333 3365 3365 3365 3365 3333 3300 3300 3300 3300 3300 3300 3300 3300 3300 3333 3333 3333 3333 3333 3333 3333 3333 3333 3333 3333 3333 3333 3333 3333 0 0 0 0 0 0 1387 1387 1387 1387 1387 1387 1387 1392 1392 1392 1392 1392 1398 1404 1404 1404 1404 1404 1404 1404 1404 1398 1398 1398 1398 1398 1398 1398 1392 1392 1392 1387 1387 1387 1387 1387 1387 1387 1387 1387 1387 1387 1387 1387 1387 1387 1387 1381 1381 1387 1381 1381 1381 1381 1381 1381 1381 1381 1381 1381 1381 1381 1376 1376 1376 1376 1376 1370 1370 1370 1370 1370 1370 1370 1370 1370 1370 1370 1370 1370 1370 1370 1370 1370 1370 1370 1370 1370 1370 1370 1370 1370 1370 1370 1370 1370 1370 1370 1370 1370 1370 1370 1376 1376 1370 1370 1365 1359 1359 1359 1359 1354 1354 1354 1354 1354 1354 1354 1354 1354 1359 1359 1365 1370 1477 1470 1470 1470 1464 1464 1464 1464 1464 1464 1464 1464 1464 1464 1464 1464 1464 1464 1464 1464 1464 1464 1458 1458 1458 1452 1452 1452 1452 1445 1445 1445 1445 1445 1445 1445 1445 1445 1445 1445 1445 1445 1445 1445 1445 1255 1255 1255 1255 1255 1255 1255 1255 1255 1255 1255 1255 1255 1259 1259 1264 1268 1268 1268 1268 1421 1421 1421 1421 1421 1421 1421 1421 1421 1421 1421 1421 1421 1427 1427 1421 1421 1421 1415 1415 1415 1415 1415 1415 1421 1421 1421 1421 1421 1421 1421 1421 1421 1421 1421 1421 1421 1421 1415 1415 1415 1415 1415 1415 1410 1410 1410 1410 1404 1404 1404 1404 1404 1404 1404 1410 1410 1404 1404 1404 1404 1404 1398 1398 1398 1398 1398 1398 1398 1398 1398 1398 1398 1392 1392 1392 1392 1392 1392 1398 1398 1398 1398 1398 1392 1392 1392 1387 1387 1387 1387 1387 1387 1387 1392 1392 1392 1392 1387 1387 1387 1387 1387 1387 1387 1387 1387 1197 1197 1197 1197 1197 1197 1197 1197 1197 1202 1197 1197 1202 1202 1197 1197 1202 1381 1381 1381 1381 1381 1381 1381 1381 1381 1376 1376 1370 1365 1365 1370 1370 1365 1365 1365 1365 1365 1365 1365 1365 1365 1365 1365 1365 1365 1365 1365 1365 1365 1365 1365 1365 1359 1359 1365 1365 1359 1359 1359 1359 1359 1359 1359 1359 1359 1359 1359 1359 1359 1354 1354 1354 1354 1354 1354 1359 1359 1359 1359 1359 1354 1354 1354 1354 1354 1354 1354 1349 1343 1343 1343 1343 1343 1343 1343 1343 1343 1343 1343 1343 1343 1343 1343 1343 1343 1343 1343 1343 1343 1343 1343 1343 1343 1343 1343 1338 1333 1333 1333 1333 1333 1333 1333 1333 1338 1338 1338 1333 1333 1333 1333 0 0 0 0 0 0 0 0 0 0 0 0 0 3503 3503 3503 3503 3503 3539 3539 3539 3539 3539 3539 3539 3503 3503 3468 3468 3468 3468 3468 3468 3503 3539 3539 3539 3539 3539 3576 3614 3064 3064 3064 3064 3064 3064 3092 3178 3238 3269 3238 3238 3238 3208 3208 3178 3178 3178 3208 3208 3208 3208 3238 3178 3178 3149 3149 3149 3149 3149 3149 3149 3120 3120 3120 3120 3120 3120 3120 3149 3149 3178 3178 3208 3208 3238 3238 3238 3208 3208 3178 3178 3178 3208 3208 3333 3399 3365 3365 3365 3365 0 0 0 0 0 0 0 0 0 0 0 0 0 0 0
0 0 0 0 0 0 0 0 0 0 0 0 0 0 0 0 0 0 0 0 0 0 0 0 0 0 0 0 0 0 0 3365 3365 3333 3333 3333 3300 3300 3300 3300 3300 3333 3333 3333 3333 3333 3333 3333 3333 3333 3333 3333 3333 3333 3333 3333 3333 3333 3333 3333 3333 3333 3333 3333 3300 3300 3300 3300 3300 3300 3300 3300 3300 3300 3300 3300 3300 3300 3300 3300 3333 3333 3333 3333 3333 3333 3333 3333 3333 0 0 0 0 0 0 1398 1398 1392 1392 1392 1392 1392 1392 1392 1392 1392 1392 1398 1404 1404 1404 1404 1404 1404 1404 1404 1404 1398 1398 1398 1404 1398 1398 1398 1392 1392 1392 1387 1387 1392 1392 1392 1392 1392 1392 1387 1387 1387 1387 1387 1387 1387 1387 1387 1387 1381 1381 1381 1381 1381 1381 1381 1381 1381 1381 1387 1387 1381 1381 1376 1376 1376 1376 1376 1376 1370 1370 1370 1376 1376 1376 1376 1376 1376 1376 1370 1370 1370 1370 1370 1370 1370 1370 1370 1370 1370 1370 1370 1370 1370 1370 1370 1370 1370 1370 1376 1376 1376 1376 1376 1370 1365 1365 1359 1359 1359 1359 1354 1354 1354 1354 1354 1354 1354 1359 1359 1365 1365 1370 1477 1470 1470 1470 1470 1470 1470 1470 1470 1470 1470 1470 1470 1470 1470 1470 1470 1464 1464 1464 1464 1464 1458 1458 1464 1452 1452 1452 1452 1452 1452 1452 1452 1452 1452 1445 1445 1452 1445 1445 1445 1445 1445 1445 1445 1445 1255 1255 1255 1255 1255 1255 1255 1255 1255 1255 1255 1255 1259 1259 1264 1268 1268 1268 1268 1415 1415 1415 1421 1421 1421 1421 1264 1259 1259 1264 1264 1427 1255 1250 1250 1250 1250 1255 1415 1415 1415 1415 1415 1421 1421 1421 1421 1421 1421 1427 1427 1427 1421 1421 1421 1421 1421 1415 1415 1415 1415 1415 1415 1410 1410 1410 1410 1404 1404 1404 1404 1404 1404 1410 1410 1410 1410 1410 1404 1404 1404 1404 1398 1398 1398 1398 1398 1398 1398 1398 1398 1398 1398 1398 1392 1392 1398 1398 1398 1398 1398 1398 1398 1398 1398 1398 1398 1392 1392 1392 1392 1392 1392 1392 1392 1392 1392 1392 1392 1387 1387 1387 1387 1387 1392 1392 1392 1197 1197 1202 1202 1202 1202 1202 1202 1202 1202 1202 1202 1202 1206 1206 1206 1381 1381 1387 1387 1381 1381 1381 1381 1381 1376 1376 1370 1370 1370 1370 1370 1365 1365 1365 1365 1365 1365 1365 1365 1365 1365 1365 1365 1365 1365 1365 1365 1365 1365 1359 1359 1359 1359 1359 1359 1359 1359 1359 1359 1359 1359 1359 1359 1354 1354 1354 1354 1354 1354 1354 1354 1354 1354 1354 1354 1354 1354 1354 1354 1354 1354 1354 1354 1349 1349 1349 1349 1343 1343 1343 1343 1343 1343 1343 1343 1343 1343 1343 1343 1343 1343 1343 1343 1343 1343 1343 1343 1343 1343 1343 1343 1343 1343 1343 1338 1333 1333 1333 1328 1328 1328 1328 1333 1333 1333 1333 1333 1328 1328 1333 0 0 0 0 0 0 0 0 0 0 0 0 0 3503 3503 3503 3503 3503 3503 3503 3539 3503 3503 3503 3503 3503 3468 3468 3433 3433 3468 3468 3468 3468 3503 3503 3503 3503 3503 3576 3576 3092 3092 3092 3092 3092 3092 3149 3178 3238 3269 3238 3238 3238 3208 3208 3178 3178 3208 3208 3208 3208 3208 3238 3178 3178 3149 3149 3178 3178 3178 3178 3149 3149 3149 3149 3149 3120 3120 3149 3149 3178 3208 3238 3238 3238 3238 3269 3238 3208 3208 3208 3208 3208 3238 3238 3365 3399 3399 3399 3399 3399 3399 0 0 0 0 0 0 0 0 0 0 0 0 0 0
0 0 0 0 0 0 0 0 0 0 0 0 0 0 0 0 0 0 0 0 0 0 0 0 0 0 0 0 0 0 0 3333 3333 3333 3333 3300 3300 3300 3269 3269 3300 3300 3300 3300 3333 3333 3333 3333 3333 3333 3269 3269 3269 3300 3300 3300 3300 3300 3300 3300 3300 3300 3333 3333 3300 3300 3300 3300 3300 3300 3300 3300 3300 3300 3300 3300 3300 3300 3300 3300 3300 3300 3300 3300 3300 3300 3300 3300 3269 3269 0 0 0 0 0 1404 1404 1398 1398 1392 1392 1392 1392 1392 1392 1392 1392 1398 1404 1404 1404 1410 1410 1404 1404 1404 1404 1404 1404 1404 1404 1404 1404 1398 1398 1398 1398 1392 1392 1392 1392 1392 1392 1392 1392 1392 1387 1387 1387 1387 1392 1387 1387 1387 1387 1387 1387 1381 1381 1381 1381 1381 1381 1387 1387 1387 1387 1381 1381 1381 1376 1376 1376 1376 1376 1376 1376 1376 1376 1376 1376 1376 1376 1376 1376 1376 1370 1370 1376 1370 1370 1370 1370 1370 1370 1370 1370 1370 1370 1370 1370 1370 1370 1370 1370 1376 1376 1376 1376 1376 1376 1370 1365 1365 1359 1359 1359 1359 1359 1359 1354 1354 1354 1359 1359 1359 1365 1370 1370 1477 1470 1470 1470 1470 1470 1470 1470 1470 1470 1470 1470 1470 1470 1470 1470 1470 1464 1464 1470 1470 1464 1464 1464 1464 1458 1458 1458 1458 1458 1458 1458 1458 1458 1452 1452 1452 1452 1445 1445 1445 1445 1445 1445 1445 1445 1259 1259 1259 1259 1259 1259 1255 1255 1255 1259 1259 1259 1259 1264 1264 1268 1268 1268 1273 1273 1268 1268 1268 1268 1268 1264 1264 1259 1259 1264 1264 1264 1255 1250 1250 1250 1250 1255 1259 1259 1415 1415 1415 1421 1421 1250 1250 1255 1255 1255 1250 1250 1427 1245 1241 1241 1421 1250 1250 1250 1255 1415 1236 1236 1241 1245 1250 1250 1255 1404 1404 1404 1410 1410 1410 1410 1410 1410 1410 1410 1410 1404 1404 1398 1398 1398 1398 1404 1404 1404 1404 1404 1404 1404 1398 1398 1398 1398 1398 1398 1398 1404 1404 1398 1398 1404 1398 1398 1398 1398 1398 1392 1392 1392 1392 1392 1392 1392 1392 1392 1392 1392 1392 1392 1392 1392 1392 1202 1202 1206 1206 1206 1210 1202 1202 1202 1202 1202 1206 1206 1206 1210 1210 1387 1387 1387 1387 1387 1387 1387 1387 1381 1381 1381 1370 1370 1370 1370 1370 1370 1370 1370 1370 1370 1365 1365 1365 1365 1365 1365 1365 1365 1365 1365 1365 1365 1365 1359 1359 1359 1359 1359 1359 1359 1359 1359 1359 1359 1359 1359 1359 1354 1354 1354 1354 1354 1354 1354 1354 1354 1354 1354 1354 1354 1354 1354 1354 1354 1354 1354 1349 1349 1349 1349 1343 1343 1343 1343 1343 1343 1343 1343 1343 1343 1343 1343 1343 1343 1338 1338 1338 1338 1338 1338 1338 1338 1338 1338 1338 1338 1338 1338 1333 1333 1328 1328 1328 1328 1328 1328 1328 1328 1328 1328 1328 1328 1328 1328 0 0 0 0 0 0 0 0 0 0 0 0 0 3468 3468 3503 3503 3503 3503 3503 3503 3468 3468 3468 3468 3468 3468 3433 3433 3433 3433 3433 3433 3433 3468 3468 3468 3433 3433 3433 3149 3120 3120 3120 3120 3120 3120 3208 3238 3269 3269 3269 3269 3269 3238 3238 3208 3208 3208 3208 3208 3208 3238 3238 3178 3178 3149 3149 3149 3178 3178 3178 3178 3149 3149 3149 3149 3149 3149 3149 3149 3178 3238 3269 3238 3238 3269 3269 3238 3238 3238 3208 3208 3238 3269 3333 3399 3399 3399 3399 3399 3399 3399 3433 0 0 0 0 0 0 0 0 0 0 0 0 0
0 0 0 0 0 0 0 0 0 0 0 0 0 0 0 0 0 0 0 0 0 0 0 0 0 0 0 0 0 0 0 3333 3238 3238 3238 3238 3238 3269 3269 3269 3269 3300 3300 3300 3300 3333 3333 3333 3333 3269 3269 3238 3238 3269 3269 3269 3238 3238 3269 3269 3269 3269 3269 3300 3269 3269 3269 3269 3269 3269 3300 3269 3269 3269 3269 3269 3300 3300 3300 3300 3300 3300 3300 3269 3269 3269 3269 3269 3238 3238 0 0 0 0 0 1398 1398 1398 1398 1398 1398 1398 1398 1398 1398 1398 1398 1404 1404 1404 1404 1410 1410 1410 1404 1404 1404 1404 1404 1404 1404 1404 1404 1404 1404 1404 1404 1398 1398 1398 1398 1398 1398 1398 1392 1392 1392 1392 1392 1392 1392 1387 1387 1387 1387 1387 1387 1381 1381 1381 1381 1387 1387 1387 1387 1387 1387 1381 1381 1381 1381 1381 1376 1376 1376 1376 1376 1376 1376 1376 1376 1376 1376 1376 1376 1376 1376 1376 1376 1376 1376 1376 1376 1376 1370 1370 1370 1370 1370 1370 1370 1370 1370 1370 1376 1376 1376 1376 1376 1376 1376 1370 1365 1365 1359 1359 1359 1359 1359 1359 1354 1354 1354 1359 1359 1359 1365 1370 1370 1477 1470 1470 1470 1470 1470 1470 1470 1470 1470 1470 1470 1470 1470 1470 1470 1470 1470 1470 1470 1470 1470 1464 1464 1464 1458 1458 1458 1458 1458 1458 1458 1458 1458 1452 1452 1452 1452 1445 1445 1445 1445 1445 1439 1439 1439 1259 1259 1259 1259 1259 1259 1259 1259 1259 1259 1259 1259 1259 1264 1268 1268 1268 1273 1273 1273 1268 1268 1268 1268 1268 1264 1264 1264 1264 1264 1264 1264 1268 1259 1255 1255 1255 1255 1259 1259 1259 1259 1427 1255 1250 1250 1250 1250 1250 1250 1250 1250 1433 1245 1241 1241 1241 1241 1245 1245 1245 1245 1236 1236 1241 1245 1245 1245 1245 1245 1245 1404 1410 1410 1410 1410 1410 1415 1415 1410 1236 1236 1404 1398 1398 1398 1398 1404 1404 1404 1404 1404 1410 1404 1404 1404 1404 1404 1404 1404 1404 1404 1404 1404 1404 1410 1404 1404 1404 1404 1404 1398 1398 1398 1398 1398 1398 1398 1392 1392 1392 1392 1392 1392 1398 1398 1398 1202 1202 1206 1210 1210 1210 1206 1206 1206 1202 1202 1206 1206 1210 1210 1210 1219 1387 1387 1387 1387 1387 1387 1387 1387 1381 1381 1370 1370 1370 1370 1370 1370 1370 1370 1370 1370 1370 1370 1365 1365 1365 1365 1365 1365 1365 1365 1365 1365 1365 1365 1365 1365 1359 1359 1359 1359 1359 1359 1359 1359 1359 1359 1359 1359 1359 1359 1359 1354 1354 1354 1354 1354 1354 1354 1354 1354 1354 1354 1354 1354 1354 1354 1349 1349 1349 1349 1343 1343 1343 1343 1343 1343 1343 1343 1343 1343 1343 1343 1343 1343 1338 1338 1338 1338 1338 1338 1338 1338 1338 1338 1338 1338 1338 1338 1333 1333 1328 1328 1328 1328 1328 1328 1328 1328 1328 1328 1328 1328 1322 1322 1322 0 0 0 0 0 0 0 0 0 0 0 3433 3433 3433 3433 3433 3433 3433 3433 3433 3433 3433 3433 3433 3433 3433 3399 3399 3399 3399 3433 3433 3433 3433 3433 3433 3399 3300 3300 3149 3149 3149 3149 3149 3149 3149 3238 3238 3269 3269 3269 3269 3269 3238 3238 3238 3238 3238 3238 3238 3238 3238 3238 3178 3178 3149 3149 3149 3178 3178 3178 3178 3178 3178 3178 3178 3149 3149 3149 3178 3178 3238 3269 3269 3269 3269 3269 3238 3238 3238 3238 3238 3238 3269 3333 3365 3399 3399 3399 3365 3365 3365 3365 0 0 0 0 0 0 0 0 0 0 0 0 0
0 0 0 0 0 0 0 0 0 0 0 0 0 0 0 0 0 0 0 0 0 0 0 0 0 0 0 0 0 0 0 0 3208 3208 3208 3208 3208 3238 3238 3238 3269 3269 3269 3269 3269 3269 3269 3269 3269 3269 3238 3238 3238 3238 3238 3238 3238 3238 3238 3238 3269 3269 3269 3269 3269 3269 3269 3238 3238 3238 3238 3238 3238 3238 3269 3269 3269 3269 3269 3269 3269 3269 3269 3269 3269 3269 3269 3238 3208 3149 3149 0 0 0 0 1398 1398 1398 1398 1398 1398 1398 1404 1404 1404 1404 1404 1404 1410 1404 1404 1410 1410 1410 1404 1404 1404 1404 1404 1404 1404 1404 1404 1404 1404 1404 1404 1404 1404 1404 1404 1398 1398 1398 1398 1398 1392 1392 1392 1392 1398 1387 1387 1392 1392 1387 1387 1387 1387 1387 1387 1387 1387 1387 1387 1387 1387 1381 1381 1381 1381 1381 1381 1381 1376 1376 1376 1376 1376 1376 1376 1376 1376 1376 1376 1376 1376 1376 1376 1376 1376 1376 1376 1376 1376 1376 1370 1370 1370 1370 1370 1376 1376 1376 1376 1376 1376 1376 1376 1376 1376 1370 1365 1365 1359 1359 1359 1359 1359 1359 1359 1359 1359 1359 1359 1365 1365 1370 1370 1477 1470 1470 1470 1470 1470 1470 1470 1470 1470 1470 1470 1470 1470 1470 1470 1470 1470 1470 1470 1470 1470 1464 1464 1464 1458 1458 1458 1458 1458 1458 1458 1458 1458 1458 1452 1452 1452 1445 1445 1445 1445 1445 1439 1439 1439 1259 1259 1259 1259 1259 1259 1259 1259 1259 1259 1259 1259 1259 1264 1268 1268 1268 1273 1273 1273 1268 1268 1268 1268 1268 1264 1264 1264 1264 1264 1264 1264 1264 1259 1259 1259 1259 1259 1255 1255 1255 1255 1255 1255 1250 1250 1250 1250 1250 1250 1250 1250 1250 1245 1241 1241 1241 1241 1245 1245 1245 1245 1236 1236 1245 1245 1245 1245 1241 1241 1241 1241 1236 1236 1236 1236 1232 1232 1236 1232 1232 1236 1236 1236 1236 1236 1236 1236 1404 1410 1410 1410 1410 1404 1404 1404 1404 1404 1404 1404 1404 1404 1404 1404 1404 1410 1410 1404 1404 1404 1404 1404 1404 1404 1398 1398 1398 1398 1398 1392 1392 1392 1398 1398 1404 1410 1410 1202 1202 1206 1210 1210 1210 1210 1206 1206 1202 1202 1206 1206 1210 1214 1214 1219 1387 1387 1387 1387 1387 1387 1387 1387 1387 1381 1376 1376 1376 1376 1376 1376 1376 1370 1370 1370 1370 1370 1365 1365 1365 1365 1365 1365 1365 1365 1365 1365 1365 1365 1365 1365 1365 1365 1359 1359 1359 1359 1359 1359 1359 1359 1359 1359 1359 1359 1359 1354 1354 1354 1354 1354 1354 1354 1354 1354 1354 1354 1354 1354 1354 1354 1354 1349 1349 1349 1343 1343 1343 1343 1343 1343 1343 1343 1343 1343 1343 1343 1343 1343 1338 1338 1338 1338 1338 1338 1338 1338 1338 1338 1338 1338 1338 1338 1333 1328 1328 1328 1328 1328 1328 1328 1328 1328 1328 1328 1328 1328 1322 1322 1322 0 0 0 0 0 0 0 0 0 0 3433 3365 3365 3433 3433 3433 3399 3399 3399 3433 3433 3433 3433 3399 3399 3433 3399 3399 3399 3399 3399 3399 3399 3399 3365 3300 3300 3269 3238 3149 3149 3149 3149 3149 3178 3178 3238 3269 3269 3269 3269 3238 3238 3238 3238 3238 3238 3238 3238 3238 3238 3208 3208 3178 3178 3178 3178 3178 3178 3178 3208 3208 3208 3208 3238 3238 3178 3178 3178 3178 3238 3269 3269 3269 3269 3269 3269 3238 3238 3238 3238 3238 3238 3269 3365 3365 3365 3365 3365 3365 3365 3333 3333 0 0 0 0 0 0 0 0 0 0 0 0 0
0 0 0 0 0 0 0 0 0 0 0 0 0 0 0 0 0 0 0 0 0 0 0 0 0 0 0 0 0 0 0 0 3208 3208 3208 3208 3208 3208 3208 3238 3238 3238 3269 3269 3269 3269 3269 3238 3238 3238 3238 3238 3238 3208 3208 3208 3208 3208 3208 3208 3238 3238 3269 3269 3238 3238 3238 3208 3208 3208 3208 3208 3208 3238 3238 3238 3238 3238 3238 3238 3269 3269 3269 3269 3238 3238 3269 3238 3178 3120 3120 0 0 0 0 1404 1404 1404 1404 1404 1404 1404 1410 1410 1410 1410 1410 1410 1410 1415 1421 1427 1410 1410 1404 1404 1404 1404 1404 1404 1404 1404 1404 1404 1404 1404 1404 1404 1404 1404 1404 1404 1398 1398 1398 1398 1398 1398 1398 1392 1392 1387 1387 1387 1392 1392 1387 1387 1387 1387 1387 1387 1387 1387 1387 1387 1387 1381 1381 1381 1381 1381 1381 1381 1381 1376 1376 1381 1381 1381 1381 1381 1381 1381 1376 1376 1376 1376 1376 1376 1376 1376 1376 1376 1376 1376 1376 1376 1376 1376 1376 1376 1376 1376 1376 1376 1376 1376 1376 1376 1376 1370 1370 1370 1365 1365 1359 1359 1359 1359 1359 1359 1359 1359 1365 1365 1370 1370 1376 1376 1470 1470 1470 1470 1470 1470 1477 1477 1470 1470 1470 1470 1470 1470 1470 1470 1470 1470 1470 1470 1470 1470 1470 1470 1464 1464 1464 1464 1464 1464 1464 1458 1458 1458 1458 1452 1452 1452 1452 1452 1452 1445 1439 1439 1439 1259 1259 1259 1259 1264 1264 1259 1259 1259 1259 1259 1259 1264 1264 1268 1268 1268 1273 1273 1273 1268 1268 1268 1268 1268 1264 1264 1268 1268 1268 1264 1264 1264 1259 1259 1259 1259 1259 1255 1255 1255 1255 1255 1255 1250 1250 1250 1250 1250 1250 1250 1250 1250 1245 1245 1245 1245 1245 1245 1245 1245 1245 1245 1245 1245 1245 1245 1245 1241 1236 1236 1236 1236 1236 1236 1232 1232 1232 1236 1232 1232 1236 1236 1236 1236 1236 1236 1236 1236 1236 1236 1236 1236 1236 1232 1232 1236 1236 1236 1236 1236 1236 1241 1241 1236 1236 1236 1236 1236 1404 1404 1404 1404 1404 1398 1398 1398 1398 1398 1398 1398 1398 1398 1404 1410 1410 1410 1210 1210 1210 1210 1210 1210 1210 1210 1210 1210 1210 1210 1210 1210 1214 1214 1219 1387 1387 1387 1387 1387 1392 1387 1387 1387 1387 1381 1381 1381 1381 1381 1381 1376 1376 1370 1370 1370 1370 1365 1365 1365 1365 1365 1365 1365 1365 1365 1365 1365 1365 1365 1365 1365 1365 1365 1365 1359 1359 1359 1365 1365 1365 1365 1359 1359 1359 1359 1354 1354 1354 1354 1354 1354 1354 1354 1354 1354 1354 1354 1354 1354 1354 1354 1349 1349 1349 1343 1343 1343 1343 1343 1343 1343 1343 1343 1343 1343 1343 1343 1343 1338 1338 1338 1338 1338 1338 1338 1338 1338 1338 1338 1338 1338 1338 1333 1328 1328 1328 1333 1328 1328 1328 1328 1328 1328 1328 1328 1328 1322 1322 1322 0 0 0 0 0 0 0 0 0 3399 3399 3365 3365 3365 3365 3399 3399 3399 3399 3399 3399 3399 3399 3399 3399 3399 3399 3399 3399 3399 3365 3365 3333 3333 3300 3300 3300 3269 3238 3178 3149 3149 3149 3178 3178 3178 3238 3269 3269 3269 3269 3238 3238 3238 3238 3238 3238 3238 3238 3238 3238 3208 3208 3178 3178 3178 3178 3178 3178 3208 3208 3238 3238 3238 3238 3269 3269 3178 3178 3238 3269 3300 3269 3269 3269 3269 3269 3238 3238 3238 3238 3238 3238 3269 3300 3300 3300 3300 3300 3333 3300 3269 3269 0 0 0 0 0 0 0 0 0 0 0 0 0
0 0 0 0 0 0 0 0 0 0 0 0 0 0 0 0 0 0 0 0 0 0 0 0 0 0 0 0 0 0 0 0 3178 3178 3178 3208 3208 3208 3208 3208 3208 3238 3238 3238 3238 3238 3238 3238 3238 3238 3238 3238 3238 3208 3208 3208 3208 3208 3208 3208 3238 3238 3238 3238 3208 3208 3208 3208 3208 3208 3208 3208 3208 3208 3208 3208 3208 3238 3238 3238 3238 3269 3269 3269 3238 3238 3238 3208 3178 3120 3120 3149 0 0 0 0 1404 1404 1404 1404 1404 1410 1410 1410 1410 1410 1410 1410 1415 1421 1421 1427 1427 1415 1410 1404 1404 1404 1536 1529 1529 1536 1536 1536 1536 1404 1404 1404 1404 1404 1404 1404 1404 1404 1398 1398 1398 1398 1398 1392 1392 1387 1387 1387 1392 1392 1387 1387 1387 1387 1387 1381 1381 1387 1387 1387 1387 1381 1381 1381 1381 1381 1381 1381 1381 1381 1381 1381 1381 1381 1381 1381 1376 1376 1376 1376 1376 1376 1376 1376 1376 1376 1376 1376 1376 1376 1376 1376 1376 1376 1376 1376 1376 1376 1376 1376 1376 1376 1376 1376 1376 1376 1370 1370 1370 1370 1365 1365 1365 1365 1365 1359 1359 1359 1365 1365 1370 1376 1376 1376 1470 1470 1470 1470 1470 1477 1477 1477 1477 1470 1470 1470 1470 1470 1470 1470 1470 1470 1470 1470 1470 1470 1470 1470 1464 1464 1464 1464 1464 1464 1464 1464 1464 1458 1458 1458 1458 1458 1452 1452 1452 1458 1464 1464 1464 1264 1264 1264 1264 1264 1264 1264 1264 1264 1259 1259 1264 1268 1268 1268 1268 1273 1273 1268 1268 1268 1268 1268 1268 1268 1268 1268 1268 1264 1264 1264 1264 1264 1259 1259 1259 1259 1259 1255 1255 1255 1255 1255 1255 1255 1250 1250 1250 1250 1250 1250 1250 1250 1250 1250 1245 1245 1245 1245 1245 1245 1245 1245 1245 1245 1245 1245 1245 1241 1236 1236 1236 1236 1236 1236 1232 1232 1232 1236 1232 1232 1236 1236 1236 1236 1236 1236 1236 1236 1236 1236 1236 1236 1236 1232 1232 1236 1236 1236 1236 1236 1236 1241 1236 1232 1232 1232 1232 1232 1227 1227 1227 1404 1404 1404 1398 1398 1404 1398 1398 1398 1398 1404 1404 1410 1415 1415 1214 1214 1210 1210 1210 1210 1210 1210 1210 1210 1210 1210 1210 1210 1214 1214 1387 1387 1392 1392 1392 1392 1392 1392 1392 1392 1392 1387 1381 1381 1381 1381 1381 1381 1381 1381 1381 1381 1381 1381 1365 1365 1381 1381 1381 1376 1376 1376 1376 1376 1376 1376 1376 1376 1376 1365 1365 1365 1365 1365 1365 1365 1365 1365 1365 1365 1365 1365 1359 1359 1359 1359 1359 1359 1359 1359 1359 1359 1359 1359 1359 1359 1359 1359 1359 1349 1349 1349 1343 1343 1343 1343 1343 1343 1343 1343 1343 1343 1343 1343 1343 1338 1338 1338 1338 1338 1338 1338 1338 1343 1343 1343 1343 1338 1338 1333 1333 1328 1328 1333 1328 1328 1328 1328 1328 1328 1328 1328 1328 1322 1322 1322 0 0 0 0 0 0 0 0 3300 3300 3333 3333 3365 3365 3365 3399 3399 3399 3399 3399 3399 3399 3399 3399 3399 3399 3399 3399 3365 3365 3333 3333 3300 3300 3300 3300 3269 3269 3238 3178 3149 3149 3178 3208 3238 3238 3269 3269 3269 3269 3269 3238 3238 3238 3238 3238 3238 3238 3238 3238 3238 3238 3238 3208 3208 3178 3178 3208 3208 3238 3238 3269 3269 3269 3269 3300 3300 3300 3333 3333 3333 3333 3300 3300 3269 3269 3269 3238 3238 3238 3238 3238 3238 3269 3269 3300 3300 3300 3300 3300 3269 3269 3269 3269 0 0 0 0 0 0 0 0 0 0 0 0
0 0 0 0 0 0 0 0 0 0 0 0 0 0 0 0 0 0 0 0 0 0 0 0 0 0 0 0 0 0 0 0 3178 3178 3178 3178 3208 3208 3208 3208 3208 3208 3208 3208 3238 3208 3208 3208 3208 3208 3208 3208 3208 3208 3208 3208 3208 3208 3208 3208 3208 3208 3208 3208 3178 3178 3178 3178 3178 3178 3178 3208 3208 3208 3208 3208 3208 3208 3208 3238 3238 3238 3238 3238 3238 3238 3208 3208 3178 3149 3149 3149 0 0 0 0 0 1404 1404 1404 1404 1410 1410 1410 1410 1410 1410 1410 1415 1421 1427 1427 1427 1427 1410 1404 1404 1529 1529 1529 1529 1529 1529 1529 1529 1529 1529 1529 1536 1404 1404 1536 1536 1536 1536 1529 1529 1529 1529 1523 1523 1387 1387 1387 1392 1392 1392 1387 1387 1387 1387 1381 1381 1387 1387 1387 1387 1381 1381 1381 1381 1381 1381 1381 1381 1381 1381 1381 1381 1381 1381 1381 1376 1376 1376 1376 1376 1370 1370 1370 1370 1370 1376 1376 1376 1376 1376 1376 1376 1376 1376 1376 1376 1376 1376 1376 1376 1376 1376 1376 1376 1376 1370 1370 1370 1370 1365 1365 1365 1365 1365 1365 1365 1365 1365 1365 1370 1376 1381 1381 1470 1470 1470 1470 1477 1477 1477 1477 1477 1477 1470 1470 1470 1470 1470 1470 1470 1470 1470 1470 1470 1470 1470 1470 1464 1464 1464 1464 1464 1464 1464 1464 1464 1464 1458 1458 1458 1458 1458 1458 1458 1464 1464 1464 1464 1264 1264 1264 1264 1264 1264 1264 1264 1264 1264 1264 1264 1268 1268 1268 1268 1273 1273 1268 1268 1268 1268 1268 1268 1268 1268 1268 1268 1264 1264 1264 1264 1264 1259 1259 1259 1259 1259 1259 1255 1255 1255 1255 1255 1255 1250 1250 1250 1250 1250 1250 1250 1250 1250 1250 1250 1245 1245 1250 1245 1245 1245 1245 1245 1245 1245 1245 1241 1241 1236 1236 1236 1236 1236 1236 1236 1236 1236 1236 1232 1232 1236 1236 1236 1236 1236 1236 1236 1236 1236 1236 1236 1236 1236 1236 1236 1236 1236 1236 1236 1236 1236 1241 1236 1232 1232 1232 1232 1232 1227 1227 1227 1227 1232 1236 1236 1236 1241 1241 1245 1245 1245 1250 1410 1415 1232 1219 1214 1214 1214 1214 1210 1210 1210 1210 1210 1210 1210 1210 1210 1210 1214 1214 1214 1392 1398 1398 1398 1398 1398 1398 1398 1392 1392 1387 1387 1387 1387 1387 1387 1387 1387 1387 1387 1381 1381 1381 1381 1381 1381 1381 1381 1381 1381 1381 1376 1376 1381 1376 1376 1376 1376 1376 1376 1376 1370 1370 1376 1376 1376 1370 1370 1370 1365 1365 1365 1359 1359 1359 1359 1359 1359 1359 1359 1359 1365 1365 1359 1359 1359 1359 1359 1359 1359 1359 1359 1359 1359 1354 1354 1354 1354 1354 1354 1343 1343 1343 1343 1349 1343 1343 1343 1343 1343 1343 1343 1343 1343 1343 1343 1338 1338 1333 1333 1333 1333 1333 1333 1333 1333 1333 1333 1328 1328 1333 1333 1328 1322 1322 0 0 0 0 0 0 3300 3300 3300 3300 3333 3333 3365 3333 3333 3365 3365 3399 3399 3399 3399 3399 3399 3365 3365 3365 3365 3365 3365 3333 3333 3300 3300 3300 3300 3300 3269 3269 3238 3208 3178 3178 3178 3208 3238 3238 3269 3269 3269 3269 3269 3269 3269 3269 3269 3238 3238 3208 3208 3238 3238 3238 3238 3238 3238 3238 3238 3238 3238 3238 3269 3269 3269 3269 3300 3300 3333 3333 3333 3333 3333 3333 3300 3300 3300 3269 3269 3269 3269 3269 3269 3269 3269 3269 3269 3269 3269 3269 3269 3269 3269 3238 3238 3238 0 0 0 0 0 0 0 0 0 0 0 0
0 0 0 0 0 0 0 0 0 0 0 0 0 0 0 0 0 0 0 0 0 0 0 0 0 0 0 0 0 0 0 0 3178 3178 3178 3178 3208 3208 3208 3208 3208 3208 3208 3208 3208 3208 3208 3208 3208 3208 3208 3208 3208 3208 3178 3178 3178 3178 3178 3178 3178 3178 3178 3178 3178 3178 3178 3178 3178 3178 3178 3208 3208 3208 3208 3208 3208 3208 3208 3208 3208 3238 3238 3208 3208 3208 3208 3208 3178 3178 3178 3178 0 0 0 0 0 1404 1404 1410 1410 1410 1410 1410 1410 1410 1410 1415 1415 1421 1427 1427 1433 1433 1433 1529 1523 1523 1529 1529 1529 1529 1529 1529 1529 1529 1529 1529 1529 1536 1536 1536 1529 1529 1529 1529 1529 1529 1529 1529 1529 1529 1529 1529 1523 1392 1392 1387 1387 1516 1516 1523 1529 1529 1523 1516 1509 1509 1509 1509 1503 1381 1381 1381 1381 1381 1381 1381 1381 1381 1381 1381 1376 1376 1376 1376 1376 1370 1370 1370 1370 1370 1370 1370 1370 1370 1376 1376 1376 1376 1376 1381 1376 1376 1376 1376 1376 1376 1376 1376 1376 1376 1370 1370 1370 1370 1370 1370 1365 1365 1365 1365 1365 1365 1365 1365 1370 1376 1381 1381 1470 1470 1470 1470 1477 1477 1477 1477 1477 1477 1477 1470 1470 1470 1470 1470 1470 1470 1470 1470 1470 1470 1470 1470 1464 1464 1464 1464 1464 1464 1464 1464 1464 1464 1464 1464 1464 1458 1458 1458 1458 1464 1464 1470 1470 1264 1264 1264 1264 1264 1264 1268 1264 1264 1264 1264 1268 1268 1268 1273 1273 1273 1273 1273 1273 1268 1268 1268 1268 1268 1268 1268 1268 1264 1264 1264 1264 1264 1259 1259 1259 1259 1259 1259 1255 1255 1255 1255 1255 1255 1250 1250 1250 1250 1250 1250 1250 1250 1250 1250 1250 1245 1245 1250 1245 1245 1245 1245 1245 1245 1245 1245 1241 1236 1236 1236 1236 1232 1232 1236 1232 1232 1236 1236 1236 1236 1236 1236 1236 1236 1236 1236 1236 1236 1236 1236 1236 1236 1236 1236 1236 1236 1236 1232 1232 1236 1232 1232 1232 1232 1232 1232 1232 1232 1232 1227 1227 1227 1232 1236 1236 1236 1241 1241 1241 1241 1241 1245 1241 1236 1227 1219 1219 1214 1214 1214 1214 1214 1210 1210 1210 1210 1210 1210 1210 1210 1210 1210 1210 1392 1398 1398 1398 1398 1398 1398 1398 1398 1398 1387 1387 1387 1387 1387 1387 1387 1387 1387 1387 1387 1387 1387 1387 1387 1387 1387 1387 1387 1381 1381 1381 1381 1381 1381 1381 1381 1381 1381 1381 1376 1376 1376 1376 1376 1376 1376 1370 1370 1365 1365 1365 1365 1365 1365 1365 1365 1365 1365 1365 1365 1365 1365 1365 1359 1359 1359 1359 1359 1359 1359 1359 1359 1359 1359 1359 1359 1359 1359 1359 1359 1354 1354 1354 1354 1349 1349 1349 1349 1349 1343 1343 1343 1343 1343 1343 1343 1343 1338 1338 1333 1333 1333 1333 1333 1333 1333 1333 1333 1333 1333 1333 1328 1328 1328 0 0 0 0 0 0 3300 3300 3300 3300 3333 3333 3333 3333 3333 3365 3365 3365 3365 3399 3399 3399 3399 3365 3365 3365 3365 3333 3333 3333 3300 3300 3300 3300 3300 3300 3300 3269 3269 3238 3208 3208 3208 3238 3238 3238 3269 3269 3269 3269 3269 3269 3269 3269 3269 3269 3238 3208 3208 3238 3238 3238 3238 3238 3238 3238 3269 3269 3269 3269 3269 3269 3269 3300 3300 3300 3333 3333 3333 3333 3300 3300 3300 3269 3269 3269 3269 3238 3238 3269 3269 3269 3269 3269 3269 3269 3269 3269 3269 3269 3269 3238 3238 3238 3238 0 0 0 0 0 0 0 0 0 0 0
0 0 0 0 0 0 0 0 0 0 0 0 0 0 0 0 0 0 0 0 0 0 0 0 0 0 0 0 0 0 0 0 3178 3178 3178 3178 3208 3208 3208 3178 3178 3178 3178 3178 3178 3178 3178 3178 3178 3178 3178 3178 3178 3178 3178 3178 3178 3178 3178 3149 3149 3149 3149 3149 3149 3149 3149 3149 3178 3178 3178 3178 3178 3208 3208 3208 3208 3208 3208 3208 3208 3208 3208 3208 3208 3208 3208 3208 3178 3178 3178 3178 0 0 0 0 0 1410 1410 1410 1410 1410 1410 1410 1410 1410 1410 1415 1415 1421 1427 1427 1433 1433 1433 1529 1523 1523 1529 1529 1529 1529 1529 1529 1529 1529 1529 1529 1529 1529 1529 1529 1529 1529 1529 1529 1529 1529 1529 1529 1529 1529 1529 1523 1523 1516 1516 1516 1516 1516 1516 1516 1523 1523 1523 1516 1509 1509 1509 1509 1503 1503 1503 1381 1381 1381 1381 1381 1381 1381 1381 1503 1503 1503 1503 1503 1503 1503 1503 1503 1503 1370 1370 1370 1370 1370 1376 1376 1376 1381 1381 1381 1376 1376 1376 1376 1376 1376 1376 1376 1376 1376 1376 1370 1370 1376 1370 1370 1365 1365 1365 1365 1365 1365 1370 1370 1370 1376 1381 1381 1398 1470 1470 1470 1477 1477 1477 1477 1477 1477 1477 1477 1470 1470 1470 1470 1470 1470 1470 1470 1470 1470 1470 1470 1464 1464 1464 1464 1464 1464 1464 1464 1464 1464 1464 1464 1464 1458 1458 1458 1458 1464 1464 1470 1470 1470 1268 1268 1268 1268 1268 1268 1268 1268 1268 1268 1268 1268 1268 1273 1273 1273 1273 1273 1273 1273 1268 1268 1268 1268 1268 1268 1268 1264 1264 1264 1264 1264 1259 1259 1259 1259 1259 1259 1255 1255 1259 1259 1255 1255 1255 1255 1250 1250 1250 1250 1250 1250 1250 1250 1250 1250 1250 1250 1245 1245 1245 1245 1245 1245 1245 1245 1241 1236 1236 1236 1236 1232 1232 1236 1232 1232 1236 1236 1236 1236 1236 1236 1236 1236 1232 1232 1236 1232 1232 1232 1236 1236 1236 1236 1236 1236 1236 1232 1232 1232 1232 1232 1232 1232 1232 1232 1232 1232 1236 1232 1232 1232 1232 1236 1236 1236 1236 1236 1236 1236 1236 1241 1236 1236 1227 1223 1223 1219 1214 1214 1214 1214 1214 1214 1214 1214 1214 1214 1214 1214 1210 1210 1210 1398 1398 1398 1398 1398 1404 1398 1398 1398 1398 1387 1387 1387 1387 1387 1387 1387 1387 1387 1387 1387 1387 1387 1387 1387 1387 1387 1387 1387 1387 1381 1381 1381 1381 1381 1381 1381 1381 1381 1381 1376 1376 1381 1376 1376 1376 1376 1370 1370 1370 1370 1370 1365 1365 1365 1365 1365 1365 1365 1365 1365 1365 1365 1365 1365 1365 1365 1359 1359 1359 1359 1359 1359 1359 1359 1359 1359 1359 1359 1359 1359 1359 1359 1359 1354 1354 1354 1349 1349 1349 1349 1349 1343 1343 1343 1343 1343 1343 1338 1338 1338 1338 1333 1333 1333 1333 1333 1333 1333 1333 1333 1333 1333 0 0 0 0 0 3300 3300 3300 3300 3300 3300 3333 3333 3333 3333 3333 3333 3365 3365 3365 3365 3365 3399 3365 3365 3365 3365 3365 3333 3333 3333 3333 3300 3300 3300 3300 3300 3300 3269 3269 3269 3208 3178 3178 3208 3208 3238 3238 3238 3269 3269 3269 3269 3269 3269 3269 3269 3269 3269 3238 3238 3238 3238 3238 3238 3238 3238 3238 3269 3269 3269 3269 3269 3269 3300 3300 3300 3300 3300 3300 3300 3300 3300 3269 3269 3269 3269 3269 3269 3238 3238 3269 3238 3238 3238 3238 3269 3269 3269 3269 3269 3269 3269 3238 3238 3238 3238 0 0 0 0 0 0 0 0 0 0 0
0 0 0 0 0 0 0 0 0 0 0 0 0 0 0 0 0 0 0 0 0 0 0 0 0 0 0 0 0 0 0 0 3178 3178 3178 3178 3178 3178 3178 3149 3149 3149 3149 3149 3149 3178 3149 3149 3149 3149 3178 3178 3178 3178 3178 3178 3178 3178 3178 3149 3149 3149 3149 3149 3120 3120 3120 3120 3149 3149 3149 3178 3178 3178 3178 3178 3178 3208 3208 3178 3178 3178 3178 3178 3178 3178 3178 3178 3178 3178 3120 3120 0 0 0 0 0 1410 1410 1410 1410 1410 1410 1410 1410 1410 1410 1415 1415 1421 1427 1427 1433 1433 1433 1433 1529 1529 1529 1529 1529 1529 1529 1529 1529 1529 1529 1529 1529 1529 1529 1529 1529 1529 1529 1529 1529 1529 1529 1529 1529 1529 1529 1523 1523 1516 1516 1516 1516 1516 1516 1516 1523 1516 1516 1516 1509 1509 1509 1509 1503 1503 1503 1503 1509 1503 1503 1503 1503 1503 1503 1503 1503 1503 1503 1503 1503 1503 1503 1503 1503 1503 1503 1503 1503 1376 1376 1503 1503 1503 1503 1496 1496 1496 1496 1496 1496 1496 1496 1496 1489 1489 1489 1376 1376 1376 1376 1376 1370 1370 1370 1365 1365 1370 1370 1370 1370 1376 1381 1381 1398 1404 1470 1470 1477 1477 1477 1477 1477 1477 1477 1477 1470 1470 1470 1470 1470 1470 1470 1470 1470 1470 1470 1470 1464 1464 1464 1464 1464 1464 1464 1464 1464 1464 1464 1464 1464 1464 1464 1464 1464 1464 1464 1470 1470 1273 1268 1268 1268 1268 1268 1268 1268 1268 1268 1268 1268 1268 1268 1273 1273 1273 1273 1273 1273 1273 1273 1273 1268 1268 1268 1268 1268 1268 1268 1268 1268 1264 1264 1264 1264 1259 1259 1259 1255 1255 1259 1259 1255 1255 1255 1255 1255 1255 1250 1250 1250 1250 1250 1250 1250 1250 1250 1250 1250 1245 1245 1245 1245 1245 1245 1245 1245 1241 1241 1236 1236 1236 1236 1236 1232 1232 1236 1236 1236 1236 1236 1236 1236 1236 1232 1232 1232 1232 1232 1232 1236 1236 1236 1236 1236 1236 1236 1236 1232 1232 1232 1232 1232 1232 1232 1232 1232 1232 1232 1236 1232 1232 1236 1236 1236 1236 1236 1236 1236 1236 1236 1236 1236 1236 1232 1227 1227 1219 1219 1214 1214 1214 1214 1214 1214 1214 1214 1214 1214 1214 1210 1210 1210 1398 1404 1404 1404 1404 1404 1398 1398 1398 1398 1392 1387 1387 1392 1387 1387 1387 1387 1392 1387 1387 1387 1387 1387 1387 1387 1387 1387 1387 1387 1387 1381 1381 1381 1381 1381 1381 1381 1381 1381 1376 1376 1381 1376 1376 1376 1376 1376 1376 1370 1370 1370 1370 1370 1370 1370 1370 1370 1370 1370 1370 1370 1370 1365 1365 1365 1365 1365 1365 1365 1365 1365 1365 1359 1359 1359 1359 1359 1359 1359 1359 1359 1359 1359 1354 1354 1354 1354 1354 1354 1349 1349 1349 1349 1343 1343 1343 1343 1338 1338 1338 1338 1333 1333 1333 1333 1333 1333 1333 1333 1333 1333 0 0 0 0 0 0 3300 3300 3300 3300 3300 3300 3300 3300 3300 3333 3333 3333 3333 3333 3333 3333 3333 3333 3333 3333 3333 3333 3333 3333 3300 3300 3300 3300 3300 3300 3269 3269 3269 3269 3238 3238 3178 3178 3178 3208 3208 3238 3238 3238 3269 3269 3269 3269 3269 3269 3269 3269 3269 3269 3238 3238 3238 3238 3238 3269 3238 3238 3238 3269 3269 3269 3269 3269 3269 3300 3300 3300 3300 3300 3300 3300 3300 3300 3269 3269 3269 3269 3269 3269 3238 3238 3238 3238 3238 3238 3238 3238 3269 3269 3269 3269 3269 3238 3238 3238 3208 3208 0 0 0 0 0 0 0 0 0 0 0
0 0 0 0 0 0 0 0 0 0 0 0 0 0 0 0 0 0 0 0 0 0 0 0 0 0 0 0 0 0 0 0 3178 3149 3149 3178 3178 3178 3178 3149 3149 3149 3149 3149 3149 3149 3149 3149 3149 3149 3149 3149 3149 3149 3149 3149 3149 3149 3149 3149 3149 3149 3149 3149 3120 3120 3120 3120 3149 3149 3149 3149 3149 3178 3178 3178 3178 3178 3178 3178 3178 3178 3178 3178 3178 3178 3178 3178 3178 3178 3120 3120 0 0 0 0 0 1410 1410 1410 1415 1415 1415 1415 1415 1415 1415 1415 1415 1421 1427 1427 1427 1433 1433 1433 1523 1523 1529 1529 1529 1529 1529 1529 1529 1529 1529 1529 1529 1529 1529 1529 1529 1529 1529 1529 1529 1529 1529 1529 1529 1529 1529 1523 1523 1516 1516 1516 1516 1516 1516 1516 1516 1516 1516 1516 1509 1509 1509 1509 1509 1509 1509 1509 1509 1503 1503 1503 1503 1503 1503 1503 1503 1503 1503 1503 1503 1503 1503 1503 1496 1496 1503 1503 1503 1503 1503 1503 1503 1503 1503 1496 1496 1496 1496 1496 1496 1496 1496 1496 1496 1496 1496 1496 1376 1370 1370 1376 1370 1370 1370 1370 1370 1370 1370 1370 1376 1381 1392 1398 1398 1404 1470 1470 1477 1477 1477 1477 1477 1477 1477 1477 1477 1477 1477 1477 1477 1470 1470 1477 1470 1470 1470 1470 1464 1464 1464 1464 1464 1464 1464 1464 1464 1464 1464 1464 1464 1464 1464 1464 1464 1464 1464 1470 1470 1273 1273 1268 1268 1268 1268 1268 1268 1268 1268 1268 1268 1268 1273 1273 1273 1273 1273 1273 1273 1273 1273 1273 1273 1273 1268 1268 1268 1268 1268 1268 1268 1264 1264 1264 1264 1259 1259 1259 1259 1259 1259 1259 1259 1259 1255 1255 1255 1255 1250 1250 1250 1250 1250 1250 1250 1250 1250 1250 1250 1250 1245 1245 1245 1250 1250 1245 1245 1241 1241 1236 1236 1236 1236 1236 1236 1236 1236 1236 1236 1236 1236 1236 1236 1236 1232 1232 1232 1232 1232 1232 1236 1236 1236 1236 1236 1236 1236 1236 1232 1232 1232 1232 1232 1232 1232 1232 1232 1232 1232 1236 1232 1232 1236 1236 1236 1236 1236 1236 1236 1236 1236 1236 1236 1236 1232 1232 1232 1227 1219 1219 1214 1214 1214 1214 1214 1214 1214 1214 1214 1210 1210 1210 1210 1404 1404 1404 1404 1404 1404 1404 1404 1398 1398 1392 1392 1392 1392 1392 1392 1392 1392 1392 1392 1387 1387 1387 1387 1387 1387 1387 1387 1387 1387 1387 1387 1387 1381 1381 1381 1381 1381 1381 1381 1381 1381 1381 1381 1381 1381 1376 1376 1376 1376 1376 1370 1370 1370 1370 1370 1370 1370 1370 1370 1376 1370 1370 1365 1365 1365 1365 1365 1365 1365 1365 1365 1365 1365 1365 1359 1359 1359 1359 1359 1359 1359 1359 1359 1359 1354 1354 1354 1354 1354 1349 1349 1349 1349 1349 1349 1349 1343 1338 1338 1338 1338 1338 1338 1338 1338 1333 1333 1333 1333 1333 1338 0 0 0 0 0 0 3300 3269 3269 3300 3300 3300 3300 3300 3300 3333 3300 3300 3300 3300 3300 3300 3300 3333 3333 3333 3333 3333 3333 3300 3300 3300 3300 3300 3300 3269 3269 3269 3269 3269 3238 3238 3178 3178 3178 3208 3238 3238 3238 3238 3269 3269 3269 3269 3269 3269 3269 3269 3269 3269 3269 3269 3269 3269 3269 3269 3238 3238 3238 3238 3269 3269 3269 3269 3269 3269 3269 3269 3269 3269 3269 3269 3269 3269 3269 3269 3269 3269 3269 3269 3238 3238 3238 3238 3238 3238 3238 3238 3238 3238 3238 3269 3269 3238 3238 3238 3208 3208 0 0 0 0 0 0 0 0 0 0 0
0 0 0 0 0 0 0 0 0 0 0 0 0 0 0 0 0 0 0 0 0 0 0 0 0 0 0 0 0 0 0 0 3149 3149 3149 3149 3149 3149 3149 3120 3120 3149 3149 3149 3149 3149 3149 3149 3149 3149 3120 3120 3149 3149 3149 3149 3149 3149 3149 3120 3120 3120 3120 3149 3120 3120 3120 3120 3149 3149 3149 3149 3149 3178 3178 3178 3178 3178 3178 3178 3178 3178 3178 3178 3178 3178 3178 3178 3178 3178 3208 3208 0 0 0 0 0 1404 1404 1404 1415 1415 1415 1415 1415 1415 1415 1415 1415 1427 1427 1427 1427 1433 1433 1433 1523 1523 1529 1529 1529 1529 1529 1529 1529 1529 1529 1529 1529 1529 1529 1529 1529 1529 1529 1529 1529 1529 1529 1529 1529 1529 1529 1529 1523 1523 1516 1516 1516 1516 1516 1516 1516 1516 1516 1516 1509 1509 1509 1509 1509 1509 1509 1509 1509 1503 1503 1503 1503 1503 1503 1503 1503 1503 1503 1503 1503 1503 1503 1503 1496 1496 1503 1503 1503 1503 1503 1503 1503 1496 1496 1496 1496 1496 1496 1496 1496 1496 1496 1496 1496 1496 1496 1496 1496 1370 1370 1376 1376 1376 1376 1370 1370 1376 1376 1376 1381 1381 1392 1398 1398 1398 1404 1477 1477 1477 1477 1477 1483 1477 1477 1477 1477 1477 1477 1477 1477 1477 1477 1477 1477 1477 1477 1477 1470 1464 1464 1464 1464 1464 1464 1464 1464 1464 1464 1464 1464 1464 1464 1464 1464 1464 1464 1470 1470 1278 1273 1273 1273 1273 1273 1268 1268 1268 1273 1268 1268 1273 1273 1278 1278 1278 1278 1273 1273 1273 1273 1273 1273 1273 1268 1268 1268 1268 1268 1268 1268 1268 1264 1264 1264 1259 1259 1259 1259 1259 1259 1259 1259 1259 1259 1255 1255 1255 1255 1255 1255 1255 1250 1250 1250 1250 1250 1250 1250 1250 1250 1250 1250 1250 1250 1245 1245 1241 1241 1241 1236 1236 1236 1236 1236 1236 1236 1236 1236 1236 1236 1236 1236 1236 1236 1236 1236 1232 1232 1236 1236 1236 1236 1236 1236 1236 1236 1232 1232 1232 1232 1232 1236 1236 1232 1232 1232 1232 1236 1236 1236 1236 1236 1232 1232 1232 1236 1232 1232 1232 1236 1236 1236 1236 1232 1232 1232 1227 1223 1219 1219 1219 1219 1219 1214 1214 1214 1214 1214 1210 1210 1210 1404 1404 1404 1404 1404 1404 1404 1404 1404 1404 1398 1392 1392 1392 1392 1392 1392 1392 1392 1392 1392 1392 1392 1392 1392 1387 1387 1387 1387 1387 1387 1387 1387 1387 1387 1381 1381 1381 1381 1381 1381 1381 1381 1381 1381 1381 1381 1381 1381 1381 1376 1376 1376 1376 1376 1376 1376 1376 1376 1376 1376 1376 1376 1370 1370 1370 1370 1365 1365 1365 1365 1365 1365 1365 1365 1365 1365 1365 1365 1365 1359 1359 1359 1359 1359 1359 1359 1359 1359 1359 1359 1354 1354 1354 1354 1354 1354 1349 1349 1343 1343 1338 1338 1338 1338 1338 1338 1338 1338 1333 1333 1333 0 0 0 0 0 0 3269 3269 3269 3269 3300 3300 3300 3300 3300 3300 3300 3300 3300 3300 3300 3300 3300 3300 3300 3300 3300 3300 3300 3300 3300 3300 3300 3300 3300 3300 3269 3269 3269 3269 3238 3238 3238 3178 3178 3178 3208 3238 3238 3238 3238 3269 3269 3269 3269 3269 3269 3269 3269 3269 3269 3269 3269 3269 3269 3269 3269 3238 3238 3238 3238 3238 3238 3269 3269 3269 3238 3238 3269 3269 3269 3269 3269 3269 3269 3269 3238 3238 3238 3269 3238 3238 3269 3269 3238 3238 3238 3238 3238 3238 3238 3238 3238 3238 3238 3238 3208 3149 3149 0 0 0 0 0 0 0 0 0 0 0
0 0 0 0 0 0 0 0 0 0 0 0 0 0 0 0 0 0 0 0 0 0 0 0 0 0 0 0 0 0 0 0 3149 3149 3149 3149 3120 3120 3120 3120 3120 3120 3120 3120 3120 3120 3120 3120 3120 3120 3120 3120 3120 3120 3120 3120 3120 3120 3120 3120 3120 3120 3120 3120 3120 3120 3120 3120 3120 3149 3149 3149 3149 3149 3149 3149 3149 3149 3149 3149 3149 3149 3149 3149 3178 3178 3178 3178 3178 3178 3208 3208 0 0 0 0 0 1404 1404 1404 1404 1415 1415 1415 1415 1415 1415 1415 1421 1427 1427 1427 1433 1433 1433 1433 1433 1529 1529 1536 1529 1529 1529 1529 1529 1529 1529 1529 1529 1529 1529 1529 1529 1529 1529 1529 1529 1529 1529 1529 1529 1529 1529 1529 1529 1523 1523 1516 1516 1516 1516 1516 1516 1516 1516 1516 1509 1509 1509 1509 1509 1509 1509 1509 1509 1503 1503 1503 1503 1503 1503 1503 1503 1503 1503 1503 1503 1503 1503 1503 1503 1503 1503 1503 1503 1503 1503 1503 1503 1496 1496 1496 1496 1496 1496 1496 1496 1496 1496 1496 1496 1496 1496 1496 1496 1376 1376 1376 1376 1376 1376 1376 1376 1376 1376 1376 1381 1392 1392 1398 1398 1398 1404 1477 1477 1477 1477 1483 1483 1483 1483 1477 1477 1477 1477 1477 1477 1477 1477 1477 1477 1477 1477 1477 1470 1464 1464 1464 1464 1464 1464 1464 1464 1464 1464 1464 1464 1464 1464 1464 1464 1464 1470 1470 1470 1278 1278 1273 1273 1273 1273 1273 1273 1273 1273 1273 1273 1273 1278 1283 1278 1278 1278 1278 1278 1273 1273 1273 1273 1273 1273 1273 1268 1268 1268 1268 1268 1268 1268 1268 1268 1264 1264 1264 1259 1259 1259 1259 1259 1259 1259 1259 1259 1255 1255 1255 1255 1255 1255 1255 1250 1250 1250 1250 1250 1250 1250 1250 1250 1250 1250 1250 1250 1245 1245 1241 1241 1236 1236 1236 1236 1236 1236 1236 1241 1241 1236 1236 1236 1236 1236 1236 1236 1236 1236 1236 1236 1236 1236 1236 1236 1236 1236 1232 1232 1232 1232 1236 1236 1236 1236 1241 1241 1236 1236 1236 1236 1236 1236 1232 1232 1232 1236 1232 1232 1232 1236 1236 1236 1232 1232 1232 1232 1227 1223 1219 1219 1219 1219 1219 1219 1219 1219 1219 1214 1210 1210 1210 1210 1404 1404 1404 1404 1404 1404 1404 1404 1404 1404 1392 1392 1398 1398 1398 1398 1398 1398 1398 1398 1392 1392 1392 1392 1392 1387 1387 1387 1387 1387 1387 1387 1387 1387 1387 1387 1387 1387 1387 1381 1381 1381 1381 1381 1381 1381 1381 1381 1381 1376 1376 1376 1376 1376 1376 1376 1376 1376 1376 1376 1376 1376 1370 1370 1370 1370 1370 1365 1365 1365 1365 1365 1365 1365 1365 1365 1365 1365 1365 1365 1365 1359 1359 1359 1359 1359 1359 1359 1359 1359 1359 1359 1359 1359 1354 1354 1354 1349 1343 1343 1343 1343 1338 1338 1338 1338 1338 1338 1338 1338 1338 0 0 0 0 0 0 3269 3269 3269 3269 3300 3300 3300 3300 3300 3300 3300 3300 3269 3269 3269 3269 3269 3300 3300 3300 3300 3300 3300 3300 3300 3300 3300 3300 3269 3269 3269 3269 3269 3238 3238 3208 3208 3178 3178 3178 3208 3208 3238 3238 3238 3269 3269 3269 3269 3269 3269 3269 3269 3269 3269 3269 3269 3269 3269 3269 3269 3238 3238 3238 3238 3238 3238 3238 3238 3238 3238 3238 3238 3269 3269 3269 3269 3238 3238 3238 3238 3238 3238 3238 3238 3238 3238 3238 3238 3238 3238 3238 3238 3238 3238 3238 3238 3238 3238 3208 3178 3149 3149 0 0 0 0 0 0 0 0 0 0 0
0 0 0 0 0 0 0 0 0 0 0 0 0 0 0 0 0 0 0 0 0 0 0 0 0 0 0 0 0 0 0 0 3120 3120 3120 3149 3120 3120 3120 3120 3120 3120 3120 3120 3120 3120 3120 3120 3120 3120 3120 3120 3120 3120 3120 3120 3120 3120 3120 3120 3120 3120 3120 3120 3092 3092 3092 3092 3120 3120 3120 3120 3120 3149 3149 3149 3149 3149 3149 3149 3149 3149 3149 3149 3149 3149 3178 3178 3178 3178 3208 3208 0 0 0 0 0 0 1410 1404 1404 1415 1415 1415 1415 1415 1415 1415 1421 1427 1427 1427 1433 1433 1433 1433 1439 1536 1536 1536 1529 1529 1529 1529 1529 1529 1529 1529 1529 1529 1529 1529 1529 1529 1529 1529 1529 1529 1529 1529 1529 1529 1529 1529 1529 1523 1523 1516 1516 1516 1516 1516 1516 1516 1516 1516 1509 1509 1509 1509 1509 1509 1509 1509 1509 1503 1503 1503 1503 1503 1503 1503 1503 1503 1503 1503 1503 1503 1503 1503 1503 1503 1503 1503 1503 1503 1503 1503 1503 1503 1496 1496 1496 1496 1496 1496 1496 1496 1496 1496 1496 1496 1496 1496 1496 1376 1376 1376 1376 1376 1376 1376 1376 1376 1376 1376 1381 1387 1392 1398 1398 1398 1477 1477 1477 1477 1477 1483 1483 1483 1483 1483 1477 1477 1477 1477 1477 1477 1477 1477 1477 1477 1477 1477 1470 1470 1464 1464 1464 1464 1464 1464 1464 1464 1464 1464 1464 1464 1464 1464 1464 1470 1470 1470 1464 1283 1278 1278 1273 1273 1278 1278 1273 1273 1273 1273 1273 1273 1278 1283 1283 1283 1283 1278 1278 1278 1278 1273 1273 1273 1273 1273 1273 1273 1273 1273 1273 1268 1268 1268 1268 1268 1268 1264 1264 1264 1264 1264 1264 1264 1259 1259 1259 1259 1255 1255 1255 1255 1255 1255 1255 1255 1250 1250 1250 1250 1250 1250 1250 1250 1250 1250 1250 1245 1245 1241 1241 1241 1241 1241 1241 1241 1241 1241 1241 1241 1241 1241 1241 1241 1241 1241 1236 1236 1241 1241 1241 1241 1241 1241 1241 1241 1236 1236 1236 1232 1232 1236 1236 1236 1236 1241 1241 1241 1236 1236 1236 1236 1236 1232 1232 1232 1236 1236 1236 1236 1236 1236 1236 1232 1232 1232 1232 1227 1223 1223 1219 1219 1219 1219 1219 1219 1219 1219 1214 1214 1214 1210 1210 1404 1404 1404 1410 1410 1404 1404 1404 1410 1404 1398 1398 1398 1398 1398 1398 1398 1398 1398 1398 1398 1398 1398 1398 1392 1387 1387 1387 1387 1387 1387 1387 1387 1387 1387 1387 1387 1387 1387 1381 1381 1381 1381 1381 1381 1381 1381 1381 1381 1381 1381 1376 1376 1376 1376 1376 1376 1376 1376 1376 1381 1376 1376 1370 1370 1370 1370 1365 1365 1370 1370 1370 1370 1365 1365 1365 1365 1365 1365 1365 1365 1365 1365 1365 1365 1365 1365 1359 1359 1359 1359 1359 1359 1359 1359 1359 1354 1354 1349 1349 1343 1343 1343 1338 1338 1338 1338 1338 1338 1338 0 0 0 0 0 0 0 3238 3238 3238 3269 3269 3269 3269 3269 3269 3269 3269 3269 3269 3269 3269 3269 3269 3269 3269 3269 3269 3269 3269 3269 3269 3269 3269 3269 3269 3269 3269 3238 3238 3208 3208 3178 3178 3178 3178 3178 3178 3208 3238 3238 3238 3238 3269 3269 3269 3269 3269 3269 3269 3269 3238 3238 3269 3269 3269 3269 3269 3238 3238 3238 3238 3208 3208 3208 3208 3208 3238 3238 3238 3238 3238 3238 3238 3238 3208 3208 3238 3208 3208 3238 3238 3238 3238 3238 3238 3238 3238 3208 3208 3238 3238 3238 3238 3208 3208 3178 3149 3120 3120 0 0 0 0 0 0 0 0 0 0 0
0 0 0 0 0 0 0 0 0 0 0 0 0 0 0 0 0 0 0 0 0 0 0 0 0 0 0 0 0 0 0 0 3092 3092 3092 3120 3120 3064 3064 3092 3092 3092 3092 3092 3092 3120 3120 3120 3120 3120 3092 3092 3092 3092 3092 3092 3092 3092 3092 3120 3120 3120 3120 3120 3092 3092 3092 3092 3120 3120 3120 3120 3120 3120 3120 3120 3120 3120 3120 3120 3120 3120 3120 3149 3149 3149 3149 3178 3178 3178 3178 3208 0 0 0 0 0 0 0 0 1415 1415 1415 1421 1421 1415 1415 1421 1421 1427 1427 1427 1433 1433 1433 1433 1439 1439 1536 1536 1536 1536 1529 1529 1529 1529 1529 1529 1529 1529 1529 1529 1529 1529 1529 1529 1529 1529 1529 1529 1529 1529 1529 1529 1529 3208 3208 1523 1523 1523 1523 1516 1516 1516 1516 1516 1509 1509 1509 1509 1509 1509 1509 1509 1509 1509 1509 1509 1509 1503 1503 1509 1509 1509 1509 1503 1503 1503 1503 1503 1503 1503 1503 1503 1503 1503 1503 1503 1503 1496 1496 1496 1496 1496 1496 1496 1496 1496 1496 1496 1496 1496 1496 1496 1496 1376 1376 1376 1376 1376 1376 1376 1376 1376 1381 1381 1381 1381 1392 1398 1398 1398 1477 1477 1477 1483 1483 1483 1483 1483 1483 1483 1483 1483 1483 1477 1477 1477 1477 1483 1483 1483 1477 1477 1470 1470 1470 1470 1464 1464 1464 1464 1464 1464 1464 1464 1464 1464 1464 1464 1464 1470 1470 1470 1464 1464 1278 1278 1278 1278 1278 1278 1278 1278 1278 1278 1278 1278 1278 1283 1283 1283 1283 1283 1278 1278 1278 1278 1273 1273 1273 1273 1273 1273 1273 1273 1273 1273 1273 1273 1268 1268 1268 1268 1264 1264 1264 1264 1264 1264 1259 1259 1259 1259 1255 1255 1255 1255 1255 1255 1255 1255 1255 1255 1255 1255 1255 1250 1250 1250 1255 1250 1250 1245 1245 1245 1245 1245 1245 1245 1241 1241 1245 1245 1245 1245 1245 1241 1241 1245 1241 1241 1241 1241 1241 1241 1241 1241 1241 1241 1241 1241 1241 1236 1236 1236 1236 1236 1236 1236 1241 1241 1241 1241 1241 1236 1236 1236 1236 1236 1236 1236 1236 1236 1236 1236 1236 1236 1236 1232 1232 1232 1232 1227 1227 1223 1223 1223 1223 1223 1223 1223 1223 1223 1219 1214 1214 1210 1210 1404 1404 1410 1410 1410 1410 1410 1410 1410 1410 1398 1398 1398 1398 1398 1398 1398 1398 1398 1398 1398 1398 1398 1398 1392 1387 1387 1387 1387 1387 1387 1387 1387 1387 1387 1387 1387 1387 1387 1387 1387 1387 1387 1387 1381 1381 1381 1381 1381 1381 1381 1381 1376 1376 1376 1381 1381 1376 1376 1381 1381 1376 1376 1376 1376 1370 1370 1370 1370 1370 1370 1370 1370 1370 1365 1365 1365 1365 1365 1365 1365 1365 1365 1365 1365 1365 1365 1365 1359 1359 1359 1359 1359 1359 1359 1359 1359 1354 1349 1349 1349 1349 1343 1343 1343 1343 1343 1343 1338 1338 0 0 0 0 0 0 0 3238 3238 3238 3269 3269 3269 3269 3269 3269 3269 3269 3269 3269 3269 3269 3269 3269 3269 3269 3269 3269 3269 3269 3269 3269 3269 3269 3269 3269 3269 3269 3238 3208 3178 3178 3149 3149 3149 3120 3120 3149 3178 3208 3208 3208 3238 3238 3238 3238 3238 3238 3238 3238 3238 3238 3238 3269 3269 3238 3238 3269 3238 3208 3208 3208 3208 3208 3208 3208 3208 3208 3208 3238 3238 3238 3238 3238 3238 3208 3208 3208 3208 3208 3208 3238 3238 3238 3238 3238 3238 3208 3208 3208 3208 3208 3208 3208 3208 3178 3149 3120 3092 3092 0 0 0 0 0 0 0 0 0 0 0
