0 0 0 0 0 0 0 0 0 0 0 0 0 0 0 0 0 0 0 0 0 0 0 0 0 0 0 0 0 0 0 0 0 0 2090 2090 2090 2090 2103 2103 2103 2090 2090 2090 2090 2090 2090 2090 2090 2090 2090 2103 2103 2090 2090 2103 2103 2103 2103 2103 2103 2103 2090 2090 2103 2090 2090 2090 2090 2078 2078 2078 2078 2078 2090 2090 2090 2090 2090 2090 2078 2078 2078 2078 2078 2078 2090 2078 2078 2090 2078 2078 2078 2090 2090 2090 2090 2090 2090 2090 2090 2090 2090 2090 2090 2090 2090 2090 2090 2090 2090 2090 2090 2103 2103 2103 1688 1688 1688 1688 1688 1688 1688 1680 1671 1616 1609 1609 1609 1601 1601 1601 1601 1601 1601 1609 1609 1616 1624 1624 1624 1624 1632 2129 2116 2103 2103 2116 2116 2116 2116 2116 2116 2129 2129 2129 2129 2129 2143 1843 1843 1843 1853 1853 1873 1883 1883 1883 2143 2143 2129 2053 2053 2053 2040 2040 2040 2040 2040 2040 2040 2040 2053 2065 2078 2090 2103 2116 2116 2116 2116 2116 2103 2103 2090 2090 2078 2078 2078 2078 2090 2090 2090 2103 2116 2129 2129 2129 2143 2143 2129 2129 2143 2129 2129 2129 2143 2143 1557 1557 1557 1557 1557 1557 1557 1557 1557 1564 1564 1572 1572 1579 1579 1586 1586 1601 1601 2143 2143 2143 2143 2129 2129 2129 2129 2129 2129 2129 2129 2129 2129 2129 2129 2129 2129 2156 2170 1843 1843 1843 1853 1873 1883 1883 1894 1894 1915 1926 1947 1959 1970 1981 1981 1981 1981 1464 1464 1464 1458 1458 1458 1458 1458 1458 1458 1458 1458 1458 1464 1470 1477 1477 1477 1470 1470 1470 1470 1873 1873 1883 1894 1894 1894 1904 1439 1439 1439 1439 1439 1445 1445 1445 1452 2116 2116 2116 1452 1452 1452 1452 1452 1452 1452 1452 1452 1452 1458 1458 1458 1458 1458 1452 1445 1445 1445 1445 1445 1445 1445 1445 1439 1439 1439 1433 1433 1433 1433 1433 1433 1433 1433 1433 1433 1433 1433 1433 1433 1433 1433 1433 1433 1433 1427 1427 1433 1433 1427 1427 1427 1427 1427 1427 1427 1427 1421 1421 1421 1415 1415 1421 1421 1421 1415 1415 1415 1410 1404 1404 1404 1398 1398 1398 1398 1398 1398 1398 1398 1398 1398 1398 1833 1833 1833 1823 1823 1823 1823 1823 1823 1823 1813 1804 1804 2129 2129 2129 2129 2129 2129 2129 2129 2129 2129 2129 2129 2129 2129 2129 2129 2129 2129 2129 1926 1915 1915 1915 1915 1915 1915 1915 1915 1915 1904 1894 1894 2129 2116 2116 2116 2116 2116 2116 2116 2116 2116 2116 2116 2116 2116 2116 2116 2116 2116 2116 2116 2116 2116 2129 2129 2129 2116 2116 2116 2103 2103 2103 2103 1477 1477 1477 1477 1477 1477 1477 1477 1477 1477 1477 1477 1477 1470 1470 1470 1470 1470 1464 1464 1464 1464 1464 2065 2065 2078 2078 2078 2078 2103 2103 2103 2103 2103 2103 2103 2103 2103 2103 2103 2103 2103 2103 2103 2103 2103 2103 2103 2090 2090 2090 2090 2090 2103 2103 2103 2103 2090 2090 2103 2090 2090 2090 2103 2103 2103 2103 2116 2116 2116 2116 2103 2103 2103 2103 2103 2090 2090 2090 2090 2090 2090 2090 2103 2090 2090 2090 2090 2090 2090 2090 2090 2090 2090 2090 2090 2090 2090 2090 2090 2090 2090 2090 2090 2090 2090 2090 2090 2078 2078 2078 2078 2078 2078 2078 2078 2078 2078 2090 2090 2078 2078 2078 2078 2078 2065 2065 2065 2065 2065 2065 2065 2078 2065 2065 2065 2065 2065 2065 2065 2065 2065 2065 2065 2065 2065 2065 2065 2065 2065 2065 2065 2053 2053 0 0 0 0 0 0 0 0 0
0 0 0 0 0 0 0 0 0 0 0 0 0 0 0 0 0 0 0 0 0 0 0 0 0 0 0 0 0 0 0 0 0 0 2090 2090 2090 2090 2090 2090 2090 2078 2078 2078 2078 2078 2078 2078 2078 2078 2078 2078 2078 2078 2078 2090 2090 2090 2090 2090 2090 2090 2078 2078 2065 2065 2078 2078 2078 2065 2065 2065 2065 2078 2078 2078 2090 2090 2090 2090 2078 2078 2078 2078 2078 2078 2078 2078 2078 2078 2078 2078 2078 2090 2090 2090 2090 2090 2090 2090 2090 2090 2078 2078 2078 2078 2078 2078 2078 2090 2090 2090 2090 2090 2090 2090 1688 1688 1688 1688 1688 1688 1688 1680 1671 1616 1609 1609 1609 1601 1601 1601 1601 1601 1609 1609 1616 1624 1624 1632 1632 1632 1632 1632 2116 2103 2103 2103 2103 2103 2103 2103 2116 2116 2129 2129 2129 2129 2129 1843 1843 1853 1853 1853 1873 1873 1873 1883 1894 2129 2116 2090 2053 2053 2053 2040 2040 2040 2040 2040 2040 2040 2053 2065 2065 2078 2090 2103 2103 2103 2103 2103 2103 2090 2090 2090 2078 2078 2078 2078 2090 2090 2090 2103 2103 2116 2129 2129 2129 2129 2129 2129 2129 2129 2129 2129 2129 2129 1557 1557 1557 1557 1557 1557 1564 1564 1564 1564 1564 1572 1572 1579 1586 1586 1594 1601 1601 2129 2129 2129 2129 2129 2116 2116 2116 2116 2116 2116 2116 2129 2129 2129 2129 2129 2129 2156 2170 1843 1843 1843 1853 1873 1873 1883 1894 1894 1915 1936 1947 1970 1981 1981 1981 1981 1981 1464 1464 1464 1464 1458 1458 1458 1458 1458 1458 1464 1464 1464 1464 1470 1470 1489 1489 1489 1470 1470 1863 1863 1873 1873 1883 1883 1894 1904 1915 1915 1915 2103 2103 2103 2103 2103 2116 2116 2116 2116 2116 2129 1452 1452 1452 1452 2116 2116 2116 2116 2103 2103 1458 1458 1464 1452 1445 1445 1445 1445 1445 1445 1445 1445 1439 1439 1439 1433 1433 1433 1433 1433 1433 1433 1433 1433 1433 1433 1433 1433 1433 1433 1433 1433 1433 1433 1433 1433 1433 1433 1427 1427 1427 1427 1427 1427 1427 1421 1421 1421 1421 1421 1421 1421 1421 1421 1415 1415 1415 1410 1404 1404 1404 1398 1398 1398 1398 1398 1398 1398 1398 1398 1398 1398 1833 1833 1833 1833 1833 1823 1823 1823 1833 1833 1823 1804 1804 2116 2116 2116 2116 2116 2116 2116 2116 2116 2116 2129 2129 2116 2116 2129 2129 2129 2116 2116 1926 1915 1915 1915 1915 1915 1915 1915 1915 1915 1904 1894 1894 2116 2116 2103 2103 2116 2116 2103 2103 2103 2103 2116 2116 2103 2103 2103 2103 2103 2103 2103 2103 2116 2116 2116 2116 2116 2116 2116 2103 2103 2103 2103 2103 1477 1477 1477 1477 1477 1477 1477 1477 1477 1477 1477 1477 1477 1470 1470 1470 1470 1470 1464 1464 1464 1464 1464 2065 2065 2065 2078 2078 2078 2090 2103 2103 2103 2090 2090 2090 2090 2090 2090 2090 2090 2103 2103 2103 2090 2090 2090 2090 2090 2090 2090 2090 2090 2090 2090 2090 2090 2090 2090 2090 2090 2090 2090 2090 2103 2103 2103 2103 2103 2103 2103 2090 2090 2090 2090 2090 2090 2090 2090 2090 2090 2090 2090 2090 2090 2090 2090 2090 2090 2090 2090 2090 2090 2090 2090 2090 2090 2090 2090 2090 2090 2090 2090 2090 2090 2090 2090 2090 2078 2078 2078 2078 2078 2078 2078 2078 2078 2078 2078 2078 2065 2065 2065 2065 2065 2065 2065 2065 2065 2065 2065 2065 2065 2065 2065 2065 2065 2065 2065 2065 2065 2065 2065 2065 2065 2065 2065 2065 2065 2065 2053 2053 2053 2040 2040 0 0 0 0 0 0 0 0
0 0 0 0 0 0 0 0 0 0 0 0 0 0 0 0 0 0 0 0 0 0 0 0 0 0 0 0 0 0 0 0 0 0 2078 2078 2078 2078 2078 2078 2078 2065 2065 2078 2078 2078 2065 2065 2065 2065 2078 2065 2065 2078 2078 2078 2078 2078 2078 2078 2065 2065 2065 2065 2065 2065 2078 2065 2065 2065 2065 2065 2065 2065 2065 2065 2065 2053 2053 2053 2053 2053 2053 2053 2053 2053 2053 2065 2065 2065 2065 2065 2065 2065 2065 2065 2065 2065 2065 2065 2078 2078 2078 2065 2065 2078 2078 2078 2078 2078 2078 2078 2078 2078 2078 2090 2090 1688 1688 1688 1688 1688 1688 1680 1671 1616 1609 1609 1609 1601 1601 1601 1601 1601 1609 1609 1616 1624 1624 1632 1632 1632 1632 1639 2103 2103 2103 2103 2103 2103 2103 2103 2103 2116 2129 2129 2129 2129 1843 1843 1843 1853 1853 1853 1863 1873 1873 1873 1894 2116 2090 2090 2078 2065 2053 2053 2040 2040 2040 2040 2040 2040 2053 2053 2065 2078 2090 2090 2090 2090 2103 2103 2103 2090 2090 2090 2078 2078 2078 2090 2090 2090 2090 2103 2103 2116 2129 2116 2116 2129 2129 2129 2129 2129 2129 2129 2129 2129 2129 1564 1564 1564 1557 1557 1564 1564 1564 1564 1572 1572 1579 1579 1586 1586 1594 1609 1609 2129 2129 2129 2129 2129 2116 2116 2116 2116 2116 2116 2116 2116 2116 2116 2129 2129 2129 1833 1833 1843 1843 1843 1853 1873 1873 1883 1894 1894 1926 1947 1959 1970 1981 1981 1981 1981 1981 1464 1464 1464 1464 1464 1464 1464 1464 1458 1458 1464 1464 1464 1470 1470 1489 1489 1496 1496 1863 1863 1863 1863 1863 1863 1873 1873 1873 1894 1894 1894 0 2116 2116 2116 2103 2103 2116 2116 2116 2116 2116 2116 2116 2129 2116 2116 2116 2116 2116 2116 2103 2103 2103 2103 2103 1458 1452 1452 1452 1452 1452 1445 1445 1445 1445 1439 1439 1439 1433 1433 1433 1433 1433 1433 1433 1433 1433 1433 1433 1433 1427 1427 1433 1433 1433 1433 1433 1433 1433 1433 1433 1433 1433 1433 1427 1427 1427 1421 1421 1421 1421 1421 1421 1421 1421 1421 1421 1415 1415 1410 1410 1410 1404 1404 1404 1404 1398 1398 1398 1398 1398 1398 1404 1833 1833 1833 1833 1833 1833 1823 1823 1833 1833 1833 1823 1813 1813 2116 2116 2116 2116 2116 2116 2116 2116 2116 2116 2116 2116 2116 2116 2116 2116 2116 2103 2103 2103 1915 1915 1915 1915 1915 1915 1915 1915 1915 1904 1904 2116 2103 2103 2103 2103 2103 2103 2103 2103 2103 2103 2103 2103 2103 2103 2103 2103 2103 2103 2103 2103 2103 2103 2103 2103 2103 2103 2103 2103 2103 2090 2090 2090 1483 1483 1483 1483 1483 1483 1483 1477 1477 1477 1477 1477 1477 1477 1477 1477 1470 1470 1470 1464 1464 1464 2065 2065 2065 2065 2065 2078 2078 2090 2090 2090 2090 2090 2090 2090 2090 2090 2090 2090 2090 2090 2090 2090 2090 2090 2090 2090 2090 2090 2090 2090 2090 2090 2090 2090 2090 2090 2090 2090 2090 2090 2090 2090 2090 2090 2090 2090 2090 2090 2090 2090 2090 2090 2090 2090 2090 2090 2090 2090 2090 2090 2090 2090 2090 2090 2090 2090 2090 2090 2090 2078 2078 2078 2078 2090 2090 2078 2078 2090 2090 2078 2078 2078 2090 2090 2090 2090 2078 2078 2078 2078 2078 2078 2078 2078 2078 2078 2065 2065 2053 2053 2053 2053 2053 2053 2053 2053 2053 2065 2065 2065 2065 2053 2053 2053 2053 2053 2053 2053 2065 2065 2053 2053 2053 2053 2053 2053 2053 2053 2053 2040 2040 2028 2028 0 0 0 0 0 0 0 0
0 0 0 0 0 0 0 0 0 0 0 0 0 0 0 0 0 0 0 0 0 0 0 0 0 0 0 0 0 0 0 0 0 0 2078 2065 2065 2065 2065 2065 2078 2065 2065 2065 2065 2065 2065 2065 2065 2065 2065 2065 2065 2065 2078 2078 2078 2065 2065 2065 2065 2065 2065 2065 2065 2065 2065 2065 2065 2065 2053 2053 2053 2053 2053 2053 2053 2053 2053 2053 2053 2053 2053 2053 2053 2053 2053 2053 2053 2053 2053 2053 2053 2053 2053 2053 2053 2053 2065 2065 2053 2053 2065 2053 2053 2065 2065 2065 2065 2078 2078 2078 2078 2078 2078 2078 2078 1688 1688 1696 1696 1688 1688 1680 1671 1616 1616 1609 1609 1609 1601 1601 1601 1601 1609 1609 1616 1624 1624 1624 1624 1632 1632 1639 2103 2090 2090 2090 2090 2090 2090 2103 2103 2103 2116 2129 2129 2129 1833 1833 1833 1853 1853 1863 1863 1863 1873 1873 2103 2103 2090 2078 2078 2065 2053 2053 2040 2040 2040 2040 2040 2040 2040 2053 2065 2078 2078 2090 2090 2090 2090 2090 2090 2090 2090 2090 2090 2090 2090 2090 2090 2090 2090 2103 2103 2116 2116 2116 2116 2129 2116 2116 2116 2116 2129 2129 2129 2129 1579 1572 1572 1564 1564 1564 1564 1564 1564 1572 1572 1572 1579 1579 1579 1586 1594 1609 1609 2116 2116 2116 2116 2116 2116 2103 2103 2103 2116 2116 2116 2116 2116 2116 2116 2129 2129 1833 1833 1843 1843 1843 1853 1863 1873 1883 1883 1894 1926 1959 1970 1970 1981 1981 1981 1981 1464 1464 1464 1464 1464 1464 1464 1464 1464 1464 1464 1464 1470 1470 1470 1477 1489 1489 1496 1496 1853 1853 1843 1843 1853 1853 1853 1863 1863 1883 1894 1894 0 2103 2103 2103 2103 2103 2116 2116 2116 2116 2116 2116 2116 2116 2116 2116 2116 2116 2116 2116 2103 2090 2090 2090 2103 2103 2103 1452 1452 1452 1452 1452 2005 2016 2028 2028 2065 2065 2078 1433 1433 1433 2090 1433 1433 1433 1433 1433 1433 1433 1427 1427 1433 1433 1433 1433 1433 1433 1433 1433 1433 1433 1433 1433 1427 1427 1427 1427 1427 1427 1433 1433 1427 1427 1421 1421 1421 1415 1415 1410 1410 1410 1404 1404 1404 1404 1404 1404 1404 1404 1404 1404 1404 1833 1833 1833 1370 1370 1833 1833 1833 1833 1833 1833 1823 1823 2116 2103 2103 2103 2103 2103 2103 2116 2103 2103 2103 2103 2103 2103 2103 2103 2103 2103 2103 2103 2103 1915 1915 1915 1915 1915 1915 1915 1915 1915 1915 1915 2116 2103 2103 2103 2103 2103 2103 2103 2103 2103 2103 2103 2103 2103 2090 2090 2090 2090 2090 2090 2090 2090 2090 2103 2103 2103 2103 2103 2103 2090 2090 2090 2090 1483 1483 1483 1483 1483 1483 1483 1483 1477 1477 1477 1477 1477 1477 1477 1477 1477 1477 1477 1477 1477 1483 1483 2065 2065 2065 2065 2065 2078 2078 2078 2090 2078 2078 2078 2078 2078 2078 2078 2078 2078 2078 2078 2078 2078 2078 2078 2078 2078 2078 2078 2078 2078 2078 2078 2078 2078 2078 2078 2078 2078 2078 2090 2090 2090 2090 2090 2090 2090 2090 2078 2078 2078 2078 2078 2078 2078 2078 2078 2078 2078 2078 2078 2078 2078 2078 2078 2078 2078 2078 2078 2078 2078 2078 2078 2078 2078 2078 2078 2078 2078 2078 2078 2078 2078 2078 2078 2078 2065 2065 2065 2065 2065 2078 2065 2065 2065 2065 2065 2053 2040 2040 2040 2040 2040 2040 2040 2053 2053 2053 2053 2053 2053 2040 2040 2040 2053 2053 2053 2053 2053 2065 2053 2053 2053 2053 2053 2053 2053 2040 2040 2040 2028 2028 2028 0 0 0 0 0 0 0 0
0 0 0 0 0 0 0 0 0 0 0 0 0 0 0 0 0 0 0 0 0 0 0 0 0 0 0 0 0 0 0 0 0 0 2065 2065 2065 2065 2065 2065 2065 2065 2065 2065 2065 2065 2053 2053 2053 2065 2065 2065 2065 2065 2065 2065 2065 2065 2065 2065 2065 2065 2065 2053 2053 2053 2065 2065 2065 2065 2053 2053 2053 2053 2053 2053 2053 2053 2053 2053 2053 2053 2053 2040 2040 2040 2040 2040 2040 2053 2053 2053 2053 2053 2053 2053 2053 2053 2053 2053 2053 2053 2053 2053 2053 2065 2065 2053 2053 2065 2065 2065 2065 2065 2065 2053 2053 1688 1688 1696 1696 1696 1688 1680 1680 1624 1616 1616 1616 1609 1609 1601 1601 1601 1609 1616 1616 1624 1624 1624 1624 1632 1632 1632 2103 2090 2090 2090 2090 2090 2090 2090 2090 2103 2116 2129 1843 1833 1833 1833 1833 1843 1853 1853 1853 1853 1853 1863 2090 2090 2078 2078 2078 2065 2053 2053 2053 2040 2040 2040 2040 2040 2040 2053 2065 2065 2078 2078 2090 2090 2090 2090 2090 2090 2090 2090 2090 2090 2090 2090 2090 2090 2090 2090 2103 2103 2103 2103 2103 2116 2116 2116 2116 2116 2116 2116 2129 2129 1572 1572 1572 1572 1564 1564 1572 1572 1572 1572 1572 1572 1579 1579 1579 1586 1594 1601 1601 2103 2103 2103 2103 2116 2103 2103 2103 2103 2103 2103 2103 2103 2103 2116 2116 2129 1833 1833 1833 1833 1843 1853 1853 1863 1873 1873 1883 1894 1936 1959 1970 1981 1981 1981 1981 1981 1464 1464 1464 1464 1464 1464 1464 1464 1464 1464 1464 1464 1470 1470 1470 1489 1496 1496 1503 1503 1843 1843 1843 1843 1853 1853 1853 1853 1853 1883 1894 1894 0 2090 2090 2090 2103 2103 2116 2116 2116 2116 2116 2116 2116 2116 2116 2116 2103 2103 2103 2103 2103 2090 2090 2090 2090 2090 2065 2053 2005 2005 2005 2005 2005 2016 2016 2016 2028 2065 2078 2090 2078 2078 2078 2090 2090 2103 2103 2103 2103 2103 1433 1433 1433 1433 1433 1433 1433 1433 1433 1433 1433 1433 1433 1433 1427 1427 1427 1427 1427 1427 1433 1433 1427 1427 1427 1421 1421 1421 1415 1415 1410 1410 1410 1404 1404 1404 1404 1404 1404 1404 1404 1404 1410 1410 1381 1376 1370 1370 1833 1833 1833 1833 1833 1833 1823 1823 2116 2103 2103 2103 2103 2103 2103 2103 2103 2103 2103 2103 2103 2103 2103 2103 2103 2090 2090 2090 2103 2103 1915 1915 1926 1926 1915 1915 1915 1915 1926 2090 2090 2090 2090 2090 2090 2090 2090 2090 2090 2090 2090 2090 2103 2090 2090 2090 2090 2090 2090 2090 2090 2090 2090 2090 2090 2090 2090 2090 2090 2090 2090 2090 2090 1483 1483 1483 1483 1483 1483 1483 1483 1483 1483 1483 1483 1477 1477 1477 1477 1477 1477 1477 1477 1477 1483 1483 2053 2053 2065 2065 2065 2078 2078 2078 2078 2078 2078 2078 2078 2078 2065 2065 2065 2065 2078 2078 2078 2065 2065 2065 2065 2065 2065 2065 2065 2078 2078 2078 2078 2078 2078 2078 2078 2078 2078 2078 2078 2078 2078 2078 2078 2078 2065 2065 2065 2065 2065 2078 2078 2078 2078 2078 2078 2078 2078 2078 2078 2078 2078 2078 2078 2078 2078 2078 2078 2078 2078 2078 2078 2078 2078 2078 2078 2078 2065 2065 2078 2078 2078 2078 2078 2053 2053 2065 2065 2065 2065 2065 2065 2065 2053 2053 2053 2040 2040 2040 2040 2040 2040 2040 2040 2040 2053 2053 2053 2053 2040 2040 2040 2040 2040 2040 2040 2040 2053 2053 2053 2040 2040 2040 2040 2040 2040 2040 2028 2028 2028 2028 0 0 0 0 0 0 0 0
0 0 0 0 0 0 0 0 0 0 0 0 0 0 0 0 0 0 0 0 0 0 0 0 0 0 0 0 0 0 0 0 0 0 2053 2053 2053 2053 2053 2053 2065 2065 2065 2065 2065 2065 2053 2053 2053 2053 2053 2053 2053 2065 2065 2065 2065 2053 2053 2065 2065 2053 2053 2053 2053 2053 2053 2053 2053 2053 2053 2053 2053 2053 2053 2053 2053 2053 2053 2053 2053 2053 2053 2040 2040 2040 2040 2040 2040 2040 2040 2040 2053 2053 2053 2053 2040 2040 2053 2053 2053 2053 2053 2053 2053 2053 2053 2053 2053 2053 2053 2065 2065 2065 2065 2053 2053 2053 1696 1696 1696 1696 1696 1688 1680 1680 1624 1616 1616 1609 1609 1609 1609 1609 1609 1616 1616 1624 1624 1624 1632 1632 1632 2103 2103 2090 2090 2090 2090 2078 2078 2090 2090 2090 2103 1843 1843 1823 1823 1823 1833 1833 1843 1853 1853 1853 1853 1863 2078 2078 2078 2078 2078 2065 2065 2053 2053 2040 2040 2040 2040 2040 2040 2053 2065 2065 2078 2078 2090 2090 2090 2090 2090 2090 2090 2090 2090 2090 2090 2090 2090 2090 2090 2090 2090 2090 2090 2090 2090 2090 2090 2090 2090 2090 2090 2090 2090 2090 1572 1572 1572 1572 1564 1564 1572 1572 1564 1564 1572 1572 1572 1579 1579 1586 1594 1601 1601 2103 2090 2090 2103 2103 2103 2090 2090 2090 2103 2103 2103 2103 2103 2103 2103 2129 1833 1833 1833 1833 1843 1853 1853 1863 1873 1873 1883 1883 1970 1970 1981 1981 1981 1981 1981 1981 1464 1464 1464 1464 1464 1464 1464 1464 1464 1464 1464 1464 1470 1470 1470 1477 1496 1503 1503 1843 1843 1843 1843 1843 1843 1853 1853 1853 1853 1883 1883 1883 0 2090 2090 2090 2103 2103 2116 2116 2116 2103 2103 2103 2103 2103 2103 2103 2090 2090 2103 2103 2103 2090 2078 2078 2078 2065 2053 2040 2016 2005 2005 2005 2005 2016 2016 2016 2028 2065 2078 2078 2078 2078 2078 2090 2090 2090 2090 2103 2103 2103 2090 2090 2090 2090 1433 1433 1433 1433 1433 2078 2078 2090 2078 2078 1427 1427 1427 1427 1427 1427 1433 1433 1433 1427 1427 1427 1421 1421 1415 1410 1410 1410 1410 1404 1404 1404 1404 1404 1404 1404 1404 1404 1410 1410 1381 1376 1370 1370 1833 1833 1833 1833 1833 1833 1823 1823 2116 2103 2090 2090 2090 2090 2090 2090 2090 2090 2090 2090 2090 2090 2090 2090 2090 2090 2090 2090 2103 2103 1915 1915 1926 1926 1926 1926 1926 1926 1926 2078 2078 2078 2078 2090 2090 2090 2090 2090 2090 2090 2090 2090 2090 2090 2090 2090 2090 2090 2078 2078 2078 2078 2078 2090 2090 2090 2090 2090 2090 2078 2078 2090 2090 1489 1489 1483 1483 1483 1483 1483 1483 1483 1483 1483 1483 1477 1477 1477 1477 1477 1477 1477 1483 1483 1483 1483 2053 2053 2053 2053 2065 2065 2078 2078 2078 2078 2065 2065 2065 2065 2053 2053 2053 2053 2065 2065 2065 2065 2065 2065 2053 2053 2053 2053 2065 2065 2065 2065 2065 2078 2065 2065 2065 2065 2065 2078 2078 2078 2065 2065 2065 2065 2065 2065 2065 2065 2065 2065 2065 2065 2065 2065 2065 2065 2065 2065 2065 2065 2065 2065 2065 2065 2065 2065 2078 2078 2078 2078 2078 2078 2065 2065 2065 2065 2053 2053 2065 2065 2065 2065 2065 2040 2040 2053 2040 2040 2053 2053 2053 2053 2053 2053 2040 2040 2040 2040 2028 2028 2028 2028 2028 2028 2028 2040 2040 2040 2028 2028 2040 2040 2040 2040 2040 2040 2040 2040 2040 2040 2040 2040 2040 2040 2028 2028 2028 2028 2028 2028 0 0 0 0 0 0 0 0
0 0 0 0 0 0 0 0 0 0 0 0 0 0 0 0 0 0 0 0 0 0 0 0 0 0 0 0 0 0 0 0 0 0 2053 2053 2053 2040 2040 2053 2053 2053 2053 2065 2065 2053 2016 2016 2053 2053 2053 2053 2053 2053 2053 2053 2053 2053 2053 2053 2053 2053 2040 2040 2040 2040 2040 2040 2040 2040 2040 2040 2053 2040 2040 2040 2040 2040 2053 2040 2040 2040 2040 2040 2040 2040 2040 2040 2040 2040 2040 2040 2053 2053 2040 2040 2040 2040 2040 2053 2053 2053 2053 2053 2053 2053 2053 2053 2053 2053 2053 2053 2053 2053 2053 2053 2053 2053 1688 1688 1696 1696 1696 1688 1688 1671 1632 1616 1616 1609 1609 1609 1609 1609 1616 1616 1616 1624 1624 1624 1632 1632 1632 2078 2078 2078 2078 2078 2078 2078 2078 2078 2078 2090 1843 1833 1833 1823 1823 1823 1833 1833 1843 1853 1853 1853 2090 2078 2078 2078 2078 2078 2078 2078 2065 2065 2065 2053 2053 2053 2053 2053 2053 2065 2065 2065 2078 2078 2078 2090 2090 2090 2090 2090 2090 2090 2078 2078 2090 2078 2078 2078 2078 2078 2078 2078 2078 2090 2090 2090 2090 2090 2090 2090 2090 2090 2090 2090 1572 1572 1572 1572 1572 1572 1572 1572 1564 1564 1572 1572 1572 1572 1572 1586 1586 1586 2078 2078 2078 2090 2090 2090 2078 2078 2078 2078 2078 2078 2078 2090 2090 2090 2103 1833 1833 1833 1833 1833 1843 1853 1853 1863 1873 1873 1883 1993 1981 1981 1981 1981 1981 1981 1981 1981 1464 1464 1464 1464 1464 1464 1464 1464 1464 1464 1464 1470 1470 1470 1477 1477 1489 1489 1843 1843 1843 1843 1843 1843 1843 1843 1843 1843 1853 1883 1883 0 2078 2090 2090 2090 2103 2103 2103 2103 2103 2090 2090 2090 2090 2090 2090 2090 2090 2090 2090 2090 2090 2090 2078 2078 2078 2065 2053 2040 2016 2016 2005 2005 2005 2016 2016 2016 2028 2040 2065 2078 2078 2078 2078 2078 2090 2090 2090 2090 2103 2103 2090 2090 2090 2090 2090 2078 2078 2090 2090 2078 2078 2078 2078 2078 2090 2090 1427 1421 1421 1427 1427 1427 1427 1433 1427 1427 1421 1415 1415 1410 1410 1410 1410 1410 1410 1410 1410 1410 1410 1410 1410 1410 1370 1370 1370 1370 1370 1370 1833 1833 1833 1833 1823 1823 1823 2116 2116 2090 2090 2090 2090 2090 2090 2090 2090 2090 2090 2090 2090 2090 2090 2090 2090 2090 2090 2090 2103 2103 1915 1915 1926 1926 1926 1926 1926 1926 1926 2078 2078 2078 2078 2090 2090 2090 2090 2090 2078 2078 2090 2090 2090 2090 2078 2078 2078 2078 2078 2065 2065 2078 2078 2078 2078 2078 2078 2078 2090 2078 2078 2090 2090 1489 1489 1489 1489 1483 1483 1483 1483 1483 1483 1483 1483 1477 1477 1477 1477 1483 1483 1483 1483 1483 1483 1483 2040 2053 2053 2053 2065 2065 2065 2065 2065 2065 2053 2053 2053 2053 2040 2040 2040 2040 2053 2053 2053 2053 2053 2053 2053 2040 2040 2053 2053 2053 2065 2053 2053 2065 2065 2053 2053 2053 2065 2065 2065 2065 2065 2065 2053 2053 2053 2053 2053 2053 2065 2053 2053 2053 2053 2065 2065 2065 2065 2065 2065 2065 2053 2053 2053 2065 2065 2065 2065 2065 2065 2065 2065 2053 2053 2053 2053 2053 2053 2053 2053 2053 2053 2053 2053 2028 2028 2040 2028 2028 2040 2040 2040 2040 2040 2040 2040 2040 2040 2040 2028 2028 2028 2028 2028 2028 2028 2028 2028 2028 2028 2028 2028 2028 2028 2028 2028 2028 2028 2028 2028 2028 2028 2028 2028 2028 2028 2028 2028 2028 2028 2028 0 0 0 0 0 0 0 0
0 0 0 0 0 0 0 0 0 0 0 0 0 0 0 0 0 0 0 0 0 0 0 0 0 0 0 0 0 0 0 0 0 0 2040 2040 2040 2040 2040 2040 2053 2053 2053 2053 2053 2053 2016 2016 2040 2053 2053 2053 2053 2053 2053 2053 2053 2053 2053 2053 2053 2040 2040 2040 2040 2040 2040 2040 2040 2040 2040 2040 2053 2040 2040 2040 2040 2040 2040 2040 2040 2040 2040 2040 2028 2028 2040 2040 2040 2040 2040 2040 2040 2040 2040 2040 2040 2040 2040 2040 2040 2040 2040 2040 2040 2040 2040 2053 2053 2053 2053 2053 2053 2053 2053 2053 2040 2040 1688 1688 1696 1696 1696 1688 1688 1671 1671 1624 1616 1609 1609 1609 1609 1609 1616 1616 1616 1624 1624 1624 1624 1632 1647 1647 2053 2053 2065 2065 2078 2065 2065 2078 2078 1823 1823 1833 1833 1823 1823 1823 1823 1833 1833 1853 1853 2065 2053 2053 2065 2065 2078 2078 2078 2078 2078 2065 2065 2053 2053 2053 2053 2053 2053 2065 2065 2065 2078 2078 2078 2078 2078 2090 2078 2078 2078 2078 2078 2078 2078 2078 2078 2078 2078 2078 2078 2078 2078 2078 2078 2078 2078 2078 2078 2078 2078 2078 2078 2078 1572 1572 1572 1572 1572 1572 1572 1572 1572 1572 1572 1572 1572 1572 1572 1579 1586 1586 2078 2078 2078 2078 2078 2078 2078 2078 2078 2078 2078 2078 2078 2078 2078 1804 1804 1813 1813 1823 1823 1833 1833 1843 1853 1853 1873 2053 1993 1993 1993 1993 1993 1981 1981 1993 1993 2005 2005 1470 1470 1470 1470 1464 1464 1464 1464 1464 1464 1470 1470 1470 1477 1489 1489 1489 1843 1843 1833 1833 1843 1843 1843 1843 1843 1843 1853 1883 1883 2078 2078 2078 2078 2078 2090 2090 2103 2103 2103 2078 2078 2078 2078 2078 2078 2078 2078 2078 2078 2078 2078 2078 2078 2078 2065 2065 2053 2053 2028 2016 2016 2005 2005 2016 2016 2016 2028 2040 2065 2065 2065 2065 2078 2078 2090 2090 2090 2090 2090 2103 2103 2090 2090 2090 2090 2078 2078 2090 2078 2078 2078 2078 2078 2078 2078 2078 2078 1421 1421 1427 1427 1427 1427 1433 1433 1433 1433 1415 1415 1410 1410 1410 1410 1410 1410 1410 1410 1410 1410 1410 1410 1410 1370 1370 1370 1365 1365 1370 1833 1833 1833 1833 1823 1823 1823 1823 2103 2078 2078 2078 2078 2078 2078 2078 2090 2090 2090 2078 2078 2078 2078 2078 2078 2078 2078 2090 2090 1915 1915 1915 1926 1926 1926 1926 1926 1926 1926 1936 2065 2078 2078 2078 2078 2078 2078 2078 2078 2078 2078 2078 2078 2078 2078 2065 2065 2065 2065 2053 2053 2065 2065 2065 2065 2065 2065 2065 2078 2065 2065 2078 2078 1489 1489 1489 1489 1489 1489 1483 1483 1483 1483 1483 1483 1483 1483 1477 1477 1483 1483 1483 1483 1483 1483 1483 2040 2040 2040 2053 2053 2053 2053 2053 2053 2053 2040 2040 2040 2040 2040 2040 2040 2040 2053 2053 2053 2053 2053 2053 2040 2040 2040 2040 2053 2053 2053 2053 2053 2065 2053 2053 2053 2053 2053 2053 2053 2053 2053 2053 2053 2053 2053 2053 2053 2053 2053 2053 2053 2053 2053 2053 2065 2065 2065 2065 2053 2053 2040 2040 2040 2040 2040 2053 2053 2053 2053 2053 2053 2040 2040 2040 2040 2040 2040 2040 2040 2053 2040 2040 2040 2028 2028 2028 2028 2028 2028 2028 2016 2016 2028 2028 2028 2028 2028 2028 2028 2028 2028 2028 2028 2028 2028 2028 2028 2028 2028 2028 2028 2028 2028 2028 2028 2028 2028 2028 2028 2028 2028 2028 2028 2028 2028 2028 2028 2028 2028 2028 0 0 0 0 0 0 0 0
0 0 0 0 0 0 0 0 0 0 0 0 0 0 0 0 0 0 0 0 0 0 0 0 0 0 0 0 0 0 0 0 0 0 2028 2028 2028 2028 2028 2028 2040 2040 2040 2053 2053 2040 2016 2016 2028 2028 2040 2040 2040 2040 2053 2053 2040 2040 2040 2040 2040 2040 2040 2028 2028 2028 2028 2028 2028 2040 2040 2040 2040 2040 2040 2040 2040 2040 2040 2040 2040 2040 2040 2028 2028 2028 2028 2028 2028 2028 2040 2040 2040 2040 2040 2040 2028 2028 2028 2040 2040 2040 2040 2040 2040 2040 2040 2040 2040 2053 2053 2053 2053 2053 2053 2065 2040 2040 1713 1705 1705 1696 1696 1688 1688 1671 1671 1624 1616 1609 1609 1609 1609 1609 1616 1616 1616 1624 1624 1624 1624 1632 1639 1639 2053 2053 2053 2053 2078 2065 2065 2078 1823 1823 1823 1833 1833 1823 1823 1823 1823 1823 1833 1833 2053 2053 2053 2053 2065 2065 2065 2065 2065 2065 2065 2053 2053 2053 2053 2053 2053 2053 2053 2065 2065 2065 2078 2078 2078 2078 2078 2078 2078 2078 2078 2078 2078 2078 2078 2065 2065 2065 2065 2065 2065 2065 2065 2078 2078 2078 2078 2078 2078 2078 2078 2078 2078 2078 1572 1572 1572 1572 1572 1572 1572 1572 1572 1572 1572 1572 1579 1579 1579 1579 1586 1586 2078 2078 2078 2078 2078 2078 2065 2065 2065 2065 2078 2065 2065 2078 1794 1794 1804 1813 1813 1823 1823 1833 1833 1843 1853 1853 2053 2053 2028 2016 2016 2005 2005 1993 1993 1993 1993 2005 2005 1470 1470 1470 1470 1470 1464 1464 1464 1464 1470 1470 1477 1477 1483 1489 1496 1496 1833 1833 1833 1833 1833 1833 1833 1833 1843 1843 1853 1863 1863 2078 2065 2065 2078 2078 2078 2078 2078 2078 2090 2078 2078 2078 2078 2078 2065 2065 2078 2078 2078 2078 2078 2065 2065 2065 2065 2065 2053 2053 2028 2016 2016 2005 2005 2016 2016 2016 2028 2040 2053 2065 2065 2065 2065 2065 2065 2078 2078 2090 2090 2090 2090 2090 2078 2078 2078 2078 2078 2090 2078 2078 2078 2078 2078 2078 2078 2078 2078 2065 2065 2078 2078 2078 2090 2090 2090 2090 1410 1410 1410 1410 1410 1410 1410 1410 1410 1410 1410 1410 1410 1410 1410 1410 1415 1370 1370 1365 1365 1370 1823 1823 1833 1823 1823 1823 1823 1823 2090 2078 2078 2078 2078 2065 2065 2065 2078 2078 2078 2078 2078 2078 2078 2078 2078 2078 2078 2090 2090 1915 1915 1915 1915 1926 1926 1926 1926 1926 1936 1936 2065 2065 2078 2078 2078 2078 2065 2065 2065 2065 2065 2065 2065 2065 2065 2065 2065 2065 2065 2053 2053 2053 2053 2065 2065 2065 2065 2065 2065 2053 2053 2078 2078 1496 1496 1496 1496 1496 1489 1489 1483 1483 1483 1483 1483 1483 1483 1483 1483 1483 1483 1483 1483 1483 1483 1483 2040 2040 2040 2040 2040 2040 2040 2040 2053 2040 2040 2040 2040 2040 2040 2040 2040 2040 2040 2040 2040 2040 2040 2040 2040 2040 2040 2040 2040 2040 2040 2040 2040 2040 2040 2040 2040 2040 2053 2053 2053 2053 2053 2053 2040 2040 2040 2040 2040 2053 2040 2040 2053 2053 2053 2053 2053 2053 2053 2053 2053 2040 2040 2040 2040 2040 2040 2040 2040 2040 2040 2053 2040 2040 2040 2040 2040 2040 2040 2040 2040 2040 2040 2040 2040 2028 2028 2028 2028 2028 2016 2016 2016 2016 2016 2016 2016 2016 2016 2016 2016 2016 2016 2016 2016 2016 2016 2016 2016 2028 2028 2028 2028 2028 2028 2028 2028 2028 2028 2028 2028 2028 2028 2028 2028 2028 2028 2028 2028 2016 2016 2016 0 0 0 0 0 0 0 0
0 0 0 0 0 0 0 0 0 0 0 0 0 0 0 0 0 0 0 0 0 0 0 0 0 0 0 0 0 0 0 0 0 0 2016 2016 2016 2016 2016 2016 2028 2028 2028 2028 2028 2028 2016 2016 2016 2016 2028 2028 2028 2040 2040 2040 2028 2028 2040 2040 2040 2040 2028 2028 2028 2028 2028 2028 2028 2028 2028 2028 2040 2040 2028 2028 2040 2028 2028 2016 2016 2016 2016 2016 2016 2016 2028 2028 2028 2028 2028 2028 2040 2040 2028 2028 2028 2028 2028 2040 2040 2040 2040 2040 2040 2040 2040 2040 2040 2040 2040 2040 2040 2040 2040 2053 2053 2053 1713 1713 1713 1696 1696 1688 1688 1680 1680 1624 1616 1609 1609 1609 1609 1609 1616 1616 1616 1624 1624 1624 1632 1639 1639 1639 2040 2040 2040 2053 2065 2065 2065 2065 1813 1813 1823 1823 1823 1813 1813 1813 1823 1823 1833 1833 2040 2040 2040 2040 2053 2053 2053 2053 2053 2053 2053 2053 2053 2053 2040 2040 2053 2053 2053 2065 2065 2065 2078 2065 2065 2065 2065 2065 2065 2065 2065 2065 2065 2065 2065 2065 2065 2065 2065 2065 2065 2065 2065 2065 2065 2065 2065 2065 2078 2078 2078 2078 2078 2078 1572 1564 1564 1572 1572 1572 1579 1572 1572 1572 1572 1572 1579 1579 1579 1579 1586 1586 2078 2065 2065 2078 2078 2078 2065 2065 2065 2065 2065 2065 2065 2065 1794 1794 1804 1804 1813 1813 1823 1823 1833 1843 1853 1853 2040 2040 2053 2028 2028 2016 2005 1993 1993 1993 1993 2005 2005 1470 1470 1470 1470 1470 1470 1464 1464 1470 1470 1470 1477 1477 1483 1489 1489 1496 1496 1833 1823 1823 1823 1823 1823 1823 1843 1843 1853 1863 1894 2078 2065 2065 2053 2053 2065 2065 2065 2065 2065 2065 2065 2065 2065 2065 2065 2065 2065 2065 2065 2065 2065 2065 2065 2065 2053 2053 2053 2053 2028 2016 2016 2016 2016 2016 2016 2016 2028 2040 2040 2065 2065 2065 2065 2065 2065 2078 2078 2078 2078 2078 2078 2078 2078 2065 2065 2065 2065 2078 2078 2065 2065 2065 2065 2065 2065 2065 2065 2065 2065 2078 2078 2078 2090 2090 2090 2090 1410 1410 1410 1410 1410 1410 1410 1410 1410 1410 1410 1410 1410 1415 1410 1410 1415 1370 1370 1370 1833 1823 1823 1823 1833 1823 1823 1823 1823 1823 2090 2065 2065 2065 2065 2065 2065 2065 2065 2065 2065 2065 2065 2065 2065 2065 2065 2065 2078 2078 2090 1915 1915 1915 1915 1926 1926 1926 1926 1936 1936 1947 2053 2065 2065 2065 2065 2065 2065 2053 2053 2053 2053 2053 2053 2053 2065 2053 2053 2053 2053 2053 2053 2053 2053 2053 2053 2053 2053 2053 2053 2053 2053 2053 1496 1496 1496 1496 1489 1489 1489 1489 1483 1483 1483 1483 1483 1483 1483 1483 1483 1483 1483 1483 1483 1483 1483 1483 2040 2040 2040 2040 2040 2040 2040 2040 2040 2040 2040 2040 2040 2040 2040 2028 2028 2040 2040 2040 2040 2040 2040 2040 2040 2028 2028 2040 2040 2040 2040 2040 2040 2040 2040 2040 2040 2040 2040 2040 2040 2040 2040 2040 2040 2040 2040 2040 2040 2040 2040 2040 2040 2040 2040 2040 2040 2053 2053 2040 2040 2040 2040 2040 2040 2040 2040 2040 2040 2040 2040 2040 2040 2040 2040 2040 2040 2040 2040 2040 2040 2028 2028 2028 2028 2016 2016 2016 2016 2016 2016 2016 2016 2016 2016 2016 2016 2016 2016 2016 2016 2016 2016 2016 2016 2016 2016 2016 2016 2016 2016 2016 2016 2016 2016 2028 2005 2005 2016 2016 2016 2028 2016 2016 2016 2016 2016 2016 2016 2016 2016 2016 0 0 0 0 0 0 0 0
0 0 0 0 0 0 0 0 0 0 0 0 0 0 0 0 0 0 0 0 0 0 0 0 0 0 0 0 0 0 0 0 0 0 2016 2016 2016 2016 2016 2016 2016 2016 2016 2016 2016 2028 2028 2028 2016 2016 2028 2028 2028 2028 2028 2028 2028 2028 2028 2028 2028 2028 2028 2028 2028 2028 2028 2028 2016 2016 2016 2016 2016 2016 2016 2028 2028 2028 2016 2016 2016 2016 2016 2016 2016 2016 2016 2028 2016 2016 2028 2028 2028 2028 2028 2028 2028 2028 2028 2028 2028 2040 2040 2040 2040 2040 2040 2040 2040 2028 2016 2016 2016 2028 2028 2053 2040 2040 1722 1713 1713 1713 1696 1688 1688 1680 1680 1616 1616 1616 1616 1616 1616 1616 1616 1616 1616 1624 1624 1624 1632 1639 1639 1647 2028 2028 2040 2053 2065 2065 2065 1804 1804 1813 1813 1823 1823 1813 1813 1813 1813 1823 1823 2040 2040 2040 2040 2040 2040 2040 2040 2053 2053 2053 2053 2053 2053 2053 2040 2040 2040 2040 2053 2053 2053 2065 2065 2065 2053 2053 2053 2053 2065 2053 2053 2053 2053 2053 2053 2053 2053 2053 2053 2053 2053 2053 2053 2065 2065 2053 2053 2065 2065 2065 2065 2065 2078 2078 1564 1564 1564 1564 1572 1572 1579 1572 1572 1572 1572 1572 1579 1579 1579 1586 1586 1609 1609 2065 2065 2065 2065 2065 2065 2065 2065 2065 2065 2065 2065 2065 1794 1794 1804 1804 1813 1813 1823 1823 1833 1843 1843 1853 2040 2040 2053 2040 2028 2016 2005 1993 1993 1993 1993 2005 2005 1464 1464 1464 1464 1464 1464 1464 1464 1470 1470 1470 1477 1483 1483 1489 1489 1496 1496 1833 1813 1813 1813 1813 1813 1813 1843 1853 1863 1873 1894 1904 2065 2053 2053 2053 2065 2065 2065 2065 2065 2065 2053 2053 2053 2065 2053 2053 2065 2065 2065 2065 2065 2065 2053 2053 2053 2053 2053 2053 2028 2016 2016 2016 2016 2016 2016 2016 2028 2028 2040 2053 2065 2053 2053 2053 2065 2065 2065 2065 2065 2065 2065 2065 2065 2065 2065 2065 2065 2065 2065 2065 2065 2065 2065 2065 2065 2065 2065 2065 2065 2078 2078 2078 2078 2090 2090 2090 2090 1410 1410 1410 1410 1410 1410 1410 1410 1410 1410 1415 1410 1410 1410 1410 1415 1823 1823 1823 1823 1823 1823 1823 1823 1823 1813 1813 1813 1823 2078 2053 2053 2053 2065 2053 2053 2053 2065 2065 2065 2065 2065 2065 2065 2065 2065 2065 2065 2078 2078 1915 1915 1915 1926 1926 1926 1926 1926 1936 1936 1947 2053 2053 2053 2053 2053 2053 2053 2053 2053 2053 2053 2053 2053 2053 2053 2053 2053 2053 2053 2053 2053 2053 2053 2053 2053 2053 2053 2053 2053 2053 2040 2040 2040 1496 1489 1489 1489 1489 1489 1489 1489 1483 1483 1483 1483 1483 1483 1483 1483 1483 1483 1483 1483 1483 1483 1483 2028 2028 2028 2028 2028 2028 2028 2040 2040 2040 2040 2040 2040 2040 2028 2028 2028 2040 2040 2040 2040 2040 2040 2040 2040 2028 2028 2028 2028 2040 2040 2040 2040 2040 2040 2040 2040 2040 2040 2040 2040 2040 2040 2040 2040 2040 2040 2040 2040 2040 2040 2040 2040 2040 2040 2040 2040 2040 2040 2040 2040 2040 2040 2040 2040 2040 2040 2040 2040 2040 2040 2040 2040 2040 2040 2040 2040 2040 2028 2028 2028 2016 2016 2028 2028 2016 2016 2016 2016 2016 2016 2016 2016 2016 2005 2005 2005 2005 2005 2005 2005 2005 2005 2005 2005 2005 2005 2005 2005 2005 2005 2005 2005 2005 2005 2016 1993 1993 2005 2005 2005 2005 2005 2005 2005 2005 2005 2005 2005 2005 2005 2005 0 0 0 0 0 0 0 0
0 0 0 0 0 0 0 0 0 0 0 0 0 0 0 0 0 0 0 0 0 0 0 0 0 0 0 0 0 0 0 0 0 0 2016 2016 2016 2016 2016 2016 2016 2016 2005 2005 2016 2016 2016 2016 2016 2016 2016 2016 2016 2016 2016 2016 2016 2028 2028 2028 2028 2028 2028 2016 2016 2016 2016 2016 2016 2016 2005 2005 2016 2016 2016 2028 2028 2016 2016 2016 2016 2016 2016 2016 2016 2016 2016 2016 2016 2016 2016 2016 2028 2028 2028 2016 2016 2016 2016 2028 2028 2040 2040 2040 2040 2040 2028 2028 2028 2028 2016 2016 2016 2016 2016 2016 2016 2040 1722 1713 1713 1713 1696 1696 1688 1680 1680 1616 1616 1616 1616 1616 1616 1616 1616 1616 1616 1624 1624 1624 1632 1639 1639 2016 2028 2028 2040 2040 2065 2065 1776 1776 1804 1813 1813 1823 1823 1813 1813 1813 1813 1813 2028 2028 2028 2028 2040 2040 2028 2028 2028 2040 2040 2040 2040 2040 2040 2040 2028 2028 2040 2040 2040 2053 2053 2053 2040 2040 2040 2040 2040 2040 2040 2040 2040 2040 2040 2040 2040 2053 2053 2053 2053 2053 2053 2053 2053 2053 2053 2053 2053 2053 2053 2053 2053 2053 2053 2053 1564 1564 1564 1564 1572 1579 1579 1579 1572 1572 1579 1579 1579 1586 1586 1594 1594 1601 2053 2053 2053 2053 2065 2065 2053 2053 2053 2065 2065 2065 2065 1794 1794 1794 1804 1813 1813 1823 1823 1823 1833 1843 1843 2040 2040 2040 2040 2028 2028 2016 2005 1993 1993 1993 1993 2005 2005 1464 1464 1464 1464 1464 1464 1464 1464 1470 1470 1470 1477 1483 1483 1489 1489 1496 1496 1804 1804 1804 1813 1813 1813 1813 1823 1843 1863 1873 1894 1904 1936 1981 2028 2040 2053 2053 2053 2065 2053 2053 2053 2053 2053 2053 2040 2040 2053 2053 2053 2053 2053 2053 2053 2053 2053 2040 2040 2040 2028 2016 2016 2016 2016 2016 2016 2016 2028 2028 2040 2053 2053 2053 2053 2053 2053 2053 2053 2053 2053 2053 2053 2053 2053 2053 2053 2053 2053 2053 2053 2053 2053 2053 2053 2053 2053 2053 2053 2053 2065 2065 2065 2065 2065 2078 2090 2090 2090 1410 1410 1410 1410 1410 1410 1410 1410 1410 1415 1415 1410 1410 1410 1410 1804 1804 1813 1813 1813 1813 1813 1813 1813 1823 1813 1804 1804 2065 2065 2053 2053 2053 2053 2053 2053 2053 2053 2053 2053 2053 2053 2053 2053 2053 2053 2053 2053 2053 2053 1915 1915 1915 1926 1926 1926 1936 1936 1936 1947 1959 2040 2040 2053 2053 2053 2053 2053 2053 2053 2040 2040 2040 2053 2053 2053 2053 2053 2053 2053 2040 2040 2040 2040 2040 2040 2040 2040 2040 2053 2053 2040 2040 2040 2040 1489 1489 1489 1489 1489 1489 1489 1489 1489 1489 1489 1483 1483 1483 1483 1483 1483 1477 1477 1477 1477 1477 2016 2016 2016 2028 2028 2028 2028 2028 2028 2028 2028 2028 2028 2028 2028 2028 2028 2028 2028 2028 2028 2028 2028 2028 2028 2028 2028 2028 2028 2028 2028 2028 2028 2028 2028 2028 2028 2028 2028 2028 2028 2028 2028 2028 2040 2040 2040 2040 2040 2040 2028 2028 2040 2040 2040 2040 2040 2040 2040 2040 2028 2028 2028 2028 2028 2028 2028 2028 2028 2028 2028 2028 2028 2028 2028 2028 2028 2028 2028 2028 2016 2016 2016 2016 2016 2016 2016 2016 2016 2016 2016 2016 2005 2005 2005 2005 2005 2005 1993 1993 1993 2005 2005 1993 1993 1993 1993 1993 1993 1993 1993 1993 1993 1993 1981 1981 1993 1993 1993 1993 1993 1993 1993 1993 1993 1993 1993 1993 1993 1993 1993 2005 0 0 0 0 0 0 0 0
0 0 0 0 0 0 0 0 0 0 0 0 0 0 0 0 0 0 0 0 0 0 0 0 0 0 0 0 0 0 0 0 0 0 2005 2005 2005 2005 2005 2005 2005 2005 2005 2005 2016 2016 2016 2016 2016 2016 2016 2016 2016 2016 2016 2016 2016 2016 2016 2016 2016 2016 2016 2016 2016 2016 2016 2016 2016 2016 2005 2005 2005 2005 2005 2016 2005 2005 2005 2005 2005 2005 2005 2005 2005 2005 2005 2016 2005 2005 2016 2016 2016 2016 2016 2016 2016 2016 2016 2016 2028 2028 2028 2028 2028 2028 2016 2016 2016 2016 2005 2005 2005 2016 2016 2016 2016 2028 1722 1722 1713 1713 1713 1696 1688 1680 1680 1616 1616 1616 1616 1616 1616 1616 1616 1616 1616 1624 1624 1632 1632 1639 1639 1647 2028 2028 2040 2040 2053 2065 1776 1776 1794 1794 1813 1823 1823 1813 1813 1813 1813 1813 2028 2028 2028 2028 2028 2028 2028 2028 2028 2028 2028 2028 2028 2028 2028 2040 2028 2028 2040 2040 2040 2040 2040 2040 2040 2040 2040 2040 2040 2040 2040 2040 2040 2040 2040 2040 2040 2040 2040 2040 2040 2040 2040 2040 2040 2040 2040 2040 2040 2053 2053 2053 2053 2040 2040 2053 2053 1564 1564 1572 1572 1579 1579 1579 1579 1579 1579 1579 1586 1586 1586 1594 1594 1601 2053 2053 2053 2053 2053 2053 2053 2053 2053 2053 2053 2065 1776 1776 1785 1794 1804 1804 1813 1823 1823 1823 1833 1833 1843 2028 2028 2028 2040 2028 2028 2016 2005 1993 1993 1993 1993 2005 2005 1464 1464 1464 1464 1464 1470 1470 1470 1470 1470 1470 1477 1477 1483 1489 1489 1496 1496 1804 1804 1804 1804 1804 1804 1813 1813 1843 1863 1883 1894 1904 1936 1947 2028 2028 2040 2040 2040 2040 2040 2040 2040 2040 2040 2040 2040 2040 2040 2053 2040 2040 2040 2040 2028 2028 2028 2028 2028 2028 2028 2016 2016 2016 2016 2016 2016 2016 2016 2016 2028 2028 2040 2040 2040 2053 2053 2053 2053 2053 2053 2053 2053 2053 2053 2053 2040 2040 2053 2053 2040 2040 2040 2053 2053 2053 2053 2053 2053 2053 2053 2053 2053 2053 2053 2065 2065 2090 2090 1410 1410 1410 1410 1410 1410 1415 1410 1410 1415 1415 1415 1415 1415 1415 1794 1794 1804 1804 1804 1804 1804 1813 1813 1813 1813 1804 1804 2053 2053 2040 2040 2053 2053 2053 2053 2053 2053 2053 2053 2053 2053 2053 2053 2053 2053 2053 2040 2028 1959 1915 1915 1915 1926 1926 1926 1936 1936 1947 1947 1970 2040 2040 2053 2053 2053 2053 2040 2040 2040 2040 2040 2040 2040 2040 2040 2040 2040 2053 2040 2040 2040 2040 2040 2040 2040 2040 2040 2040 2040 2053 2053 2053 2053 1489 1489 1489 1489 1489 1489 1489 1489 1489 1489 1489 1489 1483 1483 1483 1483 1483 1483 1477 1477 1477 1477 1477 2005 2005 2005 2016 2016 2016 2028 2028 2028 2028 2028 2028 2028 2028 2028 2028 2028 2028 2028 2028 2028 2028 2028 2028 2028 2028 2028 2028 2028 2028 2028 2028 2028 2028 2028 2028 2028 2028 2028 2028 2028 2028 2028 2028 2028 2028 2028 2028 2028 2028 2028 2028 2028 2028 2028 2028 2028 2040 2040 2028 2028 2028 2028 2028 2028 2028 2028 2028 2028 2028 2028 2028 2028 2028 2028 2028 2028 2028 2016 2016 2016 2005 2005 2016 2016 2005 2005 2005 2005 2016 2005 2005 2005 2005 2005 1993 1993 1993 1993 1993 1993 1993 2005 1993 1981 1981 1993 1993 1993 1981 1981 1981 1981 1981 1981 1981 1981 1981 1981 1981 1993 1981 1981 1981 1981 1981 1981 1981 1981 1981 1981 1993 0 0 0 0 0 0 0 0
0 0 0 0 0 0 0 0 0 0 0 0 0 0 0 0 0 0 0 0 0 0 0 0 0 0 0 0 0 0 0 0 0 0 2005 2005 2005 2005 2005 2005 2005 2005 2005 2005 2005 2016 2016 2016 2016 2016 2005 2005 2005 2016 2016 2016 2016 2016 2016 2016 2016 2016 2016 2016 2016 2016 2016 2005 2005 2016 2005 2005 2005 2005 2005 2005 2005 2005 2005 2005 2005 2005 2005 2005 2005 2005 2005 2016 2005 2005 2005 2005 2005 2005 2005 2005 2005 2005 2005 2005 2005 2005 2005 2005 2016 2016 2016 2016 2016 2005 2005 2005 2005 2016 2016 2016 2016 2016 1731 1722 1713 1713 1713 1696 1688 1671 1671 1624 1616 1616 1616 1616 1616 1616 1616 1616 1616 1624 1624 1632 1632 1639 1639 1647 2028 2028 2028 2040 2040 2065 1776 1776 1794 1794 1993 1823 1823 1813 1813 1813 2005 2005 2016 2016 2028 2028 2028 2028 2028 2028 2028 2028 2028 2028 2028 2028 2028 2028 2028 2028 2028 2028 2040 2040 2040 2040 2028 2028 2040 2040 2040 2040 2040 2040 2040 2040 2040 2028 2028 2040 2040 2040 2040 2028 2028 2040 2040 2040 2040 2040 2040 2040 2040 2040 2040 2040 2040 2053 2053 1572 1572 1572 1572 1579 1579 1579 1579 1579 1579 1579 1586 1586 1594 1601 1601 1609 2040 2040 2040 2040 2053 2053 2053 2053 2053 2053 2053 2053 1776 1776 1785 1794 1804 1804 1813 1813 1813 1813 1823 1833 2028 2028 2028 2028 2028 2028 2028 2016 2016 2005 2005 2005 2005 2005 2005 1470 1470 1464 1464 1464 1470 1470 1470 1470 1470 1470 1470 1477 1483 1489 1489 1496 1496 1804 1804 1794 1794 1794 1794 1804 1804 1843 1863 1894 1894 1904 1936 1947 2016 2028 2040 2040 2040 2040 2040 2040 2040 2040 2040 2040 2040 2040 2040 2040 2040 2040 2028 2028 2028 2028 2028 2028 2028 2028 2028 2016 2016 2016 2016 2016 2016 2016 2016 2016 2016 2028 2028 2040 2040 2040 2040 2040 2040 2040 2040 2040 2040 2040 2040 2040 2040 2040 2040 2040 2040 2040 2040 2040 2040 2053 2053 2053 2053 2053 2053 2053 2053 2053 2053 2065 2065 2090 2090 1427 1410 1410 1410 1410 1415 1415 1410 1410 1415 1415 1415 1415 1415 1415 1794 1794 1794 1794 1794 1804 1804 1804 1804 1813 1813 1813 1813 2040 2053 2040 2040 2040 2040 2040 2040 2040 2040 2040 2040 2053 2053 2053 2053 2053 2053 2040 2040 2028 1947 1926 1926 1926 1926 1926 1926 1936 1936 1947 1959 2028 2028 2040 2040 2040 2040 2040 2040 2040 2040 2040 2040 2040 2040 2040 2040 2040 2040 2040 2040 2040 2040 2028 2028 2028 2028 2040 2040 2040 2040 2040 2040 2040 2040 1516 1496 1496 1489 1489 1489 1489 1489 1489 1489 1489 1489 1489 1483 1483 1483 1483 1483 1483 1477 1477 1477 1477 2005 2005 2005 2016 2016 2016 2016 2016 2028 2028 2028 2028 2028 2016 2016 2016 2016 2016 2016 2016 2016 2016 2016 2016 2016 2016 2016 2016 2016 2028 2028 2028 2028 2016 2016 2016 2028 2028 2016 2016 2016 2016 2028 2028 2028 2028 2028 2016 2016 2016 2016 2016 2016 2016 2016 2016 2016 2028 2028 2028 2028 2028 2028 2028 2028 2016 2016 2016 2016 2016 2016 2016 2016 2016 2016 2028 2028 2016 2016 2005 2005 2005 2005 2005 2005 2005 2005 2005 2005 1993 1993 2005 1993 1993 1993 1993 1993 1993 1993 1981 1981 1981 1993 1981 1981 1981 1981 1981 1981 1981 1981 1981 1981 1981 1981 1981 1981 1981 1981 1981 1981 1981 1981 1981 1981 1981 1981 1981 1981 1981 1981 1981 0 0 0 0 0 0 0 0
0 0 0 0 0 0 0 0 0 0 0 0 0 0 0 0 0 0 0 0 0 0 0 0 0 0 0 0 0 0 0 0 0 0 2005 2005 2005 2005 2005 1993 1993 1993 1993 2005 2005 2005 2005 2005 2005 2005 2005 2005 2005 2016 2016 2016 2016 2016 2016 2016 2005 2005 2005 2005 2005 2005 2005 2005 2005 2005 1993 1993 1993 1993 1993 2005 1993 1993 2005 2005 2005 2005 2005 2005 2005 2005 2005 2005 2005 2005 2005 2005 2005 2005 2005 1993 1993 2005 2005 2005 2005 2005 2005 2005 2005 2005 2005 2005 2005 2005 2005 2005 2005 2005 2016 2005 2005 2016 1731 1713 1713 1713 1705 1705 1688 1671 1671 1624 1616 1616 1616 1616 1616 1616 1616 1616 1616 1624 1624 1632 1632 1639 1639 1647 1647 2028 2028 2040 2040 1794 1794 1794 1804 1804 1993 1993 1993 1993 1993 1785 1785 2005 2016 2016 2016 2016 2028 2016 2016 2016 2016 2016 2028 2028 2028 2028 2028 2028 2028 2028 2028 2028 2028 2028 2028 2028 2028 2028 2028 2028 2028 2028 2028 2028 2028 2028 2028 2028 2028 2028 2028 2028 2028 2028 2028 2028 2028 2040 2040 2040 2040 2040 2040 2040 2040 2040 2040 2040 2040 2040 1572 1572 1572 1579 1579 1579 1579 1579 1579 1579 1586 1594 1594 1601 1609 1616 2040 2040 2040 2040 2040 2040 2040 2040 2040 2040 2053 1766 1766 1776 1776 1785 1794 1804 1804 1804 1813 1813 1813 1813 2028 2028 2028 2028 2028 2016 2016 2016 2016 2005 2005 2005 2005 2005 2005 1470 1470 1464 1464 1464 1470 1470 1470 1470 1470 1470 1470 1477 1483 1489 1489 1503 1503 1804 1776 1776 1785 1785 1785 1794 1804 1894 1894 1904 1904 1915 1947 1959 2005 2016 2028 2028 2028 2040 2040 2040 2040 2040 2040 2040 2028 2028 2040 2040 2040 2040 2028 2028 2028 2028 2028 2028 2028 2028 2028 2016 2016 2016 2016 2016 2016 2016 2016 2016 2016 2016 2028 2028 2028 2028 2028 2028 2028 2028 2028 2028 2040 2028 2028 2028 2028 2028 2028 2028 2028 2028 2040 2040 2040 2040 2040 2040 2040 2053 2053 2053 2040 2040 2053 2053 2065 2065 1421 1421 1415 1415 1415 1415 1415 1415 1415 1415 1415 1415 1415 1415 1415 1415 1794 1794 1794 1794 1794 1794 1794 1804 1804 1804 1813 1823 2040 2040 2040 2040 2040 2040 2040 2040 2040 2040 2040 2028 2028 2040 2040 2040 2040 2040 2040 2040 2028 2016 1947 1936 1926 1926 1926 1936 1936 1936 1947 1959 1970 2016 2028 2028 2040 2040 2040 2040 2040 2040 2040 2040 2040 2040 2040 2040 2040 2040 2040 2040 2040 2028 2028 2028 2028 2028 2028 2028 2028 2028 2040 2040 2028 2028 2028 1509 1503 1496 1496 1496 1489 1489 1489 1489 1489 1489 1489 1489 1489 1489 1489 1483 1483 1483 1477 1477 1477 1993 1993 1993 2005 2005 2005 2016 2016 2016 2016 2016 2016 2016 2016 2016 2005 2005 2005 2016 2016 2005 2005 2005 2005 2016 2016 2016 2016 2016 2016 2016 2016 2016 2005 2005 2005 2016 2016 2016 2016 2016 2016 2016 2016 2016 2016 2016 2005 2005 2005 2005 2005 2005 2005 2005 2005 2005 2005 2005 2016 2028 2016 2016 2016 2016 2016 2016 2016 2016 2005 2005 2005 2016 2016 2016 2016 2016 2016 2016 2005 2005 2005 2005 2005 2005 2005 1993 1993 1993 1993 1993 1993 1993 1993 1993 1993 1993 1993 1993 1981 1981 1981 1981 1981 1981 1981 1981 1981 1981 1981 1981 1981 1981 1981 1970 1970 1970 1970 1970 1970 1981 1981 1981 1981 1981 1981 1981 1981 1981 1981 1981 1981 1981 0 0 0 0 0 0 0 0
0 0 0 0 0 0 0 0 0 0 0 0 0 0 0 0 0 0 0 0 0 0 0 0 0 0 0 0 0 0 0 0 0 0 1993 1993 1993 1993 1993 1993 1993 1993 1993 1993 1993 1993 1993 2005 2005 2005 2005 2005 2005 2005 2005 2005 2005 2005 2005 2005 2005 2005 2005 2005 2005 2005 2005 2005 2005 2005 1993 1981 1981 1981 1993 1993 1993 1993 2005 2005 2005 2005 2005 2005 2005 2005 2005 2005 2005 1993 1993 1993 1993 1993 1993 1993 1993 1993 1993 1993 1993 1993 1993 1993 2005 2005 2005 2005 2005 2005 2005 2005 2005 2005 1993 1993 2005 2005 1722 1713 1713 1705 1705 1705 1705 1680 1680 1624 1624 1616 1616 1616 1616 1616 1616 1616 1616 1624 1632 1632 1639 1639 1639 1647 1647 2040 2040 2028 2028 1794 1794 1794 1785 1785 1794 2005 2005 1993 1993 1785 1785 2005 2005 2005 2016 2016 2016 2016 2005 2005 2005 2016 2016 2016 2016 2016 2016 2028 2028 2028 2028 2028 2028 2028 2028 2028 2028 2028 2028 2028 2028 2028 2028 2028 2028 2028 2028 2028 2028 2028 2028 2028 2028 2028 2028 2028 2028 2028 2028 2028 2028 2028 2028 2028 2028 2028 2028 2040 2040 2040 1572 1572 1572 1579 1579 1579 1579 1579 1579 1586 1586 1594 1594 1601 1601 2040 2040 2040 2040 2040 2040 2040 2028 2028 2040 2040 2040 1766 1766 1776 1776 1785 1794 1794 1804 1804 1804 1813 1813 1813 2016 2016 2016 2016 2016 2016 2016 2005 2005 2005 2005 2005 2005 2005 2005 2005 1470 1470 1470 1470 1470 1470 1470 1470 1470 1470 1477 1477 1483 1489 1496 1496 1496 1776 1776 1776 1776 1776 1776 1794 1794 1904 1904 1904 1915 1926 1936 1947 1993 2016 2028 2028 2028 2028 2028 2028 2028 2028 2028 2028 2028 2028 2028 2028 2028 2028 2028 2028 2016 2016 2016 2028 2028 2028 2028 2016 2016 2016 2016 2016 2016 2016 2016 2016 2016 2016 2028 2028 2016 2016 2016 2016 2016 2016 2016 2016 2028 2028 2028 2028 2016 2016 2016 2016 2016 2016 2028 2028 2040 2040 2040 2040 2040 2040 2040 2040 2040 2040 2040 2040 2040 1421 1421 1421 1415 1415 1415 1415 1415 1415 1415 1415 1415 1415 1415 1415 1415 1415 1794 1794 1785 1785 1785 1794 1794 1804 1804 1804 1813 2053 2040 2040 2040 2040 2040 2028 2028 2028 2028 2028 2028 2016 2016 2028 2028 2028 2028 2028 2040 2028 2016 1993 1959 1936 1936 1936 1936 1936 1936 1947 1947 1970 1993 2005 2016 2016 2016 2016 2028 2028 2016 2016 2016 2016 2016 2028 2028 2028 2028 2028 2028 2028 2028 2016 2016 2016 2016 2016 2016 2016 2016 2016 2028 2028 2016 2016 2016 1509 1496 1496 1489 1489 1489 1489 1489 1489 1489 1489 1489 1489 1489 1489 1489 1483 1483 1483 1483 1483 1483 1993 1993 1993 1993 2005 2005 2005 2016 2016 2016 2005 2005 2005 2005 2005 1993 1993 1993 2005 2005 2005 2005 2005 2005 2005 2016 2016 2005 2005 2005 2005 2005 2005 2005 2005 2005 2005 2016 2005 2005 2005 2005 2005 2005 2005 2005 2005 2005 2005 2005 1993 1993 1993 1993 1993 1993 1993 2005 2005 2016 2016 2016 2005 2005 2005 2005 2005 2005 2005 2005 2005 2005 2005 2005 2005 2016 2016 2016 2005 2005 2005 2005 2005 2005 2005 2005 1993 1993 1981 1981 1981 1981 1981 1981 1981 1981 1981 1981 1981 1981 1981 1981 1981 1981 1981 1981 1981 1981 1981 1981 1981 1970 1970 1970 1970 1970 1970 1970 1970 1970 1981 1981 1981 1981 1981 1981 1981 1981 1981 1981 1981 1970 1970 0 0 0 0 0 0 0 0
0 0 0 0 0 0 0 0 0 0 0 0 0 0 0 0 0 0 0 0 0 0 0 0 0 0 0 0 0 0 0 0 0 0 1993 1993 1993 1993 1993 1993 1993 1993 1993 1993 1981 1981 1993 1993 1993 1993 1993 1993 2005 2005 2005 2005 2005 2005 2005 2005 2005 2005 2005 2005 1993 1993 1993 1993 1993 1993 1981 1981 1981 1981 1981 1993 1981 1981 1981 1993 1993 1993 1993 1993 1993 1993 1993 2005 1993 1993 1993 1993 1993 1993 1993 1993 1993 1993 1993 1993 1993 1993 1993 1993 2005 2005 2005 2005 2005 2005 2005 2005 2005 2005 1993 1993 2005 2005 1713 1705 1705 1705 1705 1705 1705 1688 1688 1624 1624 1616 1616 1616 1616 1624 1624 1624 1624 1624 1632 1632 1632 1639 1647 1647 1647 1647 2028 2028 1785 1785 1785 1785 1785 1785 1794 1794 1794 1794 1993 1993 2005 2005 2005 2005 2005 2005 2005 2005 2005 2005 2005 2005 2005 2005 2005 2005 2016 2016 2016 2016 2016 2028 2028 2028 2028 2028 2028 2028 2028 2028 2028 2028 2028 2028 2028 2028 2028 2028 2028 2028 2028 2028 2028 2028 2028 2028 2028 2028 2028 2028 2028 2028 2028 2028 2028 2028 2028 2028 2040 2040 1572 1572 1572 1579 1579 1579 1579 1586 1586 1586 1586 1594 1594 1594 1594 1609 2028 2028 2028 2040 2040 2040 2028 2028 2028 1766 1766 1766 1766 1776 1776 1785 1785 1794 1804 1804 1804 1804 1804 2028 2016 2016 2016 2016 2016 2016 2016 2005 2005 2016 2016 2016 2016 2005 2005 2005 1470 1470 1470 1470 1470 1470 1470 1470 1470 1470 1477 1477 1483 1489 1489 1496 1766 1766 1766 1776 1776 1776 1776 1785 1785 1915 1915 1915 1915 1926 1936 1947 1981 2005 2016 2028 2028 2028 2028 2028 2028 2028 2028 2028 2028 2028 2028 2028 2028 2028 2028 2028 2016 2016 2016 2016 2016 2016 2016 2016 2016 2016 2016 2016 2016 2016 2016 2016 2016 2016 2016 2016 2016 2016 2016 2016 2016 2016 2016 2016 2028 2016 2016 2016 2016 2016 2016 2016 2016 2016 2016 2016 2028 2028 2028 2028 2028 2028 2028 2028 2028 2028 2040 2040 2040 1421 1421 1421 1421 1421 1415 1415 1415 1415 1415 1415 1415 1415 1415 1415 1415 1415 1794 1785 1785 1776 1776 1785 1794 1794 1804 1813 1813 2040 2028 2028 2040 2028 2028 2028 2028 2016 2016 2016 2016 2016 2016 2016 2016 2016 2016 2028 2028 2016 2005 1981 1959 1947 1947 1947 1947 1947 1947 1947 1959 1970 1993 2005 2005 2016 2016 2016 2016 2028 2016 2005 2005 2016 2016 2016 2016 2016 2016 2016 2016 2005 2005 2005 2005 2005 2005 2005 2005 2005 2005 2005 2005 2005 2005 2016 1543 1516 1496 1496 1489 1489 1489 1489 1489 1489 1489 1496 1496 1489 1489 1489 1489 1489 1483 1483 1483 1483 1483 1981 1981 1981 1981 1993 1993 1993 2005 2005 1993 1993 1993 1993 1993 1993 1993 1993 1993 1993 1993 1993 1993 2005 2005 2005 2005 2005 2005 2005 2005 2005 1993 1993 1993 1993 2005 2005 2005 2005 2005 2005 2005 2005 2005 2005 2005 2005 1993 1993 1993 1993 1993 1993 1993 1993 1993 1993 2005 2005 2005 2005 2005 1993 1993 1993 1993 1993 1993 1993 1993 1993 1993 2005 2005 2005 2005 2005 2005 2005 1993 1993 1993 1993 1993 1993 1993 1981 1981 1981 1981 1981 1981 1981 1981 1981 1981 1981 1981 1981 1981 1981 1981 1981 1981 1970 1970 1970 1981 1981 1970 1970 1970 1970 1970 1970 1970 1970 1970 1970 1970 1970 1970 1981 1970 1970 1970 1970 1970 1970 1970 1970 1970 1970 0 0 0 0 0 0 0 0
0 0 0 0 0 0 0 0 0 0 0 0 0 0 0 0 0 0 0 0 0 0 0 0 0 0 0 0 0 0 0 0 0 0 1981 1981 1993 1993 1993 1993 1993 1993 1981 1981 1981 1981 1981 1981 1993 1993 1993 1993 1993 1993 1993 1981 1981 2005 2005 1993 1993 1993 1993 1993 1993 1981 1981 1981 1981 1981 1970 1970 1970 1970 1970 1981 1981 1981 1981 1981 1981 1981 1981 1993 1993 1981 1981 1981 1993 1981 1981 1981 1993 1993 1993 1993 1993 1993 1993 1993 1993 1993 1993 1993 1993 1993 1993 1993 1993 1993 1993 2005 2005 2005 2005 2005 1993 1993 1713 1705 1705 1705 1705 1705 1705 1705 1705 1624 1624 1624 1616 1616 1624 1624 1624 1624 1624 1624 1632 1632 1632 1639 1647 1647 1647 0 1776 1776 1776 1776 1785 1785 1785 1785 1785 1794 1785 1785 1993 1993 1993 1993 2005 2005 2005 2005 2005 2005 2005 2005 2005 2005 2005 2005 2005 2005 2005 2005 2005 2005 2016 2016 2016 2016 2016 2016 2016 2016 2016 2016 2016 2028 2028 2028 2028 2028 2028 2028 2028 2028 2028 2016 2016 2016 2028 2016 2016 2028 2028 2028 2028 2028 2028 2028 2028 2028 2028 2028 2028 2040 1572 1572 1572 1572 1579 1579 1579 1586 1586 1586 1586 1594 1594 1594 1594 1601 2028 2028 2028 2028 2028 2040 2028 2028 2028 1766 1766 1766 1766 1766 1776 1776 1785 1794 1804 1804 1804 1804 1804 2016 2016 2016 2016 2005 2005 2005 2005 2005 2016 2016 2016 2016 2016 2016 2016 2016 1470 1470 1470 1470 1470 1470 1470 1470 1470 1477 1477 1477 1477 1489 1489 1496 1766 1766 1766 1766 1776 1776 1776 1776 1776 1776 1915 1915 1915 1926 1936 1947 1981 1993 2016 2016 2028 2028 2028 2016 2016 2016 2016 2028 2028 2028 2028 2028 2028 2028 2028 2028 2016 2016 2016 2016 2016 2016 2016 2016 2016 2016 2005 2005 2016 2016 2005 2005 2005 2005 2016 2016 2005 2005 2016 2016 2016 2016 2016 2016 2016 2016 2016 2016 2016 2016 2016 2016 2016 2016 2016 2016 2016 2016 2016 2028 2028 2028 2028 2028 2016 2016 2028 2028 2028 1427 1427 1421 1421 1421 1415 1415 1415 1415 1415 1415 1415 1415 1415 1415 1415 1415 1794 1776 1776 1766 1766 1776 1785 1794 1794 1813 1873 1883 2016 2016 2028 2016 2016 2016 2016 2016 2016 2005 2005 2005 2005 2005 2005 2005 2016 2016 2016 2005 1993 1981 1959 1959 1947 1947 1947 1947 1947 1959 1959 1981 1993 2005 2005 2005 2005 2005 2016 2016 2005 2005 2005 2005 2005 2005 2005 2005 2005 2005 2005 2005 2005 2005 2005 1993 1993 1993 1993 1993 1993 1993 1993 1993 1993 2016 1523 1509 1503 1496 1489 1489 1489 1489 1489 1489 1489 1496 1496 1496 1489 1489 1489 1489 1489 1489 1483 1483 1993 1981 1981 1981 1981 1993 1993 1993 1993 1993 1993 1993 1993 1993 1993 1993 1981 1981 1993 1993 1993 1993 1993 1993 1993 1993 2005 2005 1993 1993 1993 2005 1993 1993 1993 1993 1993 2005 2005 2005 2005 1993 1993 2005 1993 1993 1993 1993 1993 1993 1993 1993 1993 1993 1993 1993 1993 1993 1993 1993 1993 1993 1993 1993 1993 1993 1993 1993 1993 1993 1993 1993 1993 1993 1993 1993 2005 2005 1993 1993 1993 1993 1993 1993 1993 1993 1993 1981 1981 1981 1981 1981 1981 1981 1981 1981 1970 1970 1970 1970 1970 1970 1970 1970 1970 1970 1970 1970 1970 1970 1970 1970 1970 1970 1970 1970 1970 1970 1970 1970 1970 1970 1970 1970 1970 1970 1970 1970 1970 1970 1970 1970 1959 1959 0 0 0 0 0 0 0 0
0 0 0 0 0 0 0 0 0 0 0 0 0 0 0 0 0 0 0 0 0 0 0 0 0 0 0 0 0 0 0 0 0 0 1970 1970 1981 1981 1981 1993 1970 1970 1970 1970 1970 1970 1970 1970 1981 1981 1981 1981 1981 1981 1981 1981 1981 1981 1981 1981 1981 1970 1970 1970 1981 1970 1970 1970 1970 1970 1959 1959 1959 1959 1959 1959 1959 1959 1959 1970 1970 1981 1981 1981 1981 1970 1970 1970 1981 1970 1970 1970 1981 1981 1981 1981 1981 1981 1981 1981 1981 1981 1993 1993 1993 1993 1993 1993 1993 1993 1993 1993 1993 1993 1993 1981 1981 1981 1713 1705 1705 1705 1705 1705 1713 1705 1705 1624 1624 1624 1616 1616 1624 1624 1624 1624 1624 1624 1632 1632 1632 1639 1647 1647 1647 0 1748 1766 1766 1766 1766 1766 1776 1776 1785 1785 1785 1785 1981 1993 1993 1993 2005 2005 2005 2005 2005 2005 1993 1993 1993 1993 1993 1993 1993 1993 1993 1993 2005 2005 2005 2005 2016 2005 2005 2005 2016 2005 2005 2016 2016 2016 2016 2016 2016 2016 2016 2016 2016 2016 2016 2016 2016 2016 2016 2016 2016 2016 2016 2028 2016 2016 2016 2016 2016 2016 2016 2016 2028 2028 2028 1572 1572 1572 1579 1579 1579 1586 1586 1586 1586 1594 1594 1594 1594 1601 2016 2016 2028 2028 2028 2040 2028 2028 1776 1766 1766 1766 1766 1766 1766 1776 1776 1785 1794 1804 1804 1804 2016 2016 2005 2005 2005 2005 2005 2005 2005 2005 2016 2016 2016 2016 2016 2016 2016 2016 1470 1470 1470 1470 1470 1470 1470 1470 1470 1477 1477 1477 1477 1483 1489 1757 1757 1757 1766 1766 1766 1766 1776 1776 1776 1915 1915 1915 1926 1926 1936 1947 1970 1993 2016 2016 2016 2016 2016 2016 2016 2016 2016 2016 2016 2016 2016 2016 2016 2016 2028 2028 2016 2016 2016 2016 2016 2016 2016 2016 2016 2005 2005 2005 2005 2005 2005 2005 2005 2005 2005 2016 2005 2005 2005 2005 2005 2005 2005 2005 2016 2016 2016 2005 2005 2016 2016 2016 2016 2016 2016 2016 2016 2016 2016 2016 2028 2028 2016 2016 2016 2016 2016 2016 2016 1427 1427 1421 1421 1421 1415 1415 1415 1421 1415 1415 1415 1415 1415 1415 1421 1421 1766 1766 1766 1766 1766 1776 1785 1794 1794 1863 1863 1883 1936 2005 2016 2016 2016 2016 2005 2005 2005 2005 2005 2005 2005 2005 2005 2005 2005 2005 2005 2005 1981 1981 1959 1959 1959 1947 1947 1947 1947 1959 1959 1981 1981 1993 2005 2005 2005 2005 2005 2005 2005 2005 2005 2005 2005 2005 2005 2005 2005 2005 2005 1993 1993 1993 1993 1993 1993 1993 1993 1993 1993 1993 1993 1993 1993 1993 1516 1509 1503 1496 1496 1496 1489 1489 1489 1496 1496 1496 1496 1496 1489 1489 1496 1489 1489 1489 1489 1489 1981 1970 1970 1970 1981 1981 1981 1981 1981 1993 1993 1993 1981 1981 1981 1993 1981 1981 1981 1993 1993 1993 1993 1993 1993 1993 1993 1993 1993 1993 1993 1993 1981 1981 1981 1981 1993 1993 1993 1993 1993 1993 1993 1993 1993 1993 1993 1993 1993 1993 1993 1993 1981 1981 1993 1993 1993 1993 1993 1993 1993 1993 1993 1993 1993 1993 1993 1993 1993 1993 1993 1993 1993 1993 1993 1993 1993 1993 1993 1993 1993 1993 1993 1981 1981 1981 1981 1970 1970 1970 1970 1970 1970 1970 1970 1970 1970 1970 1970 1970 1970 1970 1970 1970 1970 1970 1970 1970 1970 1970 1970 1970 1970 1959 1959 1970 1970 1970 1970 1970 1959 1959 1970 1959 1959 1959 1959 1959 1970 1970 1959 1959 1947 1947 0 0 0 0 0 0 0 0
0 0 0 0 0 0 0 0 0 0 0 0 0 0 0 0 0 0 0 0 0 0 0 0 0 0 0 0 0 0 0 0 0 0 1970 1970 1970 1970 1970 1970 1959 1959 1970 1970 1970 1959 1959 1970 1970 1970 1970 1970 1970 1970 1970 1970 1981 1970 1970 1981 1970 1970 1970 1970 1970 1970 1959 1959 1970 1970 1959 1959 1959 1959 1959 1959 1959 1959 1959 1959 1959 1970 1959 1959 1959 1959 1959 1959 1959 1959 1959 1959 1959 1959 1970 1970 1959 1959 1959 1959 1959 1959 1970 1981 1981 1981 1970 1970 1981 1981 1981 1981 1981 1981 1993 1981 1981 1981 1981 1705 1705 1705 1705 1705 1713 1713 1705 1616 1616 1624 1616 1616 1624 1624 1624 1624 1624 1624 1632 1632 1632 1632 1647 1647 1647 1739 1748 1748 1748 1757 1766 1766 1776 1776 1785 1785 1785 1785 1981 1993 1993 1993 1993 1993 1993 1993 1993 1993 1993 1993 1993 1993 1993 1993 1993 1993 1993 1993 1993 1993 1993 2005 2005 2005 2005 2005 2005 2005 2005 2005 2005 2016 2016 2016 2016 2016 2016 2016 2016 2016 2016 2016 2016 2016 2016 2016 2016 2016 2016 2016 2016 2005 2005 2005 2005 2005 2005 2005 2016 2028 2028 1572 1572 1572 1579 1579 1579 1586 1586 1586 1586 1594 1594 1594 1594 1594 2016 2016 2028 2028 2028 2028 2028 2028 1766 1766 1766 1766 1766 1766 1766 1776 1776 1776 1776 1776 1794 1804 2005 2005 2005 2005 2005 2005 2005 1993 1993 2005 2005 2005 2005 2016 2016 2028 2028 1470 1470 1470 1470 1470 1477 1477 1470 1470 1470 1477 1477 1477 1477 1483 1489 1757 1757 1757 1766 1766 1766 1766 1766 1757 1757 1915 1915 1926 1926 1926 1936 1947 1970 1981 1993 2016 2016 2016 2016 2016 2016 2005 2005 2005 2005 2005 2005 2005 2016 2016 2016 2016 2005 2005 2016 2016 2016 2016 2016 2016 2005 2005 2005 2005 2005 2005 2005 2005 2005 2005 2005 2005 2005 2005 2005 2005 2005 2005 2005 2005 2005 2005 2005 2005 2005 2005 2005 2005 2005 2005 2016 2016 2016 2016 2016 2016 2016 2016 2016 2016 2005 2005 2005 2005 2005 1421 1421 1421 1421 1421 1415 1415 1421 1421 1421 1421 1421 1421 1415 1415 1421 1421 1766 1766 1757 1757 1757 1766 1776 1794 1813 1863 1863 1883 1936 1970 2016 2005 2005 2005 2005 2005 2005 1993 1993 1993 1993 1993 2005 2005 2005 2005 2005 1993 1981 1970 1959 1959 1959 1947 1947 1947 1959 1959 1959 1970 1981 1993 1993 2005 2005 2005 2005 2005 1993 1993 1993 1993 1993 2005 2005 1993 1993 1993 1993 1993 1993 1993 1993 1993 1993 1993 1993 1993 1981 1981 1993 1981 1981 1981 1509 1503 1503 1503 1503 1503 1496 1496 1496 1496 1496 1503 1496 1496 1496 1496 1503 1496 1496 1489 1489 1489 1981 1970 1970 1970 1981 1981 1981 1981 1981 1981 1981 1981 1970 1970 1970 1981 1981 1981 1981 1981 1981 1981 1981 1981 1981 1981 1981 1981 1981 1981 1981 1981 1981 1981 1981 1981 1981 1981 1981 1981 1993 1993 1993 1993 1981 1981 1981 1981 1981 1981 1981 1981 1981 1981 1981 1993 1993 1993 1993 1993 1993 1981 1981 1981 1981 1981 1981 1981 1981 1993 1981 1981 1981 1981 1981 1981 1981 1981 1981 1981 1981 1981 1981 1981 1981 1981 1970 1970 1970 1959 1959 1959 1959 1959 1959 1959 1959 1959 1959 1959 1959 1959 1959 1959 1959 1959 1959 1959 1959 1959 1959 1959 1959 1959 1959 1959 1959 1959 1959 1959 1959 1959 1959 1947 1947 1959 1959 1959 1959 1959 1959 1959 1947 1947 0 0 0 0 0 0 0 0
0 0 0 0 0 0 0 0 0 0 0 0 0 0 0 0 0 0 0 0 0 0 0 0 0 0 0 0 0 0 0 0 0 0 1959 1959 1959 1959 1959 1959 1947 1947 1959 1959 1959 1959 1959 1959 1970 1970 1959 1959 1970 1970 1970 1970 1970 1970 1970 1970 1970 1970 1970 1970 1970 1959 1959 1959 1959 1959 1959 1947 1947 1947 1947 1947 1947 1947 1959 1959 1959 1959 1959 1959 1959 1947 1947 1959 1959 1959 1959 1959 1959 1959 1959 1959 1959 1959 1959 1959 1959 1959 1959 1959 1959 1981 1959 1959 1959 1970 1981 1981 1970 1970 1970 1981 1981 1970 1970 1705 1696 1696 1705 1713 1713 1713 1705 1616 1616 1616 1616 1616 1624 1624 1624 1624 1624 1624 1632 1632 1632 1632 1639 1647 1739 1739 1739 1739 1748 1748 1748 1757 1766 1776 1785 1785 1785 1981 1970 1970 1981 1981 1981 1981 1993 1993 1993 1993 1993 1993 1993 1993 1993 1981 1981 1993 1993 1993 1993 1993 1993 1993 1993 1993 1993 1993 1993 1993 1993 1993 2005 2005 2005 2005 2005 2005 2005 2005 2005 2005 2005 2005 2005 2005 2005 2005 2005 2005 2005 2005 2005 2005 2005 2005 1993 1993 2005 2005 2016 2028 2028 1572 1572 1572 1579 1579 1579 1586 1586 1586 1594 1594 1594 1601 1609 1609 2016 2016 2016 2016 2028 2028 2028 1739 1739 1748 1757 1757 1766 1766 1766 1766 1766 1776 1776 1776 1794 2016 2005 2005 1993 1993 1993 1993 1993 1993 1993 2005 2005 2005 2005 2016 2016 2016 2028 2028 1470 1470 1470 1470 1477 1477 1470 1470 1477 1477 1477 1477 1483 1489 1529 1529 1748 1748 1757 1757 1757 1757 1766 1757 1757 1926 1926 1926 1926 1936 1936 1947 1970 1981 1993 2005 2016 2016 2005 2005 2005 1993 1993 1993 2005 2005 2005 2005 2016 2016 2016 2016 2005 2005 2005 2005 2005 2005 2005 2005 2005 2005 1993 1993 2005 2005 2005 2005 2005 2005 2005 2005 2005 2005 2005 2005 2005 2005 2005 2005 2005 2005 2005 2005 2005 2005 2005 2005 2005 2005 2005 2005 2005 2005 2005 2005 2016 2016 2005 2005 2005 2005 2005 2005 2005 2005 1421 1421 1421 1421 1421 1421 1421 1421 1421 1421 1421 1421 1421 1421 1421 1421 1421 1757 1757 1757 1757 1766 1776 1794 1823 1863 1873 1894 1947 1970 2005 1993 1993 1993 1993 1993 1993 1993 1993 1993 1993 1993 1993 1993 1993 1993 1993 1993 1981 1970 1959 1959 1959 1947 1947 1959 1959 1959 1959 1970 1981 1981 1981 1993 1993 1993 1993 1993 1993 1993 1993 1993 1993 1993 1993 1993 1993 1993 1993 1993 1981 1981 1981 1981 1981 1981 1981 1981 1981 1981 1981 1981 1981 1981 1509 1503 1503 1503 1503 1503 1496 1496 1496 1496 1496 1503 1496 1496 1496 1496 1503 1496 1496 1496 1496 1496 1981 1970 1970 1970 1970 1981 1970 1970 1970 1970 1970 1970 1970 1970 1970 1970 1970 1970 1970 1981 1981 1981 1981 1981 1981 1981 1970 1970 1970 1970 1970 1970 1970 1970 1970 1970 1970 1970 1970 1981 1981 1981 1981 1981 1981 1981 1981 1970 1970 1981 1981 1981 1981 1981 1981 1981 1981 1993 1981 1981 1981 1981 1981 1981 1981 1981 1981 1981 1981 1981 1981 1981 1981 1981 1981 1981 1981 1981 1981 1981 1981 1981 1981 1970 1970 1981 1970 1959 1959 1959 1959 1959 1959 1959 1959 1959 1959 1959 1959 1959 1959 1959 1959 1959 1959 1959 1947 1947 1947 1947 1947 1947 1947 1947 1947 1947 1947 1947 1959 1959 1947 1947 1947 1947 1947 1947 1947 1959 1959 1959 1959 1959 1936 1936 0 0 0 0 0 0 0 0
0 0 0 0 0 0 0 0 0 0 0 0 0 0 0 0 0 0 0 0 0 0 0 0 0 0 0 0 0 0 0 0 0 0 1959 1959 1947 1947 1959 1947 1947 1947 1947 1959 1959 1959 1959 1959 1959 1959 1959 1959 1959 1959 1959 1959 1959 1959 1959 1959 1959 1959 1959 1959 1959 1959 1959 1959 1959 1959 1947 1947 1947 1947 1947 1947 1947 1947 1959 1959 1959 1959 1947 1947 1947 1947 1947 1947 1947 1959 1959 1959 1959 1959 1959 1959 1959 1959 1959 1959 1959 1959 1959 1959 1959 1959 1959 1959 1959 1970 1959 1959 1959 1959 1959 1959 1970 1970 1970 1970 1696 1696 1705 1713 1713 1713 1713 1713 1616 1616 1616 1616 1624 1624 1624 1624 1624 1624 1632 1632 1632 1639 1639 1647 1713 1722 1731 1731 1739 1748 1748 1748 1748 1776 1785 1785 1785 1959 1959 1970 1970 1970 1981 1981 1981 1981 1981 1981 1981 1981 1981 1981 1981 1981 1981 1981 1981 1981 1981 1981 1981 1981 1981 1981 1981 1981 1981 1993 1993 1993 1993 1993 2005 1993 1993 1993 1993 1993 1993 1993 1993 1993 1993 2005 2005 1993 1993 2005 2005 2005 1993 1993 1993 1993 1993 1993 1993 1993 2005 2016 2016 1579 1579 1579 1579 1579 1579 1586 1586 1586 1594 1594 1601 1601 1609 1609 2016 2016 2016 2016 2028 2028 2028 1739 1739 1748 1748 1748 1757 1757 1766 1766 1766 1766 1766 1766 1993 1993 1993 1993 1981 1981 1993 1993 1993 1993 1993 1993 1993 1993 1993 2005 2005 2016 2016 2016 1477 1477 1477 1477 1477 1477 1477 1477 1477 1483 1483 1483 1483 1489 1509 1516 1739 1739 1748 1748 1757 1757 1757 1757 1757 1926 1936 1936 1936 1936 1947 1959 1970 1981 1981 1993 2005 2005 2005 1993 1993 1981 1981 1981 1993 1993 1993 2005 2005 2005 2016 2016 1993 1993 2005 2005 2005 1993 1993 1993 2005 1993 1993 1993 1993 1993 1993 1993 1993 1993 2005 2005 2005 2005 2005 2005 2005 2005 2005 2005 2005 2005 2005 2005 2005 2005 2005 2005 2005 2005 2005 2005 2005 2005 2005 2005 2005 2005 1993 1993 1993 1993 1993 1993 1993 1993 1421 1421 1421 1415 1415 1421 1421 1421 1421 1421 1421 1421 1421 1421 1427 1427 1722 1739 1739 1739 1748 1757 1766 1785 1823 1863 1873 1883 1959 1970 1981 1993 1993 1993 1993 1993 1993 1993 1993 1993 1993 1993 1993 1993 1993 1993 1993 1993 1981 1970 1959 1959 1959 1959 1947 1947 1947 1947 1959 1959 1970 1970 1981 1981 1993 1993 1993 1993 1981 1981 1981 1981 1981 1981 1981 1981 1981 1981 1981 1981 1981 1981 1981 1981 1981 1981 1981 1981 1981 1981 1981 1981 1993 1993 1509 1503 1503 1503 1503 1503 1496 1496 1496 1496 1496 1503 1503 1503 1496 1496 1503 1496 1496 1496 1503 1503 1981 1959 1959 1959 1970 1970 1959 1959 1959 1959 1959 1959 1959 1959 1959 1959 1959 1959 1959 1970 1970 1970 1970 1970 1970 1981 1970 1970 1970 1970 1970 1970 1959 1959 1970 1970 1970 1970 1970 1970 1970 1970 1970 1970 1970 1970 1970 1970 1970 1970 1970 1970 1970 1981 1981 1981 1981 1981 1981 1981 1970 1970 1970 1981 1981 1970 1970 1970 1970 1981 1970 1970 1970 1981 1981 1981 1981 1970 1970 1970 1970 1970 1970 1970 1970 1970 1970 1959 1959 1959 1947 1947 1947 1947 1947 1947 1947 1947 1947 1959 1959 1959 1959 1959 1947 1947 1947 1947 1936 1936 1936 1936 1936 1936 1936 1936 1936 1947 1947 1947 1936 1936 1936 1936 1936 1947 1947 1947 1947 1947 1947 1936 1936 1936 0 0 0 0 0 0 0 0
0 0 0 0 0 0 0 0 0 0 0 0 0 0 0 0 0 0 0 0 0 0 0 0 0 0 0 0 0 0 0 0 0 0 1947 1947 1947 1947 1947 1947 1936 1936 1947 1947 1959 1959 1959 1959 1959 1959 1947 1947 1947 1959 1947 1947 1959 1959 1959 1959 1959 1959 1947 1947 1947 1947 1959 1959 1959 1959 1947 1947 1947 1947 1947 1947 1947 1947 1959 1959 1959 1959 1947 1947 1947 1947 1947 1947 1947 1959 1959 1959 1959 1959 1959 1959 1959 1959 1959 1959 1959 1959 1959 1959 1959 1959 1959 1959 1959 1959 1959 1959 1959 1959 1959 1959 1959 1959 1959 1959 1959 1713 1713 1713 1713 1713 1713 1713 1616 1616 1624 1624 1624 1624 1624 1624 1624 1624 1632 1632 1639 1647 1647 1647 1705 1722 1722 1731 1739 1739 1748 1748 1748 1794 1794 1794 1947 1947 1959 1970 1970 1970 1970 1981 1981 1981 1981 1981 1981 1981 1981 1981 1981 1981 1981 1981 1981 1981 1981 1981 1981 1981 1981 1981 1981 1981 1981 1981 1981 1981 1993 1993 1993 1981 1981 1981 1993 1993 1993 1993 1993 1993 1993 1993 1993 1993 1993 1993 1993 1993 1993 1993 1993 1993 1993 1993 1981 1981 2005 1586 1586 1579 1579 1579 1579 1579 1579 1586 1586 1586 1594 1594 1601 1601 1609 1616 1616 2016 2016 2016 1748 1748 1757 1748 1748 1739 1739 1748 1757 1757 1766 1766 1766 1766 1766 1766 1981 1981 1981 1981 1981 1981 1981 1981 1981 1981 1981 1981 1981 1981 1981 1993 2005 2005 2016 2016 1470 1470 1470 1477 1483 1483 1483 1483 1483 1483 1489 1489 1489 1496 1496 1516 1739 1739 1739 1748 1748 1748 1757 1748 1748 1748 1936 1936 1936 1936 1947 1959 1970 1981 1981 1993 1993 2005 1993 1993 1981 1981 1981 1981 1981 1993 1993 1993 2005 2005 2005 1993 1993 1993 1993 1993 1993 1993 1993 1993 1993 1981 1981 1981 1981 1981 1981 1981 1993 1993 1993 2005 1993 1993 1993 1993 1993 1993 1993 1993 1993 2005 2005 2005 2005 2005 2005 2005 2005 2005 2005 1993 1993 1993 1993 1981 1981 1981 1981 1993 1993 1993 1993 1993 1993 1993 1421 1421 1421 1415 1415 1421 1421 1421 1421 1421 1421 1427 1421 1421 1427 1427 1722 1722 1731 1739 1748 1757 1766 1785 1853 1863 1873 1873 1959 1959 1970 1981 1981 1981 1981 1981 1993 1981 1981 1993 1993 1993 1993 1993 1993 1993 1993 1981 1970 1970 1959 1959 1959 1959 1947 1947 1947 1947 1959 1959 1970 1970 1981 1981 1981 1981 1981 1981 1981 1970 1970 1981 1981 1970 1970 1981 1981 1981 1981 1981 1981 1981 1981 1970 1970 1981 1970 1970 1970 1970 1981 1993 1993 1993 1509 1503 1503 1503 1503 1503 1503 1503 1503 1503 1503 1503 1503 1503 1503 1503 1503 1503 1496 1496 1503 1959 1959 1947 1947 1959 1959 1959 1959 1959 1947 1947 1947 1947 1947 1947 1947 1947 1947 1947 1959 1959 1959 1959 1970 1970 1970 1970 1959 1959 1959 1959 1959 1959 1959 1959 1959 1959 1959 1959 1959 1959 1970 1959 1959 1970 1970 1970 1970 1959 1959 1970 1959 1959 1959 1959 1959 1970 1970 1970 1970 1959 1959 1959 1959 1959 1970 1959 1959 1970 1970 1970 1959 1959 1959 1970 1970 1970 1970 1970 1970 1959 1959 1959 1959 1959 1959 1959 1959 1947 1947 1947 1947 1947 1947 1947 1947 1947 1947 1936 1936 1947 1947 1947 1947 1947 1936 1936 1936 1936 1936 1936 1936 1936 1936 1936 1936 1936 1936 1936 1936 1936 1936 1936 1936 1936 1936 1936 1936 1936 1936 1936 1936 1936 1936 1936 0 0 0 0 0 0 0 0
0 0 0 0 0 0 0 0 0 0 0 0 0 0 0 0 0 0 0 0 0 0 0 0 0 0 0 0 0 0 0 0 0 0 1936 1936 1936 1936 1936 1926 1926 1926 1947 1947 1947 1947 1947 1959 1959 1959 1947 1947 1947 1947 1947 1947 1947 1947 1947 1947 1947 1947 1947 1947 1947 1947 1947 1947 1947 1947 1936 1936 1936 1936 1936 1936 1947 1947 1947 1947 1947 1947 1947 1947 1947 1947 1947 1947 1947 1947 1947 1947 1947 1947 1959 1959 1959 1959 1959 1959 1947 1947 1947 1947 1947 1959 1959 1959 1959 1959 1959 1959 1959 1959 1959 1959 1959 1959 1947 1947 1947 1722 1722 1722 1722 1722 1722 1713 1616 1609 1609 1616 1624 1624 1624 1624 1624 1624 1632 1632 1639 1647 1647 1671 1705 1722 1722 1731 1731 1731 1739 1739 1739 1739 1959 1959 1947 1947 1947 1959 1970 1959 1959 1970 1970 1970 1970 1970 1970 1970 1970 1981 1981 1970 1970 1970 1970 1970 1970 1970 1970 1970 1970 1970 1970 1970 1970 1981 1981 1981 1981 1981 1981 1981 1981 1981 1981 1981 1981 1981 1981 1981 1981 1981 1981 1981 1981 1981 1981 1981 1981 1981 1981 1981 1981 1981 1981 1981 1981 1586 1586 1579 1579 1579 1579 1579 1586 1586 1586 1586 1594 1594 1601 1601 1616 1616 1616 1713 1713 1731 1739 1748 1748 1739 1739 1739 1739 1748 1757 1757 1757 1766 1757 1757 1766 1970 1981 1981 1981 1981 1981 1981 1981 1981 1981 1981 1970 1970 1981 1981 1981 1981 1981 1993 1993 1470 1470 1470 1470 1477 1483 1483 1483 1483 1483 1483 1489 1489 1489 1496 1496 1529 1731 1739 1739 1739 1748 1748 1748 1748 1739 1739 1936 1936 1936 1936 1947 1959 1970 1981 1981 1981 1993 1993 1993 1993 1981 1981 1981 1981 1981 1981 1993 1993 1993 1993 1993 1993 1981 1981 1981 1981 1981 1981 1981 1981 1981 1981 1981 1981 1981 1981 1981 1981 1970 1970 1993 1993 1993 1993 1993 1993 1993 1993 1993 1993 1993 1993 1993 1993 1993 1993 1981 1981 1993 1993 1993 1993 1993 1970 1970 1981 1981 1981 1981 1981 1981 1981 1993 1993 1993 1993 1421 1421 1421 1415 1415 1421 1421 1421 1421 1421 1421 1427 1421 1421 1427 1713 1713 1722 1731 1731 1739 1748 1766 1804 1823 1853 1873 1873 1947 1959 1970 1981 1981 1970 1970 1970 1981 1981 1981 1981 1981 1981 1981 1981 1981 1981 1981 1981 1970 1959 1959 1959 1959 1959 1947 1947 1959 1959 1959 1959 1959 1970 1970 1981 1970 1970 1981 1970 1970 1970 1970 1970 1970 1970 1970 1970 1970 1970 1970 1970 1970 1970 1970 1970 1970 1970 1959 1959 1959 1959 1970 1970 1981 1981 1509 1509 1503 1503 1503 1503 1503 1503 1503 1503 1503 1503 1503 1503 1503 1503 1503 1503 1496 1496 1503 1947 1947 1947 1947 1947 1947 1947 1947 1947 1947 1947 1947 1947 1947 1947 1947 1947 1947 1947 1947 1959 1959 1959 1959 1959 1959 1959 1947 1947 1947 1947 1947 1947 1947 1947 1959 1959 1947 1947 1959 1959 1959 1959 1959 1959 1959 1959 1959 1959 1959 1959 1947 1947 1959 1959 1959 1959 1959 1959 1959 1947 1947 1959 1959 1959 1959 1947 1947 1947 1947 1947 1947 1947 1947 1959 1959 1959 1959 1959 1959 1959 1959 1959 1959 1959 1959 1959 1947 1936 1936 1936 1936 1936 1936 1936 1936 1936 1936 1936 1936 1947 1947 1947 1936 1936 1936 1936 1926 1926 1926 1926 1926 1926 1926 1936 1926 1926 1926 1926 1926 1926 1926 1926 1926 1926 1926 1936 1936 1936 1926 1926 1926 1926 1926 1926 0 0 0 0 0 0 0 0
0 0 0 0 0 0 0 0 0 0 0 0 0 0 0 0 0 0 0 0 0 0 0 0 0 0 0 0 0 0 0 0 0 0 1936 1936 1936 1926 1926 1926 1926 1926 1936 1947 1947 1947 1947 1947 1947 1947 1936 1936 1947 1947 1936 1936 1947 1947 1947 1936 1936 1936 1936 1936 1936 1936 1936 1947 1947 1947 1936 1936 1936 1936 1936 1936 1936 1947 1947 1936 1936 1936 1936 1936 1936 1936 1947 1947 1947 1947 1947 1947 1947 1947 1959 1959 1947 1947 1947 1947 1947 1947 1947 1947 1947 1947 1947 1947 1959 1959 1959 1959 1959 1959 1959 1959 1947 1947 1947 1947 1936 1722 1722 1722 1722 1722 1722 1713 1616 1609 1609 1616 1624 1624 1624 1624 1632 1632 1632 1639 1639 1647 1647 1680 1696 1713 1713 1722 1722 1722 1731 1739 1739 1739 1959 1959 1947 1947 1947 1959 1959 1959 1959 1959 1959 1959 1959 1959 1959 1959 1970 1981 1970 1970 1970 1970 1959 1959 1959 1970 1970 1970 1959 1959 1970 1970 1970 1970 1970 1970 1981 1981 1981 1981 1981 1981 1981 1981 1981 1981 1981 1981 1981 1981 1981 1981 1981 1981 1981 1981 1981 1981 1981 1981 1981 1981 1981 1981 1586 1586 1586 1586 1586 1586 1586 1586 1586 1586 1586 1586 1594 1601 1609 1609 1624 1624 1624 1713 1713 1731 1739 1748 1739 1739 1739 1739 1739 1748 1748 1748 1748 1757 1757 1757 1766 1970 1970 1970 1981 1981 1970 1970 1981 1970 1970 1970 1970 1970 1970 1970 1970 1981 1981 1981 1981 1477 1477 1477 1477 1483 1483 1483 1483 1483 1483 1489 1489 1489 1489 1496 1529 1529 1731 1731 1739 1739 1739 1739 1748 1748 1739 1739 1936 1936 1936 1936 1947 1959 1970 1970 1981 1981 1981 1981 1981 1981 1981 1981 1981 1981 1981 1981 1981 1981 1981 1981 1993 1993 1981 1981 1981 1981 1970 1970 1970 1981 1981 1970 1970 1981 1970 1970 1970 1970 1970 1970 1993 1993 1993 1993 1981 1981 1981 1981 1981 1981 1993 1993 1993 1993 1993 1981 1981 1981 1981 1993 1993 1970 1970 1970 1970 1970 1981 1970 1970 1981 1981 1981 1993 1981 1981 1981 1981 1421 1421 1421 1421 1421 1421 1421 1421 1421 1427 1427 1427 1427 1439 1713 1713 1722 1722 1731 1739 1748 1766 1804 1823 1853 1873 1873 1947 1959 1970 1970 1970 1970 1970 1970 1970 1970 1970 1970 1970 1970 1981 1981 1981 1970 1970 1970 1970 1959 1959 1959 1959 1959 1947 1947 1947 1947 1959 1959 1959 1959 1970 1970 1970 1970 1970 1970 1970 1959 1959 1959 1970 1970 1970 1970 1970 1970 1970 1970 1970 1970 1959 1959 1959 1959 1959 1959 1959 1959 1970 1970 1981 1509 1509 1509 1503 1503 1503 1503 1503 1503 1503 1503 1503 1503 1503 1503 1503 1503 1503 1503 1503 1503 1509 1947 1947 1936 1936 1947 1947 1947 1947 1947 1947 1947 1947 1947 1947 1947 1947 1947 1947 1947 1947 1947 1947 1947 1947 1947 1947 1947 1947 1947 1947 1947 1947 1947 1947 1947 1947 1947 1947 1947 1947 1947 1947 1947 1947 1947 1947 1947 1947 1947 1947 1947 1947 1947 1947 1947 1947 1947 1947 1947 1947 1947 1947 1947 1947 1947 1947 1947 1936 1936 1936 1936 1947 1947 1947 1947 1947 1959 1959 1959 1947 1947 1947 1947 1947 1947 1947 1947 1947 1936 1936 1936 1936 1936 1936 1936 1936 1936 1936 1936 1936 1936 1936 1936 1936 1926 1926 1926 1926 1926 1926 1926 1926 1926 1926 1926 1926 1926 1926 1926 1926 1926 1926 1926 1926 1926 1926 1926 1926 1926 1926 1926 1926 1926 1926 1926 0 0 0 0 0 0 0 0
0 0 0 0 0 0 0 0 0 0 0 0 0 0 0 0 0 0 0 0 0 0 0 0 0 0 0 0 0 0 0 0 0 0 1936 1936 1926 1926 1926 1926 1926 1926 1936 1936 1936 1936 1936 1947 1947 1947 1936 1936 1947 1947 1936 1936 1936 1936 1936 1936 1936 1936 1926 1926 1926 1926 1926 1936 1947 1936 1926 1926 1926 1936 1936 1926 1926 1936 1926 1926 1926 1926 1926 1926 1926 1926 1936 1936 1936 1936 1936 1936 1936 1947 1947 1947 1947 1947 1947 1947 1947 1936 1936 1947 1947 1947 1947 1947 1947 1947 1947 1947 1959 1947 1947 1936 1936 1947 1947 1936 1936 1936 1722 1722 1722 1722 1722 1713 1616 1616 1624 1624 1624 1624 1624 1632 1632 1632 1632 1639 1647 1647 1663 1680 1688 1705 1713 1722 1722 1722 1731 1739 1739 1970 1959 1959 1947 1947 1947 1947 1947 1947 1947 1947 1947 1947 1947 1947 1947 1947 1959 1959 1947 1947 1947 1959 1947 1947 1959 1959 1959 1959 1959 1959 1959 1959 1959 1970 1970 1970 1981 1981 1981 1981 1970 1970 1981 1970 1970 1970 1970 1970 1970 1970 1970 1970 1970 1970 1970 1970 1981 1981 1981 1981 1981 1981 1970 1970 1586 1586 1586 1586 1586 1586 1586 1586 1586 1586 1586 1586 1594 1601 1609 1609 1616 1624 1639 1713 1713 1731 1739 1739 1739 1739 1739 1739 1739 1739 1748 1748 1748 1757 1766 1970 1970 1970 1970 1970 1981 1981 1970 1970 1970 1970 1970 1970 1970 1970 1970 1970 1970 1970 1981 1981 1981 1483 1483 1477 1477 1483 1483 1483 1483 1483 1483 1489 1489 1489 1489 1496 1496 1529 1722 1731 1731 1731 1739 1739 1739 1748 1748 1936 1936 1936 1936 1947 1959 1970 1970 1970 1970 1970 1970 1970 1970 1970 1970 1970 1970 1970 1970 1970 1981 1981 1981 1981 1981 1981 1970 1970 1970 1970 1959 1959 1970 1970 1970 1970 1970 1970 1970 1970 1970 1970 1970 1970 1970 1970 1970 1970 1981 1981 1981 1981 1981 1981 1981 1970 1970 1981 1970 1970 1970 1970 1970 1981 1970 1970 1970 1970 1970 1970 1970 1970 1970 1970 1970 1970 1981 1981 1981 1981 1981 1421 1421 1421 1421 1421 1421 1421 1421 1421 1427 1427 1427 1427 1433 1713 1713 1722 1722 1731 1731 1739 1757 1823 1833 1863 1883 1883 1947 1959 1959 1970 1970 1959 1959 1959 1970 1970 1970 1970 1959 1959 1970 1970 1970 1970 1970 1959 1959 1959 1959 1959 1959 1947 1947 1947 1947 1947 1947 1959 1959 1959 1959 1959 1959 1959 1959 1959 1959 1959 1959 1959 1959 1959 1959 1959 1959 1959 1959 1959 1959 1959 1959 1959 1959 1959 1959 1959 1959 1959 1959 1959 1959 1509 1509 1509 1509 1509 1503 1503 1503 1503 1503 1503 1503 1503 1503 1503 1503 1503 1503 1503 1503 1503 1947 1947 1947 1936 1936 1947 1947 1947 1947 1947 1936 1936 1936 1936 1936 1936 1936 1947 1947 1947 1947 1947 1947 1947 1947 1947 1947 1947 1947 1947 1947 1947 1947 1947 1947 1947 1947 1947 1947 1947 1947 1947 1947 1936 1936 1936 1936 1947 1947 1947 1947 1947 1936 1936 1947 1947 1947 1947 1947 1947 1947 1947 1947 1947 1947 1947 1947 1947 1936 1936 1936 1936 1936 1936 1947 1947 1947 1947 1947 1947 1947 1947 1947 1947 1947 1947 1947 1947 1947 1926 1926 1936 1926 1926 1926 1926 1926 1926 1926 1926 1926 1926 1926 1926 1926 1926 1926 1926 1926 1926 1926 1926 1926 1926 1926 1926 1926 1926 1926 1926 1926 1926 1926 1926 1926 1926 1926 1926 1915 1915 1915 1915 1926 1926 1926 1926 0 0 0 0 0 0 0 0
0 0 0 0 0 0 0 0 0 0 0 0 0 0 0 0 0 0 0 0 0 0 0 0 0 0 0 0 0 0 0 0 0 0 1926 1926 1926 1926 1915 1915 1926 1926 1926 1936 1936 1936 1936 1936 1947 1936 1936 1936 1936 1936 1936 1936 1936 1936 1936 1926 1926 1926 1926 1926 1926 1926 1926 1926 1936 1926 1915 1915 1915 1915 1926 1926 1926 1926 1926 1926 1926 1926 1926 1926 1926 1915 1915 1926 1926 1926 1926 1926 1936 1936 1947 1947 1947 1947 1947 1936 1936 1936 1936 1936 1936 1936 1936 1947 1947 1947 1947 1947 1947 1947 1936 1936 1936 1936 1947 1936 1936 1936 1731 1722 1722 1731 1722 1722 1616 1616 1624 1624 1624 1624 1624 1632 1632 1632 1639 1647 1647 1647 1663 1671 1680 1705 1713 1722 1722 1722 1731 1731 1959 1959 1959 1959 1947 1936 1936 1947 1947 1947 1947 1947 1947 1947 1947 1947 1947 1947 1947 1947 1947 1947 1947 1947 1947 1947 1947 1947 1947 1947 1947 1947 1947 1947 1947 1959 1959 1970 1970 1970 1970 1970 1970 1970 1970 1970 1970 1970 1970 1959 1959 1959 1959 1959 1959 1959 1959 1959 1970 1970 1970 1970 1970 1970 1970 1970 1586 1586 1586 1594 1586 1586 1586 1586 1586 1586 1586 1594 1594 1601 1609 1609 1616 1624 1639 1713 1713 1722 1731 1731 1739 1731 1731 1731 1739 1739 1739 1748 1748 1959 1959 1970 1959 1959 1959 1959 1970 1959 1959 1959 1959 1959 1959 1959 1959 1959 1959 1970 1970 1970 1970 1970 1970 1489 1489 1483 1483 1489 1489 1489 1489 1483 1483 1489 1489 1489 1489 1496 1496 1713 1713 1722 1731 1731 1731 1739 1739 1748 1936 1936 1936 1936 1936 1947 1959 1970 1970 1970 1970 1970 1959 1959 1959 1970 1970 1970 1970 1970 1970 1959 1959 1959 1970 1970 1981 1981 1970 1970 1970 1959 1959 1959 1959 1959 1959 1959 1959 1959 1959 1959 1959 1959 1959 1959 1959 1959 1959 1959 1959 1970 1970 1970 1970 1970 1970 1970 1970 1970 1970 1970 1970 1970 1970 1970 1970 1959 1959 1970 1970 1970 1970 1970 1970 1970 1970 1970 1970 1970 1970 1981 1421 1421 1421 1421 1421 1421 1421 1421 1421 1421 1427 1427 1427 1427 1433 1722 1722 1722 1722 1731 1731 1739 1739 1833 1843 1863 1873 1894 1947 1959 1959 1959 1959 1959 1959 1959 1959 1959 1959 1959 1959 1959 1959 1959 1970 1959 1959 1959 1959 1959 1959 1959 1947 1947 1947 1947 1947 1947 1947 1959 1959 1959 1959 1959 1959 1959 1959 1959 1959 1959 1959 1959 1959 1959 1959 1959 1959 1959 1959 1959 1959 1959 1959 1959 1959 1959 1947 1947 1959 1959 1959 1959 1959 1509 1509 1509 1509 1509 1509 1509 1509 1503 1503 1503 1503 1503 1503 1503 1503 1503 1503 1503 1503 1503 1936 1936 1936 1936 1936 1936 1936 1936 1936 1936 1936 1936 1936 1936 1936 1936 1936 1936 1936 1936 1936 1947 1947 1947 1947 1936 1936 1947 1936 1936 1936 1936 1936 1936 1936 1936 1947 1947 1947 1947 1947 1936 1936 1936 1936 1936 1936 1936 1936 1936 1936 1936 1936 1936 1936 1936 1936 1936 1936 1936 1936 1936 1936 1947 1947 1947 1947 1936 1936 1936 1936 1936 1936 1936 1936 1936 1936 1947 1947 1947 1936 1936 1936 1936 1936 1936 1936 1936 1936 1926 1926 1926 1926 1926 1926 1926 1926 1926 1926 1926 1926 1926 1926 1926 1926 1926 1926 1926 1926 1926 1915 1915 1915 1915 1915 1915 1915 1926 1915 1915 1915 1915 1915 1915 1915 1915 1915 1915 1915 1915 1904 1904 1915 1915 1915 1915 0 0 0 0 0 0 0 0
0 0 0 0 0 0 0 0 0 0 0 0 0 0 0 0 0 0 0 0 0 0 0 0 0 0 0 0 0 0 0 0 0 0 1926 1926 1915 1915 1915 1915 1915 1926 1926 1926 1926 1926 1926 1926 1936 1926 1926 1926 1926 1936 1926 1926 1926 1926 1926 1926 1926 1926 1926 1926 1926 1926 1926 1926 1926 1926 1915 1915 1915 1915 1915 1915 1915 1915 1915 1915 1915 1915 1915 1915 1915 1915 1915 1915 1915 1926 1926 1926 1926 1936 1936 1936 1926 1926 1936 1926 1926 1926 1926 1936 1936 1936 1936 1936 1936 1936 1947 1947 1947 1936 1936 1926 1926 1936 1936 1926 1926 1936 1936 1731 1731 1731 1722 1722 1616 1616 1624 1624 1632 1632 1632 1632 1639 1639 1639 1647 1647 1647 1655 1663 1671 1696 1705 1713 1713 1722 1722 1722 1947 1947 1947 1947 1936 1936 1936 1936 1936 1936 1936 1936 1936 1936 1947 1947 1947 1947 1947 1947 1947 1947 1947 1947 1947 1947 1947 1947 1947 1947 1947 1947 1947 1947 1947 1947 1959 1959 1970 1959 1959 1959 1959 1959 1959 1959 1959 1959 1959 1959 1947 1947 1947 1947 1947 1947 1947 1959 1959 1959 1970 1959 1959 1959 1959 1936 1586 1586 1586 1594 1594 1594 1586 1586 1586 1586 1586 1594 1594 1601 1609 1609 1616 1624 1624 1696 1696 1713 1722 1722 1731 1731 1731 1731 1739 1739 1739 1748 1947 1947 1947 1959 1959 1959 1959 1959 1959 1959 1959 1959 1959 1959 1959 1959 1959 1959 1959 1959 1959 1959 1959 1970 1496 1496 1489 1489 1489 1489 1489 1489 1489 1483 1483 1489 1489 1489 1489 1496 1496 1713 1713 1722 1722 1731 1731 1731 1739 1926 1926 1926 1936 1936 1936 1947 1959 1959 1970 1970 1959 1959 1959 1947 1947 1947 1970 1959 1959 1959 1959 1959 1947 1947 1947 1970 1959 1959 1959 1959 1947 1947 1947 1947 1959 1959 1959 1959 1959 1959 1959 1959 1959 1959 1959 1947 1947 1947 1947 1947 1959 1959 1959 1959 1959 1959 1959 1959 1959 1959 1959 1959 1959 1959 1959 1959 1959 1959 1959 1970 1970 1959 1959 1970 1970 1970 1959 1959 1970 1970 1970 1970 1421 1421 1421 1421 1421 1421 1421 1421 1421 1427 1427 1427 1427 1427 1433 1722 1722 1722 1722 1731 1731 1731 1739 1833 1843 1863 1873 1894 1947 1947 1959 1959 1959 1959 1959 1959 1959 1959 1959 1959 1959 1959 1959 1959 1959 1959 1959 1959 1959 1959 1959 1947 1947 1947 1947 1947 1947 1947 1947 1947 1947 1947 1959 1959 1947 1947 1947 1947 1947 1947 1947 1947 1947 1959 1959 1959 1959 1959 1959 1959 1947 1947 1947 1947 1947 1947 1947 1947 1947 1947 1947 1959 1509 1509 1509 1509 1509 1509 1509 1509 1509 1509 1509 1509 1503 1503 1503 1503 1503 1503 1503 1503 1503 1503 1926 1926 1936 1936 1936 1936 1936 1936 1936 1936 1936 1936 1936 1936 1936 1936 1936 1936 1936 1936 1936 1936 1936 1936 1936 1936 1936 1936 1936 1936 1936 1936 1936 1936 1936 1936 1936 1936 1936 1936 1936 1936 1936 1936 1936 1936 1936 1936 1936 1936 1936 1936 1936 1936 1936 1936 1936 1936 1936 1936 1936 1936 1936 1936 1936 1936 1936 1936 1936 1936 1936 1936 1926 1926 1936 1936 1936 1936 1936 1936 1936 1936 1936 1936 1936 1936 1936 1936 1936 1926 1915 1915 1915 1915 1915 1915 1915 1915 1915 1915 1915 1915 1915 1915 1915 1915 1915 1915 1915 1915 1915 1915 1915 1915 1915 1915 1915 1904 1904 1904 1904 1904 1904 1904 1904 1904 1904 1904 1904 1904 1904 1904 1915 1915 1904 1904 0 0 0 0 0 0 0 0
0 0 0 0 0 0 0 0 0 0 0 0 0 0 0 0 0 0 0 0 0 0 0 0 0 0 0 0 0 0 0 0 0 0 1915 1915 1915 1915 1915 1915 1915 1915 1926 1926 1926 1926 1926 1926 1926 1926 1926 1926 1926 1926 1926 1926 1926 1926 1926 1926 1926 1926 1926 1926 1926 1926 1926 1926 1926 1926 1915 1915 1915 1915 1915 1915 1915 1915 1915 1915 1915 1915 1915 1915 1915 1915 1915 1915 1915 1915 1915 1915 1926 1926 1926 1926 1926 1926 1926 1926 1915 1915 1926 1926 1926 1926 1926 1926 1936 1936 1947 1947 1947 1936 1936 1926 1926 1936 1936 1926 1926 1926 1926 1722 1722 1731 1722 1722 1624 1624 1624 1624 1632 1632 1632 1632 1639 1639 1639 1647 1647 1647 1655 1663 1671 1688 1696 1705 1713 1713 1722 1722 1947 1947 1947 1947 1936 1936 1936 1936 1936 1936 1936 1936 1936 1936 1947 1936 1936 1947 1947 1947 1947 1947 1947 1947 1947 1947 1947 1947 1947 1947 1947 1947 1947 1947 1947 1947 1947 1947 1947 1947 1947 1947 1947 1947 1959 1959 1959 1959 1959 1959 1947 1947 1947 1947 1947 1947 1947 1947 1947 1947 1947 1947 1947 1947 1947 1936 1936 1594 1594 1594 1594 1594 1594 1586 1586 1594 1594 1594 1601 1601 1609 1609 1616 1632 1647 1696 1696 1713 1713 1722 1722 1731 1731 1731 1731 1739 1739 1947 1947 1947 1947 1947 1947 1947 1959 1947 1947 1947 1947 1947 1947 1947 1936 1936 1947 1947 1947 1947 1947 1947 1947 1947 1496 1496 1489 1489 1489 1489 1489 1489 1489 1483 1483 1489 1489 1489 1489 1489 1496 1713 1713 1722 1722 1731 1722 1722 1722 1926 1926 1926 1936 1936 1947 1947 1959 1959 1959 1947 1947 1947 1947 1947 1947 1947 1947 1959 1959 1959 1947 1947 1947 1947 1947 1947 1947 1947 1936 1936 1936 1936 1936 1947 1947 1947 1959 1959 1959 1947 1947 1947 1947 1947 1947 1947 1947 1947 1947 1947 1947 1947 1959 1959 1959 1959 1947 1947 1947 1947 1947 1959 1959 1959 1959 1959 1959 1959 1959 1959 1959 1959 1959 1959 1959 1959 1959 1959 1959 1970 1970 1970 1427 1427 1427 1427 1427 1427 1427 1427 1427 1427 1427 1427 1427 1427 1433 1722 1722 1722 1722 1722 1731 1731 1843 1843 1853 1863 1883 1904 1936 1947 1947 1947 1947 1947 1947 1947 1947 1947 1947 1947 1947 1947 1947 1947 1959 1947 1947 1959 1959 1959 1947 1947 1947 1947 1947 1947 1947 1947 1947 1947 1947 1947 1947 1947 1947 1947 1947 1947 1947 1947 1947 1947 1947 1947 1947 1959 1959 1959 1959 1959 1947 1947 1947 1947 1947 1947 1947 1947 1947 1947 1947 1947 1509 1509 1509 1509 1509 1509 1509 1509 1509 1509 1509 1509 1509 1509 1503 1503 1503 1509 1509 1509 1509 1509 1926 1926 1926 1926 1926 1936 1936 1936 1936 1936 1936 1926 1926 1926 1926 1926 1926 1936 1936 1936 1936 1936 1936 1936 1936 1936 1936 1936 1936 1936 1936 1926 1926 1926 1936 1936 1936 1936 1936 1936 1926 1926 1926 1926 1926 1926 1926 1936 1936 1936 1936 1936 1936 1936 1936 1936 1936 1936 1936 1936 1936 1936 1936 1936 1936 1936 1936 1926 1926 1936 1926 1926 1926 1926 1926 1926 1926 1926 1926 1936 1936 1926 1926 1926 1926 1926 1926 1926 1926 1926 1915 1915 1904 1904 1904 1915 1915 1915 1915 1915 1915 1915 1915 1915 1915 1904 1904 1904 1904 1904 1904 1904 1904 1904 1904 1904 1904 1904 1894 1894 1894 1894 1894 1894 1894 1894 1894 1894 1894 1894 1904 1904 1904 1904 1894 1894 0 0 0 0 0 0 0 0
0 0 0 0 0 0 0 0 0 0 0 0 0 0 0 0 0 0 0 0 0 0 0 0 0 0 0 0 0 0 0 0 0 0 1915 1915 1915 1915 1915 1915 1915 1915 1915 1915 1915 1915 1915 1915 1915 1926 1926 1926 1926 1926 1926 1926 1926 1926 1926 1926 1926 1926 1915 1915 1915 1915 1915 1926 1926 1926 1915 1915 1915 1915 1915 1915 1915 1915 1915 1915 1915 1904 1904 1904 1904 1904 1904 1904 1904 1915 1915 1915 1926 1926 1926 1926 1926 1926 1926 1915 1915 1915 1915 1915 1915 1926 1926 1926 1936 1936 1936 1915 1915 1915 1926 1926 1926 1926 1926 1926 1926 1926 1936 1722 1722 1722 1722 1722 1624 1624 1624 1624 1632 1632 1632 1632 1639 1639 1639 1647 1647 1647 1655 1671 1671 1688 1696 1705 1713 1713 1722 1722 1947 1947 1947 1947 1936 1936 1936 1936 1936 1926 1926 1936 1926 1926 1936 1936 1936 1936 1936 1936 1947 1936 1936 1936 1936 1936 1936 1936 1936 1936 1936 1936 1947 1947 1947 1947 1947 1947 1947 1947 1947 1947 1947 1947 1959 1947 1947 1959 1959 1947 1947 1947 1947 1936 1936 1936 1936 1947 1947 1947 1947 1947 1947 1947 1947 1936 1936 1594 1594 1601 1594 1594 1594 1594 1594 1594 1594 1594 1601 1609 1609 1609 1616 1632 1647 1696 1705 1713 1713 1713 1722 1722 1722 1731 1731 1731 1739 1947 1936 1936 1936 1936 1936 1936 1947 1936 1936 1936 1936 1936 1936 1936 1936 1936 1936 1936 1936 1936 1936 1936 1936 1936 1496 1496 1496 1489 1489 1489 1489 1489 1489 1489 1489 1489 1489 1489 1489 1489 1496 1705 1713 1713 1713 1722 1722 1722 1722 1926 1926 1926 1926 1936 1936 1947 1947 1947 1947 1947 1947 1947 1936 1936 1936 1936 1947 1936 1936 1936 1936 1936 1936 1936 1936 1936 1936 1947 1936 1936 1936 1936 1936 1936 1936 1936 1936 1936 1936 1936 1936 1936 1936 1936 1936 1936 1936 1936 1936 1936 1947 1947 1947 1947 1947 1947 1936 1936 1936 1947 1947 1947 1947 1947 1947 1959 1959 1947 1947 1947 1947 1947 1947 1947 1947 1947 1947 1947 1959 1959 1970 1439 1433 1433 1433 1433 1427 1427 1427 1427 1427 1427 1427 1427 1427 1427 1433 1722 1722 1722 1722 1722 1722 1731 1863 1863 1883 1883 1904 1915 1936 1936 1947 1947 1947 1947 1947 1936 1936 1936 1936 1936 1936 1936 1936 1936 1947 1947 1947 1947 1947 1947 1947 1947 1947 1947 1947 1936 1936 1936 1936 1936 1936 1936 1947 1947 1936 1936 1936 1936 1947 1947 1947 1947 1947 1947 1947 1947 1947 1947 1947 1947 1947 1947 1947 1947 1947 1947 1936 1936 1936 1936 1936 1936 1509 1509 1509 1509 1509 1509 1509 1509 1509 1509 1509 1509 1509 1509 1509 1509 1509 1509 1509 1509 1509 1926 1915 1915 1915 1926 1926 1926 1926 1926 1936 1936 1926 1926 1926 1926 1926 1926 1926 1926 1926 1926 1926 1926 1926 1926 1926 1926 1926 1926 1926 1926 1926 1926 1926 1926 1926 1926 1926 1926 1926 1926 1926 1915 1915 1926 1926 1926 1926 1926 1926 1926 1926 1926 1926 1926 1926 1926 1926 1926 1926 1926 1926 1926 1926 1926 1926 1926 1926 1926 1926 1926 1926 1926 1926 1926 1926 1926 1926 1926 1926 1926 1926 1926 1915 1915 1915 1915 1915 1915 1915 1915 1904 1904 1894 1894 1894 1904 1904 1904 1904 1904 1904 1904 1894 1894 1904 1894 1894 1894 1894 1894 1894 1894 1894 1904 1904 1894 1894 1894 1894 1894 1894 1894 1894 1894 1894 1894 1894 1894 1894 1894 1904 1904 1904 1904 1894 1894 0 0 0 0 0 0 0 0
0 0 0 0 0 0 0 0 0 0 0 0 0 0 0 0 0 0 0 0 0 0 0 0 0 0 0 0 0 0 0 0 0 0 1915 1915 1915 1915 1904 1904 1915 1915 1915 1904 1904 1904 1904 1915 1915 1915 1915 1915 1915 1926 1926 1926 1926 1926 1926 1926 1926 1915 1915 1915 1915 1915 1915 1915 1915 1915 1904 1904 1904 1904 1904 1904 1904 1904 1904 1904 1904 1904 1904 1904 1904 1904 1904 1904 1904 1904 1915 1915 1915 1926 1926 1926 1926 1926 1926 1915 1915 1915 1915 1915 1915 1915 1915 1915 1926 1926 1926 1915 1915 1915 1915 1915 1915 1915 1915 1915 1915 1915 1936 1722 1722 1722 1722 1722 1647 1632 1632 1639 1639 1639 1639 1639 1639 1639 1647 1647 1647 1647 1655 1671 1671 1688 1696 1705 1713 1713 1722 1722 1936 1947 1947 1947 1936 1936 1936 1936 1936 1926 1926 1926 1926 1926 1936 1936 1936 1936 1936 1936 1936 1936 1936 1936 1936 1936 1936 1936 1936 1936 1936 1936 1936 1936 1936 1936 1947 1947 1947 1947 1947 1947 1947 1959 1947 1947 1947 1947 1947 1947 1936 1936 1936 1936 1936 1936 1936 1936 1936 1936 1947 1947 1947 1947 1947 1936 1936 1594 1594 1601 1594 1594 1594 1594 1594 1594 1594 1601 1601 1609 1616 1624 1624 1639 1680 1705 1705 1705 1705 1713 1713 1713 1713 1722 1722 1731 1936 1936 1936 1936 1936 1936 1936 1936 1936 1936 1936 1936 1936 1936 1936 1936 1936 1936 1936 1936 1936 1936 1936 1936 1936 1936 1503 1496 1496 1489 1489 1489 1489 1489 1489 1489 1489 1489 1489 1489 1489 1496 1496 1705 1705 1713 1713 1705 1705 1705 1926 1926 1926 1926 1926 1936 1936 1947 1947 1947 1947 1936 1936 1936 1936 1936 1936 1936 1936 1936 1936 1936 1936 1936 1936 1936 1936 1936 1936 1936 1936 1926 1926 1936 1936 1936 1936 1936 1936 1936 1936 1936 1936 1936 1936 1936 1936 1936 1936 1936 1936 1936 1936 1936 1936 1936 1936 1936 1936 1936 1936 1936 1936 1936 1947 1947 1947 1947 1947 1947 1947 1947 1947 1936 1936 1936 1936 1936 1936 1936 1936 1959 1959 1439 1433 1433 1433 1433 1433 1427 1427 1427 1427 1427 1427 1427 1427 1427 1433 1705 1713 1713 1713 1722 1722 1731 1863 1873 1883 1883 1904 1915 1926 1926 1936 1926 1926 1926 1926 1926 1926 1926 1926 1926 1926 1926 1936 1936 1936 1947 1947 1947 1947 1947 1947 1947 1947 1936 1936 1936 1936 1936 1936 1936 1936 1936 1936 1936 1936 1936 1936 1936 1936 1936 1936 1936 1936 1936 1947 1947 1947 1936 1936 1936 1936 1936 1926 1926 1936 1936 1936 1936 1936 1936 1936 1936 1509 1509 1509 1509 1509 1509 1509 1509 1509 1509 1509 1509 1509 1509 1509 1509 1509 1509 1509 1509 1509 1915 1915 1915 1915 1926 1915 1915 1926 1926 1926 1926 1926 1926 1926 1915 1915 1915 1915 1926 1926 1926 1926 1926 1926 1926 1926 1926 1926 1926 1926 1926 1926 1926 1915 1915 1926 1926 1926 1926 1926 1915 1915 1915 1915 1915 1915 1915 1915 1915 1915 1915 1915 1915 1915 1915 1915 1915 1915 1915 1915 1915 1926 1915 1915 1926 1926 1926 1926 1926 1926 1926 1926 1926 1926 1926 1926 1926 1926 1926 1926 1926 1915 1915 1915 1915 1915 1915 1915 1915 1915 1915 1894 1894 1894 1894 1894 1894 1894 1894 1894 1894 1894 1894 1894 1894 1894 1883 1883 1894 1883 1883 1894 1883 1883 1894 1894 1894 1894 1894 1883 1883 1894 1894 1894 1894 1894 1894 1894 1894 1894 1894 1904 1904 1904 1904 1894 1894 0 0 0 0 0 0 0 0
