0 0 0 0 0 0 0 0 0 0 0 0 0 0 0 0 0 0 0 0 0 0 0 0 0 0 0 0 0 0 0 0 0 0 0 0 0 0 0 0 0 0 0 0 0 0 0 0 0 0 0 0 0 0 0 0 0 0 0 0 0 0 0 0 0 0 0 0 0 0 0 0 0 0 0 0 0 0 0 0 0 0 0 0 0 0 0 0 0 0 0 0 0 0 0 0 0 0 0 0 0 0 0 0 0 0 0 0 0 0 0 0 0 0 0 0 0 0 0 0 0 0 0 0 0 0 0 0 0 0 0 0 0 0 0 0 0 0 0 0 0 0 0 0 0 0 0 0 0 0 0 0 0 0 0 0 0 0 0 0 0 0 0 0 0 0 0 0 0 0 0 0 0 0 0 0 0 0 0 0 0 0 0 0 0 0 0 0 0 0 0 0 0 0 0 0 0 0 0 0 0 0 0 0 0 0 0 0 0 0 0 0 0 0 0 0 0 0 0 0 0 0 0 0 0 0 0 0 0 0 0 0 0 0 0 0 0 0 0 0 0 0 0 0 0 0 0 0 0 0 0 0 0 0 0 0 0 0 0 0 0 0 0 0 0 0 0 0 0 0 0 0 0 0 0 0 0 0 0 0 0 0 0 0 0 0 0 0 0 0 0 0 0 0 0 0 0 0 0 0 0 0 0 0 0 0 0 0 0 0 0 0 0 0 0 0 0 0 0 0 0 0 0 0 0 0 0 0 0 0 0 0 0 0 0 0 0 0 0 0 0 0 0 0 0 0 0 0 0 0 0 0 0 0 0 0 0 0 0 0 0 0 0 0 0 0 0 0 0 0 0 0 0 0 0 0 0 0 0 0 0 0 0 0 0 0 0 0 0 0 0 0 0 0 0 0 0 0 0 0 0 0 0 0 0 0 0 0 0 0 0 0 0 0 0 0 0 0 0 0 0 0 0 0 0 0 0 0 0 0 0 0 0 0 0 0 0 0 0 0 0 0 0 0 0 0 0 0 0 0 0 0 0 0 0 0 0 0 0 0 0 0 0 0 0 0 0 0 0 0 0 0 0 0 0 0 0 0 0 0 0 0 0 0 0 0 0 0 0 0 0 0 0 0 0 0 0 0 0 0 0 0 0 0 0 0 0 0 0 0 0 0 0 0 0 0 0 0 0 0 0 0 0 0 0 0 0 0 0 0 0 0 0 0 0 0 0 0 0 0 0 0 0 0 0 0 0 0 0 0 0 0 0 0 0 0 0 0 0 0 0 0 0 0 0 0 0 0 0 0 0 0 0 0 0 0 0 0 0 0 0 0 0 0 0 0 0 0 0 0 0 0 0 0 0 0 0 0 0 0 0 0 0 0 0 0 0 0 0 0 0 0 0 0 0 0 0 0 0 0 0 0 0 0 0 0 0 0 0 0 0 0 0 0 0 0 0 0 0 0
0 0 0 0 0 0 0 0 0 0 0 0 0 0 0 0 0 0 0 0 0 0 0 0 0 0 0 0 0 0 0 0 0 0 0 0 0 0 0 0 0 0 0 0 0 0 0 0 0 0 0 0 0 0 0 0 0 0 0 0 0 0 0 0 0 0 0 0 0 0 0 0 0 0 0 0 0 0 0 0 0 0 0 0 0 0 0 0 0 0 0 0 0 0 0 0 0 0 0 0 0 0 0 0 0 0 0 0 0 0 0 0 0 0 0 0 0 0 0 0 0 0 0 0 0 0 0 0 0 0 0 0 0 0 0 0 0 0 0 0 0 0 0 0 0 0 0 0 0 0 0 0 0 0 0 0 0 0 0 0 0 0 0 0 0 0 0 0 0 0 0 0 0 0 0 0 0 0 0 0 0 0 0 0 0 0 0 0 0 0 0 0 0 0 0 0 0 0 0 0 0 0 0 0 0 0 0 0 0 0 0 0 0 0 0 0 0 0 0 0 0 0 0 0 0 0 0 0 0 0 0 0 0 0 0 0 0 0 0 0 0 0 0 0 0 0 0 0 0 0 0 0 0 0 0 0 0 0 0 0 0 0 0 0 0 0 0 0 0 0 0 0 0 0 0 0 0 0 0 0 0 0 0 0 0 0 0 0 0 0 0 0 0 0 0 0 0 0 0 0 0 0 0 0 0 0 0 0 0 0 0 0 0 0 0 0 0 0 0 0 0 0 0 0 0 0 0 0 0 0 0 0 0 0 0 0 0 0 0 0 0 0 0 0 0 0 0 0 0 0 0 0 0 0 0 0 0 0 0 0 0 0 0 0 0 0 0 0 0 0 0 0 0 0 0 0 0 0 0 0 0 0 0 0 0 0 0 0 0 0 0 0 0 0 0 0 0 0 0 0 0 0 0 0 0 0 0 0 0 0 0 0 0 0 0 0 0 0 0 0 0 0 0 0 0 0 0 0 0 0 0 0 0 0 0 0 0 0 0 0 0 0 0 0 0 0 0 0 0 0 0 0 0 0 0 0 0 0 0 0 0 0 0 0 0 0 0 0 0 0 0 0 0 0 0 0 0 0 0 0 0 0 0 0 0 0 0 0 0 0 0 0 0 0 0 0 0 0 0 0 0 0 0 0 0 0 0 0 0 0 0 0 0 0 0 0 0 0 0 0 0 0 0 0 0 0 0 0 0 0 0 0 0 0 0 0 0 0 0 0 0 0 0 0 0 0 0 0 0 0 0 0 0 0 0 0 0 0 0 0 0 0 0 0 0 0 0 0 0 0 0 0 0 0 0 0 0 0 0 0 0 0 0 0 0 0 0 0 0 0 0 0 0 0 0 0 0 0 0 0 0 0 0 0 0 0 0 0 0 0 0 0 0 0 0 0 0 0 0 0 0 0 0 0 0 0 0 0 0 0 0 0 0 0 0 0 0 0 0 0
0 0 0 0 0 0 0 0 0 0 0 0 0 0 0 0 0 0 0 0 0 0 0 0 0 0 0 0 0 0 0 0 0 0 0 0 0 0 0 0 0 0 0 0 0 0 0 0 0 0 0 0 0 0 0 0 0 0 0 0 0 0 0 0 0 0 0 0 0 0 0 0 0 0 0 0 0 0 0 0 0 0 0 0 0 0 0 0 0 0 0 0 0 0 0 0 0 0 0 0 0 0 0 0 0 0 0 0 0 0 0 0 0 0 0 0 0 0 0 0 0 0 0 0 0 0 0 0 0 0 0 0 0 0 0 0 0 0 0 0 0 0 0 0 0 0 0 0 0 0 0 0 0 0 0 0 0 0 0 0 0 0 0 0 0 0 0 0 0 0 0 0 0 0 0 0 0 0 0 0 0 0 0 0 0 0 0 0 0 0 0 0 0 0 0 0 0 0 0 0 0 0 0 0 0 0 0 0 0 0 0 0 0 0 0 0 0 0 0 0 0 0 0 0 0 0 0 0 0 0 0 0 0 0 0 0 0 0 0 0 0 0 0 0 0 0 0 0 0 0 0 0 0 0 0 0 0 0 0 0 0 0 0 0 0 0 0 0 0 0 0 0 0 0 0 0 0 0 0 0 0 0 0 0 0 0 0 0 0 0 0 0 0 0 0 0 0 0 0 0 0 0 0 0 0 0 0 0 0 0 0 0 0 0 0 0 0 0 0 0 0 0 0 0 0 0 0 0 0 0 0 0 0 0 0 0 0 0 0 0 0 0 0 0 0 0 0 0 0 0 0 0 0 0 0 0 0 0 0 0 0 0 0 0 0 0 0 0 0 0 0 0 0 0 0 0 0 0 0 0 0 0 0 0 0 0 0 0 0 0 0 0 0 0 0 0 0 0 0 0 0 0 0 0 0 0 0 0 0 0 0 0 0 0 0 0 0 0 0 0 0 0 0 0 0 0 0 0 0 0 0 0 0 0 0 0 0 0 0 0 0 0 0 0 0 0 0 0 0 0 0 0 0 0 0 0 0 0 0 0 0 0 0 0 0 0 0 0 0 0 0 0 0 0 0 0 0 0 0 0 0 0 0 0 0 0 0 0 0 0 0 0 0 0 0 0 0 0 0 0 0 0 0 0 0 0 0 0 0 0 0 0 0 0 0 0 0 0 0 0 0 0 0 0 0 0 0 0 0 0 0 0 0 0 0 0 0 0 0 0 0 0 0 0 0 0 0 0 0 0 0 0 0 0 0 0 0 0 0 0 0 0 0 0 0 0 0 0 0 0 0 0 0 0 0 0 0 0 0 0 0 0 0 0 0 0 0 0 0 0 0 0 0 0 0 0 0 0 0 0 0 0 0 0 0 0 0 0 0 0 0 0 0 0 0 0 0 0 0 0 0 0 0 0 0 0 0 0 0 0 0 0 0 0 0 0 0 0 0 0
0 0 0 0 0 0 0 0 0 0 0 0 0 0 0 0 0 0 0 0 0 0 0 0 0 0 0 0 0 0 0 0 0 0 0 0 0 0 0 0 0 0 0 0 0 0 0 0 0 0 0 0 0 0 0 0 0 0 0 0 0 0 0 0 0 0 0 0 0 0 0 0 0 0 0 0 0 0 0 0 0 0 0 0 0 0 0 0 0 0 0 0 0 0 0 0 0 0 0 0 0 0 0 0 0 0 0 0 0 0 0 0 0 0 0 0 0 0 0 0 0 0 0 0 0 0 0 0 0 0 0 0 0 0 0 0 0 0 0 0 0 0 0 0 0 0 0 0 0 0 0 0 0 0 0 0 0 0 0 0 0 0 0 0 0 0 0 0 0 0 0 0 0 0 0 0 0 0 0 0 0 0 0 0 0 0 0 0 0 0 0 0 0 0 0 0 0 0 0 0 0 0 0 0 0 0 0 0 0 0 0 0 0 0 0 0 0 0 0 0 0 0 0 0 0 0 0 0 0 0 0 0 0 0 0 0 0 0 0 0 0 0 0 0 0 0 0 0 0 0 0 0 0 0 0 0 0 0 0 0 0 0 0 0 0 0 0 0 0 0 0 0 0 0 0 0 0 0 0 0 0 0 0 0 0 0 0 0 0 0 0 0 0 0 0 0 0 0 0 0 0 0 0 0 0 0 0 0 0 0 0 0 0 0 0 0 0 0 0 0 0 0 0 0 0 0 0 0 0 0 0 0 0 0 0 0 0 0 0 0 0 0 0 0 0 0 0 0 0 0 0 0 0 0 0 0 0 0 0 0 0 0 0 0 0 0 0 0 0 0 0 0 0 0 0 0 0 0 0 0 0 0 0 0 0 0 0 0 0 0 0 0 0 0 0 0 0 0 0 0 0 0 0 0 0 0 0 0 0 0 0 0 0 0 0 0 0 0 0 0 0 0 0 0 0 0 0 0 0 0 0 0 0 0 0 0 0 0 0 0 0 0 0 0 0 0 0 0 0 0 0 0 0 0 0 0 0 0 0 0 0 0 0 0 0 0 0 0 0 0 0 0 0 0 0 0 0 0 0 0 0 0 0 0 0 0 0 0 0 0 0 0 0 0 0 0 0 0 0 0 0 0 0 0 0 0 0 0 0 0 0 0 0 0 0 0 0 0 0 0 0 0 0 0 0 0 0 0 0 0 0 0 0 0 0 0 0 0 0 0 0 0 0 0 0 0 0 0 0 0 0 0 0 0 0 0 0 0 0 0 0 0 0 0 0 0 0 0 0 0 0 0 0 0 0 0 0 0 0 0 0 0 0 0 0 0 0 0 0 0 0 0 0 0 0 0 0 0 0 0 0 0 0 0 0 0 0 0 0 0 0 0 0 0 0 0 0 0 0 0 0 0 0 0 0 0 0 0 0 0 0 0 0 0 0 0 0 0 0 0
0 0 0 0 0 0 0 0 0 0 0 0 0 0 0 0 0 0 0 0 0 0 0 0 0 0 0 0 0 0 0 0 0 0 0 0 0 0 0 0 0 0 0 0 0 0 0 0 0 0 0 0 0 0 0 0 0 0 0 0 0 0 0 0 0 0 0 0 0 0 0 0 0 0 0 0 0 0 0 0 0 0 0 0 0 0 0 0 0 0 0 0 0 0 0 0 0 0 0 0 0 0 0 0 0 0 0 0 0 0 0 0 0 0 0 0 0 0 0 0 0 0 0 0 0 0 0 0 0 0 0 0 0 0 0 0 0 0 0 0 0 0 0 0 0 0 0 0 0 0 0 0 0 0 0 0 0 0 0 0 0 0 0 0 0 0 0 0 0 0 0 0 0 0 0 0 0 0 0 0 0 0 0 0 0 0 0 0 0 0 0 0 0 0 0 0 0 0 0 0 0 0 0 0 0 0 0 0 0 0 0 0 0 0 0 0 0 0 0 0 0 0 0 0 0 0 0 0 0 0 0 0 0 0 0 0 0 0 0 0 0 0 0 0 0 0 0 0 0 0 0 0 0 0 0 0 0 0 0 0 0 0 0 0 0 0 0 0 0 0 0 0 0 0 0 0 0 0 0 0 0 0 0 0 0 0 0 0 0 0 0 0 0 0 0 0 0 0 0 0 0 0 0 0 0 0 0 0 0 0 0 0 0 0 0 0 0 0 0 0 0 0 0 0 0 0 0 0 0 0 0 0 0 0 0 0 0 0 0 0 0 0 0 0 0 0 0 0 0 0 0 0 0 0 0 0 0 0 0 0 0 0 0 0 0 0 0 0 0 0 0 0 0 0 0 0 0 0 0 0 0 0 0 0 0 0 0 0 0 0 0 0 0 0 0 0 0 0 0 0 0 0 0 0 0 0 0 0 0 0 0 0 0 0 0 0 0 0 0 0 0 0 0 0 0 0 0 0 0 0 0 0 0 0 0 0 0 0 0 0 0 0 0 0 0 0 0 0 0 0 0 0 0 0 0 0 0 0 0 0 0 0 0 0 0 0 0 0 0 0 0 0 0 0 0 0 0 0 0 0 0 0 0 0 0 0 0 0 0 0 0 0 0 0 0 0 0 0 0 0 0 0 0 0 0 0 0 0 0 0 0 0 0 0 0 0 0 0 0 0 0 0 0 0 0 0 0 0 0 0 0 0 0 0 0 0 0 0 0 0 0 0 0 0 0 0 0 0 0 0 0 0 0 0 0 0 0 0 0 0 0 0 0 0 0 0 0 0 0 0 0 0 0 0 0 0 0 0 0 0 0 0 0 0 0 0 0 0 0 0 0 0 0 0 0 0 0 0 0 0 0 0 0 0 0 0 0 0 0 0 0 0 0 0 0 0 0 0 0 0 0 0 0 0 0 0 0 0 0 0 0 0 0 0 0 0 0 0 0 0
0 0 0 0 0 0 0 0 0 0 0 0 0 0 0 0 0 0 0 0 0 0 0 0 0 0 0 0 0 0 0 0 0 0 0 0 0 0 0 0 0 0 0 0 0 0 0 0 0 0 0 0 0 0 0 0 0 0 0 0 0 0 0 0 0 0 0 0 0 0 0 0 0 0 0 0 0 0 0 0 0 0 0 0 0 0 0 0 0 0 0 0 0 0 0 0 0 0 0 0 0 0 0 0 0 0 0 0 0 0 0 0 0 0 0 0 0 0 0 0 0 0 0 0 0 0 0 0 0 0 0 0 0 0 0 0 0 0 0 0 0 0 0 0 0 0 0 0 0 0 0 0 0 0 0 0 0 0 0 0 0 0 0 0 0 0 0 0 0 0 0 0 0 0 0 0 0 0 0 0 0 0 0 0 0 0 0 0 0 0 0 0 0 0 0 0 0 0 0 0 0 0 0 0 0 0 0 0 0 0 0 0 0 0 0 0 0 0 0 0 0 0 0 0 0 0 0 0 0 0 0 0 0 0 0 0 0 0 0 0 0 0 0 0 0 0 0 0 0 0 0 0 0 0 0 0 0 0 0 0 0 0 0 0 0 0 0 0 0 0 0 0 0 0 0 0 0 0 0 0 0 0 0 0 0 0 0 0 0 0 0 0 0 0 0 0 0 0 0 0 0 0 0 0 0 0 0 0 0 0 0 0 0 0 0 0 0 0 0 0 0 0 0 0 0 0 0 0 0 0 0 0 0 0 0 0 0 0 0 0 0 0 0 0 0 0 0 0 0 0 0 0 0 0 0 0 0 0 0 0 0 0 0 0 0 0 0 0 0 0 0 0 0 0 0 0 0 0 0 0 0 0 0 0 0 0 0 0 0 0 0 0 0 0 0 0 0 0 0 0 0 0 0 0 0 0 0 0 0 0 0 0 0 0 0 0 0 0 0 0 0 0 0 0 0 0 0 0 0 0 0 0 0 0 0 0 0 0 0 0 0 0 0 0 0 0 0 0 0 0 0 0 0 0 0 0 0 0 0 0 0 0 0 0 0 0 0 0 0 0 0 0 0 0 0 0 0 0 0 0 0 0 0 0 0 0 0 0 0 0 0 0 0 0 0 0 0 0 0 0 0 0 0 0 0 0 0 0 0 0 0 0 0 0 0 0 0 0 0 0 0 0 0 0 0 0 0 0 0 0 0 0 0 0 0 0 0 0 0 0 0 0 0 0 0 0 0 0 0 0 0 0 0 0 0 0 0 0 0 0 0 0 0 0 0 0 0 0 0 0 0 0 0 0 0 0 0 0 0 0 0 0 0 0 0 0 0 0 0 0 0 0 0 0 0 0 0 0 0 0 0 0 0 0 0 0 0 0 0 0 0 0 0 0 0 0 0 0 0 0 0 0 0 0 0 0 0 0 0 0 0 0 0 0 0 0 0 0 0 0
0 0 0 0 0 0 0 0 0 0 0 0 0 0 0 0 0 0 0 0 0 0 0 0 0 0 0 0 0 0 0 0 0 0 0 0 0 0 0 0 0 0 0 0 0 0 0 0 0 0 0 0 0 0 0 0 0 0 0 0 0 0 0 0 0 0 0 0 0 0 0 0 0 0 0 0 0 0 0 0 0 0 0 0 0 0 0 0 0 0 0 0 0 0 0 0 0 0 0 0 0 0 0 0 0 0 0 0 0 0 0 0 0 0 0 0 0 0 0 0 0 0 0 0 0 0 0 0 0 0 0 0 0 0 0 0 0 0 0 0 0 0 0 0 0 0 0 0 0 0 0 0 0 0 0 0 0 0 0 0 0 0 0 0 0 0 0 0 0 0 0 0 0 0 0 0 0 0 0 0 0 0 0 0 0 0 0 0 0 0 0 0 0 0 0 0 0 0 0 0 0 0 0 0 0 0 0 0 0 0 0 0 0 0 0 0 0 0 0 0 0 0 0 0 0 0 0 0 0 0 0 0 0 0 0 0 0 0 0 0 0 0 0 0 0 0 0 0 0 0 0 0 0 0 0 0 0 0 0 0 0 0 0 0 0 0 0 0 0 0 0 0 0 0 0 0 0 0 0 0 0 0 0 0 0 0 0 0 0 0 0 0 0 0 0 0 0 0 0 0 0 0 0 0 0 0 0 0 0 0 0 0 0 0 0 0 0 0 0 0 0 0 0 0 0 0 0 0 0 0 0 0 0 0 0 0 0 0 0 0 0 0 0 0 0 0 0 0 0 0 0 0 0 0 0 0 0 0 0 0 0 0 0 0 0 0 0 0 0 0 0 0 0 0 0 0 0 0 0 0 0 0 0 0 0 0 0 0 0 0 0 0 0 0 0 0 0 0 0 0 0 0 0 0 0 0 0 0 0 0 0 0 0 0 0 0 0 0 0 0 0 0 0 0 0 0 0 0 0 0 0 0 0 0 0 0 0 0 0 0 0 0 0 0 0 0 0 0 0 0 0 0 0 0 0 0 0 0 0 0 0 0 0 0 0 0 0 0 0 0 0 0 0 0 0 0 0 0 0 0 0 0 0 0 0 0 0 0 0 0 0 0 0 0 0 0 0 0 0 0 0 0 0 0 0 0 0 0 0 0 0 0 0 0 0 0 0 0 0 0 0 0 0 0 0 0 0 0 0 0 0 0 0 0 0 0 0 0 0 0 0 0 0 0 0 0 0 0 0 0 0 0 0 0 0 0 0 0 0 0 0 0 0 0 0 0 0 0 0 0 0 0 0 0 0 0 0 0 0 0 0 0 0 0 0 0 0 0 0 0 0 0 0 0 0 0 0 0 0 0 0 0 0 0 0 0 0 0 0 0 0 0 0 0 0 0 0 0 0 0 0 0 0 0 0 0 0 0 0 0 0 0 0 0 0 0 0 0 0 0
0 0 0 0 0 0 0 0 0 0 0 0 0 0 0 0 0 0 0 0 0 0 0 0 0 0 0 0 0 6497 6497 6622 6753 6753 6753 6753 6753 6753 6753 6753 6753 6889 7178 7178 7178 7332 7332 7332 7332 7492 7492 7492 7492 7492 7492 7492 7492 7492 7492 7492 7660 7660 7660 7660 7660 7660 7660 7492 7492 7492 7492 7492 7492 7332 7332 7332 7332 7332 7332 7492 7492 7492 7492 7492 7492 7492 0 0 0 0 0 0 0 0 0 0 0 0 0 0 0 0 0 0 0 0 0 0 0 0 0 7178 7178 7178 7178 7178 7178 7178 7178 7178 7178 7178 7178 7332 7332 7332 7332 7332 7332 7332 7332 7332 7332 7332 7332 7332 7332 7178 7178 7332 7332 7332 7332 7332 7178 7178 0 0 0 0 0 0 0 0 0 0 0 0 0 0 0 0 0 0 0 0 0 0 0 0 0 0 0 0 0 0 0 0 0 0 0 0 0 0 0 0 0 0 0 0 0 0 0 0 0 0 0 0 0 0 0 0 0 0 0 0 0 0 0 0 0 0 0 0 0 0 0 0 0 0 0 0 0 0 0 0 0 0 0 0 0 0 0 0 0 0 0 0 0 0 6146 6146 0 0 0 6622 6622 6622 6753 6753 6753 6753 6753 6753 6753 6753 6753 6753 6753 6753 0 0 0 0 0 0 3208 3208 3238 3238 3238 3238 3238 3238 3238 3238 3238 3238 3238 3238 3238 3238 3238 3238 3238 3238 3238 3238 3238 3208 3178 3178 3178 3178 3178 3178 3178 3208 3208 3208 3208 3208 3208 3238 3238 3208 3208 3208 3208 3208 3208 3208 3208 3208 3208 3149 3149 0 0 0 0 0 0 0 0 0 0 0 0 0 0 0 0 0 0 0 0 0 0 0 0 0 0 0 0 0 0 0 0 0 0 0 0 0 0 0 0 0 0 0 0 0 0 0 0 0 0 0 0 0 0 0 0 0 0 0 0 0 0 0 0 0 0 0 0 0 0 0 0 0 0 0 0 0 0 0 0 0 0 0 0 0 0 0 0 0 0 0 0 0 0 0 0 0 0 0 0 0 0 0 0 0 0 0 0 0 0 0 0 0 0 0 0 0 0 0 0 0 0 0 0 0 0 0 0 0 0 0 0 0 0 0 0 0 0 0 0 0 0 0 0 0 0 0 0 0 0 0 0 0 0 0 0 0 0 0 0 0 0 0 0 0 0 0 0 0 0 0 0 0 0 0 0 0 0 0 0 0 0 0 0 0 0 0 0 0 0 0 0 0 0 0 0 0 0 0 0 0 0 0 0 0 0 0 0 0 0 0 0 0 0 0 0 0 0 0 0 0 0 0 0 0 0 0 0 0 0 0 0 0 0 0 0 0 0 0 4089 4041 4041 4041 4041 4041 4041 4041 4041 4041 4089 4089 4089 4041 4041 4041 4089 4041 4041 4089 4089 4089 4139 4139 4139 4139 4089 4089 4139 4241 4241 4241 4241 4241 4241 4295 4295 4295 4295 4349 4349 4405 6497 6497 6497 6497 6497 6375 6375 6375 6375 6375 6375 6375 6375 6497 6753 6753 6889 6889 6889 6889 6889 6889 6889 6889 6889 6889 6889 6889 7030 0 0 0 0 0 0 0 0 0 0 0 0 0
0 0 0 0 0 0 0 0 0 0 0 0 0 0 0 0 0 0 0 0 0 0 0 0 0 0 0 0 0 6497 6375 6375 6753 6753 6753 6753 6753 6753 6753 6753 6889 6889 7178 7178 7178 7332 7332 7332 7332 7492 7492 7492 7492 7492 7492 7492 7492 7492 7492 7492 7660 7660 7660 7660 7660 7660 7660 7492 7492 7492 7492 7492 7492 7332 7332 7332 7332 7332 7332 7332 7332 7332 7332 7332 7332 7492 0 0 0 0 0 0 0 0 0 0 0 0 0 0 0 0 0 0 0 0 0 0 0 0 7332 7178 7178 7178 7178 7178 7178 7178 7178 7178 7178 7178 7178 7332 7332 7332 7178 7178 7178 7178 7332 7332 7332 7332 7332 7332 7332 7178 7178 7332 7332 7332 7178 7178 7178 7178 0 0 0 0 0 0 0 0 0 0 0 0 0 0 0 0 0 0 0 0 0 0 0 0 0 0 0 0 0 0 0 0 0 0 0 0 0 0 0 0 0 0 0 0 0 0 0 0 0 0 0 0 0 0 0 0 0 0 0 0 0 0 0 0 0 0 0 0 0 0 0 0 0 0 0 0 0 0 0 0 0 0 0 0 0 0 0 0 6622 6497 6497 6146 6146 6146 6146 6146 0 0 0 6622 6622 6622 6622 6753 6753 6753 6753 6753 6753 6753 6753 6753 6753 6753 6753 0 0 0 0 3269 3208 3208 3238 3238 3238 3238 3238 3238 3238 3238 3238 3238 3238 3238 3238 3238 3238 3238 3238 3238 3238 3238 3238 3208 3178 3178 3178 3178 3178 3178 3178 3208 3208 3208 3208 3208 3208 3238 3238 3208 3208 3208 3208 3208 3208 3208 3208 3208 3178 3149 3149 3149 3149 3149 3149 3149 3149 3178 3178 3149 3149 3178 3149 3149 3149 3120 3120 3120 3120 3120 3120 3120 3120 3120 3120 3120 3120 3120 3120 3092 3092 3092 3092 3092 3120 3120 3120 3120 3149 3178 3208 3178 3178 3178 3178 3178 3178 3178 3178 3149 3149 3178 3178 3149 3149 3178 3178 3178 3178 3178 3178 3178 3120 3120 3120 3120 4349 4349 4295 4295 4295 4295 4349 4349 4295 4295 4295 4349 4295 4295 4241 4241 0 0 0 6889 6889 6889 6889 6889 6889 6889 6753 6753 6753 6753 6753 6753 6753 6753 6889 6889 6889 7030 7030 7030 7030 7030 7030 7030 7030 7030 7178 7030 7030 7030 6889 6889 6889 6889 6889 6889 6889 6889 6889 7030 7030 7030 6889 6889 6889 6889 6889 6753 6753 6753 6753 6753 6753 6753 6753 6753 6889 6753 6753 6753 6753 6753 6753 6753 6753 6753 6753 6753 6753 6753 6753 6753 6753 6753 6889 6889 6889 6889 6889 6889 6889 6889 6889 6889 6889 6753 6753 6753 6753 6753 6753 6753 6622 6622 6622 6622 6622 6622 6622 6622 6622 6497 6497 6375 6375 6375 0 4463 4463 4463 4522 4522 4522 4463 4463 4463 4463 4463 4463 4463 4463 4463 4349 4349 4349 4295 4295 4295 4295 4295 4295 4295 4295 4295 4295 4295 4295 4295 4241 4241 4241 4241 4139 4139 4139 4139 4139 4089 4089 4089 4139 4139 4089 4089 4089 4041 4041 4041 4041 4041 4041 4041 4041 4041 4041 4089 4041 4041 4041 4041 4041 4041 4041 4089 4089 4089 4139 4139 4139 4139 4089 4089 4139 4241 4241 4241 4241 4241 4241 4295 4295 4295 4295 4349 4349 4405 6375 6497 6497 6497 6497 6375 6375 6375 6375 6375 6375 6375 6375 6497 6622 6753 6889 6889 6889 6889 6889 6889 6889 6889 6889 6889 6889 6889 7030 0 0 0 0 0 0 0 0 0 0 0 0 0
0 0 0 0 0 0 0 0 0 0 0 0 0 0 0 0 0 0 0 0 0 0 0 0 0 0 0 0 0 0 6259 6259 6753 6753 6753 6753 6753 6753 6753 6753 6889 6889 7178 7178 7178 7332 7492 7492 7492 7492 7492 7492 7492 7492 7492 7492 7492 7492 7492 7492 7660 7660 7660 7660 7660 7660 7660 7492 7492 7492 7492 7492 7492 7332 7332 7332 7332 7332 7332 7332 7332 7332 7332 7332 7332 7332 0 0 0 0 0 0 0 0 0 0 0 0 0 0 0 0 0 0 0 0 0 0 0 0 7332 7332 7178 7178 7178 7178 7178 7178 7178 7178 7178 7178 7178 7178 7178 7178 7178 7178 7178 7178 7178 7178 7332 7332 7332 7332 7332 7332 7332 7332 7332 7332 7178 7178 7178 7178 0 0 0 0 0 0 0 0 0 0 0 0 0 0 0 0 0 0 0 0 0 0 0 0 0 0 0 0 0 0 0 0 0 0 0 0 0 0 0 0 0 0 0 0 0 0 0 0 0 0 0 0 0 0 0 0 0 0 0 0 0 0 0 0 0 0 0 0 0 0 0 0 0 0 0 0 0 0 0 0 0 0 0 0 0 0 0 0 6622 6497 6497 6146 6146 6038 6038 6038 0 0 0 6622 6622 6622 6622 6753 6753 6753 6753 6753 6753 6753 6753 6753 6753 6753 6753 0 0 0 0 3269 3238 3238 3238 3238 3238 3238 3238 3238 3238 3238 3238 3238 3238 3238 3238 3238 3238 3238 3238 3238 3238 3238 3238 3208 3208 3178 3178 3208 3208 3208 3208 3208 3208 3208 3208 3208 3208 3208 3208 3178 3178 3208 3208 3208 3208 3208 3208 3208 3178 3149 3149 3149 3149 3149 3149 3149 3149 3178 3178 3149 3149 3149 3149 3149 3149 3120 3120 3120 3120 3120 3120 3120 3120 3120 3120 3120 3120 3120 3120 3092 3092 3092 3092 3092 3120 3120 3120 3120 3149 3178 3208 3178 3178 3178 3178 3178 3178 3149 3149 3149 3149 3178 3178 3149 3149 3178 3178 3149 3149 3178 3178 3178 3120 3120 3120 3120 3149 3149 3149 4295 4295 4295 4349 4349 4295 4295 4295 4349 4295 4295 4241 4241 4349 6889 6889 6889 6889 6889 6889 6889 6889 6889 6753 6753 6753 6753 6753 6753 6753 6753 6753 6753 6889 6889 7030 7030 7030 7030 7030 7030 7030 7030 7178 7030 7030 7030 6889 6889 6889 6889 6889 6889 6889 6889 6889 6889 7030 6889 6889 6889 6753 6753 6753 6753 6622 6622 6753 6753 6753 6753 6753 6753 6889 6753 6753 6753 6753 6753 6753 6753 6753 6753 6753 6753 6753 6753 6753 6753 6753 6753 6889 6889 6889 6889 6889 6889 6889 6889 6889 6889 6889 6753 6753 6753 6753 6753 6753 6753 6622 6622 6622 6622 6622 6622 6622 6497 6497 6497 6497 6375 6375 6375 4405 4405 4463 4463 4522 4522 4463 4463 4463 4463 4463 4463 4463 4463 4463 4463 4349 4349 4349 4295 4295 4295 4295 4295 4295 4295 4295 4295 4295 4295 4295 4241 4241 4241 4241 4241 4139 4139 4139 4139 4139 4089 4089 4089 4089 4089 4089 4089 4089 4041 4041 4041 4041 4041 4041 3994 3994 3994 4041 4041 4041 4041 4041 4041 4041 4041 4041 4089 4089 4089 4089 4139 4139 4139 4139 4139 4190 4190 4241 4241 4241 4241 4241 4295 4295 4295 4295 4349 4349 4405 6375 6497 6497 6497 6497 6497 6497 6497 6497 6497 6497 6497 6497 6497 6622 7030 7030 7030 7030 6889 6889 6889 6889 6889 7030 7030 7030 7030 7030 0 0 0 0 0 0 0 0 0 0 0 0 0
0 0 0 0 0 0 0 0 0 0 0 0 0 0 0 0 0 0 0 0 0 0 0 0 0 0 0 0 0 0 6259 6259 6753 6753 6753 6753 6753 6753 6753 6753 6889 6889 7178 7178 7178 7332 7492 7332 7332 7492 7492 7492 7492 7492 7492 7492 7492 7492 7492 7492 7660 7660 7660 7660 7660 7492 7492 7492 7492 7492 7492 7492 7492 7332 7332 7332 7332 7332 7332 7332 7332 7332 7332 7178 7178 7178 0 0 0 0 0 0 0 0 0 0 0 0 0 0 0 0 0 0 0 0 0 0 0 0 0 0 7178 7178 7178 7178 7178 7178 7178 7178 7178 7178 7178 7178 7178 7178 7178 7178 7178 7178 7178 7178 7332 7332 7332 7332 7332 7332 7332 7332 7332 7332 7178 7178 7332 7332 0 0 0 0 0 0 0 0 0 0 0 0 0 0 0 0 0 0 0 0 0 0 0 0 0 0 0 0 0 0 0 0 0 0 0 0 0 0 0 0 0 0 0 0 0 0 0 0 0 0 0 0 0 0 0 0 0 0 0 0 0 0 0 0 0 0 0 0 0 0 0 0 0 0 0 0 0 0 0 0 0 0 0 0 0 0 7030 6889 6753 6622 6497 6146 6146 6038 6038 6038 0 0 0 0 0 6753 6753 6753 6622 6622 6753 6753 6753 6753 6889 6889 6889 6753 6753 0 0 0 0 3300 3238 3238 3238 3238 3238 3238 3238 3238 3238 3238 3238 3238 3238 3238 3238 3238 3208 3208 3208 3238 3238 3238 3238 3208 3208 3208 3208 3208 3208 3208 3208 3208 3208 3208 3208 3208 3208 3178 3178 3178 3178 3208 3208 3178 3178 3208 3208 3208 3178 3149 3149 3149 3178 3178 3178 3178 3178 3178 3178 3149 3149 3149 3149 3149 3149 3149 3149 3120 3120 3120 3120 3120 3120 3120 3120 3120 3120 3120 3120 3120 3092 3092 3092 3092 3120 3120 3120 3120 3149 3178 3208 3208 3178 3178 3208 3208 3208 3149 3149 3149 3149 3178 3178 3149 3149 3178 3178 3149 3149 3178 3178 3178 3149 3120 3120 3149 3149 3149 3149 3178 4295 4295 4349 4349 4295 4295 4349 4349 4349 4295 4295 4295 4349 6753 6753 6889 6889 6889 6889 6889 6889 6889 6753 6753 6753 6753 6753 6753 6753 6753 6753 6753 6889 6889 6889 7030 7030 7030 7030 7030 7030 7030 7030 7030 7030 7030 6889 6889 6889 6889 6889 6889 6889 6889 6889 6889 6889 6889 6889 6753 6753 6753 6753 6753 6622 6622 6753 6753 6753 6753 6753 6753 6889 6753 6753 6753 6753 6753 6753 6753 6753 6753 6889 6889 6753 6753 6753 6753 6753 6753 6889 6889 6889 6889 6889 6889 7030 7030 6889 6889 6889 6753 6753 6753 6753 6753 6753 6753 6622 6622 6622 6622 6622 6622 6497 6497 6497 6497 6497 6375 6375 6375 4405 4405 4463 4463 4522 4522 4463 4463 4463 4463 4522 4463 4463 4463 4463 4405 4349 4349 4349 4295 4295 4295 4295 4295 4295 4295 4295 4295 4295 4295 4295 4241 4241 4241 4241 4241 4190 4190 4190 4139 4139 4089 4089 4089 4089 4089 4089 4089 4089 4041 4041 4041 4041 4041 4041 3994 3994 3994 4041 4041 4041 4041 4041 4041 4041 4041 4041 4089 4089 4089 4089 4139 4139 4139 4139 4139 4190 4190 4241 4241 4241 4241 4241 4295 4295 4349 4349 4349 4405 4405 6375 6497 6497 6497 6497 6497 6497 6497 6497 6497 6497 6622 6622 6622 6622 6753 6889 7030 7030 7030 6889 6889 6889 7030 7030 7030 7030 7030 7030 0 0 0 0 0 0 0 0 0 0 0 0 0
0 0 0 0 0 0 0 0 0 0 0 0 0 0 0 0 0 0 0 0 0 0 0 0 0 0 0 0 0 6753 6375 6375 6753 6753 6753 6753 6753 6753 6753 6753 6889 6889 7178 7332 7332 7332 7492 7332 7332 7492 7492 7492 7332 7332 7332 7332 7492 7492 7492 7492 7492 7660 7660 7660 7660 7492 7492 7492 7492 7492 7332 7332 7492 7332 7332 7332 7332 7332 7332 7332 7332 7332 7332 7178 7178 7178 0 0 0 0 0 0 0 0 0 0 0 0 0 0 0 0 0 0 0 0 0 0 0 0 0 7332 7178 7178 7178 7178 7178 7178 7178 7178 7178 7178 7178 7178 7178 7178 7178 7178 7178 7178 7178 7178 7332 7332 7332 7332 7332 7332 7332 7332 7332 7332 7332 7332 7332 7332 0 0 0 0 0 0 0 0 0 0 0 0 0 0 0 0 0 0 0 0 0 0 0 0 0 0 0 0 0 0 0 0 0 0 0 0 0 0 0 0 0 0 0 0 0 0 0 0 0 0 0 0 0 0 0 0 0 0 0 0 0 0 0 0 0 0 0 0 0 0 0 0 0 0 0 0 0 0 0 0 0 0 0 0 0 0 7030 6889 6753 6622 6497 6259 6259 0 0 0 0 0 0 0 0 0 6753 6753 6622 6622 6753 6753 6753 6753 6889 6889 6889 6889 6889 0 0 0 0 3269 3238 3238 3269 3238 3238 3238 3238 3238 3238 3238 3238 3238 3238 3238 3238 3238 3208 3208 3208 3238 3238 3238 3238 3238 3208 3208 3208 3208 3208 3208 3208 3208 3208 3208 3208 3208 3208 3178 3178 3178 3178 3208 3208 3178 3178 3208 3208 3208 3178 3178 3178 3178 3178 3178 3178 3178 3178 3178 3178 3149 3149 3178 3149 3149 3149 3149 3149 3120 3120 3120 3120 3120 3120 3120 3120 3120 3120 3120 3120 3120 3120 3120 3092 3092 3120 3120 3120 3120 3149 3178 3208 3208 3208 3208 3208 3208 3208 3208 3178 3178 3178 3208 3208 3178 3178 3178 3178 3178 3178 3178 3178 3178 3178 3149 3149 3149 3149 3178 3178 3178 4241 4241 4295 4349 4295 4295 4349 4349 4349 4349 4295 4295 4405 6622 6753 6889 6889 6889 6889 6889 6889 6889 6753 6753 6753 6753 6753 6753 6753 6753 6889 6889 6889 6889 6889 7030 7030 7030 7030 7030 7030 7030 7030 7030 7030 7030 6889 6889 6889 6889 6889 6889 6889 6889 6889 6889 6889 6889 6889 6753 6753 6753 6753 6753 6622 6622 6753 6753 6753 6753 6753 6753 6753 6753 6753 6753 6753 6889 6753 6753 6753 6753 6889 6889 6889 6889 6889 6753 6753 6753 6889 6889 6889 6889 6889 7030 7030 7030 6753 6753 6753 6753 6753 6753 6753 6753 6753 6753 6622 6622 6622 6622 6622 6622 6497 6497 6497 6497 6497 6497 6497 6497 4463 4463 4463 4463 4463 4463 4463 4463 4463 4463 4463 4463 4463 4463 4463 4405 4349 4349 4349 4295 4295 4295 4295 4295 4295 4295 4295 4295 4295 4241 4241 4241 4241 4241 4241 4241 4190 4190 4190 4139 4139 4089 4089 4089 4089 4089 4089 4089 4089 4089 4041 4041 4041 4041 4041 3994 3994 3994 4041 4041 4041 4041 4041 4041 4041 4041 4041 4089 4089 4089 4089 4139 4139 4139 4089 4089 4139 4190 4241 4241 4295 4295 4295 4295 4295 4295 4295 4349 6375 6375 6497 6497 6497 6497 6497 6622 6622 6622 6497 6497 6497 6622 6622 6622 6622 6753 6889 6889 7030 7030 7030 7030 7030 7030 7178 7178 7030 7030 7030 0 0 0 0 0 0 0 0 0 0 0 0 0
0 0 0 0 0 0 0 0 0 0 0 0 0 0 0 0 0 0 0 0 0 0 0 0 0 0 0 0 0 6622 6622 6622 6753 6753 6753 6753 6753 6753 6753 6753 6889 7030 7178 7332 7332 7332 7332 7332 7332 7332 7332 7492 7332 7332 7332 7332 7492 7492 7492 7492 7492 7492 7492 7660 7660 7332 7332 7332 7332 7332 7332 7332 7332 7332 7332 7332 7332 7492 7332 7332 7332 7332 7332 7178 7178 0 0 0 0 0 0 0 0 0 0 0 0 0 0 0 0 0 0 0 0 0 0 0 0 0 0 7332 7332 7332 7178 7178 7178 7178 7178 7178 7178 7178 7178 7178 7178 7178 7178 7178 7178 7178 7178 7178 7332 7332 7332 7332 7332 7332 7332 7332 7332 7178 7178 7178 7178 7178 0 0 0 0 0 0 0 0 0 0 0 0 0 0 0 0 0 0 0 0 0 0 0 0 0 0 0 0 0 0 0 0 0 0 0 0 0 0 0 0 0 0 0 0 0 0 0 0 0 0 0 0 0 0 0 0 0 0 0 0 0 0 0 0 0 0 0 0 0 0 0 0 0 0 0 0 0 0 0 0 0 0 0 0 0 0 7030 7030 6889 6753 6622 6497 6497 6497 0 0 0 0 0 0 0 0 6753 6753 6622 6622 6753 6753 6753 6753 6889 6889 6889 6889 6889 0 0 0 0 3269 3238 3238 3269 3238 3238 3238 3238 3238 3238 3238 3238 3238 3238 3238 3238 3238 3208 3208 3208 3238 3238 3238 3238 3238 3238 3208 3208 3238 3208 3208 3208 3208 3208 3208 3208 3208 3208 3178 3178 3208 3208 3208 3208 3208 3208 3208 3208 3208 3178 3178 3178 3178 3178 3178 3178 3178 3149 3149 3178 3149 3149 3149 3149 3149 3149 3149 3149 3149 3120 3120 3120 3120 3120 3120 3120 3120 3120 3120 3120 3120 3120 3120 3092 3092 3120 3120 3120 3120 3149 3178 3208 3208 3208 3208 3208 3208 3208 3208 3208 3208 3208 3208 3208 3178 3178 3178 3178 3178 3178 3178 3178 3178 3178 3178 3178 3178 3178 3178 3178 3178 3178 4241 4295 4349 4295 4295 4295 4295 4349 4349 4349 4349 4405 4463 6753 6889 6889 6889 6889 6889 6889 6889 6753 6753 6753 6753 6753 6753 6753 6753 6889 6889 6889 6889 6889 7030 7030 6889 6889 7030 7030 7030 7030 7030 7030 6889 6889 7030 6889 6889 7030 7030 7030 7030 6889 6889 7030 6889 6889 6753 6753 6753 6753 6753 6753 6753 6753 6753 6753 6753 6753 6753 6753 6753 6889 6889 6889 6889 6889 6889 6889 6889 6889 6889 6889 6889 6889 6889 6753 6753 6889 6889 6889 6889 6889 6889 6889 0 0 6753 6753 6753 6753 6753 6753 6753 6753 6753 6622 6622 6497 6497 6622 6622 6497 6497 6497 6497 6497 6497 6622 6622 4463 4463 4463 4463 4463 4463 4463 4463 4463 4463 4463 4463 4463 4463 4463 4463 4405 4349 4349 4295 4295 4295 4295 4295 4295 4295 4295 4295 4295 4241 4241 4241 4241 4241 4241 4241 4190 4190 4190 4139 4139 4089 4089 4089 4089 4089 4089 4089 4089 4089 4089 4041 4041 4041 4041 4041 4041 4041 4041 4041 4041 4041 4041 4041 4041 4041 4041 4089 4089 4089 4089 4089 4089 4139 4089 4089 4139 4190 4190 4241 4241 4241 4241 4295 4295 4295 4295 6497 6497 6497 6497 6497 6497 6497 6622 6622 6622 6622 6622 6622 6622 6622 6753 6622 6622 6753 6889 6889 7030 7030 7030 7030 7030 7178 7178 7178 7178 7178 7178 0 0 0 0 0 0 0 0 0 0 0 0 0
0 0 0 0 0 0 0 0 0 0 0 0 0 0 0 0 0 0 0 0 0 0 0 0 0 0 0 0 0 6622 6622 6622 6753 6753 6753 6753 6753 6753 6753 6753 6889 6889 7178 7332 7332 7332 7332 7332 7332 7332 7332 7332 7332 7332 7332 7332 7492 7492 7492 7492 7492 7492 7492 7660 7660 7332 7332 7332 7332 7332 7332 7332 7332 7332 7332 7332 7332 7492 7332 7332 7332 7332 7332 7332 0 0 0 0 0 0 0 0 0 0 0 0 0 0 0 0 0 0 0 0 0 0 0 0 0 0 0 0 7492 7492 7332 7332 7178 7178 7178 7178 7178 7178 7178 7178 7178 7178 7178 7178 7178 7178 7178 7178 7178 7332 7332 7332 7332 7332 7332 7332 7178 7178 7178 7178 7178 7178 0 0 0 0 0 0 0 0 0 0 0 0 0 0 0 0 0 0 0 0 0 0 0 0 0 0 0 0 0 0 0 0 0 0 0 0 0 0 0 0 0 0 0 0 0 0 0 0 0 0 0 0 0 0 0 0 0 0 0 0 0 0 0 0 0 0 0 0 0 0 0 0 0 0 0 7332 7332 7492 7492 0 0 0 0 0 0 0 7030 7030 7030 6889 6889 6622 6622 6889 0 0 0 0 0 0 0 0 0 6753 6622 6622 6753 6753 6753 6753 6889 6889 6889 6889 7030 0 0 0 0 3269 3238 3238 3238 3238 3238 3238 3238 3238 3238 3238 3238 3238 3238 3238 3238 3238 3208 3208 3208 3208 3238 3238 3238 3238 3238 3238 3238 3238 3238 3208 3208 3238 3238 3238 3238 3238 3238 3238 3238 3238 3238 3208 3208 3208 3208 3208 3208 3208 3208 3178 3178 3178 3178 3178 3178 3178 3149 3149 3149 3149 3149 3149 3149 3149 3149 3149 3149 3149 3120 3120 3120 3120 3120 3120 3120 3120 3120 3120 3120 3120 3120 3120 3120 3120 3120 3120 3120 3120 3149 3178 3208 3208 3208 3208 3208 3208 3208 3208 3208 3208 3208 3208 3208 3178 3178 3178 3178 3178 3178 3178 3178 3208 3178 3178 3178 3178 3178 3178 3178 3178 3178 4241 4295 4349 4295 4295 4295 4295 4349 4349 4349 4349 4405 4463 6753 6889 6889 6889 6889 6889 6889 6889 6753 6753 6753 6753 6753 6753 6753 6753 6753 6889 6889 6889 6889 6889 7030 6889 6889 7030 7030 7030 7030 7030 7030 6889 6889 7030 6889 6889 7030 7030 7030 7030 7030 7030 7030 6889 6889 6753 6753 6753 6753 6753 6753 6753 6753 6753 6753 6753 6753 6753 6753 6753 6889 6889 6889 6889 6889 6889 6889 6889 6889 6889 6889 6889 6889 6889 6889 6889 6889 7030 7030 7030 7178 7178 0 0 0 6889 6889 6889 6753 6753 6753 6753 6753 6753 6622 6497 6497 6497 6622 6622 6497 6497 6497 6497 6622 6622 6889 6889 4463 4463 4463 4463 4463 4463 4463 4463 4463 4463 4463 4463 4463 4463 4463 4463 4405 4349 4349 4295 4295 4295 4295 4295 4295 4295 4295 4295 4241 4241 4241 4241 4241 4241 4241 4241 4190 4190 4190 4190 4139 4089 4089 4089 4089 4089 4089 4089 4089 4089 4041 4041 4041 4041 4041 4041 4041 4041 4041 4041 4041 4041 4041 4041 4041 4041 4041 4089 4089 4089 4089 4089 4089 4139 4089 4089 4139 4139 4190 4241 4241 4241 4241 4295 4295 4295 4295 6497 6497 6497 6497 6497 6497 6497 6622 6622 6622 6622 6622 6753 6753 6753 6753 6622 6622 6753 6889 7030 7030 7030 7030 7030 7030 7178 7178 7178 7178 7332 0 0 0 0 0 0 0 0 0 0 0 0 0 0
0 0 0 0 0 0 0 0 0 0 0 0 0 0 0 0 0 0 0 0 0 0 0 0 0 0 0 0 0 6622 6622 6622 6753 6753 6753 6753 6753 6753 6889 6889 6889 6889 7178 7332 7332 7332 7332 7332 7332 7332 7332 7332 7332 7332 7332 7332 7492 7492 7492 7492 7492 7492 7492 7492 7492 7332 7332 7332 7332 7492 7332 7332 7492 7492 7492 7492 7492 7492 7492 7332 7332 7332 7332 7332 0 0 0 0 0 0 0 0 0 0 0 0 0 0 0 0 0 0 0 0 0 0 0 0 0 0 0 0 7660 7332 7332 7332 7178 7178 7178 7178 7178 7178 7178 7178 7178 7178 7178 7178 7178 7178 7178 7178 7178 7178 7178 7332 7332 7332 7178 7178 7178 7178 7178 7178 7178 7178 7332 0 0 0 0 0 0 0 0 0 0 0 0 0 0 0 0 0 0 0 0 0 0 0 0 0 0 0 0 0 0 0 0 0 0 0 0 0 0 0 0 0 0 0 0 0 0 0 0 0 0 0 0 0 0 0 0 0 0 0 0 0 0 0 0 0 0 0 0 0 0 0 7332 7332 7332 7332 7332 7332 7332 7332 7178 7178 0 0 0 0 7178 7178 7178 7030 7030 6753 6753 6889 0 0 0 0 0 0 0 0 7332 6889 6753 6753 6753 6889 6889 6889 6889 6889 6889 7030 7030 0 0 0 0 0 3238 3238 3238 3238 3238 3238 3238 3238 3238 3238 3238 3238 3238 3238 3238 3238 3208 3208 3208 3208 3238 3238 3238 3238 3238 3238 3238 3238 3238 3238 3238 3238 3238 3238 3238 3238 3238 3238 3238 3238 3238 3208 3208 3208 3208 3208 3208 3208 3208 3208 3178 3178 3178 3178 3178 3178 3149 3149 3149 3149 3149 3149 3120 3120 3149 3149 3149 3120 3120 3120 3120 3120 3120 3120 3120 3120 3120 3120 3120 3120 3120 3120 3120 3120 3120 3120 3120 3149 3149 3208 3208 3208 3208 3208 3208 3208 3208 3208 3208 3208 3208 3208 3208 3208 3208 3208 3178 3178 3178 3178 3178 3208 3178 3178 3208 3178 3178 3178 3178 3178 3178 4241 4295 4349 4295 4295 4295 4295 4349 4349 4349 4349 4405 6753 6753 6889 6889 6889 6889 6889 6889 6889 6753 6753 6753 6753 6753 6753 6753 6753 6753 6889 6889 6889 6889 6889 7030 7030 7030 7030 7030 7030 7030 7030 7030 6889 6889 7030 6889 6889 6889 7030 7178 7030 7030 7030 6889 6889 6889 6889 6889 6753 6753 6753 6753 6753 6753 6753 6753 6753 6753 6753 6753 6753 6889 6889 6889 6889 6889 6889 6889 6889 6889 6889 6889 6889 6889 6889 6889 6889 6889 7030 7030 7030 7030 7030 7030 7030 0 6889 6889 6889 6753 6753 6753 6753 6753 6753 6622 6497 6497 6497 6622 6622 6497 6497 6497 6497 6622 6753 6889 6889 4522 4522 4522 4463 4463 4463 4463 4463 4463 4463 4463 4463 4463 4463 4463 4463 4405 4405 4349 4295 4295 4295 4295 4295 4241 4241 4241 4241 4241 4241 4241 4241 4241 4241 4241 4241 4190 4190 4190 4190 4139 4089 4089 4089 4089 4089 4089 4089 4089 4089 4041 4041 4041 4041 4041 4041 4041 4041 4041 4041 4041 4041 4041 4041 4089 4041 4041 4089 4089 4089 4089 4089 4089 4089 4041 4041 4089 4139 4190 4241 4241 4295 4295 4295 4295 4295 4295 6497 6497 6497 6497 6497 6497 6497 6622 6622 6622 6622 6622 6622 6622 6753 6753 6622 6622 6753 6889 6889 7030 7030 7030 7030 7030 7178 7178 7178 7178 7332 0 0 0 0 0 0 0 0 0 0 0 0 0 0
0 0 0 0 0 0 0 0 0 0 0 0 0 0 0 0 0 0 0 0 0 0 0 0 0 0 0 0 0 6753 6753 6753 6753 6753 6753 6753 6753 6753 6889 6889 6889 6889 6889 7178 7178 7178 7332 7178 7178 7178 7332 7332 7332 7332 7332 7332 7492 7492 7492 7492 7492 7492 7492 7492 7492 7332 7332 7332 7332 7332 7332 7332 7492 7492 7492 7492 7492 7492 7492 7332 7332 7332 7332 7332 0 0 0 0 0 0 0 0 0 0 0 0 0 0 0 0 0 0 0 0 0 0 0 0 0 0 0 0 7660 7332 7332 7332 7178 7178 7178 7178 7178 7178 7178 7178 7178 7178 7178 7178 7178 7178 7178 7178 7178 7178 7178 7332 7332 7332 7178 7178 7178 7178 7178 7178 7178 7178 7332 0 0 0 0 0 0 0 0 0 0 0 0 0 0 0 0 0 0 0 0 0 0 0 0 0 0 0 0 0 0 0 0 0 0 0 0 0 0 0 0 0 0 0 0 0 0 0 0 0 7178 7178 7178 7030 7030 7030 0 0 0 0 0 0 0 0 0 0 0 0 0 0 0 0 7332 7332 7332 7332 7332 7332 7332 7332 7178 7178 0 0 0 0 7178 7178 7178 7178 7178 6889 6889 7030 7178 0 0 0 0 0 0 7332 7178 7178 6889 6889 6889 6889 6889 6889 6889 6889 7030 7030 0 0 0 0 0 0 3238 3238 3238 3238 3238 3238 3238 3238 3238 3238 3238 3238 3238 3238 3238 3238 3208 3208 3208 3208 3208 3208 3208 3208 3208 3238 3238 3238 3238 3238 3238 3238 3238 3238 3238 3238 3238 3238 3238 3238 3238 3208 3208 3208 3208 3208 3208 3208 3208 3208 3208 3208 3178 3178 3178 3178 3149 3149 3149 3149 3149 3120 3120 3120 3149 3149 3149 3120 3120 3120 3120 3120 3120 3120 3120 3120 3120 3120 3120 3120 3120 3120 3120 3120 3120 3120 3120 3149 3178 3208 3208 3208 3208 3208 3208 3208 3238 3238 3238 3238 3208 3208 3208 3208 3208 3208 3178 3178 3178 3178 3178 3208 3178 3178 3208 3178 3178 3178 3178 3208 3208 4190 4295 4349 4295 4295 4295 4295 4349 4349 4349 4349 4405 6753 6753 6889 6889 6889 6889 6889 6889 6889 6753 6753 6753 6889 6889 6889 6889 6753 6753 6889 6753 6753 6889 6889 6889 6889 7030 7030 7030 7030 7030 7030 7030 6889 6889 6889 6889 6889 6889 7030 7030 7030 6889 6889 6889 6889 6889 6889 6889 6889 6889 6889 6889 6889 6753 6753 6753 6753 6753 6889 6889 6889 6889 6889 6889 6889 6889 6889 6753 6753 6889 6753 6753 6889 6889 6889 6889 6889 6889 7030 7030 7030 7030 7030 7030 7030 7178 6889 6889 6753 6753 6753 6753 6753 6753 6889 6622 6622 6622 6622 6622 6622 6622 6497 6497 6497 6622 6753 7030 7030 4522 4522 4522 4463 4463 4463 4463 4463 4463 4463 4463 4463 4463 4463 4463 4405 4405 4405 4349 4295 4295 4349 4295 4295 4241 4241 4241 4241 4190 4190 4190 4190 4190 4190 4190 4190 4190 4190 4190 4139 4139 4089 4089 4089 4089 4089 4089 4089 4089 4089 4041 4041 4041 4041 4041 4041 4041 4041 4041 4041 4041 4041 4041 4041 4089 4041 4041 4089 4089 4089 4089 4089 4089 4089 4041 4041 4041 4041 4190 4190 4241 4295 4295 4295 4295 4349 4349 6497 6497 6497 6497 6497 6497 6497 6497 6622 6622 6622 6622 6622 6622 6753 6753 6753 6753 6889 6889 6889 7030 7030 7030 7030 7030 7178 7178 7178 7178 7332 0 0 0 0 0 0 0 0 0 0 0 0 0 0
0 0 0 0 0 0 0 0 0 0 0 0 0 0 0 0 0 0 0 0 0 0 0 0 0 0 0 0 0 6753 6753 6753 6753 6753 6753 6753 6753 6753 6889 6889 6889 6889 6889 7178 7178 7178 7332 7178 7178 7178 7178 7178 7332 7332 7332 7332 7492 7492 7492 7492 7492 7492 7492 7492 7492 7492 7332 7332 7492 7332 7332 7332 7492 7492 7492 7492 7492 7492 7492 7332 7332 7332 7332 7332 0 0 0 0 0 0 0 0 0 0 0 0 0 0 0 0 0 0 0 0 0 0 0 0 0 0 0 0 7660 7492 7332 7332 7332 7178 7178 7178 7178 7178 7178 7178 7178 7178 7178 7178 7178 7178 7178 7178 7178 7178 7178 7332 7332 7332 7332 7332 7178 7178 7178 7178 7178 7178 7332 0 0 0 0 0 0 0 7332 7332 0 0 0 0 0 7030 7030 7030 7030 7178 7030 7030 7030 7030 7030 7030 0 0 0 0 0 0 0 0 0 0 0 0 0 0 0 6497 6497 6497 6622 6753 7030 7178 7492 7332 7178 7178 7178 7030 7030 7030 7178 7332 7660 7660 0 0 0 0 0 0 0 0 0 0 0 0 7492 7492 7332 7332 7332 7492 7492 7332 7332 7332 7492 7492 7332 7332 7332 7332 7332 7178 7178 7030 7030 7178 7178 7332 7492 7492 7660 7660 7492 7332 7178 7178 7030 7030 7030 7030 7030 7030 7030 7030 7030 7030 7332 0 0 0 0 0 3238 3238 3238 3238 3238 3238 3238 3238 3238 3238 3238 3238 3238 3238 3238 3238 3208 3208 3208 3238 3208 3208 3208 3208 3208 3238 3238 3238 3238 3238 3238 3238 3238 3238 3238 3269 3269 3269 3238 3238 3238 3208 3208 3208 3208 3208 3208 3208 3208 3208 3208 3208 3208 3178 3178 3178 3178 3149 3149 3120 3120 3120 3120 3120 3120 3149 3149 3120 3120 3120 3120 3120 3120 3120 3120 3120 3120 3120 3120 3120 3120 3120 3120 3120 3120 3120 3149 3178 3178 3208 3238 3238 3208 3208 3208 3208 3208 3208 3208 3238 3238 3238 3238 3238 3208 3208 3178 3178 3178 3178 3178 3208 3178 3178 3208 3178 3178 3178 3178 3208 3208 4190 4241 4295 4349 4349 4295 4295 4349 4349 4349 4349 4405 6753 6753 6753 6889 6889 6889 6889 6889 6889 6753 6753 6753 6753 6889 6889 6889 6753 6753 6889 6753 6753 6889 6889 6889 6889 6889 7030 7030 7030 7030 7030 7030 6889 6889 6889 6889 6889 6889 6889 7030 7030 6889 6889 6889 6889 6889 6889 6889 6889 6889 6889 6889 6889 6753 6753 6753 6753 6753 6889 6753 6753 6889 6889 6889 6889 6889 6753 6753 6753 6753 6753 6753 6889 6889 6889 6889 6889 7030 7030 7030 7030 7030 7030 7030 7178 7178 6753 6753 6753 6753 6753 6753 6753 6753 6889 6753 6753 6622 6622 6622 6622 6622 6497 6497 6497 6622 6753 6889 6889 4463 4463 4522 4463 4463 4463 4463 4463 4463 4463 4463 4463 4463 4463 4463 4405 4405 4405 4349 4295 4295 4349 4295 4295 4295 4241 4241 4241 4190 4190 4190 4190 4190 4190 4190 4190 4190 4139 4139 4139 4139 4089 4089 4089 4089 4089 4089 4089 4089 4089 4041 4041 4041 4041 4041 4041 4041 4041 4041 4041 4041 4041 4089 4089 4089 4089 4089 4089 4089 4089 4089 4089 4089 4089 4041 4041 4041 4041 4190 4190 4190 4241 4295 4295 4295 4405 6497 6497 6497 6497 6497 6497 6497 6497 6497 6622 6622 6622 6622 6622 6622 6753 6753 6753 6753 6889 6889 6889 7030 7030 7030 7030 7030 7030 7178 7332 7332 7332 0 0 0 0 0 0 0 0 0 0 0 0 0 0
0 0 0 0 0 0 0 0 0 0 0 0 0 0 0 0 0 0 0 0 0 0 0 0 0 0 0 0 0 6753 6753 6753 6753 6753 6753 6753 6753 6753 6889 6889 6889 6889 6889 7178 7178 7178 7332 7178 7178 7178 7178 7178 7332 7332 7332 7332 7492 7492 7492 7492 7492 7492 7492 7492 7492 7492 7332 7332 7492 7332 7332 7332 7492 7492 7492 7492 7492 7492 7492 7492 7332 7332 7332 7332 7332 0 0 0 0 0 0 0 0 0 0 0 0 0 0 0 0 0 0 0 0 0 0 0 0 0 0 7835 7660 7492 7492 7332 7332 7178 7178 7178 7178 7178 7178 7178 7178 7178 7178 7178 7178 7178 7178 7178 7178 7178 7178 7178 7178 7332 7178 7178 7178 7178 7178 7178 7178 7178 7178 0 0 0 0 0 0 7178 7178 7178 7332 0 0 0 7030 7030 7030 7030 7030 7178 7030 7030 7030 7030 7030 7030 7030 7030 7178 7178 7030 7030 7030 7030 7030 7178 7178 7178 7178 7030 7030 6497 6497 6497 6622 6753 7030 7178 7332 7332 7178 7178 7178 7178 7178 7178 7178 7332 7660 7660 7660 7660 7660 7660 7492 7492 7492 0 7332 7332 7332 7332 7332 7492 7492 7332 7332 7492 7492 7492 7492 7492 7492 7492 7332 7332 7332 7332 7332 7332 7332 7178 7178 7178 7178 7332 7492 7492 7660 7660 7492 7492 7332 7332 7178 7178 7178 7030 7030 7030 7030 7030 7030 7178 7332 0 0 0 0 0 3238 3238 3238 3238 3238 3238 3238 3238 3238 3238 3238 3238 3238 3238 3238 3238 3208 3208 3208 3238 3208 3208 3238 3208 3208 3238 3238 3238 3238 3238 3238 3238 3238 3238 3238 3269 3269 3269 3238 3238 3208 3208 3208 3208 3208 3208 3208 3208 3208 3208 3208 3208 3208 3178 3178 3178 3178 3149 3149 3120 3120 3120 3120 3120 3120 3149 3149 3120 3120 3120 3120 3120 3120 3120 3120 3120 3120 3120 3120 3120 3120 3120 3120 3120 3120 3149 3149 3178 3208 3238 3238 3238 3208 3208 3208 3208 3208 3208 3208 3238 3238 3238 3238 3238 3238 3238 3208 3208 3208 3208 3208 3208 3208 3208 3208 3178 3178 3208 3208 3208 3208 4190 4241 4295 4349 4349 4295 4295 4349 4349 4405 4405 4405 4405 6753 6753 6889 6889 6889 6889 6889 6889 6753 6753 6753 6753 6889 6753 6753 6753 6753 6753 6889 6889 6889 6889 6889 6889 6889 7030 7030 7030 7030 7030 7030 7030 6889 6889 6889 6753 6753 6889 6889 6889 7030 7030 7030 6889 6889 6889 7030 6889 6889 6889 6889 7030 6753 6753 6753 6753 6753 6889 6753 6753 6889 6889 6889 6753 6753 6753 6753 6753 6753 6753 6753 6753 6889 6889 6889 7030 7030 7030 6889 6753 6753 6889 7030 7178 6753 6753 6753 6753 6753 6753 6753 6753 6753 6753 6753 6622 6622 6622 6622 6622 6622 6497 6497 6497 6622 6622 6889 4463 4463 4463 4522 4463 4463 4463 4463 4463 4463 4463 4463 4463 4463 4463 4405 4405 4405 4405 4349 4295 4295 4349 4295 4295 4295 4139 4139 4190 4190 4190 4190 4190 4190 4190 4190 4190 4190 4139 4139 4139 4139 4089 4089 4089 4089 4089 4089 4089 4089 4089 4041 4041 4041 4041 4041 4041 4041 4041 4041 4089 4089 4089 4089 4089 4089 4089 4089 4089 4089 4089 4089 4089 4089 4089 4041 4041 4041 4041 4190 4190 4190 4241 4295 4295 4295 4405 6497 6497 6497 6497 6497 6497 6497 6497 6497 6497 6497 6622 6622 6622 6622 6753 6753 6753 6753 6889 6889 6889 6889 7030 7030 7030 7030 7030 7178 7332 7332 7332 0 0 0 0 0 0 0 0 0 0 0 0 0 0
0 0 0 0 0 0 0 0 0 0 0 0 0 0 0 0 0 0 0 0 0 0 0 0 0 0 0 0 0 6753 6753 6753 6753 6753 6753 6753 6753 6753 6889 6889 7030 7030 7178 7178 7178 7178 7332 7178 7178 7178 7178 7178 7332 7332 7332 7332 7492 7492 7492 7492 7492 7492 7492 7492 7492 7492 7332 7332 7492 7492 7492 7492 7492 7492 7492 7492 7492 7492 7492 7492 7332 7332 7332 7332 7332 0 0 0 0 0 0 0 0 0 0 0 0 0 0 0 0 0 0 0 0 0 0 0 0 0 0 7835 7660 7492 7332 7332 7332 7332 7332 7178 7178 7178 7178 7178 7178 7178 7178 7178 7178 7178 7178 7178 7178 7178 7178 7178 7178 7332 7178 7178 7178 7178 7178 7178 7178 7178 7178 0 0 0 7332 7178 7178 7178 7178 7178 7332 0 0 7178 7030 7030 7030 7030 7030 7178 7030 7030 7030 7030 7030 7030 7030 7030 7178 7178 7030 7030 7030 7030 7030 7178 7178 7178 7178 7030 7030 6889 6889 7030 7030 7178 7178 7332 7332 7332 7178 7178 7332 7178 7178 7178 7332 7332 7660 7660 7660 7660 7660 7492 7332 7178 7178 7178 7178 7178 7178 7332 7332 7492 7492 7332 7332 7492 7492 7492 7492 7492 7492 7492 7332 7332 7332 7332 7332 7332 7332 7178 7178 7332 7332 7492 7492 7492 7492 7660 7492 7492 7492 7492 7332 7332 7178 7178 7178 7030 7030 7030 7030 7178 7332 0 7492 0 0 0 3238 3238 3238 3238 3238 3238 3238 3238 3238 3238 3238 3238 3238 3238 3238 3238 3208 3208 3208 3238 3238 3238 3238 3238 3238 3238 3238 3238 3238 3238 3238 3238 3238 3238 3238 3269 3269 3238 3238 3238 3208 3208 3208 3208 3208 3208 3208 3208 3208 3208 3208 3208 3208 3178 3178 3178 3178 3149 3149 3149 3149 3120 3120 3120 3120 3149 3149 3149 3120 3120 3120 3120 3120 3120 3120 3120 3120 3120 3120 3120 3120 3120 3120 3120 3149 3149 3178 3208 3208 3238 3238 3238 3208 3208 3208 3208 3208 3208 3208 3238 3238 3208 3208 3208 3208 3208 3208 3208 3208 3208 3238 3208 3208 3208 3208 3178 3178 3208 3208 3208 3208 4190 4241 4295 4349 4349 4295 4295 4349 4349 4405 4405 4405 4405 6753 6753 6753 6889 6889 6889 6889 6889 6753 6753 6753 6753 6753 6753 6753 6753 6753 6753 6753 6753 6753 6753 6753 6753 6889 7030 7030 7030 7030 7030 7030 7030 6889 6889 6622 6622 6753 6889 6889 6889 6889 6889 7030 6889 6889 6889 6889 6889 6889 6889 6889 6889 6889 6889 6753 6753 6889 6889 6889 6889 6889 6889 6889 6753 6753 6753 6753 6753 6753 6753 6753 6753 6753 6889 6889 6889 6889 6753 6753 6753 6753 6753 6753 6753 6753 6753 6753 6753 6753 6753 6753 6753 6753 6753 6622 6622 6622 6622 6622 6622 6622 6622 6497 6497 6622 6622 6753 4463 4463 4463 4463 4463 4463 4463 4463 4463 4463 4463 4463 4463 4463 4463 4405 4405 4349 4349 4295 4295 4295 4295 4295 4295 4295 4139 4139 4190 4190 4190 4190 4190 4190 4190 4190 4241 4190 4190 4139 4139 4139 4089 4089 4089 4089 4089 4089 4089 4089 4089 4041 4041 4089 4089 4089 4089 4089 4089 4089 4089 4089 4089 4089 4089 4089 4089 4089 4089 4089 4089 4089 4089 4089 4089 4089 4041 4041 4041 4190 4190 4241 4241 4295 4295 4295 4405 6497 6497 6497 6497 6497 6497 6497 6497 6497 6497 6497 6622 6622 6622 6622 6753 6753 6753 6753 6889 6889 6889 6889 7030 7030 7030 7030 7030 7178 7332 7332 7332 0 0 0 0 0 0 0 0 0 0 0 0 0 0
0 0 0 0 0 0 0 0 0 0 0 0 0 0 0 0 0 0 0 0 0 0 0 0 0 0 0 0 0 6753 6753 6753 6753 6753 6753 6753 6753 6753 6889 6889 7030 7030 7178 7178 7178 7178 7332 7332 7178 7178 7332 7332 7332 7332 7332 7492 7492 7492 7492 7492 7492 7492 7492 7492 7492 7492 7492 7492 7492 7492 7492 7492 7492 7492 7492 7492 7492 7492 7492 7492 7332 7332 7332 7332 0 0 0 0 0 0 0 0 0 0 0 0 0 0 0 0 0 0 0 0 0 0 0 0 0 0 0 0 7660 7178 7030 7030 7030 7332 7332 7178 7178 7178 7178 7178 7178 7178 7332 7178 7178 7178 7178 7178 7178 7178 7178 7178 7178 7178 7178 7178 7178 7178 7178 7178 7178 7178 7178 7492 7492 7492 7332 7178 7178 7178 7178 7178 7332 7332 7178 7178 7030 7030 7030 7030 7030 7178 7178 7178 7030 7030 7030 7030 7030 7178 7178 7178 7178 7030 7030 7030 7178 7178 7178 7178 7178 7030 7030 7030 7030 7030 7178 7178 7178 7332 7332 7332 7332 7332 7332 7178 7178 7178 7332 7492 7332 7332 7492 7492 7660 7492 7030 7030 7030 7178 7178 7178 7178 7332 7332 7492 7492 7332 7332 7332 7492 7492 7492 7492 7492 7492 7332 7332 7332 7332 7332 7332 7332 7178 7178 7332 7332 7492 7492 7492 7492 7492 7492 7332 7332 7332 7332 7332 7178 7178 7178 6889 6889 7030 7030 7178 7332 7492 0 0 0 0 0 3238 3238 3238 3238 3238 3238 3238 3238 3238 3238 3238 3238 3238 3238 3238 3238 3208 3208 3238 3238 3238 3238 3238 3238 3238 3238 3238 3238 3238 3238 3238 3238 3238 3238 3238 3238 3238 3238 3238 3208 3208 3208 3208 3208 3208 3208 3208 3208 3208 3208 3208 3208 3178 3178 3178 3178 3178 3149 3149 3149 3120 3120 3120 3120 3149 3149 3149 3120 3120 3120 3120 3120 3120 3120 3120 3120 3120 3120 3120 3120 3120 3120 3120 3149 3178 3178 3208 3238 3269 3269 3238 3238 3208 3208 3208 3208 3208 3208 3208 3238 3208 3208 3208 3208 3208 3208 3208 3208 3208 3208 3208 3208 3208 3208 3178 3178 3208 3208 3208 3208 3208 4349 4349 4349 4349 4349 4349 4349 4349 4405 4405 4405 4405 6753 6753 6753 6889 6889 6889 6889 6889 6753 6753 6753 6753 6753 6753 6753 6622 6622 6622 6753 6753 6753 6753 6753 6753 6889 7030 7030 7030 7030 7030 7030 6889 6753 6753 6497 6497 6622 6753 7030 6889 6889 6889 7030 6889 6889 6889 6889 6889 6889 6889 6889 6889 6889 6889 6889 6889 6889 6753 6753 6753 6753 6753 6753 6753 6622 6622 6622 6753 6753 6753 6753 6753 6753 6889 6889 6889 6753 6753 6753 6753 6753 6753 6753 6753 6753 6753 6753 6753 6753 6753 6753 6753 6753 6753 6622 6622 6622 6622 6622 6622 6622 6622 6622 6622 6622 6622 6753 4463 4463 4463 4463 4463 4463 4463 4463 4463 4463 4463 4463 4463 4463 4463 4405 4349 4349 4295 4295 4295 4295 4295 4295 4295 4295 4295 4241 4190 4190 4190 4190 4139 4139 4139 4190 4190 4190 4190 4139 4139 4139 4089 4089 4089 4089 4089 4089 4089 4089 4089 4041 4041 4089 4089 4089 4089 4089 4089 4089 4089 4089 4089 4089 4089 4089 4089 4041 4041 4041 4041 4089 4089 4089 4089 4089 4089 4089 4089 4190 4190 4190 4241 4295 4295 4295 4405 6497 6497 6497 6497 6497 6497 6497 6497 6497 6497 6497 6622 6622 6622 6622 6753 6753 6753 6753 6889 6889 6889 7030 7030 7030 7030 7030 7030 7030 7030 7030 7332 0 0 0 0 0 0 0 0 0 0 0 0 0 0
0 0 0 0 0 0 0 0 0 0 0 0 0 0 0 0 0 0 0 0 0 0 0 0 0 0 0 0 0 6753 6753 6753 6753 6753 6753 6753 6753 6889 6889 6889 7030 7178 7178 7332 7178 7178 7332 7332 7332 7332 7332 7332 7492 7492 7492 7492 7492 7492 7492 7492 7492 7660 7492 7492 7492 7492 7492 7492 7492 7492 7492 7492 7492 7660 7660 7660 7492 7492 7332 7332 7332 7332 7332 7332 0 0 0 0 0 0 0 0 0 0 0 0 0 0 0 0 0 0 0 0 0 0 0 0 0 0 0 0 7030 7030 7030 7030 7030 7178 7178 7178 7178 7178 7178 7178 7178 7178 7332 7178 7178 7178 7178 7178 7178 7178 7178 7178 7178 7178 7178 7178 7178 7178 7178 7178 7178 7178 7332 7332 7332 7332 7332 7178 7178 7178 7178 7178 7178 7030 7030 7178 7178 7178 7178 7178 7178 7178 7178 7178 7178 7178 7030 7030 7178 7178 7178 7178 7178 7030 7030 7178 7178 7178 7178 7178 7178 7178 7178 7178 7030 7030 7178 7178 7178 7178 7178 7178 7178 7332 7332 7178 7178 7178 7332 7492 7332 7332 7492 7492 7660 7178 7030 7030 7030 7178 7178 7178 7178 7332 7332 7492 7332 7332 7332 7332 7492 7492 7492 7492 7492 7492 7492 7492 7332 7332 7332 7332 7332 7332 7332 7332 7492 7492 7492 7492 7492 7492 7492 7332 7332 7332 7332 7332 7332 7178 7178 6889 6889 7030 7030 7178 7332 7492 7492 0 0 0 3269 3238 3238 3238 3238 3238 3238 3238 3238 3238 3238 3238 3238 3238 3238 3238 3238 3238 3238 3238 3238 3238 3238 3238 3238 3238 3238 3238 3238 3238 3238 3238 3238 3238 3238 3238 3238 3238 3238 3238 3208 3208 3208 3208 3208 3208 3208 3208 3208 3208 3208 3208 3208 3208 3178 3178 3178 3178 3178 3149 3149 3149 3149 3149 3149 3149 3149 3149 3120 3120 3120 3120 3120 3120 3120 3120 3120 3120 3120 3120 3120 3120 3120 3149 3149 3178 3178 3208 3238 3269 3269 3238 3238 3208 3208 3208 3208 3208 3208 3208 3238 3208 3208 3208 3208 3208 3208 3208 3208 3208 3208 3208 3208 3208 3208 3178 3178 3208 3208 3208 3208 3208 3208 4349 4349 4349 4349 4349 4349 4405 4405 4405 4405 4405 4405 6753 6753 6753 6753 6753 6889 6889 6753 6753 6622 6622 6622 6622 6622 6622 6622 6622 6622 6622 6622 6622 6753 6753 6889 7030 7030 7030 7030 7030 7030 6889 6622 6375 6375 6375 6497 6622 6622 6753 6889 6889 6889 6889 6889 6889 6753 6753 6889 6889 6889 6889 6753 6753 6753 6753 6753 6753 6753 6753 6753 6753 6753 6622 6622 6622 6622 6622 6622 6622 6622 6753 6753 6889 6889 6889 6753 6753 6753 6753 6753 6753 6753 6753 0 6753 6753 6753 6753 6622 6622 6622 6753 6753 6622 6622 6622 6622 6622 6622 6622 6622 6622 6622 6622 6622 6622 4463 4463 4463 4463 4463 4463 4463 4463 4463 4463 4463 4463 4463 4463 4463 4405 4349 4349 4295 4295 4295 4295 4295 4295 4295 4295 4295 4241 4190 4190 4190 4190 4089 4089 4089 4089 4139 4139 4139 4139 4139 4139 4089 4089 4089 4089 4089 4089 4089 4089 4089 4041 4041 4041 4089 4089 4089 4089 4089 4139 4089 4089 4089 4089 4089 4089 4089 4041 4041 4041 4041 4089 4089 4089 4139 4139 4139 4139 4139 4190 4190 4190 4241 4295 4295 4295 4405 6497 6497 6497 6497 6497 6497 6497 6497 6497 6497 6497 6497 6497 6497 6622 6622 6753 6753 6753 6889 6889 6889 6889 6889 6889 7030 7030 7030 7030 7030 7030 7030 7030 0 0 0 0 0 0 0 0 0 0 0 0 0
0 0 0 0 0 0 0 0 0 0 0 0 0 0 0 0 0 0 0 0 0 0 0 0 0 0 0 0 0 6622 6622 6622 6753 6753 6753 6753 6753 6889 7030 7030 7178 7178 7178 7178 7178 7178 7178 7332 7332 7332 7492 7492 7492 7492 7492 7492 7492 7492 7492 7492 7492 7660 7660 7660 7660 7660 7660 7492 7492 7492 7492 7492 7492 7492 7492 7492 7332 7332 7332 7332 7332 7332 7332 7332 0 0 0 0 0 0 0 0 0 0 0 0 0 0 0 0 0 0 0 0 0 0 0 0 0 0 0 0 7030 7030 7030 7030 7030 7178 7178 7178 7178 7178 7178 7178 7178 7178 7332 7178 7178 7178 7178 7178 7178 7178 7178 7178 7178 7178 7178 7178 7178 7178 7178 7178 7178 7178 7332 7332 7332 7332 7332 7178 7178 7178 7178 7178 7030 7030 7030 7030 7030 7030 7030 7030 7178 7178 7178 7178 7178 7178 7178 7178 7178 7178 7178 7178 7178 7178 7178 7178 7178 7178 7178 7178 7178 7178 7178 7178 7030 7030 7178 7178 7178 7178 7178 7178 7178 7332 7332 7178 7178 7332 7332 7332 7332 7332 7332 7492 7492 7178 7178 7178 7178 7178 7332 7332 7332 7332 7332 7492 7332 7332 7332 7332 7492 7492 7492 7492 7492 7492 7492 7492 7492 7332 7332 7492 7332 7332 7332 7492 7492 7492 7492 7492 7492 7492 7492 7332 7332 7332 7332 7332 7332 7178 7178 7030 7030 7030 7030 7178 7332 7660 7660 7835 0 3269 3269 3238 3238 3238 3238 3238 3238 3238 3238 3238 3238 3238 3238 3238 3238 3238 3238 3238 3238 3238 3238 3238 3238 3238 3238 3238 3238 3238 3238 3238 3238 3238 3238 3238 3238 3208 3208 3208 3208 3208 3208 3208 3208 3238 3238 3238 3208 3208 3208 3208 3208 3208 3208 3208 3208 3208 3178 3178 3178 3149 3149 3149 3149 3149 3149 3149 3149 3120 3120 3120 3120 3120 3120 3120 3120 3120 3120 3120 3120 3120 3120 3120 3120 3149 3149 3178 3178 3208 3238 3269 3300 3269 3238 3208 3208 3208 3208 3208 3208 3238 3238 3238 3208 3208 3208 3208 3208 3208 3208 3208 3208 3208 3208 3208 3208 3208 3208 3208 3208 3238 3238 3238 0 4349 4349 4349 4349 4349 4349 4405 4405 4405 4405 4405 4405 6753 6753 6753 6753 6753 6753 6753 6753 6622 6622 6622 6622 6497 6497 6497 6497 6497 6497 6497 6497 6497 6622 6622 6753 7030 7030 7030 7030 7030 6889 6889 6622 6375 6375 6375 6497 6622 6622 6753 6889 6753 6753 6753 6753 6753 6753 6753 6753 6753 6889 6753 6753 6753 6753 6753 6753 6622 6622 6622 6753 6753 6622 6497 6497 6497 6622 6622 6622 6622 6622 6753 6753 6889 6889 6753 6753 6753 6753 6753 6622 6622 0 0 0 0 0 6753 6753 6622 6622 6622 6622 6622 6622 6622 6622 6622 6622 6622 6622 6622 6622 6622 6622 6622 6622 4463 4463 4463 4522 4522 4463 4463 4463 4463 4463 4463 4463 4463 4463 4463 4405 4349 4349 4295 4295 4295 4295 4295 4295 4295 4295 4295 4241 4190 4139 4139 4041 4041 4041 4089 4089 4089 4139 4139 4139 4139 4139 4139 4089 4089 4089 4089 4089 4089 4089 4089 4089 4041 4041 4089 4089 4089 4089 4139 4139 4139 4089 4089 4089 4089 4089 4041 4041 4041 4041 4041 4089 4089 4089 4139 4139 4139 4190 4190 4190 4241 4241 4295 4295 4295 4295 6497 6497 6497 6497 6497 6497 6497 6497 6497 6497 6497 6497 6497 6497 6497 6497 6622 6753 6753 6753 6889 6889 6889 6889 6889 6889 6889 7030 7030 7030 7030 7030 7030 7030 0 0 0 0 0 0 0 0 0 0 0 0 0
0 0 0 0 0 0 0 0 0 0 0 0 0 0 0 0 0 0 0 0 0 0 0 0 0 0 0 0 0 6622 6622 6622 6622 6753 6753 6753 6753 6889 7030 7030 7178 7178 7178 7178 7178 7178 7178 7332 7332 7332 7492 7492 7492 7492 7492 7492 7492 7492 7492 7492 7492 7660 7660 7660 7660 7660 7660 7492 7492 7492 7492 7492 7492 7492 7492 7492 7332 7332 7332 7332 7332 7332 7332 7332 0 0 0 0 0 0 0 0 0 0 0 0 0 0 0 0 0 0 0 0 0 0 4708 4708 0 0 0 0 7030 7030 7030 7030 7030 7030 7178 7178 7178 7178 7178 7178 7178 7178 7332 7332 7178 7178 7178 7178 7178 7178 7178 7178 7178 7178 7178 7178 7178 7178 7178 7178 7178 7178 7178 7332 7332 7178 7178 7178 7178 7178 7178 7178 7030 7030 7030 7030 7030 7030 7030 7030 7178 7178 7178 7178 7178 7178 7178 7178 7178 7178 7178 7178 7178 7178 7178 7178 7178 7178 7178 7178 7178 7178 7178 7178 7178 7178 7178 7178 7178 7178 7178 7178 7178 7332 7332 7178 7178 7332 7332 7332 7332 7332 7332 7492 7492 7492 7332 7178 7178 7332 7332 7332 7332 7332 7332 7332 7332 7332 7332 7332 7492 7492 7492 7492 7492 7492 7492 7492 7492 7332 7332 7492 7492 7332 7332 7492 7492 7492 7492 7492 7492 7492 7492 7492 7492 7492 7332 7332 7332 7178 7178 7030 7030 7030 7178 7178 7332 7835 7835 7835 3238 3269 3269 3238 3238 3238 3238 3238 3238 3238 3238 3238 3238 3238 3238 3238 3238 3238 3238 3238 3238 3238 3238 3238 3238 3238 3238 3238 3238 3238 3238 3238 3238 3238 3238 3208 3208 3208 3208 3208 3208 3208 3208 3208 3208 3238 3238 3238 3208 3208 3208 3208 3208 3208 3208 3208 3208 3208 3208 3208 3208 3178 3178 3149 3149 3149 3149 3149 3149 3120 3120 3120 3120 3120 3120 3120 3120 3120 3092 3092 3120 3120 3120 3120 3120 3149 3149 3178 3178 3208 3238 3238 3238 3269 3269 3238 3238 3238 3208 3208 3208 3238 3238 3238 3238 3238 3238 3238 3238 3238 3238 3238 3208 3208 3208 3208 3208 3208 3208 3208 3208 3238 3238 3238 0 4349 4349 4349 4349 4349 4349 4405 4405 4405 4405 4405 4405 4405 6622 6497 6497 6622 6753 6753 6622 6622 6622 6497 6497 6375 6375 6375 6375 6375 6375 6375 6375 6375 6497 6497 6753 6889 6889 7030 7030 7030 6889 6753 6622 6497 6497 6497 6622 6622 6622 6622 6753 6753 6753 6753 6753 6753 6622 6622 6753 6753 6753 6753 6753 6753 6622 6622 6622 6622 6622 6622 6622 6622 6497 6497 6375 6375 6497 6622 6622 6622 6753 6753 6753 7030 7030 6753 6753 6753 6622 6622 6622 6622 0 0 0 0 0 6753 6622 6497 6497 6497 6622 6622 6497 6497 6497 6622 6622 6622 6622 6622 6622 6497 6497 6497 4463 4463 4463 4522 4522 4522 4522 4522 4463 4463 4522 4463 4463 4463 4463 4463 4405 4349 4349 4349 4295 4295 4295 4295 4295 4295 4295 4295 4295 4190 4139 4139 4041 4041 4041 4089 4089 4089 4139 4139 4139 4139 4139 4139 4139 4139 4089 4089 4089 4089 4089 4089 4089 4089 4089 4089 4089 4089 4089 4139 4139 4139 4089 4089 4089 4089 4089 4041 4041 4041 4041 4041 4089 4089 4139 4190 4139 4139 4190 4190 4190 4241 4241 4241 4241 4241 4241 4241 6497 6497 6497 6497 6497 6497 6497 6497 6497 6497 6497 6497 6497 6497 6497 6622 6753 6753 6753 6753 6753 6889 6889 6889 6889 6889 7030 7030 7030 7030 7030 7030 7030 0 0 0 0 0 0 0 0 0 0 0 0 0
0 0 0 0 0 0 0 0 0 0 0 0 0 0 0 0 0 0 0 0 0 0 0 0 0 0 0 0 0 6497 6497 6497 6622 6622 6622 6753 6753 6753 6889 7030 7178 7178 7178 7178 7178 7178 7178 7332 7332 7492 7492 7492 7492 7492 7492 7492 7492 7492 7492 7492 7492 7492 7660 7660 7660 7660 7660 7492 7492 7492 7492 7492 7492 7660 7660 7492 7332 7332 7332 7332 7332 7332 7332 7332 0 0 0 0 0 0 0 0 0 0 0 0 0 0 0 0 0 0 0 0 0 0 4708 4708 4708 0 0 0 6889 6889 6889 6889 7030 7030 7178 7178 7178 7178 7178 7178 7178 7178 7332 7332 7332 7332 7332 7178 7178 7178 7178 7178 7178 7178 7178 7178 7178 7178 7178 7178 7178 7178 7178 7332 7332 7178 7178 7178 7178 7178 7178 7178 7178 7178 7178 7030 7030 7178 7178 7178 7178 7178 7178 7178 7178 7178 7178 7178 7178 7178 7178 7178 7178 7178 7178 7178 7178 7178 7178 7178 7178 7178 7178 7178 7178 7178 7178 7178 7178 7332 7178 7178 7178 7332 7332 7332 7332 7332 7332 7492 7492 7492 7492 7492 7492 7492 7332 7178 7178 7332 7332 7332 7332 7332 7492 7332 7332 7332 7332 7332 7492 7492 7492 7492 7492 7492 7492 7492 7492 7492 7492 7492 7492 7492 7492 7492 7492 7492 7492 7492 7492 7492 7492 7492 7492 7492 7492 7492 7492 7332 7332 7332 7178 7178 7178 7178 7492 7660 7660 7660 0 3238 3238 3238 3238 3238 3238 3238 3238 3238 3238 3238 3238 3238 3238 3238 3238 3238 3238 3238 3238 3238 3238 3238 3238 3238 3238 3238 3238 3238 3238 3238 3238 3238 3208 3208 3208 3208 3208 3178 3178 3208 3208 3208 3208 3238 3238 3238 3208 3208 3238 3238 3238 3208 3208 3208 3208 3208 3208 3208 3208 3178 3178 3149 3149 3149 3149 3149 3149 3149 3149 3149 3149 3149 3120 3120 3120 3120 3092 3092 3120 3120 3120 3120 3120 3149 3149 3178 3178 3208 0 3208 0 3238 0 3238 3238 3238 3238 3238 3238 3238 3238 3238 3238 3238 3238 3238 3238 3238 3238 3238 3238 3208 3208 3208 3208 3208 3208 3208 3208 3238 3238 3238 4405 4349 4349 4349 4349 4349 4349 4405 4405 4405 4405 4405 4405 4405 6497 6497 6497 6497 6622 6622 6497 6497 6497 6375 6375 6375 6259 6259 6375 6375 6375 6375 6375 6375 6375 6497 6622 6753 6889 7030 7030 6889 6889 6753 6622 6497 6497 6622 6622 6622 6622 6622 6753 6753 6622 6622 6622 6622 6622 6622 6753 6753 6753 6753 6622 6622 6622 6622 6622 6622 6622 6622 6622 6497 6375 6375 6375 6375 6375 6497 6622 6622 6753 6753 6753 6889 6889 6753 6622 6622 6622 6622 6622 6622 0 0 0 0 0 0 6622 6497 6375 6375 6375 6497 6375 6375 6497 6497 6622 6622 6622 6622 6622 6497 6497 6497 4463 4463 4522 4522 4582 4522 4522 4522 4463 4463 4522 4463 4463 4463 4463 4463 4463 4349 4349 4349 4295 4295 4295 4295 4295 4295 4295 4295 4295 4241 4190 4190 4139 4089 4089 4089 4089 4139 4139 4139 4139 4139 4139 4139 4139 4139 4089 4089 4089 4089 4089 4089 4089 4089 4089 4089 4089 4089 4089 4139 4139 4139 4089 4089 4089 4089 4089 4089 4041 4041 4041 4041 4089 4089 4139 4190 4190 4190 4190 4190 4190 4190 4241 4241 4241 4241 4241 4241 6497 6497 6497 6497 6497 6497 6497 6497 6497 6497 6497 6497 6497 6497 6622 6622 6753 6753 6753 6753 6753 6889 6889 6889 6889 6889 7030 7030 7030 7030 7030 7030 7030 0 0 0 0 0 0 0 0 0 0 0 0 0
0 0 0 0 0 0 0 0 0 0 0 0 0 0 0 0 0 0 0 0 0 0 0 0 0 0 0 0 0 6497 6375 6375 6375 6497 6622 6622 6622 6753 6889 6889 7030 7030 7178 7030 7030 7178 7178 7332 7332 7332 7492 7492 7492 7492 7492 7492 7492 7492 7492 7492 7492 7492 7660 7660 7835 7660 7660 7660 7492 7492 7492 7492 7660 7660 7660 7492 7332 7332 7332 7332 7332 7332 7332 7332 0 0 0 0 0 0 0 4582 4582 0 0 0 0 0 0 0 0 0 4645 4645 4645 4645 4645 4645 4645 4645 0 6889 6889 6753 6753 6889 6889 7030 7178 7178 7178 7178 7178 7178 7178 7178 7178 7332 7332 7332 7332 7332 7178 7178 7178 7178 7178 7178 7178 7178 7178 7178 7178 7178 7178 7178 7178 7332 7332 7332 7178 7178 7178 7178 7178 7178 7178 7030 7030 7178 7178 7178 7178 7178 7178 7178 7178 7178 7178 7178 7178 7178 7178 7178 7178 7178 7178 7178 7178 7178 7178 7178 7332 7332 7178 7178 7178 7030 7030 7178 7178 7332 7332 7178 7178 7178 7178 7178 7332 7332 7332 7332 7332 7492 7492 7492 7492 7492 7492 7492 7492 7332 7332 7492 7332 7332 7332 7332 7492 7492 7492 7492 7492 7492 7492 7492 7492 7492 7492 7492 7492 7660 7492 7492 7492 7492 7492 7492 7492 7492 7492 7492 7492 7492 7492 7492 7492 7492 7492 7492 7492 7492 7492 7492 7492 7492 7332 7332 7332 7332 7492 7660 7660 7660 7660 3238 3238 3238 3238 3238 3238 3238 3238 3238 3238 3238 3238 3238 3238 3238 3238 3238 3238 3238 3238 3238 3238 3238 3238 3238 3238 3238 3238 3238 3238 3208 3208 3208 3208 3208 3208 3208 3208 3178 3178 3208 3208 3208 3238 3238 3238 3238 3208 3208 3238 3238 3238 3208 3208 3208 3208 3208 3208 3208 3208 3178 3178 3178 3178 3178 3149 3149 3149 3149 3149 3149 3149 3149 3120 3120 3120 3120 3120 3120 3120 3120 3120 3120 3149 3149 3149 3178 3178 3208 3208 0 0 0 0 3300 3269 3238 3238 3238 3238 3238 3238 3269 3238 3238 3238 3238 3238 3208 3208 3238 3208 3208 3208 3208 3208 3208 3208 3208 3208 3208 3208 4405 4405 4349 4349 4349 4349 4349 4349 4405 4405 4405 4405 4349 4349 4349 6497 6497 6497 6497 6622 6622 6497 6497 6497 6375 6375 6259 6259 6259 6259 6259 6259 6259 6259 6375 6375 6497 6622 6753 6889 7030 7030 6889 6753 6753 6622 6622 6622 6622 6622 6622 6622 6622 6622 6622 6622 6622 6622 6622 6622 6622 6622 6622 6753 6753 6622 6622 6622 6622 6497 6497 6497 6497 6497 6375 6375 6375 6375 6375 6375 6497 6622 6622 6753 6753 6753 6889 6889 6753 6622 6622 6622 6622 6622 6622 0 0 0 0 0 0 0 6375 6375 6375 6375 6375 6375 6375 6375 6375 6375 6497 6497 6497 6497 6497 6497 6497 4463 4463 4522 4582 4582 4522 4522 4522 4463 4463 4522 4522 4463 4463 4463 4463 4349 4349 4349 4349 4295 4295 4295 4295 4295 4295 4295 4295 4295 4241 4241 4241 4139 4089 4089 4089 4139 4139 4139 4139 4190 4139 4139 4139 4139 4139 4089 4089 4089 4089 4089 4089 4089 4089 4089 4089 4089 4089 4089 4089 4089 4089 4089 4089 4089 4089 4089 4089 4041 4041 4041 4041 4089 4089 4139 4190 4139 4139 4190 4190 4190 4190 4241 4241 4241 4241 4241 4241 4295 6497 6497 6497 6497 6497 6497 6497 6497 6497 6497 6497 6497 6497 6497 6622 6622 6753 6753 6753 6753 6753 6889 6889 6889 6889 6889 6889 7030 7030 7030 7030 7030 0 0 0 0 0 0 0 0 0 0 0 0 0
0 0 0 0 0 0 0 0 0 0 0 0 0 0 0 0 0 0 0 0 0 0 0 0 0 0 0 0 0 0 6259 6259 6259 6375 6497 6622 6622 6753 6889 6889 7030 7030 7178 7030 7030 7030 7030 7178 7332 7332 7492 7492 7492 7492 7492 7492 7492 7492 7492 7492 7492 7492 7660 7660 7835 8019 8019 0 7660 7660 7660 7660 7835 7332 7332 7492 7332 7332 7332 7178 7030 7030 7178 0 0 0 0 0 0 0 4645 4582 4582 4582 4582 4582 4582 4582 4582 4582 4582 4582 4645 4645 4645 4645 4645 4645 4645 4645 4645 6753 6753 6753 6753 6753 6889 7030 7178 7178 7178 7178 7178 7178 7178 7178 7178 7178 7332 7332 7332 7332 7178 7178 7178 7178 7332 7178 7178 7178 7178 7178 7178 7178 7178 7332 7332 7332 7332 7332 7178 7178 7178 7178 7178 7178 7030 7030 7030 7030 7030 7030 7030 7030 7178 7178 7178 7030 7030 7178 7178 7178 7178 7178 7178 7178 7178 7178 7332 7332 7332 7332 7332 7332 7178 7178 7178 7030 7030 7178 7332 7332 7332 7178 7178 7178 7178 7178 7332 7332 7332 7332 7332 7492 7492 7492 7492 7492 7660 7660 7660 7492 7492 7492 7492 7492 7492 7492 7492 7492 7492 7492 7492 7492 7492 7492 7492 7492 7492 7492 7492 7660 7492 7492 7492 7660 7660 7492 7492 7492 7492 7492 7492 7492 7492 7492 7492 7492 7492 7492 7492 7492 7492 7492 7492 7492 7492 7492 7492 7492 7492 7660 7660 7660 7660 3269 3238 3238 3238 3238 3269 3238 3238 3238 3238 3238 3238 3238 3238 3238 3238 3238 3238 3238 3238 3238 3238 3238 3238 3238 3238 3238 3238 3238 3238 3208 3208 3208 3208 3208 3208 3208 3208 3178 3178 3208 3208 3208 3238 3238 3238 3238 3238 3238 3238 3238 3238 3208 3208 3208 3208 3208 3208 3208 3208 3178 3178 3178 3178 3178 3178 3178 3178 3178 3149 3149 3149 3149 3120 3120 3120 3120 3120 3120 3120 3120 3120 3120 3120 3149 3149 3149 3149 3208 3208 0 0 0 3300 3300 3269 3269 3238 3238 3238 3269 3269 3269 3238 3238 3238 3238 3238 3208 3208 3238 3208 3208 3208 3208 3208 3208 3208 3208 3208 3208 3208 4405 4405 4349 4349 4349 4349 4349 4349 4349 4349 4349 4349 4349 4349 4349 6375 6375 6497 6497 6622 6497 6497 6497 6497 6259 6259 6259 6259 6259 6259 6259 6259 6259 6259 6375 6375 6497 6622 6753 6889 7030 6889 6889 6753 6622 6622 6622 6622 6622 6622 6622 6622 6622 6622 6497 6497 6497 6497 6497 6497 6497 6622 6622 6622 6622 6622 6622 6622 6497 6497 6497 6497 6375 6375 6375 6259 6259 6259 6259 6375 6375 6622 6622 6753 6753 6753 6889 6889 6753 6753 6753 6753 6753 6753 0 0 0 0 0 0 0 0 0 6375 6375 6375 6375 6375 6375 6375 6375 6375 6497 6497 6497 6497 6497 6497 6622 4463 4463 4582 4522 4522 4522 4522 4522 4463 4463 4522 4522 4463 4463 4463 4463 4349 4349 4349 4349 4349 4295 4295 4295 4295 4295 4295 4295 4295 4295 4241 4241 4139 4089 4089 4089 4089 4089 4139 4139 4139 4139 4139 4139 4139 4139 4089 4089 4089 4089 4089 4089 4089 4089 4089 4089 4089 4089 4089 4089 4089 4089 4089 4089 4089 4089 4089 4089 4089 4041 4041 4041 4089 4089 4139 4139 4089 4089 4139 4190 4190 4190 4241 4241 4241 4241 4241 4241 4241 4241 6497 6497 6497 6497 6497 6497 6497 6497 6497 6497 6497 6497 6497 6497 6622 6753 6753 6753 6753 6753 6889 6889 6889 6889 6889 6889 7030 7030 7030 7030 7030 0 0 0 0 0 0 0 0 0 0 0 0 0
0 0 0 0 0 0 0 0 0 0 0 0 0 0 0 0 0 0 0 0 0 0 0 0 0 0 0 0 0 0 6259 6259 6259 6375 6497 6497 6497 6753 6889 6889 7030 7030 7030 7030 7030 7030 7030 7178 7332 7332 7492 7492 7492 7492 7492 7492 7492 7492 7492 7492 7660 7660 7660 7835 8019 8019 0 0 0 0 0 0 0 7332 7178 7178 7178 7178 7178 7178 7030 7030 7178 0 0 0 0 0 0 4582 4582 4582 4582 4582 4582 4582 4582 4582 4582 4582 4582 4582 4645 4645 4645 4645 4645 4645 4645 4645 4645 6753 6753 6753 6753 6753 6889 7030 7178 7178 7178 7178 7178 7178 7178 7178 7178 7178 7178 7332 7332 7332 7332 7178 7178 7178 7332 7178 7178 7178 7178 7178 7178 7178 7178 7332 7332 7492 7332 7332 7332 7178 7178 7178 7178 7030 7030 7030 7030 7030 7030 7030 7030 7030 7178 7178 7178 7030 7030 7178 7178 7178 7178 7178 7178 7178 7332 7332 7332 7332 7332 7332 7332 7332 7178 7178 7178 7332 7178 7178 7178 7332 7332 7332 7332 7332 7492 7492 7492 7492 7332 7332 7332 7492 7492 7492 7492 7492 7492 7492 0 7660 7660 7492 7492 7492 7492 7492 7492 7492 7492 7492 7492 7492 7492 7492 7492 7492 7492 7492 7492 7660 7660 7660 7660 7660 7660 7492 7492 7492 7492 7492 7492 7492 7492 7492 7492 7492 7492 7492 7492 7492 7492 7492 7492 7492 7492 7492 7492 7492 7492 7660 7660 7660 3238 3238 3238 3238 3269 3269 3269 3238 3238 3238 3238 3238 3238 3238 3238 3238 3238 3238 3238 3238 3238 3238 3238 3238 3238 3238 3238 3238 3238 3238 3238 3238 3238 3238 3238 3208 3208 3208 3208 3208 3208 3238 3238 3238 3238 3238 3238 3238 3238 3238 3238 3238 3238 3238 3238 3238 3208 3208 3208 3208 3208 3178 3178 3178 3178 3178 3178 3178 3178 3178 3149 3149 3149 3149 3120 3120 3120 3120 3120 3120 3120 3120 3120 3120 3120 3149 3149 3149 3149 3178 0 3238 3238 0 3300 3300 3300 3269 3269 3238 3238 3269 3269 3269 3238 3238 3238 3238 3238 3208 3208 3238 3208 3208 3208 3208 3208 3208 3208 3208 3208 3208 3208 4405 4405 4405 4349 4349 4349 4349 4349 4349 4349 4349 4349 4349 4349 4349 6375 6375 6375 6497 6497 6497 6497 6375 6375 6259 6259 6259 6259 6259 6259 6259 6259 6259 6259 6375 6375 6497 6622 6753 6889 6889 6753 6622 6622 6622 6622 6622 6622 6622 6622 6622 6622 6622 6497 6497 6497 6497 6497 6497 6497 6497 6497 6622 6622 6622 6622 6622 6622 6497 6497 6497 6375 6375 6375 6259 6259 6259 6259 6259 6375 6375 6622 6622 6753 6753 6753 6889 7030 6753 6753 6753 6753 6753 6753 0 0 0 0 0 0 0 0 6375 6375 6375 6375 6375 6375 6375 6375 6375 6375 6497 6497 6497 6497 6497 6753 4582 4522 4522 4582 4522 4522 4582 4582 4582 4522 4463 4463 4522 4522 4463 4463 4463 4405 4349 4349 4349 4349 4295 4295 4295 4295 4349 4349 4295 4295 4295 4241 4241 4139 4089 4089 4089 4089 4089 4089 4089 4139 4139 4139 4139 4139 4139 4139 4089 4089 4089 4089 4089 4041 4041 4089 4089 4089 4089 4089 4089 4089 4089 4089 4089 4089 4089 4089 4089 4089 4089 4089 4089 4089 4089 4089 4139 4089 4089 4089 4139 4190 4190 4241 4241 4241 4241 4241 4241 4241 4241 6497 6497 6497 6497 6622 6497 6497 6497 6497 6497 6497 6497 6497 6497 6622 6753 6753 6753 6753 6753 6889 6889 6889 6889 6889 6889 7030 7030 7030 7030 7030 0 0 0 0 0 0 0 0 0 0 0 0 0
0 0 0 0 0 0 0 0 0 0 0 0 0 0 0 0 0 0 0 0 0 0 0 0 0 0 0 0 0 0 6259 6259 6259 6375 6375 6497 6497 6753 6889 6889 7030 7030 7030 7030 7030 7030 7030 7332 7332 7332 7492 7492 7492 7492 7492 7492 7492 7332 7332 7492 7492 7492 7660 7660 7660 5210 0 0 0 0 0 0 0 0 7178 7178 7178 7178 7178 7178 0 0 0 0 0 0 0 4645 4645 4582 4582 4582 4582 4582 4582 4582 4582 4582 4645 4645 4582 4582 4582 4582 4582 4645 4645 4645 4645 4645 4645 4645 6753 6753 6753 6753 6889 7030 7030 7178 7178 7178 7178 7178 7178 7178 7178 7178 7178 7178 7178 7332 7332 7178 7178 7332 7332 7178 7178 7178 7178 7178 7178 7332 7332 7332 7492 7492 7332 7332 7178 7178 7030 7030 7030 7030 7030 7030 7030 7030 7030 7030 7030 7030 7178 7178 7178 7030 7030 7178 7178 7178 7178 7178 7178 7178 7332 7332 7332 7332 7332 7332 7332 7332 7332 7332 7332 7332 7178 7178 7178 7332 7332 7332 7332 7492 7660 7660 7332 7332 7492 7492 7492 7492 7492 7492 7492 7492 7492 0 0 7660 7660 7660 7492 7492 7492 7492 7492 7492 7492 7492 7492 7492 7492 7660 7492 7492 7492 7492 7492 7660 7660 7660 7660 7660 7660 7492 7492 7492 7492 7492 7492 7492 7492 7492 7492 7492 7492 7492 7492 7492 7492 7492 7492 7492 7332 7332 7332 7332 7492 7492 7492 7492 3238 3238 3238 3238 3269 3269 3269 3269 3238 3238 3238 3238 3238 3238 3238 3238 3238 3238 3238 3238 3238 3269 3238 3238 3238 3238 3238 3238 3238 3238 3238 3238 3238 3238 3238 3238 3238 3238 3238 3238 3238 3238 3238 3238 3238 3238 3238 3238 3238 3238 3238 3238 3238 3238 3238 3238 3208 3208 3208 3208 3208 3178 3178 3178 3178 3178 3178 3178 3178 3178 3149 3149 3149 3149 3120 3120 3120 3120 3120 3120 3120 3120 3120 3120 3120 3120 3149 3149 3149 3178 3208 3238 3238 0 0 3269 3269 3269 3269 3269 3269 3269 3269 3238 3238 3238 3238 3238 3238 3238 3238 3238 3208 3178 3178 3149 3149 3149 3149 3149 3178 3149 3149 3178 4405 4405 4349 4349 4349 4349 4349 4349 4349 4349 4349 4349 6375 6375 6375 6375 6375 6375 6497 6497 6497 6259 6259 6259 6259 6259 6259 6259 6259 6259 6259 6259 6375 6375 6375 6497 6753 6753 6753 6753 6622 6622 6622 6622 6622 6622 6622 6622 6622 6622 6622 6622 6497 6497 6497 6497 6497 6497 6497 6497 6497 6497 6497 6497 6497 6497 6497 6497 6375 6375 6375 6375 6259 6259 6259 6259 6259 6259 6259 6375 6497 6622 6622 6753 6889 7030 7030 6889 6753 6753 6622 6622 6753 0 0 0 0 0 0 0 6622 6622 6375 6375 6375 6375 6375 6375 6375 6375 6375 6375 6375 6375 6497 6497 6497 4582 4522 4522 4522 4522 4522 4582 4582 4522 4522 4463 4463 4522 4522 4463 4463 4463 4405 4405 4349 4349 4349 4349 4295 4295 4295 4295 4349 4295 4295 4295 4241 4241 4190 4139 4089 4089 4089 4089 4089 4089 4139 4139 4139 4139 4139 4139 4089 4089 4089 4089 4041 4041 4041 4041 4089 4089 4089 4041 4041 4089 4089 4089 4089 4089 4089 4089 4089 4089 4089 4089 4089 4089 4089 4089 4089 4139 4089 4089 4089 4139 4139 4190 4190 4190 4241 4295 4295 4241 4241 6497 6497 6497 6497 6497 6622 6622 6497 6497 6497 6497 6497 6497 6497 6497 6622 6753 6753 6753 6753 6753 6753 6889 6889 6889 6889 6889 6889 7030 7030 7030 7030 0 0 0 0 0 0 0 0 0 0 0 0 0
0 0 0 0 0 0 0 0 0 0 0 0 0 0 0 0 0 0 0 0 0 0 0 0 0 0 0 0 0 0 6259 6259 6259 6375 6375 6497 6622 6753 6889 6889 7030 7030 7030 7030 7030 7030 7178 7332 7332 7492 7492 7492 7492 7492 7492 7492 7492 7332 7332 7492 7492 7492 7492 7492 0 0 5210 0 0 0 0 0 0 0 0 0 0 0 0 0 0 0 0 0 0 0 0 4645 4582 4582 4582 4582 4582 4645 4645 4582 4582 4582 4645 4645 4582 4582 4582 4582 4582 4645 4645 4645 4645 4645 4645 4708 4708 6622 6622 6753 7030 7030 7030 7178 7178 7178 7178 7178 7178 7178 7178 7178 7178 7178 7178 7178 7178 7178 7178 7178 7178 7178 7178 7178 7178 7178 7332 7332 7178 7178 7492 7492 7332 7332 7178 7178 7030 7030 7030 7030 7030 7178 7178 7030 7030 7030 7030 7030 7030 7030 7030 7030 7030 7178 7178 7178 7178 7178 7178 7178 7332 7332 7332 7492 7492 7492 7492 7492 7332 7332 7332 7178 7178 7178 7178 7332 7332 7332 7332 7660 7660 7660 7332 7332 7492 7492 7492 7492 7660 7660 7660 5460 5548 5548 5640 7660 7660 7660 7492 7492 7492 7492 7492 7492 7492 7492 7492 7492 7492 7492 7492 7492 7492 7492 7492 7492 7492 7492 7660 7660 7660 7492 7492 7492 7492 7492 7492 7332 7332 7332 7492 7492 7492 7492 7492 7492 7492 7492 7332 7332 7178 7178 7332 7332 7332 7492 7492 7492 3238 3238 3238 3238 3269 3269 3269 3269 3238 3238 3238 3238 3238 3238 3238 3238 3238 3238 3238 3238 3238 3269 3238 3238 3238 3238 3238 3238 3238 3238 3238 3238 3238 3238 3238 3238 3238 3238 3238 3238 3238 3238 3238 3238 3238 3238 3238 3238 3238 3238 3238 3238 3238 3238 3238 3208 3208 3208 3208 3208 3208 3178 3178 3178 3178 3208 3178 3178 3178 3178 3178 3178 3149 3149 3149 3149 3149 3120 3120 3120 3120 3120 3120 3120 3120 3120 3149 3149 3149 3178 3178 3238 3238 3208 3269 3269 3238 3238 3238 3238 3238 3269 3269 3238 3238 3238 3238 3208 3208 3208 3208 3238 3178 3178 3178 3149 3149 3149 3149 3149 3149 3149 3149 3149 3149 4405 4349 4349 4349 4349 4349 4349 4349 4349 4349 6375 6375 6375 6375 6375 6375 6375 6375 6375 6375 6259 6259 6259 6259 6259 6259 6259 6259 6259 6259 6259 6375 6375 6375 6497 6753 6753 6753 6753 6622 6622 6622 6622 6622 6622 6622 6622 6622 6622 6622 6622 6622 6622 6622 6497 6497 6497 6497 6497 6497 6497 6497 6497 6497 6497 6497 6497 6375 6375 6375 6375 6259 6259 6259 6259 6259 6259 6259 6375 6497 6622 6622 6753 6889 7030 7030 6889 6753 6753 6622 6622 6753 6622 6622 6622 6753 6753 6753 6753 6622 6622 6622 6375 6375 6375 6497 6497 6497 6497 6497 6375 6375 6375 6375 6497 6497 4522 4522 4522 4522 4522 4522 4582 4522 4522 4522 4522 4522 4522 4522 4463 4463 4463 4405 4405 4405 4405 4405 4349 4349 4295 4295 4295 4295 4295 4295 4295 4295 4241 4190 4139 4139 4089 4089 4089 4089 4089 4139 4190 4190 4139 4139 4139 4089 4089 4089 4089 4041 4041 4041 4041 4089 4089 4089 4041 4041 4089 4089 4089 4089 4089 4089 4089 4089 4089 4089 4089 4089 4089 4089 4089 4089 4139 4089 4089 4089 4139 4139 4190 4190 4190 4241 4295 4295 4241 4241 6497 6375 6375 6375 6375 6497 6497 6497 6497 6497 6497 6497 6497 6497 6497 6622 6753 6753 6753 6753 6753 6753 6889 6889 6889 6889 6889 6889 7030 7030 7030 7030 0 0 0 0 0 0 0 0 0 0 0 0 0
0 0 0 0 0 0 0 0 0 0 0 0 0 0 0 0 0 0 0 0 0 0 0 0 0 0 0 0 0 0 6259 6259 6259 6375 6375 6497 6622 6753 6889 6889 6889 6889 4645 4645 4708 4774 4774 4842 7332 7492 7492 7492 7492 7492 7492 5210 5210 7492 7492 7492 7492 5056 5056 5132 5132 5132 5210 5210 5210 0 0 0 0 0 0 0 0 0 0 0 0 0 0 0 0 0 0 4582 4582 4582 4582 4582 4582 4645 4645 4645 4645 4645 4645 4645 4582 4582 4582 4582 4582 4582 4645 4645 4645 4582 4582 4645 4645 6622 6622 6753 7030 7030 7030 7178 7178 7178 7178 7178 7178 7178 7178 7178 7178 7178 7178 7178 7178 7178 7178 7178 7178 7178 7178 7178 7178 7178 7332 7178 7178 7178 7178 7178 7332 7332 7178 7030 7030 7030 7030 7030 7030 7030 7178 7178 7178 7030 7030 7030 7030 7030 7030 7030 7030 7030 7178 7178 7178 7178 7178 7178 7332 7332 7492 7492 7492 7660 7660 7492 7178 7178 7178 7178 7178 7332 7332 7332 7332 7492 7660 5210 5210 5291 5210 5210 5132 5132 5210 5291 5291 5374 5460 5460 5548 5548 5640 5640 5734 7835 7492 7492 7332 7332 7332 7492 7492 7492 7492 7492 7492 7492 7492 7492 7492 7492 7492 7492 7492 7492 7492 7492 7492 7332 7332 7332 7332 7332 7332 7332 7332 7332 7332 7492 7492 7492 7492 7492 7492 7492 7332 7030 7030 7030 7030 7030 7332 7492 7492 7492 7492 3269 3238 3238 3238 3238 3269 3269 3238 3238 3208 3208 3238 3238 3238 3238 3238 3238 3238 3238 3238 3238 3238 3238 3238 3238 3238 3238 3238 3238 3238 3238 3208 3208 3208 3208 3238 3238 3238 3238 3238 3238 3238 3238 3238 3238 3238 3238 3238 3238 3238 3238 3238 3238 3238 3208 3208 3208 3208 3208 3208 3178 3178 3178 3178 3208 3208 3178 3178 3178 3178 3178 3149 3149 3149 3149 3149 3120 3120 3120 3120 3120 3120 3120 3120 3120 3149 3149 3149 3149 3149 3208 3208 3208 3208 3208 3208 3208 3208 3208 3238 3238 3238 3208 3208 3208 3208 3208 3178 3178 3208 3178 3149 3149 3149 3149 3120 3120 3120 3120 3149 3149 3149 3149 3149 3149 4405 4405 4405 4349 4349 4463 4463 3238 3238 3238 3238 6375 6375 6375 6497 6497 6375 6375 6375 6259 6259 6259 6259 6259 6259 6259 6259 6259 6375 6375 6375 6497 6497 6622 6753 6753 6753 6753 6753 6753 6622 6622 6622 6622 6622 6622 6622 6622 6622 6622 6753 6753 6753 6622 6622 6622 6622 6622 6622 6622 6622 6622 6622 6622 6622 6497 6497 6497 6375 6375 6375 6259 6259 6259 6259 6259 6259 6375 6497 6622 6753 6753 6889 7030 7030 6889 6753 6753 6753 6753 6622 6622 6622 6622 6753 6753 6753 6753 6753 6622 6622 6753 6753 6622 6497 6497 6497 6497 6497 6497 6497 6375 6375 6622 6753 6753 4582 4582 4582 4522 4522 4582 4522 4522 4522 4522 4522 4522 4522 4522 4463 4463 4463 4405 4405 4405 4405 4349 4349 4295 4295 4295 4295 4295 4241 4241 4241 4241 4241 4190 4139 4089 4089 4089 4089 4089 4139 4190 4190 4139 4139 4139 4089 4089 4089 4089 4041 4041 4041 4041 4089 4089 4089 4089 4089 4089 4041 4041 4041 4089 4089 4089 4089 4089 4041 4041 4089 4089 4089 4139 4139 4190 4139 4139 4139 4190 4190 4190 4190 4190 4241 4295 4295 4295 6497 6497 6375 6375 6375 6375 6375 6375 6375 6497 6497 6497 6497 6497 6497 6497 6622 6753 6753 6753 6889 6889 6889 6889 6889 6889 6889 6889 6889 7030 7030 7030 7030 0 0 0 0 0 0 0 0 0 0 0 0 0
0 0 0 0 0 0 0 0 0 0 0 0 0 0 0 0 0 0 0 0 0 0 0 0 0 0 0 0 0 0 6259 6259 6259 6259 6375 6622 4463 4463 4463 4582 4645 4708 4645 4645 4708 4708 4774 4842 4911 4911 5056 5056 5132 5132 5210 5210 5132 5132 4983 4983 4983 5056 5056 5132 5132 5132 5132 5132 5132 5132 0 0 0 0 0 0 0 0 0 0 0 0 0 0 0 0 0 4582 4582 4582 4582 4582 4645 4645 4645 4645 4645 4645 4645 4645 4582 4582 4582 4582 4582 4582 4645 4645 4645 4582 4582 4645 4708 4708 6753 6889 7030 7030 7178 7178 7178 7178 7178 7178 7178 7178 7178 7178 7178 7178 7178 7178 7178 7178 7178 7178 7178 7178 7178 7178 7178 7178 7178 7178 7030 7030 7178 7178 7178 7178 7178 7030 7030 7030 7030 7030 7030 7030 7178 7332 7332 7332 4774 4708 4708 4645 4645 7030 7030 7030 7178 7178 7178 7178 7178 7178 7332 7492 7660 7660 4911 4911 4983 4774 4774 4774 7030 7030 7030 7178 7178 7178 7332 5291 5291 5210 5210 5291 5210 5210 5132 5132 5210 5291 5291 5374 5460 5460 5548 5548 5640 5640 5734 5734 5734 5734 7178 7178 7178 7492 7492 7492 7492 7492 7492 7660 7492 7332 7332 7332 7332 7332 7332 7332 7492 7492 7492 7332 7332 7332 7332 7332 7332 7332 7178 7178 7332 7332 7332 7332 7332 7492 7492 7492 7332 7030 7030 7030 6889 6889 7332 7492 7492 7492 7492 3238 3238 3238 3238 3238 3238 3238 3238 3238 3208 3208 3238 3238 3238 3238 3238 3269 3238 3238 3238 3238 3238 3238 3238 3238 3238 3238 3238 3238 3238 3238 3208 3208 3208 3208 3208 3208 3208 3208 3208 3238 3238 3238 3238 3238 3238 3238 3238 3238 3238 3238 3238 3238 3238 3208 3208 3208 3208 3178 3178 3149 3149 3149 3178 3178 3178 3178 3178 3178 3178 3178 3149 3120 3120 3120 3120 3120 3120 3120 3120 3120 3120 3120 3120 3120 3120 3149 3149 3149 3149 3178 3178 3178 3178 3178 3178 3208 3208 3208 3208 3208 3208 3178 3178 3178 3178 3178 3178 3178 3178 3178 3120 3120 3120 3120 3120 3120 3120 3120 3120 3149 3149 3149 3149 3149 3178 3178 3208 3208 3238 3238 3238 3238 3238 3238 3238 3238 3238 3238 6622 6497 6375 6375 6375 6259 6259 6259 6259 6259 6259 6259 6259 6259 6375 6375 6497 6622 6622 6622 7030 6889 6889 6889 6753 6753 6622 6622 6622 6622 6622 6622 6622 6622 6753 6753 6753 6753 6753 6753 6622 6622 6622 6622 6622 6622 6622 6622 6753 6753 6753 6622 6622 6497 6497 6375 6375 6259 6259 6375 6375 6375 6375 6375 6497 6622 6753 6889 6889 7030 7030 6889 6889 6889 6753 6753 6622 6622 6622 6622 6753 6753 6753 6753 6753 6753 6753 6753 6753 6753 6622 6622 6622 6622 6622 6622 6497 6497 6622 6622 6753 6753 4582 4522 4522 4522 4522 4582 4582 4522 4522 4522 4522 4522 4522 4522 4463 4463 4463 4463 4405 4405 4405 4349 4349 4349 4295 4295 4295 4241 4241 4241 4241 4241 4241 4190 4139 4139 4139 4089 4089 4089 4139 4190 4190 4190 4190 4139 4089 4089 4089 4041 4041 4041 4041 4089 4089 4089 4089 4089 4089 4089 4041 4041 4041 4041 4041 4089 4089 4089 4041 4041 4089 4089 4139 4139 4139 4190 4139 4139 4190 4190 4190 4241 4241 4241 4241 4349 4349 4405 6375 6375 6375 6375 6375 6375 6375 6375 6375 6497 6497 6497 6375 6375 6497 6497 6497 6753 6889 6889 6889 6889 6889 6889 6889 6889 6889 6889 6889 7030 7030 7030 7030 0 0 0 0 0 0 0 0 0 0 0 0 0
0 0 0 0 0 0 0 0 0 0 0 0 0 0 0 0 0 0 0 0 0 0 0 0 0 0 0 0 0 0 6259 6259 6259 6259 6259 4463 4463 4463 4463 4582 4645 4708 4645 4645 4708 4708 4774 4842 4911 4911 5056 5056 5132 5132 5210 5132 5132 5132 4983 4983 4983 5056 5056 5132 5132 5132 5132 5132 5132 5132 0 0 0 0 0 0 0 0 0 0 0 0 0 0 0 0 0 0 4582 4582 4582 4582 4645 4645 4645 4645 4645 4582 4582 4582 4582 4582 4645 4645 4582 4582 4645 4645 4645 4645 4582 4582 4708 4708 6753 6889 7030 7030 7178 7178 7178 7178 7332 7332 7178 7178 7178 7178 7178 7178 7178 7178 7178 7332 7178 7030 7030 7030 7178 7178 7178 7178 7178 7178 7030 7030 7178 7178 7178 7178 7178 6889 6889 6889 6889 6889 6889 6622 6622 7030 7178 7178 4645 4645 4645 4582 4582 4645 4645 7030 7030 7178 7178 7178 7178 7178 7332 4911 4842 4842 4911 4911 4911 4774 4708 4708 7030 7030 7030 7030 7178 7178 7178 5291 5291 5291 5291 5291 5291 5291 5210 5210 5291 5374 5374 5460 5548 5548 5640 5640 5640 5640 5734 5734 5734 5734 5832 6146 7030 7492 7492 7492 7492 7492 7492 7660 7492 7332 7332 7332 7332 7332 7332 7332 7332 7492 7332 7178 7178 7178 7178 7178 7178 7178 7178 7178 7332 7332 7332 7332 7332 7492 7492 7492 7492 3178 3238 3238 3238 3238 3269 3269 3120 3120 3092 3238 3238 3208 3208 3208 3238 3238 3208 3208 3178 3178 3208 3208 3238 3238 3238 3238 3238 3238 3238 3238 3238 3238 3238 3238 3238 3238 3238 3238 3238 3238 3208 3208 3208 3208 3208 3178 3178 3208 3208 3208 3238 3238 3238 3238 3238 3238 3208 3208 3208 3208 3208 3208 3208 3208 3208 3208 3178 3178 3178 3149 3149 3149 3149 3149 3149 3149 3149 3149 3120 3120 3120 3120 3092 3092 3120 3120 3092 3092 3120 3120 3120 3120 3120 3120 3120 3120 3120 3120 3120 3120 3120 3120 3120 3120 3149 3149 3178 3178 3178 3178 3149 3149 3149 3149 3149 3149 3149 3149 3178 3149 3120 3120 3120 3120 3120 3120 3120 3120 3120 3120 3149 3149 3178 3178 3178 3178 3208 3208 3238 3238 3238 3238 3238 3238 3238 3238 3238 3238 3238 6375 6375 6375 6375 6259 6259 6259 6259 6259 6259 6259 6259 6375 6375 6497 6497 6622 6622 6753 6889 7030 6889 6889 6889 6753 6622 6622 6622 6622 6622 6622 6753 6753 6753 6753 6753 6753 6753 6753 6753 6622 6622 6622 6622 6753 6753 6753 6753 6753 6753 6622 6622 6497 6497 6375 6375 6375 6375 6375 6375 6375 6375 6497 6622 6753 6753 6889 6889 7030 7030 6889 6889 6889 6753 6753 6622 6497 6497 6622 6622 6753 6753 6753 6753 6753 6753 6889 6753 6753 6622 6622 6622 6622 6622 6622 6622 6622 6622 6753 6889 6889 6889 4522 4522 4522 4522 4582 4582 4582 4522 4522 4522 4522 4522 4522 4522 4522 4463 4463 4463 4463 4463 4349 4349 4349 4295 4295 4241 4241 4241 4241 4241 4241 4241 4190 4139 4139 4139 4089 4089 4089 4139 4190 4190 4190 4190 4139 4089 4089 4089 4041 4041 4041 4041 4089 4089 4089 4089 4089 4089 4089 4089 4041 4041 4041 4041 4089 4089 4089 4089 4089 4089 4089 4139 4139 4139 4190 4190 4190 4190 4190 4190 4241 4241 4241 4295 4349 6375 6375 6375 6375 6375 6375 6375 6375 6375 6375 6375 6497 6497 6497 6375 6375 6497 6497 6497 6753 6889 6889 6889 6889 6889 6889 6889 6889 6889 6889 6889 7030 7030 7030 7030 0 0 0 0 0 0 0 0 0 0 0 0 0
0 0 0 0 0 0 0 0 0 0 0 0 0 0 0 0 0 0 0 0 0 0 0 0 0 0 0 0 0 0 6259 6259 6259 6259 4774 4774 4522 4522 4522 4582 4645 4708 4645 4645 4708 4774 4842 4842 7332 4983 4983 5056 5132 5132 5132 5132 5132 5132 5132 4983 4983 5132 5132 5132 5132 5132 5132 5056 5056 5056 5056 0 0 0 0 0 0 0 0 0 0 0 0 0 0 0 0 0 4582 4582 4582 4582 4645 4645 4645 4645 4645 4582 4582 4582 4582 4582 4645 4645 4645 4645 4645 4645 4645 4582 4582 4582 4582 4708 6753 6889 7030 7030 7178 7178 7178 7178 7178 7178 7178 7178 7178 7178 7178 7178 7178 7178 7332 7178 7178 7030 7030 7030 7178 7178 7178 7030 7030 7030 7030 6889 6889 6889 6889 7030 7030 6889 6889 6889 6889 6753 6753 6622 6622 6622 7178 7178 4645 4645 4582 4582 4582 4582 4582 6889 7030 7030 7030 7178 7178 7332 4774 4774 4774 4774 4774 4911 4911 4911 4708 4708 7030 7030 7030 7030 7178 7178 7178 5291 5291 5291 5291 5291 5291 5291 5291 5291 5374 5374 5374 5460 5548 5548 5640 5640 5640 5734 5734 5832 5832 5832 5832 6146 6889 7178 7492 7492 7492 7492 7492 7660 7492 7332 7332 7332 7332 7332 7332 7332 7332 7492 7332 7178 7178 7178 7178 7178 7178 7178 7178 7178 3208 3208 3178 3178 3178 3178 3178 3178 3178 3178 3208 3208 3208 3208 3178 3149 3120 3120 3092 3092 3120 3149 3149 3178 3178 3178 3178 3149 3120 3120 3120 3149 3178 3208 3208 3208 3178 3178 3178 3208 3208 3208 3208 3208 3208 3208 3208 3208 3208 3208 3208 3178 3178 3178 3149 3120 3120 3149 3149 3178 3178 3178 3208 3208 3208 3178 3178 3178 3178 3178 3178 3149 3149 3149 3149 3149 3149 3149 3149 3120 3120 3120 3120 3120 3120 3120 3120 3120 3120 3092 3092 3092 3037 3037 3064 3037 3037 3064 3092 3092 3092 3092 3092 3092 3120 3092 3064 3064 3064 3092 3092 3092 3092 3092 3120 3120 3120 3120 3149 3120 3120 3120 3120 3120 3120 3120 3120 3120 3149 3149 3120 3120 3120 3120 3120 3120 3120 3120 3120 3120 3120 3149 3149 3178 3178 3178 3178 3208 3208 3238 3238 3238 3238 3238 3238 3238 3269 3269 3365 3365 6375 6375 6375 6259 6259 6259 6259 6259 6259 6259 6259 6375 6375 6497 6622 6622 6622 6753 6889 7030 6889 6889 6889 6753 6622 6622 6497 6497 6622 6622 6622 6753 6753 6753 6753 6753 6753 6753 6753 6753 6753 6753 6753 6753 6753 6753 6753 6753 6889 6753 6622 6497 6497 6375 6375 6375 6375 6375 6375 6497 6497 6622 6622 6753 6889 6889 6889 7030 7030 6889 6753 6753 6753 6753 6622 6497 6497 6622 6622 6753 6753 6753 6753 6889 7030 7030 6889 6889 6622 6622 6622 6622 6622 6622 6622 6753 6753 6753 6889 6889 4522 4522 4522 4522 4522 4582 4582 4582 4582 4582 4582 4522 4522 4522 4522 4522 4522 4463 4463 4463 4405 4349 4349 4349 4295 4295 4241 4241 4241 4241 4241 4241 4241 4190 4190 4139 4139 4139 4139 4139 4190 4190 4190 4190 4139 4089 4089 4089 4089 4041 4041 4041 4089 4089 4089 4089 4089 4089 4089 4089 4089 4089 4089 4089 4089 4089 4089 4089 4089 4089 4089 4089 4139 4139 4139 4190 4190 4190 4190 4190 4241 4241 4241 4241 4241 6375 6375 6375 6375 6375 6259 6259 6259 6375 6375 6375 6375 6375 6375 6375 6375 6375 6497 6497 6622 6753 6889 6889 6889 6889 6889 6889 6889 6889 6889 6889 7030 7030 7030 6889 6889 0 0 0 0 0 0 0 0 0 0 0 0 0
