0 0 0 0 0 0 0 0 0 0 0 0 0 0 0 0 0 0 0 0 0 0 0 0 0 0 0 0 0 0 0 0 2701 2701 2701 2701 2723 2723 2723 2723 2723 2723 2723 2701 2701 2701 2701 2701 2701 2701 2723 2723 2723 2723 2723 2723 2723 2723 2723 2723 2723 2723 2723 2723 2744 2723 2723 2723 2723 2723 2723 2723 2723 2723 2744 2744 2744 2744 2744 2744 2744 2723 2723 2723 2723 2723 2744 2744 2744 2744 2744 2723 2723 2744 2744 2767 2767 2767 2767 2767 2767 1470 1470 1470 1477 1483 1483 1489 1489 1489 1489 1489 1489 1489 1489 1489 1489 1489 1489 1489 1503 1509 1509 1387 1387 1387 1387 1392 1392 1398 1404 1404 1404 1410 1410 1415 1415 1415 1415 1421 1853 1853 1853 1853 1853 1853 1853 1853 1853 1853 1853 1853 1853 1853 1843 1843 1843 1843 1853 1853 1853 1853 1853 1853 1853 1853 1843 1843 1853 1853 1853 1853 1863 1863 1863 1863 1863 1863 1863 1863 1863 1863 1853 1853 1853 1853 1853 1863 1863 1863 1873 1873 1873 1873 1873 1873 1873 1873 1873 1873 1863 1863 1863 1863 1863 1863 1863 1873 1873 1883 1883 1883 1883 1873 1873 1873 1873 1873 1873 1873 1873 1873 1883 1894 1477 1477 1477 1477 1477 1477 1477 1477 1477 1477 1477 1470 1470 1470 1464 1464 1458 1458 1458 1458 1452 1452 1452 1452 1458 1452 1452 1458 1458 1883 1883 1970 1970 1970 1970 1981 1981 1981 1981 1981 1981 1981 1981 1981 1993 1993 1993 2908 2908 2908 2908 2908 2908 2908 2933 1873 1873 1883 1883 1883 1883 1894 1894 1894 1894 1894 1894 1894 1883 1883 1883 1883 1883 1883 1894 1894 1894 1894 1894 1894 1894 1894 1421 1421 1421 1421 1427 1427 1421 1421 1421 1427 1427 1427 1421 1421 1421 1421 1421 1421 1915 1915 1904 1904 1915 1915 1915 1915 1904 1904 1904 1904 1904 1904 1904 1904 1904 1904 1915 1915 1915 1915 1915 1915 1915 1915 1915 1915 1915 1915 1926 1926 1926 1926 1926 1926 1926 1926 1915 1915 1926 1926 1926 1936 1936 1936 1947 1947 1947 1947 1947 1947 1947 1947 1959 1947 1947 1947 1947 1947 1947 1947 1947 1947 1959 1959 1959 1959 1959 1970 2053 2053 2065 2065 2065 2078 2078 2078 2090 2090 2090 2090 2103 2103 2103 2116 2116 2116 1489 1489 1489 1483 1483 1483 1477 1477 1477 1477 1477 1477 1477 1477 1477 1477 0 0 0 0 0 2984 2984 3010 3010 3010 3037 3037 3037 3037 3064 3064 3064 3064 3064 3064 3064 3064 3064 3064 3064 3064 3064 3064 3037 3037 3037 3037 3037 3037 3037 3037 3010 3010 3010 3010 3010 0 1688 1688 1688 1688 1680 1680 1680 1680 1680 1680 1680 1680 1680 1680 1680 1680 1680 1680 1680 1688 1680 1680 1688 1688 1688 1696 1696 1696 3064 3064 3010 3010 3010 3010 3010 3010 3010 3010 3010 3010 3010 3010 3010 3037 3037 3037 3037 3037 3037 3037 3037 3037 3037 3037 3037 3037 3037 3037 3037 3037 3037 3037 3037 3037 3037 3037 3037 3037 3064 3064 3037 3037 3037 3037 3037 3037 3037 3037 3037 3064 3037 3037 3037 3037 3037 3037 3037 3037 3037 3037 3037 3037 3037 3037 3037 3037 3037 3037 3037 3037 3037 3037 3037 3037 3037 3037 3037 3037 3037 3037 3037 3037 3037 3037 3037 3037 3037 3010 3010 3010 3010 3010 3010 3010 3010 3010 3010 3010 2984 2984 2984 2984 2984 2984 2984 2984 2984 2984 3010 3010 3010 3010 3010 3010 3010 3010 3010 3037 3037 3037 3037 3010 3010 3010 3010 3010 3010 3010 3010 0 0 0 0 0 0 0 0 0 0 0
0 0 0 0 0 0 0 0 0 0 0 0 0 0 0 0 0 0 0 0 0 0 0 0 0 0 0 0 0 0 0 0 2701 2701 2701 2701 2701 2723 2723 2723 2723 2723 2723 2701 2701 2701 2701 2701 2701 2701 2701 2701 2701 2723 2723 2701 2701 2701 2701 2723 2723 2723 2723 2723 2723 2701 2701 2701 2701 2701 2701 2723 2723 2723 2723 2723 2723 2744 2723 2723 2723 2723 2723 2723 2723 2723 2723 2723 2723 2723 2723 2723 2723 2723 2723 2744 2744 2744 2744 2744 2744 2744 1477 1477 1477 1477 1483 1489 1489 1489 1489 1496 1489 1489 1489 1489 1489 1489 1489 1496 1503 1503 1509 1387 1387 1387 1387 1392 1392 1398 1404 1404 1410 1410 1410 1415 1415 1415 1415 1421 1427 1863 1863 1853 1853 1853 1853 1853 1853 1853 1853 1853 1853 1853 1833 1833 1843 1843 1843 1853 1853 1853 1853 1853 1853 1853 1843 1843 1843 1843 1853 1853 1853 1853 1863 1863 1863 1863 1863 1863 1863 1853 1823 1823 1833 1843 1853 1863 1863 1863 1873 1873 1873 1873 1873 1873 1873 1464 1464 1464 1470 1470 1470 1470 1843 1853 1863 1470 1470 1470 1470 1470 1470 1477 1873 1873 1863 1863 1863 1863 1863 1873 1477 1477 1477 1477 1477 1477 1477 1477 1477 1477 1477 1477 1477 1470 1470 1470 1464 1464 1464 1464 1458 1458 1452 1452 1452 1452 1458 1458 1458 1458 1458 1883 1883 1970 1970 1970 1970 1981 1981 1981 1981 1981 1981 1981 1981 1993 1993 1993 1993 1993 2908 2908 2908 2908 2908 2908 2908 1873 1873 1883 1883 1883 1883 1883 1883 1883 1883 1883 1883 1883 1883 1883 1883 1883 1883 1883 1894 1894 1894 1894 1894 1894 1894 1894 1421 1421 1421 1427 1427 1427 1427 1427 1427 1433 1433 1433 1427 1427 1427 1427 1427 1904 1904 1904 1904 1904 1904 1904 1904 1915 1904 1904 1904 1904 1904 1904 1904 1904 1904 1904 1904 1915 1915 1915 1915 1915 1915 1915 1915 1915 1915 1915 1926 1926 1926 1926 1926 1926 1926 1926 1915 1915 1926 1926 1926 1926 1926 1936 1936 1947 1947 1936 1936 1947 1926 1483 1483 1489 1936 1936 1936 1947 1947 1947 1947 1947 1947 1947 1959 1959 1959 1970 2053 1509 1509 1516 1516 1516 2078 2078 2090 2090 2090 2090 2103 2103 2103 2116 2116 2116 1496 1489 1489 1489 1483 1483 1477 1477 1477 1477 1477 1477 1477 1477 1477 1483 1489 0 0 0 0 2984 2984 3010 3010 3010 3010 3010 3010 3037 3037 3037 3037 3064 3064 3064 3064 3064 3037 3037 3037 3037 3037 3037 3037 3037 3037 3037 3037 3037 3037 3037 3010 3010 3010 3010 3010 0 1680 1680 1680 1680 1680 1680 1680 1680 1680 1680 1680 1680 1680 1680 1680 1680 1680 1680 1688 1688 1688 1688 1688 1688 1688 1696 1696 3064 3037 3037 3010 3010 3010 3010 3010 3010 3010 3010 3010 3010 3010 3010 3010 3010 3010 3010 3010 3010 3010 3010 3010 3010 3010 3010 3010 3010 3010 3010 3010 3010 3010 3010 3010 3010 3037 3037 3037 3037 3037 3037 3010 3010 3037 3037 3037 3037 3037 3037 3037 3037 3037 3037 3037 3037 3037 3037 3037 3037 3037 3037 3037 3037 3037 3037 3037 3037 3037 3037 3037 3037 3037 3037 3037 3037 3037 3037 3037 3037 3037 3037 3037 3037 3037 3037 3037 3037 3010 3010 2984 2984 2984 2984 2984 2984 2984 2984 2984 2984 2984 2984 2984 2984 2984 2958 2958 2958 2958 2958 2984 2984 3010 2984 2984 3010 3010 3010 3010 3010 3010 3010 3010 2984 2984 2984 2984 2984 3010 2984 2984 0 0 0 0 0 0 0 0 0 0 0
0 0 0 0 0 0 0 0 0 0 0 0 0 0 0 0 0 0 0 0 0 0 0 0 0 0 0 0 0 0 0 0 2701 2659 2659 2680 2701 2701 2723 2723 2723 2701 2701 2701 2701 2701 2680 2680 2680 2680 2680 2701 2701 2701 2701 2701 2701 2701 2701 2701 2701 2701 2701 2723 2723 2701 2701 2701 2701 2701 2701 2701 2701 2701 2723 2723 2723 2723 2723 2723 2723 2723 2701 2701 2701 2701 2723 2723 2723 2723 2723 2723 2723 2723 2723 2723 2723 2723 2723 2744 2744 2744 1477 1477 1477 1477 1483 1489 1489 1496 1496 1496 1496 1496 1489 1489 1489 1489 1489 1496 1503 1503 1509 1509 1387 1387 1392 1392 1398 1404 1410 1410 1410 1410 1415 1415 1415 1415 1415 1421 1427 1427 1427 1863 1853 1853 1853 1853 1853 1853 1843 1843 1843 1843 1833 1833 1833 1833 1843 1843 1843 1853 1853 1853 1853 1853 1833 1833 1833 1833 1843 1853 1853 1445 1439 1439 1445 1445 1445 1452 1452 1452 1452 1458 1458 1452 1452 1853 1863 1863 1873 1873 1873 1873 1883 1464 1464 1464 1464 1464 1470 1470 1470 1470 1464 1464 1464 1464 1464 1464 1464 1464 1470 1470 1470 1470 1470 1470 1863 1470 1470 1470 1470 1477 1477 1477 1477 1477 1477 1477 1477 1477 1477 1477 1477 1477 1470 1470 1470 1464 1464 1464 1464 1464 1458 1458 1458 1458 1464 1464 1458 1458 1464 1464 1464 1970 1970 1970 1970 1981 1981 1981 1981 1981 1981 1993 1993 1993 1993 1993 2005 2005 2908 2908 2908 2908 2908 2908 2908 1873 1873 1883 1883 1883 1883 1883 1883 1883 1883 1873 1873 1883 1883 1883 1883 1883 1883 1883 1883 1883 1883 1883 1883 1883 1883 1883 1415 1415 1415 1427 1427 1427 1427 1427 1433 1433 1433 1433 1427 1427 1427 1427 1427 1904 1904 1904 1904 1904 1904 1904 1904 1904 1904 1904 1904 1904 1904 1904 1904 1904 1904 1904 1904 1904 1915 1915 1915 1915 1915 1915 1915 1915 1915 1915 1926 1926 1926 1926 1926 1926 1915 1915 1915 1915 1915 1926 1926 1926 1926 1936 1936 1947 1483 1483 1483 1483 1483 1483 1483 1483 1489 1489 1489 1483 1483 1936 1947 1947 1947 1947 1947 1947 1509 1509 1509 1509 1509 1509 1509 1509 1509 1509 1509 2078 2090 2090 2103 2103 1509 1509 1509 1496 1496 1496 1489 1489 1489 1483 1477 1477 1477 1477 1477 1477 1477 1477 1483 1483 1489 0 0 0 0 2984 2984 3010 2984 2984 3010 3010 3010 3010 3037 3037 3037 3037 3064 3064 3037 3037 3037 3010 3010 3010 3010 3010 3010 3010 3010 3010 3010 3010 3010 3010 2984 2984 2984 2984 2984 2958 1680 1680 1680 1680 1680 1680 1680 1680 1680 1680 1680 1680 1680 1680 1680 1680 1688 1688 1688 1688 1688 1688 1688 1688 1688 1696 1696 3064 3037 3037 2984 2984 2984 2984 2984 2984 2984 2984 2984 2984 2984 2984 3010 3010 2984 2984 2984 2984 2984 2984 2984 2984 2984 2984 2984 2984 3010 3010 3010 3010 3010 2984 2984 3010 3010 3010 3010 3010 3037 3010 2984 2984 2984 2984 2984 3010 3010 3010 3037 3037 3037 3037 3037 3037 3037 3037 3037 3037 3037 3037 3037 3037 3037 3010 3010 3010 3010 3010 3010 3010 3010 3037 3037 3037 3037 3037 3037 3037 3037 3037 3037 3037 3037 3010 3010 3010 3010 2984 2984 2984 2984 2984 2984 2958 2958 2958 2958 2984 2984 2984 2984 2984 2984 2958 2958 2958 2958 2958 2958 2984 2984 2984 2984 3010 3010 3010 3010 3010 3010 3010 3010 2984 2984 2984 2984 2984 2984 2958 2958 0 0 0 0 0 0 0 0 0 0 0
0 0 0 0 0 0 0 0 0 0 0 0 0 0 0 0 0 0 0 0 0 0 0 0 0 0 0 0 0 0 0 0 0 2639 2639 2659 2659 2680 2701 2701 2701 2701 2680 2680 2680 2680 2659 2659 2659 2659 2659 2659 2659 2701 2701 2701 2701 2701 2701 2701 2701 2701 2701 2701 2701 2680 2680 2701 2680 2680 2701 2701 2701 2701 2701 2701 2701 2723 2701 2701 2701 2701 2701 2701 2701 2701 2701 2701 2701 2723 2701 2701 2701 2701 2723 2723 2723 2723 2723 2723 2744 2744 1477 1477 1477 1483 1489 1496 1496 1496 1496 1496 1496 1496 1489 1489 1489 1489 1496 1503 1503 1503 1509 1509 1509 1392 1392 1398 1404 1404 1410 1410 1410 1410 1415 1415 1415 1421 1421 1427 1427 1427 1427 1433 1433 1433 1433 1439 1439 1833 1833 1445 1445 1833 1445 1445 1823 1833 1833 1843 1843 1843 1853 1853 1853 1853 1452 1452 1452 1452 1452 1452 1445 1445 1439 1439 1445 1445 1445 1452 1452 1452 1452 1458 1452 1452 1452 1458 1464 1863 1464 1464 1470 1470 1470 1464 1464 1464 1464 1464 1464 1464 1464 1464 1464 1464 1458 1458 1464 1464 1464 1464 1464 1464 1470 1470 1470 1464 1464 1464 1464 1470 1470 1477 1477 1477 1477 1477 1477 1477 1477 1477 1477 1477 1477 1477 1470 1470 1470 1470 1464 1464 1464 1464 1458 1458 1458 1458 1464 1464 1464 1464 1464 0 0 0 1981 1981 1981 1981 1993 1981 1981 1993 1993 1993 1993 1993 1993 1993 2005 2005 2883 2883 2883 2883 2883 2883 2883 1873 1873 1883 1883 1883 1883 1883 1883 1873 1873 1873 1873 1873 1883 1883 1883 1883 1883 1883 1883 1883 1883 1883 1883 1883 1883 1883 1427 1415 1415 1427 1427 1433 1433 1433 1433 1433 1433 1433 1433 1427 1427 1427 1427 1883 1883 1883 1894 1894 1894 1904 1904 1904 1894 1894 1894 1894 1894 1894 1894 1894 1894 1894 1904 1904 1915 1470 1464 1464 1464 1464 1915 1915 1915 1915 1926 1926 1915 1915 1926 1470 1470 1470 1477 1477 1477 1477 1477 1926 1477 1477 1477 1477 1477 1477 1483 1483 1483 1483 1483 1483 1483 1489 1483 1483 1483 1483 1483 1483 1483 1483 1489 1489 1496 1503 1503 1503 1503 1503 1503 1503 1503 1503 1503 1503 1503 1503 1503 1503 1509 1509 1509 1496 1496 1496 1489 1489 1489 1483 1477 1477 1477 1477 1477 1477 1477 1483 1483 1483 0 0 0 0 0 2958 2958 2958 2984 2984 2984 2984 2984 2984 2984 2984 2984 3010 3010 3010 3010 2984 2984 2984 2984 3010 2984 2984 3010 3010 2984 2984 2984 2984 2984 2984 2984 2984 2958 2958 2958 2958 1680 1680 1680 1680 1680 1680 1680 1680 1680 1680 1680 1680 1680 1680 1680 1680 1688 1688 1688 1688 1688 1688 1688 1688 1688 1696 1696 3064 3037 3037 2984 2984 2984 2984 2984 2984 2958 2958 2984 2958 2958 2958 2984 2984 2984 2984 2984 2984 2984 2984 2984 2984 2958 2958 2984 2984 2984 2984 2984 2984 2984 2984 2984 2984 2984 2984 2984 2984 3010 2984 2984 2984 2984 2984 2984 2984 3010 3010 3010 3037 3037 3010 3010 3037 3037 3037 3010 3010 3010 3010 3010 3010 3010 3010 3010 3010 2984 2984 2984 2984 2984 2984 2984 3010 3010 3010 3010 3010 3010 3010 3010 3010 3010 3010 3010 3010 3010 2984 2984 2958 2958 2958 2958 2933 2933 2933 2933 2958 2958 2958 2958 2958 2958 2958 2958 2958 2958 2958 2958 2958 2984 2984 2984 2984 2984 2984 2984 3010 2984 2984 2984 2984 2958 2958 2958 2958 2958 2958 2958 0 0 0 0 0 0 0 0 0 0 0
0 0 0 0 0 0 0 0 0 0 0 0 0 0 0 0 0 0 0 0 0 0 0 0 0 0 0 0 0 0 0 0 0 2639 2639 2659 2659 2659 2680 2680 2680 2680 2659 2659 2659 2659 2659 2659 2659 2659 2659 2659 2659 2659 2680 2659 2659 2680 2680 2680 2680 2680 2680 2680 2680 2659 2659 2680 2680 2680 2680 2680 2680 2701 2701 2701 2701 2701 2701 2701 2701 2701 2701 2701 2701 2701 2701 2701 2701 2701 2701 2701 2701 2701 2701 2701 2701 2701 2701 2723 2744 2767 2767 1483 1483 1483 1489 1496 1496 1496 1503 1503 1496 1496 1496 1496 1489 1489 1496 1503 1503 1503 1509 1509 1509 1404 1404 1404 1404 1410 1410 1415 1415 1415 1415 1421 1421 1427 1427 1427 1427 1433 1433 1433 1433 1433 1433 1439 1439 1439 1439 1439 1439 1439 1439 1445 1445 1439 1439 1439 1439 1439 1439 1445 1445 1445 1445 1445 1452 1452 1452 1452 1445 1445 1445 1445 1445 1445 1452 1452 1452 1452 1452 1458 1452 1452 1452 1452 1452 1458 1458 1464 1464 1464 1464 1458 1458 1458 1458 1458 1464 1464 1464 1464 1464 1458 1458 1458 1464 1464 1464 1464 1464 1464 1464 1470 1470 1464 1464 1464 1464 1470 1470 1477 1477 1477 1477 1477 1477 1477 1477 1477 1477 1477 1477 1477 1477 1470 1470 1470 1470 1470 1464 1464 1458 1458 1458 1458 1464 1464 1464 1464 1464 0 0 0 0 1981 1981 1981 1993 1981 1981 1981 1981 1993 1993 1993 1993 2005 2005 2859 2859 2859 2859 2859 2859 2859 2859 1883 1883 1883 1873 1873 1873 1873 1873 1863 1863 1863 1863 1863 1873 1873 1873 1873 1873 1873 1873 1873 1873 1873 1873 1883 1883 1883 1427 1427 1427 1433 1433 1433 1433 1433 1433 1433 1433 1433 1433 1433 1433 1433 1843 1843 1853 1863 1883 1883 1894 1894 1894 1883 1883 1883 1894 1894 1894 1894 1894 1894 1894 1894 1464 1464 1464 1464 1464 1464 1464 1464 1464 1464 1470 1483 1483 1915 1915 1470 1470 1470 1470 1470 1477 1477 1477 1477 1477 1477 1477 1477 1477 1477 1477 1477 1483 1483 1483 1483 1483 1483 1483 1483 1483 1483 1483 1483 1483 1483 1483 1483 1489 1489 1489 1496 1503 1503 1503 1503 1503 1503 1503 1503 1503 1503 1503 1503 1503 1503 1509 1509 1509 1503 1503 1496 1489 1489 1489 1489 1483 1483 1483 1483 1483 1483 1483 1483 1483 1483 0 0 0 0 2958 2958 2958 2958 2958 2958 2958 2984 2984 2984 2984 2984 2984 2984 2984 2984 2984 2984 2984 2984 2984 2984 2984 2984 2984 2984 2984 2958 2958 2958 2958 2958 2958 2958 2958 2958 2958 2958 1680 1680 1680 1680 1680 1680 1680 1680 1680 1680 1680 1680 1680 1680 1680 1680 1688 1688 1688 1688 1688 1688 1688 1688 1688 1688 3064 3064 3010 2984 2984 2958 2958 2958 2958 2958 2958 2958 2958 2958 2958 2958 2958 2958 2958 2958 2958 2958 2984 2984 2958 2958 2958 2958 2958 2958 2958 2958 2984 2958 2958 2958 2958 2984 2984 2958 2958 2984 2984 2984 2958 2958 2984 2958 2958 2984 2984 2984 2984 3010 3010 3010 3010 3010 3010 3010 2984 2984 2984 2984 3010 3010 2984 2984 2984 2984 2984 2958 2958 2958 2958 2958 2958 2958 2984 2984 3010 3010 3010 3010 3010 3010 2984 2984 2984 2984 2984 2984 2958 2958 2958 2958 2958 2933 2933 2933 2933 2958 2958 2958 2958 2958 2958 2958 2958 2958 2958 2958 2958 2958 2958 2984 2984 2984 2984 2984 2984 2984 2958 2958 2958 2958 2958 2958 2958 2958 2958 2958 2958 0 0 0 0 0 0 0 0 0 0 0
0 0 0 0 0 0 0 0 0 0 0 0 0 0 0 0 0 0 0 0 0 0 0 0 0 0 0 0 0 0 0 0 0 2639 2639 2639 2639 2639 2659 2659 2659 2659 2659 2659 2659 2639 2639 2639 2639 2659 2659 2659 2659 2659 2680 2659 2659 2680 2680 2680 2680 2680 2680 2680 2680 2659 2659 2659 2659 2659 2659 2680 2680 2680 2680 2680 2680 2680 2680 2680 2680 2680 2680 2680 2680 2680 2701 2701 2701 2701 2701 2701 2701 2701 2701 2701 2701 2701 2701 2701 2744 2767 2767 2767 1489 1489 1489 1496 1496 1496 1503 1503 1503 1496 1496 1496 1496 1496 1496 1503 1503 1509 1509 1509 1516 1404 1404 1404 1404 1410 1415 1415 1415 1415 1415 1421 1421 1427 1427 1427 1427 1433 1433 1433 1433 1433 1439 1439 1439 1439 1439 1439 1439 1433 1433 1439 1439 1439 1433 1433 1439 1439 1439 1439 1445 1445 1445 1445 1445 1445 1445 1445 1445 1445 1445 1445 1445 1445 1452 1452 1452 1452 1452 1452 1452 1452 1452 1452 1452 1452 1458 1458 1458 1458 1458 1458 1458 1458 1458 1458 1464 1464 1464 1464 1464 1458 1458 1458 1464 1464 1464 1464 1464 1464 1464 1470 1470 1470 1470 1470 1470 1470 1470 1477 1477 1477 1477 1477 1477 1477 1477 1477 1477 1477 1477 1477 1477 1477 1470 1470 1470 1470 1470 1470 1464 1464 1464 1464 1464 1464 1464 1464 1464 0 0 0 0 0 1981 1981 1993 1981 1981 1981 1981 1993 1993 1993 1993 1993 1993 2859 2859 2859 2859 2859 2859 2859 2859 1883 1873 1873 1863 1863 1863 1863 1863 1853 1853 1853 1853 1863 1863 1863 1863 1863 1863 1873 1873 1873 1873 1873 1873 1873 1873 1873 1439 1433 1433 1433 1433 1433 1433 1433 1439 1439 1433 1433 1439 1439 1439 1439 1464 1470 1477 1863 1883 1883 1883 1894 1894 1464 1464 1464 1883 1894 1458 1458 1458 1458 1458 1458 1464 1464 1464 1464 1464 1464 1464 1464 1464 1464 1470 1470 1470 1470 1470 1470 1470 1470 1470 1470 1477 1477 1477 1477 1477 1477 1477 1477 1477 1477 1477 1483 1483 1483 1483 1483 1483 1483 1483 1483 1483 1483 1483 1483 1483 1483 1483 1483 1483 1489 1489 1489 1496 1496 1496 1496 1496 1496 1503 1503 1503 1503 1503 1503 1503 1503 1509 1509 1509 1509 1503 1496 1496 1489 1489 1489 1483 1483 1483 1483 1483 1483 1483 1483 1483 1483 0 0 0 2958 2958 2933 2933 2958 2958 2958 2958 2958 2958 2958 2958 2958 2984 2984 2984 2984 2984 2984 2958 2958 2958 2958 2958 2958 2958 2958 2958 2958 2958 2958 2958 2958 2958 2958 2958 2958 2958 1696 1696 1688 1688 1688 1680 1680 1680 1680 1680 1680 1680 1680 1680 1688 1688 1688 1688 1688 1688 1688 1688 1688 1696 1696 1696 1696 2958 2958 2958 2984 2984 2958 2958 2958 2958 2933 2933 2933 2933 2933 2933 2933 2933 2933 2958 2958 2958 2958 2958 2958 2958 2958 2958 2958 2958 2958 2958 2958 2958 2958 2958 2958 2958 2958 2958 2958 2958 2958 2958 2958 2958 2958 2958 2958 2958 2984 2984 2984 2984 2984 2984 2984 2984 2984 2984 2984 2958 2958 2958 2958 2984 2984 2958 2958 2984 2984 2958 2958 2958 2958 2958 2958 2958 2958 2958 2958 2984 2984 2984 2984 2984 2984 2984 2984 2984 2984 2984 2958 2958 2933 2933 2933 2933 2933 2933 2933 2933 2958 2958 2958 2958 2958 2958 2958 2933 2933 2933 2933 2933 2958 2958 2958 2984 2984 2984 2958 2958 2984 2958 2958 2958 2958 2933 2933 2933 2958 2958 2958 2958 0 0 0 0 0 0 0 0 0 0 0
0 0 0 0 0 0 0 0 0 0 0 0 0 0 0 0 0 0 0 0 0 0 0 0 0 0 0 0 0 0 0 0 0 2618 2618 2639 2639 2639 2639 2639 2639 2639 2639 2639 2639 2639 2639 2639 2639 2639 2639 2659 2659 2659 2659 2659 2659 2659 2659 2659 2659 2659 2659 2680 2680 2639 2639 2659 2659 2659 2659 2659 2680 2659 2659 2659 2680 2659 2659 2659 2659 2680 2680 2680 2680 2680 2680 2680 2680 2680 2680 2680 2701 2701 2701 2701 2701 2701 2701 2701 2744 2767 2767 0 1489 1489 1489 1496 1496 1503 1503 1503 1503 1503 1496 1496 1496 1496 1496 1503 1509 1509 1509 1509 1516 1516 1410 1410 1410 1410 1415 1415 1415 1415 1415 1421 1421 1427 1427 1427 1433 1433 1433 1433 1433 1439 1439 1439 1439 1439 1439 1439 1439 1433 1433 1439 1439 1439 1433 1433 1439 1439 1439 1439 1445 1445 1445 1445 1445 1445 1445 1445 1445 1445 1445 1445 1445 1445 1452 1452 1452 1452 1452 1452 1452 1452 1452 1452 1452 1452 1458 1458 1458 1458 1458 1458 1458 1458 1458 1458 1464 1464 1464 1464 1464 1464 1458 1458 1464 1464 1464 1464 1464 1464 1464 1470 1470 1470 1470 1470 1470 1470 1470 1470 1470 1470 1477 1477 1477 1477 1477 1477 1477 1477 1477 1477 1477 1477 1470 1470 1470 1470 1470 1470 1464 1464 1464 1464 1464 1464 1464 1464 1464 0 0 0 0 0 0 1993 1993 1993 1993 1993 1993 1993 1993 1993 1993 1993 1993 2835 2835 2835 2835 2835 2835 2835 2835 1883 1873 1873 1853 1853 1853 1853 1853 1853 1853 1853 1853 1853 1853 1853 1853 1853 1853 1863 1863 1863 1863 1863 1863 1863 1863 1863 1439 1439 1439 1439 1439 1433 1433 1439 1439 1439 1439 1439 1439 1439 1445 1452 1464 1470 1470 1477 1477 1477 1477 1477 1470 1464 1464 1464 1458 1458 1458 1458 1458 1458 1458 1458 1464 1464 1464 1464 1464 1464 1464 1464 1464 1464 1464 1464 1470 1470 1470 1470 1470 1470 1470 1470 1477 1477 1477 1477 1477 1477 1477 1477 1477 1477 1477 1483 1483 1483 1483 1483 1483 1483 1483 1483 1483 1483 1483 1483 1483 1483 1483 1483 1483 1489 1489 1489 1489 1496 1496 1496 1496 1496 1503 1503 1503 1503 1503 1503 1503 1503 1509 1509 1509 1509 1503 1503 1496 1496 1489 1489 1483 1483 1483 1483 1483 1483 1483 1483 1483 1489 0 0 0 0 2933 2933 2933 2933 2958 2958 2958 2958 2958 2958 2958 2958 2958 2958 2984 2984 2958 2958 2958 2958 2958 2958 2958 2958 2958 2958 2958 2958 2958 2958 2958 2958 2958 2958 2958 2958 2958 1713 1696 1696 1688 1688 1688 1680 1680 1680 1680 1680 1680 1688 1688 1688 1688 1688 1688 1688 1688 1688 1688 1688 1696 1696 1696 0 2958 2958 2958 2984 2958 2933 2933 2933 2933 2933 2933 2933 2933 2933 2933 2933 2933 2933 2933 2933 2933 2933 2933 2933 2933 2933 2933 2933 2933 2933 2933 2933 2933 2933 2933 2933 2933 2933 2933 2933 2933 2933 2933 2933 2933 2958 2958 2958 2958 2958 2958 2958 2958 2984 2984 2984 2984 2984 2958 2958 2958 2958 2958 2958 2958 2958 2958 2958 2958 2958 2958 2958 2958 2958 2958 2958 2958 2958 2958 2958 2958 2958 2984 2984 2984 2958 2958 2958 2958 2958 2958 2958 2933 2933 2933 2933 2933 2933 2933 2933 2933 2933 2933 2958 2933 2933 2933 2933 2933 2933 2933 2933 2933 2933 2958 2958 2958 2984 2958 2958 2958 2958 2958 2933 2933 2933 2933 2933 2933 2933 2933 2933 2933 0 0 0 0 0 0 0 0 0 0 0
0 0 0 0 0 0 0 0 0 0 0 0 0 0 0 0 0 0 0 0 0 0 0 0 0 0 0 0 0 0 0 0 0 2618 2618 2618 2618 2639 2639 2639 2639 2639 2639 2639 2639 2639 2639 2639 2639 2639 2639 2639 2639 2639 2639 2639 2639 2639 2639 2639 2639 2659 2659 2659 2659 2639 2639 2639 2639 2639 2659 2659 2680 2659 2659 2659 2659 2659 2659 2659 2659 2659 2659 2680 2680 2680 2680 2680 2680 2680 2680 2680 2680 2680 2680 2680 2680 2680 2701 2701 2723 2767 2767 0 1496 1496 1496 1496 1496 1503 1503 1503 1503 1503 1503 1503 1503 1503 1503 1503 1509 1509 1509 1509 1516 1410 1410 1410 1410 1410 1415 1421 1421 1421 1421 1427 1427 1427 1427 1427 1433 1433 1433 1433 1439 1439 1439 1439 1439 1439 1439 1439 1439 1439 1439 1445 1439 1439 1433 1433 1439 1439 1439 1445 1445 1445 1445 1445 1445 1445 1445 1445 1452 1445 1445 1445 1452 1452 1452 1452 1452 1452 1452 1452 1452 1452 1452 1452 1452 1452 1452 1452 1458 1458 1458 1458 1458 1458 1458 1458 1464 1464 1464 1464 1464 1464 1464 1464 1464 1464 1464 1464 1464 1464 1464 1470 1470 1470 1470 1470 1470 1470 1470 1470 1470 1470 1477 1477 1477 1477 1477 1477 1477 1477 1477 1477 1477 1477 1477 1477 1470 1470 1470 1470 1464 1464 1464 1470 1470 1470 1464 1464 1464 0 0 0 0 0 0 0 2005 1993 1993 1993 1993 1993 1993 1993 1993 1993 1993 2812 2812 2812 2835 2835 2835 2835 2835 2835 1863 1863 1853 1853 1853 1853 1853 1853 1853 1843 1843 1853 1853 1853 1853 1853 1853 1853 1853 1853 1853 1853 1853 1863 1863 1433 1433 1439 1439 1439 1439 1439 1439 1439 1439 1439 1439 1439 1439 1445 1445 1458 1464 1470 1470 1470 1470 1470 1470 1470 1470 1464 1464 1464 1458 1458 1458 1458 1458 1458 1458 1464 1464 1464 1464 1464 1464 1464 1464 1464 1464 1464 1464 1464 1470 1470 1464 1464 1470 1470 1470 1470 1470 1477 1477 1477 1477 1477 1477 1477 1477 1477 1483 1483 1483 1483 1483 1483 1483 1483 1483 1483 1483 1483 1483 1483 1483 1483 1483 1483 1489 1489 1489 1489 1489 1489 1496 1496 1496 1496 1496 1496 1503 1503 1503 1503 1503 1503 1509 1509 1509 1509 1503 1503 1496 1496 1489 1489 1483 1483 1483 1483 1483 1483 1483 1483 1489 1489 0 0 0 2933 2933 2933 2933 2933 2933 2933 2958 2958 2958 2958 2958 2958 2958 2958 2958 2958 2958 2958 2958 2958 2958 2958 2958 2958 2958 2958 2958 2933 2933 2933 2933 2933 2933 2958 2958 2958 1722 1713 1705 1696 1688 1688 1688 1688 1680 1680 1680 1688 1688 1688 1688 1688 1688 1696 1696 1696 1696 1696 1696 1696 1696 1696 1696 0 2883 2933 2933 2933 2958 2933 2933 2933 2933 2933 2933 2908 2908 2908 2908 2908 2908 2908 2933 2933 2933 2933 2933 2933 2933 2933 2933 2933 2908 2908 2908 2933 2933 2933 2933 2933 2933 2933 2933 2933 2933 2933 2933 2933 2933 2958 2958 2958 2958 2958 2958 2958 2958 2958 2958 2958 2958 2958 2958 2958 2958 2958 2958 2958 2958 2958 2933 2933 2933 2933 2933 2933 2933 2933 2933 2933 2933 2933 2958 2958 2958 2958 2958 2958 2958 2958 2958 2958 2958 2958 2958 2958 2933 2933 2933 2933 2933 2933 2933 2933 2933 2933 2933 2933 2933 2933 2933 2933 2933 2933 2933 2933 2933 2933 2933 2933 2958 2958 2933 2933 2958 2958 2933 2933 2933 2933 2933 2908 2908 2933 2933 2933 2933 0 0 0 0 0 0 0 0 0 0 0
0 0 0 0 0 0 0 0 0 0 0 0 0 0 0 0 0 0 0 0 0 0 0 0 0 0 0 0 0 0 0 0 0 2618 2618 2618 2618 2639 2618 2618 2639 2639 2639 2639 2639 2639 2639 2639 2639 2639 2639 2639 2618 2618 2639 2639 2639 2639 2639 2639 2639 2639 2639 2639 2659 2639 2639 2639 2639 2639 2639 2639 2659 2639 2639 2639 2659 2659 2639 2639 2639 2639 2659 2659 2659 2659 2680 2680 2680 2680 2680 2680 2680 2680 2680 2680 2680 2680 2701 2701 2723 2744 2744 1509 1503 1503 1503 1503 1503 1503 1503 1503 1503 1503 1503 1503 1503 1503 1503 1509 1509 1509 1509 1516 1523 1410 1410 1410 1410 1415 1415 1421 1421 1421 1421 1427 1427 1427 1433 1433 1433 1433 1433 1433 1433 1439 1439 1439 1439 1439 1439 1439 1439 1439 1445 1445 1445 1439 1439 1439 1439 1439 1439 1445 1445 1445 1445 1445 1445 1445 1445 1445 1445 1445 1445 1445 1452 1452 1452 1452 1452 1452 1452 1452 1452 1452 1452 1452 1452 1452 1452 1452 1458 1458 1458 1458 1458 1458 1458 1458 1464 1464 1464 1464 1464 1464 1464 1464 1464 1464 1464 1464 1464 1464 1464 1470 1470 1470 1470 1470 1470 1470 1470 1470 1470 1470 1477 1477 1477 1477 1477 1477 1477 1483 1483 1483 1483 1477 1477 1477 1477 1470 1470 1470 1470 1470 1470 1470 1470 1470 1470 1464 1464 0 0 0 0 0 0 0 2005 2005 1993 1993 1993 1993 1993 1993 1993 1993 1993 2812 2812 2812 2812 2812 2835 2835 2812 2812 1863 1863 1843 1843 1843 1843 1843 1843 1843 1843 1843 1843 1843 1843 1843 1843 1843 1843 1843 1853 1853 1853 1853 1853 1863 1433 1433 1439 1439 1439 1439 1439 1439 1439 1439 1439 1439 1439 1445 1445 1445 1458 1464 1470 1470 1470 1470 1470 1470 1470 1470 1464 1464 1464 1464 1464 1458 1458 1458 1458 1458 1464 1464 1464 1464 1464 1464 1464 1464 1464 1464 1464 1464 1464 1464 1464 1464 1464 1464 1470 1470 1470 1470 1477 1477 1477 1477 1477 1477 1477 1477 1477 1483 1483 1483 1483 1483 1483 1483 1483 1483 1483 1483 1483 1483 1489 1489 1489 1483 1483 1489 1489 1489 1489 1489 1489 1489 1489 1489 1489 1496 1496 1496 1503 1503 1503 1503 1503 1509 1509 1509 1509 1503 1503 1496 1496 1496 1489 1483 1483 1483 1483 1489 1489 1489 1489 1489 0 2933 2933 0 2908 2908 2908 2908 2908 2908 2933 2933 2958 2958 2958 2958 2958 2958 2958 2958 2958 2958 2933 2933 2933 2933 2933 2933 2933 2933 2933 2933 2908 2908 2908 2908 2908 2908 2933 2933 1722 1722 1722 1713 1705 1696 1688 1688 1688 1680 1680 1680 1688 1688 1688 1688 1688 1688 1696 1696 1696 1696 1696 1696 1696 1696 1696 0 0 2883 2883 2883 2883 2908 2908 2908 2908 2933 2908 2908 2908 2908 2908 2908 2908 2908 2908 2933 2933 2933 2933 2908 2908 2908 2908 2908 2908 2908 2908 2908 2908 2933 2933 2933 2933 2933 2933 2933 2933 2933 2933 2933 2933 2933 2933 2933 2933 2933 2933 2933 2933 2933 2933 2933 2933 2933 2933 2933 2933 2933 2933 2933 2958 2958 2958 2933 2933 2933 2933 2933 2933 2933 2933 2933 2933 2933 2933 2933 2933 2933 2933 2933 2933 2933 2958 2958 2958 2958 2958 2958 2958 2933 2908 2908 2908 2908 2908 2908 2908 2908 2908 2908 2908 2908 2933 2933 2933 2933 2933 2933 2933 2933 2933 2933 2933 2933 2933 2933 2933 2933 2933 2933 2908 2908 2908 2908 2908 2908 2933 2908 2908 2933 0 0 0 0 0 0 0 0 0 0 0
0 0 0 0 0 0 0 0 0 0 0 0 0 0 0 0 0 0 0 0 0 0 0 0 0 0 0 0 0 0 0 0 0 2618 2618 2618 2618 2618 2618 2618 2618 2618 2618 2618 2618 2618 2618 2618 2618 2618 2639 2618 2618 2618 2618 2618 2618 2618 2618 2639 2639 2639 2639 2639 2639 2618 2618 2639 2639 2639 2639 2639 2639 2639 2639 2639 2639 2639 2639 2639 2639 2639 2639 2659 2659 2659 2659 2659 2659 2659 2659 2659 2680 2680 2680 2680 2659 2659 2680 2680 2723 2744 2744 1509 1503 1496 1496 1503 1503 1503 1503 1503 1503 1503 1503 1503 1503 1503 1503 1509 1516 1523 1523 1529 1529 1529 1415 1415 1415 1415 1421 1421 1421 1421 1421 1427 1427 1433 1433 1433 1433 1433 1433 1433 1433 1439 1439 1439 1439 1439 1439 1439 1439 1439 1445 1445 1445 1439 1439 1439 1439 1439 1439 1445 1445 1445 1445 1445 1445 1445 1445 1445 1445 1445 1445 1445 1452 1452 1452 1452 1452 1452 1452 1452 1452 1452 1452 1452 1452 1452 1452 1452 1458 1458 1458 1458 1458 1464 1464 1464 1464 1464 1464 1464 1464 1470 1464 1464 1464 1464 1464 1464 1464 1464 1464 1470 1470 1470 1470 1470 1470 1470 1477 1477 1477 1477 1477 1477 1477 1477 1477 1477 1483 1483 1483 1483 1483 1483 1483 1483 1477 1477 1477 1477 1470 1470 1470 1470 1477 1477 1477 1477 0 0 0 0 0 0 0 0 0 2005 1993 1993 1993 1993 1993 1993 1993 1993 2005 2005 2812 2812 2812 2812 2812 2812 2812 2812 1863 1863 1843 1843 1843 1843 1843 1843 1843 1843 1843 1843 1843 1843 1843 1833 1833 1833 1833 1843 1843 1843 1843 1853 1853 1853 1439 1439 1439 1439 1439 1439 1439 1439 1439 1439 1439 1445 1445 1445 1452 1464 1464 1470 1470 1470 1470 1470 1470 1470 1470 1464 1464 1464 1464 1464 1464 1464 1464 1458 1458 1464 1464 1464 1464 1464 1464 1464 1464 1464 1464 1464 1464 1464 1464 1464 1464 1464 1464 1470 1470 1470 1470 1477 1477 1477 1477 1477 1477 1477 1477 1483 1483 1483 1483 1483 1483 1483 1483 1483 1483 1483 1483 1483 1483 1489 1489 1489 1489 1489 1489 1489 1489 1489 1489 1489 1489 1489 1489 1489 1496 1496 1496 1496 1503 1503 1503 1509 1509 1509 1509 1509 1503 1503 1503 1496 1496 1496 1489 1489 1489 1489 1489 1496 1496 1496 1496 0 2933 2933 2933 2933 2908 2908 2908 2908 2908 2908 2908 2933 2933 2933 2933 2958 2958 2958 2958 2933 2933 2933 2908 2908 2908 2908 2908 2908 2908 2908 2908 2883 2883 2908 2908 2908 2908 2933 2933 1731 1731 1722 1713 1705 1696 1688 1688 1688 1688 1680 1680 1688 1688 1688 1688 1688 1688 1696 1696 1696 1696 1696 1705 1705 1705 0 0 2859 2883 2883 2883 2883 2883 2883 2883 2908 2908 2908 2908 2883 2883 2883 2908 2908 2908 2908 2908 2908 2908 2908 2908 2908 2883 2883 2908 2908 2908 2908 2908 2908 2908 2908 2908 2908 2908 2933 2933 2933 2933 2933 2933 2933 2933 2933 2933 2933 2933 2933 2933 2933 2933 2933 2933 2933 2933 2933 2933 2933 2933 2933 2933 2933 2933 2933 2933 2933 2933 2933 2933 2933 2933 2933 2933 2933 2933 2933 2933 2933 2933 2933 2933 2933 2933 2933 2958 2958 2958 2958 2958 2958 2908 2908 2908 2908 2908 2908 2908 2908 2908 2908 2908 2908 2908 2908 2908 2908 2908 2908 2908 2908 2908 2908 2908 2908 2908 2908 2908 2908 2908 2908 2908 2883 2883 2883 2883 2883 2883 2908 2883 2883 2883 0 0 0 0 0 0 0 0 0 0 0
0 0 0 0 0 0 0 0 0 0 0 0 0 0 0 0 0 0 0 0 0 0 0 0 0 0 0 0 0 0 0 0 0 2618 2618 2618 2618 2618 2618 2618 2618 2618 2618 2618 2618 2618 2618 2618 2618 2618 2618 2618 2598 2598 2598 2598 2598 2598 2618 2618 2618 2639 2639 2639 2639 2618 2618 2618 2618 2618 2618 2618 2639 2618 2618 2618 2618 2618 2618 2618 2618 2618 2639 2639 2639 2639 2659 2659 2659 2659 2659 2659 2659 2659 2659 2659 2659 2659 2659 2659 2659 2639 1509 1509 1503 1496 1496 1503 1503 1503 1503 1503 1503 1503 1503 1503 1503 1503 1503 1509 1516 1523 1523 1529 1529 1536 1415 1415 1415 1415 1421 1421 1421 1427 1427 1427 1433 1433 1433 1433 1433 1439 1439 1439 1439 1439 1439 1439 1439 1439 1439 1439 1439 1439 1445 1445 1445 1439 1439 1439 1439 1439 1445 1445 1445 1445 1445 1445 1445 1445 1445 1445 1445 1445 1445 1445 1452 1452 1452 1452 1452 1452 1452 1452 1452 1452 1452 1452 1452 1452 1452 1452 1458 1458 1458 1464 1464 1464 1464 1464 1464 1464 1470 1470 1470 1470 1464 1464 1464 1464 1464 1464 1464 1464 1464 1470 1470 1470 1470 1470 1470 1470 1477 1477 1477 1477 1477 1477 1477 1483 1483 1483 1483 1483 1489 1489 1489 1483 1483 1483 1483 1477 1477 1477 1477 1477 1477 1477 1477 1477 1477 1483 1489 0 0 0 0 0 0 0 0 2005 1993 1993 1993 1993 2005 1993 1993 1993 2005 2005 2789 2789 2812 2812 2812 2812 2789 2789 1863 1853 1843 1843 1843 1843 1843 1843 1843 1833 1833 1843 1843 1833 1833 1833 1833 1833 1833 1833 1833 1833 1833 1843 1843 1843 1439 1439 1445 1445 1445 1445 1445 1445 1445 1445 1445 1445 1452 1452 1458 1464 1464 1470 1464 1464 1470 1470 1470 1470 1470 1464 1464 1464 1464 1464 1464 1464 1464 1464 1464 1464 1464 1464 1464 1464 1464 1464 1464 1464 1464 1464 1464 1470 1470 1470 1470 1470 1470 1470 1470 1470 1470 1477 1477 1477 1477 1477 1483 1483 1483 1483 1483 1483 1483 1483 1483 1483 1483 1483 1483 1489 1489 1489 1489 1489 1489 1489 1489 1489 1489 1489 1489 1489 1489 1489 1496 1496 1496 1496 1496 1496 1496 1496 1503 1503 1503 1509 1509 1509 1509 1509 1509 1509 1503 1503 1503 1503 1496 1496 1496 1496 1496 1496 1496 1503 1503 0 2908 2908 2908 2908 2908 2908 2908 2908 2908 2908 2908 2933 2933 2933 2933 2933 2933 2933 2933 2933 2908 2908 2883 2883 2883 2883 2883 2883 2883 2883 2883 2883 2883 2883 2883 2883 2883 2908 2908 1739 1739 1722 1705 1696 1688 1688 1688 1688 1688 1688 1688 1688 1688 1688 1696 1696 1696 1696 1696 1696 1696 1696 1705 1705 1705 1705 0 2859 2859 2859 2883 2883 2883 2883 2883 2883 2883 2883 2883 2883 2883 2883 2883 2883 2883 2883 2908 2908 2908 2908 2908 2908 2883 2883 2908 2908 2883 2883 2883 2883 2883 2908 2908 2908 2908 2908 2908 2908 2933 2908 2908 2908 2908 2908 2908 2908 2908 2908 2908 2908 2908 2908 2908 2908 2908 2933 2933 2933 2933 2933 2933 2933 2933 2933 2933 2933 2908 2908 2908 2908 2908 2908 2908 2908 2933 2933 2933 2933 2933 2933 2933 2933 2933 2933 2933 2933 2933 2933 2933 2933 2908 2908 2908 2908 2883 2883 2883 2883 2883 2883 2883 2908 2908 2908 2908 2908 2908 2908 2908 2908 2908 2883 2883 2908 2908 2908 2883 2883 2908 2883 2883 2883 2883 2883 2883 2883 2883 2883 2883 2883 2883 0 0 0 0 0 0 0 0 0 0 0
0 0 0 0 0 0 0 0 0 0 0 0 0 0 0 0 0 0 0 0 0 0 0 0 0 0 0 0 0 0 0 0 0 2618 2618 2598 2598 2598 2598 2598 2598 2598 2598 2598 2618 2598 2598 2618 2618 2618 2598 2598 2579 2579 2579 2598 2598 2598 2618 2618 2618 2618 2618 2618 2639 2618 2618 2618 2618 2618 2618 2618 2618 2618 2618 2618 2618 2618 2618 2618 2618 2618 2618 2639 2639 2639 2639 2639 2639 2639 2639 2639 2659 2659 2659 2659 2659 2659 2639 2639 2639 2639 1509 1509 1503 1496 1496 1503 1503 1503 1503 1503 1503 1503 1503 1503 1509 1509 1509 1509 1516 1523 1529 1529 1529 1421 1415 1415 1421 1421 1421 1427 1427 1427 1427 1427 1433 1433 1433 1433 1439 1439 1439 1439 1439 1439 1439 1439 1439 1439 1439 1439 1445 1445 1445 1452 1445 1439 1439 1439 1439 1445 1445 1445 1445 1445 1445 1445 1445 1445 1445 1445 1452 1452 1452 1452 1452 1452 1452 1452 1452 1452 1452 1452 1452 1452 1452 1452 1452 1452 1452 1452 1458 1458 1458 1464 1464 1464 1470 1470 1470 1470 1470 1470 1470 1470 1470 1470 1470 1464 1464 1464 1470 1470 1470 1470 1470 1470 1477 1477 1477 1477 1477 1477 1477 1477 1477 1483 1483 1483 1483 1483 1483 1489 1489 1489 1489 1489 1489 1489 1483 1483 1483 1483 1483 1483 1477 1477 1483 1483 1483 1483 1489 1503 0 0 0 0 0 0 0 2005 1993 1993 1993 1993 2005 2005 2005 2005 2005 2028 2723 2744 2789 2789 2789 2789 2789 2789 2789 1853 1843 1843 1833 1833 1833 1833 1833 1833 1833 1833 1833 1833 1833 1823 1823 1823 1823 1823 1823 1833 1833 1833 1843 1843 1445 1445 1445 1445 1445 1445 1445 1445 1445 1445 1445 1445 1452 1452 1464 1464 1470 1470 1464 1464 1470 1470 1470 1470 1470 1464 1464 1464 1464 1464 1464 1464 1464 1464 1464 1464 1464 1464 1464 1464 1464 1464 1464 1464 1464 1464 1470 1470 1470 1470 1470 1470 1470 1470 1470 1470 1470 1477 1477 1477 1477 1477 1483 1483 1483 1483 1483 1483 1483 1483 1483 1483 1483 1483 1489 1489 1489 1489 1489 1489 1489 1489 1489 1489 1489 1496 1496 1496 1489 1489 1496 1496 1496 1496 1496 1503 1503 1503 1503 1509 1509 1509 1509 1509 1509 1509 1509 1509 1509 1509 1503 1503 1496 1496 1496 1496 1496 1503 1503 1503 1503 1509 2908 2908 2883 2883 2883 2883 2883 2883 2883 2883 2883 2908 2908 2908 2908 2908 2908 2908 2908 2908 2908 2883 2883 2883 2883 2883 2883 2883 2883 2883 2883 2883 2883 2883 2883 2883 2883 2883 2883 2883 1739 1722 1696 1696 1688 1688 1688 1688 1688 1688 1688 1688 1688 1696 1696 1696 1696 1705 1705 1705 1705 1705 1705 1705 1705 0 0 0 2859 2859 2883 2883 2883 2883 2883 2883 2883 2859 2859 2859 2859 2859 2859 2859 2859 2883 2883 2883 2883 2883 2883 2883 2883 2883 2883 2883 2883 2883 2883 2883 2883 2883 2883 2883 2883 2908 2908 2908 2908 2908 2908 2908 2908 2908 2908 2908 2908 2908 2908 2908 2883 2883 2908 2908 2908 2908 2908 2908 2908 2933 2933 2908 2908 2908 2908 2908 2908 2908 2908 2908 2908 2908 2908 2908 2908 2933 2933 2933 2933 2933 2933 2933 2933 2933 2933 2933 2933 2933 2933 2933 2908 2908 2908 2908 2883 2883 2883 2883 2883 2883 2883 2883 2883 2908 2908 2908 2908 2908 2908 2908 2883 2859 2859 2883 2883 2859 2859 2859 2883 2883 2883 2883 2883 2883 2883 2883 2883 2883 2883 2883 2883 0 0 0 0 0 0 0 0 0 0 0
0 0 0 0 0 0 0 0 0 0 0 0 0 0 0 0 0 0 0 0 0 0 0 0 0 0 0 0 0 0 0 0 0 2598 2598 2598 2579 2579 2579 2579 2598 2598 2598 2598 2598 2598 2598 2598 2598 2598 2579 2579 2579 2579 2579 2598 2598 2598 2598 2618 2618 2618 2618 2618 2618 2618 2618 2618 2618 2618 2618 2618 2618 2618 2618 2618 2618 2618 2618 2618 2618 2618 2618 2618 2618 2618 2639 2639 2639 2639 2639 2639 2639 2639 2639 2639 2639 2639 2639 2639 2639 2639 2618 1503 1503 1496 1496 1503 1503 1503 1503 1503 1509 1509 1509 1509 1509 1509 1509 1516 1523 1523 1529 1529 1529 1421 1421 1421 1421 1421 1427 1427 1427 1427 1427 1427 1433 1433 1433 1433 1439 1439 1439 1439 1445 1445 1439 1439 1439 1439 1445 1445 1445 1445 1445 1452 1452 1445 1445 1445 1445 1445 1445 1445 1445 1445 1445 1445 1445 1445 1445 1445 1452 1452 1452 1452 1452 1452 1452 1452 1452 1452 1452 1452 1452 1452 1452 1452 1452 1452 1452 1458 1458 1464 1464 1464 1470 1470 1470 1470 1470 1470 1470 1470 1470 1470 1470 1470 1470 1470 1470 1470 1470 1470 1470 1470 1470 1477 1477 1477 1477 1477 1477 1477 1483 1483 1483 1483 1489 1489 1489 1489 1489 1489 1489 1489 1489 1489 1489 1489 1489 1483 1483 1489 1483 1483 1483 1483 1483 1489 1489 1489 1489 1503 1509 1516 1523 0 0 0 0 2005 2005 2005 2005 2005 2005 2005 2005 2005 2016 2016 2028 2744 2767 2767 2789 2767 2767 2767 2767 1853 1843 1843 1833 1833 1833 1833 1823 1823 1823 1823 1823 1823 1823 1813 1813 1813 1813 1813 1823 1823 1823 1823 1823 1823 1445 1445 1445 1445 1445 1445 1445 1445 1445 1445 1445 1452 1452 1452 1464 1464 1470 1470 1464 1464 1470 1470 1470 1470 1470 1464 1464 1464 1464 1464 1464 1464 1464 1464 1464 1464 1464 1464 1464 1464 1464 1464 1464 1464 1470 1470 1470 1470 1470 1470 1470 1470 1470 1470 1470 1477 1477 1477 1483 1483 1483 1483 1483 1483 1483 1483 1483 1483 1483 1483 1483 1483 1483 1483 1489 1489 1489 1489 1489 1489 1489 1496 1496 1496 1496 1496 1496 1496 1496 1496 1503 1503 1503 1503 1503 1509 1509 1509 1509 1509 1509 1509 1509 1516 1516 1509 1509 1509 1509 1509 1509 1509 1496 1496 1503 1503 1503 1503 1503 1503 1509 0 1509 2883 2883 2883 2883 2883 2883 2883 2883 2883 2883 2883 2883 2883 2908 2908 2908 2883 2883 2883 2883 2883 2883 2883 2883 2883 2859 2859 2859 2859 2883 2883 2883 2883 2883 2883 2883 2883 2883 2883 1696 1696 1696 1696 1688 1688 1688 1688 1688 1688 1688 1688 1688 1696 1696 1696 1696 1705 1705 1705 1705 1705 1705 1705 1705 1705 0 2859 2859 2859 2859 2859 2883 2859 2859 2859 2859 2859 2859 2859 2859 2859 2859 2859 2859 2859 2883 2883 2883 2859 2859 2883 2883 2859 2859 2859 2859 2859 2859 2859 2859 2859 2859 2859 2859 2883 2908 2908 2908 2883 2883 2908 2883 2883 2883 2883 2883 2883 2883 2883 2883 2883 2883 2883 2883 2883 2883 2883 2908 2908 2908 2908 2908 2908 2883 2883 2883 2883 2883 2883 2883 2883 2883 2908 2908 2908 2908 2908 2908 2908 2908 2908 2908 2908 2908 2908 2933 2933 2933 2933 2883 2883 2883 2883 2883 2859 2859 2859 2883 2859 2859 2883 2883 2883 2908 2908 2883 2883 2883 2883 2859 2859 2859 2859 2859 2835 2835 2835 2859 2859 2859 2859 2859 2859 2859 2859 2859 2859 2859 2859 2859 0 0 0 0 0 0 0 0 0 0 0
0 0 0 0 0 0 0 0 0 0 0 0 0 0 0 0 0 0 0 0 0 0 0 0 0 0 0 0 0 0 0 0 0 2579 2579 2579 2579 2579 2579 2579 2579 2579 2579 2579 2579 2579 2579 2598 2598 2579 2579 2579 2579 2579 2579 2579 2598 2598 2598 2618 2618 2618 2618 2618 2618 2598 2598 2598 2598 2598 2598 2618 2618 2598 2598 2598 2598 2598 2598 2598 2598 2598 2618 2618 2618 2618 2618 2618 2618 2618 2618 2639 2639 2639 2639 2639 2639 2618 2618 2618 2618 2618 2618 1503 1503 1496 1496 1503 1503 1503 1503 1503 1509 1509 1509 1509 1509 1509 1509 1516 1523 1523 1529 1529 1536 1536 1421 1421 1421 1421 1427 1427 1427 1427 1427 1427 1433 1433 1433 1433 1439 1439 1445 1445 1445 1445 1445 1445 1445 1445 1445 1445 1445 1445 1452 1452 1452 1445 1445 1445 1445 1445 1445 1445 1445 1445 1452 1452 1452 1452 1452 1452 1452 1452 1452 1452 1452 1452 1452 1452 1452 1452 1452 1452 1452 1452 1452 1458 1458 1458 1458 1458 1464 1464 1464 1464 1470 1470 1470 1470 1470 1470 1470 1470 1470 1470 1470 1470 1470 1470 1470 1470 1470 1470 1470 1470 1477 1477 1477 1477 1477 1477 1477 1483 1483 1489 1489 1489 1496 1496 1496 1489 1489 1496 1496 1496 1496 1489 1489 1489 1489 1489 1489 1489 1489 1489 1483 1483 1489 1489 1489 1489 1496 1503 1503 1516 1523 0 0 0 1981 1981 2005 2005 2005 2005 2005 2005 2005 2016 2016 2016 2028 2744 2744 2744 2744 2744 2744 2744 2744 1853 1843 1833 1833 1823 1823 1823 1813 1813 1813 1813 1823 1813 1813 1813 1813 1813 1813 1813 1813 1813 1813 1813 1823 1823 1445 1445 1445 1445 1445 1445 1445 1445 1445 1445 1452 1452 1458 1458 1464 1464 1470 1470 1470 1470 1470 1470 1470 1470 1470 1464 1464 1464 1464 1464 1464 1464 1464 1464 1464 1464 1464 1464 1464 1464 1464 1464 1470 1470 1470 1470 1470 1470 1477 1477 1477 1477 1477 1477 1477 1477 1477 1483 1483 1483 1483 1483 1483 1483 1483 1483 1483 1483 1483 1483 1483 1483 1483 1489 1489 1489 1489 1489 1496 1496 1496 1503 1503 1503 1503 1503 1503 1503 1503 1503 1503 1503 1509 1509 1509 1509 1509 1509 1509 1509 1509 1509 1516 1516 1516 1516 1516 1509 1509 1509 1509 1509 1503 1503 1503 1503 1503 1503 1503 1503 1509 1509 0 2859 2859 2859 2859 2859 2883 2883 2883 2883 2883 2883 2883 2883 2883 2883 2883 2883 2883 2883 2859 2859 2859 2859 2859 2859 2859 2859 2859 2859 2859 2859 2859 2859 2859 2859 2883 2859 2859 2859 1696 1696 1688 1688 1688 1688 1688 1688 1688 1688 1688 1688 1696 1696 1696 1696 1696 1705 1705 1705 1705 1713 1713 1713 1713 0 0 2859 2859 2859 2859 2859 2859 2859 2859 2859 2859 2859 2859 2859 2859 2859 2859 2859 2859 2859 2859 2859 2859 2859 2859 2859 2859 2859 2859 2859 2859 2859 2859 2859 2859 2859 2859 2859 2859 2859 2883 2883 2883 2883 2883 2883 2883 2859 2859 2859 2859 2859 2859 2859 2859 2859 2859 2859 2859 2883 2883 2883 2883 2908 2908 2908 2883 2883 2883 2883 2883 2883 2883 2883 2883 2883 2883 2883 2883 2883 2883 2883 2883 2883 2908 2908 2908 2908 2908 2908 2908 2908 2933 2908 2859 2859 2859 2859 2859 2835 2835 2859 2859 2859 2859 2859 2859 2883 2883 2859 2859 2859 2859 2859 2835 2835 2835 2835 2859 2835 2835 2835 2859 2859 2859 2835 2835 2859 2859 2835 2835 2835 2835 2835 2835 0 0 0 0 0 0 0 0 0 0 0
0 0 0 0 0 0 0 0 0 0 0 0 0 0 0 0 0 0 0 0 0 0 0 0 0 0 0 0 0 0 0 0 0 2560 2560 2560 2560 2560 2560 2560 2579 2560 2560 2560 2560 2579 2579 2579 2579 2579 2579 2579 2579 2579 2579 2579 2598 2598 2598 2598 2598 2598 2598 2598 2598 2579 2579 2579 2579 2579 2579 2598 2598 2598 2598 2598 2598 2598 2598 2598 2598 2598 2618 2618 2618 2618 2618 2618 2618 2618 2618 2618 2618 2618 2618 2618 2618 2618 2618 2618 2598 2598 2598 2598 1496 1496 1496 1503 1503 1503 1503 1509 1509 1509 1509 1509 1509 1509 1509 1516 1523 1529 1529 1529 1536 1536 1427 1427 1427 1427 1427 1427 1427 1427 1427 1427 1433 1433 1433 1439 1439 1439 1445 1445 1445 1445 1445 1445 1445 1445 1445 1445 1445 1445 1452 1452 1452 1445 1445 1445 1445 1445 1445 1445 1445 1452 1452 1452 1452 1452 1452 1452 1458 1458 1458 1458 1458 1458 1458 1458 1452 1452 1452 1458 1458 1458 1458 1458 1458 1458 1458 1458 1464 1464 1464 1464 1470 1470 1470 1470 1470 1470 1470 1470 1470 1470 1477 1470 1470 1470 1470 1470 1470 1470 1477 1477 1477 1477 1477 1477 1477 1477 1483 1483 1489 1489 1489 1496 1496 1496 1496 1496 1496 1496 1496 1496 1496 1496 1496 1496 1496 1496 1496 1496 1489 1489 1489 1489 1489 1489 1489 1489 1496 1496 1503 1516 0 0 0 0 1981 1981 2005 2005 2005 2005 2005 2005 2016 2016 2016 2016 1993 1993 1993 2744 2744 2744 2744 2744 2723 1853 1843 1833 1813 1813 1813 1804 1804 1804 1804 1813 1813 1804 1804 1804 1804 1804 1804 1804 1804 1804 1804 1804 1804 1804 1445 1445 1445 1445 1445 1445 1445 1445 1445 1445 1452 1458 1458 1464 1464 1464 1470 1470 1470 1470 1470 1470 1470 1470 1470 1464 1464 1464 1464 1464 1464 1464 1464 1464 1464 1470 1470 1470 1470 1470 1470 1470 1470 1470 1470 1470 1477 1477 1477 1477 1477 1477 1477 1477 1483 1477 1477 1483 1483 1483 1483 1483 1483 1483 1483 1483 1483 1483 1489 1489 1489 1489 1489 1489 1489 1489 1489 1489 1496 1496 1496 1503 1503 1503 1503 1503 1503 1503 1503 1503 1503 1503 1509 1509 1509 1509 1509 1509 1509 1509 1509 1516 1516 1516 1516 1516 1516 1516 1509 1509 1509 1509 1503 1503 1503 1503 1503 1503 1503 1503 1509 1509 0 2859 2859 2859 2859 2859 2859 2859 2859 2859 2859 2883 2859 2859 2883 2883 2883 2859 2859 2859 2859 2859 2859 2859 2859 2859 2859 2859 2859 2859 2859 2859 2859 2859 2859 2859 2859 2859 2859 2859 1696 1696 1688 1688 1688 1688 1688 1688 1688 1688 1688 1688 1696 1696 1696 1705 1705 1713 1713 1713 1713 1713 1713 1713 1713 0 0 2859 2859 2859 2859 2859 2859 2859 2859 2859 2859 2859 2859 2859 2835 2835 2859 2859 2859 2859 2859 2859 2859 2859 2859 2859 2859 2859 2859 2859 2859 2859 2859 2859 2859 2859 2859 2859 2859 2859 2859 2883 2859 2859 2859 2883 2883 2859 2859 2859 2859 2859 2859 2859 2859 2859 2859 2859 2859 2859 2859 2883 2883 2883 2883 2883 2883 2883 2859 2859 2883 2859 2859 2883 2883 2883 2883 2883 2883 2859 2859 2883 2883 2883 2883 2883 2883 2883 2883 2883 2883 2908 2908 2908 2859 2859 2859 2835 2835 2835 2835 2835 2835 2835 2835 2859 2859 2859 2859 2859 2835 2835 2835 2835 2835 2835 2835 2835 2835 2835 2835 2835 2835 2835 2835 2835 2835 2835 2835 2835 2835 2812 2812 2835 2835 0 0 0 0 0 0 0 0 0 0 0
0 0 0 0 0 0 0 0 0 0 0 0 0 0 0 0 0 0 0 0 0 0 0 0 0 0 0 0 0 0 0 0 0 2560 2560 2560 2560 2560 2560 2560 2560 2560 2560 2560 2560 2560 2560 2560 2560 2560 2560 2560 2579 2579 2579 2579 2579 2579 2598 2598 2579 2579 2579 2579 2579 2560 2560 2560 2560 2579 2579 2579 2579 2579 2579 2598 2598 2598 2598 2598 2598 2598 2618 2618 2618 2618 2618 2618 2618 2618 2618 2618 2618 2618 2618 2618 2618 2618 2618 2618 2598 2598 2598 2598 2598 1503 1503 1503 1503 1509 1509 1509 1509 1509 1509 1509 1509 1516 1516 1516 1523 1523 1529 1529 1529 1536 1427 1427 1427 1427 1427 1427 1427 1427 1427 1433 1433 1433 1439 1439 1439 1445 1452 1452 1452 1452 1452 1452 1452 1452 1452 1452 1452 1452 1452 1452 1452 1445 1445 1445 1445 1445 1445 1452 1452 1452 1452 1452 1452 1452 1452 1452 1458 1458 1458 1458 1458 1458 1458 1458 1458 1458 1458 1458 1458 1458 1458 1458 1458 1458 1464 1464 1464 1464 1464 1470 1470 1470 1470 1470 1470 1470 1477 1477 1470 1470 1477 1470 1470 1470 1470 1477 1477 1477 1477 1477 1477 1477 1477 1477 1483 1483 1483 1489 1496 1496 1496 1496 1496 1496 1496 1496 1496 1496 1496 1496 1496 1496 1496 1496 1496 1496 1496 1496 1489 1489 1489 1489 1489 1489 1489 1489 1496 1496 1496 0 0 0 0 0 1993 1993 2005 2005 2005 2005 2016 2016 2016 2016 2016 2016 1981 1981 1981 2744 2744 2723 2723 2723 2723 2723 2723 2723 1813 1813 1804 1804 1804 1804 1804 1804 1804 1804 1804 1804 1804 1804 1804 1804 1804 1804 1804 1804 1804 1804 1804 1445 1445 1445 1445 1445 1445 1445 1445 1452 1458 1464 1464 1464 1470 1470 1470 1470 1470 1470 1470 1470 1470 1470 1470 1464 1464 1464 1464 1464 1464 1470 1470 1470 1470 1470 1470 1470 1470 1470 1470 1470 1470 1477 1477 1477 1477 1477 1477 1477 1477 1483 1483 1483 1483 1483 1483 1483 1483 1483 1483 1483 1483 1483 1483 1483 1489 1489 1489 1489 1489 1489 1489 1489 1489 1489 1496 1496 1496 1503 1503 1503 1503 1503 1503 1509 1509 1503 1503 1503 1509 1509 1509 1509 1509 1509 1516 1516 1516 1516 1516 1516 1516 1516 1516 1516 1516 1516 1516 1509 1509 1509 1503 1503 1503 1503 1503 1503 1503 1503 1509 1509 0 2859 2859 2859 2859 2859 2859 2859 2859 2859 2859 2859 2859 2859 2859 2859 2859 2859 2859 2859 2859 2859 2859 2859 2859 2859 2859 2859 2859 2859 2859 2859 2859 2859 2859 2859 2859 2859 2859 2859 1696 1696 1696 1688 1688 1688 1688 1688 1688 1688 1688 1696 1705 1705 1705 1705 1713 1713 1713 1713 1713 1713 1713 1713 1713 0 2812 2859 2859 2859 2859 2859 2859 2859 2859 2859 2835 2835 2835 2835 2835 2835 2835 2835 2835 2859 2835 2835 2859 2835 2835 2835 2835 2835 2835 2835 2835 2835 2835 2835 2835 2835 2835 2835 2859 2859 2859 2859 2859 2859 2859 2859 2859 2859 2859 2859 2859 2859 2859 2859 2859 2859 2859 2859 2859 2859 2859 2859 2859 2883 2883 2883 2859 2859 2859 2859 2859 2859 2859 2859 2859 2859 2859 2859 2859 2859 2859 2859 2859 2859 2859 2883 2883 2883 2859 2859 2883 2883 2883 2883 2835 2835 2835 2835 2835 2835 2835 2835 2835 2835 2835 2859 2859 2859 2859 2835 2835 2835 2835 2835 2835 2835 2835 2835 2835 2835 2835 2835 2835 2835 2835 2835 2835 2835 2835 2812 2812 2812 2812 2835 2835 0 0 0 0 0 0 0 0 0 0 0
0 0 0 0 0 0 0 0 0 0 0 0 0 0 0 0 0 0 0 0 0 0 0 0 0 0 0 0 0 0 0 0 0 2560 2560 2560 2560 2560 2560 2560 2560 2560 2560 2560 2560 2560 2560 2560 2560 2560 2560 2560 2560 2560 2560 2579 2579 2579 2579 2579 2579 2579 2579 2579 2579 2560 2560 2560 2560 2560 2560 2579 2560 2560 2579 2579 2579 2579 2579 2579 2598 2598 2598 2598 2598 2618 2618 2598 2598 2598 2598 2598 2598 2598 2598 2598 2598 2598 2598 2618 2598 2598 2598 2598 0 1503 1503 1503 1503 1509 1509 1509 1509 1509 1509 1509 1509 1516 1516 1516 1523 1523 1529 1529 1529 1536 1427 1427 1427 1427 1427 1427 1433 1433 1433 1433 1433 1433 1439 1439 1439 1445 1452 1452 1452 1452 1452 1452 1452 1452 1452 1452 1452 1452 1452 1452 1452 1445 1445 1445 1452 1452 1452 1452 1452 1452 1452 1452 1458 1458 1458 1458 1464 1464 1458 1458 1458 1458 1464 1458 1458 1458 1458 1458 1464 1464 1464 1464 1464 1464 1464 1464 1464 1470 1470 1470 1470 1470 1470 1470 1470 1477 1477 1477 1477 1477 1477 1477 1477 1477 1477 1477 1477 1477 1477 1477 1477 1477 1477 1477 1483 1483 1483 1489 1496 1496 1496 1496 1496 1496 1496 1496 1496 1496 1503 1503 1496 1496 1496 1496 1496 1496 1496 1496 1489 1489 1489 1489 1489 1489 1489 1489 1496 1496 1496 0 0 0 0 1981 1981 1981 1993 2005 2005 2005 2016 2016 2016 2016 2016 2016 1981 1981 1981 2723 2723 2723 2723 2723 2723 2723 2723 2723 1804 1804 1804 1794 1794 1794 1794 1794 1794 1794 1794 1794 1794 1794 1794 1794 1794 1804 1804 1804 1794 1794 1794 1452 1452 1445 1445 1452 1452 1452 1452 1458 1464 1464 1464 1464 1470 1470 1470 1470 1470 1470 1470 1470 1470 1477 1477 1470 1470 1470 1470 1470 1470 1470 1470 1470 1470 1470 1470 1470 1470 1470 1477 1477 1477 1477 1477 1477 1477 1477 1483 1483 1483 1483 1483 1483 1483 1483 1483 1483 1483 1483 1483 1483 1489 1489 1489 1489 1489 1489 1489 1489 1489 1489 1496 1496 1496 1496 1496 1496 1496 1503 1503 1503 1509 1509 1509 1509 1509 1509 1509 1509 1509 1509 1509 1509 1509 1509 1516 1516 1516 1516 1516 1516 1516 1516 1516 1516 1516 1516 1516 1516 1509 1509 1503 1503 1503 1503 1503 1503 1503 1503 1509 0 2767 0 2835 2835 2835 2835 2835 2835 2835 2859 2859 2859 2859 2859 2859 2859 2859 2859 2859 2859 2859 2859 2859 2835 2835 2835 2835 2835 2859 2835 2835 2835 2835 2859 2859 2859 2859 2859 2859 2859 1705 1696 1696 1688 1688 1688 1688 1688 1688 1688 1696 1696 1705 1705 1705 1713 1713 1713 1713 1713 1713 1713 1713 1713 1713 2835 2812 2812 2812 2835 2835 2859 2859 2835 2835 2835 2835 2835 2835 2835 2835 2835 2835 2835 2835 2835 2835 2835 2835 2835 2835 2835 2835 2835 2835 2835 2835 2835 2835 2835 2835 2835 2835 2835 2835 2835 2835 2859 2835 2835 2859 2859 2859 2859 2859 2859 2859 2859 2859 2859 2859 2859 2859 2859 2859 2859 2859 2859 2859 2859 2859 2859 2859 2859 2859 2859 2859 2859 2859 2859 2859 2859 2859 2859 2859 2859 2859 2859 2859 2859 2859 2859 2859 2859 2859 2859 2859 2859 2859 2859 2835 2835 2835 2835 2835 2835 2835 2835 2835 2835 2835 2835 2835 2835 2835 2835 2835 2835 2835 2835 2835 2835 2835 2835 2835 2835 2835 2835 2835 2835 2812 2812 2812 2812 2812 2812 2812 2812 2812 2812 2812 2812 0 0 0 0 0 0 0 0 0 0
0 0 0 0 0 0 0 0 0 0 0 0 0 0 0 0 0 0 0 0 0 0 0 0 0 0 0 0 0 0 0 0 0 2541 2541 2541 2541 2541 2541 2560 2560 2560 2560 2560 2560 2560 2560 2560 2560 2560 2560 2560 2560 2560 2560 2560 2560 2560 2579 2560 2560 2560 2560 2560 2579 2541 2541 2541 2560 2560 2560 2560 2560 2560 2560 2560 2560 2560 2560 2579 2579 2579 2598 2598 2598 2598 2598 2598 2598 2598 2598 2598 2598 2598 2598 2598 2598 2598 2598 2618 2598 2598 2618 2618 0 1503 1503 1503 1503 1509 1509 1509 1509 1516 1516 1516 1516 1516 1516 1523 1529 1529 1529 1529 1529 1536 1427 1427 1427 1427 1427 1433 1433 1433 1433 1433 1433 1433 1439 1439 1439 1439 1452 1452 1452 1452 1452 1452 1452 1452 1452 1452 1452 1452 1452 1458 1458 1445 1445 1445 1452 1452 1452 1452 1452 1452 1458 1458 1458 1458 1458 1458 1464 1464 1464 1464 1464 1464 1464 1464 1464 1464 1464 1464 1464 1464 1464 1464 1470 1470 1470 1470 1470 1470 1470 1470 1470 1470 1470 1470 1470 1477 1477 1477 1477 1477 1477 1477 1477 1477 1477 1477 1477 1477 1477 1477 1477 1477 1477 1477 1489 1489 1489 1489 1496 1496 1496 1496 1496 1496 1496 1496 1496 1496 1503 1503 1503 1503 1503 1503 1503 1496 1496 1496 1489 1489 1489 1489 1489 1489 1489 1489 1496 1496 0 0 0 0 0 1981 1981 1981 1993 2005 2005 2016 2016 2016 2016 2016 2016 2005 1981 1981 1993 2723 2723 2723 2723 2723 2701 2701 2723 2723 1804 1785 1785 1785 1785 1785 1794 1794 1785 1785 1785 1785 1785 1785 1785 1785 1785 1794 1794 1794 1794 1794 1452 1452 1452 1452 1452 1452 1452 1452 1458 1458 1464 1464 1464 1470 1470 1470 1477 1477 1477 1477 1477 1477 1477 1477 1477 1477 1477 1477 1477 1477 1477 1477 1477 1477 1477 1477 1477 1477 1477 1477 1477 1477 1477 1477 1483 1483 1483 1483 1483 1483 1483 1483 1483 1483 1483 1483 1483 1489 1489 1489 1489 1489 1489 1489 1489 1489 1489 1489 1496 1489 1489 1496 1496 1496 1496 1496 1496 1496 1496 1503 1503 1503 1509 1509 1509 1509 1509 1509 1509 1509 1509 1509 1516 1509 1509 1516 1516 1516 1516 1516 1516 1516 1516 1523 1523 1516 1516 1516 1516 1516 1516 1516 1503 1503 1509 1503 1503 1503 1503 1503 1503 0 0 2767 2767 2789 2789 2812 2812 2812 2835 2835 2859 2859 2859 2859 2859 2859 2859 2859 2859 2859 2859 2835 2835 2835 2835 2835 2835 2835 2835 2835 2835 2835 2835 2835 2835 2859 2835 2835 2835 1705 1705 1696 1696 1688 1688 1688 1688 1688 1688 1688 1696 1705 1705 1705 1713 1713 1713 1713 1713 1713 1713 1713 1713 1713 1713 2835 2835 2812 2812 2835 2835 2835 2859 2835 2835 2835 2835 2835 2835 2835 2835 2835 2835 2835 2835 2835 2835 2835 2835 2835 2835 2835 2835 2835 2835 2835 2835 2835 2835 2835 2835 2835 2835 2835 2835 2835 2835 2835 2835 2835 2835 2835 2835 2835 2835 2859 2859 2859 2835 2835 2835 2835 2835 2835 2835 2859 2859 2859 2859 2859 2859 2859 2859 2859 2859 2859 2859 2859 2859 2859 2859 2859 2859 2835 2835 2859 2859 2859 2859 2859 2859 2859 2859 2859 2835 2835 2859 2859 2859 2859 2835 2835 2835 2835 2835 2835 2835 2812 2812 2812 2812 2835 2835 2835 2812 2812 2835 2835 2835 2835 2835 2835 2835 2835 2835 2835 2835 2812 2812 2812 2812 2812 2812 2789 2789 2812 2789 2789 2812 2812 2812 2812 0 0 0 0 0 0 0 0 0 0
0 0 0 0 0 0 0 0 0 0 0 0 0 0 0 0 0 0 0 0 0 0 0 0 0 0 0 0 0 0 0 0 0 2541 2541 2541 2541 2541 2541 2541 2541 2541 2541 2541 2541 2541 2541 2541 2541 2541 2560 2560 2560 2560 2560 2560 2560 2560 2560 2560 2560 2560 2560 2560 2560 2541 2541 2541 2541 2541 2541 2541 2541 2541 2541 2541 2541 2541 2560 2560 2560 2560 2579 2579 2579 2579 2579 2579 2579 2598 2598 2579 2579 2579 2579 2579 2579 2579 2598 2598 2598 2598 2618 2618 2618 1503 1503 1503 1503 1509 1509 1509 1509 1516 1516 1516 1516 1523 1523 1523 1529 1529 1529 1529 1529 1529 1433 1433 1427 1427 1433 1433 1433 1433 1433 1433 1433 1433 1439 1439 1439 1439 1452 1452 1452 1452 1452 1452 1452 1452 1452 1458 1458 1458 1458 1458 1458 1452 1452 1452 1452 1452 1452 1458 1458 1458 1458 1464 1464 1464 1464 1464 1464 1464 1464 1464 1464 1464 1464 1464 1464 1464 1464 1464 1464 1464 1470 1470 1470 1470 1470 1470 1470 1470 1470 1470 1470 1470 1477 1477 1477 1477 1477 1477 1483 1483 1483 1483 1483 1483 1483 1483 1483 1483 1477 1477 1477 1477 1477 1477 1483 1489 1489 1489 1496 1496 1496 1496 1496 1496 1496 1496 1503 1503 1503 1503 1503 1503 1503 1503 1503 1496 1496 1496 1489 1489 1489 1489 1496 1496 1496 1496 1496 1496 0 0 0 0 0 1993 1993 1993 2005 2005 2005 2016 2016 2016 2016 2016 2005 1993 1981 1981 1993 2723 2723 2723 2723 2701 2701 2701 2701 2701 1776 1776 1776 1776 1776 1776 1785 1785 1785 1785 1776 1776 1785 1785 1785 1785 1785 1785 1785 1785 1785 1785 1452 1452 1458 1458 1458 1458 1458 1458 1458 1458 1464 1464 1470 1470 1470 1477 1477 1477 1477 1477 1477 1477 1477 1477 1483 1477 1477 1483 1483 1483 1483 1483 1483 1483 1483 1483 1483 1483 1483 1483 1483 1483 1483 1483 1483 1483 1483 1483 1483 1483 1483 1483 1483 1483 1489 1489 1489 1489 1489 1489 1489 1489 1489 1489 1489 1489 1496 1496 1496 1496 1496 1496 1496 1496 1496 1496 1496 1503 1503 1503 1503 1509 1509 1509 1509 1516 1516 1516 1509 1509 1516 1516 1516 1516 1516 1516 1516 1516 1516 1516 1516 1516 1516 1523 1516 1516 1516 1516 1516 1516 1516 1516 1509 1509 1509 1503 1503 1503 1509 0 1509 0 2767 2767 2767 2767 2767 2789 2789 2789 2812 2812 2835 2835 2859 2859 2859 2859 2859 2835 2835 2835 2835 2835 2835 2812 2812 2812 2812 2812 2812 2812 2812 2812 2812 2835 2835 2835 2835 2835 2835 1696 1696 1696 1696 1688 1688 1688 1688 1688 1696 1696 1696 1705 1705 1713 1713 1713 1713 1713 1722 1722 1722 1713 1713 1713 1713 2835 2835 2835 2835 2835 2835 2835 2835 2835 2835 2835 2835 2835 2835 2812 2812 2812 2812 2812 2835 2835 2835 2835 2835 2812 2812 2812 2812 2812 2812 2812 2812 2812 2812 2812 2812 2812 2812 2812 2812 2812 2812 2812 2812 2812 2812 2835 2835 2835 2835 2835 2835 2835 2835 2835 2835 2835 2835 2835 2835 2835 2835 2835 2835 2835 2859 2859 2859 2859 2859 2859 2859 2835 2835 2835 2835 2835 2835 2835 2835 2835 2835 2835 2859 2835 2835 2835 2835 2835 2835 2835 2835 2835 2835 2835 2835 2835 2835 2812 2812 2812 2812 2812 2812 2812 2812 2812 2812 2812 2812 2812 2812 2812 2812 2835 2835 2835 2835 2835 2835 2835 2835 2812 2812 2789 2789 2789 2789 2789 2789 2789 2767 2767 2789 2789 2789 2789 0 0 0 0 0 0 0 0 0 0
0 0 0 0 0 0 0 0 0 0 0 0 0 0 0 0 0 0 0 0 0 0 0 0 0 0 0 0 0 0 0 0 0 2541 2541 2541 2541 2541 2541 2541 2541 2541 2541 2541 2541 2541 2541 2541 2541 2541 2541 2541 2560 2560 2560 2560 2560 2560 2560 2560 2560 2560 2560 2560 2560 2541 2541 2541 2541 2541 2541 2541 2541 2541 2541 2541 2541 2541 2541 2541 2560 2560 2560 2560 2560 2579 2579 2579 2579 2579 2579 2579 2579 2579 2560 2560 2579 2579 2579 2598 2598 2598 2598 2618 2618 1503 1503 1503 1503 1509 1509 1509 1509 1516 1516 1516 1523 1523 1523 1523 1529 1529 1529 1529 1529 1529 1433 1433 1433 1433 1433 1433 1433 1433 1433 1433 1433 1433 1439 1445 1445 1445 1452 1452 1452 1452 1452 1452 1452 1452 1452 1458 1458 1458 1458 1458 1458 1452 1452 1452 1452 1458 1458 1458 1464 1464 1464 1464 1464 1464 1464 1470 1470 1470 1470 1470 1464 1464 1464 1464 1464 1464 1464 1464 1464 1470 1470 1470 1470 1470 1470 1470 1470 1470 1470 1470 1477 1477 1477 1477 1477 1477 1477 1477 1483 1483 1483 1483 1483 1483 1489 1489 1489 1483 1483 1483 1477 1477 1477 1477 1477 1483 1483 1489 1489 1489 1496 1496 1496 1496 1503 1757 1748 1748 1748 1748 1748 1503 1503 1503 1503 1496 1496 1496 1496 1496 1496 1496 1496 1496 1496 1496 1496 1496 0 0 0 0 0 1993 1993 2005 2005 2005 2016 2016 2016 2016 2016 2016 2005 1993 1981 1981 1993 2701 2701 2723 2723 2701 2701 2701 2701 0 1766 1766 1766 1776 1776 1776 1776 1776 1776 1776 1776 1776 1776 1776 1776 1776 1776 1776 1785 1785 1785 1785 1452 1452 1458 1458 1458 1458 1458 1458 1458 1464 1464 1464 1470 1470 1477 1477 1483 1483 1483 1483 1483 1483 1483 1483 1483 1483 1483 1483 1483 1483 1483 1483 1483 1483 1483 1483 1483 1483 1483 1483 1483 1483 1483 1483 1483 1483 1483 1483 1483 1489 1489 1489 1489 1489 1489 1489 1489 1489 1489 1489 1489 1489 1496 1489 1489 1489 1496 1496 1496 1496 1503 1503 1503 1503 1503 1503 1503 1509 1509 1509 1509 1509 1509 1509 1509 1516 1516 1516 1516 1516 1516 1516 1516 1516 1516 1516 1516 1516 1516 1516 1516 1516 1516 1523 1516 1516 1516 1516 1516 1516 1516 1516 1509 1509 1509 1503 1503 1503 0 1503 0 0 2767 2767 2767 2767 2767 2767 2789 2789 2789 2789 2812 2812 2812 2812 2835 2835 2835 2812 2812 2812 2812 2812 2789 2789 2789 2789 2789 2789 2789 2789 2812 2812 2812 2812 2812 2812 2812 2812 2812 1688 1688 1688 1696 1696 1696 1696 1696 1696 1696 1696 1705 1705 1713 1713 1713 1713 1713 1713 1722 1722 1722 1713 1713 1713 2812 2812 2812 2835 2835 2812 2812 2835 2835 2812 2812 2812 2812 2812 2812 2812 2812 2812 2812 2812 2812 2812 2789 2789 2812 2812 2812 2812 2812 2812 2812 2812 2812 2812 2812 2812 2812 2812 2812 2812 2812 2812 2812 2812 2812 2812 2812 2812 2812 2812 2835 2835 2835 2835 2835 2835 2835 2835 2835 2835 2835 2835 2835 2835 2835 2835 2835 2835 2835 2835 2835 2835 2835 2835 2835 2835 2835 2835 2835 2835 2835 2835 2835 2835 2835 2835 2835 2835 2835 2835 2835 2835 2835 2835 2835 2835 2835 2835 2835 2812 2812 2812 2812 2812 2812 2812 2812 2812 2812 2812 2812 2812 2812 2812 2812 2812 2812 2835 2835 2835 2812 2812 2812 2812 2789 2767 2767 2789 2767 2767 2767 2767 2767 2767 2767 2767 2767 2767 0 0 0 0 0 0 0 0 0 0
0 0 0 0 0 0 0 0 0 0 0 0 0 0 0 0 0 0 0 0 0 0 0 0 0 0 0 0 0 0 0 0 0 2541 2541 2541 2541 2541 2541 2541 2541 2541 2541 2541 2541 2541 2522 2522 2522 2541 2541 2541 2541 2541 2541 2541 2541 2541 2541 2541 2541 2541 2541 2541 2541 2522 2522 2522 2522 2541 2541 2541 2541 2541 2541 2541 2541 2541 2541 2541 2541 2541 2541 2541 2560 2560 2560 2560 2560 2579 2579 2579 2579 2579 2560 2560 2560 2560 2579 2579 2598 2598 2598 2618 2618 2618 1503 1503 1503 1509 1509 1509 1516 1516 1516 1516 1523 1523 1523 1523 1529 1529 1529 1529 1529 1529 1536 1433 1433 1433 1433 1433 1433 1439 1433 1433 1439 1439 1439 1445 1445 1445 1452 1452 1452 1452 1452 1452 1452 1452 1452 1458 1458 1458 1458 1458 1458 1452 1452 1452 1452 1458 1458 1464 1464 1464 1470 1470 1470 1470 1470 1470 1470 1470 1470 1470 1470 1470 1464 1464 1464 1464 1464 1464 1470 1470 1470 1470 1470 1477 1470 1470 1470 1470 1477 1477 1477 1477 1477 1483 1483 1483 1483 1483 1483 1483 1483 1483 1483 1483 1489 1489 1489 1489 1483 1483 1477 1477 1477 1477 1477 1483 1483 1489 1489 1489 1496 1757 1757 1748 1748 1748 1748 1748 1748 1748 1748 1748 1503 1503 1503 1496 1496 1496 1496 1496 1496 1496 1496 1496 1496 1496 1496 1503 0 0 0 0 0 2005 2005 2005 2005 2016 2016 2016 2016 2016 2016 2016 2016 2016 1981 1981 2701 2701 2701 2701 2701 2701 2701 2701 2701 1894 1766 1766 1766 1776 1776 1776 1776 1776 1776 1776 1776 1776 1776 1776 1776 1776 1776 1776 1776 1776 1785 1785 1458 1458 1458 1464 1464 1458 1458 1458 1464 1464 1464 1464 1470 1470 1477 1477 1483 1483 1483 1483 1483 1483 1483 1483 1489 1483 1483 1483 1483 1483 1483 1483 1483 1483 1483 1483 1483 1483 1483 1483 1483 1483 1483 1483 1489 1489 1489 1489 1489 1489 1489 1489 1489 1489 1489 1489 1489 1489 1496 1496 1496 1496 1496 1496 1496 1496 1496 1496 1503 1503 1503 1503 1503 1503 1503 1503 1503 1509 1509 1509 1509 1509 1509 1509 1509 1509 1516 1516 1516 1516 1516 1523 1523 1523 1523 1516 1516 1523 1516 1516 1516 1523 1523 1523 1523 1523 1523 1523 1516 1516 1516 1516 1516 1516 1516 1509 1509 1509 0 0 0 0 2767 2767 2767 2767 2767 2767 2789 2789 2789 2789 2789 2789 2789 2812 2812 2812 2812 2812 2812 2789 2789 2789 2789 2789 2789 2789 2789 2789 2789 2789 2789 2789 2789 2789 2789 2789 2789 2789 0 1688 1688 1688 1696 1696 1696 1696 1696 1696 1705 1705 1705 1713 1713 1713 1713 1713 1713 1722 1722 1722 1722 1722 1713 1713 2789 2789 2812 2812 2812 2812 2812 2812 2812 2789 2789 2789 2789 2789 2789 2789 2789 2789 2789 2789 2789 2789 2789 2789 2789 2789 2789 2789 2789 2789 2812 2789 2789 2789 2789 2789 2789 2789 2789 2789 2789 2789 2789 2789 2789 2789 2789 2812 2812 2812 2812 2812 2835 2835 2835 2835 2835 2835 2835 2835 2835 2835 2835 2812 2812 2812 2812 2835 2835 2835 2835 2835 2835 2835 2835 2812 2812 2812 2812 2835 2812 2812 2835 2835 2835 2812 2812 2812 2812 2812 2812 2812 2835 2835 2835 2835 2835 2835 2835 2812 2812 2812 2812 2812 2812 2812 2812 2812 2812 2812 2812 2812 2812 2812 2812 2812 2812 2812 2812 2812 2812 2812 2789 2789 2767 2767 2767 2767 2767 2767 2767 2767 2744 2744 2767 2767 2767 2767 0 0 0 0 0 0 0 0 0 0
0 0 0 0 0 0 0 0 0 0 0 0 0 0 0 0 0 0 0 0 0 0 0 0 0 0 0 0 0 0 0 0 0 2522 2522 2541 2541 2541 2541 2541 2541 2522 2522 2522 2522 2522 2522 2503 2503 2522 2522 2522 2522 2522 2541 2541 2541 2541 2541 2541 2541 2541 2541 2541 2541 2522 2522 2522 2522 2522 2522 2522 2522 2522 2522 2522 2522 2522 2522 2541 2541 2541 2541 2541 2541 2541 2541 2541 2541 2560 2560 2560 2560 2560 2560 2560 2560 2560 2560 2579 2579 2579 2598 2618 2618 0 1503 1503 1503 1509 1509 1516 1516 1516 1523 1523 1523 1523 1523 1529 1529 1529 1529 1529 1529 1529 1536 1433 1433 1433 1433 1433 1439 1439 1439 1439 1439 1439 1445 1445 1445 1445 1452 1452 1452 1452 1452 1452 1452 1452 1452 1458 1458 1458 1458 1458 1458 1452 1452 1452 1458 1458 1458 1464 1464 1464 1470 1470 1470 1470 1470 1470 1470 1470 1470 1470 1470 1464 1464 1464 1464 1464 1464 1464 1470 1470 1470 1477 1477 1477 1477 1477 1477 1477 1477 1477 1477 1477 1483 1483 1483 1483 1483 1483 1483 1483 1483 1483 1483 1483 1489 1489 1489 1489 1489 1489 1483 1483 1739 1739 1739 1739 1748 1748 1748 1748 1748 1748 1748 1748 1748 1748 1748 1748 1748 1748 1748 1748 1748 1748 1503 1496 1496 1496 1496 1496 1496 1496 1503 1503 1503 1503 1503 0 0 0 0 0 0 2005 2005 2016 2016 2016 2016 2016 2016 2016 2016 2016 2016 2016 1981 1981 2680 2680 2701 2701 2701 2701 2701 2701 2701 1894 1894 1766 1766 1766 1766 1766 1766 1766 1766 1766 1766 1766 1766 1766 1766 1766 1766 1766 1776 1776 1776 1776 1458 1458 1464 1464 1464 1464 1464 1464 1464 1464 1464 1470 1470 1470 1477 1483 1483 1483 1483 1483 1483 1483 1483 1489 1489 1483 1483 1483 1483 1483 1483 1483 1483 1483 1483 1483 1483 1483 1483 1483 1483 1489 1489 1489 1489 1489 1489 1489 1489 1489 1489 1489 1489 1489 1489 1489 1489 1489 1496 1496 1496 1496 1496 1496 1496 1496 1496 1496 1503 1503 1503 1503 1503 1509 1503 1503 1509 1509 1509 1509 1509 1509 1509 1509 1509 1509 1509 1516 1516 1516 1516 1523 1523 1523 1523 1516 1516 1523 1516 1516 1523 1523 1523 1529 1529 1523 1523 1523 1523 1523 1523 1523 1516 1516 1516 1516 1516 0 0 0 0 0 2767 2767 2767 2767 2767 2767 2767 2789 2789 2789 2789 2789 2789 2789 2789 2789 2789 2789 2789 2789 2789 2789 2789 2789 2789 2789 2789 2789 2789 2789 2789 2789 2789 2789 2789 2789 2789 2789 0 1688 1688 1688 1696 1696 1696 1696 1696 1705 1705 1705 1705 1713 1713 1713 1713 1713 1713 1722 1722 1722 1722 1722 1713 1713 2789 2789 2812 2812 2812 2789 2789 2789 2789 2767 2767 2767 2767 2767 2767 2767 2767 2767 2767 2767 2767 2767 2767 2767 2767 2789 2767 2767 2789 2789 2789 2789 2789 2789 2767 2767 2767 2767 2767 2789 2789 2767 2767 2767 2789 2767 2767 2789 2789 2789 2789 2812 2812 2812 2812 2812 2812 2812 2812 2812 2812 2812 2812 2812 2812 2812 2812 2812 2835 2835 2835 2835 2835 2812 2812 2789 2789 2812 2812 2812 2812 2812 2812 2835 2812 2789 2789 2789 2789 2789 2812 2812 2812 2835 2835 2835 2812 2812 2812 2812 2812 2812 2812 2812 2812 2812 2812 2812 2812 2812 2812 2812 2812 2812 2789 2789 2812 2812 2812 2789 2789 2789 2767 2744 2744 2744 2744 2744 2744 2744 2744 2767 2744 2744 2767 2767 2744 2744 0 0 0 0 0 0 0 0 0 0
0 0 0 0 0 0 0 0 0 0 0 0 0 0 0 0 0 0 0 0 0 0 0 0 0 0 0 0 0 0 0 0 0 2503 2503 2522 2522 2522 2522 2522 2522 2522 2522 2522 2522 2503 2503 2503 2503 2503 2503 2503 2522 2522 2522 2522 2522 2522 2541 2541 2541 2541 2541 2541 2522 2522 2503 2503 2503 2522 2522 2522 2522 2522 2522 2522 2522 2522 2522 2522 2522 2522 2522 2522 2522 2522 2522 2522 2541 2541 2541 2541 2541 2541 2541 2541 2541 2541 2541 2560 2560 2560 2579 2579 2579 0 1503 1503 1503 1503 1509 1509 1516 1523 1523 1529 1529 1529 1529 1529 1529 1529 1529 1529 1529 1529 1536 1433 1433 1433 1433 1439 1439 1439 1439 1445 1445 1445 1445 1445 1445 1445 1452 1452 1452 1452 1452 1452 1458 1713 1713 1713 1458 1458 1458 1458 1458 1452 1452 1452 1458 1458 1458 1464 1464 1464 1470 1470 1470 1470 1470 1470 1470 1464 1464 1470 1470 1464 1464 1464 1464 1464 1464 1464 1470 1470 1470 1477 1477 1477 1477 1477 1477 1477 1477 1477 1477 1483 1483 1483 1483 1483 1483 1483 1483 1483 1483 1483 1483 1489 1489 1489 1489 1489 1489 1489 1739 1739 1739 1739 1739 1739 1739 1748 1748 1748 1748 1748 1748 1748 1748 1748 1748 1748 1748 1748 1748 1748 1748 1748 1503 1503 1503 1503 1496 1496 1496 1496 1503 1503 1503 1509 1516 0 0 0 0 0 0 0 2016 2016 2016 2016 2016 2016 2016 2016 2016 2016 2016 2016 1981 1981 2680 2680 2680 2680 2680 2680 2701 2701 2701 1894 1894 1757 1757 1766 1766 1766 1766 1766 1766 1757 1757 1757 1757 1766 1766 1766 1766 1766 1766 1776 1776 1776 1464 1464 1464 1464 1464 1464 1464 1464 1464 1464 1470 1470 1470 1470 1477 1483 1483 1483 1483 1483 1489 1489 1489 1489 1489 1483 1483 1483 1483 1489 1489 1483 1483 1483 1483 1483 1483 1483 1483 1483 1483 1489 1489 1489 1489 1489 1489 1489 1489 1489 1489 1489 1489 1489 1489 1489 1489 1489 1496 1496 1496 1496 1496 1496 1496 1496 1496 1496 1496 1496 1503 1503 1503 1509 1509 1509 1509 1509 1509 1509 1509 1509 1503 1503 1509 1509 1509 1516 1516 1516 1516 1523 1523 1523 1523 1516 1516 1523 1523 1523 1523 1523 1523 1529 1529 1529 1529 1529 1523 1523 1529 1529 1523 1523 1523 1523 1523 0 0 0 0 0 2744 2744 2744 2767 2767 2767 2767 2767 2767 2789 2789 2789 2789 2789 2789 2789 2789 2789 2789 2767 2767 2767 2767 2767 2767 2789 2789 2789 2789 2789 2789 2789 2789 2789 2789 2789 2789 2789 0 1688 1688 1688 1688 1696 1696 1705 1705 1705 1705 1705 1713 1713 1713 1713 1713 1722 1722 1722 1722 1722 1722 1722 1713 1713 2789 2789 2789 2789 2789 2789 2789 2789 2789 2767 2767 2767 2767 2767 2767 2767 2767 2767 2767 2767 2767 2767 2744 2744 2767 2767 2767 2767 2767 2767 2767 2767 2767 2767 2767 2744 2744 2744 2744 2767 2767 2744 2744 2744 2767 2767 2767 2767 2767 2789 2789 2789 2812 2789 2789 2812 2812 2812 2812 2789 2789 2789 2789 2789 2789 2789 2812 2812 2812 2812 2835 2835 2812 2789 2789 2789 2789 2789 2789 2789 2789 2789 2812 2812 2789 2767 2767 2767 2767 2767 2789 2789 2812 2812 2812 2812 2812 2812 2812 2812 2789 2789 2789 2789 2789 2789 2789 2789 2767 2767 2789 2789 2789 2789 2767 2767 2789 2767 2767 2744 2744 2767 2744 2744 2744 2744 2744 2744 2744 2744 2744 2744 2744 2744 2767 2767 2744 2744 0 0 0 0 0 0 0 0 0 0
0 0 0 0 0 0 0 0 0 0 0 0 0 0 0 0 0 0 0 0 0 0 0 0 0 0 0 0 0 0 0 0 0 2485 2485 2503 2503 2503 2503 2503 2503 2503 2503 2503 2503 2503 2503 2485 2485 2503 2503 2503 2503 2503 2503 2522 2522 2522 2522 2522 2522 2522 2522 2522 2522 2503 2503 2503 2503 2503 2503 2522 2522 2522 2522 2522 2522 2522 2522 2522 2522 2522 2522 2522 2522 2522 2522 2522 2522 2522 2522 2541 2541 2541 2541 2541 2541 2541 2541 2541 2541 2541 2560 2560 2560 0 1503 1503 1503 1503 1509 1509 1516 1523 1523 1529 1529 1529 1529 1529 1529 1529 1529 1529 1529 1529 1536 1433 1433 1433 1439 1439 1445 1445 1445 1445 1445 1445 1452 1452 1452 1452 1458 1458 1458 1696 1696 1705 1713 1713 1705 1705 1713 1713 1705 1696 1458 1458 1458 1458 1464 1464 1464 1470 1470 1470 1470 1470 1470 1470 1470 1470 1464 1464 1464 1470 1470 1464 1464 1464 1464 1464 1464 1464 1470 1470 1470 1477 1477 1477 1477 1477 1477 1477 1477 1477 1477 1483 1483 1483 1483 1489 1483 1483 1483 1483 1483 1483 1483 1489 1489 1496 1496 1496 1496 1496 1731 1731 1731 1731 1731 1731 1739 1739 1739 1739 1739 1748 1748 1748 1748 1748 1748 1748 1748 1748 1748 1748 1739 1739 1503 1503 1503 1503 1496 1496 1503 1503 1509 1509 1509 1516 1516 0 0 0 0 0 0 0 2016 2016 2016 2016 2016 2016 2016 2016 2016 2016 2016 2016 2639 2659 2659 2659 2680 2680 2680 2680 2701 2701 2701 1894 1894 1757 1757 1766 1757 1757 1757 1757 1757 1757 1748 1748 1757 1757 1757 1757 1757 1757 1766 1766 1766 1766 1470 1470 1470 1470 1470 1464 1464 1464 1464 1464 1470 1470 1470 1477 1477 1483 1483 1483 1483 1483 1489 1489 1489 1489 1489 1489 1489 1489 1489 1489 1489 1483 1483 1483 1483 1483 1483 1483 1483 1483 1483 1489 1489 1489 1489 1489 1489 1489 1489 1489 1489 1489 1489 1489 1489 1489 1489 1489 1496 1496 1496 1496 1496 1496 1496 1496 1496 1496 1496 1496 1503 1503 1503 1509 1509 1509 1509 1509 1516 1516 1516 1516 1503 1503 1509 1794 1516 1516 1516 1516 1516 1523 1523 1523 1529 1523 1523 1523 1529 1529 1529 1529 1529 1536 1536 1529 1529 1529 1529 1529 1529 1529 1523 1523 1523 1529 1529 0 0 0 2744 2744 2744 2744 2744 2767 2767 2767 2767 2767 2767 2767 2767 2789 2789 2789 2767 2767 2767 2767 2767 2767 2767 2767 2767 2767 2767 2767 2789 2789 2789 2789 2789 2789 2767 2767 2789 2789 2789 2789 0 1680 1680 1680 1688 1696 1696 1705 1705 1705 1705 1713 1713 1713 1713 1713 1722 1722 1722 1722 1722 1731 1722 1722 1722 1722 2789 2789 2789 2789 2789 2789 2789 2767 2767 2744 2744 2744 2744 2744 2744 2744 2744 2744 2744 2744 2744 2744 2744 2744 2744 2744 2744 2744 2767 2767 2767 2767 2767 2767 2767 2744 2744 2744 2744 2744 2744 2744 2744 2744 2744 2744 2744 2744 2767 2767 2767 2767 2767 2767 2767 2767 2767 2767 2767 2767 2767 2767 2767 2767 2767 2767 2767 2789 2789 2789 2767 2767 2767 2767 2767 2767 2767 2767 2767 2789 2789 2789 2789 2789 2767 2767 2767 2767 2767 2767 2767 2789 2789 2789 2789 2789 2789 2789 2789 2789 2789 2789 2789 2789 2767 2767 2767 2767 2767 2767 2767 2767 2789 2767 2767 2767 2767 2767 2744 2744 2744 2744 2744 2744 2744 2744 2744 2744 2744 2744 2744 2744 2744 2744 2744 2744 2744 2744 0 0 0 0 0 0 0 0 0 0
0 0 0 0 0 0 0 0 0 0 0 0 0 0 0 0 0 0 0 0 0 0 0 0 0 0 0 0 0 0 0 0 0 2485 2485 2485 2485 2503 2503 2503 2503 2503 2503 2503 2485 2485 2485 2485 2485 2485 2485 2485 2485 2485 2485 2503 2503 2503 2522 2522 2522 2503 2503 2503 2503 2485 2485 2485 2485 2485 2503 2503 2503 2503 2503 2503 2522 2522 2522 2522 2522 2522 2522 2522 2522 2522 2522 2522 2522 2522 2522 2522 2522 2541 2541 2541 2541 2541 2541 2541 2541 2541 2541 2541 2541 0 1503 1503 1503 1509 1509 1516 1516 1523 1523 1529 1529 1529 1529 1529 1529 1529 1529 1529 1529 1536 1536 1433 1433 1433 1439 1445 1445 1452 1452 1452 1452 1452 1452 1452 1452 1452 1458 1458 1688 1688 1696 1696 1705 1705 1705 1705 1705 1705 1705 1696 1696 1688 1458 1458 1696 1696 1696 1696 1705 1705 1705 1705 1470 1470 1470 1470 1464 1464 1464 1464 1464 1464 1458 1458 1458 1458 1458 1458 1464 1464 1470 1477 1477 1477 1477 1477 1477 1477 1477 1477 1483 1483 1489 1489 1489 1489 1483 1483 1483 1483 1483 1483 1483 1489 1489 1496 1496 1496 1722 1722 1731 1731 1731 1731 1731 1731 1731 1739 1739 1739 1739 1739 1748 1739 1739 1739 1739 1739 1739 1739 1739 1739 1739 1739 1503 1503 1503 1503 1503 1503 1503 1503 1516 1516 1516 1516 1516 0 0 0 0 0 0 0 2016 2016 2016 2016 2016 2016 2016 2028 2016 2016 2016 2016 2639 2659 2659 2659 2659 2659 2659 2659 2701 2701 1904 1904 1904 1904 1757 1757 1757 1748 1748 1748 1748 1748 1748 1748 1748 1748 1748 1748 1748 1748 1748 1757 1757 1757 1477 1470 1470 1470 1470 1470 1470 1470 1470 1470 1470 1477 1477 1477 1477 1483 1483 1483 1489 1489 1489 1489 1489 1489 1489 1489 1489 1489 1489 1489 1489 1483 1483 1483 1477 1477 1477 1483 1483 1483 1483 1489 1489 1489 1489 1489 1489 1489 1489 1489 1489 1489 1489 1489 1489 1489 1489 1489 1496 1496 1766 1503 1496 1496 1496 1496 1496 1496 1496 1766 1766 1766 1766 1509 1509 1509 1509 1509 1516 1516 1785 1785 1785 1785 1794 1794 1794 1516 1516 1516 1516 1523 1523 1523 1529 1529 1529 1529 1536 1543 1543 1536 1536 1543 1536 1536 1529 1529 1529 1529 1529 1529 1523 1523 1529 1529 1529 0 0 0 2744 2744 2744 2744 2744 2744 2744 2767 2767 2767 2767 2767 2767 2767 2767 2767 2767 2767 2767 2767 2767 2767 2767 2767 2767 2767 2767 2767 2767 2767 2767 2767 2767 2767 2767 2767 2767 2767 2767 2767 1705 1680 1680 1680 1688 1696 1696 1705 1705 1705 1713 1713 1713 1713 1713 1713 1722 1722 1722 1722 1722 1731 1731 1731 1739 1739 2767 2767 2767 2767 2767 2767 2767 2767 2767 2744 2744 2744 2744 2744 2723 2723 2744 2744 2744 2744 2744 2744 2744 2744 2744 2744 2744 2744 2744 2744 2744 2744 2744 2744 2744 2744 2744 2744 2744 2744 2744 2744 2744 2744 2744 2744 2744 2744 2744 2744 2744 2744 2744 2744 2744 2744 2767 2767 2767 2767 2767 2767 2767 2767 2767 2767 2767 2767 2767 2767 2767 2767 2767 2767 2767 2767 2767 2767 2767 2767 2767 2767 2767 2767 2767 2744 2744 2744 2744 2744 2767 2767 2767 2767 2767 2767 2767 2744 2744 2767 2767 2767 2767 2767 2744 2744 2744 2744 2744 2744 2767 2767 2767 2744 2744 2744 2744 2744 2744 2744 2744 2744 2744 2744 2744 2744 2744 2744 2744 2744 2744 2744 2744 2744 2744 2744 2744 2744 0 0 0 0 0 0 0 0 0 0
0 0 0 0 0 0 0 0 0 0 0 0 0 0 0 0 0 0 0 0 0 0 0 0 0 0 0 0 0 0 0 0 0 2485 2485 2485 2485 2485 2485 2485 2485 2485 2485 2485 2485 2485 2485 2485 2485 2485 2485 2485 2485 2485 2485 2485 2503 2503 2503 2522 2503 2503 2503 2503 2503 2485 2485 2485 2485 2485 2485 2485 2485 2485 2485 2503 2503 2503 2503 2522 2522 2522 2522 2522 2503 2503 2503 2503 2503 2503 2503 2522 2522 2522 2541 2541 2541 2541 2541 2541 2541 2541 2541 2541 2541 2522 0 1509 1509 1509 1516 1523 1523 1523 1523 1529 1529 1529 1529 1529 1529 1529 1529 1529 1536 1536 1536 1433 1433 1439 1445 1452 1452 1452 1452 1452 1452 1452 1458 1458 1458 1458 1464 1688 1688 1688 1688 1696 1696 1696 1705 1705 1705 1705 1705 1688 1688 1688 1688 1688 1688 1688 1696 1696 1696 1696 1696 1696 1696 1688 1470 1470 1696 1464 1464 1464 1464 1458 1452 1452 1458 1452 1445 1445 1464 1464 1470 1705 1705 1705 1705 1705 1705 1705 1477 1477 1483 1489 1489 1489 1489 1705 1705 1705 1483 1483 1483 1713 1713 1713 1713 1713 1713 1713 1713 1722 1722 1722 1731 1731 1731 1731 1731 1731 1731 1731 1731 1739 1739 1739 1739 1739 1739 1739 1739 1739 1739 1739 1739 1739 1503 1503 1503 1509 1503 1503 1503 1509 1516 1516 1516 1503 1503 0 0 0 0 0 0 0 2016 2016 2016 2016 2016 2016 2028 2028 2028 2028 2028 2028 2028 2639 2639 2639 2659 2659 2659 2659 2680 2680 1904 1904 1904 1904 1757 1757 1757 1748 1748 1748 1739 1739 1739 1739 1739 1739 1739 1739 1739 1748 1748 1748 1748 1748 1477 1470 1470 1470 1470 1470 1470 1470 1470 1470 1470 1477 1477 1477 1477 1483 1483 1483 1489 1489 1489 1489 1489 1489 1496 1489 1489 1489 1489 1489 1489 1483 1483 1483 1477 1477 1477 1748 1483 1483 1483 1489 1489 1489 1489 1489 1496 1748 1757 1748 1748 1757 1489 1489 1489 1489 1757 1757 1766 1757 1757 1757 1766 1766 1766 1766 1766 1766 1766 1766 1766 1766 1766 1766 1766 1766 1776 1776 1776 1776 1785 1785 1785 1785 1785 1785 1785 1794 1785 1785 1785 1785 1785 1785 1785 1785 1785 1785 1794 1794 1543 1543 1543 1543 1536 1536 1529 1529 1529 1529 1536 1529 1529 1529 1529 1529 1529 0 0 0 2744 0 2744 2744 2744 2744 2744 2744 2744 2744 2767 2767 2767 2767 2767 2767 2767 2767 2767 2767 2767 2767 2744 2744 2744 2744 2744 2767 2767 2767 2767 2767 2767 2767 2767 2744 2744 2744 2744 2744 1705 1705 1696 1696 1696 1696 1705 1705 1705 1705 1713 1713 1713 1713 1713 1722 1722 1722 1722 1731 1731 1731 1731 1731 1739 2744 2744 2767 2767 2767 2767 2767 2767 2767 2767 2723 2723 2723 2723 2723 2723 2723 2723 2723 2723 2723 2723 2744 2744 2744 2744 2744 2744 2744 2744 2744 2744 2744 2744 2744 2744 2744 2744 2744 2744 2744 2744 2744 2744 2744 2744 2744 2744 2744 2744 2744 2744 2744 2744 2744 2744 2744 2744 2744 2744 2767 2767 2767 2767 2767 2767 2767 2767 2767 2767 2767 2744 2744 2744 2744 2744 2767 2767 2767 2767 2767 2767 2767 2767 2744 2744 2744 2744 2744 2744 2744 2767 2767 2767 2767 2767 2767 2744 2744 2744 2723 2723 2723 2723 2723 2723 2723 2723 2744 2744 2744 2744 2744 2744 2744 2723 2723 2723 2723 2723 2723 2723 2723 2723 2723 2744 2744 2744 2744 2744 2744 2744 2744 2723 2723 2723 2723 2723 2723 0 0 0 0 0 0 0 0 0 0
0 0 0 0 0 0 0 0 0 0 0 0 0 0 0 0 0 0 0 0 0 0 0 0 0 0 0 0 0 0 0 0 0 2467 2467 2485 2485 2485 2485 2485 2485 2467 2467 2467 2485 2485 2485 2467 2467 2485 2485 2485 2485 2485 2485 2485 2485 2485 2503 2503 2503 2503 2485 2485 2503 2485 2467 2467 2467 2467 2485 2485 2485 2485 2485 2485 2503 2503 2503 2503 2503 2503 2503 2503 2503 2503 2503 2503 2503 2503 2503 2503 2522 2522 2522 2522 2522 2522 2522 2522 2522 2522 2522 2522 2522 2522 2522 1523 1523 1523 1523 1523 1523 1523 1523 1529 1529 1529 1529 1529 1529 1529 1529 1536 1536 1536 1543 1550 1439 1439 1445 1452 1452 1452 1452 1452 1452 1458 1458 1458 1464 1464 1470 1688 1688 1688 1688 1688 1696 1696 1696 1696 1696 1696 1696 1688 1688 1688 1688 1688 1688 1688 1688 1696 1696 1696 1696 1688 1688 1688 1688 1688 1696 1696 1696 1696 1705 1458 1452 1452 1458 1452 1445 1445 1696 1696 1696 1696 1705 1705 1705 1705 1705 1705 1705 1705 1705 1705 1705 1705 1705 1705 1705 1705 1705 1705 1705 1713 1713 1713 1713 1713 1713 1713 1713 1713 1713 1722 1722 1722 1722 1722 1722 1722 1722 1722 1722 1731 1739 1731 1731 1731 1731 1731 1731 1731 1731 1739 1739 1739 1509 1503 1503 1509 1503 1503 1509 1509 1516 1516 1516 1503 1503 0 0 0 0 0 0 0 2016 2016 2028 2028 2028 2028 2028 2028 2028 2028 2028 2028 2028 2618 2618 2639 2639 2639 2659 2659 2659 2659 1904 1904 1904 1904 1904 1757 1757 1739 1739 1739 1739 1739 1739 1739 1739 1739 1739 1739 1739 1739 1739 1748 1748 1489 1477 1470 1470 1470 1470 1470 1470 1470 1470 1470 1470 1477 1477 1477 1477 1483 1483 1483 1739 1739 1739 1739 1739 1739 1731 1731 1489 1489 1489 1489 1739 1748 1748 1748 1748 1748 1748 1748 1748 1748 1748 1757 1757 1757 1757 1757 1757 1757 1757 1748 1748 1757 1757 1757 1748 1748 1757 1757 1757 1757 1757 1757 1757 1757 1757 1757 1757 1757 1766 1766 1766 1766 1766 1766 1766 1766 1766 1776 1776 1776 1776 1776 1776 1785 1785 1785 1785 1785 1785 1785 1785 1785 1785 1785 1785 1776 1776 1776 1776 1776 1536 1536 1536 1536 1536 1536 1536 1536 1536 1536 1536 1529 1529 1529 1529 1529 1529 0 2701 2701 2701 0 2723 2723 2723 2723 2744 2744 2744 2744 2744 2767 2767 2744 2744 2744 2744 2744 2744 2744 2744 2744 2744 2744 2744 2744 2744 2744 2744 2744 2744 2744 2744 2744 2744 2723 2723 2723 2744 2744 1705 1705 1705 1705 1705 1705 1705 1705 1705 1713 1713 1713 1713 1713 1722 1722 1722 1722 1731 1731 1739 1739 1731 1731 1739 2701 2744 2744 2744 2744 2744 2744 2744 2744 2744 2701 2701 2723 2723 2723 2723 2723 2723 2723 2723 2723 2723 2723 2723 2723 2723 2723 2723 2744 2723 2723 2723 2723 2723 2723 2723 2723 2744 2744 2744 2744 2744 2744 2744 2744 2744 2744 2744 2744 2744 2744 2723 2723 2744 2744 2744 2744 2744 2744 2744 2744 2744 2744 2767 2767 2767 2767 2767 2767 2744 2744 2744 2744 2744 2744 2744 2744 2744 2744 2744 2744 2744 2744 2744 2744 2744 2744 2744 2744 2744 2744 2744 2767 2767 2767 2767 2767 2723 2723 2723 2723 2723 2701 2701 2701 2701 2723 2723 2723 2723 2723 2723 2744 2744 2723 2723 2723 2723 2723 2723 2723 2723 2723 2723 2723 2723 2723 2723 2723 2723 2723 2723 2723 2723 2723 2723 2723 2723 2723 0 0 0 0 0 0 0 0 0 0
0 0 0 0 0 0 0 0 0 0 0 0 0 0 0 0 0 0 0 0 0 0 0 0 0 0 0 0 0 0 0 0 0 2467 2467 2467 2467 2467 2467 2467 2467 2467 2467 2467 2467 2467 2467 2467 2467 2467 2467 2467 2467 2467 2467 2485 2485 2485 2485 2503 2503 2485 2485 2485 2485 2467 2467 2467 2467 2467 2467 2485 2485 2485 2485 2485 2485 2485 2485 2503 2503 2503 2503 2503 2485 2485 2485 2485 2485 2485 2485 2503 2503 2522 2522 2522 2522 2522 2522 2522 2522 2522 2503 2503 2522 2522 1529 1529 1529 1529 1529 1529 1523 1523 1529 1529 1529 1529 1529 1529 1529 1536 1536 1536 1536 1536 1543 1550 1439 1439 1445 1452 1452 1452 1452 1458 1458 1458 1458 1464 1464 1464 1470 1688 1680 1680 1688 1688 1688 1688 1688 1688 1688 1688 1688 1680 1680 1680 1680 1680 1688 1688 1688 1688 1688 1688 1688 1688 1688 1680 1680 1688 1688 1688 1696 1696 1696 1696 1696 1696 1696 1696 1696 1696 1696 1696 1696 1696 1696 1705 1705 1705 1705 1705 1705 1705 1705 1705 1705 1705 1705 1705 1705 1705 1705 1705 1705 1705 1713 1705 1705 1705 1705 1705 1705 1705 1705 1713 1713 1713 1713 1713 1713 1713 1713 1713 1713 1713 1713 1713 1713 1713 1713 1713 1713 1713 1713 1713 1713 1516 1509 1509 1509 1509 1509 1509 1509 1509 1516 1516 1516 1516 1516 0 0 0 0 0 0 0 2016 2016 2028 2028 2028 2028 2028 2028 2028 2028 2028 2028 2598 2618 2618 2618 2639 2639 2639 2639 2659 2659 1904 1904 1904 1904 1904 1915 1915 1739 1739 1739 1731 1731 1731 1731 1731 1731 1731 1731 1731 1739 1739 1739 1748 1489 1483 1477 1470 1470 1470 1470 1470 1470 1470 1470 1470 1477 1477 1477 1477 1739 1739 1739 1739 1739 1739 1739 1739 1739 1731 1731 1731 1731 1731 1739 1739 1748 1748 1748 1748 1748 1748 1748 1748 1748 1748 1748 1748 1757 1757 1757 1757 1757 1757 1757 1757 1757 1757 1748 1748 1748 1748 1748 1757 1757 1757 1757 1757 1757 1757 1757 1757 1757 1757 1757 1757 1766 1766 1766 1766 1766 1766 1766 1766 1766 1766 1776 1776 1776 1776 1776 1776 1785 1785 1776 1776 1776 1776 1776 1776 1776 1776 1776 1776 1776 1536 1536 1536 1536 1536 1536 1536 1536 1536 1536 1536 1529 1529 1529 1529 1529 1529 0 2701 2701 2701 2680 2680 2680 2701 2723 2723 2723 2723 2723 2744 2744 2744 2744 2744 2744 2744 2744 2744 2744 2744 2723 2723 2723 2723 2723 2723 2723 2723 2744 2744 2744 2744 2744 2744 2723 2723 2723 2744 2744 1722 1713 1705 1705 1705 1705 1705 1705 1705 1713 1713 1713 1713 1722 1722 1722 1722 1731 1739 1739 1739 1739 1739 1739 1748 2701 2723 2723 2744 2744 2723 2723 2723 2723 2723 2701 2701 2701 2701 2701 2701 2701 2723 2723 2701 2701 2723 2723 2723 2723 2723 2723 2723 2723 2723 2723 2723 2701 2701 2723 2723 2723 2723 2723 2723 2744 2723 2723 2723 2723 2723 2723 2723 2723 2723 2723 2723 2723 2723 2723 2723 2744 2744 2744 2744 2744 2744 2744 2744 2744 2744 2744 2744 2744 2744 2744 2744 2744 2744 2744 2744 2744 2744 2744 2744 2744 2744 2744 2744 2744 2744 2744 2744 2744 2744 2744 2744 2744 2744 2744 2744 2744 2723 2723 2701 2701 2701 2701 2701 2701 2701 2701 2701 2701 2701 2723 2723 2723 2723 2723 2723 2723 2723 2723 2723 2723 2701 2701 2701 2701 2723 2723 2723 2723 2701 2701 2723 2701 2701 2701 2701 2701 2723 2723 0 0 0 0 0 0 0 0 0 0
0 0 0 0 0 0 0 0 0 0 0 0 0 0 0 0 0 0 0 0 0 0 0 0 0 0 0 0 0 0 0 0 0 2467 2467 2467 2467 2467 2467 2467 2450 2450 2450 2450 2467 2467 2467 2467 2467 2467 2467 2467 2467 2467 2467 2467 2485 2485 2485 2485 2485 2485 2485 2485 2485 2467 2467 2467 2467 2467 2467 2467 2467 2467 2467 2467 2467 2485 2467 2467 2485 2485 2485 2485 2485 2485 2485 2485 2485 2485 2485 2503 2503 2503 2503 2503 2503 2503 2503 2503 2503 2503 2503 2503 2522 2522 1529 1529 1529 1529 1529 1529 1529 1529 1529 1529 1529 1529 1529 1529 1529 1536 1536 1536 1536 1536 1543 1550 1445 1445 1445 1452 1452 1458 1458 1458 1458 1458 1458 1464 1470 1470 1477 1483 1680 1680 1680 1688 1688 1688 1688 1688 1688 1688 1688 1671 1671 1671 1671 1680 1680 1680 1680 1680 1680 1688 1680 1680 1680 1680 1680 1688 1688 1688 1688 1688 1688 1688 1696 1696 1688 1688 1688 1688 1688 1688 1688 1688 1696 1696 1696 1696 1696 1696 1696 1705 1705 1705 1705 1705 1705 1696 1696 1705 1705 1705 1705 1705 1705 1705 1705 1705 1705 1705 1705 1705 1705 1705 1705 1705 1705 1705 1705 1705 1705 1705 1713 1713 1713 1713 1713 1713 1713 1705 1705 1705 1705 1705 1705 1516 1516 1516 1516 1516 1509 1509 1516 1516 1516 1516 1516 1516 1516 1523 0 0 0 0 0 0 0 2028 2028 2028 2028 2028 2028 2028 2028 2028 2028 2028 2579 2598 2598 2618 2618 2639 2639 2639 2639 2639 1915 1915 1915 1915 1915 1915 1915 1739 1739 1739 1731 1731 1731 1731 1731 1731 1731 1731 1731 1739 1739 1739 1739 1489 1483 1477 1477 1470 1470 1477 1470 1470 1470 1477 1477 1477 1477 1477 1483 1731 1731 1739 1739 1739 1739 1739 1739 1739 1731 1731 1731 1731 1731 1731 1739 1739 1739 1748 1739 1739 1739 1739 1739 1748 1748 1748 1748 1757 1748 1748 1757 1757 1757 1748 1748 1748 1748 1748 1739 1739 1739 1739 1748 1748 1748 1748 1748 1748 1748 1757 1757 1757 1757 1757 1757 1757 1757 1757 1757 1766 1766 1766 1766 1766 1766 1766 1766 1766 1766 1766 1766 1766 1766 1766 1766 1766 1766 1766 1766 1766 1766 1766 1766 1766 1776 1536 1536 1536 1536 1536 1536 1536 1536 1536 1536 1529 1529 1529 1529 1529 1529 0 2701 2701 2680 2680 2680 2680 2701 2701 2701 2701 2701 2701 2723 2723 2723 2723 2723 2723 2723 2723 2723 2723 2723 2723 2701 2701 2701 2701 2701 2723 2723 2723 2723 2723 2744 2723 2723 2723 2723 2723 2723 1722 1722 1713 1705 1705 1705 1705 1705 1705 1705 1713 1713 1713 1713 1722 1722 1722 1731 1731 1739 1739 1739 1739 1739 1748 1748 2723 2701 2701 2723 2723 2723 2701 2701 2723 2723 2680 2680 2701 2701 2701 2701 2701 2723 2723 2701 2701 2701 2701 2701 2701 2701 2701 2701 2701 2701 2701 2701 2680 2680 2701 2701 2701 2723 2723 2723 2723 2723 2723 2723 2723 2723 2723 2723 2723 2723 2723 2723 2723 2723 2723 2723 2723 2744 2744 2744 2744 2744 2744 2744 2744 2744 2744 2744 2723 2723 2723 2723 2723 2723 2723 2723 2723 2744 2744 2744 2744 2744 2744 2744 2744 2744 2744 2744 2744 2744 2744 2744 2744 2744 2744 2744 2744 2723 2701 2701 2701 2680 2680 2701 2701 2701 2701 2701 2701 2701 2701 2701 2701 2723 2723 2723 2723 2723 2701 2701 2701 2701 2701 2701 2701 2701 2701 2701 2701 2701 2701 2701 2680 2680 2701 2701 2701 2701 2701 0 0 0 0 0 0 0 0 0 0
0 0 0 0 0 0 0 0 0 0 0 0 0 0 0 0 0 0 0 0 0 0 0 0 0 0 0 0 0 0 0 0 0 2467 2467 2467 2450 2450 2450 2450 2432 2432 2450 2450 2450 2450 2467 2450 2450 2450 2450 2450 2450 2467 2467 2467 2467 2467 2485 2485 2485 2467 2467 2467 2485 2450 2450 2467 2467 2467 2467 2467 2467 2467 2467 2467 2467 2467 2467 2467 2467 2485 2485 2485 2485 2485 2485 2485 2485 2485 2485 2503 2503 2503 2485 2485 2485 2485 2485 2485 2485 2485 2485 2485 2485 2485 1529 1529 1529 1529 1529 1529 1529 1529 1529 1529 1529 1529 1529 1529 1529 1536 1536 1536 1536 1536 1543 1550 1445 1445 1445 1452 1452 1458 1458 1458 1458 1458 1464 1464 1470 1470 1477 1483 1680 1680 1680 1680 1680 1680 1680 1680 1680 1680 1680 1671 1671 1671 1671 1671 1671 1671 1680 1680 1680 1680 1680 1680 1680 1680 1680 1680 1680 1680 1680 1680 1680 1680 1688 1688 1688 1688 1680 1680 1680 1680 1688 1688 1688 1688 1688 1688 1688 1688 1688 1696 1696 1696 1696 1696 1696 1696 1696 1696 1696 1696 1696 1696 1696 1705 1696 1696 1696 1696 1696 1696 1696 1696 1696 1696 1696 1696 1696 1696 1696 1696 1696 1705 1705 1705 1705 1705 1705 1705 1705 1705 1705 1696 1696 1516 1516 1523 1523 1523 1516 1516 1516 1516 1516 1516 1516 1516 1516 1516 0 0 0 0 0 0 0 2028 2028 2028 2028 2028 2028 2028 2028 2028 2028 2028 2579 2598 2598 2598 2618 2618 2618 2618 2639 2639 1915 1915 1915 1915 1915 1915 1915 1739 1739 1739 1722 1722 1722 1722 1722 1722 1722 1722 1731 1731 1731 1731 1739 1489 1483 1477 1477 1477 1477 1477 1477 1477 1477 1477 1483 1483 1483 1483 1483 1722 1731 1731 1739 1739 1739 1739 1739 1739 1731 1731 1731 1731 1731 1731 1731 1739 1739 1739 1739 1739 1739 1739 1739 1748 1748 1748 1748 1748 1748 1748 1748 1748 1748 1748 1748 1748 1739 1739 1739 1739 1739 1739 1739 1748 1748 1748 1748 1748 1748 1757 1748 1748 1757 1757 1757 1757 1757 1757 1757 1757 1757 1757 1757 1757 1757 1757 1757 1757 1757 1757 1757 1766 1766 1766 1766 1766 1766 1766 1766 1766 1766 1766 1766 1766 1776 1543 1543 1543 1536 1536 1536 1536 1536 1536 1536 1529 1529 1529 1536 1536 1536 1536 1536 2680 2680 2680 2680 2680 2701 2701 2701 2701 2701 2701 2701 2701 2701 2701 2701 2701 2701 2701 2701 2701 2701 2701 2701 2701 2701 2701 2701 2701 2701 2701 2701 2701 2701 2701 2701 2701 2701 2723 2723 1731 1731 1722 1713 1713 1713 1705 1705 1713 1713 1713 1713 1713 1722 1722 1722 1722 1731 1739 1739 1739 1739 1739 1739 1748 1748 2701 2701 2701 2701 2701 2701 2701 2701 2701 2701 2680 2680 2680 2680 2680 2680 2680 2701 2701 2701 2680 2680 2701 2680 2680 2680 2680 2680 2680 2680 2680 2680 2680 2680 2680 2680 2680 2680 2701 2701 2701 2723 2723 2723 2701 2701 2701 2701 2701 2701 2723 2723 2723 2723 2723 2723 2723 2723 2723 2723 2723 2723 2723 2723 2723 2723 2723 2723 2723 2723 2701 2701 2701 2701 2701 2701 2701 2723 2723 2723 2723 2723 2723 2723 2723 2723 2723 2723 2723 2723 2744 2744 2744 2744 2744 2744 2744 2723 2701 2701 2701 2680 2680 2701 2701 2701 2701 2701 2680 2680 2680 2680 2680 2680 2701 2701 2701 2701 2680 2680 2680 2659 2659 2680 2680 2680 2680 2701 2701 2680 2680 2680 2680 2680 2680 2680 2680 2680 2680 0 0 0 0 0 0 0 0 0 0
0 0 0 0 0 0 0 0 0 0 0 0 0 0 0 0 0 0 0 0 0 0 0 0 0 0 0 0 0 0 0 0 0 2467 2450 2450 2450 2450 2450 2450 2432 2432 2450 2450 2450 2450 2450 2450 2450 2450 2450 2450 2450 2450 2450 2467 2467 2467 2485 2485 2467 2467 2467 2467 2467 2450 2450 2450 2450 2450 2467 2450 2450 2467 2467 2467 2467 2467 2467 2467 2467 2467 2467 2467 2467 2467 2485 2485 2485 2467 2467 2485 2485 2485 2485 2485 2467 2467 2467 2485 2485 2485 2485 2485 2485 2485 1529 1529 1529 1529 1529 1529 1529 1529 1529 1529 1529 1529 1529 1529 1536 1536 1536 1536 1536 1536 1543 1550 1564 1445 1445 1452 1452 1458 1458 1458 1458 1464 1464 1464 1470 1470 1477 1680 1680 1680 1680 1680 1680 1680 1680 1680 1680 1680 1680 1671 1671 1663 1663 1671 1671 1671 1671 1671 1671 1680 1680 1671 1671 1671 1671 1680 1671 1671 1680 1680 1680 1680 1680 1680 1680 1680 1680 1680 1680 1680 1680 1680 1680 1680 1680 1680 1680 1688 1688 1696 1696 1696 1696 1688 1688 1688 1688 1688 1688 1688 1696 1696 1696 1696 1696 1696 1696 1696 1696 1696 1688 1688 1688 1696 1696 1696 1696 1688 1688 1696 1696 1696 1696 1696 1696 1696 1696 1696 1696 1696 1696 1696 1696 1523 1523 1523 1523 1523 1516 1516 1516 1516 1516 1516 1516 1516 1516 1516 0 0 0 0 0 0 0 2028 2028 2028 2028 2028 2028 2028 2028 2028 2028 2040 2579 2579 2579 2598 2598 2598 2618 2618 2639 2639 1915 1915 1915 1915 1915 1915 1915 1739 1731 1731 1722 1722 1713 1713 1713 1713 1713 1713 1713 1722 1722 1722 1731 1739 1483 1477 1477 1477 1477 1483 1483 1483 1483 1483 1483 1483 1483 1483 1489 1705 1722 1722 1722 1731 1731 1739 1739 1739 1731 1731 1731 1731 1731 1731 1731 1731 1731 1731 1731 1731 1731 1731 1731 1739 1739 1739 1739 1739 1739 1739 1748 1748 1748 1739 1739 1739 1739 1731 1731 1731 1731 1731 1739 1739 1739 1739 1739 1739 1748 1748 1748 1748 1748 1748 1748 1757 1757 1757 1757 1757 1757 1757 1748 1748 1748 1748 1757 1757 1757 1757 1757 1757 1757 1766 1766 1766 1766 1766 1766 1766 1766 1766 1766 1766 1766 1550 1543 1543 1543 1536 1536 1536 1536 1536 1536 1529 1529 1536 1536 1536 1536 1536 0 2680 2680 2680 2680 2680 2680 2701 2701 2701 2701 2701 2701 2701 2701 2701 2701 2701 2701 2701 2701 2701 2701 2701 2701 2701 2701 2701 2701 2701 2701 2701 2701 2701 2701 2701 2701 2701 2701 2701 2701 1739 1739 1731 1722 1713 1713 1713 1713 1713 1713 1713 1713 1722 1722 1722 1722 1722 1731 1731 1739 1739 1739 1739 1739 1748 1748 2701 2701 2680 2680 2701 2701 2701 2701 2701 2701 2680 2680 2680 2680 2680 2680 2680 2680 2680 2680 2680 2680 2680 2680 2680 2680 2680 2680 2680 2680 2680 2680 2680 2680 2680 2680 2680 2680 2680 2701 2701 2701 2701 2701 2680 2680 2701 2701 2701 2701 2701 2701 2701 2723 2723 2723 2723 2723 2723 2723 2723 2723 2723 2723 2723 2723 2723 2723 2701 2701 2701 2701 2701 2701 2701 2701 2701 2701 2701 2723 2723 2723 2723 2723 2723 2723 2723 2723 2723 2723 2723 2723 2723 2723 2723 2723 2723 2701 2701 2701 2701 2701 2701 2701 2701 2701 2701 2680 2659 2659 2680 2680 2680 2680 2680 2680 2701 2680 2659 2659 2659 2659 2659 2659 2659 2659 2659 2680 2680 2680 2680 2680 2680 2680 2680 2680 2680 2680 2680 0 0 0 0 0 0 0 0 0 0
