0 0 0 0 0 0 0 0 0 0 0 0 0 0 0 0 0 0 0 0 0 0 0 0 0 0 0 0 0 0 4708 4708 4708 4708 4708 4708 4708 4708 4774 4774 4842 4842 4842 4842 4911 4911 4983 4983 5056 5056 5056 5056 5056 5056 5056 5056 5056 5056 5056 4983 4911 4911 9331 9084 9084 4911 4842 4842 4842 4842 4842 4842 4842 4842 4842 4842 4842 4842 4842 4842 4842 4842 4842 4842 4842 4911 4911 4983 4983 4983 4983 4911 4911 4911 4983 4983 5056 5056 5132 5056 5056 5056 5056 5056 5056 5132 5210 5291 5291 5374 5374 5374 5374 5460 5460 5460 5460 5460 5460 5460 5460 8413 8626 8626 8413 8413 8626 8413 7835 7835 8019 8019 8212 4139 4139 4190 4190 4190 4190 8626 8413 8413 8413 8413 8212 8212 8626 8626 8626 8849 8849 8626 8626 8626 8626 8626 8626 8413 8413 8413 8413 8413 8626 0 0 0 0 8413 8212 8212 8413 8413 8413 8413 8413 8413 8413 8413 8413 8212 8212 8413 8212 8212 8413 8413 8413 8413 8413 8413 8413 8413 8413 8413 8413 8413 8413 8626 8626 8626 8626 8626 8626 8626 8626 8626 8626 8626 8626 8626 8626 8626 8626 3539 3539 3539 3539 3539 3539 3539 3539 3539 3539 3539 3503 3503 3539 3539 3539 3539 3539 3539 3539 3539 3539 3539 3539 3539 3539 3503 3503 3503 3503 3503 3503 3503 3503 3503 3503 3503 3503 3503 3503 3503 3503 3468 3468 3468 3433 3433 3433 3433 3433 3433 3433 3433 3468 3468 3468 3468 3433 3433 3433 3433 3433 3433 3433 3433 3433 3433 3433 3433 3433 3433 3433 3433 3433 3433 3433 3399 3399 3399 3399 3399 3399 3399 3399 3399 3399 3399 3399 3399 3399 3399 3399 3399 3399 3399 3399 3399 3399 3365 3365 3365 3365 3365 3365 3365 3333 3333 3333 3333 3333 3333 3333 3333 3333 3333 3333 3333 3333 3333 3333 3300 3300 3333 0 1843 1843 1843 1843 1853 1853 1853 1853 1853 1853 1863 1853 1853 1843 1843 1843 1843 1843 1843 1843 1843 1843 1843 1843 1833 1833 1833 1833 1833 1833 1833 1833 1833 1833 1833 1833 1833 1833 1823 1823 1823 1823 1813 1813 1823 1813 1813 1813 1813 1823 1804 1804 1813 1804 1804 1804 1804 1804 1804 1804 1794 1794 1794 1794 1794 1794 1794 1794 1794 1794 1794 1794 1794 1794 1794 1785 1785 1785 3092 3092 3092 3092 3092 3120 3120 3149 3149 3120 3120 3120 3120 3120 3120 3120 3120 3120 3120 3092 3092 3092 3092 3092 3092 3092 3092 3092 3092 3092 3092 3092 3092 3092 3092 3064 3064 3064 3064 3064 3064 3064 3064 3064 3037 3037 3064 3064 3064 3037 3037 3037 3037 3037 3037 3037 3037 3037 3037 3037 3064 3037 3037 3037 3037 3037 3037 3037 5832 5832 5734 5734 5832 5832 5832 5832 5832 5832 5832 5832 5734 5734 5734 5734 5734 5734 5734 5734 5734 5734 5734 5734 5734 5832 5832 5832 5933 5832 5734 5734 5640 5640 5640 5640 5640 5640 5734 5734 5734 5734 5734 5734 5734 5734 5640 5640 5640 5640 5640 5640 5640 5640 5640 5640 5640 5640 5548 5548 5640 5640 5640 5734 5734 5734 5734 5734 5734 5734 5734 5734 5734 5734 5734 5734 5640 5640 5734 5734 5832 5832 5734 5734 5832 5832 5832 5832 5832 5832 5734 5734 5734 5832 5832 5832 5933 5933 5933 5933 5832 5832 5933 5933 5933 6038 6038 6038 6146 6038 6038 6259 6259 6259 6259 6146 6146 6146 6038 6038 6146 6146 6146 6146 6146 6146 6259 6259 6259 6259 6259 6259 6259 6259 6259 6259 6375 6375 6375 6375 6375 6375 6497 6497 0 0 0 0 0 0 0 0 0 0 0 0 0
0 0 0 0 0 0 0 0 0 0 0 0 0 0 0 0 0 0 0 0 0 0 0 0 0 0 0 0 0 0 4774 4774 4842 4774 4774 4774 4774 4774 4774 4774 4842 4842 4842 4911 4911 4983 5056 5056 5056 5056 5056 5056 5056 5056 5056 5056 5056 5056 5056 4983 4983 4983 9084 9084 9084 8849 4842 4842 4842 4842 4911 4911 4842 4842 4911 4842 4842 4911 4911 4911 4842 4842 4842 4842 4911 4911 4911 4983 4983 4983 4983 4911 4911 4911 4983 4983 5056 5056 5132 5132 5132 5132 5132 5132 5132 5132 5210 5291 5291 5374 5374 5374 5374 5374 5374 5374 5374 5460 5460 5460 5460 5460 5460 5460 5548 8413 8413 8413 8212 8212 8212 8212 8212 8413 8413 8626 8626 8849 8626 8626 8413 8413 8212 8212 8212 8212 8626 8626 8626 8849 8849 8626 8626 8626 8626 8626 8626 8413 8413 8413 8413 8413 8626 0 8413 0 8212 8212 8212 8212 8413 8413 8413 8413 8413 8413 8413 8413 8413 8413 8413 8413 8413 8413 8413 8413 8413 8413 8413 8413 8626 8413 8413 8626 8626 8626 8626 8626 8626 8626 8626 8626 8626 8626 8849 8849 8626 8626 8626 8626 8626 8626 8626 3576 3539 3539 3539 3539 3539 3539 3539 3539 3539 3539 3539 3539 3539 3539 3539 3539 3539 3539 3539 3539 3539 3539 3539 3539 3539 3503 3503 3503 3503 3503 3503 3503 3503 3503 3503 3503 3503 3468 3468 3468 3468 3468 3468 3433 3433 3433 3433 3433 3433 3433 3433 3433 3468 3468 3468 3468 3433 3433 3433 3433 3433 3433 3433 3433 3433 3433 3433 3433 3433 3433 3433 3433 3433 3433 3433 3433 3433 3433 3433 3433 3433 3433 3433 3433 3433 3399 3399 3399 3399 3399 3399 3399 3399 3399 3399 3399 3399 3399 3365 3365 3365 3365 3365 3365 3365 3365 3333 3333 3333 3333 3333 3300 3300 3333 3333 3333 3333 3333 3333 3333 3333 3333 0 1843 1843 1843 1843 1843 1843 1853 1853 1853 1853 1853 1853 1853 1843 1843 1843 1843 1843 1843 1843 1843 1833 1833 1843 1833 1833 1833 1833 1833 1833 1833 1833 1833 1833 1833 1833 1833 1833 1823 1823 1823 1823 1813 1813 1823 1813 1813 1813 1813 1813 1804 1804 1804 1804 1804 1804 1804 1804 1804 1804 1794 1794 1794 1794 1794 1794 1794 1794 1794 1794 1794 1794 1794 1794 1794 1785 1785 1794 1794 3092 3092 3092 3092 3120 3120 3120 3120 3120 3120 3120 3120 3120 3120 3120 3120 3120 3120 3092 3092 3092 3092 3092 3092 3064 3064 3092 3092 3064 3064 3092 3092 3092 3092 3064 3064 3064 3064 3064 3064 3064 3064 3064 3037 3037 3064 3064 3064 3037 3037 3037 3037 3037 3037 3037 3037 3037 3037 3037 3064 3037 3037 3037 3037 3037 3037 3064 3064 5832 5832 5832 5832 5933 5933 5933 5832 5832 5832 5933 5734 5734 5734 5832 5832 5832 5734 5734 5734 5832 5832 5832 5832 5832 5832 5832 5933 5832 5734 5734 5832 5734 5640 5640 5640 5734 5734 5734 5734 5734 5734 5734 5734 5734 5734 5734 5734 5734 5734 5734 5640 5640 5640 5640 5640 5640 5640 5640 5640 5640 5734 5734 5734 5734 5832 5832 5832 5832 5832 5832 5734 5734 5734 5734 5734 5734 5734 5832 6375 5832 5832 6259 6146 5933 5933 6038 5933 5832 5734 5734 5832 5933 5933 5933 5933 5933 5933 5933 5933 5933 5933 6038 6038 6038 6038 6146 6146 6146 6146 6259 6146 6146 6146 6146 6146 6146 6146 6146 6146 6146 6146 6146 6146 6146 6146 6259 6259 6259 6259 6259 6259 6146 6146 6259 6375 6375 6375 6375 6375 6375 6497 6497 0 0 0 0 0 0 0 0 0 0 0 0 0
0 0 0 0 0 0 0 0 0 0 0 0 0 0 0 0 0 0 0 0 0 0 0 0 0 0 0 0 0 0 4842 4842 4842 4842 4774 4774 4774 4842 4774 4774 4842 4911 4911 4911 4911 4983 5056 5056 5056 5056 5132 5132 5132 5132 5132 5056 5056 5056 5056 5056 5056 9084 9084 9084 9084 8849 8849 8849 9084 9084 9084 9084 8849 8849 8849 8849 8849 8849 4911 4911 4911 4911 4911 4983 4983 4983 5056 4983 4983 4983 4983 4983 4983 4983 4983 5056 5056 5056 5132 5132 5132 5132 5132 5132 5132 5132 5210 5291 5374 5374 5374 5374 5374 5374 5291 5291 5374 5374 5374 5460 5374 5374 5460 5460 5460 8413 8413 8413 8413 8413 8413 8413 8413 8413 8626 8626 8626 8626 8626 8626 8413 8212 8212 8212 8212 8212 8626 8626 8626 8849 8849 8626 8626 8626 8413 8413 8626 8413 8413 8413 8413 8413 8413 8413 8413 8413 0 8212 8212 8212 8413 8413 8413 8413 8413 8413 8413 8413 8413 8413 8413 8626 8413 8413 8413 8413 8413 8413 8413 8413 8626 8626 8626 8626 8626 8626 8626 8626 8626 8626 8626 8626 8626 8626 8413 8413 8626 5460 5460 5460 5460 5460 5460 3576 3539 3539 3539 3539 3539 3539 3539 3539 3539 3539 3539 3539 3539 3539 3539 3539 3539 3539 3539 3539 3539 3539 3539 3539 3503 3503 3503 3503 3503 3503 3503 3503 3503 3503 3503 3503 3468 3468 3468 3468 3468 3468 3468 3433 3433 3433 3433 3433 3433 3433 3433 3433 3468 3468 3468 3468 3468 3468 3468 3433 3433 3433 3433 3433 3433 3433 3433 3433 3433 3433 3433 3433 3433 3433 3433 3433 3433 3433 3433 3433 3433 3433 3433 3433 3433 3399 3399 3399 3399 3399 3399 3399 3399 3399 3399 3399 3399 3399 3399 3399 3399 3399 3365 3365 3365 3365 3333 3333 3333 3333 3333 3300 3300 3300 3333 3333 3333 3333 3333 3333 3333 3333 0 3333 1843 1843 1843 1843 1843 1853 1853 1853 1853 1853 1853 1853 1843 1843 1843 1843 1843 1843 1843 1843 1833 1833 1843 1833 1833 1833 1833 1833 1833 1833 1833 1833 1833 1833 1833 1833 1833 1823 1823 1823 1823 1813 1813 1813 1813 1813 1813 1813 1813 1804 1804 1804 1804 1804 1804 1804 1804 1804 1804 1794 1794 1794 1794 1794 1794 1794 1794 1794 1794 1794 1794 1794 1794 1794 1785 1785 1785 1785 3092 3092 3092 3092 3120 3120 3120 3120 3120 3120 3120 3120 3120 3120 3120 3120 3120 3120 3092 3092 3092 3092 3092 3092 3064 3064 3092 3092 3064 3064 3092 3092 3092 3092 3064 3064 3064 3064 3064 3064 3064 3064 3064 3064 3064 3064 3064 3064 3064 3064 3064 3037 3037 3037 3037 3037 3037 3037 3037 3064 3037 3037 3037 3037 3010 3010 3010 3010 6038 5933 5933 5933 5933 5933 6038 5933 5933 5933 5933 5933 5832 5832 5832 5933 5933 5832 5832 5832 5832 5832 5832 5832 5832 5832 5832 5832 5832 5832 5832 5832 5832 5734 5734 5734 5734 5734 5734 5734 5734 5734 5734 5734 5734 5734 5734 5734 5734 5734 5734 5734 5734 5734 5734 5734 5734 5734 5734 5734 5734 5832 5832 5832 5933 5933 5933 5933 5933 5933 5832 5832 5832 6038 6038 5933 5933 6038 6146 6259 6375 6375 6375 6259 6259 6146 6146 6146 6038 6038 6038 6038 6038 6038 6038 6038 5933 5933 6038 6038 6038 6038 6038 6038 6038 6038 6038 6038 6038 6038 6146 6146 6146 6146 6146 6146 6146 6038 6038 6038 6038 6146 6146 6146 6146 6146 6259 6259 6259 6146 6146 6146 6146 6146 6259 6259 6259 6375 6375 6375 6375 6375 6497 0 0 0 0 0 0 0 0 0 0 0 0 0
0 0 0 0 0 0 0 0 0 0 0 0 0 0 0 0 0 0 0 0 0 0 0 0 0 0 0 0 0 0 4842 4842 4842 4842 4842 4842 4842 4911 4842 4842 4842 4911 4911 4911 4911 4983 5056 5056 5056 5132 5132 5132 5132 5132 5132 5056 5056 5056 5056 9084 9084 9084 9084 9084 9084 9084 8849 8849 9084 9084 9084 9084 8849 8849 8849 8849 8849 8849 8626 4911 4911 4911 4983 5056 5056 5056 5056 5056 5056 5056 4983 4983 4983 4983 5056 5056 5056 5056 5132 5132 5132 5132 5132 5132 5132 5132 5210 5210 5291 5291 5374 5374 5374 5374 5291 5291 5374 5374 5374 5374 5374 5374 5374 5460 5460 5460 8413 8413 8413 8212 8212 8019 8019 8019 8413 8626 8626 8626 8626 8626 8413 8212 8212 8212 8212 8212 8626 8626 8626 8849 8849 8626 8626 8626 8413 8413 8413 8413 8413 8413 8413 8413 8413 8413 8413 8413 0 8212 8212 8212 8413 8413 8413 8413 8413 8413 8413 8413 8413 8626 5291 5291 5291 5374 5374 8413 8413 8413 8413 8413 8626 8626 5460 5374 5374 5374 5374 5291 5291 5291 5291 5291 5291 5374 5374 5374 5374 5374 5374 5374 5460 5460 5460 3576 3539 3539 3539 3539 3539 3539 3539 3539 3539 3539 3539 3539 3539 3539 3539 3539 3539 3539 3539 3539 3539 3539 3539 3539 3503 3503 3503 3503 3503 3503 3503 3503 3503 3503 3468 3468 3468 3468 3468 3468 3468 3468 3468 3433 3433 3433 3433 3433 3433 3433 3433 3433 3468 3468 3468 3503 3503 3503 3468 3468 3468 3433 3433 3433 3433 3433 3433 3433 3433 3433 3433 3433 3433 3433 3433 3433 3433 3433 3433 3468 3433 3433 3433 3433 3433 3399 3399 3399 3399 3399 3399 3399 3399 3399 3399 3399 3399 3399 3399 3399 3399 3399 3365 3365 3365 3365 3333 3333 3333 3333 3333 3300 3300 3300 3300 3333 3333 3333 3333 3333 3333 3333 3333 0 1843 1843 1843 1843 1843 1853 1843 1843 1843 1843 1843 1843 1843 1843 1843 1843 1843 1843 1843 1843 1833 1833 1843 1833 1833 1833 1833 1833 1833 1833 1833 1833 1833 1833 1823 1823 1823 1823 1813 1813 1813 1813 1813 1813 1813 1813 1813 1813 1813 1804 1804 1804 1804 1804 1804 1804 1804 1804 1804 1794 1794 1794 1794 1794 1794 1794 1794 1794 1794 1794 1794 1794 1794 1794 1785 1785 1785 1785 3092 3092 3092 3092 3120 3092 3092 3120 3120 3120 3120 3120 3120 3120 3120 3120 3120 3120 3092 3092 3092 3092 3092 3092 3092 3092 3092 3092 3064 3064 3092 3092 3092 3092 3064 3064 3064 3064 3064 3064 3064 3064 3064 3064 3064 3064 3064 3064 3064 3064 3064 3037 3037 3037 3037 3037 3037 3037 3037 3064 3037 3037 3037 3037 3010 3010 3010 3010 3010 6038 6038 6038 6038 6038 6038 6038 5933 5933 5933 5933 5933 5933 5933 5933 5933 5832 5832 5832 5832 5832 5832 5832 5832 5832 5832 5832 5832 5832 5832 5832 5832 5832 5933 5933 5832 5832 5832 5832 5832 5832 5832 5832 5832 5832 5832 5933 5933 5933 5933 5832 5832 5734 5734 5734 5734 5832 5832 5933 5933 6038 6038 6038 6038 6038 6038 6038 6038 6038 6038 6038 6038 6038 6038 6038 6038 6146 6146 6259 6375 6375 6375 6259 6259 6146 6146 6146 6146 6038 6038 6038 6038 6146 6038 6038 5933 5933 6038 6038 6038 5933 5933 5933 5933 5933 5933 6038 6038 6038 6038 6038 6038 6038 6146 6146 6038 6038 6038 6038 6038 6038 6038 6146 6146 6146 6146 6259 6259 6146 6146 6146 6146 6146 6146 6259 6259 6375 6375 6375 6375 6375 6497 0 0 0 0 0 0 0 0 0 0 0 0 0
0 0 0 0 0 0 0 0 0 0 0 0 0 0 0 0 0 0 0 0 0 0 0 0 0 0 0 0 0 0 4842 4842 4842 4842 4842 4842 4842 4842 4842 4911 4911 4911 4911 4911 4911 4983 5056 5132 5132 5132 5132 5132 5132 5132 5132 5132 5132 5132 9084 9084 9084 9331 9331 9331 9331 9084 9084 9084 9084 9084 9084 9084 8849 8849 8849 8849 8849 8626 8626 8626 4983 4983 5056 5056 8626 5132 5132 5132 5132 5056 5056 5056 5056 5056 5056 5056 5056 5056 5132 5132 5132 5132 5132 5132 5132 5132 5210 5210 5210 5210 5291 5374 5291 5291 5291 5291 5374 5374 5374 5374 5374 5374 5374 5460 5460 5460 5460 8212 8212 8212 8212 8019 8019 8019 8413 8626 8626 8626 8626 8849 8413 8212 8212 8212 8212 8212 8626 8626 8626 8849 8849 8626 8626 8626 8626 8626 8413 8413 8413 8413 8413 8413 8413 8212 8212 8212 5460 8212 8212 8212 8413 8413 8413 8413 8413 8413 8413 8413 5374 5374 5291 5291 5291 5374 5291 5291 8413 8413 8413 8413 8626 5460 5460 5374 5374 5374 5374 5291 5291 5291 5291 5291 5291 5374 5374 5374 5374 5374 5374 5374 5460 5460 5460 3539 3539 3539 3539 3539 3539 3539 3539 3539 3539 3539 3539 3539 3539 3539 3539 3539 3539 3539 3539 3539 3539 3539 3539 3539 3539 3503 3503 3503 3503 3503 3503 3503 3503 3503 3468 3468 3468 3468 3468 3468 3468 3468 3468 3433 3433 3433 3433 3468 3468 3468 3433 3433 3468 3503 3503 3503 3503 3503 3468 3468 3433 3433 3433 3468 3433 3433 3433 3433 3468 3468 3433 3433 3433 3433 3433 3433 3433 3433 3433 3433 3433 3433 3433 3433 3433 3433 3399 3399 3399 3399 3399 3399 3399 3399 3399 3399 3399 3399 3399 3399 3399 3399 3399 3365 3365 3365 3333 3333 3333 3333 3333 3300 3300 3300 3300 3333 3333 3333 3333 3333 3333 3333 3333 0 1843 1843 1843 1843 1843 1853 1843 1843 1843 1843 1843 1843 1843 1843 1843 1843 1843 1843 1843 1843 1843 1843 1843 1833 1833 1833 1833 1833 1833 1833 1833 1833 1833 1833 1823 1823 1823 1823 1813 1813 1813 1813 1813 1813 1813 1813 1813 1813 1813 1804 1804 1804 1804 1804 1804 1804 1804 1804 1804 1794 1794 1794 1794 1794 1794 1794 1794 1794 1794 1794 1794 1794 1794 1794 1794 1785 1785 1785 3092 3092 3092 3092 3120 3092 3092 3120 3120 3120 3120 3120 3120 3120 3120 3120 3120 3120 3092 3092 3092 3092 3092 3092 3064 3064 3092 3092 3064 3064 3092 3092 3092 3064 3064 3064 3064 3064 3064 3064 3064 3064 3064 3064 3064 3064 3037 3037 3064 3064 3064 3064 3064 3064 3037 3037 3037 3037 3037 3037 3037 3037 3037 3037 3010 3010 3010 3010 3010 6146 6146 6146 6146 6146 6146 6146 6038 6038 6038 5933 5933 5933 5933 5933 5933 5832 5832 5832 5933 5933 5933 5933 5933 5933 5933 5832 5832 5832 5832 5832 5832 5832 5933 5933 6038 5933 5933 5933 5933 5832 5832 5832 5832 5933 5933 5933 5933 5933 5933 5933 5933 5933 5832 5832 5933 6038 6038 6038 6038 6038 6038 6038 6038 6038 6038 6146 6146 6146 6146 6146 6146 6146 6146 6146 6146 6259 6259 6375 6375 6375 6375 6146 6146 6146 6146 6146 6038 6038 6038 6038 6146 6146 6038 6038 6038 6038 6038 6038 6038 5933 5933 5933 5933 5933 5933 5933 5933 5933 6038 5933 5933 5933 6038 6038 6038 6038 6038 6038 6038 6038 6038 6146 6146 6146 6146 6259 6259 6146 6146 6146 6146 6146 6146 6259 6259 6375 6375 6375 6375 6497 6497 0 0 0 0 0 0 0 0 0 0 0 0 0
0 0 0 0 0 0 0 0 0 0 0 0 0 0 0 0 0 0 0 0 0 0 0 0 0 0 0 0 0 0 4842 4842 4911 4842 4842 4842 8849 4842 4842 9084 9084 4911 4842 4842 4842 4983 5056 5132 5132 5132 5132 5132 5132 5132 5132 5132 5132 9084 9084 9084 9084 9084 9084 9331 9331 9084 9084 9084 9084 9084 9084 9084 8849 8849 8849 8849 8849 8626 8626 8626 8626 8626 8626 8626 8626 8849 8849 8849 8849 5132 5132 5056 5056 5056 5056 5056 5056 5056 5132 5132 5132 5132 5132 5132 5132 5132 5210 5210 5210 5210 5291 5291 5291 5291 5291 5291 5374 5374 5374 5374 5374 5374 5374 5460 5460 5460 5460 5640 5640 5640 5640 5640 5640 5640 3859 3859 3903 3903 8849 8849 8626 8212 8212 8212 8212 8626 8626 8626 8626 8849 8849 8626 8626 8626 5548 5548 5460 5374 5374 8413 8413 8413 8212 8212 8212 5460 5460 5374 5374 8212 8413 8413 8413 8626 8413 8413 8413 8413 5374 5374 5291 5291 5374 5374 5291 5291 5374 5374 5460 5460 5460 5460 5460 5460 5460 5374 5374 5374 5374 5374 5291 5291 5374 5374 5374 5374 5374 5374 5374 5374 5374 5374 5374 3539 3539 3539 3539 3539 3539 3539 3539 3539 3539 3539 3539 3539 3539 3539 3539 3539 3539 3539 3539 3539 3539 3539 3539 3539 3539 3503 3503 3503 3503 3503 3503 3503 3503 3503 3468 3468 3468 3468 3468 3468 3468 3468 3468 3468 3433 3433 3468 3468 3468 3468 3468 3468 3468 3468 3503 3503 3503 3503 3468 3433 3433 3433 3433 3468 3433 3433 3433 3433 3468 3468 3433 3433 3433 3433 3433 3433 3433 3433 3433 3433 3433 3433 3433 3433 3433 3399 3399 3399 3399 3399 3399 3399 3399 3399 3399 3399 3399 3399 3399 3399 3399 3399 3399 3365 3365 3365 3333 3333 3333 3333 3333 3300 3300 3300 3300 3333 3333 3333 3333 3333 3333 3333 3333 0 1843 1843 1843 1843 1843 1853 1853 1853 1853 1853 1843 1843 1843 1843 1843 1843 1843 1843 1843 1843 1843 1843 1843 1833 1833 1833 1833 1833 1833 1833 1833 1833 1833 1833 1823 1823 1823 1813 1813 1813 1813 1813 1813 1813 1813 1813 1813 1813 1804 1804 1804 1804 1804 1804 1804 1804 1804 1804 1804 1804 1804 1804 1794 1794 1794 1794 1794 1794 1794 1794 1794 1794 1794 1794 1794 1785 1785 1785 3092 3092 3092 3092 3120 3092 3092 3092 3120 3120 3092 3092 3120 3120 3120 3120 3120 3092 3092 3092 3092 3092 3092 3092 3064 3064 3092 3092 3064 3064 3064 3064 3064 3064 3064 3064 3064 3064 3064 3064 3064 3064 3064 3064 3064 3064 3037 3037 3064 3064 3064 3064 3064 3064 3037 3037 3037 3037 3037 3037 3037 3037 3037 3037 3037 3037 3037 3037 3064 6146 6146 6146 6146 6146 6146 6146 6146 6146 6038 6038 5933 5933 5933 5933 5933 5832 5832 5933 5933 5933 5933 5933 5933 5933 5933 5832 5832 5832 5832 5832 5832 5832 5933 5933 6038 6038 6038 6038 6038 5933 5933 5933 5933 6038 6038 6038 6038 6038 6038 6146 6146 6146 6146 6146 6259 6146 6146 6146 6146 6146 6146 6146 6146 6146 6146 6146 6146 6146 6146 6146 6146 6146 6146 6146 6146 6259 6259 6259 6259 6259 6259 6146 6038 6038 6038 6038 6038 6038 6038 6038 6146 6146 6038 6038 6038 6038 6038 6038 6038 5933 5933 5933 5933 5933 5933 5933 5933 5933 6038 5933 5933 5933 6038 6038 6038 6038 6038 6038 6038 6146 6146 6146 6146 6146 6259 6259 6259 6146 6146 6146 6146 6146 6259 6375 6375 6375 6497 6497 6497 6497 6497 0 0 0 0 0 0 0 0 0 0 0 0 0
0 0 0 0 0 0 0 0 0 0 0 0 0 0 0 0 0 0 0 0 0 0 0 0 0 0 0 0 0 0 4911 4911 4911 4983 4983 8849 8849 8849 8849 9084 9084 9331 4842 4842 4842 4842 5056 5132 5132 5132 5132 5210 5210 5132 5132 5132 5132 8849 8849 9084 9084 9084 9084 9331 9331 9084 9084 9084 9084 9084 9084 9084 8849 8849 8849 8849 8849 8849 8849 8849 8849 8626 8626 8626 8626 8849 8849 8626 8626 5132 5132 5056 5056 5056 5056 5056 5132 5132 5132 5132 5132 5132 5132 5132 5132 5210 5210 5210 5210 5210 5291 5291 5291 5291 5291 5291 5374 5374 5374 5374 5460 5460 5460 5460 5460 5460 5548 5640 5640 5640 5640 5640 5548 5548 3859 3859 3859 3859 3859 3816 3816 8212 8019 8019 8019 8212 8626 8626 8626 8626 8849 8626 8413 8413 5548 5548 5460 5374 5374 8626 8413 8413 8212 8212 8413 5460 5460 5374 5374 8212 8212 8413 8413 8413 8413 8413 8626 5460 5460 5460 5374 5374 5374 5374 5374 5374 5374 5374 5374 5460 5374 5374 5460 5460 5460 5460 5374 5374 5374 5374 5374 5374 5374 5374 5374 5374 5374 5374 5374 5374 5374 5374 5374 5374 3539 3539 3539 3539 3539 3539 3539 3539 3539 3539 3539 3539 3539 3539 3539 3539 3539 3539 3539 3539 3539 3539 3539 3539 3539 3503 3503 3503 3503 3503 3503 3503 3503 3503 3468 3468 3468 3468 3468 3468 3468 3468 3468 3468 3433 3433 3468 3468 3468 3468 3433 3433 3468 3468 3468 3468 3468 3468 3468 3433 3433 3433 3433 3468 3468 3468 3468 3468 3468 3468 3433 3433 3433 3433 3433 3433 3433 3433 3433 3433 3433 3433 3433 3433 3433 3399 3399 3399 3399 3399 3399 3399 3399 3399 3399 3399 3399 3399 3399 3399 3399 3399 3365 3365 3365 3365 3365 3365 3365 3365 3365 3333 3333 3300 3300 3333 3333 3333 3333 3333 3333 3333 3333 1863 1853 1853 1853 1853 1853 1853 1853 1843 1843 1843 1843 1843 1843 1843 1843 1843 1843 1843 1843 1843 1843 1843 1843 1833 1833 1843 1833 1833 1833 1833 1833 1833 1833 1833 1823 1823 1823 1813 1813 1813 1813 1813 1813 1813 1813 1813 1813 1813 1804 1804 1804 1804 1804 1804 1804 1804 1804 1804 1804 1804 1804 1804 1804 1794 1794 1794 1794 1794 1794 1794 1794 1794 1794 1794 1794 1794 1794 1794 3092 3092 3120 3120 3120 3092 3092 3092 3120 3120 3092 3092 3120 3120 3120 3120 3120 3092 3092 3092 3092 3092 3092 3092 3092 3092 3092 3092 3064 3064 3064 3064 3064 3064 3064 3064 3064 3064 3064 3064 3064 3064 3064 3064 3064 3064 3064 3064 3064 3064 3064 3064 3064 3064 3064 3064 3064 3064 3064 3064 3037 3037 3037 3037 3037 3037 3037 3037 3064 6146 6146 6146 6146 6146 6146 6146 6146 6146 6038 6038 6038 6038 6038 5933 5933 5933 5933 5933 5933 5933 5933 6038 6038 6038 5933 5832 5832 5933 5832 5832 5933 5933 6038 6038 6038 6146 6146 6146 6038 6038 6038 6038 6038 6146 6146 6146 6146 6146 6146 6146 6146 6146 6259 6259 6259 6259 6259 6146 6146 6146 6146 6146 6146 6146 6146 6146 6146 6146 6146 6146 6146 6146 6146 6146 6146 6146 6146 6259 6259 6259 6146 6038 6038 6038 6038 6038 6038 6038 6038 6038 6038 6146 6146 6146 6038 6038 6038 6038 6038 5933 5933 5933 5933 5933 5933 5933 5933 5933 6038 5933 5933 5933 6038 6038 6038 6038 6038 6038 6038 6146 6146 6146 6146 6146 6259 6259 6259 6146 6146 6146 6259 6259 6259 6375 6375 6497 6497 6497 6497 6497 6497 0 0 0 0 0 0 0 0 0 0 0 0 0
0 0 0 0 0 0 0 0 0 0 0 0 0 0 0 0 0 0 0 0 0 0 0 0 0 0 0 0 0 0 5132 5056 5056 5132 5132 8849 8849 8849 8849 9084 9084 9331 9593 4842 4842 4842 5056 5132 5132 5132 5132 5210 5210 5210 5132 5132 5210 8849 8849 9084 9084 9084 9084 9331 9331 9084 9084 9084 9084 9084 9084 9084 8849 8849 8849 8849 8849 8849 8849 8849 8849 8626 8626 8626 8849 8849 8849 8626 8626 8626 5132 5056 5056 5056 5056 5132 5132 5132 5132 5132 5132 5132 5132 5132 5210 5210 5210 5291 5291 5291 5291 5291 5291 5291 5291 5291 5291 5291 5374 5374 5374 5460 5460 5460 5460 5460 5548 5548 5640 5640 5640 5548 5548 5548 5460 3903 3859 3859 3859 3816 3816 5291 8019 8019 8019 8212 8626 8626 8626 8626 8849 8413 8413 5460 5460 5460 5460 5460 5460 8626 8626 8413 8413 5460 5460 5460 5460 5374 5374 5374 5374 8413 8413 8413 8413 5374 5374 5460 5374 5374 5374 5374 5374 5460 5374 5374 5374 5374 5374 5460 5374 5374 5460 5460 5460 5460 5374 5374 5374 5374 5374 5374 5374 5374 5374 5374 5374 5374 5374 5374 5374 5374 5374 9593 3503 3503 3503 3539 3539 3539 3539 3539 3539 3539 3539 3539 3539 3539 3539 3539 3539 3539 3539 3539 3539 3539 3539 3539 3539 3503 3503 3503 3503 3503 3503 3503 3503 3503 3503 3468 3468 3468 3468 3468 3468 3468 3468 3468 3468 3468 3468 3468 3468 3468 3433 3433 3468 3468 3468 3468 3468 3468 3468 3433 3433 3433 3433 3433 3433 3433 3433 3433 3468 3433 3433 3433 3433 3433 3433 3433 3433 3433 3433 3433 3433 3399 3399 3399 3399 3399 3399 3399 3399 3399 3399 3399 3399 3399 3399 3399 3399 3399 3399 3399 3399 3399 3365 3365 3365 3365 3365 3365 3365 3365 3365 3333 3333 3333 3333 3333 3333 3333 3333 3333 3333 3333 3333 1863 1863 1863 1853 1853 1853 1853 1853 1843 1843 1843 1843 1843 1843 1843 1843 1843 1843 1843 1843 1843 1843 1843 1843 1843 1843 1843 1833 1833 1833 1833 1833 1833 1833 1833 1823 1823 1823 1813 1813 1813 1813 1813 1813 1813 1813 1813 1813 1813 1804 1804 1804 1804 1804 1804 1804 1804 1804 1804 1804 1804 1804 1804 1804 1794 1794 1794 1794 1794 1794 1794 1794 1794 1794 1794 1794 1794 1794 1794 3120 3120 3120 3120 3120 3120 3092 3092 3120 3120 3092 3092 3120 3120 3120 3120 3120 3092 3092 3092 3092 3092 3092 3092 3092 3092 3092 3092 3064 3064 3064 3064 3064 3064 3064 3064 3064 3064 3064 3064 3064 3064 3064 3064 3064 3064 3064 3064 3064 3064 3064 3064 3064 3064 3064 3064 3064 3064 3037 3037 3037 3037 3037 3037 3037 3037 3037 3037 3064 6146 6146 6146 6146 6146 6146 6146 6146 6146 6038 6038 6038 6038 6038 6038 5933 5933 5933 6038 6038 6038 6038 6146 6146 6146 5933 5933 6038 6038 5933 5933 5933 6038 6038 6146 6146 6146 6146 6146 6259 6146 6146 6146 6146 6146 6146 6146 6146 6146 6146 6259 6259 6259 6259 6259 6375 6259 6259 6146 6146 6146 6038 6038 6146 6146 6038 6038 6038 6146 6146 6146 6146 6146 6146 6146 6146 6146 6146 6146 6146 6146 6146 6038 6038 6038 6038 6038 6038 6038 6038 6038 6038 6146 6146 6146 6038 6038 6038 6038 6038 5933 5933 6038 5933 5933 5933 5933 6038 6038 6038 6038 6038 6038 6038 6038 6038 6038 6038 6038 6038 6146 6146 6146 6146 6259 6259 6259 6375 6259 6259 6259 6375 6375 6375 6497 6497 6497 6622 6622 6622 6622 6622 0 0 0 0 0 0 0 0 0 0 0 0 0
0 0 0 0 0 0 0 0 0 0 0 0 0 0 0 0 0 0 0 0 0 0 0 0 0 0 0 0 0 0 5132 5132 5132 5132 5132 9084 9084 9084 9084 9331 9331 9331 9593 9331 9331 9593 9593 5132 5132 5132 5210 5210 5210 5210 5210 5210 5210 8849 8849 8849 9084 9084 9331 9331 9331 9084 9084 9084 9084 9084 9084 9084 8849 8849 8849 8849 8849 8849 8849 8849 8849 8626 8626 8626 8849 8849 8849 8849 8849 8849 8849 8849 5132 5132 5132 5056 5056 5132 5132 5132 5132 5132 5132 5132 5210 5210 5291 5291 5291 5291 5291 5291 5291 5291 5291 5291 5291 5291 5374 5374 5374 5460 5460 5460 5460 5460 5548 5548 5640 5640 5640 5548 5548 5548 5460 5460 5460 5460 5374 5374 5291 5291 5374 5374 8019 8212 8413 8413 8626 8849 5640 5640 5374 5374 5374 5460 5460 5374 5374 5374 5374 5374 5374 5374 5374 5460 5374 5374 5374 5374 5374 5374 5374 5374 5374 5374 5374 5374 5374 5374 5374 5374 5374 5374 5374 5374 5374 5374 5374 5460 5374 5374 5460 5460 5460 5460 5374 5374 5374 5374 5374 5374 5374 5374 5374 5374 5374 5374 5374 5374 5374 5374 9593 9593 3503 3503 3503 3539 3539 3539 3539 3539 3539 3539 3539 3539 3539 3539 3539 3539 3539 3539 3539 3539 3539 3539 3539 3539 3539 3503 3503 3503 3503 3503 3503 3503 3503 3503 3503 3468 3468 3468 3468 3468 3468 3468 3468 3468 3468 3468 3468 3468 3468 3468 3433 3433 3468 3468 3468 3468 3468 3468 3468 3433 3433 3433 3433 3433 3433 3433 3433 3433 3468 3433 3433 3433 3433 3433 3433 3433 3433 3433 3433 3433 3433 3399 3399 3399 3399 3399 3399 3399 3399 3399 3399 3399 3399 3399 3399 3399 3399 3399 3399 3399 3399 3399 3399 3365 3365 3365 3365 3365 3365 3365 3365 3333 3333 3333 3333 3333 3333 3333 3300 3300 3300 3300 0 1863 1863 1863 1863 1863 1853 1853 1853 1853 1843 1843 1843 1843 1843 1843 1843 1843 1843 1843 1843 1843 1843 1843 1843 1843 1843 1843 1843 1843 1843 1833 1833 1833 1833 1833 1823 1823 1823 1823 1823 1823 1813 1813 1813 1813 1813 1813 1813 1813 1804 1804 1804 1804 1804 1804 1804 1804 1804 1794 1794 1804 1804 1804 1804 1804 1794 1794 1794 1794 1794 1794 1794 1794 1794 1794 1794 1794 1794 1794 3149 3120 3120 3120 3120 3120 3120 3120 3120 3120 3120 3120 3120 3120 3120 3120 3120 3092 3092 3092 3092 3092 3092 3092 3092 3092 3092 3092 3092 3092 3092 3064 3064 3064 3064 3064 3064 3064 3064 3064 3064 3064 3064 3064 3064 3064 3064 3064 3064 3064 3064 3064 3064 3064 3037 3037 3064 3037 3037 3037 3037 3037 3064 3064 3037 3037 3037 3037 3064 6146 6146 6146 6146 6146 6259 6259 6259 6259 6146 6146 6038 6038 6038 6038 6038 6038 6038 6146 6146 6146 6146 6259 6259 6146 6038 6038 6038 6038 5933 5933 5933 6038 6146 6146 6146 6259 6259 6259 6259 6146 6146 6146 6146 6146 6146 6146 6146 6146 6259 6259 6146 6146 6146 6146 6259 6146 6146 6146 6146 6146 6038 6038 6146 6146 6038 6038 6038 6146 6146 6146 6146 6146 6146 6146 6146 6146 6146 6146 6146 6146 6146 6038 6038 6038 6038 5933 5933 6038 6038 6038 6038 6146 6146 6146 6038 6038 6038 6038 6038 6038 6038 6038 5933 5933 5933 6038 6038 6038 6146 6038 6038 6146 6038 6038 6038 6038 6146 6038 6038 6146 6259 6259 6259 6259 6259 6375 6375 6375 6375 6375 6497 6497 6497 6497 6497 6622 6753 6753 6622 6622 6753 0 0 0 0 0 0 0 0 0 0 0 0 0
0 0 0 0 0 0 0 0 0 0 0 0 0 0 0 0 0 0 0 0 0 0 0 0 0 0 0 0 0 0 0 0 5374 4983 4983 4983 4983 4842 4842 9331 9331 9331 9331 9331 9331 9593 9331 9331 5132 5132 5210 5210 5210 5210 5210 5210 8849 8849 8849 8849 9084 9084 9331 9331 9331 9331 9331 9084 9084 9084 8849 8849 8849 8849 8849 8849 8849 8849 8849 8849 8849 8849 8849 8849 8849 8849 8849 8849 8849 8849 8849 8849 8849 9084 9084 5056 5056 5132 5210 5210 5210 5291 5291 5291 5374 5374 5374 5374 5374 5374 5374 5374 5291 5291 5291 5291 5291 5291 5374 5374 5374 5374 5460 5460 5460 5460 5548 5548 5640 5640 5640 5640 5640 5640 5640 5460 5460 5460 5460 5460 5460 5374 5374 5374 5460 5548 5548 5548 5548 5548 5548 5548 5374 5374 5374 5460 5374 5374 5291 5291 5374 5374 5374 5374 5374 5460 5374 5374 5374 5374 5291 5291 5291 5374 5374 5374 5374 5374 5374 5374 5374 5374 5374 5374 5374 5374 5374 5374 5374 5460 5374 5374 5460 5460 5460 5460 5374 5374 5374 5374 5374 5374 5374 5374 5374 5460 5548 8626 5374 5374 5374 9084 9331 9331 3539 3539 3539 3539 3539 3539 3539 3539 3539 3539 3539 3539 3539 3539 3539 3539 3539 3539 3539 3539 3539 3539 3539 3539 3539 3503 3503 3503 3503 3503 3503 3503 3503 3503 3503 3503 3503 3503 3503 3503 3468 3468 3503 3503 3468 3468 3468 3468 3468 3468 3468 3468 3468 3468 3468 3468 3433 3433 3468 3433 3433 3433 3433 3433 3433 3468 3468 3468 3433 3433 3433 3433 3433 3433 3433 3433 3433 3433 3433 3433 3399 3399 3399 3399 3399 3399 3399 3399 3399 3399 3399 3399 3399 3399 3399 3399 3399 3399 3399 3399 3399 3399 3399 3365 3365 3365 3365 3365 3365 3365 3365 3333 3333 3333 3333 3333 3333 3333 3300 3300 3300 3300 0 1863 1863 1863 1863 1863 1853 1853 1853 1853 1843 1843 1843 1843 1843 1843 1843 1843 1843 1843 1843 1843 1843 1843 1843 1843 1843 1843 1843 1833 1833 1833 1833 1833 1833 1833 1823 1823 1823 1823 1823 1823 1823 1823 1813 1813 1813 1813 1813 1813 1813 1813 1804 1804 1804 1804 1804 1804 1804 1794 1794 1804 1804 1804 1804 1804 1794 1794 1794 1794 1794 1794 1794 1794 1794 1794 1794 1794 1794 1794 3149 3149 3120 3120 3120 3120 3092 3092 3092 3092 3092 3092 3092 3092 3120 3120 3120 3092 3092 3092 3092 3092 3092 3092 3092 3092 3092 3092 3092 3092 3092 3064 3064 3064 3064 3064 3064 3064 3064 3064 3064 3064 3064 3064 3064 3064 3064 3064 3064 3064 3064 3064 3064 3064 3037 3037 3037 3037 3037 3037 3037 3064 3064 3064 3064 3037 3037 3037 3064 6259 6259 6259 6259 6259 6259 6259 6259 6259 6259 6259 6259 6259 6259 6146 6146 6146 6146 6259 6259 6259 6259 6375 6375 6146 6146 6146 6038 6038 5933 5933 6146 6375 6259 6259 6259 6375 6375 6259 6259 6146 6146 6146 6146 6259 6259 6146 6146 6146 6146 6146 6146 6146 6146 6146 6146 6146 6146 6146 6146 6146 6038 6038 6146 6146 6146 6146 6146 6146 6146 6146 6146 6146 6146 6146 6146 6146 6146 6146 6146 6146 6146 6038 6038 6038 5933 5933 5933 5933 6038 6038 6038 6146 6146 6146 6038 6038 6038 6038 6038 6038 6038 6038 6038 6038 6038 6038 6038 6038 6146 6038 6038 6259 6146 6146 6259 6146 6146 6146 6146 6259 6259 6375 6375 6375 6375 6375 6497 6497 6375 6375 6497 6497 6497 6622 6622 6753 6889 6889 6889 6889 6889 0 0 0 0 0 0 0 0 0 0 0 0 0
0 0 0 0 0 0 0 0 0 0 0 0 0 0 0 0 0 0 0 0 0 0 0 0 0 0 0 0 0 0 0 0 5374 4983 4983 4983 4911 4842 4842 9331 9331 9331 9331 9331 9331 9593 9331 9331 5132 5132 5210 5210 5210 5291 0 0 0 8849 8849 8849 9084 9331 9331 9593 9593 9331 9084 9084 9084 9084 8849 8849 8849 8849 8849 8849 8849 8849 8849 8849 8849 8849 8849 8849 8849 8849 8849 8849 8849 8849 8849 8849 9084 9084 9084 9084 9331 9331 5291 5291 5374 5374 5374 5374 5374 5374 5374 5374 5374 5374 5374 5374 5374 5374 5374 5374 5374 5374 5374 5374 5374 5374 5460 5460 5460 5460 5460 5548 5640 5548 5548 5460 5460 5640 5640 5640 5548 5460 5460 5548 5548 5460 5460 5460 5460 5548 5548 5548 5460 5460 5548 5548 5374 5374 5374 5374 5374 5374 5291 5291 5291 5291 5374 5460 5374 5374 5374 5374 5374 5374 5291 5291 5291 5374 5374 5374 5374 5374 5374 5374 5374 5374 5374 5291 5291 5374 5374 5374 5374 5374 5460 5460 5460 5548 5460 5460 5460 5374 5374 5374 5374 5374 5374 5374 5374 5460 8626 8626 8626 8626 8849 9084 9331 9331 3539 3539 3539 3539 3539 3539 3539 3539 3539 3539 3539 3539 3539 3539 3539 3539 3539 3539 3539 3539 3539 3539 3539 3539 3539 3503 3503 3503 3503 3503 3503 3503 3503 3503 3503 3503 3503 3503 3503 3503 3468 3468 3503 3503 3468 3468 3468 3468 3468 3468 3468 3468 3468 3468 3468 3468 3433 3433 3433 3433 3433 3433 3433 3433 3433 3433 3468 3433 3433 3433 3433 3433 3433 3433 3399 3399 3399 3399 3399 3399 3399 3399 3399 3399 3399 3399 3399 3399 3399 3399 3399 3399 3399 3399 3399 3399 3399 3399 3399 3399 3399 3399 3399 3365 3365 3365 3365 3365 3365 3365 3365 3333 3333 3333 3333 3333 3333 3333 3333 3300 3300 3300 3333 1863 1863 1863 1863 1863 1853 1853 1853 1853 1843 1843 1843 1843 1843 1843 1843 1843 1843 1843 1843 1843 1843 1843 1843 1843 1843 1843 1833 1833 1833 1833 1833 1833 1833 1833 1833 1833 1823 1823 1823 1823 1823 1823 1813 1813 1813 1813 1813 1813 1813 1813 1804 1804 1804 1804 1804 1804 1804 1804 1804 1804 1804 1804 1804 1804 1794 1794 1794 1794 1794 1794 1794 1794 1794 1794 1794 1794 1794 1794 3120 3120 3120 3120 3120 3120 3092 3092 3092 3092 3092 3092 3092 3092 3120 3120 3120 3092 3092 3092 3092 3092 3092 3092 3092 3092 3092 3092 3092 3092 3092 3064 3064 3064 3064 3064 3064 3064 3064 3064 3064 3064 3064 3064 3064 3064 3064 3064 3064 3064 3064 3064 3064 3064 3037 3037 3037 3037 3064 3064 3064 3064 3092 3092 3092 3064 3064 6497 6497 6375 6375 6375 6375 6375 6375 6375 6375 6375 6259 6259 6375 6375 6375 6375 6375 6375 6375 6375 6375 6375 6375 6375 6497 6375 6146 6146 6146 6146 6146 6146 6146 6375 6375 6375 6375 6375 6375 6375 6259 6259 6259 6259 6259 6259 6259 6146 6146 6146 6146 6146 6146 6146 6146 6146 6146 6146 6146 6146 6146 6146 6038 6038 6146 6146 6146 6146 6146 6146 6146 6146 6146 6146 6146 6146 6146 6146 6146 6146 6146 6146 6146 6038 6038 6038 5933 5933 5933 5933 6038 6038 6146 6146 6146 6146 6038 6038 6038 6038 6038 6038 6038 6146 6038 6038 6038 6038 6038 6146 6259 6146 6146 6259 6259 6259 6259 6259 6259 6259 6259 6259 6375 6375 6375 6375 6497 6497 6497 6497 6375 6375 6497 6497 6622 6753 6753 6889 6889 6889 6889 6889 6889 0 0 0 0 0 0 0 0 0 0 0 0 0
0 0 0 0 0 0 0 0 0 0 0 0 0 0 0 0 0 0 0 0 0 0 0 0 0 0 0 0 0 0 5460 5374 5374 4983 4983 4911 4911 4911 4911 4911 9331 9331 9331 9331 9331 9331 9331 9331 9331 5210 5210 5210 5210 0 0 0 0 0 0 0 0 9331 9331 9331 9331 9331 9084 9084 9084 9084 8849 8849 8849 8849 8849 8849 8849 8849 8849 8849 8849 8849 8849 8849 8849 8849 8849 8849 8849 8849 8849 8849 9084 9084 9084 9084 8849 8849 5374 5374 5374 5460 5374 5374 5460 5460 5460 5460 5460 5374 5374 5374 5374 5374 5374 5374 5374 5374 5374 5374 5374 5460 5460 5460 5460 5460 5460 5548 5548 5548 5460 5460 5460 5460 5460 5460 5460 5640 5640 5640 5640 5548 5548 5548 5548 5460 5460 5548 5460 5460 5460 5460 5374 5374 5374 5374 5374 5374 5374 5374 5291 5291 5374 5374 5374 5374 5374 5374 5291 5291 5291 5291 5291 5291 5374 5374 5374 5374 5374 5374 5374 5374 5374 5291 5291 5374 5374 5374 5374 5374 5374 5460 5460 5460 5374 5374 5374 5374 5374 5374 5374 5374 5460 5460 8626 8626 8626 8626 8626 8626 8626 8849 8849 8849 3539 3539 3539 3539 3539 3539 3539 3539 3539 3539 3539 3539 3539 3539 3539 3539 3539 3539 3539 3539 3539 3539 3539 3539 3539 3503 3503 3503 3503 3503 3503 3503 3503 3503 3503 3503 3503 3503 3503 3503 3468 3468 3468 3468 3468 3468 3468 3468 3468 3468 3468 3468 3468 3468 3468 3468 3433 3433 3433 3433 3433 3433 3433 3433 3433 3433 3433 3433 3433 3433 3433 3399 3399 3399 3399 3399 3399 3399 3399 3399 3399 3399 3399 3399 3399 3399 3399 3399 3399 3399 3399 3399 3399 3399 3399 3399 3399 3399 3399 3365 3365 3365 3365 3365 3365 3365 3365 3365 3365 3365 3365 3333 3333 3333 3333 3333 3333 3333 3333 3300 3300 3333 3333 1863 1863 1863 1863 1863 1863 1853 1853 1853 1843 1843 1843 1843 1843 1843 1843 1843 1843 1843 1843 1843 1843 1843 1843 1843 1843 1843 1833 1833 1833 1833 1833 1833 1833 1833 1833 1833 1833 1833 1823 1823 1823 1823 1823 1813 1813 1813 1813 1813 1804 1804 1804 1804 1804 1804 1804 1804 1804 1804 1804 1804 1804 1804 1804 1804 1794 1794 1794 1794 1794 1794 1794 1794 1794 1794 1785 1785 1785 1785 3120 3120 3120 3120 3120 3120 3120 3120 3120 3092 3092 3092 3092 3092 3092 3092 3092 3092 3092 3092 3092 3092 3092 3092 3092 3092 3092 3092 3092 3092 3092 3092 3064 3064 3064 3064 3064 3064 3064 3064 3064 3064 3064 3064 3064 3064 3064 3064 3064 3092 3064 3064 3037 3037 3037 3037 3037 3037 3064 3064 3092 6753 6889 6889 6889 6889 6753 6622 6622 6497 6497 6497 6497 6497 6622 6622 6622 6622 6497 6375 6375 6375 6375 6375 6375 6375 6375 6497 6497 6497 6497 6497 6497 6497 6375 6375 6259 6259 6259 6259 6259 6259 6259 6259 6259 6259 6259 6259 6375 6259 6259 6259 6259 6259 6259 6146 6146 6146 6146 6146 6146 6146 6146 6146 6146 6146 6146 6146 6146 6146 6146 6146 6146 6259 6146 6146 6259 6259 6259 6259 6259 6259 6259 6259 6259 6259 6259 6259 6259 6146 6146 6038 6038 6038 6038 6038 6038 6038 6038 6146 6146 6146 6146 6146 6146 6146 6146 6146 6146 6146 6146 6146 6146 6146 6146 6146 6146 6146 6259 6375 6375 6375 6375 6375 6375 6375 6375 6375 6375 6375 6375 6497 6497 6497 6497 6497 6497 6497 6375 6375 6497 6497 6497 6622 6622 6753 6889 6889 6889 6889 6889 0 0 0 0 0 0 0 0 0 0 0 0 0
0 0 0 0 0 0 0 0 0 0 0 0 0 0 0 0 0 0 0 0 0 0 0 0 0 0 0 0 0 0 5132 5056 4983 4983 4983 4911 4911 4911 4911 4911 9331 9331 9084 9084 9084 9331 9331 9331 9331 9331 0 0 0 0 0 0 0 0 0 0 0 0 9593 9331 9331 9331 9084 9084 9084 9084 9084 9084 8849 8849 8849 8849 8849 8849 8849 8849 8849 8849 8849 8849 8849 8849 8849 8849 8849 8849 8849 8849 8849 8849 8849 9084 5460 5374 5374 5374 5374 5460 5374 5374 5460 5460 5460 5460 5460 5460 5460 5460 5460 5374 5374 5374 5374 5374 5374 5374 5374 5460 5460 5460 5460 5460 5460 5548 5548 5548 5460 5460 5460 5460 5460 5460 5460 5640 5640 5640 5640 5640 5460 5460 5460 5460 5460 5460 5460 5460 5460 5460 5374 5374 5374 5374 5374 5374 5374 5374 5374 5374 5374 5374 5374 5374 5374 5291 5291 5291 5291 5291 5291 5291 5374 5374 5374 5291 5291 5291 5291 5291 5291 5374 5374 5374 5374 5374 5374 5374 5374 5374 5374 5374 5374 5374 5374 5374 5374 5374 5374 5374 8626 8626 8626 8413 8413 8626 8413 8413 8413 8413 8413 8413 3539 3539 3539 3539 3539 3539 3539 3539 3539 3539 3539 3539 3539 3539 3539 3539 3539 3539 3539 3539 3539 3539 3539 3539 3539 3503 3503 3503 3503 3503 3503 3503 3503 3503 3503 3503 3503 3503 3503 3503 3468 3468 3468 3468 3468 3468 3468 3468 3468 3468 3468 3468 3468 3468 3468 3468 3433 3433 3433 3433 3433 3433 3433 3433 3433 3433 3433 3433 3433 3433 3433 3399 3399 3399 3399 3399 3399 3399 3399 3399 3399 3399 3399 3399 3399 3399 3399 3399 3399 3399 3399 3399 3399 3399 3399 3399 3399 3399 3399 3365 3365 3365 3365 3365 3365 3365 3365 3365 3365 3365 3365 3333 3333 3333 3333 3333 3333 3333 3333 3333 3333 3333 3333 0 1863 1863 1863 1863 1863 1853 1853 1853 1853 1843 1843 1843 1843 1843 1843 1843 1843 1843 1843 1843 1843 1843 1843 1843 1843 1843 1843 1833 1833 1833 1833 1833 1833 1833 1833 1833 1823 1823 1823 1823 1823 1823 1823 1813 1813 1813 1813 1813 1804 1804 1804 1804 1804 1804 1804 1804 1804 1804 1804 1804 1804 1804 1804 1804 1804 1794 1794 1794 1794 1794 1794 1794 1794 1794 1785 1785 1785 1785 3149 3149 3120 3120 3120 3120 3120 3120 3120 3092 3092 3092 3092 3092 3092 3092 3092 3092 3092 3092 3092 3092 3092 3092 3092 3092 3092 3092 3092 3092 3092 3064 3064 3064 3064 3064 3064 3064 3064 3064 3064 3064 3092 3092 3064 3064 3092 3092 3092 3092 3064 3064 3037 3037 3037 3037 6753 6753 6753 6889 6889 6889 6889 6889 6889 6889 6753 6622 6622 6497 6497 6622 6753 6753 6753 6622 6622 6753 6497 6497 6497 6497 6497 6497 6497 6497 6497 6497 6497 6497 6497 6497 6622 6497 6375 6375 6375 6259 6259 6259 6259 6259 6259 6259 6259 6259 6259 6259 6375 6375 6375 6375 6375 6375 6375 6259 6259 6259 6259 6259 6146 6146 6146 6146 6146 6146 6146 6146 6259 6146 6146 6259 6259 6375 6259 6259 6375 6375 6375 6375 6375 6375 6375 6375 6375 6375 6375 6375 6375 6259 6259 6146 6146 6146 6038 6038 6038 6038 6146 6146 6259 6259 6259 6259 6146 6146 6146 6146 6146 6146 6146 6146 6146 6259 6259 6259 6259 6259 6375 6375 6375 6375 6375 6375 6375 6375 6375 6375 6375 6375 6375 6497 6497 6497 6497 6497 6497 6497 6375 6375 6497 6497 6497 6622 6622 6753 6753 6889 6753 6753 6889 0 0 0 0 0 0 0 0 0 0 0 0 0
0 0 0 0 0 0 0 0 0 0 0 0 0 0 0 0 0 0 0 0 0 0 0 0 0 0 0 0 0 0 5056 5056 4983 4983 4983 4983 4911 4911 4983 4983 5056 9084 9084 9084 9084 9084 9084 9084 9084 9084 0 0 0 0 0 0 0 0 0 0 0 0 0 9593 9593 9331 9084 9084 9084 9084 9084 8849 8849 8849 8849 9084 9084 8849 8849 9084 9084 9084 9084 9084 9084 9084 8849 8849 8849 8849 8849 8849 8849 8849 5548 5548 5460 5374 5374 5460 5460 5460 5460 5460 5460 5460 5460 5460 5460 5460 5460 5460 5460 5460 5460 5460 5460 5460 5460 5460 5460 5460 5460 5460 5460 5460 5460 5460 5640 5548 5460 5460 5460 5460 5640 5548 5548 5640 5640 5640 5548 5548 5460 5460 5460 5460 5460 5460 5460 5460 5460 5460 5374 5291 5291 5374 5374 5291 5291 5374 5374 5374 5374 5374 5374 5374 5374 5291 5291 5291 5291 5291 5291 5291 5291 5291 5291 5291 5291 5291 5291 5291 5291 5291 5291 5374 5374 5374 5374 5374 5374 5374 5374 5374 5374 5374 5374 5374 5374 5374 8626 8626 8626 8626 8626 8413 8413 8626 8413 8413 8413 8413 8413 8413 3539 3539 3539 3539 3539 3539 3539 3539 3539 3539 3539 3539 3539 3539 3539 3539 3539 3539 3539 3539 3539 3539 3539 3539 3539 3503 3503 3503 3503 3503 3503 3503 3503 3503 3503 3503 3503 3503 3503 3503 3468 3468 3468 3468 3468 3468 3468 3433 3433 3468 3468 3468 3468 3433 3433 3468 3433 3433 3433 3433 3433 3433 3433 3433 3433 3433 3433 3433 3433 3433 3433 3399 3399 3399 3399 3399 3399 3399 3399 3399 3399 3399 3399 3399 3399 3399 3399 3399 3399 3399 3399 3399 3399 3399 3399 3399 3399 3399 3399 3399 3399 3365 3365 3365 3365 3365 3365 3365 3365 3365 3365 3333 3333 3333 3333 3333 3333 3333 3333 3333 3333 3333 3333 0 1863 1863 1863 1863 1863 1863 1853 1853 1853 1843 1843 1843 1843 1843 1843 1843 1843 1843 1843 1843 1843 1843 1843 1843 1843 1843 1843 1843 1843 1833 1833 1833 1833 1833 1833 1833 1823 1823 1823 1823 1823 1823 1823 1813 1813 1813 1813 1813 1804 1804 1804 1804 1804 1804 1804 1804 1804 1804 1804 1804 1804 1804 1804 1804 1804 1794 1794 1794 1794 1794 1794 1794 1794 1794 1785 1785 1794 1794 3120 3120 3120 3120 3120 3120 3120 3120 3120 3092 3092 3092 3092 3092 3120 3120 3120 3092 3092 3092 3092 3092 3092 3092 3092 3120 3092 3092 3092 3092 3092 3064 3064 3064 3064 3064 3064 3064 3064 3064 3064 3092 3092 3092 3092 3092 3092 3092 3092 3092 3064 3064 3037 3037 3037 3037 6753 6753 6753 6622 6622 6753 6889 6889 6889 6889 6753 6622 6622 6622 6622 6622 6753 6753 6753 6753 6753 6753 6622 6497 6497 6497 6497 6497 6497 6497 6497 6497 6497 6497 6497 6497 6497 6622 6375 6375 6375 6259 6259 6259 6259 6259 6259 6375 6375 6259 6259 6375 6375 6375 6375 6375 6375 6375 6375 6259 6259 6375 6375 6375 6259 6259 6259 6146 6146 6146 6146 6146 6259 6146 6146 6259 6375 6375 6497 6497 6497 6497 6497 6497 6375 6375 6375 6375 6375 6375 6375 6375 6375 6375 6259 6146 6146 6146 6146 6146 6146 6146 6146 6259 6375 6375 6375 6375 6259 6146 6146 6146 6259 6259 6259 6259 6259 6259 6259 6259 6259 6375 6375 6375 6375 6375 6375 6375 6375 6375 6375 6375 6375 6375 6375 6497 6497 6497 6497 6497 6497 6497 6497 6497 6497 6497 6497 6622 6622 6753 6753 6889 6753 6753 6889 0 0 0 0 0 0 0 0 0 0 0 0 0
0 0 0 0 0 0 0 0 0 0 0 0 0 0 0 0 0 0 0 0 0 0 0 0 0 0 0 0 0 0 5056 5056 4983 4983 5056 4983 4983 4983 4983 4983 5056 9084 9084 9084 9084 9084 9084 8849 8849 9084 0 0 0 0 0 0 0 0 0 0 0 0 0 9593 9593 9331 9331 9084 9084 9084 9084 8849 8849 8849 8849 9084 9084 8849 8849 9084 9084 9084 9084 9331 9084 9084 8849 8849 9084 8849 8849 8849 5640 5640 5548 5548 5460 5460 5460 5460 5460 5460 5460 5460 5460 5460 5460 5460 5548 5548 5548 5548 5548 5460 5460 5460 5460 5460 5460 5460 5460 5460 5460 5460 5460 5460 5460 5460 5640 5548 5548 5548 5548 5640 5640 5548 5548 5640 5640 5548 5548 5548 5460 5460 5460 5460 5460 5460 5460 5460 5460 5460 5374 5291 5291 5374 5291 5291 5291 5374 5374 5374 5374 5374 5374 5374 5291 5291 5291 5291 5291 5291 5291 5291 5291 5291 5291 5291 5291 5291 5291 5291 5291 5291 5291 5374 5374 5374 5374 5374 5374 5374 5374 5374 5374 5374 5374 5374 5374 5374 8626 8626 8626 8626 8626 8413 8413 8626 8413 8413 8413 8413 8413 8413 8413 3576 3539 3539 3539 3539 3539 3539 3539 3539 3539 3539 3539 3539 3539 3539 3539 3539 3539 3539 3539 3539 3539 3539 3539 3503 3503 3503 3503 3503 3503 3503 3503 3503 3503 3503 3503 3468 3468 3468 3468 3468 3468 3468 3468 3468 3468 3433 3433 3468 3468 3468 3468 3433 3433 3433 3433 3433 3468 3468 3468 3433 3433 3433 3433 3433 3433 3433 3433 3433 3433 3399 3399 3399 3399 3399 3399 3399 3399 3399 3399 3399 3399 3399 3399 3399 3399 3399 3399 3399 3399 3399 3399 3399 3399 3399 3399 3399 3399 3399 3399 3365 3365 3365 3365 3365 3365 3365 3365 3365 3365 3333 3333 3333 3333 3333 3333 3333 3333 3333 3333 3333 3333 3333 1873 1873 1873 1873 1873 1863 1863 1853 1853 1853 1853 1843 1843 1843 1843 1843 1843 1843 1843 1843 1843 1843 1843 1843 1843 1843 1843 1843 1843 1833 1833 1833 1833 1833 1833 1833 1833 1833 1833 1833 1833 1833 1823 1823 1823 1813 1813 1813 1813 1813 1813 1804 1804 1804 1804 1804 1804 1804 1804 1804 1804 1804 1804 1804 1804 1794 1794 1794 1794 1794 1794 1794 1794 1794 1785 1785 1794 1794 3120 3120 3120 3120 3120 3120 3120 3120 3120 3092 3092 3092 3092 3092 3092 3120 3120 3092 3092 3092 3092 3092 3092 3092 3092 3092 3092 3092 3092 3092 3092 3092 3064 3064 3064 3064 7030 7030 7178 7178 6889 6889 6753 6753 6622 3092 3092 6753 6753 6753 6753 7030 7030 7030 7178 6889 6753 6753 6753 6622 6622 6753 6889 6889 6889 6889 6753 6753 6753 6753 6622 6622 6753 6753 6753 6753 6753 6753 6622 6497 6497 6497 6622 6497 6497 6497 6497 6497 6497 6497 6622 6497 6497 6497 6497 6497 6497 6375 6375 6375 6375 6259 6259 6259 6259 6259 6259 6259 6375 6375 6375 6375 6375 6497 6497 6375 6375 6375 6375 6375 6375 6375 6375 6259 6259 6259 6146 6146 6259 6259 6375 6497 6497 6497 6622 6622 6622 6622 6497 6497 6497 6497 6497 6497 6497 6497 6497 6375 6375 6375 6375 6259 6259 6146 6146 6146 6259 6259 6375 6497 6497 6375 6375 6375 6259 6259 6146 6146 6259 6259 6259 6259 6259 6259 6259 6259 6259 6375 6375 6375 6375 6375 6375 6375 6375 6375 6375 6497 6375 6375 6375 6497 6497 6497 6497 6497 6497 6497 6497 6497 6497 6497 6497 6497 6497 6622 6753 6753 6753 6753 6753 0 0 0 0 0 0 0 0 0 0 0 0 0
0 0 0 0 0 0 0 0 0 0 0 0 0 0 0 0 0 0 0 0 0 0 0 0 0 0 0 0 0 0 5056 5056 4983 4983 5056 5056 4983 4983 4983 4983 9084 9084 9084 9084 9084 9084 9084 8849 8849 9084 0 0 0 0 0 0 0 0 0 0 0 0 0 9593 9331 9331 9084 9084 9084 9084 9084 9084 8849 8849 9084 9084 9084 9084 9084 9084 9084 9084 9084 9331 9084 5548 5548 5460 5460 5548 5548 5640 5640 5640 5640 5640 5548 5460 5460 5460 5460 5460 5460 5460 5460 5460 5548 5640 5640 5640 5640 5640 5548 5548 5548 5548 5548 5548 5460 5460 5460 5548 5548 5548 5548 5460 5460 5460 5640 5640 5548 5548 5548 5548 5640 5548 5548 5640 5640 5548 5548 5548 5460 5460 5460 5460 5460 5548 5548 5548 5460 5460 5374 5291 5291 5291 5291 5291 5291 5374 5374 5374 5374 5374 5374 5374 5291 5291 5291 5291 5291 5291 5291 5291 5291 5291 5291 5291 5291 5291 5291 5291 5291 5291 5374 5374 5374 5374 5374 5374 5374 5374 5374 5374 5374 5374 5460 5460 5460 5460 8626 8626 8626 8626 8626 8626 8626 8626 8413 8413 8413 8413 8413 8413 8413 3539 3539 3539 3539 3539 3539 3539 3539 3539 3539 3539 3539 3539 3539 3539 3539 3539 3539 3539 3539 3539 3539 3539 3539 3503 3503 3503 3503 3503 3503 3503 3503 3503 3468 3468 3468 3468 3468 3468 3468 3468 3468 3468 3468 3468 3468 3433 3433 3433 3468 3468 3468 3433 3433 3433 3433 3433 3468 3468 3468 3433 3433 3433 3433 3433 3433 3433 3433 3433 3433 3399 3399 3399 3399 3399 3399 3399 3399 3399 3399 3399 3399 3399 3399 3399 3399 3399 3399 3399 3399 3399 3399 3399 3399 3399 3399 3399 3399 3399 3399 3399 3399 3399 3365 3365 3365 3365 3365 3365 3365 3333 3333 3333 3333 3333 3333 3333 3333 3333 3333 3333 3333 3333 3333 1873 1873 1873 1873 1863 1863 1863 1853 1853 1853 1843 1843 1843 1843 1843 1843 1843 1843 1843 1843 1843 1843 1843 1843 1843 1843 1843 1843 1833 1833 1833 1833 1833 1833 1833 1833 1833 1833 1833 1833 1833 1823 1823 1823 1813 1813 1813 1813 1813 1813 1804 1804 1804 1804 1804 1804 1804 1804 1804 1804 1804 1804 1804 1804 1794 1794 1794 1794 1794 1794 1794 1794 1794 1785 1785 1794 1794 3092 3092 3092 3120 3120 3120 3092 3092 3092 3092 3092 3092 3092 3092 3092 3120 3120 3092 3092 3092 3092 3092 3092 3092 3092 3092 3092 3092 3092 3092 3064 3064 3064 3064 3064 3064 7030 7030 6889 6889 6889 6889 6753 6753 6622 6622 6753 6753 6753 6753 6889 6889 6889 7030 7030 6753 6753 6753 6753 6753 6753 6753 6753 6889 6889 6753 6753 6753 6753 6753 6753 6753 6753 6753 6753 6622 6622 6622 6497 6497 6497 6497 6622 6497 6497 6497 6497 6497 6497 6497 6622 6497 6497 6497 6622 6622 6622 6497 6375 6375 6375 6259 6259 6259 6259 6259 6259 6259 6375 6497 6497 6497 6497 6497 6497 6497 6497 6497 6497 6375 6375 6375 6375 6259 6259 6259 6259 6259 6259 6375 6375 6497 6497 6497 6622 6622 6622 6622 6622 6622 6497 6497 6497 6497 6497 6497 6497 6375 6375 6375 6375 6259 6259 6259 6259 6375 6375 6375 6497 6497 6497 6497 6497 6497 6375 6259 6259 6259 6259 6259 6259 6259 6259 6259 6259 6259 6259 6375 6375 6375 6375 6375 6375 6375 6375 6375 6375 6497 6375 6375 6375 6497 6497 6497 6497 6497 6497 6497 6497 6497 6497 6497 6497 6497 6497 6622 6753 6753 6753 6753 6753 0 0 0 0 0 0 0 0 0 0 0 0 0
0 0 0 0 0 0 0 0 0 0 0 0 0 0 0 0 0 0 0 0 0 0 0 0 0 0 0 0 0 0 5056 5056 5056 5056 5056 5056 4983 4983 4983 4983 9084 9084 9084 9084 9084 9084 9084 8849 8849 0 0 0 0 0 0 0 0 0 0 0 0 0 0 9593 9331 9331 9084 5734 5734 5734 5832 5832 5832 5832 5832 5832 9331 9084 5832 5832 5832 5832 5734 5734 5640 5548 5548 5460 5460 5548 5548 5640 5734 5734 5734 5734 5734 5548 5548 5460 5460 5460 5460 5460 5460 5548 5640 5640 5640 5734 5640 5640 5640 5548 5548 5548 5548 5548 5548 5548 5548 5548 5548 5548 5548 5548 5460 5460 5460 5460 5548 5548 5548 5460 5460 5460 5460 5548 5548 5548 5548 5548 5548 5460 5460 5460 5460 5460 5460 5460 5460 5460 5374 5291 5291 5291 5291 5291 5374 5374 5374 5374 5374 5374 5374 5374 5291 5291 5291 5291 5291 5291 5291 5291 5291 5291 5291 5291 5291 5291 5291 5291 5374 5374 5374 5374 5374 5374 5374 5374 5374 5374 5374 5460 5460 5460 5548 5548 5548 5548 5640 8626 8626 8626 8626 8626 8626 8626 8626 8413 8413 8413 8413 8413 8413 3539 3539 3539 3539 3539 3539 3539 3539 3539 3539 3539 3539 3539 3539 3539 3539 3539 3539 3539 3539 3539 3539 3539 3539 3503 3503 3503 3503 3503 3503 3503 3503 3503 3468 3468 3468 3468 3468 3468 3468 3468 3468 3468 3468 3468 3468 3433 3433 3433 3468 3468 3468 3468 3468 3468 3468 3468 3468 3468 3468 3468 3433 3433 3433 3433 3433 3433 3433 3433 3433 3399 3399 3399 3399 3399 3399 3399 3399 3399 3399 3399 3399 3399 3399 3399 3399 3399 3399 3399 3399 3399 3399 3399 3399 3399 3399 3399 3399 3399 3399 3365 3365 3365 3365 3365 3365 3365 3365 3365 3365 3333 3333 3333 3333 3333 3333 3333 3333 3333 3333 3333 3333 3333 0 1873 1873 1873 1873 1873 1863 1863 1863 1863 1853 1853 1853 1843 1843 1843 1843 1843 1843 1843 1843 1843 1843 1843 1843 1843 1843 1843 1843 1843 1833 1833 1833 1833 1833 1833 1833 1833 1833 1833 1833 1833 1823 1823 1813 1813 1813 1813 1813 1813 1813 1804 1804 1804 1804 1804 1804 1804 1804 1804 1804 1804 1804 1804 1804 1804 1804 1804 1804 1794 1794 1794 1794 1794 1794 1794 1794 0 0 3092 3092 3120 3120 3092 3092 3092 3092 3092 3092 3092 3092 3092 3092 3120 3092 3092 3092 3092 3092 3092 3092 3092 3092 3092 3092 3092 3092 3092 3064 3064 3064 6889 6889 7030 7030 7030 6889 6889 6889 6889 6753 6753 6753 6753 6753 6753 6753 6753 6753 6889 6889 6889 6889 6753 6753 6753 6753 6753 6753 6753 6753 6753 6753 6753 6753 6753 6753 6753 6753 6753 6753 6753 6622 6622 6622 6622 6497 6497 6497 6497 6497 6497 6497 6497 6497 6497 6497 6497 6622 6622 6622 6622 6622 6622 6622 6497 6497 6497 6375 6375 6497 6497 6497 6497 6497 6622 6622 6622 6622 6622 6622 6622 6497 6497 6497 6497 6497 6497 6497 6375 6375 6375 6375 6375 6375 6375 6497 6497 6497 6622 6622 6622 6622 6622 6622 6622 6622 6622 6622 6497 6497 6497 6497 6497 6497 6497 6497 6497 6497 6497 6497 6375 6375 6497 6497 6497 6497 6497 6497 6497 6497 6497 6375 6375 6375 6375 6375 6259 6259 6259 6259 6259 6259 6259 6259 6375 6375 6375 6375 6375 6375 6375 6375 6375 6375 6375 6375 6375 6375 6497 6497 6497 6497 6497 6497 6375 6375 6497 6497 6497 6497 6497 6497 6622 6622 6753 6753 6753 6753 0 0 0 0 0 0 0 0 0 0 0 0 0
0 0 0 0 0 0 0 0 0 0 0 0 0 0 0 0 0 0 0 0 0 0 0 0 0 0 0 0 0 0 5056 5056 5056 5056 5056 5056 5056 5056 5056 8849 8849 9084 9084 9084 9084 9084 9084 9084 0 0 0 0 0 0 0 0 0 0 0 0 0 0 0 0 0 0 5734 5734 5734 5734 5832 5832 5734 5734 5832 5832 5734 5734 5832 5832 5832 5832 5734 5734 5640 5640 5548 5548 5548 5640 5640 5640 5734 5734 5734 5734 5734 5734 5640 5548 5548 5460 5460 5460 5548 5548 5640 5640 5640 5734 5640 5640 5640 5640 5548 5548 5548 5548 5548 5548 5548 5548 5548 5640 5640 5548 5460 5460 5460 5460 5548 5548 5548 5460 5460 5460 5460 5548 5548 5548 5548 5548 5548 5460 5460 5460 5460 5460 5460 5460 5460 5374 5374 5374 5374 5374 5291 5291 5374 5374 5374 5374 5374 5374 5374 5374 5291 5291 5291 5291 5291 5291 5291 5291 5291 5291 5374 5374 5374 5374 5374 5374 5374 5374 5374 5374 5374 5374 5374 5374 5374 5374 5374 5460 5460 5460 5548 5548 5548 5548 5640 5640 8626 8626 8849 8626 8626 8626 8626 8626 8413 8413 8413 8413 8413 3539 3539 3539 3539 3539 3539 3539 3539 3539 3539 3539 3539 3539 3539 3539 3539 3539 3539 3539 3539 3539 3539 3539 3539 3503 3503 3503 3503 3503 3503 3503 3503 3503 3468 3468 3468 3468 3468 3468 3468 3468 3468 3468 3468 3468 3468 3468 3433 3433 3468 3468 3468 3468 3468 3468 3468 3468 3468 3468 3468 3468 3433 3433 3433 3433 3433 3433 3433 3433 3433 3399 3399 3399 3399 3399 3399 3399 3399 3399 3399 3399 3399 3399 3399 3399 3399 3399 3399 3399 3399 3365 3365 3399 3399 3365 3365 3399 3399 3399 3399 3365 3365 3365 3365 3365 3399 3365 3365 3365 3365 3333 3333 3333 3333 3333 3333 3333 3333 3333 3333 3333 3333 3333 0 1883 1883 1873 1873 1873 1863 1863 1863 1863 1853 1853 1853 1853 1853 1853 1843 1843 1843 1843 1843 1843 1843 1843 1843 1843 1843 1843 1843 1843 1833 1833 1833 1833 1833 1833 1833 1833 1833 1833 1833 1833 1823 1823 1813 1813 1813 1813 1813 1813 1813 1813 1813 1813 1804 1804 1804 1804 1804 1804 1804 1804 1804 1804 1804 1804 1804 1804 1804 1794 1794 1794 1794 1794 1794 1794 1794 0 0 3120 3120 3120 3120 3092 3092 3092 3092 3092 3092 3092 3092 3092 3092 3120 3092 3092 3092 3092 3092 3092 3092 3092 3092 3092 3120 3092 3092 3092 3092 3092 3092 6889 6889 7030 7030 6889 6889 6889 6753 6753 6753 6753 6753 6753 6753 6753 6753 6753 6753 6753 6753 6753 6753 6753 6753 6753 6753 6753 6753 6753 6753 6753 6753 6622 6622 6622 6622 6753 6753 6753 6753 6753 6622 6622 6622 6622 6497 6497 6497 6497 6497 6497 6622 6622 6497 6497 6497 6497 6622 6622 6622 6622 6622 6622 6622 6497 6497 6497 6497 6622 6622 6497 6497 6497 6497 6622 6622 6622 6622 6622 6622 6622 6622 6497 6497 6497 6497 6497 6497 6497 6497 6497 6497 6497 6497 6497 6497 6497 6622 6622 6622 6622 6622 6622 6622 6622 6622 6622 6622 6497 6497 6497 6497 6497 6497 6497 6497 6497 6497 6497 6497 6497 6497 6497 6497 6497 6497 6497 6497 6497 6497 6497 6375 6375 6375 6375 6375 6375 6259 6146 6146 6259 6259 6259 6259 6375 6375 6375 6375 6375 6375 6375 6375 6375 6375 6375 6375 6375 6375 6497 6497 6497 6497 6497 6497 6375 6375 6375 6497 6497 6497 6497 6622 6622 6622 6753 6753 6753 6753 0 0 0 0 0 0 0 0 0 0 0 0 0
0 0 0 0 0 0 0 0 0 0 0 0 0 0 0 0 0 0 0 0 0 0 0 0 0 0 0 0 0 0 5132 5132 5132 5132 5132 5132 5132 5132 5210 5548 8849 9084 9084 9084 9084 9084 9084 0 0 0 0 0 0 0 0 0 0 0 0 0 0 0 0 0 0 0 5734 5734 5734 5832 5832 5832 5734 5734 5832 5832 5734 5734 5832 5832 5734 5734 5734 5734 5734 5640 5640 5548 5548 5640 5640 5640 5734 5734 5734 5734 5734 5640 5640 5640 5548 5548 5548 5548 5734 5734 5734 5734 5734 5734 5734 5734 5640 5640 5640 5640 5640 5640 5640 5640 5640 5640 5640 5640 5640 5548 5548 5548 5548 5548 5548 5548 5548 5548 5548 5640 5548 5548 5640 5640 5640 5640 5548 5548 5548 5460 5460 5460 5460 5460 5460 5374 5374 5374 5374 5374 5291 5291 5374 5374 5374 5374 5374 5374 5374 5374 5291 5291 5291 5291 5291 5291 5291 5291 5291 5374 5374 5374 5374 5374 5374 5374 5374 5374 5374 5374 5374 5374 5374 5374 5374 5374 5374 5374 5460 5460 5548 5548 5548 5640 5640 5640 5640 5640 5640 5640 5640 5640 8626 8626 8626 8413 8413 8626 8626 8626 3539 3539 3539 3539 3539 3539 3539 3539 3539 3539 3539 3539 3539 3539 3539 3539 3539 3539 3539 3539 3539 3539 3539 3503 3503 3503 3503 3503 3503 3503 3503 3503 3468 3468 3468 3468 3468 3468 3468 3468 3468 3468 3468 3468 3468 3468 3468 3468 3468 3468 3468 3468 3468 3468 3468 3468 3468 3468 3468 3468 3468 3468 3433 3433 3433 3433 3433 3433 3433 3433 3433 3399 3399 3399 3399 3433 3433 3399 3399 3399 3399 3399 3399 3399 3399 3399 3399 3399 3399 3365 3365 3399 3399 3365 3365 3399 3399 3399 3399 3399 3399 3365 3365 3365 3365 3365 3365 3399 3365 3333 3333 3333 3333 3333 3333 3333 3333 3333 3333 3333 3333 3333 1873 1873 1873 1873 1873 1873 1863 1863 1863 1863 1863 1853 1853 1853 1853 1853 1843 1843 1843 1843 1843 1843 1843 1843 1843 1843 1843 1843 1843 1833 1833 1833 1833 1833 1833 1833 1833 1833 1823 1823 1833 1823 1823 1823 1823 1823 1823 1813 1813 1813 1813 1813 1813 1813 1804 1804 1804 1804 1804 1804 1804 1804 1804 1804 1804 1804 1804 1804 1804 1804 1794 1794 1794 1794 1794 1794 1794 0 0 3120 0 3120 3120 3092 3092 3092 3092 3120 4295 4241 4241 4241 4241 4241 4190 4190 4190 3092 3092 3092 3092 3092 3092 3149 3149 3149 3149 6889 7030 6889 6889 6889 6889 6889 6889 6889 6889 6889 6753 6753 6753 6753 6753 6753 6753 6753 6753 6753 6753 6753 6753 6753 6753 6622 6622 6753 6753 6753 6753 6622 6622 6622 6622 6622 6622 6622 6622 6622 6753 6753 6753 6753 6622 6622 6622 6622 6497 6497 6497 6497 6497 6497 6497 6497 6497 6497 6622 6622 6622 6622 6622 6622 6622 6622 6622 6622 6622 6497 6497 6622 6622 6622 6622 6622 6622 6622 6622 6622 6622 6622 6622 6622 6622 6622 6497 6497 6622 6622 6622 6497 6497 6497 6497 6497 6497 6497 6497 6497 6497 6497 6497 6622 6622 6622 6622 6622 6622 6622 6622 6622 6497 6497 6497 6497 6497 6497 6497 6497 6497 6497 6497 6497 6497 6497 6497 6497 6497 6497 6497 6497 6497 6497 6375 6375 6375 6375 6375 6259 6259 6146 6146 6259 6259 6259 6259 6259 6375 6375 6375 6375 6375 6375 6375 6375 6375 6375 6375 6375 6375 6497 6497 6497 6497 6497 6497 6375 6375 6375 6497 6497 6497 6497 6622 6622 6622 6753 6753 6753 6753 0 0 0 0 0 0 0 0 0 0 0 0 0
0 0 0 0 0 0 0 0 0 0 0 0 0 0 0 0 0 0 0 0 0 0 0 0 0 0 0 0 0 0 5132 5132 5132 5132 5132 5132 5132 5132 5210 5548 5734 5832 5832 5832 5832 5832 5832 5832 5832 0 0 0 0 0 0 0 0 0 0 0 0 0 0 0 0 5933 5832 5832 5832 5832 5832 5832 5832 5832 5832 5734 5734 5734 5734 5734 5734 5734 5734 5734 5734 5640 5640 5548 5548 5640 5640 5640 5734 5734 5734 5734 5640 5548 5548 5640 5640 5640 0 0 5933 5933 0 0 5734 5548 5548 5734 5640 5640 5640 5640 5640 5640 5640 5640 5640 5640 5640 5640 5640 5548 5548 5548 5548 5548 5548 5548 5548 5548 5548 5640 5548 5548 5640 5640 5640 5640 5640 5548 5548 5548 5548 5548 5548 5460 5460 5460 5374 5374 5374 5374 5374 5374 5374 5374 5374 5374 5374 5374 5374 5374 5374 5374 5374 5374 5291 5291 5374 5374 5374 5374 5374 5374 5374 5374 5374 5374 5460 5374 5374 5374 5374 5374 5374 5374 5374 5374 5374 5374 5460 5460 5548 5548 5548 5640 5640 5640 5640 5640 5640 5640 5640 5548 5548 5548 8626 8413 8413 8626 8626 8626 3503 3503 3503 3539 3539 3539 3539 3539 3539 3539 3539 3539 3539 3539 3539 3539 3539 3539 3539 3539 3539 3539 3539 3503 3503 3503 3503 3503 3503 3503 3503 3503 3468 3468 3468 3468 3468 3503 3468 3468 3503 3503 3503 3468 3468 3468 3468 3468 3468 3468 3468 3468 3468 3468 3468 3468 3503 3468 3468 3468 3468 3468 3433 3433 3468 3468 3468 3433 3433 3433 3433 3433 3433 3433 3433 3433 3433 3433 3433 3399 3399 3399 3399 3399 3399 3399 3399 3399 3399 3399 3399 3399 3399 3399 3399 3365 3365 3365 3399 3365 3365 3365 3365 3365 3365 3365 3365 3399 3399 3365 3365 3333 3333 3365 3333 3333 3333 3333 3333 3333 3333 3333 1873 1873 1873 1873 1873 1863 1863 1863 1863 1863 1863 1853 1853 1853 1853 1853 1843 1843 1843 1843 1843 1843 1843 1843 1843 1843 1843 1843 1843 1833 1833 1833 1833 1833 1833 1833 1833 1833 1823 1823 1833 1823 1823 1823 1823 1823 1823 1813 1813 1813 1813 1813 1813 1813 1804 1804 1804 1804 1804 1804 1804 1804 1804 1804 1804 1804 1804 1804 1804 1804 1794 1794 1804 1804 1794 1794 0 0 0 0 0 0 0 3092 3092 3092 3092 4349 4349 4295 4241 4241 4241 4241 4190 4190 0 4190 4190 0 0 6753 6753 6889 6889 6889 6889 6889 7030 6889 6889 6889 6889 6753 6753 6753 6753 6753 6753 6753 6622 6622 6622 6622 6622 6622 6622 6753 6753 6753 6753 6753 6622 6622 6622 6622 6622 6622 6622 6622 6622 6622 6622 6622 6622 6622 6622 6622 6753 6753 6753 6753 6622 6622 6622 6622 6497 6497 6497 6497 6497 6497 6497 6497 6497 6622 6622 6622 6622 6622 6622 6622 6622 6622 6622 6622 6622 6497 6497 6622 6622 6622 6622 6622 6622 6622 6622 6622 6622 6622 6622 6622 6622 6622 6622 6622 6622 6622 6622 6497 6497 6497 6497 6497 6497 6497 6497 6497 6497 6497 6497 6622 6622 6622 6622 6622 6622 6622 6622 6622 6622 6497 6497 6497 6622 6497 6497 6497 6497 6497 6497 6497 6497 6622 6497 6497 6497 6497 6497 6497 6497 6497 6375 6375 6375 6375 6375 6259 6259 6146 6146 6259 6259 6259 6259 6259 6375 6375 6375 6375 6375 6375 6497 6497 6497 6497 6497 6375 6375 6375 6497 6497 6497 6497 6497 6375 6375 6375 6497 6497 6497 6497 6497 6622 6622 6753 6753 6753 6753 0 0 0 0 0 0 0 0 0 0 0 0 0
0 0 0 0 0 0 0 0 0 0 0 0 0 0 0 0 0 0 0 0 0 0 0 0 0 0 0 0 0 0 5210 5210 5210 5210 5210 5210 5210 5291 5734 5734 5734 5832 5832 5832 5832 5832 5832 5832 5832 5933 0 0 0 0 0 0 0 0 0 0 0 0 0 0 0 5933 5832 5832 5832 5832 5832 5832 5832 5832 5734 5734 5734 5734 5734 5734 5734 5734 5734 5734 5734 5548 5548 5548 5548 5548 5640 5640 5734 5734 5734 5734 5640 5548 5548 5640 5640 0 0 0 5933 5933 0 0 5640 5548 5548 5548 5460 5460 5548 5548 5548 5548 5640 5640 5640 5640 5640 5640 5640 5548 5548 5548 5548 5640 5640 5548 5548 5548 5640 5640 5640 5640 5640 5640 5640 5640 5640 5640 5640 5548 5548 5548 5548 5548 5548 5460 5374 5374 5374 5374 5374 5374 5374 5374 5374 5374 5374 5374 5460 5460 5374 5374 5374 5374 5374 5374 5374 5374 5374 5374 5374 5374 5460 5460 5460 5460 5460 5460 5460 5460 5460 5548 5460 5460 5460 5460 5460 5460 5460 5460 5548 5548 5548 5640 5640 5640 5640 5640 5640 5640 5640 5548 5548 5548 5734 8626 8626 8626 8849 8849 3503 3503 3503 3539 3539 3539 3539 3539 3539 3539 3539 3539 3539 3539 3539 3539 3539 3539 3539 3539 3539 3539 3539 3503 3503 3503 3503 3503 3503 3503 3503 3503 3468 3468 3468 3503 3503 3503 3468 3468 3503 3503 3503 3468 3468 3468 3468 3468 3468 3468 3468 3468 3468 3468 3468 3468 3503 3468 3468 3468 3468 3468 3433 3433 3433 3433 3433 3433 3433 3433 3433 3433 3433 3433 3433 3433 3433 3433 3433 3433 3433 3399 3399 3399 3399 3399 3399 3399 3399 3399 3399 3399 3399 3399 3399 3365 3365 3365 3399 3365 3365 3365 3365 3365 3365 3365 3365 3399 3399 3365 3365 3333 3333 3333 3333 3333 3333 3333 3333 3333 3333 3333 1873 1873 1873 1873 1873 1863 1863 1863 1863 1863 1863 1853 1853 1853 1853 1853 1843 1843 1843 1843 1843 1843 1843 1843 1843 1843 1843 1843 1833 1833 1833 1833 1833 1833 1833 1833 1833 1833 1833 1833 1833 1823 1823 1823 1823 1823 1813 1813 1813 1813 1823 1823 1823 1813 1813 1813 1804 1804 1804 1804 1804 1804 1804 1804 1804 1804 1804 1804 1804 1804 1804 1804 1804 1804 1794 1794 0 0 0 0 0 0 0 4349 4349 4349 4349 4349 4349 4295 4295 4241 4241 4241 4190 4190 0 0 0 0 0 6753 6753 6889 6889 6889 6889 6889 7030 6889 6889 6889 6889 6753 6753 6753 6753 6753 6753 6753 6622 6622 6622 6622 6622 6622 6622 6622 6753 6753 6753 6622 6622 6622 6622 6622 6622 6622 6622 6622 6622 6622 6622 6622 6622 6622 6622 6622 6753 6753 6753 6753 6622 6622 6753 6622 6497 6497 6497 6497 6497 6497 6622 6622 6753 6753 6753 6753 6753 6753 6622 6622 6622 6622 6622 6622 6622 6622 6622 6622 6622 6622 6622 6622 6622 6622 6622 6753 6753 6753 6753 6753 6753 6753 6622 6622 6622 6622 6622 6622 6622 6622 6622 6497 6497 6497 6497 6497 6497 6497 6622 6622 6622 6622 6622 6622 6622 6622 6622 6622 6622 6497 6497 6497 6497 6497 6497 6497 6497 6497 6497 6497 6497 6622 6497 6497 6497 6497 6497 6497 6497 6497 6375 6375 6375 6375 6259 6259 6259 6146 6146 6259 6259 6259 6259 6259 6375 6375 6375 6375 6375 6375 6375 6497 6497 6497 6497 6375 6375 6375 6497 6497 6497 6497 6497 6375 6375 6375 6375 6497 6497 6497 6497 6622 6622 6753 6753 6753 6753 0 0 0 0 0 0 0 0 0 0 0 0 0
0 0 0 0 0 0 0 0 0 0 0 0 0 0 0 0 0 0 0 0 0 0 0 0 0 0 0 0 0 0 5291 5291 5291 5291 5291 5291 5460 5640 5832 5832 5832 5832 5832 5832 5832 5832 5832 5832 5832 5933 0 0 0 0 0 0 0 0 0 0 0 0 0 0 0 6038 5832 5832 5832 5832 5832 5832 5832 5734 5734 5734 5734 5734 5734 5734 5734 5734 5734 5734 5734 5548 5548 5548 5548 5548 5640 5640 5734 5832 5832 5832 5734 5640 5640 0 0 0 0 0 0 0 0 0 5640 5548 5548 5548 5460 5460 5548 5548 5548 5548 5640 5640 5640 5640 5640 5640 5640 5640 5548 5548 5548 5640 5640 5548 5548 5548 5548 5640 5640 5640 5640 5640 5640 5640 5640 5734 5734 5734 5734 5640 5640 5548 5548 5548 5460 5460 5460 5460 5460 5460 5460 5460 5460 5460 5460 5548 5548 5548 5460 5460 5460 5548 5548 5548 5374 5374 5374 5460 5460 5460 5460 5548 5548 5640 5640 5548 5548 5548 5548 5548 5548 5460 5460 5460 5460 5460 5460 5460 5548 5548 5640 5640 5734 5640 5640 5640 5640 5640 5640 5640 5640 5640 5734 8626 8626 8626 8626 3503 3503 3503 3539 3539 3539 3539 3539 3539 3539 3539 3539 3539 3539 3539 3539 3539 3539 3539 3539 3539 3539 3539 3539 3503 3503 3503 3503 3503 3503 3503 3503 3503 3503 3503 3503 3503 3503 3503 3503 3503 3503 3503 3503 3468 3468 3468 3503 3468 3468 3468 3468 3468 3468 3468 3468 3468 3503 3468 3468 3468 3468 3468 3433 3433 3433 3433 3433 3433 3433 3433 3433 3433 3433 3433 3433 3433 3433 3433 3433 3433 3433 3399 3399 3399 3399 3399 3399 3399 3399 3399 3399 3399 3399 3399 3399 3399 3365 3365 3399 3365 3365 3365 3365 3365 3365 3365 3365 3399 3399 3365 3365 3333 3333 3333 3333 3333 3333 3333 3333 3333 3333 0 1863 1863 1863 1863 1863 1863 1863 1863 1863 1863 1863 1853 1853 1853 1853 1853 1843 1843 1843 1843 1843 1843 1843 1843 1843 1843 1843 1843 1833 1833 1833 1833 1833 1833 1833 1833 1833 1823 1823 1823 1823 1823 1823 1823 1823 1813 1813 1813 1813 1813 1813 1813 1813 1813 1813 1813 1813 1804 1804 1804 1804 1804 1804 1804 1804 1804 1804 1804 1804 1804 1804 1804 1804 1804 1794 1794 0 0 0 0 0 0 4295 4295 4349 4349 4349 4349 4349 4349 4349 4349 4349 4295 4295 0 0 0 0 0 0 6753 6753 6889 6889 6753 6753 6889 6889 6889 6889 6889 6889 6753 6753 6753 6753 6753 6753 6753 6622 6622 6622 6622 6622 6622 6622 6622 6753 6753 6753 6622 6622 6622 6622 6622 6622 6622 6622 6622 6753 6753 6753 6622 6622 6753 6753 6753 6889 6753 6753 6889 6753 6753 6753 6753 6622 6622 6622 6622 6622 6622 6622 6622 6889 6889 6889 6889 6889 6753 6753 6622 6622 6622 6622 6622 6622 6622 6622 6622 6622 6753 6622 6622 6753 6753 6753 6753 6753 6753 6889 6889 6622 6622 6622 6622 6622 6622 6622 6622 6622 6622 6622 6497 6497 6497 6497 6497 6497 6497 6622 6622 6622 6622 6622 6622 6622 6622 6622 6622 6622 6497 6497 6497 6497 6497 6497 6497 6497 6497 6497 6497 6497 6622 6497 6497 6497 6497 6497 6497 6497 6497 6375 6375 6497 6375 6259 6259 6146 6146 6146 6259 6259 6259 6259 6259 6259 6375 6375 6375 6375 6375 6375 6497 6497 6497 6375 6375 6375 6375 6497 6497 6497 6497 6375 6375 6375 6375 6375 6497 6497 6497 6497 6622 6622 6622 6753 6753 6753 0 0 0 0 0 0 0 0 0 0 0 0 0
0 0 0 0 0 0 0 0 0 0 0 0 0 0 0 0 0 0 0 0 0 0 0 0 0 0 0 0 0 0 5460 5460 5548 5460 5460 5548 5640 5734 5832 5832 5832 5933 5933 5832 5832 5832 5832 5832 5832 5933 0 0 0 0 0 0 0 0 0 0 0 0 0 0 0 6038 5933 5832 5832 5832 5832 5832 5832 5734 5734 5734 5640 5640 5734 5734 5734 5734 5734 5734 5640 5640 5640 5640 5640 5640 5640 5640 5734 5832 5832 5832 5734 5734 5734 5734 0 0 0 0 0 0 0 0 0 0 8849 8849 8849 8849 8849 5640 5640 5640 5640 5640 5640 5640 5640 5640 5640 5640 5548 5548 5548 5640 5640 5548 5548 5548 5548 5640 5640 5640 5640 5734 5734 5734 5734 5734 5734 5734 5734 5734 5734 5640 5640 5548 5460 5460 5460 5548 5548 5548 5548 5548 5640 5548 5548 5640 5640 5548 5548 5548 5548 5640 5640 5640 5374 5374 5374 5460 5460 5460 5548 5548 5640 5640 5640 5640 5640 5640 5640 5640 5640 5548 5460 5460 5460 5460 5460 5460 5548 5548 5640 5640 5734 5640 5640 5640 5640 5640 5734 5640 5640 5640 5832 5933 5933 5933 3433 3433 3433 3503 3539 3539 3539 3539 3539 3539 3539 3539 3539 3539 3539 3539 3539 3539 3539 3539 3539 3539 3539 3539 3539 3503 3503 3503 3503 3503 3503 3503 3503 3503 3503 3503 3503 3503 3503 3503 3503 3503 3503 3503 3503 3468 3468 3468 3503 3503 3468 3468 3468 3468 3503 3468 3468 3503 3503 3503 3468 3468 3468 3468 3433 3433 3433 3433 3433 3433 3433 3433 3433 3433 3433 3433 3433 3433 3433 3433 3433 3433 3433 3433 3399 3399 3399 3399 3399 3399 3399 3399 3399 3399 3399 3399 3399 3399 3365 3365 3365 3365 3365 3365 3365 3365 3365 3365 3365 3399 3399 3365 3365 3365 3365 3333 3333 3333 3333 3333 3333 3365 3365 0 1863 1863 1863 1863 1863 1863 1863 1863 1863 1863 1853 1853 1853 1843 1843 1853 1843 1843 1843 1843 1843 1843 1843 1843 1843 1843 1843 1843 1843 1833 1833 1833 1833 1833 1833 1833 1833 1823 1823 1823 1823 1823 1823 1823 1823 1813 1813 1813 1813 1813 1813 1813 1813 1813 1813 1813 1813 1813 1804 1804 1804 1804 1804 1804 1804 1804 1804 1804 1804 1804 1804 1804 1794 1794 1794 1794 0 0 0 0 0 0 4295 4295 4349 4349 4349 4349 4349 4349 4349 4349 4349 4349 4349 0 0 0 0 0 0 6753 6753 6753 6753 6753 6753 6889 6889 6889 6889 6889 6889 6889 6753 6753 6753 6753 6753 6753 6753 6753 6622 6622 6622 6622 6622 6753 6753 6753 6753 6753 6622 6622 6622 6753 6622 6622 6622 6753 6753 6753 6753 6753 6753 6753 6753 6753 6889 6889 6889 6889 6889 6753 6753 6753 6622 6622 6622 6622 6622 6622 6622 6622 6889 6889 6889 6889 6889 6889 6753 6622 6622 6622 6622 6622 6622 6622 6622 6622 6622 6753 6753 6753 6753 6753 6753 6889 6753 6753 6889 6889 6622 6622 6622 6622 6622 6622 6622 6622 6622 6622 6622 6497 6497 6497 6497 6497 6497 6497 6622 6622 6622 6622 6622 6622 6622 6622 6622 6622 6622 6622 6622 6497 6497 6497 6497 6497 6497 6622 6622 6622 6622 6622 6497 6497 6497 6497 6497 6497 6497 6497 6375 6375 6259 6259 6259 6259 6146 6146 6146 6146 6146 6259 6259 6259 6259 6375 6375 6375 6375 6375 6375 6497 6497 6497 6375 6375 6375 6497 6497 6497 6497 6497 6375 6375 6375 6375 6375 6375 6497 6497 6497 6497 6622 6622 6622 6753 6753 0 0 0 0 0 0 0 0 0 0 0 0 0
0 0 0 0 0 0 0 0 0 0 0 0 0 0 0 0 0 0 0 0 0 0 0 0 0 0 0 0 0 0 5548 5548 5548 5548 5548 5640 5640 5734 5832 5832 5832 5933 5933 5933 5933 5933 5933 5933 5933 5933 0 0 0 0 0 0 0 0 0 0 0 0 0 0 0 6038 5933 5832 5832 5832 5832 5832 5832 5734 5734 5734 5640 5640 5734 5734 5734 5734 5734 5734 5640 5640 5640 5640 5640 5640 5640 5640 5832 5832 5832 5832 5832 5734 5734 5734 9331 9593 0 0 0 0 0 0 0 8849 8849 8849 8849 8626 8626 8626 8413 8413 5734 5734 5734 5734 5734 5734 5734 5734 5734 5640 5640 5734 5734 5640 5640 5640 5640 5640 5640 5640 5734 5734 5734 5734 5832 5734 5734 5734 5734 5734 5734 5734 5734 5640 5548 5548 5640 5640 5640 5640 5640 5640 5640 5640 5640 5640 5640 5640 5640 5640 5640 5640 5734 5734 5460 5460 5460 5460 5548 5548 5548 5548 5640 5640 5640 5640 5640 5640 5640 5640 5640 5548 5548 5548 5460 5460 5548 5548 5640 5640 5640 5640 5734 5640 5640 5640 5640 5734 5734 5734 5734 5734 5832 5832 5832 5933 5933 3433 3433 3503 3539 3539 3539 3539 3539 3539 3576 3576 3539 3539 3539 3539 3539 3539 3539 3539 3539 3539 3539 3539 3539 3503 3503 3503 3503 3503 3503 3503 3503 3503 3503 3503 3503 3503 3503 3503 3503 3503 3503 3503 3468 3468 3468 3468 3503 3468 3468 3468 3468 3468 3468 3468 3468 3468 3468 3468 3468 3468 3468 3468 3468 3433 3433 3433 3433 3433 3433 3433 3468 3433 3433 3433 3433 3433 3433 3433 3433 3433 3433 3433 3399 3399 3399 3399 3399 3399 3399 3399 3399 3399 3399 3399 3399 3399 3365 3365 3365 3365 3365 3365 3365 3365 3399 3399 3399 3399 3399 3365 3365 3365 3365 3333 3333 3333 3333 3333 3333 3365 3365 0 1863 1863 1863 1863 1863 1863 1863 1863 1863 1863 1853 1853 1853 1843 1843 1843 1843 1843 1843 1843 1843 1843 1843 1843 1843 1843 1843 1843 1843 1833 1833 1833 1833 1833 1833 1833 1833 1833 1823 1823 1833 1823 1823 1823 1823 1823 1823 1823 1813 1813 1823 1813 1813 1823 1823 1823 1823 1823 1813 1813 1813 1804 1804 1804 1804 1804 1804 1804 1804 1804 1804 1804 1794 1794 1794 1794 0 0 0 0 0 0 4349 4349 4349 4349 4349 4349 4349 4349 4349 4349 4349 4405 4463 0 0 0 0 0 0 6753 6753 6753 6753 6753 6753 6889 6889 6889 6889 6889 6889 6889 6889 6889 6753 6753 6753 6753 6753 6753 6753 6622 6622 6622 6753 6753 6753 6753 6889 6889 6753 6753 6753 6753 6753 6753 6753 6889 6889 6889 6889 6753 6753 6753 6753 6889 6889 6889 6889 6889 6889 6889 6889 6889 6753 6753 6753 6753 6753 6753 6753 6753 6889 6889 6889 6889 6889 6889 6889 6753 6753 6753 6753 6622 6622 6622 6753 6753 6753 6753 6753 6753 6753 6753 6753 6889 6753 6753 6889 6889 6622 6622 6622 6622 6622 6622 6622 6622 6622 6622 6622 6497 6497 6497 6497 6497 6497 6497 6622 6622 6622 6622 6622 6622 6622 6622 6622 6622 6622 6622 6622 6497 6497 6497 6497 6497 6497 6622 6622 6622 6622 6622 6622 6497 6497 6497 6497 6497 6497 6497 6259 6259 6259 6259 6259 6259 6146 6146 6146 6146 6146 6259 6259 6259 6259 6375 6375 6375 6375 6375 6375 6497 6497 6375 6375 6375 6375 6375 6497 6497 6497 6497 6375 6375 6375 6375 6375 6375 6375 6375 6497 6497 6497 6622 6622 6622 6622 0 0 0 0 0 0 0 0 0 0 0 0 0
0 0 0 0 0 0 0 0 0 0 0 0 0 0 0 0 0 0 0 0 0 0 0 0 0 0 0 0 0 0 5548 5548 5548 5548 5548 5640 5734 5734 5832 5832 5832 5933 5933 5933 5933 5933 5933 5933 5933 5933 0 0 0 0 0 0 0 0 0 0 0 0 0 0 0 6146 5933 5933 5832 5832 5832 5832 5832 5832 5832 5734 5734 5734 5832 5734 5734 5734 5734 5734 5734 9870 9870 0 5640 5640 5640 5640 5832 5832 5832 5832 5832 5734 5734 9084 9084 9084 9331 0 0 0 0 0 8849 8849 8849 8849 8626 8626 8626 8626 8413 8413 8626 8626 8626 8626 8626 8626 8626 8626 8626 8626 8626 8626 8626 8626 8413 8413 8413 0 5734 5734 5734 5734 5832 5832 5832 5832 5832 5734 5734 5734 5734 5734 5734 5734 5640 5640 5640 5640 5734 5734 5734 5734 5734 5734 5734 5734 5734 5640 5640 5640 5734 5734 5832 6038 6038 6038 5460 5460 5548 5548 5548 5640 5640 5734 5734 5640 5640 5640 5640 5640 5640 5640 5548 5548 5548 5548 5640 5640 5640 5640 5640 5640 5734 5734 5734 5734 5734 5734 5734 5734 5734 5734 5933 5832 5832 5933 5933 3503 3503 3539 3539 3539 3539 3539 3539 3539 3576 3576 3539 3539 3539 3539 3539 3539 3539 3539 3539 3539 3539 3539 3539 3503 3503 3503 3503 3503 3503 3503 3503 3503 3503 3503 3503 3503 3503 3503 3503 3503 3503 3503 3468 3468 3468 3468 3503 3468 3468 3468 3468 3468 3468 3468 3468 3468 3468 3468 3468 3468 3468 3468 3468 3468 3468 3433 3433 3468 3468 3468 3468 3433 3433 3433 3433 3433 3433 3433 3433 3433 3433 3399 3399 3399 3399 3399 3399 3399 3399 3399 3399 3399 3399 3399 3399 3399 3399 3365 3365 3365 3365 3365 3365 3399 3399 3399 3399 3399 3399 3365 3365 3365 3365 3333 3333 3333 3333 3333 3333 3365 3365 0 1873 1873 1873 1863 1863 1863 1863 1863 1863 1863 1853 1853 1853 1843 1843 1843 1843 1843 1843 1843 1843 1843 1843 1843 1843 1843 1843 1843 1843 1833 1833 1833 1833 1833 1833 1833 1833 1833 1823 1823 1833 1823 1823 1823 1823 1823 1823 1823 1813 1813 1813 1813 1813 1813 1813 1813 1813 1823 1813 1813 1813 1813 1804 1804 1804 1804 1804 1804 1804 1804 1804 1804 1804 1804 1804 1804 0 0 0 0 0 0 4349 4349 4349 4349 4349 4349 4349 4349 4349 4405 4405 4463 4463 0 0 0 0 0 0 6753 6753 6753 6753 6753 6753 6889 6889 7030 7030 7030 6889 6889 6889 6889 6889 6889 6889 6889 6889 6753 6753 6753 6753 6753 6753 6889 6889 6889 6889 7030 6753 6753 6753 6753 7030 6889 6889 6889 6889 7030 6889 6889 6889 6889 6889 6889 7030 7030 7030 7030 7030 6889 6889 6889 6889 6753 6753 6753 6753 6889 6889 6889 6889 6889 6889 6889 6889 6889 6889 6753 6753 6753 6753 6753 6753 6753 6753 6753 6753 6753 6753 6753 6753 6753 6753 6753 6753 6753 6889 6889 6622 6622 6753 6622 6622 6622 6622 6622 6622 6622 6622 6497 6497 6497 6497 6497 6497 6497 6622 6622 6622 6622 6622 6622 6622 6622 6622 6622 6622 6497 6497 6497 6497 6497 6497 6497 6497 6497 6497 6622 6622 6622 6622 6497 6497 6497 6497 6497 6497 6497 6259 6259 6259 6259 6259 6259 6146 6146 6146 6259 6259 6259 6259 6259 6259 6375 6375 6375 6375 6375 6375 6375 6375 6375 6375 6375 6375 6375 6497 6497 6497 6497 6497 6375 6375 6375 6375 6375 6375 6375 6497 6497 6497 6497 6497 6497 6497 0 0 0 0 0 0 0 0 0 0 0 0 0
0 0 0 0 0 0 0 0 0 0 0 0 0 0 0 0 0 0 0 0 0 0 0 0 0 0 0 0 0 0 5548 5548 5548 5548 5548 5640 5734 5734 5832 5832 5832 5933 5933 5933 5933 5933 5933 5933 5933 5933 0 0 0 0 0 0 0 0 0 0 0 0 0 0 0 6146 5933 5933 5832 5832 5933 5933 5832 5832 5832 5832 5832 5832 5832 5832 5832 5832 5734 5734 9593 9593 9870 9593 9593 9593 9593 5832 5832 5832 8413 5832 5832 5734 5734 8626 8626 8849 8849 8849 8626 8626 8849 8849 8849 8626 8626 8626 8626 8626 8626 8626 8413 8413 8626 8626 8626 8626 8626 8626 8626 8626 8626 8626 8626 8626 8626 8626 8413 8413 8413 0 8019 8019 6497 5832 5832 5832 5832 5832 5832 5734 5734 5734 5734 5734 5734 5734 5640 5640 5640 5640 5734 5734 5734 5734 5734 5832 5832 5832 5832 5734 5734 5832 5832 5832 5933 6038 6038 6038 5640 5640 5640 5548 5548 5640 5640 5734 5734 5734 5640 5640 5734 5734 5734 5640 5640 5640 5640 5640 5640 5640 5640 5734 5734 5734 5832 5832 5734 5734 5734 5832 5832 5734 5734 5832 5933 5933 5933 5933 5933 3539 3539 3539 3539 3539 3539 3539 3539 3539 3576 3576 3539 3539 3539 3539 3539 3539 3539 3539 3539 3539 3539 3539 3539 3503 3503 3503 3503 3503 3503 3503 3503 3503 3503 3503 3503 3503 3503 3503 3503 3503 3468 3468 3468 3468 3468 3468 3468 3468 3468 3468 3468 3468 3503 3503 3468 3468 3468 3468 3468 3468 3468 3468 3468 3468 3468 3468 3468 3468 3468 3468 3468 3468 3468 3468 3433 3433 3433 3433 3433 3433 3433 3399 3399 3399 3399 3399 3399 3399 3399 3399 3399 3399 3399 3399 3399 3399 3399 3365 3365 3365 3365 3365 3365 3399 3399 3399 3399 3399 3399 3365 3365 3365 3365 3333 3333 3333 3333 3333 3333 3365 3365 0 1873 1873 1873 1863 1863 1863 1863 1863 1863 1863 1853 1853 1853 1843 1843 1853 1843 1843 1843 1843 1843 1843 1843 1843 1843 1843 1843 1843 1843 1833 1833 1833 1833 1833 1833 1833 1833 1833 1833 1833 1833 1823 1823 1823 1823 1823 1823 1823 1813 1813 1813 1813 1813 1813 1813 1813 1813 1813 1813 1813 1813 1813 1804 1804 1804 1804 1804 1804 1804 1794 1794 1794 1794 1794 1804 1804 0 0 0 0 0 0 4349 4349 4349 4349 4349 4349 4349 4405 4405 4405 4463 4522 4522 0 0 0 0 0 0 6753 6753 6753 6889 6753 6753 6889 7030 7030 7030 7030 7030 7030 7030 7030 6889 6889 6889 7030 7030 6889 6889 6889 6889 6889 6889 7030 7030 7030 7030 7030 7030 6753 6753 7030 7030 6889 6889 7030 7030 7178 7030 7030 7030 7030 7030 7030 7030 7030 7030 7030 7030 6889 6889 6889 6889 6753 6753 6889 6889 6889 6889 6889 6889 7030 6889 6889 6889 6889 6753 6753 6753 6753 6753 6753 6753 6753 6753 6753 6753 6753 6753 6753 6753 6622 6622 6753 6753 6753 6753 6753 6753 6753 6622 6622 6622 6622 6622 6622 6622 6622 6622 6622 6497 6497 6497 6497 6622 6622 6622 6622 6622 6622 6622 6622 6622 6622 6622 6622 6622 6497 6497 6497 6497 6497 6497 6497 6497 6497 6497 6622 6622 6622 6497 6497 6497 6497 6497 6497 6497 6497 6259 6259 6259 6259 6259 6259 6146 6146 6259 6259 6259 6259 6259 6375 6375 6375 6375 6375 6375 6375 6375 6375 6375 6375 6375 6375 6375 6497 6497 6497 6497 6497 6497 6375 6375 6375 6375 6375 6375 6375 6375 6497 6497 6497 6497 6497 6497 0 0 0 0 0 0 0 0 0 0 0 0 0
0 0 0 0 0 0 0 0 0 0 0 0 0 0 0 0 0 0 0 0 0 0 0 0 0 0 0 0 0 0 5640 5640 5640 5640 5734 5734 5734 5734 5832 5832 5933 5933 5933 5933 5933 5933 5933 5933 5933 5933 0 0 0 0 0 0 0 0 0 0 0 0 0 0 0 0 0 5933 5832 5832 5933 5933 5933 5933 5832 5832 5832 5832 5832 5832 5832 5832 5832 9331 9331 9331 9593 9593 9331 9084 9084 8849 8849 8849 8413 8413 8626 5734 5734 8212 8212 8413 8413 8413 8626 8626 8849 8849 8849 8626 8626 8626 8626 8413 8413 8626 8626 8626 8626 8626 8626 8626 8626 8626 8626 8626 8626 8626 8626 8626 8626 8626 8413 8413 8413 8019 8019 0 0 0 0 0 6497 6497 5832 5832 5832 5832 5832 5832 5832 5832 5640 5640 5734 5734 5734 5832 5832 5832 5832 5832 5933 5832 5832 5832 5832 5832 5933 5933 6038 6038 6038 6038 6038 5734 5734 5640 5640 5640 5734 5734 5734 5734 5640 5640 5734 5734 5734 5734 5734 5734 5640 5640 5734 5734 5734 5734 5832 5832 5933 5933 5832 5832 5832 5832 5832 5832 5832 5832 5933 5933 5933 6038 6038 3539 3539 3576 3576 3576 3576 3576 3576 3576 3576 3576 3576 3539 3539 3539 3539 3539 3539 3539 3539 3539 3539 3539 3539 3503 3503 3503 3503 3503 3503 3503 3503 3503 3503 3503 3503 3503 3503 3503 3468 3468 3468 3468 3468 3433 3433 3433 3468 3468 3468 3468 3468 3468 3503 3503 3468 3468 3468 3468 3433 3433 3433 3468 3468 3468 3468 3468 3468 3468 3468 3468 3468 3468 3468 3468 3433 3433 3433 3433 3433 3433 3433 3433 3433 3433 3433 3399 3399 3399 3399 3399 3399 3399 3399 3399 3399 3399 3399 3365 3365 3365 3365 3365 3365 3399 3399 3399 3399 3399 3399 3365 3365 3365 3365 3365 3333 3333 3333 3333 3333 3365 3365 3333 1873 1873 1873 1863 1863 1863 1863 1863 1863 1863 1853 1853 1853 1843 1843 1843 1843 1843 1843 1843 1843 1843 1843 1843 1843 1843 1843 1843 1843 1833 1833 1833 1833 1833 1833 1833 1833 1833 1833 1833 1833 1833 1823 1823 1823 1823 1823 1813 1813 1813 1813 1813 1813 1813 1813 1813 1813 1813 1813 1813 1813 1813 1804 1804 1804 1804 1804 1794 1794 1794 1794 1794 1794 1794 1804 1804 0 0 0 0 0 0 4349 4349 4349 4349 4349 4349 4349 4405 4405 4405 4463 4522 4522 0 0 0 0 0 0 6753 6753 6753 6889 6753 6753 6889 7030 7178 7178 7178 7178 7178 7030 7030 7030 7030 7030 7030 7030 7030 7030 7030 7030 7030 7030 7030 7030 7030 7030 7178 7178 7030 7030 7030 7178 6889 6889 7030 7030 7178 7178 7030 7030 7030 7178 7178 7178 7030 7030 7030 7030 7030 7030 7030 6889 6889 6889 6889 6889 6889 6889 6889 6889 6889 6889 6889 6889 6753 6753 6753 6753 6753 6753 6753 6753 6753 6753 6753 6753 6753 6753 6753 6753 6622 6622 6753 6753 6753 6753 6753 6622 6622 6622 6622 6622 6622 6497 6497 6497 6497 6622 6622 6622 6622 6622 6622 6622 6622 6622 6622 6622 6622 6622 6622 6622 6622 6622 6622 6622 6497 6497 6497 6497 6497 6497 6497 6497 6497 6622 6622 6622 6622 6497 6497 6497 6497 6497 6497 6497 6497 6375 6375 6375 6259 6259 6259 6146 6146 6259 6259 6259 6259 6259 6375 6375 6375 6375 6375 6375 6375 6375 6375 6375 6375 6375 6375 6375 6497 6497 6497 6497 6497 6497 6375 6375 6375 6375 6375 6375 6375 6375 6375 6375 6497 6375 6375 6497 0 0 0 0 0 0 0 0 0 0 0 0 0
0 0 0 0 0 0 0 0 0 0 0 0 0 0 0 0 0 0 0 0 0 0 0 0 0 0 0 0 0 0 5734 5734 5734 5734 5832 5832 5832 5832 5832 5933 5933 5933 5933 5832 5832 5832 5933 5933 5933 5933 0 0 0 0 0 0 0 0 0 0 0 0 0 0 0 0 0 9331 5832 5832 5832 6146 6146 6038 6038 6038 5933 5933 5933 5933 5832 5832 9331 9084 9084 9084 9331 9331 9084 8849 8849 8849 8626 8626 8626 8626 8626 8413 8413 8212 8212 8212 8212 8413 8413 8413 8626 8849 8849 8626 8626 8626 8626 8413 8413 8413 8413 8626 8626 8626 8626 8626 8626 8626 8626 8626 8626 8626 8413 8413 8413 8413 8413 8212 8019 8019 8019 7178 6497 6497 6497 6497 6497 6497 0 5832 5832 5832 5832 5832 5832 5832 5734 5734 5734 5734 5734 5832 5933 5933 5933 6038 6038 5933 5933 5933 5933 5933 6038 6038 6038 6038 6146 6146 6038 5933 5933 5832 5832 5832 5832 5734 5734 5734 5734 5734 5734 5734 5734 5734 5734 5734 5640 5640 5734 5832 5832 5832 5832 5933 6038 5933 5933 5933 5933 5933 5832 5832 5832 5832 5933 6038 6038 6038 3503 3503 3539 3576 3576 3576 3576 3576 3576 3576 3576 3576 3576 3539 3539 3539 3539 3539 3539 3539 3539 3539 3539 3539 3539 3503 3503 3503 3503 3503 3503 3503 3503 3503 3503 3503 3503 3503 3503 3468 3468 3468 3433 3433 3433 3433 3433 3433 3433 3433 3468 3468 3468 3468 3503 3503 3468 3468 3468 3468 3433 3433 3433 3468 3468 3468 3468 3468 3468 3468 3468 3468 3468 3468 3468 3468 3433 3433 3433 3433 3433 3433 3433 3433 3433 3433 3433 3433 3433 3433 3433 3433 3433 3433 3399 3399 3399 3399 3399 3365 3365 3365 3365 3365 3365 3399 3399 3399 3433 3433 3433 3365 3365 3365 3365 3365 3333 3333 3333 3333 3333 3333 3333 3333 1873 1873 1873 1873 1873 1873 1863 1863 1863 1863 1853 1853 1853 1843 1843 1843 1843 1843 1843 1843 1843 1843 1843 1843 1843 1843 1843 1843 1843 1833 1833 1833 1833 1833 1833 1833 1833 1833 1833 1823 1823 1823 1823 1823 1823 1823 1823 1813 1813 1813 1813 1813 1813 1813 1813 1813 1813 1813 1813 1813 1813 1804 1804 1804 1804 1804 1804 1794 1794 1794 1794 1794 1794 1794 1804 1794 1794 1794 0 0 0 0 4349 4349 4349 4349 4349 4349 4405 4405 4405 4405 4463 4522 4522 0 0 0 0 0 0 6753 6753 6753 6889 6889 6889 7030 7030 7178 7178 7178 7178 7178 7178 7178 7178 7030 7030 7178 7178 7178 7030 7030 7030 7030 7030 7030 7030 7030 7178 7178 7178 7178 7178 7178 7178 7030 7030 7178 7178 7178 7178 7030 7030 7030 7178 7178 7030 7030 7030 7030 7030 7178 7178 6889 6889 6889 6889 6889 6889 6889 6889 6889 6889 6889 6753 6753 6753 6753 6753 6753 6753 6753 6753 6753 6753 6753 6753 6753 6753 6753 6753 6753 6753 6622 6622 6622 6622 6622 6622 6753 6622 6622 6622 6622 6622 6622 6497 6497 6497 6497 6622 6622 6622 6622 6622 6622 6622 6622 6622 6622 6622 6622 6622 6622 6622 6622 6622 6622 6622 6622 6497 6497 6497 6497 6497 6497 6497 6622 6622 6622 6622 6622 6497 6497 6497 6497 6497 6497 6497 6497 6375 6375 6375 6259 6259 6259 6146 6146 6259 6259 6259 6259 6259 6375 6375 6375 6375 6375 6375 6375 6375 6375 6375 6375 6375 6375 6375 6497 6497 6497 6497 6497 6497 6497 6497 6375 6375 6375 6375 6375 6375 6375 6375 6375 6375 6375 6375 0 0 0 0 0 0 0 0 0 0 0 0 0
0 0 0 0 0 0 0 0 0 0 0 0 0 0 0 0 0 0 0 0 0 0 0 0 0 0 0 0 0 0 5734 5734 5734 5734 5832 5832 5832 5933 5933 5933 5933 5933 5933 5832 5832 5832 5933 5933 5933 5933 0 0 0 0 0 0 0 0 0 0 0 0 0 0 0 0 9084 9084 9084 9084 8849 6259 6259 6146 6146 6146 6038 6038 5832 5832 9331 9084 9084 9084 9084 9084 9331 9084 9084 8849 8849 8849 8626 8626 8626 8626 8626 8413 8413 8212 8212 8212 8212 8413 8413 8413 8626 8626 8626 8626 8626 8626 8413 8413 8413 8413 8413 8626 8626 8626 8626 8626 8626 8626 8626 8626 8626 8626 8413 8413 8413 8019 8019 8212 8019 7178 7178 0 6497 6497 6497 6497 6497 6497 6622 6753 6753 5832 5832 5832 5832 5933 5734 5734 5734 5832 5832 6038 5933 5933 5933 6038 6146 6038 6038 6038 6038 6038 6038 6038 6038 6038 6146 6259 6259 6259 6259 6259 6146 6038 5933 5933 5832 5832 5734 5734 5734 5734 5734 5734 5734 5734 5734 5734 5734 5832 5832 5832 5832 5933 6038 6038 5933 5933 5933 5933 5933 5933 5933 6038 6038 6038 6038 6038 3503 3503 3539 3539 3539 3539 3576 3576 3576 3539 3539 3539 3576 3539 3539 3539 3539 3539 3539 3539 3539 3539 3539 3539 3539 3503 3503 3503 3503 3503 3503 3503 3503 3503 3503 3503 3503 3503 3503 3468 3468 3468 3433 3433 3433 3433 3433 3433 3433 3433 3468 3468 3468 3468 3503 3503 3468 3468 3468 3468 3433 3433 3433 3468 3468 3468 3468 3468 3468 3468 3468 3468 3468 3468 3468 3468 3433 3433 3433 3433 3433 3433 3433 3433 3433 3433 3433 3433 3433 3433 3433 3433 3433 3433 3433 3399 3399 3399 3399 3365 3365 3333 3333 3365 3365 3399 3399 3433 3433 3433 3433 3365 3365 3365 3365 3365 3333 3333 3333 3333 3333 3333 3333 3333 3333 1873 1873 1873 1873 1873 1863 1863 1863 1863 1853 1853 1853 1853 1853 1853 1843 1843 1843 1843 1843 1843 1843 1843 1843 1843 1843 1843 1843 1843 1833 1833 1833 1833 1833 1833 1833 1833 1823 1823 1823 1823 1823 1823 1823 1823 1823 1823 1823 1823 1823 1813 1813 1813 1813 1813 1813 1813 1813 1813 1813 1804 1804 1804 1804 1804 1804 1794 1794 1794 1794 1794 1794 1794 1794 1794 1794 1794 0 0 0 0 4349 4349 4349 4349 4349 4405 4405 4405 4405 4463 4522 4582 4582 0 0 0 0 0 0 6889 6889 6889 6889 6889 6889 7030 7030 7178 7178 7178 7178 7178 7178 7178 7178 7178 7178 7178 7178 7178 7030 7030 7030 7030 7030 7030 7030 7030 7178 7178 7178 7178 7178 7178 7178 7178 7178 7178 7178 7178 7030 7030 7030 7030 7030 7030 7030 7030 7030 7030 7030 7030 7178 6889 6889 6889 6889 6889 6889 6889 6889 6889 6889 6889 6753 6753 6753 6753 6753 6753 6753 6753 6753 6753 6753 6753 6753 6753 6753 6753 6753 6753 6753 6622 6622 6622 6622 6622 6622 6622 6622 6622 6622 6622 6622 6622 6622 6622 6622 6622 6622 6622 6622 6622 6622 6622 6622 6622 6622 6622 6622 6622 6622 6622 6622 6622 6622 6622 6622 6622 6622 6622 6622 6497 6497 6622 6622 6622 6622 6622 6622 6622 6497 6497 6497 6497 6497 6497 6497 6497 6375 6375 6375 6375 6259 6259 6146 6146 6259 6259 6259 6259 6259 6259 6259 6375 6375 6375 6375 6375 6375 6375 6375 6375 6375 6375 6497 6622 6622 6497 6497 6375 6375 6497 6375 6375 6375 6375 6375 6259 6259 6375 6375 6375 6375 6375 6375 0 0 0 0 0 0 0 0 0 0 0 0 0
0 0 0 0 0 0 0 0 0 0 0 0 0 0 0 0 0 0 0 0 0 0 0 0 0 0 0 0 0 0 5734 5734 5734 5734 5832 5933 5933 5933 5933 5933 5933 5933 5933 5832 5832 5832 5832 6038 6038 6038 0 0 0 0 0 0 0 0 0 0 0 0 0 0 9870 9084 8849 8849 8849 8849 8849 8626 6259 6259 6259 6259 6038 6038 5832 5832 9084 9084 9084 8849 8849 9084 9084 8849 8849 8849 8849 8849 8626 8626 8849 8626 8626 8413 8413 8413 8413 8413 8413 8626 8626 8626 8626 8626 8626 8626 8626 8626 8413 8413 8413 8413 8413 8626 8626 8626 8626 8626 8626 8626 8626 8626 8626 8413 8413 8413 8413 8019 8019 8019 7178 7030 7030 7030 6622 6497 6497 6497 6497 6622 6622 6753 6753 6753 6622 6038 5933 5933 5832 5734 5734 5832 6146 6146 6038 6038 6038 6146 6146 6038 6038 6038 6146 6146 6146 6146 6038 6038 6259 6259 6259 6259 6375 6375 6375 6146 6146 6259 6146 6038 6038 5933 5933 5933 5933 5933 5832 5832 5832 5832 5832 5832 5832 5832 5933 5933 6038 6038 6038 6038 6038 6038 6038 6038 6038 6038 6038 6038 6038 6038 3433 3433 3503 3539 3539 3539 3539 3539 3539 3539 3539 3539 3539 3539 3539 3539 3539 3539 3539 3539 3539 3539 3539 3539 3539 3503 3503 3503 3503 3503 3503 3503 3503 3503 3503 3503 3503 3503 3503 3468 3468 3468 3468 3433 3433 3433 3433 3433 3468 3468 3468 3468 3468 3468 3503 3503 3468 3468 3468 3468 3433 3433 3433 3468 3468 3468 3468 3468 3468 3503 3503 3503 3468 3468 3468 3468 3468 3433 3433 3399 3399 3433 3433 3433 3433 3433 3433 3433 3433 3433 3433 3433 3468 3468 3433 3433 3433 3399 3365 3333 3333 3333 3333 3333 3333 3399 3433 3468 3433 3399 3399 3365 3365 3333 3333 3333 3333 3333 3333 3333 3333 3333 3333 3333 0 1883 1883 1873 1873 1873 1863 1863 1863 1863 1853 1853 1853 1853 1853 1853 1853 1843 1843 1843 1843 1843 1843 1843 1843 1843 1843 1843 1843 1843 1833 1833 1833 1833 1833 1833 1833 1833 1823 1823 1823 1823 1823 1823 1823 1823 1823 1823 1823 1823 1823 1813 1813 1813 1813 1813 1813 1813 1813 1813 1804 1804 1804 1804 1804 1804 1804 1794 1794 1794 1794 1794 1794 1794 1794 1794 1794 1794 0 0 0 0 4349 4349 4405 4405 4405 4405 4405 4405 4405 4463 4522 4582 0 0 0 0 0 0 0 6889 6889 6889 6889 6889 7030 7030 7030 7178 7178 7178 7178 7178 7178 7178 7178 7178 7178 7178 7178 7178 7178 7030 7030 7030 7030 7030 7030 7030 7178 7178 7178 7178 7178 7178 7178 7178 7178 7178 7178 7178 7030 7030 7030 7030 7030 7030 7030 7030 7030 7030 7030 7030 7178 7030 6889 6889 6889 6889 6889 6889 6889 6889 6889 6889 6753 6753 6753 6753 6753 6753 6753 6753 6753 6753 6753 6753 6753 6753 6753 6753 6622 6622 6622 6622 6622 6622 6622 6622 6622 6622 6622 6622 6622 6622 6622 6622 6622 6622 6622 6622 6622 6622 6622 6622 6622 6622 6622 6622 6622 6622 6622 6622 6622 6622 6622 6622 6622 6622 6622 6622 6622 6622 6622 6622 6622 6622 6622 6622 6622 6622 6622 6622 6497 6497 6497 6497 6497 6497 6497 6497 6375 6375 6375 6375 6259 6259 6259 6259 6259 6259 6259 6259 6259 6259 6259 6375 6375 6375 6375 6375 6375 6375 6375 6375 6375 6375 6497 6497 6497 6497 6497 6375 6375 6497 6375 6375 6375 6375 6375 6259 6259 6375 6375 6375 6375 6375 6375 0 0 0 0 0 0 0 0 0 0 0 0 0
0 0 0 0 0 0 0 0 0 0 0 0 0 0 0 0 0 0 0 0 0 0 0 0 0 0 0 0 0 0 5832 5734 5734 5832 5933 5933 6038 5933 5933 6038 6038 5734 5734 5933 5933 5933 9593 9593 0 0 0 0 0 0 0 0 0 0 0 0 0 0 0 8849 8849 8849 8626 8626 8626 8626 8626 8626 8626 8849 6259 6259 6259 9084 8849 8849 9084 8849 8849 8849 8849 9084 9084 8849 8849 8849 8626 8626 8626 8626 8849 8626 8626 8626 8626 8626 8413 8413 8413 8626 8626 8626 8626 8626 8626 8413 8413 8413 8413 8413 8413 8413 8413 8413 8626 8626 8626 8626 8626 8626 8626 8626 8626 8413 8413 8413 8413 6753 6753 6753 6753 6889 6889 6889 6622 6622 6622 6622 6622 6622 6622 6753 6753 6753 6622 6497 6497 6497 6497 6375 6146 6146 6375 6375 6146 6146 6146 6259 6259 6146 6146 6146 6146 6146 6146 6146 6146 6146 6259 6259 6259 6375 6259 6259 6375 6375 6259 6259 6259 6146 6146 6038 6038 6038 5933 5933 5832 5832 5933 5933 5933 6038 6038 6146 6146 6146 6146 6146 6146 6146 6146 6146 6146 6259 6259 6146 6146 6038 6038 6038 3433 3433 3468 3539 3539 3539 3539 3539 3539 3539 3539 3539 3539 3539 3539 3539 3539 3539 3539 3539 3539 3539 3539 3539 3539 3503 3503 3503 3503 3503 3503 3503 3503 3503 3503 3503 3503 3503 3468 3468 3468 3468 3468 3468 3433 3433 3433 3433 3468 3468 3468 3468 3468 3468 3503 3503 3468 3468 3468 3468 3433 3433 3433 3433 3468 3468 3468 3468 3503 3503 3503 3503 3468 3468 3468 3468 3468 3433 3433 3399 3399 3399 3399 3399 3399 3433 3399 3399 3399 3433 3433 3468 3468 3468 3433 3433 3433 3399 3365 3333 3333 3333 3333 3333 3333 3468 3468 3468 3433 3399 3399 3333 3333 3333 3333 3333 3333 3333 3333 3333 3333 3333 3333 3333 0 1883 1883 1873 1873 1873 1863 1863 1863 1853 1853 1853 1853 1853 1853 1853 1853 1843 1843 1843 1843 1843 1843 1843 1843 1843 1843 1843 1833 1833 1833 1833 1833 1833 1833 1833 1833 1833 1833 1833 1833 1833 1823 1823 1833 1833 1833 1823 1823 1823 1823 1813 1813 1813 1813 1813 1813 1804 1804 1804 1804 1804 1804 1804 1804 1804 1804 1794 1794 1794 1794 1794 1794 1794 1794 1794 1794 0 0 0 0 0 4349 4349 4349 4349 4349 4405 4405 4405 4405 4405 4522 0 0 0 0 0 0 0 0 0 6889 6889 6889 7030 7030 7178 7178 7178 7178 7178 7178 7178 7178 7178 7178 7178 7178 7178 7178 7178 7178 7178 7030 7030 7030 7030 7178 7178 7178 7178 7178 7178 7178 7178 7178 7178 7178 7178 7178 7030 7030 7030 7030 7030 7030 7030 7030 7030 7030 7030 7030 7030 7030 7030 6889 6889 6889 6889 6889 6889 6889 6889 6889 6889 6889 6889 6753 6753 6753 6753 6753 6753 6753 6753 6753 6753 6753 6622 6622 6622 6622 6622 6622 6622 6622 6622 6622 6622 6622 6622 6622 6622 6622 6622 6622 6622 6622 6622 6622 6622 6622 6622 6622 6622 6622 6622 6622 6622 6622 6622 6622 6622 6622 6622 6622 6622 6622 6622 6622 6622 6622 6622 6622 6622 6622 6622 6622 6622 6622 6622 6622 6622 6497 6497 6497 6497 6497 6497 6497 6497 6375 6375 6375 6375 6375 6375 6259 6259 6259 6259 6259 6259 6259 6259 6259 6259 6259 6375 6375 6375 6375 6375 6375 6375 6375 6375 6375 6497 6497 6497 6497 6497 6497 6375 6375 6375 6375 6375 6375 6259 6259 6375 6375 6375 6375 6375 6375 0 0 0 0 0 0 0 0 0 0 0 0 0
