0 0 0 0 0 0 0 0 0 0 0 0 0 0 0 0 0 0 0 0 0 0 0 0 0 0 0 0 0 0 0 0 0 0 0 0 0 0 0 0 0 5056 4983 4983 5132 5132 4983 4983 4983 4983 5056 5056 5056 5132 0 0 0 0 0 0 0 0 0 4911 4911 4842 4842 4911 4911 4983 4983 4983 5056 5056 5132 5132 5132 5056 5056 5056 5056 4842 5132 5132 5132 5132 5132 5132 5056 5056 5056 5056 5056 5056 2723 2723 2723 2723 2744 2744 2744 2723 2723 2744 2744 2723 2723 2723 2723 2723 2723 2723 2723 2723 2723 2723 2723 2723 2701 2701 2701 2701 2701 2701 2723 2723 2744 2744 2744 2744 2744 2744 2744 2744 2744 2767 2767 2767 2767 2767 2767 2789 2789 2789 2789 2789 2812 2835 2835 2859 2859 2859 2883 2883 2908 2908 2883 2859 2859 2859 2859 2835 2835 2859 2859 2040 2040 2040 2040 2040 2040 2040 2040 2053 2053 2053 2053 2053 2835 2835 2835 2835 2835 2835 2835 2835 2835 2859 2859 2859 2859 2859 2859 2859 2859 2859 2859 2859 2859 2859 2883 2859 2859 2883 2090 2090 2090 2116 2116 2116 2129 2129 2129 2129 2129 2116 2116 2129 2116 2116 2116 2116 2116 2116 2116 2129 2129 2129 2143 2143 2143 2156 2156 2156 2883 2883 2883 2883 2883 2883 2184 2170 2170 2156 2143 2143 2129 2129 2143 2143 2143 2143 2143 2143 2116 2116 2908 2933 2933 2933 2933 2933 2958 2958 2958 3010 3010 3010 3010 3010 3010 3010 3010 3010 5291 5291 5374 5460 5460 5291 5291 5291 5374 5374 5374 5374 5374 5374 5374 5374 5374 5291 5291 5291 5291 5291 5291 5291 5291 5291 5291 5291 5374 5548 5460 5460 5460 0 0 0 2212 2212 2212 2212 2212 2212 2212 2212 2212 2212 2212 2226 2226 2226 2226 2226 2226 2226 2226 2226 2226 2226 2226 2226 2226 2226 2226 2226 2226 2226 2226 2241 2241 2241 2241 2241 2241 2256 2256 2256 2256 2241 2241 2256 2256 2256 2256 2256 2256 2256 2256 2256 2256 2271 2271 2271 2271 2271 2271 2271 2271 2271 2271 2271 2271 2271 2271 2271 2271 2271 2271 2271 2271 2271 2271 2271 2271 2271 2271 2271 2271 2271 2271 2271 2286 2286 2286 0 0 0 0 0 0 0 0 0 0 0 0 0 0 0 0 0 0 2156 2156 2170 2170 2156 2156 2184 2184 2198 2198 2198 2198 2212 0 0 0 0 0 0 0 0 0 0 0 0 0 0 0 0 0 0 0 0 0 0 0 0 0 0 0 0 0 0 0 0 0 0 0 0 0 0 0 0 0 0 0 0 0 0 0 0 0 0 0 0 0 0 0 0 0 0 0 0 0 0 3903 3774 3732 3732 3732 3692 3692 3653 3653 3653 3653 3653 3692 3692 3692 3692 3692 3732 3732 3774 3859 3859 3903 3903 3903 3903 4911 3365 3365 4911 4983 4911 4911 4983 4983 3903 3859 3859 3903 3859 3816 3816 3816 3468 3468 3433 3433 3433 3433 3433 3064 3037 3010 3010 2984 2984 2984 2958 2958 2958 2958 2958 2958 2958 2958 2958 2958 2984 2984 2984 2984 2984 2984 2958 2958 2958 2958 2958 3503 3503 3503 3468 3433 3433 0 0 0 0 0 0 3653 3614 3614 3614 3614 3614 3614 3614 3614 3614 2933 2933 2958 2958 2984 2984 2958 2958 2958 2958 2984 2984 2984 2984 2984 2984 2984 2958 2958 5210 5210 5210 5132 5132 5132 5132 5210 5056 5056 5056 5210 5132 5132 3774 3774 3816 3816 3859 0 0 0 0 0 0 0 0 0 0 0 0
0 0 0 0 0 0 0 0 0 0 0 0 0 0 0 0 0 0 0 0 0 0 0 0 0 0 0 0 0 0 0 0 0 0 0 0 0 0 0 0 0 5291 5210 5132 5132 5132 4983 4983 4983 4983 4983 4983 5056 5132 0 0 0 0 0 0 0 0 4911 4911 4842 4842 4842 4911 4911 4983 4911 4911 4983 4983 5056 5056 5056 4983 4983 4983 4842 4842 4842 4983 5056 5056 5056 5056 5056 5056 4983 4983 5056 5056 5056 2723 2723 2723 2744 2744 2744 2744 2744 2744 2744 2744 2723 2723 2723 2723 2723 2723 2723 2723 2723 2723 2723 2723 2723 2723 2701 2701 2701 2723 2723 2723 2723 2723 2744 2744 2744 2744 2767 2767 2767 2767 2767 2767 2767 2789 2789 2789 2789 2789 2789 2812 2812 2835 2835 2859 2859 2883 2883 2908 2933 2908 2883 2883 2859 2859 2859 2835 2835 2859 2859 2040 2040 2040 2040 2040 2040 2040 2040 2040 2053 2053 2053 2053 2835 2835 2835 2835 2835 2835 2835 2835 2859 2859 2859 2859 2859 2883 2883 2090 2090 2090 2090 2090 2090 2090 2883 2859 2103 2090 2090 2090 2090 2116 2116 2116 2129 2129 2129 2129 2129 2116 2116 2129 2116 2116 2116 2116 2116 2129 2129 2129 2129 2129 2143 2143 2143 2143 2143 2143 2143 2143 2883 2883 2883 2143 2143 2156 2156 2156 2143 2143 2129 2129 2143 2143 2143 2143 2143 2143 2116 2116 2908 2933 2933 2933 2933 2958 2958 2958 2984 2984 3010 3010 3010 3010 3010 3010 3010 3010 5210 5210 5374 5374 5291 5291 5291 5291 5291 5291 5291 5291 5291 5291 5291 5291 5291 5291 5291 5291 5291 5210 5210 5210 5291 5291 5291 5291 5374 5374 5460 5374 5374 0 0 0 2212 2198 2198 2198 2212 2212 2212 2212 2212 2226 2226 2226 2226 2226 2226 2226 2226 2226 2226 2226 2226 2226 2226 2226 2226 2226 2226 2226 2226 2226 2241 2241 2241 2241 2256 2256 2256 2256 2256 2256 2256 2256 2256 2256 2256 2256 2256 2256 2256 2256 2256 2256 2256 2271 2271 2271 2271 2271 2271 2271 2256 2256 2256 2256 2271 2271 2271 2271 2271 2271 2271 2286 2271 2271 2271 2271 2271 2271 2271 2271 2271 2256 2256 2241 2241 2241 2241 2241 0 0 0 0 0 0 0 0 0 0 2212 2212 2212 2198 2184 2170 2156 2156 2156 2170 2170 2156 2156 2170 2170 2198 2184 2184 2184 2184 2184 0 0 0 0 0 0 0 0 0 0 0 0 0 0 0 0 0 0 0 0 0 0 0 0 0 0 0 0 0 0 0 0 0 0 0 0 0 0 0 0 0 0 0 0 0 0 0 0 0 0 0 0 0 0 0 0 0 0 0 0 0 3774 3732 3692 3692 3692 3653 3653 3653 3653 3653 3653 3653 3653 3653 3692 3692 3692 3692 3732 3774 3816 3859 3859 3903 3903 3903 3365 3365 3365 4842 4842 4911 4911 4911 3903 3903 3859 3859 3859 3859 3816 3539 3468 3433 3433 3433 3399 3399 3399 3399 3064 3037 3010 3010 2984 2984 2984 2958 2958 2958 2958 2958 2958 2958 2958 2984 2984 2984 3010 2984 2984 2984 2984 2958 2958 2958 3399 3468 3468 3468 3468 3468 3433 3433 0 0 0 0 0 0 3653 3614 3614 3614 3614 3614 3653 3653 3614 3614 2958 2958 2958 2958 2958 2984 2958 2958 2958 2984 2984 2984 2984 2984 2984 2984 2984 2958 2958 5210 5210 5210 5132 5132 5132 5132 5210 5132 5132 5132 5210 5132 5132 3774 3774 3816 3816 3816 0 0 0 0 0 0 0 0 0 0 0 0
0 0 0 0 0 0 0 0 0 0 0 0 0 0 0 0 0 0 0 0 0 0 0 0 0 0 0 0 0 0 0 0 0 0 0 0 0 0 0 0 0 5210 5210 5132 5056 5056 4983 4983 4983 4983 4983 4983 4983 5056 0 0 0 0 0 0 0 0 4911 4911 4842 4842 4842 4842 4911 4911 4911 4911 4983 4983 5056 4983 4983 4983 4911 4911 4911 4842 4842 4983 5056 5056 5056 5056 5056 5056 4983 4983 4983 5056 5056 2701 2701 2723 2744 2744 2744 2744 2744 2744 2744 2744 2744 2744 2744 2723 2723 2744 2744 2744 2744 2744 2744 2744 2723 2723 2723 2723 2723 2723 2723 2723 2723 2723 2744 2744 2744 2744 2767 2767 2767 2767 2789 2789 2789 2789 2789 2789 2789 2789 2789 2812 2812 2835 2835 2859 2859 2883 2883 2883 2933 2933 2908 2883 2859 2859 2859 2835 2835 2859 2859 2040 2040 2040 2040 2040 2040 2040 2040 2040 2053 2053 2053 2065 2078 2835 2835 2835 2835 2835 2835 2835 2859 2859 2859 2859 2883 2103 2090 2090 2090 2090 2090 2090 2090 2090 2090 2090 2090 2090 2090 2103 2103 2116 2116 2116 2129 2129 2129 2129 2129 2129 2129 2129 2116 2116 2116 2129 2129 2129 2129 2129 2129 2129 2143 2143 2143 2143 2143 2143 2143 2143 2143 2143 2143 2143 2143 2156 2156 2156 2143 2143 2143 2143 2143 2143 2143 2143 2143 2143 2116 2116 2908 2933 2933 2933 2958 2958 2984 2984 2984 2984 3010 3010 3010 3010 3010 3010 3010 5210 5210 5210 5210 5291 5210 5210 5291 5291 5291 5291 5291 5291 5291 5291 5291 5291 5291 5291 5291 5291 5291 5210 5210 5210 5291 5291 5291 5291 5374 5374 5460 5374 5374 5374 0 2184 2184 2184 2184 2198 2198 2212 2212 2226 2226 2226 2226 2226 2226 2226 2226 2226 2226 2226 2226 2226 2226 2226 2226 2226 2226 2226 2226 2226 2226 2226 2241 2241 2241 2256 2256 2256 2256 2256 2256 2256 2256 2271 2241 2241 2241 2256 2256 2256 2256 2256 2256 2256 2256 2256 2271 2271 2256 2256 2256 2256 2241 2241 2241 2241 2256 2256 2256 2271 2271 2271 2271 2271 2271 2271 2271 2271 2271 2256 2256 2256 2256 2256 2241 2226 2226 2212 2198 2198 2198 2184 2184 2184 0 0 0 2184 2184 2198 2198 2198 2198 2198 2184 2170 2156 2156 2156 2170 2170 2170 2170 2170 2170 2184 2184 2184 2170 2170 2170 2170 2156 2156 0 0 0 0 0 0 0 0 0 0 0 0 0 0 0 0 0 0 0 0 0 0 0 0 0 0 0 0 0 0 0 0 0 3816 3816 0 0 0 0 0 0 0 0 0 0 0 0 0 0 0 0 0 0 0 0 0 0 3774 3732 3732 3692 3692 3692 3653 3653 3653 3653 3653 3653 3653 3653 3653 3653 3653 3653 3692 3653 3653 3732 3774 3859 3365 3365 3399 3365 3365 3365 3365 3365 3333 3333 3333 3333 3333 3433 3399 3399 3433 3433 3433 3399 3399 3399 3399 3365 3365 3333 3300 3064 3037 3037 3010 3010 3010 2984 2984 2958 2958 2958 2958 2958 2958 2984 3010 3010 3010 3010 3010 3010 3010 2984 2984 2984 2984 3399 3399 3399 3399 3399 3399 3433 3433 0 0 3037 0 0 3010 2984 2984 2984 2984 2958 2958 3614 3614 2984 2984 2958 2958 2958 2958 2958 2984 2958 2958 2958 2984 2984 2984 2984 2984 2984 2984 2958 2958 2958 5210 5210 5210 5132 5132 5132 5132 5210 5132 5056 5056 5210 5056 5056 3774 3774 3816 3816 3816 0 0 0 0 0 0 0 0 0 0 0 0
0 0 0 0 0 0 0 0 0 0 0 0 0 0 0 0 0 0 0 0 0 0 0 0 0 0 0 0 0 0 0 0 0 0 0 0 0 0 0 0 0 5132 5132 5056 5056 5056 5056 4983 4983 4983 4983 4983 4983 5056 0 0 0 0 0 0 0 0 0 0 4774 4774 4774 4842 4842 4911 4842 4842 4911 4911 5056 4983 4983 4911 4911 4911 4911 4842 4842 5056 5056 5056 5056 5056 5056 5056 4983 4983 4983 4983 2701 2701 2701 2723 2744 2744 2744 2744 2744 2744 2744 2744 2744 2744 2744 2744 2744 2744 2744 2744 2744 2744 2744 2744 2744 2723 2723 2701 2701 2701 2723 2723 2723 2723 2744 2744 2767 2767 2767 2767 2767 2767 2789 2789 2789 2789 2789 2789 2789 2789 2812 2835 2835 2835 2835 2859 2859 2883 2883 2883 2933 2933 2933 2883 2859 2859 2859 2835 2835 2859 2859 2053 2053 2040 2040 2040 2040 2040 2040 2053 2053 2053 2053 2053 2078 2835 2835 2835 2835 2835 2835 2859 2859 2859 2859 2883 2090 2090 2090 2090 2090 2078 2078 2090 2090 2090 2090 2090 2090 2090 2090 2103 2103 2116 2116 2116 2129 2129 2129 2129 2129 2129 2129 2129 2129 2129 2129 2129 2129 2129 2129 2129 2129 2129 2143 2143 2143 2143 2143 2143 2143 2143 2143 2143 2143 2143 2143 2156 2156 2156 2143 2143 2143 2143 2143 2129 2129 2143 2143 2129 2116 2116 2129 2933 2933 2958 2958 2958 2984 2984 2984 2984 3010 3010 3010 3010 3010 3010 3010 5210 5210 5210 5210 5291 5210 5210 5291 5291 5291 5291 5291 5210 5210 5291 5291 5210 5210 5210 5210 5210 5210 5210 5210 5210 5210 5291 5291 5291 5374 5374 5374 5374 5374 5374 0 2184 2184 2184 2184 2198 2198 2212 2212 2226 2226 2226 2226 2226 2226 2226 2226 2226 2226 2226 2212 2212 2212 2212 2212 2226 2226 2212 2212 2226 2226 2226 2241 2241 2241 2241 2241 2241 2241 2256 2256 2256 2256 2256 2241 2241 2241 2241 2256 2256 2256 2256 2256 2256 2256 2256 2256 2256 2256 2256 2256 2226 2212 2212 2212 2212 2226 2226 2226 2271 2271 2271 2271 2271 2271 2256 2256 2256 2241 2226 2212 2212 2212 2212 2184 2184 2184 2170 2170 2170 2170 2170 2170 2170 2170 2170 2170 2184 2184 2184 2184 2184 2184 2184 2184 2170 2156 2156 2170 2170 2170 2170 2170 2170 2170 2170 2170 2170 2170 2170 2170 2170 2156 2156 2156 2156 2156 0 0 0 0 0 0 0 0 0 0 0 0 0 0 0 0 0 0 0 0 0 0 0 0 0 0 0 0 3774 3774 3774 3774 3859 3948 0 0 0 0 0 0 0 0 0 0 0 0 0 0 0 0 0 0 0 3774 3732 3732 3732 3692 3692 3692 3653 3653 3653 3653 3653 3653 3653 3653 3653 3653 3653 3653 3653 3503 3433 3399 3365 3365 3365 3365 3365 3365 3365 3333 3333 3333 3333 3333 3300 3300 3300 3300 3365 3365 3399 3399 3399 3399 3399 3399 3399 3365 3333 3333 3300 3092 3064 3037 3010 3010 3010 2984 2984 2984 2958 2958 2958 2984 2984 3010 3010 3010 3010 3010 3010 3010 3010 2984 2984 3010 3010 3399 3399 3399 3300 3238 3178 3149 3149 3149 0 3037 3037 3037 3010 2984 2984 2958 2958 2958 2958 3010 3010 2984 2984 2984 2958 2958 2984 2984 2984 2984 2984 2984 2984 2984 2984 2984 2984 2984 2984 2958 2958 2958 5291 5210 5210 5132 5132 5132 5132 5210 5132 5056 5056 5056 4983 4983 3774 3774 3816 3816 3816 0 0 0 0 0 0 0 0 0 0 0 0
0 0 0 0 0 0 0 0 0 0 0 0 0 0 0 0 0 0 0 0 0 0 0 0 0 0 0 0 0 0 0 0 0 0 0 0 0 0 0 0 0 5056 4983 4983 4983 4983 4983 4911 4911 4911 4911 4911 4983 4983 4983 0 0 0 0 0 0 0 0 0 4774 4774 4774 4842 4842 4842 4842 4842 4842 4842 4911 4911 4911 4911 4911 4911 4911 4842 4842 4842 4983 4983 4983 5056 5056 5056 4911 4911 4983 4983 4983 2744 2744 2744 2744 2744 2744 2744 2744 2744 2744 2744 2744 2744 2744 2744 2744 2744 2744 2744 2744 2744 2744 2744 2744 2723 2723 2701 2701 2701 2723 2723 2723 2723 2744 2767 2767 2767 2767 2767 2767 2767 2789 2789 2789 2789 2789 2789 2789 2789 2812 2835 2835 2835 2859 2859 2859 2883 2883 2908 2933 2958 2933 2908 2883 2859 2859 2859 2859 2859 2859 2053 2053 2040 2040 2040 2040 2040 2040 2053 2053 2053 2053 2053 2065 2078 2078 2835 2835 2835 2835 2859 2859 2090 2090 2090 2090 2090 2090 2090 2090 2078 2078 2090 2090 2090 2090 2090 2103 2103 2103 2116 2116 2116 2116 2116 2116 2129 2129 2129 2129 2129 2129 2129 2129 2129 2129 2129 2129 2129 2129 2129 2129 2129 2143 2143 2143 2143 2143 2143 2143 2143 2143 2143 2143 2156 2156 2156 2156 2156 2143 2129 2129 2129 2129 2129 2129 2129 2129 2129 2116 2116 2129 2933 2933 2958 2958 2958 2984 2984 2984 2984 3010 3010 3010 3010 3010 3010 3010 5210 5210 5210 5210 5291 5210 5210 5291 5291 5291 5210 5210 5210 5210 5210 5210 5210 5210 5210 5210 5210 5210 5210 5210 5210 5210 5291 5291 5291 5374 5374 5374 5374 5374 0 0 2184 2184 2184 2184 2184 2198 2212 2212 2226 2226 2226 2226 2226 2226 2226 2226 2226 2226 2226 2198 2198 2198 2198 2198 2212 2212 2212 2212 2212 2212 2226 2226 2226 2226 2226 2226 2226 2226 2226 2241 2241 2241 2256 2212 2212 2212 2226 2241 2241 2241 2241 2241 2256 2256 2241 2241 2241 2241 2241 2241 2226 2198 2198 2198 2198 2198 2226 2226 2256 2241 2241 2256 2271 2256 2241 2212 2212 2212 2212 2184 2184 2184 2184 2170 2170 2170 2170 2170 2170 2170 2156 2156 2170 2170 2170 2170 2170 2170 2170 2170 2170 2170 2170 2170 2156 2156 2156 2156 2156 2156 2156 2170 2156 2156 2170 2170 2170 2170 2170 2170 2170 2156 2156 2156 2156 2156 2156 0 0 0 0 0 0 0 0 0 0 0 0 0 0 0 0 0 0 0 0 0 0 0 0 0 0 0 3774 3774 3774 3774 3859 3948 3948 3948 0 0 0 0 0 0 0 0 0 0 0 0 0 0 0 0 0 3774 3732 3732 3732 3692 3692 3692 3692 3692 3692 3653 3653 3653 3653 3653 3653 3653 3653 3653 3576 3433 3399 3365 3365 3365 3333 3333 3365 3365 3333 3333 3333 3333 3333 3300 3300 3300 3300 3300 3333 3333 3365 3365 3365 3365 3365 3365 3365 3333 3300 3300 3269 3238 3064 3037 3037 3010 3010 2984 2984 2984 2984 2984 2984 2984 3010 3010 3010 3010 3010 3010 3037 3037 3010 3010 3037 3037 3037 3037 3037 3064 3064 3064 3120 3092 3092 3064 3037 3037 3037 3037 3037 2984 2984 2958 2958 2984 2984 3010 3010 3010 3010 3010 2984 2984 2984 2984 2984 2984 2984 2984 2984 2984 2984 2984 2984 2984 2984 2958 2958 2958 5291 5291 5291 5056 5056 5210 5210 5210 5132 5056 5056 5056 4983 4983 3774 3774 3816 3816 3859 0 0 0 0 0 0 0 0 0 0 0 0
0 0 0 0 0 0 0 0 0 0 0 0 0 0 0 0 0 0 0 0 0 0 0 0 0 0 0 0 0 0 0 0 0 0 0 0 0 0 0 0 0 4911 4911 4911 4911 4911 4911 4911 4842 4842 4911 4911 4911 4911 4911 0 0 0 0 0 0 0 0 4774 4774 4774 4774 4842 4842 4774 4774 4842 4842 4842 4842 4842 4842 4842 4842 4842 4842 4842 4842 4842 4911 4911 4911 4983 4983 4911 4911 4911 4983 4983 4911 0 2723 2723 2723 2723 2723 2744 2744 2744 2744 2744 2744 2744 2744 2744 2744 2744 2744 2744 2744 2744 2744 2744 2744 2723 2723 2723 2723 2723 2723 2723 2723 2744 2744 2767 2767 2767 2767 2767 2767 2767 2789 2789 2789 2789 2789 2789 2812 2812 2812 2835 2835 2835 2859 2859 2859 2883 2883 2908 2958 2984 2984 2984 2908 2883 2859 2835 2835 2835 2835 2053 2053 2053 2040 2040 2040 2053 2053 2053 2053 2053 2065 2065 2065 2078 2078 2078 2078 2078 2078 2078 2078 2078 2078 2078 2090 2090 2090 2090 2090 2078 2078 2090 2090 2090 2090 2090 2103 2103 2103 2116 2116 2116 2116 2116 2116 2129 2129 2129 2129 2129 2129 2129 2129 2129 2129 2129 2129 2129 2129 2129 2129 2129 2143 2143 2143 2143 2143 2143 2143 2143 2143 2143 2143 2143 2143 2156 2156 2156 2143 2129 2129 2129 2129 2129 2129 2129 2129 2143 2156 2933 2933 2933 2933 2958 2958 2958 2984 2984 2984 2984 3010 3010 3010 3037 3037 3037 3037 5210 5210 5210 5210 5291 5210 5210 5291 5291 5291 5210 5210 5210 5210 5210 5210 5210 5210 5210 5291 5291 5291 5210 5210 5210 5291 5291 5291 5291 5374 5460 5460 5460 5460 2090 2116 2170 2170 2170 2170 2184 2198 2212 2212 2212 2226 2226 2226 2226 2226 2226 2212 2212 2212 2212 2184 2184 2170 2170 2184 2198 2198 2198 2198 2212 2212 2212 2226 2226 2226 2226 2226 2212 2212 2212 2212 2226 2226 2212 2198 2198 2198 2198 2226 2226 2184 2184 2212 2212 2198 2198 2198 2212 2212 2198 2198 2184 2184 2170 2170 2170 2170 2184 2198 2226 2226 2226 2241 2271 2184 2170 2170 2170 2170 2170 2170 2170 2170 2170 2170 2170 2170 2156 2156 2156 2156 2143 2143 2156 2156 2156 2156 2170 2170 2170 2170 2170 2170 2170 2170 2156 2156 2156 2156 2156 2156 2156 2156 2143 2143 2156 2156 2156 2156 2156 2156 2156 2156 2156 2143 2143 2143 2143 2129 2129 0 0 0 0 0 0 0 0 0 0 0 0 0 0 0 0 0 0 0 0 0 0 0 0 0 0 3859 3859 3859 3903 3948 3948 3948 3948 3948 0 0 0 0 0 0 0 0 0 0 0 0 0 0 0 3816 3774 3774 3732 3732 3732 3732 3692 3692 3692 3653 3653 3653 3653 3692 3653 3653 3614 3576 3576 3399 3365 3365 3365 3365 3333 3333 3365 3333 3333 3333 3300 3300 3300 3300 3300 3300 3300 3300 3333 3333 3333 3333 3333 3333 3333 3333 3333 3300 3300 3300 3269 3238 3064 3037 3010 3010 2984 2984 2984 2984 2984 2984 2984 2984 3010 3010 3010 3010 3010 3010 3037 3037 3037 3037 3037 3037 3037 3037 3037 3037 3037 3064 3064 3064 3064 3064 3010 3010 3037 3037 3037 3010 3010 3010 3010 3010 3010 3010 3010 3010 3010 3010 2984 2984 2984 2984 2984 2984 2984 2984 2984 2984 2984 2984 2984 2984 2958 2958 2958 2958 4983 4983 4983 4983 4983 4983 4983 0 5132 5056 5056 5056 4983 4983 3816 3816 3859 3859 3859 0 0 0 0 0 0 0 0 0 0 0 0
0 0 0 0 0 0 0 0 0 0 0 0 0 0 0 0 0 0 0 0 0 0 0 0 0 0 0 0 0 0 0 0 0 0 0 0 0 0 0 4842 4842 4911 4911 4842 4842 4911 4911 4842 4842 4842 4911 4911 4911 4911 4842 4842 0 0 0 0 0 0 4842 4774 4774 4774 4774 4842 4774 4774 4774 4774 4774 4842 4842 4842 4842 4842 4842 4842 4842 4842 4842 4911 4911 4911 4911 4911 4911 4911 4911 4911 4911 4911 4911 4842 0 2723 2723 2723 2723 2744 2744 2744 2744 2744 2744 2744 2744 2744 2744 2744 2744 2744 2744 2744 2744 2744 2744 2744 2744 2723 2723 2723 2723 2744 2744 2744 2744 2767 2767 2767 2767 2767 2767 2767 2789 2789 2789 2789 2789 2789 2812 2812 2812 2835 2835 2835 2859 2859 2859 2883 2883 2908 2958 2984 3037 3037 3037 2984 2883 2835 2835 2835 2835 2835 2053 2053 2040 2040 2053 2053 2053 2053 2065 2065 2065 2065 2078 2078 2078 2078 2078 2078 2078 2078 2078 2078 2078 2078 2078 2090 2090 2090 2090 2090 2090 2090 2090 2090 2090 2103 2103 2103 2103 2116 2116 2116 2116 2116 2116 2129 2129 2129 2129 2129 2129 2129 2129 2129 2129 2129 2129 2143 2143 2143 2129 2129 2143 2143 2143 2143 2143 2143 2143 2143 2143 2143 2143 2143 2143 2156 2156 2156 2143 2129 2129 2129 2129 2129 2129 2129 2129 2143 2143 2933 2933 2933 2958 2958 2958 2958 2984 2984 2984 3010 3010 3010 3010 3037 3037 3037 3037 5210 5210 5132 5132 5210 5210 5210 5210 5291 5291 5291 5291 5210 5210 5291 5291 5210 5210 5210 5210 5291 5291 5291 5291 5291 5291 5291 5291 5291 5460 5460 5460 2078 2078 2090 2116 2116 2116 2129 2129 2129 2170 2184 2212 2212 2212 2226 2226 2226 2212 2212 2212 2212 2212 2198 2170 2156 2143 2143 2143 2143 2156 2156 2184 2184 2198 2212 2212 2198 2198 2212 2212 2198 2198 2198 2212 2226 2226 2184 2170 2170 2170 2170 2156 2156 2156 2156 2170 2170 2184 2184 2184 2184 2184 2184 2170 2170 2156 2156 2143 2143 2143 2156 2170 2170 2170 2170 2170 2156 2156 2156 2156 2156 2156 2156 2156 2156 2156 2170 2156 2156 2156 2143 2143 2143 2143 2129 2129 2129 2143 2143 2156 2156 2156 2156 2156 2156 2156 2156 2156 2143 2143 2143 2143 2143 2143 2143 2143 2143 2143 2143 2143 2156 2156 2156 2156 2156 2156 2156 2143 2143 2143 2129 2116 2116 2116 2116 2116 2116 0 0 0 0 0 0 0 0 0 0 0 0 0 0 0 0 0 0 0 0 0 3903 3903 3859 3859 3903 3903 3903 3903 3903 3903 3948 0 0 0 0 0 0 0 0 0 0 0 0 0 0 3774 3774 3774 3774 3732 3732 3732 3692 3692 3692 3692 3692 3692 3692 3692 3653 3653 3614 3576 3468 3365 3333 3333 3333 3333 3333 3333 3333 3333 3333 3300 3300 3300 3300 3300 3300 3300 3300 3300 3333 3333 3333 3300 3300 3300 3300 3300 3300 3300 3269 3269 3238 3149 3092 3064 3010 3010 2984 2984 2984 2984 2984 2984 3010 3010 3010 3010 3037 3037 3037 3037 3037 3037 3037 3037 3037 3037 3037 3037 3037 3037 3037 3064 3064 3064 3064 3037 3010 3010 3037 3037 3037 3010 3010 2984 2984 3010 3010 3010 3010 3010 3010 3010 3010 2984 2984 3010 3010 3010 3010 3010 2984 2984 2984 2984 2984 2958 2958 2908 2908 2908 4983 4983 4983 4983 4983 4983 0 0 0 5056 4983 4983 4983 4983 4983 3859 3859 3859 3859 0 0 0 0 0 0 0 0 0 0 0 0
0 0 0 0 0 0 0 0 0 0 0 0 0 0 0 0 0 0 0 0 0 0 0 0 0 0 0 0 0 0 0 0 0 0 4708 4708 0 0 0 4842 4842 4774 4774 4842 4842 4911 4911 4842 4842 4842 4911 4911 4911 4911 4842 4842 4842 4842 4842 0 0 0 4842 4774 4774 4774 4774 4842 4774 4774 4774 4774 4774 4842 4774 4774 4842 4842 4842 4842 4842 4842 4842 4911 4911 4911 4911 4911 4911 4911 4911 4911 4911 4842 4842 4842 2680 2723 2723 2723 2744 2744 2744 2744 2767 2767 2744 2744 2744 2744 2744 2744 2744 2744 2744 2744 2744 2744 2744 2744 2744 2744 2744 2744 2744 2744 2744 2744 2767 2767 2767 2767 2767 2767 2767 2767 2789 2789 2789 2789 2789 2789 2812 2812 2812 2835 2835 2835 2859 2859 2859 2883 2883 2908 2984 3010 3037 3037 3037 2984 2883 2859 2835 2835 2835 2835 2835 2040 2040 2040 2053 2053 2053 2053 2053 2065 2065 2065 2065 2078 2078 2078 2078 2078 2078 2078 2078 2078 2078 2078 2078 2090 2090 2090 2090 2090 2090 2103 2103 2103 2103 2103 2103 2103 2116 2116 2116 2116 2116 2116 2116 2129 2129 2129 2129 2129 2129 2129 2129 2129 2129 2129 2129 2143 2143 2143 2129 2129 2143 2143 2143 2143 2143 2143 2143 2143 2143 2143 2156 2156 2156 2156 2156 2156 2143 2143 2129 2129 2129 2129 2143 2129 2129 2143 2143 2933 2933 2933 2958 2958 2984 2984 2984 2984 3010 3010 3010 3010 3037 3037 3037 3037 2065 5132 5132 5132 5132 5210 5210 5210 5210 5291 5210 5210 5291 5291 5291 2116 5210 5210 5210 5210 5210 5291 5291 5291 5291 5291 5291 5291 5291 5291 2078 2078 2078 2078 2078 2078 2090 2103 2116 2116 2116 2129 2129 2129 2198 2212 2212 2212 2226 2226 2212 2212 2212 2184 2156 2143 2129 2129 2129 2129 2129 2116 2116 2129 2129 2170 2170 2170 2170 2170 2170 2156 2156 2156 2170 2184 2143 2129 2129 2129 2129 2143 2143 2129 2129 2129 2129 2129 2129 2143 2143 2156 2156 2156 2143 2143 2156 2143 2129 2129 2143 2129 2129 2129 2129 2129 2143 2143 2143 2129 2129 2143 2143 2143 2156 2156 2156 2156 2156 2156 2156 2156 2156 2143 2143 2129 2129 2129 2129 2129 2129 2143 2143 2143 2143 2143 2143 2129 2129 2129 2129 2116 2116 2129 2129 2129 2129 2129 2116 2116 2129 2129 2129 2129 2143 2143 2143 2143 2143 2143 2129 2129 2129 2116 2116 2116 2116 2116 2116 2103 2103 0 0 0 0 0 0 0 0 0 0 0 0 0 0 0 0 0 0 0 0 3903 3903 3903 3903 3903 3903 3903 3903 3903 3903 3948 3948 0 0 0 0 0 0 0 0 0 0 0 0 0 3774 3774 3774 3774 3732 3732 3732 3732 3692 3692 3692 3692 3692 3692 3692 3692 3653 3576 3576 3433 3365 3333 3333 3333 3333 3333 3333 3300 3300 3300 3300 3300 3300 3300 3300 3300 3300 3300 3300 3300 3300 3300 3300 3300 3300 3300 3300 3300 3269 3269 3269 3238 3149 3092 3064 3037 3010 3010 2984 2984 2984 2984 2984 3010 3010 3010 3010 3010 3010 3010 3010 3037 3037 3037 3037 3037 3037 3037 3037 3037 3037 3037 3064 3064 3037 3037 3037 3010 3010 3037 3010 3010 3010 3010 2984 2984 3010 3010 3010 3010 3010 3010 3010 3010 3010 3010 3010 3010 3010 3010 3010 3010 2984 2984 2984 2984 2958 2933 2908 2908 2908 4911 4911 4911 4911 4911 4911 0 0 0 0 4983 4842 4842 4911 4911 3859 3859 3859 3859 0 0 0 0 0 0 0 0 0 0 0 0
0 0 0 0 0 0 0 0 0 0 0 0 0 0 0 0 0 0 0 0 0 0 0 0 0 0 0 0 0 0 0 0 0 0 4645 4645 4708 0 4842 4842 4774 4774 4774 4842 4842 4842 4911 4842 4842 4911 4911 4911 4911 4911 4842 4842 4842 4842 4842 0 0 0 0 4774 4774 4774 4774 4842 4842 4774 4774 4774 4774 4774 4774 4774 4774 4842 4842 4774 4774 4774 4774 4842 4842 4842 4911 4911 4911 4911 4911 4911 4911 4842 4842 4842 2680 2680 2701 2701 2723 2744 2744 2744 2767 2767 2744 2744 2744 2744 2744 2744 2744 2744 2744 2767 2767 2744 2744 2744 2744 2744 2744 2744 2744 2744 2744 2744 2767 2767 2767 2767 2767 2767 2767 2767 2789 2789 2789 2789 2789 2789 2812 2812 2812 2835 2835 2835 2859 2859 2883 2883 2883 2908 2958 3010 3010 3010 3010 2958 2883 2859 2835 2835 2835 2835 2835 2040 2040 2040 2053 2053 2053 2053 2053 2065 2065 2065 2065 2078 2078 2078 2078 2078 2078 2078 2078 2078 2078 2078 2078 2090 2090 2090 2090 2090 2090 2103 2103 2103 2103 2103 2103 2103 2116 2116 2116 2116 2116 2116 2116 2116 2129 2129 2129 2129 2129 2129 2129 2129 2129 2129 2129 2143 2143 2143 2129 2129 2129 2129 2129 2129 2143 2143 2143 2143 2143 2143 2143 2143 2143 2156 2156 2156 2143 2143 2129 2129 2143 2143 2143 2143 2143 2143 2129 2129 2933 2933 2958 2958 2958 2984 2984 3010 3010 3010 3010 3010 3037 3037 2065 2065 2065 2065 2078 2078 2090 2090 5210 2078 2078 2090 5210 5210 5291 2116 2116 2116 2078 2078 5210 5210 5210 5291 2078 2078 2078 2090 2090 2090 2090 2090 2078 2078 2078 2078 2078 2078 2090 2103 2116 2116 2116 2116 2129 2129 2129 2129 2129 2143 2212 2129 2129 2129 2129 2129 2129 2129 2129 2116 2116 2116 2103 2103 2103 2116 2116 2116 2116 2116 2129 2143 2143 2116 2103 2103 2116 2116 2116 2116 2116 2116 2116 2116 2116 2116 2116 2116 2116 2116 2116 2116 2116 2129 2129 2129 2116 2116 2129 2116 2116 2116 2116 2116 2116 2116 2116 2116 2116 2129 2129 2116 2116 2129 2129 2129 2143 2143 2143 2143 2143 2156 2143 2143 2129 2129 2116 2116 2116 2116 2116 2116 2129 2129 2129 2129 2129 2129 2129 2116 2116 2129 2129 2116 2116 2116 2116 2116 2116 2116 2103 2103 2103 2116 2116 2116 2116 2129 2143 2129 2129 2129 2129 2129 2116 2116 2103 2103 2103 2103 2103 2090 2090 2103 0 0 0 0 0 0 0 0 0 0 0 0 0 0 0 0 0 0 0 3903 3903 3903 3903 3903 3903 3903 3903 3903 3903 3948 3948 3948 0 0 0 0 0 0 0 0 0 0 0 0 3774 3774 3774 3774 3774 3732 3732 3732 3692 3692 3692 3692 3692 3692 3692 3692 3653 3576 3576 3433 3333 3333 3333 3333 3333 3300 3300 3300 3300 3300 3300 3300 3269 3269 3269 3269 3269 3269 3269 3300 3269 3269 3269 3269 3269 3269 3269 3269 3269 3269 3238 3208 3120 3092 3064 3037 3010 3010 2984 2984 2984 2984 3010 3010 3010 3010 3010 3010 3010 3010 3010 3037 3037 3037 3037 3037 3037 3037 3037 3037 3037 3064 3064 3064 3037 3037 3037 3037 3037 3037 3010 3010 3010 3010 2984 2984 3010 3010 3010 3010 3010 3010 3010 3010 3010 3010 3010 3010 3010 3010 3010 2984 2984 2984 2984 2958 2958 2933 2908 2908 2908 4911 4911 4911 4911 4911 4911 0 0 0 0 0 4842 4842 4911 4911 3859 3859 3859 3859 0 0 0 0 0 0 0 0 0 0 0 0
0 0 0 0 0 0 0 0 0 0 0 0 0 0 0 0 0 0 0 0 0 0 0 0 0 0 0 0 0 0 0 4645 4645 4645 4645 4645 4645 4645 4645 4842 4774 4774 4645 4645 4774 4774 4842 4842 4842 4842 4842 4842 4911 4842 4774 4774 4842 4842 4842 4842 0 0 4842 4842 4842 4842 4842 4842 4774 4708 4708 4774 4774 4774 4708 4708 4708 4774 4708 4708 4708 4708 4708 4774 4842 4842 4842 4842 4911 4842 4842 4842 4842 4774 4774 4774 2680 2680 2701 2701 2723 2744 2744 2744 2767 2767 2744 2744 2744 2744 2744 2744 2744 2744 2744 2767 2767 2744 2744 2744 2767 2744 2744 2744 2744 2767 2767 2767 2767 2767 2767 2767 2767 2767 2767 2767 2789 2789 2789 2789 2789 2789 2812 2812 2812 2835 2835 2859 2859 2859 2883 2883 2908 2908 2958 2984 3010 3010 3010 2958 2883 2859 2859 2835 2812 2812 2812 2040 2040 2040 2053 2053 2053 2065 2065 2065 2065 2065 2065 2065 2078 2078 2078 2078 2078 2078 2078 2078 2078 2078 2090 2090 2090 2090 2090 2090 2090 2103 2103 2103 2103 2103 2103 2103 2116 2116 2116 2116 2116 2116 2116 2116 2129 2129 2129 2129 2129 2129 2129 2129 2129 2129 2129 2143 2143 2143 2129 2129 2129 2129 2129 2129 2143 2143 2143 2143 2143 2143 2143 2143 2143 2156 2156 2156 2143 2129 2129 2129 2129 2143 2143 2143 2143 2156 2129 2129 2933 2933 2958 2958 2958 2984 2984 2984 3010 3010 3010 3037 3037 2065 2065 2065 2065 2065 2078 2078 2078 2078 2078 2078 2078 2078 5210 2078 2078 2090 2090 2090 2078 2078 2078 2078 2065 2065 2065 2078 2078 2078 2090 2090 2090 2090 2090 2090 2078 2078 2078 2090 2103 2103 2103 2116 2116 2116 2116 2116 2116 2129 2129 2129 2116 2116 2116 2116 2116 2116 2116 2116 2116 2103 2103 2103 2103 2103 2103 2103 2090 2090 2103 2103 2116 2116 2116 2103 2090 2090 2090 2103 2103 2103 2103 2103 2103 2103 2103 2103 2103 2103 2103 2103 2103 2103 2103 2116 2116 2116 2103 2103 2103 2103 2103 2103 2103 2103 2103 2116 2116 2103 2103 2103 2103 2103 2103 2103 2103 2116 2116 2116 2116 2129 2116 2116 2116 2116 2116 2103 2103 2103 2103 2103 2103 2116 2116 2116 2116 2116 2116 2116 2116 2116 2116 2116 2116 2103 2103 2103 2103 2103 2103 2103 2103 2103 2103 2116 2116 2103 2103 2116 2129 2103 2103 2103 2103 2103 2103 2103 2103 2103 2103 2103 2103 2090 2090 2090 0 0 0 0 0 0 0 0 0 0 0 0 0 0 0 0 0 0 0 3903 3903 3903 3903 3903 3903 3903 3903 3903 3948 3948 3948 3948 0 0 0 0 0 0 0 0 0 0 0 0 0 3774 3774 3774 3774 3774 3774 3732 3732 3732 3692 3692 3692 3692 3692 3692 3653 3576 3468 3433 3333 3333 3333 3333 3333 3300 3300 3300 3300 3300 3269 3269 3269 3269 3269 3269 3269 3238 3238 3269 3269 3238 3238 3238 3269 3269 3269 3269 3269 3238 3238 3178 3092 3092 3064 3037 3010 3010 2984 2984 2984 2984 3010 3010 3010 3010 3010 3010 3010 3010 3037 3037 3037 3037 3037 3037 3037 3037 3037 3037 3037 3064 3064 3064 3064 3064 3037 3037 3037 3037 3037 3010 3010 3010 3010 3010 3010 3010 3010 3037 3037 3037 3037 3037 3010 3010 3010 3010 3010 3010 3010 2984 2984 2984 2984 2958 2958 2933 2908 2908 2908 4708 4708 4645 0 0 0 0 0 0 0 0 0 4911 4911 4911 3859 3859 3859 3859 0 0 0 0 0 0 0 0 0 0 0 0
0 0 0 0 0 0 0 0 0 0 0 0 0 0 0 0 0 0 0 0 0 0 0 0 0 0 0 0 0 0 4708 4645 4645 4645 4645 4645 4645 4645 4645 4645 4645 4645 4645 4645 4708 4708 4708 4708 4774 4774 4774 4842 4842 4842 4774 4774 4842 4842 4842 4842 4708 0 4774 4774 4774 4774 4774 4774 4774 4708 4708 4708 4774 4774 4708 4708 4708 4774 4708 4708 4708 4708 4708 4774 4774 4774 4774 4774 4842 4774 4774 4774 4774 4774 4774 4774 2701 2701 2701 2701 2723 2744 2767 2767 2767 2767 2744 2744 2744 2744 2744 2744 2744 2767 2767 2767 2767 2767 2767 2767 2767 2767 2744 2744 2767 2767 2767 2767 2767 2767 2767 2767 2767 2767 2767 2767 2767 2789 2789 2789 2789 2789 2812 2812 2812 2835 2835 2859 2859 2859 2859 2883 2883 2908 2958 2984 3010 3010 3010 3010 2883 2883 2859 2835 2812 2789 2789 2040 2040 2053 2053 2053 2053 2065 2065 2065 2065 2065 2065 2065 2078 2078 2078 2078 2078 2090 2090 2090 2090 2090 2090 2090 2090 2090 2090 2103 2103 2103 2103 2103 2103 2103 2103 2103 2116 2116 2116 2116 2103 2103 2116 2116 2116 2116 2129 2129 2129 2129 2129 2129 2129 2129 2129 2129 2129 2143 2143 2143 2143 2143 2129 2129 2143 2143 2143 2143 2143 2143 2143 2143 2143 2143 2143 2143 2129 2129 2129 2129 2129 2129 2129 2129 2129 2156 2129 2116 2116 2933 2958 2958 2958 2984 2984 2984 3010 3010 3010 3037 2065 2065 2065 2065 2065 2065 2065 2078 2078 2078 2078 2065 2065 2065 2065 2065 2065 2078 2078 2078 2078 2078 2078 2065 2065 2065 2065 2078 2078 2078 2078 2078 2078 2078 2078 2078 2078 2078 2078 2090 2090 2090 2103 2103 2103 2103 2103 2103 2103 2103 2103 2103 2090 2090 2103 2090 2090 2090 2090 2103 2103 2090 2090 2090 2090 2090 2090 2090 2090 2090 2090 2103 2103 2103 2103 2078 2078 2078 2090 2090 2090 2090 2090 2103 2103 2090 2090 2090 2090 2090 2090 2090 2090 2090 2103 2090 2090 2090 2090 2090 2090 2090 2090 2090 2090 2090 2103 2103 2103 2090 2090 2090 2090 2090 2078 2078 2090 2103 2103 2103 2103 2116 2116 2116 2116 2103 2103 2090 2090 2090 2090 2090 2090 2103 2103 2103 2090 2090 2090 2090 2103 2103 2103 2103 2103 2090 2090 2090 2090 2090 2090 2103 2103 2103 2103 2116 2116 2103 2090 2090 2090 2065 2065 2065 2078 2078 2078 2090 2090 2090 2090 2090 2090 2078 2078 2065 2065 2053 2053 2053 2053 2053 0 0 0 0 0 0 0 0 0 0 0 0 0 3903 3903 3903 3903 3903 3903 3903 3903 3948 3948 3948 3994 4139 4582 4582 0 0 0 0 0 0 0 0 0 0 0 0 3774 3774 3774 3774 3774 3732 3732 3732 3692 3692 3692 3692 3692 3692 3653 3653 3468 3433 3333 3333 3333 3333 3333 3333 3300 3300 3300 3269 3269 3269 3269 3269 3238 3238 3238 3208 3208 3238 3238 3208 3208 3238 3238 3238 3238 3238 3238 3238 3208 3149 3092 3092 3064 3037 3037 3010 3010 3010 3010 3010 3010 3010 3010 3037 3037 3037 3037 3037 3064 3064 3064 3064 3037 3037 3037 3037 3064 3064 3064 3064 3064 3064 3064 3064 3064 3037 3037 3037 3037 3037 3037 3037 3010 3010 3037 3037 3037 3037 3037 3037 3037 3037 3010 3010 3010 3010 3010 3010 3010 2984 2984 2984 2984 2984 2958 2933 2933 2933 4582 4708 4708 4645 4645 0 0 0 0 0 0 0 0 0 0 3948 3948 3903 3903 3903 0 0 0 0 0 0 0 0 0 0 0 0
0 0 0 0 0 0 0 0 0 0 0 0 0 0 0 0 0 0 0 0 0 0 0 0 0 0 0 0 0 0 4645 4645 4645 4645 4645 4645 4645 4645 4645 4645 4645 4582 4582 4645 4645 4645 4645 4645 4774 4774 4774 4842 4842 4842 4708 4708 4774 4774 4708 4708 4708 0 4774 4774 4774 4774 4774 4774 4774 4708 4708 4708 4774 4774 4774 4708 4708 4708 4708 4645 4645 4645 4645 4708 4708 4708 4708 4774 4774 4774 4708 4708 4708 4708 4645 4645 2701 2701 2701 2723 2744 2767 2767 2767 2767 2767 2767 2767 2744 2744 2744 2744 2744 2767 2767 2767 2767 2767 2767 2767 2767 2767 2767 2767 2767 2767 2767 2767 2767 2767 2767 2767 2767 2767 2767 2767 2767 2789 2789 2789 2789 2789 2812 2812 2812 2835 2835 2859 2859 2859 2859 2883 2883 2908 2958 2984 3010 3010 3037 3037 2933 2883 2859 2835 2812 2789 2789 2789 2040 2040 2053 2053 2065 2065 2065 2065 2065 2065 2065 2078 2078 2078 2078 2078 2090 2090 2090 2090 2090 2090 2090 2090 2090 2090 2090 2103 2103 2103 2103 2103 2103 2103 2103 2103 2116 2116 2116 2116 2103 2103 2116 2116 2116 2116 2116 2129 2129 2129 2129 2129 2129 2129 2129 2129 2129 2129 2129 2129 2129 2129 2129 2129 2129 2129 2129 2129 2129 2129 2129 2116 2116 2116 2116 2116 2116 2103 2103 2103 2129 2129 2129 2129 2129 2143 2129 2116 2090 2090 2078 2078 2078 2078 2078 2984 3010 3010 3010 3010 2040 2040 2053 2065 2065 2065 2065 2065 2065 2065 2065 2065 2065 2065 2065 2065 2065 2078 2078 2065 2065 2065 2065 2065 2065 2065 2065 2065 2065 2065 2078 2078 2078 2078 2078 2078 2078 2078 2078 2090 2090 2090 2090 2090 2090 2103 2103 2103 2090 2090 2090 2090 2090 2090 2090 2090 2090 2090 2090 2090 2090 2078 2078 2078 2078 2078 2090 2078 2078 2078 2090 2090 2090 2078 2078 2078 2078 2078 2078 2078 2078 2078 2078 2078 2078 2078 2078 2065 2065 2065 2065 2065 2065 2065 2065 2078 2078 2078 2078 2078 2078 2078 2078 2078 2078 2090 2090 2090 2090 2090 2090 2078 2078 2090 2078 2078 2078 2090 2090 2090 2103 2103 2103 2103 2090 2090 2078 2078 2078 2078 2078 2078 2078 2090 2090 2090 2090 2090 2090 2090 2090 2090 2090 2090 2090 2090 2090 2078 2078 2078 2090 2090 2090 2090 2090 2103 2090 2040 2040 2065 2065 2053 2053 2053 2065 2065 2065 2078 2078 2078 2078 2065 2065 2065 2065 2053 2053 2053 2053 2053 2053 2053 2053 2040 2040 2053 0 0 0 0 0 0 0 0 0 3948 3903 3903 3903 3903 3903 3903 3903 3948 3948 3948 4041 4241 4582 4582 0 0 0 0 0 0 0 0 0 0 0 0 3774 3774 3774 3774 3774 3732 3732 3732 3692 3692 3692 3692 3732 3692 3692 3692 3468 3433 3333 3333 3333 3333 3333 3333 3300 3300 3300 3269 3269 3269 3238 3238 3238 3238 3208 3208 3208 3208 3208 3208 3208 3208 3208 3238 3238 3238 3238 3208 3178 3120 3092 3064 3064 3037 3037 3010 3010 3010 3010 3010 3037 3037 3037 3064 3064 3064 3064 3064 3092 3092 3092 3064 3064 3064 3064 3064 3092 3092 3092 3120 3120 3092 3092 3092 3092 3064 3064 3064 3064 3064 3064 3064 3037 3037 3064 3064 3037 3037 3037 3037 3037 3037 3037 3037 3037 3010 3010 3010 3010 2984 2984 2984 2984 2984 2984 2984 2984 4645 4582 4582 4582 4645 4645 4645 0 0 0 0 0 0 0 0 3994 3994 3948 3903 3903 3903 0 0 0 0 0 0 0 0 0 0 0 0
0 0 0 0 0 0 0 0 0 0 0 0 0 0 0 0 0 0 0 0 0 0 0 0 0 0 0 0 0 0 4645 4582 4582 4582 4582 4582 4582 4582 4582 4582 4582 4522 4522 4582 4582 4582 4645 4645 4708 4708 4774 4774 4774 4774 4645 4645 4645 4645 4582 4582 4582 4582 4708 4708 4708 4708 4774 4842 4774 4774 4774 4774 4774 4774 4774 4645 4645 4645 4645 4645 4582 4582 4582 4708 4708 4708 4708 4708 4708 4708 4708 4708 4708 4645 4582 4582 4582 2701 2701 2723 2744 2767 2767 2767 2767 2767 2767 2767 2767 2767 2767 2767 2767 2767 2767 2767 2767 2767 2767 2767 2767 2767 2767 2767 2767 2767 2767 2767 2767 2767 2767 2767 2767 2767 2789 2789 2789 2789 2789 2789 2789 2789 2812 2812 2812 2835 2835 2859 2859 2859 2859 2883 2883 2908 2933 2984 3010 3010 3037 3037 3037 2883 2859 2835 2835 2812 2812 2812 2040 2040 2053 2053 2065 2065 2065 2065 2065 2065 2065 2078 2078 2078 2078 2078 2078 2078 2090 2090 2090 2090 2090 2090 2090 2090 2090 2090 2090 2090 2103 2103 2103 2103 2116 2116 2116 2116 2116 2116 2103 2103 2116 2116 2116 2116 2116 2129 2116 2116 2116 2116 2129 2129 2129 2129 2129 2129 2129 2129 2116 2116 2103 2103 2116 2116 2116 2116 2129 2129 2103 2103 2103 2090 2090 2090 2090 2078 2065 2065 2065 2103 2116 2116 2116 2116 2090 2078 2065 2065 2053 2053 2053 2053 2053 2040 2040 2040 2040 2040 2040 2040 2040 2053 2053 2053 2065 2065 2065 2065 2065 2065 2065 2065 2065 2065 2065 2065 2065 2065 2065 2065 2065 2053 2053 2053 2053 2065 2065 2065 2065 2065 2078 2078 2078 2078 2078 2078 2078 2078 2078 2078 2078 2078 2078 2090 2078 2078 2078 2078 2078 2078 2078 2078 2078 2078 2078 2078 2078 2078 2078 2065 2065 2065 2065 2065 2065 2065 2065 2065 2065 2065 2065 2065 2065 2065 2065 2065 2065 2065 2065 2065 2065 2065 2065 2065 2065 2053 2053 2053 2053 2053 2065 2065 2065 2065 2065 2065 2065 2065 2065 2065 2065 2065 2078 2078 2078 2078 2078 2078 2078 2078 2078 2078 2078 2078 2078 2078 2078 2078 2078 2078 2078 2090 2078 2078 2065 2065 2065 2065 2065 2065 2065 2065 2065 2065 2065 2078 2078 2078 2078 2078 2078 2078 2065 2053 2053 2053 2053 2053 2065 2065 2065 2053 2040 2040 2040 2028 2028 2053 2053 2053 2040 2040 2053 2053 2053 2053 2053 2053 2065 2053 2053 2053 2053 2053 2053 2053 2040 2040 2053 2040 2040 2040 2040 2040 2053 0 0 0 0 0 0 0 0 3948 3948 3948 3903 3903 3903 3903 3903 3948 3948 3948 3994 4190 4582 4582 0 0 0 0 0 0 0 0 0 0 0 3774 3774 3774 3774 3774 3774 3732 3732 3732 3732 3692 3692 3692 3732 3732 3692 3692 3433 3399 3333 3333 3333 3333 3333 3333 3300 3300 3300 3269 3269 3269 3238 3238 3238 3208 3208 3178 3178 3178 3178 3178 3178 3178 3178 3208 3208 3208 3208 3178 3149 3092 3064 3064 3064 3037 3037 3010 3010 3010 3010 3037 3037 3037 3064 3092 3120 3120 3120 3149 3120 3120 3092 3092 3092 3092 3092 3092 3120 3120 3149 3149 3120 3120 3092 3092 3120 3092 3064 3064 3064 3092 3092 3064 3064 3064 3064 3064 3064 3064 3064 3037 3037 3037 3037 3037 3037 3010 3010 3010 3010 3010 3010 2984 2984 2984 2984 2984 2984 4582 4582 4582 4582 4645 4645 4645 0 0 0 0 0 0 0 0 3994 3994 3948 3903 3903 3903 0 0 0 0 0 0 0 0 0 0 0 0
0 0 0 0 0 0 0 0 0 0 0 0 0 0 0 0 0 0 0 0 0 0 0 0 0 0 0 0 0 0 0 4522 4522 4522 4522 4522 4463 4463 4522 4463 4463 4463 4463 4522 4582 4582 4582 4582 4708 4708 4708 4708 4708 4774 4645 4582 4582 4582 4522 4522 4582 4582 4645 4645 4645 4645 4645 4645 4645 4582 4582 4582 4582 4582 4645 4645 4582 4582 4582 4582 4582 4582 4582 4645 4645 4645 4645 4645 4645 4645 4645 4645 4645 4645 4582 4582 4582 2723 2723 2723 2744 2767 2767 2767 2767 2767 2767 2767 2744 2744 2767 2767 2767 2767 2767 2767 2767 2767 2767 2767 2767 2767 2767 2767 2767 2767 2767 2767 2767 2767 2767 2767 2767 2767 2789 2789 2789 2789 2789 2789 2789 2789 2812 2812 2812 2835 2835 2859 2859 2859 2883 2883 2883 2908 2908 2933 2984 3010 3037 3010 2883 2883 2859 2859 2835 2835 2835 2835 2040 2040 2040 2053 2065 2065 2065 2065 2065 2065 2065 2078 2078 2078 2078 2078 2078 2078 2090 2090 2078 2078 2078 2078 2078 2090 2090 2090 2090 2090 2103 2116 2103 2103 2103 2103 2103 2103 2103 2103 2103 2103 2103 2116 2116 2116 2116 2116 2116 2116 2116 2116 2116 2116 2116 2116 2116 2129 2116 2116 2103 2090 2090 2078 2078 2078 2078 2078 2078 2065 2053 2053 2053 2053 2065 2065 2053 2053 2053 2040 2040 2065 2090 2078 2078 2078 2078 2040 2040 2040 2040 2040 2040 2040 2040 2040 2040 2040 2040 2040 2040 2040 2040 2040 2040 2040 2053 2053 2053 2053 2053 2053 2053 2053 2053 2053 2053 2053 2053 2053 2053 2053 2053 2053 2053 2040 2040 2053 2053 2065 2065 2065 2065 2065 2065 2065 2065 2065 2065 2065 2065 2078 2065 2065 2065 2065 2065 2065 2065 2065 2065 2065 2065 2065 2078 2065 2065 2065 2065 2065 2065 2053 2053 2065 2053 2053 2053 2053 2053 2053 2053 2053 2053 2053 2053 2053 2065 2065 2065 2065 2065 2065 2065 2065 2053 2053 2053 2053 2053 2053 2053 2053 2053 2053 2053 2053 2053 2065 2065 2065 2053 2053 2053 2065 2065 2065 2065 2065 2065 2065 2065 2065 2065 2065 2065 2065 2065 2065 2065 2065 2065 2065 2078 2078 2065 2065 2065 2065 2065 2053 2053 2065 2065 2053 2053 2053 2053 2053 2065 2065 2078 2078 2065 2053 2053 2053 2040 2040 2040 2040 2053 2040 2040 2040 2028 2028 2016 2016 2028 2028 2028 2028 2028 2028 2040 2028 2028 2040 2040 2040 2040 2040 2040 2040 2040 2040 2040 2040 2040 2040 2040 2040 2040 2028 2028 2028 2028 2028 0 0 0 0 0 0 0 3948 3948 3948 3903 3903 3903 3903 3903 3948 3948 3948 3948 4041 0 0 0 0 0 0 0 0 0 0 0 0 0 3774 3774 3774 3774 3774 3774 3732 3732 3732 3732 3732 3732 3732 3732 3692 3692 3692 3433 3399 3333 3333 3333 3333 3333 3333 3300 3300 3300 3269 3269 3269 3269 3238 3238 3208 3208 3178 3178 3178 3178 3178 3178 3178 3178 3178 3178 3178 3178 3149 3120 3092 3064 3064 3064 3037 3037 3037 3010 3010 3037 3037 3037 3064 3064 3120 3149 3149 3178 3178 3149 3149 3149 3120 3120 3120 3149 3149 3149 3149 3149 3149 3149 3120 3120 3120 3120 3092 3092 3092 3092 3120 3120 3120 3092 3092 3092 3092 3092 3092 3120 3064 3064 3037 3037 3037 3037 3037 3010 3010 3010 3010 3010 3010 3010 3010 3010 3010 3010 4582 4582 4582 4522 4522 4645 4645 4645 4645 0 0 0 0 0 0 3948 3948 3948 3903 3903 3948 0 0 0 0 0 0 0 0 0 0 0 0
0 0 0 0 0 0 0 0 0 0 0 0 0 0 0 0 0 0 0 0 0 0 0 0 0 0 0 0 0 0 4582 4522 4522 4522 4522 4522 4463 4463 4522 4463 4463 4463 4463 4522 4582 4582 4582 4582 4645 4645 4645 4645 4645 4645 4582 4582 4582 4582 4522 4522 4582 4582 4582 4582 4582 4582 4645 4645 4645 4582 4582 4582 0 4582 4582 4582 4582 4582 4582 4582 4582 4582 4582 4645 4645 4645 4645 4645 4582 4582 4582 4582 4582 4582 4582 4522 4522 4522 2744 2744 2744 2767 2767 2767 2767 2767 2767 2767 2744 2744 2767 2767 2767 2767 2767 2767 2767 2767 2767 2767 2767 2767 2767 2767 2767 2767 2767 2767 2767 2767 2767 2767 2767 2789 2789 2789 2789 2789 2812 2812 2812 2812 2812 2812 2812 2835 2835 2859 2859 2859 2883 2883 2883 2883 2908 2908 2984 3010 3037 3010 2883 2883 2859 2835 2835 2835 2835 2040 2040 2040 2040 2053 2053 2065 2065 2065 2065 2065 2065 2065 2078 2078 2078 2078 2078 2078 2078 2078 2078 2078 2078 2078 2078 2078 2078 2090 2090 2090 2103 2103 2103 2103 2103 2090 2090 2090 2090 2090 2090 2090 2090 2103 2103 2103 2116 2116 2116 2103 2090 2090 2090 2078 2078 2090 2090 2090 2065 2053 2028 2028 2040 2040 2053 2053 2053 2053 2040 2040 2040 2040 2040 2040 2053 2053 2028 2028 2028 2028 2028 2016 2016 2016 2016 2016 2016 2016 2016 2016 2016 2016 2028 2028 2040 2028 2028 2040 2040 2028 2028 2028 2028 2028 2028 2040 2040 2040 2040 2040 2040 2040 2040 2040 2040 2040 2040 2040 2040 2040 2040 2040 2040 2040 2040 2040 2040 2040 2040 2040 2040 2040 2040 2040 2040 2028 2028 2028 2028 2028 2028 2040 2040 2040 2040 2040 2053 2053 2053 2040 2040 2053 2040 2040 2040 2053 2053 2053 2053 2053 2053 2040 2040 2053 2053 2040 2040 2040 2053 2028 2028 2040 2040 2040 2040 2040 2053 2053 2053 2053 2053 2053 2053 2053 2053 2053 2053 2040 2040 2028 2028 2040 2040 2040 2040 2053 2053 2053 2053 2053 2040 2040 2040 2053 2040 2040 2040 2053 2053 2053 2040 2040 2053 2053 2040 2040 2028 2028 2040 2040 2040 2040 2065 2065 2053 2053 2053 2053 2053 2053 2053 2053 2053 2053 2053 2053 2053 2053 2065 2065 2065 2065 2053 2053 2053 2040 2028 2028 2028 2028 2040 2040 2040 2028 2016 2016 2016 2016 2016 2016 2016 2016 2016 2028 2028 2016 2016 2028 2028 2028 2028 2028 2028 2040 2040 2028 2028 2028 2028 2028 2028 2028 2028 2016 2016 2016 2016 2005 2005 0 0 0 0 0 0 3948 3948 3903 3903 3903 3903 3903 3903 3948 3948 3948 3948 3994 4190 0 0 0 0 0 0 0 0 0 0 0 0 3816 3774 3774 3774 3774 3774 3732 3732 3732 3732 3732 3692 3692 3692 3692 3692 3692 3433 3399 3365 3365 3365 3365 3333 3300 3300 3300 3300 3269 3269 3269 3238 3238 3208 3208 3178 3178 3178 3178 3178 3178 3178 3178 3178 3178 3178 3178 3149 3120 3092 3092 3064 3064 3064 3037 3037 3037 3037 3037 3037 3064 3064 3092 3120 3149 3178 3178 3178 3178 3178 3178 3149 3149 3149 3149 3149 3149 3149 3149 3178 3178 3149 3149 3120 3120 3149 3120 3120 3120 3120 3149 3149 3149 3120 3120 3120 3120 3120 3120 3120 3064 3064 3037 3037 3037 3037 3037 3010 3010 3010 3010 3010 3010 3010 3010 3010 3010 4582 4582 4582 4582 4522 4522 4645 4645 4645 4645 0 0 0 0 3948 3948 3948 3948 3948 3903 3903 3948 0 0 0 0 0 0 0 0 0 0 0 0
0 0 0 0 0 0 0 0 0 0 0 0 0 0 0 0 0 0 0 0 0 0 0 0 0 0 0 0 0 0 4582 4463 4463 4522 4522 4463 4463 4463 4463 4463 4463 4463 4463 4522 4582 4582 4582 4582 4582 4582 4582 4582 4582 4582 4582 4522 4522 4522 4522 4522 4582 4582 4582 4522 4522 4582 4582 4463 4463 4405 4405 4405 4582 4522 4522 4522 4522 4522 4582 4582 4582 4582 4582 4582 4582 4582 4582 4582 4582 4582 4582 4582 4582 4582 4582 4522 4522 4522 2767 2767 2767 2767 2767 2767 2767 2767 2767 2767 2767 2767 2767 2767 2767 2767 2767 2767 2767 2767 2767 2767 2767 2767 2767 2767 2767 2767 2767 2767 2767 2767 2767 2767 2767 2789 2789 2789 2789 2789 2789 2789 2812 2812 2812 2812 2812 2835 2835 2859 2859 2859 2883 2883 2883 2883 2908 2908 3010 3037 3092 3092 3120 2908 2859 2835 2835 2835 2040 2040 2040 2040 2040 2040 2040 2053 2053 2053 2053 2065 2065 2065 2078 2065 2065 2078 2078 2078 2078 2078 2078 2065 2065 2065 2065 2065 2078 2078 2090 2090 2090 2090 2090 2090 2090 2078 2078 2078 2078 2078 2078 2078 2078 2090 2090 2090 1981 1981 1993 2005 2028 2028 2028 2028 2028 2016 2005 2005 2005 2005 2016 2016 2028 2040 2040 2040 2040 2040 2028 2028 2028 2028 2028 2028 2040 2040 2028 2016 2016 2016 2016 2005 2005 2005 2005 2005 2005 2005 2005 2016 2016 2016 2016 2016 2028 2028 2028 2028 2028 2016 2016 2016 2016 2016 2028 2028 2028 2028 2028 2028 2028 2016 2016 2016 2016 2016 2016 2028 2028 2028 2028 2028 2028 2028 2028 2028 2028 2028 2028 2028 2028 2028 2028 2028 2028 2016 2016 2016 2016 2016 2028 2028 2028 2028 2028 2028 2040 2040 2040 2028 2028 2040 2028 2028 2028 2028 2028 2028 2028 2016 2016 2016 2016 2016 2016 2016 2016 2016 2016 2005 2005 2016 2016 2016 2016 2016 2028 2028 2028 2028 2028 2040 2040 2040 2040 2028 2028 2028 2028 2028 2028 2028 2028 2028 2040 2040 2040 2040 2040 2040 2028 2028 2028 2028 2028 2028 2028 2028 2028 2028 2028 2016 2016 2016 2016 2016 2016 2016 2016 2016 2028 2028 2028 2028 2028 2040 2040 2040 2040 2040 2040 2053 2040 2040 2040 2040 2040 2053 2053 2053 2053 2053 2040 2028 2028 2028 2016 2016 2016 2016 2028 2040 2040 2016 2005 2005 2005 2005 2005 2005 2005 2016 2016 2016 2016 2016 2016 2016 2016 2016 2016 2016 2028 2028 2028 2016 2016 2016 2016 2016 2028 2028 2016 2016 2016 2016 2005 1993 1970 1959 1959 0 0 0 0 3948 3948 3903 3903 3903 3903 3903 3903 3948 3948 3948 3948 3994 4139 0 0 0 0 0 0 0 0 0 3948 3903 3903 3859 3816 3774 3774 3774 3774 3732 3732 3732 3732 3732 3692 3692 3692 3692 3692 3692 3433 3399 3365 3365 3365 3365 3333 3300 3300 3300 3300 3269 3269 3269 3238 3238 3208 3208 3178 3178 3178 3178 3178 3149 3149 3149 3149 3149 3149 3149 3149 3120 3092 3064 3064 3064 3037 3037 3037 3037 3037 3037 3037 3064 3092 3092 3149 3149 3178 3178 3178 3178 3178 3178 3149 3149 3149 3149 3149 3149 3149 3149 3149 3149 3149 3149 3149 3149 3149 3149 3149 3149 3149 3178 3178 3178 3120 3120 3120 3120 3120 3092 3092 3037 3037 3037 3037 3037 3037 3037 3010 3010 3010 3010 3010 3037 3010 3010 3010 3010 4645 4645 4645 4645 4645 4645 4463 4463 4463 4522 0 0 0 3948 3948 3903 3903 3903 3948 3948 3948 3948 0 0 0 0 0 0 0 0 0 0 0 0
0 0 0 0 0 0 0 0 0 0 0 0 0 0 0 0 0 0 0 0 0 0 0 0 0 0 0 0 0 0 0 4463 4463 4463 4405 4405 4405 4405 4405 4463 4463 4463 4463 4522 4522 4522 4522 4522 4522 4463 4463 4463 4522 4582 4582 4522 4522 4522 4522 4522 4522 4463 4463 4463 4463 4522 4522 4463 4463 4405 4405 4405 4582 4582 4522 4522 4522 4522 4522 4522 4522 4522 4522 4582 4582 4582 4582 4582 4582 4582 4582 4582 4582 4582 4522 4463 4463 4463 2767 2767 2767 2767 2767 2767 2767 2767 2767 2767 2767 2767 2767 2767 2767 2767 2767 2767 2767 2767 2767 2767 2767 2767 2767 2767 2767 2767 2767 2767 2767 2767 2767 2767 2789 2789 2789 2789 2789 2789 2789 2789 2789 2812 2812 2812 2812 2835 2835 2859 2859 2859 2859 2883 2883 2883 2908 2908 3064 1993 1993 1981 1981 1981 1981 1981 1993 1993 2016 2016 2016 2016 2028 2028 2028 2028 2040 2040 2040 2040 2040 2065 2065 2065 2065 2065 2078 2078 2078 2078 2065 2065 2065 2053 2040 2040 2040 2040 2053 2065 2065 2040 2040 2040 2005 2005 2028 2028 2040 2040 2040 1993 1993 1981 1981 1981 1981 1981 1981 1993 2005 2016 2016 2016 2005 2005 1993 1993 1993 2005 2016 2016 2028 2028 2028 2028 2028 2016 2016 2016 2016 2005 2005 2028 2028 2028 2016 2016 2016 2005 1993 1993 1993 1993 1993 1993 1993 1993 2005 2016 2016 2016 2016 2016 2016 2016 2016 2016 2016 2016 2016 2016 2016 2016 2016 2016 2016 2028 2028 2028 2016 2016 2005 2005 2005 2005 2005 2016 2016 2016 2016 2016 2016 2016 2005 2005 2005 2005 2016 2016 2016 2016 2016 2016 2016 2005 2005 2016 2016 2016 2016 2016 2016 2016 2016 2016 2016 2016 2016 2016 2016 2016 2016 2016 2016 2005 2005 2005 2005 2005 2005 2005 2005 2005 2005 1993 1993 2005 2005 2005 2005 2005 2005 2005 2005 2005 2005 2005 2016 2016 2016 2028 2028 2028 2016 2016 2016 2016 2016 2005 2005 2005 2005 2005 2016 2016 2016 2016 2016 2016 2016 2016 2016 2016 2005 2005 2005 2005 2005 2005 2005 2005 2005 1993 1993 2005 2005 2005 2005 2005 2005 2005 2005 2005 2016 2016 2028 2028 2028 2028 2028 2028 2028 2016 2016 2028 2028 2028 2040 2028 2028 2028 2028 2016 2016 2016 2005 2005 2005 2005 2005 2005 2005 1993 1993 2005 2005 2005 2005 2005 2005 2016 2016 2005 2005 2005 2005 2005 2005 2016 2016 2016 2016 2016 2016 2016 2005 2005 2005 2005 2005 2005 2016 2005 2005 2005 1993 1993 1970 1959 1947 1947 0 1959 0 1947 3903 3903 3903 3903 3903 3903 3903 3903 3903 3903 3948 4041 4139 0 0 0 0 0 0 0 3948 3948 3948 3903 3903 3859 3816 3774 3774 3774 3774 3732 3732 3692 3692 3692 3692 3692 3692 3692 3653 3653 3433 3399 3365 3365 3365 3365 3333 3300 3300 3300 3300 3269 3269 3269 3269 3238 3208 3208 3178 3178 3178 3178 3178 3149 3149 3149 3149 3149 3149 3149 3120 3092 3064 3064 3064 3037 3037 3037 3037 3037 3037 3037 3064 3064 3064 3092 3120 3149 3178 3178 3149 3149 3149 3149 3120 3120 3149 3149 3149 3149 3149 3149 3149 3149 3149 3149 3149 3149 3149 3149 3149 3149 3149 3149 3149 3149 3120 3120 3120 3092 3064 3064 3064 3037 3037 3037 3037 3037 3037 3037 3010 3010 3037 3037 3037 3037 3010 3010 3010 3010 4645 4645 4645 4582 4582 4582 4463 4463 4522 4522 4463 0 3948 3948 3948 3903 3903 3903 3948 3948 3948 3994 0 0 0 0 0 0 0 0 0 0 0 0
0 0 0 0 0 0 0 0 0 0 0 0 0 0 0 0 0 0 0 0 0 0 0 0 0 0 0 0 0 0 0 4463 4463 4405 4405 4405 4405 4405 4405 4405 4405 4405 4405 4522 4463 4463 4463 4463 4463 4463 4405 4405 4463 4522 4522 4522 4522 4522 4522 4463 4463 4405 4405 4405 4405 4522 4522 4405 4405 4405 4405 4405 4522 4522 4522 4522 4522 4405 4405 4405 4463 4522 4522 4522 4522 4522 4522 4522 4582 4582 4582 4582 4582 4522 4522 4463 4349 4349 2789 2767 2767 2767 2767 2767 2767 2767 2767 2767 2767 2767 2767 2767 2767 2767 2767 2767 2767 2767 2767 2767 2767 2767 2767 2767 2767 2767 2767 2767 2767 2767 2767 2767 2789 2789 2789 2789 2789 2789 2789 2789 2789 2812 2812 1959 1959 2812 2835 2859 2859 2859 2859 2883 2883 2883 2908 2908 1970 1970 1981 1970 1970 1970 1970 1970 1970 1970 1970 1970 1981 1981 1993 2005 2005 2016 2016 2028 2028 2040 2040 2040 2053 2040 2040 2053 2065 2065 2065 2065 2065 2053 2053 2040 2016 2016 2016 2028 2028 1993 1993 1993 1993 1993 1993 1993 1993 2005 1993 1993 1993 1981 1981 1981 1981 1981 1981 1981 1981 1993 2005 2005 2005 2005 1993 1993 1993 1993 1993 1993 2005 2005 2016 2016 2005 2005 2005 2005 2005 2005 2005 1993 1993 2005 2016 2016 2005 2005 2005 1993 1993 1993 1981 1981 1981 1981 1981 1981 1993 1993 1993 1993 1993 1993 2005 2005 2005 2005 1993 1993 2005 2005 2005 2005 2005 2005 2016 2016 2016 2016 1981 1981 1981 1981 1981 1993 1993 1993 1993 2005 2005 2005 2005 1993 1981 1981 1981 1993 1993 1993 1993 1993 1993 2005 1993 1993 1993 2005 2005 2005 2005 2005 2005 2005 2005 2005 2005 2005 2005 2005 2005 1993 1993 1993 1993 1981 1981 1993 1993 1993 1993 1981 1981 1993 1993 1993 1993 1993 1993 1993 1993 1993 2005 1993 1993 1993 2005 2005 2005 2005 2005 2016 2016 2016 2016 2005 2005 2005 2005 1993 1993 1993 1993 1993 1993 2005 2005 2005 2005 2005 2005 2005 2005 2005 1993 1993 1993 1993 1993 1981 1981 1993 1993 1993 1981 1981 1993 1993 1993 1993 2005 2005 2005 2005 2005 2005 2016 2005 2005 2005 1993 1993 2005 2005 1993 1993 1993 1993 1993 1993 1993 1993 1993 2005 2005 1993 1993 1993 1993 1993 1981 1981 1981 1981 1981 1981 1981 1981 1981 1981 1981 1993 1993 1993 1993 1993 1993 1993 1993 1993 1993 2005 1993 1993 1993 1993 1993 1981 1981 1981 1981 1993 1993 1993 1993 1993 1981 1981 1970 1959 1947 1947 1959 1959 1947 1947 4139 3903 3903 3859 3859 3903 3903 3903 3903 3903 3903 3903 0 0 0 0 0 0 0 0 3948 3948 3948 3903 3903 3859 3816 3816 3774 3774 3774 3732 3732 3692 3692 3692 3692 3692 3692 3692 3653 3653 3433 3399 3365 3365 3365 3365 3333 3300 3300 3300 3300 3269 3269 3269 3269 3238 3208 3208 3178 3178 3178 3178 3178 3149 3149 3149 3149 3149 3149 3149 3120 3092 3064 3064 3064 3037 3037 3037 3037 3037 3037 3037 3064 3064 3064 3092 3120 3149 3149 3149 3149 3120 3120 3120 3092 3092 3120 3120 3120 3149 3149 3149 3120 3120 3120 3120 3120 3120 3149 3149 3149 3149 3149 3149 3120 3120 3092 3064 3064 3064 3037 3037 3037 3037 3037 3037 3037 3037 3037 3037 3037 3037 3037 3037 3037 3010 3010 3010 3010 3010 4582 4582 4582 4522 4522 4522 4463 4463 4463 4463 4463 4041 3903 3903 3903 3903 3903 3903 3903 3903 3948 3948 0 0 0 0 0 0 0 0 0 0 0 0
0 0 0 0 0 0 0 0 0 0 0 0 0 0 0 0 0 0 0 0 0 0 0 0 0 0 0 0 0 0 0 4405 4405 4405 4349 4349 4349 4349 4349 4349 4349 4349 4349 4463 4463 4463 4463 4463 4463 4405 4405 4405 4463 4463 4463 4463 4463 4463 4463 4405 4405 4405 4405 4405 4405 4405 4405 4405 4405 4405 4405 4405 4522 4522 4522 4522 4405 4405 4405 4405 4405 4405 4405 4349 4349 4349 4522 4522 4522 4522 4522 4522 4522 4522 4522 4463 4349 4349 4349 2789 2789 2789 2767 2767 2767 2767 2767 2767 2767 2767 2767 2767 2767 2767 2767 2767 2767 2767 2767 2767 2767 2767 2767 2767 2767 2767 2767 2767 2767 2767 2767 2767 2767 2767 2767 2767 2789 2789 2789 2789 2789 1959 1959 1959 1947 1947 1936 1936 1947 1959 1959 2883 2883 2908 2908 1970 1970 1970 1970 1959 1959 1959 1959 1959 1959 1959 1959 1959 1959 1970 1993 1981 1981 1981 2005 1959 1959 2016 2028 2028 2028 2016 2016 2028 2053 2053 2053 2040 2040 2028 1981 1981 2005 2005 2005 1993 1981 1981 1981 1981 1981 1981 1981 1981 1993 1993 1993 1981 1981 1970 1970 1970 1970 1970 1970 1970 1981 1981 1993 1993 1993 1993 1993 1993 1981 1981 1981 1993 1993 1993 1993 1993 1993 1993 1993 1993 1993 1993 1993 1993 1993 2005 2005 2005 1993 1993 1993 1981 1981 1981 1981 1970 1970 1981 1970 1970 1970 1970 1970 1981 1981 1981 1981 1981 1993 1981 1981 1981 1981 1993 1993 1993 1993 1993 2005 1981 1970 1959 1959 1970 1970 1970 1970 1981 1981 1981 1981 1981 1981 1981 1981 1970 1970 1970 1970 1981 1981 1981 1981 1981 1981 1993 1981 1981 1981 1993 1993 1993 1993 1981 1981 1981 1981 1981 1981 1981 1981 1981 1993 1981 1981 1981 1981 1981 1981 1981 1981 1981 1981 1970 1970 1981 1981 1981 1981 1981 1993 1993 1981 1981 1993 1981 1981 1981 1981 1981 1970 1970 1970 1970 1981 2005 2005 1981 1981 1981 1981 1970 1970 1970 1970 1970 1970 1993 1993 1993 1993 1993 1993 1993 1993 1993 1981 1981 1981 1981 1981 1981 1981 1993 1993 1981 1981 1981 1981 1981 1993 1993 1993 1993 1993 1993 1993 1993 1993 1993 1993 1993 1981 1981 1981 1981 1981 1970 1970 1981 1981 1981 1981 1981 1981 1993 1993 1993 1981 1981 1981 1970 1970 1970 1970 1970 1970 1970 1970 1970 1970 1970 1970 1981 1981 1981 1981 1981 1981 1981 1981 1981 1981 1981 1981 1981 1970 1970 1970 1970 1970 1970 1970 1970 1970 1970 1970 1970 1959 1947 1947 1947 1947 1947 1959 1959 1947 1947 1947 1936 1926 1926 1904 1904 3859 3859 1343 1343 1343 3903 0 0 0 0 0 0 0 3948 3948 3948 3903 3903 3859 3859 3816 3816 3774 3774 3774 3732 3732 3732 3692 3692 3692 3692 3692 3653 3503 3468 3399 3399 3365 3365 3365 3365 3333 3300 3300 3300 3300 3269 3269 3269 3269 3238 3238 3208 3178 3178 3178 3178 3178 3149 3149 3149 3149 3149 3120 3120 3092 3092 3064 3064 3064 3037 3037 3037 3037 3037 3037 3037 3064 3064 3064 3092 3092 3120 3120 3120 3120 3092 3092 3092 3064 3064 3092 3092 3092 3120 3120 3120 3120 3092 3092 3092 3092 3092 3092 3120 3092 3092 3092 3120 3120 3120 3064 3064 3064 3064 3037 3037 3037 3037 3037 3037 3037 3037 3037 3037 3037 3037 3037 3037 3037 3010 3010 3010 3010 3010 4582 4582 4582 4522 4522 4522 4522 4463 4463 4463 4463 4041 3948 3903 3903 3903 3903 3903 3903 3903 3948 3948 0 0 0 0 0 0 0 0 0 0 0 0
0 0 0 0 0 0 0 0 0 0 0 0 0 0 0 0 0 0 0 0 0 0 0 0 0 0 0 0 0 0 0 4405 4405 4405 4349 4349 4349 4349 4349 4349 4349 4349 4349 4463 4463 4463 4463 4463 4463 4405 4349 4349 4405 4463 4463 4463 4463 4463 4463 4405 4405 4405 4405 4405 4405 4405 4405 4405 4405 4349 4349 4349 4349 4405 4463 4405 4405 4349 4349 4349 4349 4349 4405 4349 4349 4349 4463 4463 4463 4522 4522 4522 4463 4463 4463 4405 4349 4349 4295 4295 2789 2789 2767 2767 2767 2767 2767 2767 2767 2767 2767 2767 2767 2767 2767 2767 2767 2767 2767 2767 2767 2767 2767 2767 2767 2767 2767 2767 2767 2767 2767 2767 2767 2767 2767 2767 2767 2767 2789 1959 1959 1959 1959 1947 1947 1936 1926 1926 1936 1947 1947 1959 1959 1959 1959 1959 1959 1959 1959 1959 1959 1959 1959 1959 1959 1947 1947 1959 1959 1959 1959 1959 1959 1959 1947 1947 1947 1959 1959 1959 1993 1993 1993 2016 2016 1970 1970 1970 1959 1959 1970 1981 1993 1993 1981 1981 1970 1970 1970 1970 1981 1981 1981 1981 1981 1981 1981 1981 1959 1959 1959 1970 1970 1970 1970 1970 1970 1981 1981 1981 1981 1981 1981 1981 1970 1970 1970 1981 1981 1981 1981 1993 1981 1981 1981 1981 1981 1981 1981 1981 1981 1981 1981 1981 1970 1970 1981 1970 1970 1970 1970 1970 1970 1970 1959 1959 1959 1959 1959 1959 1970 1970 1970 1970 1981 1970 1970 1970 1970 1970 1981 1981 1981 1981 1981 1959 1947 1947 1947 1959 1959 1959 1970 1970 1970 1970 1970 1970 1970 1970 1970 1970 1959 1959 1970 1970 1970 1970 1970 1970 1970 1970 1970 1970 1970 1981 1981 1970 1970 1970 1970 1970 1970 1970 1970 1970 1970 1970 1970 1981 1981 1981 1970 1970 1970 1970 1970 1970 1970 1959 1959 1959 1970 1970 1970 1970 1970 1970 1970 1970 1970 1970 1970 1970 1970 1970 1970 1970 1970 1970 1970 1970 1970 1970 1970 1970 1959 1959 1959 1959 1959 1959 1959 1959 1959 1970 1981 1981 1981 1981 1981 1981 1981 1981 1970 1970 1970 1970 1970 1970 1981 1981 1981 1981 1981 1981 1981 1981 1981 1981 1981 1981 1981 1981 1981 1981 1981 1981 1981 1970 1970 1970 1970 1959 1959 1970 1959 1959 1959 1970 1970 1981 1981 1981 1981 1970 1970 1959 1959 1959 1959 1959 1959 1959 1959 1970 1970 1970 1970 1970 1970 1970 1970 1970 1970 1970 1970 1970 1970 1959 1959 1959 1959 1959 1959 1959 1959 1959 1959 1959 1959 1959 1959 1959 1947 1947 1947 1947 1947 1947 1947 1947 1947 1936 1926 1926 1926 1926 1904 1904 3859 3859 1338 1338 1338 1338 0 0 0 0 0 0 0 3903 3903 3903 3903 3903 3859 3859 3816 3816 3774 3774 3774 3732 3732 3732 3692 3692 3692 3692 3692 3653 3503 3468 3399 3399 3365 3365 3365 3365 3333 3300 3300 3300 3300 3269 3269 3269 3269 3269 3238 3238 3208 3178 3178 3178 3178 3149 3149 3149 3149 3149 3120 3120 3092 3092 3064 3064 3064 3037 3037 3037 3037 3037 3037 3037 3064 3064 3064 3064 3092 3092 3064 3064 3064 3064 3064 3064 3064 3064 3064 3064 3092 3092 3092 3092 3064 3064 3064 3064 3064 3064 3064 3092 3092 3092 3092 3064 3064 3064 3037 3037 3037 3037 3037 3037 3037 3037 3037 3037 3037 3037 3037 3037 3037 3037 3037 3037 3037 3010 3010 2984 2984 2984 4522 4522 4522 4522 4522 4522 4463 4463 4405 4405 4405 4041 3903 3903 3903 3859 3859 3859 3903 3903 3948 3948 0 0 0 0 0 0 0 0 0 0 0 0
0 0 0 0 0 0 0 0 0 0 0 0 0 0 0 0 0 0 0 0 0 0 0 0 0 0 0 0 0 0 0 4463 4463 4405 4405 4405 4405 4349 4349 4241 4241 4295 4349 4463 4463 4463 4463 4349 4349 4349 4349 4349 4405 4405 4463 4463 4463 4463 4405 4405 4349 4349 4349 4349 4405 4405 4405 4405 4405 4349 4349 4349 4349 4405 4405 4405 4349 4349 4349 4349 4349 4349 4405 4405 4405 4405 4463 4463 4463 4463 4463 4463 4463 4463 4405 4405 4295 4295 4295 4295 4295 2789 2767 2767 2767 2767 2767 2767 2767 2767 2767 2767 2767 2767 2767 2767 2767 2767 2767 2767 2767 2767 2767 2767 2767 2767 2767 2767 2767 2767 2789 2767 2767 2767 2789 2767 2767 2767 1947 1947 1947 1947 1947 1936 1926 1926 1926 1926 1926 1936 1947 1947 1947 1959 1959 1959 1959 1959 1959 1947 1947 1947 1959 1959 1947 1947 1947 1947 1947 1947 1947 1947 1947 1947 1947 1947 1947 1947 1947 1947 1947 1970 1970 1970 1959 1947 1947 1959 1959 1959 1959 1959 1959 1970 1970 1959 1959 1959 1959 1959 1970 1970 1970 1970 1981 1970 1970 1959 1959 1959 1959 1959 1959 1959 1959 1959 1959 1959 1959 1959 1959 1959 1959 1970 1959 1959 1959 1959 1970 1970 1970 1981 1970 1970 1970 1970 1970 1970 1970 1981 1970 1970 1959 1959 1947 1947 1959 1947 1947 1947 1959 1959 1959 1959 1947 1947 1947 1947 1947 1947 1947 1959 1959 1959 1970 1970 1959 1959 1959 1959 1959 1970 1970 1970 1947 1947 1947 1947 1947 1947 1947 1947 1947 1947 1959 1959 1959 1970 1959 1959 1970 1970 1959 1959 1959 1959 1959 1959 1959 1959 1959 1959 1959 1959 1959 1959 1959 1959 1959 1959 1959 1947 1947 1947 1947 1959 1959 1959 1959 1959 1959 1970 1959 1947 1947 1959 1959 1959 1959 1947 1947 1959 1959 1959 1959 1947 1947 1947 1947 1947 1947 1947 1947 1959 1959 1947 1947 1959 1959 1959 1959 1947 1947 1947 1947 1947 1947 1947 1947 1947 1947 1936 1936 1936 1936 1959 1970 1970 1970 1970 1970 1970 1970 1970 1959 1959 1970 1970 1970 1970 1970 1970 1970 1970 1970 1970 1970 1970 1970 1970 1970 1970 1970 1970 1970 1970 1970 1970 1970 1970 1970 1959 1959 1959 1959 1959 1959 1959 1959 1959 1959 1970 1970 1970 1959 1959 1959 1959 1947 1947 1947 1947 1947 1947 1959 1959 1959 1959 1959 1959 1959 1959 1959 1959 1959 1947 1947 1947 1947 1947 1947 1947 1947 1947 1947 1947 1947 1947 1947 1947 1947 1947 1947 1947 1947 1947 1947 1936 1936 1936 1936 1936 1936 1926 1926 1926 1926 1926 1915 1915 1915 3859 1338 1322 1322 1328 1328 1322 1322 1322 1322 0 0 3903 3903 3903 3903 3903 3859 3859 3816 3816 3774 3774 3774 3732 3732 3692 3692 3692 3692 3692 3692 3653 3653 3468 3399 3399 3399 3365 3365 3365 3365 3333 3300 3300 3269 3269 3269 3269 3269 3269 3238 3238 3208 3208 3208 3178 3178 3178 3178 3149 3149 3149 3120 3120 3092 3092 3064 3064 3064 3064 3037 3037 3037 3037 3037 3037 3064 3064 3064 3064 3064 3064 3064 3064 3064 3064 3064 3064 3064 3064 3064 3064 3064 3092 3092 3064 3064 3064 3064 3064 3064 3064 3064 3064 3064 3064 3064 3064 3064 3064 3037 3037 3037 3037 3037 3037 3037 3037 3037 3037 3037 3037 3037 3037 3037 3037 3037 3037 3037 3010 3010 2958 2958 4522 4522 4522 4522 4522 4522 4463 4463 4405 4405 4405 4405 4405 3903 3903 3859 3859 3859 3859 3859 3903 3903 3903 0 0 0 0 0 0 0 0 0 0 0 0
0 0 0 0 0 0 0 0 0 0 0 0 0 0 0 0 0 0 0 0 0 0 0 0 0 0 0 0 0 0 0 4405 4405 4405 4405 4405 4349 4349 4295 4241 4241 4241 4241 4241 4241 4241 4349 4349 4349 4349 4349 4349 4405 4405 4405 4405 4405 4405 4405 4349 4349 4349 4349 4349 4405 4405 4405 4405 4405 4349 4349 4349 4349 4405 4405 4405 4349 4349 4349 4349 4349 4349 4349 4349 4349 4405 4405 4405 4405 4463 4463 4463 4405 4405 4405 4349 4295 4295 4295 4295 4295 2789 2789 2789 2789 2767 2767 2789 2767 2767 2767 2767 2767 2767 2744 2744 2767 2767 2767 2767 2767 2767 2767 2767 2767 2767 2767 2767 2767 2789 2789 2789 2767 2767 2767 2767 2767 1936 1926 1926 1936 1936 1936 1936 1926 1926 1926 1926 1926 1926 1926 1936 1936 1936 1959 1959 1947 1947 1947 1947 1947 1947 1947 1947 1947 1947 1947 1947 1947 1947 1947 1947 1947 1947 1947 1947 1947 1947 1947 1936 1936 1947 1947 1947 1947 1947 1947 1947 1936 1936 1936 1936 1936 1947 1959 1947 1947 1947 1947 1947 1959 1959 1947 1947 1947 1947 1947 1947 1947 1947 1947 1947 1947 1947 1947 1947 1947 1947 1947 1947 1947 1947 1947 1947 1959 1947 1947 1947 1947 1959 1959 1947 1947 1959 1959 1959 1959 1959 1959 1959 1959 1959 1947 1947 1936 1936 1936 1936 1936 1947 1947 1947 1947 1947 1936 1936 1936 1936 1936 1936 1936 1947 1947 1959 1959 1959 1959 1947 1947 1947 1947 1936 1936 1936 1936 1936 1936 1936 1936 1936 1936 1936 1936 1936 1947 1947 1947 1947 1936 1936 1936 1959 1947 1947 1947 1947 1947 1947 1947 1936 1936 1936 1936 1936 1947 1947 1947 1936 1936 1947 1947 1936 1936 1947 1947 1947 1947 1947 1947 1947 1947 1947 1947 1936 1936 1947 1947 1947 1947 1936 1936 1936 1947 1947 1936 1936 1936 1936 1936 1936 1936 1936 1936 1947 1947 1947 1947 1947 1947 1947 1947 1936 1936 1936 1936 1936 1936 1936 1936 1936 1936 1936 1936 1936 1936 1947 1947 1959 1959 1959 1959 1959 1959 1959 1959 1959 1959 1959 1959 1959 1959 1959 1959 1959 1959 1970 1970 1959 1959 1947 1947 1947 1947 1959 1959 1970 1970 1970 1959 1959 1959 1959 1947 1936 1936 1936 1936 1936 1947 1947 1947 1947 1959 1959 1947 1936 1936 1947 1947 1936 1936 1936 1936 1947 1936 1936 1947 1947 1947 1947 1947 1947 1947 1947 1947 1936 1936 1936 1936 1936 1936 1926 1926 1936 1947 1947 1947 1947 1947 1947 1936 1936 1936 1936 1936 1936 1926 1926 1926 1926 1926 1926 1926 1926 1926 1926 1915 1915 1915 1915 1915 1915 1322 1322 1322 1317 1317 1317 1317 1322 1322 1322 1322 1322 1322 3903 3859 3859 3859 3859 3816 3816 3774 3774 3774 3692 3692 3692 3692 3692 3692 3692 3692 3653 3614 3468 3399 3399 3399 3365 3365 3399 3365 3365 3333 3300 3269 3269 3269 3269 3269 3269 3238 3238 3208 3208 3208 3208 3208 3178 3178 3149 3149 3120 3120 3120 3092 3092 3064 3064 3064 3064 3037 3037 3037 3037 3037 3064 3064 3064 3064 3064 3064 3064 3064 3064 3064 3064 3064 3064 3064 3064 3064 3064 3064 3064 3064 3064 3064 3037 3037 3064 3037 3037 3064 3064 3064 3064 3064 3064 3064 3064 3037 3037 3037 3010 3010 3010 3010 3037 3037 3037 3037 3037 3037 3037 3037 3037 3037 3037 3010 3010 2984 2933 2933 4405 4463 4463 4463 4463 4463 4463 4463 4405 4405 4405 4405 4405 3903 3903 3859 3859 3859 3859 3859 3903 3903 3903 0 0 0 0 0 0 0 0 0 0 0 0
0 0 0 0 0 0 0 0 0 0 0 0 0 0 0 0 0 0 0 0 0 0 0 0 0 0 0 0 0 0 0 4405 4405 4405 4405 4405 4349 4295 4241 4241 4241 4241 4241 4241 4241 4295 4349 4349 4349 4349 4349 4349 4349 4405 4405 4405 4405 4405 4405 4349 4349 4349 4349 4349 4405 4405 4405 4405 4405 4349 4349 4349 4349 4405 4405 4349 4349 4349 4295 4295 4349 4349 4349 4349 4349 4405 4405 4405 4405 4405 4405 4405 4405 4405 4405 4349 4349 4349 4295 4295 4295 2789 2789 2789 2789 2767 2767 2789 2767 2767 2767 2767 2767 2767 2744 2744 2767 2767 2767 2767 2767 2767 2767 2767 2767 2767 2767 2767 2789 2789 2789 2789 2767 2767 2767 2767 1926 1926 1926 1926 1926 1926 1926 1926 1915 1915 1926 1926 1915 1915 1915 1915 1915 1915 1915 1915 1915 1936 1936 1936 1936 1936 1936 1936 1936 1936 1936 1936 1936 1936 1936 1936 1936 1936 1936 1936 1936 1936 1936 1936 1936 1947 1947 1947 1947 1936 1936 1936 1936 1936 1936 1936 1936 1936 1936 1936 1936 1936 1936 1936 1936 1936 1936 1936 1936 1936 1936 1936 1936 1936 1936 1936 1947 1947 1947 1947 1947 1936 1936 1947 1936 1936 1936 1936 1936 1936 1936 1936 1936 1947 1947 1947 1947 1947 1947 1947 1947 1947 1947 1947 1947 1947 1936 1936 1926 1926 1926 1936 1936 1936 1936 1936 1936 1936 1936 1936 1936 1936 1936 1936 1936 1936 1936 1947 1947 1947 1947 1947 1936 1936 1936 1936 1936 1926 1926 1936 1926 1926 1936 1926 1926 1936 1936 1936 1936 1936 1936 1936 1936 1936 1936 1936 1936 1936 1936 1936 1926 1926 1936 1936 1926 1926 1926 1936 1936 1936 1936 1926 1926 1936 1936 1936 1936 1936 1936 1936 1947 1947 1936 1936 1936 1936 1936 1936 1936 1936 1936 1936 1936 1936 1936 1936 1926 1926 1926 1926 1926 1926 1926 1926 1926 1926 1926 1926 1926 1936 1936 1936 1936 1936 1936 1936 1936 1936 1926 1926 1926 1926 1926 1926 1926 1926 1926 1926 1926 1926 1936 1936 1936 1947 1947 1947 1947 1947 1947 1947 1947 1947 1947 1947 1947 1947 1947 1947 1959 1959 1947 1947 1947 1936 1936 1936 1936 1947 1936 1936 1947 1959 1959 1959 1947 1947 1936 1936 1936 1936 1936 1936 1936 1936 1936 1936 1947 1936 1926 1926 1926 1926 1926 1926 1926 1926 1926 1936 1926 1926 1936 1936 1936 1936 1936 1936 1936 1936 1936 1926 1926 1926 1926 1926 1926 1926 1926 1926 1936 1936 1936 1936 1926 1926 1926 1926 1926 1915 1915 1915 1915 1915 1915 1915 1926 1915 1915 1915 1915 1926 1915 1915 1915 1915 1915 1317 1317 1317 1317 1312 1312 1312 1317 1317 1317 1317 1317 1317 1317 1317 3859 3859 3816 3816 3816 3816 3774 3774 3774 3692 3692 3692 3692 3692 3692 3692 3692 3653 3614 3468 3433 3433 3399 3399 3399 3399 3399 3433 3433 3692 3732 3269 3269 3269 3269 3269 3238 3238 3208 3208 3208 3208 3208 3178 3178 3149 3149 3120 3120 3120 3092 3092 3064 3064 3064 3064 3037 3037 3037 3037 3064 3064 3064 3037 3037 3037 3064 3064 3064 3064 3064 3064 3037 3037 3064 3064 3064 3064 3064 3064 3064 3064 3037 3037 3037 3064 3037 3037 3037 3064 3064 3064 3064 3064 3064 3064 3037 3037 3037 3010 3010 3010 3010 3037 3037 3037 3037 3037 3037 3037 3037 3037 3037 3037 3010 3010 2984 2933 2933 4405 4463 4463 4463 4463 4463 4463 4463 4405 4405 4349 4349 3948 3903 3903 3903 3903 3903 3903 3903 3903 3948 3948 0 0 0 0 0 0 0 0 0 0 0 0
0 0 0 0 0 0 0 0 0 0 0 0 0 0 0 0 0 0 0 0 0 0 0 0 0 0 0 0 0 0 0 4405 4405 4405 4405 4405 4349 4295 4241 4241 4241 4241 4295 4295 4295 4295 4349 4295 4295 4295 4295 4295 4349 4349 4405 4405 4405 4405 4405 4349 4349 4349 4349 4349 4349 4349 4405 4405 4405 4349 4349 4349 4349 4349 4349 4349 4295 4295 4241 4241 4295 4349 4405 4349 4349 4405 4405 4405 4405 4405 4405 4405 4405 4405 4405 4349 4349 4349 4349 4349 4349 2789 2789 2789 2789 2767 2767 2789 2789 2767 2767 2767 2767 2767 2767 2767 2767 2767 2767 2767 2767 2767 2767 2767 2789 2789 2789 2789 2789 2789 2789 2789 2767 2767 1926 1926 1915 1915 1915 1915 1915 1915 1915 1915 1915 1915 1915 1915 1915 1904 1904 1904 1904 1904 1904 1904 1904 1915 1904 1904 1904 1904 1904 1904 1904 1904 1904 1915 1915 1915 1915 1926 1926 1926 1926 1926 1926 1926 1926 1926 1926 1936 1936 1936 1936 1926 1926 1926 1926 1926 1926 1926 1926 1936 1936 1936 1936 1926 1926 1936 1936 1936 1936 1936 1936 1936 1936 1936 1936 1936 1936 1936 1936 1936 1936 1936 1936 1936 1936 1936 1936 1936 1926 1926 1926 1926 1926 1926 1926 1936 1936 1936 1936 1936 1936 1936 1936 1947 1947 1936 1936 1936 1936 1936 1926 1926 1926 1926 1926 1926 1936 1936 1936 1926 1926 1926 1926 1926 1926 1926 1926 1926 1926 1936 1926 1926 1926 1926 1926 1926 1926 1926 1926 1926 1926 1926 1926 1926 1926 1926 1915 1915 1926 1926 1926 1936 1926 1926 1936 1936 1936 1936 1926 1926 1926 1926 1915 1915 1926 1926 1915 1915 1915 1926 1926 1926 1926 1926 1926 1926 1926 1926 1926 1926 1926 1926 1936 1936 1936 1926 1926 1926 1926 1926 1926 1926 1926 1926 1926 1915 1915 1915 1915 1926 1926 1926 1915 1915 1915 1915 1915 1915 1915 1915 1926 1926 1926 1926 1926 1926 1926 1926 1926 1926 1926 1926 1926 1926 1915 1915 1926 1915 1915 1915 1915 1926 1926 1926 1926 1926 1936 1936 1947 1936 1936 1936 1936 1936 1936 1936 1936 1936 1936 1936 1936 1936 1926 1926 1926 1926 1926 1926 1926 1926 1926 1926 1936 1936 1936 1936 1936 1926 1926 1926 1926 1926 1926 1926 1926 1926 1926 1936 1936 1926 1915 1915 1915 1915 1915 1915 1915 1915 1915 1915 1915 1915 1926 1926 1926 1926 1926 1926 1915 1915 1915 1915 1915 1915 1915 1915 1915 1915 1915 1926 1926 1926 1926 1915 1915 1915 1915 1915 1904 1904 1904 1904 1915 1915 1915 1915 1915 1915 1915 1915 1915 1915 1904 1904 1915 1915 1915 1317 1317 1317 1317 1312 1312 1312 1312 1312 1312 1312 1312 1312 1312 1312 1317 1317 1317 3816 3816 3816 3774 3774 3774 3692 3692 3692 3692 3692 3692 3692 3692 3692 3653 3433 3399 3399 3399 3399 3399 3399 3433 3468 3653 3692 3732 3774 3269 3269 3238 3238 3238 3238 3208 3208 3208 3208 3208 3178 3178 3149 3149 3120 3120 3120 3092 3092 3064 3064 3064 3064 3064 3064 3064 3064 3064 3064 3064 3037 3037 3037 3037 3037 3037 3037 3064 3064 3037 3037 3037 3037 3064 3064 3064 3064 3064 3064 3037 3037 3037 3064 3037 3037 3037 3064 3064 3064 3064 3064 3064 3064 3037 3037 3037 3010 3010 3010 3010 3037 3037 3037 3037 3037 3037 3037 3037 3037 3037 3037 3037 3010 2908 2908 4405 4405 4463 4463 4463 4463 4463 4463 4405 4405 4349 4349 4349 3948 3948 3903 3903 3903 3903 3903 3903 3948 3948 3948 0 0 0 0 0 0 0 0 0 0 0 0
0 0 0 0 0 0 0 0 0 0 0 0 0 0 0 0 0 0 0 0 0 0 0 0 0 0 0 0 0 0 0 4405 4405 4405 4405 4405 4405 4349 4295 4241 4241 4295 4295 4295 4295 4295 4295 4295 4295 4295 4295 4295 4349 4349 4349 4349 4349 4405 4349 4349 4349 4349 4349 4349 4349 4349 4349 4349 4349 4295 4295 4295 4241 4241 4241 4241 4241 4241 4241 4241 4295 4349 4349 4349 4349 4349 4349 4349 4349 4349 4349 4349 4349 4349 4349 4349 4349 4349 4349 4349 4349 2789 2789 2789 2789 2789 2789 2789 2767 2767 2767 2767 2767 2767 2767 2767 2767 2767 2767 2767 2767 2767 2767 2767 2789 2789 2789 2789 2789 2789 2789 2789 2789 2789 1915 1915 1915 1904 1904 1904 1904 1904 1904 1904 1904 1904 1904 1904 1904 1904 1894 1894 1894 1894 1894 1894 1894 1894 1894 1883 1883 1883 1894 1894 1883 1883 1883 1894 1894 1904 1904 1904 1904 1904 1904 1904 1904 1904 1904 1904 1904 1904 1904 1904 1904 1904 1904 1904 1904 1904 1904 1904 1904 1904 1904 1904 1904 1904 1904 1915 1904 1904 1915 1926 1926 1915 1915 1926 1926 1926 1926 1915 1915 1926 1926 1926 1926 1926 1926 1926 1915 1915 1915 1915 1926 1915 1915 1915 1915 1926 1926 1926 1926 1926 1926 1926 1926 1926 1926 1926 1926 1926 1926 1926 1926 1915 1915 1915 1915 1915 1926 1926 1926 1915 1915 1915 1926 1926 1915 1915 1915 1915 1915 1915 1915 1915 1915 1915 1915 1915 1915 1915 1915 1926 1915 1915 1915 1915 1915 1915 1904 1904 1915 1915 1915 1926 1926 1926 1926 1926 1936 1936 1926 1915 1915 1904 1904 1904 1915 1915 1915 1915 1915 1915 1915 1915 1915 1915 1915 1915 1915 1915 1915 1915 1915 1915 1926 1926 1926 1915 1915 1915 1926 1926 1915 1915 1915 1915 1915 1904 1894 1894 1904 1904 1904 1904 1904 1904 1904 1915 1904 1904 1904 1904 1915 1915 1915 1915 1915 1915 1915 1915 1915 1915 1915 1915 1915 1915 1915 1915 1915 1915 1915 1915 1915 1915 1915 1915 1915 1915 1926 1926 1926 1926 1926 1926 1926 1926 1926 1915 1915 1915 1915 1915 1915 1915 1915 1915 1915 1915 1915 1915 1915 1915 1915 1915 1926 1926 1926 1926 1926 1926 1926 1915 1915 1915 1915 1915 1915 1915 1915 1926 1926 1926 1915 1915 1915 1915 1915 1915 1915 1915 1904 1894 1894 1894 1904 1904 1904 1904 1904 1904 1904 1904 1904 1904 1904 1904 1904 1904 1904 1904 1904 1904 1915 1915 1915 1904 1904 1904 1904 1904 1894 1894 1904 1904 1904 1904 1904 1904 1904 1904 1904 1904 1904 1904 1904 1904 1904 1915 1915 1312 1312 1312 1312 1307 1307 1307 1307 1302 1302 1302 1302 1302 1302 1307 1307 1312 1312 3816 3816 3816 3774 3774 3774 3732 3732 3732 3732 3732 3732 3692 3692 3653 3576 3433 3399 3399 3399 3399 3399 3433 3468 3692 3692 3732 3774 3816 3816 3859 3238 3238 3238 3238 3208 3208 3208 3208 3208 3178 3178 3149 3120 3120 3120 3120 3092 3092 3092 3092 3064 3064 3064 3064 3064 3064 3064 3064 3064 3037 3037 3037 3037 3037 3037 3037 3037 3037 3037 3037 3037 3037 3064 3064 3064 3064 3064 3064 3037 3037 3037 3064 3037 3037 3037 3037 3064 3064 3064 3064 3064 3064 3037 3037 3037 3037 3010 3010 3010 3037 3037 3037 3037 3037 3037 3037 3037 3037 3037 3037 3037 3010 2908 2908 4405 4405 4463 4463 4463 4522 4463 4463 4405 4405 4349 4349 4295 4295 3859 3859 3903 3903 3903 3903 3903 3948 3994 3994 0 0 0 0 0 0 0 0 0 0 0 0
0 0 0 0 0 0 0 0 0 0 0 0 0 0 0 0 0 0 0 0 0 0 0 0 0 0 0 0 0 0 0 0 4405 4405 4405 4405 4349 4295 4190 4190 4190 4190 4190 4295 4295 4295 4295 4295 4295 4295 4295 4295 4349 4349 4349 4349 4349 4349 4349 4349 4349 4349 4349 4349 4349 4349 4349 4349 4295 4241 4241 4295 4241 4241 4241 4241 4241 4241 4241 4241 4241 4295 4295 4295 4295 4349 4349 4349 4349 4349 4349 4349 4349 4349 4349 4349 4349 4349 4349 4349 4349 2789 2789 2789 2789 2789 2789 2789 2767 2767 2767 2767 2767 2767 2767 2767 2767 2767 2767 2767 2767 2789 2789 2789 2789 2789 2789 2789 2789 2789 2789 2789 2789 2789 1873 1873 1883 1883 1883 1894 1894 1894 1904 1904 1904 1904 1894 1894 1894 1883 1883 1883 1883 1883 1883 1883 1883 1883 1883 1873 1873 1873 1883 1883 1883 1873 1873 1883 1883 1883 1883 1883 1883 1873 1873 1894 1894 1894 1894 1894 1894 1894 1894 1883 1883 1894 1894 1894 1894 1894 1883 1883 1883 1894 1894 1894 1894 1894 1894 1894 1894 1894 1894 1894 1894 1894 1894 1894 1894 1894 1904 1904 1904 1904 1904 1904 1915 1915 1915 1904 1904 1904 1904 1904 1904 1904 1904 1904 1904 1904 1904 1894 1894 1904 1915 1915 1915 1915 1915 1915 1915 1915 1915 1915 1915 1904 1904 1894 1894 1894 1904 1915 1915 1904 1904 1904 1915 1915 1904 1904 1894 1894 1894 1894 1894 1894 1904 1904 1904 1904 1904 1904 1915 1915 1915 1915 1915 1915 1915 1915 1904 1904 1904 1904 1904 1915 1904 1904 1904 1915 1926 1926 1894 1894 1894 1894 1894 1894 1894 1894 1904 1904 1904 1904 1904 1904 1904 1904 1904 1904 1904 1904 1904 1904 1904 1904 1915 1915 1915 1915 1904 1904 1915 1915 1904 1904 1904 1904 1904 1894 1883 1883 1894 1894 1894 1894 1894 1894 1894 1894 1894 1894 1894 1894 1894 1904 1904 1904 1904 1904 1904 1915 1915 1904 1904 1904 1904 1915 1904 1904 1904 1904 1904 1904 1904 1904 1915 1915 1915 1915 1915 1904 1904 1904 1904 1904 1904 1904 1904 1904 1894 1883 1883 1894 1894 1894 1904 1904 1904 1904 1904 1904 1904 1894 1894 1904 1915 1915 1915 1915 1926 1926 1915 1904 1904 1904 1904 1904 1904 1904 1904 1915 1915 1915 1904 1904 1904 1904 1904 1904 1904 1894 1883 1883 1883 1883 1894 1883 1883 1894 1894 1894 1894 1894 1894 1894 1894 1894 1894 1894 1904 1894 1894 1904 1904 1904 1894 1894 1894 1894 1904 1894 1894 1894 1894 1894 1904 1894 1894 1904 1904 1904 1894 1894 1894 1894 1894 1894 1904 1904 1307 1307 1307 1307 1307 1307 1307 1307 1307 1302 1302 1302 1302 1302 1302 1302 1302 1302 1302 1307 1312 3774 3774 3774 3732 3732 3732 3732 3732 3732 3732 3692 3692 3653 3468 3433 3399 3399 3399 3399 3399 3433 3468 3692 3732 3774 3774 3816 3859 3859 3903 3238 3208 3208 3178 3178 3208 3208 3178 3178 3149 3149 3120 3120 3120 3120 3092 3092 3064 3064 3064 3064 3064 3064 3064 3064 3064 3064 3064 3037 3037 3037 3037 3037 3037 3037 3037 3037 3037 3037 3064 3064 3064 3064 3064 3064 3064 3064 3037 3037 3037 3064 3064 3037 3037 3037 3064 3064 3064 3064 3064 3064 3037 3037 3037 3037 3037 3037 3037 3037 3037 3037 3037 3037 3037 3037 3037 3037 3037 3037 3037 3010 2908 2908 4405 4405 4463 4463 4522 4522 4463 4463 4405 4241 4241 4295 4295 4190 3859 3859 3859 3859 3903 3903 3903 3948 3994 3994 0 0 0 0 0 0 0 0 0 0 0 0
0 0 0 0 0 0 0 0 0 0 0 0 0 0 0 0 0 0 0 0 0 0 0 0 0 0 0 0 0 0 0 4349 4349 4405 4405 4349 4349 4295 4190 4190 4190 4190 4190 4295 4295 4295 4295 4295 4295 4295 4295 4295 4295 4295 4295 4295 4349 4349 4295 4295 4295 4349 4349 4349 4349 4349 4349 4349 4295 4241 4241 4241 4241 4190 4190 4241 4241 4241 4241 4241 4241 4295 4241 4241 4241 4295 4295 4295 4349 4349 4349 4349 4349 4349 4349 4295 4295 4349 4349 4349 2789 2789 2789 2789 2789 2789 2789 2789 2789 2767 2767 2767 2767 2767 2767 2767 2767 2767 2789 2789 2789 2789 2789 2789 2789 2789 2789 2789 2789 2789 2789 2789 2789 2789 1873 1873 1873 1883 1883 1883 1883 1894 1894 1894 1894 1894 1883 1883 1883 1883 1873 1873 1873 1873 1873 1873 1873 1873 1873 1863 1863 1863 1873 1873 1873 1863 1863 1873 1873 1873 1873 1873 1873 1873 1873 1873 1873 1883 1883 1883 1883 1883 1873 1873 1873 1883 1883 1883 1883 1883 1883 1883 1883 1883 1883 1873 1873 1883 1883 1873 1873 1873 1883 1883 1883 1883 1873 1873 1883 1883 1883 1883 1894 1894 1894 1904 1894 1894 1904 1894 1894 1894 1894 1894 1894 1894 1894 1894 1894 1894 1894 1894 1883 1883 1904 1904 1904 1904 1894 1894 1894 1894 1904 1904 1904 1894 1883 1873 1873 1883 1894 1894 1904 1883 1883 1883 1883 1883 1883 1883 1883 1883 1883 1883 1883 1883 1883 1894 1894 1894 1894 1894 1904 1904 1915 1915 1915 1915 1915 1894 1894 1894 1894 1894 1894 1894 1894 1894 1894 1894 1883 1883 1883 1883 1883 1883 1883 1883 1883 1883 1894 1894 1894 1894 1894 1894 1894 1894 1894 1894 1894 1894 1894 1894 1894 1894 1904 1904 1904 1904 1894 1894 1904 1904 1894 1894 1894 1894 1894 1883 1883 1883 1883 1883 1894 1883 1883 1894 1894 1894 1894 1894 1883 1883 1883 1883 1883 1883 1894 1894 1894 1894 1894 1894 1894 1894 1894 1894 1894 1894 1894 1904 1904 1904 1904 1904 1904 1904 1894 1894 1894 1894 1894 1894 1894 1894 1894 1894 1894 1883 1883 1883 1883 1883 1883 1883 1894 1894 1894 1894 1894 1894 1894 1883 1883 1894 1904 1904 1904 1904 1904 1904 1904 1894 1894 1894 1894 1894 1894 1894 1894 1904 1904 1904 1894 1894 1894 1894 1894 1894 1894 1883 1873 1873 1873 1873 1873 1873 1873 1883 1883 1883 1883 1883 1883 1883 1883 1883 1883 1883 1894 1883 1883 1894 1894 1894 1894 1894 1894 1894 1894 1894 1894 1894 1894 1894 1894 1894 1894 1894 1894 1894 1894 1894 1894 1883 1883 1894 1894 1307 1307 1307 1307 1307 1307 1302 1302 1302 1302 1302 1302 1302 1302 1302 1302 1302 1302 1302 1302 1302 1302 1302 3774 3774 3732 3692 3692 3732 3692 3692 3692 3692 3653 3576 3468 3433 3399 3399 3399 3399 3433 3433 3468 3692 3732 3774 3774 3816 3859 3859 3903 3903 3208 3208 3178 3178 3178 3178 3178 3149 3149 3149 3120 3120 3120 3120 3092 3092 3064 3064 3064 3064 3064 3064 3064 3064 3064 3064 3064 3037 3037 3037 3037 3037 3037 3037 3064 3064 3064 3064 3064 3064 3064 3064 3064 3064 3064 3064 3037 3037 3037 3064 3064 3037 3037 3037 3064 3064 3064 3064 3064 3064 3037 3037 3037 3037 3037 3037 3037 3037 3037 3037 3037 3037 3037 3037 3037 3037 3037 3037 3037 3010 3010 3010 4463 4463 4463 4463 4463 4522 4405 4349 4295 4241 4241 4241 4241 4190 3903 3903 3859 3859 3903 3903 3903 3948 4041 4139 0 0 0 0 0 0 0 0 0 0 0 0
0 0 0 0 0 0 0 0 0 0 0 0 0 0 0 0 0 0 0 0 0 0 0 0 0 0 0 0 0 0 0 4295 4295 4349 4349 4349 4295 4241 4190 4190 4190 4190 4190 4241 4241 4295 4295 4295 4295 4295 4295 4295 4295 4295 4295 4295 4349 4295 4295 4295 4295 4349 4349 4295 4295 4349 4349 4349 4241 4241 4190 4190 4190 4190 4190 4190 4190 4190 4190 4190 4190 4190 4190 4190 4190 4241 4241 4295 4295 4295 4349 4349 4349 4349 4295 4295 4295 4295 3399 3399 2789 2789 2789 2789 2789 2789 2789 2789 2789 2789 2767 2767 2767 2767 2767 2767 2767 2789 2789 2789 2789 2789 2789 2789 2789 2789 2789 2789 2789 2789 2789 2789 2789 2789 1863 1863 1873 1873 1873 1873 1873 1873 1883 1883 1883 1873 1873 1873 1873 1873 1873 1873 1873 1873 1863 1863 1873 1873 1873 1863 1863 1863 1863 1873 1863 1863 1863 1863 1863 1863 1863 1863 1863 1853 1853 1863 1873 1873 1873 1873 1873 1873 1873 1863 1863 1873 1873 1863 1863 1873 1863 1863 1873 1873 1873 1873 1873 1873 1873 1863 1863 1873 1873 1873 1873 1873 1863 1863 1863 1873 1873 1883 1883 1883 1894 1894 1883 1883 1894 1894 1894 1883 1873 1873 1883 1873 1873 1883 1883 1873 1873 1873 1873 1873 1873 1873 1873 1873 1873 1883 1883 1863 1863 1883 1883 1873 1873 1863 1863 1863 1873 1883 1853 1853 1863 1863 1863 1863 1863 1863 1863 1873 1873 1873 1873 1873 1873 1873 1883 1883 1883 1883 1904 1904 1904 1904 1904 1894 1894 1894 1894 1894 1894 1894 1894 1894 1894 1894 1894 1894 1883 1883 1873 1873 1873 1873 1863 1863 1873 1873 1873 1873 1873 1873 1883 1883 1883 1883 1883 1883 1883 1883 1883 1883 1883 1894 1894 1894 1894 1894 1883 1883 1883 1883 1883 1883 1883 1883 1883 1883 1873 1873 1873 1883 1883 1873 1873 1883 1883 1883 1883 1883 1873 1873 1873 1883 1883 1883 1883 1883 1883 1883 1883 1883 1883 1883 1894 1894 1894 1894 1894 1894 1894 1894 1894 1894 1894 1894 1883 1883 1883 1883 1883 1883 1883 1883 1883 1883 1883 1883 1883 1883 1883 1883 1883 1883 1883 1883 1883 1883 1883 1883 1883 1883 1883 1883 1883 1883 1883 1873 1873 1883 1883 1883 1883 1883 1883 1883 1883 1883 1883 1883 1883 1894 1883 1883 1894 1894 1883 1883 1873 1873 1873 1873 1873 1873 1873 1873 1873 1873 1873 1873 1873 1873 1873 1883 1873 1873 1883 1883 1883 1883 1883 1883 1883 1894 1894 1894 1894 1894 1297 1297 1297 1297 1883 1883 1883 1883 1883 1883 1883 1883 1873 1873 1873 1873 1873 1873 1307 1307 1307 1307 1307 1307 1302 1302 1302 1302 1302 1302 1302 1302 1302 1302 1302 1302 1302 1302 1302 1302 1302 1302 1302 3732 3732 3692 3692 3732 3692 3692 3692 3653 3653 3503 3503 3433 3433 3433 3433 3433 3433 3433 3468 3692 3732 3774 3774 3816 3859 3859 3859 3859 3859 3859 3178 3178 3178 3178 3149 3149 3149 3149 3120 3120 3120 3120 3092 3092 3064 3064 3064 3064 3064 3064 3064 3064 3064 3064 3064 3037 3037 3037 3037 3037 3064 3064 3064 3064 3064 3064 3064 3064 3064 3064 3064 3064 3064 3064 3064 3064 3064 3064 3064 3064 3064 3064 3064 3064 3064 3064 3064 3064 3037 3037 3037 3037 3037 3037 3037 3037 3037 3037 3037 3037 3037 3037 3037 3037 3037 3037 3037 3010 3010 3010 4463 4463 4405 4405 4405 4522 4405 4295 4295 4241 4241 4241 4241 4190 3859 3859 3859 3859 3903 3903 3903 3948 4089 4139 0 0 0 0 0 0 0 0 0 0 0 0
0 0 0 0 0 0 0 0 0 0 0 0 0 0 0 0 0 0 0 0 0 0 0 0 0 0 0 0 0 0 0 4241 4241 4349 4349 4295 4241 4241 4190 4190 4190 4190 4190 4241 4241 4241 4295 4295 4295 4295 4295 4295 4295 4295 4295 4295 4295 4295 4241 4241 4295 4349 4349 4295 4295 4295 4349 4295 4241 4241 4190 4190 4190 4190 4190 4190 4190 4190 4139 4139 4190 4190 4190 4190 4190 4241 4241 4295 4295 4295 4349 4349 4349 4295 4295 4295 4295 3433 3399 3399 3399 2789 2789 2789 2789 2789 2789 2789 2789 2789 2767 2767 2767 2767 2789 2789 2789 2789 2789 2789 2789 2789 2789 2789 2789 2789 2789 2789 2789 2812 2789 2789 2789 2789 1853 1853 1853 1863 1863 1873 1873 1873 1873 1873 1863 1863 1863 1863 1863 1863 1863 1863 1863 1863 1853 1853 1863 1863 1863 1853 1853 1853 1853 1863 1863 1853 1853 1853 1853 1853 1853 1853 1853 1853 1853 1853 1853 1863 1863 1863 1863 1863 1863 1863 1863 1863 1863 1853 1853 1853 1853 1863 1863 1863 1863 1863 1863 1863 1863 1863 1863 1863 1863 1863 1863 1863 1863 1863 1863 1863 1863 1863 1863 1863 1873 1873 1873 1863 1863 1863 1863 1863 1863 1873 1873 1863 1863 1873 1863 1863 1863 1863 1863 1863 1863 1863 1863 1863 1863 1863 1863 1863 1863 1863 1863 1863 1863 1853 1853 1853 1853 1853 1843 1843 1853 1853 1853 1853 1853 1853 1853 1853 1853 1853 1853 1853 1853 1853 1863 1863 1863 1863 1883 1904 1894 1255 1255 1255 1259 1268 1268 1264 1264 1268 1268 1268 1883 1883 1883 1883 1883 1873 1873 1873 1863 1863 1863 1863 1863 1863 1863 1863 1863 1863 1863 1863 1873 1873 1873 1873 1883 1883 1873 1873 1883 1883 1883 1883 1873 1873 1873 1873 1863 1863 1863 1863 1873 1873 1873 1873 1863 1863 1863 1863 1873 1873 1873 1873 1873 1873 1873 1873 1863 1863 1873 1873 1873 1873 1883 1883 1883 1883 1883 1873 1873 1873 1883 1883 1883 1883 1883 1883 1883 1883 1883 1883 1883 1883 1883 1883 1873 1873 1873 1873 1873 1873 1873 1873 1873 1873 1873 1873 1873 1873 1873 1873 1873 1873 1873 1873 1873 1873 1873 1873 1873 1873 1873 1873 1863 1863 1873 1873 1873 1873 1883 1883 1883 1883 1883 1873 1873 1883 1883 1883 1883 1883 1883 1883 1883 1883 1873 1297 1288 1283 1283 1873 1873 1873 1873 1873 1873 1863 1863 1863 1873 1873 1873 1873 1883 1883 1283 1283 1883 1883 1883 1894 1894 1297 1297 1297 1297 1297 1292 1292 1292 1297 1297 1297 1883 1883 1883 1873 1322 1317 1317 1873 1873 1873 1307 1307 1307 1302 1302 1307 1302 1302 1297 1297 1297 1297 1297 1297 1297 1297 1302 1302 1297 1297 1302 1302 1302 1302 1302 1302 3692 3692 3692 3732 3692 3692 3692 3653 3614 3503 3468 3433 3433 3433 3433 3433 3433 3468 3503 3653 3732 3774 3774 3816 3816 3859 3859 3859 3859 3859 3178 3149 3149 3178 3149 3149 3149 3120 3120 3120 3120 3120 3092 3092 3092 3064 3064 3064 3064 3064 3064 3064 3064 3064 3064 3037 3037 3037 3037 3037 3037 3064 3064 3064 3064 3064 3064 3064 3064 3064 3064 3064 3064 3064 3064 3064 3064 3064 3064 3064 3064 3064 3064 3064 3064 3064 3064 3064 3037 3037 3037 3037 3037 3037 3037 3037 3037 3037 3037 3037 3037 3037 3037 3037 3037 3037 3010 3010 3010 3010 4463 4463 4405 4405 4405 4405 4405 4241 4241 4241 4241 4190 4190 4041 3859 3859 3859 3859 3903 3903 3903 3948 4089 4139 0 0 0 0 0 0 0 0 0 0 0 0
0 0 0 0 0 0 0 0 0 0 0 0 0 0 0 0 0 0 0 0 0 0 0 0 0 0 0 0 0 0 0 4241 4241 4295 4295 4295 4241 4190 4190 4190 4190 4190 4190 4190 4190 4241 4241 4241 4241 4241 4241 4241 4241 4241 4241 4241 4241 4241 4241 4241 4241 4295 4295 4295 4295 4295 4295 4241 4241 4190 4139 4139 4139 4139 4139 4139 4139 4139 4139 4139 4139 4139 4139 4139 4139 4190 4190 4241 4295 4295 4295 4295 4295 4295 4295 3468 3433 3433 3433 3399 3399 2835 2789 2789 2812 2789 2789 2789 2789 2789 2767 2767 2767 2767 2789 2789 2789 2789 2789 2789 2789 2789 2789 2789 2789 2789 2789 2789 2789 2789 2789 2789 2789 1833 1833 1833 1843 1853 1853 1853 1863 1863 1863 1863 1853 1853 1853 1853 1853 1853 1853 1853 1853 1853 1853 1853 1853 1853 1853 1843 1843 1853 1843 1843 1843 1843 1843 1843 1843 1843 1843 1843 1843 1843 1843 1843 1853 1853 1853 1853 1853 1853 1853 1853 1853 1853 1853 1853 1853 1853 1853 1863 1863 1863 1853 1853 1853 1853 1853 1853 1853 1853 1853 1853 1853 1853 1853 1853 1853 1853 1853 1853 1853 1853 1853 1863 1863 1863 1853 1853 1853 1853 1863 1863 1863 1863 1863 1863 1853 1853 1853 1853 1853 1853 1853 1853 1853 1853 1853 1853 1853 1853 1853 1863 1863 1853 1853 1853 1843 1843 1843 1843 1843 1843 1843 1843 1843 1843 1843 1843 1843 1843 1843 1843 1843 1853 1853 1853 1853 1853 1863 1863 1883 1904 1894 1255 1255 1255 1259 1259 1259 1259 1259 1259 1264 1264 1268 1268 1268 1883 1863 1853 1853 1853 1843 1843 1843 1843 1843 1843 1843 1853 1853 1853 1853 1853 1863 1863 1863 1863 1873 1873 1863 1863 1863 1873 1873 1863 1863 1853 1853 1853 1853 1853 1853 1853 1863 1863 1863 1863 1843 1843 1843 1843 1853 1853 1853 1863 1863 1863 1863 1863 1853 1853 1863 1863 1863 1873 1873 1873 1873 1873 1863 1863 1863 1863 1863 1863 1863 1863 1863 1863 1863 1873 1873 1873 1873 1873 1873 1873 1873 1863 1863 1863 1863 1863 1853 1853 1863 1863 1863 1863 1863 1863 1873 1873 1873 1863 1853 1853 1863 1873 1873 1873 1873 1873 1873 1873 1863 1863 1873 1873 1873 1873 1873 1873 1873 1873 1873 1873 1873 1873 1873 1873 1873 1873 1873 1873 1883 1883 1283 1283 1283 1283 1278 1278 1278 1283 1863 1863 1863 1863 1863 1863 1863 1873 1873 1283 1283 1283 1283 1283 1283 1288 1288 1288 1292 1292 1292 1297 1297 1297 1292 1292 1292 1297 1297 1297 1297 1297 1302 1302 1302 1307 1307 1307 1307 1307 1307 1307 1302 1302 1302 1302 1302 1302 1297 1297 1297 1297 1297 1297 1297 1297 1297 1297 1297 1297 1297 1302 1302 1302 1302 1302 1302 3732 3732 3732 3692 3692 3692 3653 3576 3503 3468 3433 3433 3433 3433 3433 3433 3468 3539 3653 3692 3732 3774 3816 3816 3859 3859 3859 3859 3859 3859 3149 3149 3149 3149 3120 3120 3120 3120 3120 3120 3120 3092 3092 3064 3064 3064 3064 3064 3064 3064 3064 3064 3064 3064 3037 3037 3037 3037 3037 3037 3064 3064 3064 3064 3064 3064 3064 3064 3064 3064 3064 3064 3064 3064 3064 3064 3064 3064 3064 3064 3064 3064 3064 3064 3064 3064 3064 3037 3037 3037 3064 3064 3037 3037 3037 3037 3037 3037 3037 3037 3037 3037 3037 3037 3037 3010 3010 3010 0 4241 4241 4241 4241 4241 4241 4190 4190 4241 4190 4190 4190 4041 3948 3903 3903 3903 3903 3903 3948 3948 3994 4089 4139 0 0 0 0 0 0 0 0 0 0 0 0
0 0 0 0 0 0 0 0 0 0 0 0 0 0 0 0 0 0 0 0 0 0 0 0 0 0 0 0 0 0 0 4139 4139 4139 4139 4139 4139 4139 4190 4190 4190 4190 4190 4190 4190 4190 4241 4241 4241 4190 4190 4190 4241 4190 4190 4190 4190 4190 4190 4190 4190 4241 4295 4241 4241 4295 4241 4241 4190 4190 4139 4139 4139 4139 4139 4139 4139 4139 4139 4139 4139 4139 4139 4139 4139 4139 4139 4190 4241 4241 4241 4241 4241 4295 4295 3433 3433 3433 3399 3399 3399 2835 2835 2835 2835 2789 2789 2789 2789 2789 2767 2767 2789 2789 2789 2789 2789 2789 2789 2789 2789 2789 2789 2789 2789 2789 2789 2789 2789 2789 2789 2789 2789 1813 1813 1823 1833 1833 1843 1843 1853 1843 1843 1843 1843 1843 1843 1843 1843 1843 1843 1843 1843 1843 1843 1843 1843 1843 1843 1833 1833 1833 1833 1833 1833 1833 1833 1833 1823 1823 1833 1823 1823 1823 1833 1833 1833 1833 1833 1833 1833 1833 1843 1843 1843 1843 1843 1843 1843 1853 1853 1853 1853 1853 1853 1853 1853 1853 1853 1853 1853 1853 1843 1843 1843 1853 1853 1853 1853 1853 1843 1843 1843 1843 1843 1843 1843 1843 1843 1833 1833 1843 1843 1843 1843 1853 1853 1853 1853 1853 1843 1843 1843 1843 1843 1853 1843 1843 1843 1843 1853 1843 1843 1853 1853 1843 1843 1843 1833 1833 1843 1833 1833 1843 1843 1843 1843 1833 1833 1833 1833 1833 1833 1833 1833 1843 1843 1843 1843 1853 1853 1863 1863 1255 1255 1255 1255 1255 1255 1255 1259 1259 1259 1259 1259 1264 1268 1268 1268 1268 1853 1853 1853 1843 1843 1843 1843 1843 1843 1843 1843 1843 1843 1843 1843 1843 1843 1843 1843 1843 1843 1843 1843 1843 1843 1843 1843 1843 1843 1843 1843 1843 1843 1843 1843 1843 1843 1843 1843 1843 1843 1843 1843 1843 1843 1843 1843 1843 1843 1843 1843 1843 1843 1843 1843 1843 1843 1833 1833 1833 1843 1843 1843 1843 1853 1853 1863 1863 1863 1245 1245 1245 1245 1250 1255 1250 1250 1873 1873 1873 1863 1863 1863 1853 1853 1853 1853 1843 1843 1843 1863 1853 1853 1853 1863 1863 1853 1843 1843 1853 1853 1873 1873 1873 1873 1873 1873 1873 1873 1873 1873 1873 1873 1873 1873 1873 1268 1268 1873 1873 1873 1873 1873 1873 1873 1873 1873 1873 1873 1268 1283 1283 1278 1278 1278 1278 1278 1278 1278 1863 1863 1853 1853 1863 1863 1863 1283 1283 1283 1283 1283 1283 1283 1283 1283 1283 1288 1288 1288 1288 1288 1292 1292 1292 1292 1292 1297 1297 1297 1292 1292 1292 1297 1302 1302 1302 1302 1307 1307 1307 1302 1302 1302 1302 1302 1302 1297 1297 1297 1297 1297 1297 1297 1297 1297 1297 1297 1297 1297 1297 1297 1297 1302 1302 0 3732 3732 3732 3732 3692 3653 3576 3539 3468 3433 3433 3433 3433 3433 3433 3468 3468 3539 3653 3692 3732 3732 3774 3859 3859 3859 3859 3816 3816 3816 3859 3149 3149 3149 3120 3120 3120 3120 3120 3120 3120 3092 3092 3064 3064 3064 3064 3064 3064 3064 3064 3064 3064 3064 3064 3037 3037 3064 3064 3064 3064 3064 3064 3064 3064 3064 3064 3064 3064 3064 3064 3064 3064 3064 3064 3064 3064 3064 3064 3064 3064 3064 3064 3064 3064 3064 3064 3037 3037 3037 3064 3064 3064 3064 3064 3037 3037 3037 3037 3037 3037 3037 3037 3037 3010 3010 3010 3010 2933 4190 4190 4190 4190 4139 4139 4190 4190 4190 4139 4041 3994 3948 3948 3903 3903 3859 3859 3903 3903 3948 3994 4041 4139 0 0 0 0 0 0 0 0 0 0 0 0
