0 0 0 0 0 0 0 0 0 0 0 0 0 0 0 0 0 0 0 0 0 0 0 0 0 0 0 0 0 0 0 0 0 2560 2560 2579 2579 2598 2598 2598 2618 2618 2618 2618 2639 2639 2639 2639 2639 2639 2659 2659 2659 2659 2659 2659 2680 2680 2701 2701 2701 2723 2723 2723 2723 2723 2723 2723 2723 2723 2723 2723 2744 2744 2767 2767 2767 2767 2767 2767 2767 2767 2767 3238 3238 3238 3269 3269 3269 3300 3333 3333 3365 3365 3365 2883 2883 2908 2908 2908 2908 2908 2908 2908 2933 2933 2958 2958 2958 2958 2958 2958 2958 2958 2984 2984 2984 2984 2984 2984 2984 2984 3010 3010 3010 3010 3037 3037 3037 3064 3064 3064 3092 3092 3120 3120 3120 3120 3149 3149 3149 3149 3178 3178 3178 3178 3208 3208 3208 3208 3208 3208 3208 3208 3208 3208 3300 3300 3300 3300 3333 3333 3333 3365 3399 3399 3399 3399 3399 3399 3399 3399 3399 3399 3399 3399 3433 3433 3433 3433 3433 3468 3468 3503 3503 3503 3503 3503 3539 3539 3539 3539 3576 3576 3576 3576 3576 3614 3614 3614 3614 3653 3653 3692 3692 3732 3732 3732 3732 3732 0 0 0 0 0 0 0 0 0 0 0 0 0 5374 5374 5374 5374 5374 5374 5374 5374 5374 5374 5374 5460 5374 5374 5374 5374 5291 5210 5210 5210 5210 5210 5210 5210 5210 5291 5291 5291 5291 5291 5291 5291 5291 5291 5291 5210 5210 5210 5210 5210 5210 5210 5210 5210 5210 5210 5210 5210 5210 5210 5210 5210 5210 5210 5132 5132 5132 5132 5132 5132 5132 5056 5056 5056 5056 5056 5056 5056 5056 5056 5056 5056 4983 4983 4983 4983 4983 4983 4983 5056 5056 5056 5056 5132 5132 5132 5210 5210 5210 5210 5291 5291 5291 5291 5291 5291 5291 5291 5291 5291 5210 5210 5210 5210 5210 5210 5210 5210 5210 5210 5210 5210 5210 5291 5291 5374 5460 5460 5460 5460 5460 5460 5548 5548 5548 5548 5548 5640 5832 5832 5832 5832 5933 5933 5933 5933 5933 5933 5933 5933 5933 6038 6038 6038 6038 6146 6146 6038 6038 6038 6146 6146 6146 6146 6259 6375 6889 7178 7178 7332 7332 7332 7332 7332 7332 7332 7332 7332 7332 7332 7332 7332 7332 7332 7332 7332 7332 7178 7178 7332 7332 3365 3365 3333 3333 3333 3333 3333 3300 3300 3300 3300 3269 3269 3269 3238 3238 3238 3238 3238 3238 3238 3238 3238 3208 3208 3208 3208 3208 3208 3208 3208 3208 3178 3178 3178 3178 3178 3178 3178 3149 3149 3149 3149 3149 3149 3149 3149 3149 3149 3149 3149 3149 3149 3120 3120 3120 3120 3092 3092 3092 3092 3092 3092 3092 3092 3092 3092 3092 3092 3092 3092 3092 3064 3064 3064 3064 3064 3064 3064 3064 3064 3064 3064 3037 3037 3037 3064 3064 3037 3037 3037 3037 3037 3010 3010 3010 3010 2984 2984 3010 3010 3010 3010 3010 3010 3010 3010 3010 3010 3010 3037 3064 3064 3092 3120 3120 3149 3178 3208 3238 3238 3300 3300 3300 3333 3365 3399 3399 3399 3433 4089 4089 4089 4089 4089 4089 4089 4089 4089 4089 4089 4089 4089 4089 4089 4089 4089 4089 4089 4041 4041 4041 4041 4041 4041 4041 4041 4041 4041 4041 4041 4041 5640 5734 5734 5734 5734 5734 5734 5734 5734 5734 5640 5640 5640 5640 5640 5548 5548 5548 5548 5548 5640 5548 5548 5548 5548 5548 5548 5548 5548 5548 5548 5548 5548 5548 5548 5640 5640 5640 5734 5734 5933 5933 6038 6038 5933 5933 5933 5832 5734 5640 5640 5640 5640 5734 5734 5734 5933 6038 6038 5933 5933 0 0 0 0 0 0 0 0 0 0 0 0 0
0 0 0 0 0 0 0 0 0 0 0 0 0 0 0 0 0 0 0 0 0 0 0 0 0 0 0 0 0 0 0 0 0 2560 2560 2579 2579 2579 2579 2598 2618 2618 2618 2618 2639 2639 2639 2639 2659 2659 2659 2659 2659 2659 2659 2659 2680 2680 2701 2701 2701 2723 2723 2723 2723 2723 2723 2723 2723 2723 2723 2723 2744 2744 2767 2767 2767 2767 2767 2767 2767 2767 2767 3238 3238 3269 3269 3269 3269 3300 3333 3333 3365 3365 2883 2883 2883 2883 2908 2908 2908 2908 2908 2933 2933 2933 2958 2958 2958 2958 2958 2958 2958 2958 2984 2984 2984 2984 2984 2984 2984 2984 3010 3010 3010 3010 3037 3037 3037 3064 3064 3064 3092 3092 3120 3120 3120 3149 3149 3149 3178 3178 3178 3178 3178 3178 3208 3208 3208 3208 3208 3208 3208 3208 3208 0 0 3333 3333 3333 3333 3333 3365 3365 3399 3399 3399 3399 3399 3399 3399 3399 3399 3399 3399 3399 3433 3433 3433 3433 3433 3468 3468 3503 3503 3503 3503 3539 3539 3539 3539 3576 3576 3576 3576 3576 3576 3614 3614 3614 3614 3653 3653 3692 3692 3732 3732 3774 3816 0 0 0 0 0 0 0 0 0 0 0 0 0 0 0 5374 5374 5374 5374 5374 5374 5291 5291 5374 5374 5460 5460 5460 5374 5374 5291 5210 5210 5210 5210 5210 5210 5210 5210 5291 5291 5291 5291 5291 5291 5291 5291 5291 5291 5291 5291 5210 5210 5210 5210 5210 5210 5210 5210 5210 5210 5210 5210 5210 5210 5210 5210 5210 5210 5210 5132 5132 5132 5132 5132 5056 5056 5056 5056 5056 5056 5056 5056 5056 5056 5056 4983 4983 4983 4983 4983 4983 4983 5056 5056 5056 5056 5056 5132 5132 5210 5210 5210 5210 5291 5291 5291 5291 5291 5291 5291 5291 5291 5291 5210 5210 5210 5210 5210 5210 5210 5210 5210 5210 5210 5210 5210 5291 5291 5374 5460 5460 5460 5460 5460 5548 5548 5548 5548 5548 5548 5832 5832 5933 5832 5832 5933 5933 5933 5933 5933 5933 5933 5933 5933 6038 6038 6038 6038 6146 6146 6038 6038 6038 6146 6146 6146 6146 6259 6375 7030 7178 7332 7332 7332 7332 7332 7332 7332 7332 7332 7332 7332 7332 7332 7332 7332 7332 7332 7332 7332 7178 7178 7332 3399 3365 3365 3365 3365 3365 3333 3333 3300 3300 3300 3300 3300 3300 3300 3238 3238 3238 3238 3238 3238 3208 3208 3238 3208 3208 3208 3208 3208 3208 3208 3208 3208 3178 3178 3178 3178 3178 3178 3178 3178 3178 3178 3178 3178 3149 3149 3149 3149 3149 3149 3149 3120 3120 3120 3120 3120 3120 3092 3092 3092 3092 3092 3092 3092 3092 3092 3092 3092 3092 3092 3092 3064 3064 3064 3064 3064 3064 3064 3064 3064 3064 3064 3064 3037 3037 3037 3064 3064 3064 3037 3037 3037 3037 3010 3010 3010 2984 2984 2984 3010 3010 3010 3010 3010 3010 3010 3010 3010 3010 3010 3037 3037 3064 3092 3149 3149 3149 3178 3208 3238 3269 3300 3300 3300 3333 3365 3399 3399 3399 3433 4089 4089 4089 4089 4089 4089 4089 4089 4089 4089 4089 4089 4089 4089 4089 4089 4089 4089 4089 4089 4089 4041 4041 4041 4041 4041 4041 4041 4089 4089 4041 4041 5640 5734 5734 5734 5734 5734 5734 5734 5734 5734 5640 5640 5640 5640 5640 5548 5548 5548 5548 5548 5640 5548 5548 5548 5548 5548 5548 5548 5548 5548 5548 5548 5548 5548 5548 5640 5640 5734 5734 5734 5933 5933 6038 6038 5933 5933 5933 5832 5640 5640 5640 5640 5640 5734 5734 5734 5933 6038 6038 5933 5933 0 0 0 0 0 0 0 0 0 0 0 0 0
0 0 0 0 0 0 0 0 0 0 0 0 0 0 0 0 0 0 0 0 0 0 0 0 0 0 0 0 0 0 0 0 0 2560 2560 2579 2579 2579 2579 2598 2598 2618 2618 2618 2639 2639 2639 2639 2659 2659 2659 2659 2659 2659 2659 2680 2680 2680 2701 2701 2701 2723 2723 2723 2723 2723 2723 2723 2723 2723 2723 2723 2744 2744 2767 2767 2767 2767 2767 2767 2767 2767 2767 2767 3238 3269 3269 3269 3300 3300 3333 3365 3365 0 2883 2883 2859 2859 2883 2908 2908 2908 2908 2933 2958 2958 2958 2958 2958 2958 2958 2958 2958 2958 2984 2984 2984 2984 2984 2984 3010 3010 3010 3010 3037 3037 3037 3064 3064 3064 3064 3092 3092 3092 3120 3120 3149 3149 3149 3149 3178 3178 3178 3178 3178 3178 3208 3208 3208 3208 3208 3208 3208 3208 3208 0 0 3365 3365 3365 3365 3365 3365 3399 3399 3399 3399 3399 3399 3399 3399 3399 3399 3399 3433 3433 3433 3433 3433 3433 3468 3468 3468 3503 3503 3503 3503 3539 3539 3539 3539 3576 3576 3576 3576 3614 3614 3614 3614 3614 3653 3653 3692 3692 3692 3732 3732 3774 3774 0 0 0 0 0 0 0 0 0 0 0 0 0 0 0 0 5374 5374 5374 5374 5374 5291 5291 5374 5374 5374 5734 5734 5734 5734 5374 5374 5210 5210 5210 5210 5210 5210 5210 5291 5291 5374 5374 5374 5374 5291 5291 5291 5291 5291 5291 5291 5291 5210 5210 5210 5210 5291 5210 5210 5210 5210 5210 5210 5210 5210 5210 5210 5210 5210 5132 5056 5056 5056 5056 5056 4983 4983 4983 5056 4983 4983 5056 5056 5056 5056 5056 5056 5056 4983 4983 4983 4983 5056 5056 5056 5056 5056 5132 5132 5210 5210 5210 5210 5291 5291 5291 5291 5291 5291 5291 5291 5291 5291 5210 5210 5210 5210 5210 5210 5210 5210 5210 5210 5210 5210 5291 5291 5374 5374 5460 5548 5460 5460 5460 5548 5548 5548 5460 5460 5460 5933 5933 5832 5832 5832 5832 5832 5933 5933 5933 5933 5933 5933 5933 5933 6038 6038 6038 6038 6038 6038 6038 6038 6146 6146 6146 6146 6259 6375 7030 7178 7332 7332 7332 7332 7332 7332 7332 7332 7332 7332 7332 7332 7332 7332 7332 7332 7332 7332 7332 7332 7332 7332 3399 3365 3365 3333 3333 3333 3333 3333 3300 3300 3300 3300 3300 3300 3300 3269 3238 3238 3238 3238 3238 3208 3208 3238 3208 3208 3208 3208 3208 3208 3208 3208 3208 3178 3178 3178 3178 3178 3178 3178 3178 3178 3178 3178 3178 3178 3178 3149 3149 3149 3149 3120 3120 3120 3120 3120 3120 3120 3092 3092 3092 3092 3092 3092 3120 3092 3092 3092 3092 3092 3064 3064 3064 3064 3064 3064 3064 3064 3092 3064 3064 3064 3064 3064 3037 3037 3037 3064 3064 3064 3064 3064 3037 3037 3010 3010 3010 2984 2984 2984 3010 3010 3010 3010 3010 3010 3010 3010 3010 3010 3010 3037 3037 3064 3092 3149 3149 3178 3178 3208 3238 3269 3300 3300 3300 3365 3399 3399 3399 3433 3433 4089 4089 4089 4089 4089 4089 4089 4089 4089 4089 4089 4089 4089 4089 4089 4089 4089 4089 4089 4041 4041 4041 4041 4041 4041 4041 4041 4041 4089 4041 4041 5640 5640 5734 5734 5734 5734 5640 5640 5640 5734 5640 5640 5640 5640 5640 5640 5548 5548 5548 5548 5548 5548 5548 5548 5548 5548 5548 5548 5548 5548 5548 5548 5548 5548 5548 5548 5640 5640 5734 5734 5832 5933 5933 6038 6038 5933 5933 5933 5832 5640 5640 5640 5640 5640 5734 5734 5832 5933 6038 6038 6038 6038 0 0 0 0 0 0 0 0 0 0 0 0 0
0 0 0 0 0 0 0 0 0 0 0 0 0 0 0 0 0 0 0 0 0 0 0 0 0 0 0 0 0 0 0 0 0 2560 2560 2579 2579 2579 2598 2598 2598 2618 2618 2639 2639 2639 2639 2639 2639 2639 2639 2659 2659 2659 2659 2680 2680 2680 2701 2701 2701 2701 2701 2723 2723 2723 2723 2723 2723 2723 2723 2723 2744 2744 2767 2767 2767 2767 2767 2767 2767 2767 2767 2767 3238 3269 3269 3269 3300 3300 3333 3365 0 0 0 2859 2859 2859 2883 2883 2883 2908 2908 2933 2933 2933 2933 2958 2958 2958 2958 2958 2958 2958 2958 2958 2984 2984 2984 2984 3010 3010 3010 3010 3037 3037 3037 3064 3064 3064 3064 3092 3092 3092 3120 3120 3149 3149 3149 3178 3178 3178 3178 3178 3178 3178 3208 3208 3208 3208 3208 3208 3208 3208 3208 0 0 3365 3365 3365 3365 3365 3365 3399 3399 3399 3399 3399 3399 3399 3399 3399 3399 3399 3433 3433 3433 3433 3433 3433 3468 3468 3468 3503 3503 3503 3503 3539 3539 3539 3576 3576 3576 3576 3576 3614 3614 3614 3614 3614 3653 3653 3692 3692 3732 3732 3732 3774 3774 3774 0 0 0 0 0 0 0 0 0 0 0 0 0 0 0 0 5210 5291 5291 5291 5291 5291 5460 5832 0 0 5734 5734 5734 5734 5374 5374 5291 5291 5210 5210 5291 5291 5374 5548 5460 5460 5460 5460 5374 5374 5374 5374 5374 5374 5291 5291 5291 5291 5291 5291 5291 5291 5291 5210 5210 5210 5210 5210 5210 5210 5210 5210 5210 5132 5056 5056 5056 5056 5056 4983 4983 4983 5056 4983 4983 5056 5056 5056 5056 5056 5056 5056 4983 4983 4983 5056 5056 5056 5056 5056 5056 5132 5132 5132 5210 5210 5210 5291 5291 5291 5291 5291 5291 5291 5291 5291 5291 5210 5210 5210 5210 5210 5210 5210 5210 5210 5210 5210 5291 5291 5374 5374 5374 5460 5460 5460 5460 5460 5460 5548 5548 5460 5460 5460 5832 5832 5832 5832 5832 5832 5832 5933 5933 5933 5933 5933 5933 5933 5933 6038 6038 6038 6038 6038 6038 6038 6038 6038 6146 6146 6259 6259 6375 7030 7178 7332 7332 7332 7332 7332 7332 7178 7178 7178 7332 7332 7332 7332 7332 7332 7332 7332 7332 7332 7332 7332 7332 3399 3365 3365 3333 3333 3333 3333 3333 3300 3300 3300 3300 3300 3300 3300 3269 3238 3238 3238 3238 3269 3238 3238 3238 3238 3238 3238 3238 3208 3208 3208 3208 3208 3178 3178 3178 3178 3178 3178 3178 3178 3178 3178 3178 3178 3178 3178 3149 3149 3149 3149 3120 3120 3120 3120 3120 3120 3120 3092 3092 3092 3092 3092 3092 3120 3092 3092 3092 3092 3092 3064 3064 3064 3064 3064 3064 3092 3092 3092 3064 3064 3064 3064 3064 3037 3037 3037 3064 3064 3064 3064 3064 3064 3064 3010 3010 3010 2984 2984 2984 2984 2984 3010 3010 3010 3010 3010 3010 3010 3010 3010 3037 3064 3092 3149 3149 3149 3178 3178 3208 3208 3238 3269 3300 3300 3365 3399 3433 3433 3433 3433 4295 4089 4089 4089 4089 4089 4089 4089 4089 4089 4089 4089 4089 4041 4041 4041 4041 4041 4041 4041 4041 4041 4041 4041 4041 4041 4041 4041 4089 4041 4041 5640 5640 5734 5734 5734 5640 5640 5640 5640 5640 5640 5640 5640 5640 5640 5640 5548 5548 5548 5548 5548 5548 5548 5548 5548 5548 5548 5548 5548 5548 5548 5548 5548 5548 5548 5548 5640 5640 5734 5832 5832 5933 5933 6038 6038 5933 5933 5933 5832 5640 5640 5640 5640 5640 5734 5734 5832 5933 6038 6038 6038 6038 0 0 0 0 0 0 0 0 0 0 0 0 0
0 0 0 0 0 0 0 0 0 0 0 0 0 0 0 0 0 0 0 0 0 0 0 0 0 0 0 0 0 0 0 0 0 2579 2579 2579 2579 2598 2598 2598 2598 2618 2618 2618 2639 2639 2639 2639 2639 2639 2639 2659 2659 2659 2659 2680 2680 2701 2701 2701 2701 2701 2701 2723 2723 2723 2723 2723 2723 2723 2723 2723 2744 2767 2767 2767 2767 2767 2767 2767 2767 2767 2767 3208 3238 3269 3269 3269 3300 3300 3333 3333 3333 0 0 2859 2859 2859 2859 2883 2883 2908 2908 2933 2933 2933 2933 2958 2958 2958 2958 2958 2958 2958 2958 2958 2984 2984 2984 2984 3010 3010 3010 3010 3037 3037 3037 3064 3064 3064 3064 3092 3092 3092 3120 3120 3149 3149 3149 3178 3178 3178 3178 3208 3208 3208 3208 3208 3208 3208 3208 3208 3208 3208 3208 0 3365 3365 3365 3365 3365 3365 3365 3365 3399 3399 3399 3399 3399 3399 3399 3399 3399 3433 3433 3433 3433 3433 3433 3468 3468 3468 3468 3503 3503 3503 3539 3539 3539 3539 3576 3576 3576 3576 3576 3614 3614 3614 3653 3653 3653 3653 3692 3692 3732 3732 3732 3774 3774 3774 3816 0 0 0 0 0 0 0 0 0 0 0 0 0 5210 5210 5210 5291 5291 5291 5291 5460 0 0 5832 5832 5734 5734 5640 5640 5640 5640 5548 5548 5548 5548 5548 5548 5548 5548 5548 5640 5640 5640 5548 5460 5460 5460 5460 5374 5374 5548 5291 5291 5291 5291 5291 5291 5291 5291 5291 5291 5291 5291 5210 5210 5210 5210 5210 5210 5056 5056 5056 5056 5056 4983 4983 4983 4983 5056 4983 4983 5056 5056 5056 5056 5056 5056 5056 5056 5056 5056 5056 5056 5056 5056 5056 5132 5132 5132 5210 5210 5291 5291 5291 5291 5291 5291 5291 5291 5291 5291 5291 5210 5210 5210 5210 5210 5210 5210 5210 5291 5210 5210 5291 5291 5291 5374 5291 5291 5460 5460 5460 5460 5460 5460 5460 5460 5460 5460 5832 5832 5832 5832 5832 5832 5832 5832 5933 5933 5933 5933 5933 5933 5933 5933 5933 6038 6038 6038 6038 6038 6038 6038 6146 6146 6146 6146 6259 7178 7332 7332 7332 7332 7332 7178 7178 7178 7178 7178 7332 7332 7332 7332 7332 7332 7332 7332 7332 7332 7332 7332 7332 7332 3365 3333 3333 3333 3333 3333 3333 3300 3300 3300 3300 3300 3300 3300 3269 3269 3269 3269 3269 3238 3238 3238 3238 3238 3238 3238 3208 3208 3208 3208 3208 3208 3178 3178 3178 3178 3178 3178 3178 3178 3178 3178 3178 3178 3178 3178 3149 3149 3149 3149 3120 3120 3120 3120 3120 3120 3120 3092 3092 3092 3092 3092 3092 3120 3092 3092 3092 3092 3092 3092 3064 3064 3064 3064 3064 3064 3092 3092 3064 3064 3064 3064 3064 3037 3037 3037 3064 3064 3064 3064 3064 3064 3037 3010 3010 3010 2984 2984 2958 2958 2984 3010 3010 3010 3010 3010 3010 3010 3010 3010 3037 3064 3092 3149 3149 3149 3178 3178 3208 3208 3238 3269 3269 3300 3365 3399 3433 3433 3433 3433 4089 4089 4089 4089 4089 4089 4089 4139 4089 4089 4089 4089 4089 4041 4041 4041 4041 4041 4041 4041 4041 4041 4041 4041 4041 4041 4041 4041 4089 4089 4089 5734 5734 5734 5734 5734 5640 5640 5640 5640 5640 5640 5640 5640 5640 5640 5640 5548 5548 5548 5548 5548 5548 5548 5548 5548 5548 5548 5548 5548 5548 5548 5548 5548 5548 5548 5640 5640 5640 5734 5832 5832 5933 5933 6038 5933 5933 5933 5933 5832 5640 5640 5640 5640 5640 5734 5734 5832 5933 6038 6038 6038 6038 0 0 0 0 0 0 0 0 0 0 0 0 0
0 0 0 0 0 0 0 0 0 0 0 0 0 0 0 0 0 0 0 0 0 0 0 0 0 0 0 0 0 0 0 0 0 2579 2579 2579 2579 2598 2598 2598 2618 2618 2618 2618 2639 2639 2639 2639 2659 2659 2659 2659 2659 2659 2680 2680 2680 2701 2701 2701 2701 2701 2701 2723 2723 2723 2723 2723 2744 2744 2744 2744 2744 2767 2767 2767 2767 2767 2767 2767 2767 2767 2789 3238 3238 3269 3269 3269 3300 3300 3333 0 0 0 0 2859 2859 2859 2859 2883 2883 2908 2908 2933 2933 2958 2958 2958 2958 2958 2958 2958 2958 2958 2958 2958 2984 2984 2984 3010 3010 3010 3010 3010 3037 3037 3064 3064 3064 3064 3064 3092 3092 3120 3120 3149 3149 3149 3149 3178 3178 3178 3178 3208 3208 3208 3208 3208 3208 3208 3208 3208 3238 3238 3238 0 3365 3365 3365 3365 3365 3365 3365 3365 3399 3399 3399 3399 3399 3399 3399 3399 3399 3433 3433 3433 3433 3433 3433 3468 3468 3468 3468 3503 3503 3503 3539 3539 3539 3539 3576 3576 3576 3576 3614 3614 3614 3653 3653 3653 3653 3692 3692 3692 3732 3732 3732 3774 3774 3774 3816 0 0 0 0 0 0 0 0 0 0 0 0 5210 5210 5210 5210 5291 5291 5291 5460 5460 5548 5640 5832 5832 5832 5734 5640 5640 5640 5640 5640 5640 5548 5548 5640 5640 5640 5734 5734 5734 5832 5832 5832 5832 5832 5832 5832 5832 5933 6038 5933 5933 5933 5933 5374 5291 5291 5291 5291 5291 5291 5291 5291 6259 6259 6259 6375 6375 6375 5056 5056 5056 5056 4983 4983 4983 4983 5056 4983 4983 5056 5056 5056 5056 5056 5056 5056 5056 5056 5056 5056 5056 5056 5056 5056 5132 5132 6375 5291 5291 6375 5374 5374 5374 5374 5291 5291 5210 5210 5291 5291 5210 5210 5210 5210 5210 5210 5210 5291 5291 5291 5291 5291 5291 5291 5291 5291 5291 5460 5460 5460 5460 5460 5460 5460 5460 5460 5460 5933 5933 5832 5832 5832 5832 5832 5832 5933 5933 5933 5933 5933 5933 5933 5933 5933 6038 6038 6146 6038 6038 6146 6146 6146 6146 6146 6146 6259 7178 7332 7332 7332 7332 7332 7178 7178 7178 7178 7178 7332 7332 7332 7332 7332 7332 7332 7332 7332 7332 7332 7332 7332 7332 3333 3333 3333 3333 3333 3333 3333 3300 3300 3300 3300 3300 3300 3300 3269 3269 3269 3269 3269 3238 3238 3238 3238 3238 3238 3238 3208 3208 3208 3208 3208 3208 3178 3178 3178 3178 3178 3178 3178 3178 3178 3178 3178 3178 3178 3178 3149 3149 3149 3149 3149 3149 3149 3120 3120 3120 3120 3120 3120 3120 3120 3120 3120 3120 3092 3092 3092 3092 3092 3092 3064 3064 3064 3064 3064 3064 3092 3092 3092 3064 3064 3064 3064 3064 3064 3064 3064 3064 3064 3064 3064 3064 3037 3010 3010 3010 2984 2984 2958 2958 2984 3010 3010 3010 3010 3010 3037 3037 3037 3037 3037 3064 3092 3149 3149 3178 3178 3208 3238 3238 3238 3269 3269 3300 3399 3399 3433 3433 3433 3433 4089 4089 4089 4089 4089 4089 4089 4089 4089 4089 4089 4089 4041 4041 4041 4041 4041 4041 4041 4041 4041 4041 4041 4041 4041 4041 4089 4089 4089 4139 4139 5734 5734 5734 5734 5734 5640 5640 5640 5640 5640 5640 5640 5640 5640 5640 5640 5548 5548 5548 5548 5548 5548 5548 5548 5548 5548 5548 5548 5548 5548 5548 5548 5548 5548 5548 5548 5640 5640 5734 5734 5832 5832 5933 5933 5933 5933 5933 5832 5832 5734 5640 5640 5640 5640 5734 5832 5832 5933 6038 6038 6038 6038 0 0 0 0 0 0 0 0 0 0 0 0 0
0 0 0 0 0 0 0 0 0 0 0 0 0 0 0 0 0 0 0 0 0 0 0 0 0 0 0 0 0 0 0 0 0 2579 2579 2579 2579 2598 2598 2598 2618 2618 2618 2618 2639 2639 2639 2639 2639 2659 2659 2659 2659 2659 2680 2680 2701 2701 2701 2701 2701 2701 2701 2723 2723 2723 2723 2723 2744 2744 2744 2744 2767 2767 2767 2767 2767 2767 2767 2767 2767 2767 2789 3238 3238 3269 3269 3269 3300 3300 0 0 0 0 0 0 2859 2859 2859 2883 2908 2908 2908 2933 2933 2958 2958 2958 2958 2958 2958 2958 2958 2958 2958 2958 2984 2984 2984 3010 3010 3010 3010 3010 3037 3037 3064 3064 3064 3064 3064 3092 3092 3120 3120 3149 3149 3149 3149 3178 3178 3178 3208 3208 3208 3208 3208 3208 3208 3208 3208 3208 3238 3238 3238 3238 3365 3365 3365 3365 3365 3365 3365 3399 3399 3399 3399 3399 3399 3399 3399 3399 3399 3433 3433 3433 3433 3433 3433 3468 3468 3503 3503 3503 3539 3539 3539 3539 3539 3539 3576 3576 3576 3614 3614 3614 3614 3653 3653 3653 3653 3692 3692 3732 3732 3732 3732 3774 3774 3774 3816 3774 3774 0 0 0 0 0 0 0 0 0 0 5210 5210 5210 5291 5291 5291 5374 5460 5548 5548 5640 5734 5734 5734 5734 5640 5640 5640 5640 5640 5640 5640 5640 5640 5640 5734 5734 5734 5734 5832 5832 5832 5832 5832 5933 5933 5933 5933 6038 6038 5933 5933 5933 5933 5933 5933 6146 6146 6259 6259 6259 6259 6375 6375 6375 6375 6375 6375 6375 6497 6497 6497 6497 6497 4983 4983 5056 5056 5056 5056 5056 5056 5056 5056 5056 5056 5056 5056 5056 5056 5056 5056 5056 5056 5132 5210 6375 6375 6375 6375 6622 6622 5374 5291 5291 5210 5210 5210 5291 5291 5210 5210 5210 5210 5210 5210 5210 5291 5291 5291 5291 5291 5374 5291 5291 5291 5291 5291 5374 5374 5374 5460 5460 5548 5548 5548 0 5933 5933 5933 5933 5933 5933 5832 5832 5933 5933 5933 5933 5933 5933 5933 6038 6038 6038 6038 6146 6038 6038 6146 6146 6259 6146 6146 6259 6375 7178 7332 7332 7332 7332 7332 7178 7178 7178 7178 7332 7332 7332 7332 7332 7332 7332 7332 7332 7332 7332 7332 7332 7332 7332 3300 3300 3300 3333 3333 3333 3333 3300 3300 3300 3300 3300 3300 3300 3300 3269 3269 3269 3269 3269 3238 3238 3238 3238 3238 3238 3208 3208 3208 3208 3208 3208 3178 3178 3178 3178 3178 3178 3208 3178 3178 3178 3178 3178 3178 3178 3149 3149 3149 3149 3149 3149 3149 3149 3120 3120 3120 3120 3120 3120 3120 3120 3120 3120 3092 3092 3092 3092 3092 3092 3092 3064 3064 3064 3064 3092 3092 3092 3092 3064 3064 3064 3064 3064 3064 3064 3064 3064 3064 3064 3064 3064 3064 3010 3010 3010 2984 2984 2984 2984 2984 3010 3010 3010 3010 3010 3037 3037 3037 3037 3037 3064 3092 3149 3149 3178 3208 3238 3238 3238 3269 3269 3300 3300 3399 3399 3433 3433 3433 3468 4041 4041 4089 4089 4089 4089 4089 4089 4089 4089 4089 4089 4041 4041 4041 4041 4041 4041 4041 4041 4041 4041 4041 4041 4041 4041 4089 4089 4139 4139 4139 5734 5734 5734 5734 5734 5734 5734 5640 5640 5640 5640 5640 5640 5640 5640 5548 5548 5548 5548 5548 5548 5548 5548 5548 5548 5548 5548 5640 5548 5548 5548 5548 5548 5548 5548 5548 5640 5640 5640 5734 5832 5832 5933 5933 5933 5832 5832 5734 5734 5640 5548 5548 5548 5640 5734 5832 5832 5933 6038 6038 6038 6146 0 0 0 0 0 0 0 0 0 0 0 0 0
0 0 0 0 0 0 0 0 0 0 0 0 0 0 0 0 0 0 0 0 0 0 0 0 0 0 0 0 0 0 0 0 0 2579 2579 2579 2579 2598 2598 2618 2618 2618 2618 2618 2639 2639 2639 2639 2639 2659 2659 2659 2680 2680 2701 2701 2701 2701 2701 2701 2723 2723 2723 2723 2723 2723 2723 2744 2744 2744 2744 2744 2767 2767 2767 2767 2767 2789 2789 2789 2789 2789 2789 3238 3238 3269 3269 3269 3300 3300 0 0 0 3269 0 0 0 2835 2835 2883 2908 2908 2908 2933 2958 2958 2958 2958 2958 2958 2958 2958 2958 2958 2958 2958 2984 2984 2984 3010 3010 3010 3010 3010 3037 3037 3064 3064 3064 3064 3064 3092 3092 3120 3120 3149 3149 3149 3178 3178 3178 3178 3208 3208 3208 3208 3208 3208 3208 3208 3208 3208 3238 3238 3238 3238 3365 3365 3365 3365 3365 3365 3399 3399 3399 3399 3399 3399 3399 3399 3399 3399 3399 3433 3433 3433 3433 3433 3433 3468 3468 3503 3503 3539 3539 3539 3539 3539 3539 3576 3576 3576 3576 3614 3614 3614 3614 3653 3653 3653 3653 3692 3692 3732 3732 3732 3732 3774 3774 3774 3774 3774 3774 3859 3859 0 0 0 0 0 0 0 0 5291 5291 5291 5291 5374 5374 5460 5548 5548 5548 5640 5734 5734 5734 5734 5640 5640 5640 5640 5640 5640 5640 5640 5640 5734 5734 5734 5832 5832 5832 5832 5832 5832 5933 5933 5933 5933 5933 6038 6038 6038 5933 5933 5933 5933 0 0 6146 6146 6146 6259 6259 6375 6375 6375 6375 6375 6375 6375 6375 6375 6375 6375 6375 6375 6375 6375 6497 5056 5056 5056 5056 5056 5056 5056 5056 5056 5056 5056 5056 5056 5056 5132 6146 6146 6259 6259 6259 6259 6375 6375 6375 6497 5291 5291 5210 5210 5210 5291 5291 5210 5210 5210 5210 5210 5210 5210 5291 5291 5291 5291 5291 5374 5291 5291 5291 5291 5291 5291 5374 5374 5460 5460 0 2271 2271 2286 5832 5832 5832 5832 5933 5933 5832 5832 5933 5933 5933 5933 5933 5933 6038 6038 6038 6038 6146 6146 6146 6146 6146 6146 6259 6259 6259 6259 6375 7332 7332 7332 7332 7332 7178 7178 7178 7178 7178 7332 7332 7332 7332 7332 7332 7332 7332 7332 7332 7332 7332 7332 7332 7332 3300 3300 3300 3333 3333 3333 3333 3300 3300 3300 3300 3300 3300 3300 3300 3269 3269 3269 3269 3269 3269 3238 3238 3269 3238 3238 3208 3208 3208 3208 3208 3208 3208 3178 3178 3178 3178 3178 3208 3178 3178 3178 3178 3178 3178 3178 3149 3149 3149 3149 3149 3149 3120 3120 3120 3120 3120 3120 3120 3120 3120 3120 3120 3092 3092 3092 3092 3092 3092 3092 3092 3092 3092 3092 3092 3092 3092 3092 3092 3092 3064 3064 3064 3064 3064 3064 3064 3064 3064 3064 3064 3064 3064 3010 3010 3010 3010 2984 2984 2984 2984 3010 3010 3010 3037 3037 3037 3037 3037 3037 3037 3064 3064 3149 3178 3178 3208 3238 3238 3238 3269 3269 3300 3333 3433 3433 3433 3468 3468 4041 4041 4041 4089 4089 4089 4089 4089 4089 4089 4089 4089 4089 4041 4041 4041 4041 4041 4041 4041 4041 4041 4041 4041 4041 4089 4089 4089 4089 4139 4190 4190 5734 5734 5734 5734 5734 5734 5734 5734 5734 5734 5734 5734 5734 5734 5734 5548 5548 5640 5548 5548 5548 5548 5548 5548 5548 5548 5548 5640 5548 5548 5548 5548 5548 5548 5548 5548 5548 5640 5640 5734 5832 5832 5933 5933 5933 5832 5832 5734 5734 5640 5548 5548 5548 5640 5734 5734 5832 5933 6038 6038 6038 6038 0 0 0 0 0 0 0 0 0 0 0 0 0
0 0 0 0 0 0 0 0 0 0 0 0 0 0 0 0 0 0 0 0 0 0 0 0 0 0 0 0 0 0 0 0 0 2579 2579 2579 2579 2598 2598 2618 2618 2618 2618 2618 2639 2639 2639 2639 2639 2659 2659 2659 2680 2680 2701 2701 2701 2701 2701 2701 2723 2723 2723 2723 2723 2744 2744 2744 2767 2744 2744 2767 2767 2767 2767 2767 2767 2789 2789 2789 2789 2789 2789 3208 3238 3238 3238 3269 3269 3269 3269 3269 3269 3269 0 0 0 2835 2835 2883 2908 2908 2933 2933 2958 2958 2958 2958 2958 2958 2958 2958 2958 2958 2958 2958 2984 2984 2984 3010 3010 3010 3010 3037 3037 3037 3064 3064 3064 3064 3092 3092 3092 3120 3120 3149 3149 3178 3178 3178 3178 3178 3208 3208 3208 3208 3208 3208 3208 3208 3208 3238 3238 3238 3238 3238 3365 3365 3365 3399 3399 3399 3399 3399 3399 3399 3399 3399 3399 3399 3399 3399 3399 3433 3433 3433 3433 3433 3468 3468 3468 3503 3503 3539 3539 3539 3539 3539 3539 3576 3576 3576 3576 3614 3614 3614 3614 3614 3653 3653 3653 3692 3692 3732 3732 3732 3732 3774 3774 3774 3774 3816 3816 3859 3859 0 0 0 0 0 0 0 5374 5291 5291 5374 5374 5374 5460 5460 5548 5548 5640 5640 5734 5734 5734 5734 5640 5640 5640 5640 5640 5640 5640 5640 5734 5734 5734 5734 5832 5832 5832 5832 5832 5832 5933 5933 5933 5933 5933 6038 6038 6038 5933 5933 5933 5933 0 5933 6038 6038 6038 6146 6259 6259 6375 6375 6375 6375 6375 6375 6375 6375 6375 6375 6375 6375 6375 6375 6375 5056 5056 5056 5056 5056 5056 5056 5056 5056 5056 5056 5056 5056 5056 5291 6038 6038 6146 6146 6146 6146 6146 6259 6375 6375 5291 5291 5210 5210 5210 5291 5291 5210 5210 5210 5210 5210 5210 5210 5210 5291 5291 5291 5291 5374 5291 5291 5291 5291 5291 5291 5374 5374 2286 2286 2286 2271 2271 2286 2286 5832 5832 5832 5832 5933 5933 5933 5933 5933 5933 5933 5933 5933 6038 6038 6038 6146 6146 6146 6146 6146 6146 6146 6259 6259 6259 6259 6375 7332 7332 7332 7332 7332 7178 7178 7332 7332 7332 7332 7332 7332 7332 7332 7332 7332 7332 7492 7492 7332 7178 7178 7492 7492 3300 3300 3300 3333 3333 3333 3333 3300 3300 3300 3300 3300 3300 3300 3300 3300 3300 3300 3269 3269 3269 3269 3269 3269 3238 3208 3208 3208 3208 3208 3208 3208 3208 3208 3208 3208 3208 3208 3208 3208 3208 3178 3178 3178 3178 3178 3149 3149 3149 3149 3149 3149 3120 3120 3120 3120 3120 3120 3120 3120 3120 3120 3092 3092 3092 3092 3092 3092 3092 3092 3092 3092 3092 3092 3092 3092 3092 3092 3092 3092 3064 3064 3064 3064 3064 3064 3064 3064 3064 3064 3064 3064 3064 3010 3010 3010 3010 2984 2984 2984 2984 3010 3010 3010 3010 3010 3010 3010 3037 3037 3037 3064 3064 3149 3178 3178 3238 3238 3269 3269 3269 3300 3300 3333 3399 3433 3433 3468 3468 3503 4041 4089 4089 4089 4089 4089 4089 4089 4089 4089 4089 4089 4041 4041 4089 4041 4041 4041 4041 4041 4041 4041 4041 4041 4041 4041 4089 4089 4139 4139 4139 4139 5734 5734 5734 5734 5734 5734 5734 5734 5734 5734 5734 5734 5734 5734 5548 5548 5640 5640 5548 5548 5548 5548 5548 5548 5548 5548 5548 5548 5548 5548 5548 5548 5548 5548 5548 5548 5640 5640 5734 5734 5734 5832 5933 5832 5832 5734 5734 5734 5640 5640 5548 5548 5548 5640 5640 5640 5640 5734 5832 5933 5933 0 0 0 0 0 0 0 0 0 0 0 0 0
0 0 0 0 0 0 0 0 0 0 0 0 0 0 0 0 0 0 0 0 0 0 0 0 0 0 0 0 0 0 0 0 0 2579 2579 2579 2579 2598 2598 2618 2618 2618 2639 2639 2639 2639 2639 2639 2659 2659 2659 2680 2680 2680 2701 2701 2701 2701 2701 2701 2723 2723 2723 2723 2723 2744 2744 2744 2767 2744 2744 2767 2767 2767 2767 2789 2789 2789 2789 2789 2789 2789 2789 3208 3208 3238 3238 3238 3238 3238 3208 3208 3208 3208 3208 0 0 2835 2835 2883 2908 2933 2933 2933 2958 2958 2958 2958 2958 2958 2958 2958 2958 2958 2958 2984 2984 2984 3010 3010 3010 3010 3010 3010 3037 3037 3064 3064 3064 3064 3092 3092 3092 3120 3120 3149 3178 3178 3178 3178 3178 3208 3208 3208 3208 3208 3208 3208 3208 3208 3208 3238 3269 3300 3333 3333 3365 3365 3365 3399 3399 3399 3399 3399 3399 3399 3399 3399 3399 3399 3399 3399 3399 3433 3433 3433 3433 3433 3468 3468 3503 3503 3503 3539 3539 3539 3539 3539 3539 3576 3576 3576 3576 3614 3614 3614 3614 3614 3653 3653 3653 3692 3692 3732 3732 3732 3774 3774 3774 3774 3816 3816 3816 3859 3859 0 0 0 0 0 0 5374 5374 5374 5374 5374 5374 5374 5460 5548 5548 5548 5640 5640 5734 5734 5734 5734 5640 5640 5640 5640 5640 5640 5640 5640 5734 5734 5734 5734 5832 5832 5832 5832 5832 5832 5832 5933 5933 5933 5933 5933 5933 5933 5832 5832 5832 5832 5640 5933 5933 5933 5933 6038 6146 6259 6259 6375 6259 6259 6259 6259 6259 6259 6259 6259 6259 6259 6259 6259 6259 5132 5056 5056 5056 5056 5056 5056 5056 5056 5056 5056 5132 5132 5132 5291 6038 6038 6038 6146 6146 6146 6146 6146 6259 6259 5291 5291 5291 5210 5210 5291 5291 5210 5210 5210 5210 5210 5210 5210 5210 5291 5291 5291 5291 5291 5291 5291 5210 5210 5291 5291 2286 2286 2286 2286 2286 2271 2271 2286 2286 2286 2286 2286 2286 2286 2271 2271 2271 5933 5933 6038 6038 6038 2271 2271 6146 6146 6146 6146 6146 6146 6146 6146 6259 6259 6375 2241 2241 2256 2271 2271 7332 7332 7332 7332 7332 7332 7332 7492 7492 7332 7332 7332 7332 7332 7332 7332 7492 7178 7178 7178 7178 7178 3300 3300 3300 3333 3333 3333 3333 3300 3300 3300 3300 3300 3300 3300 3300 3300 3300 3300 3300 3269 3269 3269 3238 3238 3208 3208 3208 3208 3208 3208 3208 3208 3208 3208 3208 3208 3208 3208 3208 3208 3208 3208 3178 3178 3178 3178 3178 3149 3149 3149 3149 3149 3149 3149 3149 3149 3149 3120 3120 3120 3120 3120 3092 3092 3092 3092 3092 3092 3092 3092 3092 3092 3092 3092 3092 3092 3092 3064 3064 3064 3064 3064 3064 3064 3064 3064 3064 3064 3037 3037 3037 3064 3064 3037 3037 3010 3010 3010 3010 3010 3010 3010 3010 3010 3010 3010 3010 3010 3037 3037 3037 3064 3092 3149 3178 3178 3208 3238 3269 3269 3269 3300 3333 3365 3399 3433 3433 3468 3468 3503 4041 4089 4089 4089 4089 4089 4089 4089 4089 4089 4089 4089 4089 4089 4089 4041 4041 4041 4041 4041 4041 4041 4041 4041 4041 4041 4089 4089 4139 4139 4139 4139 5832 5734 5734 5734 5734 5734 5734 5734 5734 5734 5734 5734 5734 5734 5548 5548 5640 5640 5548 5548 5548 5548 5548 5548 5548 5548 5548 5548 5548 5548 5548 5548 5548 5548 5548 5548 5640 5640 5640 5734 5734 5734 5832 5832 5734 5734 5640 5640 5640 5640 5548 5548 5548 5548 5548 5548 5640 5640 5640 5734 5832 0 0 0 0 0 0 0 0 0 0 0 0 0
0 0 0 0 0 0 0 0 0 0 0 0 0 0 0 0 0 0 0 0 0 0 0 0 0 0 0 0 0 0 0 0 0 2598 2598 2598 2598 2598 2618 2618 2618 2618 2639 2639 2639 2639 2639 2659 2659 2680 2680 2680 2701 2701 2701 2701 2701 2701 2701 2701 2723 2723 2723 2723 2744 2744 2767 2767 2767 2744 2744 2767 2767 2767 2789 2789 2789 2789 2789 2789 2789 2789 2789 3208 3208 3238 3238 3238 3238 3208 3208 3208 3208 3208 3208 2958 2958 2883 2883 2883 2908 2933 2933 2933 2958 2958 2958 2958 2958 2958 2958 2958 2958 2984 2984 2984 2984 2984 3010 3010 3010 3010 3010 3010 3037 3037 3064 3064 3064 3064 3092 3092 3092 3120 3120 3149 3149 3178 3178 3178 3178 3208 3208 3208 3208 3208 3208 3208 3238 3238 3238 3269 3300 3333 3333 3333 3333 3365 3365 3399 3399 3399 3399 3399 3399 3399 3399 3399 3399 3399 3399 3399 3399 3433 3433 3433 3433 3433 3468 3468 3503 3503 3539 3539 3539 3539 3539 3539 3539 3576 3576 3576 3576 3614 3614 3614 3614 3614 3653 3653 3653 3692 3692 3732 3732 3732 3774 3774 3774 3774 3816 3816 3859 3859 3859 0 0 0 0 0 5291 5291 5374 5374 5374 5374 5460 5460 5460 5548 5548 5640 5640 5734 5734 5734 5832 5832 5734 5640 5640 5640 5640 5640 5640 5640 5734 5734 5734 5734 5832 5832 5832 5832 5832 5832 5832 5832 5832 5832 5832 5832 5832 5832 5734 5734 5640 5640 5640 5640 5640 5734 5832 5933 6038 6038 6146 6259 6146 6146 6259 6146 6146 6038 5933 5933 6038 6038 6146 6146 6146 6146 5056 5056 5056 5056 5056 5056 5056 5056 5056 5056 5132 5132 5132 5933 5933 5933 6038 6038 6038 6038 6038 6038 5933 5460 5374 5291 5291 5210 5210 5210 5291 5210 5210 5210 5210 5210 5210 5210 5210 5210 5210 5291 5291 5291 5291 5291 5210 5210 5210 2271 2271 2286 2286 2286 2286 2286 2286 2286 2286 2286 2286 2286 2286 2286 2271 2271 2271 2271 2271 2271 2256 2256 2256 2241 2241 2256 2256 6146 2256 2256 2271 2271 2271 2271 2271 2241 2241 2256 2256 2256 2241 2241 7332 7332 7332 7332 7492 7332 7332 7332 7332 7332 7332 7332 7332 7332 7332 7178 7178 7178 7178 7178 3333 3333 3333 3333 3333 3333 3333 3300 3300 3300 3300 3300 3300 3300 3300 3300 3300 3300 3269 3269 3269 3269 3238 3238 3208 3208 3208 3208 3208 3208 3208 3208 3208 3208 3208 3208 3208 3208 3208 3178 3178 3178 3178 3178 3178 3178 3178 3149 3149 3149 3149 3149 3149 3149 3149 3149 3149 3149 3149 3149 3120 3120 3120 3092 3092 3092 3092 3092 3092 3092 3092 3092 3092 3092 3092 3092 3064 3064 3064 3064 3064 3064 3064 3064 3064 3064 3064 3064 3037 3037 3037 3064 3064 3037 3037 3037 3037 3010 3010 3010 3010 3010 3010 3010 3010 3037 3037 3037 3037 3064 3064 3064 3092 3149 3178 3178 3208 3238 3269 3269 3300 3300 3333 3365 3399 3433 3433 3468 3468 3503 4041 4089 4089 4089 4089 4089 4089 4089 4089 4089 4089 4089 4089 4089 4089 4089 4089 4089 4089 4089 4089 4041 4041 4089 4089 4089 4139 4139 4190 4190 4190 4190 5832 5832 5832 5832 5832 5832 5832 5734 5734 5734 5734 5734 5734 5734 5548 5548 5548 5548 5548 5548 5548 5548 5548 5548 5548 5548 5548 5548 5548 5548 5548 5548 5548 5548 5548 5548 5640 5640 5640 5640 5640 5734 5734 5734 5734 5640 5640 5640 5640 5640 5548 5548 5548 5548 5548 5548 5640 5640 5640 5640 5640 0 0 0 0 0 0 0 0 0 0 0 0 0
0 0 0 0 0 0 0 0 0 0 0 0 0 0 0 0 0 0 0 0 0 0 0 0 0 0 0 0 0 0 0 0 0 2598 2598 2598 2598 2598 2618 2618 2618 2618 2639 2639 2639 2639 2639 2659 2659 2680 2680 2680 2701 2701 2701 2701 2701 2701 2701 2701 2723 2723 2723 2723 2744 2744 2744 2767 2767 2744 2744 2767 2767 2767 2789 2789 2789 2789 2789 2789 2789 2789 2789 2789 3208 3208 3208 3208 3208 3208 3208 3208 3208 3208 3208 2958 2958 2933 2883 2883 2908 2933 2933 2958 2958 2958 2958 2958 2958 2984 2984 2958 2958 2984 2984 2984 2984 3010 3010 3010 3010 3010 3010 3037 3037 3037 3064 3064 3064 3092 3092 3092 3092 3120 3120 3149 3149 3178 3178 3178 3178 3178 3208 3208 3208 3208 3208 3208 3238 3238 3238 3300 3300 3333 3333 3333 3333 3365 3365 3399 3399 3399 3399 3399 3399 3399 3399 3399 3399 3399 3399 3399 3399 3433 3433 3433 3433 3468 3468 3503 3503 3539 3539 3539 3539 3539 3539 3539 3539 3576 3576 3576 3576 3614 3614 3614 3614 3614 3653 3653 3653 3692 3692 3732 3732 3732 3774 3774 3774 3774 3816 3859 3859 3859 3859 0 0 0 0 0 5291 5291 5374 5374 5374 5374 5460 5460 5460 5548 5548 5548 5640 5640 5734 5734 5734 5734 5734 5640 5640 5640 5640 5640 5640 5640 5734 5734 5734 5734 5734 5832 5832 5734 5734 5734 5734 5734 5734 5734 5734 5734 5734 5734 5640 5640 5640 5640 5640 5640 5640 5734 5734 5832 5933 5933 5933 6038 6038 6038 6038 6038 6038 6038 5933 5933 6038 6038 6038 6038 6038 5291 5132 5056 5056 5056 5056 5056 5056 5056 5056 5056 5132 5210 5291 5832 5832 5832 5933 5933 5933 5933 5933 5933 5832 5460 5291 5291 5291 5210 5210 5210 5291 5210 5210 5210 5210 5210 5210 5210 5210 5210 5210 5291 5291 5291 5291 5291 5291 5291 2271 2271 2271 2286 2286 2286 2286 2286 2286 2286 2286 2286 2286 2286 2286 2286 2286 2271 2271 2271 2271 2271 2256 2256 2256 2241 2241 2256 2256 2256 2256 2256 2256 2271 2271 2271 2271 2256 2256 2256 2256 2241 2241 2241 7492 7332 7332 7492 2226 2226 2226 7332 2212 2212 2226 7332 7332 7332 7332 7332 7178 7178 7332 7332 3333 3333 3333 3333 3333 3333 3333 3300 3269 3269 3269 3300 3300 3300 3300 3300 3300 3300 3269 3269 3269 3269 3269 3269 3269 3208 3208 3208 3208 3208 3208 3208 3208 3208 3208 3208 3208 3208 3208 3178 3178 3178 3178 3178 3178 3178 3178 3178 3178 3178 3149 3149 3149 3149 3149 3149 3149 3149 3149 3149 3120 3120 3120 3092 3092 3092 3092 3092 3092 3092 3092 3092 3092 3092 3092 3092 3064 3064 3064 3064 3064 3064 3064 3064 3064 3037 3037 3037 3037 3037 3037 3037 3064 3037 3037 3037 3037 3037 3037 3037 3037 3037 3037 3037 3037 3037 3037 3037 3064 3064 3064 3092 3120 3149 3149 3178 3238 3238 3269 3269 3300 3300 3333 3365 3399 3433 3433 3468 3468 4041 4041 4089 4089 4089 4089 4089 4089 4089 4089 4089 4089 4089 4089 4089 4089 4089 4089 4089 4089 4089 4089 4089 4089 4089 4089 4089 4139 4190 4190 4190 4139 4139 5832 5832 5832 5832 5832 5832 5832 5832 5832 5734 5734 5734 5734 5734 5548 5548 5548 5548 5548 5548 5548 5548 5548 5548 5548 5548 5548 5548 5548 5548 5548 5548 5548 5548 5548 5548 5640 5640 5640 5640 5640 5640 5640 5640 5640 5640 5640 5640 5640 5548 5548 5548 5548 5640 5548 5548 5640 5640 5640 5548 5548 0 0 0 0 0 0 0 0 0 0 0 0 0
0 0 0 0 0 0 0 0 0 0 0 0 0 0 0 0 0 0 0 0 0 0 0 0 0 0 0 0 0 0 0 0 0 2598 2598 2598 2598 2598 2618 2618 2618 2618 2639 2639 2639 2639 2639 2659 2659 2680 2680 2701 2701 2701 2701 2701 2701 2701 2701 2701 2723 2723 2723 2723 2744 2744 2744 2767 2767 2744 2744 2767 2767 2767 2789 2789 2789 2789 2789 2789 2789 2789 2789 2789 3208 3208 3208 3208 3208 3208 3208 3208 3208 3208 3208 2958 2958 2933 2908 2908 2933 2933 2933 2958 2958 2958 2958 2984 2984 2984 2984 2984 2984 2984 2984 2984 3010 3037 3037 3037 3037 3037 3037 3064 3064 3064 3064 3092 3092 3092 3092 3092 3092 3120 3120 3149 3149 3178 3178 3178 3178 3178 3208 3208 3208 3208 3208 3208 3238 3238 3269 3300 3300 3333 3333 3333 3365 3365 3365 3399 3399 3399 3399 3399 3399 3399 3399 3399 3399 3399 3399 3399 3399 3433 3433 3433 3433 3468 3468 3503 3539 3539 3539 3539 3539 3539 3576 3576 3576 3576 3576 3576 3614 3614 3653 3614 3614 3653 3653 3692 3692 3692 3692 3732 3732 3732 3774 3774 3774 3774 3816 3816 3859 3859 3859 0 0 0 0 0 0 5374 5374 5374 5374 5374 5460 5460 5460 5460 5548 5548 5640 5640 5734 5734 5734 5734 5734 5640 5640 5640 5640 5640 5734 5734 5734 5734 5734 5734 5734 5734 5734 5734 5734 5640 5640 5640 5640 5640 5640 5640 5548 5548 5548 5548 5640 5640 5640 5640 5640 5640 5640 5734 5734 5734 5734 5734 5832 5832 5832 5832 5832 5832 5832 5832 5832 5933 5933 5933 5933 5291 5132 5056 5056 5056 5056 5056 5056 5056 5056 5132 5132 5210 5291 5734 5734 5832 5832 5933 5933 5933 5933 5933 5548 5460 5291 5291 5291 5210 5210 5291 5291 5210 5210 5210 5210 5210 5210 5210 5291 5291 5291 5291 5291 5291 5374 5374 5374 2301 2286 2286 2286 2286 2286 2286 2286 2286 2286 2286 2286 2286 2286 2286 2286 2286 2286 2271 2271 2286 2286 2286 2271 2271 2271 2271 2271 2271 2256 2256 2256 2256 2256 2271 2271 2271 2256 2256 2256 2256 2256 2241 2241 2241 2226 2226 7332 2198 2198 2226 2226 2212 2212 2212 2226 2226 2212 2212 2226 7332 7332 7332 7332 7332 3399 3333 3333 3333 3333 3333 3333 3300 3269 3269 3269 2156 2156 3300 3300 3300 3300 3300 3300 3300 3269 3269 3269 3269 3269 3208 3208 3208 3208 3208 3208 3208 3208 3208 3208 3208 3208 3208 3208 3178 3178 3208 3208 3208 3178 3178 3178 3178 3178 3178 3178 3149 3149 3149 3149 3149 3149 3149 3149 3149 3120 3120 3120 3120 3092 3092 3092 3092 3092 3092 3092 3092 3092 3092 3092 3092 3092 3092 3064 3064 3064 3064 3064 3064 3064 3037 3037 3037 3037 3037 3037 3037 3064 3037 3037 3037 3037 3037 3037 3037 3037 3037 3037 3037 3037 3037 3037 3064 3064 3092 3092 3092 3120 3149 3149 3178 3208 3238 3269 3269 3300 3300 3333 3365 3399 3433 3468 3468 3503 4041 4041 4089 4089 4089 4089 4089 4089 4089 4089 4089 4089 4089 4089 4089 4089 4089 4089 4089 4089 4089 4089 4089 4089 4089 4089 4089 4139 4139 4190 4190 3948 3948 5832 5832 5832 5832 5832 5832 5832 5832 5832 5734 5734 5734 5734 5640 5548 5548 5548 5548 5548 5548 5548 5548 5548 5548 5548 5548 5548 5548 5548 5460 5460 5548 5548 5548 5548 5548 5640 5640 5640 5640 5640 5640 5640 5640 5640 5640 5640 5640 5640 5548 5548 5548 5548 5548 5548 5548 5548 5640 5640 5548 5548 0 0 0 0 0 0 0 0 0 0 0 0 0
0 0 0 0 0 0 0 0 0 0 0 0 0 0 0 0 0 0 0 0 0 0 0 0 0 0 0 0 0 0 0 0 0 2598 2598 2598 2598 2598 2618 2618 2618 2639 2639 2639 2639 2639 2659 2659 2659 2701 2701 2701 2701 2701 2701 2701 2701 2701 2723 2723 2723 2723 2723 2723 2744 2744 2767 2767 2767 2767 2767 2767 2767 2789 2789 2789 2789 2789 2789 2789 2789 2789 2789 2789 3208 3208 3208 3208 3208 3208 3208 3208 3208 3208 3208 2958 2958 2958 2933 2933 2933 2933 2933 2958 2958 2958 2958 2984 2984 2984 2984 2984 2984 2984 2984 2984 3010 3037 3037 3037 3064 3064 3064 3064 3064 3064 3092 3092 3092 3092 3092 3092 3092 3120 3120 3149 3149 3178 3178 3178 3178 3208 3208 3208 3208 3208 3208 3208 3238 3238 3269 3300 3333 3333 3333 3333 3333 3365 3399 3399 3399 3399 3399 3399 3399 3399 3399 3399 3399 3399 3399 3399 3399 3433 3433 3433 3433 3468 3503 3503 3503 3539 3539 3539 3539 3539 3576 3576 3576 3576 3576 3614 3614 3653 3653 3653 3653 3653 3653 3692 3692 3692 3732 3732 3732 3732 3774 3774 3774 3774 3816 3816 3859 3859 0 0 0 0 0 0 0 0 5374 5374 5374 5460 5460 5460 5460 5460 5548 5548 5640 5640 5640 5734 5734 5734 5640 5640 5640 5640 5640 5640 5734 5734 5734 5734 5734 5734 5734 5734 5734 5734 5734 5640 5640 5640 5640 5640 5640 5548 5548 5548 5548 5548 5640 5640 5640 5640 5640 5640 5640 5734 5734 5734 5734 5734 5734 5734 5734 5734 5734 5832 5832 5734 5734 5832 5832 5832 5640 5291 5132 5132 5056 5056 5056 5056 5056 5056 5056 5132 5210 5291 5374 5640 5640 5734 5734 5832 5832 5832 5832 5832 5460 5374 5291 5291 5291 5210 5210 5291 5291 5210 5210 5210 5210 5210 5291 5291 5291 5291 5291 5291 5374 5374 5374 5374 5374 2301 2301 2301 2286 2286 2286 2286 2286 2286 2286 2286 2286 2286 2301 2286 2286 2286 2286 2286 2286 2286 2286 2286 2271 2271 2271 2271 2271 2271 2271 2271 2271 2271 2271 2271 2271 2271 2256 2256 2256 2256 2271 2271 2271 2241 2226 2226 2212 2198 2198 2226 2226 2212 2212 2212 2212 2212 2212 2212 2212 2212 2226 2226 2226 2226 2226 2226 2226 3333 3333 3333 2198 2198 2170 2156 2156 2156 2156 2156 2156 3300 3300 3300 3269 3269 3269 3269 3269 3269 3269 3269 3269 3208 3208 3238 3208 3208 3208 3208 3208 3208 3208 3208 3208 3178 3178 3208 3208 3208 3178 3178 3178 3178 3178 3178 3178 3149 3149 3149 3149 3149 3149 3149 3149 3149 3120 3120 3120 3120 3092 3092 3092 3092 3092 3092 3092 3092 3092 3092 3092 3092 3092 3092 3064 3064 3064 3064 3064 3064 3064 3037 3037 3037 3037 3037 3037 3037 3064 3037 3037 3037 3037 3037 3010 3010 3010 3010 3037 3037 3037 3037 3037 3064 3064 3092 3092 3149 3149 3149 3149 3178 3208 3208 3269 3269 3300 3333 3365 3365 3433 3433 3468 3468 3503 4041 4041 4089 4089 4089 4089 4089 4089 4089 4089 4089 4089 4089 4089 4089 4089 4089 4089 4089 4089 4089 4089 4089 4089 4089 4089 4089 4089 4139 4139 4139 3948 3948 5832 5832 5832 5832 5832 5832 5832 5734 5734 5734 5734 5734 5640 5640 5548 5548 5548 5548 5548 5548 5548 5548 5548 5548 5548 5548 5548 5548 5548 5460 5460 5548 5548 5548 5640 5640 5640 5734 5734 5734 5734 5734 5734 5734 5734 5640 5640 5640 5640 5548 5548 5548 5548 5548 5548 5548 5548 5548 5548 5548 5548 0 0 0 0 0 0 0 0 0 0 0 0 0
0 0 0 0 0 0 0 0 0 0 0 0 0 0 0 0 0 0 0 0 0 0 0 0 0 0 0 0 0 0 0 0 0 2598 2598 2598 2598 2598 2618 2618 2618 2639 2639 2639 2639 2639 2659 2680 2680 2701 2701 2701 2701 2701 2701 2701 2701 2723 2723 2723 2723 2723 2723 2723 2744 2744 2767 2767 2767 2767 2767 2767 2767 2789 2789 2789 2789 2789 2789 2789 2789 2789 2789 2789 3178 3178 3178 3178 3208 3208 3208 3208 3208 3208 2984 2958 2958 2958 2933 2933 2933 2933 2958 2958 2958 2958 2958 2984 2984 2984 2984 2984 2984 2984 2984 2984 3037 3037 3064 3064 3064 3064 3064 3064 3064 3092 3092 3092 3092 3092 3092 3120 3120 3120 3149 3178 3178 3178 3178 3208 3208 3208 3208 3208 3208 3208 3238 3238 3269 3269 3300 3333 3333 3333 3333 3333 3333 3365 3399 3399 3399 3399 3399 3399 3399 3399 3399 3399 3399 3399 3399 3433 3433 3433 3433 3433 3433 3468 3503 3503 3503 3539 3539 3539 3539 3539 3576 3576 3576 3576 3576 3614 3614 3653 3653 3692 3692 3692 3692 3692 3692 3692 3732 3732 3732 3732 3774 3774 3774 3774 3816 3816 3859 3859 0 0 0 0 0 0 0 0 5374 5374 5374 5460 5460 5460 5460 5460 5548 5548 5640 5640 5640 5734 5734 5734 5640 5640 5640 5640 5640 5640 5734 5734 5734 5640 5640 5640 5640 5640 5640 5640 5640 5640 5640 5548 5548 5548 5548 5548 5548 5548 5548 5548 5640 5640 5640 5640 5640 5640 5640 5640 5640 5640 5640 5640 5640 5640 5640 5640 5640 5734 5640 5640 5640 5734 5734 5640 5548 5291 5210 5132 5056 5056 5056 5056 5056 5056 5132 5132 5210 5291 5460 5548 5640 5640 5640 5734 5734 5734 5640 5640 5460 5374 5291 5291 5291 5210 5210 5291 5291 5210 5210 5210 5210 5210 5291 5291 5291 5291 5291 5291 5374 5374 5374 5374 5374 2301 2301 2301 2286 2286 2286 2286 2286 2286 2286 2286 2286 2286 2286 2286 2286 2286 2286 2286 2286 2286 2286 2271 2271 2271 2271 2271 2271 2271 2271 2271 2271 2271 2271 2271 2271 2271 2271 2271 2271 2271 2271 2271 2271 2241 2241 2241 2212 2212 2226 2226 2226 2212 2212 2212 2212 2212 2212 2212 2212 2212 2226 2226 2226 2226 2226 2212 2198 2198 2184 2184 2184 2170 2170 2156 2156 2156 2156 2156 2156 2156 2156 2184 2198 3269 3269 3269 3269 3269 3269 3269 3269 3238 3238 3238 3208 3208 3208 3208 3208 3208 3208 3178 3178 3178 3178 3178 3208 3208 3208 3178 3178 3178 3178 3178 3178 3178 3178 3178 3178 3149 3149 3149 3149 3149 3120 3120 3120 3120 3092 3092 3092 3092 3092 3092 3092 3092 3092 3092 3092 3092 3092 3092 3064 3064 3064 3064 3064 3064 3064 3064 3064 3064 3064 3064 3064 3064 3064 3037 3037 3037 3037 3037 3010 3010 3010 3010 3037 3037 3037 3037 3064 3064 3092 3120 3120 3149 3149 3149 3149 3178 3208 3208 3269 3300 3300 3365 3365 3399 3433 3468 3468 3503 3503 4041 4041 4089 4089 4089 4089 4089 4089 4089 4089 4089 4089 4089 4089 4089 4089 4089 4089 4089 4089 4089 4089 4089 4089 4089 4089 4089 4089 4139 4139 4139 3948 3948 5734 5734 5734 5832 5832 5832 5734 5734 5734 5734 5640 5640 5640 5640 5548 5548 5548 5548 5548 5548 5548 5548 5548 5548 5548 5548 5548 5548 5548 5460 5460 5548 5548 5640 5640 5640 5734 5832 5832 5832 5832 5832 5832 5832 5832 5832 5734 5734 5640 5640 5640 5548 5548 5548 5548 5548 5548 5548 5548 5548 5548 0 0 0 0 0 0 0 0 0 0 0 0 0
0 0 0 0 0 0 0 0 0 0 0 0 0 0 0 0 0 0 0 0 0 0 0 0 0 0 0 0 0 0 0 0 0 2598 2598 2598 2598 2618 2618 2618 2639 2639 2639 2659 2659 2659 2680 2680 2680 2701 2701 2701 2701 2701 2701 2701 2701 2723 2723 2723 2723 2723 2723 2723 2744 2744 2767 2767 2767 2767 2767 2767 2767 2789 2789 2789 2789 2789 2789 2789 2789 2789 2812 2812 2859 3178 3178 3178 3178 3178 3178 3178 3208 3208 2958 2958 2958 2958 2958 2958 2958 2958 2958 2958 2958 2958 2958 2984 2984 2984 2984 2984 3010 3010 3010 3010 3037 3037 3064 3064 3064 3064 3064 3064 3064 3092 3092 3092 3092 3092 3092 3120 3149 3149 3149 3178 3178 3178 3178 3208 3208 3208 3208 3208 3208 3238 3238 3269 3269 3300 3300 3333 3333 3333 3333 3333 3333 3365 3399 3399 3399 3399 3399 3399 3399 3399 3399 3399 3399 3399 3399 3399 3433 3433 3433 3433 3468 3468 3503 3503 3539 3539 3539 3539 3539 3539 3576 3576 3576 3576 3576 3614 3653 3653 3692 3692 3692 3692 3692 3692 3692 3692 3732 3732 3732 3732 3774 3774 3774 3774 3816 3859 3816 3816 0 0 0 0 0 0 0 0 5374 5374 5374 5460 5460 5460 5460 5460 5548 5548 5640 5640 5640 5734 5734 5734 5640 5640 5640 5640 5640 5640 5640 5640 5640 5640 5640 5640 5640 5640 5640 5640 5640 5640 5640 5548 5548 5548 5548 5548 5548 5548 5548 5548 5548 5548 5640 5640 5640 5640 5640 5640 5640 5640 5640 5640 5640 5640 5640 5640 5640 5640 5640 5640 5640 5640 5640 5548 5460 5291 5210 5132 5056 5056 5056 5056 5056 5056 5132 5132 5210 5291 5460 5548 5548 5548 5640 5640 5640 5640 5640 5548 5374 5291 5291 5291 5291 5210 5210 5291 5291 5210 5210 5210 5210 5291 5291 5291 5291 5291 5291 5374 5374 5374 5374 5374 0 2286 2286 2286 2301 2286 2286 2286 2286 2286 2286 2286 2286 2286 2286 2286 2286 2286 2286 2286 2286 2286 2286 2271 2271 2271 2271 2271 2271 2271 2271 2271 2271 2271 2271 2271 2271 2271 2271 2271 2271 2271 2256 2256 2256 2256 2241 2241 2226 2226 2226 2226 2226 2226 2212 2212 2226 2212 2212 2212 2226 2226 2226 2226 2226 2226 2226 2212 2198 2198 2184 2184 2184 2170 2170 2156 2156 2156 2156 2156 2156 2156 2156 2184 2198 3269 3269 3269 3269 3269 3269 3269 3269 3269 3238 3238 3238 3238 3208 3208 3208 3208 3208 3178 3178 3178 3178 3178 3178 3208 3208 3178 3178 3178 3178 3178 3178 3178 3178 3178 3178 3178 3149 3149 3149 3149 3149 3120 3120 3120 3092 3092 3092 3092 3092 3092 3092 3092 3092 3092 3092 3092 3092 3092 3064 3064 3064 3064 3064 3064 3064 3064 3064 3064 3064 3064 3064 3064 3064 3037 3037 3037 3037 3037 3037 3037 3037 3037 3037 3037 3037 3064 3064 3092 3120 3120 3120 3149 3149 3149 3178 3208 3238 3238 3269 3300 3365 3399 3399 3399 3433 3468 3468 3503 3503 4041 4041 4089 4089 4089 4089 4089 4139 4089 4089 4089 4089 4089 4089 4089 4089 4089 4089 4089 4089 4089 4089 4089 4089 4089 4089 4089 4089 4139 4190 4190 5734 5734 5734 5734 5734 5734 5734 5734 5734 5640 5640 5640 5640 5640 5640 5640 5548 5548 5548 5548 5548 5548 5548 5548 5548 5548 5548 5548 5548 5548 5548 5460 5460 5548 5548 5640 5832 5832 5832 5832 5832 5933 5832 5832 5832 5832 5933 5832 5734 5734 5640 5640 5640 5548 5548 5548 5548 5548 5548 5548 5548 5548 5548 0 0 0 0 0 0 0 0 0 0 0 0 0
0 0 0 0 0 0 0 0 0 0 0 0 0 0 0 0 0 0 0 0 0 0 0 0 0 0 0 0 0 0 0 0 0 2598 2598 2598 2598 2618 2618 2618 2639 2659 2659 2659 2659 2680 2680 2680 2680 2701 2701 2701 2701 2701 2701 2701 2701 2723 2723 2723 2723 2723 2723 2723 2744 2744 2767 2767 2767 2767 2767 2767 2767 2789 2789 2789 2789 2789 2789 2812 2812 2812 2835 2835 2859 3178 3149 3149 3178 3178 3178 3178 2958 2958 2933 2933 2958 2958 2958 2958 2958 2958 2958 2958 2958 2958 2958 2984 2984 2984 2984 2984 2984 3010 3010 3010 3037 3064 3064 3064 3064 3064 3064 3092 3092 3092 3092 3092 3092 3092 3120 3149 3149 3149 3178 3178 3178 3178 3178 3208 3208 3208 3208 3208 3208 3238 3238 3269 3269 3300 3300 3333 3333 3333 3333 3333 3333 3365 3399 3399 3399 3399 3399 3433 3433 3433 3399 3399 3399 3399 3399 3399 3433 3433 3433 3433 3468 3468 3503 3503 3539 3539 3539 3539 3576 3576 3576 3576 3576 3576 3614 3614 3653 3692 3692 3692 3692 3692 3692 3692 3692 3692 3732 3732 3732 3732 3774 3774 3774 3816 3859 3859 3816 3816 0 0 0 0 0 0 0 0 5374 5374 5374 5460 5460 5460 5460 5460 5548 5548 5640 5640 5640 5734 5734 5734 5640 5640 5640 5640 5640 5640 5640 5640 5640 5640 5640 5640 5640 5640 5640 5640 5640 5640 5548 5548 5548 5548 5548 5548 5548 5548 5548 5548 5548 5548 5548 5548 5548 5548 5548 5548 5548 5548 5548 5548 5548 5548 5548 5548 5548 5640 5548 5548 5548 5548 5548 5460 5374 5291 5210 5210 5132 5132 5132 5056 5056 5056 5056 5132 5210 5291 5374 5548 5548 5548 5548 5548 5548 5548 5548 5460 5374 5291 5291 5291 5210 5210 5291 5291 5291 5210 5210 5210 5291 5291 5291 5291 5291 5374 5374 5374 5374 5374 5460 5460 0 2286 2286 2286 2286 2286 2286 2286 2286 2286 2286 2286 2286 2286 2286 2286 2286 2286 2286 2286 2286 2286 2286 2286 2271 2271 2271 2271 2271 2271 2271 2271 2271 2271 2271 2271 2271 2271 2271 2271 2271 2271 2256 2256 2256 2256 2241 2241 2226 2226 2226 2226 2226 2226 2226 2226 2226 2226 2226 2226 2226 2226 2226 2212 2212 2212 2212 2212 2198 2198 2184 2184 2184 2170 2170 2156 2156 2156 2156 2156 2156 2156 2156 2184 2198 3300 3269 3269 3269 3269 3269 3269 3269 3238 3238 3269 3238 3238 3238 3238 3208 3208 3208 3208 3208 3178 3178 3178 3178 3208 3178 3178 3178 3178 3178 3178 3178 3178 3178 3178 3178 3178 3178 3178 3149 3149 3149 3120 3120 3120 3092 3092 3092 3092 3092 3092 3092 3092 3092 3092 3092 3092 3092 3092 3092 3092 3064 3064 3064 3064 3064 3064 3064 3064 3064 3064 3064 3064 3064 3037 3037 3037 3037 3037 3037 3037 3037 3037 3037 3037 3037 3064 3064 3092 3120 3149 3149 3149 3178 3178 3208 3208 3269 3269 3300 3333 3365 3365 3399 3399 3433 3468 3503 3503 3539 4041 4041 4089 4089 4089 4089 4139 4139 4139 4139 4139 4139 4089 4089 4089 4089 4089 4089 4089 4089 4089 4089 4089 4089 4041 4041 4089 4089 4139 4190 4190 5734 5734 5832 5734 5734 5734 5640 5640 5640 5548 5548 5548 5640 5640 5640 5640 5548 5548 5548 5548 5548 5548 5548 5548 5548 5548 5548 5548 5548 5548 5548 5548 5548 5548 5640 5640 5832 5832 5832 5832 5832 5933 5933 5933 5933 5933 5933 5933 5832 5832 5734 5640 5640 5548 5548 5640 5640 5640 5640 5640 5640 5640 5640 0 0 0 0 0 0 0 0 0 0 0 0 0
0 0 0 0 0 0 0 0 0 0 0 0 0 0 0 0 0 0 0 0 0 0 0 0 0 0 0 0 0 0 0 0 0 2598 2598 2598 2598 2618 2618 2618 2639 2659 2659 2659 2659 2659 2659 2680 2680 2701 2701 2701 2701 2701 2701 2701 2723 2723 2723 2723 2723 2723 2723 2723 2744 2744 2767 2767 2789 2767 2767 2767 2767 2789 2789 2789 2789 2789 2812 2812 2812 2812 2835 2859 2859 2859 3149 3149 3178 3178 2958 2958 2958 2958 2933 2933 2933 2958 2958 2958 2958 2958 2958 2958 2958 2958 2958 2984 2984 2984 2984 2984 2984 3010 3010 3010 3064 3064 3064 3064 3064 3064 3064 3064 3092 3092 3092 3092 3092 3120 3120 3149 3149 3149 3178 3178 3178 3178 3178 3208 3208 3208 3208 3208 3208 3238 3238 3269 3269 3300 3300 3333 3333 3333 3333 3333 3333 3365 3399 3399 3399 3399 3399 3433 3433 3433 3433 3399 3399 3433 3433 3433 3433 3433 3433 3468 3468 3503 3503 3539 3539 3539 3539 3539 3576 3576 3576 3576 3576 3614 3614 3653 3653 3692 3692 3692 3692 3692 3692 3692 3692 3732 3732 3732 3732 3732 3774 3774 3816 3859 3859 3859 3859 3816 3816 0 0 0 0 0 0 0 0 5374 5374 5460 5460 5460 5460 5460 5548 5548 5640 5640 5640 5640 5640 5734 5640 5640 5640 5640 5640 5640 5640 5640 5640 5640 5640 5640 5640 5640 5640 5640 5640 5548 5548 5548 5548 5548 5548 5548 5548 5548 5548 5548 5548 5548 5548 5548 5548 5548 5548 5548 5548 5548 5548 5548 5548 5548 5548 5548 5548 5548 5548 5548 5548 5460 5460 5374 5374 5291 5210 5210 5132 5132 5132 5056 5056 5056 5056 5132 5210 5291 5374 5548 5548 5548 5548 5548 5548 5548 5460 5374 5291 5291 5291 5291 5210 5210 5210 5291 5291 5210 5210 5210 5291 5291 5291 5291 5291 5374 5374 5374 5374 5374 5460 5460 0 2286 2286 2286 2286 2286 2286 2286 2286 2286 2286 2286 2286 2286 2286 2286 2286 2286 2286 2286 2286 2286 2286 2286 2271 2271 2271 2271 2271 2271 2271 2271 2271 2271 2271 2271 2271 2271 2271 2256 2256 2256 2256 2256 2256 2256 2241 2241 2226 2226 2226 2226 2226 2226 2226 2226 2226 2226 2226 2226 2226 2226 2212 2212 2212 2212 2212 2198 2184 2184 2184 2184 2184 2170 2170 2156 2156 2156 2156 2156 2156 2156 2156 2184 2184 3300 3300 3300 3269 3269 3269 3269 3269 3238 3238 3269 3238 3238 3238 3238 3238 3208 3208 3208 3208 3208 3208 3178 3178 3178 3178 3178 3178 3178 3178 3178 3178 3178 3178 3178 3178 3178 3178 3178 3149 3149 3149 3120 3120 3120 3120 3120 3120 3120 3120 3120 3120 3120 3120 3120 3120 3120 3120 3092 3092 3092 3092 3064 3064 1993 1993 2016 3064 3064 3064 3064 3064 3064 3064 3037 3037 3037 3037 3037 3037 3037 3037 3037 3037 3037 3064 3064 3064 3092 3120 3149 3149 3149 3178 3178 3208 3238 3269 3269 3300 3333 3365 3365 3399 3399 3468 3503 3503 3539 3539 3576 4089 4089 4089 4089 4139 4139 4139 4139 4139 4139 4139 4089 4089 4089 4089 4089 4089 4089 4089 4089 4089 4089 4089 4041 4041 4089 4089 4139 4190 4190 5734 5734 5734 5640 5640 5640 5548 5548 5548 5548 5548 5548 5548 5548 5640 5640 5548 5548 5548 5548 5548 5548 5548 5548 5548 5548 5548 5548 5548 5548 5548 5548 5548 5640 5640 5734 5832 5933 5933 5933 5933 5933 5933 5933 5933 5933 5933 5933 5933 5933 5933 5734 5640 5640 5640 5640 5734 5734 5734 5734 5734 5640 5640 0 0 0 0 0 0 0 0 0 0 0 0 0
0 0 0 0 0 0 0 0 0 0 0 0 0 0 0 0 0 0 0 0 0 0 0 0 0 0 0 0 0 0 0 0 0 2598 2598 2598 2618 2618 2618 2639 2639 2659 2659 2659 2659 2659 2659 2680 2680 2701 2701 2701 2701 2701 2701 2723 2723 2723 2723 2723 2723 2723 2723 2744 2744 2744 2744 2767 2789 2767 2767 2767 2767 2789 2789 2789 2789 2789 2812 2812 2812 2812 2835 2859 2859 2883 2883 2958 2958 2958 2958 2958 2958 2958 2933 2933 2933 2958 2958 2958 2958 2958 2958 2958 2958 2958 2958 2984 2984 2984 2984 3010 3010 3010 3037 3037 3064 3064 3064 3064 3064 3064 3064 3064 3092 3092 3092 3092 3120 3120 3149 3149 3149 3149 3178 3178 3178 3178 3208 3208 3208 3208 3208 3208 3208 3238 3238 3269 3300 3300 3300 3333 3333 3333 3333 3333 3333 3365 3399 3399 3399 3399 3433 3433 3433 3433 3433 3433 3433 3433 3433 3433 3433 3433 3468 3468 3468 3503 3503 3539 3539 3539 3539 3539 3576 3576 3576 3576 3614 3614 3614 3653 3653 3692 3692 3692 3692 3692 3692 3692 3692 3732 3732 3732 3732 3774 3774 3774 3816 3859 3859 3859 3859 3816 3816 0 0 0 0 0 0 0 0 5460 5460 5460 5460 5460 5460 5460 5548 5548 5640 5640 5640 5640 5640 5640 5640 5640 5640 5640 5640 5640 5640 5640 5640 5640 5640 5640 5640 5640 5640 5640 5640 5548 5548 5548 5548 5548 5548 5548 5548 5548 5548 5548 5548 5548 5548 5548 5548 5548 5548 5548 5548 5548 5548 5548 5460 5460 5460 5460 5460 5460 5460 5460 5460 5460 5460 5374 5374 5291 5210 5210 5132 5132 5132 5056 5056 5056 5132 5132 5210 5291 5374 5460 5460 5460 5548 5548 5460 5460 5374 5374 5291 5291 5291 5210 5210 5210 5210 5291 5291 5210 5210 5291 5291 5291 5291 5291 5291 5374 5374 5374 5374 5374 5460 5460 0 2286 2286 2286 2286 2286 2286 2286 2286 2286 2286 2286 2286 2301 2286 2286 2286 2301 2301 2286 2286 2286 2286 2286 2271 2271 2271 2271 2271 2271 2271 2271 2271 2271 2271 2271 2271 2271 2271 2256 2256 2256 2256 2256 2256 2241 2241 2241 2226 2226 2226 2226 2226 2226 2226 2226 2226 2212 2212 2226 2226 2226 2212 2212 2212 2212 2212 2198 2184 2184 2184 2184 2184 2170 2170 2156 2156 2156 2156 2156 2170 2170 2170 2170 2170 3269 3269 3269 3269 3269 3269 3269 3269 3269 3269 3269 3269 3269 3238 3238 3238 3208 3208 3208 3208 3208 3208 3178 3178 3178 3178 3178 3178 3178 3178 3178 3178 3178 3178 3178 3178 3178 3178 3178 3149 3149 3149 3120 3120 3120 3120 3120 3120 3120 3120 3120 3120 3120 3120 3120 3120 3120 3120 3120 3120 3120 3092 3092 2005 1993 1993 2016 2016 2016 3064 3064 3064 3064 3064 3037 3037 3037 3037 3037 3037 3037 3037 3037 3037 3037 3064 3064 3064 3092 3120 3120 3149 3149 3178 3178 3238 3269 3269 3300 3300 3333 3365 3399 3399 3433 3503 3503 3539 3539 3576 3576 4089 2040 2040 2040 4139 4139 4139 4139 4139 4139 4139 4089 4089 4089 4089 4089 4089 4089 4089 4089 4089 4089 4089 4089 4089 4089 4089 4139 4190 5640 5640 5640 5640 5548 5548 5548 5460 5460 5460 5460 5460 5548 5548 5548 5548 5640 5548 5548 5548 5548 5548 5460 5460 5460 5548 5548 5548 5548 5548 5548 5548 5548 5548 5640 5640 5832 5933 5933 5933 5933 5933 5933 5933 5933 5933 6038 6038 6038 5933 5933 5933 5832 5734 5640 5640 5734 5832 5832 5832 5933 5933 5933 5933 0 0 0 0 0 0 0 0 0 0 0 0 0
0 0 0 0 0 0 0 0 0 0 0 0 0 0 0 0 0 0 0 0 0 0 0 0 0 0 0 0 0 0 0 0 0 2598 2598 2598 2618 2618 2639 2639 2639 2659 2659 2659 2659 2680 2680 2680 2680 2680 2701 2701 2701 2701 2701 2723 2723 2723 2723 2723 2723 2723 2744 2744 2744 2744 2744 2767 2789 2767 2767 2767 2767 2767 2767 2789 2789 2789 2812 2812 2812 2812 2835 2859 2859 2883 2933 2958 2958 2958 2958 2958 2958 2958 2933 2933 2933 2958 2958 2958 2958 2958 2958 2958 2958 2958 2958 2984 2984 2984 3010 3010 3010 3010 3037 3037 3064 3064 3064 3064 3064 3064 3064 3092 3092 3092 3092 3092 3120 3120 3120 3149 3149 3178 3178 3178 3178 3178 3208 3208 3208 3208 3208 3208 3208 3238 3238 3300 3300 3300 3300 3333 3333 3333 3333 3333 3333 3365 3399 3399 3433 3433 3433 3433 3433 3433 3433 3433 3433 3433 3433 3433 3433 3433 3468 3468 3503 3503 3503 3539 3539 3539 3539 3539 3576 3576 3576 3576 3614 3614 3614 3653 3653 3692 3692 3692 3692 3692 3692 3692 3692 3732 3732 3732 3732 3774 3774 3774 3816 3859 3903 3903 3903 3859 3859 0 0 0 0 0 0 0 0 5460 5460 5460 5460 5460 5460 5460 5548 5548 5640 5640 5640 5640 5640 5640 5640 5640 5640 5640 5640 5640 5640 5640 5640 5640 5640 5640 5640 5640 5640 5640 5640 5548 5548 5548 5548 5548 5548 5548 5548 5548 5548 5548 5548 5548 5548 5548 5548 5548 5548 5548 5548 5460 5460 5460 5460 5460 5460 5460 5460 5460 5460 5460 5460 5460 5460 5374 5374 5291 5210 5210 5132 5132 5132 5056 5056 5056 5132 5132 5210 5291 5291 5460 5460 5460 5460 5460 5374 5374 5374 5291 5291 5291 5291 5210 5210 5291 5291 5291 5291 5210 5210 5210 5210 5291 5291 5291 5291 5374 5374 5374 5460 5460 5460 5460 0 2271 2271 2271 2286 2286 2286 2301 2301 2301 2301 2286 2286 2286 2286 2286 2286 2286 2286 2286 2286 2286 2286 2286 2286 2271 2271 2271 2271 2271 2271 2271 2271 2271 2271 2271 2271 2271 2271 2256 2256 2256 2256 2256 2256 2241 2241 2241 2241 2241 2226 2226 2226 2226 2226 2226 2226 2212 2212 2226 2226 2212 2212 2212 2212 2212 2212 2198 2198 2198 2198 2184 2184 2170 2170 2156 2156 2156 2156 2156 2170 2170 2170 2170 2170 3269 3269 3269 3269 3269 3269 3269 3269 3269 3269 3269 3269 3269 3269 3269 3238 3208 3208 3208 3208 3208 3208 3178 3178 3178 3178 3178 3178 3178 3178 3178 3178 3178 3178 3178 3178 3178 3178 3178 3149 3149 3149 3149 3149 3149 3120 3120 3120 3120 3120 3120 3120 3120 3120 3120 3120 3120 3120 3120 3120 3120 3120 2005 2005 2005 2005 2016 2016 2016 2016 2016 3064 3064 3064 3037 3037 3037 3010 3010 3037 3037 3037 3037 3037 3037 3064 3064 3064 3092 3092 3120 3149 3178 3178 3178 3238 3269 3300 3300 3333 3333 3365 3399 3433 3433 3503 3503 3539 3539 3576 4089 4089 2040 2040 2040 4139 4139 4190 4139 4139 4139 4139 4139 4089 4089 4089 4089 4089 4089 4089 4089 4089 4089 4089 4089 4089 4089 4139 4139 5460 5460 5460 5548 5548 5460 5460 5460 5460 5460 5374 5374 5460 5460 5460 5460 5460 5548 5460 5460 5460 5460 5460 5460 5460 5460 5460 5548 5548 5548 5548 5548 5548 5548 5640 5640 5734 5832 5933 6038 6038 6038 6038 6038 6038 6038 6038 6038 6038 6038 5933 5933 5933 5832 5734 5734 5734 5734 5832 5832 5933 5933 5933 5933 6038 0 0 0 0 0 0 0 0 0 0 0 0 0
0 0 0 0 0 0 0 0 0 0 0 0 0 0 0 0 0 0 0 0 0 0 0 0 0 0 0 0 0 0 0 0 0 2598 2598 2618 2618 2618 2639 2639 2639 2639 2639 2659 2680 2680 2680 2680 2680 2680 2701 2701 2701 2701 2701 2723 2723 2723 2723 2723 2723 2744 2744 2744 2744 2767 2767 2789 2789 2767 2767 2767 2767 2767 2767 2789 2789 2789 2812 2812 2812 2835 2835 2859 2859 2883 2933 2958 2958 2958 2958 2958 2958 2958 2958 2958 2958 2958 2958 2958 2958 2958 2958 2984 2958 2958 2984 2984 2984 2984 3010 3010 3010 3037 3037 3037 3064 3064 3064 3064 3064 3064 3064 3092 3092 3092 3092 3092 3120 3120 3120 3149 3149 3178 3178 3178 3178 3178 3208 3208 3208 3208 3208 3208 3238 3269 3269 3300 3300 3300 3333 3333 3333 3333 3333 3333 3333 3365 3399 3399 3433 3433 3433 3433 3433 3433 3433 3433 3433 3433 3433 3433 3433 3433 3468 3468 3503 3503 3503 3539 3539 3539 3539 3539 3576 3576 3576 3576 3576 3614 3653 3653 3653 3692 3692 3692 3692 3692 3692 3692 3692 3732 3732 3732 3732 3774 3774 3774 3816 3903 3903 3903 3903 3903 0 0 0 0 0 0 0 0 0 5460 5460 5460 5460 5548 5460 5460 5548 5548 5640 5640 5640 5640 5640 5640 5640 5640 5640 5640 5640 5640 5640 5640 5640 5640 5640 5640 5640 5640 5640 5640 5640 5640 5548 5548 5548 5548 5548 5548 5548 5548 5548 5548 5548 5548 5548 5548 5548 5548 5548 5548 5548 5460 5460 5460 5460 5460 5460 5374 5374 5460 5460 5460 5460 5548 5460 5460 5374 5291 5210 5210 5132 5132 5056 5056 5056 5056 5132 5132 5132 5210 5291 5374 5374 5374 5374 5374 5374 5374 5291 5291 5291 5291 5291 5210 5210 5291 5291 5291 5291 5210 5210 5210 5210 5291 5291 5291 5291 5374 5374 5460 5460 5460 5548 5548 0 2271 2271 2271 2286 2286 2286 2301 2301 2301 2301 2301 2301 2286 2286 2286 2286 2286 2286 2286 2286 2286 2286 2286 2286 2271 2271 2271 2271 2271 2271 2271 2271 2271 2271 2271 2271 2271 2271 2256 2256 2256 2256 2256 2241 2241 2241 2241 2241 2241 2226 2226 2226 2226 2226 2226 2226 2226 2226 2226 2226 2212 2212 2212 2212 2212 2212 2198 2198 2198 2198 2198 2184 2170 2170 2156 2156 2156 2156 2156 2170 2170 2170 2170 3208 3269 3269 3269 3269 3269 3269 3238 3238 3238 3269 3269 3269 3269 3269 3269 3238 3208 3208 3208 3208 3208 3208 3178 3178 3178 3208 3208 3178 3178 3178 3178 3178 3178 3178 3178 3178 3178 3178 3178 3178 3149 3149 3149 3149 3149 3149 3120 3120 3120 3120 3120 3120 3120 3120 3120 3120 3149 3149 3149 3178 3178 2016 2005 2005 2005 2016 2028 2016 2016 2016 2016 2028 3064 3064 3037 3037 3037 3010 3010 3037 3037 3037 3037 3064 3064 3064 3064 3064 3092 3092 3120 3120 3178 3208 3208 3238 3269 3300 3300 3333 1993 1993 1981 1981 3468 3503 3503 3539 3539 3614 4089 4089 2040 2016 2016 4139 4139 4190 4139 4139 4139 4139 4139 4089 4089 4089 4089 4089 4089 4089 4089 4089 4089 4089 4089 4089 4089 4089 4089 5460 5460 5460 5460 5460 5374 5374 5460 5374 5374 5374 5374 5374 5374 5460 5460 5460 5548 5460 5374 5374 5374 5374 5374 5374 5374 5460 5460 5460 5460 5460 5548 5548 5548 5640 5640 5832 6038 6038 6038 6038 6038 6038 6038 6038 6038 6038 6038 6038 6038 5933 5933 5933 5832 5734 5734 5734 5734 5832 5933 5933 6038 6038 6038 6146 0 0 0 0 0 0 0 0 0 0 0 0 0
0 0 0 0 0 0 0 0 0 0 0 0 0 0 0 0 0 0 0 0 0 0 0 0 0 0 0 0 0 0 0 0 0 2598 2598 2618 2618 2618 2639 2639 2639 2639 2639 2639 2659 2659 2659 2680 2680 2680 2701 2701 2701 2701 2701 2701 2723 2723 2723 2723 2744 2744 2744 2744 2767 2767 2789 2789 2789 2767 2767 2767 2767 2767 2767 2789 2789 2789 2812 2812 2835 2835 2859 2859 2883 2883 2933 2958 2958 2958 2958 2958 2958 2958 2958 2958 2958 2958 2958 2958 2958 2958 2958 2984 2984 2984 2984 2984 2984 3010 3010 3010 3037 3037 3037 3037 3064 3064 3064 3064 3064 3064 3064 3092 3092 3092 3092 3092 3120 3149 3149 3149 3178 3178 3178 3178 3178 3178 3208 3208 3208 3208 3208 3208 3238 3269 3269 3300 3300 3300 3333 3333 3333 3333 3333 3333 3365 3399 3399 3433 3433 3433 3433 3433 3433 3433 3433 3433 3433 3433 3433 3433 3433 3433 3468 3468 3503 3503 3503 3539 3539 3539 3539 3539 3576 3576 3576 3576 3576 3614 3653 3653 3653 3692 3692 3692 3692 3692 3692 3692 3732 3732 3732 3732 3774 3774 3774 3816 3903 3903 3903 3903 3903 3903 0 0 0 0 0 0 0 0 5460 5460 5460 5460 5460 5460 5460 5460 5548 5548 5640 5640 5640 5640 5640 5734 5640 5640 5640 5640 5640 5640 5640 5640 5640 5640 5640 5640 5640 5640 5640 5640 5640 5640 5640 5640 5640 5548 5548 5548 5548 5548 5548 5548 5548 5548 5548 5548 5548 5548 5548 5548 5548 5460 5460 5460 5460 5460 5374 5374 5374 5460 5460 5460 5460 5548 5460 5460 5374 5291 5210 5210 5132 5132 5056 5056 5056 5056 5132 5132 5132 5210 5210 5291 5291 5374 5291 5291 5291 5291 5291 5291 5291 5291 5291 5291 5291 5291 5291 5291 5291 5210 5210 5210 5210 5210 5291 5291 5291 5374 5374 5460 5460 5460 5548 5548 2301 2286 2286 2286 2286 2286 2301 2301 2301 2301 2301 2301 2301 2286 2286 2286 2286 2286 2286 2286 2286 2286 2286 2286 2286 2286 2286 2286 2286 2271 2271 2286 2271 2271 2271 2271 2271 2271 2271 2271 2271 2271 2256 2256 2241 2241 2241 2241 2241 2226 2226 2226 2226 2226 2226 2226 2226 2226 2226 2226 2226 2226 2226 2212 2212 2212 2212 2198 2198 2198 2198 2198 2184 2184 2170 2156 2156 2156 2156 2170 2170 2170 2170 2170 3208 3269 3269 3269 3269 3269 3269 3238 3238 3238 3238 3238 3238 3269 3269 3269 3238 3208 3208 3208 3208 3208 3208 3208 3178 3178 3208 3208 3208 3208 3178 3178 3178 3178 3178 3178 3178 3178 3178 3178 3178 3149 3149 3149 3149 3149 3149 3120 3120 3120 3120 3120 3120 3120 3120 3120 3149 3149 3149 3178 3178 2016 2016 2016 2016 2016 2028 2028 2016 2016 2028 2028 2005 2005 3037 3010 3010 3010 2984 2984 3010 3037 3064 3064 3064 3064 3064 3064 3064 3092 3092 3120 3120 1993 1993 1993 1993 1993 1993 1993 1993 1993 1993 1981 1981 1970 1970 1970 1970 3539 3539 1970 1970 1981 1993 1993 1993 2005 2016 4190 4190 4139 4139 4139 4089 4089 4089 4089 4089 4089 4089 4089 4089 4089 4089 4089 4139 4190 4190 4241 5460 5460 5460 5460 5460 5374 5374 5460 5374 5374 5374 5374 5374 5374 5374 5374 5374 5460 5374 5374 5374 5374 5374 5374 5374 5374 5460 5460 5460 5460 5460 5548 5548 5640 5640 5640 5832 6038 6038 6038 6038 6038 6038 6038 6038 6038 6038 6038 5933 5933 5933 5933 5933 5832 5734 5734 5734 5832 5832 5933 6038 6038 6038 6038 6146 0 0 0 0 0 0 0 0 0 0 0 0 0
0 0 0 0 0 0 0 0 0 0 0 0 0 0 0 0 0 0 0 0 0 0 0 0 0 0 0 0 0 0 0 0 0 2618 2618 2618 2618 2618 2639 2618 2618 2639 2639 2639 2659 2659 2659 2680 2680 2680 2701 2701 2701 2701 2701 2701 2723 2723 2723 2723 2744 2744 2744 2744 2767 2767 2789 2789 2789 2767 2767 2767 2767 2789 2789 2789 2789 2812 2812 2835 2835 2859 2859 2859 2883 2883 2933 2958 2958 2958 2984 2958 2958 2958 2958 2958 2958 2958 2958 2958 2958 2958 2984 2984 2984 2984 2984 2984 3010 3010 3010 3010 3037 3037 3037 3064 3064 3064 3064 3064 3064 3064 3064 3092 3092 3092 3092 3092 3120 3120 3149 3149 3149 3178 3178 3178 3178 3178 3208 3208 3208 3208 3208 3238 3238 3269 3269 3300 3300 3333 3333 3333 3333 3333 3365 3365 3399 3399 3433 3433 3433 3433 3433 3433 3433 3433 3433 3433 3433 3433 3433 3433 3433 3433 3468 3468 3503 3503 3503 3539 3539 3539 3539 3539 3576 3576 3576 3576 3614 3614 3653 3653 3653 3692 3692 3692 3692 3692 3692 3732 3732 3732 3732 3774 3774 3774 3816 3816 3816 3816 3816 3903 3903 3903 3948 0 0 0 0 0 0 0 5460 5460 5460 5460 5460 5460 5548 5548 5548 5548 5640 5640 5640 5640 5640 5734 5640 5640 5640 5640 5640 5640 5640 5640 5640 5640 5640 5640 5640 5640 5640 5640 5640 5640 5640 5640 5640 5548 5548 5548 5548 5548 5548 5548 5548 5548 5548 5548 5548 5548 5548 5548 5548 5548 5460 5460 5460 5460 5374 5374 5374 5460 5460 5460 5460 5460 5460 5460 5374 5291 5291 5210 5210 5132 5132 5056 5056 5056 5132 5132 5132 5210 5210 5291 5291 5291 5291 5291 5291 5291 5291 5291 5291 5291 5291 5291 5291 5291 5291 5291 5291 5210 5210 5210 5210 5210 5291 5291 5291 5291 5374 5374 5374 5374 5548 5548 2301 2301 2286 2286 2286 2301 2301 2301 2301 2301 2301 2301 2301 2286 2286 2286 2286 2301 2286 2286 2286 2286 2286 2286 2286 2286 2286 2286 2286 2286 2286 2286 2271 2271 2271 2271 2271 2271 2271 2271 2271 2271 2256 2256 2241 2241 2241 2241 2241 2226 2226 2226 2226 2226 2226 2226 2226 2226 2226 2226 2226 2226 2226 2212 2212 2212 2212 2198 2198 2198 2198 2198 2198 2184 2170 2170 2156 2156 2170 2170 2170 2170 2170 3178 3208 3238 3269 3269 3269 3269 3269 3238 3238 3238 3238 3238 3238 3269 3269 3269 3238 3238 3208 3208 3208 3208 3208 3208 3208 3208 3208 3208 3208 3208 3208 3208 3178 3178 3178 3178 3178 3178 3178 3178 3178 3149 3149 3178 3178 3149 3149 3120 3120 3120 3120 3120 3120 3120 3120 3120 3149 3178 3178 3178 3178 2016 2016 2016 2016 2016 2028 2028 2016 2016 2028 2028 2005 2005 2016 2028 2005 1993 1993 1993 1993 1993 1993 1993 1993 3064 3064 3064 3064 3092 3092 3120 2005 1993 1993 1993 1993 1993 1993 1993 1993 1993 1993 1981 1970 1970 1970 1970 1970 1970 1959 1959 1970 1981 1981 1981 1993 1993 2005 2005 4190 4190 4190 4139 4089 4089 4089 4089 4089 4089 4089 4089 4089 4089 4089 4089 4139 4190 4241 4241 4241 5460 5460 5374 5374 5374 5374 5374 5374 5374 5374 5374 5374 5374 5374 5374 5374 5374 5374 5291 5291 5291 5291 5291 5374 5374 5374 5374 5374 5374 5460 5460 5548 5640 5640 5640 5832 6038 6038 6038 6038 6038 6038 6038 6038 6038 6038 6038 5933 5933 5933 5933 5832 5734 5640 5640 5734 5832 5832 5933 6038 6038 6038 6038 6146 0 0 0 0 0 0 0 0 0 0 0 0 0
0 0 0 0 0 0 0 0 0 0 0 0 0 0 0 0 0 0 0 0 0 0 0 0 0 0 0 0 0 0 0 0 0 2618 2618 2618 2618 2618 2639 2618 2618 2639 2639 2639 2659 2659 2680 2680 2680 2701 2701 2701 2701 2701 2701 2723 2723 2723 2723 2723 2744 2744 2767 2767 2767 2767 2789 2789 2789 2767 2767 2767 2789 2789 2789 2789 2789 2812 2812 2812 2835 2835 2859 2859 2883 2883 2933 2958 2958 2958 2984 2958 2958 2958 2958 2958 2958 2958 2958 2958 2958 2958 2984 2984 2984 2984 2984 2984 3010 3010 3010 3037 3037 3037 3064 3064 3064 3064 3064 3064 3064 3064 3064 3092 3092 3092 3092 3092 3120 3120 3149 3149 3149 3178 3178 3178 3178 3208 3208 3208 3208 3208 3238 3238 3238 3269 3300 3300 3300 3333 3333 3333 3333 3333 3365 3365 3399 3399 3399 3433 3433 3433 3433 3433 3433 3433 3433 3433 3433 3433 3433 3433 3433 3433 3468 3503 3503 3503 3539 3539 3539 3539 3539 3539 3576 3576 3576 3576 3614 3614 3653 3692 3692 3692 3692 3692 3692 3692 3692 3732 3732 3732 3732 3774 3774 3774 3774 3816 3816 3816 3816 3903 3903 3903 3948 0 0 0 0 0 0 5374 5374 5374 5460 5460 5460 5460 5548 5548 5548 5548 5640 5640 5734 5734 5734 5734 5640 5640 5640 5640 5640 5734 5734 5734 5640 5640 5640 5640 5640 5640 5640 5640 5640 5640 5640 5640 5640 5548 5548 5548 5548 5548 5548 5548 5548 5548 5548 5548 5548 5548 5548 5548 5548 5460 5460 5460 5460 5460 5460 5374 5374 5460 5460 5460 5460 5460 5460 5460 5374 5291 5291 5210 5210 5132 5132 5056 5056 5056 5132 5132 5132 5210 5210 5291 5291 5291 5291 5291 5291 5291 5291 5291 5291 5291 5291 5291 5291 5291 5291 5291 5291 5210 5210 5210 5210 5291 5291 5291 5291 5291 5374 5374 5374 5374 5374 0 2301 2301 2301 2301 2301 2301 2301 2317 2317 2317 2301 2301 2301 2286 2286 2286 2286 2301 2286 2286 2286 2286 2286 2286 2286 2286 2286 2286 2286 2286 2286 2271 2271 2271 2271 2271 2271 2271 2271 2271 2271 2271 2271 2256 2241 2241 2241 2226 2226 2226 2226 2226 2226 2226 2226 2226 2226 2226 2226 2226 2226 2226 2226 2212 2212 2212 2212 2198 2198 2198 2198 2198 2198 2184 2184 2170 2170 2170 2170 2170 2170 2170 2184 3178 3208 3238 3269 3269 3269 3269 3269 3238 3238 3238 3238 3238 3238 3269 3269 3269 3238 3238 3208 3208 3208 3208 3208 3208 3208 3208 3208 3208 3208 3208 3208 3208 3178 3178 3178 3178 3178 3178 3178 3178 3178 3178 3178 3178 3178 3149 3149 3149 3149 3149 3120 3120 3120 3120 3120 3149 3149 3149 3149 3178 2040 2028 2028 2028 2028 2028 2028 2028 2028 2028 2028 2028 2016 2016 2016 2028 2005 1993 1993 1993 1993 1993 1993 1993 1993 1993 1993 1993 1993 1993 1993 1993 1993 1993 1993 1993 1993 1993 1993 1993 1981 1981 1981 1981 1970 1970 1970 1970 1970 1959 1959 1959 1959 1959 1959 1959 1970 1970 1993 1993 1981 1981 4190 4139 4139 4139 4089 4089 4089 4089 4089 4089 4089 4089 4089 4089 4139 4190 4241 4241 0 5460 5460 5374 5291 5291 1833 1833 1853 1853 5374 5374 5374 5374 5374 5374 5374 5374 5374 5291 5291 5291 5291 5291 5291 5291 5374 5374 5374 5374 5374 5460 5548 5640 5640 5734 5933 6038 6038 6038 6038 6038 6038 6038 6038 6038 5933 5933 5832 5832 5832 5832 5734 5548 5460 5460 5734 5734 6038 6038 6038 6038 6038 6146 6146 0 0 0 0 0 0 0 0 0 0 0 0 0
0 0 0 0 0 0 0 0 0 0 0 0 0 0 0 0 0 0 0 0 0 0 0 0 0 0 0 0 0 0 0 0 0 2618 2618 2618 2618 2618 2639 2639 2639 2639 2639 2659 2659 2680 2680 2680 2701 2701 2701 2701 2701 2701 2701 2701 2723 2723 2723 2723 2723 2744 2767 2767 2767 2767 2789 2789 2789 2767 2767 2767 2789 2789 2789 2789 2789 2789 2789 2812 2812 2835 2859 2859 2883 2908 2933 2958 2958 2958 2984 2958 2958 2958 2958 2958 2958 2958 2958 2958 2984 2984 2984 2984 2984 2984 2984 2984 3010 3010 3010 3037 3037 3037 3064 3064 3064 3064 3064 3064 3064 3092 3092 3092 3092 3092 3092 3092 3092 3120 3149 3149 3149 3178 3178 3178 3208 3208 3208 3208 3208 3238 3238 3238 3238 3300 3300 3300 3333 3333 3333 3333 3333 3333 3365 3365 3399 3399 3399 3433 3433 3433 3433 3433 3433 3433 3433 3433 3433 3433 3433 3433 3433 3433 3468 3503 3503 3539 3539 3539 3539 3539 3539 3539 3576 3576 3576 3576 3653 3653 3692 3692 3692 3692 3692 3692 3692 3692 3692 3732 3732 3732 3732 3774 3774 3774 3774 3816 3816 3859 3859 3859 3903 3948 0 0 0 0 0 0 5374 5374 5374 5374 5374 5460 5460 5548 5548 5548 5548 5640 5640 5640 5734 5734 5734 5734 5640 5640 5640 5640 5734 5734 5640 5640 5640 5640 5640 5640 5640 5640 5640 5640 5640 5640 5640 5640 5640 5640 5640 5640 5640 5548 5548 5548 5548 5548 5548 5548 5548 5548 5548 5548 5548 5460 5460 5460 5460 5460 5460 5374 5374 5460 5460 5460 5460 5548 5548 5460 5374 5374 5291 5210 5210 5132 5132 5132 5132 5132 5132 5132 5132 5210 5210 5291 5291 5291 5291 5291 5291 5291 5291 5291 5291 5291 5291 5291 5291 5291 5291 5291 5291 5291 5291 5291 5291 5291 5291 5291 5291 5291 5374 5374 5374 5374 5374 0 2333 2333 2317 2317 2317 2317 2317 2317 2317 2317 2317 2317 2301 2286 2286 2286 2286 2301 2301 2301 2286 2286 2286 2286 2286 2286 2286 2286 2286 2286 2286 2271 2271 2271 2271 2271 2271 2271 2271 2271 2271 2271 2271 2256 2256 2256 2241 2226 2226 2226 2226 2226 2226 2226 2226 2226 2226 2226 2226 2226 2226 2226 2226 2212 2212 2212 2212 2212 2212 2212 2212 2212 2212 2184 2184 2170 2170 2170 2170 2170 2184 2184 2198 2226 3208 3238 3269 3269 3269 3269 3269 3269 3269 3269 3269 3269 3269 3269 3269 3269 3238 3238 3208 3208 3208 3208 3208 3208 3208 3208 3208 3208 3208 3208 3208 3208 3178 3178 3178 3178 3178 3178 3178 3178 3178 3178 3178 3178 3178 3178 3149 3149 3149 3149 3149 3120 3120 3120 3120 3120 3120 3149 3149 3149 2040 2028 2028 2028 2028 2028 2028 2028 2028 2028 2028 2028 2016 2016 2016 2028 2016 1993 1993 2005 1993 1993 1993 1993 1993 1993 1993 1993 1993 1993 1993 1993 1993 1993 1993 1993 1993 1981 1981 1981 1981 1981 1981 1981 1970 1970 1970 1970 1959 1959 1959 1947 1947 1947 1947 1959 1959 1959 1959 1959 1947 1936 1936 1926 1926 1926 4089 4089 4089 4089 4089 4089 4089 4089 4089 4089 4190 4241 4241 4241 0 1894 5291 5291 5291 5291 1833 1833 1853 1853 5374 5374 5374 5374 5374 5374 5374 5374 5374 5291 5291 5291 5291 5291 5291 5291 5291 5291 5291 5291 5374 5460 5460 5640 5640 5734 6038 6038 6038 6038 6038 6038 6038 6038 6038 6038 5933 5832 5640 5640 5734 5548 5460 5291 5291 5291 5291 5291 5132 5132 4983 4983 5132 0 0 0 0 0 0 0 0 0 0 0 0 0 0 0
0 0 0 0 0 0 0 0 0 0 0 0 0 0 0 0 0 0 0 0 0 0 0 0 0 0 0 0 0 0 0 0 0 2618 2618 2618 2618 2618 2639 2639 2639 2639 2659 2659 2659 2680 2680 2680 2680 2701 2701 2701 2701 2701 2701 2701 2723 2723 2723 2723 2723 2744 2767 2767 2767 2767 2789 2789 2789 2767 2767 2767 2767 2789 2789 2789 2789 2789 2789 2812 2812 2835 2859 2859 2883 2908 2933 2958 2958 2958 2984 2958 2958 2958 2958 2958 2958 2958 2958 2958 2984 2984 2984 2984 2984 3010 3010 3010 3010 3037 3037 3037 3064 3064 3064 3064 3064 3064 3064 3064 3092 3092 3092 3092 3092 3092 3092 3092 3092 3120 3149 3149 3149 3178 3178 3178 3208 3208 3208 3208 3238 3238 3238 3238 3238 3300 3300 3300 3300 3333 3333 3333 3333 3333 3365 3365 3399 3399 3399 3399 3433 3433 3433 3433 3433 3433 3433 3433 3433 3433 3433 3433 3433 3433 3468 3503 3503 3539 3539 3539 3539 3539 3539 3539 3576 3576 3576 3614 3653 3653 3692 3692 3692 3692 3732 3692 3692 3692 3732 3732 3732 3732 3732 3732 3732 3774 3774 3816 3816 3859 3859 3859 3903 3903 3948 0 0 0 0 0 5291 5291 5374 5374 5374 5460 5460 5548 5548 5548 5548 5640 5640 5734 5734 5734 5734 5734 5640 5640 5640 5640 5734 5640 5640 5640 5640 5640 5640 5640 5640 5640 5640 5640 5640 5640 5640 5640 5640 5640 5640 5640 5548 5548 5548 5548 5548 5548 5548 5548 5548 5548 5548 5548 5548 5460 5460 5460 5460 5460 5460 5460 5460 5460 5460 5460 5460 5548 5548 5460 5460 5374 5291 5291 5210 5132 5132 5132 5132 5132 5132 5132 5132 5210 5210 5291 5291 5291 5291 5291 5291 5291 5291 5291 5291 5291 5291 5291 5291 5291 5291 5374 5374 5291 5291 5291 5291 5291 5291 5291 5291 5291 5374 5374 5374 5374 5374 0 2317 2317 2301 2301 2317 2317 2317 2317 2317 2317 2317 2317 2317 2286 2286 2301 2301 2301 2301 2301 2286 2286 2286 2286 2286 2286 2286 2286 2286 2286 2286 2271 2271 2271 2271 2271 2271 2271 2271 2271 2271 2271 2271 2256 2256 2256 2256 2241 2241 2241 2241 2241 2241 2241 2226 2226 2226 2226 2226 2226 2226 2226 2226 2212 2212 2212 2212 2212 2212 2212 2198 2198 2198 2184 2184 2170 2170 2170 2170 2170 2184 2184 2198 2226 3238 3269 3269 3269 3269 3269 3269 3269 3269 3238 3238 3238 3238 3238 3238 3238 3238 3238 3238 3208 3208 3208 3208 3208 3208 3208 3208 3208 3208 3208 3208 3208 3178 3178 3178 3178 3178 3178 3178 3178 3178 3178 3178 3178 3178 3178 3178 3149 3149 3149 3149 3120 3120 3120 3120 3120 3120 3149 3149 3149 2040 2028 2028 2028 2028 2028 2028 2028 2028 2028 2028 2028 2028 2016 2016 2028 2016 1993 1993 2005 1993 1993 1993 1993 1993 1993 1993 1993 1993 1993 1993 1993 1993 1993 1993 1981 1981 1981 1981 1981 1981 1981 1981 1981 1970 1970 1970 1970 1959 1959 1959 1947 1947 1947 1947 1947 1947 1947 1947 1947 1947 1936 1936 1926 1926 1926 1936 1936 1936 1936 1936 4041 4041 4041 4089 4089 4190 4241 4241 4241 0 1894 1894 1883 1883 1883 1883 1863 1863 1863 1863 1863 1883 1883 5374 5374 5374 5374 5374 5291 5291 5291 5291 5291 5291 5291 5291 5291 5210 5210 5210 5291 5374 5640 5832 5933 6038 6038 6038 6038 6038 6038 6038 6038 6038 5933 5460 5374 5291 5291 5291 5210 5210 5210 5210 5210 5210 5132 5132 5132 4983 4983 5132 5132 5132 0 0 0 0 0 0 0 0 0 0 0 0 0
0 0 0 0 0 0 0 0 0 0 0 0 0 0 0 0 0 0 0 0 0 0 0 0 0 0 0 0 0 0 0 0 0 2618 2618 2618 2639 2639 2639 2639 2639 2639 2659 2659 2659 2659 2680 2680 2680 2701 2701 2701 2701 2701 2701 2701 2701 2723 2723 2723 2723 2744 2767 2767 2767 2767 2789 2789 2789 2767 2767 2767 2767 2789 2789 2789 2789 2789 2789 2812 2835 2835 2859 2883 2883 2908 2958 2958 2958 2984 2984 2958 2958 2958 2958 2958 2958 2958 2958 2958 2984 2984 2984 2984 2984 2984 3010 3010 3010 3037 3037 3037 3064 3064 3064 3064 3064 3064 3064 3064 3092 3092 3092 3092 3092 3092 3092 3092 3092 3149 3149 3149 3149 3178 3178 3178 3208 3208 3208 3208 3238 3238 3238 3238 3238 3300 3300 3300 3300 3333 3333 3333 3333 3333 3365 3365 3365 3399 3399 3399 3433 3433 3433 3433 3433 3433 3433 3433 3433 3433 3433 3433 3433 3468 3503 3503 3503 3539 3539 3539 3539 3539 3539 3539 3576 3576 3576 3614 3653 3653 3692 3692 3692 3692 3732 3692 3692 3732 3732 3732 3732 3732 3732 3732 3732 3774 3774 3816 3816 3859 3859 3903 3903 3903 3948 0 0 0 0 0 5291 5291 5291 5374 5374 5460 5460 5460 5548 5548 5548 5640 5640 5734 5734 5832 5832 5832 5734 5640 5640 5640 5640 5640 5640 5640 5640 5640 5640 5640 5640 5640 5640 5640 5640 5640 5640 5640 5640 5640 5640 5640 5548 5548 5548 5548 5548 5548 5548 5548 5548 5548 5548 5548 5548 5460 5460 5460 5460 5460 5460 5460 5460 5460 5460 5460 5460 5548 5548 5460 5460 5374 5291 5291 5210 5132 5132 5132 5132 5132 5132 5132 5132 5210 5210 5291 5291 5291 5291 5291 5291 5291 5291 5291 5291 5291 5291 5291 5291 5291 5291 5374 5374 5291 5291 5291 5291 5291 5291 5291 5291 5374 5374 5374 5374 5374 5374 5548 2317 2317 2301 2301 2317 2317 2317 2317 2317 2317 2317 2317 2317 2301 2301 2317 2317 2301 2301 2301 2301 2301 2286 2286 2301 2301 2301 2301 2301 2286 2286 2286 2271 2271 3365 3365 2271 2271 2271 2271 2271 2271 2271 2256 2256 2256 2241 2226 2226 2241 2241 2241 2256 2256 2241 2241 2241 2226 2226 2226 2226 2226 2226 2212 2212 2212 2212 2212 2212 2212 2198 2198 2198 2184 2184 2184 2170 2170 2184 2184 2184 2184 2198 2226 2241 3269 3269 3269 3269 3269 3269 3269 3238 3238 3238 3238 3238 3238 3238 3238 3238 3238 3238 3208 3208 3208 3208 3208 3208 3208 3208 3208 3208 3208 3208 3208 3178 3178 3178 3178 3178 3178 3178 3178 3178 3178 3178 3178 3178 3178 3178 3178 3178 3178 3149 3149 3149 3120 3120 3120 3120 3149 3149 3149 2040 2028 2028 2028 2028 2028 2028 2028 2028 2028 2028 2028 2016 2016 2016 2016 2016 2005 2005 2005 2005 1993 1993 1993 1993 1993 1993 1993 1993 1993 1993 1993 1993 1993 1981 1981 1981 1981 1981 1981 1981 1981 1981 1981 1981 1970 1970 1970 1970 1959 1959 1947 1947 1947 1947 1947 1947 1947 1947 1947 1947 1936 1936 1936 1936 1936 1936 1936 1936 1936 1936 1936 1936 1936 1926 1894 1894 1894 1894 1904 1904 1894 1894 1894 1883 1883 1883 1873 1873 1863 1863 1863 1883 1883 1894 5374 5374 5374 5374 5291 5291 5291 5291 5291 5291 5291 5291 5291 5210 5210 5210 5291 5374 5832 5933 6038 6038 6038 6038 6038 6038 6038 6038 6038 5933 5832 5374 5374 5291 5291 5210 5210 5210 5210 5210 5210 5210 5132 5132 5132 4983 4983 5132 5132 5132 0 0 0 0 0 0 0 0 0 0 0 0 0
0 0 0 0 0 0 0 0 0 0 0 0 0 0 0 0 0 0 0 0 0 0 0 0 0 0 0 0 0 0 0 0 0 2618 2618 2618 2639 2639 2639 2639 2639 2639 2639 2659 2659 2659 2659 2680 2680 2701 2701 2701 2701 2701 2701 2701 2701 2723 2723 2723 2723 2744 2767 2767 2767 2767 2789 2789 2789 2767 2767 2767 2789 2789 2789 2789 2812 2812 2812 2812 2835 2835 2859 2859 2883 2908 2958 2958 2958 2958 2958 2958 2958 2958 2958 2958 2958 2958 2958 2958 2984 2984 2984 2984 2984 2984 3010 3010 3010 3037 3037 3037 3064 3037 3037 3064 3064 3064 3064 3064 3092 3092 3092 3092 3092 3092 3092 3092 3092 3149 3149 3178 3178 3178 3178 3208 3208 3208 3208 3208 3238 3238 3238 3238 3238 3300 3300 3300 3333 3333 3333 3333 3333 3333 3365 3365 3365 3399 3399 3399 3433 3433 3433 3433 3433 3433 3433 3433 3433 3433 3433 3433 3433 3468 3503 3503 3503 3539 3539 3539 3539 3539 3539 3539 3576 3576 3576 3614 3653 3653 3692 3692 3692 3692 3692 3692 3692 3732 3732 3732 3732 3732 3774 3774 3774 3774 3774 3816 3816 3859 3859 3903 3903 3903 0 0 0 0 0 5374 5291 5291 5291 5374 5374 5460 5460 5460 5548 5548 5548 5640 5640 5734 5832 5832 5832 5832 5734 5640 5640 5640 5640 5640 5640 5640 5640 5640 5640 5640 5640 5640 5640 5640 5640 5640 5640 5640 5640 5640 5640 5640 5640 5548 5548 5548 5548 5548 5548 5548 5548 5548 5548 5548 5548 5460 5460 5460 5460 5460 5460 5460 5460 5460 5460 5460 5460 5548 5548 5460 5374 5291 5291 5210 5210 5132 5132 5132 5132 5132 5132 5210 5210 5210 5210 5291 5291 5291 5291 5291 5291 5291 5291 5291 5291 5291 5291 5291 5291 5291 5291 5374 5374 5374 5291 5291 5374 5374 5374 5291 5291 5374 5374 5374 5374 5374 5548 5548 5548 2286 2286 2286 2317 2317 2317 2317 2317 2317 2317 2317 2317 2301 2301 2317 2317 2317 3208 3208 2333 2333 2333 2333 2317 2317 2301 2301 2301 2286 2286 2286 2271 2271 3333 3333 3365 2271 2271 2271 2271 2271 2271 2256 2256 2256 2241 2226 2226 2241 2241 2241 2256 2256 2256 2241 2241 2226 2226 2226 2226 2226 2226 2212 2212 2212 2212 2212 2212 2212 2212 2212 2212 2198 2198 2184 2184 2184 2184 2184 2198 2198 2198 2212 2241 2241 3238 3238 3238 3238 3238 3238 3208 3208 3208 3238 3238 3238 3238 3238 3238 3238 3238 3208 3208 3208 3208 3208 3208 3208 3208 3208 3208 3208 3208 3208 3178 3178 3178 3178 3178 3178 3178 3178 3178 3178 3178 3178 3178 3178 3178 3178 3178 3178 3149 3149 3149 3149 3120 3120 3120 3120 3120 3120 2040 2040 2040 2040 2040 2040 2028 2028 2028 2028 2028 2028 2016 2016 2016 2016 2016 2005 2005 2005 2005 1993 1993 1993 1993 1993 1993 1993 1993 1993 1993 1993 1993 1981 1981 1981 1981 1981 1981 1981 1981 1981 1981 1981 1981 1981 1981 1970 1970 1959 1959 1959 1959 1959 1947 1947 1947 1947 1947 1936 1936 1936 1936 1936 1936 1936 1936 1936 1936 1936 1936 1926 1915 1915 1915 1894 1894 1894 1904 1904 1904 1894 1894 1894 1894 1894 1894 1883 1883 1883 1883 1883 1883 1894 1894 1894 5374 5374 5374 5291 5291 5291 5291 5291 5291 5291 5291 5210 5210 5210 5210 5291 5374 5832 6038 6038 6038 6038 6038 6038 6038 6038 6038 6038 5933 5640 5374 5291 5210 5210 5210 5210 5210 5210 5210 5210 5210 5210 5132 5132 5132 5132 5132 5132 5132 0 0 0 0 0 0 0 0 0 0 0 0 0
0 0 0 0 0 0 0 0 0 0 0 0 0 0 0 0 0 0 0 0 0 0 0 0 0 0 0 0 0 0 0 0 0 2618 2618 2618 2639 2639 2639 2639 2639 2639 2639 2659 2659 2659 2659 2680 2680 2701 2701 2701 2701 2701 2701 2723 2723 2723 2723 2723 2744 2744 2767 2767 2767 2767 2789 2789 2789 2767 2767 2789 2789 2789 2789 2812 2812 2812 2812 2812 2812 2835 2859 2859 2883 2908 2958 2958 2958 2958 2958 2933 2933 2958 2958 2958 2958 2958 2958 2958 2984 2984 2984 2984 2984 3010 3010 3010 3037 3037 3037 3037 3064 3037 3037 3064 3064 3064 3064 3064 3092 3092 3092 3092 3092 3092 3120 3092 3092 3149 3149 3178 3178 3178 3178 3208 3208 3208 3208 3208 3238 3238 3238 3238 3238 3300 3300 3300 3300 3333 3333 3333 3333 3365 3365 3365 3365 3399 3399 3399 3433 3433 3433 3433 3433 3433 3433 3433 3433 3433 3433 3433 3468 3468 3503 3503 3539 3539 3539 3539 3539 3539 3539 3539 3576 3576 3576 3614 3653 3653 3692 3692 3692 3692 3692 3692 3692 3732 3732 3732 3732 3732 3774 3774 3774 3816 3816 3859 3859 3859 3903 3903 3903 3903 3903 0 0 0 0 5291 5291 5374 5374 5374 5374 5460 5460 5460 5548 5548 5640 5640 5734 5734 5832 5832 5832 5832 5734 5640 5640 5640 5640 5640 5640 5640 5640 5640 5640 5640 5640 5640 5548 5548 5640 5640 5640 5640 5640 5640 5640 5640 5640 5548 5548 5548 5460 5460 5548 5548 5548 5548 5548 5548 5548 5460 5460 5460 5460 5460 5460 5460 5460 5548 5548 5548 5548 5548 5460 5460 5374 5210 5210 5210 5210 5132 5132 5132 5132 5132 5210 5210 5210 5210 5291 5291 5291 5374 5291 5291 5291 5291 5291 5291 5291 5291 5291 5374 5374 5374 5374 5374 5374 5374 5291 5291 5374 5374 5374 5291 5291 5374 5374 5374 5374 5374 5548 5548 0 2271 2271 2271 2301 2317 2317 2317 2317 2317 2317 2317 2317 2333 2333 2333 2333 2333 3208 3208 3208 2333 2333 2333 2333 2333 2333 2317 2317 3208 3208 3269 3300 3300 3300 3300 3333 3333 3333 3333 3333 3365 3399 2271 2256 2256 2256 2241 2241 2241 2241 2241 2256 2271 2256 2256 2256 2241 2241 2226 2226 2226 2226 2212 2212 2212 2212 2212 2212 2198 2198 2212 2212 2198 2198 2184 2184 2184 2198 2198 2198 2198 2198 2198 2198 2241 3238 3238 3238 3238 3238 3238 3208 3208 3208 3208 3208 3238 3238 3238 3238 3238 3208 3208 3208 3208 3208 3208 3208 3208 3208 3208 3208 3208 3208 3208 3208 3178 3178 3178 3178 3178 3178 3178 3178 3178 3178 3178 3178 3178 3178 3178 3178 3178 3149 3149 3149 3149 3120 3120 3120 3120 3120 3120 2040 2040 2040 2040 2040 2040 2028 2028 2028 2028 2028 2028 2016 2016 2016 2016 2016 2005 2005 2005 2005 2005 2005 2005 1993 1993 1993 1993 1993 1993 1993 1993 1993 1981 1981 1981 1981 1981 1981 1981 1981 1981 1981 1981 1981 1970 1970 1970 1959 1959 1947 1947 1959 1947 1947 1947 1947 1947 1947 1936 1936 1936 1936 1936 1936 1936 1936 1936 1936 1936 1936 1926 1915 1915 1915 1904 1904 1904 1904 1904 1904 1894 1894 1894 1894 1894 1894 1883 1883 1883 1883 1883 1883 1894 1894 1894 5374 5374 5374 5291 5291 5291 5291 5291 5291 5291 5210 5210 5210 5210 5210 5291 5374 6038 6038 6038 6038 6038 6038 6038 6038 6038 6038 5933 5933 5548 5374 5291 5210 5210 5210 5210 5210 5210 5210 5210 5210 5210 5210 5210 5210 5210 5210 5210 5210 0 0 0 0 0 0 0 0 0 0 0 0 0
0 0 0 0 0 0 0 0 0 0 0 0 0 0 0 0 0 0 0 0 0 0 0 0 0 0 0 0 0 0 0 0 0 2618 2618 2618 2639 2639 2639 2639 2639 2639 2659 2659 2659 2659 2680 2680 2701 2701 2701 2701 2723 2723 2723 2723 2723 2723 2723 2723 2744 2744 2767 2767 2767 2767 2789 2789 2789 2767 2767 2789 2789 2789 2789 2789 2812 2812 2812 2812 2812 2835 2859 2859 2883 2908 2933 2958 2958 2958 2958 2933 2933 2958 2958 2958 2958 2958 2958 2958 2984 2984 2984 2984 2984 3010 3010 3010 3037 3037 3037 3064 3064 3064 3064 3064 3064 3064 3064 3064 3092 3092 3092 3092 3092 3092 3120 3092 3092 3149 3149 3178 3178 3178 3178 3208 3208 3208 3208 3208 3238 3238 3238 3238 3238 3269 3300 3300 3300 3333 3333 3333 3333 3365 3365 3365 3365 3399 3399 3399 3433 3433 3433 3433 3433 3433 3433 3433 3433 3433 3433 3468 3468 3503 3539 3539 3539 3539 3539 3539 3539 3539 3539 3576 3576 3576 3614 3614 3653 3653 3692 3692 3692 3692 3692 3692 3692 3692 3732 3732 3732 3732 3774 3774 3816 3816 3816 3859 3859 3859 3903 3903 3903 3903 3903 0 0 0 0 5291 5291 5374 5374 5374 5374 5460 5460 5460 5548 5548 5640 5640 5734 5734 5832 5832 5933 5832 5734 5734 5734 0 0 0 0 0 0 0 0 0 0 0 5548 5548 5640 5640 5640 5734 5734 5734 5734 5640 5640 5548 5548 5548 5460 5460 5548 5548 5548 5548 5548 5548 5548 5548 5548 5548 5548 5548 5548 5460 5460 5548 5548 5548 5548 5548 5460 5460 5460 5210 5210 5210 5132 5132 5132 5132 5132 5210 5210 5210 5291 5291 5291 5374 5374 5374 5291 5291 5291 5291 5291 5291 5291 5291 5291 5374 5374 5374 5374 5460 5460 5374 5374 5374 5374 5460 5374 5374 5374 5374 5374 5460 5460 5460 5640 5640 0 2271 2271 2271 2301 2317 2317 2317 2317 2317 2317 2317 2317 2333 2333 2333 2333 3208 3208 3178 3178 3178 3178 3149 3149 3178 3178 3178 3178 3178 3208 3238 3269 3269 3269 3269 3269 3269 3300 3300 3333 3333 3333 3399 3399 3433 3433 2241 2241 2241 2241 2256 2271 2271 2271 2271 2271 2271 2256 2241 2226 2226 2226 2226 2212 2212 2212 2212 2198 2198 2198 2198 2212 2198 2198 2184 2184 2184 2198 2198 2198 2198 2198 2198 2198 2241 3208 3208 3238 3238 3238 3238 3238 3238 3208 3208 3208 3238 3238 3238 3238 3238 3208 3208 3208 3208 3208 3208 3208 3208 3208 3208 3208 3208 3208 3208 3208 3208 3178 3178 3178 3208 3208 3208 3178 3178 3178 3178 3178 3178 3178 3178 3178 3149 3149 3149 3149 3149 3120 3120 3120 3120 3120 3120 2040 2040 2040 2040 2040 2040 2028 2028 2040 2040 2028 2028 2028 2028 2016 2016 2016 2005 2005 2005 2005 2005 2005 2005 1993 1993 1993 1993 1993 1993 1993 1993 1993 1981 1981 1981 1981 1981 1981 1981 1981 1981 1981 1981 1981 1970 1970 1970 1959 1959 1947 1947 1959 1947 1947 1947 1947 1947 1947 1936 1936 1936 1936 1936 1936 1936 1936 1936 1936 1936 1926 1926 1915 1915 1915 1904 1904 1904 1904 1904 1904 1894 1894 1894 1894 1894 1894 1883 1883 1883 1883 1883 1883 1883 1883 1894 5374 5374 5374 5291 5291 5291 5291 5291 5291 5291 5210 5210 5210 5210 5210 5210 5291 5832 6038 6038 6038 6038 6146 6146 6146 6038 6038 5933 5933 5548 5374 5291 5210 5210 5210 5210 5210 5210 5210 5210 5210 5210 5210 5210 5210 5210 5210 5210 5210 0 0 0 0 0 0 0 0 0 0 0 0 0
0 0 0 0 0 0 0 0 0 0 0 0 0 0 0 0 0 0 0 0 0 0 0 0 0 0 0 0 0 0 0 0 0 2618 2618 2639 2639 2639 2639 2639 2639 2659 2659 2659 2659 2659 2680 2680 2701 2701 2701 2701 2723 2723 2723 2723 2723 2723 2723 2723 2744 2744 2767 2767 2767 2767 2789 2789 2789 2767 2767 2789 2789 2789 2789 2789 2812 2812 2812 2812 2835 2835 2859 2859 2883 2883 2933 2933 2958 2958 2958 2933 2933 2958 2958 2958 2958 2958 2958 2958 2984 2984 2984 2984 2984 3010 3010 3010 3037 3037 3037 3064 3064 3064 3064 3064 3064 3064 3064 3064 3092 3092 3092 3092 3092 3120 3120 3120 3149 3178 3178 3178 3178 3178 3178 3208 3208 3208 3208 3208 3238 3238 3238 3238 3238 3269 3300 3300 3300 3333 3333 3333 3333 3365 3365 3365 3365 3399 3399 3399 3433 3433 3433 3433 3433 3433 3433 3433 3433 3433 3433 3468 3468 3503 3539 3539 3539 3539 3539 3539 3539 3539 3539 3576 3576 3576 3614 3614 3653 3653 3692 3692 3692 3692 3692 3692 3692 3692 3732 3732 3774 3774 3774 3774 3816 3816 3816 3859 3859 3903 3903 3903 3903 3903 0 0 0 0 0 5291 5291 5374 5374 5374 5374 5548 5548 5548 5548 5640 5640 5640 5734 5734 5832 5832 5933 5832 5832 5832 0 0 0 0 0 0 0 0 0 0 0 0 0 0 0 5734 5734 5832 5832 5933 5933 5832 5640 5640 5548 5548 5460 5460 5548 5548 5548 5548 5548 5548 5548 5548 5548 5548 5548 5548 5548 5548 5548 5548 5548 5548 5548 5548 5548 5548 5210 5210 5210 5210 5132 5132 5132 5132 5132 5210 5210 5210 5291 5291 5291 5374 5374 5374 5291 5291 5291 5291 5291 5291 5291 5291 5374 5374 5374 5374 5460 5460 5460 5374 5374 5374 5374 5460 5374 5374 5374 5374 5374 5460 5460 5460 5734 5734 0 2286 2286 2286 2317 2317 2317 2317 2317 2317 2333 2317 2317 2333 2333 2349 2349 3208 3178 3178 3178 3178 3149 3149 3149 3149 3149 3149 3149 3178 3178 3208 3208 3208 3208 3208 3208 3238 3238 3269 3300 3300 3300 3333 3333 3300 3300 3300 3208 2271 2271 2271 2286 2286 2286 2286 2286 2271 2256 2256 2241 2241 2226 2226 2226 2226 2212 2198 2198 2198 2198 2198 2198 2198 2198 2184 2184 2184 2184 2184 2184 2198 2198 2198 2198 3208 3208 3208 3208 3208 3208 3208 3208 3208 3208 3238 3208 3208 3208 3208 3238 3208 3208 3208 3208 3208 3178 3178 3178 3178 3178 3178 3178 3208 3208 3208 3208 3208 3208 3178 3178 3208 3208 3208 3178 3178 3178 3178 3178 3178 3178 3149 3149 3149 3149 3149 3149 3120 3120 3120 3120 3120 3120 2040 2040 2040 2040 2040 2040 2040 2040 2040 2040 2040 2028 2028 2028 2028 2028 2016 2016 2005 2005 2005 2005 2005 2005 2005 2005 2005 2005 1993 1993 1993 1993 1993 1993 1981 1981 1981 1981 1981 1981 1981 1981 1981 1981 1981 1981 1981 1981 1970 1970 1959 1947 1947 1959 1947 1947 1947 1947 1947 1947 1936 1936 1936 1936 1936 1936 1936 1936 1936 1936 1926 1926 1926 1915 1915 1915 1904 1904 1904 1904 1904 1904 1894 1894 1894 1894 1894 1894 1894 1883 1883 1883 1883 1883 1883 1883 5374 5374 5374 5374 5291 5291 5291 5291 5291 5291 5210 5210 5210 5210 5210 5210 5210 5291 5832 6038 6038 6038 6038 6146 6146 6146 6038 6038 6038 5933 5640 5374 5291 5210 5210 5210 5210 5210 5210 5291 5291 5291 5291 5210 5210 5210 5210 5210 5210 5210 0 0 0 0 0 0 0 0 0 0 0 0 0
