0 0 0 0 0 0 0 0 0 0 0 0 0 0 0 0 0 0 0 0 0 0 0 0 0 0 0 0 0 0 0 0 0 0 0 0 0 0 0 0 0 6375 6259 5832 5832 5832 5933 5832 5832 5832 5734 5734 5832 0 0 0 0 0 0 7332 7332 7492 7492 7660 7660 7660 7660 7660 7660 7660 7835 7660 7492 7492 7332 7332 7660 7660 7660 7492 7492 7492 7660 7660 7660 7660 7492 7332 7332 7332 7332 7178 7178 7178 7660 7660 7835 7835 7835 7835 7835 7835 7835 7835 7835 7835 7835 7835 7660 7660 7660 7660 7835 7835 7835 7835 8019 7835 7660 7660 7660 7660 7835 7835 7835 7835 7835 7835 7835 7835 7835 7835 7835 5374 5374 5374 5374 5374 5374 5374 5374 5374 5374 5374 5374 5374 5374 5374 5374 5374 5374 5460 5374 5374 5374 5374 5374 5374 5374 5374 5374 5374 5374 5460 5460 5460 5460 5374 5374 5374 5933 5933 5933 6038 6038 5933 5933 5933 5933 5933 5933 5933 5933 5933 5933 5832 5832 5933 5933 5933 6038 6038 6038 6038 6038 6038 6038 6038 6038 7660 7660 7660 7835 7660 7660 7835 7835 7835 7835 7835 7835 7835 7835 7660 7660 7492 7492 7332 7332 7332 7332 7332 7332 7332 7332 7492 7660 7835 7835 7835 7835 7835 8019 8019 8019 8019 8019 7835 7835 7835 7835 7660 7660 7492 7492 7332 7332 7332 7332 7332 7492 7492 7492 7492 7492 7492 7492 7492 7492 7660 7660 7660 7660 7835 7835 7835 7835 7835 7835 8019 7835 7835 7660 7660 7660 7660 7492 7492 7492 3539 3539 3576 3576 3576 3576 3614 3614 0 0 0 0 0 0 0 0 0 0 0 3433 3399 3399 3399 3399 3399 3399 3399 3399 3399 3399 3399 3399 1947 1947 1947 1936 1936 1936 1936 1936 1936 1936 1926 1926 1926 1926 1926 1926 1926 1926 1915 1915 1915 1915 1915 1915 1915 1904 1904 1894 1894 1894 1894 1894 1894 1894 1883 1883 1883 1894 1883 1883 1883 1883 1883 1883 1883 1883 1883 1883 1883 1883 1883 1883 1883 1883 1883 1883 1883 1873 1873 1873 1873 1873 1873 1873 1873 1873 1873 1873 1873 1873 1873 1873 1873 0 0 0 0 4645 4645 4645 4582 4582 4582 4582 4645 4645 4645 4645 4645 4645 4645 4645 4645 4708 4708 4708 4708 7332 7332 7178 7178 7178 7178 7332 7332 7332 7332 7332 7332 7332 7332 7332 7332 7332 7332 7332 7332 7332 7332 7178 7178 7178 7178 7178 7178 7332 7332 7332 7332 7332 7332 7332 7332 7332 7332 7332 7332 7332 7332 7332 7332 7332 7332 7332 7332 7332 7332 7332 7332 7332 7332 7178 7178 7178 7178 7178 7178 7178 7178 7178 7178 7178 7178 7178 7178 7178 7178 7178 7178 7178 7178 7178 7178 7178 7178 7178 7030 7030 7030 7030 7030 7030 7178 7030 7030 7030 7030 7030 7030 6889 6889 6889 6622 6622 6622 6753 6753 6753 6753 6889 6889 6889 4645 4645 4708 4708 4708 4645 4645 4645 4582 4582 4582 4582 4522 4522 4522 4463 4463 4463 4463 4463 4405 4349 4349 4349 4349 4349 4349 4349 4295 4295 4295 4295 4295 4295 4295 4295 4295 4241 4241 4241 4241 4241 4241 4139 4139 4139 4139 4139 4089 4089 4089 4089 4089 4139 4139 4139 4139 4190 4190 4241 4241 4241 4241 4241 4295 4295 4295 4295 4241 4241 4295 4295 4295 4295 4295 4295 4295 4295 4349 4349 5640 5640 5640 5640 5640 5734 5734 5734 5640 5640 5640 5640 5640 5640 5640 5640 5640 5640 5640 5640 5640 5640 5640 5640 5640 5640 5640 5548 5548 5548 5548 5548 5548 5548 0 0 0 0 0 0 0 0 0 0 0 0 0
0 0 0 0 0 0 0 0 0 0 0 0 0 0 0 0 0 0 0 0 0 0 0 0 0 0 0 0 0 0 0 0 0 0 0 0 0 0 0 0 0 0 0 5832 5832 5832 5933 5832 5832 5832 5832 5832 5832 5832 0 0 0 0 0 7332 7332 7492 7660 7660 7835 7660 7660 7835 7660 7660 7660 7660 7835 7835 7835 7835 7660 7660 7660 7660 7492 7492 7660 7660 7660 7660 7492 7492 7492 7332 7332 7332 7332 7332 7835 7835 7835 7835 7835 7835 7835 7835 7835 7835 7835 7835 7835 7835 7660 7660 7660 7660 7835 7835 7835 7835 7660 7660 7660 7660 7660 7660 7660 7835 7835 7835 7835 7835 7835 7835 7835 7835 7835 7835 5374 5374 5374 5374 5374 5374 5374 5374 5374 5374 5374 5374 5374 5374 5374 5460 5460 5460 5374 5374 5374 5374 5374 5374 5374 5374 5374 5374 5374 5460 5460 5460 5460 5374 5374 5374 5933 5933 5933 6038 6038 5933 5933 5933 5933 5933 5933 5933 5832 5832 5832 5832 5832 5832 5933 5933 6038 6038 6038 6038 6038 6038 6038 6038 6038 6146 7660 7660 7835 7660 7660 7835 7835 7835 7835 7835 7835 7835 7835 7660 7492 7492 7492 7332 7332 7178 7178 7178 7178 7178 7332 7332 7492 7660 7835 7835 7835 7835 8019 8019 8019 8019 8019 7835 7835 7835 7835 7660 7660 7492 7492 7332 7332 7332 7332 7332 7492 7492 7492 7492 7492 7492 7492 7492 7492 7660 7660 7660 7660 7835 7835 7835 7835 7835 7835 7835 7835 7835 7660 7660 7660 7492 7492 7492 7492 3576 3576 3576 3576 3576 3576 3614 3614 0 0 0 0 0 0 0 0 0 0 0 3468 3433 3399 3399 3399 3399 3399 3399 3399 3399 3399 3399 3399 1936 1936 1936 1936 1936 1936 1936 1936 1936 1936 1926 1926 1926 1926 1926 1926 1926 1926 1915 1915 1915 1915 1915 1915 1915 1904 1904 1894 1894 1894 1894 1894 1894 1894 1883 1883 1883 1894 1894 1883 1883 1883 1894 1883 1883 1883 1883 1883 1883 1883 1883 1883 1883 1883 1883 1883 1883 1883 1883 1883 1873 1873 1873 1873 1873 1873 1873 1873 1873 1873 1873 1873 1873 0 0 0 0 4582 4582 4645 4582 4582 4582 4582 4645 4645 4645 4645 4645 4645 4645 4645 4645 4708 4708 4774 4774 7332 7332 7178 7178 7178 7178 7332 7332 7332 7332 7332 7332 7332 7332 7332 7332 7332 7332 7332 7332 7332 7178 7178 7178 7178 7178 7178 7178 7332 7332 7332 7332 7332 7332 7332 7332 7332 7332 7332 7332 7332 7332 7332 7332 7332 7332 7332 7332 7332 7332 7332 7332 7332 7332 7178 7178 7178 7178 7178 7178 7178 7178 7178 7178 7178 7178 7178 7178 7178 7178 7178 7178 7178 7178 7178 7178 7178 7178 7178 7178 7030 7030 7030 7030 7030 7178 7030 7030 7030 7030 7030 7030 7178 7030 7030 6753 6753 6753 6753 6753 6753 6889 6889 6889 6889 4708 4708 4708 4708 4708 4645 4645 4582 4582 4582 4582 4582 4522 4522 4522 4463 4463 4463 4463 4463 4405 4349 4349 4349 4349 4349 4349 4349 4295 4295 4295 4295 4295 4295 4295 4241 4241 4241 4241 4241 4241 4241 4241 4190 4139 4139 4139 4139 4089 4089 4089 4139 4139 4139 4139 4139 4139 4190 4190 4241 4241 4241 4241 4241 4241 4295 4295 4295 4241 4241 4295 4295 4295 4295 4295 4349 4349 4349 4349 4349 5640 5640 5640 5640 5640 5734 5734 5734 5640 5640 5640 5640 5640 5640 5640 5640 5640 5640 5640 5640 5640 5640 5640 5640 5640 5640 5640 5548 5548 5548 5548 5548 5548 5548 0 0 0 0 0 0 0 0 0 0 0 0 0
0 0 0 0 0 0 0 0 0 0 0 0 0 0 0 0 0 0 0 0 0 0 0 0 0 0 0 0 0 0 0 0 0 0 0 0 0 0 0 0 0 0 0 5933 5933 5933 5933 5933 5832 5832 5832 5832 5832 5832 0 0 0 0 0 7332 7332 7492 7492 7660 7835 7660 7660 7660 7660 7660 7660 7660 7835 7835 7835 7835 7835 7660 7660 7492 7492 7492 7660 7660 7660 7660 7660 7660 7492 7492 7660 7492 7492 7660 7835 7835 7835 7835 7835 7835 7835 7835 7835 7835 7835 7835 7835 7835 7660 7660 7660 7660 7835 7835 7835 7835 7660 7660 7660 7660 7660 7660 7660 7835 7835 7835 7835 7835 7835 7835 7660 7660 7660 5374 5374 5374 5374 5374 5374 5374 5374 5374 5374 5374 5374 5374 5374 5374 5374 5460 5460 5460 5374 5374 5374 5374 5374 5374 5374 5374 5374 5374 5374 5460 5460 5460 5548 5460 5460 5548 5933 5933 5933 6038 6038 6038 5933 5933 5933 5933 5933 5933 5832 5832 5832 5832 5832 5832 5933 5933 6038 6038 6038 6038 6038 6038 6038 6038 6038 6038 6146 7660 7835 7660 7660 7835 7835 7835 7835 7835 7835 7835 7835 7660 7492 7492 7492 7332 7332 7178 7178 7178 7178 7178 7332 7332 7492 7660 7835 7835 7835 7835 7835 7835 8019 8019 8019 7835 7835 7835 7835 7835 7660 7492 7492 7332 7332 7332 7030 7030 7178 7332 7492 7492 7492 7492 7492 7492 7660 7660 7660 7660 7660 7660 7835 7835 7835 7835 7835 7835 7835 7835 7660 7660 7660 7492 7492 7492 7492 3576 3576 3576 3539 3539 3539 3576 3614 0 0 0 0 0 0 0 0 0 0 0 3468 3433 3399 3399 3399 3399 3399 3399 3399 3399 3399 3399 3399 1936 1936 1936 1936 1936 1936 1936 1936 1936 1936 1926 1926 1926 1936 1926 1926 1926 1926 1915 1915 1915 1915 1915 1915 1915 1904 1894 1894 1894 1894 1894 1894 1894 1894 1894 1894 1894 1904 1894 1894 1883 1883 1894 1894 1894 1894 1894 1883 1883 1883 1883 1883 1883 1883 1883 1883 1883 1883 1883 1883 1883 1873 1873 1873 1873 1873 1873 1873 1873 1873 1873 1873 1873 0 0 0 0 4582 4582 4582 4582 4582 4582 4582 4645 4645 4645 4582 4582 4645 4645 4645 4645 4645 4708 4774 4774 7332 7332 7332 7332 7178 7178 7332 7332 7332 7332 7332 7332 7332 7332 7332 7332 7332 7332 7332 7332 7332 7178 7178 7178 7178 7178 7178 7178 7332 7332 7332 7332 7332 7332 7332 7332 7332 7332 7332 7332 7332 7332 7332 7332 7332 7332 7332 7332 7332 7332 7332 7332 7332 7332 7178 7178 7178 7178 7178 7178 7178 7178 7178 7178 7178 7178 7178 7178 7178 7178 7178 7178 7178 7178 7178 7178 7178 7178 7178 7178 7030 7030 7030 7030 7030 7178 7030 7030 7030 7030 7030 7030 7178 7030 7030 6889 6889 6889 6753 6753 6889 6889 6889 6889 7030 7030 4708 4708 4645 4645 4645 4645 4582 4582 4582 4582 4522 4522 4522 4522 4463 4463 4463 4405 4405 4405 4405 4349 4349 4349 4349 4349 4349 4349 4349 4295 4295 4295 4295 4295 4241 4241 4241 4241 4241 4241 4241 4241 4190 4139 4139 4139 4139 4139 4139 4139 4139 4139 4190 4190 4190 4190 4190 4190 4241 4241 4241 4241 4241 4241 4295 4295 4295 4241 4241 4295 4295 4295 4295 4349 4349 4349 4349 4349 4405 5640 5640 5640 5640 5640 5734 5734 5640 5640 5640 5640 5640 5640 5640 5640 5640 5640 5640 5640 5640 5640 5640 5640 5640 5640 5640 5548 5548 5548 5548 5548 5548 5548 5548 0 0 0 0 0 0 0 0 0 0 0 0 0
0 0 0 0 0 0 0 0 0 0 0 0 0 0 0 0 0 0 0 0 0 0 0 0 0 0 0 0 0 0 0 0 0 0 0 0 0 0 0 0 0 0 0 5832 5832 5832 5933 5933 5832 5832 5832 5832 5832 5832 5933 0 0 0 0 7492 7332 7332 7492 7660 7835 7660 7660 7660 7660 7660 7835 7835 7835 7835 7835 7835 7835 7492 7492 7492 7492 7492 7492 7660 7660 7660 7660 7492 7332 7332 7660 7660 7660 7835 7835 7835 7835 7835 7835 7835 7835 7835 7835 7835 7835 7835 7835 7835 7835 7835 7660 7660 7835 7835 7660 7660 7492 7492 7660 7660 7660 7660 7660 7835 7835 7835 7835 7835 7835 7660 7660 7660 7660 5291 5291 5291 5374 5374 5374 5374 5374 5374 5374 5374 5374 5374 5374 5374 5374 5374 5374 5374 5374 5374 5374 5374 5374 5374 5374 5374 5374 5374 5374 5460 5460 5460 5548 5460 5460 5548 5548 5933 6038 6038 6038 6038 6038 5933 5933 5933 5933 5933 5832 5832 5832 5832 5832 5933 5933 5933 6038 6038 6038 6038 6038 6038 6038 6038 6038 6038 6146 7492 7660 7660 7660 7835 7835 7835 7835 7835 7835 7835 7835 7660 7492 7492 7332 7332 7332 7178 7178 7178 7178 7332 7332 7492 7660 7660 7835 7835 7835 7835 7835 7835 7835 8019 8019 7835 7835 7835 7835 7835 7660 7492 7492 7332 7178 7178 7030 7030 7030 7178 7178 7492 7492 7492 7492 7492 7660 7492 7492 7492 7492 7660 7660 7835 7835 7835 7835 8019 7835 7835 7835 7835 7835 0 0 0 0 3539 3539 3539 3539 3539 3539 3539 3576 3539 3503 3503 0 0 0 0 0 0 0 0 0 3433 3399 3399 3399 3399 3399 3399 3399 3399 3399 3399 3399 1926 1926 1926 1936 1936 1936 1936 1936 1936 1936 1926 1926 1926 1936 1926 1926 1926 1926 1915 1915 1915 1915 1915 1915 1915 1915 1894 1894 1894 1894 1894 1894 1894 1894 1894 1894 1894 1894 1894 1894 1894 1894 1894 1894 1894 1894 1894 1894 1894 1883 1883 1883 1883 1883 1883 1883 1883 1883 1883 1883 1883 1873 1873 1873 1873 1873 1873 1873 1873 1873 1873 1873 1873 0 0 0 0 4582 4582 4582 4582 4582 4582 4582 4582 4582 4582 4582 4582 4582 4645 4645 4645 4645 4708 4774 4774 7332 7332 7332 7332 7178 7178 7332 7332 7332 7332 7332 7332 7332 7332 7332 7332 7332 7332 7332 7332 7332 7178 7178 7178 7178 7178 7178 7332 7332 7332 7332 7332 7332 7332 7332 7332 7332 7332 7332 7332 7332 7332 7332 7332 7332 7332 7332 7332 7332 7332 7332 7332 7332 7332 7178 7178 7178 7178 7178 7178 7178 7178 7178 7178 7178 7178 7178 7178 7178 7178 7178 7178 7178 7178 7178 7178 7178 7178 7178 7178 7030 7030 7030 7030 7030 7178 7030 7030 7030 7030 7030 7030 7178 6889 6889 6753 6753 6753 6753 6753 6889 6889 6889 7030 7030 7030 4708 4708 4645 4645 4645 4582 4582 4582 4582 4582 4522 4522 4522 4463 4463 4463 4463 4405 4405 4405 4405 4349 4349 4349 4349 4349 4349 4295 4295 4295 4295 4295 4295 4295 4241 4241 4241 4241 4241 4241 4241 4241 4190 4190 4139 4139 4139 4139 4139 4139 4139 4139 4190 4190 4190 4190 4190 4190 4190 4241 4241 4241 4241 4241 4295 4295 4295 4241 4241 4295 4349 4349 4349 4349 4349 4349 4349 4405 4405 5640 5640 5640 5640 5640 5734 5734 5640 5640 5640 5640 5640 5640 5640 5640 5640 5640 5640 5640 5640 5640 5640 5640 5640 5640 5640 5548 5548 5548 5548 5548 5548 5548 5548 0 0 0 0 0 0 0 0 0 0 0 0 0
0 0 0 0 0 0 0 0 0 0 0 0 0 0 0 0 0 0 0 0 0 0 0 0 0 0 0 0 0 0 0 0 0 0 0 0 0 0 0 0 0 0 0 5832 5832 5832 5933 5933 5832 5832 5832 5832 5832 5832 5933 0 0 0 0 0 7332 7332 7492 7660 7835 7835 7835 7835 7835 7835 7835 7835 7835 7835 7835 7835 7492 7492 7492 7492 7492 7492 7492 7660 7660 7660 7660 7492 7332 7332 7660 7660 7660 7835 7835 7835 7835 7835 7835 7835 7835 7835 7835 7835 7835 7835 7835 7835 7835 7835 7835 7835 7835 7835 7660 7492 7332 7332 7332 7492 7660 7660 7660 7660 7660 7835 7835 7660 7492 7492 7492 7492 7492 5291 5291 5291 5374 5374 5374 5374 5374 5374 5374 5374 5374 5374 5374 5374 5374 5374 5374 5374 5374 5374 5374 5374 5374 5374 5374 5374 5374 5374 5374 5374 5460 5460 5460 5460 5460 5460 5460 5640 5832 6038 6038 6038 6038 5933 5933 5933 5933 5933 5933 5933 5933 5933 5933 5933 5933 5933 6038 6038 6038 6038 6038 6038 6038 6038 6038 6146 6259 7492 7660 7660 7660 7835 7835 7835 7835 7835 7835 7835 7835 7660 7492 7332 7332 7332 7178 7178 7178 7178 7178 7332 7332 7492 7492 7660 7660 7835 7835 7835 7835 7835 7835 8019 8019 7835 7835 7835 7835 7835 7660 7492 7492 7178 7030 7030 7030 7030 7030 7030 7030 7492 7492 7492 7492 7492 7660 7492 7492 7492 7492 7660 7660 7835 7835 7835 8019 8019 8019 7835 7835 0 0 0 0 0 0 3539 3539 3539 3539 3539 3539 3539 3539 3539 3503 3503 3503 0 0 0 0 0 0 0 3468 3433 3433 3399 3399 3399 3399 3399 3399 3399 3399 3399 3399 1926 1926 1926 1936 1936 1936 1936 1936 1936 1936 1926 1926 1936 1936 1926 1926 1926 1926 1915 1915 1915 1915 1915 1915 1904 1904 1904 1894 1894 1894 1894 1894 1894 1894 1894 1894 1894 1894 1894 1894 1894 1894 1894 1894 1894 1894 1894 1894 1894 1883 1883 1883 1883 1883 1883 1883 1883 1883 1883 1883 1883 1873 1873 1873 1873 1873 1873 1873 1873 1873 1873 1873 1873 0 0 0 0 4582 4522 4522 4582 4582 4582 4582 4582 4582 4582 4582 4582 4582 4582 4645 4645 4645 4708 4774 4774 7332 7332 7332 7332 7178 7178 7332 7332 7332 7332 7332 7332 7332 7332 7332 7332 7332 7332 7332 7332 7178 7178 7178 7178 7178 7332 7332 7332 7332 7332 7332 7332 7332 7332 7332 7332 7332 7332 7332 7332 7332 7332 7332 7332 7332 7332 7332 7332 7332 7332 7332 7178 7178 7332 7178 7178 7178 7178 7178 7178 7178 7178 7178 7178 7178 7178 7178 7178 7178 7178 7178 7178 7178 7178 7178 7178 7178 7178 7178 7178 7030 7030 7030 7030 7030 7178 7030 7030 7030 7030 7030 7030 7178 6889 6889 6753 6753 6753 6753 6753 6889 6889 6889 7030 7030 7030 4708 4708 4645 4645 4645 4582 4582 4582 4582 4522 4522 4522 4463 4463 4463 4463 4463 4463 4405 4405 4405 4405 4349 4349 4349 4349 4349 4295 4295 4295 4295 4295 4295 4295 4241 4241 4241 4241 4241 4241 4190 4190 4190 4190 4139 4139 4139 4139 4139 4139 4139 4139 4139 4190 4190 4190 4190 4190 4190 4241 4241 4241 4241 4241 4241 4295 4295 4295 4295 4295 4349 4349 4349 4349 4349 4349 4349 4405 4405 5640 5640 5640 5640 5640 5734 5734 5734 5640 5640 5734 5640 5640 5640 5640 5640 5640 5640 5640 5640 5640 5640 5640 5640 5640 5640 5640 5548 5548 5548 5548 5548 5548 5548 0 0 0 0 0 0 0 0 0 0 0 0 0
0 0 0 0 0 0 0 0 0 0 0 0 0 0 0 0 0 0 0 0 0 0 0 0 0 0 0 0 0 0 0 0 0 0 0 0 0 0 0 0 0 0 0 5933 5933 5933 5933 5933 5832 5832 5832 5832 5832 5832 5832 0 0 0 0 0 7332 7332 7492 7660 7660 7660 7660 7660 7660 7660 7835 7835 7835 7660 7660 7835 7492 7492 7492 7492 7492 7492 7492 7660 7660 7660 7660 7492 7492 7492 7660 7492 7492 7660 7660 7835 7835 7835 7835 7835 7835 7835 7835 7835 7835 7835 7660 7660 7660 7660 7660 7660 7660 7660 7492 7492 7332 7332 7332 7332 7332 7332 7660 7660 7660 7660 7660 7332 7332 7332 7492 7492 7492 5374 5291 5291 5374 5374 5374 5374 5374 5374 5374 5374 5374 5374 5374 5374 5374 5374 5374 5374 5291 5291 5291 5291 5374 5374 5374 5374 5374 5374 5374 5374 5374 5460 5460 5374 5374 5460 5460 5640 5734 5933 5933 5933 5933 5933 5933 5933 5933 5933 5933 5933 5933 5933 5933 5933 5933 5933 5933 5933 6038 6038 6038 6038 6038 6038 6146 6146 6259 6259 7660 7660 7660 7835 7835 7835 7835 7835 7835 7835 7835 7660 7492 7332 7332 7332 7178 7178 7178 7178 7178 7332 7332 7492 7492 7660 7660 7835 7835 7835 7835 7835 8019 8019 8019 7835 7835 7835 7835 7660 7660 7492 7178 7178 7030 6889 6889 6889 6889 7030 7030 7030 7030 7030 7030 7492 7660 7492 7492 7660 7492 7492 7660 7835 0 0 0 0 0 0 0 0 0 0 0 0 3539 3539 3539 3539 3539 3539 3503 3503 3539 3539 3539 3503 3503 3503 3503 0 0 0 0 0 3468 3433 3433 3399 3399 3399 3399 3399 3399 3399 3399 3399 3399 1936 1936 1936 1936 1936 1936 1936 1936 1936 1936 1926 1926 1936 1936 1926 1926 1926 1926 1926 1915 1915 1915 1915 1915 1904 1904 1904 1904 1904 1894 1894 1894 1904 1904 1894 1894 1894 1894 1894 1894 1894 1894 1894 1894 1894 1894 1894 1894 1894 1883 1883 1883 1883 1883 1883 1883 1883 1883 1883 1883 1883 1873 1873 1873 1873 1873 1873 1873 1873 1873 1873 1873 1873 0 0 0 0 0 4522 4522 4522 4582 4582 4582 4582 4582 4582 4582 4582 4582 4582 4645 4645 4645 4708 4774 4774 4842 7332 7332 7332 7178 7178 7332 7332 7332 7332 7332 7332 7332 7332 7332 7332 7332 7332 7332 7332 7178 7178 7178 7178 7178 7332 7332 7332 7332 7332 7332 7332 7332 7332 7332 7332 7332 7332 7332 7332 7332 7332 7332 7332 7332 7332 7332 7332 7332 7178 7178 7178 7178 7332 7178 7178 7178 7178 7178 7178 7178 7178 7178 7178 7178 7178 7178 7178 7178 7178 7178 7178 7178 7178 7178 7178 7178 7030 7030 7178 7178 7030 7030 7030 7030 7178 7030 7030 7030 7030 7030 7030 7030 6889 6889 6889 6889 6889 6889 6889 6889 6889 7030 7030 7030 7030 4708 4708 4645 4645 4645 4582 4582 4582 4582 4522 4522 4522 4463 4463 4463 4463 4463 4463 4405 4405 4405 4405 4349 4349 4349 4349 4349 4295 4295 4295 4295 4295 4295 4241 4241 4241 4241 4241 4241 4241 4190 4190 4190 4190 4139 4139 4139 4139 4139 4139 4139 4139 4139 4190 4190 4190 4190 4190 4190 4241 4241 4241 4241 4241 4241 4241 4295 4241 4241 4295 4349 4349 4349 4349 4349 4349 4349 4349 4349 4349 5734 5734 5734 5734 5734 5734 5734 5640 5640 5734 5640 5640 5640 5640 5640 5640 5640 5640 5640 5640 5640 5640 5640 5640 5640 5640 5640 5640 5548 5548 5548 5548 5548 0 0 0 0 0 0 0 0 0 0 0 0 0
0 0 0 0 0 0 0 0 0 0 0 0 0 0 0 0 0 0 0 0 0 0 0 0 0 0 0 0 0 0 0 0 0 0 0 0 0 0 0 0 0 0 0 0 5933 5933 5933 5933 5832 5832 5734 5734 5734 5832 5832 0 0 5832 0 0 7332 7332 7492 7660 7660 7660 7660 7660 7660 7660 7835 7835 7660 7660 7660 7492 7492 7492 7492 7492 7492 7492 7492 7492 7660 7492 7492 7492 7492 7492 7492 7492 7492 7492 7492 7835 7660 7660 7835 7835 7835 7835 7835 7835 7835 7660 7660 7660 7660 7492 7492 7492 7332 7332 7332 7332 7332 7332 7332 7332 7332 7332 7332 7492 7492 7492 7332 7332 7332 7332 7492 7492 7492 5374 5374 5374 5374 5374 5374 5374 5374 5291 5291 5374 5374 5374 5374 5374 5374 5374 5374 5374 5291 5291 5291 5291 5374 5374 5374 5374 5374 5374 5374 5374 5374 5374 5374 5374 5374 5460 5460 5640 5734 5832 5933 5933 5933 5933 5933 5933 5832 5832 5933 5933 5933 5933 5933 5933 5933 6038 5933 5933 6038 6038 6038 6038 6038 6146 6146 6146 6146 6259 6375 7660 7660 7835 7835 7835 7835 7835 7835 7835 7660 7492 7492 7492 7332 7332 7178 7178 7178 7178 7178 7178 7332 7332 7492 7492 7492 7835 7835 7835 7835 7835 8019 8019 8212 8019 8019 8019 8019 7660 7660 7660 7178 7178 7030 6889 6889 6889 6889 7030 7030 7030 7030 7030 7030 7492 7660 7492 7492 0 7492 7492 0 0 0 0 0 0 0 0 0 0 0 0 0 0 3539 3539 3539 3539 3539 3539 3503 3503 3539 3539 3539 3539 3503 3503 3503 0 0 0 0 3399 3399 3433 3433 3399 3399 3399 3399 3399 3399 3399 3399 3399 3399 1936 1936 1936 1936 1936 1936 1936 1936 1936 1936 1936 1936 1936 1936 1936 1936 1936 1926 1926 1926 1915 1915 1915 1915 1915 1915 1904 1904 1904 1904 1894 1894 1904 1904 1894 1894 1894 1904 1894 1894 1894 1894 1894 1894 1894 1894 1894 1894 1894 1883 1883 1883 1883 1883 1883 1883 1883 1883 1883 1883 1883 1873 1873 1873 1873 1873 1873 1873 1873 1883 1883 1873 1873 0 0 0 0 0 4463 4463 4522 4582 4582 4582 4582 4582 4582 4582 4582 4582 4582 4645 4645 4645 4708 4774 4774 4842 7332 7332 7332 7178 7178 7332 7332 7332 7332 7332 7332 7332 7332 7332 7332 7332 7332 7332 7332 7332 7332 7332 7332 7332 7332 7332 7332 7332 7332 7332 7332 7332 7332 7332 7332 7332 7332 7332 7332 7332 7332 7332 7332 7332 7332 7332 7332 7332 7178 7178 7178 7178 7332 7178 7178 7178 7178 7178 7178 7178 7178 7178 7178 7178 7178 7178 7178 7178 7178 7178 7178 7178 7178 7178 7178 7030 7030 7030 7178 7178 7178 7178 7178 7178 7178 7030 7030 7030 7030 7030 7030 7030 6889 6889 6889 6889 6889 6889 6889 6889 6889 7030 7030 7030 7030 4708 4708 4708 4708 4645 4582 4582 4582 4582 4522 4522 4463 4463 4463 4463 4463 4463 4463 4405 4405 4405 4405 4349 4349 4349 4349 4349 4295 4295 4295 4295 4295 4295 4241 4241 4241 4241 4241 4241 4241 4190 4190 4190 4190 4139 4139 4139 4139 4139 4139 4139 4139 4190 4190 4190 4190 4190 4190 4190 4241 4241 4241 4241 4241 4241 4241 4295 4241 4241 4295 4349 4295 4295 4349 4349 4349 4349 4349 4295 4295 5734 5734 5734 5734 5734 5734 5734 5734 5734 5734 5734 5640 5640 5640 5640 5640 5640 5640 5640 5640 5640 5640 5640 5640 5640 5640 5640 5640 5640 5640 5640 5640 5640 0 0 0 0 0 0 0 0 0 0 0 0 0
0 0 0 0 0 0 0 0 0 0 0 0 0 0 0 0 0 0 0 0 0 0 0 0 0 0 0 0 0 0 0 0 0 0 0 0 0 0 0 0 0 0 0 0 0 5933 5933 5933 5832 5832 5734 5734 5734 5734 5734 5832 5832 5832 5832 5832 7492 7492 7492 7660 7835 7835 7835 7835 7835 7835 7835 7835 7332 7332 7492 7492 7492 7492 7492 7492 7492 7492 7492 7492 7492 7492 7492 7492 7492 7492 7492 7492 7492 7492 7492 7660 7492 7492 7660 7660 7660 7660 7660 7660 7660 7492 7492 7660 7492 7332 7332 7332 7332 7332 7332 7332 7332 7332 7332 7332 7332 7178 7178 7178 7332 7332 7332 7332 7332 7492 7492 7492 5374 5374 5374 5374 5374 5374 5374 5374 5374 5291 5291 5374 5374 5374 5374 5374 5374 5374 5374 5374 5374 5374 5374 5374 5374 5374 5374 5374 5374 5374 5374 5374 5374 5374 5374 5374 5374 5374 5460 5640 5734 5832 5933 5933 5933 5933 5933 5933 5832 5832 5933 5933 5933 5933 5933 5933 6038 6038 6038 6038 6038 6038 6038 6038 6038 6146 6146 6146 6146 6146 6259 6259 7835 7835 7835 7835 7835 7835 7835 7835 7660 7492 7492 7492 7332 7332 7178 7178 7178 7178 7178 7178 7332 7332 7332 7492 7492 7835 7835 7835 7835 7835 8019 8019 8212 0 0 0 8212 8212 0 0 0 0 0 0 0 0 0 0 0 0 0 0 0 0 0 0 0 0 0 0 0 0 0 0 0 0 0 0 0 0 0 0 0 0 0 3539 3539 3539 3539 3539 3539 3539 3539 3539 3539 3539 3539 3539 0 0 0 0 0 3399 3399 3399 3399 3399 3399 3399 3399 3399 3399 3399 3399 3399 3433 3433 1936 1936 1936 1936 1936 1936 1936 1936 1936 1936 1936 1936 1936 1936 1936 1936 1915 1915 1915 1915 1915 1915 1915 1915 1915 1904 1904 1904 1904 1904 1904 1904 1904 1904 1904 1904 1904 1894 1894 1894 1894 1894 1894 1894 1894 1894 1894 1894 1883 1883 1883 1883 1883 1883 1883 1883 1883 1883 1883 1883 1883 1883 1873 1873 1873 1873 1873 1873 1883 1883 1883 1883 0 0 0 0 0 4463 4463 4522 4582 4582 4582 4582 4582 4582 4582 4582 4582 4582 4645 4645 4708 4774 4842 4842 4911 7178 7178 7178 7178 7178 7178 7178 7332 7332 7332 7332 7332 7332 7332 7332 7332 7332 7332 7332 7332 7332 7332 7332 7332 7332 7332 7332 7332 7332 7332 7332 7332 7332 7332 7332 7332 7332 7332 7332 7332 7332 7332 7332 7332 7332 7332 7332 7332 7332 7332 7178 7178 7332 7178 7178 7178 7178 7178 7178 7178 7178 7178 7178 7178 7178 7178 7178 7178 7178 7178 7030 7030 7030 7030 7030 7030 7030 7030 7178 7178 7178 7178 7178 7178 7178 7030 7030 7030 7030 7030 7030 7030 6889 6889 6889 6889 6889 6889 6889 6889 6889 7030 7030 7030 7030 4645 4645 4708 4708 4645 4645 4582 4582 4582 4522 4522 4463 4463 4463 4463 4463 4463 4463 4405 4405 4405 4405 4349 4349 4405 4405 4349 4295 4295 4295 4295 4295 4295 4241 4241 4241 4241 4241 4241 4241 4190 4190 4190 4190 4139 4139 4139 4139 4139 4139 4139 4190 4190 4190 4190 4190 4190 4190 4190 4241 4241 4241 4241 4241 4241 4241 4295 4241 4241 4241 4295 4295 4295 4349 4349 4349 4349 4349 4295 4295 4405 5734 5734 5734 5734 5832 5832 5734 5734 5734 5734 5734 5640 5640 5640 5640 5640 5640 5640 5640 5640 5640 5640 5640 5640 5640 5640 5640 5640 5640 5640 5640 5640 0 0 0 0 0 0 0 0 0 0 0 0 0
0 0 0 0 0 0 0 0 0 0 0 0 0 0 0 0 0 0 0 0 0 0 0 0 0 0 0 0 0 0 0 0 0 0 0 0 0 0 0 0 0 0 0 0 0 5933 5832 5832 5734 5734 5734 5734 5734 5734 5734 5832 5832 5832 5832 5832 7492 7492 7492 7492 7660 7660 7660 7660 7492 7492 7332 7332 7332 7332 7332 7492 7492 7492 7492 7492 7492 7492 7492 7492 7492 7492 7492 7492 7492 7492 7332 7332 7332 7332 7332 7178 7178 7178 7492 7492 7492 7492 7660 7492 7332 7332 7492 7492 7332 7332 7332 7332 7332 7332 7332 7332 7332 7332 7332 7332 7332 7178 7178 7178 7178 7332 7332 7332 7332 7492 7492 5291 5291 5291 5374 5374 5374 5374 5291 5291 5291 5291 5291 5374 5374 5374 5374 5374 5460 5460 5460 5460 5374 5374 5374 5374 5374 5374 5374 5374 5374 5374 5374 5374 5374 5374 5374 5374 5374 5374 5548 5640 5734 5832 5933 5933 5933 5933 5933 5933 5933 5933 5933 5933 5933 6038 6038 6038 6038 6038 6038 6038 6038 6038 6038 6038 6038 6038 6146 6146 6146 6146 6259 0 0 0 7835 7835 7835 7835 7835 7835 7835 7835 7835 7835 7835 0 0 0 7178 7178 7178 7178 7332 7332 7332 7660 7835 7835 0 0 0 0 0 0 0 0 0 0 0 0 0 0 0 0 0 0 0 0 0 0 0 0 0 0 0 0 0 0 0 0 0 0 0 0 0 0 0 0 0 0 0 0 0 0 0 0 0 0 3539 3539 3539 3539 3539 3539 3539 3539 3539 3539 3539 3503 0 0 0 0 0 3399 3399 3399 3399 3399 3399 3399 3399 3399 3399 3399 3399 3399 3433 3433 1936 1936 1936 1936 1936 1936 1936 1936 1936 1936 1936 1936 1936 1936 1936 1936 1915 1915 1915 1915 1915 1915 1915 1915 1915 1915 1904 1904 1904 1904 1904 1904 1904 1904 1904 1904 1904 1894 1894 1894 1894 1894 1894 1894 1894 1894 1894 1894 1883 1883 1883 1883 1883 1883 1883 1883 1883 1883 1883 1883 1883 1883 1873 1873 1873 1873 1873 1873 1883 1883 1873 1873 0 0 0 0 0 0 4522 4522 4582 4582 4582 4582 4582 4582 4582 4582 4582 4582 4582 4645 4645 4708 4842 4842 4911 7178 7178 7178 7178 7178 7178 7178 7332 7332 7332 7332 7332 7332 7332 7332 7332 7332 7332 7332 7332 7332 7332 7332 7332 7332 7332 7332 7332 7332 7332 7332 7332 7332 7332 7332 7332 7332 7332 7332 7332 7332 7332 7332 7332 7332 7332 7332 7332 7332 7332 7332 7332 7332 7178 7178 7178 7178 7178 7178 7178 7178 7178 7178 7178 7178 7178 7178 7178 7178 7178 7030 7030 7030 7030 7030 7030 7030 7030 7178 7178 7178 7178 7178 7178 7178 7030 7030 7030 7030 7030 7030 7030 6889 6889 6889 6889 6889 6889 6889 6889 7030 7030 7030 7030 7178 4645 4645 4708 4708 4645 4645 4582 4582 4582 4522 4522 4522 4463 4463 4463 4463 4463 4463 4405 4405 4405 4405 4349 4349 4405 4405 4349 4349 4295 4295 4295 4295 4295 4295 4241 4241 4241 4241 4241 4241 4190 4190 4190 4190 4190 4190 4139 4139 4139 4139 4139 4139 4139 4139 4190 4190 4190 4190 4190 4241 4241 4241 4241 4241 4241 4241 4295 4241 4241 4241 4295 4241 4241 4295 4295 4349 4349 4349 4349 4295 4295 5640 5640 5734 5832 5832 5832 5832 5832 5832 5832 5832 5734 5640 5640 5734 5640 5640 5640 5640 5640 5734 5640 5640 5640 5640 5734 5734 5640 5640 5640 5640 5640 0 0 0 0 0 0 0 0 0 0 0 0 0
0 0 0 0 0 0 0 0 0 0 0 0 0 0 0 0 0 0 0 0 0 0 0 0 0 0 0 0 0 0 0 0 0 0 0 0 0 0 0 0 0 0 0 0 0 5832 5832 5734 5734 5640 5640 5640 5640 5640 5734 5832 5832 5832 5832 5832 5832 7332 7332 7492 7660 7492 7492 7332 7332 7332 7332 7332 7178 7178 7332 7332 7332 7332 7332 7332 7332 7332 7492 7492 7492 7492 7492 7332 7332 7332 7332 7332 7332 7178 7178 7178 7178 7178 7332 7332 7332 7492 7492 7332 7332 7332 7332 7332 7332 7332 7178 7178 7332 7178 7178 7332 7332 7332 7332 7332 7332 7178 7178 7178 7178 7332 7332 7332 7332 7492 7492 5291 5291 5291 5374 5374 5374 5374 5291 5291 5291 5291 5291 5374 5374 5374 5374 5374 5460 5460 5460 5460 5374 5374 5374 5374 5374 5374 5374 5374 5374 5374 5374 5374 5374 5374 5374 5374 5374 5548 5548 5640 5734 5832 5933 5933 5933 5933 5933 6038 5933 5933 5933 5933 6038 6038 6038 6038 6038 6038 6038 6038 6038 6038 5933 5933 6038 6038 6038 6146 6146 6146 6259 0 0 0 0 0 0 7835 7835 7835 0 0 0 0 0 0 0 0 0 0 0 0 0 0 0 0 0 0 0 0 0 0 0 0 0 0 0 0 0 0 0 0 0 0 0 0 0 0 0 0 0 0 0 0 0 0 0 0 0 0 0 0 0 0 0 0 0 0 0 0 0 0 0 0 0 0 0 0 3539 3539 3539 3539 3539 3539 3539 3576 3576 3503 3503 3503 0 0 3399 3399 3399 3399 3399 3399 3399 3399 3399 3399 3399 3399 3399 3399 3399 3399 3399 3399 1936 1936 1936 1936 1936 1936 1936 1936 1936 1936 1936 1936 1936 1936 1926 1926 1926 1926 1926 1915 1915 1915 1915 1915 1915 1915 1915 1904 1904 1904 1904 1904 1904 1894 1894 1904 1904 1894 1894 1894 1894 1894 1894 1894 1894 1894 1894 1894 1883 1883 1883 1883 1883 1883 1883 1883 1883 1883 1883 1883 1883 1883 1873 1873 1873 1873 1873 1873 1883 1883 1873 1873 0 0 0 0 0 4582 4522 4522 4582 4582 4582 4582 4582 4582 4582 4582 4582 4582 4582 4645 4645 4708 4842 4842 4911 7178 7178 7178 7178 7178 7178 7178 7332 7332 7332 7332 7332 7332 7332 7332 7332 7332 7332 7332 7332 7332 7332 7332 7332 7332 7332 7332 7332 7332 7332 7332 7332 7332 7332 7332 7332 7332 7332 7332 7332 7332 7332 7332 7332 7332 7332 7332 7332 7332 7332 7332 7332 7332 7178 7178 7178 7178 7178 7178 7178 7178 7178 7178 7178 7178 7178 7178 7178 7178 7178 7178 7030 7030 7030 7030 7178 7178 7178 7178 7178 7178 7178 7178 7178 7178 7030 7030 7030 7030 7030 7030 7030 6889 6889 6889 6889 6889 6889 6889 6889 6889 7030 7030 7030 7178 4645 4645 4708 4645 4645 4645 4582 4582 4582 4522 4522 4522 4463 4463 4463 4463 4463 4463 4405 4405 4405 4405 4405 4405 4349 4349 4349 4349 4295 4295 4295 4295 4295 4295 4241 4241 4241 4241 4241 4241 4190 4190 4190 4190 4190 4190 4139 4139 4139 4139 4139 4139 4139 4139 4139 4190 4190 4190 4190 4241 4241 4241 4241 4241 4241 4241 4241 4241 4241 4241 4241 4241 4241 4241 4241 4295 4295 4295 4295 4241 4241 4190 4190 5734 5734 5832 5832 5832 5933 5933 5933 5933 5832 5832 5832 5832 5832 5832 5832 5832 5832 5832 5734 5734 5734 5734 5734 5734 5734 5734 5734 5734 5734 0 0 0 0 0 0 0 0 0 0 0 0 0
0 0 0 0 0 0 0 0 0 0 0 0 0 0 0 0 0 0 0 0 0 0 0 0 0 0 0 0 0 0 0 0 0 0 0 0 0 0 0 0 0 0 0 0 0 0 5933 5734 5734 5640 5640 5640 5640 5640 5734 5832 5832 5832 5734 5734 5832 7332 7332 7332 7492 7492 7332 7332 7332 7332 7332 7178 7178 7178 7178 7332 7332 7332 7332 7332 7332 7332 7332 7332 7332 7332 7332 7332 7332 7178 7178 7178 7178 7178 7178 7178 7178 7178 7332 7332 7332 7332 7332 7332 7332 7332 7332 7332 7332 7178 7178 7178 7178 7178 7178 7178 7332 7332 7332 7332 7332 7178 7178 7178 7178 7332 7332 7332 7332 7492 7492 5374 5374 5374 5374 5374 5374 5374 5374 5374 5374 5291 5291 5374 5374 5374 5374 5374 5460 5460 5460 5460 5374 5374 5374 5374 5374 5374 5374 5374 5374 5374 5374 5374 5374 5374 5374 5374 5374 5640 5640 5734 5734 5734 5734 5933 5933 5933 5933 6038 5933 5933 5933 5933 5933 6038 6038 6038 6038 6038 6038 6038 6038 6038 5933 5933 6038 6038 6038 6146 6146 6146 6259 0 0 0 0 0 0 0 0 0 0 0 0 0 0 0 0 0 0 0 0 0 0 0 0 0 0 0 0 0 0 0 0 0 0 0 0 0 0 0 0 0 0 0 0 0 0 0 0 0 0 0 0 0 0 0 0 0 0 0 0 0 0 0 0 0 0 0 0 0 0 0 0 0 0 0 0 0 0 3539 3539 3539 3539 3539 3539 3539 3503 3503 3503 3503 3503 3468 3399 3399 3399 3399 3399 3399 3399 3399 3399 3399 3399 3399 3399 3399 3399 3399 3399 3399 1936 1936 1936 1936 1936 1936 1936 1936 1936 1936 1936 1936 1936 1936 1926 1926 1926 1926 1926 1926 1926 1915 1915 1915 1915 1915 1915 1904 1904 1904 1904 1904 1904 1894 1894 1904 1904 1904 1894 1894 1883 1883 1894 1894 1894 1894 1894 1894 1883 1883 1883 1883 1883 1883 1883 1883 1883 1883 1883 1883 1883 1883 1873 1873 1873 1873 1873 1873 1883 1883 1873 1873 0 0 0 0 0 4582 4582 4582 4582 4582 4582 4582 4582 4582 4582 4582 4582 4582 4645 4645 4645 4708 4842 4842 4842 7030 7030 7178 7178 7178 7178 7178 7332 7332 7332 7332 7332 7332 7332 7332 7332 7332 7332 7332 7332 7332 7332 7332 7332 7332 7332 7332 7332 7332 7332 7332 7332 7332 7332 7332 7332 7332 7332 7332 7332 7332 7332 7332 7332 7332 7332 7332 7332 7332 7332 7332 7178 7178 7178 7178 7178 7178 7178 7178 7178 7178 7178 7178 7178 7178 7178 7178 7178 7178 7178 7178 7030 7030 7030 7030 7030 7030 7178 7178 7178 7178 7178 7178 7178 7178 7030 7030 7030 7030 7030 7030 6889 6889 6889 6889 6889 6889 6889 6889 6889 6889 7030 7030 7030 7178 4708 4708 4708 4645 4645 4645 4582 4582 4582 4522 4522 4522 4463 4463 4463 4463 4463 4463 4405 4405 4405 4405 4405 4405 4349 4349 4349 4349 4295 4295 4295 4295 4295 4295 4295 4241 4241 4241 4241 4241 4190 4190 4190 4190 4190 4190 4139 4139 4139 4139 4139 4139 4139 4139 4139 4139 4190 4190 4190 4190 4190 4241 4241 4241 4241 4241 4241 4241 4241 4241 4241 4241 4241 4241 4241 4241 4295 4241 4241 4241 4241 4190 4190 4190 5734 5832 5832 5832 5933 5933 5933 5933 5933 5933 5933 5933 5933 5933 5933 5933 5933 5933 5832 5832 5832 5832 5832 5832 5832 5734 5734 5832 5832 0 0 0 0 0 0 0 0 0 0 0 0 0
0 0 0 0 0 0 0 0 0 0 0 0 0 0 0 0 0 0 0 0 0 0 0 0 0 0 0 0 0 0 0 0 0 0 0 0 0 0 7332 7332 7332 7332 0 0 0 6038 6038 5832 5832 5640 5640 5640 5640 5640 5832 5832 5832 5832 5734 5734 5832 5832 7332 7332 7492 7332 7332 7332 7332 7178 7178 7178 7178 7178 7178 7178 7332 7332 7332 7332 7332 7332 7332 7332 7332 7332 7332 7332 7332 7178 7178 7178 7178 7178 7178 7030 7030 7178 7178 7178 7332 7332 7332 7332 7332 7332 7332 7332 7332 7178 7178 7178 7178 7178 7178 7178 7332 7332 7332 7332 7332 7178 7178 7332 7332 7332 7332 7332 7492 7492 7492 5374 5374 5374 5374 5374 5374 5374 5374 5374 5374 5374 5374 5374 5460 5460 5460 5460 5460 5460 5460 5460 5374 5374 5374 5374 5374 5374 5374 5374 5374 5291 5291 5374 5374 5374 5374 5374 7835 7835 7835 5734 5734 5734 5734 5832 5933 5933 5933 6038 5933 5933 5933 5933 5933 6038 6038 6038 6038 6038 6038 6038 6038 6038 6038 6038 6038 6146 6146 6146 6146 6259 0 0 0 0 0 0 0 0 0 0 0 0 0 0 0 0 0 0 0 0 0 0 0 0 0 0 0 0 0 0 0 0 0 0 0 0 0 0 0 0 0 0 0 0 0 0 0 0 0 0 0 0 0 0 0 0 0 0 0 0 0 0 0 0 0 0 0 0 0 0 0 0 0 0 0 0 0 0 3539 3539 3539 3503 3503 3503 3503 3503 3503 3503 3503 3503 3468 3468 3468 3433 3433 3399 3399 3399 3399 3399 3399 3399 3399 3399 3399 3399 3399 3399 3399 3399 1970 1970 1936 1936 1936 1936 1936 1936 1936 1936 1936 1936 1936 1936 1936 1936 1926 1926 1926 1926 1926 1904 1904 1904 1904 1904 1915 1915 1915 1904 1904 1904 1904 1904 1904 1904 1904 1904 1894 1894 1883 1883 1894 1894 1883 1883 1883 1883 1883 1883 1883 1883 1883 1883 1883 1883 1883 1883 1883 1883 1883 1883 1873 1873 1873 1873 1873 1873 1873 1883 1873 1873 0 0 0 0 0 0 4582 4522 4522 4582 4582 4582 4582 4582 4582 4582 4582 4582 4645 4645 4645 4708 4842 4842 4842 7030 7030 7178 7178 7178 7178 7178 7332 7332 7332 7332 7332 7332 7332 7332 7332 7332 7332 7332 7332 7332 7332 7332 7332 7332 7332 7332 7332 7332 7332 7332 7332 7332 7332 7332 7332 7332 7332 7332 7332 7332 7332 7332 7332 7332 7332 7332 7332 7332 7178 7178 7178 7178 7178 7178 7178 7178 7178 7178 7178 7178 7178 7178 7178 7178 7178 7178 7178 7178 7178 7178 7030 7030 7030 7030 7030 7030 7178 7178 7178 7178 7178 7178 7178 7178 7030 7030 7030 7030 7030 7030 6889 6889 6889 6889 6889 6889 6889 6889 6889 7030 7030 7030 7030 4708 4708 4708 4708 4645 4645 4645 4582 4582 4582 4522 4522 4522 4463 4463 4463 4463 4463 4463 4463 4405 4405 4405 4405 4349 4349 4349 4349 4349 4295 4295 4295 4295 4295 4295 4241 4241 4241 4241 4241 4241 4190 4190 4190 4190 4190 4139 4139 4139 4139 4139 4139 4139 4139 4139 4139 4139 4190 4190 4190 4190 4190 4241 4241 4241 4241 4241 4241 4190 4190 4241 4241 4241 4241 4241 4241 4241 4241 4241 4241 4241 4241 4190 4190 4190 4190 5933 5933 5933 6038 6038 6038 6038 6038 6038 6038 6038 6038 6038 6038 6038 6038 5933 5933 5933 5933 5933 5933 5832 5832 5832 5832 5933 5933 0 0 0 0 0 0 0 0 0 0 0 0 0
0 0 0 0 0 0 0 0 0 0 0 0 0 0 0 0 0 0 0 0 0 0 0 0 0 0 0 0 0 0 0 0 0 0 0 0 7178 7178 7332 7332 7332 7332 0 5933 5933 5933 5933 5832 5832 5832 5832 5832 5832 5832 5832 5832 5832 5832 5832 5832 5832 7030 7030 7332 7332 7332 7332 7178 7178 7178 7178 7030 7030 7030 7030 7030 7178 7030 7030 7178 7332 7332 7332 7332 7332 7332 7332 7332 7332 7178 7178 7178 7178 7178 7178 7030 7030 7178 7178 7178 7332 7332 7332 7332 7332 7332 7332 7332 7332 7332 7178 7178 7178 7178 7178 7178 7332 7332 7332 7332 7332 7332 7332 7332 7332 7332 7332 7332 7660 7835 7835 5291 5291 5291 5374 5374 5374 5374 5374 5374 5374 5374 5374 5374 5460 5460 5460 5460 5460 5460 5460 5460 5374 5374 5374 5374 5374 5374 5291 5291 5291 5291 5291 5291 5374 7835 7835 7835 7835 7835 7835 8019 5734 5734 5734 5832 5933 5933 5933 6038 6038 5933 5933 5933 5933 6038 6038 6038 6038 6146 6146 6038 6038 6038 6038 6038 6146 6146 6146 6146 6146 6259 0 0 0 0 0 0 0 0 0 0 0 0 0 0 0 0 0 0 0 0 0 0 0 0 0 0 0 0 0 0 0 0 0 0 0 0 0 0 0 0 0 0 0 0 0 0 0 0 0 0 0 0 0 0 0 0 0 0 0 0 0 0 0 0 0 0 0 0 0 0 0 0 0 0 0 0 3503 3503 3503 3503 3503 3503 3503 3503 3503 3503 3468 3468 3503 3468 3468 3468 3433 3433 3433 3433 3399 3399 3433 3399 3399 3399 3399 3399 3399 3399 3399 3399 3399 3399 1970 1970 1959 1947 1947 1936 1936 1936 1936 1936 1936 1936 1936 1936 1936 1936 1926 1926 1926 1926 1926 1904 1904 1904 1904 1904 1915 1915 1915 1915 1915 1904 1904 1904 1904 1904 1904 1904 1904 1894 1894 1894 1894 1894 1883 1883 1883 1883 1883 1883 1883 1883 1883 1883 1883 1883 1883 1883 1883 1883 1883 1883 1873 1873 1873 1873 1873 1873 1873 1873 1873 1873 1873 0 0 0 0 4582 4582 4522 4522 4582 4582 4582 4582 4582 4582 4582 4582 4582 4582 4645 4645 4645 4645 7332 7178 7178 7178 7178 7178 7178 7178 7178 7178 7178 7332 7332 7332 7332 7332 7332 7332 7332 7332 7332 7332 7332 7332 7332 7332 7332 7332 7332 7332 7332 7332 7332 7332 7332 7332 7332 7332 7332 7332 7332 7332 7332 7332 7332 7332 7332 7332 7332 7332 7332 7178 7178 7178 7178 7178 7178 7178 7178 7178 7178 7178 7178 7178 7178 7178 7178 7178 7178 7178 7178 7178 7178 7030 7030 7030 7030 7030 7030 7178 7178 7178 7178 7178 7178 7178 7178 7030 7030 7030 7030 7030 7030 6889 6753 6753 6753 6753 6889 6889 6889 6889 7030 7030 7030 7030 4708 4708 4708 4708 4645 4645 4645 4582 4582 4582 4522 4522 4522 4463 4463 4463 4463 4463 4463 4463 4463 4463 4405 4405 4349 4349 4349 4349 4349 4295 4295 4295 4295 4295 4295 4241 4241 4241 4241 4241 4241 4241 4190 4190 4190 4190 4139 4139 4139 4139 4139 4139 4139 4139 4139 4139 4190 4190 4190 4190 4190 4190 4190 4190 4190 4190 4190 4190 4190 4190 4190 4190 4190 4190 4190 4190 4241 4241 4241 4241 4241 4241 4241 4190 4190 4190 5832 5933 6038 6038 6038 6038 6038 6038 6146 6146 6146 6146 6146 6038 6038 6038 6038 5933 5933 5933 5933 5933 5933 5933 5933 5933 5933 5933 0 0 0 0 0 0 0 0 0 0 0 0 0
0 0 0 0 0 0 0 0 0 0 0 0 0 0 0 0 0 0 0 0 0 0 0 0 0 0 0 0 0 7178 7178 7332 7332 7332 7332 7332 7178 7178 7332 7332 7332 7332 7332 5933 5832 5832 5933 5832 5832 5832 5832 5832 5832 5832 5832 5832 5832 5832 5832 5933 6038 6259 6889 7178 7332 7332 7332 7178 7178 7178 7030 7030 7030 7030 7030 7030 7030 7030 7030 7030 7178 7178 7178 7332 7332 7332 7332 7332 7332 7178 7178 7178 7178 7178 7178 7178 7178 7178 7178 7178 7332 7332 7332 7332 7332 7332 7332 7332 7332 7332 7332 7332 7332 7332 7332 7332 7332 7332 7332 7332 7492 7492 7492 7492 7332 7332 7660 7660 7835 7835 7835 7835 5291 5291 5374 5374 5374 5291 5291 5374 5374 5374 5374 5374 5374 5460 5460 5460 5460 5460 5460 5460 5374 5374 5374 5374 5374 5374 5291 5291 5291 5291 5291 5291 7660 7835 7835 7835 7835 7835 7835 7835 8019 8019 5832 5832 5933 5933 5933 6038 6038 6038 6038 6038 6038 6146 6146 6146 6038 6038 6038 6038 6038 6038 6038 0 0 0 6146 6146 6146 0 0 0 0 0 0 0 0 0 0 0 0 0 0 0 0 0 0 0 0 0 0 0 0 0 0 0 0 0 0 0 0 0 0 0 0 0 0 0 0 0 0 0 0 0 0 0 0 0 0 0 0 0 0 0 0 0 0 0 0 0 0 0 0 0 0 0 0 0 0 0 0 0 0 0 3503 3503 3503 3503 3503 3503 3503 3503 3503 3468 3468 3468 3468 3468 3468 3468 3468 3468 3433 3433 3433 3433 3433 3433 3433 3399 3399 3399 3399 3399 3399 3399 3399 3399 3399 3399 3399 1970 1959 1959 1947 1936 1936 1936 1936 1936 1936 1936 1936 1936 1936 1936 1926 1926 1926 1926 1926 1915 1915 1915 1915 1915 1915 1915 1915 1904 1904 1904 1904 1904 1904 1904 1904 1904 1904 1894 1894 1894 1894 1894 1883 1883 1883 1883 1883 1883 1883 1883 1883 1883 1883 1883 1883 1883 1883 1883 1883 1883 1883 1873 1873 1873 1873 1873 1873 1873 1873 1873 1873 0 0 0 0 4582 4582 4582 4582 4582 4582 4582 4645 4582 4582 4645 4582 4582 4582 4645 4645 4645 4645 7178 7178 7178 7178 7178 7178 7178 7178 7178 7178 7178 7332 7332 7332 7332 7332 7332 7332 7332 7332 7332 7332 7332 7332 7332 7332 7332 7332 7178 7178 7332 7332 7332 7332 7332 7332 7332 7332 7332 7332 7332 7332 7332 7332 7332 7332 7332 7332 7332 7332 7332 7178 7178 7178 7178 7178 7178 7178 7178 7178 7178 7178 7178 7178 7178 7178 7178 7178 7178 7178 7178 7178 7178 7030 7030 7030 7030 7030 7030 7178 7178 7178 7178 7178 7178 7178 7178 7030 7030 7030 7030 7030 7030 6889 6753 6753 6753 6753 6753 6889 6889 6889 6889 7030 7030 7030 4708 4708 4708 4708 4645 4645 4582 4582 4582 4522 4522 4522 4522 4463 4463 4463 4463 4463 4463 4463 4463 4463 4463 4405 4405 4349 4349 4349 4349 4295 4295 4295 4295 4295 4241 4241 4241 4241 4241 4241 4241 4241 4190 4190 4190 4190 4139 4139 4139 4139 4139 4139 4139 4139 4139 4139 4190 4190 4190 4190 4190 4190 4190 4190 4190 4190 4190 4190 4190 4190 4190 4190 4190 4190 4190 4190 4190 4241 4241 4241 4241 4241 4241 4241 4190 4190 5832 6038 6038 6038 6038 6038 6038 6146 6146 6146 6146 6146 6146 6038 6038 6146 6038 6038 6038 6038 6038 6038 6038 6038 6038 6038 6038 6038 0 0 0 0 0 0 0 0 0 0 0 0 0
0 0 0 0 0 0 0 0 0 0 0 0 0 0 0 0 0 0 0 0 0 0 0 0 0 0 0 0 0 7030 7030 7030 7030 7178 7332 7332 7332 7332 7332 7332 7332 7332 7332 5933 5832 5832 5933 5832 5832 5832 5832 5933 5832 5832 5832 5832 5832 5933 5933 5933 5933 6259 6889 7178 7332 7332 7332 7178 7178 7178 7030 7030 7030 7030 7030 7030 7030 7030 6889 6889 7178 7178 7178 7178 7332 7332 7332 7332 7332 7178 7178 7178 7178 7178 7178 7178 7178 7332 7332 7332 7332 7332 7332 7332 7332 7332 7492 7332 7332 7492 7492 7492 7492 7492 7492 7332 7332 7332 7492 7492 7492 7660 7660 7660 7660 7835 7835 7835 7835 7835 7835 8019 8019 7835 5374 5374 5291 5291 5291 5374 5374 5374 5374 5374 5374 5460 5460 5460 5460 5460 5460 8019 7835 7835 7835 7835 7835 7660 7660 7835 7835 7835 7835 7660 7660 7835 7835 7835 7835 7835 7835 7835 7835 7835 7835 7835 7835 7835 7660 7660 7660 7835 7835 7835 7835 7835 7835 8019 6038 6038 6038 6146 6146 0 0 0 0 0 0 0 0 0 0 0 0 0 0 0 0 0 0 0 0 0 0 0 0 0 0 0 0 0 0 0 0 0 0 0 0 0 0 0 0 0 0 0 0 0 0 0 0 0 0 0 0 0 0 0 0 0 0 0 0 0 0 0 0 0 0 0 0 0 0 0 0 0 0 0 0 0 0 0 3503 3503 3503 3503 3503 3503 3503 3503 3468 3468 3468 3468 3468 3468 3468 3468 3468 3468 3468 3468 3468 3468 3468 3433 3433 3433 3433 3433 3433 3433 3399 3399 3399 3399 3399 3399 3399 3399 3399 3399 3399 1947 1947 1947 1947 1936 1936 1936 1936 1936 1936 1936 1936 1936 1936 1936 1926 1926 1926 1926 1926 1915 1915 1915 1915 1915 1915 1915 1915 1904 1904 1904 1904 1904 1904 1904 1904 1904 1894 1894 1894 1894 1894 1894 1883 1883 1883 1883 1883 1883 1883 1883 1883 1883 1883 1883 1883 1883 1883 1883 1883 1883 1883 1883 1873 1873 1873 1873 1873 1873 1873 1883 1883 0 0 0 4645 4645 4582 4582 4582 4582 4645 4645 4645 4645 4645 4645 4582 4582 4582 4582 4582 4645 4708 7178 7178 7178 7178 7178 7178 7178 7178 7332 7178 7178 7332 7332 7332 7332 7332 7332 7332 7332 7332 7332 7332 7332 7332 7332 7332 7332 7332 7178 7178 7332 7178 7178 7178 7178 7332 7332 7332 7332 7332 7332 7332 7332 7332 7332 7332 7332 7332 7332 7332 7178 7178 7178 7178 7178 7178 7178 7178 7178 7178 7178 7178 7178 7178 7178 7178 7178 7178 7178 7178 7178 7178 7178 7030 7030 7030 7030 7178 7178 7178 7178 7178 7178 7178 7178 7178 7178 6889 6889 6889 7030 7030 7030 6889 6889 6889 6753 6753 6753 6889 6889 6889 6889 7030 7030 7030 4708 4708 4708 4708 4645 4645 4582 4582 4582 4522 4522 4522 4522 4463 4463 4463 4463 4463 4463 4463 4463 4463 4463 4463 4405 4349 4349 4349 4349 4295 4295 4295 4295 4295 4241 4241 4241 4241 4241 4190 4190 4190 4190 4190 4190 4190 4139 4139 4089 4089 4089 4139 4139 4139 4139 4139 4190 4190 4190 4190 4190 4190 4190 4190 4190 4190 4190 4190 4139 4139 4139 4190 4190 4190 4190 4190 4190 4190 4241 4241 4241 4241 4241 4241 4190 4190 5832 6146 6146 6146 6146 6146 6146 6146 6146 6146 6146 6146 6146 6038 6038 6038 6038 6038 6038 6038 6038 6038 6038 6038 6038 6038 6038 6038 0 0 0 0 0 0 0 0 0 0 0 0 0
0 0 0 0 0 0 0 0 0 0 0 0 0 0 0 0 0 0 0 0 0 0 0 0 0 0 0 0 0 7030 7030 7030 7030 7178 7178 7332 7332 7332 7332 7332 7332 7332 7332 5933 5933 5933 5933 5933 5933 5933 5933 5933 5832 5832 5832 5832 5832 5832 5832 5933 5933 6889 6889 7178 7332 7332 7332 7178 7178 7178 7178 7178 7030 7030 7030 7030 7030 7030 6889 6889 7178 7178 7178 7178 7332 7332 7332 7332 7332 7332 7332 7332 7332 7332 7332 7332 7332 7332 7492 7492 7492 7492 7492 7492 7492 7492 7492 7492 7492 7660 7660 7660 7660 7660 7660 7660 7492 7492 7660 7660 7660 7660 7660 7835 7835 7835 7835 7835 7835 8019 8019 8019 7835 7835 8019 8019 5210 5210 5210 5291 5374 5374 5374 5374 5374 8019 8019 8019 8019 8019 8019 7835 7835 7835 7835 7835 7835 7660 7660 7660 7660 7835 7660 7660 7660 7835 7835 7835 7835 7835 7835 7835 7835 7835 7835 7835 7835 7835 7660 7660 7660 7835 7835 7835 7835 7835 7835 7835 7835 7835 8019 0 0 0 0 0 0 0 0 0 0 0 0 0 0 0 0 0 0 0 0 0 0 0 0 0 0 0 0 0 0 0 0 0 0 0 0 0 0 0 0 0 0 0 0 0 0 0 0 0 0 0 0 0 0 0 0 0 0 0 0 0 0 0 0 0 0 0 0 0 0 0 0 0 0 0 0 0 0 0 0 3503 3503 3503 3503 3503 3503 3503 3503 3503 3468 3468 3468 3468 3468 3468 3468 3468 3468 3468 3468 3468 3468 3468 3468 3468 3468 3468 3468 3433 3433 3433 3433 3399 3399 3399 3399 3399 3399 3399 3399 3399 3399 1947 1947 1947 1947 1936 1936 1947 1947 1936 1936 1936 1936 1936 1936 1936 1926 1926 1926 1926 1926 1926 1915 1915 1915 1915 1915 1915 1915 1915 1915 1915 1904 1904 1904 1904 1904 1904 1894 1894 1894 1894 1894 1894 1883 1883 1883 1883 1894 1883 1883 1883 1883 1883 1883 1883 1883 1883 1883 1883 1883 1883 1883 1883 1873 1873 1873 1873 1873 1873 1873 1883 1883 0 0 0 4645 4582 4582 4582 4582 4582 4582 4582 4582 4582 4645 4645 4582 4582 4582 4582 4582 4645 4708 7332 7178 7178 7178 7178 7178 7178 7178 7332 7178 7178 7332 7332 7332 7332 7332 7332 7332 7332 7332 7332 7332 7332 7332 7332 7332 7332 7332 7178 7178 7332 7178 7178 7178 7178 7332 7332 7332 7332 7332 7332 7332 7332 7332 7332 7332 7332 7332 7332 7332 7178 7178 7178 7178 7178 7178 7178 7178 7178 7178 7178 7178 7178 7178 7178 7178 7178 7178 7178 7178 7178 7178 7178 7030 7030 7178 7178 7178 7178 7178 7178 7178 7178 7178 7178 7030 7030 6889 6889 6889 6889 6889 6889 6753 6753 6889 6889 6889 6889 6889 6889 6889 6889 7030 7030 7030 7030 4708 4708 4708 4645 4582 4582 4522 4522 4522 4463 4463 4463 4463 4463 4463 4463 4463 4463 4463 4463 4463 4463 4463 4405 4349 4349 4349 4295 4295 4295 4295 4295 4295 4241 4241 4241 4190 4190 4190 4190 4190 4190 4190 4190 4190 4139 4139 4089 4089 4089 4089 4139 4139 4139 4139 4190 4190 4190 4190 4190 4190 4190 4190 4190 4139 4139 4139 4089 4089 4139 4139 4190 4190 4190 4190 4190 4190 4190 4190 4241 4241 4241 4241 4241 4241 6375 6375 6259 6259 6146 6146 6146 6146 6146 6146 6146 6146 6146 6146 6146 6038 6038 6038 6038 6146 6146 6146 6038 6038 6038 6038 6038 6038 0 0 0 0 0 0 0 0 0 0 0 0 0
0 0 0 0 0 0 0 0 0 0 0 0 0 0 0 0 0 0 0 0 0 0 0 0 0 0 0 0 0 7178 7178 7030 7030 7178 7178 7332 7332 7332 7332 7332 7332 7332 7332 5933 5933 5933 5933 5933 5933 5933 5933 5933 5832 5832 5832 5832 5832 5832 5832 5933 5933 6889 6889 7178 7332 7332 7332 7332 7332 7178 7178 7178 7030 7030 7030 7030 7030 7030 7030 7030 7178 7178 7178 7178 7332 7332 7332 7332 7332 7332 7332 7332 7332 7332 7332 7492 7492 7492 7660 7660 7660 7660 7660 7660 7660 7660 7660 7660 7660 7660 7835 7835 7835 7835 7835 7835 7835 7660 7660 7660 7660 7660 7835 7835 7835 7835 7835 7835 8019 8019 8019 8019 7835 7835 7835 8019 5210 5210 5210 5291 8019 8019 8019 8019 8019 7835 7835 8019 8019 8019 8019 7835 7660 7660 7835 7660 7660 7660 7660 7660 7660 7660 7660 7660 7660 7835 7835 7835 7835 7835 7835 7835 7835 7835 8019 7835 7835 7835 7835 7835 7835 7835 7835 7835 7835 7835 7835 7835 7835 7835 8019 8019 0 0 0 0 0 0 0 0 0 0 0 0 0 0 0 0 0 0 0 0 0 0 0 0 0 0 0 0 0 0 0 0 0 0 0 0 0 0 0 0 0 0 0 0 0 0 0 0 0 0 0 0 0 0 0 0 0 0 0 0 0 0 0 0 0 0 0 0 0 0 0 0 0 0 0 0 0 3503 3503 3503 3503 3503 3503 3503 3503 3503 3503 3503 3468 3468 3468 3468 3468 3468 3433 3433 3468 3468 3468 3468 3468 3468 3468 3468 3468 3468 3468 3433 3433 3433 3433 3399 3399 3399 3399 3399 3399 3399 3399 3399 3399 3399 1947 1936 1936 1936 1936 1947 1947 1936 1936 1936 1936 1936 1936 1936 1926 1926 1915 1915 1926 1926 1915 1915 1915 1915 1915 1915 1915 1915 1915 1915 1904 1904 1904 1904 1904 1904 1894 1894 1894 1894 1894 1894 1883 1883 1883 1883 1894 1894 1894 1894 1883 1883 1883 1883 1883 1883 1883 1883 1883 1883 1883 1883 1873 1873 1873 1873 1873 1873 1873 1873 1873 0 0 0 4582 4582 4582 4582 4582 4582 4582 4582 4582 4582 4645 4645 4645 4582 4582 4582 4582 4582 4582 7332 7178 7178 7178 7178 7178 7178 7332 7332 7178 7178 7332 7332 7332 7332 7332 7332 7332 7332 7332 7332 7332 7332 7332 7332 7332 7332 7178 7178 7178 7332 7332 7332 7332 7332 7332 7332 7332 7332 7332 7332 7332 7332 7332 7332 7332 7332 7332 7332 7332 7332 7332 7178 7178 7178 7178 7178 7178 7178 7178 7178 7178 7178 7178 7178 7178 7178 7178 7178 7178 7178 7178 7178 7030 7030 7030 7030 7030 7178 7178 7178 7178 7178 7178 7178 7030 7030 6889 6889 6889 6889 6889 6889 6753 6753 6753 6753 6753 6753 6889 6889 6889 6889 7030 7030 7030 7030 4708 4708 4708 4645 4582 4582 4522 4522 4522 4463 4463 4463 4463 4463 4463 4463 4463 4463 4463 4463 4463 4463 4463 4405 4349 4349 4349 4295 4295 4295 4295 4295 4241 4241 4241 4241 4190 4190 4190 4190 4190 4190 4139 4139 4139 4139 4139 4089 4089 4089 4089 4089 4089 4089 4139 4139 4139 4139 4139 4139 4190 4190 4139 4139 4139 4139 4139 4089 4089 4139 4139 4190 4190 4190 4190 4190 4190 4190 4190 4241 4241 4241 4241 4241 4241 6375 6375 6259 6259 6146 6146 6146 6146 6146 6146 6146 6146 6146 6146 6146 6038 6038 6146 6146 6146 6146 6146 6038 6038 6146 6146 6038 6038 0 0 0 0 0 0 0 0 0 0 0 0 0
0 0 0 0 0 0 0 0 0 0 0 0 0 0 0 0 0 0 0 0 0 0 0 0 0 0 0 0 0 7178 7178 7030 7030 7178 7178 7178 7178 7332 7332 7332 7332 7332 7332 5933 5933 5933 5933 5933 5933 5933 5933 5933 5832 5832 5832 5832 5832 5832 5832 5832 5832 5832 7178 7178 7332 7332 7332 7332 7332 7332 7332 7178 7178 7178 7178 7178 7178 7178 7178 7178 7332 7332 7332 7332 7332 7332 7332 7332 7332 7332 7332 7332 7492 7492 7492 7492 7660 7660 7660 7660 7835 7835 7835 7835 7835 7835 7835 7835 7835 7835 7835 7835 7835 7835 7835 7835 7835 7835 7835 7835 7835 7835 7835 7835 7835 7835 8019 8019 8019 8019 8019 8019 7835 7835 7835 8019 8019 8019 8019 8019 8019 8019 8019 8019 8019 7835 7835 7835 7835 7835 7835 7660 7660 7660 7660 7660 7660 7660 7660 7660 7660 7660 7660 7660 7835 7835 7835 7835 7835 7835 7835 7835 7835 7835 7835 7835 7835 7835 7835 7835 7835 7835 7835 7835 7835 7835 7835 7835 7835 7835 7835 7835 0 0 0 0 0 0 0 0 0 0 0 0 0 0 0 0 0 0 0 0 0 0 0 0 0 0 0 0 0 0 0 0 0 0 0 0 0 0 0 0 0 0 0 0 0 0 0 0 0 0 0 0 0 0 0 0 0 0 0 0 0 0 0 0 0 0 0 0 0 0 0 0 0 0 0 3503 3503 3503 3503 3503 3503 3503 3503 3503 3503 3503 3468 3468 3468 3468 3468 3468 3468 3468 3433 3433 3468 3468 3468 3468 3468 3468 3468 3468 3468 3468 3468 3468 3433 3433 3433 3399 3399 3399 3399 3399 3399 3399 3399 3399 3399 3399 1936 1936 1936 1936 1936 1936 1947 1936 1936 1936 1936 1936 1936 1936 1926 1926 1915 1915 1926 1926 1915 1915 1915 1915 1915 1915 1915 1915 1915 1915 1904 1904 1904 1904 1904 1904 1904 1894 1894 1894 1894 1894 1894 1894 1894 1894 1894 1894 1894 1894 1894 1894 1883 1883 1883 1883 1883 1883 1883 1883 1883 1883 1873 1873 1873 1873 1873 1873 1873 1873 1873 1873 0 4582 4582 4582 4582 4582 4582 4582 4582 4645 4645 4645 4645 4645 4645 4582 4582 4582 4582 4582 4582 7332 7178 7178 7178 7178 7178 7178 7178 7332 7178 7178 7332 7332 7332 7332 7332 7332 7332 7332 7332 7332 7332 7332 7332 7332 7332 7332 7178 7178 7178 7178 7178 7332 7332 7332 7332 7332 7332 7332 7332 7332 7332 7332 7332 7332 7332 7332 7332 7332 7332 7332 7332 7332 7178 7178 7178 7178 7178 7178 7178 7178 7178 7178 7178 7178 7332 7178 7178 7178 7178 7178 7178 7178 7030 7030 7030 7030 7030 7178 7178 7178 7178 7178 7178 7178 7178 7030 6889 6889 6889 6889 6889 6889 6753 6753 6753 6753 6753 6753 6889 6889 6889 6889 6889 6889 7030 7030 4645 4645 4708 4645 4582 4582 4522 4522 4522 4463 4463 4463 4463 4463 4463 4463 4463 4463 4463 4463 4463 4463 4463 4405 4405 4349 4349 4295 4295 4295 4295 4241 4241 4241 4241 4190 4190 4190 4190 4190 4190 4190 4139 4139 4139 4139 4089 4089 4089 4089 4089 4089 4089 4089 4089 4139 4139 4139 4139 4139 4190 4139 4139 4139 4139 4139 4139 4089 4089 4139 4190 4190 4190 4190 4190 4190 4190 4190 4190 4190 4190 4241 4241 4241 4241 6259 6259 6259 6259 6146 6146 6146 6146 6146 6146 6146 6146 6146 6146 6146 6038 6038 6038 6038 6146 6146 6259 6146 6146 6259 6146 6146 6146 0 0 0 0 0 0 0 0 0 0 0 0 0
0 0 0 0 0 0 0 0 0 0 0 0 0 0 0 0 0 0 0 0 0 0 0 0 0 0 0 0 0 7178 7178 7178 7178 7178 7178 7178 7178 7332 7332 7332 7332 7332 7332 5933 5832 5832 5832 5832 5832 5832 5933 5933 5832 5832 5832 5832 5832 5832 5832 5832 5832 5832 5832 7492 7492 7492 7492 7492 7492 7492 7332 7332 7332 7332 7332 7332 7332 7332 7332 7332 7332 7332 7332 7332 7332 7332 7492 7660 7660 7660 7660 7660 7660 7660 7660 7835 7835 7835 7835 7835 7835 7835 7835 7835 7835 7835 7835 7835 7835 7835 7835 7835 7835 7835 7835 7835 7835 7835 7835 7835 7835 7835 7835 7835 7835 7835 7835 8019 8019 8019 8019 8019 7835 7835 7835 7835 7835 8019 8019 8019 8019 8019 8019 8019 8019 7835 7835 7835 7835 7835 7835 7660 7660 7660 7660 7660 7660 7660 7660 7660 7660 7660 7660 7660 7835 7835 7835 7835 7835 7835 7835 7835 7835 7835 7835 7835 7835 7835 7835 7835 7835 7835 7835 7835 7835 7835 7835 7835 7835 7835 7835 7660 7660 0 0 0 0 0 0 0 0 0 0 0 0 0 0 0 0 0 0 0 0 0 0 0 0 0 0 0 0 0 0 0 0 0 0 0 0 0 0 0 0 0 0 0 0 0 0 0 0 0 0 0 0 0 0 0 0 0 0 0 0 0 0 0 0 0 0 0 0 0 0 0 0 0 3503 3503 3503 3503 3503 3503 3503 3503 3503 3503 3503 3503 3468 3468 3468 3468 3468 3468 3433 3433 3433 3433 3468 3468 3468 3468 3468 3468 3468 3468 3468 3468 3433 3433 3433 3399 3399 3399 3399 3399 3399 3399 3399 3399 3399 3399 3399 3399 1936 1936 1936 1936 1936 1936 1947 1936 1936 1936 1936 1936 1936 1936 1926 1926 1926 1926 1926 1926 1915 1915 1915 1915 1915 1915 1915 1915 1915 1904 1904 1904 1904 1904 1904 1904 1904 1904 1904 1894 1894 1894 1894 1894 1894 1894 1894 1894 1894 1894 1894 1883 1883 1883 1883 1883 1883 1883 1883 1883 1883 1883 1873 1873 1873 1873 1873 1873 1873 1873 1873 1873 0 4582 4582 4582 4582 4582 4582 4582 4645 4645 4645 4645 4645 4645 4645 4582 4582 4582 4582 4582 4645 7332 7178 7178 7178 7178 7178 7178 7178 7332 7178 7178 7332 7332 7332 7332 7332 7332 7332 7332 7332 7332 7332 7332 7332 7332 7332 7332 7178 7178 7178 7178 7178 7332 7332 7332 7332 7332 7332 7332 7332 7332 7332 7332 7332 7332 7332 7332 7332 7332 7332 7332 7332 7332 7178 7178 7178 7178 7178 7178 7178 7178 7178 7178 7178 7178 7332 7178 7178 7178 7178 7178 7178 7178 7178 7178 7178 7178 7178 7178 7178 7178 7178 7178 7178 7178 7178 7030 6889 6889 6889 6889 6889 6889 6889 6889 6889 6889 6753 6753 6889 6889 6889 7030 6889 6889 7030 7030 4645 4645 4645 4645 4582 4582 4522 4522 4522 4522 4522 4522 4522 4522 4522 4463 4463 4463 4463 4463 4463 4463 4463 4405 4405 4349 4349 4295 4295 4295 4295 4241 4241 4241 4241 4190 4190 4190 4190 4190 4139 4139 4139 4139 4139 4139 4089 4089 4089 4089 4089 4089 4089 4089 4089 4089 4089 4089 4089 4139 4139 4139 4089 4089 4139 4139 4139 4089 4089 4089 4139 4190 4190 4190 4190 4190 4190 4190 4190 4190 4190 4241 4241 4190 4190 6259 6259 6259 6259 6259 6259 6259 6146 6146 6146 6038 6038 6038 6038 6038 6038 6038 6038 6038 6146 6146 6146 6146 6146 6146 6146 6146 6146 0 0 0 0 0 0 0 0 0 0 0 0 0
0 0 0 0 0 0 0 0 0 0 0 0 0 0 0 0 0 0 0 0 0 0 0 0 0 0 0 0 0 7332 7178 7178 7178 7178 7178 7178 7178 7332 7332 7332 7332 7492 7492 5832 5832 5832 5832 5832 5832 5832 5832 5832 5832 5832 5832 5832 5832 5832 5832 5832 5832 5832 5832 7492 7492 7492 7492 7492 7492 7492 7332 7332 7332 7332 7332 7332 7332 7332 7332 7332 7332 7332 7332 7332 7332 7332 7660 7660 7660 7660 7660 7660 7660 7660 7660 7835 7835 7835 7835 7835 7835 7835 7835 7835 7835 7835 7835 7835 7835 7835 7835 7835 8019 8019 8019 8019 8019 8019 8019 7835 7835 7835 7835 7835 7835 7835 7835 8019 8019 8019 8019 8019 7835 7835 7835 7835 7835 7835 8019 8019 8019 8019 8019 8019 8019 7835 7835 7835 7835 7835 8019 7660 7660 7660 7660 7660 7660 7660 7660 7660 7660 7660 7660 7660 7835 7835 7835 7835 7835 7835 7835 7835 7835 7835 7835 7835 7835 7835 7835 7835 7835 7835 7835 7835 7835 7835 7835 7835 7835 7835 7835 7660 7660 0 0 0 0 0 0 0 0 0 0 0 0 0 0 0 0 0 0 0 0 0 0 0 0 0 0 0 0 0 0 0 0 0 0 0 0 0 0 0 0 0 0 0 0 0 0 0 0 0 0 0 0 0 0 0 0 0 0 0 0 0 0 0 0 0 0 0 0 0 0 0 0 3503 3503 3503 3503 3503 3503 3503 3503 3503 3503 3503 3503 3503 3468 3468 3468 3468 3468 3468 3433 3433 3468 3468 3468 3468 3468 3468 3468 3468 3468 3433 3433 3468 3433 3433 3433 3399 3399 3399 3399 3399 3399 3399 3399 3399 3399 3399 3399 3399 1926 1926 1926 1936 1936 1936 1936 1936 1936 1936 1936 1936 1936 1936 1926 1926 1926 1926 1926 1926 1926 1926 1915 1915 1915 1915 1915 1904 1904 1904 1904 1904 1904 1904 1904 1904 1904 1904 1904 1894 1894 1904 1894 1894 1894 1894 1894 1894 1894 1894 1894 1883 1883 1883 1883 1883 1883 1883 1883 1883 1883 1883 1873 1873 1873 1873 1873 1873 1873 1873 1873 1873 0 4582 4582 4582 4582 4582 4582 4582 4645 4645 4645 4645 4645 4645 4645 4645 4645 4645 4645 4645 4645 4645 7178 7178 7178 7178 7178 7178 7332 7332 7178 7178 7332 7332 7332 7332 7332 7332 7332 7332 7332 7332 7332 7332 7332 7332 7332 7332 7178 7178 7178 7178 7178 7332 7332 7332 7332 7332 7332 7332 7332 7332 7332 7332 7332 7332 7332 7332 7332 7332 7332 7332 7332 7332 7332 7332 7178 7178 7178 7178 7178 7178 7178 7178 7178 7178 7332 7178 7178 7178 7178 7178 7178 7178 7178 7178 7030 7030 7178 7178 7178 7178 7178 7178 7178 7178 7178 7030 6889 6889 6889 6889 6889 6889 6889 6889 6889 6889 6889 6889 6889 6889 6889 7030 7030 7030 7030 7030 7178 4645 4645 4645 4582 4582 4522 4522 4522 4522 4522 4522 4522 4522 4522 4463 4463 4463 4463 4463 4463 4463 4463 4405 4405 4349 4349 4295 4295 4295 4295 4295 4241 4241 4241 4190 4190 4190 4190 4190 4139 4139 4139 4139 4139 4139 4139 4139 4089 4089 4089 4089 4089 4089 4089 4089 4089 4089 4089 4139 4139 4089 4089 4089 4139 4139 4139 4089 4089 4089 4139 4190 4190 4190 4190 4190 4190 4190 4241 4190 4190 4190 4241 4190 4190 6259 6259 6259 6375 6259 6259 6259 6146 6146 6146 6038 6038 6038 6038 6038 6038 6038 6038 6038 6146 6146 6146 6146 6146 6146 6146 6146 6146 0 0 0 0 0 0 0 0 0 0 0 0 0
0 0 0 0 0 0 0 0 0 0 0 0 0 0 0 0 0 0 0 0 0 0 0 0 0 0 0 0 0 7332 7178 7178 7178 7178 7178 7178 7178 7332 7332 7492 7492 7492 7332 7332 5832 5832 5832 5832 5832 5832 5832 5832 5832 5832 5832 5832 5832 5832 5832 5832 5832 5832 7660 7660 7835 7835 7835 7492 7492 7492 7332 7332 7332 7332 7332 7332 7332 7332 7332 7332 7332 7332 7332 7332 7492 7492 7835 7660 7660 7835 7660 7660 7660 7660 7660 7835 7835 7835 7835 7835 7835 7835 7835 7835 7835 7835 7835 7835 7835 7835 7835 7835 7835 8019 8019 8019 8019 8019 8019 7835 7835 7835 7835 7835 7835 7835 7835 8019 8019 8019 8019 8019 7835 7835 7835 7835 7835 7835 8019 8019 8019 8019 8019 8019 8019 7835 7835 7835 7835 7835 8019 7835 7660 7660 7660 7660 7660 7660 7660 7660 7660 7660 7660 7660 7660 7835 7835 7835 7835 7835 7835 7835 7835 7835 7835 7835 7835 7835 7835 7835 7835 7835 7835 7835 7835 7835 7835 7835 7835 7660 7660 7660 7660 0 0 0 0 0 0 0 0 0 0 0 0 0 0 0 0 0 0 0 0 0 0 0 0 0 0 0 0 0 0 0 0 0 0 0 0 0 0 0 0 0 0 0 0 0 0 0 0 0 0 0 0 0 0 0 0 0 0 0 0 0 0 0 0 0 0 0 0 0 0 0 0 3503 3503 3503 3503 3503 3503 3503 3503 3503 3503 3503 3503 3503 3468 3468 3468 3468 3468 3468 3433 3433 3433 3433 3433 3433 3433 3433 3433 3433 3433 3433 3433 3468 3433 3433 3433 3399 3399 3399 3399 3399 3399 3399 3399 3399 3399 3399 3399 3399 3399 1926 1926 1936 1936 1936 1936 1936 1936 1936 1936 1936 1936 1936 1915 1915 1915 1915 1926 1926 1926 1926 1926 1915 1915 1915 1915 1904 1904 1904 1904 1904 1904 1904 1904 1904 1904 1904 1904 1894 1894 1904 1894 1894 1894 1894 1894 1894 1894 1894 1894 1894 1883 1883 1883 1883 1883 1883 1883 1883 1883 1883 1873 1873 1873 1873 1873 1873 1873 1873 1873 0 4405 4582 4582 4522 4522 4582 4582 4582 4582 4582 4582 4582 4582 4582 4645 4645 4645 4645 4645 4645 4708 4708 7178 7178 7178 7178 7178 7178 7332 7332 7178 7178 7178 7332 7332 7332 7332 7332 7332 7332 7332 7332 7332 7332 7332 7332 7332 7332 7332 7178 7178 7178 7178 7332 7332 7332 7332 7332 7332 7332 7332 7332 7332 7332 7332 7332 7332 7332 7332 7332 7332 7332 7332 7332 7332 7332 7178 7178 7178 7178 7178 7178 7178 7178 7178 7178 7178 7178 7178 7178 7178 7178 7178 7178 7178 7178 7030 7030 7178 7178 7178 7178 7178 7178 7178 7178 7178 7030 6889 6889 6889 6889 6889 6889 6889 6889 6889 6889 6889 6889 6889 6889 7030 7030 7030 7030 7030 7030 7178 4582 4582 4645 4582 4582 4582 4522 4522 4522 4522 4522 4522 4522 4522 4463 4463 4463 4463 4463 4463 4463 4463 4405 4405 4405 4349 4349 4295 4295 4295 4295 4241 4241 4241 4241 4190 4190 4190 4190 4139 4139 4139 4139 4139 4139 4139 4139 4089 4089 4089 4089 4089 4089 4089 4089 4089 4089 4089 4089 4089 4089 4089 4089 4139 4139 4139 4089 4089 4139 4139 4190 4190 4190 4190 4190 4190 4190 4241 4190 4190 4190 4241 4241 6259 6259 6259 6259 6259 6259 6259 6259 6259 6146 6146 6146 6146 6146 6146 6146 6038 6038 6146 6146 6146 6146 6146 6146 6146 6146 6146 6146 6146 0 0 0 0 0 0 0 0 0 0 0 0 0
0 0 0 0 0 0 0 0 0 0 0 0 0 0 0 0 0 0 0 0 0 0 0 0 0 0 0 0 0 7332 7332 7332 7332 7332 7332 7332 7332 7332 7492 7492 7492 7492 7332 7332 5832 5734 5734 5734 5734 5832 5832 5832 5933 5933 5933 5832 5832 5832 5832 5832 5832 5832 7660 7660 7660 7835 7835 7492 7492 7660 7492 7492 7492 7492 7492 7492 7492 7492 7492 7660 7660 7660 7660 7660 7660 7660 7835 7660 7660 7835 7835 7835 7835 7660 7660 7835 7835 7835 7835 7835 7835 7835 7835 7835 7835 7835 7835 7835 7835 7835 7835 7835 7835 7835 7835 7835 8019 8019 8019 8019 7835 7835 7835 7835 7835 7835 7835 8019 8019 8019 8019 8019 7835 7835 7835 7835 7835 7835 7835 8019 8019 8019 8019 8019 8019 8019 7835 7835 7835 7835 8019 7835 7835 7835 7835 7835 7835 7835 7660 7660 7660 7660 7660 7660 7660 7660 7660 7835 7835 7835 7835 7835 7835 7835 7835 7835 7835 7835 7835 7835 7835 7835 7835 7835 7835 7835 7835 7835 7835 7660 7660 7332 7332 0 0 0 0 0 0 0 0 0 0 0 0 0 0 0 0 0 0 0 0 0 0 0 0 0 0 0 0 0 0 0 0 0 0 0 0 0 0 0 0 0 0 0 0 0 0 0 0 0 0 0 0 0 0 0 0 0 0 0 0 0 0 0 0 0 0 0 0 0 0 0 0 3539 3503 3503 3503 3503 3503 3503 3503 3503 3503 3503 3503 3503 3468 3468 3468 3468 3468 3468 3433 3433 3433 3433 3433 3433 3433 3433 3433 3433 3433 3433 3433 3433 3433 3433 3433 3399 3399 3399 3399 3399 3399 3399 3399 3399 3399 3399 3399 3399 3399 1936 1936 1936 1936 1936 1936 1936 1936 1936 1936 1936 1936 1936 1915 1915 1915 1915 1926 1926 1926 1926 1926 1915 1915 1915 1915 1915 1904 1904 1904 1904 1904 1904 1904 1904 1904 1904 1904 1894 1894 1904 1894 1894 1894 1894 1894 1894 1894 1894 1894 1894 1883 1883 1883 1883 1883 1883 1873 1873 1873 1883 1873 1873 1873 1873 1873 1873 1873 1873 1873 0 4405 4405 4405 4463 4522 4582 4582 4582 4582 4582 4582 4582 4582 4582 4645 4645 4645 4645 4645 4645 4708 4708 4774 7178 7178 7178 7178 7178 7178 7332 7332 7178 7178 7332 7332 7332 7332 7332 7332 7332 7332 7332 7332 7332 7332 7178 7178 7178 7178 7178 7178 7178 7178 7332 7332 7332 7332 7332 7332 7332 7332 7332 7332 7332 7332 7332 7332 7332 7332 7332 7332 7332 7178 7178 7178 7178 7178 7178 7178 7178 7178 7178 7178 7178 7178 7178 7178 7178 7178 7178 7178 7178 7178 7178 7178 7178 7030 7030 7178 7178 7178 7178 7178 7178 7178 7178 7178 7178 7030 6889 6889 7030 7030 7030 6889 6889 6889 6889 6889 6889 6889 6889 7030 7030 7030 7030 7030 7030 7030 4582 4582 4645 4582 4582 4582 4522 4522 4522 4522 4522 4522 4522 4522 4463 4463 4463 4463 4463 4463 4463 4463 4405 4405 4405 4349 4349 4349 4295 4295 4295 4295 4241 4241 4241 4241 4190 4190 4190 4139 4139 4139 4139 4139 4139 4139 4139 4139 4089 4089 4089 4089 4089 4089 4089 4089 4089 4089 4089 4089 4089 4089 4089 4089 4139 4139 4089 4089 4139 4190 4190 4241 4241 4241 4241 4241 4241 4241 4241 4241 4241 4241 4241 4241 6146 6146 6259 6259 6259 6259 6259 6259 6259 6146 6146 6146 6146 6146 6146 6146 6146 6146 6146 6146 6146 6146 6146 6146 6146 6146 6146 6146 0 0 0 0 0 0 0 0 0 0 0 0 0
0 0 0 0 0 0 0 0 0 0 0 0 0 0 0 0 0 0 0 0 0 0 0 0 0 0 0 0 0 7332 7332 7332 7332 7332 7332 7332 7332 7492 7492 7492 7492 7492 7492 7492 7492 5734 5640 5640 5734 5832 5832 5832 5933 5933 5933 5832 5832 5832 5832 5832 5832 5933 7492 7492 7660 7492 7492 7492 7492 7492 7492 7492 7492 7492 7492 7492 7492 7660 7660 7660 7660 7660 7660 7660 7660 7660 7835 7835 7835 7835 7835 7835 7835 7660 7660 7835 7835 7835 7835 7835 7835 7835 7835 7835 7835 7835 7835 7835 7660 7660 7660 7660 7835 7835 7835 7835 7835 8019 8019 7835 7835 7835 7835 7835 7835 7835 7835 8019 7835 7835 8019 8019 7835 7835 7835 7835 7835 7835 7835 8019 7835 7835 8019 8019 8019 7835 7835 7835 7835 7835 8019 7835 7835 7835 7835 7835 7835 7660 7660 7660 7660 7660 7660 7660 7660 7660 7660 7660 7835 7835 7835 7835 7835 7835 7835 7835 7835 7835 7835 7835 7835 7835 7835 7835 7835 7835 7835 7835 7835 7660 7660 7332 7332 0 0 0 0 0 0 0 0 0 0 0 0 0 0 0 0 0 0 0 0 0 0 0 0 0 0 0 0 0 0 0 0 0 0 0 0 0 0 0 0 0 0 0 0 0 0 0 0 0 0 0 0 0 0 0 0 0 0 0 0 0 0 0 0 0 0 0 0 0 0 0 0 3539 3503 3503 3503 3503 3503 3503 3503 3503 3503 3503 3468 3468 3468 3468 3468 3468 3468 3468 3433 3433 3433 3433 3433 3433 3433 3433 3433 3433 3433 3433 3433 3433 3399 3399 3399 3399 3399 3399 3399 3399 3399 3399 3399 3399 3399 3399 3399 3399 3399 1936 1936 1936 1936 1936 1936 1936 1936 1936 1936 1936 1936 1936 1926 1926 1926 1926 1926 1926 1926 1926 1915 1915 1915 1915 1915 1915 1904 1904 1904 1904 1904 1904 1904 1904 1904 1904 1904 1894 1894 1894 1894 1894 1894 1894 1894 1894 1894 1894 1894 1894 1883 1883 1883 1883 1883 1883 1873 1873 1873 1883 1873 1873 1873 1873 1873 1873 1873 1873 1873 0 4349 4349 4349 4405 4463 4522 4522 4582 4582 4582 4582 4582 4582 4582 4645 4645 4645 4645 4645 4645 4708 4708 4774 4842 7178 7178 7178 7178 7178 7332 7332 7332 7332 7332 7332 7332 7332 7332 7332 7332 7332 7332 7332 7178 7178 7178 7178 7178 7178 7178 7178 7178 7178 7332 7332 7332 7332 7332 7332 7332 7332 7332 7332 7332 7332 7332 7332 7332 7332 7178 7178 7178 7178 7178 7178 7178 7178 7178 7178 7178 7178 7178 7178 7178 7178 7178 7178 7178 7178 7178 7178 7178 7178 7178 7178 7178 7030 7030 7178 7178 7178 7178 7178 7178 7178 7178 7178 7030 7030 7030 7030 7030 7030 7030 6889 6889 6889 6889 6889 6889 6889 6889 6889 6889 7030 7030 6889 6889 4582 4582 4582 4645 4582 4582 4582 4582 4582 4522 4522 4522 4522 4522 4522 4463 4463 4463 4463 4463 4463 4463 4463 4463 4405 4405 4349 4349 4349 4295 4295 4295 4295 4241 4241 4241 4241 4190 4190 4190 4139 4139 4139 4139 4139 4139 4139 4139 4089 4089 4089 4089 4089 4089 4089 4089 4089 4089 4089 4089 4089 4089 4089 4089 4089 4139 4139 4139 4139 4139 4190 4190 4241 4241 4241 4241 4241 4241 4241 4241 4241 4241 4241 4241 4241 6038 6146 6259 6259 6259 6259 6259 6259 6259 6259 6146 6146 6146 6146 6146 6146 6146 6146 6038 6038 6038 6038 6038 6038 6038 6038 6038 6038 0 0 0 0 0 0 0 0 0 0 0 0 0
0 0 0 0 0 0 0 0 0 0 0 0 0 0 0 0 0 0 0 0 0 0 0 0 0 0 0 0 0 7492 7492 7492 7332 7332 7332 7492 7492 7492 7492 7492 7492 7660 7660 7660 7660 5640 5640 5640 5734 5832 5832 5832 5832 5832 5832 5832 5832 5832 5832 5832 5832 5933 7492 7492 7660 7492 7492 7492 7492 7492 7492 7492 7492 7492 7492 7660 7660 7660 7660 7660 7660 7660 7835 7835 7835 7835 7835 7835 7835 7835 7835 7835 7835 7660 7660 7835 7835 7835 7835 7835 7835 7835 7835 7835 7835 7835 7835 7835 7660 7660 7660 7660 7835 7835 7835 7835 7835 7835 8019 7835 7835 7835 7835 7835 7835 7835 7835 8019 7835 7835 8019 8019 8019 8019 8019 7835 7835 7835 7835 7835 7835 7835 8019 8019 8019 7835 7835 0 7835 7835 8019 7835 7835 7835 7835 7835 7835 7660 7660 7660 7660 7660 7660 7660 7660 7660 7660 7660 7835 7835 7835 7835 7835 7835 7835 7835 7835 7835 7835 7835 7835 7835 7835 7835 7835 7835 7835 7835 7835 7660 7660 7660 0 0 0 0 0 0 0 0 0 0 0 0 0 0 0 0 0 0 0 0 0 0 0 0 0 0 0 0 0 0 0 0 0 0 0 0 0 0 0 0 0 0 0 0 0 0 0 0 0 0 0 0 0 0 0 0 0 0 0 0 0 0 0 0 0 0 0 0 0 0 0 0 0 3539 3539 3503 3503 3503 3503 3503 3503 3503 3503 3503 3468 3468 3468 3468 3468 3468 3468 3468 3433 3433 3433 3433 3433 3433 3433 3433 3433 3433 3433 3433 3433 3399 3399 3399 3399 3399 3399 3399 3399 3399 3399 3399 3399 3399 3399 3399 3399 3399 3399 1947 1947 1947 1947 1947 1936 1936 1936 1936 1936 1936 1936 1936 1926 1926 1926 1926 1926 1926 1926 1926 1915 1915 1915 1915 1915 1915 1904 1904 1894 1894 1904 1904 1904 1904 1894 1894 1894 1894 1894 1894 1894 1894 1894 1894 1894 1894 1894 1894 1894 1894 1883 1883 1883 1883 1883 1883 1873 1873 1883 1883 1873 1873 1873 1873 1873 1873 1873 1873 1873 0 4349 4349 4349 4405 4463 4522 4522 4522 4582 4582 4582 4582 4582 4582 4645 4645 4645 4645 4645 4645 4774 4774 4774 4842 7178 7178 7178 7332 7332 7332 7332 7332 7332 7332 7332 7332 7332 7332 7332 7332 7332 7332 7332 7178 7178 7178 7178 7178 7178 7178 7178 7178 7178 7178 7178 7178 7178 7332 7332 7332 7178 7178 7332 7332 7332 7332 7332 7332 7332 7178 7178 7178 7178 7178 7178 7178 7178 7178 7178 7178 7178 7178 7178 7178 7178 7178 7178 7178 7178 7178 7178 7178 7178 7178 7178 7178 7030 7030 7030 7030 7030 7030 7178 7178 7178 7030 7030 7030 7030 7030 7030 7030 7030 7030 6889 6889 6889 6889 6889 6889 6889 6889 6889 6889 6889 6889 6889 6889 4582 4582 4582 4645 4582 4582 4582 4582 4582 4522 4522 4522 4522 4522 4522 4463 4463 4463 4463 4463 4463 4463 4463 4463 4405 4405 4349 4349 4295 4295 4295 4295 4295 4295 4241 4241 4241 4190 4190 4190 4139 4139 4139 4139 4139 4139 4139 4139 4089 4089 4089 4089 4089 4089 4089 4089 4089 4089 4089 4089 4089 4089 4089 4089 4089 4139 4139 4139 4139 4139 4139 4190 4190 4190 4241 4241 4241 4241 4241 4241 4241 4241 4241 4241 4295 6038 6146 6259 6259 6259 6259 6259 6259 6259 6259 6259 6146 6146 6146 6146 6146 6146 6146 6038 6038 6038 6038 6038 6038 6038 6038 6038 6038 0 0 0 0 0 0 0 0 0 0 0 0 0
0 0 0 0 0 0 0 0 0 0 0 0 0 0 0 0 0 0 0 0 0 0 0 0 0 0 0 0 0 7492 7492 7492 7492 7492 7492 7492 7492 7492 7492 7492 7660 7660 7835 7835 7835 5548 5548 5548 5640 5832 5832 5832 5832 5832 5832 5832 5832 5832 5832 5832 5933 5933 7492 7492 7660 7492 7492 7492 7492 7492 7492 7492 7492 7492 7492 7492 7492 7660 7660 7660 7660 7660 7835 7835 7835 7835 7835 7835 7835 7835 7660 7660 7660 7660 7660 7660 7660 7660 7660 7660 7835 7835 7835 7835 7835 7835 7835 7660 7660 7660 7660 7660 7660 7660 7835 7835 7835 7835 7835 7835 7835 7835 7835 7835 7835 7835 7835 8019 7835 7835 8019 8019 8019 8019 7835 7835 8019 7835 7835 7835 7835 7835 8019 8019 8019 8019 0 0 0 0 0 0 0 7835 7835 7835 7835 7835 7660 7660 7660 7660 7660 7492 7492 7660 7660 7660 7660 7660 7660 7835 7835 7835 7835 7835 7835 7835 7835 7835 7835 7835 7835 7835 7835 7835 7835 7835 7835 7660 7660 7660 0 0 0 0 0 0 0 0 0 0 0 0 0 0 0 0 0 0 0 0 0 0 0 0 0 0 0 0 0 0 0 0 0 0 0 0 0 0 0 0 0 0 0 0 0 0 0 0 0 0 0 0 0 0 0 0 0 0 0 0 0 0 0 0 0 0 0 0 0 0 0 0 0 3539 3468 3468 3503 3503 3503 3503 3503 3503 3503 3468 3468 3468 3468 3468 3468 3468 3468 3468 3468 3468 3468 3468 3433 3433 3433 3433 3468 3433 3433 3433 3433 3399 3399 3399 3399 3399 3399 3399 3399 3399 3399 3399 3399 3399 3399 3399 3433 3433 3433 1947 1947 1947 1947 1947 1936 1936 1936 1936 1936 1936 1936 1936 1926 1926 1926 1926 1926 1926 1926 1926 1926 1915 1915 1915 1915 1915 1904 1904 1894 1894 1894 1894 1904 1904 1894 1894 1894 1894 1894 1894 1894 1894 1894 1894 1894 1894 1894 1894 1894 1894 1883 1883 1883 1883 1883 1883 1873 1873 1883 1883 1883 1883 1883 1883 1883 1873 1873 1873 1873 0 1873 4405 4405 4405 4405 4522 4522 4522 4582 4582 4582 4582 4582 4582 4582 4645 4645 4645 4645 4708 4842 4842 4842 4911 7178 7178 7178 7332 7332 7332 7332 7332 7332 7332 7332 7332 7332 7332 7332 7332 7332 7178 7178 7178 7178 7178 7178 7178 7178 7178 7178 7178 7178 7178 7178 7178 7178 7178 7178 7178 7178 7178 7332 7332 7332 7332 7332 7332 7332 7178 7178 7178 7178 7178 7178 7178 7178 7178 7178 7178 7178 7178 7178 7178 7178 7178 7178 7178 7178 7178 7178 7178 7178 7178 7178 7030 7030 7030 7030 7030 7030 7030 7030 7030 7178 7030 7030 7030 7030 7030 7030 7030 7030 7030 7030 6889 6889 6889 6889 6889 6889 6889 6889 6889 6889 6889 6889 6889 4582 4582 4645 4645 4582 4582 4582 4582 4582 4522 4522 4522 4522 4522 4522 4463 4463 4463 4463 4463 4463 4463 4463 4463 4463 4405 4349 4349 4295 4295 4295 4295 4295 4295 4241 4241 4241 4241 4190 4190 4190 4139 4139 4139 4139 4139 4139 4139 4089 4089 4089 4089 4089 4089 4089 4089 4089 4089 4089 4089 4089 4089 4089 4089 4139 4139 4139 4089 4089 4089 4139 4139 4190 4190 4241 4241 4241 4241 4241 4241 4241 4241 4241 4241 6038 6038 6146 6259 6259 6259 6259 6259 6259 6259 6259 6259 6146 6146 6146 6146 6146 6146 6146 6038 6038 6038 6038 6038 6038 6038 6038 6038 6038 0 0 0 0 0 0 0 0 0 0 0 0 0
0 0 0 0 0 0 0 0 0 0 0 0 0 0 0 0 0 0 0 0 0 0 0 0 0 0 0 0 0 7660 7660 7660 7492 7492 7492 7492 7492 7660 7660 7660 7660 7835 7835 7835 7835 5548 5548 5548 5640 5832 5832 5933 5832 5832 5832 5832 5832 5832 5832 5933 5933 5933 7332 7492 7660 7660 7660 7660 7660 7660 7492 7492 7492 7492 7492 7492 7492 7660 7660 7660 7660 7660 7835 7835 7835 7835 7835 7835 7835 7835 7660 7660 7492 7492 7660 7660 7660 7660 7660 7660 7660 7835 7660 7660 7660 7660 7660 7660 7660 7660 7660 7660 7660 7660 7660 7660 7835 7835 7835 7835 7835 7835 7835 7835 7835 7835 7835 8019 7835 7835 8019 8019 8019 8019 7835 7835 8019 8019 8019 8019 8019 8019 8019 8019 8212 0 0 0 0 0 0 0 0 0 0 0 0 0 0 0 0 0 0 7492 7492 7660 7660 7660 7660 7660 7660 7660 7660 7660 7835 7835 7835 7835 7835 7835 7835 7835 7835 7835 7835 7835 7835 7835 7835 7660 7660 7660 0 0 0 0 0 0 0 0 0 0 0 0 0 0 0 0 0 0 0 0 0 0 0 0 0 0 0 0 0 0 0 0 0 0 0 0 0 0 0 0 0 0 0 0 0 0 0 0 0 0 0 0 0 0 0 0 0 0 0 0 0 0 0 0 0 0 0 0 0 0 0 0 0 0 3468 3468 3503 3503 3468 3468 3468 3468 3503 3468 3468 3468 3468 3468 3468 3468 3468 3468 3468 3468 3468 3468 3468 3468 3468 3468 3433 3433 3399 3399 3399 3399 3399 3399 3399 3399 3399 3399 3399 3399 3399 3399 3399 3433 3399 3399 3433 3433 3433 1947 1947 1947 1947 1947 1947 1936 1936 1936 1936 1936 1936 1936 1926 1926 1926 1926 1926 1926 1926 1926 1926 1926 1915 1915 1915 1915 1904 1904 1894 1894 1894 1894 1894 1894 1894 1894 1894 1894 1894 1894 1894 1894 1894 1894 1894 1894 1894 1894 1894 1894 1883 1883 1883 1883 1883 1883 1883 1883 1883 1883 1883 1883 1883 1883 1883 1873 1873 1883 1883 1883 0 4405 4405 4405 4405 4522 4522 4522 4582 4582 4582 4582 4582 4582 4582 4582 4645 4645 4645 4708 4842 4842 4842 4911 7178 7178 7178 7332 7332 7332 7332 7332 7332 7332 7332 7332 7332 7332 7332 7178 7178 7178 7178 7178 7178 7178 7178 7178 7178 7178 7178 7178 7178 7178 7178 7178 7178 7178 7178 7178 7178 7178 7332 7332 7332 7178 7178 7178 7178 7178 7178 7178 7178 7178 7178 7178 7178 7178 7178 7178 7178 7178 7178 7178 7178 7178 7178 7178 7178 7178 7178 7178 7178 7178 7178 7030 7030 7030 7030 7030 7030 7030 7030 7030 7178 7030 7030 7178 7030 7030 7030 7030 7030 7030 7030 7030 6889 6889 6889 6889 6889 6889 6889 6889 7030 7030 7030 7030 4645 4645 4645 4645 4645 4582 4582 4582 4582 4522 4522 4522 4522 4522 4522 4463 4463 4463 4463 4463 4463 4463 4463 4463 4463 4405 4349 4349 4295 4295 4295 4295 4295 4295 4241 4241 4241 4241 4190 4190 4190 4139 4139 4139 4089 4089 4139 4139 4089 4089 4089 4089 4089 4089 4089 4089 4089 4089 4089 4139 4139 4139 4089 4089 4139 4139 4139 4089 4089 4089 4139 4139 4190 4190 4241 4241 4241 4241 4241 4241 4295 4241 4241 4241 6259 6146 6146 6146 6146 6259 6259 6259 6259 6259 6146 6146 6146 6146 6146 6146 6146 6146 6146 6146 6038 6038 6038 6038 6038 6038 6038 6038 6038 0 0 0 0 0 0 0 0 0 0 0 0 0
0 0 0 0 0 0 0 0 0 0 0 0 0 0 0 0 0 0 0 0 0 0 0 0 0 0 0 0 0 7835 7835 7660 7660 7660 7660 7660 7660 7660 7660 7660 7660 7660 7660 7660 7660 5933 5933 5933 5933 5933 5933 5933 5933 5832 5832 5832 5832 5832 5933 5933 5933 6038 7332 7492 7660 7660 7660 7660 7660 7660 7492 7492 7492 7492 7492 7492 7492 7660 7660 7660 7660 7660 7835 7835 7835 7835 7835 7660 7660 7660 7660 7660 7492 7492 7660 7660 7492 7492 7660 7492 7492 7660 7660 7660 7660 7660 7660 7660 7660 7660 7660 7660 7660 7660 7660 7660 7835 7835 7835 7835 7835 7835 7835 7835 7835 7835 7835 7835 7835 7835 7835 7835 8019 8019 8019 8019 8019 8019 8019 8019 8019 8019 8019 8019 8413 0 0 0 0 0 0 0 0 0 0 0 0 0 0 0 0 0 0 7492 7492 7492 7492 7660 7660 7660 7660 7660 7660 7660 7660 7835 7835 7835 7835 7835 7835 7835 7835 7835 7835 7835 7835 7835 7835 7660 7660 7660 0 0 0 0 0 0 0 0 0 0 0 0 0 0 0 0 0 0 0 0 0 0 0 0 0 0 0 0 0 0 0 0 0 0 0 0 0 0 0 0 0 0 0 0 0 0 0 0 0 0 0 0 0 0 0 0 0 0 0 0 0 0 0 0 0 0 0 0 0 0 0 0 0 0 3468 3468 3503 3503 3468 3468 3468 3468 3503 3468 3468 3468 3468 3468 3503 3468 3468 3468 3468 3468 3468 3468 3468 3468 3468 3468 3433 3433 3399 3399 3399 3399 3399 3399 3399 3399 3399 3399 3399 3399 3399 3399 3399 3433 3433 3433 3433 3433 3433 1947 1947 1947 1947 1947 1947 1936 1936 1936 1936 1936 1936 1936 1926 1926 1926 1926 1926 1926 1915 1915 1926 1926 1915 1915 1915 1915 1904 1904 1894 1894 1894 1894 1894 1894 1894 1894 1894 1894 1894 1894 1894 1894 1894 1894 1894 1894 1894 1894 1894 1894 1883 1883 1883 1883 1883 1883 1883 1883 1883 1883 1883 1883 1883 1883 1883 1873 1873 1883 1883 1883 0 4405 4405 4405 4405 4522 4522 4522 4582 4582 4582 4582 4582 4582 4582 4582 4645 4645 4645 0 4645 4645 7178 0 7178 7178 7178 7178 7178 7332 7332 7332 7332 7332 7332 7332 7332 7332 7332 7178 7178 7178 7178 7178 7178 7178 7178 7178 7178 7178 7178 7178 7178 7178 7178 7178 7332 7332 7332 7332 7178 7178 7332 7332 7178 7178 7178 7178 7178 7178 7178 7178 7178 7178 7178 7178 7178 7178 7178 7178 7178 7178 7178 7178 7178 7178 7178 7178 7178 7178 7178 7178 7178 7178 7178 7030 7030 7030 7030 6889 6889 6889 7030 7030 7178 7030 7030 7178 7030 7030 7030 7030 7030 7030 7030 7030 6889 6889 6889 6753 6753 6889 6889 6889 7030 7030 7030 7030 4645 4645 4645 4645 4645 4582 4582 4582 4582 4522 4522 4522 4522 4522 4463 4463 4463 4463 4463 4463 4463 4463 4463 4463 4463 4463 4405 4349 4295 4295 4295 4295 4295 4295 4241 4241 4241 4241 4190 4190 4190 4139 4139 4139 4089 4089 4139 4089 4089 4089 4089 4089 4089 4089 4089 4089 4089 4089 4089 4139 4139 4139 4139 4139 4139 4139 4139 4089 4089 4089 4139 4139 4190 4190 4190 4241 4241 4241 4241 4241 4295 4241 4241 4190 4190 5933 6146 6146 6146 6259 6259 6259 6259 6259 6146 6146 6146 6146 6146 6146 6146 6146 6146 6146 6146 6146 6038 6038 6038 6038 6038 6038 6038 0 0 0 0 0 0 0 0 0 0 0 0 0
0 0 0 0 0 0 0 0 0 0 0 0 0 0 0 0 0 0 0 0 0 0 0 0 0 0 0 0 0 8019 8019 7660 7660 7660 7660 7835 7835 7660 7660 7660 7835 7660 7660 7660 7660 6146 5933 5933 5933 5933 5933 5933 5933 5832 5832 5933 5933 5933 5933 5933 5933 6038 7492 7492 7660 7660 7660 7660 7660 7660 7660 7660 7492 7492 7492 7492 7660 7660 7835 7835 7660 7660 7835 7835 7835 7660 7660 7660 7660 7660 7660 7660 7660 7660 7660 7660 7492 7492 7660 7492 7492 7660 7660 7660 7660 7660 7660 7660 7660 7660 7660 7660 7660 7660 7660 7660 7835 7835 7835 7835 7835 7835 7835 7835 7835 7835 7835 7835 7835 7835 7835 7835 8019 8019 8019 8019 8019 8019 8019 8019 8019 8019 8019 8212 0 0 0 0 0 0 0 0 0 0 0 0 0 0 0 0 0 0 0 0 7660 7492 7492 7660 7660 7660 7660 7660 7660 7660 7660 7835 7835 7835 7835 7835 7835 7835 7835 7835 7835 7835 7835 7835 7835 7660 7660 7660 0 0 0 0 0 0 0 0 0 0 0 0 0 0 0 0 0 0 0 0 0 0 0 0 0 0 0 0 0 0 0 0 0 0 0 0 0 0 0 0 0 0 0 0 0 0 0 0 0 0 0 0 0 0 0 0 0 0 0 0 0 0 0 0 0 0 0 0 0 0 0 0 0 0 3468 3468 3468 3468 3468 3468 3468 3468 3503 3503 3503 3503 3503 3503 3503 3468 3468 3468 3468 3468 3468 3468 3468 3468 3468 3433 3433 3399 3399 3399 3399 3399 3399 3399 3399 3399 3399 3399 3399 3399 3399 3399 3399 3433 3433 3433 3433 3433 3433 1947 1947 1947 1947 1947 1947 1936 1936 1936 1936 1936 1936 1936 1926 1926 1926 1926 1926 1926 1915 1915 1915 1926 1915 1915 1915 1915 1915 1904 1904 1904 1894 1894 1894 1894 1894 1894 1894 1894 1894 1894 1894 1894 1894 1894 1894 1894 1894 1894 1894 1894 1883 1883 1883 1883 1883 1883 1873 1873 1883 1883 1883 1883 1883 1883 1883 1873 1873 1873 1873 1873 0 4582 4405 4405 4405 4522 4522 4522 4582 4582 4582 4582 4582 4582 4582 4582 4645 4645 4645 4645 0 0 0 0 7178 7178 7178 7178 7178 7332 7332 7332 7332 7332 7332 7332 7332 7332 7332 7178 7178 7178 7178 7178 7178 7178 7178 7178 7178 7178 7178 7178 7178 7178 7178 7178 7332 7332 7332 7332 7178 7178 7332 7332 7178 7178 7178 7178 7178 7178 7178 7178 7178 7178 7178 7178 7178 7178 7178 7178 7178 7178 7178 7178 7178 7178 7178 7178 7178 7178 7178 7178 7178 7178 7178 7030 7030 7030 6889 6753 6753 6753 6889 7030 7030 7030 7030 7178 7030 7030 7030 7030 7030 7030 7030 7030 6889 6889 6889 6753 6753 6889 6889 6889 7030 7030 7030 7030 4708 4708 4708 4708 4645 4582 4582 4582 4582 4522 4522 4522 4463 4463 4463 4463 4463 4463 4463 4463 4463 4463 4463 4463 4463 4463 4405 4349 4295 4295 4295 4295 4295 4295 4241 4241 4241 4241 4190 4190 4190 4139 4139 4139 4089 4089 4089 4089 4089 4089 4089 4089 4089 4089 4089 4089 4089 4139 4139 4139 4139 4139 4139 4139 4139 4089 4089 4089 4089 4089 4139 4139 4190 4190 4190 4241 4241 4241 4241 4241 4241 4241 4241 4190 4190 5933 6146 6146 6146 6259 6259 6259 6259 6259 6146 6146 6146 6146 6146 6146 6146 6146 6146 6146 6146 6146 6146 6146 6146 6038 6038 6038 6038 0 0 0 0 0 0 0 0 0 0 0 0 0
0 0 0 0 0 0 0 0 0 0 0 0 0 0 0 0 0 0 0 0 0 0 0 0 0 0 0 0 0 7835 7835 7660 7660 7660 7660 7660 7660 7660 7660 7660 7660 7492 7492 7492 7492 6146 6038 6038 6038 6038 6038 5933 5933 5933 5933 5933 5933 5933 5933 5933 5933 5933 7492 7492 7660 7660 7660 7660 7660 7660 7660 7660 7492 7492 7492 7492 7660 7660 7660 7660 7660 7660 7660 7660 7660 7660 7660 7660 7660 7660 7660 7660 7660 7660 7660 7660 7660 7660 7660 7660 7660 7660 7660 7660 7660 7660 7660 7660 7660 7660 7660 7660 7660 7660 7660 7660 7835 7835 7835 7835 7835 7835 7835 7835 7835 7835 7835 7835 7835 7835 7835 7835 8019 8019 8019 8019 8019 8019 8019 8019 8019 8019 8019 8019 0 0 0 0 0 0 0 0 0 0 0 0 0 0 0 0 0 0 0 0 7660 7492 7492 7660 7492 7492 7660 7660 7660 7660 7660 7835 7835 7835 7835 7835 7835 7835 7835 7835 7835 7835 7835 7835 7835 7835 7835 7835 0 0 0 0 0 0 0 0 0 0 0 0 0 0 0 0 0 0 0 0 0 0 0 0 0 0 0 0 0 0 0 0 0 0 0 0 0 0 0 0 0 0 0 0 0 0 0 0 0 0 0 0 0 0 0 0 0 0 0 0 0 0 0 0 0 0 0 0 0 0 0 0 0 0 3433 3433 3468 3468 3468 3468 3503 3503 3503 3503 3503 3503 3503 3503 3503 3468 3468 3468 3468 3468 3468 3468 3468 3468 3468 3433 3433 3399 3399 3399 3399 3399 3399 3399 3399 3399 3399 3399 3399 3399 3399 3399 3399 3399 3399 3433 3433 3433 3433 1947 1947 1947 1947 1936 1936 1936 1936 1936 1936 1936 1936 1936 1926 1926 1926 1926 1926 1926 1915 1915 1915 1926 1915 1915 1915 1915 1915 1904 1904 1904 1904 1904 1904 1904 1894 1894 1894 1894 1894 1894 1894 1894 1894 1894 1894 1894 1894 1894 1894 1894 1883 1883 1883 1883 1883 1883 1873 1873 1883 1883 1883 1883 1873 1873 1873 1873 1873 1873 1873 1873 4645 4582 4582 4405 4405 4522 4522 4582 4582 4582 4582 4582 4582 4582 4582 4582 4645 4645 4645 0 0 0 7178 0 7178 7178 7178 7332 7332 7332 7332 7332 7332 7332 7332 7332 7332 7332 7332 7178 7178 7178 7178 7178 7178 7178 7178 7178 7178 7178 7178 7178 7178 7178 7178 7178 7332 7332 7332 7332 7178 7178 7332 7332 7178 7178 7178 7178 7178 7178 7178 7178 7178 7178 7178 7178 7178 7178 7178 7178 7178 7178 7178 7178 7178 7178 7178 7178 7178 7178 7178 7178 7178 7178 7178 7030 6889 6889 6753 6622 6622 6622 6753 6889 7030 7030 7030 7178 7030 7030 7030 7030 7030 7030 7030 6889 6889 6889 6889 6753 6753 6889 6889 6889 7030 7030 7030 7178 4708 4708 4708 4708 4645 4582 4582 4582 4582 4582 4522 4522 4463 4463 4463 4463 4463 4463 4463 4463 4463 4463 4463 4463 4463 4405 4405 4349 4295 4295 4295 4295 4295 4295 4241 4241 4241 4241 4190 4190 4190 4139 4139 4139 4089 4089 4089 4089 4089 4089 4089 4089 4089 4089 4089 4089 4089 4139 4139 4139 4139 4139 4139 4139 4089 4089 4089 4089 4089 4089 4139 4139 4190 4190 4190 4190 4241 4241 4241 4241 4241 4241 4241 4241 5933 5933 6146 6146 6146 6259 6259 6259 6259 6146 6146 6146 6146 6146 6146 6146 6146 6146 6146 6146 6146 6259 6146 6146 6146 6038 6038 6038 6038 0 0 0 0 0 0 0 0 0 0 0 0 0
0 0 0 0 0 0 0 0 0 0 0 0 0 0 0 0 0 0 0 0 0 0 0 0 0 0 0 0 0 7835 7835 7835 7660 7660 7660 7660 7660 7660 7660 7660 7492 7492 7492 7492 7492 6259 6038 6038 6038 6038 6038 6038 6038 5933 5933 5933 5933 5933 5933 5933 5933 5933 5933 7660 7660 7660 7660 7660 7660 7660 7660 7660 7660 7492 7492 7492 7660 7660 7660 7660 7660 7660 7660 7660 7660 7660 7660 7660 7660 7660 7660 7660 7660 7660 7660 7660 7660 7660 7660 7660 7660 7660 7660 7660 7660 7660 7660 7660 7660 7835 7660 7660 7660 7660 7660 7660 7835 7835 7835 7835 7835 7835 7835 7835 7835 7835 7835 7835 7835 7835 7835 7835 8019 8019 8019 8019 8019 8019 8019 8019 8019 8019 8019 8019 0 0 0 0 0 0 0 0 0 0 0 0 0 0 0 0 0 0 0 0 7660 7492 7492 7660 7492 7492 7660 7660 7660 7660 7660 7660 7835 7835 7835 7835 7835 7835 7835 7835 7835 7835 7835 7835 7835 7835 7835 7835 0 0 0 0 0 0 0 0 0 0 0 0 0 0 0 0 0 0 0 0 0 0 0 0 0 0 0 0 0 0 0 0 0 0 0 0 0 0 0 0 0 0 0 0 0 0 0 0 0 0 0 0 0 0 0 0 0 0 0 0 0 0 0 0 0 0 0 0 0 0 0 0 0 0 3433 3433 3468 3468 3468 3468 3503 3503 3503 3503 3503 3503 3503 3503 3503 3468 3468 3468 3468 3468 3468 3468 3468 3468 3468 3468 3433 3433 3433 3399 3399 3399 3399 3399 3399 3399 3399 3399 3399 3399 3399 3399 3399 3399 3399 3399 3433 3433 3433 1947 1947 1947 1947 1936 1936 1936 1936 1936 1936 1936 1936 1936 1926 1926 1926 1926 1926 1915 1915 1915 1915 1926 1915 1915 1915 1915 1915 1904 1904 1904 1904 1904 1904 1904 1894 1894 1894 1894 1894 1894 1894 1894 1894 1894 1894 1894 1894 1894 1894 1883 1883 1883 1883 1883 1883 1883 1873 1873 1883 1883 1883 1883 1873 1873 1873 1873 1873 1873 1873 4645 4645 4645 4582 4582 4582 4522 4522 4582 4582 4582 4582 4582 4582 4582 4582 4645 4645 4645 4645 4645 0 0 7178 7178 7178 7178 7178 7178 7178 7178 7178 7178 7332 7332 7332 7178 7178 7178 7178 7178 7178 7178 7178 7178 7178 7178 7178 7178 7178 7178 7178 7178 7178 7178 7178 7332 7332 7332 7332 7332 7332 7332 7332 7332 7178 7178 7178 7178 7178 7178 7178 7178 7178 7178 7332 7332 7332 7178 7178 7178 7178 7178 7178 7178 7178 7178 7178 7178 7178 7178 7178 7030 7030 7030 7030 6889 6753 6753 6622 6622 6622 6622 6622 6753 6889 7030 7030 7178 7030 7030 7030 7030 7030 7030 6889 6889 6889 6753 6753 6622 6622 6753 6889 6889 7030 7030 7030 7178 4708 4708 4708 4708 4708 4645 4582 4582 4582 4582 4522 4522 4463 4463 4463 4463 4463 4463 4463 4463 4463 4463 4463 4463 4463 4405 4405 4349 4295 4295 4295 4241 4241 4241 4241 4241 4241 4241 4190 4190 4139 4139 4139 4139 4089 4089 4089 4089 4089 4089 4089 4089 4089 4089 4089 4089 4089 4089 4089 4139 4139 4139 4139 4139 4089 4089 4089 4089 4089 4089 4139 4139 4190 4190 4190 4190 4190 4190 4190 4241 4241 4295 4241 4241 6146 6146 6146 6146 6146 6146 6259 6259 6259 6146 6146 6146 6146 6146 6146 6146 6146 6146 6146 6259 6259 6146 6146 6146 6146 6146 6038 6038 6038 0 0 0 0 0 0 0 0 0 0 0 0 0
0 0 0 0 0 0 0 0 0 0 0 0 0 0 0 0 0 0 0 0 0 0 0 0 0 0 0 0 0 7835 7835 7660 7660 7660 7835 7835 7660 7660 7660 7660 7492 7492 7492 7492 7492 6259 6038 6038 6038 6038 6038 6038 6038 5933 5933 5933 5933 5933 5933 5933 5832 5832 5832 7660 7660 7660 7660 7660 7660 7660 7660 7660 7660 7660 7492 7492 7492 7492 7492 7492 7660 7660 7660 7660 7660 7660 7660 7660 7660 7660 7660 7660 7660 7660 7660 7660 7660 7660 7660 7660 7660 7835 7660 7660 7660 7835 7660 7660 7835 7835 7835 7835 7660 7660 7835 7835 7835 7835 7835 7835 7835 7835 7835 7835 7835 7835 7835 7835 7835 7835 7835 7835 7835 7835 8019 8019 8019 8019 8019 8019 8019 8019 8019 8212 0 0 0 0 0 0 0 0 0 0 0 0 0 0 0 0 0 0 0 0 7660 7492 7492 7660 7660 7660 7660 7660 7660 7660 7660 7660 7835 7835 7835 7835 7835 7835 7835 7835 7835 7835 7835 7835 7835 7835 7835 7835 0 0 0 0 0 0 0 0 0 0 0 0 0 0 0 0 0 0 0 0 0 0 0 0 0 0 0 0 0 0 0 0 0 0 0 0 0 0 0 0 0 0 0 0 0 0 0 0 0 0 0 0 0 0 0 0 0 0 0 0 0 0 0 0 0 0 0 0 0 0 0 0 0 0 3399 3399 3468 3468 3468 3468 3503 3503 3503 3503 3503 3503 3503 3503 3503 3468 3468 3468 3468 3468 3468 3468 3468 3468 3468 3433 3433 3433 3433 3433 3399 3399 3399 3399 3399 3399 3399 3399 3399 3399 3399 3399 3399 3399 3399 3399 3433 3433 3433 1936 1936 1947 1947 1947 1947 1936 1936 1936 1936 1936 1936 1936 1926 1926 1926 1926 1926 1915 1915 1915 1915 1915 1915 1915 1915 1915 1915 1904 1904 1904 1904 1904 1904 1904 1894 1894 1894 1894 1894 1894 1894 1894 1894 1894 1894 1894 1894 1894 1894 1883 1883 1883 1883 1883 1883 1883 1873 1873 1883 1883 1883 1883 1873 1873 1873 1873 1873 1873 1883 4645 4645 4645 4645 4582 4582 4582 4582 4645 4582 4582 4645 4645 4645 4645 4645 4582 4582 4645 4645 0 0 0 7178 7178 7178 7178 7178 7178 7178 7178 7178 7178 7178 7178 7178 7178 7178 7178 7178 7178 7178 7030 7030 7030 7030 7030 7030 7030 7030 7030 7030 7178 7178 7178 7178 7178 7178 7332 7332 7332 7332 7332 7332 7178 7178 6889 6889 6889 6889 6889 6889 7030 7030 7178 7178 7178 7178 7178 7178 7178 7178 7178 7178 7178 7030 7030 6889 6889 6889 7030 7030 7030 7030 7030 6889 6753 6753 6622 6622 6622 6622 6622 6622 6753 6889 7030 7030 7178 7030 7030 7030 7030 7030 7030 6889 6889 6889 6622 6622 6622 6622 6753 6889 6889 6889 7030 7030 7178 7178 4708 4708 4708 4708 4645 4582 4582 4582 4582 4522 4522 4463 4463 4463 4463 4463 4463 4463 4463 4463 4463 4463 4463 4463 4405 4405 4349 4295 4295 4295 4241 4241 4241 4241 4241 4241 4241 4190 4190 4139 4139 4139 4139 4089 4089 4089 4089 4089 4089 4089 4089 4089 4089 4089 4089 4089 4089 4089 4139 4139 4139 4139 4139 4089 4089 4089 4041 4041 4089 4139 4139 4190 4190 4190 4190 4190 4190 4190 4190 4241 4241 4241 6146 6146 6146 6146 6146 6146 6146 6259 6259 6259 6146 6146 6146 6146 6146 6146 6146 6146 6146 6259 6259 6259 6146 6146 6146 6146 6146 6038 6038 6038 0 0 0 0 0 0 0 0 0 0 0 0 0
0 0 0 0 0 0 0 0 0 0 0 0 0 0 0 0 0 0 0 0 0 0 0 0 0 0 0 0 0 7660 7660 7660 7660 7660 7835 7835 7660 7660 7660 7660 7492 7492 7492 7492 7492 7492 5933 5933 5933 5933 5933 5933 5933 5933 5933 5933 5933 5933 5933 5933 5832 5832 5832 7660 7660 7660 7492 7492 7660 7660 7660 7660 7660 7660 7492 7492 7492 7492 7492 7492 7492 7492 7660 7660 7660 7660 7660 7660 7660 7660 7660 7660 7660 7660 7660 7660 7660 7660 7660 7835 7835 7835 7835 7835 7835 7835 7835 7835 7835 7835 7835 7835 7660 7660 7835 7835 7835 7835 7835 7835 7835 7835 7835 7835 7835 7835 7835 7835 7835 7835 7835 7835 7835 7835 8019 8019 8019 8019 8019 8019 8019 8212 8212 0 0 0 0 0 0 0 0 0 0 0 0 0 0 0 0 0 0 0 0 0 7660 7492 7492 7660 7660 7660 7660 7660 7660 7660 7660 7660 7835 7835 7835 7835 7835 7835 7835 7835 7835 7835 7835 7835 7835 7835 7835 8019 0 0 0 0 0 0 0 0 0 0 0 0 0 0 0 0 0 0 0 0 0 0 0 0 0 0 0 0 0 0 0 0 0 0 0 0 0 0 0 0 0 0 0 0 0 0 0 0 0 0 0 0 0 0 0 0 0 0 0 0 0 0 0 0 0 0 0 0 0 0 0 0 0 0 3399 3399 3468 3468 3468 3468 3503 3503 3503 3503 3503 3503 3503 3503 3503 3468 3468 3468 3468 3468 3468 3468 3468 3468 3468 3433 3433 3433 3433 3433 3399 3399 3399 3399 3399 3399 3399 3399 3399 3399 3399 3399 3399 3399 3399 3433 3433 3433 1936 1936 1936 1947 1947 1936 1936 1947 1947 1936 1936 1936 1936 1936 1926 1926 1926 1926 1926 1915 1915 1915 1915 1915 1915 1915 1915 1915 1915 1915 1915 1915 1904 1904 1904 1904 1904 1904 1894 1894 1894 1894 1894 1894 1894 1894 1894 1894 1883 1883 1883 1883 1883 1883 1883 1883 1883 1883 1873 1873 1883 1883 1883 1883 1873 1873 1873 1873 1873 1873 1873 4645 4645 4645 4645 4645 4645 4645 4645 4645 4645 4645 4645 4645 4645 4645 4645 4582 4582 4645 4645 4645 0 0 7178 7178 7178 7178 7178 7178 7178 7178 7178 7178 7178 7178 7178 7178 7178 7178 7030 7030 7030 7030 7030 7030 7030 7030 7030 7030 7030 7030 7030 7030 7030 7030 7030 7030 7178 7178 7178 7332 7332 7332 7332 7178 7030 6889 6753 6753 6753 6753 6753 6889 6889 7030 7030 7030 7178 7030 7030 7030 7030 7030 7030 7030 7030 6889 6889 6889 6889 6889 6889 6753 6753 6753 6753 6753 6622 6622 6622 6622 6622 6622 6622 6753 6889 7030 7178 7178 7030 7030 7030 7030 7030 6889 6753 6622 6497 6497 6497 6497 6497 6497 6622 6753 6889 7030 7030 7178 7178 4708 4708 4708 4708 4645 4582 4582 4582 4582 4522 4522 4522 4463 4463 4463 4463 4463 4463 4463 4463 4463 4463 4463 4463 4405 4405 4349 4349 4295 4295 4295 4241 4241 4241 4241 4241 4241 4190 4190 4190 4139 4139 4139 4089 4089 4089 4089 4089 4089 4089 4089 4089 4089 4089 4089 4089 4089 4139 4139 4089 4089 4089 4089 4089 4089 4089 4041 4041 4089 4139 4139 4190 4190 4190 4190 4190 4190 4190 4190 4241 4241 4241 4295 6146 6146 6146 6146 6146 6146 6259 6259 6259 6146 6146 6146 6146 6146 6146 6146 6146 6146 6259 6146 6146 6146 6146 6146 6146 6038 6038 6038 6038 0 0 0 0 0 0 0 0 0 0 0 0 0
0 0 0 0 0 0 0 0 0 0 0 0 0 0 0 0 0 0 0 0 0 0 0 0 0 0 0 0 0 7660 7660 7660 7660 7660 7660 7660 7660 7660 7660 7660 7492 7492 7492 7660 7660 8019 5933 5832 5832 5832 5933 5933 5933 5933 5933 5933 5933 5933 5832 5832 5832 5832 5832 7492 7492 7492 7492 7492 7492 7492 7660 7660 7660 7660 7492 7492 7492 7492 7492 7492 7492 7492 7660 7660 7660 7835 7835 7835 7835 7660 7660 7660 7660 7660 7660 7660 7660 7660 7660 7835 7835 7835 7835 7835 7835 7835 7835 7660 7660 7660 7660 7660 7660 7660 7835 7835 7835 7835 7835 7835 7835 7835 7835 7835 7835 7835 7835 7835 7835 7835 7835 7835 7835 7835 8019 8019 8019 8019 8019 8019 8019 8212 8212 0 0 0 0 0 0 0 0 0 0 0 0 0 0 0 0 0 0 0 0 0 0 7492 7492 7660 7660 7660 7660 7660 7660 7660 7660 7835 7835 7835 7835 7835 7835 7835 7835 7835 7835 7835 7835 7835 7835 8019 8019 8019 0 0 0 0 0 0 0 0 0 0 0 0 0 0 0 0 0 0 0 0 0 0 0 0 0 0 0 0 0 0 0 0 0 0 0 0 0 0 0 0 0 0 0 0 0 0 0 0 0 0 0 0 0 0 0 0 0 0 0 0 0 0 0 0 0 0 0 0 0 0 0 0 0 0 3399 3399 3468 3503 3503 3503 3503 3503 3503 3503 3503 3503 3503 3503 3503 3468 3468 3468 3433 3433 3433 3433 3433 3433 3433 3433 3433 3433 3433 3433 3433 3399 3399 3399 3399 3399 3399 3399 3399 3399 3399 3399 3399 3399 3399 3433 3433 3433 1947 1947 1947 1947 1947 1936 1936 1947 1947 1936 1936 1936 1936 1936 1926 1926 1926 1926 1926 1915 1915 1915 1915 1915 1915 1915 1915 1915 1915 1915 1915 1915 1915 1904 1904 1904 1904 1904 1894 1894 1894 1894 1894 1894 1894 1883 1883 1883 1883 1883 1883 1883 1883 1883 1883 1883 1883 1873 1873 1873 1873 1873 1873 1873 1873 1873 1873 1873 1873 1873 1873 4645 4645 4645 4645 4645 4645 4645 4645 4645 4645 4645 4645 4645 4645 4645 4645 4645 4645 4645 4645 0 4645 0 6889 7030 7030 7030 7030 7030 7030 7030 7030 7030 7030 7030 7030 7030 7030 7030 7030 6889 6889 6889 6889 6889 6889 6889 6889 6889 6889 6889 6889 6889 6889 6889 6889 6889 7030 7178 7178 7178 7178 7178 7178 7178 7030 6889 6753 6753 6753 6753 6753 6753 6889 6889 7030 7030 7030 7030 7030 7030 6889 6889 6889 6889 6889 6753 6753 6753 6753 6753 6753 6753 6753 6753 6753 6622 6622 6622 6622 6622 6622 6622 6622 6753 6889 7030 7178 7178 7030 7030 7030 7030 6889 6889 6622 6497 6497 6497 6497 6497 6497 6497 6622 6753 6889 7030 7030 7030 7030 4522 4522 4708 4708 4645 4645 4645 4645 4582 4582 4522 4522 4522 4463 4463 4463 4463 4463 4463 4463 4463 4463 4463 4463 4405 4405 4405 4349 4349 4295 4295 4241 4241 4241 4241 4241 4241 4190 4190 4190 4139 4139 4139 4089 4089 4089 4089 4089 4089 4089 4089 4089 4089 4089 4089 4089 4089 4139 4139 4089 4089 4089 4089 4089 4089 4089 4089 4089 4089 4139 4190 4190 4190 4190 4190 4190 4190 4190 4190 4241 4241 4241 4295 6146 6146 6146 6146 6146 6146 6259 6259 6259 6146 6146 6146 6146 6146 6146 6146 6146 6146 6146 6146 6146 6038 6038 6038 6038 6038 5933 5933 5933 0 0 0 0 0 0 0 0 0 0 0 0 0
