0 0 0 0 0 0 0 0 0 0 0 0 0 0 0 0 0 0 0 0 0 0 0 0 0 0 0 0 0 0 0 0 0 0 1981 1981 1981 1981 1981 1981 1993 1993 2005 2005 1993 1993 1993 1993 1993 1993 1993 1993 1993 1993 2005 2005 2005 2005 2005 2005 2005 2005 2005 2005 1993 1993 1993 1981 1981 1981 1981 1981 1981 1993 1993 1993 1993 1993 1993 1993 1993 1981 1981 1981 1981 1981 1970 1970 1981 1981 1993 1993 1993 1993 2005 2005 2005 2005 2005 1993 1993 1993 1993 1993 1993 1993 1993 1993 1993 1993 1993 1993 1993 1993 1993 1993 1993 1993 1993 1993 1647 1647 1663 1671 1671 1663 1655 1639 1639 1601 1594 1594 1594 1594 1594 1594 1594 1594 1594 1601 1601 1594 1594 1601 1609 1993 1993 1993 2005 2005 2005 2028 1776 1776 1776 1776 1776 1785 1785 1785 1785 1794 1794 1794 2005 2005 2005 2005 2016 2016 2016 2016 2016 2016 2016 2005 2005 2005 2005 2005 2016 2016 2016 2016 2016 2016 2028 2028 2028 2028 2028 2028 2028 2028 2028 2040 2028 2028 2028 2028 2028 2028 2028 2016 2016 2016 2016 2016 2028 2028 2028 2028 2028 2028 2028 2028 2028 2028 2028 2040 2040 2040 1550 1550 1550 1550 1557 1557 1557 1557 1557 1557 1557 1564 1572 1579 1579 1579 1579 1579 1579 2028 2028 2016 2016 2016 2016 2016 2028 2028 1776 1776 1776 1785 1785 1785 1794 1794 1804 1804 1804 1804 1804 1804 2016 2016 2016 2005 1993 1993 1981 1981 1981 1981 1993 1993 2005 2005 2016 2016 2016 1464 1464 1464 1458 1458 1464 1464 1464 1464 1464 1464 1464 1464 1464 1470 1776 1776 1776 1785 1785 1813 1813 1813 1873 1883 1883 1904 1915 1936 1981 2005 2016 2028 2028 2028 2028 2028 2028 2028 2028 2028 2028 2028 2028 2028 2028 2028 2016 2016 2016 2016 2005 2005 2016 2016 2016 2005 2005 2005 2005 2005 2005 2005 2016 2016 2016 2016 2016 2028 2028 2028 2028 2028 2028 2028 2028 2016 2016 2016 2016 2028 2028 2028 2028 2028 2028 2028 2028 2028 2028 2028 2028 2028 2028 2028 2028 2028 2028 2016 2016 2016 2016 2016 2016 2016 2028 2028 2028 1410 1410 1410 1404 1404 1404 1404 1404 1404 1404 1404 1404 1404 1404 1404 1398 1398 1776 1785 1794 1794 1804 1804 1794 1794 2016 2016 2016 2016 2016 2016 2016 2005 2005 2005 2005 2016 2016 2028 2028 2028 2040 2028 2028 2028 1926 1915 1915 1915 1926 1926 1926 1936 1936 1947 1959 1981 2016 2016 2016 2016 2016 2016 2016 2016 2016 2016 2016 2016 2016 2016 2016 2016 2016 2016 2016 2016 2016 2016 2016 2028 2028 2028 2028 2028 2016 2016 2016 2005 2005 2005 2005 2005 1503 1496 1496 1496 1489 1489 1489 1489 1489 1489 1483 1483 1483 1483 1483 1483 1483 1483 1483 1483 1483 1477 1477 1477 1993 1993 1993 1993 1993 1993 1993 1993 1993 1993 1993 1993 1993 1993 1993 2005 2005 2005 2005 2005 2005 2005 2005 2005 2005 2005 2005 2005 2005 2005 2005 2005 2005 2005 2005 2005 1993 1993 2005 2005 2005 2005 1993 1993 2005 2005 2005 2005 2005 2005 2005 2005 2005 2005 1993 1993 2005 2005 2005 2005 2005 2005 2005 2005 2005 2005 2005 2005 2005 2005 2005 1993 1993 1993 1993 1993 1993 1993 1993 1993 1993 1993 1993 1993 1981 1981 1981 1981 1981 1981 1981 1981 1981 1970 1970 1981 1981 1981 1981 1981 1981 1970 1970 1970 1970 1970 1970 1970 1970 1970 1970 1970 1970 1970 1970 1970 1970 1981 1981 1981 1981 1981 1981 1981 1970 1970 0 0 0 0 0 0 0 0
0 0 0 0 0 0 0 0 0 0 0 0 0 0 0 0 0 0 0 0 0 0 0 0 0 0 0 0 0 0 0 0 0 0 1981 1970 1970 1981 1981 1981 1981 1981 1993 1993 1993 1993 1981 1981 1981 1981 1993 1993 1993 1993 1993 1993 1993 1993 2005 1993 1993 1993 1993 1993 1993 1993 1981 1981 1981 1981 1981 1981 1981 1993 1981 1981 1981 1993 1993 1993 1981 1970 1970 1970 1970 1970 1970 1970 1970 1970 1981 1981 1993 1993 1993 1993 1993 1993 1993 1993 1993 1993 1993 1993 1993 1993 1993 1993 1993 1993 1993 1981 1981 1981 1981 1993 1993 1993 1993 1993 1655 1655 1671 1680 1671 1671 1663 1639 1624 1601 1594 1594 1594 1594 1594 1594 1594 1594 1594 1594 1601 1601 1601 1601 1616 1993 1993 1993 2005 2005 2005 2028 1766 1766 1766 1766 1776 1776 1785 1785 1785 1794 1794 1794 1993 2005 2005 2005 2005 2016 2016 2016 2005 2005 2005 2005 1993 1993 1993 2005 2005 2005 2005 2016 2016 2016 2016 2016 2016 2016 2028 2028 2028 2028 2028 2028 2028 2028 2028 2028 2028 2016 2016 2016 2016 2016 2016 2016 2016 2016 2016 2016 2016 2028 2028 2028 2028 2028 2028 2040 2040 2040 1557 1557 1557 1557 1557 1557 1557 1557 1557 1557 1557 1564 1572 1572 1579 1579 1579 1579 1579 2028 2016 2016 2016 2016 2016 2016 2028 1766 1766 1766 1776 1776 1776 1785 1785 1794 1794 1804 1804 1804 2005 2016 2016 2016 2005 2005 1993 1993 1981 1981 1981 1981 1981 1993 1993 2005 2005 2016 2016 1464 1464 1464 1458 1458 1464 1464 1464 1464 1464 1464 1464 1464 1464 1477 1489 1766 1776 1776 1785 1785 1813 1823 1873 1883 1904 1915 1915 1936 1981 2005 2016 2016 2016 2016 2028 2016 2016 2016 2016 2016 2016 2016 2016 2016 2016 2016 2005 2005 2005 2005 2005 2005 2016 2005 2005 2005 2005 2005 2005 2005 2005 2005 2016 2016 2016 2016 2016 2016 2016 2028 2028 2028 2016 2016 2016 2016 2016 2016 2016 2016 2016 2016 2016 2016 2016 2016 2016 2016 2028 2028 2028 2028 2028 2028 2016 2016 2016 2016 2016 2016 2016 2016 2016 2016 2016 2016 2016 1404 1404 1404 1410 1404 1404 1410 1410 1410 1410 1410 1410 1410 1410 1404 1398 1398 1776 1785 1785 1794 1804 1804 1794 1794 2016 2016 2016 2016 2016 2016 2016 2005 2005 2005 2005 2016 2016 2016 2016 2028 2028 2005 1981 1959 1926 1915 1915 1926 1926 1926 1926 1926 1936 1947 1947 1970 1981 2005 2005 2005 2005 2016 2016 2016 2005 2005 2005 2005 2005 2005 2005 2005 2005 2005 2005 2005 2005 2005 2005 2016 2016 2016 2016 2016 2005 2005 2005 2005 2005 2005 2005 2005 1496 1496 1496 1496 1496 1496 1496 1489 1489 1489 1489 1489 1489 1489 1483 1483 1483 1489 1489 1483 1483 1483 1477 1477 1981 1993 1993 1993 1993 1993 1993 1993 1993 1993 1993 1993 1993 1993 1993 1993 1993 1993 1993 1993 1993 1993 1993 1993 2005 2005 2005 2005 2005 1993 1993 1993 1993 1993 1993 1993 1993 1993 1993 1993 1993 1993 1993 1993 1993 1993 1993 1993 1993 1993 1993 1993 1993 1993 1993 1993 1993 1993 2005 2005 2005 2005 2005 2005 2005 1993 1993 1993 1993 1993 1993 1993 1993 1993 1993 1993 1993 1993 1981 1981 1981 1981 1981 1993 1981 1981 1981 1981 1981 1970 1970 1970 1970 1970 1970 1981 1970 1970 1981 1981 1970 1970 1970 1970 1970 1970 1970 1970 1970 1970 1970 1970 1970 1970 1970 1970 1970 1970 1981 1981 1981 1981 1970 1970 1959 1959 0 0 0 0 0 0 0 0
0 0 0 0 0 0 0 0 0 0 0 0 0 0 0 0 0 0 0 0 0 0 0 0 0 0 0 0 0 0 0 0 0 0 1970 1970 1970 1970 1970 1970 1981 1981 1981 1981 1981 1981 1981 1981 1981 1981 1981 1981 1981 1981 1981 1993 1993 1993 1993 1981 1981 1981 1981 1981 1981 1981 1981 1981 1981 1981 1981 1981 1981 1981 1981 1981 1981 1981 1993 1981 1981 1970 1970 1970 1970 1970 1959 1959 1970 1970 1970 1981 1981 1981 1981 1981 1981 1981 1981 1993 1993 1993 1993 1993 1993 1981 1981 1981 1981 1981 1981 1981 1981 1981 1981 1981 1981 1993 1993 1993 1663 1663 1671 1680 1680 1671 1663 1639 1624 1594 1594 1594 1594 1594 1594 1594 1594 1594 1594 1594 1601 1601 1601 1601 1616 1624 1993 2005 2005 2005 2005 2028 1766 1766 1766 1766 1776 1776 1785 1785 1785 1785 1785 1785 1993 1993 2005 2005 2005 2005 2005 2005 1993 1993 1993 1993 1993 1993 1993 1993 1993 1993 2005 2005 2005 2005 2005 2005 2016 2016 2016 2016 2016 2016 2016 2016 2016 2016 2016 2016 2016 2016 2005 2005 2005 2005 2005 2016 2016 2016 2016 2016 2016 2016 2016 2028 2028 2028 2028 2028 2028 2028 1557 1557 1557 1557 1557 1557 1557 1557 1557 1557 1557 1557 1572 1572 1572 1572 1572 1572 1572 1572 2016 2016 2016 2016 2016 2016 2028 1766 1766 1766 1776 1776 1776 1776 1785 1794 1794 1794 1794 1794 2005 2005 2005 2005 2005 1993 1993 1993 1981 1981 1981 1981 1981 1993 1993 2005 2005 2016 2016 1464 1464 1464 1464 1464 1464 1464 1464 1464 1464 1464 1464 1464 1470 1470 1489 1766 1776 1776 1776 1785 1813 1823 1873 1883 1904 1915 1926 1947 1981 2005 2005 2016 2016 2016 2016 2016 2016 2016 2016 2016 2016 2016 2016 2016 2016 2016 2005 2005 2005 2005 2005 2005 2005 2005 2005 2005 2005 2005 2005 2005 2005 2005 2005 2016 2016 2016 2016 2016 2016 2016 2016 2016 2016 2016 2016 2016 2016 2016 2016 2016 2016 2016 2016 2016 2016 2016 2016 2016 2016 2016 2016 2016 2016 2016 2016 2016 2016 2016 2016 2016 2016 2016 2016 2016 2005 2005 2005 1404 1404 1404 1410 1404 1404 1410 1410 1410 1410 1410 1410 1410 1410 1404 1398 1398 1776 1776 1785 1785 1794 1804 1804 2016 2016 2005 2005 2005 2005 2005 2005 2005 2005 2005 2005 2005 2005 2016 2016 2016 2016 2005 1970 1959 1926 1926 1926 1926 1926 1926 1926 1926 1936 1947 1947 1970 1981 1993 2005 2005 2005 2005 2005 2005 2005 2005 2005 2005 2005 2005 2005 2005 2005 2005 2005 1993 1993 2005 2005 2005 2005 2005 2005 2005 2005 2005 2005 2005 1993 1993 2005 2005 1489 1489 1489 1496 1496 1496 1496 1496 1489 1489 1489 1489 1489 1489 1489 1489 1489 1489 1483 1483 1483 1483 1483 1981 1981 1993 1981 1981 1981 1981 1993 1993 1993 1993 1993 1993 1993 1993 1993 1993 1993 1993 1993 1993 1993 1993 1993 1993 1993 1993 1993 1993 1993 1993 1993 1993 1993 1993 1993 1993 1993 1993 1993 1993 1993 1993 1993 1993 1993 1993 1993 1993 1993 1993 1993 1993 1981 1981 1993 1993 1993 1993 1993 1993 1993 1993 1993 1993 1993 1993 1993 1993 1993 1981 1981 1993 1993 1981 1981 1981 1981 1993 1981 1981 1981 1981 1981 1981 1970 1970 1970 1970 1970 1970 1970 1970 1970 1970 1970 1981 1970 1970 1970 1970 1970 1959 1959 1959 1970 1970 1970 1970 1970 1959 1959 1959 1959 1959 1959 1959 1959 1970 1970 1981 1970 1970 1970 1970 1959 1959 0 0 0 0 0 0 0 0
0 0 0 0 0 0 0 0 0 0 0 0 0 0 0 0 0 0 0 0 0 0 0 0 0 0 0 0 0 0 0 0 0 0 1970 1970 1970 1970 1970 1970 1970 1981 1981 1981 1970 1970 1981 1970 1970 1970 1981 1981 1981 1981 1981 1981 1970 1970 1981 1981 1970 1970 1970 1970 1981 1981 1970 1970 1970 1970 1970 1970 1970 1970 1970 1970 1970 1970 1981 1970 1970 1970 1959 1959 1959 1959 1959 1959 1970 1970 1970 1970 1970 1970 1970 1970 1970 1970 1970 1981 1981 1981 1981 1981 1981 1981 1981 1970 1970 1970 1981 1981 1970 1970 1981 1981 1981 1981 1970 1970 1663 1663 1680 1680 1680 1671 1663 1663 1663 1594 1594 1594 1594 1594 1594 1594 1594 1594 1594 1594 1601 1601 1609 1609 1616 1624 1970 1970 1981 2005 2016 1757 1757 1766 1766 1766 1776 1776 1785 1785 1785 1785 1785 1785 1993 1981 1981 1993 1993 2005 2005 2005 1993 1993 1993 1993 1993 1993 1993 1993 1993 1993 1993 1993 1993 1993 2005 2005 2005 2005 2005 2005 2005 2005 2005 2005 2005 2005 2005 2005 2005 2005 2005 2005 2005 2005 2005 2005 2016 2016 2016 2016 2016 2016 2016 2016 2016 2016 2016 2016 2016 2016 1557 1557 1557 1557 1557 1557 1564 1557 1557 1557 1557 1557 1572 1572 1572 1572 1572 1572 1572 1572 2016 2016 2016 2016 2016 1766 1766 1766 1766 1766 1776 1776 1776 1776 1785 1785 1785 1785 1785 1785 2005 2005 2005 2005 2005 1993 1993 1993 1981 1981 1981 1981 1981 2005 2005 2005 2005 2016 2016 1464 1464 1464 1464 1464 1464 1464 1464 1464 1464 1464 1464 1464 1470 1470 1477 1766 1766 1776 1776 1776 1813 1894 1894 1904 1915 1915 1926 1947 1981 1993 2005 2016 2016 2016 2016 2016 2016 2016 2016 2016 2016 2016 2016 2016 2016 2016 2005 2005 2005 2005 2005 2005 2005 2005 2005 2005 2005 2005 2005 2005 2005 2005 2005 2005 2016 2005 2005 2016 2016 2016 2016 2016 2016 2016 2005 2005 2005 2005 2005 2005 2005 2016 2016 2016 2016 2005 2005 2005 2005 2005 2005 2005 2005 2016 2016 2005 2005 2005 2005 2005 2005 2005 2005 2005 2005 2005 2005 1404 1404 1404 1410 1410 1410 1410 1410 1410 1410 1410 1410 1410 1410 1410 1404 1404 1766 1776 1785 1785 1794 1794 1804 2005 2005 2005 2005 2005 2005 2005 2005 2005 2005 2005 2005 2005 2005 2005 2005 2016 2005 1993 1970 1959 1947 1936 1926 1926 1926 1926 1926 1936 1936 1947 1959 1970 1981 1993 1993 1993 1993 1993 1993 2005 1993 1993 1993 1993 2005 1993 1993 1993 1993 1993 1993 1993 1993 1993 1993 1993 1993 2005 2005 1993 1993 1993 2005 2005 1993 1993 2005 2005 1489 1489 1489 1496 1496 1496 1496 1496 1496 1489 1489 1489 1489 1489 1489 1489 1489 1489 1483 1483 1483 1483 1981 1981 1981 1981 1981 1981 1981 1981 1981 1981 1981 1981 1993 1993 1981 1981 1993 1981 1981 1981 1981 1981 1981 1993 1993 1993 1993 1993 1993 1993 1993 1993 1993 1993 1993 1993 1993 1993 1993 1993 1993 1981 1981 1993 1993 1993 1993 1993 1993 1981 1981 1981 1981 1981 1981 1981 1981 1981 1981 1981 1981 1993 1993 1993 1993 1993 1993 1993 1993 1981 1981 1981 1981 1981 1981 1981 1981 1981 1981 1981 1981 1981 1981 1981 1981 1981 1970 1970 1970 1970 1970 1970 1970 1959 1959 1970 1970 1970 1970 1970 1970 1959 1959 1959 1959 1959 1959 1959 1959 1959 1959 1959 1959 1959 1959 1959 1959 1959 1959 1959 1970 1970 1959 1959 1959 1959 1947 1947 0 0 0 0 0 0 0 0
0 0 0 0 0 0 0 0 0 0 0 0 0 0 0 0 0 0 0 0 0 0 0 0 0 0 0 0 0 0 0 0 0 0 1970 1970 1970 1970 1970 1970 1970 1970 1970 1970 1970 1970 1970 1970 1970 1970 1970 1970 1981 1970 1970 1981 1970 1970 1981 1981 1970 1970 1970 1970 1970 1970 1959 1959 1970 1959 1959 1970 1970 1959 1959 1959 1959 1959 1970 1959 1959 1959 1959 1959 1959 1959 1959 1959 1959 1970 1970 1970 1970 1970 1970 1970 1970 1970 1970 1970 1981 1970 1970 1970 1970 1970 1970 1959 1959 1959 1970 1970 1970 1970 1970 1970 1970 1970 1970 1970 1970 1680 1680 1680 1680 1680 1671 1663 1663 1594 1594 1594 1594 1594 1594 1594 1594 1594 1594 1594 1601 1601 1609 1609 1616 1624 1970 1739 1739 1739 1748 1748 1748 1757 1757 1757 1766 1766 1776 1776 1776 1776 1776 1981 1981 1981 1981 1993 1993 1993 1993 1993 1993 1993 1993 1993 1993 1993 1993 1993 1993 1993 1993 1993 1993 1993 1993 1993 1993 2005 2005 2005 2005 1993 1993 1993 1993 2005 2005 2005 2005 2005 1993 1993 1993 1993 1993 2005 2005 2005 2005 2005 2005 2005 2005 1993 1993 1993 1993 1981 1981 1981 1557 1557 1557 1564 1564 1564 1564 1564 1564 1557 1557 1557 1572 1572 1572 1572 1572 1572 1572 1572 2016 2016 2005 2005 2005 1757 1757 1757 1757 1766 1766 1766 1766 1776 1776 1776 1785 1785 1776 1776 1993 1993 1993 1993 1993 1993 1993 1993 1993 1993 1993 1993 1993 1993 1993 1993 1993 2016 1470 1470 1464 1464 1464 1464 1464 1464 1464 1464 1464 1464 1464 1464 1470 1470 1477 1766 1766 1776 1776 1776 1776 1904 1904 1904 1915 1926 1936 1947 1981 1993 1993 2016 2016 2016 2016 2016 2005 2005 2005 2005 2005 2005 2005 2005 2005 2016 2005 2005 1993 1993 1993 1993 1993 2005 1993 1993 1993 1993 2005 2005 2005 2005 2005 2005 2005 2005 2005 2005 2005 2005 2005 2005 2005 2005 2005 2005 2005 2005 2005 2005 2005 2005 2005 1993 1993 2005 2005 2005 2005 2005 2005 2005 2005 2005 2005 2005 2005 2005 2005 2005 2005 2005 2005 2005 1993 1993 1993 1410 1410 1410 1410 1410 1410 1410 1410 1410 1410 1410 1410 1410 1410 1410 1404 1404 1766 1776 1785 1785 1785 1794 1804 2005 2005 1993 1993 1993 1993 1993 1993 1993 1993 1993 1993 2005 2005 2005 2005 2005 2005 1993 1970 1959 1959 1947 1936 1936 1936 1936 1936 1936 1936 1947 1959 1970 1981 1993 1993 1993 1993 1993 1993 1993 1993 1993 1993 1993 1993 1993 1993 1993 1993 1981 1981 1981 1981 1993 1993 1993 1993 1993 2005 1993 1993 1993 1993 1993 1993 1993 1993 2005 2005 1496 1496 1496 1503 1503 1496 1496 1496 1496 1489 1489 1489 1489 1489 1489 1489 1489 1483 1483 1970 1970 1970 1970 1970 1981 1981 1981 1981 1981 1981 1981 1981 1981 1981 1981 1981 1981 1981 1981 1981 1981 1981 1981 1981 1981 1981 1981 1981 1993 1993 1993 1993 1981 1981 1993 1981 1981 1981 1981 1981 1981 1981 1981 1981 1981 1981 1981 1981 1981 1981 1981 1981 1981 1981 1981 1981 1981 1981 1981 1981 1981 1981 1981 1981 1981 1981 1981 1981 1981 1981 1981 1981 1981 1981 1981 1981 1970 1970 1970 1970 1981 1970 1970 1981 1981 1981 1981 1970 1970 1959 1959 1959 1959 1959 1959 1959 1959 1959 1970 1959 1959 1959 1959 1947 1947 1947 1947 1947 1947 1947 1947 1947 1947 1947 1947 1947 1947 1947 1947 1947 1959 1959 1959 1959 1959 1959 1947 1936 1936 0 0 0 0 0 0 0 0
0 0 0 0 0 0 0 0 0 0 0 0 0 0 0 0 0 0 0 0 0 0 0 0 0 0 0 0 0 0 0 0 0 0 1970 1970 1959 1959 1959 1959 1959 1959 1959 1959 1959 1959 1959 1959 1970 1970 1970 1959 1959 1970 1970 1970 1970 1970 1970 1970 1959 1959 1959 1959 1959 1959 1959 1959 1959 1947 1947 1959 1959 1959 1959 1959 1959 1959 1959 1947 1947 1947 1959 1959 1959 1959 1959 1959 1959 1959 1970 1970 1970 1959 1959 1970 1959 1959 1959 1959 1970 1970 1970 1970 1970 1970 1959 1959 1959 1959 1959 1970 1970 1970 1970 1970 1970 1970 1959 1959 1959 1680 1680 1680 1680 1680 1671 1663 1663 1594 1594 1594 1594 1594 1594 1594 1594 1594 1594 1594 1601 1601 1609 1616 1624 1624 1739 1739 1739 1739 1748 1748 1748 1757 1757 1757 1766 1766 1776 1766 1766 1766 1776 1981 1981 1981 1981 1981 1981 1981 1981 1981 1981 1981 1981 1981 1981 1981 1981 1981 1981 1981 1981 1981 1981 1981 1993 1993 1993 1993 1993 1993 1993 1993 1993 1993 1993 1993 1993 1993 1993 1993 1993 1993 1993 1993 1993 1993 1993 1993 1993 1993 1993 1993 1993 1993 1993 1993 1981 1970 1970 1970 1970 1564 1564 1564 1564 1564 1564 1564 1564 1564 1564 1564 1572 1572 1572 1572 1572 1572 1572 1981 1981 1993 1993 1993 1993 1757 1757 1757 1757 1766 1766 1766 1766 1766 1776 1776 1776 1776 1776 1776 1981 1981 1981 1993 1993 1993 1993 1993 1993 1993 1993 1981 1981 1981 1981 1981 1993 1993 1470 1470 1464 1464 1464 1464 1464 1464 1464 1464 1464 1464 1464 1464 1470 1470 1477 1766 1766 1766 1766 1776 1926 1915 1915 1915 1915 1926 1936 1947 1970 1981 1993 2005 2005 2005 2005 2005 2005 2005 1993 1993 2005 2005 1993 1993 2005 2005 1993 1993 1993 1981 1981 1993 1993 1993 1993 1993 1993 1993 2005 2005 2005 1993 1993 2005 2005 2005 2005 2005 2005 2005 2005 2005 2005 2005 2005 2005 2005 2005 2005 2005 2005 2005 2005 1993 1993 1993 1993 1993 2005 2005 2005 2005 2005 2005 2005 2005 2005 2005 2005 2005 2005 2005 2005 2005 1993 1993 1993 1410 1410 1410 1410 1410 1410 1410 1410 1410 1410 1410 1410 1410 1410 1410 1410 1410 1766 1766 1766 1766 1776 1794 2016 2016 2005 1993 1993 1993 1993 1993 1993 1993 1993 1993 1993 1993 1993 1993 1993 1993 1993 1981 1970 1970 1959 1947 1936 1936 1936 1936 1936 1936 1947 1947 1959 1970 1981 1993 1993 1993 1993 1993 1993 1993 1993 1993 1993 1993 1993 1993 1993 1981 1981 1981 1981 1981 1981 1981 1981 1993 1993 1993 1993 1993 1993 1993 1993 1981 1981 1981 1981 2005 2005 1496 1496 1496 1503 1503 1496 1496 1496 1496 1496 1496 1496 1496 1489 1489 1489 1489 1483 1483 1959 1947 1947 1959 1959 1970 1970 1981 1981 1981 1981 1981 1981 1981 1981 1970 1970 1970 1970 1981 1981 1970 1970 1970 1981 1981 1981 1970 1970 1981 1981 1981 1981 1981 1981 1981 1981 1981 1981 1981 1981 1981 1981 1970 1970 1981 1981 1981 1981 1981 1981 1970 1970 1970 1970 1970 1970 1970 1981 1981 1981 1981 1981 1981 1981 1981 1981 1981 1981 1981 1981 1981 1981 1970 1970 1981 1981 1970 1970 1970 1970 1970 1970 1970 1970 1970 1970 1970 1959 1959 1959 1959 1959 1959 1959 1947 1947 1947 1947 1959 1947 1947 1936 1936 1936 1936 1936 1936 1936 1936 1947 1947 1936 1936 1936 1936 1936 1936 1936 1936 1936 1947 1959 1947 1947 1947 1947 1947 1936 1936 0 0 0 0 0 0 0 0
0 0 0 0 0 0 0 0 0 0 0 0 0 0 0 0 0 0 0 0 0 0 0 0 0 0 0 0 0 0 0 0 0 0 1959 1959 1959 1959 1959 1959 1959 1959 1959 1959 1959 1959 1959 1959 1959 1959 1970 1959 1959 1970 1970 1970 1959 1959 1970 1970 1959 1959 1959 1959 1959 1959 1947 1947 1947 1947 1947 1947 1947 1947 1959 1959 1947 1947 1947 1947 1947 1947 1947 1947 1947 1947 1947 1947 1959 1959 1959 1959 1959 1959 1959 1959 1959 1959 1959 1959 1959 1959 1959 1959 1959 1959 1959 1947 1947 1947 1947 1959 1959 1959 1959 1959 1959 1959 1959 1959 1688 1688 1688 1688 1680 1680 1680 1671 1671 1601 1594 1594 1594 1594 1594 1594 1594 1594 1594 1594 1601 1601 1609 1609 1624 1624 1739 1731 1731 1739 1739 1739 1748 1748 1748 1748 1766 1766 1766 1766 1766 1766 1981 1981 1981 1981 1981 1981 1981 1970 1970 1981 1981 1981 1981 1981 1981 1981 1981 1981 1981 1981 1981 1981 1981 1981 1993 1993 1993 1993 1993 1993 1993 1993 1993 1993 1993 1993 1993 1993 1993 1993 1993 1993 1993 1993 1993 1993 1993 1993 1993 1993 1993 1993 1993 1993 1981 1981 1981 1970 1970 1970 1970 1572 1564 1564 1564 1564 1564 1564 1564 1564 1564 1564 1572 1572 1572 1572 1579 1579 1579 1970 1970 1981 1981 1981 1981 1757 1748 1748 1748 1748 1766 1766 1766 1766 1766 1766 1766 1766 1766 1981 1981 1981 1981 1981 1981 1981 1981 1981 1981 1981 1981 1981 1981 1981 1981 1981 1981 1993 1470 1464 1464 1464 1464 1464 1464 1464 1464 1464 1464 1464 1470 1470 1470 1470 1477 1757 1757 1766 1766 1766 1926 1915 1915 1926 1926 1926 1936 1947 1970 1981 1993 2005 1993 1993 2005 2005 1993 1993 1993 1993 1993 1993 1993 1993 1993 1993 1993 1993 1981 1981 1981 1981 1981 1981 1981 1981 1981 1981 1993 1993 1993 1993 1993 2005 1993 1993 1993 1993 1993 1993 1993 1993 1993 1993 1993 1993 1993 1993 1993 2005 1993 1993 1993 1981 1981 1981 1993 1993 1993 1993 2005 2005 2005 2005 2005 2005 2005 2005 2005 2005 1993 1993 1993 1993 1993 2005 2005 1410 1410 1410 1410 1410 1410 1410 1410 1410 1410 1410 1410 1410 1410 1410 1410 1410 1766 1766 1766 1766 1776 1794 1981 1981 2005 1993 1993 1993 1993 1993 1993 1993 1981 1981 1993 1993 1993 1993 1993 1993 1993 1981 1970 1959 1959 1947 1947 1936 1936 1936 1936 1936 1947 1959 1959 1970 1981 1981 1981 1981 1981 1981 1981 1993 1993 1993 1993 1993 1981 1981 1981 1981 1981 1981 1981 1981 1981 1981 1981 1993 1993 1993 1993 1981 1981 1981 1981 1981 1981 1981 1981 1981 1503 1503 1503 1503 1503 1503 1503 1503 1503 1503 1496 1496 1496 1496 1489 1489 1489 1489 1489 1489 1959 1947 1947 1947 1947 1959 1959 1970 1970 1970 1970 1970 1970 1970 1970 1959 1959 1959 1970 1970 1970 1970 1970 1970 1970 1970 1970 1959 1959 1959 1970 1970 1970 1970 1970 1981 1981 1970 1970 1970 1981 1970 1970 1970 1970 1970 1970 1970 1970 1981 1970 1970 1970 1970 1970 1970 1959 1959 1970 1970 1970 1970 1970 1970 1970 1970 1970 1970 1970 1970 1970 1970 1970 1970 1970 1970 1970 1959 1959 1959 1959 1959 1959 1959 1970 1970 1970 1970 1959 1959 1947 1947 1947 1947 1947 1947 1947 1947 1947 1947 1936 1936 1936 1936 1926 1926 1936 1936 1936 1936 1936 1936 1936 1926 1926 1936 1936 1936 1936 1936 1936 1947 1947 1947 1947 1947 1936 1936 1936 1936 0 0 0 0 0 0 0 0
0 0 0 0 0 0 0 0 0 0 0 0 0 0 0 0 0 0 0 0 0 0 0 0 0 0 0 0 0 0 0 0 0 0 1959 1959 1959 1959 1959 1959 1959 1959 1959 1959 1959 1959 1959 1959 1959 1959 1959 1959 1970 1970 1970 1970 1959 1959 1959 1959 1959 1959 1959 1959 1947 1947 1947 1947 1947 1947 1947 1947 1947 1947 1947 1947 1947 1936 1936 1936 1936 1947 1947 1947 1947 1947 1947 1947 1947 1959 1959 1959 1959 1959 1959 1959 1959 1959 1947 1947 1959 1959 1947 1947 1947 1947 1947 1947 1947 1947 1947 1947 1959 1959 1959 1959 1959 1959 1959 1959 1688 1688 1688 1688 1680 1680 1680 1671 1647 1601 1594 1594 1594 1594 1594 1594 1594 1594 1594 1594 1601 1601 1609 1609 1624 1624 1722 1722 1722 1722 1722 1731 1739 1748 1748 1748 1748 1757 1757 1757 1757 1776 1959 1959 1959 1959 1970 1970 1970 1970 1970 1970 1981 1981 1981 1981 1981 1981 1981 1981 1981 1981 1981 1981 1981 1981 1981 1981 1981 1981 1981 1981 1981 1993 1981 1981 1981 1981 1993 1981 1981 1981 1981 1981 1981 1981 1993 1993 1993 1993 1993 1993 1993 1993 1993 1981 1981 1981 1981 1970 1970 1970 1970 1572 1564 1564 1564 1564 1564 1564 1564 1564 1564 1564 1564 1579 1579 1579 1579 1586 1586 1970 1970 1970 1970 1970 1970 1748 1748 1748 1748 1748 1766 1766 1766 1766 1766 1766 1757 1757 1757 1981 1981 1981 1981 1981 1981 1981 1981 1981 1981 1981 1981 1981 1981 1981 1981 1981 1981 1993 1993 1464 1458 1458 1458 1464 1464 1464 1464 1464 1464 1464 1470 1470 1470 1477 1483 1748 1748 1757 1757 1757 1926 1926 1926 1926 1926 1926 1936 1947 1959 1970 1981 1981 1993 1981 1981 1993 1993 1993 1993 1981 1981 1981 1981 1981 1981 1981 1993 1981 1970 1970 1970 1981 1981 1981 1981 1981 1981 1981 1981 1993 1993 1993 1993 2005 1993 1993 1993 1993 1993 1993 1993 1981 1981 1981 1993 1993 1993 1993 1993 1993 1993 1993 1981 1981 1981 1981 1981 1993 1993 1993 1993 1993 1993 1993 1993 1993 1993 1993 1993 1993 1993 1993 1993 1993 1993 1993 1993 1410 1410 1410 1410 1410 1410 1410 1410 1410 1410 1410 1410 1410 1410 1410 1410 1757 1757 1757 1757 1757 1766 1766 1970 1970 1981 1993 1970 1970 1993 1993 1981 1981 1981 1981 1981 1981 1981 1981 1981 1981 1981 1981 1970 1959 1959 1959 1947 1947 1936 1936 1936 1947 1947 1959 1959 1970 1970 1981 1981 1981 1981 1981 1981 1981 1981 1981 1981 1981 1981 1981 1981 1981 1981 1970 1970 1970 1970 1970 1970 1981 1981 1981 1981 1981 1970 1970 1981 1981 1981 1981 1981 1981 1503 1503 1503 1503 1503 1503 1503 1503 1503 1503 1503 1503 1496 1496 1496 1489 1489 1489 1489 1489 1496 1936 1936 1947 1947 1947 1959 1959 1959 1970 1970 1959 1959 1959 1959 1947 1947 1947 1947 1947 1947 1947 1947 1947 1947 1947 1947 1947 1947 1947 1947 1959 1959 1959 1959 1970 1970 1959 1959 1959 1959 1959 1959 1959 1959 1959 1959 1959 1959 1970 1970 1959 1959 1959 1959 1959 1959 1959 1959 1959 1959 1959 1959 1959 1959 1959 1959 1959 1959 1959 1959 1959 1959 1959 1959 1959 1959 1947 1947 1959 1959 1959 1959 1959 1959 1959 1959 1959 1947 1947 1936 1936 1947 1947 1936 1936 1936 1936 1936 1936 1936 1926 1926 1926 1926 1926 1926 1926 1936 1936 1936 1936 1936 1926 1926 1936 1926 1926 1926 1926 1926 1936 1936 1936 1936 1936 1936 1936 1936 1936 0 0 0 0 0 0 0 0
0 0 0 0 0 0 0 0 0 0 0 0 0 0 0 0 0 0 0 0 0 0 0 0 0 0 0 0 0 0 0 0 0 0 1947 1947 1947 1947 1947 1947 1959 1959 1959 1959 1959 1959 1959 1959 1959 1959 1959 1959 1970 1970 1959 1959 1959 1959 1959 1959 1947 1947 1947 1947 1947 1947 1936 1936 1947 1947 1936 1936 1947 1947 1947 1947 1936 1936 1936 1936 1936 1947 1947 1947 1947 1947 1947 1947 1947 1947 1947 1947 1947 1947 1947 1947 1947 1947 1947 1947 1947 1947 1947 1947 1947 1947 1947 1947 1947 1947 1947 1947 1947 1947 1947 1947 1947 1959 1959 1959 1688 1688 1688 1688 1680 1680 1680 1680 1647 1616 1594 1594 1594 1594 1594 1594 1594 1594 1594 1594 1601 1601 1601 1601 1601 1601 1713 1713 1713 1722 1722 1722 1739 1748 1748 1748 1748 1757 1757 1757 1757 1959 1959 1959 1959 1959 1959 1959 1959 1959 1959 1959 1970 1970 1970 1970 1959 1959 1970 1970 1970 1970 1970 1970 1970 1970 1970 1970 1970 1970 1970 1970 1970 1981 1981 1981 1981 1981 1981 1981 1981 1981 1981 1981 1970 1970 1970 1981 1981 1981 1981 1981 1981 1981 1981 1981 1981 1981 1981 1981 1981 1981 1981 1579 1572 1572 1564 1564 1564 1564 1564 1564 1564 1564 1564 1579 1579 1579 1579 1586 1586 1959 1959 1970 1970 1970 1970 1748 1748 1748 1748 1748 1757 1766 1766 1766 1766 1766 1757 1757 1757 1981 1981 1981 1981 1981 1981 1981 1981 1981 1981 1981 1981 1981 1981 1981 1981 1981 1981 1981 1981 1464 1458 1458 1458 1464 1464 1464 1464 1464 1464 1464 1470 1470 1470 1477 1483 1748 1748 1748 1757 1757 1926 1926 1926 1926 1926 1926 1936 1936 1959 1970 1981 1981 1981 1981 1981 1981 1981 1981 1981 1981 1981 1981 1981 1981 1981 1981 1981 1970 1970 1970 1970 1970 1970 1970 1970 1970 1970 1970 1981 1981 1981 1981 1981 1981 1981 1981 1981 1981 1970 1970 1970 1981 1981 1981 1981 1981 1981 1993 1970 1970 1981 1970 1970 1970 1970 1970 1981 1981 1981 1981 1981 1981 1981 1981 1993 1993 1993 1993 1993 1981 1981 1981 1981 1981 1981 1993 1993 1410 1410 1410 1410 1410 1410 1410 1410 1410 1410 1410 1410 1410 1410 1410 1410 1757 1757 1757 1757 1757 1766 1766 1970 1970 1970 1959 1959 1959 1970 1981 1970 1970 1970 1970 1970 1970 1970 1970 1970 1981 1981 1970 1970 1959 1959 1959 1947 1947 1947 1947 1947 1947 1959 1959 1959 1970 1970 1970 1970 1970 1970 1970 1970 1970 1970 1970 1970 1970 1970 1970 1970 1970 1970 1970 1970 1970 1970 1970 1970 1970 1970 1970 1970 1970 1970 1970 1970 1970 1970 1981 1981 1981 1503 1503 1503 1503 1503 1503 1503 1503 1503 1503 1503 1503 1496 1496 1496 1489 1489 1489 1489 1489 1496 1936 1936 1947 1947 1947 1947 1947 1959 1959 1959 1959 1959 1959 1947 1947 1947 1947 1947 1947 1947 1947 1947 1947 1947 1947 1947 1947 1947 1947 1947 1947 1947 1947 1947 1947 1947 1947 1947 1947 1947 1947 1947 1947 1947 1959 1947 1947 1959 1959 1959 1947 1947 1959 1947 1947 1947 1947 1947 1947 1947 1947 1959 1959 1947 1947 1959 1959 1947 1947 1947 1947 1947 1947 1947 1959 1959 1947 1947 1947 1947 1947 1947 1947 1947 1947 1947 1947 1936 1936 1936 1936 1936 1936 1936 1936 1936 1936 1936 1936 1926 1926 1926 1926 1926 1926 1926 1926 1936 1936 1936 1936 1936 1926 1926 1926 1926 1926 1926 1926 1926 1926 1926 1926 1936 1936 1926 1926 1936 1936 0 0 0 0 0 0 0 0
0 0 0 0 0 0 0 0 0 0 0 0 0 0 0 0 0 0 0 0 0 0 0 0 0 0 0 0 0 0 0 0 0 0 1936 1936 1947 1947 1947 1947 1947 1947 1947 1947 1947 1947 1947 1947 1947 1947 1959 1959 1959 1959 1959 1959 1959 1959 1959 1959 1947 1947 1947 1947 1936 1936 1936 1936 1936 1947 1936 1936 1936 1936 1947 1947 1936 1936 1936 1936 1936 1947 1947 1947 1947 1947 1947 1947 1947 1947 1947 1947 1947 1947 1947 1947 1947 1947 1947 1936 1936 1936 1936 1936 1936 1936 1936 1936 1936 1936 1936 1936 1936 1936 1936 1947 1947 1947 1947 1947 1947 1688 1688 1688 1688 1688 1680 1680 1663 1601 1594 1594 1594 1594 1594 1594 1594 1594 1594 1594 1594 1601 1601 1601 1601 1705 1713 1713 1713 1713 1713 1722 1739 1748 1748 1748 1748 1748 1757 1947 1947 1947 1947 1947 1947 1947 1947 1947 1947 1947 1959 1959 1959 1959 1959 1959 1947 1947 1959 1959 1959 1970 1970 1970 1970 1970 1970 1959 1959 1959 1959 1959 1959 1970 1970 1970 1970 1970 1970 1981 1970 1959 1959 1970 1959 1959 1959 1970 1970 1970 1981 1981 1981 1981 1981 1981 1981 1981 1981 1981 1981 1981 1981 1579 1572 1572 1572 1564 1564 1564 1564 1564 1564 1564 1564 1572 1579 1579 1586 1586 1586 1947 1947 1959 1970 1731 1731 1731 1731 1739 1739 1739 1748 1757 1766 1766 1766 1766 1757 1757 1757 1970 1970 1981 1981 1981 1981 1981 1981 1981 1981 1981 1981 1981 1981 1981 1981 1981 1981 1981 1981 1981 1452 1452 1458 1458 1458 1464 1464 1464 1470 1470 1470 1477 1477 1483 1483 1739 1739 1739 1748 1731 1731 1915 1915 1915 1915 1915 1926 1936 1947 1959 1970 1970 1970 1970 1981 1981 1981 1981 1981 1981 1981 1981 1970 1970 1970 1981 1981 1970 1970 1970 1970 1970 1970 1970 1970 1970 1970 1970 1970 1970 1970 1970 1970 1970 1981 1970 1970 1970 1970 1970 1970 1970 1970 1970 1970 1970 1970 1981 1970 1970 1970 1970 1970 1970 1970 1970 1970 1970 1970 1970 1970 1970 1970 1981 1981 1981 1981 1981 1981 1981 1970 1970 1970 1970 1970 1993 1993 1415 1410 1410 1410 1415 1415 1410 1410 1410 1410 1410 1410 1410 1410 1410 1410 1410 1410 1833 1833 1833 1936 1970 1970 1970 1970 1959 1959 1959 1959 1970 1959 1959 1959 1959 1959 1970 1959 1959 1959 1970 1970 1959 1959 1959 1959 1959 1947 1947 1947 1947 1947 1947 1959 1959 1959 1970 1970 1959 1959 1959 1959 1959 1959 1959 1959 1959 1959 1959 1959 1959 1970 1970 1970 1970 1970 1970 1970 1970 1970 1970 1959 1959 1959 1959 1959 1959 1959 1959 1970 1970 1981 1503 1503 1503 1503 1503 1503 1503 1503 1503 1503 1503 1503 1503 1503 1503 1496 1496 1496 1489 1489 1496 1496 1503 1936 1936 1947 1947 1947 1947 1959 1959 1959 1959 1947 1947 1947 1947 1947 1947 1947 1936 1936 1947 1947 1947 1947 1947 1947 1947 1947 1947 1947 1947 1947 1947 1947 1947 1947 1947 1947 1947 1947 1947 1947 1947 1947 1947 1947 1947 1947 1947 1947 1947 1947 1947 1947 1947 1947 1947 1947 1947 1947 1947 1947 1947 1947 1947 1947 1947 1947 1947 1947 1947 1947 1947 1947 1947 1947 1947 1947 1947 1947 1947 1947 1947 1947 1947 1947 1947 1936 1936 1936 1936 1936 1936 1936 1926 1926 1926 1926 1926 1926 1926 1926 1926 1926 1915 1915 1926 1926 1926 1926 1926 1926 1926 1926 1926 1926 1926 1926 1926 1926 1926 1926 1926 1926 1926 1926 1926 1926 1926 0 0 0 0 0 0 0 0
0 0 0 0 0 0 0 0 0 0 0 0 0 0 0 0 0 0 0 0 0 0 0 0 0 0 0 0 0 0 0 0 0 0 1936 1936 1936 1936 1936 1947 1947 1947 1936 1936 1947 1947 1947 1936 1936 1947 1947 1947 1947 1936 1936 1947 1947 1947 1947 1947 1947 1947 1936 1936 1926 1926 1926 1926 1926 1926 1926 1926 1936 1936 1947 1947 1936 1936 1926 1926 1926 1936 1936 1936 1936 1936 1936 1936 1936 1936 1936 1936 1936 1936 1936 1936 1936 1936 1936 1936 1936 1936 1936 1936 1936 1936 1936 1936 1936 1936 1926 1926 1936 1936 1936 1936 1936 1936 1936 1936 1688 1688 1688 1688 1688 1688 1680 1680 1671 1601 1594 1594 1594 1594 1594 1594 1594 1594 1594 1594 1594 1609 1609 1609 1609 1705 1705 1705 1713 1713 1713 1722 1731 1748 1748 1748 1748 1748 1757 1947 1947 1947 1947 1947 1947 1947 1947 1947 1947 1947 1947 1947 1959 1959 1959 1959 1947 1947 1947 1947 1959 1959 1959 1959 1959 1959 1947 1947 1947 1959 1959 1959 1959 1959 1959 1959 1959 1959 1970 1970 1959 1959 1959 1959 1959 1959 1959 1959 1959 1970 1970 1970 1970 1970 1970 1981 1981 1970 1970 1981 1981 1981 1579 1579 1572 1572 1572 1564 1564 1564 1564 1564 1564 1564 1564 1572 1579 1579 1586 1586 1586 1947 1947 1959 1731 1731 1731 1731 1731 1739 1739 1739 1739 1757 1766 1766 1757 1757 1757 1959 1959 1970 1970 1970 1970 1970 1970 1970 1970 1970 1970 1970 1970 1970 1970 1970 1970 1981 1981 1981 1981 1981 1452 1452 1458 1458 1458 1464 1464 1464 1470 1470 1477 1477 1477 1483 1489 1739 1739 1739 1739 1731 1731 1915 1915 1915 1915 1915 1926 1936 1947 1959 1970 1970 1970 1970 1970 1970 1970 1970 1970 1970 1970 1981 1970 1970 1970 1970 1970 1959 1959 1959 1970 1970 1970 1970 1959 1959 1959 1959 1959 1970 1970 1970 1970 1970 1970 1970 1970 1970 1959 1959 1970 1970 1970 1970 1970 1970 1970 1970 1970 1970 1970 1970 1970 1970 1970 1970 1970 1970 1970 1970 1970 1970 1970 1970 1970 1970 1970 1970 1970 1970 1970 1970 1970 1970 1970 1970 1415 1415 1410 1410 1410 1415 1415 1410 1410 1410 1410 1410 1410 1410 1410 1410 1410 1410 0 1833 1833 1833 1936 1936 1936 1959 1970 1959 1959 1959 1959 1959 1959 1959 1959 1959 1959 1959 1959 1959 1959 1959 1959 1959 1959 1959 1959 1959 1947 1947 1947 1947 1947 1947 1959 1959 1959 1970 1959 1959 1959 1959 1959 1959 1959 1959 1959 1959 1959 1959 1959 1959 1959 1959 1959 1959 1970 1970 1970 1970 1970 1959 1959 1959 1959 1959 1959 1959 1959 1959 1959 1970 1970 1503 1503 1503 1503 1503 1503 1503 1503 1503 1503 1503 1503 1503 1503 1503 1503 1496 1496 1496 1496 1496 1496 1503 1936 1936 1936 1936 1947 1947 1947 1947 1947 1947 1947 1947 1947 1936 1936 1936 1936 1936 1936 1936 1936 1936 1936 1936 1936 1936 1936 1936 1936 1936 1936 1936 1947 1947 1947 1947 1947 1947 1947 1947 1947 1947 1947 1947 1947 1947 1947 1947 1947 1947 1947 1947 1936 1936 1936 1936 1936 1936 1936 1936 1947 1947 1947 1947 1947 1947 1947 1947 1947 1947 1947 1947 1947 1947 1947 1936 1936 1947 1947 1947 1947 1947 1947 1936 1936 1947 1926 1926 1926 1926 1926 1926 1926 1926 1926 1926 1926 1926 1926 1915 1915 1915 1915 1915 1915 1915 1926 1926 1926 1926 1926 1926 1926 1926 1915 1915 1915 1915 1915 1915 1915 1915 1926 1926 1915 1915 1926 1926 0 0 0 0 0 0 0 0
0 0 0 0 0 0 0 0 0 0 0 0 0 0 0 0 0 0 0 0 0 0 0 0 0 0 0 0 0 0 0 0 0 0 1926 1926 1926 1926 1926 1926 1936 1936 1926 1926 1936 1936 1936 1936 1936 1936 1936 1947 1947 1936 1936 1936 1936 1936 1936 1936 1936 1936 1936 1926 1926 1926 1915 1915 1915 1915 1915 1915 1926 1926 1926 1936 1926 1926 1926 1926 1926 1926 1926 1926 1926 1926 1926 1926 1936 1936 1936 1936 1936 1936 1936 1936 1926 1926 1926 1926 1926 1926 1936 1936 1936 1936 1936 1926 1926 1936 1926 1926 1926 1926 1926 1926 1936 1936 1936 1936 1688 1688 1688 1688 1688 1688 1680 1680 1680 1616 1601 1594 1594 1594 1594 1594 1594 1594 1594 1594 1609 1609 1609 1609 1609 1696 1696 1696 1705 1705 1713 1722 1731 1748 1748 1748 1748 1748 1947 1936 1936 1936 1936 1936 1936 1936 1936 1936 1947 1947 1947 1947 1947 1947 1947 1947 1947 1947 1936 1936 1947 1947 1947 1947 1947 1947 1947 1947 1947 1959 1947 1947 1959 1959 1959 1959 1959 1959 1959 1959 1959 1959 1959 1959 1947 1947 1947 1947 1947 1947 1947 1947 1970 1970 1970 1970 1970 1970 1970 1970 1970 1970 1579 1579 1579 1572 1572 1572 1564 1564 1564 1564 1564 1564 1572 1579 1579 1586 1594 1594 1936 1936 1936 1936 1722 1722 1731 1731 1731 1731 1739 1739 1739 1748 1757 1757 1757 1757 1757 1947 1959 1959 1959 1959 1959 1959 1959 1959 1959 1959 1959 1970 1970 1970 1970 1970 1970 1970 1970 1970 1981 1981 1981 1458 1458 1458 1464 1464 1464 1464 1470 1470 1477 1477 1483 1489 1705 1722 1731 1739 1739 1731 1731 1915 1915 1915 1926 1926 1926 1936 1947 1959 1970 1970 1970 1970 1970 1970 1970 1970 1970 1970 1970 1970 1970 1970 1970 1970 1970 1959 1959 1959 1959 1959 1959 1959 1959 1959 1959 1959 1959 1959 1959 1959 1959 1970 1970 1970 1959 1959 1959 1959 1959 1959 1959 1959 1970 1970 1970 1970 1959 1959 1970 1970 1970 1970 1970 1970 1970 1959 1959 1959 1959 1970 1970 1970 1970 1970 1970 1970 1970 1970 1959 1959 1970 1959 1959 1959 1959 1415 1410 1410 1410 1415 1415 1415 1410 1410 1410 1410 1410 1410 1410 1410 1410 1410 0 1833 1833 1833 1843 1843 1936 1959 1959 1959 1959 1959 1959 1959 1959 1959 1959 1959 1959 1959 1959 1959 1959 1959 1959 1959 1959 1959 1947 1947 1947 1947 1947 1947 1947 1947 1959 1959 1959 1959 1959 1959 1959 1959 1959 1959 1947 1947 1947 1947 1947 1947 1947 1947 1947 1947 1947 1959 1959 1959 1959 1959 1959 1959 1959 1959 1959 1947 1947 1947 1959 1959 1959 1959 1959 1503 1503 1503 1509 1503 1503 1503 1503 1503 1503 1503 1503 1503 1503 1503 1503 1496 1496 1496 1496 1496 1496 1503 1936 1936 1936 1936 1936 1947 1947 1947 1947 1936 1936 1936 1936 1936 1936 1936 1936 1936 1936 1936 1936 1936 1936 1936 1936 1936 1936 1936 1936 1936 1936 1936 1936 1936 1936 1936 1936 1947 1947 1947 1947 1947 1936 1936 1936 1936 1936 1947 1936 1936 1936 1936 1936 1936 1936 1936 1936 1936 1936 1936 1936 1936 1936 1936 1936 1947 1947 1947 1936 1936 1936 1936 1936 1936 1936 1936 1936 1936 1936 1936 1936 1936 1936 1936 1936 1936 1926 1926 1926 1926 1926 1926 1915 1915 1915 1915 1926 1915 1915 1915 1915 1915 1915 1915 1915 1915 1915 1915 1926 1926 1926 1915 1915 1915 1904 1904 1904 1904 1904 1904 1904 1904 1915 1915 1904 1904 1915 1915 0 0 0 0 0 0 0 0
0 0 0 0 0 0 0 0 0 0 0 0 0 0 0 0 0 0 0 0 0 0 0 0 0 0 0 0 0 0 0 0 0 0 1926 1926 1926 1926 1926 1926 1926 1926 1926 1926 1926 1926 1936 1936 1936 1936 1936 1936 1936 1926 1926 1926 1926 1936 1926 1926 1926 1926 1926 1926 1926 1926 1915 1915 1915 1915 1915 1915 1926 1926 1926 1926 1915 1915 1915 1915 1915 1915 1915 1915 1915 1915 1915 1926 1926 1926 1926 1926 1926 1926 1926 1926 1926 1926 1926 1926 1915 1915 1915 1936 1926 1926 1926 1926 1926 1926 1926 1926 1926 1926 1926 1926 1936 1936 1936 1926 1688 1688 1688 1688 1688 1688 1680 1680 1680 1616 1601 1594 1594 1594 1594 1594 1594 1594 1594 1594 1609 1609 1609 1616 1616 1688 1688 1696 1705 1705 1713 1713 1731 1731 1739 1739 1748 1748 1936 1936 1936 1936 1936 1936 1936 1936 1936 1936 1936 1936 1936 1947 1947 1947 1947 1947 1936 1936 1936 1936 1947 1947 1947 1947 1947 1947 1947 1947 1947 1947 1947 1947 1947 1947 1947 1947 1947 1947 1959 1959 1959 1959 1959 1947 1947 1947 1947 1947 1947 1947 1947 1947 1959 1959 1959 1959 1959 1959 1959 1959 1959 1959 1579 1579 1579 1572 1572 1572 1572 1564 1564 1564 1564 1572 1572 1579 1586 1586 1594 1594 1936 1936 1713 1713 1722 1722 1722 1731 1731 1731 1739 1739 1739 1748 1757 1757 1757 1936 1947 1947 1959 1959 1959 1959 1959 1959 1959 1959 1959 1959 1959 1959 1959 1970 1970 1970 1970 1970 1970 1970 1970 1981 1464 1458 1458 1464 1464 1464 1464 1470 1470 1470 1477 1483 1483 1496 1705 1713 1731 1731 1731 1739 1915 1915 1915 1915 1915 1915 1926 1926 1936 1936 1947 1947 1959 1959 1959 1959 1970 1970 1970 1970 1970 1970 1959 1959 1970 1970 1970 1947 1947 1947 1947 1959 1959 1959 1947 1947 1947 1947 1959 1959 1959 1959 1959 1959 1959 1959 1959 1959 1959 1959 1959 1959 1959 1959 1959 1959 1959 1959 1959 1959 1959 1959 1959 1959 1959 1959 1959 1959 1959 1959 1959 1959 1959 1959 1959 1959 1959 1959 1959 1959 1959 1959 1959 1959 1959 1959 1959 1410 1410 1410 1410 1415 1415 1415 1415 1415 1415 1410 1410 1410 1410 1410 1410 1410 1833 1833 1833 1833 1843 1843 1915 1947 1959 1947 1947 1947 1959 1947 1947 1947 1947 1947 1947 1947 1947 1947 1947 1947 1947 1947 1947 1947 1947 1947 1947 1947 1947 1947 1947 1947 1947 1947 1959 1959 1959 1947 1947 1947 1947 1947 1947 1947 1947 1947 1947 1947 1947 1947 1947 1947 1947 1947 1959 1959 1959 1959 1959 1947 1947 1947 1947 1947 1947 1947 1947 1947 1947 1947 1947 1503 1503 1509 1509 1509 1509 1503 1503 1503 1503 1503 1503 1503 1503 1503 1503 1496 1496 1496 1496 1503 1503 1503 1926 1926 1936 1936 1936 1936 1936 1936 1936 1936 1936 1936 1936 1936 1936 1936 1936 1936 1936 1936 1936 1936 1936 1936 1936 1936 1936 1936 1936 1936 1936 1936 1936 1936 1936 1936 1936 1936 1936 1936 1936 1936 1936 1936 1936 1936 1936 1936 1936 1936 1936 1936 1936 1936 1936 1936 1936 1936 1936 1936 1936 1936 1936 1936 1936 1936 1936 1936 1936 1936 1936 1936 1936 1936 1936 1936 1936 1936 1936 1936 1926 1926 1926 1926 1926 1936 1926 1926 1926 1926 1915 1915 1915 1915 1904 1904 1915 1915 1915 1915 1915 1915 1915 1915 1915 1915 1915 1915 1915 1915 1915 1915 1915 1904 1904 1904 1904 1904 1904 1904 1904 1904 1904 1904 1904 1904 1915 1915 0 0 0 0 0 0 0 0
0 0 0 0 0 0 0 0 0 0 0 0 0 0 0 0 0 0 0 0 0 0 0 0 0 0 0 0 0 0 0 0 0 0 1915 1915 1915 1915 1926 1926 1926 1926 1926 1926 1926 1926 1926 1926 1926 1926 1926 1926 1926 1915 1915 1926 1926 1926 1926 1926 1926 1926 1926 1926 1915 1915 1915 1915 1915 1915 1915 1915 1915 1915 1926 1915 1915 1915 1915 1915 1915 1915 1915 1915 1915 1915 1915 1915 1926 1926 1926 1926 1926 1926 1926 1926 1926 1915 1915 1915 1915 1915 1915 1915 1915 1915 1915 1915 1915 1915 1915 1915 1915 1915 1915 1915 1926 1926 1926 1926 1926 1688 1688 1688 1688 1688 1688 1680 1680 1624 1609 1601 1601 1594 1594 1594 1594 1594 1594 1609 1609 1609 1609 1616 1647 1671 1680 1688 1696 1696 1705 1705 1722 1731 1739 1739 1748 1904 1904 1936 1936 1936 1936 1936 1936 1936 1936 1936 1936 1936 1936 1947 1947 1947 1936 1936 1936 1936 1936 1936 1947 1947 1947 1947 1947 1947 1936 1936 1947 1947 1947 1947 1947 1947 1947 1947 1947 1947 1947 1947 1947 1947 1947 1947 1947 1947 1947 1947 1947 1947 1947 1947 1959 1959 1959 1947 1947 1947 1947 1959 1959 1959 1579 1579 1579 1572 1572 1572 1572 1564 1564 1564 1564 1572 1579 1579 1586 1586 1594 1601 1601 1713 1713 1713 1713 1722 1722 1722 1731 1731 1731 1739 1739 1748 1748 1757 1936 1936 1947 1947 1947 1959 1959 1959 1959 1947 1947 1947 1947 1947 1959 1959 1959 1959 1959 1959 1959 1959 1959 1959 1959 1959 1464 1464 1464 1464 1464 1470 1470 1470 1470 1477 1477 1477 1483 1680 1696 1705 1722 1731 1731 1731 1926 1926 1915 1915 1915 1915 1926 1926 1936 1936 1947 1947 1947 1947 1947 1947 1947 1947 1970 1959 1959 1959 1959 1959 1959 1959 1959 1947 1936 1936 1947 1947 1947 1947 1947 1947 1936 1936 1947 1947 1947 1947 1947 1959 1959 1947 1936 1936 1947 1947 1947 1947 1947 1947 1959 1959 1959 1959 1959 1959 1959 1959 1959 1959 1959 1959 1959 1959 1959 1959 1959 1959 1959 1959 1959 1959 1959 1959 1959 1959 1959 1959 1959 1947 1947 1947 1947 1410 1410 1410 1410 1410 1415 1415 1415 1415 1415 1410 1410 1415 1415 1410 1410 0 1833 1833 1833 1833 1843 1843 1904 1936 1959 1947 1947 1947 1947 1947 1947 1947 1947 1947 1947 1947 1947 1947 1947 1947 1947 1947 1947 1947 1947 1947 1947 1947 1947 1947 1947 1947 1947 1947 1947 1947 1947 1936 1936 1947 1947 1947 1947 1947 1947 1947 1947 1947 1947 1947 1947 1947 1947 1947 1947 1947 1947 1947 1947 1947 1947 1947 1947 1947 1947 1947 1947 1947 1947 1947 1947 1509 1509 1509 1509 1509 1509 1509 1509 1509 1503 1503 1503 1503 1503 1503 1503 1503 1503 1503 1503 1503 1503 1509 1926 1926 1926 1926 1926 1926 1926 1926 1926 1926 1926 1926 1926 1926 1926 1926 1926 1926 1926 1926 1926 1926 1926 1926 1936 1936 1936 1936 1926 1926 1936 1936 1936 1936 1936 1936 1936 1936 1936 1936 1936 1936 1936 1936 1936 1936 1936 1936 1936 1936 1936 1936 1926 1926 1936 1936 1936 1936 1936 1936 1936 1936 1936 1936 1936 1936 1936 1936 1936 1936 1936 1936 1936 1926 1926 1926 1926 1926 1926 1926 1926 1926 1926 1926 1926 1926 1915 1915 1904 1904 1904 1894 1894 1894 1894 1894 1894 1904 1904 1904 1915 1915 1915 1904 1904 1904 1904 1904 1904 1904 1915 1915 1915 1904 1904 1894 1894 1894 1894 1894 1894 1894 1904 1904 1904 1904 1904 1904 0 0 0 0 0 0 0 0
0 0 0 0 0 0 0 0 0 0 0 0 0 0 0 0 0 0 0 0 0 0 0 0 0 0 0 0 0 0 0 0 0 0 1915 1915 1915 1915 1915 1915 1915 1915 1915 1915 1915 1926 1926 1926 1926 1926 1926 1926 1926 1915 1915 1926 1926 1926 1915 1915 1926 1926 1926 1915 1915 1915 1915 1915 1904 1904 1904 1915 1915 1915 1915 1915 1915 1915 1904 1904 1904 1904 1904 1904 1904 1904 1904 1904 1904 1904 1915 1915 1915 1915 1915 1915 1915 1915 1915 1915 1915 1915 1915 1915 1915 1915 1915 1915 1915 1904 1904 1915 1915 1915 1915 1915 1926 1926 1915 1915 1915 1696 1688 1688 1688 1688 1688 1680 1680 1624 1609 1601 1601 1594 1594 1594 1601 1601 1601 1609 1609 1609 1616 1616 1639 1663 1680 1688 1688 1696 1705 1705 1722 1731 1739 1739 1904 1904 1904 1915 1926 1926 1926 1926 1926 1926 1926 1926 1936 1936 1936 1936 1936 1936 1936 1936 1936 1936 1936 1936 1936 1936 1936 1936 1936 1936 1936 1936 1936 1936 1936 1947 1947 1947 1947 1947 1947 1947 1947 1947 1947 1947 1947 1947 1947 1947 1947 1947 1947 1947 1947 1947 1947 1947 1947 1947 1947 1947 1947 1947 1947 1947 1579 1579 1579 1572 1572 1572 1572 1564 1564 1564 1564 1572 1579 1579 1586 1586 1594 1601 1601 1705 1705 1705 1705 1713 1713 1722 1722 1731 1731 1731 1739 1739 1748 1926 1936 1936 1936 1947 1936 1936 1936 1947 1947 1947 1936 1936 1936 1936 1947 1947 1947 1947 1947 1959 1959 1959 1959 1959 1959 1959 1464 1464 1464 1470 1470 1470 1470 1470 1470 1477 1477 1477 1483 1671 1696 1696 1713 1722 1731 1926 1926 1926 1915 1915 1926 1926 1926 1926 1936 1936 1936 1947 1947 1947 1947 1947 1947 1947 1947 1959 1959 1959 1947 1947 1959 1947 1947 1936 1936 1936 1936 1936 1936 1936 1936 1936 1936 1936 1936 1947 1947 1947 1947 1947 1947 1936 1936 1936 1936 1936 1936 1936 1936 1936 1936 1936 1936 1936 1936 1947 1947 1947 1947 1947 1947 1947 1947 1947 1947 1947 1947 1959 1959 1959 1959 1959 1959 1959 1959 1947 1947 1959 1959 1947 1936 1936 1936 1410 1410 1410 1410 1410 1415 1415 1415 1415 1415 1415 1415 1415 1415 1410 1410 1410 0 1833 1833 1843 1853 1863 1904 1926 1936 1947 1947 1947 1947 1947 1947 1947 1947 1947 1947 1947 1947 1947 1947 1947 1936 1936 1936 1936 1936 1947 1936 1936 1947 1947 1947 1947 1947 1947 1947 1936 1936 1936 1936 1936 1936 1936 1936 1936 1936 1936 1936 1936 1936 1936 1936 1936 1936 1947 1947 1947 1947 1947 1947 1947 1947 1947 1936 1936 1936 1936 1947 1936 1936 1936 1936 1509 1509 1516 1516 1509 1509 1509 1509 1509 1509 1509 1503 1503 1503 1503 1503 1503 1503 1503 1503 1509 1509 1509 1915 1915 1915 1926 1915 1915 1926 1926 1926 1915 1915 1926 1926 1926 1926 1926 1926 1926 1926 1926 1926 1926 1926 1926 1926 1926 1926 1926 1926 1926 1926 1926 1926 1926 1926 1926 1926 1926 1926 1926 1926 1926 1926 1926 1926 1926 1926 1936 1936 1936 1926 1926 1926 1926 1926 1926 1926 1926 1926 1926 1926 1926 1926 1926 1926 1926 1926 1926 1926 1926 1926 1926 1926 1926 1915 1915 1926 1926 1926 1926 1926 1915 1915 1915 1915 1915 1904 1904 1904 1894 1894 1894 1894 1894 1894 1894 1894 1894 1894 1904 1904 1904 1894 1894 1894 1894 1894 1894 1894 1894 1904 1904 1904 1894 1894 1894 1894 1894 1894 1894 1894 1894 1894 1894 1894 1894 1904 1904 0 0 0 0 0 0 0 0
0 0 0 0 0 0 0 0 0 0 0 0 0 0 0 0 0 0 0 0 0 0 0 0 0 0 0 0 0 0 0 0 0 0 1915 1915 1915 1915 1915 1915 1915 1915 1915 1915 1915 1926 1926 1926 1926 1926 1926 1926 1926 1915 1915 1926 1926 1926 1915 1915 1915 1926 1926 1915 1915 1915 1915 1915 1904 1904 1904 1915 1904 1904 1904 1904 1904 1904 1904 1904 1904 1904 1904 1904 1904 1904 1904 1904 1904 1904 1915 1915 1915 1915 1915 1915 1915 1915 1915 1915 1915 1915 1915 1915 1915 1915 1904 1904 1915 1904 1904 1904 1904 1904 1904 1915 1915 1915 1915 1915 1915 1915 1688 1688 1688 1688 1688 1688 1688 1632 1609 1609 1609 1601 1594 1594 1601 1601 1601 1609 1609 1616 1616 1624 1639 1655 1680 1680 1688 1688 1696 1696 1713 1731 1731 1739 1904 1904 1904 1904 1904 1926 1926 1926 1926 1915 1915 1915 1926 1926 1926 1936 1936 1936 1926 1926 1936 1936 1936 1936 1936 1936 1936 1936 1936 1936 1936 1936 1936 1936 1936 1936 1936 1936 1936 1936 1936 1936 1936 1936 1936 1936 1936 1936 1936 1936 1936 1936 1936 1936 1936 1936 1936 1947 1947 1947 1947 1947 1947 1947 1936 1936 1936 1579 1579 1579 1572 1572 1572 1564 1564 1572 1572 1572 1579 1579 1586 1586 1586 1586 1705 1705 1705 1705 1705 1705 1713 1722 1722 1731 1731 1731 1739 1739 1748 1926 1936 1936 1936 1936 1936 1936 1936 1936 1936 1936 1936 1936 1936 1936 1936 1936 1936 1947 1947 1947 1947 1947 1947 1947 1947 1947 1947 1464 1464 1470 1470 1470 1470 1470 1470 1477 1477 1483 1483 1496 1680 1688 1696 1705 1705 1713 1926 1926 1915 1915 1926 1926 1926 1936 1936 1936 1936 1936 1936 1936 1936 1936 1936 1947 1947 1947 1947 1947 1947 1947 1947 1936 1936 1926 1926 1926 1926 1926 1936 1936 1936 1936 1936 1936 1936 1936 1936 1936 1936 1936 1936 1936 1926 1926 1926 1936 1936 1936 1936 1936 1936 1936 1936 1936 1936 1936 1936 1936 1936 1936 1947 1947 1936 1936 1936 1936 1936 1947 1936 1936 1947 1947 1947 1947 1947 1936 1936 1947 1947 1926 1926 1926 1926 1410 1410 1410 1410 1415 1415 1415 1415 1415 1415 1415 1415 1415 1415 1415 1415 1415 1843 1843 1843 1853 1873 1883 1904 1915 1926 1936 1936 1936 1936 1936 1936 1936 1936 1936 1936 1936 1936 1936 1936 1936 1926 1926 1926 1926 1936 1936 1936 1936 1936 1947 1947 1947 1936 1936 1936 1926 1926 1926 1926 1926 1926 1936 1936 1936 1926 1926 1926 1926 1926 1926 1926 1926 1926 1936 1936 1936 1936 1936 1936 1936 1936 1926 1926 1926 1926 1926 1936 1926 1926 1936 1936 1509 1509 1509 1509 1509 1509 1509 1509 1509 1509 1509 1503 1503 1503 1503 1503 1503 1503 1503 1503 1509 1509 1509 1904 1904 1915 1915 1915 1915 1915 1915 1915 1915 1915 1915 1915 1915 1915 1915 1915 1915 1915 1915 1915 1915 1915 1915 1926 1926 1926 1915 1915 1915 1915 1915 1915 1915 1915 1915 1915 1915 1915 1915 1915 1915 1915 1915 1915 1926 1926 1926 1926 1926 1926 1926 1926 1926 1926 1926 1926 1926 1926 1926 1926 1926 1926 1915 1915 1915 1915 1915 1915 1915 1915 1915 1915 1915 1915 1915 1915 1915 1915 1915 1915 1904 1904 1904 1904 1904 1894 1894 1894 1894 1894 1894 1894 1894 1894 1883 1883 1894 1894 1894 1904 1894 1894 1894 1894 1894 1894 1894 1894 1894 1894 1894 1894 1894 1894 1894 1894 1894 1894 1894 1894 1894 1894 1894 1894 1894 1894 1894 0 0 0 0 0 0 0 0
0 0 0 0 0 0 0 0 0 0 0 0 0 0 0 0 0 0 0 0 0 0 0 0 0 0 0 0 0 0 0 0 0 0 1915 1915 1915 1915 1904 1904 1904 1915 1915 1915 1915 1915 1915 1926 1926 1926 1926 1926 1915 1915 1915 1915 1915 1915 1915 1915 1915 1915 1915 1915 1915 1904 1904 1904 1904 1904 1904 1904 1894 1894 1904 1894 1894 1894 1894 1894 1904 1904 1904 1904 1904 1904 1894 1894 1894 1904 1904 1915 1915 1915 1915 1915 1915 1915 1915 1915 1915 1904 1904 1904 1915 1915 1904 1904 1904 1904 1904 1904 1904 1904 1904 1904 1915 1915 1915 1915 1915 1915 1688 1688 1688 1688 1688 1688 1688 1688 1609 1609 1609 1601 1594 1594 1601 1601 1609 1609 1609 1616 1616 1624 1647 1655 1680 1680 1688 1688 1696 1696 1713 1722 1722 1904 1904 1904 1904 1904 1904 1915 1915 1915 1915 1915 1915 1915 1915 1915 1926 1926 1926 1926 1915 1915 1926 1926 1926 1926 1926 1926 1936 1926 1926 1936 1926 1926 1936 1936 1936 1936 1936 1936 1936 1936 1936 1936 1936 1936 1936 1936 1936 1936 1936 1936 1936 1936 1936 1936 1936 1936 1936 1936 1936 1936 1936 1936 1936 1936 1926 1926 1926 1579 1579 1579 1572 1572 1572 1572 1572 1572 1572 1572 1579 1579 1586 1586 1586 1586 1705 1705 1705 1705 1705 1705 1705 1713 1722 1722 1731 1731 1731 1731 1926 1926 1936 1936 1936 1936 1936 1936 1936 1936 1936 1936 1936 1936 1936 1936 1936 1936 1936 1936 1936 1936 1936 1947 1947 1936 1936 1947 1464 1464 1470 1470 1470 1477 1477 1477 1477 1477 1483 1483 1483 1496 1496 1688 1696 1705 1705 1713 1926 1926 1926 1926 1926 1926 1926 1926 1926 1926 1926 1936 1936 1936 1936 1936 1936 1936 1936 1936 1936 1936 1936 1936 1936 1936 1936 1926 1926 1926 1926 1926 1926 1926 1926 1926 1926 1926 1926 1926 1926 1926 1926 1936 1936 1926 1926 1926 1926 1926 1926 1926 1926 1926 1926 1926 1926 1926 1926 1926 1936 1926 1926 1926 1926 1926 1926 1926 1926 1926 1926 1936 1936 1936 1936 1936 1936 1936 1936 1926 1926 1926 1926 1915 1915 1915 1915 1410 1410 1410 1415 1415 1415 1415 1415 1415 1415 1415 1415 1415 1410 1410 1415 1415 1843 1843 1843 1853 1873 1883 1904 1915 1926 1926 1926 1926 1926 1926 1926 1926 1936 1936 1936 1926 1926 1926 1926 1926 1926 1926 1926 1926 1926 1926 1926 1926 1926 1936 1936 1936 1936 1926 1926 1926 1926 1926 1915 1915 1926 1926 1926 1926 1926 1926 1926 1926 1926 1926 1926 1926 1926 1926 1926 1926 1926 1926 1926 1926 1926 1926 1915 1915 1926 1926 1926 1926 1926 1926 1936 1936 1509 1509 1509 1509 1509 1509 1509 1509 1509 1509 1509 1509 1503 1503 1503 1503 1503 1509 1509 1509 1516 1516 1904 1904 1904 1904 1904 1904 1904 1915 1915 1904 1904 1915 1915 1915 1904 1904 1915 1915 1904 1904 1904 1904 1915 1915 1915 1915 1915 1915 1915 1915 1915 1904 1904 1904 1904 1904 1904 1904 1904 1904 1904 1904 1904 1904 1915 1915 1915 1915 1915 1915 1915 1915 1915 1915 1915 1915 1915 1915 1915 1915 1915 1915 1915 1904 1904 1915 1915 1915 1904 1904 1904 1904 1904 1904 1904 1904 1915 1915 1904 1904 1904 1904 1904 1904 1904 1904 1894 1894 1894 1894 1894 1894 1883 1883 1894 1883 1883 1883 1883 1883 1894 1883 1883 1883 1883 1883 1883 1883 1883 1883 1883 1883 1894 1894 1894 1894 1894 1894 1894 1894 1883 1883 1883 1894 1894 1894 1894 1894 0 0 0 0 0 0 0 0
0 0 0 0 0 0 0 0 0 0 0 0 0 0 0 0 0 0 0 0 0 0 0 0 0 0 0 0 0 0 0 0 0 0 1904 1904 1904 1904 1904 1904 1904 1904 1904 1915 1915 1915 1915 1915 1915 1915 1915 1915 1915 1915 1915 1915 1915 1915 1915 1915 1915 1915 1915 1915 1904 1904 1894 1894 1894 1904 1904 1894 1894 1894 1894 1894 1894 1894 1894 1894 1894 1894 1894 1894 1894 1894 1883 1883 1894 1904 1904 1904 1904 1904 1904 1915 1915 1904 1904 1904 1904 1904 1904 1904 1904 1904 1904 1904 1904 1904 1904 1904 1904 1904 1904 1904 1904 1915 1915 1915 1915 1915 1688 1688 1688 1688 1688 1688 1688 1688 1616 1609 1609 1609 1601 1601 1601 1609 1609 1609 1609 1616 1616 1624 1647 1663 1671 1680 1688 1688 1696 1696 1696 1713 1722 1904 1904 1904 1904 1904 1904 1915 1915 1915 1915 1904 1904 1904 1904 1904 1904 1904 1904 1915 1915 1915 1915 1915 1915 1915 1915 1926 1926 1926 1926 1926 1926 1915 1915 1926 1926 1926 1926 1926 1926 1926 1926 1936 1936 1936 1936 1936 1936 1936 1936 1936 1936 1936 1926 1926 1926 1926 1926 1926 1926 1926 1926 1926 1926 1926 1926 1915 1915 1915 1579 1579 1572 1572 1572 1572 1572 1572 1572 1579 1579 1579 1586 1586 1586 1705 1705 1705 1696 1696 1696 1696 1705 1705 1713 1722 1722 1731 1731 1731 1926 1926 1936 1936 1936 1936 1936 1936 1936 1936 1936 1936 1936 1926 1926 1926 1926 1926 1926 1926 1926 1926 1936 1936 1936 1926 1926 1926 1464 1464 1470 1470 1470 1477 1477 1477 1477 1477 1477 1483 1483 1496 1496 1509 1696 1696 1696 1926 1926 1926 1926 1926 1926 1926 1926 1926 1926 1926 1926 1936 1936 1936 1936 1936 1936 1936 1936 1936 1936 1936 1936 1926 1926 1926 1926 1915 1915 1926 1926 1926 1926 1926 1926 1926 1926 1926 1926 1926 1926 1926 1926 1926 1926 1926 1926 1926 1926 1926 1926 1926 1926 1926 1926 1926 1926 1926 1926 1926 1926 1926 1926 1926 1926 1926 1926 1926 1926 1926 1926 1926 1926 1926 1926 1926 1926 1926 1926 1926 1915 1915 1926 1915 1904 1904 1904 1415 1415 1415 1415 1415 1415 1415 1415 1415 1415 1415 1415 1415 1410 1410 1415 1415 1873 1853 1853 1853 1873 1883 1904 1904 1915 1926 1926 1926 1915 1915 1915 1926 1926 1915 1915 1915 1915 1915 1915 1926 1926 1915 1915 1915 1915 1915 1915 1915 1926 1936 1936 1926 1926 1926 1926 1915 1915 1915 1915 1915 1915 1915 1915 1915 1926 1926 1915 1915 1915 1915 1915 1915 1915 1915 1915 1915 1915 1915 1915 1915 1915 1915 1915 1915 1915 1915 1926 1926 1926 1926 1936 1936 1509 1509 1509 1509 1509 1509 1509 1509 1509 1509 1509 1509 1509 1509 1503 1503 1509 1509 1509 1509 1516 1894 1894 1904 1904 1904 1904 1904 1904 1904 1904 1904 1904 1904 1904 1904 1904 1904 1904 1904 1904 1904 1904 1904 1904 1904 1904 1904 1904 1904 1904 1904 1904 1904 1904 1904 1904 1894 1894 1894 1894 1894 1904 1904 1904 1904 1904 1904 1915 1904 1904 1915 1915 1915 1915 1915 1915 1915 1904 1904 1904 1904 1904 1904 1904 1904 1904 1904 1904 1904 1904 1904 1904 1904 1904 1904 1904 1904 1904 1904 1904 1904 1904 1894 1894 1894 1894 1894 1883 1883 1894 1894 1894 1894 1883 1883 1894 1883 1883 1883 1883 1883 1883 1873 1873 1873 1873 1873 1873 1873 1873 1873 1883 1883 1883 1883 1883 1883 1883 1883 1883 1883 1883 1883 1883 1883 1883 1883 1883 1883 0 0 0 0 0 0 0 0
0 0 0 0 0 0 0 0 0 0 0 0 0 0 0 0 0 0 0 0 0 0 0 0 0 0 0 0 0 0 0 0 0 0 1904 1904 1904 1894 1894 1904 1904 1904 1904 1904 1915 1915 1915 1915 1915 1915 1904 1904 1904 1904 1904 1904 1904 1904 1904 1904 1915 1904 1904 1904 1894 1894 1883 1883 1894 1904 1894 1894 1894 1894 1894 1894 1894 1894 1894 1894 1894 1894 1894 1894 1894 1894 1883 1883 1894 1894 1904 1904 1904 1904 1904 1904 1904 1904 1904 1904 1894 1894 1904 1904 1904 1904 1904 1904 1904 1904 1904 1904 1894 1894 1894 1904 1904 1904 1904 1915 1915 1915 1688 1688 1688 1688 1688 1688 1688 1688 1616 1616 1609 1609 1601 1601 1601 1609 1609 1609 1616 1616 1616 1632 1647 1663 1671 1680 1688 1688 1688 1696 1696 1713 1894 1894 1894 1904 1904 1904 1904 1915 1915 1915 1904 1904 1904 1904 1904 1904 1904 1904 1904 1904 1904 1904 1904 1904 1904 1904 1915 1915 1915 1915 1915 1915 1915 1915 1915 1915 1915 1915 1915 1915 1915 1915 1915 1926 1926 1926 1926 1936 1926 1926 1926 1926 1926 1926 1915 1915 1915 1915 1926 1926 1915 1915 1915 1926 1926 1926 1915 1915 1915 1915 1579 1579 1572 1572 1572 1572 1572 1572 1579 1579 1579 1586 1586 1586 1586 1705 1705 1705 1696 1696 1696 1696 1705 1705 1713 1713 1722 1722 1731 1926 1926 1926 1936 1936 1936 1936 1926 1926 1936 1936 1936 1936 1926 1926 1926 1926 1926 1926 1926 1926 1926 1926 1926 1926 1926 1926 1926 1926 1926 1470 1470 1470 1470 1477 1477 1477 1477 1477 1477 1483 1489 1496 1503 1509 1509 1696 1696 1696 1926 1926 1926 1926 1926 1926 1926 1926 1926 1926 1926 1926 1926 1936 1936 1936 1936 1936 1936 1926 1926 1926 1926 1926 1926 1926 1926 1915 1915 1926 1926 1926 1926 1926 1926 1926 1926 1926 1926 1926 1926 1926 1926 1926 1926 1926 1926 1915 1915 1915 1915 1915 1915 1915 1915 1926 1926 1915 1915 1926 1926 1926 1926 1926 1926 1915 1915 1915 1915 1915 1915 1915 1915 1926 1926 1926 1926 1926 1926 1926 1915 1915 1915 1915 1904 1904 1904 1415 1415 1415 1415 1415 1415 1415 1415 1415 1415 1415 1415 1415 1415 1415 1415 1415 1873 1873 1863 1863 1883 1894 1904 1904 1915 1915 1915 1915 1915 1915 1915 1915 1915 1915 1915 1915 1915 1915 1915 1915 1915 1915 1915 1915 1915 1915 1904 1904 1915 1915 1915 1915 1915 1915 1915 1915 1915 1915 1915 1915 1915 1915 1915 1915 1915 1915 1915 1915 1915 1915 1915 1915 1915 1915 1915 1915 1904 1904 1915 1915 1915 1915 1915 1915 1915 1915 1915 1926 1926 1926 1926 1926 1516 1516 1509 1509 1509 1509 1509 1509 1509 1509 1509 1509 1509 1509 1503 1503 1509 1509 1509 1509 1516 1894 1894 1894 1904 1904 1904 1904 1904 1904 1904 1904 1904 1904 1904 1904 1904 1904 1904 1904 1904 1904 1904 1904 1904 1904 1904 1904 1904 1904 1904 1904 1904 1904 1894 1894 1894 1894 1894 1894 1894 1894 1894 1894 1894 1894 1904 1904 1904 1904 1904 1904 1904 1904 1904 1904 1904 1904 1904 1904 1904 1904 1904 1904 1904 1904 1904 1904 1904 1904 1904 1904 1894 1894 1904 1904 1904 1904 1904 1904 1904 1904 1894 1894 1894 1894 1894 1894 1883 1883 1894 1894 1894 1883 1883 1883 1883 1883 1883 1873 1873 1873 1873 1863 1863 1863 1873 1873 1863 1863 1863 1863 1873 1863 1863 1873 1873 1873 1873 1873 1873 1873 1873 1873 1873 1873 1873 1873 1883 1883 0 0 0 0 0 0 0 0
0 0 0 0 0 0 0 0 0 0 0 0 0 0 0 0 0 0 0 0 0 0 0 0 0 0 0 0 0 0 0 0 0 0 1904 1904 1904 1894 1894 1894 1904 1904 1904 1904 1904 1904 1904 1904 1904 1904 1904 1894 1894 1904 1904 1904 1904 1904 1904 1904 1904 1904 1904 1894 1894 1894 1883 1883 1883 1883 1883 1883 1883 1883 1883 1883 1883 1883 1883 1883 1894 1894 1883 1883 1883 1883 1883 1883 1894 1894 1894 1904 1894 1894 1894 1894 1904 1904 1894 1894 1894 1894 1894 1894 1894 1894 1894 1894 1894 1894 1894 1894 1894 1894 1894 1894 1894 1894 1904 1904 1904 1904 1688 1688 1688 1688 1688 1688 1688 1688 1616 1616 1609 1609 1609 1601 1601 1609 1609 1609 1616 1616 1616 1632 1647 1663 1671 1680 1680 1688 1688 1688 1696 1713 1894 1894 1894 1894 1894 1904 1904 1904 1904 1904 1904 1904 1904 1904 1904 1904 1904 1904 1904 1904 1904 1904 1904 1904 1904 1904 1904 1904 1904 1904 1904 1904 1904 1904 1904 1904 1904 1904 1904 1904 1915 1904 1904 1915 1915 1915 1915 1915 1926 1926 1926 1915 1915 1915 1915 1904 1904 1915 1915 1915 1915 1915 1915 1915 1915 1915 1915 1904 1904 1915 1915 1579 1579 1572 1572 1572 1572 1572 1579 1579 1579 1586 1586 1586 1586 1705 1705 1705 1696 1696 1696 1696 1696 1705 1713 1713 1722 1722 1731 1926 1915 1915 1926 1926 1926 1926 1926 1926 1926 1926 1926 1926 1926 1926 1926 1926 1915 1915 1915 1915 1915 1915 1926 1926 1926 1926 1926 1926 1926 1470 1470 1470 1470 1477 1477 1477 1477 1477 1477 1483 1489 1496 1503 1509 1509 1696 1696 1696 1926 1926 1926 1926 1926 1926 1926 1926 1926 1926 1926 1926 1926 1926 1926 1936 1936 1926 1926 1926 1926 1926 1915 1915 1915 1915 1926 1915 1915 1915 1915 1915 1915 1915 1915 1926 1926 1926 1926 1926 1926 1926 1915 1915 1915 1915 1915 1915 1915 1915 1915 1915 1915 1915 1915 1915 1915 1915 1915 1915 1915 1915 1915 1915 1915 1915 1915 1915 1915 1915 1915 1915 1915 1915 1915 1915 1915 1915 1915 1915 1915 1915 1915 1915 1904 1904 1904 1415 1415 1415 1415 1415 1415 1415 1415 1415 1415 1415 1415 1415 1415 1415 1415 1873 1873 1873 1873 1873 1883 1894 1904 1904 1915 1915 1915 1915 1915 1915 1915 1915 1915 1915 1915 1904 1904 1915 1915 1915 1915 1915 1915 1915 1915 1904 1904 1904 1915 1915 1915 1915 1915 1904 1904 1904 1904 1904 1904 1904 1904 1904 1904 1904 1904 1904 1904 1904 1904 1915 1904 1904 1915 1915 1904 1904 1904 1904 1915 1915 1915 1915 1915 1915 1915 1915 1915 1915 1915 1926 1926 1516 1516 1516 1509 1509 1509 1509 1509 1509 1509 1509 1509 1509 1509 1509 1509 1509 1509 1509 1509 1509 1894 1894 1894 1894 1894 1894 1894 1894 1894 1894 1894 1894 1894 1894 1894 1894 1894 1894 1904 1904 1904 1904 1904 1904 1904 1904 1904 1904 1904 1904 1904 1904 1894 1894 1894 1894 1894 1894 1894 1894 1894 1894 1894 1894 1894 1894 1894 1904 1904 1904 1904 1904 1904 1904 1904 1904 1904 1904 1904 1904 1894 1894 1894 1894 1894 1894 1894 1894 1894 1894 1894 1894 1894 1894 1894 1894 1904 1904 1894 1894 1894 1894 1894 1894 1883 1883 1894 1894 1883 1883 1883 1883 1883 1883 1883 1883 1883 1873 1873 1863 1863 1863 1863 1863 1863 1863 1873 1873 1863 1863 1863 1863 1863 1863 1863 1863 1863 1863 1873 1873 1873 1873 1873 1873 1873 1873 1873 1873 1873 1873 0 0 0 0 0 0 0 0
0 0 0 0 0 0 0 0 0 0 0 0 0 0 0 0 0 0 0 0 0 0 0 0 0 0 0 0 0 0 0 0 0 0 1894 1894 1894 1894 1894 1894 1894 1894 1894 1904 1904 1894 1894 1894 1894 1894 1894 1894 1894 1894 1894 1894 1894 1894 1894 1904 1894 1894 1894 1894 1894 1894 1883 1883 1883 1883 1883 1883 1883 1883 1883 1883 1883 1883 1883 1883 1883 1883 1883 1873 1873 1873 1873 1873 1873 1894 1894 1894 1894 1894 1883 1883 1894 1894 1894 1883 1883 1883 1883 1883 1883 1894 1883 1883 1883 1883 1883 1883 1883 1883 1883 1883 1894 1894 1894 1894 1894 1894 1894 1688 1688 1688 1696 1696 1688 1688 1624 1616 1609 1609 1609 1601 1601 1601 1609 1609 1616 1616 1616 1632 1639 1655 1671 1680 1680 1688 1688 1688 1713 1873 1873 1883 1883 1894 1894 1894 1904 1904 1904 1904 1904 1894 1894 1894 1894 1894 1894 1894 1894 1904 1904 1894 1894 1894 1904 1904 1904 1904 1904 1904 1904 1904 1904 1904 1904 1904 1904 1904 1904 1904 1904 1904 1904 1904 1904 1904 1904 1904 1904 1904 1915 1915 1915 1904 1904 1904 1904 1904 1904 1904 1904 1915 1915 1915 1915 1915 1904 1904 1904 1915 1915 1586 1579 1579 1579 1572 1572 1572 1579 1579 1586 1586 1586 1594 1594 1696 1696 1696 1696 1696 1696 1696 1696 1705 1705 1705 1713 1722 1731 1915 1915 1915 1926 1926 1926 1926 1926 1926 1926 1926 1926 1926 1926 1915 1915 1915 1915 1915 1915 1915 1915 1915 1926 1926 1926 1915 1915 1926 1470 1470 1470 1470 1477 1477 1477 1477 1477 1477 1483 1483 1489 1503 1503 1516 1516 1696 1696 1696 1926 1926 1915 1915 1915 1926 1926 1926 1915 1915 1926 1926 1926 1926 1926 1926 1926 1926 1926 1926 1926 1915 1915 1915 1915 1915 1915 1915 1915 1915 1915 1915 1915 1915 1915 1915 1915 1915 1915 1915 1915 1915 1915 1915 1915 1915 1915 1915 1915 1915 1915 1915 1915 1915 1915 1915 1915 1915 1915 1915 1915 1915 1915 1915 1915 1915 1915 1915 1915 1915 1915 1915 1915 1915 1915 1915 1915 1915 1915 1915 1904 1904 1915 1915 1904 1904 1904 1415 1415 1415 1415 1415 1415 1415 1415 1415 1415 1415 1415 1415 1415 1415 1415 1873 1873 1873 1883 1883 1883 1883 1894 1894 1915 1915 1915 1904 1904 1904 1904 1904 1904 1904 1904 1904 1904 1904 1904 1904 1904 1904 1904 1904 1904 1904 1904 1904 1904 1904 1904 1904 1904 1904 1904 1904 1904 1904 1904 1904 1904 1904 1904 1904 1904 1904 1904 1904 1904 1904 1904 1904 1904 1904 1904 1904 1904 1904 1904 1904 1904 1904 1904 1904 1904 1904 1904 1915 1915 1915 1915 1516 1516 1516 1509 1509 1509 1509 1509 1509 1509 1509 1509 1509 1509 1509 1509 1509 1509 1509 1509 1509 1516 1894 1894 1894 1894 1894 1894 1894 1894 1894 1894 1894 1894 1894 1894 1894 1894 1894 1894 1894 1894 1894 1894 1894 1894 1894 1894 1894 1894 1894 1894 1894 1894 1894 1894 1894 1894 1894 1894 1894 1894 1894 1894 1894 1894 1894 1894 1894 1904 1894 1894 1904 1894 1894 1894 1894 1894 1894 1894 1894 1894 1894 1894 1894 1894 1894 1894 1894 1894 1894 1894 1894 1894 1894 1894 1894 1894 1894 1894 1894 1883 1883 1883 1883 1883 1883 1894 1894 1883 1883 1883 1883 1883 1883 1883 1883 1873 1873 1873 1863 1863 1863 1863 1863 1863 1863 1863 1863 1863 1863 1863 1863 1863 1863 1863 1863 1863 1863 1863 1863 1863 1863 1863 1863 1863 1873 1873 1873 1873 1873 0 0 0 0 0 0 0 0
0 0 0 0 0 0 0 0 0 0 0 0 0 0 0 0 0 0 0 0 0 0 0 0 0 0 0 0 0 0 0 0 0 0 1894 1883 1883 1894 1883 1883 1894 1894 1894 1894 1894 1883 1883 1894 1894 1894 1883 1883 1894 1894 1894 1894 1894 1894 1894 1894 1894 1894 1883 1883 1883 1894 1873 1873 1873 1873 1873 1873 1873 1873 1873 1873 1883 1873 1873 1873 1883 1883 1873 1873 1873 1873 1873 1873 1873 1873 1894 1894 1894 1883 1883 1883 1883 1883 1883 1883 1883 1883 1883 1873 1873 1873 1883 1883 1883 1883 1873 1873 1883 1883 1883 1883 1883 1883 1883 1883 1883 1883 1894 1688 1688 1688 1696 1696 1696 1696 1705 1616 1609 1609 1609 1601 1601 1601 1609 1609 1616 1616 1616 1624 1632 1647 1671 1680 1680 1688 1688 1705 1713 1873 1873 1883 1883 1894 1894 1894 1894 1894 1894 1894 1894 1894 1894 1894 1894 1894 1894 1894 1894 1894 1894 1894 1894 1894 1894 1904 1904 1904 1904 1894 1894 1894 1894 1894 1904 1904 1904 1904 1904 1904 1904 1904 1904 1904 1904 1904 1904 1904 1904 1904 1904 1904 1904 1904 1904 1904 1904 1904 1904 1904 1904 1904 1904 1904 1904 1904 1904 1904 1904 1915 1915 1586 1579 1579 1579 1572 1572 1579 1579 1586 1586 1586 1586 1594 1609 1688 1688 1696 1688 1688 1696 1696 1696 1696 1705 1705 1705 1722 1904 1894 1894 1904 1915 1915 1915 1915 1915 1915 1915 1915 1915 1915 1915 1915 1915 1915 1904 1904 1904 1904 1904 1915 1915 1915 1926 1915 1915 1915 1470 1470 1470 1470 1470 1477 1477 1477 1477 1477 1483 1489 1496 1503 1509 1516 1516 1696 1696 1696 1915 1915 1915 1915 1915 1915 1915 1915 1915 1915 1915 1915 1915 1926 1926 1926 1926 1926 1926 1926 1915 1915 1915 1915 1915 1915 1915 1904 1904 1915 1915 1915 1915 1915 1915 1915 1904 1904 1904 1904 1904 1904 1904 1904 1904 1904 1904 1904 1904 1904 1904 1904 1904 1904 1904 1904 1904 1904 1904 1904 1904 1904 1904 1904 1915 1915 1915 1915 1915 1915 1915 1915 1915 1915 1915 1915 1915 1904 1904 1904 1904 1904 1915 1915 1904 1904 1904 1415 1415 1415 1415 1415 1415 1415 1415 1415 1415 1415 1415 1415 1421 1421 1421 0 1873 1873 1883 1883 1883 1883 1883 1894 1904 1915 1904 1904 1904 1904 1904 1904 1904 1904 1904 1904 1904 1904 1904 1904 1904 1904 1904 1904 1904 1904 1894 1894 1904 1894 1894 1894 1904 1904 1904 1894 1894 1894 1894 1894 1894 1894 1894 1904 1904 1894 1894 1894 1894 1894 1894 1894 1894 1894 1894 1894 1894 1894 1904 1904 1904 1904 1904 1894 1894 1894 1904 1904 1904 1904 1915 1516 1516 1516 1509 1509 1509 1509 1509 1509 1509 1509 1509 1509 1509 1509 1509 1509 1509 1509 1509 1509 1509 1894 1894 1894 1894 1894 1894 1894 1894 1894 1883 1883 1883 1883 1894 1894 1883 1883 1894 1894 1894 1894 1883 1883 1894 1894 1894 1894 1894 1894 1894 1894 1894 1894 1894 1894 1894 1883 1883 1883 1883 1883 1883 1883 1883 1883 1883 1894 1894 1894 1894 1894 1894 1894 1894 1894 1894 1883 1883 1883 1883 1883 1883 1883 1883 1883 1894 1894 1894 1894 1894 1894 1894 1894 1894 1894 1894 1883 1883 1883 1883 1883 1883 1883 1883 1883 1883 1883 1883 1883 1883 1883 1873 1873 1873 1873 1873 1863 1863 1863 1863 1863 1863 1863 1863 1853 1853 1853 1853 1853 1853 1853 1853 1853 1853 1863 1863 1863 1863 1863 1863 1863 1863 1863 1863 1863 1863 1863 1863 1863 0 0 0 0 0 0 0 0
0 0 0 0 0 0 0 0 0 0 0 0 0 0 0 0 0 0 0 0 0 0 0 0 0 0 0 0 0 0 0 0 0 0 1873 1873 1883 1873 1873 1883 1883 1883 1883 1883 1883 1883 1883 1883 1883 1883 1883 1883 1883 1883 1894 1894 1883 1883 1883 1883 1883 1883 1883 1883 1883 1883 1873 1873 1873 1873 1873 1873 1873 1873 1873 1873 1873 1873 1873 1873 1873 1873 1873 1873 1873 1873 1873 1873 1873 1873 1873 1883 1873 1873 1873 1873 1873 1873 1873 1873 1873 1873 1873 1873 1873 1873 1873 1873 1873 1873 1873 1873 1873 1883 1883 1883 1883 1883 1883 1883 1883 1883 1894 1894 1680 1680 1696 1696 1696 1696 1705 1601 1601 1609 1609 1609 1609 1609 1609 1609 1609 1609 1609 1624 1632 1639 1663 1680 1688 1688 1696 1705 1705 1873 1873 1883 1883 1883 1894 1894 1894 1894 1894 1894 1894 1894 1894 1894 1894 1894 1894 1894 1894 1894 1894 1894 1894 1894 1894 1904 1904 1904 1904 1894 1894 1894 1894 1894 1894 1904 1904 1894 1894 1904 1904 1904 1904 1904 1904 1904 1904 1904 1904 1904 1904 1904 1904 1904 1904 1904 1904 1904 1904 1904 1904 1904 1904 1904 1904 1904 1904 1904 1904 1904 1904 1586 1586 1579 1579 1579 1579 1579 1579 1586 1586 1594 1594 1601 1609 1671 1680 1688 1688 1688 1688 1688 1696 1696 1696 1696 1705 1904 1904 1894 1894 1904 1904 1904 1904 1915 1915 1915 1915 1915 1915 1915 1915 1904 1904 1904 1904 1904 1904 1904 1904 1904 1904 1915 1915 1915 1915 1915 1470 1470 1470 1470 1470 1477 1477 1477 1477 1477 1483 1489 1496 1503 1509 1516 1516 1696 1696 1696 1904 1904 1904 1904 1904 1915 1915 1915 1915 1915 1915 1915 1915 1915 1915 1915 1915 1915 1915 1915 1915 1915 1904 1904 1904 1904 1915 1904 1904 1904 1904 1904 1904 1904 1904 1904 1904 1894 1894 1904 1904 1904 1904 1904 1894 1894 1894 1894 1904 1904 1904 1904 1904 1894 1894 1894 1894 1894 1904 1904 1904 1904 1904 1904 1904 1904 1904 1915 1915 1915 1915 1915 1915 1904 1904 1904 1904 1904 1904 1904 1904 1904 1904 1915 1915 1915 1915 1415 1415 1415 1421 1421 1415 1415 1415 1415 1415 1415 1415 1421 1421 1421 1415 1873 1873 1873 1883 1883 1883 1883 1883 1894 1904 1904 1894 1894 1894 1894 1894 1894 1894 1894 1894 1894 1894 1894 1904 1904 1904 1904 1904 1894 1894 1894 1894 1894 1894 1894 1894 1894 1894 1894 1894 1883 1883 1883 1883 1883 1883 1883 1883 1894 1894 1894 1894 1883 1883 1883 1883 1883 1883 1883 1883 1883 1894 1894 1894 1894 1894 1894 1894 1883 1883 1894 1894 1894 1894 1904 1915 1523 1516 1516 1516 1509 1509 1509 1509 1509 1509 1509 1509 1509 1509 1509 1509 1509 1509 1509 1503 1503 1503 1883 1883 1883 1894 1894 1894 1883 1883 1883 1883 1883 1873 1873 1883 1883 1883 1883 1883 1883 1883 1883 1883 1883 1883 1883 1883 1894 1894 1894 1894 1894 1894 1894 1894 1894 1894 1883 1883 1883 1883 1873 1873 1873 1873 1883 1883 1883 1883 1883 1883 1883 1883 1883 1883 1883 1883 1883 1883 1883 1883 1883 1873 1873 1883 1883 1883 1883 1883 1883 1883 1894 1894 1894 1894 1883 1883 1883 1883 1883 1873 1873 1873 1873 1873 1873 1883 1883 1873 1873 1873 1873 1863 1863 1863 1863 1863 1853 1853 1853 1853 1853 1853 1853 1853 1853 1853 1853 1853 1853 1853 1853 1853 1853 1853 1863 1863 1863 1863 1853 1853 1853 1853 1853 1863 1863 1863 1863 1863 1863 0 0 0 0 0 0 0 0
0 0 0 0 0 0 0 0 0 0 0 0 0 0 0 0 0 0 0 0 0 0 0 0 0 0 0 0 0 0 0 0 0 0 1873 1873 1873 1873 1873 1873 1883 1883 1883 1883 1873 1873 1873 1873 1873 1873 1873 1883 1883 1883 1883 1883 1883 1883 1873 1873 1873 1873 1873 1873 1873 1873 1873 1873 1873 1873 1873 1863 1863 1863 1863 1863 1863 1863 1863 1863 1863 1863 1863 1863 1863 1863 1863 1863 1863 1863 1863 1863 1863 1863 1863 1863 1863 1863 1863 1863 1873 1873 1873 1873 1873 1873 1873 1873 1873 1873 1873 1873 1873 1873 1873 1873 1873 1873 1873 1873 1873 1873 1873 1883 1680 1680 1688 1696 1696 1696 1705 1601 1601 1609 1609 1609 1609 1609 1609 1609 1609 1609 1609 1624 1632 1639 1655 1671 1680 1688 1696 1696 1873 1873 1873 1873 1873 1873 1873 1873 1873 1873 1873 1894 1894 1894 1894 1894 1894 1894 1894 1894 1894 1894 1894 1894 1894 1894 1894 1894 1894 1894 1894 1894 1894 1894 1883 1883 1894 1894 1894 1894 1894 1904 1904 1894 1894 1894 1904 1904 1904 1904 1904 1894 1894 1894 1904 1904 1904 1904 1904 1904 1904 1904 1904 1904 1904 1904 1904 1904 1894 1894 1894 1904 1904 1586 1586 1579 1579 1579 1579 1579 1579 1586 1586 1586 1594 1601 1609 1624 1671 1680 1680 1680 1688 1688 1696 1696 1696 1696 1705 1894 1894 1894 1894 1894 1894 1904 1904 1904 1904 1904 1904 1904 1904 1904 1904 1894 1894 1894 1894 1894 1894 1894 1894 1894 1904 1904 1915 1915 1915 1915 1470 1470 1470 1470 1477 1477 1477 1477 1477 1483 1483 1489 1496 1503 1509 1516 1516 1523 1688 1688 1894 1894 1904 1894 1894 1904 1904 1904 1904 1904 1904 1904 1915 1904 1904 1904 1915 1915 1904 1904 1904 1904 1904 1904 1904 1904 1915 1894 1894 1904 1894 1894 1894 1894 1894 1894 1894 1894 1894 1894 1894 1894 1894 1894 1894 1894 1894 1894 1894 1894 1894 1894 1894 1894 1894 1894 1894 1894 1894 1894 1894 1894 1894 1894 1904 1894 1894 1904 1904 1904 1904 1904 1904 1904 1894 1894 1904 1894 1894 1904 1904 1904 1904 1915 1915 1915 1415 1415 1415 1421 1421 1421 1415 1415 1421 1421 1415 1415 1421 1421 1415 1415 1415 1873 1873 1873 1883 1883 1883 1883 1883 1894 1904 1904 1883 1883 1883 1894 1883 1883 1883 1883 1894 1894 1894 1894 1894 1894 1894 1894 1894 1894 1894 1894 1894 1894 1894 1883 1883 1883 1883 1883 1883 1883 1873 1873 1883 1883 1883 1883 1883 1883 1883 1883 1883 1883 1883 1883 1883 1883 1883 1883 1883 1883 1883 1883 1883 1883 1883 1883 1873 1873 1873 1883 1883 1883 1883 1904 1904 1523 1523 1516 1516 1516 1516 1516 1516 1516 1516 1509 1509 1509 1509 1509 1509 1509 1509 1509 1503 1503 1503 1863 1863 1873 1883 1873 1873 1873 1873 1873 1873 1863 1863 1873 1873 1873 1873 1873 1873 1873 1873 1873 1873 1873 1873 1873 1883 1883 1883 1883 1883 1894 1894 1883 1883 1894 1883 1883 1873 1873 1873 1873 1873 1873 1873 1873 1873 1873 1873 1873 1873 1873 1873 1873 1873 1873 1873 1873 1873 1873 1873 1873 1863 1863 1863 1873 1873 1873 1883 1883 1883 1883 1883 1883 1883 1883 1883 1873 1873 1873 1873 1873 1873 1873 1873 1873 1873 1873 1863 1863 1863 1863 1853 1853 1853 1853 1853 1853 1853 1853 1853 1853 1853 1853 1853 1853 1853 1843 1843 1843 1843 1843 1843 1843 1853 1853 1853 1853 1853 1853 1853 1853 1853 1853 1853 1853 1853 1853 1853 1853 1853 0 0 0 0 0 0 0
0 0 0 0 0 0 0 0 0 0 0 0 0 0 0 0 0 0 0 0 0 0 0 0 0 0 0 0 0 0 0 0 0 0 1863 1863 1863 1873 1873 1873 1873 1873 1873 1873 1873 1873 1863 1863 1873 1873 1873 1873 1873 1883 1883 1883 1873 1873 1873 1873 1873 1873 1873 1873 1873 1873 1863 1863 1863 1863 1863 1853 1853 1853 1853 1853 1853 1853 1863 1863 1863 1863 1863 1863 1863 1863 1863 1863 1863 1863 1863 1853 1853 1863 1863 1863 1863 1863 1863 1863 1873 1873 1873 1863 1863 1863 1863 1873 1873 1863 1863 1863 1873 1873 1863 1863 1863 1863 1863 1863 1873 1873 1873 1883 1883 1688 1688 1696 1696 1696 1705 1601 1601 1609 1609 1609 1609 1609 1609 1609 1609 1616 1616 1632 1639 1647 1655 1671 1671 1680 1688 1863 1863 1863 1863 1863 1863 1863 1863 1863 1863 1863 1863 1863 1873 1883 1883 1883 1883 1883 1883 1883 1883 1883 1883 1883 1883 1883 1883 1894 1894 1894 1894 1894 1894 1894 1883 1883 1883 1894 1894 1894 1894 1894 1894 1894 1894 1894 1894 1894 1894 1894 1894 1894 1894 1894 1894 1894 1894 1894 1894 1894 1894 1904 1904 1904 1904 1904 1904 1904 1894 1894 1894 1904 1904 1586 1586 1579 1579 1579 1579 1579 1586 1586 1586 1586 1594 1609 1616 1624 1663 1680 1680 1680 1680 1688 1696 1696 1696 1696 1883 1894 1894 1894 1894 1894 1894 1894 1894 1894 1894 1894 1894 1904 1894 1894 1894 1894 1894 1894 1894 1894 1894 1894 1894 1894 1894 1904 1904 1904 1915 1915 1470 1470 1470 1470 1477 1477 1477 1477 1477 1483 1483 1489 1496 1509 1516 1523 1523 1523 1688 1688 1894 1894 1894 1894 1894 1894 1894 1894 1894 1894 1894 1894 1904 1894 1894 1904 1904 1904 1894 1894 1904 1904 1894 1894 1904 1904 1894 1883 1883 1894 1894 1894 1894 1883 1883 1883 1883 1883 1883 1883 1883 1883 1883 1883 1883 1883 1883 1883 1894 1894 1894 1894 1894 1883 1883 1883 1883 1894 1894 1894 1883 1883 1883 1894 1894 1894 1894 1894 1904 1904 1904 1894 1894 1904 1894 1894 1894 1894 1894 1894 1894 1894 1904 1904 1904 1915 1915 1421 1421 1421 1421 1421 1415 1415 1421 1421 1415 1415 1421 1421 1415 1415 1415 1873 1873 1873 1883 1883 1883 1883 1883 1883 1894 1894 1883 1883 1883 1883 1883 1873 1873 1883 1883 1883 1883 1883 1894 1894 1894 1894 1894 1883 1883 1883 1883 1883 1883 1883 1883 1883 1883 1883 1883 1873 1873 1873 1873 1873 1873 1883 1883 1883 1883 1883 1883 1873 1873 1873 1873 1873 1883 1873 1873 1883 1883 1883 1883 1883 1873 1873 1873 1873 1873 1883 1883 1883 1883 1894 1894 1523 1523 1523 1523 1516 1516 1516 1516 1516 1516 1509 1509 1509 1509 1509 1509 1509 1509 1503 1496 1489 1489 1863 1863 1863 1873 1863 1863 1863 1863 1863 1863 1863 1863 1863 1863 1863 1853 1853 1853 1853 1863 1863 1863 1863 1873 1873 1873 1883 1883 1883 1883 1883 1883 1883 1883 1883 1883 1873 1873 1873 1873 1863 1863 1873 1873 1873 1873 1863 1863 1873 1873 1873 1863 1863 1873 1873 1863 1863 1863 1863 1863 1863 1863 1863 1863 1863 1873 1873 1873 1873 1873 1883 1883 1873 1873 1873 1873 1863 1863 1863 1863 1863 1863 1863 1863 1863 1873 1863 1863 1853 1853 1853 1853 1853 1853 1853 1853 1853 1853 1853 1853 1853 1853 1853 1853 1853 1853 1843 1843 1843 1843 1843 1843 1843 1843 1843 1843 1853 1853 1853 1853 1853 1853 1853 1853 1853 1853 1853 1853 1853 1853 0 0 0 0 0 0 0
0 0 0 0 0 0 0 0 0 0 0 0 0 0 0 0 0 0 0 0 0 0 0 0 0 0 0 0 0 0 0 0 0 0 1853 1853 1863 1863 1863 1863 1873 1873 1873 1873 1863 1863 1863 1863 1863 1863 1863 1863 1873 1873 1873 1873 1873 1873 1873 1873 1873 1873 1873 1873 1873 1873 1863 1863 1853 1853 1853 1853 1853 1853 1853 1853 1853 1853 1853 1853 1853 1853 1853 1863 1863 1853 1853 1863 1863 1863 1863 1853 1853 1863 1863 1863 1863 1863 1863 1863 1863 1863 1863 1863 1863 1863 1863 1863 1863 1863 1863 1863 1863 1863 1863 1863 1863 1863 1863 1863 1863 1863 1873 1873 1873 1688 1688 1696 1696 1705 1705 1601 1601 1609 1609 1609 1609 1609 1616 1616 1616 1616 1616 1632 1639 1647 1655 1663 1663 1680 1688 1863 1863 1863 1853 1853 1853 1863 1863 1863 1863 1863 1863 1863 1863 1873 1873 1873 1873 1873 1873 1873 1883 1883 1873 1873 1873 1873 1873 1873 1873 1873 1873 1873 1873 1873 1873 1873 1873 1883 1883 1883 1883 1883 1883 1883 1883 1883 1883 1883 1883 1894 1894 1894 1894 1894 1894 1894 1894 1894 1894 1894 1894 1894 1894 1894 1894 1894 1894 1894 1894 1894 1894 1894 1894 1894 1586 1579 1579 1579 1579 1579 1586 1586 1586 1594 1601 1609 1616 1624 1639 1671 1671 1671 1680 1688 1688 1688 1696 1873 1883 1883 1883 1894 1894 1894 1894 1894 1894 1894 1894 1894 1894 1894 1894 1894 1894 1894 1894 1894 1894 1894 1894 1894 1894 1894 1894 1894 1894 1904 1904 1904 1470 1470 1470 1470 1477 1477 1477 1477 1477 1483 1483 1489 1496 1509 1516 1523 1523 1523 1894 1894 1883 1883 1894 1894 1894 1894 1894 1894 1894 1894 1894 1894 1894 1894 1894 1894 1894 1894 1894 1894 1894 1894 1894 1894 1894 1894 1894 1883 1883 1883 1883 1883 1883 1883 1883 1883 1883 1883 1883 1883 1883 1883 1883 1883 1883 1883 1883 1883 1883 1883 1883 1883 1883 1883 1883 1883 1883 1883 1883 1883 1883 1883 1883 1883 1883 1883 1883 1883 1883 1894 1883 1883 1883 1894 1883 1883 1894 1883 1883 1894 1894 1894 1894 1894 1904 1904 1904 1427 1427 1421 1421 1421 1421 1421 1421 1421 1421 1421 1421 1421 1421 1421 1421 1873 1873 1873 1873 1873 1873 1873 1883 1883 1894 1883 1873 1873 1873 1873 1873 1873 1873 1873 1873 1873 1873 1873 1873 1873 1873 1873 1873 1873 1873 1873 1873 1873 1873 1873 1873 1873 1873 1873 1873 1873 1873 1873 1873 1873 1873 1873 1873 1873 1873 1873 1873 1873 1873 1873 1873 1873 1873 1873 1873 1873 1873 1873 1873 1873 1873 1873 1873 1873 1873 1873 1873 1873 1873 1883 1883 1523 1523 1523 1523 1523 1523 1523 1516 1516 1516 1516 1516 1516 1509 1509 1509 1509 1509 1503 1496 1489 1489 1863 1853 1853 1863 1863 1863 1863 1863 1863 1863 1863 1863 1863 1853 1853 1853 1853 1853 1853 1853 1853 1863 1863 1863 1863 1863 1873 1863 1863 1873 1873 1873 1873 1873 1873 1873 1873 1863 1863 1863 1863 1863 1863 1863 1863 1863 1863 1863 1863 1863 1863 1863 1863 1863 1863 1863 1863 1863 1863 1863 1853 1853 1853 1853 1863 1863 1863 1863 1873 1873 1883 1873 1873 1873 1873 1863 1863 1863 1863 1863 1863 1863 1863 1863 1863 1863 1863 1863 1853 1843 1843 1843 1843 1853 1843 1843 1843 1853 1853 1853 1853 1853 1853 1853 1853 1843 1843 1843 1843 1843 1843 1833 1833 1843 1843 1843 1853 1853 1853 1853 1853 1853 1853 1853 1853 1853 1853 1853 1853 1853 0 0 0 0 0 0 0
0 0 0 0 0 0 0 0 0 0 0 0 0 0 0 0 0 0 0 0 0 0 0 0 0 0 0 0 0 0 0 0 0 0 1843 1843 1853 1853 1853 1853 1863 1863 1863 1853 1853 1853 1853 1853 1853 1853 1863 1863 1863 1863 1863 1863 1873 1873 1873 1863 1863 1863 1873 1863 1863 1863 1853 1843 1843 1843 1843 1843 1853 1853 1853 1853 1853 1853 1853 1853 1853 1853 1853 1863 1863 1853 1853 1853 1853 1853 1853 1853 1853 1853 1853 1853 1853 1853 1853 1863 1863 1863 1863 1863 1853 1853 1863 1863 1863 1863 1863 1863 1863 1863 1863 1863 1863 1863 1863 1853 1853 1863 1873 1873 1873 1680 1680 1696 1705 1705 1705 1601 1601 1609 1609 1609 1609 1609 1616 1616 1616 1616 1616 1632 1639 1647 1655 1663 1663 1680 1863 1863 1863 1863 1853 1853 1853 1853 1863 1853 1853 1853 1863 1863 1863 1863 1863 1863 1863 1863 1863 1863 1863 1873 1863 1863 1873 1873 1863 1863 1863 1863 1863 1863 1863 1873 1873 1873 1873 1883 1883 1883 1883 1873 1873 1873 1873 1873 1873 1873 1873 1883 1894 1883 1883 1894 1894 1894 1894 1894 1894 1894 1894 1894 1894 1894 1894 1894 1894 1894 1883 1883 1883 1883 1894 1579 1579 1579 1579 1579 1579 1579 1586 1586 1586 1594 1601 1609 1616 1616 1632 1663 1671 1671 1671 1671 1680 1688 1863 1883 1883 1883 1883 1883 1883 1883 1894 1894 1894 1894 1894 1894 1894 1883 1883 1883 1883 1883 1883 1883 1883 1883 1883 1883 1883 1883 1894 1894 1894 1894 1904 1904 1470 1470 1470 1470 1477 1483 1483 1483 1483 1489 1489 1496 1503 1509 1516 1523 1523 1883 1883 1883 1883 1883 1883 1883 1883 1883 1883 1883 1894 1894 1894 1894 1894 1894 1894 1894 1894 1894 1894 1894 1894 1894 1883 1883 1883 1883 1883 1883 1883 1883 1883 1883 1883 1883 1883 1883 1883 1883 1883 1883 1883 1883 1883 1883 1873 1873 1883 1883 1883 1883 1883 1883 1883 1883 1883 1883 1883 1883 1883 1883 1883 1883 1883 1873 1873 1873 1873 1873 1883 1883 1873 1873 1873 1883 1883 1883 1883 1883 1883 1883 1883 1883 1883 1894 1894 1904 1904 1427 1427 1421 1421 1421 1421 1421 1421 1421 1421 1421 1421 1421 1421 1421 1853 1863 1863 1863 1873 1873 1873 1873 1873 1873 1883 1883 1873 1873 1873 1873 1873 1873 1873 1873 1873 1873 1873 1873 1863 1863 1863 1873 1873 1873 1873 1873 1873 1873 1873 1873 1873 1873 1873 1873 1873 1873 1873 1873 1873 1873 1873 1873 1873 1873 1873 1873 1873 1873 1873 1873 1863 1863 1873 1873 1873 1873 1873 1873 1873 1873 1863 1863 1863 1863 1863 1873 1873 1873 1873 1873 1873 1529 1523 1523 1523 1523 1523 1523 1523 1523 1523 1516 1516 1516 1516 1516 1516 1516 1516 1523 1523 1863 1863 1863 1853 1853 1853 1853 1853 1853 1863 1863 1863 1863 1863 1863 1853 1853 1853 1853 1853 1853 1853 1853 1853 1863 1863 1863 1863 1863 1863 1863 1863 1863 1863 1863 1863 1853 1853 1853 1853 1853 1853 1853 1853 1853 1853 1863 1863 1863 1863 1863 1863 1863 1863 1863 1863 1863 1863 1863 1863 1863 1863 1853 1853 1853 1853 1853 1863 1863 1863 1863 1863 1873 1873 1873 1863 1863 1863 1863 1863 1863 1863 1863 1863 1863 1853 1853 1853 1853 1853 1843 1843 1843 1843 1843 1843 1843 1843 1843 1843 1843 1843 1843 1843 1853 1843 1843 1843 1843 1843 1843 1843 1833 1833 1833 1843 1843 1843 1843 1843 1853 1853 1853 1853 1853 1853 1853 1843 1843 1853 1843 1843 0 0 0 0 0 0 0
0 0 0 0 0 0 0 0 0 0 0 0 0 0 0 0 0 0 0 0 0 0 0 0 0 0 0 0 0 0 0 0 0 0 1843 1843 1843 1853 1853 1853 1853 1853 1853 1853 1853 1853 1853 1843 1843 1853 1853 1853 1853 1863 1863 1863 1863 1863 1873 1863 1863 1863 1863 1863 1853 1853 1853 1843 1833 1833 1833 1833 1843 1843 1843 1843 1853 1853 1853 1853 1853 1853 1853 1853 1853 1853 1853 1853 1853 1853 1853 1853 1843 1843 1843 1843 1843 1853 1853 1853 1853 1853 1853 1853 1853 1853 1853 1853 1853 1853 1863 1863 1853 1853 1853 1863 1863 1853 1853 1853 1853 1863 1863 1873 1873 1680 1680 1696 1705 1705 1705 1601 1601 1609 1609 1609 1609 1616 1616 1616 1616 1616 1616 1632 1647 1647 1655 1663 1663 1671 1863 1863 1863 1863 1853 1853 1853 1853 1853 1853 1853 1853 1853 1853 1863 1863 1863 1863 1863 1863 1863 1863 1863 1863 1863 1863 1863 1863 1863 1863 1863 1863 1863 1863 1863 1863 1863 1863 1873 1873 1873 1883 1873 1873 1873 1873 1873 1863 1863 1863 1873 1873 1883 1883 1873 1873 1873 1883 1883 1883 1883 1883 1883 1883 1883 1883 1883 1883 1883 1883 1883 1883 1873 1873 1873 1579 1579 1579 1579 1579 1579 1579 1586 1586 1586 1594 1601 1609 1616 1616 1632 1647 1663 1663 1663 1671 1680 1873 1873 1873 1873 1873 1873 1883 1883 1883 1883 1883 1883 1883 1883 1883 1883 1873 1873 1873 1873 1873 1873 1873 1873 1873 1873 1883 1873 1873 1883 1883 1894 1894 1904 1904 1470 1470 1470 1470 1483 1483 1483 1483 1483 1489 1489 1496 1503 1509 1516 1529 1529 1883 1883 1883 1883 1883 1883 1883 1883 1883 1883 1883 1883 1883 1883 1883 1883 1883 1883 1883 1883 1883 1883 1883 1883 1883 1883 1883 1883 1883 1883 1873 1873 1873 1873 1873 1883 1883 1883 1883 1883 1883 1883 1873 1873 1883 1873 1873 1873 1873 1883 1883 1883 1883 1883 1883 1883 1883 1883 1873 1873 1883 1883 1883 1873 1873 1873 1873 1873 1873 1873 1873 1873 1873 1873 1873 1873 1873 1873 1873 1873 1873 1873 1883 1883 1883 1883 1883 1894 1904 1904 1427 1427 1427 1421 1421 1421 1421 1421 1421 1421 1421 1421 1421 1427 1427 1853 1853 1853 1863 1873 1873 1873 1873 1873 1873 1883 1883 1863 1863 1863 1863 1873 1873 1873 1873 1863 1863 1863 1863 1863 1863 1863 1863 1863 1863 1863 1863 1873 1863 1863 1863 1863 1873 1873 1873 1873 1873 1873 1873 1873 1873 1873 1873 1873 1873 1873 1873 1873 1873 1863 1863 1863 1863 1863 1863 1863 1873 1873 1873 1873 1863 1863 1863 1863 1863 1863 1863 1863 1863 1863 1873 1873 1523 1523 1523 1523 1523 1523 1523 1523 1523 1523 1516 1516 1516 1523 1516 1516 1516 1516 1523 1523 1853 1853 1853 1843 1843 1853 1853 1853 1853 1863 1863 1863 1863 1863 1853 1853 1853 1853 1853 1843 1843 1843 1853 1853 1853 1853 1853 1863 1863 1853 1853 1853 1853 1853 1853 1853 1853 1853 1843 1843 1843 1853 1853 1853 1853 1853 1853 1853 1853 1853 1853 1853 1853 1853 1853 1853 1853 1853 1853 1853 1853 1853 1853 1853 1853 1853 1853 1853 1853 1853 1853 1863 1863 1863 1863 1863 1863 1863 1863 1863 1863 1863 1863 1863 1853 1853 1853 1853 1853 1853 1843 1833 1833 1843 1843 1843 1843 1843 1843 1843 1843 1843 1843 1843 1843 1843 1843 1833 1833 1833 1833 1833 1833 1823 1823 1833 1833 1833 1833 1843 1843 1843 1843 1843 1843 1843 1843 1843 1843 1843 1843 1843 0 0 0 0 0 0 0
0 0 0 0 0 0 0 0 0 0 0 0 0 0 0 0 0 0 0 0 0 0 0 0 0 0 0 0 0 0 0 0 0 0 1843 1843 1843 1843 1843 1853 1853 1853 1853 1853 1853 1843 1843 1843 1843 1843 1843 1843 1853 1853 1853 1853 1863 1863 1863 1863 1863 1863 1863 1853 1853 1853 1853 1833 1833 1833 1833 1833 1833 1833 1833 1843 1843 1843 1843 1853 1853 1853 1853 1853 1853 1853 1853 1853 1853 1843 1843 1843 1833 1833 1843 1843 1843 1843 1843 1843 1843 1843 1843 1843 1843 1843 1843 1843 1843 1843 1853 1853 1843 1843 1843 1853 1853 1853 1853 1853 1853 1853 1853 1853 1853 1688 1688 1696 1705 1713 1713 1601 1601 1609 1616 1609 1609 1616 1616 1616 1616 1616 1624 1639 1647 1647 1655 1663 1663 1663 1853 1853 1863 1853 1843 1843 1843 1843 1853 1853 1853 1853 1853 1853 1853 1853 1853 1853 1853 1863 1863 1863 1863 1863 1863 1863 1863 1863 1863 1863 1863 1863 1863 1863 1863 1863 1863 1863 1863 1863 1863 1873 1873 1863 1863 1863 1863 1863 1863 1863 1863 1863 1873 1873 1873 1873 1873 1873 1873 1873 1873 1873 1883 1883 1883 1883 1883 1883 1883 1883 1873 1873 1863 1863 1853 1579 1579 1579 1579 1579 1579 1579 1586 1586 1586 1594 1601 1601 1609 1616 1624 1639 1663 1663 1663 1663 1671 1873 1873 1873 1873 1873 1873 1873 1873 1873 1873 1873 1883 1883 1883 1883 1873 1863 1863 1863 1863 1863 1863 1863 1863 1873 1873 1873 1873 1873 1883 1883 1883 1894 1904 1904 1470 1470 1477 1483 1483 1483 1489 1489 1489 1489 1489 1496 1503 1503 1516 1516 1873 1873 1873 1883 1873 1873 1883 1883 1883 1883 1883 1883 1883 1883 1883 1883 1883 1883 1883 1883 1883 1883 1883 1883 1883 1883 1873 1873 1873 1873 1873 1873 1873 1873 1873 1873 1873 1873 1873 1873 1873 1873 1873 1873 1873 1873 1873 1873 1873 1873 1873 1873 1873 1873 1873 1873 1873 1873 1873 1873 1863 1863 1863 1863 1873 1873 1873 1873 1873 1873 1873 1873 1873 1873 1863 1863 1863 1873 1873 1873 1873 1873 1873 1873 1873 1883 1883 1883 1883 1904 1904 1427 1427 1427 1421 1421 1421 1421 1421 1421 1421 1421 1427 1427 1427 1427 1853 1853 1853 1863 1863 1863 1863 1873 1873 1873 1873 1873 1863 1863 1863 1863 1863 1863 1863 1863 1863 1863 1863 1863 1853 1853 1853 1863 1863 1863 1863 1863 1863 1863 1863 1863 1863 1863 1863 1863 1863 1863 1863 1863 1863 1863 1863 1863 1863 1863 1863 1863 1863 1863 1863 1863 1863 1863 1863 1863 1863 1863 1863 1863 1863 1863 1863 1863 1863 1863 1863 1863 1863 1863 1863 1863 1863 1523 1523 1523 1523 1523 1523 1529 1523 1523 1523 1523 1523 1523 1523 1516 1516 1523 1523 1529 1843 1843 1843 1843 1843 1843 1853 1853 1853 1853 1853 1853 1853 1853 1853 1853 1853 1853 1853 1853 1843 1843 1843 1843 1853 1853 1853 1853 1853 1853 1853 1853 1853 1853 1853 1843 1843 1843 1843 1843 1843 1843 1843 1843 1853 1853 1853 1853 1853 1853 1853 1853 1853 1853 1853 1853 1853 1853 1853 1843 1843 1843 1853 1843 1843 1843 1843 1843 1843 1843 1843 1843 1843 1853 1853 1853 1853 1853 1863 1863 1853 1853 1853 1853 1853 1853 1843 1843 1843 1853 1853 1833 1833 1833 1833 1843 1833 1833 1833 1833 1833 1833 1833 1833 1833 1833 1833 1833 1833 1823 1823 1833 1833 1823 1823 1823 1823 1823 1823 1823 1833 1843 1843 1843 1843 1843 1843 1843 1833 1833 1833 1833 1833 0 0 0 0 0 0 0
0 0 0 0 0 0 0 0 0 0 0 0 0 0 0 0 0 0 0 0 0 0 0 0 0 0 0 0 0 0 0 0 0 0 1833 1833 1843 1843 1843 1843 1843 1853 1853 1843 1843 1843 1843 1843 1843 1843 1843 1843 1843 1853 1853 1853 1853 1853 1853 1863 1853 1853 1853 1853 1843 1843 1843 1833 1833 1833 1833 1833 1833 1833 1833 1833 1843 1843 1843 1843 1843 1843 1843 1853 1853 1843 1843 1843 1843 1843 1843 1843 1833 1833 1833 1833 1833 1833 1833 1833 1833 1843 1843 1843 1833 1833 1833 1833 1843 1843 1843 1843 1843 1843 1843 1843 1843 1843 1843 1843 1843 1853 1853 1843 1843 1688 1688 1696 1713 1713 1713 1713 1609 1609 1616 1609 1609 1616 1616 1616 1616 1616 1632 1639 1647 1655 1655 1663 1663 1663 1853 1853 1853 1853 1843 1843 1843 1843 1843 1843 1843 1843 1843 1843 1843 1853 1853 1853 1853 1853 1853 1863 1853 1853 1853 1853 1863 1863 1863 1863 1863 1863 1853 1853 1853 1853 1853 1863 1863 1863 1863 1863 1863 1863 1863 1863 1863 1863 1863 1863 1863 1863 1863 1863 1863 1863 1863 1873 1873 1873 1873 1873 1873 1873 1873 1873 1883 1883 1883 1873 1873 1873 1863 1863 1853 1853 1579 1579 1579 1579 1579 1586 1586 1586 1586 1594 1601 1601 1609 1616 1624 1639 1647 1655 1655 1655 1671 1863 1863 1863 1863 1863 1863 1863 1863 1873 1863 1863 1873 1873 1873 1873 1863 1853 1853 1863 1853 1853 1863 1863 1863 1863 1863 1873 1863 1863 1873 1873 1873 1883 1894 1894 1470 1470 1483 1483 1489 1489 1489 1489 1489 1489 1489 1496 1503 1503 1503 1496 1863 1863 1863 1873 1873 1873 1873 1873 1873 1873 1873 1873 1873 1873 1873 1873 1873 1873 1873 1873 1873 1873 1873 1873 1873 1873 1873 1873 1863 1863 1873 1863 1863 1863 1863 1863 1873 1873 1873 1873 1873 1873 1873 1873 1873 1873 1863 1863 1863 1863 1873 1873 1873 1873 1873 1873 1873 1873 1873 1873 1863 1863 1863 1863 1873 1873 1873 1873 1873 1863 1863 1863 1863 1863 1863 1863 1863 1863 1873 1873 1873 1873 1873 1873 1873 1873 1873 1883 1883 1894 1894 1427 1427 1427 1421 1421 1421 1421 1421 1421 1421 1421 1427 1427 1427 1427 1853 1853 1853 1863 1863 1863 1863 1863 1873 1873 1873 1873 1863 1863 1863 1863 1863 1863 1863 1863 1863 1863 1863 1853 1853 1843 1843 1853 1853 1853 1853 1853 1863 1863 1863 1863 1863 1863 1863 1863 1863 1863 1863 1863 1863 1863 1863 1863 1863 1863 1863 1863 1863 1863 1863 1863 1863 1863 1863 1863 1863 1863 1863 1863 1863 1863 1863 1853 1853 1863 1863 1863 1863 1853 1853 1863 1529 1523 1523 1523 1523 1529 1529 1529 1529 1529 1529 1523 1523 1523 1523 1523 1523 1523 1529 1536 1833 1833 1833 1843 1833 1833 1843 1843 1853 1853 1853 1853 1853 1853 1853 1853 1853 1843 1843 1843 1843 1833 1833 1843 1843 1843 1843 1843 1853 1853 1843 1843 1843 1843 1843 1843 1843 1843 1843 1833 1833 1833 1833 1843 1843 1843 1843 1843 1843 1853 1853 1843 1843 1843 1843 1843 1843 1843 1843 1843 1843 1843 1843 1843 1843 1833 1833 1843 1843 1833 1833 1833 1833 1843 1843 1843 1843 1853 1853 1853 1843 1843 1843 1843 1843 1843 1833 1833 1833 1843 1843 1833 1833 1833 1833 1833 1833 1833 1833 1833 1833 1833 1833 1833 1833 1833 1833 1833 1823 1823 1823 1823 1823 1823 1823 1823 1813 1813 1813 1823 1823 1833 1833 1833 1833 1833 1833 1833 1833 1833 1823 1823 1823 0 0 0 0 0 0 0
0 0 0 0 0 0 0 0 0 0 0 0 0 0 0 0 0 0 0 0 0 0 0 0 0 0 0 0 0 0 0 0 0 0 1833 1833 1833 1833 1843 1843 1843 1843 1843 1843 1843 1843 1843 1843 1843 1843 1843 1843 1843 1843 1843 1843 1853 1853 1853 1853 1853 1853 1853 1853 1843 1843 1843 1833 1833 1833 1833 1833 1833 1833 1833 1833 1833 1833 1833 1843 1843 1843 1843 1843 1843 1843 1843 1843 1833 1833 1833 1833 1833 1833 1833 1833 1833 1833 1833 1833 1833 1833 1833 1833 1833 1833 1833 1833 1833 1843 1833 1833 1833 1833 1843 1843 1843 1843 1843 1833 1833 1843 1843 1833 1833 1713 1713 1713 1713 1722 1713 1713 1609 1609 1616 1616 1616 1616 1616 1616 1616 1624 1632 1632 1647 1647 1655 1663 1663 1853 1853 1843 1843 1843 1833 1833 1833 1833 1843 1833 1833 1843 1843 1843 1843 1843 1843 1843 1843 1843 1853 1853 1853 1853 1853 1853 1863 1853 1853 1853 1853 1853 1853 1853 1853 1853 1853 1853 1853 1853 1863 1863 1853 1853 1853 1853 1853 1853 1853 1853 1853 1863 1863 1863 1863 1863 1863 1863 1863 1863 1863 1863 1863 1863 1863 1863 1863 1863 1873 1863 1863 1863 1863 1853 1853 1853 1579 1579 1579 1579 1579 1586 1586 1586 1586 1594 1601 1601 1609 1616 1624 1639 1647 1655 1655 1655 1853 1863 1863 1863 1863 1863 1863 1863 1863 1863 1863 1863 1863 1863 1863 1853 1853 1853 1853 1853 1853 1853 1853 1853 1853 1853 1863 1863 1863 1863 1863 1863 1863 1873 1873 1873 1489 1489 1483 1483 1489 1489 1489 1489 1489 1489 1496 1496 1496 1496 1496 1496 1853 1853 1863 1863 1863 1863 1863 1863 1873 1873 1863 1863 1863 1873 1873 1873 1873 1873 1873 1873 1863 1853 1853 1863 1863 1863 1863 1863 1863 1863 1863 1853 1853 1853 1853 1853 1863 1863 1863 1863 1863 1863 1863 1863 1863 1863 1853 1853 1863 1863 1853 1853 1873 1863 1863 1863 1863 1863 1863 1863 1863 1863 1863 1863 1863 1863 1863 1863 1863 1863 1863 1863 1863 1863 1863 1863 1863 1863 1863 1863 1863 1863 1873 1873 1873 1873 1873 1873 1873 1883 1883 1427 1427 1427 1421 1421 1421 1421 1421 1421 1421 1421 1427 1427 1427 1433 1853 1853 1853 1853 1863 1863 1863 1863 1863 1863 1863 1863 1853 1853 1853 1853 1853 1863 1853 1853 1853 1853 1853 1843 1843 1843 1843 1843 1853 1853 1853 1853 1853 1853 1853 1853 1853 1853 1853 1853 1853 1853 1853 1853 1853 1853 1853 1853 1853 1853 1853 1853 1853 1853 1853 1853 1853 1853 1853 1853 1853 1853 1853 1853 1853 1853 1853 1853 1853 1853 1853 1853 1853 1853 1853 1853 1529 1529 1529 1523 1523 1529 1529 1529 1529 1529 1529 1529 1529 1529 1529 1523 1523 1523 1529 1536 1833 1833 1833 1833 1823 1823 1833 1833 1843 1843 1843 1853 1853 1853 1843 1843 1843 1843 1833 1833 1833 1833 1833 1833 1833 1833 1833 1843 1843 1843 1843 1843 1843 1843 1843 1843 1843 1833 1833 1833 1833 1833 1833 1833 1833 1843 1843 1833 1833 1843 1843 1833 1833 1833 1843 1843 1843 1843 1843 1833 1833 1833 1833 1843 1833 1833 1833 1833 1843 1833 1823 1823 1833 1833 1833 1833 1833 1843 1843 1843 1843 1833 1833 1833 1823 1823 1823 1823 1823 1823 1823 1813 1813 1823 1823 1823 1823 1823 1823 1823 1823 1823 1823 1823 1823 1823 1823 1823 1823 1823 1823 1823 1823 1813 1813 1813 1813 1813 1813 1813 1823 1823 1833 1833 1833 1833 1823 1823 1823 1823 1823 1823 1823 0 0 0 0 0 0 0
