0 0 0 0 0 0 0 0 0 0 0 0 0 0 0 0 0 0 0 0 0 0 0 0 0 0 0 0 0 0 0 0 0 0 2005 2005 2016 2016 2016 2016 2016 2016 2016 2016 2016 2016 2016 2016 2016 2016 2016 2028 2016 2016 2016 2016 2016 2016 2016 2016 2016 2016 2028 2028 2028 2016 2016 2028 2028 2028 2005 2005 2005 2005 2005 2016 2016 2016 2016 2016 2016 2016 2005 2005 2005 2005 2005 2005 2005 2016 2016 2028 2028 2028 2028 2028 2028 2016 2005 2005 2005 1594 1594 1594 1594 1594 1594 1594 1594 1594 1594 1579 1543 1529 1529 1529 1529 1529 1529 1523 1523 1523 1529 1529 1536 1536 1543 1543 1550 1550 1557 2053 2040 2040 2040 2040 2040 2040 2040 2040 2040 2040 2040 2040 2040 1785 1785 1785 1794 1794 1794 1804 1813 1813 1823 1823 1823 1936 1936 1936 1947 1947 1947 1947 1947 1947 1959 1970 2016 2028 2040 2040 2053 2053 2053 2053 2040 2040 2028 2028 2016 2005 2005 2005 2005 2005 2016 2016 2016 2028 2028 2040 2053 2053 2053 2053 2053 2053 2053 2053 2053 2065 2065 2065 2065 2065 2065 2065 2053 2053 2053 2078 2078 1509 1509 1509 1509 1509 1509 1509 1503 1503 1509 1509 1516 1523 1529 1529 1529 1503 1496 1489 1489 1496 2078 2078 2078 2078 2078 2078 2078 2065 2065 2065 2078 2078 2078 2078 1833 1833 1833 1833 1833 1843 1843 1843 1853 1894 1926 1926 1936 1936 1947 1959 1970 1981 2053 2065 2065 2078 2078 2078 2078 2078 1421 1421 1421 1421 1421 1421 1421 1421 1421 1421 1427 1427 1427 1433 1439 1439 1439 1433 1433 1433 1433 1433 1427 1427 1427 1427 1427 1427 1421 1421 1421 1421 1421 1421 1421 1421 1421 1421 1421 1421 1421 1421 1421 1421 1421 1415 1415 1421 1421 1421 1421 1421 1421 1421 1421 1421 1421 1421 1410 1410 1410 1410 1410 1410 1410 1410 1410 1410 1410 1410 1410 1410 1410 1410 1410 1404 1404 1410 1410 1410 1404 1404 1404 1404 1404 1404 1398 1398 1398 1398 1398 1398 1398 1398 1404 1404 1404 1398 1398 1398 1398 1398 1398 1398 1398 1398 1398 1398 1398 1392 1392 1392 1387 1387 1381 1381 1376 1376 1376 1376 1376 1376 1376 1376 1376 1376 1376 2065 2065 2065 2065 2078 2078 2090 2090 2090 2090 2090 2090 2090 2103 2078 2078 2078 2078 2090 2078 2078 2078 2129 1915 1915 1915 1915 1915 1915 1915 1915 1915 1904 1904 1915 1915 2078 2078 2078 2078 2078 2065 2065 2065 2065 2065 2065 2065 2065 2065 2065 2065 2078 2065 2065 2078 2065 2065 2078 2078 2078 2078 2078 2078 2078 2090 2090 2078 2078 2090 2090 2078 2078 2078 1503 1503 1496 1489 1483 1483 1483 1483 1483 1483 1483 1483 1483 1483 1483 1477 1477 1477 1477 1477 1477 1470 1470 1470 2065 2065 2065 2065 2065 2065 2065 2065 2065 2053 2053 2053 2053 2065 2065 2065 2065 2065 2065 2065 2065 2065 2065 2065 2065 2065 2065 2065 2065 2065 2065 2065 2065 2065 2065 2065 2065 2065 2065 2065 2065 2065 2065 2065 2065 2065 2065 2065 2065 2065 2078 2078 2078 2078 2078 2078 2078 2078 2078 2078 2078 2078 2065 2065 2065 2078 2065 2065 2078 2078 2078 2078 2078 2078 2078 2078 2078 2078 2078 2078 2065 2065 2065 2078 2078 2065 2065 2065 2065 2065 2065 2053 2053 2053 2053 2040 2040 2040 2040 2040 2040 2040 2040 2040 2040 2053 2040 2040 2040 2040 2040 2040 2040 2040 2040 2040 2040 2040 2040 2040 2040 2040 2040 2040 2053 2053 2040 2040 2040 2040 2040 2040 2040 0 0 0 0 0 0 0 0
0 0 0 0 0 0 0 0 0 0 0 0 0 0 0 0 0 0 0 0 0 0 0 0 0 0 0 0 0 0 0 0 0 0 2005 2005 2016 2016 2016 2016 2016 2016 2016 2016 2016 2016 2016 2016 2016 2016 2016 2016 2016 2016 2016 2016 2016 2016 2016 2016 2016 2016 2028 2028 2028 2016 2016 2016 2005 2005 2005 2005 2005 2005 2005 2005 2005 2005 2005 2005 2005 2005 1993 1993 1993 1993 1993 2005 2005 2005 2005 2016 2016 2016 2016 2016 2028 2016 2005 2005 2005 1594 1594 1594 1594 1594 1594 1594 1594 1594 1594 1579 1579 1536 1536 1529 1529 1529 1529 1529 1529 1529 1529 1529 1536 1536 1543 1543 1543 1550 1550 2040 2040 2028 2028 2028 2028 2028 2040 2040 2040 2040 2040 2040 2040 1785 1785 1785 1785 1794 1794 1794 1804 1804 1804 1813 1813 1936 1936 1936 1947 1947 1947 1947 1947 1947 1959 1959 2005 2028 2040 2040 2040 2040 2040 2040 2040 2040 2028 2028 2016 2005 2005 2005 2005 2005 2016 2016 2016 2028 2028 2040 2040 2040 2053 2053 2053 2053 2053 2053 2053 2053 2053 2053 2053 2053 2053 2053 2040 2040 2040 2065 2065 1503 1503 1503 1503 1503 1509 1509 1503 1503 1509 1509 1516 1529 1529 1529 1529 1503 1496 1489 1489 2065 2065 2078 2078 2078 2078 2078 2078 2065 2065 2065 2065 2078 2078 1823 1823 1823 1833 1833 1833 1833 1843 1843 1853 1926 1926 1926 1936 1936 1947 1959 1970 2028 2053 2053 2065 2065 2078 2078 2078 2078 1421 1421 1421 1421 1421 1421 1421 1421 1421 1427 1427 1433 1433 1439 1439 1439 1439 1439 1433 1433 1433 1433 1427 1427 1427 1427 1427 1427 1421 1421 1421 1421 1421 1421 1421 1421 1421 1421 1421 1421 1421 1421 1421 1421 1421 1421 1421 1421 1421 1421 1421 1421 1421 1421 1421 1421 1421 1421 1415 1410 1410 1410 1415 1410 1410 1415 1415 1410 1410 1410 1410 1410 1410 1410 1410 1410 1410 1410 1410 1410 1410 1410 1410 1410 1404 1404 1404 1404 1404 1404 1404 1404 1404 1404 1404 1404 1404 1404 1404 1398 1398 1398 1398 1398 1398 1398 1398 1398 1398 1392 1392 1392 1387 1387 1381 1381 1376 1376 1376 1376 1376 1376 1376 1376 1376 1376 1376 1376 2065 2065 2065 2078 2078 2078 2078 2078 2078 2078 2078 2090 2090 2078 2078 2065 2065 2078 2065 2065 2065 2065 1915 1915 1915 1915 1915 1915 1915 1915 1915 1915 1915 2053 2065 2065 2065 2078 2078 2065 2065 2065 2065 2065 2065 2065 2065 2065 2065 2065 2065 2065 2065 2065 2065 2065 2065 2065 2065 2065 2065 2078 2078 2078 2078 2078 2065 2065 2078 2078 2065 2065 2065 1503 1503 1496 1489 1489 1483 1483 1483 1483 1483 1483 1483 1483 1483 1483 1477 1477 1477 1477 1477 1477 1477 1477 1477 2065 2065 2065 2065 2053 2053 2053 2053 2053 2053 2053 2053 2053 2053 2053 2053 2053 2053 2053 2053 2053 2053 2065 2053 2053 2053 2053 2065 2065 2065 2065 2065 2065 2065 2065 2065 2065 2065 2065 2065 2065 2053 2053 2053 2053 2065 2065 2065 2065 2065 2065 2065 2065 2065 2065 2065 2065 2065 2065 2065 2065 2065 2065 2065 2065 2065 2065 2065 2065 2065 2065 2065 2078 2078 2065 2065 2065 2065 2065 2065 2065 2065 2065 2065 2065 2065 2053 2053 2053 2053 2053 2040 2040 2040 2040 2040 2040 2028 2028 2028 2028 2028 2040 2040 2040 2040 2040 2028 2028 2028 2028 2028 2028 2028 2028 2028 2028 2028 2028 2028 2040 2040 2040 2040 2040 2040 2028 2028 2028 2040 2028 2028 2028 0 0 0 0 0 0 0 0
0 0 0 0 0 0 0 0 0 0 0 0 0 0 0 0 0 0 0 0 0 0 0 0 0 0 0 0 0 0 0 0 0 0 2005 2005 2005 2005 2005 2005 2005 2005 2005 2005 2016 2016 2016 2016 2016 2016 2005 2005 2005 2005 2005 2016 2016 2005 2005 2016 2016 2016 2016 2016 2016 2016 2005 2005 2005 2005 1993 1993 2005 2005 2005 2005 2005 2005 2005 2005 2005 2005 1993 1993 1993 1993 1993 1993 1993 2005 2005 2016 2016 2016 2016 2016 2016 2016 2016 2016 2016 1586 1586 1594 1594 1594 1594 1594 1594 1594 1594 1586 1586 1543 1536 1536 1529 1529 1529 1529 1529 1529 1529 1529 1536 1536 1543 1543 1543 1550 1550 2040 2028 2028 2016 2016 2028 2028 2028 2028 2028 2028 2028 2028 2040 1785 1785 1785 1785 1794 1794 1794 1794 1804 1804 1804 1804 1947 1947 1947 1947 1947 1947 1947 1947 1947 1959 1959 1993 2016 2028 2028 2040 2040 2040 2040 2040 2028 2028 2016 2016 2005 2005 2005 2005 2005 2016 2016 2016 2028 2028 2028 2040 2040 2040 2040 2040 2040 2040 2040 2040 2053 2053 2053 2053 2040 2040 2040 2040 2040 2040 2040 2040 2040 1503 1503 1503 1503 1509 1509 1503 1503 1509 1516 1516 1529 1529 1529 1550 1550 2053 2053 2065 2053 2053 2065 2065 2065 2078 2078 2078 2065 2065 2065 2065 2065 2065 1813 1813 1813 1823 1823 1833 1833 1833 1843 1853 1926 1926 1926 1936 1936 1947 1959 1970 2016 2053 2053 2065 2065 2065 2065 2078 2078 1421 1421 1421 1421 1421 1421 1421 1421 1421 1427 1433 1433 1433 1439 1439 1439 1439 1439 1433 1433 1433 1433 1439 1433 1433 1427 1427 1427 1421 1421 1421 1421 1421 1421 1421 1421 1421 1421 1421 1421 1421 1421 1427 1421 1421 1421 1421 1421 1421 1421 1421 1421 1421 1421 1421 1421 1421 1421 1415 1410 1410 1410 1415 1415 1415 1415 1415 1410 1410 1410 1410 1410 1410 1410 1410 1410 1410 1410 1410 1410 1410 1410 1410 1410 1410 1410 1410 1410 1410 1410 1410 1410 1410 1410 1410 1410 1410 1410 1410 1404 1404 1404 1398 1398 1398 1398 1398 1398 1398 1392 1392 1392 1387 1387 1381 1381 1381 1376 1376 1376 1376 1376 1376 1376 1376 1376 1376 1376 2065 2065 2065 2065 2065 2065 2065 2065 2065 2065 2065 2078 2078 2065 2065 2065 2065 2065 2053 2053 2053 2053 1915 1915 1915 1915 1915 1915 1915 1915 1915 1915 2040 2040 2053 2053 2053 2065 2065 2053 2053 2053 2053 2053 2053 2053 2053 2053 2053 2053 2053 2053 2053 2053 2053 2053 2053 2053 2053 2065 2065 2065 2065 2065 2065 2065 2053 2053 2065 2053 2053 2065 2065 1503 1496 1496 1489 1489 1483 1483 1483 1483 1483 1483 1483 1483 1483 1483 1483 1477 1477 1477 1477 1477 1477 1477 2053 2053 2053 2053 2053 2040 2040 2040 2040 2040 2040 2040 2040 2040 2040 2040 2040 2040 2053 2053 2040 2040 2053 2053 2053 2040 2040 2040 2053 2053 2053 2053 2053 2065 2065 2053 2053 2053 2053 2053 2053 2053 2053 2040 2040 2040 2040 2053 2053 2053 2053 2065 2065 2065 2065 2065 2053 2053 2053 2065 2065 2065 2065 2053 2053 2053 2053 2053 2053 2053 2053 2053 2065 2065 2065 2065 2053 2053 2053 2053 2053 2053 2053 2053 2053 2053 2053 2040 2040 2040 2040 2040 2040 2028 2028 2040 2028 2028 2028 2028 2028 2028 2028 2028 2028 2028 2028 2028 2028 2028 2028 2028 2028 2028 2016 2016 2016 2016 2016 2028 2028 2028 2028 2028 2028 2028 2028 2016 2016 2028 2016 2016 2016 2016 0 0 0 0 0 0 0 0
0 0 0 0 0 0 0 0 0 0 0 0 0 0 0 0 0 0 0 0 0 0 0 0 0 0 0 0 0 0 0 0 0 0 2005 2005 2005 2005 2005 2005 2005 2005 2005 2005 2016 2016 2016 2016 2016 2016 2005 2005 2005 2005 2005 2005 2005 2005 2005 2005 2005 2016 2005 2005 2016 2016 1993 1993 1993 1993 1993 1993 2005 2005 2005 2005 2005 2005 2005 2005 1993 1993 1981 1981 1981 1993 1993 1993 1993 1993 1993 2005 2005 2005 2016 2016 2016 2016 2016 2016 2016 1579 1579 1586 1594 1594 1601 1594 1594 1594 1594 1586 1586 1543 1543 1536 1529 1529 1529 1529 1529 1529 1529 1529 1536 1536 1543 1543 1543 1543 1543 1543 2028 2016 2016 2016 2016 2016 2028 2028 2028 2028 2028 2028 2040 1785 1785 1785 1785 1794 1794 1794 1794 1804 1804 1804 2005 1959 1947 1947 1947 1947 1947 1947 1947 1947 1959 1970 1993 2005 2016 2028 2040 2040 2040 2040 2028 2028 2016 2016 2016 2016 2005 2005 2016 2016 2016 2016 2016 2028 2028 2028 2028 2040 2040 2040 2040 2040 2040 2040 2040 2040 2040 2040 2040 2040 2040 2040 2040 2040 2040 2040 2040 1503 1503 1503 1503 1503 1509 1509 1503 1503 1509 1516 1523 1529 1529 1529 1543 1543 2040 2040 2053 2053 2053 2065 2065 2065 2065 2065 2065 2053 2053 2065 2065 1804 1804 1804 1813 1813 1813 1813 1823 1833 1833 1843 1853 1926 1926 1926 1936 1936 1959 1970 1970 2016 2028 2040 2053 2053 2065 2065 2065 2065 1421 1421 1421 1421 1421 1421 1421 1421 1421 1427 1433 1439 1439 1439 1445 1445 1439 1439 1439 1439 1439 1439 1439 1433 1433 1433 1427 1427 1421 1421 1421 1421 1415 1415 1421 1421 1421 1427 1421 1421 1421 1421 1427 1427 1421 1421 1421 1421 1421 1421 1421 1421 1421 1421 1421 1421 1421 1421 1410 1410 1410 1410 1415 1415 1415 1415 1415 1410 1410 1410 1410 1410 1410 1410 1410 1410 1410 1410 1410 1410 1410 1410 1410 1410 1410 1410 1410 1410 1410 1410 1410 1410 1410 1410 1410 1410 1410 1410 1410 1410 1404 1404 1404 1404 1404 1404 1398 1398 1392 1392 1392 1392 1387 1387 1387 1387 1387 1387 1381 1381 1376 1376 1376 1376 1376 1376 1376 1376 2065 2065 2065 2053 2053 2065 2065 2065 2065 2065 2065 2065 2065 2053 2053 2053 2053 2053 2053 2053 2053 1915 1915 1915 1915 1915 1915 1915 1915 1915 1915 1915 2040 2040 2053 2053 2053 2053 2053 2053 2053 2053 2053 2053 2053 2053 2053 2053 2053 2053 2053 2053 2053 2053 2053 2053 2053 2053 2053 2053 2053 2053 2053 2053 2053 2053 2053 2053 2053 2053 2040 2040 2040 1503 1496 1496 1489 1489 1483 1483 1483 1483 1483 1483 1483 1483 1483 1483 1483 1483 1483 1483 1483 1477 1477 1477 2053 2053 2053 2053 2053 2040 2040 2040 2040 2040 2040 2040 2040 2040 2040 2040 2040 2040 2040 2040 2040 2040 2040 2040 2040 2040 2040 2040 2040 2040 2040 2040 2040 2053 2053 2053 2053 2053 2040 2040 2040 2040 2040 2028 2028 2040 2040 2040 2040 2040 2053 2053 2053 2053 2053 2053 2053 2053 2053 2053 2053 2053 2053 2053 2053 2053 2040 2040 2040 2053 2053 2053 2053 2053 2053 2053 2053 2053 2040 2040 2040 2053 2053 2053 2040 2040 2040 2040 2040 2040 2040 2040 2028 2028 2028 2028 2028 2028 2028 2028 2028 2028 2028 2028 2028 2028 2028 2028 2016 2016 2016 2016 2016 2016 2016 2016 2016 2016 2016 2028 2028 2028 2028 2028 2028 2028 2016 2016 2016 2016 2016 2016 2005 2005 0 0 0 0 0 0 0 0
0 0 0 0 0 0 0 0 0 0 0 0 0 0 0 0 0 0 0 0 0 0 0 0 0 0 0 0 0 0 0 0 0 0 1993 1993 1993 1993 1993 1993 1993 1993 2005 2005 2005 2005 2005 2005 2005 2005 2005 2005 1993 1993 2005 2005 2005 2005 2005 2005 2005 2005 2005 2005 2005 2005 1993 1993 1993 1993 1993 1993 1993 1993 1993 1993 1993 1993 1993 1993 1993 1993 1981 1981 1981 1981 1993 1993 1993 1993 1993 2005 2005 2005 2005 2005 2005 2005 2005 2016 2016 1579 1579 1586 1594 1594 1601 1601 1601 1601 1601 1594 1594 1543 1536 1529 1529 1529 1529 1529 1529 1529 1529 1529 1536 1536 1543 1543 1543 1543 1543 1543 2016 2016 2005 2005 2016 2016 2016 2028 2028 2028 2028 2028 2040 1785 1785 1785 1785 1794 1794 1794 1794 1794 1804 1804 1993 1981 1959 1959 1959 1947 1947 1959 1959 1959 1970 1970 1993 2005 2016 2016 2028 2028 2028 2028 2028 2016 2016 2016 2016 2016 2016 2016 2016 2016 2016 2016 2016 2028 2028 2028 2028 2028 2028 2040 2040 2040 2040 2040 2040 2040 2040 2040 2040 2040 2040 2040 2028 2028 2028 2028 2028 1503 1503 1503 1503 1503 1509 1509 1509 1509 1509 1516 1523 1529 1529 1529 1543 1543 2040 2040 2040 2040 2040 2040 2053 2053 2053 2053 2053 2053 2053 2053 2065 1804 1804 1804 1804 1804 1813 1813 1823 1823 1833 1833 1926 1936 1936 1936 1936 1947 1959 1970 1970 2016 2028 2028 2040 2053 2053 2053 2053 2053 1421 1421 1421 1421 1427 1421 1421 1421 1421 1427 1433 1439 1439 1445 1445 1445 1445 1439 1439 1439 1439 1439 1439 1439 1433 1433 1433 1433 1421 1421 1421 1421 1415 1415 1421 1421 1427 1427 1421 1421 1427 1427 1427 1427 1427 1421 1421 1421 1421 1421 1421 1421 1421 1421 1421 1421 1421 1415 1410 1410 1410 1410 1415 1415 1415 1415 1415 1410 1410 1410 1410 1410 1410 1410 1410 1410 1410 1410 1410 1410 1410 1410 1410 1410 1410 1410 1410 1410 1410 1410 1410 1410 1410 1410 1410 1410 1410 1410 1410 1410 1410 1410 1404 1404 1404 1404 1398 1398 1392 1392 1392 1392 1387 1387 1387 1387 1387 1387 1387 1387 1381 1381 1381 1381 1381 1370 1370 1370 2065 2065 2065 2053 2053 2065 2065 2065 2065 2065 2065 2065 2053 2053 2053 2053 2053 2053 2053 2053 2040 1915 1915 1915 1915 1915 1915 1915 1915 1926 1926 2028 2040 2040 2040 2040 2040 2040 2040 2040 2040 2053 2053 2053 2053 2053 2053 2053 2053 2053 2053 2053 2053 2053 2053 2053 2053 2053 2053 2053 2053 2053 2053 2053 2040 2040 2040 2040 2053 2053 2040 2040 1509 1509 1503 1496 1496 1489 1483 1483 1483 1483 1483 1483 1483 1483 1483 1483 1483 1483 1483 1483 1483 1483 1483 1483 2040 2040 2040 2040 2040 2040 2040 2040 2040 2040 2040 2040 2040 2040 2040 2040 2040 2040 2040 2040 2040 2040 2040 2040 2040 2040 2040 2040 2040 2040 2040 2040 2040 2040 2040 2040 2040 2040 2040 2040 2040 2040 2028 2028 2028 2028 2028 2028 2028 2028 2040 2040 2040 2040 2040 2053 2040 2040 2040 2053 2053 2053 2040 2040 2040 2040 2040 2040 2040 2040 2040 2040 2040 2040 2053 2040 2040 2040 2040 2040 2040 2040 2040 2040 2040 2040 2040 2028 2028 2028 2028 2028 2028 2028 2028 2028 2028 2028 2028 2028 2028 2016 2016 2016 2016 2016 2016 2016 2016 2016 2016 2016 2016 2016 2016 2016 2016 2016 2016 2016 2016 2016 2016 2016 2016 2016 2016 2016 2016 2016 2005 2005 2005 2005 0 0 0 0 0 0 0 0
0 0 0 0 0 0 0 0 0 0 0 0 0 0 0 0 0 0 0 0 0 0 0 0 0 0 0 0 0 0 0 0 0 0 1993 1993 1993 1993 1993 1993 1993 1993 2005 2005 2005 2005 2005 2005 2005 2005 2005 1993 1993 1993 1993 2005 1993 1993 1993 1993 2005 2005 2005 1993 1993 1993 1993 1981 1981 1981 1981 1981 1993 1993 1993 1993 1993 1993 1981 1981 1993 1993 1981 1981 1981 1981 1993 1981 1981 1981 1981 2005 2005 2005 1993 1993 2005 2005 2005 2005 1572 1572 1579 1579 1594 1594 1601 1601 1601 1601 1601 1586 1586 1550 1536 1529 1529 1529 1529 1529 1529 1529 1529 1529 1536 1536 1543 1550 1550 1550 1550 2016 2005 2005 2005 2005 2005 2005 2016 2016 2016 2028 2028 2040 2040 1776 1776 1785 1785 1794 1794 1794 1794 1794 1804 1804 1993 1981 1970 1959 1959 1959 1959 1959 1959 1959 1970 1970 1993 1993 2016 2016 2028 2028 2028 2028 2028 2016 2016 2016 2016 2016 2016 2016 2016 2016 2016 2016 2016 2028 2028 2028 2028 2028 2028 2028 2028 2028 2028 2028 2040 2040 2040 2040 2040 2028 2028 2040 2028 2028 2028 2028 2028 1503 1503 1503 1503 1503 1503 1503 1509 1509 1509 1516 1523 1529 1536 1536 1543 1543 1550 2028 2040 2040 2040 2040 2040 2053 2053 2053 2053 2040 2040 2040 2065 1794 1794 1794 1804 1804 1813 1813 1813 1823 1833 1833 1936 1936 1936 1936 1936 1947 1959 1970 1970 2016 2028 2028 2040 2040 2040 2040 2040 2040 1427 1427 1421 1421 1427 1427 1427 1421 1421 1427 1433 1439 1439 1445 1445 1452 1445 1445 1439 1439 1439 1439 1439 1439 1439 1433 1427 1427 1427 1421 1421 1421 1415 1415 1427 1427 1427 1427 1421 1421 1427 1427 1427 1427 1427 1427 1421 1421 1415 1415 1415 1415 1421 1421 1415 1415 1415 1415 1410 1410 1410 1410 1410 1410 1410 1415 1415 1410 1410 1410 1410 1410 1410 1410 1410 1410 1415 1415 1410 1410 1410 1410 1410 1410 1410 1410 1410 1410 1410 1410 1410 1410 1410 1410 1410 1410 1410 1410 1410 1410 1410 1410 1410 1404 1404 1404 1404 1404 1398 1392 1392 1392 1392 1387 1387 1387 1387 1387 1387 1387 1381 1381 1381 1381 1381 1370 1370 1376 2065 2065 2053 2053 2053 2053 2053 2053 2053 2053 2053 2053 2053 2040 2040 2040 2040 2040 2040 2040 2040 1915 1915 1915 1915 1915 1915 1915 1915 1926 1959 2028 2040 2040 2040 2040 2040 2040 2040 2040 2040 2040 2040 2040 2040 2040 2040 2040 2040 2040 2040 2040 2040 2040 2040 2040 2040 2040 2040 2040 2040 2040 2040 2040 2040 2040 2040 2040 2053 2053 2053 1509 1509 1509 1503 1496 1496 1489 1483 1483 1483 1483 1483 1483 1483 1483 1483 1483 1483 1483 1483 1489 1489 1496 1496 0 2028 2028 2028 2040 2040 2028 2028 2040 2040 2040 2040 2040 2040 2040 2028 2028 2028 2028 2040 2040 2040 2040 2040 2040 2040 2040 2040 2040 2040 2040 2040 2040 2040 2040 2040 2040 2040 2040 2040 2040 2040 2040 2028 2028 2028 2028 2028 2028 2028 2028 2040 2040 2040 2040 2040 2040 2040 2040 2040 2040 2040 2040 2040 2040 2040 2040 2040 2040 2040 2040 2040 2040 2040 2040 2040 2040 2040 2040 2040 2040 2040 2040 2040 2028 2028 2028 2028 2028 2028 2028 2028 2028 2016 2016 2028 2028 2028 2028 2028 2016 2016 2016 2005 2005 2005 2005 2005 2005 2005 2016 2016 2016 2016 2016 2005 2005 2005 2005 2005 2005 2005 2016 2016 2016 2016 2016 2016 2016 2016 2016 2005 2005 1993 1993 0 0 0 0 0 0 0 0
0 0 0 0 0 0 0 0 0 0 0 0 0 0 0 0 0 0 0 0 0 0 0 0 0 0 0 0 0 0 0 0 0 0 1993 1981 1981 1981 1993 1993 1993 1993 1993 2005 2005 2005 1993 1993 2005 2005 1993 1993 1981 1981 1993 1993 1993 1993 1993 1993 1993 1993 1993 1993 1981 1981 1981 1981 1981 1981 1981 1981 1981 1981 1981 1981 1981 1981 1981 1981 1981 1981 1981 1981 1981 1981 1981 1981 1981 1981 1981 2005 1993 1993 1993 1993 1993 1981 1981 1981 1572 1572 1572 1579 1594 1594 1601 1601 1601 1601 1601 1586 1586 1543 1543 1529 1529 1529 1529 1529 1529 1529 1529 1529 1536 1536 1550 1550 1550 1557 1557 2005 2005 2005 2005 2005 2005 2005 2005 2005 2016 2016 2028 1748 1748 1757 1757 1776 1785 1785 1785 1794 1794 1804 1804 1993 1993 1981 1981 1970 1959 1959 1959 1959 1959 1970 1970 1970 1981 1993 2005 2016 2016 2028 2028 2028 2028 2016 2016 2016 2016 2016 2016 2016 2016 2016 2016 2016 2016 2028 2028 2028 2028 2028 2028 2028 2028 2028 2028 2028 2028 2028 2028 2028 2028 2028 2028 2028 2028 2028 2028 2028 2028 1509 1503 1503 1503 1503 1503 1503 1509 1509 1509 1516 1523 1529 1536 1536 1543 1543 1550 2028 2028 2040 2040 2040 2040 2053 2053 2040 2040 2040 2040 2040 2040 1785 1785 1794 1804 1804 1804 1813 1813 1813 1833 1936 1936 1936 1936 1947 1947 1947 1959 1970 1970 2016 2028 2028 2028 2040 2028 2028 2028 2028 1421 1421 1421 1421 1427 1427 1421 1421 1421 1433 1433 1439 1439 1445 1452 1452 1445 1445 1439 1439 1439 1439 1439 1439 1439 1433 1427 1427 1427 1427 2016 2016 2016 2005 2005 2016 2016 2028 2028 2028 2028 2028 1427 1427 1427 1427 1421 1421 1415 1415 1415 1415 1421 1421 1415 1415 1415 1415 1410 1410 1410 1410 1410 1410 1410 1415 1415 1415 1410 1410 1410 1415 1410 1410 1410 1415 1410 1410 1410 1410 1404 1404 1410 1410 1410 1410 1410 1410 1415 1415 1410 1410 1410 1410 1410 1410 1410 1410 1410 1410 1410 1410 1410 1404 1404 1404 1404 1404 1398 1398 1392 1392 1392 1387 1387 1387 1387 1387 1387 1387 1381 1381 1381 1381 1381 1376 1376 1376 2065 2053 2053 2053 2053 2053 2053 2053 2053 2053 2053 2053 2040 2040 2040 2040 2040 2040 2040 2040 2028 1926 1926 1915 1915 1915 1915 1915 1926 1926 1993 2028 2040 2040 2040 2040 2040 2040 2040 2028 2028 2028 2028 2028 2028 2028 2028 2040 2028 2028 2040 2040 2040 2040 2040 2040 2040 2040 2040 2040 2040 2040 2028 2028 2028 2028 2028 2040 2040 2040 2040 2040 1503 1503 1503 1503 1496 1496 1489 1483 1483 1483 1483 1483 1483 1483 1483 1483 1483 1483 1483 1489 1489 1489 1489 1503 2028 2028 2028 2028 2028 2028 2028 2028 2028 2040 2028 2028 2028 2028 2028 2028 2028 2028 2028 2028 2028 2028 2028 2040 2040 2028 2028 2028 2040 2028 2028 2028 2028 2028 2028 2028 2028 2028 2028 2028 2040 2040 2028 2028 2028 2028 2028 2028 2028 2028 2028 2028 2040 2040 2040 2040 2040 2040 2040 2040 2040 2040 2040 2040 2040 2028 2028 2028 2028 2028 2028 2028 2028 2040 2040 2028 2028 2040 2040 2028 2028 2028 2028 2028 2016 2016 2016 2028 2028 2028 2028 2028 2016 2016 2016 2028 2028 2028 2016 2016 2016 2005 2005 1993 1993 2005 2005 2005 2005 2005 2005 2005 2005 2005 2005 2005 2005 2005 2005 2005 2005 2016 2005 2005 2005 2005 2005 2005 2005 2005 2005 2005 1993 1993 0 0 0 0 0 0 0 0
0 0 0 0 0 0 0 0 0 0 0 0 0 0 0 0 0 0 0 0 0 0 0 0 0 0 0 0 0 0 0 0 0 0 1981 1981 1981 1981 1981 1981 1981 1993 1993 1993 2005 2005 1993 1993 1993 1993 1993 1981 1981 1981 1993 1993 1993 1993 1993 1993 1993 1993 1981 1981 1981 1981 1970 1970 1970 1981 1981 1981 1981 1981 1981 1981 1981 1970 1970 1981 1981 1981 1981 1981 1981 1981 1981 1981 1993 1993 1993 1993 1993 1993 1993 1981 1981 1970 1970 1970 1572 1572 1572 1579 1594 1594 1601 1601 1609 1609 1609 1594 1594 1543 1543 1529 1529 1529 1529 1529 1529 1529 1529 1529 1536 1536 1550 1557 1557 1557 1557 1564 1993 1993 1993 1993 2005 2005 2005 2005 2005 2016 1748 1748 1748 1757 1757 1776 1785 1785 1785 1794 1794 1804 2016 1993 1981 1981 1981 1970 1970 1959 1959 1959 1970 1970 1970 1970 1981 1993 1993 2005 2005 2016 2016 2016 2005 2005 2005 2005 2005 2005 2005 2005 2005 2016 2016 2016 2016 2016 2016 2016 2028 2028 2028 2028 2028 2028 2028 2028 2028 2028 2028 2028 2028 2028 2028 2028 2028 2028 2016 2016 2016 1509 1503 1503 1503 1503 1509 1509 1509 1509 1509 1516 1523 1529 1529 1536 1543 1550 1550 2016 2016 2016 2028 2028 2040 2040 2040 2040 2040 2040 2040 2040 1785 1785 1785 1794 1804 1804 1804 1804 1813 1813 1936 1936 1947 1947 1947 1947 1947 1947 1959 1970 1970 1981 2016 2016 2028 2028 2028 2016 2016 2016 1421 1421 1421 1421 1427 1427 1421 1421 1427 1433 1433 1439 1445 1445 1458 1458 1458 1445 1445 1445 1439 1439 1445 1445 2016 2016 1427 1427 2016 2016 2016 2016 2016 2005 2005 2016 2016 2028 2028 2028 2028 2028 2028 2028 2028 2040 2040 2028 2016 2016 1415 1415 1421 1421 1415 1415 1415 1415 1410 1410 1410 1410 1410 1410 1410 1415 1415 2016 2016 2016 2016 1415 1415 1410 1410 1415 1410 1410 1410 1410 1404 1404 1410 1410 1410 1410 1410 1410 1415 1415 1410 1410 1410 1410 1410 1410 1410 1410 1410 1410 1410 1410 1410 1404 1404 1404 1410 1404 1404 1398 1392 1392 1392 1387 1387 1387 1387 1387 1387 1387 1387 1387 1387 1387 1387 1381 1381 1381 1392 2040 2040 2053 2053 2040 2040 2040 2040 2040 2040 2040 2040 2028 2028 2028 2028 2028 2028 2028 2005 1926 1926 1926 1915 1915 1915 1915 1926 1926 1993 2028 2028 2040 2040 2040 2028 2028 2028 2016 2016 2016 2016 2028 2016 2016 2028 2028 2028 2028 2028 2028 2028 2028 2028 2028 2028 2028 2028 2028 2028 2028 2016 2016 2028 2028 2028 2028 2040 2028 2028 2028 1503 1503 1503 1503 1496 1496 1489 1483 1483 1483 1483 1483 1483 1483 1483 1483 1483 1483 1483 1489 1489 1489 1503 1503 2005 2005 2016 2028 2028 2028 2028 2028 2028 2028 2028 2028 2028 2028 2028 2028 2028 2028 2028 2028 2028 2016 2016 2028 2028 2028 2028 2028 2028 2028 2028 2028 2028 2028 2028 2028 2028 2028 2028 2028 2028 2028 2028 2028 2016 2016 2016 2016 2016 2028 2028 2028 2028 2028 2028 2028 2028 2028 2028 2028 2028 2028 2028 2028 2028 2028 2028 2028 2028 2028 2028 2028 2028 2028 2028 2028 2028 2028 2028 2028 2028 2028 2016 2016 2016 2016 2016 2016 2016 2016 2028 2028 2016 2016 2016 2016 2016 2016 2016 2016 2005 1993 1993 1993 1993 1993 1993 1993 1993 2005 1993 1993 1993 1993 1993 1993 1993 1993 2005 2005 2005 2016 2005 2005 2005 2005 2005 2005 2005 2005 1993 1993 1993 1993 0 0 0 0 0 0 0 0
0 0 0 0 0 0 0 0 0 0 0 0 0 0 0 0 0 0 0 0 0 0 0 0 0 0 0 0 0 0 0 0 0 0 1959 1959 1970 1970 1970 1970 1970 1970 1981 1981 1981 1981 1981 1981 1981 1981 1981 1970 1970 1970 1981 1981 1981 1981 1981 1981 1981 1981 1981 1981 1981 1981 1970 1970 1970 1970 1970 1970 1981 1970 1970 1981 1970 1959 1959 1970 1981 1981 1970 1970 1970 1970 1970 1981 1993 1993 1993 1993 1981 1981 1981 1959 1959 1959 1959 1959 1572 1572 1572 1579 1594 1594 1601 1601 1609 1609 1609 1601 1601 1543 1536 1529 1529 1529 1529 1529 1529 1529 1529 1529 1536 1543 1550 1557 1557 1557 1557 1557 1993 1993 1993 1993 1993 1993 1993 1993 2005 2005 1748 1748 1748 1757 1757 1766 1776 1785 1785 1794 1794 2028 1993 1981 1981 1981 1981 1970 1970 1959 1959 1959 1970 1970 1970 1981 1981 1993 1993 1993 1993 2005 2005 2005 2005 2005 2005 2005 2005 2005 2005 2005 2005 2016 2005 2005 2005 2016 2016 2016 2028 2028 2028 2016 2016 2016 2028 2028 2028 2016 2016 2016 2016 2016 2016 2028 2028 2028 2016 2016 1503 1503 1503 1503 1503 1503 1509 1509 1509 1516 1516 1523 1523 1529 1529 1536 1536 2016 2016 2016 2016 2016 2016 2028 2028 2040 2040 2040 2040 2040 2040 2040 1776 1776 1785 1785 1794 1794 1804 1804 1804 1970 1947 1947 1947 1947 1947 1947 1947 1947 1959 1970 1970 1981 2005 2016 2028 2028 2016 2016 2016 2016 1427 1427 1421 1421 1427 1427 1421 1421 1421 1427 1433 1439 1439 1445 1458 1464 1464 0 1445 1445 1445 1445 1445 2028 2016 2016 2016 2016 2016 2016 2016 2016 2016 2016 2016 2016 2016 2028 2028 2028 2028 2028 2028 2028 2028 2028 2040 2028 2016 2016 2016 2005 2005 2005 1993 1993 2005 2005 2016 2028 2028 2028 2028 2028 2028 2016 2016 2016 2016 2016 2005 2005 2016 2016 2016 2016 2016 2028 2028 1410 1410 1410 1410 1410 1410 1410 1410 1410 1415 1415 1410 1410 1410 1410 1410 1410 1410 1410 1410 1410 1410 1410 1410 1404 1404 1404 1410 1410 1404 1398 1392 1387 1387 1387 1387 1387 1387 1387 1387 1387 1387 1387 1387 1387 1387 1387 1381 1381 1392 2040 2040 2053 2053 2040 2040 2040 2028 2028 2028 2028 2028 2016 2016 2016 2016 2016 2016 2016 1970 1936 1926 1926 1915 1915 1915 1915 1926 1926 1993 2016 2028 2028 2028 2028 2028 2028 2028 2016 2016 2016 2016 2016 2016 2005 2005 2016 2016 2016 2016 2016 2016 2028 2016 2016 2016 2016 2016 2016 2016 2016 2016 2016 2016 2028 2028 2028 2028 2028 2028 2028 1509 1503 1503 1503 1496 1496 1489 1489 1483 1483 1483 1483 1483 1483 1483 1483 1483 1483 1489 1489 1489 1496 1503 1523 2005 2005 2016 2016 2028 2016 2016 2028 2028 2028 2028 2028 2028 2028 2028 2016 2016 2028 2028 2016 2016 2016 2016 2016 2016 2016 2016 2016 2016 2016 2016 2016 2016 2028 2028 2028 2028 2028 2028 2028 2028 2028 2016 2016 2016 2016 2016 2016 2016 2016 2028 2028 2028 2028 2028 2028 2028 2016 2016 2016 2016 2016 2016 2016 2016 2016 2016 2016 2016 2016 2016 2016 2016 2016 2028 2028 2028 2028 2028 2016 2016 2016 2016 2016 2016 2016 2016 2016 2016 2016 2016 2028 2016 2016 2016 2016 2016 2016 2005 2005 1993 1993 1993 1993 1981 1981 1981 1993 1993 1993 1993 1993 1993 1993 1993 1993 1993 1993 2005 2005 2005 2005 2005 1993 1993 1993 1993 1993 1993 1993 1993 1993 1993 1993 0 0 0 0 0 0 0 0
0 0 0 0 0 0 0 0 0 0 0 0 0 0 0 0 0 0 0 0 0 0 0 0 0 0 0 0 0 0 0 0 0 0 1959 1959 1959 1970 1970 1970 1970 1970 1981 1981 1981 1981 1981 1981 1981 1970 1970 1970 1970 1970 1970 1970 1970 1970 1970 1970 1970 1970 1970 1970 1970 1970 1959 1959 1959 1970 1970 1970 1959 1959 1970 1959 1959 1959 1959 1959 1959 1959 1970 1970 1970 1970 1970 1970 1970 1959 1959 1959 1959 1959 1959 1959 1959 1959 1947 1947 1959 1572 1572 1579 1594 1601 1609 1609 1609 1609 1609 1601 1601 1536 1536 1529 1529 1529 1529 1529 1529 1529 1529 1529 1536 1536 1550 1550 1550 1557 1557 1557 1993 1993 1993 1993 1993 1993 1993 1993 2005 2005 1748 1748 1748 1757 1757 1766 1776 1776 1785 1785 1993 1993 1981 1981 1981 1981 1981 1970 1970 1959 1959 1959 1970 1970 1970 1981 1981 1993 1993 1993 1993 1993 1993 2005 1993 1993 1993 2005 2005 2005 2005 1993 1993 2016 2005 2005 2005 2005 2005 2016 2005 2005 2016 2005 2005 2016 2016 2016 2016 2016 2016 2005 2005 2016 2016 2016 2016 2016 2005 2005 1503 1503 1503 1503 1503 1509 1509 1509 1516 1516 1516 1523 1523 1529 1529 1529 1536 2016 2016 2016 2016 2016 2016 2028 2028 2028 2028 2028 2028 2028 2028 1776 1776 1776 1776 1785 1794 1794 1794 1794 1804 1970 1959 1959 1959 1947 1947 1947 1947 1959 1959 1970 1970 1981 2005 2005 2016 2016 2016 2016 2016 2016 1433 1427 1427 1427 1427 1427 1421 1421 1421 1427 1433 1439 1439 1445 1452 1464 0 0 0 0 0 0 0 2028 2016 2016 2016 2016 2016 2016 2016 2016 2016 2016 2016 2016 2016 2016 2016 2016 2028 2028 2016 2016 2028 2028 2028 2016 2016 2016 2016 2005 1993 1993 1993 1993 1993 2005 2016 2016 2016 2016 2016 2016 2016 2016 2016 2005 2005 2005 2005 2005 2005 2016 2016 2016 2016 2028 2028 2028 2028 2016 1410 1410 1410 1410 1410 1410 1415 1415 1415 1415 1410 1410 1410 1410 1410 1404 1404 1404 1410 1410 1410 1404 1404 1404 1410 1410 1404 1404 1392 1387 1387 1387 1387 1387 1387 1387 1387 1387 1387 1387 1387 1387 1387 1387 1387 1387 1387 2053 2040 2040 2028 2028 2028 2028 2028 2028 2028 2016 2016 2016 2005 2005 2005 2005 2005 2005 1970 1947 1936 1926 1915 1915 1915 1915 1926 1947 1981 2005 2016 2028 2028 2028 2016 2016 2016 2016 2016 2005 2005 2005 2005 2005 2005 2005 2005 2016 2016 2016 2016 2016 2016 2016 2016 2016 2016 2016 2016 2016 2016 2016 2016 2016 2016 2016 2016 2016 2016 2016 1509 1509 1503 1503 1503 1496 1489 1489 1489 1489 1489 1489 1489 1483 1483 1483 1483 1489 1489 1489 1489 1496 1503 1523 2005 2005 2005 2005 2016 2005 2005 2005 2005 2005 2005 2005 2005 2005 2005 2005 2016 2016 2016 2005 2005 2005 2005 2005 2005 2005 2005 2005 2005 2005 2016 2016 2016 2016 2016 2028 2016 2016 2016 2016 2028 2016 2005 2005 2005 2005 2005 2005 2005 2005 2016 2016 2016 2016 2016 2028 2016 2016 2016 2016 2016 2016 2016 2016 2016 2016 2005 2005 2005 2005 2005 2016 2016 2016 2016 2016 2016 2016 2016 2016 2016 2016 2016 2016 2005 2005 2005 2016 2016 2016 2016 2016 2005 2005 2005 2005 2016 2005 1993 1993 1993 1981 1981 1981 1981 1981 1981 1993 1993 1993 1981 1981 1981 1981 1981 1981 1981 1993 1993 1993 1993 1993 1993 1993 1981 1981 1981 1981 1981 1981 1981 1993 1993 1993 0 0 0 0 0 0 0 0
0 0 0 0 0 0 0 0 0 0 0 0 0 0 0 0 0 0 0 0 0 0 0 0 0 0 0 0 0 0 0 0 0 0 1959 1959 1959 1959 1970 1970 1970 1970 1970 1970 1970 1970 1970 1970 1970 1970 1970 1970 1970 1970 1970 1970 1970 1970 1970 1970 1970 1970 1970 1970 1970 1970 1959 1959 1959 1959 1959 1959 1959 1959 1959 1959 1959 1959 1959 1959 1959 1959 1959 1970 1970 1959 1959 1959 1959 1959 1959 1959 1959 1959 1959 1959 1959 1959 1947 1947 1959 1959 1959 1601 1601 1609 1609 1609 1609 1609 1616 1609 1609 1536 1536 1529 1529 1529 1529 1529 1529 1529 1529 1529 1536 1536 1550 1550 1550 1557 1557 1557 1959 1959 1959 1959 1959 1959 1959 1970 1739 1739 1748 1748 1748 1757 1757 1757 1766 1766 1766 1981 1981 1970 1970 1970 1970 1970 1981 1970 1970 1959 1959 1970 1970 1970 1970 1981 1981 1981 1981 1981 1981 1981 1981 1993 1981 1981 1993 1993 1993 1993 1993 1993 1993 2005 1993 1993 1993 2005 2005 2005 2005 2005 2005 2005 2005 2005 2005 2005 2005 2005 2005 2005 2005 2005 2005 2005 2016 2016 2005 2005 2005 1509 1509 1509 1509 1509 1516 1516 1516 1516 1516 1523 1529 1529 1529 1536 1536 2016 2016 2016 2016 2016 2016 2028 2028 2028 2028 2028 2028 2028 1766 1766 1766 1766 1776 1785 1785 1785 1776 1776 1794 1981 1959 1959 1959 1959 1959 1947 1947 1959 1959 1970 1970 1981 2005 2005 2016 2016 2016 2016 2016 1433 1433 1433 1427 1427 1427 1427 1421 1421 1427 1427 1433 1439 1439 1445 1452 1452 0 0 0 0 0 0 0 2016 2016 2016 2016 2016 2016 2016 2016 2016 2016 2016 2016 2016 2016 2016 2016 2016 2016 2016 2016 2016 2028 2028 2028 2016 2016 2016 2016 2005 1993 1993 1993 1993 1993 2005 2005 2016 2016 2016 2016 2016 2016 2016 2016 2005 2005 2005 2005 2005 2005 2005 2005 2016 2016 2016 2016 2016 2016 2016 2016 2016 2005 2005 2005 2005 2005 2005 2005 2005 2005 2005 2005 2005 2005 1404 1404 1404 1410 1410 1410 1404 1404 1404 1415 1410 1404 1404 1392 1387 1387 1387 1387 1387 1387 1387 1387 1387 1387 1387 1392 1392 1387 1387 1387 1387 1387 2016 2016 2016 2016 2016 2016 2016 2016 2016 2016 2016 2016 2005 2005 2005 2005 2005 1993 1993 1981 1959 1936 1926 1915 1915 1915 1915 1926 1947 1981 1993 2005 2016 2016 2016 2016 2016 2005 2005 2005 2005 2005 2005 2005 2005 2005 2005 2005 2005 2005 2005 2005 2016 2016 2016 2016 2016 2016 2016 2016 2005 2005 2005 2005 2005 2005 2005 2005 2016 2016 2016 1509 1509 1503 1503 1503 1496 1489 1489 1489 1489 1489 1489 1489 1483 1483 1483 1483 1489 1489 1489 1489 1496 1503 1509 1993 2005 2005 2005 2005 1993 1993 1993 1993 1993 2005 1993 1993 2005 1993 1993 1993 1993 1993 1981 1981 1981 1981 1981 1981 1993 1993 1993 1993 2005 2005 2005 2005 2005 2005 2016 2016 2016 2005 2005 2016 2016 2005 1993 1993 1993 1993 1993 2005 2005 2005 2005 2016 2016 2016 2016 2005 2005 2005 2005 2005 2005 2005 2005 2005 2005 2005 1993 1993 1993 2005 2005 2005 2005 2005 2016 2016 2016 2016 2005 2005 2005 2005 2005 2005 2005 2005 2005 2005 2005 2005 2005 2005 2005 2005 2005 2005 1993 1993 1993 1981 1981 1981 1981 1981 1981 1981 1993 1993 1993 1981 1981 1981 1981 1981 1981 1981 1981 1981 1981 1981 1993 1993 1981 1981 1981 1981 1981 1981 1981 1981 1981 1993 1993 0 0 0 0 0 0 0 0
0 0 0 0 0 0 0 0 0 0 0 0 0 0 0 0 0 0 0 0 0 0 0 0 0 0 0 0 0 0 0 0 0 0 1947 1947 1959 1959 1959 1970 1970 1970 1970 1970 1970 1970 1970 1970 1959 1959 1959 1959 1959 1970 1970 1959 1959 1970 1970 1970 1959 1959 1959 1959 1959 1959 1947 1947 1947 1947 1947 1959 1959 1947 1947 1947 1947 1947 1947 1959 1959 1959 1959 1959 1959 1959 1959 1959 1959 1959 1959 1959 1947 1947 1959 1959 1959 1959 1959 1959 1959 1959 1959 1609 1609 1609 1609 1609 1616 1616 1616 1609 1609 1536 1529 1529 1529 1529 1529 1529 1529 1529 1529 1529 1536 1536 1543 1550 1550 1557 1557 1557 1959 1959 1959 1959 1947 1947 1947 1959 1731 1731 1739 1739 1748 1748 1748 1748 1757 1766 1981 1981 1981 1970 1970 1959 1959 1970 1970 1970 1970 1959 1959 1970 1970 1970 1970 1970 1981 1981 1981 1981 1981 1981 1981 1981 1981 1981 1981 1981 1981 1981 1981 1981 1993 1993 1993 1993 1993 1993 1993 1993 1993 1993 1993 1993 1993 1993 1993 1981 1981 1993 1993 1993 1993 1993 1993 1993 1993 1993 1993 1981 1981 1516 1516 1516 1516 1516 1516 1516 1516 1516 1516 1523 1523 1529 1529 1536 1536 2016 2016 2016 2005 2005 2005 2016 2016 2028 2028 2028 2028 2040 1766 1766 1766 1766 1776 1785 1785 1785 1776 1776 1794 1970 1959 1959 1959 1959 1959 1947 1947 1959 1959 1970 1970 1981 1993 2005 2005 2016 2016 2016 2016 1433 1433 1433 1427 1427 1427 1427 1427 1427 1427 1433 1433 1439 1445 1445 1445 1489 0 0 0 0 0 0 0 2005 2005 2005 2005 2005 2016 2016 2016 2016 2016 2016 2016 2016 2016 2016 2016 2016 2016 2016 2016 2016 2016 2028 2028 2016 2016 2016 2016 2005 1993 1993 1993 1981 1981 1993 2005 2005 2016 2016 2016 2016 2016 2005 2005 2005 2005 1993 1993 1993 2005 2005 2005 2016 2016 2016 2016 2016 2016 2005 2005 2005 2005 2005 2005 2005 2005 2005 2005 2005 2005 2005 2005 2005 2005 2005 2005 2016 2016 2005 2005 2005 1993 1993 1993 1993 1993 1993 1392 1387 1387 1387 1387 1387 1387 1387 1392 1387 1387 1387 1392 1392 1387 1387 1387 1387 1993 1993 1993 2005 2005 2005 2005 2016 2016 2016 2016 2016 2016 2005 2005 2005 2005 2005 1993 1981 1970 1959 1936 1926 1926 1926 1926 1926 1936 1959 1970 1981 1993 2005 2005 2005 2005 2005 2005 2005 2005 2005 2005 2005 2005 2005 2005 2005 2005 2005 2005 2005 2005 2005 2005 2005 2005 2005 2005 2005 2005 2005 2005 2005 2005 2005 2005 2005 2005 2005 2005 2005 1509 1509 1503 1503 1503 1496 1489 1489 1489 1489 1489 1489 1489 1489 1489 1489 1489 1489 1489 1489 1496 1496 1503 1509 1993 2005 2005 2005 2005 1993 1993 1993 1993 1993 1993 1993 1993 1993 1993 1993 1993 1993 1981 1981 1981 1981 1981 1981 1981 1981 1981 1993 1993 1993 1993 1993 1993 1993 1993 2005 2005 2005 1993 1993 1993 2005 1993 1993 1993 1993 1993 1993 1993 1993 2005 2005 2005 2005 2005 2005 1993 1993 1993 2005 2005 1993 1993 1993 1993 1993 1993 1993 1993 1993 1993 1993 2005 2005 2005 2005 2005 2005 2005 2005 2005 1993 1993 1993 1993 1993 1993 1993 2005 1993 1993 1993 1981 1981 1993 1981 1981 1981 1981 1981 1981 1970 1970 1970 1981 1981 1981 1981 1981 1981 1981 1981 1981 1981 1981 1981 1981 1981 1981 1981 1981 1981 1981 1981 1981 1981 1981 1981 1981 1981 1981 1981 1981 1981 0 0 0 0 0 0 0 0
0 0 0 0 0 0 0 0 0 0 0 0 0 0 0 0 0 0 0 0 0 0 0 0 0 0 0 0 0 0 0 0 0 0 1947 1947 1947 1959 1959 1959 1959 1959 1959 1959 1959 1959 1959 1959 1959 1959 1959 1959 1959 1959 1959 1959 1959 1959 1959 1959 1959 1959 1959 1959 1959 1959 1947 1947 1947 1947 1947 1947 1947 1947 1947 1947 1947 1947 1947 1959 1959 1959 1959 1959 1959 1959 1959 1959 1959 1959 1959 1947 1947 1947 1947 1947 1947 1959 1947 1947 1947 1947 1947 1616 1616 1616 1616 1616 1616 1616 1616 1616 1616 1536 1529 1529 1529 1529 1529 1529 1529 1529 1529 1529 1536 1536 1543 1550 1550 1557 1557 1557 1959 1947 1947 1947 1947 1947 1947 1947 1731 1731 1739 1739 1748 1748 1748 1748 1748 1748 1981 1959 1959 1959 1959 1959 1959 1959 1970 1959 1959 1959 1959 1959 1959 1959 1959 1970 1970 1970 1970 1970 1981 1981 1981 1981 1981 1981 1981 1981 1981 1981 1981 1981 1981 1981 1981 1981 1981 1993 1993 1993 1993 1993 1993 1993 1993 1993 1981 1981 1981 1993 1993 1993 1993 1993 1993 1993 1993 1993 1993 1981 1981 1523 1516 1516 1516 1516 1516 1516 1523 1523 1523 1523 1523 1529 1529 1536 1536 1993 1993 2005 2005 2005 2005 2005 2005 2016 2016 2028 2028 1766 1757 1757 1766 1766 1766 1776 1785 1785 1794 1794 1981 1970 1970 1959 1959 1959 1959 1959 1959 1959 1959 1959 1970 1970 1981 1993 2005 2005 2005 2005 2005 1439 1439 1433 1433 1427 1427 1427 1427 1427 1427 1433 1433 1439 1445 1452 1458 1489 1489 0 0 0 0 0 0 1993 1993 1993 1993 2005 2005 2005 2005 2005 2005 2005 2005 2005 2005 2005 2016 2016 2016 2016 2016 2016 2016 2016 2016 2016 2016 2016 2016 2005 1993 1981 1981 1981 1981 1981 1993 2005 2005 2005 2005 2005 2005 2005 2005 2005 1993 1993 1993 1993 1993 2005 2005 2005 2005 2016 2016 2016 2016 2005 2005 2005 2005 2005 2005 2005 2005 2005 2005 2005 2005 2005 2005 2005 2005 2005 2005 2005 2005 2005 2005 1993 1993 1993 1993 1993 1993 1993 1387 1387 1387 1387 1387 1387 1387 1392 1392 1392 1387 1387 1392 1392 1392 1387 1387 1387 1993 1993 1993 1993 1993 1993 2005 2005 2016 2016 2005 2005 2005 1993 1993 1993 1993 1993 1981 1981 1959 1959 1936 1926 1926 1926 1926 1926 1936 1959 1959 1981 1993 1993 2005 2005 2005 1993 1993 1993 1993 1993 1993 1993 2005 2005 2005 2005 2005 2005 2005 2005 2005 2005 2005 2005 2005 2005 2005 2005 2005 2005 1993 1993 1993 1993 1993 1993 1993 1993 1993 1993 1516 1516 1509 1503 1503 1496 1496 1489 1489 1489 1489 1489 1489 1489 1489 1489 1489 1489 1489 1496 1496 1496 1503 1516 1981 1993 1993 2005 2005 1981 1981 1981 1981 1981 1981 1981 1981 1981 1993 1993 1993 1993 1981 1981 1981 1981 1981 1981 1981 1981 1981 1981 1993 1993 1993 1993 1993 1993 1993 1993 1993 1993 1981 1981 1981 1981 1981 1981 1981 1981 1981 1981 1981 1993 1993 1993 1993 1993 1993 1993 1993 1993 1993 1993 1993 1993 1993 1993 1993 1993 1993 1993 1993 1993 1993 1993 1993 1993 1993 1993 1993 1993 2005 1993 1993 1993 1993 1993 1993 1993 1993 1993 1993 1993 1993 1993 1981 1981 1981 1981 1981 1981 1981 1981 1970 1970 1970 1970 1970 1970 1970 1981 1981 1981 1981 1981 1981 1981 1970 1970 1981 1970 1970 1981 1981 1981 1981 1981 1981 1981 1981 1981 1981 1981 1981 1981 1981 1981 0 0 0 0 0 0 0 0
0 0 0 0 0 0 0 0 0 0 0 0 0 0 0 0 0 0 0 0 0 0 0 0 0 0 0 0 0 0 0 0 0 0 1936 1936 1947 1947 1959 1959 1959 1959 1959 1959 1959 1959 1959 1959 1947 1947 1947 1947 1947 1947 1947 1947 1947 1959 1959 1959 1959 1959 1959 1959 1959 1959 1947 1947 1947 1936 1936 1947 1947 1947 1947 1947 1947 1947 1947 1947 1947 1947 1947 1959 1959 1959 1947 1947 1947 1947 1947 1947 1947 1947 1947 1947 1947 1947 1947 1947 1947 1947 1947 1616 1616 1616 1616 1616 1616 1616 1624 1616 1616 1529 1529 1529 1529 1529 1529 1529 1529 1529 1529 1529 1536 1536 1543 1550 1550 1557 1557 1557 1947 1947 1947 1947 1947 1947 1947 1947 1731 1731 1739 1739 1739 1748 1748 1748 1748 1748 1981 1959 1959 1959 1959 1959 1959 1959 1959 1959 1959 1959 1959 1959 1959 1959 1959 1959 1959 1970 1970 1970 1981 1981 1981 1981 1981 1981 1970 1970 1970 1970 1970 1981 1981 1981 1981 1981 1981 1981 1981 1981 1981 1981 1993 1993 1993 1981 1981 1981 1981 1981 1981 1993 1993 1993 1993 1993 1993 1993 1981 1981 1981 1981 1523 1516 1516 1516 1516 1516 1523 1523 1523 1523 1529 1529 1529 1536 1543 1993 1993 1993 1993 1993 1993 2005 2005 2016 2016 2028 1757 1757 1757 1757 1757 1757 1766 1776 1785 1785 1794 1794 1981 1970 1970 1959 1959 1959 1959 1959 1959 1959 1959 1959 1959 1970 1970 1981 1981 1993 1993 2005 2005 1439 1439 1433 1433 1427 1427 1427 1427 1427 1427 1433 1433 1445 1452 1452 1458 1470 1489 0 0 0 0 0 1981 1981 1981 1993 1993 1993 2005 2005 2005 1993 1993 1993 1993 2005 2005 2005 2005 2005 2005 2005 2005 2005 2005 2005 2005 2016 2005 2005 2005 2005 1993 1981 1981 1981 1981 1981 1993 2005 2005 2005 2005 2005 2005 2005 2005 1993 1993 1993 1993 1993 1993 1993 1993 2005 2005 2005 2005 2005 2005 2005 2005 2005 2005 1993 1993 2005 2005 1993 1993 1993 1993 2005 2005 2005 2005 2005 2005 1993 1993 1993 1993 1993 1993 1993 1993 1981 1981 1981 1387 1387 1381 1381 1387 1392 1392 1392 1392 1392 1392 1392 1392 1392 1392 1392 1392 1981 1981 1981 1993 1993 1993 1993 2005 2005 2005 2005 2005 2005 2005 1993 1993 1993 1993 1981 1981 1970 1959 1947 1947 1926 1926 1926 1926 1926 1936 1947 1959 1970 1981 1993 1993 2005 1993 1993 1993 1993 1993 1993 1993 1993 1993 1993 1993 1993 1993 1993 1993 1993 1993 1993 1993 1993 1993 1993 1993 1993 1993 1993 1993 1993 1993 1993 1993 1993 1993 1993 1981 1981 1981 1516 1509 1503 1503 1496 1496 1489 1489 1489 1489 1489 1489 1489 1489 1489 1489 1489 1496 1496 1496 1496 1503 1516 1981 1981 1993 1993 1993 1981 1981 1981 1981 1981 1981 1981 1981 1981 1981 1981 1981 1981 1981 1981 1981 1981 1970 1970 1970 1981 1981 1981 1981 1981 1981 1981 1993 1981 1981 1981 1981 1981 1981 1981 1981 1981 1981 1981 1981 1981 1981 1981 1981 1981 1981 1981 1981 1981 1981 1993 1993 1993 1993 1993 1981 1981 1981 1993 1993 1993 1993 1993 1981 1981 1993 1993 1993 1993 1993 1993 1993 1993 1993 1993 1993 1993 1993 1993 1993 1993 1993 1993 1993 1981 1981 1981 1970 1970 1970 1970 1970 1970 1970 1970 1970 1970 1970 1970 1970 1970 1970 1970 1981 1981 1970 1970 1970 1970 1970 1970 1970 1970 1970 1981 1981 1981 1981 1981 1981 1981 1981 1981 1981 1970 1970 1970 1970 1970 0 0 0 0 0 0 0 0
0 0 0 0 0 0 0 0 0 0 0 0 0 0 0 0 0 0 0 0 0 0 0 0 0 0 0 0 0 0 0 0 0 0 1936 1936 1936 1947 1947 1959 1959 1959 1959 1959 1959 1959 1947 1947 1936 1936 1936 1936 1936 1936 1936 1936 1936 1947 1947 1947 1947 1947 1959 1959 1947 1947 1947 1936 1936 1936 1936 1936 1936 1936 1936 1936 1936 1947 1947 1947 1947 1947 1947 1947 1947 1947 1947 1947 1947 1947 1947 1947 1947 1947 1947 1947 1947 1947 1947 1936 1936 1936 1947 1616 1616 1616 1616 1616 1616 1624 1624 1624 1632 1529 1529 1529 1529 1529 1529 1529 1529 1529 1529 1529 1536 1536 1543 1550 1550 1557 1557 1557 1947 1947 1947 1947 1947 1947 1947 1739 1731 1722 1722 1731 1739 1739 1748 1748 1748 1748 1959 1959 1959 1947 1947 1947 1959 1959 1959 1959 1959 1959 1959 1947 1947 1959 1947 1947 1959 1959 1959 1970 1970 1970 1970 1970 1970 1970 1970 1970 1970 1970 1970 1970 1970 1970 1970 1970 1970 1981 1981 1981 1981 1981 1981 1981 1981 1981 1981 1981 1981 1981 1981 1981 1981 1981 1981 1981 1981 1993 1981 1981 1981 1981 1516 1516 1516 1523 1523 1523 1523 1523 1523 1523 1529 1529 1529 1536 1543 1557 1993 1993 1993 1993 1993 1993 2005 2005 2005 2016 1748 1748 1748 1748 1757 1757 1766 1776 1776 1785 1785 1794 1981 1981 1970 1970 1970 1959 1959 1959 1959 1959 1959 1959 1959 1970 1970 1970 1981 1981 1981 1981 1981 1439 1439 1439 1433 1427 1427 1427 1427 1427 1427 1439 1439 1452 1452 1458 1464 1470 1489 0 0 0 0 0 1970 1970 1970 1970 1981 1981 1993 1993 2005 1993 1993 1993 1993 1993 1993 1993 2005 2005 2005 2005 2005 2005 2005 2005 2005 2005 2005 2005 1993 1993 1981 1981 1981 1981 1981 1981 1981 1993 2005 2005 2005 2005 2005 2005 2005 1993 1993 1981 1981 1981 1981 1993 1993 1993 2005 2005 2005 2005 1993 1993 1993 1993 1993 1981 1981 1981 1981 1993 1993 1993 1993 1993 1981 1981 1981 1993 1993 1993 1993 1993 1993 1993 1993 1993 1993 1981 1981 1981 1981 1381 1381 1381 1392 1392 1392 1392 1392 1392 1392 1392 1392 1392 1392 1392 1392 1981 1981 1981 1993 1993 1981 1981 1993 1993 2005 2005 2005 2005 1993 1981 1981 1981 1981 1970 1970 1959 1959 1947 1947 1936 1926 1926 1926 1926 1936 1947 1959 1970 1981 1993 1993 1993 1993 1993 1993 1993 1993 1993 1993 1993 1993 1993 1993 1993 1993 1993 1993 1993 1993 1993 1993 1993 1993 1993 1993 1993 1993 1993 1993 1993 1993 1993 1993 1993 1993 1981 1981 1970 1970 1516 1509 1503 1503 1496 1496 1489 1489 1489 1489 1489 1489 1489 1489 1489 1489 1496 1496 1496 1496 1503 1503 1516 1970 1970 1981 1993 1993 1970 1970 1970 1970 1981 1981 1981 1981 1981 1981 1981 1981 1981 1981 1981 1981 1981 1970 1970 1970 1970 1981 1981 1981 1981 1981 1981 1981 1970 1970 1970 1981 1981 1970 1970 1970 1970 1970 1970 1970 1970 1981 1981 1981 1981 1981 1981 1981 1981 1981 1981 1981 1981 1981 1993 1981 1981 1981 1981 1981 1981 1981 1981 1981 1981 1981 1981 1981 1981 1981 1981 1981 1981 1981 1981 1981 1993 1993 1993 1993 1993 1993 1993 1981 1981 1981 1981 1970 1970 1970 1970 1970 1970 1970 1959 1959 1959 1959 1959 1959 1959 1970 1970 1970 1970 1970 1970 1959 1959 1970 1970 1970 1970 1970 1970 1970 1970 1970 1970 1970 1970 1970 1970 1970 1970 1970 1970 1970 1970 0 0 0 0 0 0 0 0
0 0 0 0 0 0 0 0 0 0 0 0 0 0 0 0 0 0 0 0 0 0 0 0 0 0 0 0 0 0 0 0 0 0 1936 1936 1936 1936 1936 1947 1959 1959 1959 1959 1959 1947 1947 1936 1936 1936 1936 1936 1936 1936 1936 1936 1936 1936 1936 1947 1947 1947 1947 1947 1947 1947 1936 1936 1936 1936 1936 1926 1926 1936 1936 1936 1936 1936 1947 1947 1947 1947 1947 1947 1947 1947 1947 1947 1947 1947 1947 1936 1936 1936 1936 1947 1947 1947 1947 1936 1936 1936 1936 1936 1616 1616 1616 1616 1616 1624 1624 1624 1632 1529 1529 1529 1529 1529 1529 1529 1529 1529 1529 1529 1536 1536 1543 1550 1550 1557 1557 1557 1947 1936 1936 1936 1936 1936 1713 1713 1713 1722 1722 1722 1731 1739 1748 1748 1748 1959 1959 1947 1947 1947 1947 1947 1947 1947 1947 1947 1947 1947 1947 1947 1947 1947 1947 1947 1947 1959 1959 1959 1959 1959 1959 1959 1959 1970 1970 1970 1970 1959 1959 1959 1959 1959 1959 1959 1959 1970 1970 1970 1981 1970 1970 1981 1981 1981 1981 1981 1981 1981 1981 1981 1981 1981 1981 1981 1981 1981 1981 1981 1981 1981 1516 1516 1516 1523 1523 1523 1523 1523 1523 1523 1529 1536 1536 1536 1543 1557 1993 1993 1993 1993 1993 1993 1993 1993 1993 2005 1739 1739 1739 1739 1748 1757 1757 1776 1776 1785 1785 1970 1970 1981 1970 1970 1970 1970 1959 1959 1959 1959 1959 1959 1959 1970 1970 1970 1970 1981 1981 1981 1981 1439 1439 1439 1433 1433 1433 1433 1427 1427 1433 1439 1445 1452 1452 1458 1464 1464 1470 0 0 0 0 0 1970 1970 1970 1970 1970 1981 1981 1981 1981 1981 1981 1981 1981 1981 1981 1981 1981 1993 1993 1993 1993 1993 1993 1981 1981 1993 1981 1981 1981 1981 1981 1981 1981 1981 1970 1970 1981 1981 1993 1993 1993 1993 1993 1993 1993 1981 1981 1981 1981 1981 1981 1981 1981 1993 1993 1993 1993 1993 1981 1981 1981 1981 1981 1981 1981 1981 1981 1981 1981 1981 1993 1993 1981 1981 1981 1981 1981 1981 1981 1981 1981 1981 1981 1981 1981 1981 1981 1981 1387 1381 1381 1381 1392 1392 1392 1392 1392 1392 1392 1392 1392 1392 1392 1392 1981 1981 1981 1981 1993 1981 1981 1981 1993 1993 1993 1993 1993 1993 1993 1981 1981 1981 1981 1970 1970 1959 1959 1947 1947 1947 1926 1926 1926 1936 1936 1947 1959 1959 1981 1981 1981 1981 1981 1981 1981 1981 1981 1981 1981 1981 1981 1981 1981 1981 1981 1981 1981 1981 1981 1981 1981 1981 1981 1981 1981 1981 1993 1993 1993 1981 1981 1981 1981 1981 1981 1981 1981 1970 1970 1970 1503 1503 1503 1496 1496 1496 1496 1496 1489 1489 1489 1496 1496 1496 1496 1496 1496 1496 1496 1503 1509 1959 1959 1959 1970 1981 1981 1970 1970 1970 1970 1970 1970 1970 1981 1981 1981 1981 1970 1970 1970 1970 1970 1970 1970 1970 1970 1970 1970 1981 1970 1970 1970 1970 1970 1970 1970 1970 1970 1970 1970 1970 1970 1970 1970 1970 1970 1970 1970 1970 1970 1981 1981 1981 1981 1981 1981 1981 1981 1981 1981 1981 1970 1970 1970 1970 1981 1981 1981 1981 1981 1981 1981 1981 1970 1970 1970 1970 1981 1981 1981 1981 1981 1981 1981 1981 1981 1981 1981 1981 1981 1970 1970 1970 1959 1959 1959 1970 1970 1970 1970 1959 1959 1959 1947 1947 1959 1959 1959 1959 1959 1970 1959 1959 1959 1959 1970 1959 1959 1959 1959 1959 1959 1959 1959 1959 1970 1970 1970 1970 1970 1970 1970 1970 1970 1970 0 0 0 0 0 0 0 0
0 0 0 0 0 0 0 0 0 0 0 0 0 0 0 0 0 0 0 0 0 0 0 0 0 0 0 0 0 0 0 0 0 0 1926 1926 1926 1926 1936 1936 1947 1947 1947 1947 1947 1936 1936 1936 1926 1926 1926 1926 1936 1926 1926 1926 1926 1936 1936 1936 1936 1936 1936 1936 1936 1936 1936 1926 1926 1936 1936 1926 1926 1936 1936 1936 1936 1936 1947 1947 1947 1936 1936 1947 1947 1947 1936 1936 1936 1936 1936 1936 1936 1936 1936 1936 1936 1936 1936 1936 1936 1936 1936 1936 1609 1609 1609 1616 1616 1624 1624 1624 1632 1529 1529 1529 1529 1529 1529 1529 1529 1529 1529 1536 1543 1543 1550 1557 1557 1564 1564 1564 1936 1936 1936 1936 1936 1936 1713 1713 1713 1722 1722 1722 1731 1739 1739 1739 1748 1959 1947 1947 1947 1936 1936 1936 1936 1936 1936 1947 1947 1947 1947 1947 1947 1947 1947 1947 1947 1947 1947 1947 1959 1959 1959 1959 1959 1970 1959 1959 1959 1959 1959 1959 1959 1959 1959 1959 1959 1959 1970 1970 1970 1970 1970 1970 1970 1970 1970 1970 1970 1970 1970 1981 1970 1970 1970 1970 1981 1981 1981 1981 1981 1981 1516 1516 1523 1523 1523 1523 1523 1523 1523 1523 1529 1536 1536 1536 1543 1557 1981 1970 1970 1981 1981 1981 1981 1981 1981 1993 1739 1739 1739 1739 1748 1757 1757 1776 1776 1785 1970 1970 1970 1970 1970 1970 1970 1970 1959 1959 1959 1959 1959 1959 1959 1959 1970 1970 1970 1981 1981 1981 1981 1439 1439 1439 1439 1433 1433 1433 1433 1433 1439 1439 1445 1445 1452 1458 1464 1464 1464 0 0 0 0 0 1959 1959 1959 1970 1970 1981 1981 1981 1981 1981 1981 1981 1981 1981 1981 1981 1981 1981 1981 1993 1981 1981 1981 1981 1981 1981 1981 1981 1981 1981 1981 1981 1981 1970 1970 1970 1970 1970 1981 1981 1981 1981 1981 1970 1970 1970 1970 1970 1970 1970 1970 1970 1981 1981 1981 1981 1981 1981 1970 1970 1970 1970 1970 1981 1981 1981 1981 1981 1981 1981 1981 1981 1981 1981 1981 1981 1981 1981 1981 1981 1981 1981 1981 1981 1981 1970 1970 1970 1387 1387 1381 1381 1392 1392 1392 1392 1392 1392 1392 1392 1392 1392 1392 1392 1993 1993 1981 1981 1981 1981 1981 1981 1993 1981 1981 1993 1993 1993 1981 1970 1970 1970 1970 1970 1959 1959 1959 1947 1947 1936 1926 1926 1936 1936 1936 1947 1959 1959 1970 1970 1970 1981 1981 1970 1970 1970 1970 1970 1970 1970 1970 1981 1970 1970 1970 1970 1970 1970 1970 1970 1970 1970 1981 1981 1981 1981 1981 1981 1981 1970 1970 1981 1981 1981 1981 1981 1993 1981 1981 1503 1503 1503 1503 1496 1496 1496 1496 1496 1489 1489 1489 1496 1496 1496 1496 1503 1503 1503 1503 1503 1959 1959 1959 1959 1970 1970 1970 1959 1959 1959 1959 1970 1970 1970 1970 1970 1981 1970 1970 1970 1970 1959 1959 1970 1970 1970 1970 1970 1970 1970 1970 1970 1970 1970 1970 1959 1959 1970 1970 1970 1970 1970 1970 1970 1970 1970 1970 1970 1970 1959 1959 1970 1970 1970 1970 1970 1981 1970 1970 1970 1970 1970 1970 1970 1970 1970 1970 1970 1970 1981 1970 1970 1981 1981 1970 1959 1959 1959 1970 1970 1970 1970 1981 1981 1981 1981 1970 1970 1970 1959 1959 1959 1959 1959 1947 1947 1947 1959 1959 1959 1947 1947 1947 1947 1947 1947 1947 1947 1947 1959 1959 1959 1959 1947 1947 1947 1959 1959 1947 1947 1959 1959 1947 1947 1947 1947 1959 1959 1970 1970 1970 1959 1959 1970 1959 1959 0 0 0 0 0 0 0 0
0 0 0 0 0 0 0 0 0 0 0 0 0 0 0 0 0 0 0 0 0 0 0 0 0 0 0 0 0 0 0 0 0 0 1926 1926 1926 1926 1926 1936 1936 1926 1926 1926 1936 1936 1936 1936 1926 1926 1926 1926 1926 1926 1926 1926 1926 1926 1926 1926 1926 1926 1926 1926 1926 1926 1926 1926 1926 1926 1926 1926 1926 1926 1926 1926 1936 1936 1936 1936 1936 1936 1936 1936 1936 1936 1936 1936 1936 1936 1936 1926 1926 1926 1926 1936 1936 1936 1926 1926 1926 1926 1926 1926 1601 1601 1609 1609 1616 1616 1624 1624 1616 1616 1529 1529 1529 1536 1536 1536 1536 1536 1536 1536 1543 1543 1550 1557 1557 1564 1564 1564 1564 1936 1936 1936 1936 1705 1705 1713 1713 1713 1713 1722 1722 1731 1739 1739 1959 1959 1947 1947 1947 1926 1926 1936 1936 1936 1936 1936 1936 1936 1936 1936 1936 1936 1936 1936 1936 1936 1947 1947 1959 1959 1947 1947 1959 1947 1947 1947 1947 1947 1947 1947 1959 1959 1959 1959 1959 1959 1959 1959 1959 1959 1959 1959 1959 1959 1959 1959 1959 1959 1959 1959 1959 1959 1970 1970 1970 1981 1981 1981 1981 1981 1516 1516 1523 1523 1523 1523 1523 1523 1523 1523 1529 1536 1536 1543 1550 1557 1959 1947 1947 1959 1970 1970 1981 1981 1981 1739 1739 1739 1739 1739 1748 1757 1757 1776 1776 1785 1970 1970 1970 1970 1970 1970 1970 1970 1947 1947 1947 1947 1959 1947 1947 1959 1970 1970 1970 1970 1970 1981 1981 1439 1439 1439 1439 1433 1433 1439 1439 1439 1439 1445 1445 1445 1452 1458 1464 1464 1464 0 0 0 1915 0 1936 1936 1947 1947 1970 1970 1981 1981 1981 1981 1981 1981 1981 1981 1981 1981 1981 1981 1981 1970 1970 1970 1970 1981 1981 1981 1970 1970 1970 1970 1981 1981 1970 1970 1970 1970 1970 1970 1970 1970 1970 1970 1970 1959 1959 1959 1959 1959 1959 1970 1970 1970 1970 1970 1970 1970 1970 1970 1970 1970 1970 1970 1970 1970 1970 1970 1970 1970 1970 1970 1970 1970 1970 1970 1970 1981 1970 1970 1970 1970 1970 1970 1970 1970 1970 1970 1970 1970 1970 1387 1387 1392 1392 1392 1392 1392 1392 1392 1392 1392 1392 1392 1392 1392 2005 2005 1981 1981 1981 1981 1981 1981 1981 1981 1981 1981 1981 1981 1981 1970 1970 1970 1970 1970 1959 1959 1947 1947 1947 1936 1936 1936 1936 1936 1936 1947 1947 1959 1959 1970 1970 1970 1970 1959 1959 1959 1970 1970 1970 1970 1970 1970 1970 1970 1970 1970 1970 1970 1970 1970 1970 1970 1970 1970 1970 1970 1970 1970 1970 1970 1970 1970 1970 1981 1970 1970 1993 1993 1993 1503 1503 1503 1503 1496 1496 1496 1496 1496 1496 1496 1496 1496 1496 1503 1503 1503 1503 1503 1503 1947 1947 1947 1959 1959 1959 1970 1970 1959 1959 1959 1959 1959 1959 1959 1959 1970 1970 1959 1959 1959 1959 1959 1959 1959 1959 1959 1959 1970 1970 1970 1959 1959 1959 1959 1959 1959 1959 1959 1970 1970 1970 1970 1959 1959 1959 1959 1959 1959 1959 1959 1959 1959 1959 1959 1970 1970 1970 1959 1959 1959 1959 1970 1970 1959 1959 1959 1970 1970 1970 1970 1959 1959 1959 1959 1959 1959 1959 1959 1959 1959 1970 1970 1970 1970 1970 1970 1970 1970 1970 1959 1959 1947 1947 1959 1936 1936 1936 1936 1936 1936 1936 1936 1936 1936 1936 1936 1936 1936 1947 1947 1947 1959 1947 1947 1947 1947 1959 1947 1947 1947 1947 1947 1936 1936 1936 1936 1947 1947 1959 1959 1959 1947 1947 1959 1959 1959 0 0 0 0 0 0 0 0
0 0 0 0 0 0 0 0 0 0 0 0 0 0 0 0 0 0 0 0 0 0 0 0 0 0 0 0 0 0 0 0 0 0 1915 1915 1926 1926 1926 1926 1926 1926 1926 1926 1926 1926 1926 1926 1926 1926 1926 1926 1926 1926 1926 1926 1926 1926 1926 1926 1926 1926 1926 1926 1926 1926 1926 1915 1915 1926 1926 1926 1926 1926 1926 1926 1926 1936 1936 1936 1926 1926 1926 1936 1936 1926 1926 1936 1926 1926 1926 1926 1926 1926 1926 1926 1926 1926 1926 1915 1915 1915 1915 1915 1601 1601 1609 1609 1616 1616 1624 1624 1616 1616 1536 1536 1536 1536 1536 1536 1536 1536 1536 1536 1543 1543 1550 1557 1557 1564 1564 1564 1564 1936 1936 1936 1696 1696 1705 1705 1713 1713 1713 1722 1722 1722 1731 1731 1731 1947 1947 1936 1936 1926 1926 1926 1926 1926 1926 1936 1936 1936 1936 1936 1936 1936 1936 1936 1936 1936 1936 1947 1947 1947 1947 1947 1947 1947 1947 1947 1947 1947 1947 1947 1947 1947 1947 1947 1947 1947 1947 1947 1959 1959 1959 1959 1959 1959 1947 1947 1947 1947 1959 1947 1947 1947 1959 1959 1959 1959 1970 1970 1981 1981 1516 1516 1523 1523 1523 1523 1523 1523 1523 1523 1529 1536 1536 1543 1550 1564 1947 1947 1947 1947 1959 1959 1970 1731 1731 1731 1739 1739 1739 1739 1748 1757 1757 1776 1776 1959 1959 1959 1959 1970 1970 1970 1970 1970 1947 1947 1947 1947 1959 1947 1947 1959 1959 1959 1959 1959 1970 1981 1981 1445 1439 1439 1439 1439 1439 1439 1439 1439 1439 1445 1445 1452 1452 1458 1458 1464 1464 0 0 0 1915 1915 1926 1926 1936 1936 1959 1959 1970 1970 1970 1970 1970 1981 1981 1981 1981 1981 1970 1970 1981 1970 1970 1970 1970 1970 1970 1970 1970 1970 1970 1970 1970 1970 1970 1959 1959 1959 1970 1970 1970 1970 1959 1959 1959 1959 1959 1959 1959 1959 1959 1959 1959 1959 1970 1970 1970 1970 1959 1959 1970 1959 1959 1959 1959 1959 1959 1959 1970 1970 1970 1970 1970 1970 1970 1970 1970 1970 1970 1970 1970 1970 1970 1970 1970 1970 1959 1959 1959 1970 1970 1387 1387 1387 1392 1392 1392 1392 1392 1392 1392 1392 1392 1398 1398 1398 1398 1959 1959 1959 1970 1981 1981 1981 1981 1981 1981 1970 1970 1970 1981 1970 1959 1959 1959 1959 1959 1947 1947 1936 1936 1936 1936 1936 1936 1936 1947 1947 1947 1959 1959 1959 1959 1970 1959 1959 1959 1959 1959 1959 1959 1959 1959 1959 1959 1959 1959 1959 1970 1959 1959 1970 1970 1970 1970 1959 1959 1959 1959 1959 1970 1959 1959 1959 1970 1970 1959 1959 1993 1509 1509 1503 1503 1503 1503 1503 1503 1503 1496 1496 1496 1496 1496 1503 1503 1503 1503 1503 1503 1503 1503 1947 1947 1947 1947 1947 1959 1959 1959 1947 1947 1947 1947 1959 1959 1959 1959 1959 1959 1947 1947 1947 1959 1959 1959 1959 1959 1959 1959 1970 1959 1959 1947 1947 1947 1947 1947 1947 1947 1959 1959 1959 1959 1959 1959 1959 1959 1959 1947 1947 1947 1947 1947 1947 1947 1959 1959 1959 1959 1959 1959 1959 1959 1959 1959 1959 1959 1959 1959 1959 1970 1959 1959 1947 1947 1959 1947 1947 1947 1947 1959 1959 1959 1959 1959 1970 1970 1959 1959 1959 1959 1947 1947 1947 1947 1947 1936 1936 1936 1936 1936 1936 1936 1936 1936 1936 1936 1936 1936 1936 1936 1936 1936 1936 1936 1936 1936 1947 1947 1936 1936 1936 1936 1936 1936 1936 1936 1936 1936 1936 1947 1947 1947 1947 1947 1947 1947 1947 0 0 0 0 0 0 0 0
0 0 0 0 0 0 0 0 0 0 0 0 0 0 0 0 0 0 0 0 0 0 0 0 0 0 0 0 0 0 0 0 0 0 1915 1915 1915 1915 1926 1926 1926 1926 1915 1915 1915 1915 1926 1926 1926 1926 1926 1926 1926 1926 1926 1915 1915 1926 1915 1915 1915 1915 1915 1915 1926 1926 1915 1915 1915 1926 1926 1915 1915 1926 1926 1926 1926 1926 1926 1926 1926 1926 1926 1936 1926 1926 1926 1926 1926 1926 1915 1915 1915 1915 1915 1915 1915 1915 1915 1915 1915 1915 1915 1915 1915 1915 1609 1609 1624 1624 1624 1624 1624 1616 1536 1536 1536 1536 1536 1536 1536 1536 1536 1536 1543 1543 1550 1557 1557 1564 1564 1564 1564 1936 1947 1696 1696 1696 1705 1705 1705 1713 1713 1713 1722 1722 1722 1731 1947 1947 1936 1936 1936 1926 1926 1926 1926 1926 1926 1926 1926 1926 1915 1915 1926 1926 1926 1926 1936 1936 1936 1936 1936 1936 1936 1936 1936 1936 1936 1936 1936 1947 1947 1947 1947 1947 1947 1936 1936 1936 1947 1947 1947 1947 1947 1947 1947 1947 1947 1947 1947 1947 1947 1947 1947 1947 1947 1947 1947 1959 1959 1959 1981 1523 1523 1523 1523 1523 1523 1523 1523 1523 1523 1529 1529 1536 1543 1550 1557 1564 1579 1947 1947 1947 1947 1947 1959 1731 1731 1731 1739 1739 1739 1739 1748 1757 1757 1776 1776 1959 1959 1959 1959 1959 1959 1970 1970 1947 1947 1947 1947 1959 1959 1947 1947 1959 1959 1959 1959 1959 1970 1970 1439 1439 1439 1439 1439 1439 1439 1439 1439 1439 1439 1445 1445 1445 1452 1452 1458 1458 1464 0 0 0 1904 1904 1904 1926 1926 1936 1947 1959 1959 1959 1970 1970 1970 1970 1970 1970 1970 1970 1970 1970 1970 1970 1970 1970 1970 1970 1970 1970 1970 1970 1970 1970 1970 1970 1970 1959 1959 1959 1970 1970 1959 1959 1959 1959 1959 1959 1959 1959 1959 1959 1959 1959 1959 1959 1959 1959 1959 1959 1959 1959 1959 1959 1959 1959 1959 1959 1959 1959 1959 1959 1959 1970 1970 1970 1970 1970 1970 1970 1959 1959 1959 1959 1959 1959 1959 1959 1959 1959 1959 1970 1970 1387 1387 1387 1392 1392 1398 1398 1398 1398 1398 1398 1398 1398 1398 1398 1398 1959 1959 1959 1970 1970 1970 1970 1970 1970 1970 1970 1970 1970 1970 1959 1959 1959 1959 1959 1959 1947 1947 1936 1936 1936 1936 1936 1936 1936 1947 1947 1947 1959 1959 1959 1959 1959 1959 1959 1959 1959 1959 1959 1959 1959 1959 1959 1959 1959 1959 1959 1959 1959 1959 1959 1959 1959 1959 1959 1959 1959 1959 1959 1959 1959 1959 1959 1959 1959 1947 1947 1947 1509 1509 1503 1503 1503 1503 1503 1503 1503 1503 1496 1496 1496 1496 1503 1503 1503 1503 1503 1503 1503 1503 1947 1947 1947 1947 1947 1947 1959 1959 1947 1947 1947 1947 1947 1947 1947 1959 1959 1947 1947 1947 1947 1947 1947 1947 1947 1947 1959 1959 1959 1959 1947 1947 1947 1947 1947 1947 1947 1947 1947 1947 1959 1959 1959 1959 1959 1959 1947 1947 1947 1947 1947 1947 1947 1947 1947 1947 1947 1947 1947 1947 1947 1947 1947 1947 1947 1947 1947 1947 1947 1959 1947 1947 1947 1947 1947 1947 1947 1947 1947 1947 1959 1959 1959 1959 1959 1959 1947 1947 1947 1947 1947 1947 1947 1947 1947 1926 1926 1936 1936 1936 1936 1936 1936 1926 1926 1926 1926 1926 1926 1926 1936 1936 1936 1936 1936 1936 1936 1936 1936 1926 1926 1926 1926 1926 1926 1926 1936 1936 1936 1936 1936 1936 1936 1936 1936 1947 1947 0 0 0 0 0 0 0 0
0 0 0 0 0 0 0 0 0 0 0 0 0 0 0 0 0 0 0 0 0 0 0 0 0 0 0 0 0 0 0 0 0 0 1915 1915 1915 1915 1915 1915 1926 1915 1915 1915 1915 1915 1915 1915 1926 1926 1926 1926 1926 1926 1915 1915 1915 1915 1915 1915 1915 1915 1915 1915 1915 1926 1915 1915 1915 1915 1915 1915 1915 1915 1915 1915 1915 1915 1915 1915 1915 1915 1915 1915 1915 1915 1915 1915 1915 1915 1915 1915 1915 1915 1915 1915 1915 1915 1915 1915 1915 1915 1915 1915 1915 1624 1609 1609 1624 1624 1624 1624 1616 1609 1543 1543 1536 1536 1536 1536 1536 1536 1536 1536 1543 1543 1550 1557 1557 1564 1564 1564 1936 1936 1947 1696 1696 1696 1705 1705 1705 1705 1713 1713 1713 1713 1722 1722 1936 1936 1936 1936 1926 1915 1915 1926 1915 1915 1915 1915 1915 1915 1915 1915 1915 1926 1926 1926 1926 1936 1936 1936 1936 1926 1926 1926 1926 1936 1936 1936 1936 1936 1936 1936 1936 1936 1936 1936 1936 1936 1936 1936 1936 1936 1936 1936 1947 1947 1947 1947 1936 1936 1947 1947 1947 1936 1936 1947 1947 1947 1947 1947 1947 1523 1523 1523 1523 1523 1523 1523 1523 1523 1523 1529 1529 1536 1536 1543 1557 1564 1579 1947 1947 1947 1947 1947 1731 1731 1731 1731 1739 1739 1739 1739 1739 1748 1748 1776 1959 1959 1947 1947 1959 1959 1959 1959 1959 1947 1947 1947 1947 1947 1947 1947 1947 1947 1947 1947 1947 1947 1959 1959 1433 1433 1433 1439 1439 1439 1439 1439 1439 1439 1439 1445 1445 1445 1452 1452 1452 1458 1464 0 0 1904 1904 1904 1904 1926 1926 1936 1947 1947 1947 1947 1959 1959 1959 1959 1959 1970 1970 1970 1970 1970 1970 1959 1959 1959 1959 1947 1947 1959 1959 1959 1959 1959 1970 1970 1970 1959 1959 1959 1959 1959 1959 1959 1959 1947 1947 1947 1947 1959 1959 1959 1959 1959 1959 1959 1959 1947 1947 1959 1947 1947 1959 1947 1947 1959 1959 1959 1959 1959 1959 1959 1959 1959 1959 1959 1959 1959 1959 1959 1959 1959 1959 1959 1959 1959 1959 1959 1959 1959 1959 1959 1387 1387 1387 1392 1392 1392 1398 1398 1398 1398 1398 1398 1398 1398 1398 1398 1398 1947 1947 1947 1959 1959 1959 1959 1959 1970 1959 1959 1959 1959 1959 1947 1947 1947 1947 1947 1947 1947 1947 1947 1947 1947 1947 1947 1936 1936 1947 1947 1947 1947 1959 1959 1959 1959 1947 1947 1947 1947 1947 1947 1947 1947 1959 1959 1959 1959 1959 1959 1959 1959 1959 1959 1959 1959 1959 1959 1959 1959 1947 1947 1959 1947 1947 1959 1959 1959 1947 1947 1947 1509 1509 1509 1509 1503 1503 1503 1503 1503 1496 1496 1496 1496 1503 1503 1503 1503 1503 1503 1503 1503 1509 1947 1947 1947 1947 1947 1947 1947 1959 1947 1947 1947 1947 1947 1947 1947 1947 1947 1947 1947 1947 1947 1947 1947 1947 1947 1947 1947 1947 1947 1947 1947 1947 1947 1947 1947 1936 1936 1936 1947 1947 1947 1947 1947 1947 1947 1947 1947 1947 1947 1947 1947 1947 1947 1947 1947 1947 1947 1947 1947 1947 1947 1947 1947 1947 1947 1947 1947 1947 1947 1947 1947 1947 1936 1936 1936 1936 1936 1936 1936 1947 1947 1947 1947 1947 1947 1947 1947 1947 1947 1947 1947 1947 1947 1936 1936 1926 1926 1926 1926 1936 1926 1926 1936 1926 1926 1926 1926 1926 1926 1926 1926 1926 1926 1926 1926 1926 1926 1926 1926 1926 1926 1926 1926 1926 1926 1926 1926 1926 1926 1926 1926 1926 1926 1936 1936 1936 1936 0 0 0 0 0 0 0 0
0 0 0 0 0 0 0 0 0 0 0 0 0 0 0 0 0 0 0 0 0 0 0 0 0 0 0 0 0 0 0 0 0 0 1904 1904 1904 1904 1915 1915 1915 1904 1904 1904 1904 1904 1904 1904 1926 1926 1926 1926 1926 1915 1915 1915 1915 1915 1915 1915 1904 1904 1915 1915 1915 1915 1915 1915 1915 1915 1915 1915 1915 1915 1915 1915 1915 1915 1904 1904 1904 1904 1904 1915 1915 1915 1915 1915 1915 1915 1904 1904 1904 1904 1904 1904 1904 1904 1904 1904 1904 1904 1904 1904 1904 1616 1616 1624 1624 1624 1624 1624 1616 1609 1543 1543 1543 1543 1536 1536 1536 1536 1543 1543 1543 1543 1557 1557 1564 1564 1564 1572 1947 1947 1696 1696 1696 1696 1696 1696 1705 1705 1705 1705 1705 1705 1713 1722 1915 1915 1926 1926 1926 1915 1915 1915 1915 1915 1915 1915 1915 1915 1915 1915 1915 1915 1915 1915 1915 1926 1926 1926 1926 1926 1926 1926 1915 1915 1926 1926 1926 1926 1936 1936 1936 1936 1936 1936 1936 1936 1936 1936 1936 1936 1936 1936 1936 1936 1936 1936 1936 1936 1936 1936 1936 1936 1936 1947 1947 1947 1947 1947 1947 1523 1523 1523 1523 1523 1529 1529 1523 1523 1523 1529 1529 1529 1536 1543 1557 1572 1579 1947 1947 1947 1936 1936 1722 1722 1731 1731 1739 1739 1739 1739 1739 1748 1748 1748 1936 1936 1947 1947 1947 1947 1947 1947 1947 1947 1947 1947 1947 1936 1936 1936 1947 1947 1947 1947 1947 1947 1947 1947 1427 1427 1427 1439 1439 1439 1439 1439 1439 1439 1439 1439 1445 1445 1445 1445 1445 1452 1452 0 1904 1915 1915 1915 1915 1926 1926 1936 1936 1936 1947 1947 1947 1947 1947 1947 1959 1959 1959 1959 1959 1959 1959 1947 1947 1947 1947 1936 1936 1947 1947 1947 1947 1959 1959 1959 1959 1959 1947 1947 1947 1947 1959 1959 1947 1947 1947 1947 1947 1947 1947 1959 1959 1959 1947 1947 1947 1936 1936 1936 1936 1936 1947 1947 1947 1947 1947 1947 1947 1959 1959 1959 1959 1959 1959 1959 1959 1959 1959 1959 1959 1959 1959 1959 1947 1947 1947 1947 1947 1947 1959 1959 1392 1392 1392 1392 1392 1392 1398 1398 1398 1398 1398 1398 1398 1404 1404 1404 1926 1936 1936 1936 1947 1947 1959 1959 1959 1959 1959 1959 1959 1959 1959 1947 1947 1947 1947 1947 1947 1947 1947 1947 1936 1936 1947 1947 1926 1926 1936 1936 1936 1936 1947 1947 1947 1947 1947 1947 1947 1947 1947 1947 1947 1947 1959 1959 1959 1947 1947 1947 1947 1947 1947 1959 1959 1959 1959 1947 1947 1947 1947 1947 1947 1947 1947 1947 1947 1947 1947 1959 1959 1509 1509 1509 1509 1503 1503 1503 1503 1503 1496 1496 1496 1496 1503 1503 1503 1503 1509 1509 1509 1509 1509 1947 1947 1947 1947 1947 1947 1947 1947 1936 1936 1936 1947 1947 1947 1947 1947 1947 1947 1936 1936 1936 1936 1936 1936 1936 1936 1947 1947 1947 1936 1936 1936 1947 1936 1936 1936 1936 1936 1936 1947 1947 1947 1947 1947 1947 1947 1947 1936 1936 1936 1936 1947 1936 1936 1936 1947 1947 1936 1936 1936 1936 1936 1936 1936 1936 1936 1947 1947 1947 1936 1936 1936 1936 1936 1936 1936 1936 1936 1936 1936 1936 1936 1936 1936 1936 1947 1936 1936 1936 1936 1936 1936 1936 1936 1936 1926 1926 1926 1926 1926 1926 1926 1926 1926 1926 1926 1926 1926 1926 1915 1915 1915 1915 1926 1926 1915 1915 1915 1915 1926 1926 1926 1926 1926 1926 1926 1926 1926 1926 1926 1926 1926 1926 1926 1926 1926 1926 0 0 0 0 0 0 0 0
0 0 0 0 0 0 0 0 0 0 0 0 0 0 0 0 0 0 0 0 0 0 0 0 0 0 0 0 0 0 0 0 0 0 1894 1894 1894 1894 1904 1904 1904 1904 1904 1904 1904 1904 1904 1904 1915 1915 1915 1915 1915 1915 1915 1915 1915 1915 1915 1904 1904 1904 1904 1904 1915 1915 1904 1904 1904 1904 1904 1904 1904 1904 1904 1904 1904 1904 1904 1904 1904 1904 1904 1904 1904 1904 1904 1904 1904 1904 1904 1904 1904 1904 1904 1904 1904 1904 1904 1904 1904 1904 1904 1904 1904 1616 1616 1624 1624 1624 1624 1624 1616 1572 1564 1550 1543 1543 1543 1536 1536 1536 1543 1543 1543 1543 1557 1557 1564 1564 1564 1572 1572 1572 1688 1688 1688 1688 1688 1696 1696 1705 1705 1705 1705 1705 1713 1904 1904 1904 1915 1915 1915 1915 1904 1904 1904 1904 1915 1904 1904 1915 1904 1904 1915 1915 1915 1915 1915 1915 1926 1926 1926 1915 1915 1915 1915 1915 1926 1926 1926 1926 1926 1926 1926 1926 1926 1926 1926 1936 1936 1936 1936 1936 1936 1926 1926 1936 1936 1936 1936 1936 1936 1936 1936 1936 1936 1936 1947 1947 1936 1936 1936 1523 1523 1523 1529 1529 1529 1529 1523 1523 1523 1529 1529 1529 1536 1543 1550 1557 1579 1936 1936 1936 1936 1713 1713 1722 1722 1731 1731 1731 1731 1731 1739 1739 1739 1739 1936 1936 1947 1947 1947 1947 1947 1947 1947 1936 1936 1936 1936 1936 1936 1936 1947 1947 1947 1947 1936 1936 1936 1936 1427 1427 1427 1439 1439 1439 1439 1439 1439 1439 1439 1439 1445 1445 1445 1445 1445 1452 1452 0 1904 1904 1904 1904 1904 1926 1926 1936 1936 1936 1936 1936 1936 1947 1947 1947 1947 1959 1959 1947 1947 1947 1947 1936 1936 1936 1936 1936 1936 1936 1936 1947 1947 1947 1947 1947 1947 1947 1947 1947 1947 1947 1947 1947 1936 1936 1936 1936 1936 1947 1947 1947 1947 1947 1947 1947 1936 1936 1936 1936 1936 1936 1936 1936 1936 1936 1926 1926 1947 1947 1947 1947 1947 1947 1947 1947 1959 1959 1947 1947 1947 1947 1947 1947 1947 1936 1936 1936 1936 1936 1947 1947 1398 1398 1398 1398 1392 1392 1398 1398 1398 1398 1398 1398 1398 1404 1404 1404 1926 1926 1926 1936 1947 1947 1947 1959 1959 1959 1959 1959 1959 1959 1959 1936 1936 1936 1936 1936 1936 1947 1947 1947 1936 1936 1936 1926 1926 1926 1926 1926 1936 1936 1936 1936 1947 1936 1936 1936 1947 1947 1947 1947 1947 1947 1947 1947 1947 1947 1947 1947 1947 1947 1947 1959 1947 1947 1947 1947 1947 1947 1947 1947 1947 1947 1947 1947 1947 1947 1947 1947 1947 1509 1509 1509 1509 1503 1503 1503 1503 1503 1503 1503 1503 1503 1503 1503 1503 1503 1509 1509 1509 1509 1509 1947 1947 1947 1936 1936 1947 1947 1947 1936 1936 1936 1936 1936 1936 1936 1936 1936 1936 1936 1936 1936 1936 1936 1936 1936 1936 1936 1936 1936 1936 1936 1936 1936 1936 1936 1936 1936 1936 1936 1936 1936 1936 1936 1936 1947 1936 1936 1936 1936 1936 1936 1936 1936 1936 1936 1936 1936 1936 1936 1936 1936 1936 1936 1936 1936 1936 1936 1936 1936 1936 1936 1936 1936 1936 1936 1936 1926 1926 1926 1926 1926 1936 1926 1926 1936 1936 1936 1936 1936 1936 1936 1936 1936 1936 1936 1926 1926 1926 1926 1926 1926 1926 1926 1915 1915 1915 1915 1926 1926 1915 1915 1915 1915 1915 1915 1915 1915 1915 1915 1926 1926 1926 1926 1926 1926 1926 1926 1926 1926 1926 1915 1915 1915 1915 1926 1926 1926 0 0 0 0 0 0 0 0
0 0 0 0 0 0 0 0 0 0 0 0 0 0 0 0 0 0 0 0 0 0 0 0 0 0 0 0 0 0 0 0 0 0 1883 1883 1894 1894 1904 1894 1894 1894 1894 1894 1894 1894 1915 1915 1915 1915 1915 1915 1915 1915 1915 1904 1904 1904 1904 1904 1904 1904 1904 1904 1915 1915 1904 1904 1904 1904 1904 1904 1904 1904 1904 1904 1904 1904 1904 1904 1904 1904 1904 1904 1894 1894 1904 1904 1904 1894 1894 1894 1894 1894 1894 1904 1894 1894 1894 1904 1904 1904 1894 1894 1894 1632 1624 1624 1624 1624 1624 1624 1616 1572 1564 1550 1543 1543 1543 1536 1536 1536 1536 1536 1543 1543 1550 1550 1550 1550 1550 1557 1557 1550 1680 1680 1680 1688 1688 1688 1696 1696 1705 1705 1705 1705 1883 1883 1904 1904 1904 1915 1915 1904 1904 1904 1904 1904 1904 1904 1904 1904 1904 1904 1904 1904 1904 1904 1915 1915 1915 1915 1915 1915 1915 1915 1904 1904 1915 1915 1915 1915 1926 1926 1926 1926 1926 1926 1926 1926 1926 1926 1926 1926 1926 1926 1926 1926 1936 1936 1936 1936 1936 1936 1936 1936 1936 1936 1936 1936 1936 1936 1936 1936 1529 1529 1529 1529 1529 1529 1529 1529 1529 1529 1529 1529 1536 1543 1550 1557 1915 1936 1936 1936 1936 1713 1713 1713 1713 1713 1731 1731 1731 1731 1731 1739 1739 1936 1936 1936 1936 1936 1936 1936 1936 1936 1936 1936 1936 1936 1926 1926 1936 1936 1936 1936 1936 1936 1936 1936 1936 1936 1936 1433 1433 1439 1439 1439 1439 1439 1439 1439 1445 1445 1445 1445 1445 1445 1452 1452 1452 0 1894 1894 1904 1904 1904 1915 1926 1936 1936 1936 1936 1936 1936 1936 1936 1936 1936 1947 1936 1936 1936 1936 1936 1936 1936 1936 1936 1936 1936 1936 1936 1936 1936 1936 1936 1947 1947 1947 1936 1936 1926 1926 1936 1936 1936 1936 1936 1936 1936 1936 1936 1947 1947 1947 1936 1936 1936 1936 1936 1926 1926 1926 1926 1926 1926 1926 1926 1926 1926 1926 1926 1926 1926 1947 1947 1947 1947 1947 1947 1947 1947 1947 1947 1936 1936 1936 1936 1936 1936 1936 1936 1936 1398 1398 1398 1398 1392 1392 1392 1398 1398 1398 1398 1398 1398 1404 1404 1936 1926 1926 1926 1936 1936 1947 1947 1947 1947 1959 1959 1959 1936 1936 1936 1926 1926 1926 1936 1936 1936 1947 1936 1936 1936 1936 1926 1926 1926 1926 1926 1926 1926 1926 1936 1936 1936 1936 1936 1936 1936 1936 1936 1936 1936 1936 1947 1947 1947 1947 1947 1947 1936 1936 1947 1947 1936 1936 1947 1926 1926 1936 1936 1936 1936 1936 1936 1936 1947 1947 1947 1947 1947 1516 1509 1509 1509 1509 1503 1503 1503 1503 1503 1503 1503 1503 1503 1503 1503 1503 1509 1509 1509 1509 1509 1936 1936 1936 1936 1936 1936 1936 1936 1926 1926 1926 1936 1936 1936 1936 1936 1936 1936 1926 1926 1936 1936 1936 1926 1926 1926 1936 1936 1926 1926 1936 1936 1936 1936 1936 1936 1936 1936 1936 1936 1936 1936 1936 1936 1936 1936 1936 1936 1936 1936 1936 1936 1936 1936 1936 1936 1936 1936 1936 1936 1936 1936 1936 1936 1936 1936 1936 1936 1926 1926 1926 1926 1926 1926 1926 1926 1926 1926 1926 1926 1926 1926 1926 1926 1926 1926 1926 1926 1926 1926 1926 1936 1936 1926 1926 1926 1926 1915 1915 1926 1915 1915 1915 1915 1915 1915 1915 1915 1915 1904 1904 1904 1904 1904 1904 1904 1904 1904 1915 1915 1915 1926 1915 1915 1926 1926 1915 1915 1915 1915 1915 1915 1915 1915 1915 1915 1926 0 0 0 0 0 0 0 0
0 0 0 0 0 0 0 0 0 0 0 0 0 0 0 0 0 0 0 0 0 0 0 0 0 0 0 0 0 0 0 0 0 0 1883 1883 1894 1894 1894 1894 1894 1894 1894 1894 1894 1894 1894 1894 1904 1904 1904 1894 1894 1894 1894 1894 1894 1904 1904 1894 1894 1904 1904 1904 1904 1904 1894 1894 1894 1894 1894 1894 1894 1894 1894 1904 1894 1894 1894 1894 1894 1894 1894 1894 1894 1894 1904 1904 1894 1894 1894 1883 1883 1894 1894 1894 1894 1894 1894 1894 1904 1904 1894 1894 1894 1632 1624 1624 1624 1624 1624 1624 1616 1586 1564 1543 1543 1543 1536 1536 1536 1536 1536 1536 1543 1543 1550 1550 1550 1550 1550 1550 1550 1550 1680 1680 1680 1680 1688 1688 1688 1696 1696 1696 1705 1883 1883 1883 1894 1904 1904 1904 1904 1894 1894 1894 1894 1894 1904 1904 1904 1904 1904 1904 1904 1904 1904 1904 1904 1904 1915 1915 1915 1915 1915 1915 1904 1904 1915 1915 1915 1915 1915 1915 1915 1915 1915 1915 1915 1915 1915 1915 1915 1915 1915 1915 1926 1926 1926 1926 1936 1936 1936 1926 1926 1926 1926 1926 1926 1936 1936 1936 1936 1936 1529 1529 1529 1529 1529 1529 1529 1529 1529 1529 1529 1529 1529 1529 1543 1550 1915 1936 1936 1947 1947 1705 1705 1713 1713 1713 1722 1722 1722 1722 1731 1731 1731 1926 1926 1926 1936 1936 1936 1926 1926 1926 1926 1926 1936 1926 1926 1926 1926 1936 1936 1936 1936 1936 1936 1926 1926 1926 1926 1439 1439 1439 1439 1439 1439 1439 1439 1439 1445 1445 1445 1445 1445 1445 1452 1452 0 0 1894 1894 1904 1904 1904 1915 1926 1936 1936 1936 1936 1936 1936 1936 1936 1936 1936 1936 1936 1936 1936 1936 1936 1936 1936 1936 1936 1936 1936 1936 1936 1936 1936 1936 1936 1936 1936 1936 1926 1926 1926 1926 1926 1936 1936 1936 1936 1936 1936 1936 1936 1936 1936 1936 1926 1926 1936 1926 1926 1926 1926 1926 1926 1926 1926 1926 1926 1926 1926 1926 1926 1926 1926 1936 1936 1947 1947 1947 1947 1936 1936 1936 1936 1936 1936 1926 1926 1926 1926 1926 1926 1926 1398 1398 1398 1398 1392 1392 1392 1398 1398 1398 1398 1404 1404 1404 1404 1936 1936 1926 1926 1926 1936 1947 1947 1947 1947 1959 1959 1926 1926 1926 1926 1926 1926 1926 1926 1926 1926 1936 1936 1936 1926 1926 1915 1915 1915 1915 1915 1926 1926 1926 1926 1926 1936 1926 1926 1926 1926 1926 1926 1936 1926 1926 1936 1936 1936 1936 1936 1936 1926 1926 1936 1936 1926 1926 1926 1926 1926 1936 1926 1926 1926 1926 1926 1926 1926 1926 1936 1936 1936 1516 1509 1509 1509 1509 1503 1503 1503 1503 1503 1503 1503 1503 1503 1503 1503 1503 1509 1509 1509 1509 1509 1926 1926 1926 1926 1926 1936 1936 1936 1926 1926 1926 1926 1926 1926 1926 1926 1926 1926 1926 1926 1926 1926 1926 1915 1915 1915 1926 1926 1915 1915 1926 1926 1926 1936 1936 1926 1926 1926 1926 1926 1926 1926 1926 1936 1936 1936 1926 1926 1926 1926 1926 1926 1926 1926 1926 1936 1936 1926 1926 1936 1936 1936 1936 1936 1936 1936 1926 1926 1926 1926 1926 1926 1926 1926 1926 1926 1926 1926 1915 1915 1915 1915 1915 1915 1915 1926 1926 1926 1926 1926 1926 1926 1926 1926 1926 1915 1915 1915 1915 1915 1915 1915 1915 1915 1915 1915 1915 1915 1915 1904 1904 1904 1894 1894 1894 1894 1894 1904 1904 1915 1915 1915 1915 1915 1915 1915 1915 1915 1915 1915 1915 1915 1915 1915 1915 1915 1915 0 0 0 0 0 0 0 0
0 0 0 0 0 0 0 0 0 0 0 0 0 0 0 0 0 0 0 0 0 0 0 0 0 0 0 0 0 0 0 0 0 0 1883 1883 1883 1883 1894 1894 1883 1883 1883 1894 1894 1894 1894 1894 1894 1894 1894 1894 1894 1894 1894 1894 1894 1894 1894 1894 1894 1894 1904 1904 1904 1904 1894 1894 1894 1894 1894 1894 1894 1894 1894 1894 1894 1883 1883 1894 1894 1883 1883 1883 1894 1894 1894 1894 1894 1894 1894 1883 1883 1883 1894 1894 1894 1894 1894 1894 1894 1894 1883 1883 1894 1632 1624 1624 1624 1632 1624 1624 1624 1609 1564 1543 1543 1543 1536 1536 1536 1536 1536 1543 1543 1543 1550 1550 1550 1550 1550 1550 1550 1655 1663 1671 1680 1680 1688 1688 1688 1688 1696 1696 1705 1883 1883 1883 1894 1904 1904 1904 1904 1894 1894 1894 1894 1894 1894 1894 1904 1904 1904 1904 1904 1904 1904 1904 1904 1904 1904 1904 1904 1904 1904 1904 1904 1904 1904 1904 1904 1915 1915 1904 1904 1904 1904 1904 1904 1904 1904 1915 1915 1915 1915 1915 1915 1926 1926 1926 1926 1926 1926 1926 1926 1926 1926 1926 1926 1926 1926 1926 1936 1936 1529 1529 1529 1529 1529 1529 1529 1529 1529 1529 1529 1529 1529 1529 1536 1543 1947 1947 1947 1959 1705 1705 1705 1705 1705 1713 1713 1722 1713 1713 1722 1722 1731 1926 1926 1926 1926 1926 1926 1926 1926 1926 1926 1926 1926 1926 1926 1926 1926 1926 1926 1926 1936 1936 1926 1926 1926 1926 1926 1439 1439 1439 1439 1439 1445 1439 1439 1445 1445 1445 1445 1445 1445 1445 1452 0 0 1904 1904 1904 1904 1915 1915 1915 1926 1936 1936 1936 1936 1936 1936 1936 1936 1936 1936 1936 1936 1936 1936 1936 1926 1926 1926 1936 1936 1926 1926 1926 1926 1936 1936 1936 1936 1936 1936 1926 1926 1926 1926 1926 1926 1926 1926 1926 1926 1926 1926 1926 1926 1926 1926 1926 1926 1926 1926 1926 1926 1926 1926 1926 1926 1926 1926 1926 1926 1926 1926 1926 1926 1926 1926 1926 1926 1936 1936 1926 1926 1926 1926 1926 1926 1926 1926 1926 1926 1926 1926 1926 1926 1926 1398 1398 1398 1398 1398 1398 1398 1398 1398 1398 1404 1404 1404 1404 1404 1926 1926 1926 1926 1926 1936 1936 1936 1936 1936 1926 1926 1926 1926 1926 1926 1926 1915 1915 1915 1915 1915 1915 1915 1915 1915 1915 1915 1915 1915 1915 1915 1915 1915 1915 1915 1926 1926 1926 1915 1915 1926 1926 1926 1926 1915 1915 1926 1926 1926 1926 1926 1926 1926 1926 1926 1926 1915 1915 1915 1915 1915 1926 1926 1926 1926 1926 1926 1926 1926 1926 1926 1936 1936 1523 1516 1516 1509 1509 1509 1503 1503 1503 1503 1503 1503 1503 1503 1503 1503 1509 1509 1509 1509 1516 1516 1529 1536 1915 1915 1915 1915 1926 1926 1915 1915 1915 1915 1915 1915 1915 1915 1915 1915 1915 1915 1915 1915 1915 1915 1915 1915 1915 1915 1915 1915 1915 1915 1926 1926 1926 1926 1926 1926 1926 1926 1926 1926 1926 1926 1926 1926 1926 1915 1915 1915 1915 1926 1926 1926 1926 1926 1926 1926 1926 1926 1926 1926 1926 1926 1926 1926 1915 1915 1915 1915 1915 1915 1926 1915 1915 1915 1915 1915 1915 1915 1915 1915 1915 1915 1915 1915 1915 1915 1915 1915 1915 1926 1926 1926 1915 1904 1904 1904 1904 1915 1915 1915 1915 1904 1904 1904 1904 1904 1904 1894 1894 1894 1894 1894 1894 1894 1894 1894 1894 1904 1915 1915 1915 1915 1915 1915 1904 1904 1904 1904 1904 1904 1904 1915 1915 1915 1915 0 0 0 0 0 0 0 0
0 0 0 0 0 0 0 0 0 0 0 0 0 0 0 0 0 0 0 0 0 0 0 0 0 0 0 0 0 0 0 0 0 0 1873 1873 1873 1873 1873 1873 1873 1883 1883 1883 1883 1883 1883 1883 1883 1883 1883 1883 1883 1883 1883 1883 1883 1883 1883 1883 1883 1883 1883 1883 1883 1894 1883 1883 1883 1883 1883 1873 1873 1873 1873 1873 1873 1873 1883 1883 1883 1883 1883 1883 1883 1883 1894 1894 1883 1883 1883 1883 1883 1883 1883 1883 1894 1894 1894 1894 1883 1883 1883 1883 1883 1632 1624 1624 1624 1632 1624 1624 1624 1609 1609 1550 1543 1543 1536 1536 1536 1536 1536 1543 1543 1550 1550 1557 1557 1557 1557 1557 1564 1647 1663 1671 1671 1680 1680 1680 1688 1688 1688 1688 1696 1894 1894 1894 1894 1894 1904 1904 1904 1894 1894 1894 1894 1894 1894 1894 1894 1894 1894 1894 1894 1894 1894 1904 1904 1904 1904 1904 1904 1904 1904 1904 1904 1904 1904 1904 1904 1904 1904 1904 1904 1904 1904 1904 1904 1904 1904 1915 1915 1904 1904 1915 1915 1926 1926 1926 1926 1926 1926 1915 1915 1915 1915 1915 1926 1926 1926 1926 1936 1936 1529 1529 1529 1529 1529 1529 1529 1529 1529 1529 1529 1529 1529 1536 1536 1543 1936 1947 1947 1959 1705 1705 1705 1705 1705 1713 1713 1713 1705 1705 1713 1722 1722 1926 1926 1926 1926 1926 1915 1915 1915 1915 1915 1926 1926 1926 1915 1915 1926 1926 1926 1926 1926 1926 1926 1926 1926 1926 1926 1439 1439 1439 1439 1439 1445 1439 1439 1445 1445 1445 1445 1445 1445 1445 1445 1445 0 1904 1904 1904 1904 1904 1904 1915 1915 1926 1926 1926 1926 1926 1926 1936 1936 1936 1936 1936 1936 1936 1936 1936 1926 1926 1926 1926 1926 1926 1926 1926 1926 1926 1926 1926 1926 1926 1926 1926 1915 1915 1915 1915 1915 1926 1926 1926 1926 1926 1926 1926 1926 1926 1926 1915 1915 1915 1926 1926 1926 1926 1926 1926 1926 1926 1915 1915 1915 1915 1915 1915 1926 1926 1926 1926 1926 1926 1926 1926 1926 1926 1926 1926 1926 1926 1926 1926 1926 1926 1926 1926 1926 1926 1398 1398 1398 1398 1398 1398 1398 1398 1398 1398 1404 1404 1404 1404 1404 1926 1926 1926 1926 1926 1926 1926 1926 1936 1926 1926 1926 1926 1926 1926 1926 1926 1915 1915 1915 1915 1915 1915 1915 1915 1915 1915 1915 1915 1915 1915 1915 1915 1915 1915 1915 1915 1915 1915 1915 1915 1915 1915 1915 1915 1915 1915 1915 1915 1915 1915 1915 1926 1926 1926 1926 1926 1915 1915 1915 1915 1915 1915 1915 1915 1915 1915 1915 1915 1915 1915 1926 1926 1926 1516 1516 1516 1509 1509 1509 1509 1509 1503 1503 1503 1503 1503 1503 1503 1503 1509 1509 1509 1509 1516 1516 1529 1536 1915 1904 1904 1915 1915 1915 1904 1904 1904 1904 1904 1904 1904 1904 1904 1904 1904 1904 1904 1915 1915 1904 1904 1904 1915 1915 1904 1904 1915 1915 1915 1926 1926 1915 1915 1926 1915 1915 1915 1915 1915 1915 1915 1904 1904 1904 1904 1904 1915 1915 1915 1915 1915 1915 1915 1915 1915 1915 1915 1915 1915 1915 1915 1915 1915 1915 1904 1904 1904 1904 1915 1904 1904 1904 1904 1904 1904 1904 1904 1904 1904 1904 1904 1915 1915 1915 1915 1915 1915 1915 1904 1904 1904 1894 1894 1894 1894 1894 1894 1894 1894 1894 1894 1894 1894 1894 1894 1894 1894 1894 1894 1894 1894 1883 1883 1883 1894 1894 1894 1894 1904 1904 1904 1904 1904 1904 1894 1894 1894 1894 1904 1904 1904 1904 1904 0 0 0 0 0 0 0 0
0 0 0 0 0 0 0 0 0 0 0 0 0 0 0 0 0 0 0 0 0 0 0 0 0 0 0 0 0 0 0 0 0 0 1863 1863 1863 1863 1863 1863 1873 1873 1873 1873 1873 1883 1883 1873 1873 1883 1883 1883 1883 1883 1883 1883 1883 1883 1883 1883 1883 1883 1883 1873 1873 1883 1873 1873 1873 1873 1883 1873 1873 1873 1873 1873 1873 1873 1873 1873 1873 1873 1873 1873 1873 1873 1873 1873 1873 1873 1873 1873 1873 1873 1873 1873 1883 1883 1873 1873 1873 1873 1873 1873 1873 1632 1632 1632 1632 1632 1632 1632 1624 1616 1616 1543 1543 1543 1536 1536 1536 1536 1536 1543 1543 1550 1550 1557 1557 1557 1557 1557 1564 1647 1655 1663 1671 1680 1680 1680 1680 1680 1688 1688 1696 1883 1883 1883 1883 1883 1894 1894 1894 1894 1894 1894 1894 1894 1894 1894 1894 1894 1894 1894 1894 1894 1894 1894 1894 1894 1904 1904 1894 1894 1894 1894 1894 1894 1894 1894 1894 1904 1904 1904 1904 1904 1904 1904 1904 1904 1904 1904 1904 1904 1904 1904 1915 1915 1915 1915 1915 1915 1915 1904 1904 1904 1904 1915 1915 1915 1915 1926 1936 1936 1529 1529 1523 1523 1523 1529 1529 1529 1529 1529 1536 1536 1536 1536 1536 1543 1936 1947 1959 1959 1688 1688 1696 1705 1705 1705 1713 1713 1705 1705 1705 1713 1713 1926 1926 1926 1926 1926 1915 1915 1915 1915 1915 1915 1915 1915 1915 1915 1926 1926 1926 1926 1926 1926 1926 1926 1926 1926 1926 1433 1433 1433 1439 1439 1445 1445 1445 1445 1445 1445 1445 1445 1445 1445 1445 1445 0 0 1904 1904 1904 1904 1904 1904 1915 1926 1926 1926 1926 1926 1926 1926 1926 1926 1936 1936 1936 1936 1936 1926 1926 1926 1926 1926 1926 1926 1926 1926 1926 1926 1926 1926 1915 1915 1926 1915 1915 1915 1915 1915 1915 1915 1915 1915 1915 1926 1926 1926 1926 1915 1915 1915 1915 1915 1915 1915 1915 1926 1926 1926 1915 1915 1915 1915 1915 1915 1915 1915 1915 1915 1915 1915 1915 1915 1915 1915 1915 1915 1915 1915 1915 1915 1915 1915 1915 1915 1915 1915 1915 1915 1915 1398 1398 1398 1398 1398 1398 1398 1398 1404 1404 1404 1404 1404 1410 1915 1915 1915 1926 1926 1926 1926 1926 1926 1926 1926 1926 1915 1915 1926 1926 1915 1915 1915 1915 1915 1915 1904 1904 1904 1915 1915 1904 1904 1915 1915 1915 1915 1915 1915 1915 1915 1915 1915 1904 1904 1915 1915 1915 1915 1915 1915 1915 1915 1915 1915 1915 1915 1915 1915 1926 1915 1915 1915 1915 1915 1915 1915 1915 1915 1915 1915 1915 1915 1915 1915 1915 1915 1915 1516 1516 1516 1509 1509 1509 1509 1509 1509 1509 1509 1509 1509 1509 1509 1509 1509 1509 1509 1509 1516 1516 1523 1915 1915 1904 1904 1904 1915 1915 1904 1904 1904 1904 1904 1904 1904 1904 1904 1904 1904 1904 1904 1904 1904 1904 1904 1904 1904 1904 1904 1904 1904 1904 1904 1904 1904 1904 1904 1915 1915 1915 1904 1904 1904 1904 1904 1904 1904 1904 1904 1904 1904 1904 1904 1915 1915 1915 1915 1915 1904 1904 1904 1904 1904 1904 1904 1904 1904 1904 1904 1904 1904 1904 1904 1904 1904 1904 1904 1904 1904 1904 1904 1904 1904 1904 1904 1904 1904 1904 1904 1904 1904 1904 1904 1894 1894 1894 1894 1883 1883 1894 1894 1894 1894 1894 1894 1894 1894 1894 1894 1894 1894 1894 1883 1883 1883 1883 1883 1883 1883 1883 1883 1883 1894 1894 1894 1894 1894 1894 1894 1894 1894 1894 1894 1894 1894 1894 1894 0 0 0 0 0 0 0 0
0 0 0 0 0 0 0 0 0 0 0 0 0 0 0 0 0 0 0 0 0 0 0 0 0 0 0 0 0 0 0 0 0 0 1863 1863 1863 1853 1853 1863 1863 1873 1873 1873 1873 1873 1873 1873 1873 1873 1873 1873 1873 1873 1883 1883 1883 1873 1873 1883 1883 1873 1873 1873 1873 1883 1873 1873 1873 1873 1873 1873 1873 1873 1873 1873 1873 1873 1873 1873 1873 1873 1873 1873 1873 1873 1873 1873 1873 1873 1873 1873 1873 1863 1863 1873 1873 1873 1873 1873 1873 1873 1873 1873 1873 1873 1632 1632 1632 1632 1632 1632 1632 1624 1624 1543 1543 1543 1536 1536 1536 1536 1536 1543 1543 1550 1550 1550 1557 1557 1557 1564 1564 1639 1647 1655 1671 1671 1680 1680 1680 1680 1688 1688 1883 1883 1883 1883 1883 1883 1894 1894 1894 1883 1883 1883 1873 1873 1873 1873 1883 1873 1873 1873 1883 1883 1883 1883 1883 1883 1894 1894 1894 1894 1894 1894 1894 1894 1894 1894 1894 1894 1894 1894 1894 1894 1904 1904 1904 1904 1904 1904 1904 1904 1904 1904 1894 1894 1894 1894 1894 1894 1904 1904 1904 1904 1904 1904 1904 1915 1915 1915 1915 1915 1529 1529 1523 1523 1523 1529 1529 1529 1536 1536 1536 1543 1543 1543 1550 1926 1936 1959 1959 1680 1680 1680 1688 1696 1696 1705 1713 1713 1705 1705 1705 1713 1713 1915 1915 1915 1915 1904 1904 1904 1904 1904 1915 1915 1915 1915 1915 1915 1915 1915 1915 1915 1915 1915 1915 1915 1915 1926 1926 1433 1433 1433 1439 1445 1445 1445 1445 1445 1445 1445 1445 1445 1445 1445 1445 1458 0 1883 1894 1894 1894 1904 1904 1904 1904 1915 1926 1926 1926 1926 1926 1926 1926 1926 1936 1926 1926 1926 1926 1926 1926 1926 1926 1926 1926 1915 1915 1915 1915 1915 1915 1915 1915 1915 1915 1915 1904 1904 1915 1915 1915 1915 1915 1915 1915 1915 1915 1915 1915 1915 1915 1915 1915 1915 1915 1915 1915 1926 1926 1926 1915 1915 1915 1915 1915 1915 1915 1915 1915 1915 1915 1915 1915 1915 1915 1915 1915 1915 1915 1915 1915 1915 1915 1915 1915 1915 1915 1915 1915 1915 1915 1398 1398 1398 1398 1398 1398 1398 1398 1404 1404 1404 1404 1404 1410 1915 1915 1915 1915 1915 1915 1926 1926 1926 1926 1915 1915 1915 1915 1915 1915 1915 1904 1904 1904 1904 1904 1904 1904 1904 1904 1904 1904 1904 1904 1904 1915 1915 1915 1915 1915 1915 1915 1904 1904 1904 1904 1904 1904 1904 1904 1904 1915 1915 1915 1904 1904 1915 1915 1915 1915 1915 1915 1915 1915 1915 1915 1915 1915 1915 1915 1915 1915 1915 1915 1915 1915 1915 1915 1523 1516 1516 1509 1509 1509 1509 1509 1509 1509 1509 1509 1509 1509 1509 1509 1509 1509 1509 1509 1516 1516 1523 1904 1904 1904 1904 1904 1904 1904 1894 1894 1894 1894 1894 1894 1894 1894 1894 1894 1894 1894 1894 1904 1904 1904 1904 1904 1904 1904 1904 1904 1904 1904 1904 1904 1904 1904 1904 1904 1904 1904 1904 1904 1904 1894 1894 1904 1894 1894 1904 1904 1904 1904 1904 1904 1904 1904 1904 1904 1904 1904 1904 1904 1904 1904 1904 1904 1904 1904 1894 1894 1904 1904 1904 1904 1904 1904 1904 1904 1904 1904 1904 1904 1894 1894 1904 1904 1904 1904 1904 1894 1894 1904 1894 1894 1894 1883 1883 1883 1883 1883 1894 1894 1894 1894 1894 1894 1894 1894 1894 1883 1883 1883 1883 1883 1883 1873 1873 1873 1873 1873 1873 1883 1883 1883 1894 1894 1894 1894 1894 1894 1894 1894 1894 1894 1894 1894 1894 0 0 0 0 0 0 0 0
0 0 0 0 0 0 0 0 0 0 0 0 0 0 0 0 0 0 0 0 0 0 0 0 0 0 0 0 0 0 0 0 0 0 1863 1853 1853 1843 1843 1853 1853 1863 1863 1873 1873 1873 1873 1873 1873 1873 1873 1873 1873 1873 1883 1883 1883 1873 1873 1873 1873 1873 1873 1873 1873 1873 1873 1873 1863 1863 1873 1873 1873 1863 1863 1863 1873 1873 1873 1873 1873 1873 1873 1873 1873 1873 1873 1873 1873 1863 1863 1863 1863 1863 1863 1863 1863 1873 1873 1873 1873 1873 1863 1863 1873 1873 1639 1639 1639 1639 1632 1632 1639 1639 1639 1624 1543 1543 1543 1543 1543 1536 1536 1543 1543 1550 1550 1550 1557 1564 1564 1564 1624 1639 1647 1647 1671 1671 1671 1671 1680 1680 1688 1873 1873 1873 1873 1883 1883 1883 1894 1894 1883 1873 1873 1873 1873 1873 1873 1873 1873 1873 1873 1873 1873 1873 1883 1873 1873 1883 1894 1894 1894 1894 1894 1894 1894 1883 1883 1883 1883 1894 1894 1894 1894 1894 1904 1904 1904 1904 1904 1904 1904 1894 1894 1894 1894 1894 1894 1894 1894 1894 1894 1894 1894 1894 1894 1894 1894 1894 1894 1904 1904 1904 1904 1529 1523 1523 1523 1523 1529 1529 1536 1536 1536 1543 1543 1543 1550 1557 1936 1680 1680 1680 1680 1680 1680 1688 1696 1705 1713 1705 1696 1696 1705 1713 1904 1904 1904 1904 1904 1894 1894 1894 1904 1904 1904 1904 1904 1904 1904 1904 1915 1904 1904 1904 1904 1904 1904 1904 1904 1915 1970 1970 1439 1439 1445 1445 1445 1445 1445 1445 1445 1445 1445 1445 1445 1445 1458 1458 0 1883 1883 1883 1894 1894 1894 1894 1904 1904 1904 1904 1904 1915 1915 1915 1915 1915 1926 1926 1926 1926 1926 1926 1926 1926 1915 1915 1915 1915 1915 1915 1915 1915 1915 1915 1904 1904 1904 1904 1904 1904 1904 1915 1915 1915 1915 1915 1915 1915 1915 1915 1915 1915 1915 1915 1915 1915 1915 1915 1915 1915 1915 1915 1915 1915 1915 1915 1915 1915 1915 1915 1915 1915 1915 1915 1915 1915 1904 1904 1904 1904 1904 1915 1904 1904 1915 1904 1904 1904 1904 1904 1915 1915 1915 1398 1398 1404 1404 1404 1404 1404 1404 1404 1404 1404 1404 1404 1410 1915 1915 1915 1915 1915 1915 1915 1915 1915 1915 1915 1915 1915 1915 1915 1915 1915 1904 1904 1904 1904 1904 1904 1904 1904 1904 1904 1904 1904 1904 1904 1904 1904 1904 1904 1904 1904 1904 1904 1904 1904 1904 1904 1904 1904 1904 1904 1904 1904 1904 1904 1904 1904 1904 1904 1904 1904 1904 1904 1904 1904 1904 1904 1904 1904 1904 1904 1904 1904 1904 1904 1904 1904 1904 1516 1516 1516 1509 1509 1509 1509 1509 1509 1509 1509 1509 1509 1509 1509 1509 1509 1509 1509 1516 1516 1516 1894 1904 1904 1904 1904 1904 1904 1904 1894 1894 1894 1894 1894 1894 1894 1894 1894 1894 1894 1894 1894 1894 1894 1894 1894 1894 1894 1894 1894 1894 1894 1894 1894 1894 1894 1894 1894 1894 1894 1894 1894 1894 1894 1894 1894 1894 1894 1894 1894 1894 1894 1904 1904 1904 1904 1904 1904 1904 1894 1894 1894 1904 1904 1904 1904 1904 1894 1894 1894 1894 1894 1894 1894 1894 1894 1894 1894 1894 1894 1894 1894 1894 1894 1894 1894 1894 1894 1894 1894 1894 1894 1894 1894 1894 1894 1883 1883 1883 1883 1883 1883 1883 1883 1883 1883 1883 1883 1883 1873 1873 1873 1873 1873 1873 1873 1873 1873 1873 1873 1873 1873 1873 1883 1883 1883 1883 1883 1894 1894 1894 1894 1883 1883 1883 1883 1883 1883 0 0 0 0 0 0 0 0
0 0 0 0 0 0 0 0 0 0 0 0 0 0 0 0 0 0 0 0 0 0 0 0 0 0 0 0 0 0 0 0 0 0 1853 1853 1853 1843 1843 1853 1853 1853 1863 1873 1873 1873 1873 1873 1873 1873 1873 1873 1873 1873 1873 1873 1883 1873 1873 1873 1873 1873 1873 1873 1873 1873 1863 1863 1853 1853 1863 1863 1863 1863 1863 1863 1863 1863 1863 1863 1863 1873 1873 1873 1873 1873 1873 1873 1863 1863 1863 1863 1863 1863 1863 1863 1863 1863 1863 1863 1863 1863 1863 1863 1863 1863 1647 1639 1639 1639 1639 1639 1639 1639 1639 1639 1550 1543 1543 1543 1543 1543 1543 1543 1543 1543 1550 1550 1557 1564 1564 1564 1624 1632 1639 1647 1663 1671 1671 1671 1671 1680 1688 1863 1863 1873 1873 1873 1873 1873 1883 1883 1883 1873 1873 1863 1863 1863 1863 1863 1873 1873 1873 1873 1873 1873 1873 1873 1873 1873 1873 1883 1883 1883 1883 1883 1883 1883 1883 1873 1873 1883 1883 1883 1894 1894 1894 1904 1904 1904 1894 1894 1894 1894 1894 1894 1883 1883 1894 1894 1883 1883 1894 1894 1894 1894 1894 1894 1894 1894 1894 1894 1894 1894 1894 1894 1523 1523 1523 1523 1529 1529 1529 1536 1536 1550 1550 1550 1550 1557 1680 1680 1680 1680 1680 1680 1680 1688 1696 1696 1705 1696 1688 1688 1688 1894 1894 1894 1894 1894 1894 1894 1894 1894 1894 1894 1894 1894 1894 1894 1894 1894 1894 1894 1894 1894 1894 1894 1894 1894 1904 1904 1904 1904 1445 1445 1445 1445 1445 1445 1445 1445 1445 1445 1445 1445 1445 1452 1458 1458 1883 1883 1883 1883 1894 1894 1894 1894 1894 1904 1894 1894 1904 1904 1904 1904 1915 1915 1915 1926 1915 1915 1915 1915 1915 1915 1904 1904 1904 1894 1894 1894 1894 1894 1904 1904 1904 1904 1904 1904 1904 1904 1904 1904 1904 1904 1904 1904 1904 1904 1915 1915 1915 1915 1915 1915 1915 1915 1915 1915 1915 1915 1915 1915 1915 1904 1904 1904 1904 1915 1915 1904 1904 1904 1904 1915 1904 1904 1904 1904 1904 1904 1904 1904 1904 1904 1904 1904 1904 1904 1904 1904 1904 1904 1904 1398 1398 1404 1404 1404 1404 1404 1404 1410 1404 1404 1404 1404 1904 1904 1904 1904 1915 1904 1904 1904 1904 1915 1915 1915 1915 1915 1915 1915 1915 1915 1904 1904 1894 1894 1894 1894 1894 1904 1894 1894 1894 1894 1894 1894 1894 1894 1894 1894 1894 1894 1894 1894 1894 1894 1894 1894 1894 1894 1894 1894 1904 1894 1894 1894 1894 1894 1904 1904 1904 1894 1894 1894 1894 1904 1894 1894 1904 1904 1904 1904 1904 1904 1904 1904 1894 1894 1894 1516 1516 1516 1509 1509 1509 1509 1509 1509 1509 1509 1509 1509 1509 1509 1509 1509 1509 1516 1516 1523 1523 1894 1894 1904 1904 1904 1904 1904 1904 1894 1894 1894 1894 1894 1894 1894 1894 1894 1894 1883 1883 1883 1894 1894 1894 1894 1894 1894 1894 1894 1894 1894 1894 1894 1894 1894 1894 1894 1894 1894 1894 1894 1894 1883 1883 1883 1894 1894 1894 1894 1894 1894 1894 1894 1894 1894 1894 1894 1894 1894 1894 1894 1894 1894 1894 1894 1894 1894 1894 1894 1894 1894 1894 1894 1894 1894 1894 1894 1894 1894 1894 1894 1894 1883 1883 1894 1894 1894 1894 1894 1894 1894 1894 1883 1883 1883 1873 1873 1883 1883 1883 1883 1883 1883 1883 1873 1863 1863 1863 1863 1863 1863 1863 1873 1873 1873 1873 1873 1873 1873 1873 1873 1873 1883 1883 1883 1883 1883 1894 1883 1883 1883 1883 1883 1873 1873 1873 1883 0 0 0 0 0 0 0 0
