0 0 0 0 0 0 0 0 0 0 0 0 0 0 0 0 0 0 0 0 0 0 0 0 0 0 0 0 0 0 0 0 2659 2659 2659 2659 2659 2639 2639 2639 2639 2639 2639 2639 2639 2639 2639 0 1439 1439 1439 1439 1433 1433 1433 1439 1439 1439 1439 1439 1439 1439 1439 1333 1333 1343 1343 1343 1343 1343 1338 1338 1343 1343 1343 1343 1349 1354 1354 1354 1359 1359 1359 0 0 0 0 0 0 2680 2680 2680 2680 2680 2680 2680 2680 2701 2701 2701 2701 1766 1766 1766 1766 1776 1785 1785 1776 1776 1785 1785 1785 1785 1785 1785 1785 1794 1794 1794 1785 1785 1785 1785 1785 1785 1785 1785 1785 1785 1785 1794 1794 1794 1794 1794 1794 1794 1794 1794 1794 1794 1794 1804 1804 1804 1813 1813 1813 1813 1823 1823 1823 1813 1804 1804 1804 1804 1804 1804 1804 1804 1804 1804 1804 1804 1804 1804 1804 1804 1813 1813 1813 1813 1813 1813 1813 1823 1823 1823 1823 1823 1376 1376 1376 1376 1376 1376 1376 1376 1376 1381 1381 1381 1381 1381 1387 1392 1398 1804 1794 1794 1813 1813 1813 1823 1823 1823 1823 1823 1823 1823 1823 1813 1813 1813 1823 1823 1823 1823 1823 1823 1833 1833 1833 1853 1863 1883 1904 1904 1915 1915 1915 1915 1915 1915 1904 1904 1904 1915 1915 1926 1915 1915 1915 1915 0 0 0 0 0 1312 1312 1317 1322 1322 1322 1322 1322 1322 1322 1322 1328 1328 1328 1328 1328 1328 1813 1813 1813 1813 1813 1813 1813 1813 1813 1813 1813 1813 1813 1813 1813 1813 1813 1813 1823 1823 1843 1853 1863 1873 1873 1883 1883 1883 1894 1904 1915 1813 1813 1813 1926 1926 1926 1915 1915 1915 1915 1915 1915 1843 1843 1853 1853 1853 1863 1853 1853 1894 1904 1904 1915 1915 1843 1843 1853 1853 1853 1843 1843 1883 1813 1813 1813 1813 1813 1823 1823 1833 1833 1843 1843 1843 1843 1833 1833 1833 1833 1833 1833 1833 1843 1843 1843 1843 1843 1843 1843 1843 1843 1843 1843 1843 1843 1873 1873 1936 1936 1843 0 1343 1343 1343 1349 1349 1354 1354 1354 1354 1354 1354 1354 1354 1354 1349 1349 1936 1936 1959 1959 1959 1970 1970 1959 1959 2317 2317 2317 2317 2317 2317 2317 2333 2333 2333 2812 2835 2835 2859 2859 2883 2883 2859 2859 2859 2859 2859 2835 2835 2859 2859 2859 2859 2859 2859 2859 2859 2859 2859 2859 2859 2859 2859 2835 2835 2859 2859 2859 2859 0 1529 1529 1529 1529 1529 1536 1536 1536 1536 1536 1536 1536 1536 1543 1543 1543 1543 1543 1543 1550 1550 1550 1550 1550 1557 1557 1557 1557 1557 1557 1557 1557 2789 2789 2789 2812 2812 2812 2835 2835 2835 2835 2835 2835 2835 2835 2835 2835 2835 2835 2835 2835 2835 2835 2835 2812 2812 2835 2835 2835 2789 2789 2789 2812 2812 2789 2789 2789 2812 2812 2812 2812 2812 2812 2812 2812 2835 2835 2835 2835 2835 2812 2812 2812 2812 2812 2812 2812 2812 2812 2835 2835 2835 2835 2835 2835 2835 2835 2835 2835 2812 2812 2812 2812 2812 2812 2812 2789 2789 2789 2789 2812 2789 2789 2812 2812 2835 2835 2835 2835 2835 2835 2835 2835 2835 2835 2835 2835 2835 2835 2835 2835 2835 2835 2835 2835 2835 2835 2835 2835 2835 2835 2835 2835 2835 2835 2835 2812 2812 2812 2812 2812 2812 2789 2789 2789 2812 2789 2789 2789 2789 2789 2789 2789 2767 2767 2767 2767 2789 2789 2812 2812 2812 2812 2812 2812 2812 2812 2812 2767 2767 2767 2789 2789 2767 2767 2744 2744 2767 0 0 0 0 0 0 0 0 0 0
0 0 0 0 0 0 0 0 0 0 0 0 0 0 0 0 0 0 0 0 0 0 0 0 0 0 0 0 0 0 0 0 2639 2639 2639 2639 2639 2639 2639 2639 2639 2639 2639 2639 2639 2639 2639 0 1439 1439 1439 1439 1433 1433 1433 1439 1439 1439 1439 1439 1439 1439 1439 1333 1333 1343 1343 1343 1343 1343 1343 1343 1343 1343 1343 1349 1354 1354 1354 1354 1359 1359 1359 0 0 0 0 0 0 2680 2680 2680 2680 2680 2680 2680 2680 2701 2701 2701 2701 1766 1766 1766 1766 1766 1776 1776 1766 1766 1766 1766 1776 1776 1785 1785 1785 1785 1785 1785 1785 1785 1785 1785 1785 1785 1785 1785 1785 1785 1785 1785 1785 1794 1785 1785 1785 1794 1794 1794 1794 1794 1794 1794 1804 1804 1804 1804 1804 1813 1813 1813 1813 1813 1804 1794 1794 1794 1794 1794 1794 1794 1794 1804 1804 1794 1794 1804 1794 1794 1794 1804 1804 1804 1804 1804 1804 1813 1813 1813 1823 1410 1381 1381 1381 1381 1376 1376 1381 1381 1381 1381 1381 1381 1381 1381 1387 1392 1392 1392 1776 1776 1794 1813 1813 1813 1813 1813 1813 1813 1813 1813 1813 1813 1813 1813 1813 1813 1813 1813 1813 1823 1823 1823 1823 1833 1873 1894 1904 1915 1915 1915 1915 1915 1915 1915 1915 1915 1915 1915 1915 1926 1915 1915 1915 1915 1926 0 0 0 0 1322 1322 1322 1322 1322 1328 1328 1328 1328 1328 1328 1328 1328 1328 1328 1328 1328 1813 1813 1813 1804 1804 1813 1813 1813 1813 1813 1813 1813 1813 1813 1813 1813 1813 1813 1823 1823 1823 1843 1843 1853 1853 1853 1853 1813 1813 1813 1813 1804 1804 1804 1813 1813 1813 1813 1823 1833 1843 1843 1843 1843 1843 1843 1843 1853 1853 1853 1853 1853 1843 1843 1823 1823 1823 1833 1833 1833 1833 1813 1813 1813 1813 1813 1813 1813 1813 1813 1823 1823 1833 1833 1833 1833 1843 1833 1833 1833 1833 1833 1823 1823 1833 1833 1833 1833 1843 1843 1843 1833 1833 1843 1843 1843 1843 1843 1843 1843 1843 1843 0 1349 1349 1349 1349 1354 1354 1354 1354 1354 1354 1359 1359 1359 1354 1354 1343 1343 1947 1959 1959 1959 1970 1970 1959 1959 2317 2317 2317 2317 2317 2333 2333 2333 2333 2812 2812 2812 2835 2859 2859 2859 2859 2835 2835 2835 2835 2835 2835 2835 2835 2835 2835 2835 2835 2835 2835 2835 2835 2835 2835 2835 2835 2835 2835 2835 2835 2859 2859 2859 1529 1529 1529 1529 1529 1536 1536 1536 1536 1536 1536 1536 1543 1543 1543 1543 1543 1543 1550 1550 1550 1550 1550 1550 1557 1557 1557 1557 1557 1557 1557 1557 1564 2789 2789 2789 2789 2789 2812 2812 2812 2812 2835 2835 2835 2835 2835 2835 2835 2835 2835 2835 2835 2835 2835 2812 2812 2812 2812 2812 2812 2789 2789 2789 2789 2789 2789 2789 2789 2789 2789 2812 2812 2812 2812 2812 2812 2812 2812 2812 2812 2789 2789 2789 2789 2789 2812 2812 2812 2812 2812 2812 2812 2812 2812 2835 2812 2812 2812 2812 2812 2812 2812 2812 2789 2789 2812 2789 2789 2789 2789 2789 2789 2789 2789 2789 2789 2812 2812 2812 2835 2835 2835 2835 2835 2835 2835 2835 2835 2812 2812 2812 2812 2812 2812 2812 2812 2812 2812 2812 2812 2812 2812 2812 2812 2812 2812 2789 2789 2789 2789 2789 2789 2789 2789 2789 2789 2789 2789 2789 2767 2767 2767 2767 2767 2767 2767 2767 2767 2767 2767 2767 2789 2789 2812 2789 2789 2789 2789 2789 2767 2744 2744 2767 2767 2744 2744 2744 2744 2744 0 0 0 0 0 0 0 0 0 0
0 0 0 0 0 0 0 0 0 0 0 0 0 0 0 0 0 0 0 0 0 0 0 0 0 0 0 0 0 0 0 0 2639 2639 2639 2639 2639 2639 2639 2639 2639 2639 2639 2618 2618 2639 2639 2639 1439 1439 1439 1439 1433 1433 1439 1439 1439 1439 1439 1439 1445 1445 1445 1333 1333 1343 1343 1343 1343 1343 1343 1343 1343 1343 1349 1349 1354 1354 1354 1354 1359 1359 1359 0 0 0 0 0 2680 2680 2680 2680 2680 2680 2680 2680 2680 2680 2701 2701 1766 1766 1766 1766 1766 1766 1776 1766 1766 1766 1766 1766 1776 1776 1776 1776 1785 1785 1785 1785 1776 1776 1776 1776 1776 1776 1776 1776 1776 1785 1785 1785 1785 1785 1785 1785 1785 1785 1785 1785 1785 1794 1794 1794 1794 1804 1804 1804 1804 1804 1813 1813 1813 1813 1804 1794 1794 1794 1794 1785 1785 1794 1794 1794 1794 1794 1794 1794 1794 1794 1794 1804 1804 1804 1804 1804 1804 1804 1804 1813 1415 1404 1387 1381 1381 1381 1381 1381 1381 1381 1381 1381 1381 1381 1381 1381 1392 1392 1392 1398 1766 1776 1785 1794 1804 1804 1813 1813 1813 1813 1813 1813 1813 1804 1804 1804 1804 1804 1804 1804 1813 1813 1813 1813 1823 1833 1883 1894 1904 1915 1915 1915 1915 1915 1915 1915 1915 1915 1915 1915 1915 1926 1926 1926 1926 1926 1926 0 0 0 0 1322 1322 1322 1328 1328 1328 1328 1328 1328 1328 1328 1328 1328 1328 1333 1333 1333 1333 1804 1804 1804 1804 1804 1804 1813 1804 1804 1804 1804 1804 1813 1813 1813 1813 1813 1813 1813 1823 1823 1823 1823 1823 1833 1823 1813 1813 1813 1813 1804 1804 1804 1813 1813 1813 1813 1813 1823 1823 1823 1823 1823 1823 1823 1833 1843 1843 1843 1833 1833 1833 1833 1823 1823 1823 1823 1823 1823 1823 1813 1813 1813 1813 1813 1804 1804 1813 1813 1813 1813 1823 1823 1823 1823 1833 1833 1833 1823 1823 1823 1813 1813 1823 1823 1833 1833 1833 1833 1833 1833 1833 1833 1833 1833 1833 1843 1843 1843 1843 1843 1853 1349 1349 1349 1354 1354 1354 1354 1354 1354 1359 1359 1359 1359 1354 1354 1343 1343 1947 1959 1959 1970 1970 1970 1970 1970 1970 2317 2317 2317 2333 2333 2333 2333 2333 2812 2812 2812 2835 2835 2835 2835 2835 2812 2812 2812 2812 2812 2812 2812 2812 2835 2812 2812 2812 2812 2835 2812 2812 2812 2812 2812 2812 2812 2812 2812 2835 2859 2859 0 1529 1529 1529 1529 1529 1536 1536 1536 1536 1536 1536 1543 1543 1543 1543 1550 1550 1550 1550 1550 1557 1557 1557 1557 1557 1557 1557 1557 1557 1557 1557 1557 1564 2789 2789 2789 2789 2789 2789 2789 2789 2812 2812 2812 2812 2812 2812 2812 2812 2812 2812 2812 2812 2812 2812 2812 2812 2812 2812 2812 2812 2767 2767 2767 2767 2767 2767 2767 2767 2789 2789 2789 2789 2789 2789 2789 2789 2789 2789 2789 2789 2789 2789 2789 2789 2789 2789 2789 2812 2812 2812 2812 2812 2789 2789 2812 2812 2812 2812 2812 2812 2812 2812 2789 2789 2789 2789 2789 2789 2789 2789 2789 2789 2789 2789 2789 2789 2789 2789 2789 2812 2812 2812 2812 2812 2812 2812 2812 2812 2812 2789 2789 2789 2789 2789 2789 2789 2789 2812 2812 2812 2789 2789 2789 2789 2789 2789 2789 2767 2767 2789 2767 2767 2767 2767 2767 2767 2767 2744 2744 2744 2744 2744 2744 2744 2744 2744 2744 2744 2744 2744 2767 2767 2767 2789 2767 2767 2767 2744 2744 2744 2744 2744 2744 2744 2744 2744 2744 2744 2744 0 0 0 0 0 0 0 0 0 0
0 0 0 0 0 0 0 0 0 0 0 0 0 0 0 0 0 0 0 0 0 0 0 0 0 0 0 0 0 0 0 0 2618 2618 2639 2639 2618 2618 2618 2618 2618 2618 2618 2618 2618 2618 2639 2639 1439 1439 1439 1439 1439 1439 1439 1439 1439 1439 1439 1445 1445 1445 1445 1333 1333 1343 1343 1343 1343 1349 1343 1343 1343 1349 1349 1354 1354 1359 1359 1359 1359 1365 1365 1381 0 1392 1392 0 2680 2680 2680 2680 2680 2680 2680 2680 2680 2680 2680 1757 1757 1766 1766 1766 1766 1766 1766 1766 1766 1766 1766 1766 1766 1776 1776 1776 1776 1776 1776 1776 1766 1766 1766 1766 1766 1766 1766 1766 1776 1776 1776 1776 1776 1776 1776 1776 1776 1785 1785 1785 1785 1785 1794 1794 1794 1794 1804 1804 1804 1804 1813 1813 1813 1813 1804 1794 1794 1794 1410 1410 1410 1410 1410 1410 1794 1404 1398 1398 1398 1398 1398 1404 1404 1404 1404 1410 1410 1410 1410 1410 1410 1404 1404 1398 1392 1392 1387 1387 1387 1387 1381 1381 1381 1381 1387 1392 1392 1392 1398 1398 1766 1776 1785 1794 1794 1794 1804 1804 1804 1804 1804 1804 1804 1794 1794 1794 1794 1794 1794 1794 1804 1813 1813 1813 1813 1833 1894 1904 1904 1915 1915 1915 1915 1915 1926 1926 1926 1926 1926 1926 1926 1926 1926 1926 1926 1926 1926 0 0 0 0 1322 1322 1322 1328 1328 1328 1328 1328 1328 1328 1328 1328 1328 1333 1333 1333 1333 1333 1804 1804 1804 1804 1804 1804 1804 1804 1804 1804 1804 1804 1804 1804 1813 1813 1813 1813 1813 1813 1813 1813 1813 1813 1813 1813 1813 1813 1813 1813 1804 1804 1804 1804 1804 1813 1813 1813 1813 1823 1823 1823 1823 1823 1823 1823 1823 1823 1823 1823 1823 1813 1813 1813 1813 1813 1813 1823 1823 1823 1813 1813 1813 1813 1804 1804 1804 1804 1813 1813 1813 1813 1813 1813 1823 1823 1823 1823 1813 1813 1813 1813 1813 1813 1813 1823 1823 1823 1823 1823 1823 1823 1823 1823 1823 1833 1833 1833 1843 1843 1853 1853 1354 1354 1354 1354 1359 1359 1359 1359 1359 1359 1359 1359 1359 1354 1354 1349 1343 1343 1959 1959 1970 1970 1970 1970 1970 1970 2317 2317 2317 2333 2333 2333 2333 2333 2812 2812 2812 2812 2812 2835 2835 2835 2812 2812 2812 2812 2812 2789 2789 2812 2812 2812 2812 2789 2789 2812 2812 2789 2789 2789 2789 2812 2789 2789 2789 2812 2835 2835 0 1529 1529 1529 1529 1529 1536 1536 1536 1536 1536 1536 1543 1543 1550 1550 1550 1550 1550 1557 1557 1557 1557 1557 1557 1557 1557 1557 1557 1557 1557 1557 1557 1557 2767 2767 2789 2789 2789 2789 2789 2789 2789 2812 2812 2812 2812 2812 2812 2812 2812 2812 2812 2812 2812 2812 2812 2789 2789 2789 2789 2789 2767 2767 2767 2767 2767 2767 2767 2767 2767 2767 2767 2767 2767 2767 2767 2767 2767 2767 2767 2767 2767 2767 2767 2767 2767 2789 2789 2789 2789 2789 2789 2789 2789 2789 2789 2789 2789 2789 2789 2789 2789 2789 2767 2767 2767 2767 2767 2767 2767 2767 2767 2767 2767 2767 2767 2767 2767 2767 2789 2789 2789 2789 2812 2812 2812 2812 2789 2789 2789 2789 2789 2767 2767 2767 2767 2767 2789 2789 2789 2789 2789 2789 2789 2789 2767 2767 2767 2767 2767 2767 2767 2767 2767 2767 2767 2744 2744 2744 2744 2744 2744 2744 2744 2744 2744 2723 2723 2723 2744 2744 2744 2744 2744 2744 2744 2744 2744 2744 2744 2744 2744 2744 2744 2744 2723 2723 2744 2744 2744 0 0 0 0 0 0 0 0 0 0
0 0 0 0 0 0 0 0 0 0 0 0 0 0 0 0 0 0 0 0 0 0 0 0 0 0 0 0 0 0 0 0 2618 2618 2618 2618 2618 2618 2618 2618 2618 2618 2618 2618 2618 2618 2639 2639 2639 1439 1439 1439 1439 1439 1439 1439 1439 1439 1445 1445 1445 1445 1445 1333 1333 1343 1343 1343 1349 1349 1343 1343 1343 1349 1349 1354 1354 1359 1359 1359 1365 1370 1376 1381 1387 1392 1392 1392 1392 1392 2680 2680 2680 2680 2680 2680 2680 2680 1757 1757 1354 1354 1766 1766 1757 1757 1766 1757 1757 1757 1757 1757 1766 1766 1776 1776 1776 1776 1776 1776 1757 1757 1757 1757 1757 1757 1757 1766 1766 1766 1766 1776 1776 1776 1776 1776 1776 1776 1776 1785 1785 1785 1785 1794 1794 1794 1794 1794 1794 1804 1813 1813 1813 1813 1813 1813 1415 1410 1404 1404 1404 1410 1404 1404 1398 1398 1398 1398 1398 1398 1398 1404 1404 1404 1404 1410 1410 1410 1410 1410 1410 1404 1404 1398 1398 1392 1387 1387 1387 1387 1387 1387 1387 1387 1387 1392 1392 1392 1398 1404 1766 1776 1785 1785 1785 1785 1794 1794 1794 1794 1794 1794 1794 1785 1785 1785 1785 1785 1785 1794 1804 1804 1813 1813 1813 1823 1894 1904 1915 1915 1915 1915 1915 1915 1926 1926 1926 1926 1926 1926 1936 1926 1926 1936 1926 1926 1926 0 0 0 0 1322 1322 1328 1328 1328 1328 1328 1328 1328 1328 1328 1328 1328 1333 1333 1333 1333 1333 1785 1785 1785 1785 1785 1794 1794 1794 1794 1794 1794 1794 1794 1794 1794 1804 1804 1804 1804 1804 1804 1804 1804 1804 1813 1804 1804 1804 1804 1804 1804 1804 1804 1804 1804 1804 1804 1804 1813 1813 1813 1813 1813 1813 1813 1813 1813 1813 1813 1813 1813 1813 1813 1813 1813 1813 1813 1813 1813 1813 1804 1804 1804 1804 1804 1804 1804 1804 1804 1804 1804 1804 1804 1813 1813 1813 1813 1813 1813 1813 1813 1804 1804 1813 1813 1813 1813 1813 1813 1823 1823 1823 1823 1823 1823 1823 1833 1833 1833 1843 1853 1853 1359 1359 1359 1359 1359 1359 1359 1359 1359 1359 1359 1359 1359 1359 1354 1349 1343 1343 1959 1959 1970 1970 1970 1970 1970 1970 2333 2333 2333 2333 2333 2333 2333 2333 2812 2812 2812 2812 2812 2812 2812 2812 2789 2789 2789 2789 2789 2789 2789 2789 2789 2789 2789 2789 2789 2789 2789 2789 2789 2789 2789 2789 2789 2789 2789 2812 2812 2812 2812 1536 1536 1529 1529 1536 1536 1536 1536 1536 1536 1543 1543 1543 1550 1550 1550 1550 1550 1557 1557 1557 1557 1557 1557 1557 1557 1557 1557 1557 1557 1557 1557 1557 2767 2767 2789 2789 2789 2789 2789 2789 2789 2789 2789 2789 2789 2789 2789 2789 2789 2789 2789 2789 2789 2789 2789 2789 2789 2789 2789 2789 2767 2767 2767 2767 2767 2767 2767 2767 2767 2767 2767 2767 2767 2767 2767 2767 2767 2767 2767 2767 2767 2767 2767 2767 2767 2767 2767 2767 2767 2767 2767 2767 2767 2767 2767 2767 2767 2767 2767 2767 2767 2767 2767 2767 2767 2767 2767 2767 2767 2767 2767 2767 2767 2767 2767 2767 2767 2767 2767 2789 2789 2789 2789 2789 2789 2789 2767 2767 2767 2767 2767 2767 2767 2767 2767 2767 2767 2789 2767 2767 2767 2767 2767 2767 2767 2767 2767 2744 2744 2767 2767 2767 2767 2744 2744 2744 2744 2744 2744 2744 2744 2744 2744 2744 2744 2723 2723 2723 2744 2744 2744 2744 2723 2723 2723 2723 2723 2723 2723 2723 2723 2723 2723 2723 2723 2723 2723 2723 2723 0 0 0 0 0 0 0 0 0 0
0 0 0 0 0 0 0 0 0 0 0 0 0 0 0 0 0 0 0 0 0 0 0 0 0 0 0 0 0 0 0 0 2618 2618 2618 2618 2618 2618 2618 2618 2618 2618 2618 2618 2618 2618 2618 2618 1439 1439 1439 1439 1439 1439 1439 1439 1439 1439 1445 1445 1445 1445 1445 1338 1338 1343 1343 1343 1349 1349 1343 1343 1349 1349 1349 1354 1354 1354 1359 1365 1365 1370 1376 1381 1387 1387 1387 1387 1387 1387 1387 1387 1387 1387 2680 1387 1387 1387 1387 1387 1354 1354 1387 1387 1387 1757 1757 1757 1757 1757 1757 1757 1757 1766 1766 1766 1766 1757 1757 1757 1757 1757 1757 1757 1392 1392 1757 1766 1766 1766 1766 1766 1776 1776 1776 1766 1766 1776 1776 1776 1776 1785 1785 1794 1794 1404 1404 1410 1410 1410 1410 1410 1410 1410 1410 1410 1410 1404 1404 1404 1404 1404 1404 1404 1398 1398 1404 1398 1398 1404 1404 1404 1404 1404 1404 1404 1404 1410 1410 1410 1410 1410 1404 1404 1398 1398 1392 1392 1392 1392 1387 1387 1387 1387 1392 1398 1398 1398 1398 1404 1766 1776 1776 1776 1776 1785 1785 1785 1785 1785 1785 1785 1785 1785 1785 1785 1785 1785 1785 1785 1794 1794 1804 1804 1804 1813 1894 1904 1915 1915 1915 1915 1915 1915 1915 1926 1926 1926 1926 1926 1936 1926 1926 1936 1926 1926 0 0 0 0 0 1328 1328 1328 1328 1328 1328 1328 1328 1328 1328 1328 1328 1333 1333 1333 1333 1333 1333 1785 1776 1776 1785 1785 1785 1785 1785 1785 1785 1785 1785 1794 1794 1794 1794 1794 1794 1794 1794 1785 1785 1785 1794 1794 1794 1794 1794 1794 1794 1794 1794 1794 1794 1794 1794 1794 1794 1794 1794 1804 1804 1804 1804 1804 1804 1804 1804 1804 1804 1804 1804 1804 1804 1804 1804 1804 1813 1813 1813 1804 1804 1804 1804 1804 1794 1794 1794 1804 1804 1804 1804 1804 1804 1804 1813 1804 1804 1804 1804 1804 1804 1804 1804 1804 1804 1804 1804 1804 1813 1804 1804 1813 1813 1813 1823 1823 1823 1833 1833 1833 1359 1359 1359 1359 1359 1359 1359 1365 1365 1365 1365 1365 1365 1365 1365 1365 1354 1354 1959 1959 1959 1970 1970 1970 1970 1970 1970 2333 2333 2333 2333 2333 2333 2333 2333 2812 2812 2812 2812 2812 2812 2812 2812 2789 2789 2789 2789 2789 2789 2789 2789 2789 2789 2789 2789 2789 2789 2789 2789 2789 2789 2789 2789 2767 2767 2789 2789 2789 2812 2812 0 1536 1536 1536 1536 1536 1536 1536 1536 1543 1543 1543 1550 1550 1550 1550 1550 1550 1557 1557 1557 1557 1557 1557 1557 1557 1557 1557 1557 1557 1557 1557 1557 2723 2723 2767 2767 2767 2789 2789 2789 2789 2789 2789 2789 2789 2789 2789 2789 2789 2789 2789 2789 2789 2789 2789 2789 2767 2767 2767 2767 2744 2744 2744 2744 2744 2744 2744 2744 2744 2767 2767 2767 2767 2767 2767 2767 2767 2767 2767 2767 2767 2767 2767 2767 2767 2767 2767 2767 2767 2767 2767 2767 2767 2767 2767 2767 2767 2767 2767 2767 2767 2767 2767 2767 2767 2767 2767 2767 2744 2744 2744 2744 2744 2767 2767 2767 2767 2767 2767 2789 2789 2789 2789 2789 2767 2767 2767 2767 2767 2767 2767 2767 2767 2767 2767 2767 2767 2767 2767 2767 2767 2767 2767 2767 2767 2767 2767 2744 2744 2744 2767 2767 2744 2744 2744 2744 2744 2744 2744 2744 2744 2744 2744 2744 2723 2723 2723 2723 2723 2723 2723 2723 2723 2723 2723 2723 2723 2723 2723 2723 2723 2723 2723 2723 2723 2723 2723 2701 2701 0 0 0 0 0 0 0 0 0 0
0 0 0 0 0 0 0 0 0 0 0 0 0 0 0 0 0 0 0 0 0 0 0 0 0 0 0 0 0 0 0 0 2618 2618 2618 2618 2618 2598 2598 2598 2598 2598 2598 2579 2579 2598 2618 2618 1439 1439 1439 1445 1439 1439 1439 1439 1439 1445 1452 1452 1452 1452 1452 1338 1338 1343 1343 1349 1349 1354 1349 1349 1349 1349 1349 1354 1354 1354 1359 1365 1365 1370 1376 1381 1381 1387 1387 1387 1387 1387 1387 1381 1381 1381 1381 1381 1381 1381 1387 1387 1381 1381 1387 1387 1387 1757 1757 1387 1387 1387 1387 1757 1757 1757 1757 1757 1757 1757 1404 1404 1757 1757 1392 1392 1392 1392 1392 1398 1757 1757 1766 1766 1776 1776 1776 1387 1387 1387 1387 1387 1387 1387 1398 1398 1398 1398 1404 1404 1404 1404 1404 1404 1404 1404 1404 1404 1404 1398 1398 1398 1404 1404 1404 1404 1398 1398 1404 1404 1404 1404 1404 1404 1404 1404 1404 1404 1404 1404 1404 1410 1410 1410 1404 1404 1398 1398 1392 1392 1392 1392 1392 1392 1392 1392 1398 1398 1398 1398 1404 1404 1757 1757 1776 1776 1776 1776 1776 1776 1785 1776 1776 1785 1785 1785 1785 1785 1785 1785 1785 1785 1785 1794 1794 1794 1804 1813 1904 1904 1915 1904 1904 1904 1915 1915 1915 1915 1926 1926 1926 1936 1936 1936 1936 1936 1936 1936 0 0 0 0 0 1328 1328 1328 1328 1328 1333 1333 1333 1333 1333 1333 1333 1333 1333 1333 1333 1338 1338 1776 1398 1398 1776 1776 1785 1785 1785 1785 1785 1785 1785 1785 1785 1785 1785 1785 1785 1785 1785 1785 1785 1785 1785 1794 1794 1794 1794 1794 1794 1785 1785 1785 1785 1785 1785 1785 1785 1785 1794 1794 1794 1794 1804 1804 1804 1794 1794 1794 1794 1794 1794 1804 1794 1794 1804 1804 1804 1804 1804 1804 1794 1794 1794 1794 1794 1794 1794 1794 1794 1794 1794 1804 1804 1804 1804 1804 1804 1804 1804 1804 1804 1804 1804 1804 1804 1804 1804 1804 1804 1804 1804 1804 1804 1813 1813 1813 1823 1833 1833 1833 1359 1359 1359 1359 1365 1365 1365 1365 1365 1365 1365 1365 1365 1365 1365 1365 1365 1959 1959 1959 1959 1970 1970 1970 1970 1970 1970 1970 2333 2333 2333 2333 2333 2333 2812 2812 2812 2789 2789 2789 2812 2812 2812 2789 2789 2789 2789 2789 2789 2789 2789 2789 2767 2767 2789 2789 2789 2789 2789 2789 2767 2767 2789 2767 2767 2789 2789 2789 2789 2789 2767 1536 1536 1536 1536 1536 1536 1536 1543 1543 1543 1543 1550 1550 1550 1550 1550 1550 1557 1557 1557 1557 1557 1557 1557 1557 1557 1557 1557 1557 1557 1557 2723 2723 2723 2767 2767 2767 2767 2767 2789 2789 2789 2789 2767 2767 2789 2789 2789 2789 2789 2789 2789 2767 2767 2789 2767 2767 2767 2767 2767 2744 2744 2744 2744 2744 2744 2744 2744 2744 2744 2744 2744 2744 2744 2744 2744 2744 2744 2744 2744 2744 2744 2744 2744 2744 2744 2744 2744 2767 2767 2767 2767 2767 2767 2767 2767 2767 2767 2767 2767 2767 2767 2744 2744 2744 2744 2744 2744 2744 2744 2744 2744 2744 2744 2744 2744 2767 2767 2767 2767 2767 2767 2767 2767 2767 2767 2744 2744 2744 2744 2744 2744 2744 2767 2767 2767 2767 2767 2767 2744 2744 2744 2744 2744 2744 2744 2744 2744 2744 2744 2744 2744 2744 2744 2723 2723 2723 2723 2723 2723 2723 2723 2723 2723 2723 2723 2723 2723 2723 2723 2723 2723 2723 2723 2723 2723 2723 2723 2723 2723 2723 2723 2723 2723 2701 2701 2701 2701 2701 0 0 0 0 0 0 0 0 0 0
0 0 0 0 0 0 0 0 0 0 0 0 0 0 0 0 0 0 0 0 0 0 0 0 0 0 0 0 0 0 0 0 2598 2598 2598 2598 2598 2598 2598 2598 2598 2579 2579 2579 2579 2579 2579 2579 1439 1439 1439 1445 1445 1445 1445 1445 1445 1452 1452 1452 1452 1452 1458 1458 1343 1343 1349 1349 1349 1354 1349 1349 1349 1354 1354 1354 1354 1354 1359 1365 1365 1370 1376 1381 1381 1381 1381 1387 1387 1387 1387 1381 1381 1381 1381 1381 1381 1381 1381 1381 1381 1381 1387 1387 1387 1387 1387 1387 1387 1387 1387 1387 1387 1387 1387 1387 1387 1387 1387 1387 1387 1387 1387 1387 1392 1392 1392 1392 1392 1757 1757 1766 1776 1387 1387 1387 1387 1387 1387 1387 1387 1387 1392 1392 1392 1398 1398 1404 1404 1404 1404 1404 1404 1404 1404 1404 1404 1398 1398 1398 1404 1404 1404 1404 1398 1398 1398 1398 1398 1398 1404 1404 1404 1404 1404 1404 1404 1404 1404 1404 1410 1410 1410 1404 1404 1398 1398 1398 1392 1392 1392 1392 1392 1392 1398 1398 1398 1404 1404 1404 1748 1757 1766 1766 1766 1776 1776 1776 1776 1776 1776 1776 1776 1776 1776 1776 1776 1776 1776 1785 1785 1794 1794 1794 1804 1823 1894 1894 1904 1904 1904 1904 1915 1915 1915 1915 1926 1926 1936 1936 1936 1936 1936 1936 1936 0 0 0 0 0 0 0 1333 1333 1333 1333 1333 1333 1333 1333 1333 1333 1333 1333 1333 1333 1338 1338 1766 1766 1398 1398 1776 1776 1776 1776 1776 1776 1776 1776 1776 1785 1785 1785 1785 1785 1776 1776 1776 1776 1776 1776 1785 1785 1785 1785 1785 1785 1794 1785 1785 1785 1785 1785 1776 1776 1785 1785 1785 1794 1794 1794 1794 1794 1794 1794 1794 1794 1794 1794 1794 1794 1794 1794 1794 1804 1804 1804 1804 1804 1794 1794 1392 1392 1392 1398 1785 1785 1794 1794 1794 1804 1804 1804 1804 1804 1794 1794 1794 1794 1794 1794 1794 1794 1794 1794 1794 1794 1794 1794 1794 1794 1794 1804 1804 1813 1823 1833 1833 1359 1359 1359 1359 1359 1365 1365 1365 1365 1365 1365 1365 1365 1365 1365 1365 1370 1370 1381 1959 1970 1970 1970 1970 1970 1970 1970 1970 1970 2333 2333 2333 2333 2333 2333 2812 2789 2789 2789 2789 2789 2789 2789 2789 2767 2767 2767 2767 2767 2767 2767 2767 2767 2767 2767 2767 2767 2767 2767 2767 2767 2767 2767 2767 2767 2767 2767 2767 2767 2767 2767 2767 1536 1536 1536 1536 1536 1536 1536 1543 1543 1543 1543 1550 1550 1550 1550 1550 1550 1557 1557 1557 1557 1557 1557 1557 1557 1557 1557 1557 1557 1564 1564 2723 2723 2723 2744 2744 2767 2767 2767 2767 2767 2767 2767 2767 2767 2767 2767 2767 2767 2767 2767 2767 2767 2767 2767 2767 2767 2767 2767 2767 2744 2744 2723 2723 2744 2744 2744 2744 2744 2744 2744 2744 2744 2744 2744 2744 2744 2744 2744 2744 2744 2744 2723 2723 2723 2744 2744 2744 2744 2744 2744 2767 2767 2767 2767 2767 2767 2767 2744 2744 2744 2744 2744 2744 2744 2744 2744 2744 2744 2744 2744 2744 2744 2744 2744 2744 2744 2744 2744 2767 2767 2767 2767 2744 2744 2744 2744 2744 2744 2744 2744 2744 2744 2744 2744 2744 2744 2744 2744 2744 2744 2744 2744 2744 2744 2744 2744 2744 2744 2744 2744 2744 2744 2723 2723 2723 2723 2723 2723 2723 2723 2723 2723 2723 2723 2723 2723 2723 2723 2723 2723 2701 2701 2701 2723 2723 2723 2723 2723 2723 2723 2723 2723 2723 2701 2701 2701 2701 2701 0 0 0 0 0 0 0 0 0 0
0 0 0 0 0 0 0 0 0 0 0 0 0 0 0 0 0 0 0 0 0 0 0 0 0 0 0 0 0 0 0 0 2579 2579 2598 2598 2598 2598 2598 2598 2598 2579 2579 2579 2579 2560 2560 2560 2560 1445 1445 1445 1445 1445 1445 1445 1445 1452 1452 1452 1452 1458 1458 1458 1343 1343 1349 1349 1354 1354 1349 1349 1349 1354 1354 1354 1354 1354 1359 1365 1365 1370 1376 1381 1381 1381 1381 1381 1381 1381 1381 1381 1381 1381 1381 1381 1381 1381 1381 1381 1381 1381 1381 1387 1387 1381 1381 1381 1387 1381 1381 1387 1387 1387 1387 1387 1387 1387 1387 1387 1387 1387 1387 1387 1392 1392 1392 1392 1392 1392 1392 1766 1387 1387 1387 1387 1387 1387 1387 1387 1387 1387 1392 1392 1392 1398 1398 1404 1404 1404 1404 1404 1398 1398 1404 1404 1404 1398 1398 1398 1404 1404 1398 1398 1398 1398 1398 1398 1398 1398 1398 1404 1404 1404 1404 1404 1404 1404 1404 1404 1404 1404 1404 1404 1404 1398 1398 1398 1398 1398 1392 1392 1398 1398 1398 1398 1398 1404 1404 1404 1748 1748 1757 1757 1757 1766 1766 1766 1766 1766 1766 1776 1776 1766 1766 1776 1776 1776 1776 1776 1785 1785 1794 1794 1813 1823 1894 1894 1904 1915 1915 0 0 1926 1926 1926 1926 1926 1936 1936 1936 1936 1936 1936 1936 0 0 0 0 0 0 0 1338 1333 1333 1333 1333 1333 1333 1338 1338 1338 1338 1338 1338 1338 1343 1343 1766 1376 1376 1381 1381 1776 1776 1776 1776 1776 1776 1776 1776 1776 1776 1776 1776 1776 1776 1776 1766 1766 1776 1776 1776 1776 1776 1785 1785 1785 1794 1785 1785 1776 1776 1776 1776 1776 1776 1785 1785 1785 1785 1794 1794 1794 1794 1794 1804 1794 1794 1794 1794 1794 1794 1794 1794 1794 1804 1804 1387 1387 1387 1387 1387 1387 1387 1392 1392 1392 1392 1392 1794 1804 1804 1804 1804 1804 1794 1794 1392 1392 1392 1392 1392 1392 1392 1392 1794 1794 1794 1794 1794 1794 1794 1794 1804 1804 1823 1833 1370 1365 1359 1359 1365 1365 1365 1365 1365 1365 1365 1365 1365 1365 1365 1370 1370 1370 1376 1381 1959 1970 1970 1970 1970 1970 1970 1970 1981 2333 2333 2333 2333 2333 2333 2333 2789 2789 2789 2789 2789 2789 2789 2789 2789 2767 2767 2767 2767 2767 2767 2767 2767 2767 2767 2767 2767 2767 2767 2767 2767 2767 2767 2767 2767 2767 2767 2767 2767 2767 2744 2744 2744 2744 1536 1536 1536 1536 1536 1543 1543 1543 1543 1550 1550 1550 1550 1550 1550 1557 1557 1557 1557 1557 1557 1557 1557 1557 1557 1564 1557 1557 1564 1564 2701 2701 2701 2744 2744 2744 2767 2767 2767 2767 2767 2767 2767 2767 2767 2744 2744 2744 2744 2744 2744 2744 2744 2767 2767 2744 2744 2744 2744 2723 2723 2723 2723 2723 2723 2723 2723 2723 2723 2723 2723 2723 2723 2723 2723 2723 2723 2723 2723 2723 2723 2723 2723 2723 2723 2723 2723 2723 2744 2744 2744 2744 2744 2744 2744 2744 2744 2744 2744 2744 2744 2744 2744 2744 2744 2744 2744 2723 2723 2723 2723 2723 2723 2723 2723 2744 2744 2744 2744 2744 2744 2744 2744 2744 2744 2744 2744 2744 2744 2744 2744 2744 2744 2744 2744 2744 2744 2723 2723 2723 2744 2744 2744 2744 2744 2744 2723 2723 2744 2744 2744 2744 2723 2723 2723 2723 2723 2701 2701 2701 2701 2701 2701 2701 2701 2701 2701 2701 2701 2701 2701 2701 2701 2701 2701 2723 2723 2723 2723 2723 2723 2723 2723 2701 2701 2701 2701 2701 0 0 0 0 0 0 0 0 0 0
0 0 0 0 0 0 0 0 0 0 0 0 0 0 0 0 0 0 0 0 0 0 0 0 0 0 0 0 0 0 0 0 2579 2560 2560 2579 2579 2579 2579 2579 2579 2579 2579 2579 2579 2560 2560 2560 2560 2560 1452 1452 1445 1445 1445 1445 1445 1452 1452 1452 1452 1452 1458 1458 1458 1349 1349 1349 1354 1359 1354 1354 1354 1354 1354 1354 1359 1359 1359 1365 1365 1370 1376 1376 1381 1381 1381 1381 1381 1381 1381 1381 1381 1381 1381 1381 1381 1381 1381 1381 1381 1381 1381 1381 1381 1381 1381 1381 1387 1381 1381 1381 1387 1387 1387 1387 1387 1387 1387 1387 1387 1387 1387 1387 1387 1387 1392 1392 1392 1387 1387 1387 1387 1387 1387 1387 1387 1387 1387 1387 1387 1392 1392 1392 1392 1398 1398 1404 1404 1404 1404 1404 1398 1398 1398 1398 1404 1398 1398 1398 1398 1398 1398 1398 1398 1398 1398 1398 1398 1398 1398 1404 1404 1404 1404 1404 1404 1404 1404 1404 1404 1404 1404 1404 1404 1398 1398 1398 1398 1398 1398 1398 1398 1398 1398 1404 1404 1404 1404 1404 1748 1748 1757 1748 1748 1757 1757 1757 1757 1766 1766 1766 1766 1766 1766 1766 1766 1766 1766 1766 1785 1785 1794 1794 1813 1843 1843 0 0 0 0 0 0 0 1926 1926 1926 1936 1936 1936 1936 1936 1936 1936 1936 0 0 0 0 0 0 0 1343 1338 1338 1338 1338 1338 1338 1338 1338 1338 1338 1343 1343 1343 1343 1349 1370 1370 1376 1381 1381 1381 1387 1776 1776 1776 1776 1776 1776 1776 1776 1776 1776 1776 1766 1766 1766 1766 1766 1776 1776 1370 1370 1376 1376 1370 1370 1370 1370 1370 1370 1370 1370 1370 1776 1776 1776 1785 1376 1376 1376 1804 1794 1376 1376 1804 1376 1376 1376 1370 1370 1370 1370 1370 1370 1376 1381 1387 1387 1387 1381 1381 1381 1387 1387 1387 1387 1387 1387 1381 1381 1387 1387 1387 1387 1387 1387 1387 1392 1392 1392 1392 1392 1392 1392 1392 1392 1794 1794 1794 1794 1794 1387 1387 1387 1387 1370 1365 1365 1365 1365 1365 1365 1365 1365 1365 1365 1365 1365 1365 1370 1370 1370 1370 1376 1381 1959 1970 1970 1970 1970 1981 1981 1981 1981 2333 2333 2333 2333 2333 2333 2333 2789 2767 2767 2767 2767 2767 2767 2767 2767 2767 2767 2767 2767 2767 2744 2744 2744 2744 2744 2744 2767 2767 2767 2767 2767 2767 2767 2744 2744 2744 2744 2744 2744 2744 2723 2723 2723 2723 1536 1536 1536 1536 1536 1543 1543 1543 1543 1550 1550 1550 1550 1557 1557 1557 1557 1557 1557 1557 1557 1557 1557 1557 1557 1564 1564 1564 1564 1564 2701 2701 2701 2723 2723 2744 2744 2744 2767 2744 2744 2744 2744 2744 2744 2744 2744 2723 2723 2723 2744 2744 2744 2744 2744 2744 2744 2723 2723 2701 2701 2701 2701 2701 2701 2701 2701 2701 2701 2701 2701 2701 2701 2701 2723 2723 2723 2723 2723 2701 2701 2701 2701 2701 2701 2701 2701 2723 2723 2723 2723 2723 2744 2744 2744 2744 2744 2744 2744 2744 2744 2744 2744 2723 2723 2723 2723 2723 2723 2723 2723 2723 2723 2723 2723 2723 2723 2723 2744 2744 2744 2744 2744 2744 2744 2744 2744 2744 2744 2744 2744 2744 2744 2744 2744 2744 2723 2723 2723 2723 2723 2744 2744 2744 2744 2744 2723 2723 2723 2723 2723 2723 2701 2701 2701 2701 2701 2701 2701 2701 2701 2701 2701 2701 2701 2701 2701 2680 2680 2680 2680 2680 2680 2701 2701 2701 2701 2723 2723 2723 2723 2723 2701 2701 2680 2680 2680 2680 0 0 0 0 0 0 0 0 0 0
0 0 0 0 0 0 0 0 0 0 0 0 0 0 0 0 0 0 0 0 0 0 0 0 0 0 0 0 0 0 0 0 0 2560 2560 2560 2560 2560 2560 2560 2560 2560 2560 2560 2560 2560 2560 2560 2560 2560 1452 1452 1445 1445 1445 1445 1445 1452 1452 1452 1452 1452 1458 1458 1458 1354 1354 1354 1354 1359 1354 1354 1354 1354 1354 1354 1359 1359 1359 1365 1365 1370 1370 1376 1376 1381 1381 1381 1376 1376 1381 1381 1381 1381 1381 1381 1381 1381 1381 1381 1381 1381 1381 1381 1381 1381 1381 1381 1387 1381 1381 1381 1381 1387 1387 1387 1387 1387 1387 1387 1387 1387 1387 1387 1387 1387 1387 1387 1387 1387 1387 1387 1387 1387 1387 1387 1387 1387 1387 1392 1392 1392 1392 1392 1398 1398 1398 1404 1398 1398 1398 1398 1398 1398 1398 1398 1404 1398 1398 1398 1398 1398 1398 1398 1398 1398 1398 1398 1398 1398 1398 1404 1404 1404 1404 1404 1404 1404 1404 1404 1404 1404 1404 1404 1404 1404 1398 1398 1398 1398 1398 1398 1398 1398 1404 1404 1404 1404 1410 1410 1748 1748 1748 1748 1748 1748 1748 1757 1757 1757 1757 1766 1766 1766 1766 1766 1757 1757 1766 1766 1776 1785 1794 1804 1833 1843 1853 0 0 0 0 0 0 0 1915 1915 1926 1936 1936 1936 1936 1936 1936 1936 1936 0 0 0 0 0 0 1359 1354 1343 1343 1338 1338 1338 1338 1338 1343 1343 1343 1343 1349 1349 1349 1354 1370 1370 1376 1376 1376 1381 1381 1381 1381 1381 1766 1766 1776 1776 1776 1766 1766 1776 1766 1766 1766 1766 1766 1370 1370 1370 1370 1370 1370 1370 1370 1370 1370 1370 1370 1370 1370 1370 1370 1370 1370 1376 1376 1376 1376 1376 1376 1376 1376 1376 1376 1376 1376 1370 1370 1370 1370 1370 1370 1376 1381 1381 1381 1381 1381 1381 1381 1381 1381 1381 1381 1381 1381 1381 1381 1381 1381 1381 1387 1387 1387 1387 1387 1387 1387 1387 1387 1392 1392 1392 1392 1392 1398 1398 1392 1392 1387 1387 1387 1387 1387 1381 1370 1370 1365 1365 1365 1365 1365 1370 1370 1370 1370 1370 1370 1370 1376 1376 1381 1959 1959 1970 1970 1970 1970 1970 1981 1981 1993 2333 2333 2333 2333 2333 2333 2767 2767 2744 2744 2744 2744 2744 2767 2744 2744 2744 2744 2744 2744 2744 2723 2723 2723 2723 2723 2723 2744 2744 2744 2744 2744 2744 2723 2723 2723 2723 2723 2723 2723 2723 2701 2701 2723 2723 1543 1543 1543 1543 1543 1543 1543 1543 1543 1550 1557 1557 1557 1557 1557 1557 1557 1557 1557 1557 1557 1564 1564 1557 1557 1564 1564 1564 1564 1564 2680 2680 2701 2701 2701 2723 2723 2723 2744 2744 2744 2744 2744 2744 2744 2723 2723 2723 2723 2723 2744 2723 2723 2744 2744 2723 2723 2723 2723 2701 2680 2680 2680 2680 2680 2680 2680 2680 2680 2680 2680 2701 2701 2701 2701 2701 2701 2701 2701 2701 2701 2701 2701 2701 2701 2701 2701 2701 2701 2701 2723 2723 2723 2723 2723 2723 2723 2723 2723 2723 2723 2723 2701 2701 2701 2701 2701 2701 2701 2701 2701 2701 2701 2701 2701 2701 2723 2723 2723 2744 2744 2744 2744 2744 2744 2744 2723 2723 2723 2723 2723 2723 2723 2723 2723 2723 2723 2701 2701 2701 2723 2723 2723 2723 2744 2744 2723 2723 2723 2723 2723 2723 2701 2701 2701 2680 2680 2701 2701 2701 2701 2701 2701 2701 2701 2680 2680 2680 2680 2680 2680 2680 2680 2680 2680 2680 2701 2701 2701 2701 2701 2701 2680 2680 2680 2680 2680 2680 0 0 0 0 0 0 0 0 0 0
0 0 0 0 0 0 0 0 0 0 0 0 0 0 0 0 0 0 0 0 0 0 0 0 0 0 0 0 0 0 0 0 0 2560 2560 2560 2560 2560 2560 2560 2560 2560 2560 2560 2560 2560 2560 2560 2560 2560 1458 1458 1452 1452 1452 1452 1452 1452 1452 1452 1452 1452 1458 1458 1458 1354 1354 1354 1359 1359 1359 1354 1354 1354 1354 1354 1359 1359 1359 1365 1365 1370 1370 1376 1376 1376 1376 1376 1376 1376 1376 1376 1376 1376 1381 1381 1381 1381 1381 1381 1381 1381 1381 1381 1381 1381 1381 1381 1381 1381 1381 1381 1381 1387 1387 1387 1387 1387 1387 1387 1387 1387 1387 1387 1387 1387 1387 1387 1387 1387 1387 1387 1387 1387 1387 1387 1387 1387 1387 1392 1392 1398 1398 1398 1398 1398 1398 1404 1398 1398 1398 1398 1398 1398 1398 1398 1404 1398 1398 1398 1398 1398 1398 1398 1398 1398 1398 1398 1398 1398 1404 1404 1404 1404 1404 1404 1404 1404 1404 1404 1410 1410 1410 1410 1404 1404 1404 1398 1398 1398 1398 1398 1398 1398 1404 1404 1404 1404 1410 1415 1421 1739 1748 1748 1748 1748 1748 1748 1748 1748 1748 1757 1757 1757 1757 1757 1748 1748 1757 1757 1776 1776 1794 1833 1833 1843 1853 0 0 0 0 0 0 0 1915 1915 1926 1926 1936 1936 1936 1936 1936 1936 1936 0 0 0 0 0 0 1359 1354 1349 1349 1343 1343 1343 1343 1343 1343 1343 1349 1349 1349 1349 1349 1359 1370 1370 1370 1376 1376 1376 1381 1376 1376 1376 1376 1376 1376 1376 1376 1766 1766 1776 1766 1370 1370 1370 1370 1370 1370 1370 1370 1370 1370 1370 1370 1370 1370 1370 1370 1370 1370 1370 1370 1370 1370 1370 1370 1370 1370 1370 1370 1370 1370 1376 1376 1376 1376 1376 1376 1376 1376 1376 1376 1376 1381 1381 1381 1381 1376 1376 1376 1376 1376 1376 1376 1376 1376 1376 1376 1376 1381 1381 1381 1381 1381 1387 1387 1387 1387 1387 1387 1387 1387 1392 1392 1392 1398 1398 1392 1392 1392 1392 1392 1392 1387 1387 1381 1370 1370 1370 1370 1370 1370 1370 1370 1370 1370 1370 1370 1376 1376 1376 1381 1959 1959 1970 1970 1970 1970 1970 1981 1981 2333 2333 2333 2333 2349 2349 2789 2767 2767 2744 2744 2744 2744 2744 2744 2744 2744 2723 2723 2723 2723 2723 2723 2723 2723 2723 2723 2723 2723 2723 2723 2723 2723 2723 2723 2701 2701 2701 2701 2701 2701 2701 2680 2680 2723 2723 1550 1550 1550 1550 1543 1543 1543 1550 1550 1550 1557 1557 1557 1557 1557 1557 1557 1557 1557 1564 1564 1564 1564 1564 1564 1564 1564 1564 1564 1564 2680 2680 2680 2701 2701 2701 2723 2723 2723 2723 2723 2723 2723 2723 2723 2701 2701 2723 2723 2723 2723 2723 2723 2723 2723 2723 2701 2701 2701 2680 2680 2680 2680 2680 2680 2680 2680 2680 2680 2680 2680 2680 2680 2680 2701 2701 2701 2701 2680 2680 2680 2680 2680 2680 2680 2680 2680 2680 2680 2701 2701 2701 2701 2701 2723 2701 2701 2701 2701 2701 2701 2701 2701 2701 2680 2680 2680 2680 2680 2680 2701 2701 2701 2701 2701 2701 2701 2701 2701 2723 2723 2723 2723 2723 2723 2723 2723 2723 2701 2701 2723 2723 2723 2701 2701 2701 2701 2701 2701 2701 2701 2723 2723 2723 2723 2744 2723 2701 2701 2701 2701 2701 2701 2701 2701 2680 2680 2701 2701 2701 2701 2701 2701 2701 2701 2680 2680 2680 2659 2659 2659 2659 2659 2680 2680 2680 2680 2680 2701 2680 2680 2680 2659 2659 2659 2659 2659 2659 0 0 0 0 0 0 0 0 0 0
0 0 0 0 0 0 0 0 0 0 0 0 0 0 0 0 0 0 0 0 0 0 0 0 0 0 0 0 0 0 0 0 0 2541 2541 2541 2541 2541 2541 2541 2541 2541 2541 2560 2541 2541 2541 2541 2541 2541 1452 1452 1452 1452 1452 1452 1452 1452 1452 1452 1452 1452 1458 1458 1458 1464 1354 1354 1359 1359 1359 1354 1354 1354 1354 1359 1359 1359 1359 1365 1365 1370 1370 1376 1376 1376 1376 1376 1376 1376 1376 1376 1376 1376 1381 1381 1381 1381 1381 1381 1381 1381 1381 1381 1381 1381 1381 1381 1381 1381 1381 1381 1381 1387 1387 1387 1387 1387 1381 1381 1381 1381 1381 1387 1387 1387 1387 1387 1387 1387 1387 1387 1387 1387 1387 1387 1387 1387 1387 1392 1392 1398 1398 1398 1398 1404 1404 1398 1398 1398 1398 1398 1398 1398 1398 1398 1404 1398 1398 1398 1398 1398 1398 1398 1398 1398 1398 1398 1398 1398 1404 1404 1404 1404 1404 1404 1404 1404 1404 1404 1410 1410 1410 1410 1404 1404 1404 1404 1398 1398 1398 1398 1398 1404 1404 1404 1410 1410 1410 1415 1421 1739 1739 1739 1739 1739 1748 1748 1748 1748 1748 1748 1748 1748 1748 1748 1748 1748 1748 1757 1776 1776 1794 1833 1833 1843 1853 0 0 0 0 0 0 0 1915 1915 1926 1926 1936 1936 1947 1936 1936 1936 1936 0 0 0 0 0 0 1359 1354 1349 1349 1349 1349 1349 1349 1349 1349 1349 1349 1349 1349 1349 1349 1359 1365 1370 1370 1376 1376 1376 1376 1376 1376 1376 1376 1376 1376 1376 1376 1376 1376 1370 1370 1370 1370 1370 1370 1370 1370 1370 1370 1370 1370 1370 1370 1370 1370 1370 1370 1370 1370 1370 1370 1370 1370 1370 1370 1370 1370 1370 1370 1370 1370 1370 1370 1370 1370 1370 1376 1376 1376 1376 1376 1376 1381 1381 1381 1381 1376 1376 1376 1376 1376 1376 1376 1376 1376 1376 1376 1376 1376 1376 1376 1381 1381 1387 1387 1387 1387 1387 1387 1387 1387 1392 1392 1392 1392 1392 1392 1392 1392 1392 1398 1392 1392 1387 1387 1376 1370 1370 1370 1370 1370 1370 1370 1370 1370 1370 1376 1376 1376 1376 1381 1970 1970 1970 1981 1981 1981 1981 1981 1981 2333 2333 2333 2333 2349 2349 2767 2744 2744 2744 2744 2744 2744 2744 2744 2744 2744 2723 2723 2723 2723 2723 2723 2723 2723 2723 2723 2723 2723 2723 2723 2701 2701 2701 2701 2701 2701 2701 2701 2701 2701 2701 2680 2680 2680 2680 1550 1550 1550 1550 1543 1543 1543 1550 1550 1557 1557 1557 1557 1557 1557 1557 1564 1564 1564 1564 1564 1564 1564 1564 1564 1564 1564 1564 1572 1572 2659 2659 2680 2680 2680 2680 2680 2701 2701 2723 2723 2723 2701 2701 2723 2701 2701 2701 2701 2701 2723 2723 2723 2723 2723 2701 2701 2701 2701 2680 2680 2680 2680 2680 2680 2680 2680 2680 2680 2680 2680 2680 2680 2680 2680 2680 2680 2680 2680 2680 2680 2680 2680 2680 2680 2680 2680 2680 2680 2680 2680 2680 2701 2701 2701 2701 2701 2680 2680 2680 2680 2680 2680 2680 2680 2680 2680 2680 2680 2680 2701 2701 2680 2680 2680 2701 2701 2701 2701 2723 2723 2723 2723 2723 2701 2701 2701 2701 2701 2701 2701 2701 2701 2701 2701 2701 2701 2701 2680 2680 2701 2701 2701 2701 2723 2723 2701 2701 2701 2701 2701 2701 2680 2680 2680 2680 2680 2680 2680 2680 2680 2701 2701 2680 2680 2659 2659 2659 2659 2659 2659 2659 2659 2659 2659 2659 2680 2680 2680 2680 2659 2659 2659 2659 2659 2659 2659 2659 0 0 0 0 0 0 0 0 0 0
0 0 0 0 0 0 0 0 0 0 0 0 0 0 0 0 0 0 0 0 0 0 0 0 0 0 0 0 0 0 0 0 0 2522 2522 2522 2522 2522 2541 2541 2541 2541 2541 2541 2541 2541 2522 2522 2522 0 1452 1452 1452 1452 1452 1452 1452 1452 1458 1452 1452 1452 1458 1458 1464 1464 1354 1354 1354 1359 1359 1359 1359 1359 1359 1359 1359 1365 1365 1365 1365 1370 1370 1376 1376 1376 1381 1376 1376 1376 1381 1376 1376 1376 1381 1381 1381 1381 1381 1381 1381 1381 1381 1381 1381 1381 1381 1381 1381 1381 1381 1381 1381 1381 1387 1387 1387 1387 1381 1381 1381 1381 1381 1387 1387 1387 1387 1387 1387 1387 1387 1387 1387 1387 1387 1387 1387 1387 1392 1392 1392 1398 1398 1398 1398 1404 1404 1398 1398 1398 1398 1398 1398 1398 1398 1398 1404 1398 1398 1398 1398 1398 1398 1398 1398 1398 1398 1398 1398 1404 1404 1404 1404 1404 1404 1404 1404 1410 1410 1410 1410 1410 1410 1410 1410 1410 1404 1404 1404 1398 1398 1398 1404 1404 1404 1404 1410 1410 1410 1415 1427 1739 1739 1739 1739 1739 1739 1739 1739 1748 1748 1748 1748 1748 1739 1739 1739 1739 1739 1748 1748 1776 1794 1853 1853 1853 1863 0 0 0 0 0 0 0 1926 1926 1926 1936 1936 1936 1947 1936 1936 1936 1936 0 0 0 0 0 1370 1359 1359 1354 1349 1349 1349 1349 1349 1349 1349 1349 1349 1349 1349 1349 1349 1359 1365 1370 1370 1376 1376 1376 1376 1376 1376 1376 1376 1376 1376 1376 1376 1376 1376 1370 1370 1370 1370 1370 1370 1370 1370 1370 1370 1370 1370 1370 1370 1370 1370 1370 1370 1370 1370 1370 1370 1370 1370 1376 1376 1376 1376 1370 1370 1370 1370 1370 1370 1370 1370 1370 1376 1376 1376 1376 1376 1376 1376 1376 1376 1376 1370 1370 1370 1370 1370 1376 1376 1376 1376 1376 1376 1376 1376 1376 1376 1381 1381 1387 1387 1387 1387 1387 1387 1387 1387 1392 1392 1392 1392 1392 1392 1392 1392 1392 1398 1392 1392 1387 1387 1381 1370 1370 1370 1370 1370 1370 1370 1370 1370 1370 1376 1376 1376 1376 1381 1381 1970 1981 1981 1981 1981 1981 1981 1981 2333 2333 2333 2333 2349 2349 2767 2744 2744 2723 2723 2723 2723 2723 2723 2723 2723 2701 2701 2701 2701 2701 2701 2701 2701 2701 2701 2701 2701 2701 2701 2701 2701 2701 2701 2680 2680 2680 2680 2680 2701 2680 2680 2680 2680 0 1557 1557 1550 1550 1550 1550 1550 1557 1557 1557 1557 1557 1557 1557 1557 1564 1564 1564 1564 1564 1564 1564 1564 1564 1564 1564 1564 1564 1564 2659 2659 2659 2659 2659 2680 2680 2680 2680 2701 2701 2701 2701 2701 2701 2701 2680 2680 2701 2701 2701 2701 2701 2701 2701 2701 2701 2701 2701 2701 2680 2680 2680 2680 2680 2680 2659 2659 2659 2659 2659 2659 2659 2659 2680 2680 2680 2680 2680 2680 2680 2680 2680 2680 2680 2680 2680 2680 2680 2680 2680 2680 2680 2680 2680 2680 2680 2680 2680 2680 2680 2680 2680 2680 2680 2680 2680 2680 2680 2680 2680 2680 2680 2680 2680 2680 2680 2680 2680 2701 2701 2701 2723 2723 2723 2701 2701 2701 2701 2680 2680 2680 2680 2680 2680 2680 2701 2680 2680 2680 2680 2680 2680 2680 2701 2701 2701 2680 2680 2680 2680 2680 2680 2680 2680 2659 2659 2659 2680 2659 2659 2659 2659 2659 2659 2659 2659 2659 2659 2659 2659 2659 2659 2659 2659 2659 2659 2659 2659 2659 2659 2659 2659 2659 2659 2659 2659 2659 2659 0 0 0 0 0 0 0 0 0 0
0 0 0 0 0 0 0 0 0 0 0 0 0 0 0 0 0 0 0 0 0 0 0 0 0 0 0 0 0 0 0 0 0 2503 2503 2503 2503 2503 2522 2541 2541 2541 2541 2541 2541 2541 2522 2522 2522 0 1452 1452 1452 1452 1452 1452 1452 1452 1458 1452 1452 1452 1458 1458 1464 1464 1354 1354 1354 1359 1359 1359 1359 1359 1359 1359 1359 1365 1365 1365 1370 1370 1376 1376 1381 1381 1381 1381 1376 1376 1381 1376 1376 1376 1381 1381 1381 1381 1381 1381 1381 1381 1381 1381 1381 1381 1381 1381 1381 1381 1381 1381 1381 1381 1387 1387 1387 1387 1387 1387 1387 1387 1387 1387 1387 1387 1387 1387 1387 1387 1387 1387 1387 1387 1387 1387 1387 1392 1392 1392 1392 1398 1398 1398 1398 1404 1404 1398 1398 1398 1398 1398 1398 1398 1398 1398 1404 1398 1398 1398 1398 1398 1398 1398 1398 1398 1398 1398 1404 1404 1404 1404 1404 1404 1404 1404 1404 1410 1410 1410 1415 1415 1415 1415 1410 1410 1410 1410 1404 1404 1404 1404 1404 1404 1404 1404 1410 1410 1415 1415 1421 1722 1722 1731 1731 1731 1731 1731 1739 1739 1739 1739 1739 1739 1739 1739 1739 1739 1739 1748 1748 1748 1785 1853 1853 1853 1863 0 0 0 2349 0 0 0 1926 1926 1936 1936 1936 1936 1947 1936 1936 1936 1936 0 0 0 0 0 1370 1354 1354 1354 1349 1349 1349 1349 1349 1349 1349 1349 1349 1349 1349 1354 1354 1359 1370 1370 1370 1376 1376 1376 1376 1376 1376 1376 1376 1376 1376 1376 1376 1376 1376 1370 1370 1370 1370 1370 1370 1370 1370 1370 1370 1370 1370 1370 1370 1370 1370 1370 1370 1370 1370 1370 1370 1370 1370 1370 1370 1370 1370 1370 1370 1370 1370 1370 1370 1370 1370 1370 1376 1376 1376 1376 1376 1376 1376 1376 1376 1376 1370 1370 1370 1370 1370 1370 1370 1376 1376 1376 1376 1376 1376 1376 1376 1381 1381 1387 1387 1387 1387 1387 1387 1387 1387 1387 1387 1387 1392 1392 1392 1392 1392 1392 1398 1398 1392 1387 1387 1381 1376 1376 1370 1370 1370 1370 1370 1370 1376 1376 1376 1376 1376 1365 1365 1381 1970 1981 1981 1981 1981 1981 1981 1981 2333 2333 2333 2333 2333 2349 2349 2723 2723 2723 2723 2723 2723 2723 2723 2723 2723 2701 2701 2701 2701 2701 2701 2701 2701 2701 2701 2701 2701 2701 2701 2701 2680 2680 2680 2680 2680 2680 2680 2680 2680 2680 2680 2680 2680 0 1557 1557 1557 1550 1550 1550 1550 1557 1557 1557 1557 1557 1557 1557 1557 1564 1564 1564 1564 1564 1564 1564 1564 1564 1564 1564 1564 1564 1564 2659 2659 2659 2659 2659 2680 2680 2680 2680 2680 2680 2680 2680 2680 2680 2680 2680 2680 2680 2680 2680 2680 2680 2680 2680 2680 2680 2680 2680 2680 2659 2659 2659 2659 2659 2659 2659 2659 2659 2659 2659 2659 2659 2659 2659 2659 2659 2680 2680 2680 2680 2680 2680 2680 2680 2680 2680 2680 2680 2680 2659 2659 2659 2659 2659 2659 2659 2659 2659 2659 2680 2680 2680 2680 2680 2659 2659 2680 2680 2680 2680 2680 2680 2680 2680 2680 2680 2680 2680 2701 2701 2701 2701 2701 2701 2680 2680 2680 2680 2680 2680 2680 2680 2680 2680 2680 2680 2680 2680 2680 2680 2680 2680 2680 2680 2680 2680 2680 2659 2659 2659 2659 2659 2659 2659 2659 2659 2659 2659 2659 2659 2659 2659 2659 2659 2659 2659 2659 2659 2639 2639 2639 2639 2639 2659 2659 2659 2659 2659 2659 2659 2639 2639 2639 2639 2639 2639 2639 2639 0 0 0 0 0 0 0 0 0 0
0 0 0 0 0 0 0 0 0 0 0 0 0 0 0 0 0 0 0 0 0 0 0 0 0 0 0 0 0 0 0 0 0 2485 2485 2485 2503 2503 2503 2522 2522 2522 2522 2522 2522 2522 2522 2522 2522 2503 1452 1452 1452 1452 1452 1452 1452 1452 1458 1452 1452 1458 1458 1458 1464 1464 1464 1359 1359 1359 1359 1359 1359 1359 1359 1359 1365 1365 1365 1370 1370 1376 1376 1381 1381 1381 1381 1381 1381 1381 1381 1376 1376 1376 1381 1381 1381 1381 1381 1381 1381 1381 1381 1381 1381 1381 1381 1381 1381 1381 1381 1381 1381 1381 1387 1387 1387 1387 1387 1387 1387 1387 1387 1387 1387 1387 1387 1387 1387 1387 1387 1392 1387 1387 1387 1387 1392 1392 1392 1392 1398 1398 1398 1398 1398 1404 1404 1404 1404 1398 1398 1404 1398 1398 1398 1404 1404 1404 1398 1398 1398 1398 1398 1398 1398 1398 1398 1398 1404 1404 1404 1404 1404 1404 1410 1410 1410 1415 1415 1415 1415 1415 1415 1415 1415 1415 1410 1410 1404 1404 1404 1404 1404 1404 1404 1404 1410 1410 1415 1415 1421 1722 1722 1722 1722 1722 1731 1731 1739 1739 1739 1739 1739 1739 1731 1731 1731 1731 1739 1748 1748 1748 1785 1863 1863 1863 1873 0 0 0 2349 2349 2349 2365 1926 1926 1936 1936 1936 1936 1947 1936 1936 1936 1936 0 0 0 0 0 0 1354 1349 1349 1349 1349 1349 1349 1349 1349 1349 1349 1349 1349 1349 1354 1354 1365 1370 1370 1376 1376 1376 1376 1376 1376 1376 1376 1376 1376 1376 1370 1370 1376 1376 1376 1376 1376 1376 1376 1370 1370 1370 1370 1370 1370 1370 1370 1370 1370 1370 1370 1370 1370 1370 1370 1370 1370 1370 1370 1370 1370 1370 1370 1370 1370 1370 1370 1370 1370 1370 1370 1376 1376 1376 1376 1376 1376 1376 1376 1376 1376 1370 1370 1370 1370 1370 1370 1370 1376 1376 1376 1376 1376 1381 1376 1376 1381 1381 1381 1387 1387 1387 1387 1387 1387 1387 1387 1387 1387 1392 1392 1392 1392 1392 1392 1392 1392 1392 1387 1387 1387 1381 1376 1376 1376 1376 1376 1376 1376 1376 1376 1376 1376 1376 1365 1365 1970 1970 1981 1981 1981 1981 1981 1970 1970 2333 2333 2333 2333 2333 2349 2349 2723 2723 2723 2723 2723 2701 2701 2723 2701 2701 2680 2680 2680 2680 2680 2680 2680 2680 2680 2680 2701 2701 2680 2680 2680 2680 2680 2680 2659 2659 2659 2659 2680 2680 2680 2680 2680 2680 1557 1557 1557 1557 1557 1557 1557 1557 1557 1557 1557 1557 1557 1557 1564 1564 1564 1564 1564 1564 1564 1564 1564 1564 1572 1572 1564 1564 1572 2618 2618 2639 2659 2659 2659 2659 2680 2680 2680 2680 2680 2680 2680 2680 2680 2680 2680 2680 2680 2680 2680 2680 2680 2680 2680 2680 2680 2680 2680 2680 2659 2659 2659 2659 2659 2659 2659 2659 2659 2659 2659 2659 2639 2639 2659 2659 2659 2659 2659 2659 2680 2680 2680 2659 2659 2659 2659 2659 2659 2659 2659 2659 2639 2639 2639 2659 2659 2659 2659 2659 2659 2659 2659 2659 2659 2659 2659 2659 2659 2659 2680 2680 2680 2680 2680 2680 2680 2680 2680 2680 2701 2701 2701 2680 2680 2680 2680 2680 2680 2680 2680 2680 2680 2680 2680 2680 2680 2659 2659 2659 2659 2680 2680 2680 2680 2680 2680 2659 2659 2659 2659 2659 2659 2659 2659 2659 2659 2659 2659 2659 2659 2639 2639 2639 2639 2639 2639 2639 2639 2639 2639 2639 2639 2639 2639 2639 2639 2639 2639 2639 2639 2618 2618 2639 2639 2639 2639 2639 2639 0 0 0 0 0 0 0 0 0 0
0 0 0 0 0 0 0 0 0 0 0 0 0 0 0 0 0 0 0 0 0 0 0 0 0 0 0 0 0 0 0 0 0 2485 2485 2485 2485 2503 2503 2503 2503 2522 2522 2522 2503 2503 2503 2503 2503 2503 1452 1452 1452 1452 1452 1452 1452 1452 1458 1458 1458 1458 1458 1464 1464 1464 1470 1359 1359 1359 1359 1359 1359 1359 1359 1359 1365 1365 1370 1370 1376 1376 1381 1381 1381 1381 1381 1381 1381 1381 1381 1381 1381 1381 1381 1381 1381 1381 1387 1387 1381 1381 1381 1381 1381 1381 1381 1381 1381 1381 1387 1381 1381 1381 1387 1387 1387 1387 1387 1387 1387 1387 1387 1387 1387 1387 1387 1387 1387 1387 1392 1392 1392 1392 1392 1392 1392 1398 1398 1398 1398 1398 1404 1404 1404 1404 1404 1404 1404 1404 1404 1404 1404 1404 1404 1404 1404 1404 1404 1404 1404 1404 1404 1404 1404 1404 1404 1404 1404 1404 1404 1404 1410 1410 1410 1410 1410 1415 1415 1415 1415 1415 1415 1415 1415 1415 1415 1410 1410 1404 1404 1410 1410 1410 1410 1410 1415 1415 1415 1415 1427 1722 1722 1722 1722 1722 1722 1731 1731 1731 1731 1731 1731 1731 1731 1731 1731 1731 1731 1739 1739 1863 1853 1853 1863 1863 1863 1863 2365 2365 2349 2349 2349 2365 1926 1926 1936 1936 1936 1936 1947 1936 1936 1936 1936 0 0 0 0 0 0 0 1349 1349 1349 1349 1349 1349 1349 1354 1354 1354 1354 1354 1354 1354 1354 1365 1370 1370 1376 1376 1376 1376 1376 1376 1376 1376 1376 1376 1376 1370 1370 1370 1370 1370 1370 1370 1370 1370 1370 1370 1370 1370 1370 1370 1370 1370 1370 1370 1370 1370 1370 1370 1370 1370 1370 1370 1370 1370 1370 1370 1370 1370 1370 1370 1370 1370 1370 1370 1370 1370 1376 1376 1376 1376 1376 1376 1376 1376 1376 1376 1370 1370 1370 1370 1370 1370 1370 1376 1376 1376 1376 1376 1381 1381 1381 1381 1381 1381 1387 1387 1387 1387 1387 1387 1387 1387 1387 1387 1387 1387 1392 1392 1392 1392 1392 1392 1392 1387 1387 1387 1381 1381 1376 1376 1376 1376 1376 1376 1381 1381 1381 1376 1365 1365 1959 1981 1981 1981 1981 1981 1981 1981 1970 1970 2333 2333 2333 2333 2333 2333 2333 2701 2701 2701 2701 2701 2701 2701 2701 2701 2701 2680 2680 2680 2680 2680 2680 2680 2680 2680 2680 2680 2680 2680 2680 2680 2680 2680 2659 2659 2659 2659 2659 2659 2680 2659 2659 2680 0 1557 1557 1557 1557 1557 1557 1557 1557 1557 1557 1557 1557 1557 1564 1564 1564 1564 1564 1564 1564 1564 1564 1564 1564 1564 1564 1572 1572 1572 2618 2618 2639 2639 2639 2639 2659 2659 2659 2659 2659 2659 2680 2659 2659 2659 2659 2659 2659 2680 2680 2680 2680 2680 2680 2680 2659 2659 2680 2680 2659 2639 2639 2659 2639 2639 2639 2639 2639 2639 2639 2639 2639 2639 2639 2639 2639 2639 2659 2659 2659 2659 2659 2659 2659 2659 2659 2659 2659 2659 2659 2639 2639 2639 2639 2639 2659 2639 2639 2659 2659 2659 2659 2639 2639 2639 2639 2639 2659 2659 2659 2659 2659 2659 2659 2659 2659 2659 2659 2659 2680 2680 2680 2680 2680 2680 2680 2680 2680 2680 2680 2680 2680 2680 2659 2659 2659 2659 2659 2659 2659 2659 2659 2659 2659 2659 2659 2680 2639 2639 2639 2639 2639 2639 2639 2639 2659 2639 2639 2659 2639 2639 2639 2639 2639 2618 2618 2639 2639 2639 2618 2618 2618 2618 2618 2618 2618 2618 2639 2639 2618 2618 2618 2618 2618 2618 2618 2618 2639 2639 0 0 0 0 0 0 0 0 0 0
0 0 0 0 0 0 0 0 0 0 0 0 0 0 0 0 0 0 0 0 0 0 0 0 0 0 0 0 0 0 0 0 0 2485 2485 2485 2485 2485 2485 2485 2485 2503 2503 2503 2503 2503 2485 2485 2485 2485 2467 1452 1452 1452 1458 1458 1458 1458 1458 1458 1458 1458 1458 1464 1464 1464 1470 1359 1359 1359 1359 1359 1359 1359 1359 1365 1365 1370 1370 1376 1376 1381 1381 1381 1387 1387 1387 1387 1381 1381 1381 1381 1381 1381 1381 1381 1381 1381 1387 1387 1387 1387 1387 1387 1387 1387 1387 1387 1387 1387 1387 1387 1387 1387 1387 1387 1387 1387 1387 1387 1387 1387 1387 1387 1387 1392 1392 1392 1392 1392 1398 1398 1392 1392 1392 1398 1398 1398 1398 1398 1398 1398 1404 1404 1404 1404 1404 1404 1404 1404 1404 1404 1404 1404 1404 1404 1404 1404 1404 1404 1404 1404 1404 1404 1404 1404 1404 1404 1404 1404 1404 1410 1410 1410 1410 1415 1415 1415 1421 1421 1421 1421 1421 1421 1415 1415 1415 1415 1415 1410 1410 1410 1410 1410 1410 1410 1415 1415 1415 1415 1421 1705 1713 1713 1713 1713 1713 1722 1722 1722 1722 1722 1722 1722 1713 1713 1722 1722 1722 1731 1739 1853 1853 1853 1863 1863 1863 2365 2365 2365 2365 2365 2365 2365 1926 1926 1936 1936 1936 1947 1947 1936 1936 1926 1926 0 0 0 0 0 0 0 0 1349 1349 1349 1349 1349 1354 1354 1354 1354 1354 1354 1354 1354 1359 1370 1370 1370 1376 1376 1376 1376 1376 1376 1376 1370 1370 1370 1370 1370 1370 1370 1370 1370 1370 1370 1370 1370 1370 1370 1370 1370 1370 1370 1370 1370 1370 1370 1370 1370 1370 1370 1370 1370 1370 1370 1370 1370 1370 1370 1370 1370 1370 1370 1370 1370 1370 1370 1370 1370 1376 1376 1376 1376 1376 1376 1376 1376 1376 1376 1370 1370 1370 1370 1370 1370 1376 1376 1376 1376 1376 1376 1381 1381 1381 1381 1381 1381 1387 1387 1387 1387 1387 1387 1387 1387 1387 1387 1387 1387 1392 1392 1392 1392 1392 1392 1392 1387 1387 1387 1381 1381 1381 1381 1381 1381 1381 1381 1381 1381 1381 1381 1365 1365 1959 1993 1993 1993 1993 1981 1981 1981 1970 1970 2333 2333 2333 2333 2333 2333 2333 2701 2701 2701 2680 2680 2680 2680 2680 2680 2680 2680 2680 2659 2659 2680 2659 2659 2659 2659 2659 2659 2680 2659 2659 2659 2659 2659 2659 2659 2659 2659 2659 2659 2659 2659 2659 2659 0 1557 1557 1557 1557 1557 1557 1557 1557 1557 1557 1557 1557 1564 1564 1564 1564 1564 1564 1564 1564 1572 1564 1564 1564 1564 1564 1572 1572 1572 2618 2618 2639 2639 2639 2639 2639 2659 2659 2659 2659 2659 2659 2659 2639 2639 2659 2659 2659 2659 2659 2659 2659 2659 2680 2659 2659 2659 2659 2659 2659 2639 2639 2639 2639 2639 2639 2639 2639 2639 2618 2618 2618 2618 2618 2639 2639 2639 2639 2639 2659 2659 2659 2659 2659 2639 2639 2639 2639 2639 2639 2639 2639 2639 2639 2639 2639 2639 2639 2659 2659 2659 2639 2618 2618 2639 2639 2639 2659 2659 2659 2659 2659 2659 2659 2639 2639 2659 2639 2639 2639 2639 2639 2639 2659 2659 2659 2659 2659 2659 2659 2659 2659 2659 2659 2659 2659 2659 2659 2659 2659 2659 2659 2659 2659 2659 2659 2659 2639 2639 2639 2639 2639 2639 2639 2639 2639 2639 2639 2639 2639 2639 2618 2618 2618 2618 2618 2618 2618 2618 2598 2598 2598 2598 2618 2618 2618 2618 2618 2618 2598 2598 2598 2598 2598 2598 2598 2598 2618 2618 0 0 0 0 0 0 0 0 0 0
0 0 0 0 0 0 0 0 0 0 0 0 0 0 0 0 0 0 0 0 0 0 0 0 0 0 0 0 0 0 0 0 0 2467 2467 2467 2467 2485 2485 2485 2485 2503 2503 2503 2503 2485 2485 2485 2467 2467 2467 1452 1452 1452 1458 1458 1458 1458 1458 1458 1458 1458 1458 1464 1464 1470 1477 1477 1359 1359 1359 1359 1359 1365 1365 1365 1365 1370 1376 1376 1376 1381 1381 1387 1387 1387 1387 1387 1381 1381 1381 1381 1381 1381 1381 1381 1381 1381 1387 1387 1387 1387 1387 1387 1387 1387 1387 1387 1387 1387 1387 1387 1387 1387 1387 1387 1387 1387 1387 1387 1387 1387 1387 1387 1387 1398 1398 1398 1398 1398 1398 1398 1398 1398 1398 1398 1398 1398 1404 1398 1398 1398 1404 1404 1404 1404 1404 1404 1404 1404 1404 1410 1404 1404 1410 1410 1410 1404 1404 1404 1404 1404 1404 1404 1404 1404 1410 1410 1415 1410 1410 1415 1415 1415 1415 1415 1415 1421 1421 1421 1421 1421 1421 1421 1421 1415 1415 1415 1415 1415 1410 1410 1410 1410 1410 1410 1415 1415 1415 1415 1421 1680 1696 1696 1705 1705 1705 1713 1713 1713 1713 1713 1713 1713 1713 1713 1713 1713 1722 1722 1731 1853 1853 1853 1863 1863 1863 1863 2365 2365 2365 2365 2365 2365 1926 1926 1936 1936 1936 1947 1947 1936 1936 1926 1926 1926 0 0 0 0 0 0 0 1349 1349 1349 1349 1349 1354 1354 1354 1354 1354 1354 1354 1359 1365 1370 1370 1370 1376 1376 1376 1376 1376 1376 1376 1370 1370 1370 1370 1370 1370 1370 1370 1370 1370 1370 1370 1370 1370 1370 1370 1370 1370 1370 1370 1370 1370 1370 1370 1370 1370 1370 1370 1370 1370 1370 1370 1370 1370 1370 1370 1370 1370 1370 1370 1370 1370 1376 1376 1376 1376 1376 1376 1376 1376 1376 1376 1376 1376 1376 1370 1370 1370 1370 1370 1370 1376 1376 1376 1376 1376 1376 1381 1381 1381 1381 1381 1381 1387 1387 1387 1387 1387 1387 1387 1387 1387 1387 1387 1387 1392 1392 1392 1392 1392 1392 1392 1387 1387 1387 1387 1381 1381 1381 1381 1381 1381 1381 1381 1381 1387 1381 1376 1376 1993 1993 1993 1993 1993 1981 1981 1981 1981 2333 2333 2333 2333 2333 2333 2333 2333 2701 2680 2680 2659 2659 2659 2659 2659 2659 2680 2659 2659 2659 2659 2659 2659 2659 2659 2659 2659 2659 2659 2659 2659 2639 2639 2639 2639 2639 2639 2639 2639 2659 2659 2659 2659 2659 0 1557 1557 1557 1557 1557 1557 1557 1557 1557 1564 1564 1564 1564 1564 1564 1564 1564 1564 1564 1564 1572 1564 1564 1564 1564 1564 1579 1579 2598 2598 2618 2618 2618 2639 2639 2639 2639 2639 2639 2639 2639 2639 2639 2639 2639 2639 2639 2639 2639 2639 2639 2639 2659 2659 2659 2639 2639 2659 2639 2639 2618 2618 2618 2618 2618 2618 2618 2618 2618 2618 2618 2618 2618 2618 2618 2618 2618 2639 2639 2639 2639 2639 2639 2639 2618 2618 2618 2618 2618 2618 2618 2618 2618 2618 2618 2639 2639 2639 2639 2639 2639 2639 2618 2618 2618 2618 2639 2639 2639 2639 2639 2639 2639 2639 2618 2618 2639 2639 2618 2618 2618 2618 2618 2639 2639 2639 2659 2659 2659 2659 2659 2659 2659 2659 2659 2639 2639 2639 2639 2639 2639 2639 2639 2639 2639 2639 2639 2618 2618 2618 2618 2618 2639 2639 2639 2639 2639 2639 2618 2618 2618 2618 2598 2598 2598 2598 2598 2598 2579 2579 2579 2598 2598 2598 2598 2618 2618 2618 2598 2598 2598 2598 2598 2598 2598 2598 2598 2598 2598 0 0 0 0 0 0 0 0 0 0
0 0 0 0 0 0 0 0 0 0 0 0 0 0 0 0 0 0 0 0 0 0 0 0 0 0 0 0 0 0 0 0 0 2467 2467 2467 2467 2467 2467 2485 2485 2485 2485 2485 2485 2485 2485 2467 2467 2467 2467 2450 1458 1458 1458 1458 1458 1458 1458 1458 1458 1458 1464 1464 1464 1470 1470 1477 1359 1359 1359 1359 1359 1365 1365 1365 1365 1370 1376 1376 1381 1381 1387 1387 1387 1387 1387 1387 1387 1387 1387 1381 1381 1381 1381 1387 1387 1387 1387 1387 1387 1387 1387 1387 1387 1387 1387 1387 1387 1387 1392 1392 1387 1387 1387 1387 1387 1387 1387 1387 1387 1387 1392 1392 1392 1398 1404 1398 1398 1398 1404 1404 1398 1398 1398 1404 1404 1404 1404 1404 1404 1404 1404 1404 1404 1404 1410 1410 1410 1410 1410 1410 1410 1410 1410 1410 1410 1404 1404 1404 1404 1404 1404 1404 1410 1410 1410 1410 1415 1410 1410 1415 1415 1415 1415 1421 1421 1421 1421 1421 1421 1421 1421 1421 1421 1421 1415 1415 1415 1415 1415 1415 1415 1415 1415 1415 1421 1421 1421 1421 1421 1680 1696 1696 1696 1696 1705 1705 1705 1713 1713 1713 1713 1713 1713 1713 1713 1713 1713 1713 1713 1863 1863 1863 1863 1863 1863 1863 2381 2365 2365 2365 2365 2365 1926 1926 1936 1936 1947 1947 1947 1936 1936 1926 1926 1926 0 0 0 0 0 0 0 1354 1354 1354 1354 1354 1354 1354 1354 1354 1354 1354 1354 1365 1365 1370 1370 1370 1376 1376 1376 1376 1376 1376 1376 1376 1376 1376 1370 1370 1370 1370 1370 1370 1370 1370 1370 1376 1376 1370 1370 1370 1370 1370 1370 1370 1370 1370 1370 1370 1370 1370 1370 1370 1376 1376 1376 1376 1376 1376 1376 1370 1370 1370 1370 1370 1376 1376 1376 1376 1376 1376 1376 1376 1376 1376 1376 1376 1376 1376 1370 1370 1370 1370 1370 1370 1376 1376 1381 1381 1381 1381 1387 1381 1381 1381 1387 1387 1387 1387 1387 1387 1387 1387 1387 1387 1387 1387 1387 1387 1392 1392 1392 1392 1392 1392 1392 1387 1387 1387 1387 1381 1381 1387 1387 1387 1387 1381 1381 1387 1387 1387 1381 1381 1981 1993 1993 1993 1993 1993 1993 1993 2349 2349 2349 2349 2349 2333 2333 2333 2333 2659 2659 2659 2659 2659 2659 2659 2659 2659 2659 2639 2639 2639 2639 2639 2639 2639 2639 2639 2639 2639 2639 2639 2639 2639 2639 2639 2639 2639 2639 2639 2639 2639 2639 2639 2639 2639 0 1550 1550 1557 1557 1557 1557 1557 1557 1557 1564 1564 1564 1564 1564 1564 1564 1564 1564 1564 1564 1572 1572 1572 1572 1572 1572 1579 1579 2598 2598 2618 2618 2618 2618 2618 2639 2639 2618 2618 2618 2618 2639 2618 2618 2618 2618 2618 2639 2639 2618 2618 2639 2639 2639 2639 2639 2639 2639 2618 2618 2598 2598 2598 2598 2598 2598 2598 2618 2598 2598 2598 2598 2598 2598 2598 2598 2618 2618 2618 2639 2618 2618 2618 2618 2598 2598 2598 2598 2598 2618 2618 2618 2618 2618 2618 2618 2618 2618 2618 2618 2618 2618 2598 2598 2618 2618 2618 2618 2618 2618 2639 2639 2618 2618 2618 2618 2618 2618 2618 2598 2598 2598 2598 2618 2618 2618 2639 2639 2639 2639 2639 2639 2639 2639 2639 2639 2639 2639 2639 2618 2618 2639 2639 2618 2618 2618 2618 2618 2598 2598 2598 2598 2618 2618 2618 2618 2618 2598 2598 2598 2598 2598 2579 2579 2579 2579 2598 2598 2579 2579 2579 2579 2598 2598 2598 2598 2598 2598 2598 2598 2598 2579 2579 2579 2579 2579 2579 2598 2598 0 0 0 0 0 0 0 0 0 0
0 0 0 0 0 0 0 0 0 0 0 0 0 0 0 0 0 0 0 0 0 0 0 0 0 0 0 0 0 0 0 0 0 2467 2467 2467 2467 2467 2467 2485 2485 2485 2485 2485 2485 2485 2467 2467 2467 2450 2450 2450 1464 1464 1464 1458 1458 1458 1458 1464 1464 1464 1464 1464 1464 1470 1470 1477 1365 1365 1359 1359 1365 1365 1365 1365 1365 1370 1376 1381 1381 1381 1387 1387 1387 1387 1387 1387 1387 1387 1387 1387 1387 1387 1387 1387 1387 1387 1387 1387 1387 1387 1387 1387 1387 1387 1387 1387 1387 1387 1392 1392 1392 1392 1392 1392 1392 1387 1387 1387 1392 1392 1392 1392 1398 1404 1404 1404 1404 1404 1404 1404 1404 1404 1404 1404 1404 1404 1404 1404 1404 1404 1404 1404 1404 1410 1410 1410 1410 1410 1410 1410 1410 1410 1410 1410 1410 1404 1404 1404 1404 1410 1410 1410 1410 1410 1415 1415 1415 1415 1415 1415 1415 1415 1415 1421 1421 1421 1421 1427 1427 1427 1427 1421 1421 1421 1415 1415 1415 1415 1415 1415 1415 1421 1421 1421 1421 1421 1427 1421 1421 1680 1696 1696 1696 1696 1696 1705 1705 1705 1705 1705 1705 1705 1705 1705 1705 1705 1713 1713 1713 1863 1863 1863 1863 1863 1863 1863 2365 2365 2349 2349 2365 2365 1926 1926 1936 1936 1947 1947 1947 1936 1936 1936 1926 1926 0 0 0 0 0 0 0 0 1354 1354 1354 1354 1354 1354 1354 1354 1359 1359 1359 1365 1370 1370 1376 1376 1376 1376 1376 1376 1376 1376 1376 1376 1376 1376 1376 1376 1370 1370 1376 1376 1376 1376 1376 1376 1376 1370 1370 1370 1370 1370 1370 1370 1370 1370 1370 1370 1370 1370 1376 1376 1376 1376 1376 1376 1376 1376 1376 1376 1376 1376 1376 1376 1376 1376 1376 1376 1376 1376 1376 1376 1376 1376 1376 1376 1376 1376 1370 1370 1370 1370 1376 1376 1376 1381 1381 1381 1381 1387 1387 1387 1387 1387 1387 1387 1387 1387 1387 1387 1387 1387 1387 1392 1392 1392 1387 1387 1392 1392 1398 1398 1392 1392 1392 1392 1387 1387 1387 1387 1387 1387 1387 1387 1387 1387 1387 1387 1392 1392 1392 1981 1981 1993 1993 1993 1993 1993 1993 1993 2349 2349 2349 2349 2349 2349 2349 2333 2333 2659 2659 2659 2639 2639 2639 2639 2639 2639 2659 2639 2639 2639 2639 2639 2618 2618 2618 2618 2618 2618 2618 2618 2618 2618 2618 2618 2618 2618 2639 2618 2618 2639 2639 2639 2639 0 1550 1550 1550 1557 1557 1557 1557 1557 1557 1557 1564 1564 1564 1564 1564 1564 1564 1564 1572 1564 1564 1572 1572 1572 1572 1572 1579 1579 1579 1586 2598 2618 2618 2618 2618 2618 2618 2618 2618 2618 2618 2618 2618 2618 2618 2618 2618 2618 2618 2618 2618 2618 2618 2639 2639 2639 2618 2618 2618 2618 2618 2598 2598 2598 2598 2598 2598 2598 2598 2598 2598 2598 2598 2598 2598 2598 2598 2598 2618 2618 2618 2618 2598 2598 2598 2598 2598 2598 2598 2598 2598 2598 2598 2598 2598 2618 2618 2618 2618 2618 2618 2618 2618 2598 2598 2598 2598 2598 2618 2618 2618 2618 2618 2618 2618 2598 2598 2598 2598 2598 2598 2598 2598 2598 2598 2598 2618 2618 2618 2618 2618 2618 2618 2618 2618 2618 2618 2618 2618 2618 2618 2618 2618 2618 2598 2598 2598 2598 2598 2579 2579 2579 2579 2598 2598 2598 2598 2598 2598 2579 2579 2598 2579 2579 2579 2579 2579 2579 2579 2560 2560 2560 2560 2560 2560 2560 2579 2579 2579 2579 2579 2579 2579 2579 2579 2579 2579 2579 2579 2579 0 0 0 0 0 0 0 0 0 0
0 0 0 0 0 0 0 0 0 0 0 0 0 0 0 0 0 0 0 0 0 0 0 0 0 0 0 0 0 0 0 0 0 2467 2467 2467 2467 2467 2467 2467 2467 2467 2485 2467 2467 2467 2467 2467 2467 2450 2450 0 2450 1464 1464 1464 1464 1464 1464 1464 1464 1464 1464 1464 1464 1470 1477 1477 1365 1365 1365 1365 1365 1365 1365 1365 1370 1376 1381 1381 1381 1381 1387 1387 1387 1387 1387 1387 1387 1387 1387 1387 1387 1387 1387 1387 1387 1387 1387 1387 1387 1387 1387 1387 1387 1387 1387 1387 1392 1392 1392 1392 1392 1392 1392 1392 1392 1392 1392 1392 1392 1398 1398 1398 1404 1404 1404 1404 1404 1404 1404 1404 1404 1404 1404 1404 1404 1404 1404 1404 1404 1404 1404 1410 1410 1410 1410 1410 1410 1410 1410 1410 1410 1410 1410 1410 1410 1410 1410 1410 1410 1410 1415 1415 1415 1415 1415 1415 1421 1415 1415 1421 1421 1421 1421 1421 1421 1421 1427 1427 1427 1427 1427 1421 1421 1421 1421 1415 1415 1415 1415 1415 1415 1421 1421 1421 1421 1427 1427 1427 1427 1688 1688 1688 1688 1688 1688 1696 1696 1696 1696 1696 1696 1696 1696 1705 1705 1705 1705 1713 1863 1863 1863 1873 1873 1873 1873 1894 2365 2365 2349 2349 2349 2349 1926 1926 1936 1936 1947 1947 1947 1947 1947 1936 1936 1936 0 0 0 0 0 0 0 0 1359 1359 1359 1359 1359 1359 1359 1359 1359 1359 1365 1370 1370 1370 1376 1376 1376 1376 1376 1376 1376 1376 1376 1376 1376 1376 1376 1376 1376 1376 1376 1376 1376 1376 1376 1376 1376 1376 1370 1370 1370 1376 1370 1370 1370 1370 1370 1370 1370 1370 1376 1376 1376 1376 1376 1376 1376 1376 1376 1376 1376 1376 1376 1376 1376 1376 1376 1381 1381 1381 1381 1381 1376 1376 1376 1376 1376 1376 1370 1370 1370 1376 1376 1376 1376 1381 1381 1381 1387 1387 1387 1387 1387 1387 1387 1387 1387 1387 1387 1387 1392 1392 1392 1392 1392 1392 1392 1392 1392 1392 1398 1398 1398 1398 1398 1392 1387 1387 1387 1387 1387 1387 1387 1387 1387 1387 1387 1392 1392 1392 1398 1398 1981 1993 1993 1993 1993 2005 1993 1993 2365 2349 2349 2349 2349 2349 2349 2349 2349 2659 2659 2639 2639 2639 2639 2639 2639 2639 2639 2618 2618 2618 2618 2618 2618 2618 2618 2618 2618 2618 2618 2618 2618 2618 2618 2618 2618 2618 2618 2618 2618 2639 2639 2639 2639 0 1557 1557 1557 1557 1557 1557 1557 1557 1557 1557 1564 1564 1564 1564 1564 1564 1564 1564 1572 1572 1572 1572 1572 1572 1579 1579 1579 1586 1586 1586 2598 2618 2618 2618 2618 2618 2618 2618 2618 2618 2618 2618 2618 2618 2618 2618 2618 2618 2618 2618 2618 2618 2618 2618 2618 2618 2618 2618 2618 2618 2618 2598 2598 2598 2598 2598 2598 2598 2598 2598 2598 2598 2598 2598 2598 2598 2598 2598 2598 2598 2598 2598 2598 2598 2598 2598 2598 2598 2598 2598 2598 2598 2598 2598 2598 2598 2618 2598 2598 2618 2598 2598 2598 2598 2598 2598 2598 2598 2598 2598 2598 2618 2598 2598 2598 2598 2598 2598 2598 2598 2598 2598 2598 2598 2598 2598 2598 2598 2598 2598 2618 2618 2618 2598 2598 2598 2598 2618 2618 2618 2618 2618 2618 2618 2598 2598 2598 2598 2579 2579 2579 2579 2579 2579 2579 2579 2579 2579 2579 2579 2579 2579 2579 2579 2579 2579 2579 2579 2579 2560 2560 2560 2560 2560 2560 2560 2560 2560 2560 2579 2579 2579 2579 2560 2560 2560 2560 2560 2560 2560 0 0 0 0 0 0 0 0 0 0
0 0 0 0 0 0 0 0 0 0 0 0 0 0 0 0 0 0 0 0 0 0 0 0 0 0 0 0 0 0 0 0 0 2450 2450 2450 2450 2450 2467 2467 2467 2467 2467 2467 2467 2467 2467 2467 2467 2467 2467 2467 0 1464 1464 1464 1464 1464 1464 1464 1464 1464 1464 1464 1470 1470 1470 1470 1365 1365 1365 1365 1365 1370 1370 1370 1370 1376 1381 1381 1381 1381 1387 1387 1387 1387 1387 1387 1387 1387 1392 1387 1387 1392 1392 1392 1392 1392 1392 1392 1392 1387 1387 1392 1392 1392 1392 1392 1392 1392 1398 1398 1398 1398 1398 1398 1398 1392 1392 1398 1398 1398 1404 1404 1404 1404 1404 1404 1404 1404 1404 1404 1404 1404 1404 1404 1404 1404 1404 1404 1404 1404 1410 1410 1410 1410 1410 1410 1410 1410 1415 1410 1410 1410 1410 1415 1415 1410 1410 1410 1410 1410 1415 1415 1415 1415 1421 1421 1421 1421 1421 1421 1421 1421 1421 1421 1421 1421 1427 1427 1427 1427 1427 1421 1421 1421 1421 1421 1421 1421 1421 1421 1421 1421 1421 1421 1427 1427 1433 1439 1439 1445 1688 1688 1680 1680 1688 1688 1688 1688 1688 1688 1696 1696 1696 1696 1705 1705 1705 1705 1863 1863 1863 1873 1873 1873 1873 1894 1904 2365 2349 2349 2349 2349 1936 1936 1936 1936 1947 1947 1947 1947 1947 1947 1947 1947 0 0 0 0 0 0 0 1370 1365 1365 1359 1359 1359 1365 1365 1365 1365 1370 1370 1370 1370 1376 1376 1376 1376 1376 1376 1376 1376 1376 1376 1376 1376 1376 1376 1376 1376 1376 1376 1376 1376 1376 1376 1376 1376 1376 1376 1376 1376 1376 1376 1370 1370 1370 1370 1370 1376 1376 1376 1376 1376 1376 1376 1376 1376 1376 1376 1376 1376 1376 1376 1376 1376 1381 1381 1381 1381 1381 1381 1381 1381 1381 1381 1381 1381 1376 1370 1370 1376 1376 1376 1376 1376 1381 1381 1381 1387 1387 1387 1387 1387 1387 1387 1387 1387 1387 1387 1387 1392 1392 1392 1392 1392 1392 1392 1392 1392 1392 1398 1398 1398 1398 1398 1392 1392 1392 1392 1387 1387 1387 1387 1387 1392 1392 1392 1392 1392 1392 1398 1392 1392 1993 1993 1993 1993 2005 1993 1993 2365 2349 2349 2349 2349 2349 2349 2349 2349 2639 2639 2639 2618 2618 2618 2618 2639 2639 2639 2618 2618 2618 2618 2618 2618 2618 2618 2618 2618 2618 2618 2618 2618 2618 2618 2618 2618 2618 2618 2618 2618 2618 2618 2618 2618 0 1557 1557 1557 1557 1557 1557 1557 1557 1557 1557 1564 1564 1564 1564 1564 1564 1572 1572 1572 1572 1572 1579 1579 1579 1579 1579 1579 1586 1586 1586 2598 2598 2598 2598 2598 2618 2618 2598 2598 2598 2598 2598 2598 2598 2598 2598 2598 2598 2598 2598 2618 2618 2618 2618 2618 2618 2618 2618 2618 2618 2618 2598 2598 2598 2598 2598 2598 2598 2598 2598 2598 2598 2598 2598 2598 2598 2598 2598 2598 2598 2579 2579 2579 2579 2598 2598 2579 2579 2598 2598 2598 2598 2598 2598 2598 2598 2598 2598 2598 2598 2598 2598 2598 2598 2598 2598 2598 2598 2598 2598 2598 2598 2598 2598 2598 2598 2598 2598 2598 2598 2598 2598 2598 2598 2598 2598 2598 2598 2598 2598 2598 2598 2598 2598 2598 2598 2598 2598 2598 2598 2598 2598 2598 2598 2579 2579 2579 2579 2579 2560 2560 2560 2560 2579 2579 2579 2579 2579 2579 2579 2579 2579 2560 2560 2560 2560 2560 2560 2560 2560 2560 2560 2541 2541 2560 2560 2560 2560 2560 2560 2560 2579 2579 2560 2560 2560 2560 2560 2560 2560 0 0 0 0 0 0 0 0 0 0
0 0 0 0 0 0 0 0 0 0 0 0 0 0 0 0 0 0 0 0 0 0 0 0 0 0 0 0 0 0 0 0 0 2432 2432 2432 2450 2450 2450 2467 2467 2467 2467 2467 2467 2467 2467 2467 2467 2467 2467 2467 0 1464 1464 1464 1464 1464 1464 1464 1464 1464 1464 1470 1470 1470 1470 1470 1365 1365 1365 1365 1370 1370 1370 1370 1376 1381 1381 1381 1381 1381 1387 1387 1387 1392 1387 1387 1387 1387 1392 1392 1392 1392 1392 1392 1392 1392 1392 1392 1392 1387 1387 1392 1392 1392 1392 1392 1398 1398 1398 1398 1398 1398 1398 1398 1398 1398 1398 1398 1398 1404 1404 1404 1404 1404 1404 1404 1404 1404 1404 1404 1404 1404 1404 1404 1404 1404 1410 1410 1410 1410 1410 1410 1410 1410 1410 1410 1410 1410 1415 1415 1410 1410 1415 1415 1415 1410 1410 1410 1410 1415 1415 1415 1421 1421 1421 1421 1421 1421 1421 1421 1421 1421 1421 1421 1427 1427 1427 1427 1427 1427 1427 1663 1421 1421 1421 1421 1421 1421 1421 1421 1421 1421 1421 1421 1427 1433 1439 1439 1439 1445 1680 1680 1680 1680 1680 1680 1680 1680 1688 1688 1688 1688 1696 1696 1696 1696 1705 1705 1863 1863 1863 1873 1873 1873 1883 1904 1904 2365 2365 2365 2365 2365 1936 1936 1936 1947 1947 1947 1959 1947 1947 1947 1947 1947 0 0 0 0 0 0 0 1370 1365 1365 1365 1365 1365 1365 1365 1365 1365 1370 1370 1370 1370 1376 1376 1376 1376 1381 1376 1376 1376 1376 1376 1376 1376 1376 1376 1376 1376 1376 1376 1376 1376 1376 1376 1376 1376 1376 1376 1376 1376 1376 1376 1376 1376 1376 1376 1376 1376 1376 1381 1381 1381 1376 1376 1381 1381 1381 1376 1376 1381 1381 1381 1381 1381 1381 1381 1381 1387 1381 1381 1381 1381 1381 1381 1381 1381 1381 1376 1376 1376 1376 1376 1376 1381 1381 1381 1387 1387 1387 1387 1387 1387 1387 1387 1387 1392 1392 1392 1392 1392 1392 1392 1392 1392 1398 1392 1392 1398 1398 1398 1398 1404 1404 1398 1398 1392 1392 1392 1387 1387 1387 1387 1392 1392 1392 1392 1392 1392 1398 1392 1392 1392 1993 1993 1993 1993 2005 2005 2005 2365 2365 2349 2349 2349 2349 2349 2349 2349 2639 2639 2618 2618 2618 2618 2618 2618 2618 2639 2618 2618 2618 2618 2618 2618 2618 2618 2618 2618 2618 2618 2618 2618 2618 2618 2618 2618 2618 2618 2598 2598 2598 2598 2618 2618 0 1564 1564 1564 1564 1564 1564 1564 1564 1564 1564 1564 1564 1564 1564 1564 1572 1572 1572 1579 1579 1579 1579 1579 1579 1579 1579 1579 1586 1586 2598 2598 2598 2598 2598 2598 2598 2598 2598 2598 2598 2598 2598 2598 2598 2598 2598 2598 2598 2598 2598 2598 2598 2598 2598 2598 2598 2598 2598 2598 2598 2598 2579 2579 2579 2579 2579 2579 2579 2579 2579 2579 2579 2598 2598 2598 2598 2579 2579 2579 2579 2579 2579 2579 2579 2579 2579 2579 2579 2579 2579 2598 2579 2579 2579 2579 2579 2579 2579 2579 2579 2598 2598 2598 2579 2579 2579 2598 2598 2598 2598 2598 2598 2598 2598 2598 2579 2579 2579 2579 2579 2579 2579 2579 2579 2579 2598 2598 2598 2598 2598 2598 2598 2598 2598 2598 2598 2598 2598 2598 2598 2598 2598 2598 2598 2579 2579 2579 2579 2560 2560 2560 2560 2560 2560 2560 2579 2579 2579 2579 2579 2560 2560 2560 2560 2560 2560 2560 2560 2560 2560 2560 2560 2541 2541 2541 2541 2560 2560 2560 2560 2560 2560 2560 2560 2560 2560 2560 2560 2560 2560 0 0 0 0 0 0 0 0 0 0
0 0 0 0 0 0 0 0 0 0 0 0 0 0 0 0 0 0 0 0 0 0 0 0 0 0 0 0 0 0 0 0 0 2432 2432 2432 2432 2432 2432 2450 2450 2450 2450 2450 2450 2450 2450 2450 2467 2467 2467 2467 0 1464 1464 1464 1464 1464 1464 1464 1464 1464 1464 1470 1470 1470 1470 1470 1370 1370 1365 1365 1370 1376 1376 1376 1381 1381 1381 1381 1387 1387 1387 1387 1387 1392 1392 1392 1392 1392 1392 1392 1392 1392 1398 1398 1392 1392 1392 1392 1398 1392 1392 1398 1398 1398 1398 1398 1398 1404 1404 1398 1398 1398 1398 1398 1398 1398 1398 1404 1404 1404 1404 1404 1404 1404 1404 1404 1404 1404 1404 1404 1410 1410 1410 1410 1410 1410 1410 1410 1410 1410 1410 1410 1415 1415 1415 1415 1415 1415 1415 1415 1415 1415 1415 1415 1415 1410 1410 1415 1415 1415 1421 1421 1421 1421 1421 1421 1421 1421 1421 1421 1421 1421 1421 1421 1427 1427 1427 1427 1663 1663 1663 1663 1663 1421 1421 1421 1421 1421 1421 1421 1421 1421 1421 1427 1427 1433 1439 1439 1439 1445 1671 1671 1680 1680 1680 1680 1680 1680 1680 1680 1688 1688 1688 1696 1696 1696 1705 1705 1873 1873 1873 1873 1883 1883 1894 1904 1904 2365 2349 2349 2349 2349 1936 1936 1936 1947 1947 1947 1959 1947 1947 1947 1947 1947 1959 0 0 0 0 0 0 0 1365 1365 1365 1365 1365 1370 1370 1370 1370 1370 1370 1370 1370 1376 1376 1376 1381 1381 1381 1381 1376 1376 1376 1381 1376 1376 1376 1376 1381 1381 1376 1376 1376 1381 1381 1381 1381 1376 1376 1376 1376 1376 1376 1376 1376 1376 1376 1376 1376 1376 1381 1381 1381 1381 1381 1381 1381 1381 1381 1381 1381 1387 1381 1381 1381 1387 1387 1387 1387 1387 1387 1387 1387 1387 1387 1387 1387 1387 1381 1381 1381 1381 1381 1381 1387 1387 1387 1387 1387 1387 1392 1392 1392 1392 1392 1392 1392 1392 1392 1392 1392 1392 1392 1398 1398 1398 1398 1398 1404 1404 1404 1404 1404 1404 1404 1398 1398 1392 1392 1392 1392 1392 1392 1392 1392 1392 1392 1392 1398 1398 1392 1392 1993 2005 2005 2005 2005 2005 2005 2005 2365 2349 2349 2349 2349 2349 2349 2349 2349 2618 2618 2618 2618 2618 2618 2618 2618 2618 2618 2598 2598 2598 2598 2598 2618 2598 2598 2598 2598 2598 2598 2598 2598 2598 2598 2598 2598 2598 2598 2598 2598 2598 2598 2598 2598 0 1564 1564 1564 1564 1564 1564 1564 1564 1564 1564 1564 1564 1564 1564 1572 1572 1572 1572 1579 1579 1579 1579 1579 1579 1586 1586 1586 1586 1586 2598 2598 2598 2598 2598 2598 2598 2598 2598 2598 2598 2598 2598 2598 2598 2598 2598 2598 2598 2598 2598 2598 2598 2598 2598 2598 2598 2598 2598 2598 2598 2598 2579 2579 2579 2579 2579 2579 2579 2579 2579 2579 2579 2598 2598 2598 2598 2579 2579 2579 2579 2579 2579 2579 2579 2579 2579 2579 2579 2579 2579 2579 2579 2579 2579 2579 2579 2579 2579 2579 2579 2579 2579 2579 2579 2579 2579 2579 2579 2579 2579 2598 2598 2598 2598 2579 2579 2579 2579 2579 2579 2579 2579 2579 2579 2579 2579 2598 2598 2598 2598 2598 2598 2598 2579 2579 2579 2579 2579 2579 2579 2579 2579 2579 2579 2579 2579 2579 2579 2560 2560 2560 2560 2560 2560 2560 2560 2560 2560 2560 2560 2560 2560 2541 2541 2541 2541 2541 2541 2541 2541 2541 2541 2522 2522 2541 2541 2541 2541 2541 2541 2560 2560 2560 2560 2560 2560 2560 2541 2541 2541 0 0 0 0 0 0 0 0 0 0
0 0 0 0 0 0 0 0 0 0 0 0 0 0 0 0 0 0 0 0 0 0 0 0 0 0 0 0 0 0 0 0 0 2415 2415 2415 2432 2432 2432 2432 2432 2450 2432 2432 2432 2432 2432 2450 2450 2450 2450 2450 0 1464 1464 1464 1464 1464 1464 1464 1464 1464 1470 1470 1470 1470 1470 1470 1477 1376 1370 1370 1376 1376 1376 1376 1381 1381 1381 1387 1387 1387 1387 1387 1387 1392 1392 1392 1392 1392 1398 1398 1398 1398 1398 1398 1392 1392 1392 1392 1398 1392 1392 1398 1398 1398 1398 1398 1398 1404 1404 1404 1404 1404 1404 1404 1404 1404 1404 1404 1404 1404 1404 1404 1404 1404 1404 1404 1410 1404 1404 1404 1410 1410 1410 1410 1410 1410 1410 1410 1410 1410 1410 1415 1415 1415 1415 1415 1415 1415 1421 1415 1415 1415 1415 1415 1415 1410 1410 1415 1415 1421 1421 1421 1421 1421 1421 1421 1415 1415 1421 1421 1421 1421 1421 1421 1427 1427 1427 1663 1663 1663 1663 1655 1655 1655 1421 1421 1421 1421 1421 1421 1421 1427 1427 1427 1433 1433 1439 1445 1445 1445 1445 1671 1671 1671 1671 1680 1680 1680 1680 1680 1680 1680 1688 1688 1688 1688 1696 1696 1873 1873 1883 1883 1883 1883 1894 1915 1915 2365 2349 2349 2349 2349 1936 1936 1936 1947 1947 1947 1959 1947 1947 1947 1959 1959 1959 0 0 0 0 0 0 0 1365 1365 1365 1365 1370 1370 1370 1370 1370 1370 1370 1376 1376 1376 1376 1376 1381 1381 1381 1381 1381 1381 1381 1381 1381 1381 1381 1381 1381 1381 1381 1381 1381 1381 1381 1381 1381 1381 1381 1381 1381 1376 1376 1376 1376 1381 1376 1376 1381 1381 1381 1387 1381 1381 1381 1387 1387 1387 1387 1387 1387 1387 1387 1387 1387 1387 1387 1387 1387 1387 1387 1387 1387 1387 1392 1392 1392 1392 1387 1387 1387 1387 1387 1387 1387 1387 1387 1387 1392 1392 1392 1392 1392 1392 1392 1392 1392 1392 1392 1392 1398 1398 1398 1404 1404 1404 1404 1404 1404 1404 1404 1404 1404 1404 1404 1398 1398 1392 1392 1392 1392 1392 1392 1392 1392 1392 1392 1392 1398 1398 1398 1398 1993 2005 2005 2005 2005 2005 2005 2005 2349 2349 2349 2349 2365 2349 2349 2365 2579 2579 2598 2598 2598 2598 2598 2598 2598 2618 2618 2598 2598 2598 2598 2598 2598 2598 2598 2598 2598 2598 2598 2598 2598 2598 2598 2598 2598 2598 2598 2598 2598 2598 2598 2598 2598 0 1564 1564 1564 1564 1564 1564 1564 1564 1564 1564 1564 1564 1564 1572 1572 1572 1572 1572 1579 1579 1579 1579 1579 1586 1586 1586 1586 1586 1586 2579 2579 2579 2579 2598 2598 2598 2598 2598 2598 2598 2598 2598 2598 2598 2598 2598 2579 2579 2579 2579 2598 2598 2579 2579 2579 2598 2598 2598 2579 2579 2598 2579 2579 2579 2560 2560 2560 2579 2579 2579 2579 2579 2579 2579 2579 2579 2579 2579 2579 2560 2560 2560 2560 2560 2560 2579 2579 2579 2579 2579 2579 2579 2579 2579 2579 2579 2579 2579 2579 2579 2579 2579 2579 2579 2579 2579 2579 2579 2579 2579 2579 2579 2579 2579 2579 2579 2560 2560 2579 2579 2579 2579 2579 2579 2579 2579 2579 2579 2598 2598 2598 2579 2579 2579 2579 2579 2579 2579 2579 2579 2579 2579 2579 2579 2579 2560 2560 2560 2541 2541 2541 2541 2541 2541 2560 2560 2560 2560 2560 2560 2541 2541 2541 2541 2541 2541 2541 2541 2541 2522 2522 2522 2522 2522 2522 2522 2522 2522 2522 2541 2541 2541 2541 2560 2560 2541 2541 2541 2541 2541 0 0 0 0 0 0 0 0 0 0
0 0 0 0 0 0 0 0 0 0 0 0 0 0 0 0 0 0 0 0 0 0 0 0 0 0 0 0 0 0 0 0 0 2415 2415 2415 2432 2432 2432 2432 2432 2432 2415 2415 2415 2432 2432 2432 2432 2450 2450 2450 2450 1464 1464 1464 1464 1464 1464 1464 1470 1470 1470 1470 1470 1470 1470 1470 1470 1470 1370 1370 1376 1376 1376 1376 1381 1381 1381 1387 1387 1387 1387 1387 1392 1392 1392 1398 1398 1410 1404 1404 1404 1404 1404 1404 1398 1398 1398 1398 1398 1392 1392 1398 1398 1404 1404 1404 1404 1404 1404 1404 1404 1404 1404 1404 1404 1404 1404 1404 1404 1404 1404 1404 1404 1404 1404 1410 1410 1410 1410 1410 1410 1410 1410 1410 1410 1410 1415 1415 1415 1415 1415 1415 1415 1421 1421 1421 1421 1421 1421 1421 1421 1421 1421 1421 1421 1410 1410 1415 1421 1421 1421 1421 1421 1421 1421 1639 1415 1415 1421 1421 1421 1647 1647 1647 1655 1655 1655 1655 1655 1655 1655 1655 1647 1647 1421 1421 1421 1421 1421 1421 1427 1427 1427 1433 1433 1439 1439 1439 1445 1445 1445 1671 1671 1671 1671 1671 1671 1671 1671 1671 1671 1671 1680 1680 1680 1680 1688 1688 1873 1873 1883 1883 1894 1894 1904 1915 2365 2365 2349 2349 2365 1936 1936 1936 1936 1947 1947 1947 1959 1947 1947 1947 1959 1959 1970 0 0 0 0 0 0 0 1365 1365 1365 1365 1370 1370 1370 1370 1370 1370 1370 1376 1376 1376 1376 1381 1381 1381 1387 1387 1381 1381 1387 1387 1381 1381 1381 1381 1387 1381 1381 1381 1381 1381 1381 1381 1381 1381 1381 1381 1381 1381 1381 1381 1381 1381 1381 1381 1381 1381 1387 1387 1387 1381 1381 1387 1387 1387 1387 1387 1387 1387 1387 1387 1387 1387 1387 1387 1387 1392 1392 1392 1392 1392 1392 1392 1392 1392 1387 1387 1387 1387 1387 1387 1387 1387 1392 1392 1392 1392 1392 1392 1392 1392 1392 1392 1392 1392 1392 1392 1398 1398 1398 1404 1404 1404 1404 1404 1404 1404 1404 1404 1404 1404 1404 1404 1398 1398 1398 1392 1392 1392 1392 1398 1398 1398 1398 1398 1398 1398 1398 1993 2005 2005 2005 2005 2005 2005 2005 2005 2349 2365 2365 2365 2365 2365 2365 2365 2560 2579 2579 2579 2598 2598 2579 2579 2598 2598 2598 2598 2598 2598 2598 2598 2598 2579 2579 2579 2579 2579 2579 2579 2579 2579 2579 2579 2579 2579 2579 2579 2579 2598 2598 2598 2598 1572 1564 1564 1564 1564 1564 1564 1564 1564 1564 1564 1564 1564 1572 1572 1572 1579 1579 1579 1579 1586 1586 1586 1586 1586 1586 1586 1586 1579 1579 2560 2560 2560 2560 2560 2579 2579 2579 2579 2598 2598 2598 2579 2579 2579 2579 2579 2579 2579 2579 2579 2579 2579 2579 2579 2579 2598 2598 2579 2579 2579 2579 2560 2560 2560 2560 2560 2560 2560 2560 2560 2560 2560 2579 2579 2579 2579 2579 2579 2560 2560 2560 2560 2560 2560 2560 2560 2560 2579 2579 2579 2579 2579 2579 2560 2560 2560 2579 2560 2560 2579 2579 2579 2579 2579 2579 2579 2560 2560 2560 2560 2579 2579 2579 2579 2560 2560 2560 2560 2560 2560 2560 2560 2579 2579 2579 2579 2579 2579 2579 2579 2579 2579 2579 2579 2579 2579 2560 2560 2560 2560 2560 2560 2560 2560 2560 2560 2560 2560 2541 2541 2541 2541 2541 2541 2541 2560 2560 2560 2560 2560 2541 2541 2541 2541 2541 2522 2522 2522 2522 2522 2522 2522 2503 2503 2522 2522 2522 2522 2522 2522 2522 2541 2541 2541 2541 2522 2522 2522 2522 2522 0 0 0 0 0 0 0 0 0 0
0 0 0 0 0 0 0 0 0 0 0 0 0 0 0 0 0 0 0 0 0 0 0 0 0 0 0 0 0 0 0 0 0 2415 2415 2415 2415 2415 2415 2432 2432 2415 2415 2415 2415 2415 2415 2432 2432 2432 2432 2450 2450 1470 1470 1470 1470 1470 1470 1470 1470 1470 1470 1477 1470 1470 1470 1470 1470 1470 1381 1381 1381 1381 1381 1381 1381 1381 1381 1387 1387 1387 1387 1387 1392 1398 1398 1404 1404 1410 1404 1404 1404 1404 1410 1410 1404 1404 1404 1404 1404 1404 1616 1616 1616 1404 1404 1404 1404 1404 1404 1404 1404 1404 1404 1404 1404 1404 1404 1404 1404 1404 1404 1404 1404 1404 1404 1410 1410 1410 1410 1410 1410 1410 1410 1410 1410 1410 1415 1415 1415 1415 1415 1415 1415 1421 1421 1421 1421 1421 1427 1427 1421 1421 1415 1415 1421 1415 1415 1421 1421 1639 1639 1639 1639 1639 1639 1639 1639 1639 1639 1647 1647 1647 1647 1647 1647 1647 1655 1655 1655 1655 1655 1647 1647 1639 1427 1427 1421 1421 1421 1427 1427 1427 1433 1433 1433 1439 1439 1439 1445 1445 1445 1663 1663 1663 1663 1663 1671 1671 1671 1671 1671 1671 1671 1671 1671 1671 1680 1680 1873 1873 1883 1883 1894 1894 1904 1915 1926 1936 1947 2365 2365 1936 1936 1936 1936 1947 1947 1947 1959 1947 1947 1947 1959 1959 1970 0 0 0 0 0 0 0 1370 1370 1370 1370 1370 1370 1370 1370 1370 1370 1376 1376 1376 1376 1376 1381 1381 1381 1387 1387 1387 1387 1387 1387 1387 1387 1387 1387 1387 1387 1387 1387 1387 1387 1387 1387 1387 1381 1381 1381 1381 1381 1381 1381 1381 1387 1381 1381 1387 1387 1387 1387 1387 1387 1387 1387 1387 1387 1387 1387 1387 1387 1387 1387 1387 1392 1392 1392 1392 1392 1392 1392 1392 1392 1392 1392 1392 1392 1387 1387 1387 1387 1387 1387 1387 1387 1392 1392 1392 1392 1392 1392 1392 1398 1398 1398 1398 1398 1398 1398 1404 1404 1404 1404 1410 1410 1410 1410 1410 1410 1404 1404 1404 1404 1404 1404 1398 1398 1398 1398 1398 1398 1398 1398 1398 1398 1398 1398 1398 1398 1398 1993 2005 2005 2005 2005 2005 2005 2005 2005 2349 2365 2365 2365 2365 2365 2365 2365 2560 2560 2560 2579 2579 2579 2560 2560 2579 2579 2579 2579 2579 2579 2579 2579 2579 2579 2579 2579 2579 2579 2560 2560 2560 2560 2560 2560 2560 2560 2560 2579 2579 2579 2579 2598 0 1572 1572 1564 1564 1564 1564 1564 1564 1564 1564 1564 1564 1572 1572 1572 1579 1579 1579 1579 1586 1586 1586 1586 1586 1586 1586 1586 1586 1579 1579 2560 2560 2541 2541 2560 2560 2579 2579 2579 2579 2579 2579 2579 2579 2579 2579 2579 2560 2560 2560 2560 2579 2579 2560 2560 2560 2579 2579 2579 2579 2560 2560 2560 2560 2560 2560 2560 2560 2560 2541 2541 2541 2541 2560 2560 2560 2560 2560 2560 2541 2541 2541 2541 2541 2541 2541 2560 2560 2560 2579 2579 2579 2579 2560 2560 2560 2560 2560 2560 2560 2560 2560 2579 2579 2560 2560 2560 2560 2560 2560 2560 2560 2560 2560 2560 2560 2541 2541 2541 2541 2560 2560 2560 2560 2560 2579 2579 2579 2579 2579 2579 2579 2560 2560 2560 2560 2560 2560 2560 2560 2560 2560 2560 2541 2541 2541 2541 2541 2541 2522 2522 2522 2541 2541 2541 2541 2541 2541 2541 2541 2541 2541 2541 2522 2522 2522 2522 2522 2522 2503 2503 2503 2503 2503 2503 2503 2503 2522 2522 2522 2522 2522 2522 2522 2522 2522 2522 2522 2522 2522 2522 0 0 0 0 0 0 0 0 0 0
0 0 0 0 0 0 0 0 0 0 0 0 0 0 0 0 0 0 0 0 0 0 0 0 0 0 0 0 0 0 0 0 0 2415 2415 2415 2415 2415 2415 2415 2415 2415 2415 2415 2415 2415 2415 2415 2432 2432 2432 2432 2432 2415 1464 1464 1464 1470 1470 1470 1470 1470 1477 1477 1470 1470 1477 1477 1477 1477 1381 1381 1381 1381 1381 1381 1387 1387 1387 1387 1387 1387 1387 1387 1392 1398 1404 1410 1410 1410 1404 1404 1404 1404 1410 1410 1404 1404 1410 1616 1616 1616 1616 1616 1616 1616 1616 1624 1404 1404 1404 1404 1404 1404 1404 1404 1404 1404 1404 1404 1404 1404 1404 1404 1404 1404 1404 1404 1410 1410 1410 1410 1410 1410 1410 1410 1415 1415 1415 1415 1421 1415 1415 1415 1415 1421 1421 1421 1421 1421 1427 1427 1421 1421 1415 1415 1632 1632 1632 1632 1632 1639 1639 1639 1639 1639 1639 1639 1639 1639 1639 1639 1647 1647 1647 1647 1647 1647 1647 1647 1647 1647 1647 1647 1647 1639 1639 1427 1427 1427 1427 1427 1427 1433 1433 1433 1433 1439 1439 1439 1439 1445 1445 1655 1663 1663 1663 1663 1663 1663 1663 1663 1663 1671 1671 1671 1671 1671 1671 1671 1873 1873 1883 1883 1894 1894 1894 1904 1926 1936 1947 2365 2365 1936 1936 1936 1936 1947 1947 1947 1959 1947 1947 1947 1959 1959 1970 0 0 0 0 0 0 0 1370 1370 1370 1370 1370 1370 1370 1376 1376 1376 1376 1376 1376 1376 1376 1381 1381 1387 1387 1387 1387 1387 1392 1392 1392 1392 1387 1387 1387 1387 1387 1387 1387 1387 1387 1387 1387 1387 1387 1387 1387 1387 1381 1381 1387 1387 1387 1387 1387 1387 1392 1387 1387 1387 1392 1392 1392 1387 1387 1387 1392 1392 1387 1387 1387 1392 1392 1392 1392 1392 1392 1392 1392 1392 1392 1392 1392 1392 1387 1387 1387 1387 1387 1387 1387 1387 1387 1387 1392 1392 1392 1392 1392 1398 1398 1398 1398 1398 1398 1398 1404 1404 1404 1410 1410 1410 1410 1410 1410 1410 1410 1410 1410 1404 1404 1404 1404 1398 1398 1398 1398 1398 1398 1398 1404 1404 1398 1398 1398 1398 1398 2005 2005 2005 2005 2005 2005 2005 2005 2005 2349 2349 2365 2365 2365 2365 2365 2398 2541 2560 2560 2560 2560 2560 2560 2560 2560 2560 2579 2579 2579 2579 2579 2579 2560 2560 2560 2560 2560 2560 2560 2560 2560 2560 2560 2560 2560 2560 2560 2560 2560 2579 2579 2598 0 1572 1572 1564 1564 1564 1564 1564 1564 1564 1564 1564 1564 1572 1572 1579 1579 1579 1579 1586 1586 1586 1586 1586 1586 1586 1586 1586 1579 1579 1579 2541 2541 2541 2541 2541 2541 2541 2560 2579 2579 2579 2579 2579 2579 2579 2579 2579 2560 2560 2560 2560 2560 2560 2560 2560 2560 2560 2560 2560 2560 2560 2560 2560 2560 2560 2541 2541 2541 2541 2541 2541 2541 2541 2541 2541 2541 2541 2541 2541 2541 2541 2522 2522 2541 2541 2541 2541 2560 2560 2560 2560 2560 2560 2560 2541 2541 2541 2541 2541 2541 2560 2560 2560 2560 2560 2560 2560 2560 2541 2541 2541 2541 2541 2541 2541 2541 2541 2541 2541 2541 2541 2541 2541 2560 2560 2560 2560 2560 2560 2560 2560 2560 2560 2560 2541 2541 2560 2541 2541 2541 2541 2541 2541 2541 2541 2541 2541 2541 2541 2522 2522 2522 2522 2522 2522 2522 2522 2522 2522 2522 2522 2522 2522 2522 2522 2503 2503 2503 2503 2503 2503 2503 2503 2503 2503 2503 2503 2522 2522 2522 2522 2522 2522 2522 2522 2522 2503 2503 2503 2503 2503 0 0 0 0 0 0 0 0 0 0
0 0 0 0 0 0 0 0 0 0 0 0 0 0 0 0 0 0 0 0 0 0 0 0 0 0 0 0 0 0 0 0 0 2398 2398 2398 2398 2398 2398 2398 2381 2381 2381 2398 2398 2398 2398 2398 2415 2415 2415 2415 2415 2415 1464 1464 1464 1470 1470 1470 1470 1470 1477 1477 1477 1477 1477 1477 1477 1477 1387 1381 1381 1381 1381 1381 1387 1387 1387 1387 1387 1387 1387 1392 1392 1398 1404 1410 1410 1415 1410 1404 1404 1404 1410 1616 1616 1616 1616 1616 1616 1616 1616 1616 1616 1616 1616 1616 1616 1616 1410 1404 1404 1404 1404 1404 1404 1404 1404 1404 1404 1404 1404 1404 1404 1404 1404 1404 1404 1410 1410 1410 1410 1410 1410 1410 1415 1415 1415 1415 1421 1421 1415 1415 1421 1421 1639 1632 1632 1427 1427 1427 1427 1427 1639 1632 1632 1632 1632 1632 1632 1632 1632 1632 1632 1632 1639 1632 1632 1639 1639 1639 1639 1639 1639 1639 1647 1647 1647 1647 1647 1647 1647 1639 1639 1639 1639 1433 1427 1427 1427 1433 1433 1433 1433 1439 1439 1439 1439 1439 1439 1445 1445 1647 1647 1647 1655 1655 1655 1655 1655 1655 1663 1663 1671 1663 1663 1671 1671 1671 1873 1873 1883 1883 1894 1894 1894 1904 2381 2381 2381 2365 2365 2365 2365 1936 1936 1947 1947 1947 1959 1947 1947 1947 1947 1959 1970 0 0 0 0 0 0 0 0 1370 1370 1370 1370 1376 1376 1376 1376 1376 1376 1376 1376 1376 1381 1381 1387 1387 1387 1387 1392 1392 1392 1392 1392 1392 1387 1387 1387 1387 1387 1387 1387 1387 1387 1387 1387 1387 1387 1387 1387 1387 1387 1387 1387 1387 1387 1387 1387 1392 1392 1387 1387 1387 1392 1392 1392 1392 1392 1392 1392 1392 1392 1392 1392 1392 1392 1392 1392 1392 1392 1392 1392 1392 1392 1392 1392 1392 1387 1387 1387 1387 1387 1387 1387 1387 1387 1387 1392 1392 1392 1392 1392 1398 1398 1398 1398 1398 1404 1404 1404 1404 1404 1410 1410 1410 1410 1410 1410 1410 1410 1410 1410 1410 1404 1404 1404 1398 1398 1398 1404 1404 1404 1404 1404 1404 1404 1404 1404 1404 2005 2005 2005 2005 2005 2005 2005 2005 2005 2005 2349 2349 2365 2365 2365 2381 2381 2415 2541 2541 2560 2560 2560 2560 2560 2560 2560 2560 2560 2579 2560 2560 2560 2560 2560 2560 2560 2560 2541 2541 2541 2541 2541 2541 2541 2541 2541 2541 2541 2560 2560 2579 2579 2579 0 1572 1572 1564 1564 1564 1564 1564 1572 1564 1564 1572 1572 1572 1579 1579 1579 1586 1586 1586 1586 1586 1586 1586 1586 1586 1586 1586 1579 1579 1586 2522 2522 2522 2522 2541 2541 2541 2541 2541 2560 2560 2560 2560 2560 2560 2560 2560 2560 2560 2541 2541 2541 2541 2541 2541 2541 2541 2560 2560 2560 2541 2541 2541 2541 2541 2541 2541 2541 2541 2522 2522 2522 2522 2522 2522 2522 2522 2522 2522 2522 2522 2522 2522 2522 2522 2541 2541 2541 2560 2560 2560 2560 2560 2541 2541 2541 2541 2541 2541 2541 2541 2541 2541 2541 2541 2541 2541 2541 2522 2522 2522 2522 2522 2541 2522 2522 2522 2522 2522 2522 2541 2541 2541 2541 2541 2560 2541 2541 2541 2541 2560 2560 2541 2541 2541 2541 2541 2541 2541 2541 2541 2522 2522 2522 2522 2522 2522 2522 2522 2503 2503 2503 2503 2522 2522 2522 2522 2522 2522 2522 2522 2522 2522 2503 2503 2503 2503 2503 2503 2503 2503 2503 2503 2503 2503 2503 2503 2503 2503 2503 2522 2522 2522 2522 2503 2503 2503 2503 2503 2503 2503 0 0 0 0 0 0 0 0 0 0
0 0 0 0 0 0 0 0 0 0 0 0 0 0 0 0 0 0 0 0 0 0 0 0 0 0 0 0 0 0 0 0 0 2398 2398 2398 2398 2398 2381 2381 2381 2381 2381 2398 2398 2398 2398 2398 2398 2398 2398 2398 2398 2398 2398 1464 1464 1470 1470 1470 1470 1470 1477 1477 1477 1477 1477 1477 1483 1477 1387 1387 1381 1381 1381 1381 1387 1387 1387 1387 1387 1387 1387 1392 1392 1404 1410 1410 1415 1421 1421 1410 1410 1609 1609 1616 1616 1616 1609 1609 1616 1616 1616 1609 1609 1616 1616 1616 1616 1609 1609 1609 1601 1601 1601 1609 1410 1410 1410 1404 1404 1404 1404 1404 1404 1404 1404 1404 1404 1410 1410 1410 1624 1624 1624 1624 1616 1616 1616 1616 1616 1616 1624 1624 1624 1632 1639 1632 1632 1632 1624 1624 1632 1632 1632 1632 1632 1632 1624 1624 1624 1624 1624 1624 1632 1632 1632 1632 1632 1632 1632 1639 1639 1639 1639 1639 1639 1639 1639 1639 1639 1639 1639 1632 1632 1632 1632 1433 1433 1433 1433 1433 1433 1439 1439 1439 1439 1439 1445 1445 1445 1445 1445 1647 1647 1647 1647 1647 1647 1647 1647 1647 1647 1663 1663 1663 1663 1671 1671 1671 1873 1883 1883 1883 1894 1894 1894 1915 2381 2381 2381 2381 2381 2381 2381 1936 1936 1947 1947 1947 1947 1947 1936 1936 1947 0 0 0 0 0 0 0 0 0 0 1376 1376 1376 1376 1376 1376 1376 1376 1376 1376 1376 1381 1381 1381 1381 1387 1387 1387 1392 1392 1392 1392 1392 1392 1392 1387 1387 1387 1387 1381 1381 1387 1387 1387 1387 1392 1392 1392 1387 1387 1387 1387 1387 1387 1387 1387 1387 1392 1387 1387 1392 1392 1392 1392 1392 1392 1392 1392 1392 1392 1392 1392 1392 1392 1392 1392 1392 1392 1392 1392 1392 1392 1392 1392 1392 1392 1392 1392 1392 1387 1387 1387 1387 1387 1387 1387 1387 1392 1392 1392 1392 1392 1398 1398 1398 1398 1404 1404 1404 1404 1404 1404 1410 1410 1410 1415 1410 1410 1410 1410 1410 1410 1410 1404 1404 1404 1404 1404 1404 1404 1404 1410 1410 1410 1410 1410 1410 1404 1404 2005 2005 2005 2005 2016 2016 2005 2005 2005 2005 2005 2365 2365 2365 2381 2381 2398 2415 2541 2541 2541 2541 2541 2541 2541 2541 2560 2560 2560 2560 2560 2560 2560 2560 2560 2560 2541 2541 2541 2541 2541 2541 2541 2541 2541 2541 2541 2541 2541 2541 2560 2560 2560 2560 1572 1572 1572 1572 1572 1564 1564 1572 1572 1572 1572 1572 1572 1579 1579 1579 1586 1586 1586 1586 1586 1586 1586 1586 1586 1586 1586 1586 1586 1586 2522 2522 2522 2522 2522 2522 2522 2541 2541 2541 2541 2541 2541 2541 2541 2541 2541 2541 2541 2541 2541 2541 2541 2541 2541 2541 2541 2541 2541 2541 2541 2541 2541 2522 2522 2522 2522 2522 2522 2522 2522 2522 2522 2522 2522 2522 2522 2522 2522 2522 2522 2522 2522 2522 2522 2522 2522 2522 2522 2541 2541 2541 2541 2541 2522 2522 2522 2522 2522 2522 2522 2522 2541 2541 2541 2541 2522 2522 2522 2522 2522 2522 2522 2522 2522 2522 2522 2522 2522 2522 2522 2522 2522 2522 2541 2541 2541 2541 2541 2522 2522 2541 2541 2541 2541 2541 2541 2541 2522 2522 2522 2522 2522 2522 2522 2522 2522 2522 2522 2522 2503 2503 2503 2503 2503 2503 2503 2503 2503 2503 2522 2522 2522 2522 2503 2503 2503 2503 2503 2503 2503 2503 2503 2503 2485 2485 2485 2485 2503 2503 2503 2503 2503 2503 2503 2485 2485 2485 2485 2485 2485 2485 0 0 0 0 0 0 0 0 0 0
