0 0 0 0 0 0 0 0 0 0 0 0 0 0 0 0 0 0 0 0 0 0 0 0 0 0 0 0 0 0 0 3774 3774 3774 3774 3774 3774 3774 3816 3816 3816 3816 3816 3816 3816 3816 3816 3816 3859 3859 3859 3859 3859 3859 3816 3816 3816 3816 3816 3816 3816 3816 3816 3774 3774 3774 3816 3816 3816 3816 3859 3859 3859 3816 3816 3816 3816 3859 3859 3859 3859 3859 3859 3816 3816 3816 3816 3859 3903 3903 3948 3948 3948 3948 3903 3816 3816 3774 3774 3774 3774 3816 0 0 0 0 0 0 0 1268 1268 1268 1268 1268 1268 1268 1268 1268 1268 1268 1268 1273 1278 1278 1283 1283 1283 1283 1283 1283 1283 1283 1283 1283 1288 1288 1288 1283 1283 1283 1283 1283 1283 1288 1288 1288 1288 1288 1288 1288 1283 1283 1283 1283 1283 1283 1288 1288 1283 1283 1288 1292 1292 1292 1292 1283 1283 1288 1288 1292 1292 1292 1292 1297 1297 1297 1297 1297 1297 1297 1297 1297 1297 1297 1302 1307 1307 1307 1307 1307 1307 1307 1307 1307 1307 1307 1307 1307 1307 1307 1307 1312 1312 1312 1312 1312 1312 1312 1312 1317 1317 1317 1317 1317 1317 1317 1317 1317 1322 1322 1322 1322 1322 1322 1322 1322 1322 1328 1328 1333 1333 1333 1333 1333 1333 1333 1333 1333 1333 1328 1328 1328 1328 1328 1333 1328 1328 1328 1328 1333 1333 1794 1794 1794 1794 1794 1794 1794 1794 1794 1794 1794 1794 1794 1794 1804 1804 1804 1804 1804 1804 1804 1794 1794 1804 1804 1804 1804 1804 1804 1804 1804 1804 1804 1804 1804 1813 1813 1813 1813 1813 1813 1813 1813 1813 1813 1813 1813 1813 1813 1813 1823 1823 1823 1823 1823 1823 1823 1823 1307 1307 1297 1297 1297 1297 1297 1297 1297 1297 1297 1302 1302 1302 1307 1312 1312 1322 1322 1322 1322 1322 1322 1322 1863 1863 1863 1873 1873 1322 1322 1322 1317 1317 1312 1307 1307 1302 1302 1302 1307 1307 1302 1302 1307 1307 1307 1307 1307 1312 1312 1317 1312 1312 1312 1312 1312 1312 1307 1307 1312 1312 1312 1312 1317 1317 1317 1317 1322 1322 1322 1328 1328 1322 1322 1312 1307 1307 1307 1312 1317 1317 1322 1322 1322 1322 1322 1322 1322 1322 1328 1328 1328 1328 1328 1328 1328 1328 1328 1333 1883 1883 1883 1894 1894 1894 1343 1343 1343 1343 1343 1343 1343 1343 1343 1343 1343 1343 1343 1343 1343 1338 1338 1333 1333 1333 1333 1333 1333 1333 1333 1338 1333 1333 1333 0 0 0 0 0 1894 1894 1894 1904 1904 1904 1894 1894 1894 1894 1894 1894 1883 1883 0 0 0 0 0 0 0 0 0 0 0 0 0 0 0 0 0 0 3816 3816 3816 3816 3816 3816 3816 3816 3816 3816 3816 3816 3816 3774 3774 3816 3774 3774 3732 3732 3732 3732 3732 3774 3732 3732 3732 3732 3732 3732 3692 3692 3692 3692 3692 3653 3468 3433 3433 3399 3399 3399 3433 3433 3433 3433 3208 3178 3149 3149 3178 3178 3178 3178 3178 3178 3178 3149 3149 3149 3149 3120 3120 3092 3064 3064 3037 3037 3037 3037 3010 3010 3010 3010 3010 3037 3037 3037 3037 3037 3037 3037 3037 3037 3037 3037 3037 3037 3037 3037 3037 3037 3064 3037 3037 3037 3037 3064 3064 3037 3037 3037 3037 3037 3037 3037 3010 3010 3010 3010 3010 3010 3010 3010 3010 3010 3010 3010 3010 3010 3010 2984 2984 2984 2958 2958 2958 2958 2933 2933 2933 2933 2933 2933 2933 2933 0 0 0 0 0 0 0 0 0 0 0 0 0 0 0 0 0 0 0 0 0 0 0
0 0 0 0 0 0 0 0 0 0 0 0 0 0 0 0 0 0 0 0 0 0 0 0 0 0 0 0 0 0 0 3774 3774 3732 3732 3732 3774 3774 3774 3774 3774 3816 3816 3774 3774 3774 3774 3816 3816 3816 3816 3816 3774 3774 3774 3774 3816 3774 3774 3774 3774 3774 3774 3732 3732 3774 3774 3774 3816 3816 3816 3816 3816 3816 3816 3816 3816 3816 3816 3859 3816 3816 3816 3774 3774 3774 3774 3816 3859 3859 3903 3903 3903 3948 3816 3774 3774 3774 3774 3774 3774 3774 0 0 0 0 0 0 0 1264 1264 1264 1268 1268 1268 1268 1268 1268 1268 1268 1268 1273 1278 1278 1283 1283 1283 1283 1283 1283 1283 1283 1283 1283 1283 1288 1288 1283 1283 1283 1283 1283 1288 1288 1288 1288 1288 1288 1288 1283 1283 1283 1283 1288 1288 1288 1288 1288 1288 1288 1288 1292 1288 1288 1288 1283 1283 1288 1288 1292 1292 1292 1292 1297 1297 1297 1297 1297 1297 1297 1297 1302 1302 1302 1302 1307 1307 1307 1312 1312 1312 1312 1312 1307 1307 1307 1307 1312 1312 1312 1312 1312 1312 1312 1312 1312 1312 1312 1317 1317 1317 1317 1317 1317 1317 1317 1317 1317 1322 1322 1322 1328 1328 1328 1328 1328 1328 1328 1328 1333 1333 1333 1333 1333 1333 1333 1333 1333 1333 1333 1333 1328 1328 1333 1333 1328 1328 1328 1333 1333 1333 1794 1794 1785 1785 1794 1794 1785 1785 1785 1794 1785 1785 1785 1785 1794 1794 1794 1794 1794 1804 1794 1785 1785 1804 1804 1804 1804 1804 1794 1794 1794 1794 1794 1794 1804 1804 1804 1804 1804 1804 1804 1804 1804 1804 1804 1804 1804 1804 1804 1804 1804 1813 1804 1804 1804 1813 1813 1813 1297 1297 1297 1297 1292 1292 1292 1292 1297 1297 1297 1302 1302 1302 1307 1307 1312 1317 1317 1317 1317 1317 1317 1317 1307 1307 1312 1317 1317 1317 1317 1312 1312 1307 1307 1307 1307 1302 1302 1302 1307 1307 1307 1307 1307 1307 1307 1307 1307 1312 1312 1317 1312 1312 1312 1312 1312 1312 1307 1307 1312 1312 1312 1312 1312 1317 1317 1317 1322 1322 1322 1328 1322 1322 1322 1322 1317 1317 1317 1317 1317 1317 1322 1322 1322 1322 1322 1322 1322 1322 1328 1328 1328 1328 1328 1328 1328 1328 1328 1328 1333 1333 1333 1333 1333 1333 1338 1338 1338 1343 1343 1343 1343 1343 1343 1343 1343 1343 1343 1343 1343 1338 1338 1333 1333 1333 1333 1333 1333 1333 1333 1338 1333 1333 1333 0 0 0 0 0 1894 1873 1873 1883 1894 1904 1894 1894 1894 1894 1894 1894 1883 1883 1883 0 0 0 0 0 0 0 0 0 0 0 0 0 0 0 0 3774 3774 3774 3774 3774 3816 3816 3774 3774 3774 3774 3774 3774 3774 3774 3774 3774 3774 3732 3732 3732 3732 3732 3732 3774 3732 3732 3732 3732 3732 3732 3692 3692 3692 3692 3653 3614 3468 3433 3433 3433 3433 3433 3433 3468 3692 3732 3732 3774 3120 3120 3149 3178 3178 3178 3178 3178 3178 3149 3149 3149 3149 3120 3120 3092 3064 3064 3037 3037 3037 3037 3010 3010 3010 3010 3010 3037 3037 3037 3037 3037 3037 3037 3037 3037 3037 3037 3037 3037 3037 3037 3037 3037 3037 3037 3037 3037 3037 3037 3037 3037 3037 3037 3037 3037 3037 3037 3010 3010 3010 3010 3010 2984 2984 2984 2984 3010 3010 3010 2984 2984 2984 2984 2984 2958 2958 2933 2933 2933 2933 2933 2933 2933 2933 2933 2933 0 0 0 0 0 0 0 0 0 0 0 0 0 0 0 0 0 0 0 0 0 0 0 0
0 0 0 0 0 0 0 0 0 0 0 0 0 0 0 0 0 0 0 0 0 0 0 0 0 0 0 0 0 0 0 3732 3732 3732 3732 3732 3774 3774 3774 3774 3774 3774 3774 3732 3732 3732 3732 3732 3732 3732 3732 3732 3774 3774 3774 3774 3774 3774 3774 3774 3774 3774 3732 3732 3732 3732 3774 3774 3774 3774 3816 3816 3774 3774 3774 3774 3774 3816 3816 3816 3816 3816 3816 3774 3774 3774 3774 3816 3816 3859 3859 3859 3859 3859 3816 3774 3774 3774 3774 3774 3774 3774 0 0 0 0 0 0 0 1264 1264 1264 1273 1273 1273 1268 1268 1273 1273 1273 1273 1278 1278 1283 1283 1283 1283 1283 1283 1283 1283 1283 1283 1283 1283 1288 1288 1288 1288 1288 1283 1283 1288 1288 1288 1288 1288 1288 1292 1283 1283 1288 1288 1288 1288 1292 1292 1292 1292 1288 1288 1292 1288 1288 1288 1288 1288 1288 1288 1292 1292 1292 1297 1297 1297 1297 1297 1297 1297 1297 1297 1302 1302 1302 1302 1307 1312 1312 1312 1312 1312 1312 1312 1307 1307 1307 1307 1312 1312 1312 1312 1312 1312 1312 1312 1312 1317 1317 1317 1317 1317 1317 1317 1317 1317 1317 1317 1317 1322 1322 1322 1328 1328 1328 1328 1333 1333 1328 1328 1333 1333 1333 1333 1333 1333 1333 1333 1333 1333 1333 1333 1333 1333 1333 1333 1333 1333 1333 1333 1338 1338 1338 1776 1776 1776 1785 1776 1776 1776 1776 1785 1776 1776 1776 1776 1785 1785 1785 1776 1776 1776 1776 1776 1776 1776 1776 1794 1794 1785 1785 1785 1785 1785 1785 1785 1794 1794 1794 1794 1794 1794 1794 1794 1794 1794 1804 1804 1804 1804 1804 1804 1804 1804 1804 1804 1804 1804 1804 1804 1297 1297 1297 1297 1292 1292 1292 1292 1297 1297 1297 1302 1302 1302 1307 1307 1312 1317 1317 1317 1317 1317 1317 1317 1307 1307 1307 1307 1307 1307 1307 1307 1312 1307 1307 1307 1307 1307 1307 1307 1307 1307 1307 1307 1312 1312 1307 1307 1312 1312 1312 1312 1307 1307 1312 1312 1312 1312 1307 1307 1312 1312 1312 1312 1312 1317 1317 1317 1322 1322 1322 1322 1322 1317 1317 1322 1317 1317 1317 1317 1317 1322 1322 1322 1322 1322 1322 1322 1328 1328 1328 1328 1328 1328 1328 1328 1328 1328 1328 1328 1333 1333 1333 1333 1333 1333 1338 1338 1338 1343 1343 1343 1343 1343 1343 1343 1343 1343 1343 1343 1343 1338 1338 1333 1333 1333 1333 1333 1333 1333 1333 1338 1333 1333 1333 0 0 0 0 0 0 1853 1853 1873 1873 1883 1883 1883 1883 1894 1883 1883 1873 1873 1873 1873 0 0 0 0 0 0 0 0 0 0 0 0 0 0 3732 3732 3774 3774 3774 3774 3774 3774 3774 3774 3774 3774 3774 3774 3774 3774 3774 3774 3774 3732 3732 3732 3732 3732 3732 3732 3732 3732 3732 3732 3732 3692 3692 3692 3692 3692 3653 3614 3468 3433 3433 3433 3433 3433 3468 3653 3732 3774 3774 3774 3120 3120 3149 3178 3178 3178 3178 3178 3178 3149 3149 3149 3120 3120 3092 3092 3064 3064 3037 3037 3037 3037 3037 3010 3010 3010 3037 3037 3037 3037 3037 3037 3037 3037 3037 3037 3037 3037 3037 3010 3010 3037 3037 3037 3037 3037 3037 3010 3010 3010 3010 3037 3037 3037 3037 3037 3037 3037 3010 3010 3010 3010 2984 2984 2984 2984 2984 2984 2984 2984 2984 2984 2958 2958 2958 2958 2933 2933 2933 2933 2933 2933 2933 2933 2933 2933 2933 0 0 0 0 0 0 0 0 0 0 0 0 0 0 0 0 0 0 0 0 0 0 0 0
0 0 0 0 0 0 0 0 0 0 0 0 0 0 0 0 0 0 0 0 0 0 0 0 0 0 0 0 0 0 0 3732 3732 3732 3732 3732 3774 3774 3774 3774 3732 3732 3692 3692 3692 3692 3692 3692 3692 3692 3692 3732 3732 3732 3774 3774 3774 3732 3732 3732 3732 3732 3692 3692 3692 3732 3732 3774 3774 3774 3774 3774 3774 3774 3774 3774 3774 3816 3816 3816 3816 3816 3774 3774 3774 3774 3774 3774 3816 3816 3816 3859 3859 3816 3774 3774 3774 3774 3774 3774 3774 3774 0 0 0 0 0 0 0 1273 1268 1268 1273 1273 1273 1273 1273 1273 1273 1273 1273 1278 1278 1283 1283 1283 1283 1283 1283 1283 1283 1283 1283 1283 1288 1288 1288 1288 1288 1292 1292 1292 1292 1288 1288 1292 1292 1292 1292 1292 1292 1292 1292 1292 1292 1292 1292 1292 1292 1292 1292 1292 1292 1292 1292 1288 1288 1288 1288 1292 1292 1297 1297 1297 1297 1297 1302 1302 1302 1302 1302 1302 1302 1302 1302 1307 1307 1307 1312 1312 1312 1312 1312 1312 1312 1312 1312 1312 1312 1312 1312 1312 1312 1312 1317 1317 1317 1317 1317 1317 1317 1317 1317 1317 1322 1322 1322 1322 1322 1328 1328 1328 1328 1328 1333 1333 1333 1333 1333 1333 1333 1333 1333 1333 1333 1333 1333 1333 1333 1333 1333 1333 1333 1333 1333 1333 1333 1333 1333 1338 1338 1739 1766 1766 1766 1776 1776 1776 1766 1766 1766 1766 1766 1776 1776 1776 1776 1776 1776 1776 1766 1766 1766 1766 1766 1766 1776 1785 1776 1776 1776 1776 1776 1776 1776 1776 1785 1785 1785 1785 1785 1794 1785 1785 1785 1794 1794 1794 1785 1785 1785 1785 1785 1785 1785 1785 1794 1804 1804 1297 1297 1297 1297 1297 1297 1292 1292 1297 1297 1297 1302 1302 1302 1307 1307 1312 1312 1312 1317 1317 1317 1317 1317 1307 1307 1307 1307 1307 1307 1307 1307 1307 1307 1307 1307 1307 1307 1307 1307 1307 1307 1307 1312 1312 1312 1312 1312 1312 1312 1312 1312 1307 1307 1312 1312 1312 1312 1312 1312 1312 1312 1312 1312 1317 1317 1317 1317 1317 1317 1317 1322 1322 1317 1317 1322 1322 1322 1322 1317 1317 1322 1322 1322 1322 1322 1322 1322 1322 1322 1328 1328 1328 1328 1328 1328 1328 1328 1328 1328 1333 1333 1333 1333 1333 1333 1338 1338 1338 1343 1343 1343 1343 1349 1349 1343 1343 1349 1343 1343 1343 1338 1338 1333 1333 1333 1333 1333 1333 1333 1333 1338 1333 1333 1333 0 0 0 0 0 0 1853 1853 1863 1873 1873 1873 1873 1883 1873 1873 1873 1873 1863 1863 1853 1853 0 0 0 0 0 0 0 0 0 0 0 0 3732 3732 3732 3774 3774 3774 3774 3774 3774 3774 3774 3774 3774 3774 3774 3774 3774 3774 3774 3732 3732 3732 3732 3732 3732 3732 3732 3732 3732 3732 3732 3732 3692 3692 3692 3692 3692 3653 3614 3503 3468 3433 3433 3433 3433 3614 3692 3732 3774 3774 3774 3774 3149 3149 3149 3178 3208 3178 3178 3178 3149 3149 3149 3120 3120 3092 3092 3064 3064 3037 3037 3037 3037 3037 3037 3010 3010 3037 3037 3037 3010 3010 3037 3037 3037 3037 3037 3037 3037 3010 3010 3010 3010 3037 3037 3037 3037 3037 3010 3010 3010 3010 3010 3010 3010 3010 3037 3037 3037 3010 3010 3010 3010 2984 2984 2984 2984 2984 2984 2984 2984 2984 2984 2958 2958 2958 2958 2933 2933 2933 2933 2933 2933 2933 2933 2933 0 0 0 0 0 0 0 0 0 0 0 0 0 0 0 0 0 0 0 0 0 0 0 0 0 0
0 0 0 0 0 0 0 0 0 0 0 0 0 0 0 0 0 0 0 0 0 0 0 0 0 0 0 0 0 0 0 3732 3732 3732 3732 3732 3774 3774 3732 3732 3692 3692 3692 3692 3692 3653 3653 3692 3692 3692 3692 3692 3732 3732 3774 3774 3774 3732 3732 3732 3732 3732 3692 3692 3692 3692 3692 3732 3732 3732 3732 3732 3732 3732 3732 3732 3732 3774 3774 3774 3774 3774 3774 3732 3732 3732 3774 3774 3774 3774 3774 3774 3816 3816 3774 3774 3774 3774 3774 3774 3732 3732 0 0 0 0 0 0 0 1273 1268 1268 1273 1273 1273 1273 1278 1278 1278 1278 1278 1278 1278 1283 1283 1283 1283 1283 1283 1283 1288 1288 1288 1288 1288 1292 1292 1292 1292 1292 1292 1292 1292 1292 1292 1292 1292 1292 1292 1292 1292 1292 1292 1297 1297 1297 1297 1297 1292 1292 1292 1292 1292 1292 1292 1292 1292 1292 1292 1297 1297 1297 1297 1297 1297 1302 1302 1302 1302 1302 1302 1302 1302 1302 1302 1307 1307 1307 1312 1312 1312 1312 1312 1312 1312 1312 1312 1312 1312 1312 1312 1312 1317 1317 1317 1317 1317 1317 1317 1322 1322 1322 1322 1322 1328 1322 1322 1322 1328 1328 1328 1328 1328 1333 1333 1333 1333 1333 1333 1333 1333 1333 1333 1333 1333 1338 1338 1338 1338 1338 1333 1333 1333 1338 1338 1333 1333 1333 1338 1343 1343 1739 1739 1748 1757 1748 1748 1757 1757 1757 1757 1757 1766 1766 1766 1766 1766 1757 1757 1757 1757 1757 1757 1757 1757 1757 1766 1766 1766 1766 1766 1766 1766 1766 1766 1766 1776 1776 1776 1766 1766 1776 1776 1776 1776 1776 1776 1776 1776 1766 1766 1776 1776 1776 1776 1776 1785 1785 1785 1297 1297 1297 1297 1297 1297 1297 1297 1297 1302 1302 1302 1302 1302 1307 1307 1312 1312 1312 1312 1312 1312 1312 1312 1307 1307 1307 1307 1307 1307 1307 1307 1307 1307 1307 1307 1307 1307 1307 1307 1307 1307 1312 1312 1312 1312 1312 1312 1312 1312 1312 1312 1312 1312 1312 1312 1312 1312 1312 1312 1312 1312 1312 1312 1317 1317 1317 1317 1317 1317 1317 1317 1317 1317 1317 1322 1322 1322 1322 1322 1322 1322 1322 1322 1322 1322 1322 1322 1322 1322 1328 1328 1328 1328 1328 1328 1328 1328 1333 1333 1333 1333 1333 1333 1333 1333 1338 1343 1343 1343 1343 1343 1343 1343 1343 1343 1343 1343 1343 1343 1338 1338 1338 1333 1333 1333 1333 1333 1333 1333 1333 1338 1333 1333 1333 0 0 0 0 0 0 1853 1853 1863 1863 1863 1863 1863 1863 1863 1853 1853 1863 1863 1853 1843 1843 1843 0 0 0 0 0 0 0 0 0 3732 3732 3732 3732 3774 3774 3774 3774 3774 3774 3774 3774 3774 3774 3774 3774 3774 3774 3774 3774 3732 3732 3732 3732 3732 3732 3732 3732 3732 3732 3732 3732 3732 3732 3732 3692 3692 3692 3653 3653 3576 3468 3433 3433 3433 3433 3433 3576 3653 3692 3732 3774 3774 3774 3774 3149 3149 3178 3208 3208 3178 3178 3149 3149 3149 3120 3120 3092 3092 3064 3064 3037 3037 3037 3037 3037 3037 3037 3037 3037 3037 3037 3010 3010 3037 3037 3037 3037 3037 3037 3010 3010 3010 3010 3010 3037 3037 3037 3037 3037 3037 3010 3010 3010 3010 3010 3010 3010 3037 3037 3037 3010 3010 3010 2984 2984 2984 2984 2984 2984 2984 2984 2984 2984 2984 2984 2958 2958 2958 2958 2933 2933 2933 2933 2933 2908 2908 2908 0 4405 4405 4405 4405 4405 4405 0 0 0 0 0 0 0 0 0 0 0 0 0 0 0 0 0 0 0
0 0 0 0 0 0 0 0 0 0 0 0 0 0 0 0 0 0 0 0 0 0 0 0 0 0 0 0 0 0 0 3732 3732 3732 3732 3732 3774 3774 3732 3732 3692 3692 3692 3692 3653 3653 3653 3692 3653 3653 3692 3692 3692 3732 3732 3732 3732 3732 3732 3732 3732 3692 3692 3692 3692 3692 3692 3692 3692 3732 3732 3732 3732 3732 3732 3732 3732 3774 3774 3774 3774 3774 3732 3732 3732 3732 3732 3774 3774 3732 3732 3774 3774 3774 3774 3732 3732 3732 3732 3732 3692 3692 0 0 0 0 0 0 0 1273 1268 1268 1278 1278 1278 1278 1278 1278 1278 1278 1278 1278 1283 1283 1283 1283 1283 1288 1288 1288 1288 1288 1288 1288 1292 1292 1292 1292 1292 1292 1292 1292 1292 1292 1292 1292 1292 1292 1297 1292 1292 1297 1297 1297 1297 1297 1297 1297 1292 1292 1292 1292 1292 1292 1292 1292 1292 1292 1292 1297 1297 1297 1297 1302 1302 1302 1302 1302 1302 1307 1307 1307 1307 1307 1307 1307 1312 1312 1312 1312 1312 1312 1312 1312 1312 1312 1312 1312 1312 1312 1312 1312 1317 1317 1317 1317 1317 1317 1317 1322 1322 1322 1322 1322 1328 1328 1322 1322 1328 1328 1328 1328 1328 1333 1333 1333 1333 1333 1333 1333 1333 1333 1333 1333 1338 1338 1338 1338 1338 1338 1338 1338 1338 1338 1338 1338 1338 1338 1338 1343 1343 1731 1731 1739 1748 1739 1739 1748 1757 1748 1748 1748 1748 1757 1748 1748 1757 1757 1757 1748 1748 1748 1748 1748 1748 1748 1766 1766 1766 1766 1766 1766 1766 1757 1757 1766 1766 1766 1766 1766 1766 1766 1766 1766 1766 1766 1766 1766 1766 1757 1757 1766 1766 1757 1757 1766 1776 1776 1776 1302 1302 1302 1297 1297 1302 1302 1302 1302 1302 1302 1302 1307 1307 1312 1312 1312 1312 1312 1312 1312 1312 1312 1312 1307 1307 1307 1307 1307 1307 1307 1307 1307 1307 1307 1307 1307 1307 1307 1307 1307 1307 1312 1312 1312 1317 1317 1317 1317 1312 1312 1312 1307 1307 1312 1312 1312 1312 1312 1312 1317 1317 1317 1317 1317 1317 1317 1317 1317 1317 1317 1317 1317 1317 1317 1322 1322 1322 1322 1328 1322 1322 1322 1328 1328 1328 1328 1328 1328 1328 1328 1328 1328 1328 1328 1328 1328 1333 1333 1333 1333 1333 1333 1333 1333 1333 1338 1338 1338 1338 1338 1338 1343 1343 1343 1343 1343 1343 1343 1343 1338 1338 1338 1338 1333 1333 1333 1333 1333 1333 1333 1338 1333 1333 1333 0 0 0 1766 0 0 1863 1863 1863 1863 1863 1863 1853 1853 1863 1833 1833 1843 1843 1833 1833 1833 1833 1823 1823 0 0 0 3732 3732 3732 3732 3732 3732 3732 3774 3774 3774 3732 3732 3774 3774 3774 3774 3774 3774 3774 3774 3774 3774 3732 3692 3653 3653 3692 3732 3732 3732 3732 3732 3732 3732 3732 3732 3732 3732 3732 3692 3692 3692 3653 3614 3539 3468 3433 3433 3433 3433 3433 3576 3614 3692 3732 3732 3774 3774 3774 3816 3816 3208 3208 3208 3178 3178 3149 3149 3149 3120 3120 3092 3092 3064 3064 3037 3037 3037 3037 3037 3037 3037 3037 3037 3037 3037 3037 3037 3037 3037 3037 3037 3037 3037 3010 3010 3010 3010 3010 3010 3010 3037 3037 3037 3010 3010 3010 3010 3010 3010 3010 3010 3037 3037 3037 3010 3010 3010 2984 2984 2958 2958 2958 2958 2958 2958 2958 2958 2958 2984 2958 2958 2984 2958 2958 2933 2933 2933 2933 2908 2908 2908 4405 4405 4405 4349 4349 4405 4405 4405 4405 0 0 0 0 0 0 0 0 0 0 0 0 0 0 0 0 0
0 0 0 0 0 0 0 0 0 0 0 0 0 0 0 0 0 0 0 0 0 0 0 0 0 0 0 0 0 0 0 3692 3692 3732 3732 3732 3774 3732 3732 3692 3692 3653 3653 3653 3653 3653 3653 3692 3653 3653 3653 3653 3653 3692 3732 3732 3732 3732 3732 3692 3692 3653 3653 3692 3653 3653 3653 3692 3692 3692 3692 3692 3732 3692 3692 3732 3732 3732 3732 3732 3732 3732 3732 3732 3732 3732 3732 3732 3732 3732 3732 3732 3732 3732 3732 3732 3732 3732 3692 3692 3692 3692 0 0 0 0 0 0 1273 1273 1273 1273 1278 1278 1278 1278 1278 1278 1278 1278 1278 1283 1283 1283 1288 1288 1288 1292 1292 1292 1292 1292 1292 1292 1292 1292 1292 1292 1297 1297 1297 1297 1297 1297 1297 1297 1297 1297 1297 1297 1297 1297 1297 1297 1297 1297 1297 1297 1292 1292 1292 1292 1292 1292 1292 1292 1292 1292 1297 1297 1297 1297 1302 1302 1302 1302 1302 1307 1307 1307 1307 1307 1307 1307 1307 1307 1312 1312 1312 1312 1312 1312 1312 1312 1312 1312 1312 1312 1312 1312 1312 1312 1317 1317 1317 1317 1317 1317 1322 1322 1322 1322 1322 1322 1328 1328 1328 1328 1328 1328 1328 1328 1328 1333 1333 1333 1333 1333 1333 1333 1333 1333 1338 1338 1338 1338 1338 1343 1338 1338 1338 1338 1338 1338 1338 1338 1338 1338 1338 1338 1338 1731 1731 1739 1739 1731 1731 1739 1739 1739 1739 1739 1739 1739 1739 1739 1739 1739 1739 1739 1748 1739 1739 1739 1739 1739 1739 1739 1748 1748 1748 1748 1748 1748 1748 1748 1748 1748 1748 1748 1748 1748 1748 1748 1748 1748 1757 1757 1757 1757 1757 1757 1757 1748 1748 1757 1757 1776 1776 1307 1302 1302 1297 1297 1302 1302 1302 1302 1307 1307 1307 1307 1307 1312 1312 1312 1312 1312 1312 1312 1312 1312 1312 1307 1307 1307 1307 1307 1307 1307 1307 1307 1307 1307 1307 1307 1307 1307 1307 1307 1312 1312 1312 1317 1317 1317 1317 1317 1312 1312 1312 1307 1307 1312 1312 1312 1312 1317 1317 1317 1317 1317 1317 1317 1317 1317 1317 1317 1317 1317 1322 1322 1322 1322 1322 1322 1322 1328 1328 1328 1322 1322 1328 1328 1328 1328 1328 1328 1328 1328 1328 1328 1328 1328 1328 1328 1333 1333 1333 1333 1333 1333 1333 1333 1333 1338 1338 1338 1338 1338 1338 1343 1343 1343 1343 1343 1343 1343 1343 1338 1338 1338 1338 1338 1338 1333 1333 1338 1338 1338 1338 1338 1338 1338 0 0 1757 1766 1766 1766 1766 1785 1785 1785 1785 1785 1785 1794 1794 1804 1823 1823 1833 1833 1833 1833 1823 1823 1823 1823 0 0 3732 3732 3732 3732 3732 3732 3732 3774 3774 3774 3732 3732 3774 3774 3774 3774 3774 3774 3774 3774 3774 3774 3732 3692 3653 3653 3692 3732 3732 3732 3732 3732 3732 3732 3732 3732 3732 3732 3732 3692 3692 3653 3653 3539 3468 3433 3433 3433 3433 3433 3433 3539 3614 3653 3692 3732 3732 3732 3774 3774 3774 3692 3238 3208 3178 3149 3149 3149 3120 3120 3120 3092 3064 3064 3064 3037 3037 3037 3037 3037 3037 3037 3037 3037 3037 3037 3037 3010 3010 3037 3037 3037 3037 3037 3037 3010 3010 3010 3010 3010 3010 3037 3037 3037 3010 3010 3010 3010 3010 3010 3010 3037 3037 3037 3037 3010 3010 3010 2984 2984 2958 2958 2958 2958 2958 2958 2958 2958 2958 2984 2958 2958 2984 2984 2958 2958 2958 2933 2933 2933 2933 2933 4405 4405 4405 4349 4349 4349 4349 4349 4405 0 0 0 0 0 0 0 0 0 0 0 0 0 0 0 0 0
0 0 0 0 0 0 0 0 0 0 0 0 0 0 0 0 0 0 0 0 0 0 0 0 0 0 0 0 0 0 0 3692 3692 3692 3732 3732 3732 3732 3692 3692 3653 3653 3653 3653 3653 3653 3653 3653 3653 3653 3653 3653 3653 3692 3692 3692 3692 3692 3692 3692 3653 3653 3653 3653 3653 3653 3653 3653 3653 3653 3653 3653 3692 3692 3692 3692 3732 3732 3732 3732 3732 3732 3692 3692 3692 3692 3732 3732 3732 3732 3732 3732 3732 3732 3732 3732 3732 3692 3692 3653 3653 0 0 0 0 0 0 0 1273 1273 1273 1273 1278 1278 1278 1278 1278 1278 1278 1278 1278 1283 1283 1288 1292 1292 1292 1292 1292 1292 1297 1297 1292 1292 1292 1292 1292 1297 1297 1297 1297 1297 1297 1297 1297 1297 1297 1297 1297 1297 1297 1297 1297 1297 1297 1302 1302 1302 1297 1297 1297 1297 1292 1292 1292 1292 1292 1292 1297 1297 1297 1297 1302 1302 1302 1302 1307 1307 1307 1307 1307 1307 1307 1307 1307 1312 1312 1312 1312 1312 1312 1312 1312 1312 1312 1312 1312 1312 1317 1317 1317 1317 1317 1317 1322 1322 1322 1322 1322 1322 1322 1322 1322 1328 1328 1328 1328 1328 1333 1333 1333 1333 1333 1333 1333 1333 1338 1338 1338 1338 1338 1338 1338 1338 1338 1338 1343 1343 1343 1338 1338 1338 1338 1338 1338 1338 1338 1338 1338 1338 1338 1731 1722 1722 1731 1713 1713 1722 1722 1722 1731 1731 1731 1739 1739 1739 1739 1739 1739 1739 1739 1739 1739 1739 1739 1739 1739 1739 1739 1739 1739 1739 1739 1739 1739 1739 1739 1739 1739 1739 1739 1739 1739 1739 1739 1739 1748 1748 1748 1748 1748 1748 1748 1748 1748 1748 1748 1748 1748 1307 1302 1302 1302 1302 1302 1302 1302 1307 1307 1307 1307 1307 1307 1312 1312 1312 1312 1312 1312 1312 1312 1312 1312 1307 1307 1307 1307 1307 1307 1307 1307 1307 1307 1307 1307 1307 1307 1307 1307 1312 1312 1312 1317 1317 1317 1317 1317 1317 1312 1312 1317 1312 1312 1312 1312 1312 1317 1317 1317 1322 1322 1322 1317 1317 1317 1317 1317 1317 1317 1317 1322 1322 1322 1322 1322 1322 1317 1317 1322 1322 1322 1322 1328 1328 1328 1328 1328 1328 1328 1328 1328 1328 1328 1328 1333 1333 1343 1338 1338 1338 1338 1338 1333 1333 1338 1338 1343 1343 1343 1343 1343 1343 1343 1343 1343 1343 1343 1343 1343 1343 1338 1338 1338 1338 1338 1338 1338 1338 1338 1338 1338 1338 1338 1338 1343 1343 1757 1757 1757 1757 1766 1766 1776 1785 1785 1785 1785 1785 1794 1794 1813 1823 1823 1833 1833 1823 1823 1823 1823 1823 1823 1823 3732 3732 3732 3732 3732 3732 3732 3774 3774 3774 3774 3774 3774 3774 3774 3774 3774 3774 3774 3774 3774 3774 3732 3732 3653 3653 3732 3732 3732 3732 3732 3732 3732 3732 3732 3732 3732 3732 3692 3692 3653 3653 3576 3468 3433 3433 3433 3433 3433 3433 3433 3539 3614 3653 3692 3692 3732 3732 3732 3774 3774 3692 3692 3238 3178 3149 3149 3149 3120 3120 3092 3064 3064 3064 3064 3037 3037 3037 3037 3037 3037 3037 3037 3037 3037 3037 3037 3010 3010 3037 3037 3037 3037 3037 3010 3010 3010 3010 3010 3037 3037 3037 3037 3037 3010 3010 3010 3010 3010 3010 3010 3037 3037 3037 3010 3010 3010 3010 2984 2984 2958 2958 2984 2984 2984 2984 2984 2984 2984 2984 2984 2984 2984 2984 2984 2984 2984 2984 2958 2958 2958 0 4405 4405 4405 4349 4349 4295 4295 4241 4190 4190 4190 4190 0 0 0 0 0 0 0 0 0 0 0 0 0 0
0 0 0 0 0 0 0 0 0 0 0 0 0 0 0 0 0 0 0 0 0 0 0 0 0 0 0 0 0 0 0 3653 3653 3653 3653 3653 3653 3614 3614 3614 3614 3614 3614 3614 3653 3653 3653 3653 3614 3614 3614 3614 3614 3653 3653 3692 3692 3692 3692 3692 3653 3653 3653 3653 3614 3614 3653 3653 3653 3653 3653 3653 3653 3653 3653 3692 3692 3692 3692 3692 3692 3692 3692 3692 3653 3653 3692 3692 3692 3732 3732 3732 3732 3732 3732 3732 3692 3692 3692 3653 3614 3614 0 0 0 0 0 0 1278 1278 1278 1278 1283 1283 1283 1283 1283 1283 1283 1283 1283 1283 1283 1288 1292 1292 1292 1292 1292 1297 1297 1297 1292 1292 1297 1297 1297 1297 1297 1297 1297 1297 1297 1297 1297 1297 1297 1297 1297 1297 1297 1297 1297 1297 1297 1302 1302 1302 1297 1297 1297 1297 1297 1297 1297 1297 1297 1297 1297 1297 1297 1302 1302 1302 1302 1302 1307 1307 1307 1307 1307 1307 1312 1312 1312 1312 1312 1312 1312 1312 1312 1312 1312 1312 1312 1312 1312 1317 1317 1317 1317 1317 1322 1322 1322 1322 1322 1322 1322 1322 1322 1322 1328 1328 1333 1333 1333 1333 1333 1333 1333 1333 1333 1333 1333 1338 1338 1338 1338 1338 1338 1338 1338 1338 1338 1343 1343 1343 1343 1338 1338 1338 1338 1338 1338 1338 1338 1338 1338 1338 1343 1705 1705 1705 1705 1705 1705 1713 1713 1722 1722 1722 1722 1722 1731 1731 1731 1731 1731 1731 1731 1731 1739 1739 1739 1731 1731 1731 1731 1731 1731 1731 1731 1731 1731 1731 1731 1731 1731 1731 1731 1731 1731 1731 1731 1739 1739 1739 1739 1739 1748 1748 1748 1748 1748 1748 1748 1748 1748 1748 1302 1302 1302 1302 1307 1307 1307 1307 1307 1307 1307 1307 1312 1312 1312 1312 1312 1312 1312 1312 1317 1317 1312 1307 1307 1307 1307 1307 1307 1307 1307 1307 1307 1307 1307 1312 1312 1312 1312 1312 1312 1312 1317 1317 1317 1317 1317 1317 1317 1317 1317 1317 1317 1317 1317 1317 1317 1322 1322 1322 1322 1322 1322 1322 1322 1322 1317 1317 1322 1322 1322 1322 1322 1322 1322 1322 1317 1317 1322 1322 1322 1322 1328 1328 1328 1328 1328 1328 1328 1328 1328 1328 1333 1333 1338 1343 1343 1338 1338 1338 1338 1338 1338 1338 1338 1338 1343 1343 1343 1343 1343 1343 1343 1349 1343 1343 1343 1343 1343 1343 1343 1343 1338 1338 1338 1338 1338 1338 1338 1343 1343 1338 1338 1338 1338 1748 1748 1757 1757 1757 1766 1766 1776 1776 1776 1776 1785 1785 1785 1794 1794 1813 1823 1823 1823 1823 1823 1823 1823 1813 1794 1794 1794 3732 3732 3732 3732 3732 3732 3774 3774 3774 3774 3774 3774 3774 3774 3774 3774 3774 3774 3774 3774 3774 3732 3692 3653 3653 3692 3692 3692 3732 3732 3732 3732 3732 3732 3732 3732 3732 3692 3692 3653 3614 3539 3468 3433 3433 3433 3433 3433 3433 3468 3539 3576 3614 3653 3692 3692 3692 3732 3774 3774 3732 3732 3732 3732 3732 3732 3149 3120 3120 3092 3064 3064 3064 3064 3064 3037 3037 3037 3037 3037 3037 3037 3037 3037 3037 3037 3037 3037 3037 3037 3037 3037 3037 3010 3010 3010 3010 3010 3037 3037 3037 3037 3037 3010 3010 3010 3010 3010 3010 3010 3037 3037 3037 3010 3010 3010 3010 3010 2984 2984 2984 2984 2984 2984 2984 2984 2984 2984 2984 2984 2984 2984 2984 2984 2984 2984 2984 2984 2984 2984 4241 4295 4295 4295 4295 4295 4295 4295 4241 4190 4190 4190 4190 4241 0 0 0 0 0 0 0 0 0 0 0 0 0
0 0 0 0 0 0 0 0 0 0 0 0 0 0 0 0 0 0 0 0 0 0 0 0 0 0 0 0 0 0 0 3614 3614 3614 3614 3614 3614 3614 3614 3614 3614 3614 3614 3614 3653 3653 3653 3653 3614 3614 3576 3576 3576 3614 3614 3653 3653 3653 3653 3653 3653 3653 3653 3653 3614 3614 3614 3614 3614 3614 3614 3614 3653 3653 3653 3653 3653 3653 3692 3653 3653 3653 3653 3653 3653 3653 3653 3653 3692 3692 3692 3692 3692 3732 3732 3732 3692 3692 3692 3653 3614 3614 0 0 0 0 0 0 0 1278 1278 1278 1283 1283 1283 1283 1283 1283 1283 1283 1283 1283 1288 1292 1292 1297 1297 1297 1297 1297 1297 1297 1292 1292 1297 1297 1297 1297 1297 1297 1297 1297 1297 1297 1297 1297 1297 1302 1297 1297 1297 1297 1302 1302 1302 1302 1302 1302 1297 1297 1297 1297 1297 1297 1297 1297 1302 1302 1302 1302 1302 1302 1307 1307 1307 1307 1307 1307 1307 1307 1307 1307 1312 1312 1312 1312 1312 1312 1312 1312 1312 1312 1312 1312 1312 1312 1317 1317 1317 1317 1322 1322 1322 1322 1322 1322 1322 1328 1328 1328 1328 1328 1333 1333 1333 1333 1333 1333 1333 1333 1333 1333 1333 1333 1338 1338 1338 1338 1338 1338 1338 1338 1338 1343 1343 1343 1343 1343 1343 1343 1343 1338 1338 1338 1338 1338 1338 1338 1338 1338 1343 1696 1696 1696 1696 1705 1705 1705 1705 1705 1713 1713 1713 1713 1713 1722 1722 1722 1722 1731 1731 1731 1731 1731 1731 1722 1722 1722 1731 1731 1731 1731 1731 1731 1731 1731 1731 1731 1731 1731 1731 1722 1722 1731 1731 1731 1731 1731 1731 1739 1739 1739 1739 1739 1739 1739 1739 1748 1312 1307 1307 1307 1307 1307 1307 1307 1307 1307 1307 1307 1307 1312 1312 1312 1312 1312 1312 1312 1312 1312 1317 1317 1317 1312 1312 1307 1307 1312 1312 1312 1312 1312 1312 1312 1312 1317 1312 1312 1312 1312 1317 1317 1317 1317 1317 1317 1317 1322 1317 1317 1317 1322 1322 1322 1322 1322 1322 1322 1322 1322 1322 1322 1322 1322 1322 1322 1322 1322 1328 1328 1328 1322 1322 1328 1328 1328 1328 1328 1328 1328 1328 1328 1328 1328 1328 1328 1328 1328 1328 1328 1328 1328 1333 1333 1338 1343 1343 1343 1343 1343 1343 1343 1343 1338 1338 1343 1343 1343 1349 1343 1343 1343 1343 1349 1349 1349 1343 1343 1343 1343 1343 1343 1343 1343 1343 1338 1338 1343 1343 1343 1343 1338 1338 1338 1338 1748 1748 1757 1757 1757 1757 1766 1766 1766 1766 1766 1776 1776 1776 1776 1785 1794 1813 1823 1823 1813 1813 1813 1813 1813 1794 1794 1794 1794 3692 3692 3692 3732 3732 3732 3732 3774 3774 3774 3774 3774 3774 3774 3774 3774 3774 3774 3774 3774 3732 3692 3653 3653 3692 3692 3692 3732 3732 3732 3732 3732 3732 3732 3732 3732 3692 3692 3653 3576 3539 3468 3433 3433 3433 3433 3433 3468 3468 3539 3576 3576 3614 3653 3692 3692 3732 3774 3774 3774 3732 3732 3732 3774 3774 3774 3120 3092 3092 3064 3064 3064 3064 3064 3064 3064 3064 3037 3037 3037 3037 3037 3037 3037 3037 3037 3037 3064 3037 3037 3037 3037 3010 3010 3010 3010 3037 3037 3037 3037 3037 3037 3037 3010 3010 3010 3010 3010 3037 3037 3037 3037 3037 3010 3010 3010 3010 3010 3010 2984 2984 3010 2984 2984 2984 2984 2984 2984 2984 2984 3010 3010 3010 3010 2984 2984 3010 3010 4241 4241 4241 4241 4241 4241 4241 4295 4295 4295 4241 4190 4190 4190 4190 4190 0 0 0 0 0 0 0 0 0 0 0 0
0 0 0 0 0 0 0 0 0 0 0 0 0 0 0 0 0 0 0 0 0 0 0 0 0 0 0 0 0 0 0 3614 3614 3614 3614 3614 3576 3576 3576 3576 3576 3576 3614 3614 3614 3614 3614 3614 3614 3614 3576 3576 3576 3576 3614 3614 3653 3653 3653 3653 3653 3653 3653 3653 3614 3614 3614 3614 3614 3614 3614 3614 3653 3653 3653 3653 3653 3653 3653 3653 3614 3614 3614 3614 3614 3614 3653 3653 3653 3692 3692 3692 3692 3692 3692 3692 3692 3692 3692 3653 3614 3614 0 0 0 0 0 0 0 1278 1278 1278 1283 1283 1283 1283 1283 1283 1283 1283 1283 1288 1288 1292 1292 1297 1297 1297 1297 1297 1297 1297 1297 1297 1297 1297 1297 1297 1297 1297 1297 1297 1297 1297 1297 1297 1297 1302 1302 1302 1302 1302 1302 1302 1302 1302 1302 1302 1302 1297 1297 1297 1297 1297 1297 1302 1302 1302 1302 1302 1302 1302 1307 1307 1307 1307 1307 1307 1312 1312 1312 1312 1312 1312 1312 1312 1312 1312 1312 1317 1317 1317 1317 1317 1317 1317 1322 1322 1322 1322 1322 1322 1322 1322 1322 1322 1328 1328 1328 1328 1328 1333 1333 1333 1333 1333 1333 1333 1338 1333 1333 1333 1338 1338 1338 1338 1338 1338 1338 1343 1338 1338 1343 1343 1343 1343 1343 1343 1343 1343 1343 1343 1343 1343 1343 1338 1338 1338 1338 1338 1343 1696 1696 1696 1696 1696 1696 1705 1705 1705 1705 1705 1705 1705 1705 1713 1713 1713 1722 1722 1722 1722 1722 1713 1713 1713 1713 1713 1722 1722 1722 1722 1722 1722 1722 1722 1722 1722 1722 1722 1722 1722 1722 1722 1722 1722 1722 1722 1722 1731 1731 1731 1731 1731 1731 1731 1731 1731 1312 1307 1307 1307 1307 1307 1307 1307 1307 1307 1312 1312 1312 1312 1312 1312 1312 1312 1312 1312 1312 1312 1317 1317 1317 1317 1317 1312 1312 1312 1312 1312 1312 1312 1312 1312 1312 1317 1317 1317 1317 1317 1317 1317 1317 1317 1322 1317 1317 1317 1317 1317 1317 1322 1322 1322 1322 1322 1322 1322 1322 1322 1322 1322 1322 1322 1328 1328 1322 1322 1328 1328 1328 1328 1328 1328 1328 1328 1333 1328 1328 1328 1328 1328 1328 1328 1328 1328 1328 1328 1328 1328 1328 1333 1333 1333 1343 1343 1343 1343 1343 1343 1343 1343 1343 1343 1343 1349 1349 1349 1349 1343 1343 1343 1349 1349 1349 1349 1349 1343 1343 1343 1343 1343 1343 1343 1343 1343 1343 1343 1343 1343 1343 1343 1343 1343 1343 1757 1757 1757 1757 1757 1757 1757 1766 1757 1757 1757 1766 1776 1766 1766 1766 1776 1794 1813 1813 1804 1804 1804 1804 1804 1794 1785 1785 1785 3692 3692 3692 3692 3692 3732 3732 3732 3732 3732 3774 3774 3774 3774 3774 3774 3816 3816 3816 3816 3774 3732 3653 3653 3692 3692 3692 3732 3732 3732 3732 3732 3732 3732 3732 3692 3692 3653 3614 3576 3539 3468 3433 3433 3433 3433 3433 3468 3503 3539 3576 3576 3614 3653 3692 3692 3732 3774 3816 3774 3774 3774 3774 3774 3774 3774 3774 3092 3092 3064 3064 3064 3064 3064 3064 3064 3064 3037 3037 3037 3037 3037 3037 3037 3037 3064 3064 3064 3064 3037 3037 3037 3010 3010 3010 3010 3037 3037 3037 3037 3037 3037 3037 3037 3037 3037 3037 3037 3037 3037 3037 3037 3037 3010 3010 3010 3010 3010 3010 3010 3010 3010 2984 2984 2984 2984 2984 2984 2984 2984 3010 3010 3010 3010 3010 3010 3010 0 4241 4190 4190 4241 4241 4241 4241 4295 4295 4295 4241 4190 4190 4190 4190 4190 0 0 0 0 0 0 0 0 0 0 0 0
0 0 0 0 0 0 0 0 0 0 0 0 0 0 0 0 0 0 0 0 0 0 0 0 0 0 0 0 0 0 0 3614 3614 3614 3614 3576 3576 3576 3576 3576 3576 3576 3614 3614 3614 3614 3614 3614 3576 3576 3576 3576 3576 3576 3614 3614 3614 3614 3614 3614 3653 3653 3653 3653 3614 3614 3614 3614 3614 3614 3614 3614 3614 3614 3614 3614 3614 3614 3614 3614 3614 3614 3614 3614 3614 3614 3614 3614 3653 3653 3653 3653 3653 3692 3692 3692 3692 3692 3692 3653 3614 3614 0 0 0 0 0 0 0 1283 1283 1283 1283 1283 1288 1288 1288 1288 1288 1288 1288 1288 1292 1292 1292 1297 1297 1297 1297 1297 1297 1297 1297 1297 1297 1297 1297 1297 1297 1297 1297 1302 1297 1297 1297 1297 1302 1302 1302 1302 1302 1302 1302 1302 1302 1302 1302 1302 1302 1302 1302 1302 1302 1302 1302 1307 1307 1307 1307 1307 1307 1307 1307 1307 1307 1307 1312 1312 1312 1312 1312 1312 1312 1312 1312 1312 1312 1317 1317 1317 1317 1317 1317 1317 1317 1322 1322 1322 1328 1328 1328 1328 1328 1328 1328 1328 1328 1328 1328 1333 1333 1333 1333 1333 1333 1333 1338 1338 1338 1338 1338 1338 1338 1338 1338 1338 1338 1343 1343 1343 1343 1343 1343 1343 1343 1343 1343 1343 1343 1343 1343 1343 1343 1343 1349 1338 1338 1338 1338 1338 1343 1688 1688 1688 1696 1696 1696 1696 1696 1696 1696 1696 1696 1696 1696 1696 1705 1705 1705 1705 1705 1705 1705 1705 1705 1696 1696 1705 1705 1705 1705 1705 1705 1713 1713 1713 1713 1713 1713 1722 1713 1713 1705 1705 1713 1713 1713 1713 1722 1722 1722 1722 1722 1722 1713 1713 1731 1748 1312 1312 1307 1307 1307 1307 1307 1307 1307 1312 1312 1312 1312 1312 1312 1312 1312 1312 1312 1312 1317 1317 1317 1322 1322 1317 1317 1317 1317 1317 1312 1312 1312 1312 1312 1317 1317 1317 1317 1317 1317 1317 1322 1322 1322 1322 1322 1317 1317 1317 1317 1317 1322 1322 1322 1322 1322 1322 1322 1322 1322 1322 1322 1322 1328 1328 1328 1328 1328 1328 1328 1328 1328 1328 1328 1328 1328 1328 1333 1333 1333 1333 1333 1333 1333 1333 1333 1333 1333 1333 1333 1333 1333 1333 1338 1338 1343 1343 1343 1343 1343 1343 1343 1343 1343 1343 1349 1349 1349 1349 1349 1343 1343 1343 1349 1349 1349 1349 1349 1349 1349 1343 1343 1343 1343 1343 1343 1343 1343 1343 1343 1343 1343 1343 1343 1343 1748 1757 1757 1757 1757 1757 1757 1757 1766 1757 1757 1757 1766 1776 1766 1766 1766 1776 1785 1794 1794 1794 1794 1804 1794 1794 1785 1785 1785 1785 3692 3692 3692 3692 3692 3692 3732 3732 3732 3732 3774 3774 3774 3774 3774 3774 3816 3816 3816 3816 3816 3732 3653 3653 3692 3692 3692 3732 3732 3732 3732 3732 3732 3732 3732 3692 3692 3653 3576 3539 3503 3468 3433 3433 3433 3433 3433 3468 3503 3539 3576 3576 3576 3614 3614 3653 3732 3732 3816 3816 3816 3774 3774 3774 3774 3816 3816 3092 3064 3064 3064 3064 3064 3064 3064 3064 3064 3064 3064 3037 3037 3037 3037 3064 3064 3064 3064 3064 3064 3064 3037 3037 3037 3037 3037 3037 3037 3037 3037 3037 3037 3037 3037 3037 3037 3037 3037 3037 3037 3037 3037 3037 3037 3010 3010 3010 3010 3010 3010 3010 3010 3010 3010 2984 2984 2984 2984 2984 2984 2984 3010 3010 3010 3010 3010 3010 3010 0 4190 4190 4190 4190 4190 4190 4241 4241 4241 4241 4190 4190 4190 4190 4190 4190 0 0 0 0 0 0 0 0 0 0 0 0
0 0 0 0 0 0 0 0 0 0 0 0 0 0 0 0 0 0 0 0 0 0 0 0 0 0 0 0 0 0 0 3614 3576 3576 3576 3576 3576 3576 3576 3576 3576 3576 3576 3576 3614 3614 3614 3614 3576 3576 3576 3576 3576 3576 3576 3614 3614 3614 3614 3614 3614 3614 3614 3614 3576 3576 3576 3576 3614 3614 3614 3614 3614 3614 3614 3614 3614 3614 3614 3614 3614 3614 3614 3614 3614 3614 3614 3614 3614 3614 3614 3614 3614 3653 3653 3692 3692 3653 3653 3653 3653 0 0 0 0 0 0 0 0 1288 1288 1288 1288 1288 1288 1288 1288 1288 1288 1288 1288 1288 1292 1292 1297 1297 1297 1297 1297 1297 1297 1297 1297 1297 1302 1302 1302 1302 1302 1302 1302 1302 1302 1302 1302 1302 1302 1302 1307 1307 1302 1302 1307 1307 1307 1307 1307 1307 1302 1302 1302 1302 1307 1307 1307 1307 1312 1312 1312 1312 1312 1312 1312 1312 1312 1312 1312 1312 1312 1312 1312 1312 1312 1312 1312 1312 1312 1317 1317 1317 1317 1317 1317 1322 1322 1322 1328 1328 1328 1328 1328 1328 1328 1328 1328 1328 1328 1328 1333 1333 1333 1333 1333 1333 1338 1338 1338 1338 1338 1338 1338 1338 1338 1343 1343 1343 1343 1343 1343 1343 1343 1343 1343 1343 1343 1343 1343 1343 1343 1343 1343 1349 1349 1349 1349 1343 1343 1343 1343 1343 1343 1680 1680 1680 1680 1680 1680 1688 1688 1688 1688 1688 1688 1688 1688 1688 1696 1696 1696 1705 1705 1705 1705 1705 1705 1696 1696 1696 1696 1696 1696 1696 1696 1696 1705 1705 1705 1705 1705 1705 1696 1696 1696 1696 1696 1696 1696 1696 1705 1705 1705 1705 1705 1705 1705 1705 1731 1748 1312 1312 1312 1312 1312 1312 1312 1312 1312 1312 1312 1312 1312 1312 1312 1312 1312 1312 1312 1317 1317 1317 1322 1322 1322 1317 1317 1317 1317 1317 1317 1317 1317 1317 1317 1322 1322 1322 1322 1322 1322 1322 1322 1322 1322 1322 1322 1317 1317 1317 1317 1322 1322 1322 1322 1322 1322 1322 1328 1322 1322 1322 1322 1328 1328 1328 1328 1328 1328 1328 1328 1328 1333 1328 1328 1333 1333 1333 1333 1333 1333 1333 1333 1333 1333 1333 1333 1333 1333 1333 1333 1333 1338 1338 1338 1343 1343 1343 1343 1343 1349 1349 1349 1349 1349 1349 1349 1349 1349 1349 1349 1349 1349 1349 1349 1349 1349 1354 1354 1349 1349 1349 1343 1343 1343 1343 1343 1343 1343 1349 1349 1349 1349 1349 1349 1349 1748 1757 1757 1757 1757 1757 1757 1757 1748 1748 1748 1748 1757 1757 1757 1757 1757 1766 1776 1785 1785 1785 1785 1794 1785 1785 1776 1776 1776 1766 1757 1757 1757 1766 1766 3692 3732 3732 3732 3732 3774 3774 3774 3774 3816 3816 3816 3816 3859 3859 3903 3903 3903 3903 3692 3692 3692 3732 3732 3774 3732 3732 3732 3732 3732 3692 3692 3614 3576 3539 3503 3468 3433 3433 3433 3433 3468 3468 3503 3539 3576 3576 3576 3576 3614 3614 3692 3732 3816 3816 3816 3816 3816 3816 3816 3816 3816 3816 3064 3064 3064 3064 3064 3064 3064 3064 3064 3064 3064 3037 3037 3037 3037 3037 3037 3064 3064 3037 3037 3037 3037 3037 3037 3037 3037 3037 3037 3037 3037 3037 3037 3037 3037 3037 3037 3037 3037 3037 3037 3037 3037 3037 3037 3010 3010 3010 3010 3010 3010 3010 3010 3010 3010 3010 3010 3010 3010 3010 3010 3010 3010 3010 3010 3010 3010 3037 3037 0 0 4190 0 4190 4190 4190 4139 4139 4190 4190 4190 4139 4139 4139 4139 4190 0 0 0 0 0 0 0 0 0 0 0 0
0 0 0 0 0 0 0 0 0 0 0 0 0 0 0 0 0 0 0 0 0 0 0 0 0 0 0 0 0 0 0 3576 3576 3539 3539 3539 3576 3576 3576 3576 3576 3576 3576 3576 3576 3576 3576 3614 3576 3576 3576 3576 3576 3576 3576 3614 3614 3614 3614 3614 3614 3614 3614 3614 3576 3576 3576 3576 3576 3576 3614 3614 3614 3614 3614 3614 3614 3614 3614 3614 3614 3614 3614 3614 3614 3614 3614 3614 3614 3614 3614 3614 3614 3653 3653 3653 3692 3653 3653 3653 3653 0 0 0 0 0 0 0 0 1288 1288 1288 1288 1288 1288 1288 1288 1288 1292 1292 1292 1292 1297 1297 1297 1297 1297 1297 1302 1302 1297 1297 1297 1297 1302 1302 1302 1302 1302 1302 1302 1302 1302 1302 1302 1302 1302 1302 1307 1307 1307 1307 1307 1302 1302 1307 1307 1312 1307 1307 1307 1307 1307 1307 1307 1312 1312 1312 1312 1312 1312 1312 1312 1312 1312 1312 1312 1317 1317 1317 1317 1317 1317 1317 1317 1317 1317 1317 1317 1317 1317 1317 1322 1328 1328 1328 1328 1328 1328 1328 1328 1333 1328 1328 1333 1333 1328 1328 1333 1333 1333 1333 1333 1333 1338 1338 1338 1338 1338 1338 1338 1338 1343 1343 1343 1343 1343 1349 1349 1349 1349 1349 1349 1349 1343 1343 1343 1343 1343 1343 1343 1349 1349 1349 1349 1349 1349 1343 1343 1343 1343 1671 1671 1671 1671 1671 1671 1680 1680 1680 1680 1680 1680 1680 1680 1680 1688 1688 1696 1696 1696 1696 1696 1696 1696 1680 1680 1688 1688 1688 1688 1688 1688 1688 1688 1696 1696 1696 1696 1696 1680 1680 1688 1688 1688 1688 1696 1696 1696 1696 1696 1688 1688 1696 1696 1696 1696 1696 1312 1312 1312 1312 1312 1312 1312 1312 1312 1312 1312 1312 1312 1312 1312 1312 1317 1317 1317 1317 1322 1322 1322 1322 1322 1322 1322 1322 1322 1317 1317 1317 1317 1317 1317 1322 1322 1322 1322 1322 1322 1322 1322 1322 1322 1322 1322 1322 1322 1322 1322 1322 1322 1322 1328 1328 1328 1328 1328 1322 1322 1322 1322 1328 1328 1328 1328 1328 1328 1328 1333 1333 1333 1333 1333 1333 1333 1333 1338 1333 1333 1333 1333 1333 1338 1333 1333 1338 1333 1333 1338 1338 1338 1338 1343 1343 1349 1349 1349 1349 1349 1349 1349 1349 1349 1349 1349 1354 1349 1349 1349 1349 1349 1349 1354 1354 1354 1354 1354 1349 1349 1349 1343 1343 1343 1343 1343 1349 1349 1349 1349 1349 1349 1349 1349 1739 1739 1748 1748 1757 1757 1748 1748 1748 1748 1739 1739 1748 1748 1748 1748 1748 1748 1748 1776 1748 1748 1766 1757 1757 1757 1757 1757 1757 1757 1757 1757 1757 1757 1757 1757 1757 3732 3732 3732 3732 3774 3774 3774 3816 3816 3816 3903 3903 3948 3994 3994 3994 0 0 3692 3692 3692 3732 3732 3774 3774 3774 3732 3732 3732 3692 3653 3576 3503 3503 3468 3468 3433 3433 3433 3433 3468 3503 3539 3539 3576 3576 3576 3576 3576 3614 3614 3653 3774 3816 3859 3816 3816 3816 3816 3816 3816 3816 3037 3037 3037 3064 3064 3064 3064 3064 3064 3064 3064 3037 3037 3037 3037 3037 3037 3037 3037 3037 3037 3037 3037 3037 3037 3037 3037 3037 3037 3037 3037 3037 3037 3037 3037 3037 3037 3037 3037 3037 3037 3037 3037 3037 3037 3010 3010 3010 3010 3010 3010 3010 3010 3010 3010 3010 3010 3010 3010 3010 3010 3010 3010 3010 3010 3010 3010 3037 3037 0 0 0 4041 0 4089 4139 4139 4139 4139 4139 4190 4139 4139 4139 4139 4139 0 0 0 0 0 0 0 0 0 0 0 0
0 0 0 0 0 0 0 0 0 0 0 0 0 0 0 0 0 0 0 0 0 0 0 0 0 0 0 0 0 0 0 3576 3539 3539 3539 3539 3576 3576 3576 3576 3539 3539 3539 3539 3576 3576 3576 3576 3539 3539 3539 3539 3539 3539 3539 3576 3576 3576 3576 3576 3576 3576 3614 3614 3576 3576 3576 3576 3576 3576 3576 3576 3576 3576 3576 3614 3576 3576 3576 3576 3614 3614 3576 3576 3576 3576 3576 3576 3576 3576 3576 3576 3576 3614 3614 3614 3614 3653 3653 3692 0 0 0 0 0 0 0 0 0 0 0 1292 1288 1288 1288 1288 1292 1292 1292 1292 1292 1292 1297 1297 1297 1302 1297 1297 1302 1302 1302 1302 1302 1302 1302 1302 1302 1302 1307 1302 1302 1307 1307 1307 1307 1302 1302 1307 1307 1312 1307 1307 1307 1302 1302 1307 1307 1312 1307 1307 1307 1312 1312 1307 1307 1312 1312 1312 1312 1312 1312 1312 1312 1317 1317 1312 1312 1317 1317 1317 1317 1317 1317 1317 1317 1317 1317 1317 1322 1322 1322 1322 1328 1333 1333 1328 1328 1333 1333 1333 1333 1333 1333 1333 1333 1333 1333 1333 1333 1333 1333 1333 1333 1333 1338 1338 1338 1338 1338 1343 1343 1343 1343 1343 1343 1349 1349 1349 1354 1354 1349 1349 1354 1349 1349 1343 1343 1343 1343 1343 1343 1349 1349 1349 1349 1349 1349 1343 1343 1343 1343 1663 1647 1647 1663 1663 1663 1663 1663 1671 1671 1671 1671 1671 1671 1671 1671 1680 1680 1688 1688 1680 1680 1671 1671 1680 1680 1680 1680 1680 1680 1680 1688 1688 1688 1688 1688 1680 1680 1680 1680 1680 1680 1680 1680 1680 1688 1688 1696 1696 1688 1680 1680 1680 1680 1688 1688 1688 1312 1312 1312 1312 1312 1312 1312 1312 1312 1312 1312 1312 1312 1312 1312 1317 1317 1317 1317 1322 1322 1322 1322 1328 1328 1322 1322 1322 1322 1322 1322 1322 1322 1322 1322 1322 1322 1322 1322 1322 1322 1322 1322 1322 1322 1322 1322 1322 1322 1322 1322 1322 1328 1328 1328 1328 1328 1328 1328 1328 1328 1328 1328 1328 1328 1328 1328 1328 1328 1328 1333 1333 1333 1333 1333 1333 1338 1338 1338 1338 1338 1338 1338 1338 1338 1343 1343 1338 1338 1338 1338 1343 1343 1343 1343 1349 1349 1349 1349 1349 1349 1349 1349 1349 1349 1349 1354 1354 1359 1359 1359 1354 1354 1354 1359 1354 1354 1359 1354 1354 1349 1349 1349 1343 1343 1349 1349 1349 1349 1349 1349 1349 1354 1354 1354 1739 1739 1739 1739 1739 1739 1739 1731 1731 1731 1731 1731 1739 1731 1731 1731 1731 1722 1722 1722 1722 1722 1731 1748 1748 1748 1748 1748 1748 1748 1748 1748 1748 1757 1748 1748 1757 1748 1748 3732 3732 3774 3774 3774 3816 3816 4041 3994 3994 4041 4089 4089 4139 0 0 4139 0 0 3732 3732 3774 3774 3774 3732 3732 3732 3692 3614 3539 3468 3468 3468 3468 3433 3433 3433 3433 3503 3539 3539 3576 3576 3576 3576 3576 3576 3576 3576 3614 3653 3816 3859 3859 3859 3859 3816 3816 3816 3816 3037 3037 3037 3064 3064 3064 3064 3064 3064 3064 3064 3037 3037 3037 3037 3037 3037 3037 3037 3037 3037 3037 3037 3037 3037 3037 3037 3037 3037 3064 3064 3064 3037 3037 3037 3037 3037 3037 3037 3037 3037 3037 3037 3037 3010 3010 3010 3010 3010 3010 3010 3010 3010 3010 3010 3010 3010 3010 3010 3010 3010 3010 3010 3010 3010 3010 3010 0 0 0 0 0 0 0 4089 4089 4089 4089 4089 4139 4190 4139 4139 4139 4089 4089 0 0 0 0 0 0 0 0 0 0 0 0
0 0 0 0 0 0 0 0 0 0 0 0 0 0 0 0 0 0 0 0 0 0 0 0 0 0 0 0 0 0 0 3539 3539 3539 3539 3539 3503 3503 3539 3539 3539 3539 3539 3539 3539 3539 3539 3539 3539 3539 3539 3503 3503 3503 3503 3503 3539 3539 3539 3539 3576 3576 3576 3576 3576 3576 3576 3576 3576 3576 3576 3576 3576 3576 3576 3576 3576 3576 3576 3576 3576 3576 3576 3576 3576 3576 3576 3576 3576 3576 3576 3576 3576 3576 3576 3576 3576 3576 3653 0 0 0 0 0 0 1586 1586 1586 1586 1586 1586 1288 1288 1288 1288 1288 1292 1292 1292 1292 1297 1297 1297 1297 1302 1302 1302 1302 1302 1302 1302 1302 1302 1302 1302 1302 1302 1302 1307 1307 1307 1307 1307 1307 1307 1307 1307 1312 1312 1312 1312 1312 1312 1312 1312 1312 1312 1317 1312 1312 1312 1312 1312 1307 1307 1312 1312 1312 1312 1312 1312 1312 1317 1317 1312 1312 1312 1317 1317 1317 1317 1317 1317 1322 1317 1317 1317 1317 1322 1322 1322 1322 1328 1333 1333 1328 1328 1333 1333 1333 1333 1333 1333 1333 1333 1333 1333 1333 1333 1333 1333 1333 1333 1333 1333 1338 1338 1343 1343 1343 1632 1632 1349 1349 1349 1349 1349 1354 1354 1354 1354 1354 1354 1349 1349 1343 1343 1343 1343 1349 1354 1354 1354 1354 1354 1349 1349 1349 1349 1349 1349 1632 1632 1639 1639 1647 1647 1655 1655 1655 1655 1655 1655 1655 1655 1655 1655 1655 1655 1655 1655 1663 1663 1663 1663 1663 1663 1663 1663 1663 1663 1663 1671 1680 1680 1671 1671 1671 1671 1671 1671 1671 1671 1671 1680 1680 1680 1680 1696 1696 1680 1671 1671 1671 1671 1671 1671 1671 1671 1317 1317 1317 1317 1317 1312 1312 1312 1312 1312 1312 1312 1317 1317 1317 1317 1317 1322 1322 1322 1328 1328 1328 1328 1322 1322 1322 1322 1322 1322 1322 1322 1322 1322 1322 1322 1322 1322 1322 1322 1322 1322 1322 1322 1328 1328 1322 1322 1328 1328 1328 1328 1328 1328 1328 1328 1328 1328 1328 1328 1328 1328 1328 1328 1328 1328 1333 1333 1333 1333 1333 1333 1338 1338 1338 1338 1343 1343 1343 1338 1338 1338 1338 1343 1343 1343 1338 1338 1338 1343 1343 1343 1343 1343 1349 1349 1349 1349 1349 1349 1349 1349 1349 1349 1354 1354 1354 1359 1359 1359 1354 1354 1354 1359 1359 1359 1359 1359 1359 1354 1354 1354 1349 1349 1354 1354 1354 1354 1354 1354 1354 1359 1359 1359 1731 1731 1731 1731 1731 1731 1731 1731 1731 1731 1722 1722 1731 1722 1722 1722 1713 1713 1722 1722 1722 1722 1722 1722 1739 1748 1739 1731 1731 1731 1739 1739 1739 1748 1748 1748 1748 1748 1748 1748 1739 1739 1739 4349 4349 4190 4190 4139 4139 4139 4139 4139 4139 0 0 0 0 0 0 3994 3859 3774 3774 3732 3732 3732 3653 3576 3468 3468 3468 3468 3433 3433 3433 3433 3468 3503 3539 3539 3576 3576 3576 3539 3539 3539 3576 3576 3576 3614 3732 3859 3903 3859 3859 3859 3859 3859 3092 3064 3064 3064 3064 3064 3064 3064 3064 3064 3064 3064 3037 3037 3037 3037 3037 3037 3037 3037 3037 3037 3037 3037 3037 3037 3037 3037 3037 3064 3064 3064 3064 3064 3064 3037 3037 3037 3037 3037 3037 3037 3037 3037 3010 3010 2984 2984 2984 3010 3010 3010 3010 3010 3010 3010 3010 3010 3010 3010 3010 3010 3010 3010 3010 3010 3010 3010 0 0 0 0 0 4041 0 4041 4041 4089 4089 4089 4089 4139 4139 4139 4139 4089 4089 0 0 0 0 0 0 0 0 0 0 0 0
0 0 0 0 0 0 0 0 0 0 0 0 0 0 0 0 0 0 0 0 0 0 0 0 0 0 0 0 0 0 0 3503 3503 3539 3539 3503 3503 3503 3503 3539 3503 3503 3503 3503 3503 3503 3503 3503 3503 3503 3503 3503 3503 3503 3503 3503 3539 3539 3539 3539 3539 3539 3539 3539 3539 3539 3576 3576 3576 3576 3576 3576 3576 3576 3576 3576 3576 3576 3576 3576 3576 3576 3576 3576 3576 3576 3576 3576 3576 3576 3576 3576 3576 3576 3576 3539 3539 3576 0 0 0 0 0 0 0 1572 1572 1579 1579 1586 1586 1288 1288 1288 1288 1288 1292 1292 1297 1297 1297 1297 1302 1302 1302 1302 1302 1302 1302 1302 1302 1302 1302 1302 1302 1302 1302 1302 1307 1307 1307 1307 1307 1307 1307 1307 1307 1312 1312 1312 1312 1312 1312 1312 1312 1312 1312 1317 1312 1312 1312 1312 1312 1307 1307 1312 1312 1312 1317 1317 1317 1317 1317 1317 1312 1312 1312 1317 1317 1317 1317 1317 1317 1322 1317 1317 1317 1317 1322 1322 1322 1322 1328 1333 1333 1328 1328 1333 1333 1333 1333 1333 1333 1333 1333 1333 1333 1333 1333 1333 1333 1333 1333 1333 1333 1338 1632 1632 1632 1632 1624 1624 1349 1349 1349 1349 1349 1354 1354 1354 1616 1616 1616 1616 1349 1349 1349 1349 1354 1354 1354 1354 1354 1354 1354 1349 1349 1349 1349 1349 1349 1632 1632 1639 1639 1639 1639 1639 1647 1647 1647 1639 1639 1647 1647 1647 1647 1647 1647 1647 1647 1655 1655 1655 1655 1655 1655 1655 1655 1655 1663 1663 1663 1663 1663 1663 1655 1655 1655 1655 1663 1655 1655 1663 1663 1663 1663 1663 1663 1663 1663 1663 1663 1663 1663 1663 1663 1663 1663 1317 1317 1312 1312 1312 1312 1317 1317 1317 1312 1312 1317 1317 1317 1317 1322 1322 1322 1322 1322 1328 1328 1328 1328 1322 1322 1322 1322 1322 1322 1322 1322 1322 1322 1322 1322 1322 1322 1322 1322 1322 1322 1322 1322 1328 1328 1328 1328 1328 1328 1328 1328 1328 1328 1328 1328 1328 1328 1328 1328 1328 1328 1333 1333 1333 1333 1333 1333 1333 1338 1338 1338 1338 1338 1338 1343 1343 1343 1343 1343 1338 1338 1343 1343 1343 1343 1343 1343 1343 1343 1343 1343 1349 1349 1349 1349 1349 1349 1349 1349 1349 1354 1354 1354 1354 1359 1359 1365 1365 1365 1359 1359 1359 1359 1359 1359 1359 1359 1359 1359 1354 1354 1354 1354 1354 1354 1354 1354 1354 1354 1354 1359 1359 1722 1722 1722 1722 1722 1722 1722 1722 1722 1722 1722 1713 1713 1713 1713 1713 1713 1705 1705 1713 1713 1713 1713 1713 1713 1713 1713 1713 1722 1722 1722 1731 1731 1731 1739 1739 1739 1739 1739 1739 1739 1739 1739 1731 4349 4349 4295 4295 4241 4190 4190 4139 4089 4089 0 0 0 0 0 0 4041 3994 3903 3903 3774 3732 3732 3614 3503 3468 3433 3433 3433 3433 3433 3433 3433 3468 3503 3539 3539 3576 3576 3576 3539 3539 3539 3576 3576 3576 3576 3653 3903 3948 3948 3948 3948 3948 3948 3092 3064 3064 3064 3064 3064 3064 3064 3064 3064 3064 3064 3037 3037 3037 3037 3037 3037 3614 3614 3037 3037 3037 3037 3037 3037 3037 3037 3064 3064 3064 3092 3092 3399 3399 3010 3010 3037 3037 3037 3037 3037 3010 3010 2984 2984 2984 2958 2958 2984 2984 3010 3010 3010 3010 3010 3037 3037 3010 3010 3010 3010 3010 3010 3010 3010 3010 3010 3010 0 4041 0 0 0 4041 3948 3948 4041 4089 4089 4089 4139 4190 4139 4139 4089 4089 0 0 0 0 0 0 0 0 0 0 0 0
0 0 0 0 0 0 0 0 0 0 0 0 0 0 0 0 0 0 0 0 0 0 0 0 0 0 0 0 0 0 0 3503 3503 3503 3539 3503 3503 3503 3503 3503 3468 3468 3468 3468 3503 3503 3503 3503 3503 3503 3503 3503 3503 3503 3503 3503 3503 3503 3503 3503 3539 3539 3539 3539 3539 3539 3576 3539 3539 3576 3576 3576 3539 3539 3539 3539 3539 3539 3539 3539 3576 3576 3576 3576 3576 3576 3576 3576 3576 3576 3576 3576 3576 3576 3576 3539 3539 3576 0 0 0 0 0 0 1572 1572 1572 1572 1572 1572 1572 1288 1288 1288 1288 1288 1292 1292 1297 1297 1302 1302 1302 1302 1307 1302 1302 1307 1307 1307 1307 1307 1307 1307 1307 1302 1302 1302 1307 1307 1307 1307 1307 1307 1312 1312 1312 1312 1312 1312 1312 1312 1312 1312 1312 1312 1312 1317 1312 1312 1312 1307 1307 1307 1307 1312 1312 1312 1317 1317 1317 1317 1317 1317 1317 1317 1317 1317 1317 1317 1322 1322 1322 1322 1322 1317 1317 1317 1322 1322 1322 1322 1328 1328 1328 1328 1328 1333 1333 1333 1333 1333 1333 1333 1333 1333 1338 1338 1338 1338 1333 1333 1333 1333 1333 1632 1624 1624 1624 1624 1624 1624 1616 1616 1616 1616 1616 1616 1616 1616 1616 1616 1616 1616 1616 1616 1354 1354 1354 1354 1354 1354 1354 1354 1354 1354 1349 1349 1349 1349 1349 1624 1624 1632 1632 1632 1639 1639 1639 1639 1639 1639 1639 1639 1639 1639 1639 1639 1639 1639 1639 1647 1647 1647 1647 1647 1647 1647 1647 1639 1639 1647 1647 1639 1639 1639 1639 1639 1639 1647 1647 1647 1647 1655 1655 1655 1655 1655 1655 1655 1655 1655 1655 1655 1655 1655 1655 1663 1663 1317 1317 1312 1312 1312 1312 1317 1317 1317 1317 1317 1317 1317 1317 1322 1322 1322 1328 1328 1328 1328 1328 1328 1328 1322 1322 1322 1322 1322 1322 1328 1328 1328 1328 1328 1328 1322 1322 1328 1328 1328 1328 1328 1328 1328 1328 1328 1328 1328 1328 1328 1328 1328 1333 1328 1328 1333 1333 1333 1333 1333 1333 1333 1333 1333 1333 1338 1338 1338 1338 1338 1338 1338 1338 1338 1343 1343 1343 1343 1343 1343 1343 1343 1343 1343 1343 1343 1343 1343 1343 1343 1349 1349 1349 1349 1349 1349 1349 1349 1349 1349 1354 1354 1354 1359 1359 1359 1365 1365 1365 1359 1359 1359 1359 1359 1359 1365 1365 1359 1359 1359 1359 1359 1359 1359 1359 1359 1359 1359 1359 1359 1359 1713 1713 1722 1713 1713 1713 1722 1722 1722 1713 1713 1713 1705 1705 1696 1696 1696 1696 1696 1696 1696 1705 1705 1705 1705 1705 1705 1705 1705 1713 1713 1713 1722 1722 1731 1739 1739 1739 1739 1739 1739 1731 1731 1731 1731 4349 4349 4295 4295 4241 4190 4190 4139 4089 4089 0 0 0 0 0 0 4041 4041 3994 3994 3994 3859 3732 3539 3468 3433 3433 3433 3433 3433 3433 3433 3433 3468 3503 3539 3539 3576 3539 3539 3539 3539 3539 3539 3539 3539 3576 3576 4041 4041 4041 4041 4041 4041 4041 3092 3064 3064 3064 3064 3064 3064 3037 3037 3064 3064 3064 3037 3037 3037 3037 3614 3614 3614 3614 3614 3576 3576 3576 3576 3064 3064 3064 3064 3399 3399 3399 3399 3399 3433 2984 2984 2984 2984 3037 3037 3037 3010 3010 2984 2984 2984 2958 2958 2984 2984 3010 3010 3010 3010 3010 3037 3037 3010 3010 3010 3010 3010 3010 3010 3010 3010 3010 3010 0 4041 4041 4041 3994 3994 3948 3948 4041 4089 4089 4089 4139 4190 4139 4139 4089 4089 0 0 0 0 0 0 0 0 0 0 0 0
0 0 0 0 0 0 0 0 0 0 0 0 0 0 0 0 0 0 0 0 0 0 0 0 0 0 0 0 0 0 0 3503 3503 3503 3539 3503 3468 3468 3433 3433 3433 3399 3399 3433 3433 3468 3468 3468 3468 3503 3503 3503 3503 3503 3503 3503 3503 3503 3503 3503 3503 3503 3539 3539 3539 3539 3539 3539 3539 3539 3539 3539 3503 3503 3503 3539 3539 3503 3503 3503 3539 3539 3539 3539 3539 3539 3539 3539 3539 3539 3576 3576 3576 3576 3576 3576 3576 0 0 0 0 0 0 1564 1564 1564 1572 1572 1572 1572 1572 1288 1288 1288 1288 1288 1292 1292 1297 1297 1302 1302 1302 1307 1307 1307 1307 1307 1312 1307 1307 1307 1307 1307 1307 1307 1302 1302 1307 1307 1307 1312 1312 1312 1312 1312 1312 1312 1312 1312 1312 1312 1312 1317 1317 1317 1317 1317 1312 1312 1312 1307 1307 1307 1586 1586 1601 1601 1601 1317 1317 1317 1317 1317 1317 1317 1317 1317 1317 1317 1322 1322 1328 1328 1328 1322 1322 1322 1328 1328 1328 1328 1328 1328 1328 1328 1328 1333 1333 1338 1338 1338 1338 1338 1338 1586 1594 1338 1338 1338 1338 1609 1624 1624 1624 1624 1624 1624 1624 1624 1616 1616 1616 1616 1616 1616 1616 1616 1616 1616 1616 1609 1609 1609 1616 1354 1354 1354 1354 1354 1354 1354 1354 1354 1354 1354 1354 1354 1354 1354 1354 1609 1609 1616 1624 1632 1632 1632 1632 1632 1632 1632 1632 1632 1632 1632 1632 1632 1632 1632 1639 1639 1639 1639 1639 1639 1639 1639 1639 1639 1639 1639 1639 1632 1632 1639 1639 1639 1639 1639 1639 1639 1639 1647 1647 1647 1647 1647 1639 1639 1639 1639 1639 1639 1639 1639 1647 1655 1663 1663 1322 1322 1317 1312 1312 1317 1317 1317 1317 1317 1317 1322 1322 1322 1322 1328 1328 1328 1328 1328 1328 1328 1328 1322 1322 1322 1328 1322 1322 1328 1328 1328 1328 1328 1328 1328 1328 1328 1328 1328 1328 1328 1328 1328 1328 1328 1328 1328 1328 1328 1333 1333 1333 1333 1333 1333 1333 1333 1333 1333 1333 1338 1338 1338 1338 1338 1338 1338 1338 1343 1343 1343 1343 1343 1343 1343 1343 1343 1343 1343 1343 1343 1343 1343 1343 1343 1343 1343 1349 1349 1349 1349 1349 1354 1349 1349 1349 1349 1354 1354 1354 1359 1359 1359 1365 1365 1365 1365 1365 1359 1359 1365 1365 1365 1365 1365 1365 1359 1359 1359 1359 1359 1359 1359 1359 1359 1359 1359 1359 1359 1359 1705 1705 1713 1705 1705 1713 1713 1713 1713 1705 1705 1705 1705 1696 1688 1688 1688 1688 1688 1688 1696 1696 1696 1696 1696 1696 1688 1688 1688 1696 1705 1713 1722 1722 1722 1731 1731 1731 1731 1731 1731 1722 1713 1713 1713 4349 4349 4295 4295 4241 4190 4190 4139 4139 0 0 0 0 0 0 0 4041 4041 4041 4041 4041 3994 3774 3539 3468 3433 3433 3433 3433 3433 3433 3433 3433 3468 3503 3539 3576 3576 3539 3539 3539 3539 3539 3539 3539 3539 3539 3576 4089 4089 4089 4041 4041 4089 4089 3092 3092 3064 3064 3064 3064 3064 3037 3037 3064 3064 3064 3064 3037 3037 3614 3614 3614 3614 3614 3614 3614 3614 3614 3576 3576 3539 3064 3064 3433 3433 3433 3399 3399 3010 2984 2984 2984 2984 3037 3692 3653 3653 3010 2984 2984 3010 2958 2958 2958 2958 3010 3010 3010 3037 3037 3037 3037 3037 3037 3037 3037 3037 3010 3010 3037 3037 3037 3037 0 4041 4041 4041 3994 3994 4041 4041 4041 4041 4041 4089 4139 4089 4089 4089 4089 4089 0 0 0 0 0 0 0 0 0 0 0 0
0 0 0 0 0 0 0 0 0 0 0 0 0 0 0 0 0 0 0 0 0 0 0 0 0 0 0 0 0 0 0 3503 3468 3468 3503 3503 3468 3433 3399 3399 3399 3399 3399 3399 3433 3433 3433 3433 3433 3433 3468 3468 3468 3468 3468 3468 3468 3468 3468 3468 3468 3468 3503 3503 3503 3503 3503 3503 3503 3503 3503 3503 3503 3503 3503 3503 3503 3503 3503 3503 3503 3503 3503 3503 3503 3503 3503 3539 3539 3539 3539 3539 3539 3539 3539 3576 3576 0 0 0 0 0 0 1557 1557 1557 1564 1564 1564 1564 1564 1564 1283 1283 1292 1292 1292 1297 1297 1297 1302 1302 1302 1307 1307 1307 1307 1307 1312 1307 1307 1307 1307 1307 1307 1307 1307 1564 1564 1564 1579 1579 1579 1579 1579 1312 1312 1312 1312 1317 1317 1317 1317 1317 1322 1322 1322 1322 1572 1579 1579 1579 1579 1579 1579 1579 1579 1579 1579 1579 1317 1317 1317 1317 1317 1317 1317 1317 1317 1317 1579 1579 1579 1579 1579 1579 1586 1328 1328 1328 1328 1328 1328 1328 1328 1328 1328 1333 1333 1586 1586 1586 1586 1586 1586 1586 1594 1601 1609 1601 1601 1609 1616 1616 1616 1616 1616 1624 1616 1616 1616 1616 1609 1609 1609 1609 1609 1609 1609 1609 1609 1609 1609 1609 1609 1349 1349 1354 1354 1354 1354 1354 1354 1354 1354 1354 1354 1354 1354 1354 1594 1594 1594 1609 1609 1624 1624 1624 1624 1632 1632 1624 1624 1624 1624 1624 1624 1632 1632 1632 1632 1632 1632 1632 1632 1632 1632 1632 1632 1632 1632 1624 1624 1624 1624 1632 1632 1632 1632 1632 1639 1639 1639 1639 1639 1639 1647 1647 1639 1639 1639 1639 1639 1639 1639 1639 1639 1647 1655 1655 1322 1322 1322 1322 1322 1322 1322 1322 1322 1322 1322 1322 1322 1328 1328 1328 1333 1333 1333 1333 1333 1333 1333 1328 1328 1328 1328 1328 1328 1328 1328 1328 1328 1328 1328 1328 1328 1328 1328 1328 1328 1328 1328 1328 1333 1328 1328 1328 1333 1333 1333 1333 1333 1333 1333 1333 1333 1333 1338 1338 1338 1338 1338 1338 1338 1338 1338 1343 1343 1343 1343 1343 1343 1343 1343 1343 1343 1343 1343 1343 1343 1349 1349 1349 1349 1349 1349 1349 1349 1349 1349 1349 1349 1354 1354 1354 1354 1359 1354 1354 1354 1359 1359 1365 1365 1365 1365 1365 1365 1365 1365 1365 1365 1365 1365 1365 1365 1365 1365 1359 1359 1359 1359 1359 1359 1359 1359 1359 1359 1359 1688 1688 1696 1705 1696 1696 1705 1705 1705 1705 1696 1696 1696 1696 1688 1688 1688 1688 1688 1688 1688 1680 1680 1680 1688 1688 1688 1688 1688 1688 1696 1696 1705 1713 1713 1722 1722 1722 1722 1722 1722 1722 1713 1713 1713 1713 1713 1696 1696 1696 0 0 0 0 0 0 0 0 0 0 0 0 4041 4041 4041 4041 4041 4041 4041 4041 3433 3433 3433 3433 3433 3433 3433 3433 3468 3468 3503 3539 3576 3576 3576 3539 3539 3539 3539 3539 3539 3539 3539 3576 3576 4089 4089 4041 4041 4089 4089 3092 3092 3064 3064 3064 3064 3064 3037 3037 3064 3064 3064 3064 3064 3614 3614 3614 3614 3614 3653 3653 3653 3614 3614 3576 3576 3539 3468 3468 3433 3433 3433 3433 3433 3010 2984 2984 2984 3732 3732 3732 3732 3692 3692 3692 3692 3614 3614 3653 2958 2958 2958 3037 3037 3037 3037 3037 3037 3037 3037 3037 3037 3037 3010 3010 3037 3037 3037 4041 4041 4041 4041 4041 4041 4041 4041 4041 4041 4041 4041 4041 4089 4041 4041 4041 4041 4041 0 0 0 0 0 0 0 0 0 0 0 0
0 0 0 0 0 0 0 0 0 0 0 0 0 0 0 0 0 0 0 0 0 0 0 0 0 0 0 0 0 0 0 0 3433 3433 3468 3468 3433 3433 3399 3399 3399 3399 3399 3399 3433 3433 3399 3399 3399 3433 3433 3433 3433 3468 3468 3468 3468 3468 3468 3468 3468 3468 3468 3468 3468 3468 3468 3468 3468 3468 3468 3468 3468 3468 3468 3503 3503 3503 3503 3503 3503 3503 3503 3503 3468 3468 3468 3468 3503 3503 3539 3539 3539 3539 3539 3576 3576 3576 0 0 0 1536 1536 1536 1550 1550 1557 1557 1557 1550 1550 1557 1283 1283 1297 1297 1297 1297 1297 1302 1302 1302 1302 1307 1307 1307 1307 1307 1312 1312 1307 1307 1312 1312 1564 1564 1564 1564 1564 1564 1564 1572 1572 1572 1579 1579 1572 1572 1317 1317 1317 1317 1579 1579 1579 1579 1572 1572 1572 1572 1572 1572 1572 1572 1564 1564 1557 1557 1564 1564 1564 1564 1572 1579 1579 1579 1579 1579 1586 1579 1579 1579 1579 1579 1579 1579 1579 1572 1572 1572 1579 1579 1579 1579 1579 1586 1586 1586 1586 1586 1586 1586 1586 1586 1586 1594 1594 1601 1601 1601 1609 1609 1609 1616 1616 1616 1616 1616 1609 1609 1609 1609 1609 1609 1609 1609 1609 1609 1609 1609 1609 1609 1609 1609 1609 1349 1349 1354 1354 1359 1359 1359 1359 1359 1359 1354 1354 1354 1354 1359 1601 1594 1594 1609 1609 1609 1609 1616 1616 1616 1616 1616 1616 1616 1616 1616 1616 1616 1624 1624 1616 1616 1624 1624 1624 1624 1624 1624 1624 1624 1624 1616 1616 1624 1624 1624 1624 1624 1624 1632 1632 1632 1632 1632 1632 1632 1639 1639 1632 1632 1632 1632 1632 1632 1632 1632 1639 1639 1647 1647 1328 1328 1322 1322 1322 1322 1322 1322 1322 1322 1322 1322 1328 1328 1333 1333 1333 1333 1333 1333 1333 1333 1333 1328 1328 1328 1328 1328 1333 1328 1328 1328 1328 1333 1333 1328 1328 1328 1333 1328 1328 1328 1328 1333 1333 1328 1328 1333 1333 1333 1338 1338 1338 1338 1338 1338 1338 1338 1338 1338 1338 1343 1343 1343 1343 1343 1343 1343 1343 1343 1343 1343 1343 1343 1343 1343 1343 1343 1343 1349 1349 1349 1349 1349 1349 1349 1349 1349 1349 1349 1349 1354 1354 1354 1354 1354 1359 1359 1354 1354 1354 1359 1365 1365 1365 1365 1365 1365 1365 1365 1365 1365 1365 1365 1365 1365 1365 1365 1365 1365 1359 1359 1359 1359 1359 1359 1359 1359 1359 1359 1365 1688 1688 1688 1688 1688 1688 1688 1688 1688 1688 1688 1688 1680 1680 1680 1680 1680 1680 1680 1680 1680 1671 1671 1680 1680 1680 1680 1680 1688 1688 1696 1696 1705 1705 1713 1713 1713 1713 1713 1713 1713 1705 1705 1705 1705 1705 1696 1696 1696 0 0 0 0 0 0 0 0 0 0 0 0 4041 4041 4041 4041 4041 4041 4041 4041 3433 3433 3433 3433 3433 3433 3433 3468 3468 3503 3539 3576 3576 3576 3576 3576 3539 3539 3539 3539 3539 3539 3539 3576 3576 4041 4041 4041 4041 4089 4041 4041 3064 3064 3064 3064 3064 3064 3064 3064 3064 3064 3064 3064 3576 3614 3614 3614 3614 3614 3653 3653 3653 3653 3614 3576 3576 3539 3468 3468 3468 3468 3433 3433 3468 3010 2984 2984 3816 3774 3774 3774 3774 3732 3732 3692 3692 3653 3653 3653 3653 3653 2933 2933 2933 3037 3037 3037 3037 3037 3037 3037 3037 3037 3010 3010 3037 3037 3037 4041 4041 4041 4041 4041 4041 4041 4041 4041 4041 4041 4041 4041 4041 4041 4041 4041 4041 4041 0 0 0 0 0 0 0 0 0 0 0 0
0 0 0 0 0 0 0 0 0 0 0 0 0 0 0 0 0 0 0 0 0 0 0 0 0 0 0 0 0 0 0 0 3433 3433 3433 3399 3399 3399 3365 3365 3399 3399 3399 3399 3399 3399 3399 3399 3399 3399 3433 3433 3433 3468 3468 3468 3468 3468 3468 3468 3433 3433 3433 3433 3433 3433 3468 3468 3433 3433 3433 3433 3468 3468 3468 3503 3503 3468 3468 3468 3468 3468 3468 3468 3433 3433 3468 3468 3468 3468 3503 3503 3539 3539 3539 3576 3576 3614 0 0 0 1536 1536 1536 1536 1536 1543 1543 1543 1543 1543 1302 1297 1297 1297 1302 1302 1302 1302 1302 1302 1302 1302 1307 1307 1307 1307 1307 1312 1312 1564 1564 1564 1564 1557 1557 1557 1557 1557 1557 1557 1572 1572 1572 1572 1572 1572 1564 1564 1572 1572 1572 1572 1572 1572 1579 1572 1564 1564 1572 1572 1572 1572 1564 1564 1564 1557 1557 1557 1564 1564 1564 1572 1579 1579 1579 1579 1579 1579 1579 1579 1572 1564 1564 1572 1572 1572 1572 1572 1572 1572 1579 1579 1579 1579 1586 1586 1586 1586 1586 1586 1586 1586 1586 1586 1586 1594 1594 1594 1594 1601 1601 1601 1609 1601 1601 1601 1601 1601 1601 1601 1601 1601 1601 1609 1601 1601 1601 1601 1601 1601 1601 1601 1601 1601 1349 1349 1354 1354 1359 1359 1359 1359 1359 1359 1359 1359 1359 1359 1359 1601 1601 1601 1601 1601 1601 1601 1601 1601 1601 1601 1609 1609 1609 1609 1609 1609 1609 1609 1609 1609 1609 1609 1609 1609 1609 1616 1616 1616 1616 1616 1616 1616 1616 1616 1616 1616 1624 1624 1624 1624 1632 1632 1632 1624 1624 1624 1616 1616 1624 1624 1624 1624 1624 1624 1632 1632 1639 1647 1328 1328 1328 1328 1328 1322 1322 1322 1322 1322 1322 1322 1328 1328 1328 1333 1333 1333 1333 1333 1333 1333 1333 1333 1328 1328 1328 1328 1328 1333 1333 1333 1333 1333 1333 1333 1333 1333 1333 1333 1333 1333 1328 1328 1333 1333 1333 1333 1333 1338 1338 1338 1338 1338 1338 1338 1338 1338 1338 1338 1343 1343 1343 1343 1343 1343 1343 1343 1343 1343 1343 1349 1349 1349 1349 1349 1349 1349 1349 1349 1349 1349 1354 1354 1354 1354 1354 1354 1354 1354 1354 1354 1359 1359 1359 1359 1359 1365 1359 1354 1354 1359 1365 1365 1365 1365 1365 1365 1365 1365 1365 1365 1365 1365 1365 1365 1365 1365 1365 1365 1365 1365 1359 1359 1359 1359 1359 1359 1359 1359 1359 1365 1680 1680 1680 1680 1680 1680 1680 1680 1680 1680 1680 1680 1680 1680 1680 1671 1671 1671 1663 1663 1655 1655 1655 1655 1655 1663 1663 1663 1671 1671 1680 1680 1688 1688 1696 1696 1696 1696 1696 1696 1696 1688 1688 1688 1688 1688 1680 1680 1680 1680 0 0 0 0 0 0 0 0 0 0 0 3948 3948 3948 3948 3994 3994 3994 3994 3433 3433 3433 3433 3433 3433 3433 3468 3468 3503 3503 3576 3576 3576 3576 3576 3539 3539 3539 3539 3539 3539 3539 3576 3576 4041 4041 4041 4041 4041 4041 4041 3064 3064 3064 3064 3064 3064 3064 3064 3064 3064 3064 3576 3576 3614 3614 3614 3614 3653 3692 3692 3692 3653 3653 3576 3576 3539 3503 3468 3468 3468 3468 3468 3468 3576 3816 3816 3816 3774 3774 3816 3816 3774 3774 3732 3692 3653 3653 3732 3732 3732 3732 2933 2933 3037 3037 3037 3037 3037 3037 3037 3037 3037 3037 3037 3037 3037 3037 3994 3994 3994 3994 3994 3994 3994 3994 3994 3994 3994 3994 3994 3994 3994 3994 4041 4041 4041 0 0 0 0 0 0 0 0 0 0 0 0
0 0 0 0 0 0 0 0 0 0 0 0 0 0 0 0 0 0 0 0 0 0 0 0 0 0 0 0 0 0 0 0 3399 3399 3399 3365 3365 3365 3365 3365 3365 3365 3399 3399 3399 3399 3399 3399 3399 3399 3365 3365 3365 3433 3433 3433 3433 3433 3399 3399 3399 3399 3399 3399 3433 3433 3433 3433 3433 3433 3433 3433 3468 3468 3468 3468 3468 3468 3468 3468 3468 3468 3468 3468 3433 3433 3468 3468 3468 3468 3468 3468 3468 3503 3503 3576 3576 3614 0 0 1516 1516 1523 1529 1529 1529 1523 1516 1516 1516 1516 1302 1302 1302 1302 1302 1302 1302 1302 1302 1302 1302 1302 1307 1307 1307 1307 1312 1312 1312 1557 1557 1550 1550 1550 1557 1557 1557 1550 1550 1557 1564 1564 1557 1557 1564 1557 1557 1557 1557 1557 1557 1557 1557 1564 1564 1557 1557 1557 1564 1564 1564 1564 1557 1557 1557 1557 1557 1557 1557 1564 1564 1564 1572 1572 1579 1572 1572 1572 1572 1557 1557 1557 1557 1564 1564 1572 1564 1564 1572 1572 1572 1572 1572 1572 1579 1579 1579 1579 1579 1579 1579 1579 1579 1586 1586 1586 1586 1586 1586 1594 1594 1594 1601 1579 1579 1579 1594 1594 1594 1594 1594 1594 1601 1601 1601 1601 1601 1601 1594 1594 1594 1594 1594 1594 1349 1349 1354 1354 1359 1359 1359 1359 1365 1365 1365 1359 1359 1359 1365 1365 1594 1594 1594 1586 1586 1586 1586 1586 1594 1594 1601 1601 1609 1609 1609 1601 1601 1601 1601 1601 1601 1601 1601 1609 1609 1609 1609 1609 1609 1609 1609 1609 1609 1609 1609 1609 1609 1616 1616 1616 1616 1616 1616 1616 1616 1609 1609 1609 1616 1616 1616 1616 1616 1616 1624 1624 1632 1632 1328 1328 1328 1328 1328 1328 1328 1328 1328 1328 1328 1328 1328 1328 1328 1333 1333 1333 1333 1333 1333 1338 1338 1338 1328 1328 1328 1333 1333 1333 1333 1333 1333 1333 1333 1333 1333 1333 1333 1338 1333 1333 1333 1333 1333 1338 1338 1333 1333 1338 1338 1338 1338 1338 1338 1338 1338 1338 1338 1338 1343 1343 1343 1343 1343 1343 1343 1343 1343 1343 1349 1349 1349 1349 1349 1349 1349 1349 1349 1349 1349 1349 1349 1354 1354 1354 1354 1354 1354 1354 1354 1359 1365 1365 1365 1359 1359 1365 1365 1365 1365 1365 1365 1365 1365 1365 1370 1370 1370 1370 1365 1365 1365 1370 1365 1365 1365 1365 1365 1365 1365 1365 1365 1365 1365 1365 1365 1365 1365 1365 1370 1370 1671 1671 1663 1663 1671 1671 1671 1671 1671 1671 1671 1671 1671 1671 1671 1663 1663 1663 1655 1655 1655 1655 1655 1655 1655 1655 1655 1655 1663 1663 1663 1671 1671 1680 1680 1680 1680 1688 1688 1688 1688 1680 1680 1680 1680 1671 1671 1671 1671 1680 0 0 0 0 0 0 0 0 0 0 0 3903 3903 3948 3948 3948 3948 3994 3994 3433 3433 3433 3433 3433 3433 3433 3468 3468 3468 3503 3576 3576 3576 3539 3539 3539 3539 3539 3539 3539 3539 3539 3539 3576 3576 3653 3994 3994 3994 3994 3064 3064 3064 3064 3064 3064 3064 3037 3037 3037 3037 3653 3614 3614 3614 3653 3653 3653 3692 3732 3732 3692 3692 3653 3576 3576 3503 3468 3468 3468 3468 3468 3539 3576 3732 3816 3816 3816 3816 3816 3816 3816 3774 3774 3732 3692 3692 3692 3732 3732 3732 3732 3037 3037 3037 3037 3037 3037 3037 3037 3037 3037 3037 3037 3037 3037 3037 3037 3994 3994 3994 3994 3948 3948 3948 3948 3994 3948 3948 3948 3903 3903 3903 3903 4041 4041 4041 0 0 0 0 0 0 0 0 0 0 0 0
0 0 0 0 0 0 0 0 0 0 0 0 0 0 0 0 0 0 0 0 0 0 0 0 0 0 0 0 0 0 0 0 3399 3365 3365 3365 3365 3365 3365 3365 3365 3365 3365 3365 3365 3365 3365 3365 3399 3399 3365 3365 3365 3433 3433 3433 3433 3399 3365 3365 3399 3365 3365 3365 3433 3433 3433 3433 3433 3433 3433 3433 3433 3433 3433 3433 3433 3433 3433 3433 3433 3433 3433 3433 3433 3433 3468 3468 3468 3433 3433 3433 3468 3468 3503 3576 3576 3576 1516 0 1516 1516 1516 1516 1516 1516 1509 1509 1509 1509 1516 1509 1302 1302 1302 1302 1302 1302 1302 1302 1302 1302 1307 1307 1307 1312 1312 1312 1312 1312 1536 1536 1543 1543 1543 1550 1550 1550 1550 1550 1550 1550 1557 1550 1550 1550 1550 1550 1550 1550 1550 1557 1557 1557 1557 1564 1557 1557 1557 1557 1557 1557 1557 1550 1550 1550 1550 1550 1550 1557 1557 1557 1557 1564 1564 1564 1564 1564 1564 1564 1557 1557 1557 1557 1564 1564 1564 1557 1557 1564 1564 1564 1564 1564 1564 1564 1564 1564 1572 1572 1572 1579 1579 1579 1579 1579 1579 1579 1579 1579 1579 1579 1579 1586 1579 1579 1579 1579 1579 1579 1586 1586 1586 1594 1594 1586 1586 1586 1586 1586 1586 1586 1586 1586 1586 1354 1354 1354 1354 1359 1359 1359 1359 1365 1365 1365 1359 1359 1365 1365 1365 1594 1586 1579 1579 1586 1579 1579 1579 1579 1579 1586 1594 1594 1594 1594 1594 1594 1594 1594 1594 1586 1586 1594 1601 1601 1601 1601 1601 1601 1601 1601 1601 1601 1601 1601 1601 1601 1609 1609 1609 1609 1609 1609 1609 1616 1609 1609 1609 1609 1609 1609 1609 1616 1616 1616 1616 1624 1624 1328 1328 1328 1328 1328 1328 1328 1328 1328 1328 1328 1328 1328 1328 1328 1333 1333 1333 1333 1333 1333 1333 1333 1338 1328 1328 1328 1333 1333 1333 1333 1333 1333 1333 1333 1333 1333 1333 1338 1338 1328 1328 1328 1328 1333 1338 1343 1338 1338 1338 1338 1338 1338 1338 1338 1338 1338 1338 1338 1338 1343 1343 1343 1343 1343 1343 1343 1343 1343 1349 1349 1349 1349 1349 1349 1349 1349 1349 1349 1349 1349 1349 1349 1349 1354 1354 1354 1354 1354 1359 1359 1365 1365 1370 1365 1365 1370 1370 1370 1365 1365 1647 1655 1655 1655 1655 1655 1655 1370 1370 1365 1365 1365 1370 1370 1365 1365 1365 1365 1365 1365 1365 1365 1365 1365 1365 1365 1365 1370 1370 1370 1663 1663 1663 1663 1663 1663 1663 1663 1663 1663 1663 1663 1663 1663 1663 1663 1663 1655 1655 1655 1655 1647 1647 1647 1647 1647 1647 1647 1655 1655 1655 1655 1655 1655 1663 1663 1663 1671 1680 1680 1680 1671 1663 1663 1671 1671 1671 1663 1663 1671 1671 1671 0 0 0 0 0 0 0 0 0 0 3903 3903 3948 3948 3948 3948 3948 3948 3433 3433 3433 3433 3433 3433 3433 3468 3468 3468 3503 3576 3576 3576 3539 3539 3539 3539 3539 3539 3503 3503 3503 3539 3539 3576 3614 3903 3994 3994 3037 3037 3037 3037 3064 3064 3064 3064 3037 3037 3037 3037 3614 3614 3614 3653 3653 3692 3692 3732 3774 3774 3732 3732 3653 3576 3503 3468 3468 3468 3468 3468 3468 3576 3614 3816 3859 3859 3859 3859 3859 3903 3903 3859 3859 3774 3732 3732 3732 3774 3774 3774 3859 3859 3037 3037 3037 3037 3037 3037 3010 3010 3010 3037 3037 3037 3037 3037 3948 3948 3948 3948 3948 3903 3903 3903 3903 3903 3903 3903 3903 3859 3859 3859 3859 3903 3948 3994 0 0 0 0 0 0 0 0 0 0 0 0
0 0 0 0 0 0 0 0 0 0 0 0 0 0 0 0 0 0 0 0 0 0 0 0 0 0 0 0 0 0 0 3399 3365 3365 3365 3365 3365 3365 3365 3365 3333 3333 3365 3365 3333 3333 3365 3365 3365 3365 3365 3365 3365 3399 3399 3399 3399 3365 3333 3333 3333 3333 3333 3365 3365 3433 3433 3399 3399 3399 3433 3433 3433 3433 3433 3433 3399 3399 3433 3433 3433 3433 3433 3433 3433 3433 3433 3433 3433 3433 3433 3433 3468 3468 3503 3503 3503 0 1503 1509 1509 1509 1509 1509 1509 1509 1503 1503 1509 1509 1509 1509 1302 1302 1302 1302 1307 1302 1302 1302 1302 1307 1307 1307 1307 1312 1312 1312 1312 1312 1529 1523 1523 1529 1529 1529 1536 1536 1536 1536 1543 1543 1543 1543 1543 1543 1550 1543 1543 1543 1543 1550 1550 1550 1550 1557 1550 1550 1550 1550 1550 1550 1543 1543 1543 1543 1543 1543 1550 1550 1550 1550 1550 1550 1557 1557 1557 1557 1557 1557 1557 1557 1557 1557 1557 1557 1557 1557 1557 1557 1557 1557 1557 1557 1557 1564 1564 1564 1564 1572 1572 1572 1572 1572 1579 1572 1572 1572 1572 1572 1572 1572 1564 1564 1564 1572 1572 1572 1572 1572 1572 1572 1579 1579 1579 1579 1579 1579 1579 1579 1579 1579 1579 1579 1579 1359 1354 1354 1359 1359 1359 1359 1365 1365 1365 1365 1365 1365 1365 1370 1370 1579 1579 1572 1572 1579 1579 1579 1579 1579 1579 1586 1586 1586 1586 1586 1586 1586 1586 1579 1579 1586 1586 1586 1594 1594 1594 1594 1594 1594 1594 1594 1594 1594 1594 1594 1594 1594 1601 1601 1601 1601 1601 1601 1601 1601 1601 1601 1601 1601 1601 1601 1601 1601 1609 1609 1609 1616 1616 1328 1328 1328 1333 1328 1328 1328 1328 1328 1328 1333 1333 1333 1333 1333 1333 1333 1333 1333 1333 1333 1333 1333 1338 1328 1328 1333 1333 1333 1338 1333 1333 1333 1333 1338 1338 1616 1616 1616 1616 1328 1328 1328 1328 1333 1343 1343 1349 1616 1343 1343 1338 1338 1338 1338 1338 1338 1338 1624 1632 1624 1343 1343 1343 1349 1349 1343 1343 1343 1349 1349 1349 1349 1349 1349 1349 1349 1349 1349 1349 1349 1349 1349 1349 1354 1354 1354 1354 1354 1359 1359 1624 1624 1632 1632 1632 1632 1632 1632 1639 1639 1639 1647 1655 1647 1647 1647 1639 1632 1624 1624 1370 1370 1376 1376 1365 1365 1365 1365 1365 1365 1365 1365 1365 1365 1370 1370 1370 1370 1370 1376 1647 1647 1655 1655 1655 1655 1655 1655 1655 1655 1655 1655 1655 1655 1655 1663 1655 1655 1655 1647 1647 1647 1647 1647 1647 1647 1647 1647 1647 1639 1639 1639 1632 1632 1639 1639 1639 1663 1663 1663 1663 1663 1655 1655 1663 1663 1663 1663 1663 1663 1663 1663 0 0 0 0 0 0 0 0 0 0 3903 3903 3903 3903 3948 3948 3903 3576 3468 3468 3468 3468 3468 3468 3468 3468 3503 3539 3653 3614 3614 3576 3539 3539 3539 3539 3539 3539 3503 3503 3503 3539 3539 3539 3614 3903 3948 3994 3037 3037 3037 3037 3064 3064 3064 3064 3037 3037 3064 3064 3614 3614 3653 3653 3692 3692 3732 3816 3816 3816 3816 3816 3576 3539 3503 3468 3468 3468 3468 3468 3503 3614 3816 3859 3903 3903 3903 3903 3903 3903 3903 3903 3903 3859 3816 3816 3859 3859 3859 3859 3859 3037 3037 3037 3037 3037 3037 3037 3010 3010 3010 3010 3010 3010 3010 3903 3903 3903 3903 3903 3903 3903 3903 3859 3859 3903 3903 3859 3859 3859 3859 3859 3859 3903 3903 3994 0 0 0 0 0 0 0 0 0 0 0 0
0 0 0 0 0 0 0 0 0 0 0 0 0 0 0 0 0 0 0 0 0 0 0 0 0 0 0 0 0 0 0 3365 3333 3333 3365 3365 3333 3333 3365 3333 3333 3333 3333 3333 3333 3333 3333 3333 3333 3333 3333 3365 3399 3399 3365 3365 3365 3333 3333 3333 3333 3333 3333 3365 3365 3365 3433 3399 3399 3399 3399 3399 3399 3399 3399 3399 3365 3365 3399 3399 3399 3433 3433 3433 3433 3433 3433 3433 3433 3433 3433 3433 3468 3468 0 1503 1503 1503 1503 1503 1503 1503 1503 1503 1503 1503 1503 1503 1509 1509 1509 1509 1317 1312 1312 1312 1307 1307 1307 1307 1307 1307 1307 1307 1312 1312 1312 1312 1312 1312 1529 1516 1516 1523 1516 1516 1523 1523 1523 1529 1529 1529 1529 1529 1529 1536 1536 1536 1536 1536 1536 1536 1536 1529 1529 1523 1523 1523 1523 1529 1529 1529 1536 1536 1543 1543 1543 1543 1543 1543 1543 1543 1543 1550 1550 1550 1550 1550 1550 1550 1550 1550 1550 1550 1557 1557 1557 1557 1557 1557 1557 1557 1557 1557 1557 1557 1557 1557 1557 1564 1564 1564 1572 1564 1564 1564 1564 1564 1564 1557 1557 1557 1557 1557 1557 1557 1564 1564 1564 1564 1564 1564 1572 1572 1572 1572 1572 1572 1572 1572 1572 1572 1572 1572 1579 1359 1359 1359 1359 1359 1365 1365 1365 1365 1365 1365 1365 1365 1365 1365 1365 1579 1572 1572 1572 1572 1572 1572 1572 1572 1572 1572 1572 1579 1579 1579 1579 1579 1579 1579 1579 1579 1579 1579 1586 1586 1586 1586 1586 1586 1586 1586 1586 1586 1586 1586 1586 1586 1586 1586 1594 1594 1594 1594 1594 1586 1586 1594 1594 1594 1594 1594 1594 1594 1601 1601 1601 1609 1609 1333 1333 1333 1333 1328 1328 1328 1328 1328 1333 1333 1333 1333 1333 1333 1333 1333 1609 1601 1601 1601 1609 1601 1601 1601 1601 1601 1601 1601 1601 1601 1333 1333 1609 1609 1609 1609 1609 1601 1601 1609 1601 1601 1601 1609 1609 1609 1609 1609 1609 1343 1338 1338 1338 1343 1338 1338 1616 1624 1624 1609 1609 1609 1609 1609 1609 1609 1616 1616 1616 1616 1616 1616 1616 1609 1349 1349 1624 1624 1624 1624 1624 1624 1632 1632 1632 1632 1632 1624 1624 1624 1624 1624 1632 1632 1632 1632 1632 1632 1632 1639 1639 1639 1647 1647 1639 1639 1639 1624 1624 1624 1624 1381 1381 1376 1370 1365 1365 1365 1365 1365 1365 1365 1365 1365 1370 1370 1370 1376 1376 1381 1624 1639 1647 1647 1647 1647 1647 1647 1647 1647 1647 1647 1647 1655 1655 1655 1655 1655 1647 1647 1647 1647 1639 1639 1639 1639 1639 1639 1639 1632 1632 1632 1624 1624 1624 1624 1624 1632 1632 1647 1647 1647 1647 1647 1655 1655 1655 1655 1655 1663 1663 1655 1655 1647 1647 0 0 0 0 0 0 0 3903 3903 3903 3903 3948 3903 3859 3539 3468 3468 3468 3468 3468 3468 3468 3503 3576 3653 3692 3614 3614 3576 3539 3539 3539 3539 3539 3539 3503 3503 3503 3539 3539 3539 3576 3614 3903 3994 3037 3037 3037 3037 3064 3064 3064 3064 3037 3037 3064 3653 3653 3653 3653 3653 3732 3732 3774 3816 3859 3816 3816 3816 3576 3503 3503 3468 3468 3468 3468 3468 3503 3692 3816 3859 3859 3903 3903 3903 3903 3903 3948 3903 3903 3903 3859 3859 3859 3859 3859 3859 3859 3037 3037 3037 3037 3037 3037 3010 3010 3010 3010 3010 3010 3010 3010 3859 3859 3859 3859 3859 3903 3859 3859 3859 3859 3859 3859 3859 3859 3859 3859 3859 3859 3859 3859 0 0 0 0 0 0 0 0 0 0 0 0 0
0 0 0 0 0 0 0 0 0 0 0 0 0 0 0 0 0 0 0 0 0 0 0 0 0 0 0 0 0 0 0 3333 3333 3333 3333 3365 3333 3333 3365 3333 3333 3333 3333 3333 3333 3333 3333 3333 3333 3333 3333 3365 3365 3365 3365 3365 3333 3300 3300 3300 3333 3300 3300 3333 3333 3333 3399 3365 3365 3365 3365 3365 3365 3365 3365 3365 3365 3365 3365 3365 3365 3399 3399 3399 3433 3433 3433 3433 3433 3433 3433 3433 3468 3468 0 1503 1503 1503 1496 1496 1496 1496 1496 1496 1496 1496 1503 1503 1503 1503 1509 1509 1317 1317 1312 1312 1312 1312 1312 1312 1312 1312 1312 1312 1312 1312 1312 1317 1317 1509 1509 1509 1509 1509 1509 1509 1516 1516 1516 1516 1516 1516 1516 1516 1523 1523 1523 1529 1529 1529 1529 1529 1529 1529 1529 1516 1516 1516 1523 1523 1523 1523 1523 1523 1529 1529 1529 1529 1529 1529 1529 1529 1529 1529 1529 1529 1529 1529 1536 1536 1543 1543 1543 1543 1550 1550 1550 1550 1550 1550 1550 1550 1550 1550 1550 1550 1550 1550 1550 1550 1550 1550 1550 1550 1550 1550 1550 1550 1550 1550 1550 1550 1550 1550 1557 1557 1557 1557 1557 1557 1557 1557 1557 1557 1557 1557 1564 1564 1564 1564 1564 1564 1564 1572 1579 1579 1359 1359 1359 1359 1365 1365 1365 1370 1370 1365 1365 1365 1365 1365 1365 1579 1564 1564 1564 1572 1572 1564 1564 1564 1564 1572 1572 1564 1564 1572 1572 1572 1572 1572 1579 1579 1579 1579 1579 1579 1579 1579 1579 1579 1579 1579 1579 1579 1579 1579 1586 1586 1586 1586 1586 1586 1586 1579 1579 1586 1586 1579 1579 1579 1586 1586 1586 1586 1586 1594 1601 1609 1333 1333 1333 1333 1333 1328 1328 1328 1328 1328 1333 1333 1333 1333 1333 1333 1333 1601 1601 1601 1601 1601 1601 1601 1601 1601 1601 1601 1601 1601 1594 1594 1594 1594 1601 1601 1601 1601 1601 1601 1601 1601 1601 1601 1601 1601 1601 1601 1601 1601 1601 1601 1601 1594 1594 1601 1601 1601 1609 1609 1609 1609 1609 1609 1609 1609 1601 1601 1609 1609 1609 1609 1609 1609 1609 1609 1609 1616 1624 1624 1624 1624 1624 1624 1624 1624 1624 1624 1624 1624 1624 1624 1624 1624 1624 1624 1624 1624 1632 1632 1632 1632 1632 1632 1647 1639 1639 1639 1632 1624 1624 1624 1624 1387 1387 1381 1370 1370 1370 1370 1365 1365 1365 1365 1370 1370 1370 1376 1376 1376 1381 1381 1624 1632 1632 1639 1647 1647 1647 1647 1639 1639 1647 1647 1647 1647 1647 1647 1647 1647 1647 1639 1639 1639 1632 1632 1632 1632 1632 1632 1632 1624 1624 1624 1624 1624 1624 1624 1624 1632 1632 1632 1639 1639 1639 1639 1639 1639 1647 1647 1655 1663 1655 1655 1655 1647 1632 1632 0 0 0 0 0 0 3903 3903 3903 3903 3903 3903 3503 3503 3468 3468 3468 3468 3468 3468 3468 3503 3576 3774 3732 3614 3614 3576 3539 3539 3539 3539 3539 3539 3503 3503 3503 3503 3539 3539 3576 3614 3859 3903 3037 3037 3037 3037 3064 3064 3064 3064 3037 3037 3037 3614 3614 3614 3653 3653 3732 3732 3774 3859 3859 3859 3816 3576 3539 3503 3468 3468 3468 3468 3468 3468 3503 3732 3816 3816 3859 3859 3903 3903 3903 3903 3903 3903 3903 3903 3859 3859 3859 3859 3859 3859 3859 3037 3037 3037 3037 3037 3037 3010 3010 3010 3010 3010 3037 3037 3037 3859 3859 3859 3859 3859 3859 3859 3859 3859 3859 3859 3859 3859 3859 3859 3859 3859 3859 3859 3859 0 0 0 0 0 0 0 0 0 0 0 0 0
0 0 0 0 0 0 0 0 0 0 0 0 0 0 0 0 0 0 0 0 0 0 0 0 0 0 0 0 0 0 0 3333 3333 3333 3333 3333 3333 3365 3365 3300 3300 3300 3300 3300 3333 3333 3333 3333 3365 3365 3365 3365 3365 3365 3365 3333 3333 3300 3300 3300 3333 3300 3300 3333 3333 3333 3365 3365 3365 3365 3365 3365 3333 3333 3333 3333 3365 3365 3365 3365 3365 3399 3399 3399 3433 3433 3399 3365 3333 3333 0 0 0 0 0 1503 1496 1496 1489 1489 1489 1496 1489 1489 1489 1489 1496 1503 1503 1503 1503 1503 1509 1317 1312 1312 1312 1312 1312 1312 1312 1312 1317 1317 1317 1317 1317 1317 1322 1509 1509 1503 1503 1509 1509 1509 1516 1509 1509 1516 1516 1516 1516 1516 1516 1516 1523 1523 1523 1523 1523 1523 1516 1516 1516 1516 1509 1509 1509 1509 1509 1509 1509 1516 1523 1523 1523 1523 1523 1523 1523 1523 1523 1523 1523 1523 1529 1529 1529 1529 1523 1523 1523 1523 1529 1529 1529 1529 1529 1529 1529 1529 1529 1529 1529 1536 1536 1536 1536 1536 1543 1543 1543 1543 1543 1543 1543 1543 1543 1543 1543 1543 1550 1550 1550 1550 1550 1550 1550 1550 1550 1550 1557 1557 1557 1557 1557 1557 1557 1557 1557 1557 1557 1564 1564 1564 1365 1365 1365 1365 1365 1365 1370 1370 1370 1370 1370 1365 1365 1370 1370 1543 1543 1543 1550 1557 1564 1557 1557 1557 1557 1557 1557 1557 1557 1557 1564 1572 1572 1572 1572 1572 1572 1572 1572 1572 1572 1572 1572 1572 1579 1579 1579 1579 1579 1579 1579 1579 1579 1579 1579 1579 1579 1572 1572 1579 1579 1579 1579 1579 1579 1579 1579 1579 1586 1586 1594 1594 1333 1333 1333 1333 1333 1333 1333 1333 1333 1333 1333 1333 1333 1333 1333 1333 1594 1586 1586 1586 1586 1594 1601 1594 1594 1594 1594 1594 1594 1594 1594 1594 1594 1586 1586 1594 1594 1594 1594 1594 1594 1601 1601 1594 1594 1601 1601 1601 1594 1594 1594 1601 1594 1594 1594 1601 1601 1601 1601 1601 1601 1601 1601 1601 1601 1609 1601 1601 1609 1609 1609 1609 1609 1609 1609 1609 1609 1616 1616 1616 1616 1624 1624 1624 1624 1616 1616 1616 1616 1616 1616 1616 1616 1616 1616 1624 1624 1624 1624 1624 1624 1632 1624 1624 1632 1632 1624 1624 1632 1624 1616 1616 1616 1392 1387 1381 1376 1370 1370 1370 1370 1370 1370 1370 1370 1376 1376 1376 1376 1381 1381 1616 1616 1624 1632 1632 1639 1639 1639 1639 1639 1639 1639 1639 1639 1639 1639 1639 1639 1639 1639 1632 1632 1632 1624 1624 1624 1624 1624 1624 1624 1624 1624 1624 1616 1616 1616 1616 1616 1624 1624 1624 1632 1632 1632 1632 1632 1632 1632 1639 1647 1647 1655 1647 1647 1639 1632 1624 1624 1624 1624 1624 1632 0 3903 3903 3903 3859 3859 3539 3468 3468 3468 3468 3468 3468 3468 3468 3468 3503 3576 3816 3774 3614 3614 3576 3539 3539 3539 3539 3539 3539 3503 3503 3503 3503 3539 3539 3576 3614 3859 3037 3037 3037 3037 3037 3064 3064 3064 3064 3037 3037 3037 3614 3614 3614 3653 3653 3732 3774 3816 3859 3859 3816 3732 3576 3503 3468 3468 3468 3468 3468 3468 3503 3539 3732 3816 3816 3859 3859 3859 3903 3903 3903 3903 3903 3903 3859 3859 3859 3859 3816 3816 3816 3816 3037 3037 3037 3037 3037 3037 3037 3010 3010 3010 3010 3037 3037 3816 3816 3816 3859 3859 3859 3859 3816 3816 3816 3859 3859 3859 3859 3859 3859 3859 3859 3859 3859 3859 3859 0 0 0 0 0 0 0 0 0 0 0 0
0 0 0 0 0 0 0 0 0 0 0 0 0 0 0 0 0 0 0 0 0 0 0 0 0 0 0 0 0 0 0 3300 3300 3300 3333 3333 3333 3333 3333 3269 3269 3269 3300 3300 3300 3300 3300 3333 3333 3365 3365 3365 3365 3365 3365 3333 3333 3300 3300 3300 3333 3333 3333 3333 3333 3333 3333 3333 3333 3333 3333 3333 3333 3333 3333 3333 3333 3333 3333 3365 3365 3399 3399 3399 3433 3399 3365 3333 3300 3300 0 0 0 0 0 1503 1496 1496 1489 1489 1489 1489 1489 1489 1489 1489 1496 1496 1496 1496 1477 1477 1483 1317 1312 1312 1312 1312 1312 1317 1317 1317 1317 1317 1317 1317 1317 1322 1322 1509 1503 1503 1503 1503 1503 1503 1509 1509 1509 1509 1509 1509 1509 1509 1509 1509 1516 1516 1516 1516 1516 1516 1516 1516 1509 1509 1503 1503 1503 1503 1503 1503 1503 1509 1509 1509 1516 1516 1516 1516 1516 1516 1516 1523 1523 1523 1523 1523 1523 1523 1516 1516 1523 1523 1523 1523 1523 1523 1523 1523 1523 1523 1523 1523 1529 1529 1529 1529 1529 1529 1529 1529 1529 1529 1529 1529 1529 1529 1536 1536 1529 1529 1536 1536 1536 1536 1536 1536 1529 1529 1536 1543 1543 1543 1550 1550 1550 1550 1550 1550 1550 1550 1550 1557 1557 1557 1557 1370 1370 1370 1370 1370 1370 1370 1376 1370 1370 1370 1370 1370 1370 1529 1536 1536 1543 1557 1557 1550 1550 1550 1550 1550 1550 1550 1550 1550 1550 1550 1564 1564 1572 1572 1564 1564 1564 1564 1564 1564 1564 1572 1572 1572 1572 1572 1572 1572 1572 1572 1572 1572 1572 1572 1572 1564 1564 1572 1572 1572 1572 1572 1572 1572 1579 1579 1579 1579 1594 1594 1333 1333 1333 1333 1333 1333 1333 1333 1333 1333 1333 1333 1333 1333 1333 1333 1564 1564 1579 1579 1579 1586 1594 1586 1586 1586 1586 1586 1586 1579 1579 1579 1579 1579 1579 1586 1586 1586 1594 1594 1594 1594 1594 1594 1594 1594 1594 1594 1594 1594 1594 1594 1594 1594 1594 1594 1594 1594 1594 1594 1594 1594 1594 1601 1601 1601 1601 1601 1601 1601 1601 1609 1609 1609 1609 1609 1609 1616 1616 1616 1616 1616 1616 1616 1609 1601 1601 1609 1609 1609 1609 1609 1609 1609 1609 1616 1616 1616 1616 1616 1616 1624 1616 1616 1616 1616 1616 1616 1616 1616 1609 1609 1609 1392 1387 1387 1381 1376 1376 1376 1370 1370 1370 1376 1376 1376 1381 1381 1381 1381 1387 1609 1616 1616 1624 1624 1624 1624 1632 1632 1632 1632 1632 1632 1632 1632 1632 1632 1632 1632 1632 1624 1624 1624 1624 1624 1624 1624 1624 1616 1616 1616 1616 1616 1616 1616 1616 1616 1616 1616 1616 1624 1624 1624 1624 1624 1624 1624 1624 1632 1632 1639 1639 1639 1639 1632 1624 1624 1624 1624 1624 1624 1632 1632 1632 1632 3774 3774 3774 3468 3468 3468 3468 3468 3468 3468 3468 3468 3503 3539 3576 3816 3774 3653 3614 3576 3539 3539 3539 3539 3539 3503 3503 3503 3503 3503 3539 3539 3576 3614 3614 3037 3037 3037 3064 3064 3064 3064 3064 3064 3037 3037 3037 3614 3614 3614 3653 3692 3732 3774 3816 3859 3816 3816 3653 3539 3468 3468 3468 3468 3468 3468 3468 3503 3576 3774 3816 3859 3859 3859 3859 3859 3859 3903 3903 3903 3903 3859 3816 3816 3816 3816 3816 3816 3816 3037 3037 3037 3037 3037 3037 3037 3037 3010 3010 3037 3037 3037 3816 3816 3816 3859 3859 3859 3859 3816 3816 3816 3859 3859 3859 3859 3859 3859 3859 3859 3859 3859 3859 3859 0 0 0 0 0 0 0 0 0 0 0 0
0 0 0 0 0 0 0 0 0 0 0 0 0 0 0 0 0 0 0 0 0 0 0 0 0 0 0 0 0 0 0 3300 3300 3300 3300 3300 3300 3333 3333 3269 3269 3269 3269 3300 3300 3300 3300 3333 3333 3333 3333 3333 3333 3333 3333 3333 3333 3333 3333 3333 3333 3333 3333 3333 3300 3300 3333 3300 3300 3333 3333 3333 3333 3333 3333 3333 3333 3333 3333 3333 3333 3365 3365 3365 3365 3365 3365 3333 3300 3300 0 0 0 0 0 1503 1496 1489 1483 1483 1483 1489 1483 1483 1483 1483 1489 1489 1483 1483 1477 1477 1477 1477 1312 1312 1312 1312 1317 1317 1317 1317 1317 1317 1317 1317 1317 1322 1322 1338 1503 1496 1496 1496 1496 1496 1503 1503 1503 1503 1503 1503 1503 1503 1503 1503 1509 1509 1509 1509 1509 1509 1503 1503 1503 1503 1496 1496 1496 1496 1496 1496 1496 1503 1503 1503 1503 1509 1509 1503 1503 1509 1509 1509 1509 1516 1509 1509 1509 1516 1509 1509 1516 1516 1516 1516 1516 1516 1516 1516 1516 1516 1516 1523 1523 1523 1523 1523 1523 1523 1523 1523 1523 1523 1523 1523 1529 1529 1529 1529 1529 1529 1529 1529 1529 1529 1529 1523 1523 1523 1529 1529 1536 1536 1536 1543 1543 1543 1543 1536 1536 1536 1536 1529 1529 1557 1376 1376 1376 1370 1370 1370 1370 1376 1376 1370 1370 1370 1370 1370 1370 1523 1529 1529 1536 1550 1543 1543 1543 1543 1543 1543 1543 1543 1543 1550 1543 1543 1543 1550 1550 1557 1557 1557 1557 1557 1557 1557 1557 1557 1557 1557 1557 1557 1564 1564 1564 1564 1564 1564 1564 1564 1557 1557 1557 1564 1564 1564 1564 1564 1564 1564 1572 1572 1572 1572 1579 1579 1333 1333 1333 1333 1338 1338 1338 1333 1333 1333 1333 1338 1338 1338 1338 1338 1557 1557 1572 1572 1572 1579 1579 1579 1579 1572 1572 1572 1572 1572 1572 1572 1572 1572 1579 1579 1579 1579 1586 1586 1586 1586 1586 1586 1586 1586 1586 1586 1586 1586 1586 1586 1586 1586 1586 1586 1586 1586 1586 1586 1594 1594 1594 1594 1594 1594 1594 1594 1601 1601 1601 1601 1601 1601 1601 1601 1601 1601 1609 1609 1609 1609 1609 1601 1601 1594 1594 1594 1594 1609 1609 1609 1609 1601 1601 1609 1609 1609 1609 1609 1609 1616 1601 1601 1601 1601 1601 1601 1609 1609 1601 1601 1601 1398 1387 1387 1381 1381 1381 1381 1376 1376 1376 1376 1381 1381 1381 1381 1381 1381 1392 1609 1609 1616 1616 1616 1624 1624 1624 1624 1624 1624 1624 1624 1624 1624 1624 1624 1624 1624 1624 1624 1616 1616 1616 1616 1616 1616 1616 1616 1609 1609 1609 1609 1609 1609 1609 1609 1609 1609 1609 1616 1616 1624 1624 1624 1624 1624 1624 1624 1624 1632 1624 1624 1624 1624 1624 1624 1624 1624 1624 1624 1624 1624 1632 1632 3692 3692 3692 3468 3433 3433 3468 3468 3468 3468 3468 3468 3503 3576 3614 3816 3774 3692 3614 3576 3539 3539 3539 3539 3539 3503 3503 3503 3503 3503 3539 3539 3576 3576 3576 3037 3037 3037 3064 3064 3064 3064 3064 3064 3037 3037 3653 3653 3653 3653 3692 3692 3732 3774 3816 3859 3816 3816 3576 3539 3468 3468 3468 3468 3468 3468 3468 3539 3576 3816 3816 3859 3859 3859 3859 3859 3859 3859 3859 3859 3859 3859 3816 3816 3816 3816 3816 3816 3816 3037 3037 3037 3037 3037 3037 3037 3037 3037 3037 3037 3037 3037 3692 3692 3692 3816 3816 3816 3816 3816 3816 3816 3816 3816 3859 3859 3859 3859 3859 3859 3859 3859 3859 3859 0 0 0 0 0 0 0 0 0 0 0 0
0 0 0 0 0 0 0 0 0 0 0 0 0 0 0 0 0 0 0 0 0 0 0 0 0 0 0 0 0 0 0 3300 3238 3238 3300 3300 3300 3333 3333 3269 3269 3269 3269 3269 3269 3269 3269 3300 3300 3333 3333 3333 3333 3333 3333 3333 3333 3333 3333 3333 3333 3333 3333 3333 3300 3300 3300 3300 3300 3300 3300 3333 3333 3300 3300 3300 3300 3300 3300 3300 3333 3365 3365 3365 3365 3365 3333 3333 0 0 0 0 0 0 0 0 1483 1483 1483 1477 1477 1483 1483 1483 1483 1483 1483 1483 1477 1477 1477 1477 1470 1470 1317 1317 1317 1317 1317 1317 1317 1317 1317 1317 1317 1317 1322 1322 1322 1338 1496 1489 1489 1489 1489 1489 1496 1496 1503 1496 1496 1496 1496 1496 1496 1496 1496 1496 1503 1503 1503 1503 1503 1503 1496 1496 1489 1489 1489 1489 1496 1496 1496 1496 1496 1496 1496 1496 1496 1503 1503 1503 1503 1503 1503 1503 1503 1503 1503 1509 1503 1503 1509 1509 1509 1503 1503 1509 1509 1509 1509 1509 1509 1509 1509 1516 1516 1516 1516 1516 1523 1516 1516 1523 1516 1516 1523 1523 1523 1523 1523 1523 1523 1523 1523 1516 1516 1516 1516 1516 1523 1523 1523 1529 1529 1536 1536 1536 1536 1529 1529 1529 1529 1523 1523 1523 1376 1376 1376 1376 1376 1370 1370 1376 1376 1370 1370 1370 1370 1370 1376 1516 1523 1523 1523 1529 1529 1529 1529 1529 1529 1529 1529 1529 1536 1536 1529 1529 1543 1543 1543 1550 1550 1550 1550 1550 1550 1550 1550 1550 1543 1543 1550 1550 1550 1550 1557 1557 1557 1557 1557 1557 1557 1550 1550 1557 1557 1564 1557 1557 1564 1564 1564 1564 1557 1557 1564 1564 1333 1333 1333 1333 1338 1338 1338 1338 1338 1338 1338 1338 1338 1338 1338 1338 1550 1557 1564 1564 1564 1572 1572 1572 1572 1572 1572 1572 1564 1564 1557 1557 1564 1564 1564 1572 1572 1572 1572 1572 1579 1579 1579 1572 1572 1579 1579 1579 1579 1579 1579 1586 1586 1586 1579 1579 1579 1579 1579 1579 1579 1586 1586 1586 1586 1594 1594 1594 1594 1594 1594 1594 1594 1594 1594 1594 1594 1594 1601 1601 1601 1601 1601 1601 1586 1586 1586 1586 1586 1594 1594 1594 1601 1601 1601 1601 1601 1601 1601 1601 1601 1601 1594 1594 1601 1601 1601 1601 1601 1601 1601 1601 1404 1404 1392 1387 1387 1387 1381 1381 1381 1376 1376 1381 1381 1381 1381 1381 1381 1387 1601 1601 1609 1609 1609 1609 1616 1616 1616 1616 1616 1616 1616 1616 1616 1616 1616 1616 1616 1616 1616 1616 1616 1616 1616 1616 1609 1609 1609 1609 1609 1609 1609 1609 1609 1609 1609 1609 1609 1609 1609 1616 1616 1616 1616 1624 1624 1624 1624 1624 1624 1624 1624 1624 1624 1624 1616 1616 1616 1624 1624 1624 1624 1624 1632 1632 3692 3692 3692 3433 3433 3433 3468 3468 3468 3468 3468 3468 3539 3576 3614 3816 3732 3692 3614 3576 3539 3539 3539 3539 3539 3503 3503 3503 3503 3503 3539 3539 3576 3576 3576 3037 3037 3037 3064 3064 3064 3064 3064 3064 3037 3037 3653 3653 3653 3692 3692 3732 3732 3774 3774 3816 3816 3774 3576 3539 3503 3468 3468 3468 3468 3503 3503 3576 3614 3774 3816 3859 3859 3859 3859 3859 3859 3859 3859 3859 3859 3816 3816 3816 3816 3774 3732 3732 3774 3774 3037 3037 3037 3037 3037 3037 3037 3037 3037 3037 3037 3037 3692 3692 3692 3732 3816 3816 3816 3774 3774 3774 3816 3816 3816 3816 3816 3816 3816 3816 3859 3859 3859 3859 0 0 0 0 0 0 0 0 0 0 0 0
