0 0 0 0 0 0 0 0 0 0 0 0 0 0 0 0 0 0 0 0 0 0 0 0 0 0 0 0 0 0 0 0 0 0 2016 2016 2016 2016 2016 2016 2016 2016 2016 2016 2016 2016 2016 2016 2016 2016 2016 2016 2016 2016 2016 2016 2016 2016 2016 2016 2016 2016 2016 2028 2028 2028 2028 2028 2028 2028 2016 2016 2016 2016 2016 2016 2016 2016 2016 2016 2016 2016 2028 2028 2028 2040 2040 2040 2040 2028 2028 2028 2028 2028 2028 2028 2040 2040 2040 2040 2040 2040 2040 2040 2040 2040 2040 2040 2040 2040 2040 2040 2040 2053 2053 2053 2053 2053 2053 2065 2065 2065 2065 2065 2078 2078 2065 2065 2065 2065 1804 1804 1813 1813 1813 1813 1813 1813 1813 1823 1823 1823 1833 1843 1853 1863 1873 1883 1894 1915 1926 2078 2090 2090 2090 2090 2078 2078 2078 2078 2078 2078 2078 2078 2078 2078 2090 2090 2090 2090 2090 2090 2090 2090 2090 2090 2090 2090 2090 2090 2090 2103 2103 2103 2103 2103 2103 2103 2103 2103 2103 2103 2103 2103 2103 2103 2103 2103 2103 2103 2116 2116 2116 1696 1696 1696 1696 1696 1705 1705 1705 1705 1705 1705 1713 1713 1713 1713 1713 1722 2116 2116 2116 2116 2116 2129 2129 2129 2143 2143 2143 2143 2156 2156 1853 1853 1853 1863 1863 1873 1873 1873 1873 1557 1550 1550 1550 1550 1550 1550 1550 1550 1550 1550 1550 1557 1557 1564 1572 1572 1572 1572 1579 2129 2129 2143 2129 2129 2116 2103 2090 2090 2078 2078 2078 2078 2090 2090 2090 2116 2116 2129 2143 2156 2170 2170 1863 1863 1873 1873 1883 1894 1915 1915 1926 1926 1936 1947 1959 1970 1970 1970 1981 1981 1981 2129 1496 1496 1496 1496 2156 2156 2156 2156 1470 1470 1470 1470 1470 1470 1464 1464 1464 1464 1458 1458 1458 1458 1458 1458 1458 1452 1452 1452 1452 1445 1445 1439 1439 1433 1433 1427 1427 1421 1415 1415 1415 1415 1415 1415 1415 1415 1415 1427 1433 1433 1439 1439 1439 1452 1458 1483 2156 2156 2156 2156 2170 2170 2184 2184 2184 2198 2198 2198 2198 2198 2198 2198 2198 2198 2198 2198 2198 2212 2212 2212 2212 2212 2212 2212 1804 1804 1804 1804 1804 1804 1804 1804 1804 1804 1804 1813 2170 2170 2198 2212 2212 2212 2212 2212 2226 2226 2226 2212 2212 2212 2212 2212 2212 2212 2212 2212 2212 2212 2212 2212 2212 2212 2212 2212 1843 1843 1843 1843 1843 1853 1853 1843 1843 1410 1410 1410 1410 1410 1410 1410 1410 1410 1410 1410 1410 1410 1410 1410 1410 1410 1410 1410 1404 1404 1404 1404 1404 1404 1404 1404 1404 1404 1404 1404 1404 1404 2103 2103 2103 2103 2103 2103 2103 2103 2116 2143 2170 2198 2226 2226 2226 2226 2226 2226 2226 2226 2226 2226 2226 2241 2241 2241 2226 2226 2226 2212 2212 2212 2212 2212 2212 2212 2212 2212 2226 2226 2226 2226 2226 2226 2212 2212 2212 2212 2226 2226 2226 2226 2226 2226 2241 2226 2226 2241 2241 2241 2241 2241 2241 2241 2241 2241 2241 2241 2241 2241 2241 2241 2241 2241 2241 2241 2241 2226 2226 2241 2241 2241 2241 2241 2241 2241 2241 2241 2241 2241 2256 2256 2241 2241 2256 2256 2256 2241 2241 2256 2256 2256 2256 2256 2241 2241 2241 2241 2241 2241 2241 2241 2226 2226 2241 2226 2226 2226 2226 2226 2241 2241 2241 2241 2241 2241 2241 2241 2226 2226 2226 2241 2241 2226 2226 2226 2226 2226 2226 2226 2226 2226 2226 2226 2226 2241 2241 2241 2241 2241 2241 2226 2226 2226 2226 2226 2226 2226 2226 0 0 0 0 0 0 0 0 0
0 0 0 0 0 0 0 0 0 0 0 0 0 0 0 0 0 0 0 0 0 0 0 0 0 0 0 0 0 0 0 0 0 0 2005 2005 2005 2016 2016 2016 2016 2005 2005 2005 2005 2005 2005 2005 2016 2016 2016 2016 2016 2016 2016 2016 2016 2016 2016 2016 2016 2016 2016 2016 2016 2028 2016 2016 2016 2016 2016 2016 2016 2016 2016 2016 2016 2016 2016 2016 2016 2016 2016 2028 2028 2028 2028 2028 2028 2016 2016 2016 2016 2016 2028 2028 2040 2040 2040 2040 2040 2040 2040 2040 2040 2040 2040 2040 2040 2040 2040 2040 2040 2040 2053 2053 2053 2053 2053 2053 2065 2065 2065 2065 2065 2065 2053 2053 2053 2053 1804 1804 1813 1813 1813 1813 1813 1813 1823 1823 1823 1833 1833 1843 1853 1863 1873 1883 1904 1926 1981 2065 2078 2090 2090 2090 2078 2078 2078 2078 2078 2078 2078 2078 2078 2078 2078 2078 2078 2078 2090 2090 2090 2090 2078 2078 2090 2090 2090 2090 2090 2090 2090 2090 2090 2103 2103 2090 2090 2090 2090 2090 2103 2090 2090 2090 2090 2103 2103 2103 2103 2116 2116 1705 1705 1705 1705 1705 1705 1705 1705 1705 1705 1705 1713 1713 1713 1713 1713 1722 2103 2103 2103 2103 2103 2116 2116 2116 2129 2129 2143 2143 2143 1843 1843 1853 1853 1863 1863 1863 1863 1873 1873 1557 1550 1550 1550 1550 1550 1550 1550 1550 1550 1550 1557 1557 1557 1572 1572 1572 1579 1579 1579 2129 2129 2129 2129 2129 2116 2103 2090 2090 2078 2078 2078 2078 2090 2090 2090 2116 2116 2116 2129 2143 1853 1853 1853 1863 1863 1873 1883 1894 1904 1915 1926 1936 1936 1947 1959 1970 1970 1970 1981 1981 1981 2129 1489 1489 1496 1496 2156 2156 2156 2156 2156 1477 1477 1477 1470 1470 1470 1464 1464 1464 1458 1458 1458 1458 1458 1464 1458 1458 1452 1452 1452 1445 1445 1439 1439 1439 1433 1427 1427 1421 1415 1415 1415 1415 1415 1415 1415 1415 1415 1427 1433 1433 1433 1439 1439 1452 1458 2143 2143 2156 2156 2156 2170 2170 2170 2170 2184 2184 2184 2184 2184 2184 2184 2184 2184 2198 2184 2184 2184 2198 2198 2212 2198 2198 2198 2212 1804 1804 1804 1804 1804 1804 1804 1804 1804 1804 1804 1813 1813 2170 2184 2198 2198 2198 2212 2212 2212 2212 2212 2198 2198 2198 2198 2212 2212 2212 2212 2212 2212 2212 2212 2212 2198 2198 2198 2198 1863 1853 1853 1853 1853 1853 1853 1843 1843 1853 1410 1410 1410 1410 1410 1410 1410 1410 1410 1410 1410 1415 1415 1410 1410 1410 1410 1410 1410 1410 1404 1404 1404 1404 1404 1404 1404 1404 1404 1404 1404 2156 2143 2103 2103 2103 2116 2116 2116 2116 2129 2156 2184 2212 2212 2212 2212 2212 2226 2226 2212 2212 2212 2212 2226 2226 2226 2226 2226 2226 2226 2212 2212 2198 2198 2212 2212 2212 2212 2212 2212 2212 2212 2212 2212 2212 2212 2198 2198 2212 2212 2212 2212 2212 2226 2226 2226 2226 2226 2226 2226 2226 2226 2226 2226 2226 2226 2226 2241 2241 2241 2241 2241 2241 2241 2226 2226 2226 2226 2212 2212 2226 2226 2226 2226 2226 2226 2226 2241 2241 2241 2241 2241 2241 2241 2241 2241 2241 2241 2241 2241 2241 2241 2241 2241 2241 2241 2241 2241 2241 2241 2241 2241 2241 2226 2226 2226 2226 2226 2226 2226 2226 2226 2226 2226 2226 2226 2226 2226 2226 2226 2226 2226 2241 2226 2226 2226 2226 2226 2226 2226 2226 2226 2212 2212 2226 2226 2226 2226 2226 2241 2226 2226 2226 2226 2226 2226 2226 2226 2226 2226 0 0 0 0 0 0 0 0 0
0 0 0 0 0 0 0 0 0 0 0 0 0 0 0 0 0 0 0 0 0 0 0 0 0 0 0 0 0 0 0 0 0 0 2005 2005 2005 2005 2005 2005 2005 2005 2005 2005 2005 2005 2005 2005 2005 2005 2005 2005 2016 2016 2016 2016 2016 2016 2016 2016 2016 2016 2016 2016 2016 2016 2016 2016 2016 2016 2005 2005 2005 2005 2005 2005 2005 2005 2005 2005 2005 2005 2005 2016 2016 2016 2016 2016 2016 2016 2016 2016 2016 2016 2016 2016 2028 2028 2028 2040 2040 2040 2040 2040 2040 2040 2028 2028 2028 2040 2040 2040 2040 2040 2040 2040 2040 2040 2040 2053 2053 2053 2053 2053 2065 2065 2053 2053 2053 2053 1813 1813 1813 1813 1813 1813 1813 1813 1823 1823 1823 1833 1833 1843 1853 1873 1883 1915 1947 1959 1981 2040 2065 2078 2078 2090 2078 2078 2078 2078 2065 2065 2065 2065 2065 2065 2065 2078 2078 2078 2078 2078 2078 2078 2078 2078 2078 2078 2078 2090 2090 2090 2090 2090 2090 2090 2090 2090 2090 2090 2090 2090 2090 2090 2090 2090 2090 2090 2090 2090 2103 2103 2103 1705 1705 1705 1705 1705 1705 1705 1705 1705 1705 1705 1713 1713 1713 1713 1713 2103 2103 2103 2103 2103 2103 2116 2116 2116 2129 2129 2143 2143 1833 1833 1843 1853 1853 1853 1863 1863 1863 1863 1873 1557 1557 1550 1550 1550 1550 1550 1550 1550 1550 1550 1557 1557 1564 1572 1572 1572 1579 1579 1586 2129 2129 2129 2129 2129 2116 2116 2103 2090 2078 2078 2078 2090 2090 2090 2090 2116 2116 2116 2129 1843 1843 1853 1853 1853 1863 1863 1873 1894 1904 1926 1926 1936 1947 1947 1959 1970 1970 1970 1981 1981 1981 2116 1489 1489 1496 2143 2156 2156 2156 2156 2156 2143 2143 2129 2129 1470 1470 1464 1464 1464 1458 1458 1458 1458 1458 1464 1458 1458 1452 1452 1452 1445 1445 1439 1439 1439 1433 1427 1427 1421 1421 1415 1415 1415 1415 1415 1415 1415 1421 1427 1433 1433 1433 1433 1433 1433 2143 2143 2143 2156 2156 2156 2170 2170 2170 2170 2170 2170 2184 2170 2170 2170 2170 2184 2184 2184 2184 2184 2184 2198 2198 2198 2198 2198 2198 2212 1804 1804 1804 1804 1804 1804 1804 1804 1804 1804 1804 1813 1813 2156 2170 2184 2184 2198 2198 2198 2212 2212 2212 2198 2198 2198 2198 2198 2198 2198 2198 2198 2198 2198 2198 2198 2198 2198 2198 2198 1863 1853 1853 1853 1853 1853 1853 1853 1853 1853 1873 1873 1415 1410 1410 1410 1410 1410 1410 1410 1415 1415 1415 1415 1415 1410 1410 1410 1410 1410 1410 1410 1410 1410 1404 1404 1404 1404 1404 1404 2143 2143 2129 2116 2116 2116 2116 2116 2116 2116 2143 2170 2184 2212 2212 2212 2212 2212 2212 2212 2212 2212 2212 2212 2212 2212 2212 2226 2212 2212 2212 2212 2212 2198 2198 2198 2198 2198 2198 2198 2198 2198 2198 2198 2198 2198 2198 2198 2198 2198 2212 2212 2212 2212 2212 2226 2226 2212 2212 2226 2212 2212 2212 2212 2226 2226 2226 2226 2226 2226 2226 2226 2226 2226 2226 2212 2212 2212 2212 2212 2212 2212 2212 2212 2212 2212 2212 2226 2226 2226 2226 2226 2241 2241 2241 2226 2226 2226 2226 2226 2226 2226 2226 2241 2241 2241 2241 2241 2241 2241 2226 2226 2226 2226 2212 2212 2212 2212 2212 2226 2226 2226 2226 2226 2226 2226 2226 2226 2226 2226 2226 2226 2226 2226 2226 2226 2226 2226 2226 2226 2212 2212 2212 2212 2212 2212 2212 2226 2226 2226 2226 2226 2226 2212 2212 2212 2212 2212 2212 2226 2226 0 0 0 0 0 0 0 0 0
0 0 0 0 0 0 0 0 0 0 0 0 0 0 0 0 0 0 0 0 0 0 0 0 0 0 0 0 0 0 0 0 0 0 1981 1981 1981 1993 1993 1993 1993 1993 1993 1993 1993 1993 1993 1993 2005 2005 2005 2005 2005 2005 2005 2005 2005 2005 2005 2005 2005 2005 2005 2005 2005 2005 2005 2005 2005 2016 2005 2005 2005 2005 2005 2005 2005 2005 2005 2005 2005 2005 2005 2005 2005 2016 2016 2016 2016 2005 2005 2005 2005 2005 2016 2016 2016 2016 2016 2028 2028 2028 2028 2028 2028 2028 2028 2028 2028 2028 2028 2040 2040 2040 2040 2040 2040 2040 2040 2040 2053 2053 2053 2053 2053 2053 2053 2040 2040 2053 1813 1813 1813 1813 1813 1813 1813 1823 1823 1823 1823 1833 1833 1843 1853 1873 1894 1936 1959 1970 1981 2016 2053 2065 2065 2078 2065 2065 2065 2065 2065 2065 2065 2065 2065 2065 2065 2065 2065 2065 2078 2078 2078 2078 2078 2078 2078 2078 2078 2078 2078 2078 2078 2078 2090 2090 2090 2090 2090 2090 2090 2090 2090 2090 2090 2078 2078 2090 2090 2090 2090 2103 2103 1705 1705 1705 1705 1705 1705 1705 1705 1705 1705 1705 1713 1713 1713 1713 1713 2090 2090 2090 2090 2103 2103 2103 2116 2116 2116 2129 2143 1833 1833 1833 1843 1853 1853 1853 1863 1863 1863 1863 1863 1557 1557 1557 1550 1550 1550 1550 1557 1557 1557 1557 1557 1557 1564 1572 1572 1572 1579 1579 1579 2129 2129 2129 2129 2129 2116 2116 2103 2090 2090 2090 2090 2090 2090 2090 2103 2116 2116 2116 1843 1843 1843 1853 1853 1853 1853 1863 1873 1894 1904 1926 1936 1936 1947 1959 1970 1970 1970 1970 1981 1981 2116 2116 2116 2129 2129 2129 2143 2143 2143 2143 2156 2156 2156 2143 2143 2129 2129 2143 2156 2156 2156 2156 2156 1458 1458 1464 1458 1458 1452 1452 1452 1452 1445 1445 1439 1439 1433 1427 1427 1421 1421 1415 1415 1415 1415 1415 1415 1421 1427 1433 1433 1433 1433 1433 1433 1433 2143 2143 2143 2156 2156 2156 2170 2170 2170 2170 2170 2170 2170 2170 2170 2170 2170 2170 2170 2170 2170 2170 2184 2184 2184 2184 2184 2198 2198 2198 1804 1804 1804 1804 1804 1804 1804 1804 1813 1813 1813 1813 1813 2156 2170 2170 2184 2184 2184 2184 2198 2198 2198 2198 2184 2184 2184 2198 2198 2198 2198 2198 2198 2198 2198 2198 2198 2184 2184 2184 1863 1863 1853 1853 1853 1853 1863 1863 1863 1863 1873 1873 1873 1873 1410 1410 1410 1415 1415 1415 1421 1421 1421 1415 1415 1415 1415 1415 1410 1410 1410 1410 1410 1410 1404 1404 1404 1404 1404 1404 2143 2129 2129 2116 2116 2129 2129 2129 2143 2143 2156 2184 2198 2198 2212 2212 2212 2212 2212 2212 2198 2198 2198 2198 2198 2198 2198 2212 2212 2198 2198 2198 2198 2198 2198 2198 2198 2198 2184 2184 2198 2198 2198 2198 2198 2198 2198 2198 2198 2198 2198 2198 2198 2212 2212 2212 2212 2212 2212 2212 2212 2212 2212 2212 2212 2212 2212 2212 2212 2212 2212 2212 2212 2212 2212 2212 2198 2198 2198 2198 2198 2198 2198 2212 2212 2212 2212 2212 2212 2212 2226 2226 2226 2226 2212 2212 2212 2212 2226 2226 2226 2226 2226 2226 2226 2226 2226 2226 2226 2226 2226 2226 2212 2212 2212 2198 2198 2198 2198 2212 2212 2212 2226 2226 2226 2226 2226 2226 2226 2226 2212 2212 2212 2226 2226 2226 2226 2226 2212 2212 2212 2212 2198 2198 2198 2198 2198 2212 2212 2212 2226 2212 2212 2212 2212 2212 2212 2212 2212 2212 2226 0 0 0 0 0 0 0 0 0
0 0 0 0 0 0 0 0 0 0 0 0 0 0 0 0 0 0 0 0 0 0 0 0 0 0 0 0 0 0 0 0 0 0 1981 1981 1981 1981 1981 1981 1981 1981 1981 1993 1993 1993 1993 1993 1993 1993 1993 1993 1993 1993 2005 2005 1993 1993 1993 1993 1993 1993 1993 2005 2005 2005 2005 2005 2005 2005 1993 1993 1993 1993 2005 1993 1993 1993 1993 1993 1993 1993 1993 1993 1993 2005 1993 1993 1993 1993 2005 2005 2005 2005 2005 2005 2005 2016 2016 2028 2016 2016 2016 2016 2016 2016 2016 2016 2016 2028 2028 2028 2040 2040 2040 2028 2028 2040 2040 2040 2040 2040 2040 2053 2053 2053 2040 2040 2040 2040 1813 1813 1813 1813 1823 1823 1823 1823 1823 1823 1823 1833 1833 1843 1853 1883 1915 1947 1959 1970 1981 2016 2040 2053 2065 2078 2065 2065 2065 2065 2065 2065 2053 2053 2053 2053 2053 2053 2065 2065 2065 2065 2065 2065 2065 2065 2065 2065 2065 2078 2078 2078 2078 2078 2078 2078 2078 2078 2078 2078 2090 2090 2090 2090 2078 2078 2078 2078 2090 2090 2090 2103 2103 1705 1705 1705 1705 1705 1705 1705 1705 1705 1705 1705 1713 1713 1713 1713 1713 2090 2090 2090 2090 2090 2090 2103 2116 2116 2116 2129 1833 1833 1833 1833 1853 1853 1853 1853 1853 1863 1863 1863 1863 1564 1557 1557 1557 1557 1557 1557 1557 1557 1557 1557 1564 1564 1564 1572 1572 1572 1579 1579 1579 2116 2116 2116 2116 2116 2116 2103 2103 2090 2090 2090 2090 2090 2090 2090 2103 2116 2116 1843 1843 1843 1843 1853 1853 1853 1853 1863 1873 1894 1915 1926 1947 1947 1959 1959 1970 1970 1970 1981 1981 1981 2116 2116 2116 2116 2129 2129 2129 2129 2129 2129 2143 2143 2143 2143 2143 2129 2129 2143 2143 2129 2129 2143 2143 2129 2129 2129 2129 1458 1452 1452 1452 1452 1445 1439 1439 1439 1433 1427 1427 1421 1421 1415 1415 1415 1415 1421 1421 1427 1433 1433 1433 1433 1433 1433 1433 1433 2143 2143 2143 2156 2156 2156 2170 2170 2170 2170 2170 2170 2170 2170 2170 2170 2170 2170 2170 2170 2170 2170 2170 2170 2184 2184 2184 2170 2170 2170 1804 1804 1804 1804 1804 1804 1804 1804 1813 1813 1813 1813 1813 1833 2170 2170 2170 2184 2184 2184 2184 2198 2198 2184 2184 2184 2184 2198 2198 2198 2198 2184 2184 2184 2184 2184 2184 2184 2184 2184 1863 1863 1863 1853 1853 1863 1863 1863 1863 1873 1873 1873 1873 0 1421 1421 1421 1421 1421 1421 1421 1421 1421 1421 1421 1421 1421 1415 1415 1415 1410 1410 1410 1410 1410 1410 1410 1410 1410 1410 2143 2129 2129 2129 2129 2129 2129 2143 2143 2156 2156 2170 2184 2198 2198 2198 2198 2212 2198 2198 2198 2198 2198 2198 2198 2198 2198 2212 2212 2198 2198 2198 2198 2184 2184 2184 2184 2184 2184 2184 2184 2184 2184 2184 2184 2184 2198 2198 2198 2198 2198 2198 2198 2198 2198 2198 2198 2198 2198 2198 2198 2198 2198 2198 2198 2198 2198 2198 2212 2212 2212 2212 2212 2212 2198 2198 2198 2198 2198 2198 2198 2198 2198 2198 2198 2198 2198 2212 2212 2212 2212 2212 2226 2212 2212 2212 2212 2212 2212 2212 2212 2226 2226 2226 2226 2226 2226 2226 2226 2226 2212 2212 2212 2212 2212 2198 2198 2198 2198 2198 2198 2198 2212 2212 2212 2212 2226 2226 2226 2212 2212 2212 2198 2198 2212 2198 2198 2212 2212 2212 2198 2198 2184 2184 2198 2198 2198 2198 2212 2212 2212 2212 2198 2198 2198 2198 2198 2212 2212 2212 2212 0 0 0 0 0 0 0 0 0
0 0 0 0 0 0 0 0 0 0 0 0 0 0 0 0 0 0 0 0 0 0 0 0 0 0 0 0 0 0 0 0 0 0 1970 1970 1970 1981 1981 1981 1981 1981 1981 1981 1981 1970 1970 1981 1981 1981 1981 1981 1993 1993 1993 1993 1993 1993 1993 1993 1993 1993 1993 1993 1993 1993 1993 2005 2005 2005 1993 1993 1993 1993 1993 1993 1993 1993 1993 1993 1993 1993 1993 1993 1993 1993 1993 1993 1993 1993 1993 1993 2005 2005 2005 2005 2005 2005 2005 2005 2005 2005 2005 2005 2005 2005 2005 2005 2005 2005 2005 2016 2016 2016 2016 2016 2016 2028 2028 2028 2040 2040 2040 2040 2040 2040 2040 2040 2040 2040 1813 1813 1813 1813 1823 1823 1823 1823 1823 1823 1823 1833 1843 1843 1873 1894 1936 1947 1959 1970 1981 2028 2040 2053 2053 2065 2053 2053 2053 2053 2053 2053 2053 2053 2053 2040 2040 2053 2053 2053 2053 2053 2053 2065 2065 2065 2065 2065 2065 2065 2065 2065 2065 2065 2065 2065 2065 2065 2078 2078 2078 2078 2078 2078 2078 2078 2078 2078 2078 2078 2090 2090 2090 1705 1705 1705 1705 1705 1705 1705 1705 1705 1705 1705 1713 1713 1713 1713 1722 2078 2078 2090 2090 2090 2090 2103 2103 2103 2116 1833 1833 1833 1833 1843 1853 1853 1853 1853 1853 1863 1863 1863 1863 1564 1557 1557 1557 1557 1557 1557 1557 1557 1557 1564 1564 1564 1572 1572 1572 1572 1579 1579 1579 2116 2116 2116 2116 2116 2103 2103 2090 2090 2090 2090 2090 2090 2090 2090 2103 2116 1843 1843 1843 1843 1853 1853 1853 1853 1853 1863 1873 1894 1926 1936 1959 1959 1970 1970 1970 1970 1970 1981 1981 1993 2103 2103 2116 2116 2116 2129 2129 2129 2129 2129 2129 2129 2129 2129 2129 2129 2129 2129 2129 2129 2129 2143 2143 2129 2116 2116 2129 2116 2103 1458 1452 1452 1445 1439 1439 1439 1433 1427 1427 1427 1421 1421 1421 1415 1415 1421 1427 1427 1433 1433 1433 1433 1433 1439 1439 2129 2143 2143 2143 2156 2156 2156 2170 2170 2170 2170 2156 2156 2156 2156 2156 2156 2156 2170 2170 2170 2170 2170 2170 2170 2170 2170 2170 2156 2156 2156 1804 1804 1804 1804 1804 1813 1813 1813 1813 1813 1813 1823 1823 1833 2156 2170 2170 2170 2170 2170 2184 2184 2184 2184 2170 2170 2170 2184 2184 2184 2184 2184 2184 2184 2170 2170 2170 2170 2170 2170 1863 1863 1863 1863 1863 1863 1863 1873 1873 1873 1873 1873 1873 0 1421 1421 1421 1427 1427 1427 1427 1427 1427 1427 1427 1427 1421 1421 1415 1415 1415 1410 1410 1410 1410 1410 1410 1415 1415 1415 2143 2129 2129 2129 2129 2129 2129 2143 2143 2156 2156 2170 2184 2184 2198 2198 2198 2198 2198 2198 2198 2198 2198 2198 2198 2198 2198 2198 2198 2184 2184 2184 2184 2184 2184 2184 2184 2184 2170 2170 2184 2184 2184 2184 2184 2184 2184 2184 2184 2184 2184 2184 2184 2184 2184 2184 2184 2184 2184 2184 2184 2184 2184 2198 2198 2198 2198 2198 2198 2198 2198 2198 2198 2198 2198 2184 2184 2184 2184 2184 2184 2198 2198 2198 2198 2198 2198 2198 2212 2212 2212 2212 2212 2212 2198 2198 2198 2198 2198 2212 2212 2212 2212 2212 2212 2212 2212 2212 2212 2212 2198 2198 2198 2198 2198 2184 2184 2184 2184 2198 2198 2198 2198 2212 2212 2212 2212 2212 2212 2198 2198 2198 2198 2198 2198 2198 2198 2212 2198 2198 2184 2184 2184 2184 2184 2184 2184 2184 2198 2198 2198 2212 2198 2198 2198 2198 2198 2198 2198 2198 2212 0 0 0 0 0 0 0 0 0
0 0 0 0 0 0 0 0 0 0 0 0 0 0 0 0 0 0 0 0 0 0 0 0 0 0 0 0 0 0 0 0 0 0 1970 1970 1970 1970 1970 1970 1970 1970 1970 1981 1970 1970 1970 1970 1970 1970 1970 1981 1981 1981 1981 1981 1981 1981 1981 1981 1981 1981 1981 1981 1993 1981 1981 1981 1993 1993 1981 1981 1993 1993 1993 1981 1981 1981 1981 1993 1993 1993 1993 1993 1993 1993 1993 1993 1993 1993 1993 1993 1993 1993 1993 1993 1993 2005 2005 2005 2005 2005 2005 2005 2005 2005 2005 1993 1993 1993 1993 2005 2005 2005 2005 2005 2005 2016 2016 2016 2028 2028 2028 2028 2028 2028 2028 2028 2028 2028 1813 1813 1813 1813 1823 1823 1823 1823 1823 1823 1833 1833 1843 1853 1883 1915 1936 1947 1959 1970 1970 2028 2040 2040 2040 2040 2040 2040 2040 2040 2040 2040 2040 2040 2040 2040 2040 2040 2040 2053 2053 2053 2053 2053 2053 2053 2053 2053 2053 2053 2053 2053 2053 2065 2065 2053 2053 2065 2065 2078 2078 2078 2078 2078 2078 2065 2065 2065 2078 2078 2078 2078 2078 1705 1705 1705 1705 1705 1705 1705 1705 1705 1705 1705 1713 1713 1713 1713 1722 2078 2078 2078 2090 2090 2090 2090 2103 2103 2103 1833 1833 1833 1843 1843 1853 1853 1853 1853 1853 1863 1863 1863 1863 1572 1564 1557 1557 1557 1557 1557 1557 1557 1557 1564 1564 1564 1572 1572 1579 1579 1579 1579 1579 2103 2103 2103 2103 2103 2103 2103 2090 2090 2090 2090 2090 2090 2090 2090 2103 2116 1843 1843 1843 1843 1853 1853 1853 1853 1863 1863 1873 1894 1936 1947 1959 1970 1970 1970 1970 1970 1970 1981 1981 1993 2078 2103 2116 2116 2116 2116 2116 2116 2116 2116 2116 2116 2129 2129 2129 2129 2129 2129 2129 2129 2129 2129 2129 2116 2116 2116 2116 2103 2090 2078 2078 2078 1445 1439 1439 1433 1433 1427 1427 1427 1427 1421 1421 1421 1421 1421 1427 1433 1433 1433 1439 1433 1433 1439 1439 2129 2129 2129 2129 2143 2143 2156 2156 2156 2156 2156 2156 2156 2156 2156 2156 2156 2156 2156 2156 2156 2170 2170 2170 2170 2170 2156 2156 2143 2143 2143 1804 1804 1804 1804 1804 1813 1813 1813 1813 1813 1813 1823 1823 1833 1833 2156 2170 2170 2170 2170 2170 2170 2170 2170 2170 2170 2170 2170 2170 2184 2184 2170 2170 2170 2170 2170 2156 2156 2156 1853 1853 1863 1863 1863 1863 1863 1873 1873 1873 1873 1873 1873 0 0 0 1421 1421 1427 1427 1427 1427 1427 1427 1427 1427 1427 1427 1421 1421 1415 1415 1410 1410 1410 1410 1410 1410 1415 1415 2143 2143 2129 2129 2129 2129 2129 2143 2143 2143 2156 2156 2170 2184 2184 2184 2184 2198 2184 2184 2184 2184 2184 2184 2184 2184 2184 2198 2184 2184 2184 2184 2184 2170 2170 2170 2170 2170 2170 2170 2170 2170 2170 2170 2170 2170 2184 2184 2184 2184 2184 2184 2184 2184 2184 2170 2170 2170 2184 2184 2184 2184 2184 2184 2184 2184 2184 2184 2184 2184 2184 2184 2184 2184 2184 2184 2184 2184 2184 2184 2184 2184 2184 2184 2198 2198 2198 2198 2198 2198 2198 2198 2198 2198 2198 2198 2198 2198 2198 2198 2198 2198 2198 2198 2212 2212 2212 2198 2198 2198 2198 2198 2198 2198 2198 2198 2184 2184 2184 2184 2184 2184 2184 2198 2198 2198 2212 2212 2212 2212 2198 2184 2184 2184 2184 2198 2184 2184 2184 2184 2184 2184 2184 2184 2184 2184 2184 2184 2184 2184 2184 2184 2198 2184 2184 2184 2184 2184 2198 2198 2198 2198 0 0 0 0 0 0 0 0 0
0 0 0 0 0 0 0 0 0 0 0 0 0 0 0 0 0 0 0 0 0 0 0 0 0 0 0 0 0 0 0 0 0 0 1970 1970 1970 1970 1970 1970 1970 1970 1970 1970 1970 1970 1970 1970 1970 1970 1970 1970 1970 1970 1970 1970 1970 1970 1970 1970 1970 1970 1970 1981 1981 1981 1981 1981 1993 1993 1981 1981 1981 1981 1981 1970 1970 1981 1981 1981 1981 1981 1981 1981 1981 1981 1981 1981 1993 1993 1993 1993 1993 1993 1993 1993 1993 1993 1993 1993 1993 1993 1993 1993 1993 1993 1993 1993 1993 1993 1993 1993 2005 2005 2005 2005 2005 2005 2005 2005 2016 2016 2016 2016 2016 2028 2028 2028 2028 2028 1813 1813 1813 1813 1823 1823 1823 1823 1823 1823 1833 1833 1843 1853 1904 1926 1947 1947 1959 1959 1970 2016 2028 2040 2040 2040 2028 2028 2028 2028 2028 2028 2028 2028 2028 2028 2028 2028 2040 2040 2040 2040 2040 2040 2040 2040 2040 2040 2040 2053 2053 2053 2053 2053 2053 2053 2053 2053 2053 2065 2065 2065 2053 2053 2065 2065 2065 2065 2065 2065 2065 2078 1705 1705 1705 1705 1705 1705 1705 1705 1705 1705 1705 1713 1713 1713 1713 1713 2065 2065 2065 2078 2078 2078 2078 2090 2090 2090 1823 1823 1823 1833 1843 1843 1853 1853 1853 1853 1853 1853 1863 1863 1863 1572 1564 1550 1550 1557 1557 1557 1557 1557 1564 1564 1564 1572 1572 1579 1579 1579 1579 1586 1586 2090 2090 2090 2090 2103 2090 2090 2090 2090 2090 2090 2090 2090 2090 2090 2103 1833 1833 1843 1843 1843 1853 1853 1853 1853 1863 1863 1873 1894 1936 1959 1970 1970 1970 1970 1981 1981 1981 1981 1981 1993 2065 2090 2103 2103 2116 2116 2116 2116 2116 2116 2116 2116 2116 2116 2116 2129 2116 2116 2116 2116 2116 2116 2129 2116 2116 2116 2116 2090 2090 2078 2078 2078 1433 1433 1433 1433 1433 1427 1427 1427 1427 1421 1421 1421 1421 1421 1433 1433 1433 1439 1439 1439 1439 1439 1439 2103 2103 2116 2129 2143 2143 2143 2156 2156 2143 2143 2143 2143 2143 2143 2143 2156 2156 2156 2156 2156 2156 2156 2156 2156 2156 2156 2156 2143 2143 2143 1804 1804 1804 1804 1813 1813 1813 1813 1813 1823 1823 1823 1823 1833 1833 2156 2156 2170 2170 2170 2170 2170 2170 2156 2156 2156 2156 2156 2156 2156 2156 2156 2156 2156 2156 2156 2156 2156 2156 1853 1853 1863 1863 1863 1863 1873 1873 1873 1873 1873 1883 1883 0 0 0 1427 1427 1427 1427 1427 1427 1427 1427 1427 1427 1427 1427 1421 1421 1415 1415 1415 1415 1410 1410 1410 1415 1415 1421 2143 2143 2129 2129 2129 2129 2129 2143 2143 2143 2156 2156 2156 2170 2170 2170 2170 2184 2170 2170 2170 2184 2184 2184 2184 2184 2184 2184 2184 2184 2170 2170 2170 2170 2170 2170 2170 2170 2170 2170 2170 2170 2170 2170 2170 2170 2170 2170 2184 2170 2170 2170 2170 2170 2170 2170 2170 2170 2170 2170 2184 2184 2184 2184 2184 2170 2170 2170 2170 2170 2184 2184 2184 2184 2184 2184 2184 2184 2184 2184 2184 2184 2184 2184 2184 2184 2184 2184 2184 2184 2184 2198 2198 2198 2184 2184 2184 2198 2198 2198 2198 2198 2198 2198 2198 2198 2198 2198 2198 2198 2198 2184 2184 2184 2198 2198 2184 2184 2184 2184 2184 2184 2184 2198 2198 2198 2198 2198 2198 2198 2184 2184 2184 2184 2184 2184 2184 2184 2184 2184 2184 2184 2184 2184 2184 2184 2184 2184 2184 2184 2184 2184 2184 2170 2170 2170 2184 2184 2184 2184 2184 2184 0 0 0 0 0 0 0 0 0
0 0 0 0 0 0 0 0 0 0 0 0 0 0 0 0 0 0 0 0 0 0 0 0 0 0 0 0 0 0 0 0 0 0 1959 1959 1959 1959 1970 1970 1970 1970 1970 1970 1970 1970 1970 1970 1970 1970 1970 1970 1970 1970 1970 1970 1970 1970 1970 1970 1970 1970 1970 1970 1970 1970 1970 1981 1981 1981 1970 1970 1970 1970 1970 1959 1959 1970 1970 1970 1970 1970 1970 1970 1981 1970 1970 1970 1981 1981 1981 1981 1981 1981 1993 1993 1993 1993 1993 1993 1993 1993 1993 1993 1993 1993 1993 1993 1993 1993 1993 1993 1993 1993 1993 2005 2005 2005 2005 2005 2005 2005 2005 2016 2016 2016 2016 2016 2016 1823 1823 1823 1823 1823 1823 1823 1823 1823 1823 1823 1833 1843 1853 1904 1926 1936 1947 1947 1959 1959 1970 2016 2028 2040 2040 2040 2028 2028 2028 2028 2028 2028 2028 2028 2028 2028 2028 2028 2028 2028 2040 2040 2040 2040 2040 2040 2040 2040 2040 2040 2040 2040 2053 2053 2053 2040 2040 2040 2053 2053 2053 2053 2053 2053 2053 2053 2053 2040 2040 2040 2053 2053 1705 1705 1705 1705 1705 1705 1705 1705 1705 1705 1705 1705 1713 1713 1713 1713 2065 2065 2065 2065 2078 2078 2078 1823 1823 1823 1823 1823 1823 1833 1833 1833 1843 1853 1853 1853 1853 1853 1853 1853 1853 1572 1564 1550 1550 1557 1564 1564 1564 1564 1564 1564 1564 1572 1572 1579 1579 1579 1579 1586 2078 2078 2078 2090 2090 2090 2090 2090 2090 2090 2090 2090 2090 2090 2090 2090 2090 1833 1833 1843 1843 1843 1843 1853 1853 1853 1863 1863 1873 1894 1970 1970 1970 1970 1970 1981 1981 1981 1981 1981 1993 2016 2053 2078 2090 2103 2103 2103 2116 2116 2116 2116 2116 2116 2116 2116 2116 2116 2116 2116 2116 2116 2116 2116 2116 2116 2116 2116 2103 2090 2078 2078 2078 2078 1433 1433 1433 1433 1427 1427 1427 1427 1427 1421 1421 1421 1421 1421 1433 1433 1433 1439 1439 1439 1439 1439 1439 2103 2103 2116 2116 2129 2143 2143 2143 2143 2143 2143 2143 2143 2143 2143 2143 2143 2156 2156 2156 2156 2156 2156 2156 2156 2156 2156 2156 2143 2143 2143 1804 1804 1813 1813 1813 1813 1813 1813 1823 1823 1823 1823 1823 1833 2156 2156 2156 2156 2156 2156 2156 2170 2170 2156 2156 2156 2156 2156 2156 2156 2156 2143 2143 2156 2156 2143 2143 2143 2143 1853 1853 1863 1863 1863 1873 1873 1873 1873 1873 1873 0 1873 0 0 0 1427 1427 1427 1427 1427 1427 1427 1427 1427 1427 1427 1427 1421 1415 1415 1415 1415 1415 1410 1410 1415 1415 1421 1421 2129 2129 2129 2129 2129 2129 2129 2143 2143 2143 2156 2156 2156 2170 2170 2170 2170 2170 2156 2156 2156 2170 2170 2170 2170 2170 2170 2184 2184 2184 2170 2170 2170 2156 2156 2156 2156 2156 2156 2156 2156 2170 2170 2170 2170 2170 2170 2170 2170 2170 2170 2156 2156 2156 2156 2156 2156 2156 2170 2170 2170 2184 2170 2170 2170 2170 2156 2156 2156 2156 2170 2170 2170 2170 2184 2184 2184 2184 2184 2184 2184 2184 2184 2184 2184 2184 2184 2184 2184 2184 2184 2184 2198 2184 2184 2184 2184 2184 2184 2184 2184 2184 2184 2184 2184 2184 2184 2184 2184 2184 2184 2184 2184 2184 2184 2184 2170 2170 2170 2170 2170 2170 2184 2184 2184 2184 2184 2198 2198 2198 2184 2170 2170 2170 2170 2170 2170 2170 2170 2170 2170 2170 2170 2184 2184 2184 2184 2184 2184 2184 2184 2170 2170 2170 2170 2170 2170 2184 2184 2184 2184 2184 0 0 0 0 0 0 0 0 0
0 0 0 0 0 0 0 0 0 0 0 0 0 0 0 0 0 0 0 0 0 0 0 0 0 0 0 0 0 0 0 0 0 0 1959 1959 1959 1959 1959 1959 1959 1970 1970 1970 1959 1959 1959 1959 1959 1959 1959 1959 1970 1970 1970 1970 1970 1970 1970 1970 1970 1970 1970 1970 1970 1970 1970 1970 1981 1981 1959 1959 1959 1959 1959 1959 1959 1959 1959 1959 1959 1959 1959 1959 1970 1970 1970 1970 1981 1981 1981 1981 1981 1981 1981 1981 1981 1981 1981 1981 1981 1981 1981 1993 1993 1993 1993 1993 1993 1993 1993 1993 1993 1993 1993 1993 2005 2005 2005 2005 2005 2005 2005 2005 2005 2005 2016 2005 2005 1823 1823 1823 1823 1823 1823 1823 1823 1823 1823 1833 1833 1843 1853 1904 1926 1936 1947 1947 1959 1959 1970 2016 2028 2028 2040 2040 2028 2028 2028 2028 2028 2028 2028 2016 2016 2016 2016 2016 2028 2028 2028 2028 2040 2040 2040 2028 2028 2028 2040 2040 2040 2040 2040 2040 2040 2040 2040 2040 2040 2040 2040 2040 2040 2040 2040 2040 2040 2040 2040 2040 2053 2053 1705 1705 1705 1705 1705 1705 1705 1705 1705 1705 1705 1705 1713 1713 1713 1722 1748 2065 1813 1813 2078 2078 1813 1813 1813 1813 1823 1823 1823 1833 1833 1833 1843 1853 1853 1853 1853 1853 1853 1853 1853 1572 1564 1564 1564 1564 1564 1564 1564 1564 1564 1564 1564 1572 1572 1579 1579 1579 1579 1586 2078 2078 2078 2078 2078 2078 2078 2090 2090 2090 2090 2090 2090 2090 2090 2090 1823 1823 1823 1833 1833 1843 1843 1843 1853 1853 1863 1863 1873 1873 1970 1970 1981 1970 1970 1981 1981 1981 1981 1981 1993 2028 2053 2078 2090 2090 2103 2103 2103 2103 2103 2103 2103 2103 2116 2103 2103 2116 2116 2116 2116 2116 2116 2116 2116 2103 2103 2103 2103 2078 2078 2065 2065 2078 2078 1433 1433 1433 1427 1427 1427 1427 1427 1421 1421 1421 1427 1427 1433 1433 1439 1439 1439 1439 1439 1452 1452 2103 2103 2116 2116 2129 2129 2129 2143 2143 2129 2129 2143 2143 2129 2129 2143 2143 2143 2143 2143 2143 2143 2156 2156 2156 2156 2156 2156 2143 2143 1813 1804 1804 1813 1813 1813 1813 1813 1813 1823 1823 1823 1823 1833 1833 2156 2156 2156 2156 2156 2156 2156 2156 2156 2143 2143 2143 2143 2143 2143 2143 2143 2143 2143 2143 2143 2143 2143 2143 2143 1863 1863 1863 1873 1873 1873 1873 1873 1873 1873 1873 0 0 0 0 0 1427 1427 1433 1433 1433 1427 1427 1427 1427 1427 1427 1427 1421 1415 1415 1415 1415 1415 1410 1410 1415 1415 1421 2143 2129 2129 2129 2129 2129 2129 2129 2143 2143 2143 2143 2156 2156 2156 2156 2156 2156 2156 2156 2156 2156 2156 2156 2156 2156 2156 2170 2170 2170 2170 2156 2156 2156 2156 2156 2156 2156 2156 2156 2156 2156 2156 2156 2170 2156 2156 2156 2156 2156 2156 2156 2156 2156 2156 2156 2156 2156 2156 2156 2156 2170 2170 2170 2170 2156 2156 2156 2156 2156 2156 2170 2170 2170 2170 2170 2184 2184 2184 2184 2184 2184 2170 2170 2170 2170 2170 2170 2184 2184 2184 2184 2184 2184 2184 2184 2184 2184 2184 2184 2184 2184 2184 2184 2184 2184 2184 2184 2184 2184 2170 2170 2170 2170 2170 2170 2170 2170 2170 2170 2170 2170 2170 2170 2170 2170 2170 2170 2184 2184 2170 2170 2170 2170 2170 2170 2170 2170 2170 2170 2170 2170 2170 2170 2170 2170 2184 2184 2170 2170 2170 2170 2170 2170 2156 2156 2156 2170 2170 2170 2170 2170 2184 0 0 0 0 0 0 0 0 0
0 0 0 0 0 0 0 0 0 0 0 0 0 0 0 0 0 0 0 0 0 0 0 0 0 0 0 0 0 0 0 0 0 0 1947 1947 1947 1947 1959 1959 1959 1959 1959 1970 1959 1959 1959 1959 1959 1959 1959 1959 1959 1959 1959 1959 1970 1970 1970 1970 1970 1970 1970 1970 1970 1970 1970 1970 1981 1970 1959 1959 1959 1959 1959 1947 1947 1959 1959 1959 1959 1959 1959 1959 1959 1959 1959 1970 1970 1970 1970 1970 1970 1970 1981 1981 1981 1981 1981 1981 1981 1981 1981 1993 1993 1993 1993 1993 1993 1993 1993 1993 1993 1993 1993 1993 1993 1993 1993 1993 2005 2005 2005 2005 2005 2005 2005 2005 2005 1823 1823 1823 1823 1823 1823 1823 1823 1823 1823 1833 1833 1843 1853 1915 1936 1936 1947 1947 1959 1959 1970 2016 2016 2028 2028 2028 2028 2016 2016 2016 2016 2016 2016 2016 2016 2016 2016 2016 2028 2028 2028 2028 2028 2028 2028 2028 2028 2028 2028 2040 2040 2040 2040 2040 2040 2040 2040 2040 2040 2040 2040 2040 2040 2040 2040 2040 2040 2040 2040 2040 2040 2040 1705 1705 1705 1705 1705 1705 1705 1705 1705 1705 1713 1713 1713 1713 1722 1739 1748 1776 1785 1794 1794 1804 1804 1813 1813 1813 1813 1823 1823 1833 1833 1843 1843 1853 1853 1853 1853 1853 1853 1853 1853 1572 1564 1564 1564 1564 1564 1564 1564 1564 1564 1572 1572 1572 1579 1579 1579 1579 1579 1586 2065 2065 2065 2078 2078 2078 2078 2078 2078 2078 2078 2078 2078 2078 2078 1813 1813 1813 1813 1823 1823 1833 1843 1843 1843 1853 1853 1853 1863 1863 1981 1981 1981 1981 1981 1981 1981 1981 1981 1981 2005 2028 2053 2065 2078 2078 2090 2090 2103 2103 2103 2103 2103 2103 2103 2103 2103 2116 2116 2103 2103 2103 2116 2103 2103 2103 2103 2103 2103 2078 2078 2065 2065 2078 2078 2078 1439 1433 1433 1433 1427 1427 1427 1427 1427 1427 1427 1427 1433 1439 1439 1439 1445 1445 1445 1452 2103 2103 2103 2103 2116 2116 2129 2129 2129 2129 2129 2129 2129 2129 2129 2129 2129 2129 2129 2129 2129 2129 2129 2143 2143 2143 2143 2143 2143 2143 2143 1813 1804 1804 1813 1813 1813 1813 1813 1823 1823 1823 1823 1823 1823 2143 2143 2143 2143 2143 2156 2143 2143 2143 2143 2143 2143 2143 2143 2143 2143 2143 2143 2129 2129 2129 2129 2129 2129 2129 2129 1863 1863 1873 1873 1873 1873 1873 1873 1873 1873 1873 0 0 0 0 0 1433 1433 1433 1433 1433 1433 1427 1427 1427 1427 1427 1427 1421 1421 1421 1415 1415 1415 1415 1415 1415 1421 1421 2129 2129 2129 2129 2129 2129 2129 2129 2129 2143 2143 2143 2143 2143 2156 2156 2156 2156 2156 2156 2156 2156 2156 2156 2156 2156 2156 2156 2156 2156 2156 2143 2143 2143 2143 2143 2143 2143 2143 2143 2143 2143 2156 2156 2156 2156 2143 2143 2143 2143 2143 2143 2143 2143 2143 2143 2156 2156 2156 2156 2156 2156 2170 2156 2156 2156 2156 2143 2143 2156 2156 2156 2156 2156 2156 2170 2170 2170 2170 2170 2170 2170 2156 2156 2156 2170 2170 2170 2170 2184 2170 2170 2184 2170 2170 2170 2170 2170 2170 2184 2170 2170 2170 2170 2170 2170 2170 2184 2170 2170 2170 2156 2156 2156 2156 2156 2170 2156 2156 2156 2156 2156 2156 2156 2156 2170 2156 2156 2156 2156 2156 2156 2156 2156 2156 2156 2156 2156 2156 2156 2156 2156 2170 2170 2170 2170 2184 2184 2170 2170 2170 2156 2156 2156 2156 2156 2156 2156 2156 2170 2170 2170 2170 0 0 0 0 0 0 0 0 0
0 0 0 0 0 0 0 0 0 0 0 0 0 0 0 0 0 0 0 0 0 0 0 0 0 0 0 0 0 0 0 0 0 0 1947 1936 1936 1947 1947 1947 1947 1959 1959 1959 1959 1959 1959 1959 1959 1959 1959 1959 1959 1959 1959 1959 1959 1959 1959 1970 1959 1959 1959 1970 1970 1959 1959 1970 1970 1970 1947 1947 1947 1947 1947 1947 1947 1947 1947 1959 1959 1959 1959 1959 1959 1959 1959 1959 1959 1959 1959 1959 1959 1970 1970 1970 1970 1970 1970 1970 1970 1970 1981 1981 1981 1981 1981 1981 1981 1981 1981 1981 1981 1981 1993 1993 1993 1993 1993 1993 1993 1993 1993 2005 2005 2005 2005 1993 1993 1813 1813 1823 1823 1823 1823 1823 1823 1823 1823 1823 1833 1833 1843 1915 1936 1936 1947 1947 1959 1959 1970 2005 2016 2016 2028 2028 2016 2016 2016 2016 2005 2005 2005 2005 2005 2005 2016 2016 2028 2028 2028 2028 2028 2028 2028 2028 2028 2028 2028 2028 2028 2028 2028 2040 2028 2028 2028 2040 2040 2040 2040 2040 2040 2040 2040 2040 2040 2040 2040 2040 2028 2028 1705 1705 1705 1705 1713 1705 1705 1705 1705 1705 1713 1713 1713 1722 1731 1748 1757 1776 1785 1794 1794 1804 1804 1813 1813 1813 1813 1823 1823 1833 1843 1843 1843 1853 1853 1853 1853 2040 2053 2053 2053 1572 1564 1564 1564 1564 1564 1564 1564 1564 1564 1572 1572 1572 1579 1579 1579 1579 1579 1586 2053 2053 2065 2065 2065 2065 2065 2065 2078 2078 2078 2078 2078 2078 2078 1813 1813 1804 1804 1813 1823 1823 1833 1833 1843 1843 1853 1853 1853 2016 1981 1981 1981 1981 1981 1981 1981 1981 1981 1981 2005 2028 2040 2053 2065 2078 2078 2078 2090 2090 2090 2090 2090 2090 2090 2090 2090 2103 2103 2103 2103 2103 2103 2103 2103 2103 2090 2090 2078 2078 2078 2065 2065 2078 2078 2078 1433 1433 1433 1433 1433 1427 1427 1427 1427 1427 1427 1427 1433 1433 1439 1439 1445 1445 1452 1458 2103 2103 2103 2103 2103 2116 2116 2116 2129 2129 2116 2116 2116 2116 2116 2116 2116 2116 2116 2116 2129 2129 2129 2129 2143 2143 2129 2129 2143 2143 1804 1804 1804 1804 1813 1813 1813 1813 1823 1823 1823 1823 1823 1823 1823 2143 2129 2129 2129 2129 2129 2129 2129 2129 2129 2129 2129 2129 2129 2129 2129 2129 2129 2129 2129 2129 2129 2129 2129 2129 2129 1873 1873 1873 1873 1873 1873 1873 1873 1873 1873 1873 0 0 0 0 0 1433 1433 1433 1433 1433 1433 1427 1427 1427 1427 1427 1427 1421 1421 1421 1421 1421 1421 1421 1421 1421 1427 1427 2129 2116 2116 2129 2129 2129 2129 2129 2129 2143 2143 2143 2143 2143 2156 2156 2143 2143 2156 2156 2143 2143 2156 2156 2156 2143 2143 2143 2156 2156 2156 2143 2143 2143 2143 2143 2143 2143 2143 2143 2143 2143 2143 2143 2143 2143 2143 2143 2143 2143 2143 2143 2143 2143 2143 2143 2143 2143 2143 2156 2156 2156 2156 2156 2156 2156 2143 2143 2143 2143 2143 2143 2143 2143 2156 2156 2156 2156 2156 2156 2156 2156 2143 2143 2156 2170 2170 2170 2170 2170 2170 2170 2170 2170 2170 2170 2170 2170 2170 2170 2170 2170 2156 2156 2170 2170 2170 2170 2170 2170 2156 2156 2156 2156 2156 2156 2156 2143 2143 2156 2143 2143 2156 2156 2156 2156 2156 2156 2143 2143 2143 2143 2143 2143 2143 2143 2143 2143 2143 2143 2143 2143 2143 2143 2156 2156 2156 2156 2156 2156 2143 2129 2129 2129 2143 2143 2143 2143 2156 2156 2156 2156 2170 0 0 0 0 0 0 0 0 0
0 0 0 0 0 0 0 0 0 0 0 0 0 0 0 0 0 0 0 0 0 0 0 0 0 0 0 0 0 0 0 0 0 0 1936 1936 1936 1947 1947 1947 1947 1959 1959 1959 1959 1959 1959 1959 1959 1959 1959 1959 1959 1959 1959 1959 1959 1959 1959 1959 1959 1959 1959 1959 1959 1959 1959 1959 1970 1959 1947 1947 1947 1947 1947 1947 1947 1947 1947 1959 1959 1959 1959 1959 1959 1959 1959 1959 1959 1959 1959 1959 1959 1959 1970 1970 1970 1970 1970 1970 1970 1970 1970 1970 1970 1970 1970 1981 1981 1981 1981 1981 1981 1981 1981 1981 1981 1981 1981 1981 1981 1981 1993 1993 1993 1993 1993 1993 1993 1813 1813 1823 1823 1823 1823 1823 1823 1823 1823 1823 1833 1833 1843 1853 1936 1936 1947 1947 1959 1959 1970 2005 2005 2005 2016 2016 2005 2005 2005 2005 2005 2005 2005 2005 2005 2005 2005 2005 2016 2016 2016 2016 2016 2016 2016 2016 2016 2016 2016 2016 2016 2016 2028 2028 2028 2028 2028 2028 2028 2028 2028 2028 2028 2028 2028 2028 2028 2028 2028 2028 2028 2028 1705 1705 1705 1705 1713 1705 1705 1705 1705 1705 1713 1713 1722 1722 1739 1748 1757 1776 1785 1794 1794 1804 1804 1813 1813 1813 1813 1823 1823 1833 1833 1843 1843 1853 1853 1853 2040 2040 2040 2053 2053 1579 1572 1572 1564 1564 1572 1564 1564 1564 1564 1572 1572 1572 1579 1579 1579 1579 1579 1609 2053 2053 2053 2053 2053 2065 2065 2065 2065 2065 2078 2078 2078 2078 1794 1794 1804 1804 1804 1813 1813 1823 1823 1833 1843 1843 1843 1843 1853 2016 2005 1993 1981 1981 1981 1981 1981 1981 1981 1993 2016 2028 2040 2053 2065 2065 2078 2078 2078 2078 2078 2078 2078 2078 2078 2078 2078 2078 2078 2078 2090 2090 2090 2090 2090 2078 2078 2078 2065 2065 2065 2065 2065 2078 2078 2078 1433 1433 1433 1433 1433 1433 1433 1427 1427 1427 1433 1433 1433 1433 1439 1445 1445 1445 1452 1458 1464 2103 2103 2103 2103 2116 2116 2116 2116 2116 2116 2116 2116 2116 2116 2116 2116 2116 2116 2116 2116 2116 2116 2129 2129 2129 2129 2129 2129 2129 1804 1804 1813 1813 1813 1813 1813 1813 1823 1823 1823 1823 1823 1833 2129 2129 2129 2129 2116 2116 2129 2116 2116 2116 2116 2116 2116 2116 2116 2116 2116 2116 2116 2116 2116 2129 2129 2116 2116 2116 2129 1873 1873 1873 1873 1873 1873 1873 1873 1873 1873 1873 0 0 0 0 0 1433 1433 1433 1433 1433 1433 1427 1427 1427 1427 1427 1427 1421 1421 1421 1421 1421 1421 1421 1421 1427 1427 2103 2116 2116 2116 2116 2129 2116 2116 2129 2129 2129 2143 2143 2143 2143 2143 2143 2143 2143 2143 2143 2143 2143 2143 2143 2143 2143 2143 2143 2143 2143 2143 2129 2129 2143 2129 2129 2129 2129 2129 2129 2129 2129 2129 2143 2129 2129 2129 2129 2129 2129 2129 2129 2129 2143 2143 2143 2143 2143 2143 2143 2143 2143 2156 2143 2143 2143 2143 2143 2143 2143 2143 2143 2143 2143 2143 2143 2143 2143 2143 2143 2143 2143 2143 2143 2143 2156 2156 2170 2170 2170 2156 2156 2156 2156 2156 2156 2143 2143 2156 2156 2156 2156 2156 2156 2156 2156 2156 2156 2156 2156 2156 2143 2143 2143 2143 2143 2156 2143 2143 2143 2143 2143 2143 2143 2143 2143 2143 2143 2143 2143 2129 2129 2129 2129 2129 2129 2143 2129 2129 2129 2129 2129 2129 2129 2143 2143 2143 2143 2143 2143 2129 2129 2129 2129 2129 2129 2129 2129 2143 2143 2143 2143 2143 0 0 0 0 0 0 0 0 0
0 0 0 0 0 0 0 0 0 0 0 0 0 0 0 0 0 0 0 0 0 0 0 0 0 0 0 0 0 0 0 0 0 0 1936 1936 1936 1936 1936 1936 1947 1947 1947 1947 1947 1947 1947 1947 1947 1947 1947 1947 1947 1947 1959 1959 1959 1959 1959 1959 1959 1959 1959 1959 1959 1959 1959 1959 1970 1959 1947 1947 1947 1947 1947 1947 1936 1936 1936 1947 1947 1947 1947 1959 1959 1959 1959 1959 1959 1959 1959 1959 1959 1959 1959 1959 1959 1959 1959 1959 1959 1970 1970 1970 1970 1970 1970 1970 1970 1970 1970 1981 1981 1981 1981 1981 1981 1981 1981 1981 1981 1981 1981 1981 1993 1993 1993 1993 1993 1813 1813 1823 1823 1823 1823 1823 1823 1823 1823 1823 1833 1833 1843 1853 1936 1936 1947 1947 1959 1959 1970 1981 2005 2005 2005 2016 2005 2005 2005 2005 1993 1993 1993 1993 1993 1993 2005 2005 2005 2005 2005 2005 2016 2005 2005 2005 2005 2005 2005 2005 2005 2005 2016 2016 2016 2016 2016 2016 2016 2016 2016 2016 2028 2028 2028 2028 2028 2028 2028 2028 2028 2028 1705 1705 1705 1705 1713 1713 1705 1705 1705 1713 1713 1713 1722 1722 1739 1748 1766 1776 1785 1785 1794 1794 1804 1813 1813 1813 1813 1823 1823 1833 1833 1843 1843 1853 1853 2040 2040 2040 2040 2040 2053 2053 1564 1564 1572 1572 1572 1572 1572 1572 1572 1572 1572 1572 1579 1579 1579 1579 1579 2040 2040 2053 2053 2053 2053 2053 2053 2053 2065 2065 2065 2078 2078 2078 1794 1794 1804 1804 1804 1813 1813 1823 1823 1833 1833 1843 1843 1843 2028 2028 2016 2005 1993 1981 1981 1981 1981 1981 1993 2005 2016 2028 2040 2053 2053 2065 2065 2078 2078 2078 2078 2078 2078 2078 2078 2078 2078 2078 2078 2078 2078 2078 2078 2078 2078 2065 2065 2065 2065 2065 2065 2065 2065 2078 2078 2078 1433 1433 1433 1433 1433 1433 1433 1427 1427 1427 1433 1433 1433 1439 1439 1445 1445 1452 1458 1458 1464 2090 2090 2103 2103 2103 2116 2116 2116 2116 2116 2116 2116 2116 2103 2103 2103 2103 2103 2116 2116 2116 2116 2116 2116 2116 2116 2116 2116 2116 2116 1813 1813 1813 1813 1813 1813 1813 1823 1823 1823 1823 1823 2129 2129 2129 2116 2116 2116 2116 2116 2116 2116 2116 2116 2116 2116 2116 2116 2116 2116 2116 2116 2116 2116 2116 2116 2116 2116 2116 2116 1883 1883 1883 1873 1873 1873 1873 1873 1873 1873 1873 0 0 0 0 0 0 1433 1433 1433 1433 1433 1427 1427 1427 1427 1427 1427 1421 1421 1421 1427 1427 1427 1427 1427 1433 1433 2103 2103 2103 2116 2116 2116 2116 2116 2116 2129 2129 2129 2129 2129 2129 2143 2143 2143 2143 2143 2143 2129 2129 2143 2143 2143 2143 2143 2143 2143 2143 2143 2129 2129 2129 2129 2129 2129 2129 2129 2129 2129 2129 2129 2129 2129 2129 2129 2129 2129 2129 2129 2129 2129 2129 2129 2129 2129 2129 2129 2143 2143 2143 2143 2143 2143 2143 2143 2143 2143 2143 2143 2129 2129 2143 2143 2143 2143 2143 2143 2143 2143 2143 2143 2143 2143 2143 2143 2143 2156 2156 2143 2143 2143 2143 2143 2143 2143 2143 2143 2156 2156 2156 2156 2156 2156 2143 2143 2143 2143 2143 2143 2143 2143 2143 2143 2143 2143 2129 2129 2129 2129 2129 2129 2129 2129 2129 2129 2129 2129 2129 2129 2129 2129 2129 2129 2129 2129 2129 2129 2129 2129 2129 2129 2129 2129 2129 2129 2129 2129 2129 2129 2129 2129 2129 2129 2129 2129 2129 2129 2129 2129 2129 2129 0 0 0 0 0 0 0 0 0
0 0 0 0 0 0 0 0 0 0 0 0 0 0 0 0 0 0 0 0 0 0 0 0 0 0 0 0 0 0 0 0 0 0 1926 1926 1926 1936 1926 1926 1936 1936 1936 1926 1926 1936 1936 1936 1936 1936 1936 1936 1936 1947 1947 1947 1947 1947 1947 1947 1947 1947 1947 1947 1947 1947 1947 1959 1959 1959 1947 1947 1936 1936 1936 1936 1936 1936 1936 1936 1936 1947 1947 1947 1947 1947 1947 1947 1947 1947 1947 1947 1947 1947 1947 1947 1947 1947 1959 1959 1959 1959 1959 1959 1959 1959 1959 1970 1970 1970 1970 1970 1970 1981 1981 1981 1970 1970 1981 1981 1981 1981 1981 1981 1981 1981 1981 1993 1993 1823 1823 1823 1823 1823 1823 1823 1823 1823 1823 1823 1833 1833 1843 1883 1926 1936 1936 1947 1959 1959 1970 1981 1993 2005 2005 2005 1993 1993 1993 1993 1993 1993 1993 1993 1993 1993 1993 2005 2005 2005 2005 2005 2005 2005 1993 1993 2005 1993 1993 2005 2005 2005 2005 2005 2005 2005 2005 2005 2005 2005 2005 2016 2016 2016 2016 2016 2016 2016 2016 2016 2016 2016 1705 1705 1705 1705 1713 1713 1713 1713 1713 1713 1713 1713 1722 1722 1739 1748 1766 1776 1785 1785 1794 1794 1804 1804 1813 1813 1813 1823 1823 1833 1843 1843 1843 1853 2040 2040 2040 2040 2040 2040 2053 1579 1564 1564 1572 1572 1572 1572 1572 1572 1572 1572 1572 1572 1572 1572 1572 1572 1579 2028 2040 2040 2040 2040 2053 2053 2053 2053 2053 2065 2065 2065 1785 1785 1794 1794 1804 1804 1804 1813 1813 1813 1823 1823 1833 1833 1843 2040 2028 2028 2016 2005 1993 1981 1981 1981 1981 1981 1993 2005 2016 2028 2040 2053 2053 2065 2065 2065 2065 2065 2065 2065 2065 2065 2065 2065 2065 2065 2065 2065 2065 2065 2065 2065 2065 2065 2065 2065 2065 2065 2065 2065 2065 2065 2065 2065 1433 1433 1433 1433 1433 1433 1433 1433 1427 1427 1433 1433 1433 1439 1439 1445 1445 1452 1458 1464 2116 2090 2090 2090 2090 2090 2090 2103 2103 2103 2103 2103 2103 2103 2090 2090 2090 2090 2090 2103 2103 2103 2103 2103 2103 2103 2103 2103 2103 2103 2103 1823 1813 1813 1813 1813 1813 1813 1813 1813 1823 1823 1823 2116 2116 2116 2116 2116 2116 2116 2116 2116 2116 2116 2116 2103 2103 2103 2103 2116 2116 2116 2116 2103 2103 2116 2116 2116 2116 2116 2116 1883 1883 1883 1883 1883 1883 1873 1873 1873 1873 1883 0 0 0 0 0 1433 1433 1433 1433 1433 1433 1433 1427 1427 1427 1427 1427 1427 1427 1427 1427 1427 1433 1433 1433 1439 1439 2103 2103 2103 2103 2116 2116 2116 2116 2116 2116 2116 2116 2116 2116 2129 2129 2129 2129 2129 2129 2129 2129 2129 2129 2143 2129 2129 2129 2129 2129 2129 2129 2116 2116 2116 2129 2116 2116 2116 2129 2129 2129 2129 2129 2129 2129 2129 2129 2129 2129 2129 2129 2129 2129 2129 2129 2129 2129 2129 2129 2129 2129 2129 2129 2129 2129 2129 2129 2129 2129 2129 2143 2129 2129 2143 2143 2143 2143 2143 2143 2143 2143 2129 2129 2129 2129 2129 2143 2143 2143 2156 2143 2143 2143 2143 2143 2143 2143 2143 2143 2143 2143 2143 2143 2143 2143 2143 2143 2143 2143 2143 2143 2129 2129 2143 2143 2143 2143 2129 2129 2129 2129 2129 2129 2129 2129 2129 2129 2129 2129 2129 2129 2129 2129 2129 2129 2116 2116 2116 2116 2116 2116 2116 2116 2116 2129 2116 2116 2116 2129 2129 2129 2129 2129 2129 2129 2129 2129 2129 2129 2129 2129 2129 2129 0 0 0 0 0 0 0 0 0
0 0 0 0 0 0 0 0 0 0 0 0 0 0 0 0 0 0 0 0 0 0 0 0 0 0 0 0 0 0 0 0 0 0 1926 1926 1926 1926 1926 1926 1926 1926 1926 1926 1926 1926 1926 1926 1926 1926 1936 1936 1936 1936 1936 1936 1936 1947 1947 1947 1947 1936 1936 1936 1936 1936 1936 1947 1947 1959 1936 1936 1936 1936 1936 1936 1926 1926 1926 1926 1926 1936 1936 1936 1936 1947 1947 1947 1947 1936 1936 1936 1936 1936 1936 1936 1936 1947 1947 1947 1959 1959 1959 1959 1959 1959 1959 1959 1959 1959 1959 1970 1970 1970 1970 1959 1959 1959 1970 1970 1970 1970 1970 1981 1981 1970 1970 1981 1981 1823 1823 1823 1823 1823 1823 1833 1823 1823 1823 1833 1833 1843 1853 1883 1926 1936 1936 1947 1959 1959 1970 1981 1993 1993 2005 2005 1993 1993 1993 1993 1993 1981 1981 1993 1993 1993 1993 1993 1993 1993 1993 1993 1993 1993 1993 1993 1993 1993 1993 1993 1993 1993 2005 2005 2005 2005 2005 2005 2005 2005 2005 2005 2016 2016 2016 2005 2005 2016 2016 2016 2016 2016 2016 1705 1705 1705 1713 1713 1713 1713 1713 1713 1713 1722 1722 1731 1739 1748 1766 1776 1785 1785 1794 1794 1804 1804 1804 1813 1813 1823 1833 1833 1843 1843 2028 2028 2028 2028 2040 2040 2040 2040 2040 1579 1572 1572 1572 1572 1572 1572 1572 1572 1572 1572 1572 1572 1572 1572 1572 1572 1579 1993 2016 2040 2040 2040 2040 2040 2040 2028 2028 2028 2053 1776 1776 1785 1785 1785 1794 1794 1804 1804 1813 1813 1813 1823 1833 1833 2028 2040 2028 2028 2016 2016 1993 1993 1981 1981 1981 1993 2005 2005 2016 2028 2040 2053 2053 2065 2065 2065 2065 2065 2065 2065 2053 2053 2053 2065 2065 2065 2053 2053 2053 2065 2065 2065 2065 2065 2065 2065 2065 2065 2065 2065 2065 2065 2065 2065 1433 1433 1433 1433 1433 1433 1433 1433 1433 1433 1433 1433 1433 1439 1439 1445 1452 1452 1464 1464 2078 2078 2078 2078 2078 2078 2078 2090 2090 2090 2090 2090 2090 2103 2090 2090 2090 2090 2090 2090 2090 2090 2090 2090 2090 2103 2103 2090 2090 2090 1804 1804 1813 1823 1813 1813 1813 1813 1813 1813 1813 1823 1823 2103 2103 2103 2103 2103 2103 2103 2103 2103 2103 2103 2103 2103 2103 2103 2103 2103 2103 2103 2103 2103 2103 2103 2103 2103 2103 2116 2116 2129 1883 1883 1883 1883 1883 1883 1883 1883 1883 1883 0 0 0 0 0 1433 1433 1433 1433 1433 1433 1433 1427 1427 1427 1427 1427 1427 1427 1427 1427 1427 1433 1439 1439 1452 1452 2103 2103 2103 2103 2103 2103 2103 2103 2103 2103 2103 2103 2103 2116 2116 2116 2116 2116 2116 2116 2129 2129 2129 2129 2129 2129 2129 2129 2129 2129 2129 2116 2103 2103 2116 2116 2116 2116 2116 2116 2116 2116 2116 2116 2116 2116 2116 2116 2116 2116 2116 2116 2116 2116 2116 2116 2129 2116 2116 2129 2129 2129 2129 2129 2129 2129 2129 2129 2129 2129 2129 2129 2129 2129 2129 2129 2129 2129 2129 2129 2129 2129 2129 2129 2129 2129 2129 2129 2129 2143 2143 2143 2129 2129 2129 2129 2129 2129 2129 2129 2143 2129 2129 2143 2143 2143 2129 2129 2129 2129 2129 2129 2129 2129 2129 2129 2129 2129 2129 2129 2129 2129 2129 2129 2129 2129 2129 2129 2129 2129 2129 2129 2129 2129 2116 2116 2116 2116 2116 2116 2116 2116 2116 2116 2116 2116 2116 2103 2103 2116 2116 2116 2116 2116 2129 2129 2129 2129 2129 2129 2129 2129 2116 2116 0 0 0 0 0 0 0 0 0
0 0 0 0 0 0 0 0 0 0 0 0 0 0 0 0 0 0 0 0 0 0 0 0 0 0 0 0 0 0 0 0 0 0 1926 1926 1926 1915 1915 1915 1915 1915 1915 1915 1915 1915 1926 1926 1926 1926 1926 1926 1926 1926 1926 1926 1936 1936 1936 1936 1936 1936 1936 1936 1936 1936 1936 1936 1936 1947 1936 1936 1926 1926 1926 1926 1926 1926 1926 1926 1926 1936 1936 1936 1936 1936 1936 1936 1936 1936 1936 1926 1926 1936 1936 1936 1936 1947 1947 1947 1947 1947 1947 1959 1959 1959 1959 1959 1959 1959 1959 1959 1959 1959 1959 1959 1959 1959 1959 1959 1959 1959 1959 1970 1970 1970 1970 1970 1981 1823 1823 1823 1823 1823 1823 1833 1833 1833 1833 1833 1833 1843 1843 1853 1904 1936 1947 1947 1959 1970 1970 1981 1981 1993 1993 1993 1981 1981 1981 1981 1981 1981 1981 1981 1981 1981 1993 1993 1993 1993 1993 1993 1993 1993 1993 1993 1993 1993 1993 1993 1993 1993 1993 1993 1993 1993 1993 2005 2005 2005 2005 2005 2005 2005 2005 2005 2005 2005 2005 2005 2005 2005 2005 1705 1705 1705 1713 1713 1713 1713 1713 1713 1713 1722 1722 1731 1739 1748 1766 1776 1776 1785 1785 1794 1794 1804 1804 1813 1813 1813 1833 1833 1843 2028 2028 2028 2028 2028 2040 2040 2040 2040 2040 1579 1572 1572 1572 1572 1572 1572 1572 1572 1572 1572 1579 1579 1579 1579 1572 1572 1579 1981 2016 2028 2028 2028 2028 2028 2028 2028 2028 2028 1766 1766 1776 1776 1785 1785 1785 1794 1804 1804 1804 1813 1813 1823 1823 1833 2028 2028 2028 2016 2016 2016 2005 1993 1993 1993 1993 1993 2005 2005 2016 2028 2028 2040 2053 2053 2065 2065 2053 2053 2053 2053 2053 2053 2053 2053 2053 2053 2053 2040 2040 2053 2053 2053 2065 2053 2053 2053 2053 2053 2053 2065 2065 2065 2078 2078 1433 1433 1433 1433 1433 1433 1433 1433 1433 1433 1433 1433 1433 1439 1439 1445 1452 1452 1452 1452 2065 2065 2065 2065 2065 2065 2065 2078 2078 2078 2078 2078 2090 2090 2078 2078 2078 2078 2078 2078 2090 2090 2090 2090 2090 2090 2090 2090 2090 2090 1804 1804 1813 1823 1813 1813 1823 1823 1823 1813 1813 1823 2103 2103 2103 2103 2103 2103 2103 2103 2090 2090 2090 2103 2103 2090 2090 2090 2090 2090 2090 2090 2090 2090 2090 2103 2103 2103 2103 2116 2116 1894 1894 1883 1883 1883 1883 1883 1883 1883 1883 1883 0 0 0 1433 0 1433 1433 1433 1433 1433 1433 1433 1433 1427 1427 1427 1427 1427 1427 1427 1427 1427 1433 1439 1445 1452 1452 2090 2090 2090 2103 2103 2103 2103 2103 2103 2103 2103 2103 2103 2103 2103 2116 2116 2116 2116 2116 2116 2116 2116 2116 2129 2129 2129 2116 2116 2116 2116 2103 2090 2090 2103 2103 2103 2103 2103 2103 2103 2103 2103 2116 2103 2103 2103 2103 2103 2103 2116 2116 2116 2116 2116 2116 2116 2116 2116 2116 2116 2116 2116 2116 2116 2116 2116 2116 2116 2129 2129 2129 2129 2129 2129 2129 2129 2129 2129 2129 2129 2129 2129 2129 2129 2129 2129 2129 2129 2129 2129 2129 2129 2129 2129 2129 2129 2129 2129 2129 2129 2129 2129 2129 2129 2129 2129 2129 2129 2129 2116 2116 2116 2116 2116 2129 2129 2129 2116 2116 2116 2116 2116 2116 2116 2116 2116 2116 2116 2116 2116 2116 2116 2116 2116 2116 2116 2103 2103 2103 2103 2116 2116 2116 2116 2116 2103 2103 2103 2103 2103 2116 2116 2116 2116 2116 2116 2116 2116 2116 2116 2116 2116 2116 0 0 0 0 0 0 0 0 0
0 0 0 0 0 0 0 0 0 0 0 0 0 0 0 0 0 0 0 0 0 0 0 0 0 0 0 0 0 0 0 0 0 0 1926 1926 1926 1915 1915 1915 1915 1915 1915 1915 1915 1915 1915 1915 1915 1926 1926 1926 1926 1926 1926 1926 1926 1926 1926 1926 1926 1926 1926 1926 1926 1926 1926 1926 1936 1936 1936 1936 1926 1915 1915 1926 1915 1915 1926 1926 1926 1926 1926 1926 1926 1936 1936 1936 1936 1936 1926 1926 1926 1926 1926 1926 1926 1936 1936 1947 1947 1947 1947 1947 1947 1947 1959 1959 1959 1959 1959 1959 1959 1959 1947 1947 1947 1947 1947 1959 1959 1959 1959 1959 1959 1959 1959 1970 1970 1823 1823 1823 1823 1823 1823 1833 1833 1833 1833 1833 1833 1843 1843 1853 1883 1936 1947 1959 1959 1970 1970 1981 1981 1981 1993 1993 1981 1981 1981 1981 1981 1981 1981 1981 1981 1981 1981 1981 1993 1981 1981 1981 1981 1981 1981 1981 1981 1981 1981 1981 1993 1993 1993 1993 1993 1993 1993 1993 1993 1993 1993 1993 2005 2005 2005 1993 1993 2005 2005 2005 2005 2005 2005 1705 1705 1713 1713 1713 1713 1713 1713 1713 1722 1722 1731 1731 1739 1748 1766 1776 1776 1785 1785 1794 1794 1804 1804 1813 1813 1813 1833 1833 2016 2016 2028 2028 2028 2028 2028 2028 2040 2040 2040 1579 1572 1572 1572 1572 1572 1572 1572 1572 1572 1572 1579 1579 1579 1579 1579 1579 1586 1981 2028 2028 2028 2028 2028 2028 2028 2028 2016 2016 1757 1757 1766 1766 1776 1785 1785 1794 1794 1804 1804 1813 1813 1823 1823 2016 2016 2016 2016 2016 2016 2005 1993 1993 1993 1993 2005 2005 2005 2005 2016 2016 2028 2028 2028 2040 2053 2053 2053 2040 2040 2040 2040 2040 2040 2040 2040 2040 2040 2040 2040 2040 2040 2053 2053 2053 2053 2053 2053 2053 2053 2065 2065 2065 2065 1433 1433 1433 1433 1433 1433 1433 1433 1433 1433 1433 1433 1433 1439 1439 1439 1445 1452 1458 1458 0 2065 2065 2065 2065 2065 2065 2065 2065 2065 2065 2065 2065 2078 2078 2078 2078 2078 2078 2078 2078 2078 2090 2090 2078 2078 2078 2078 2078 2078 2090 1804 1804 1823 1823 1823 1823 1833 1833 1823 1823 1813 1813 1813 2090 2090 2090 2090 2090 2090 2090 2090 2090 2090 2090 2090 2090 2090 2090 2090 2090 2090 2090 2090 2090 2090 2090 2103 2103 2116 2116 2116 1894 1894 1883 1883 1894 1883 1883 1883 1883 1883 1894 0 0 0 0 1433 1433 1433 1439 1439 1433 1433 1433 1433 1427 1427 1427 1427 1427 1427 1427 1427 1433 1433 1439 1445 1452 1452 2090 2090 2090 2090 2090 2103 2103 2103 2103 2103 2103 2103 2103 2103 2103 2103 2103 2103 2103 2103 2103 2103 2103 2103 2116 2116 2116 2116 2116 2103 2103 2103 2090 2090 2090 2090 2090 2090 2103 2103 2103 2103 2103 2103 2103 2103 2103 2103 2103 2103 2103 2103 2103 2103 2103 2103 2103 2103 2103 2103 2103 2103 2103 2103 2103 2103 2103 2103 2103 2116 2116 2116 2116 2116 2129 2129 2129 2129 2129 2129 2129 2129 2129 2129 2129 2129 2116 2116 2116 2116 2116 2116 2116 2129 2129 2129 2129 2129 2129 2129 2129 2116 2116 2116 2116 2129 2129 2129 2116 2116 2116 2116 2116 2116 2116 2116 2116 2129 2116 2116 2116 2116 2116 2116 2116 2116 2116 2116 2116 2116 2116 2116 2116 2116 2103 2103 2103 2103 2103 2103 2103 2103 2103 2103 2103 2103 2090 2090 2090 2103 2103 2103 2103 2116 2116 2116 2116 2116 2116 2116 2116 2116 2103 2103 0 0 0 0 0 0 0 0 0
0 0 0 0 0 0 0 0 0 0 0 0 0 0 0 0 0 0 0 0 0 0 0 0 0 0 0 0 0 0 0 0 0 0 1926 1926 1915 1915 1915 1915 1915 1915 1915 1904 1904 1915 1915 1915 1915 1915 1915 1915 1915 1915 1915 1915 1926 1926 1926 1926 1926 1926 1926 1926 1926 1926 1926 1926 1926 1936 1926 1926 1915 1915 1915 1915 1915 1915 1915 1915 1915 1915 1926 1915 1915 1926 1926 1915 1915 1915 1915 1915 1915 1926 1926 1926 1926 1926 1936 1936 1936 1936 1936 1947 1947 1947 1947 1947 1959 1959 1947 1947 1947 1947 1947 1947 1947 1947 1947 1947 1947 1947 1959 1959 1959 1959 1959 1959 1970 1833 1833 1823 1823 1823 1833 1833 1833 1833 1833 1833 1843 1843 1853 1863 1883 1936 1947 1959 1959 1970 1970 1981 1981 1981 1981 1981 1981 1981 1981 1981 1981 1981 1981 1981 1981 1981 1981 1981 1981 1981 1981 1981 1981 1981 1981 1981 1981 1981 1981 1981 1981 1981 1993 1993 1993 1993 1993 1993 1993 1993 1993 1993 1993 1993 1993 1993 1993 1993 1993 1993 1993 2005 2005 1713 1713 1713 1713 1713 1713 1713 1713 1713 1722 1722 1731 1731 1739 1748 1766 1776 1785 1785 1794 1794 1794 1804 1804 1813 1813 1813 2016 2016 2016 2016 2016 2028 2028 2028 2028 2028 2028 2040 2040 1579 1572 1572 1572 1572 1572 1572 1572 1572 1572 1572 1579 1572 1572 1579 1579 1586 1594 1993 2005 2016 2016 2016 2028 2028 2028 2028 2016 1757 1757 1757 1766 1766 1776 1776 1785 1785 1794 1804 1804 1804 1804 2016 2016 2016 2016 2016 2016 2016 2005 2005 1993 1993 1993 1993 2005 2005 2005 2005 2016 2016 2028 2028 2028 2028 2040 2040 2040 2040 2040 2040 2040 2040 2040 2040 2040 2040 2040 2040 2040 2040 2040 2040 2053 2053 2040 2040 2040 2053 2053 2053 2053 2065 2065 1439 1439 1439 1439 1433 1433 1433 1433 1433 1433 1433 1433 1439 1439 1439 1445 1452 1458 1464 1464 0 2053 2053 2053 2053 2065 2065 2065 2065 2065 2065 2065 2065 2065 2065 2065 2065 2065 2065 2065 2065 2078 2078 2078 2078 2078 2078 2078 2078 2078 2090 1804 1804 1813 1823 1823 1823 1833 1833 1833 1823 1813 1813 1813 2078 2078 2078 2078 2078 2090 2090 2090 2078 2078 2090 2090 2078 2078 2078 2078 2078 2090 2090 2090 2090 2090 2090 2103 2103 2103 1873 1873 1883 1894 1894 1894 1894 1894 1894 1894 1894 1894 1904 0 0 0 1433 1433 1433 1433 1439 1439 1439 1433 1433 1433 1433 1433 1427 1427 1427 1427 1427 1433 1433 1433 1439 1445 1452 2103 2090 2090 2090 2090 2090 2090 2090 2090 2090 2103 2103 2103 2103 2103 2103 2103 2103 2103 2103 2103 2103 2103 2103 2103 2103 2103 2103 2103 2103 2103 2103 2090 2090 2090 2090 2090 2090 2090 2090 2103 2103 2103 2103 2090 2090 2090 2090 2090 2090 2090 2090 2103 2103 2103 2103 2103 2103 2090 2090 2090 2090 2090 2090 2090 2090 2103 2103 2103 2103 2103 2103 2103 2103 2103 2116 2116 2116 2116 2116 2116 2116 2116 2116 2116 2116 2116 2116 2116 2116 2103 2103 2103 2103 2116 2116 2116 2116 2116 2116 2116 2116 2116 2116 2116 2116 2116 2116 2116 2116 2116 2116 2103 2103 2103 2103 2116 2116 2116 2116 2116 2116 2116 2116 2116 2116 2116 2116 2116 2116 2116 2116 2116 2116 2116 2103 2103 2090 2090 2090 2090 2090 2090 2090 2103 2103 2103 2090 2090 2090 2090 2090 2103 2103 2103 2103 2116 2116 2116 2103 2103 2103 2103 2090 2090 0 0 0 0 0 0 0 0 0
0 0 0 0 0 0 0 0 0 0 0 0 0 0 0 0 0 0 0 0 0 0 0 0 0 0 0 0 0 0 0 0 0 0 1915 1915 1915 1915 1915 1915 1904 1904 1904 1904 1904 1904 1904 1915 1915 1915 1915 1915 1915 1915 1915 1915 1915 1915 1915 1915 1926 1926 1926 1915 1915 1915 1915 1915 1915 1915 1915 1915 1915 1915 1915 1915 1915 1915 1915 1915 1915 1915 1915 1915 1915 1915 1915 1915 1915 1915 1915 1915 1915 1915 1915 1915 1915 1926 1926 1926 1926 1926 1926 1936 1936 1936 1936 1936 1936 1936 1926 1926 1936 1936 1936 1947 1947 1947 1947 1947 1947 1947 1947 1947 1947 1947 1947 1947 1947 1843 1843 1833 1833 1833 1833 1833 1833 1833 1833 1833 1843 1843 1853 1863 1883 1936 1947 1959 1959 1970 1970 1970 1970 1970 1970 1981 1970 1970 1970 1970 1970 1970 1970 1970 1970 1970 1981 1981 1981 1981 1981 1981 1981 1970 1970 1970 1970 1970 1981 1981 1981 1981 1981 1981 1981 1981 1981 1981 1993 1993 1981 1981 1981 1993 1993 1981 1981 1993 1993 1993 1993 2005 2005 2005 1713 1713 1713 1713 1713 1713 1713 1713 1722 1722 1731 1731 1739 1748 1776 1776 1785 1785 1785 1785 1794 1804 1804 1785 1785 2016 2016 2016 2005 2005 2016 2016 2016 2016 2016 2028 2028 2028 2028 1579 1572 1572 1572 1572 1572 1572 1572 1572 1579 1579 1579 1572 1572 1572 1579 1586 1594 1993 2005 2016 2016 2016 2028 2028 2028 2028 1739 1739 1748 1757 1757 1776 1776 1776 1776 1785 1794 1804 1804 1804 1804 2016 2016 2016 2016 2016 2016 2016 2005 1993 1993 1993 1993 1993 1993 2005 2005 2005 2016 2016 2028 2028 2028 2028 2028 2028 2028 2028 2028 2028 2028 2028 2028 2028 2028 2028 2028 2028 2028 2040 2040 2040 2040 2040 2040 2040 2040 2040 2040 2053 2053 2065 2065 1439 1439 1439 1439 1439 1433 1433 1433 1433 1433 1433 1433 1439 1439 1445 1445 1452 1458 1470 1470 1483 2053 2053 2053 2053 2053 2053 2065 2065 2065 2065 2053 2053 2065 2065 2065 2065 2065 2065 2065 2065 2065 2065 2065 2065 2065 2065 2065 2078 2078 2090 1804 1804 1813 1823 1823 1823 1823 1823 1833 1823 1823 1813 1813 1813 2078 2078 2078 2078 2078 2078 2078 2078 2078 2078 2078 2065 2065 2078 2078 2078 2078 2078 2078 2078 2078 2090 2090 2090 2103 1873 1873 1883 1894 1894 1894 1894 1894 1894 1894 1904 1904 1915 0 0 0 1439 1439 1439 1439 1439 1439 1439 1439 1439 1433 1433 1433 1433 1433 1427 1427 1427 1433 1433 1433 1439 1439 1452 2103 2090 2090 2090 2090 2090 2090 2078 2078 2078 2078 2078 2090 2090 2090 2090 2090 2090 2090 2090 2090 2090 2090 2090 2090 2090 2090 2090 2090 2090 2090 2090 2090 2078 2078 2078 2078 2078 2090 2090 2090 2090 2090 2090 2090 2090 2090 2090 2090 2090 2090 2090 2090 2090 2090 2090 2090 2090 2090 2090 2090 2090 2090 2090 2090 2090 2090 2090 2090 2090 2103 2090 2090 2103 2103 2103 2103 2103 2103 2103 2116 2116 2116 2116 2116 2116 2103 2103 2103 2103 2103 2103 2103 2103 2103 2103 2103 2103 2103 2103 2103 2103 2103 2103 2103 2103 2103 2103 2116 2116 2116 2103 2103 2103 2103 2103 2103 2103 2103 2103 2103 2103 2103 2103 2103 2103 2103 2103 2103 2103 2103 2103 2103 2103 2103 2090 2090 2090 2090 2090 2090 2090 2090 2090 2090 2090 2090 2078 2078 2078 2090 2090 2103 2103 2103 2103 2103 2103 2103 2103 2090 2090 2090 2078 2078 0 0 0 0 0 0 0 0 0
0 0 0 0 0 0 0 0 0 0 0 0 0 0 0 0 0 0 0 0 0 0 0 0 0 0 0 0 0 0 0 0 0 0 1904 1904 1904 1904 1904 1904 1894 1894 1894 1894 1894 1894 1894 1894 1904 1904 1904 1904 1904 1904 1904 1904 1915 1904 1904 1904 1904 1915 1915 1915 1915 1915 1915 1915 1915 1915 1894 1894 1904 1904 1904 1904 1904 1904 1904 1904 1904 1904 1904 1904 1904 1915 1915 1915 1915 1915 1915 1915 1915 1915 1915 1915 1915 1915 1915 1915 1915 1926 1926 1926 1926 1926 1926 1926 1926 1926 1926 1926 1926 1926 1936 1936 1936 1936 1936 1947 1947 1947 1947 1936 1936 1947 1947 1936 1926 1883 1863 1833 1833 1833 1833 1833 1833 1833 1833 1843 1853 1853 1853 1873 1883 1936 1947 1959 1959 1959 1959 1970 1970 1970 1970 1970 1970 1959 1959 1959 1959 1959 1970 1970 1959 1959 1970 1970 1970 1970 1970 1970 1970 1970 1970 1970 1970 1970 1970 1970 1970 1970 1981 1981 1981 1981 1981 1981 1981 1981 1981 1981 1981 1981 1981 1981 1981 1993 1993 1993 1993 1993 1993 1993 1722 1722 1722 1722 1722 1713 1713 1713 1722 1722 1731 1731 1739 1748 1776 1776 1785 1785 1785 1785 1794 1804 1804 1785 1785 2005 2016 2005 2005 2005 2005 2005 2005 2005 2005 2016 2016 2028 2028 1579 1572 1572 1572 1579 1579 1579 1572 1572 1579 1579 1579 1579 1572 1572 1579 1586 1594 1993 1993 1993 2005 2016 2028 2028 2028 1731 1731 1739 1739 1748 1757 1766 1776 1776 1776 1785 1794 1804 1804 1804 1804 2016 2016 2016 2016 2005 2005 2005 2005 1993 1993 1993 1993 1993 1993 2005 2016 2016 2016 2016 2016 2016 2028 2028 2028 2028 2028 2028 2028 2028 2028 2028 2028 2028 2028 2028 2028 2028 2028 2028 2028 2040 2040 2040 2028 2028 2028 2028 2028 2028 2040 2053 2053 1439 1439 1439 1439 1439 1439 1439 1433 1433 1433 1433 1433 1439 1439 1445 1445 1452 1458 1470 1483 1483 0 2053 2040 2040 2053 2053 2053 2053 2053 2053 2053 2053 2053 2053 2053 2053 2065 2065 2065 2065 2065 2065 2065 2053 2053 2065 2065 2078 1794 1794 1804 1804 1804 1823 1823 1823 1823 1823 1833 1823 1823 1804 1804 1804 2065 2065 2065 2065 2078 2078 2078 2065 2065 2078 2078 2065 2065 2065 2065 2065 2078 2065 2065 2078 2078 2078 2090 2090 1873 1873 1873 1883 1894 1894 1894 1894 1894 1904 1904 1904 1904 1915 1915 0 1445 1445 1439 1439 1439 1439 1439 1439 1439 1439 1433 1433 1433 1433 1433 1433 1433 1433 1433 1433 1433 1439 1439 2090 2090 2090 2090 2090 2078 2078 2078 2078 2065 2065 2065 2078 2078 2090 2090 2090 2090 2090 2090 2090 2090 2090 2090 2090 2078 2078 2078 2078 2078 2078 2090 2090 2090 2078 2078 2078 2078 2078 2078 2090 2090 2090 2090 2090 2090 2090 2090 2090 2090 2090 2090 2090 2090 2090 2090 2090 2090 2090 2090 2090 2090 2090 2078 2078 2090 2090 2090 2090 2090 2090 2090 2090 2090 2090 2090 2103 2103 2103 2103 2103 2103 2103 2103 2103 2103 2103 2103 2103 2103 2103 2090 2090 2090 2090 2103 2103 2103 2103 2103 2103 2103 2103 2103 2103 2103 2103 2103 2103 2103 2103 2103 2103 2090 2090 2090 2090 2090 2103 2103 2090 2090 2103 2103 2103 2103 2103 2103 2103 2103 2103 2103 2090 2090 2090 2090 2078 2078 2078 2078 2078 2090 2090 2090 2090 2090 2078 2078 2078 2078 2078 2090 2090 2090 2090 2103 2103 2103 2090 2090 2090 2078 2078 2078 2078 2078 0 0 0 0 0 0 0 0 0
0 0 0 0 0 0 0 0 0 0 0 0 0 0 0 0 0 0 0 0 0 0 0 0 0 0 0 0 0 0 0 0 0 0 1894 1894 1894 1894 1894 1894 1883 1883 1883 1883 1883 1883 1883 1894 1894 1894 1894 1894 1904 1904 1904 1904 1904 1894 1894 1894 1894 1904 1904 1904 1904 1915 1915 1915 1904 1904 1894 1894 1894 1894 1894 1894 1894 1894 1894 1904 1904 1904 1904 1894 1894 1904 1904 1904 1904 1904 1904 1904 1904 1904 1904 1904 1915 1915 1915 1915 1915 1915 1915 1915 1915 1915 1915 1915 1915 1915 1915 1915 1915 1915 1915 1926 1936 1936 1936 1936 1947 1936 1936 1936 1936 1936 1936 1936 1926 1894 1883 1843 1843 1833 1833 1843 1843 1843 1843 1843 1853 1853 1863 1873 1873 1936 1947 1959 1959 1959 1959 1959 1970 1959 1959 1959 1959 1959 1959 1959 1959 1959 1959 1959 1947 1947 1959 1959 1959 1959 1959 1970 1970 1970 1959 1959 1959 1959 1970 1959 1959 1970 1970 1970 1970 1981 1981 1981 1981 1981 1981 1981 1981 1981 1981 1981 1981 1981 1981 1993 1993 1993 1993 1993 1722 1722 1722 1722 1722 1713 1713 1722 1722 1731 1731 1739 1748 1757 1776 1776 1776 1785 1785 1785 1785 1804 1804 1993 1993 2005 2005 2005 1993 1993 2005 2005 2005 2005 2005 2016 2016 2028 2028 1579 1572 1572 1579 1579 1579 1579 1579 1579 1579 1579 1579 1579 1586 1586 1594 1594 1594 1601 1981 1981 1993 2005 2016 2016 2016 1731 1731 1739 1739 1748 1757 1766 1766 1776 1776 1785 1794 1804 1804 2016 2016 2005 2005 2005 2005 2005 2005 2005 2005 1993 1993 1993 1993 2005 2005 2005 2016 2016 2016 2016 2016 2016 2016 2028 2028 2028 2028 2028 2028 2028 2028 2028 2028 2028 2028 2028 2028 2028 2028 2028 2028 2028 2040 2040 2028 2028 2028 2028 2016 2016 2028 2053 2053 1445 1439 1439 1439 1439 1439 1439 1433 1433 1439 1439 1439 1439 1445 1445 1452 1458 1458 1477 1483 1483 1483 2028 2028 2028 2040 2040 2040 2040 2053 2053 2040 2040 2040 2053 2053 2053 2053 2053 2053 2053 2053 2065 2065 2053 2053 2053 2053 1794 1794 1794 1804 1804 1804 1813 1823 1823 1833 1833 1833 1833 1823 1804 1804 1804 2065 2065 2065 2065 2065 2065 2065 2065 2065 2065 2065 2065 2065 2065 2065 2065 2078 2065 2065 2065 2065 2065 2078 2078 1873 1873 1883 1894 1894 1894 1894 1894 1894 1904 1904 1904 1904 1915 1915 0 1445 1445 1445 1445 1445 1445 1439 1439 1439 1439 1439 1433 1433 1433 1433 1433 1433 1433 1433 1433 1433 1433 1433 2090 2090 2090 2090 2090 2078 2078 2078 2065 2065 2065 2065 2078 2078 2078 2078 2078 2078 2090 2090 2090 2078 2078 2078 2078 2078 2065 2065 2078 2078 2078 2078 2078 2078 2078 2078 2078 2078 2078 2078 2078 2078 2078 2078 2078 2090 2090 2090 2090 2078 2078 2078 2078 2078 2078 2078 2078 2078 2078 2078 2078 2078 2078 2078 2078 2090 2090 2090 2090 2090 2090 2090 2090 2090 2090 2090 2090 2090 2103 2090 2090 2090 2090 2090 2090 2090 2090 2090 2090 2090 2090 2090 2090 2090 2090 2090 2090 2090 2103 2103 2103 2103 2103 2103 2103 2090 2090 2090 2103 2103 2103 2103 2090 2090 2090 2090 2090 2090 2090 2090 2090 2090 2090 2090 2090 2090 2103 2090 2090 2090 2090 2090 2078 2078 2078 2078 2078 2078 2078 2078 2078 2078 2078 2078 2078 2078 2078 2078 2078 2078 2078 2078 2078 2078 2078 2090 2090 2090 2078 2078 2078 2078 2078 2078 2065 2065 0 0 0 0 0 0 0 0 0
0 0 0 0 0 0 0 0 0 0 0 0 0 0 0 0 0 0 0 0 0 0 0 0 0 0 0 0 0 0 0 0 0 0 1883 1883 1883 1883 1883 1883 1883 1883 1883 1883 1883 1883 1883 1883 1883 1883 1894 1894 1894 1904 1904 1894 1894 1894 1894 1894 1894 1894 1894 1894 1894 1915 1915 1915 1894 1894 1883 1883 1883 1883 1883 1883 1883 1894 1894 1894 1894 1904 1904 1894 1894 1894 1894 1894 1894 1894 1904 1904 1904 1904 1904 1904 1904 1904 1904 1904 1904 1904 1904 1915 1915 1915 1915 1915 1915 1915 1915 1915 1915 1915 1915 1915 1915 1915 1915 1926 1936 1926 1926 1926 1926 1926 1926 1926 1915 1894 1873 1843 1843 1833 1833 1833 1833 1843 1843 1843 1843 1853 1853 1873 1873 1904 1936 1947 1947 1947 1959 1959 1959 1959 1959 1959 1959 1947 1947 1947 1947 1959 1959 1947 1947 1947 1959 1959 1959 1959 1959 1959 1959 1959 1959 1959 1959 1959 1959 1959 1959 1959 1959 1959 1959 1970 1970 1970 1970 1970 1970 1970 1970 1970 1981 1981 1981 1981 1981 1981 1993 1993 1993 1993 1731 1722 1722 1722 1722 1722 1722 1722 1722 1731 1739 1739 1748 1757 1776 1776 1776 1785 1785 1785 1785 1993 1993 1993 1993 1993 1993 1993 1993 1993 1993 1993 1993 1993 2005 2005 2005 2028 2028 1586 1579 1579 1579 1579 1579 1579 1579 1579 1579 1579 1579 1579 1586 1594 1594 1594 1594 1601 1981 1981 1993 2005 2005 2005 2016 1739 1739 1739 1748 1748 1757 1766 1766 1776 1776 1785 1794 1794 1804 2005 2005 2005 2005 2005 1993 1993 1993 1993 1993 1993 1993 1993 2005 2005 2005 2005 2005 2016 2016 2016 2016 2016 2016 2016 2016 2016 2016 2016 2016 2028 2016 2016 2016 2016 2028 2028 2028 2028 2028 2028 2028 2028 2028 2028 2016 2016 2016 2016 2016 2016 2016 2016 1445 1445 1439 1439 1439 1439 1439 1439 1439 1439 1439 1439 1439 1445 1445 1452 1458 1458 1464 1464 1464 2016 0 2028 2028 2028 2040 2040 2040 2040 2053 2053 2040 2040 2040 2040 2040 2053 2053 2053 2053 2053 2053 2053 2053 2053 2053 2053 1776 1776 1785 1794 1804 1804 1804 1813 1813 1823 1833 1833 1833 1833 1833 1833 2065 2065 2065 2065 2065 2065 2065 2065 2065 2065 2065 2065 2065 2053 2053 2053 2065 2065 2065 2065 2065 2065 2065 2065 2065 1883 1873 1873 1883 1894 1894 1894 1894 1894 1894 1904 1904 1904 1915 1926 1926 1458 1452 1452 1445 1445 1445 1445 1445 1445 1439 1439 1439 1433 1433 1433 1433 1433 1433 1433 1433 1433 1433 1433 1433 2090 2090 2090 2090 2078 2078 2078 2078 2065 2053 2053 2065 2065 2065 2065 2065 2065 2065 2078 2078 2078 2078 2078 2078 2078 2065 2065 2065 2065 2065 2065 2065 2065 2065 2065 2065 2065 2065 2078 2078 2078 2078 2078 2078 2078 2078 2078 2078 2078 2078 2078 2065 2065 2078 2078 2078 2065 2065 2065 2065 2065 2078 2078 2078 2078 2078 2078 2078 2078 2078 2078 2078 2090 2090 2090 2090 2090 2090 2090 2090 2090 2090 2090 2090 2090 2090 2090 2090 2090 2090 2090 2090 2090 2090 2090 2090 2090 2090 2090 2090 2090 2090 2090 2090 2090 2090 2090 2090 2090 2090 2090 2090 2090 2090 2090 2090 2090 2090 2090 2090 2078 2078 2078 2078 2078 2090 2090 2090 2090 2090 2090 2078 2065 2065 2065 2065 2065 2065 2065 2065 2078 2078 2078 2078 2078 2078 2065 2065 2065 2065 2078 2078 2078 2078 2078 2078 2090 2078 2078 2078 2078 2078 2065 2065 2065 2065 2065 0 0 0 0 0 0 0 0
0 0 0 0 0 0 0 0 0 0 0 0 0 0 0 0 0 0 0 0 0 0 0 0 0 0 0 0 0 0 0 0 0 0 1883 1883 1883 1883 1883 1883 1873 1873 1873 1873 1873 1873 1873 1873 1883 1883 1883 1883 1894 1894 1894 1894 1883 1883 1883 1883 1883 1883 1883 1883 1883 1894 1904 1904 1883 1883 1883 1883 1883 1883 1883 1883 1883 1883 1894 1894 1894 1894 1894 1894 1894 1883 1883 1883 1883 1883 1894 1894 1894 1904 1904 1904 1904 1904 1904 1904 1904 1904 1904 1904 1904 1915 1915 1915 1915 1915 1915 1915 1915 1915 1915 1915 1915 1915 1915 1915 1915 1926 1915 1915 1915 1915 1915 1915 1904 1883 1873 1843 1843 1833 1833 1833 1833 1843 1843 1843 1843 1853 1853 1873 1883 1904 1936 1947 1947 1947 1947 1947 1947 1947 1947 1947 1947 1947 1936 1936 1947 1947 1947 1947 1947 1947 1947 1947 1947 1947 1947 1947 1947 1947 1947 1947 1947 1947 1947 1947 1947 1947 1947 1947 1947 1947 1959 1959 1959 1959 1959 1959 1970 1970 1970 1981 1981 1981 1981 1981 1981 1981 1993 1993 1731 1731 1722 1722 1722 1722 1722 1722 1722 1731 1739 1739 1757 1766 1776 1776 1785 1785 1785 1785 1981 1981 1981 1981 1981 1993 1993 1993 1993 1993 1993 1993 1993 1993 1993 2005 2005 2028 1579 1579 1579 1579 1579 1579 1579 1579 1579 1579 1579 1579 1579 1586 1594 1594 1601 1594 1594 1993 1993 1993 1993 2005 2005 2005 1739 1739 1739 1739 1748 1748 1757 1766 1766 1766 1776 1785 1794 1794 2005 2005 2005 1993 1993 1993 1993 1993 1993 1993 1993 1993 1993 1993 1993 1993 2005 2005 2005 2005 2005 2005 2005 2005 2016 2016 2016 2016 2016 2016 2016 2016 2016 2016 2016 2016 2016 2016 2016 2016 2016 2016 2016 2016 2016 2028 2016 2005 2005 2016 2016 2016 2016 2016 1445 1445 1439 1439 1439 1439 1439 1439 1439 1439 1439 1439 1439 1445 1445 1452 1452 1458 1464 1464 2016 2016 2016 2016 2016 2016 2040 2040 2028 2028 2028 2040 2028 2028 2028 2040 2040 2040 2040 2053 2053 2053 2053 2053 2053 2065 2065 1776 1776 1776 1785 1785 1794 1794 1804 1813 1813 1813 1823 1833 1833 1833 1843 1843 2053 2053 2053 2053 2053 2053 2053 2053 2053 2053 2053 2053 2065 2053 2053 2053 2053 2053 2053 2053 2053 2053 2053 2053 2053 1883 1883 1883 1894 1894 1894 1894 1894 1894 1904 1904 1915 1915 1915 1926 1926 1458 1458 1452 1445 1445 1445 1445 1445 1445 1445 1445 1439 1439 1439 1433 1433 1433 1433 1433 1433 1433 1433 1433 1433 1433 2078 2078 2065 2065 2065 2065 2065 2053 2053 2053 2053 2053 2053 2053 2053 2053 2065 2065 2065 2065 2065 2065 2065 2065 2065 2053 2053 2065 2065 2065 2065 2065 2065 2065 2065 2065 2065 2065 2065 2065 2065 2065 2065 2065 2065 2065 2065 2053 2053 2053 2053 2053 2065 2065 2065 2065 2065 2065 2065 2065 2065 2065 2065 2065 2078 2078 2078 2078 2078 2078 2078 2078 2078 2078 2078 2078 2078 2078 2078 2078 2065 2065 2078 2078 2078 2078 2078 2078 2078 2078 2078 2078 2078 2078 2078 2078 2090 2090 2090 2090 2090 2090 2090 2090 2090 2090 2090 2090 2090 2090 2090 2090 2090 2090 2090 2090 2090 2090 2090 2065 2065 2078 2078 2078 2078 2078 2078 2078 2078 2078 2065 2065 2065 2065 2065 2065 2065 2065 2065 2065 2078 2078 2065 2065 2065 2065 2065 2065 2065 2065 2065 2065 2078 2078 2078 2078 2078 2078 2078 2078 2065 2065 2065 2065 2065 2065 0 0 0 0 0 0 0 0
0 0 0 0 0 0 0 0 0 0 0 0 0 0 0 0 0 0 0 0 0 0 0 0 0 0 0 0 0 0 0 0 0 0 1873 1873 1873 1873 1873 1873 1873 1873 1873 1873 1873 1873 1873 1873 1873 1873 1883 1883 1883 1883 1883 1883 1883 1883 1883 1883 1883 1883 1883 1883 1883 1883 1883 1883 1883 1883 1883 1883 1883 1883 1883 1883 1883 1883 1883 1883 1883 1883 1883 1883 1883 1883 1883 1883 1883 1883 1894 1894 1894 1894 1904 1904 1904 1894 1894 1904 1904 1904 1904 1904 1904 1904 1904 1904 1915 1915 1915 1915 1904 1904 1904 1904 1904 1904 1904 1915 1915 1915 1915 1915 1915 1915 1915 1915 1904 1883 1873 1853 1843 1843 1833 1833 1833 1843 1843 1843 1853 1853 1863 1873 1883 1915 1936 1936 1936 1947 1947 1947 1947 1947 1947 1947 1936 1936 1936 1936 1947 1936 1936 1936 1936 1936 1947 1947 1947 1947 1947 1947 1947 1947 1947 1947 1947 1947 1936 1936 1947 1947 1947 1947 1947 1947 1947 1947 1947 1947 1947 1959 1959 1959 1959 1959 1959 1959 1959 1959 1970 1970 1970 1981 1731 1722 1722 1722 1722 1722 1722 1722 1722 1731 1739 1739 1748 1757 1766 1776 1785 1785 1785 1981 1981 1981 1981 1981 1981 1993 1993 1981 1981 1981 1981 1981 1981 1981 1993 1993 2005 2005 1579 1579 1579 1579 1579 1579 1579 1579 1579 1579 1579 1579 1579 1586 1594 1594 1601 1601 1601 1981 1981 1993 1993 1993 2005 1731 1731 1731 1739 1739 1748 1748 1748 1757 1766 1766 1766 1785 1794 2005 2005 1993 1993 1993 1993 1993 1981 1981 1981 1981 1981 1981 1981 1981 1993 1993 1993 1993 2005 2005 2005 2005 2005 2005 2005 2005 2016 2016 2016 2016 2016 2016 2016 2016 2016 2016 2016 2005 2005 2005 2005 2016 2016 2016 2016 2016 2005 2005 2005 2005 2005 2005 2005 2005 1445 1445 1439 1439 1439 1439 1439 1439 1439 1439 1439 1439 1439 1445 1445 1452 1452 1458 1458 1458 2016 2016 2005 2005 2016 2016 2016 2016 2016 2016 2016 2016 2016 2016 2028 2028 2028 2040 2040 2040 2053 2053 2053 2053 2053 2065 2065 1776 1776 1776 1785 1785 1794 1794 1804 1804 1813 1813 1823 1823 1833 1833 1843 1843 2053 2053 2053 2053 2053 2053 2053 2053 2053 2053 2053 2053 2053 2053 2040 2040 2040 2053 2053 2040 2040 2053 2053 2053 2053 2040 1894 1894 1894 1894 1904 1904 1904 1904 1904 1904 1915 1915 1915 1926 1458 1458 1458 1458 1452 1452 1445 1445 1445 1445 1445 1445 1445 1439 1439 1439 1433 1433 1433 1433 1439 1439 1439 1439 1439 1439 2078 2065 2053 2053 2053 2053 2053 2053 2053 2053 2053 2053 2053 2053 2053 2053 2053 2065 2065 2065 2065 2053 2053 2053 2053 2053 2053 2053 2053 2053 2053 2053 2065 2053 2053 2053 2053 2065 2053 2053 2053 2053 2053 2053 2053 2040 2040 2040 2040 2040 2040 2040 2053 2053 2053 2053 2053 2053 2053 2053 2053 2053 2053 2053 2065 2065 2065 2065 2065 2065 2065 2065 2065 2078 2078 2078 2078 2078 2078 2065 2065 2065 2065 2065 2065 2065 2065 2065 2065 2078 2078 2078 2078 2078 2078 2078 2078 2078 2078 2078 2090 2090 2090 2090 2090 2090 2090 2090 2090 2090 2090 2090 2078 2078 2090 2078 2078 2078 2078 2065 2065 2065 2065 2065 2078 2078 2078 2078 2078 2065 2065 2065 2065 2065 2065 2065 2065 2065 2065 2065 2065 2065 2065 2065 2065 2065 2065 2065 2065 2065 2065 2065 2065 2078 2078 2078 2078 2078 2078 2078 2065 2065 2065 2065 2065 2065 0 0 0 0 0 0 0 0
0 0 0 0 0 0 0 0 0 0 0 0 0 0 0 0 0 0 0 0 0 0 0 0 0 0 0 0 0 0 0 0 0 0 1873 1873 1873 1873 1873 1873 1873 1873 1873 1873 1873 1863 1863 1873 1873 1873 1873 1873 1883 1883 1883 1883 1873 1873 1883 1883 1883 1883 1873 1873 1873 1883 1883 1883 1883 1883 1873 1873 1873 1873 1873 1873 1873 1873 1883 1883 1883 1883 1883 1883 1873 1873 1873 1873 1873 1883 1883 1883 1894 1894 1894 1894 1894 1894 1894 1894 1894 1894 1894 1894 1894 1904 1904 1904 1904 1904 1904 1904 1904 1904 1904 1894 1894 1904 1904 1904 1904 1904 1904 1904 1904 1915 1915 1915 1904 1883 1863 1843 1843 1843 1833 1833 1833 1843 1843 1843 1853 1853 1863 1873 1883 1904 1915 1926 1936 1936 1936 1936 1936 1936 1947 1947 1936 1936 1936 1936 1936 1936 1936 1936 1936 1936 1936 1936 1936 1936 1947 1947 1947 1947 1947 1947 1936 1936 1936 1936 1936 1936 1936 1936 1947 1947 1947 1947 1947 1947 1947 1947 1947 1947 1959 1947 1947 1947 1959 1959 1959 1959 1959 1731 1731 1722 1722 1722 1722 1722 1722 1722 1731 1731 1739 1739 1748 1757 1766 1776 1785 1785 1970 1970 1970 1970 1970 1970 1970 1970 1970 1970 1970 1970 1981 1981 1981 1981 1981 1981 1993 1993 1579 1579 1579 1579 1579 1579 1579 1579 1579 1579 1579 1579 1586 1586 1594 1594 1601 1601 1601 1981 1981 1981 1993 1993 1722 1722 1731 1731 1731 1739 1739 1748 1748 1757 1757 1766 1766 2016 1993 1993 1993 1993 1993 1981 1981 1981 1981 1981 1981 1981 1981 1981 1981 1981 1993 1993 1993 1993 1993 1993 1993 1993 1993 1993 2005 2005 2005 2005 2016 2016 2016 2016 2005 2005 2005 2005 2005 2005 2005 2005 2005 2016 2016 2016 2016 2016 2005 2005 2005 2005 2005 2005 2005 2005 1445 1445 1439 1439 1439 1439 1439 1439 1439 1439 1439 1439 1439 1445 1445 1452 1452 1458 1458 0 2016 2016 2005 2005 2016 2016 2016 2016 2016 2016 2016 2016 2016 2016 2016 2028 2028 2028 2028 2040 2040 2053 2053 2053 2053 2065 1766 1766 1776 1776 1785 1785 1794 1794 1794 1804 1813 1813 1823 1823 1833 1843 1843 2040 2040 2053 2053 2053 2053 2053 2040 2040 2040 2040 2040 2053 2053 2040 2040 2040 2040 2040 2040 2040 2040 2040 2040 2040 2040 2040 1894 1894 1894 1894 1904 1904 1904 1904 1904 1904 1915 1915 1915 1915 1458 1458 1458 1458 1452 1452 1452 1452 1452 1452 1445 1445 1445 1445 1439 1433 1433 1433 1433 1433 1439 1439 1439 1439 1439 1439 2053 2053 2053 2053 2053 2053 2053 2053 2040 2040 2040 2053 2053 2053 2053 2053 2053 2053 2053 2053 2053 2053 2053 2053 2053 2053 2053 2053 2053 2053 2053 2053 2053 2053 2040 2040 2053 2053 2053 2053 2040 2040 2053 2040 2040 2040 2040 2040 2040 2040 2040 2040 2040 2040 2053 2053 2053 2053 2053 2040 2040 2040 2040 2040 2053 2053 2053 2065 2065 2065 2065 2065 2065 2065 2065 2065 2065 2065 2065 2065 2065 2065 2065 2065 2065 2053 2053 2065 2065 2065 2065 2065 2078 2078 2078 2078 2078 2078 2078 2078 2078 2078 2078 2078 2078 2078 2078 2078 2078 2078 2078 2078 2078 2078 2078 2078 2078 2078 2078 2065 2065 2065 2065 2065 2065 2065 2065 2065 2065 2065 2065 2065 2065 2065 2065 2053 2053 2053 2053 2053 2053 2065 2065 2065 2065 2065 2065 2053 2053 2065 2065 2065 2065 2065 2065 2065 2078 2078 2078 2078 2065 2065 2065 2065 2065 2065 0 0 0 0 0 0 0 0
0 0 0 0 0 0 0 0 0 0 0 0 0 0 0 0 0 0 0 0 0 0 0 0 0 0 0 0 0 0 0 0 0 0 1863 1863 1863 1863 1873 1873 1873 1863 1863 1863 1863 1863 1863 1873 1873 1873 1873 1873 1873 1873 1873 1873 1873 1873 1873 1873 1873 1873 1873 1873 1873 1873 1873 1873 1873 1873 1873 1873 1873 1873 1873 1873 1873 1873 1883 1883 1883 1873 1873 1873 1873 1873 1873 1873 1873 1873 1883 1873 1873 1883 1894 1894 1883 1883 1883 1883 1883 1894 1894 1894 1894 1894 1904 1904 1904 1904 1904 1904 1904 1904 1904 1894 1894 1894 1894 1904 1904 1904 1904 1904 1904 1904 1915 1904 1894 1883 1863 1843 1843 1843 1833 1833 1833 1833 1833 1843 1853 1853 1873 1883 1883 1904 1915 1915 1915 1926 1926 1926 1926 1936 1936 1936 1926 1926 1936 1936 1936 1936 1936 1936 1936 1936 1936 1936 1936 1936 1936 1936 1936 1936 1936 1936 1936 1936 1936 1936 1936 1936 1936 1936 1936 1936 1947 1947 1947 1947 1947 1947 1947 1947 1947 1947 1947 1947 1947 1947 1947 1959 1959 1722 1722 1722 1722 1722 1722 1722 1722 1722 1731 1731 1739 1739 1748 1748 1748 1776 1959 1959 1970 1970 1970 1959 1959 1959 1959 1959 1970 1970 1970 1970 1970 1970 1970 1970 1981 1981 1981 1981 1981 1586 1579 1579 1579 1579 1579 1579 1579 1579 1579 1579 1586 1586 1594 1594 1601 1601 1981 1981 1705 1696 1696 1705 1713 1713 1722 1722 1731 1739 1739 1748 1748 1757 1757 1766 1981 1993 1993 1981 1981 1981 1981 1981 1981 1981 1981 1981 1981 1981 1981 1993 1993 1993 1993 1993 1993 1993 1993 1993 1993 1993 1993 1993 1993 1993 2005 2005 2005 2005 2016 2016 1993 1993 1993 1993 1993 1993 1993 1993 1993 2005 2005 2005 2016 2016 2005 1993 1993 1993 1993 1993 1993 1993 1445 1445 1439 1439 1439 1439 1439 1439 1439 1439 1439 1439 1439 1445 1445 1452 1452 1458 1458 2005 2005 2005 2005 2005 2005 2005 2016 2016 2016 2016 2016 2016 2016 2016 2016 2016 2016 2028 2028 2028 2028 2040 2053 2053 2053 2065 1766 1766 1766 1776 1776 1776 1785 1794 1794 1804 1813 1813 1823 1833 1833 1843 1843 2040 2040 2040 2040 2040 2040 2040 2040 2040 2040 2040 2040 2040 2040 2028 2028 2028 2028 2028 2028 2028 2028 2028 2040 2040 2028 2028 1904 1904 1904 1904 1904 1904 1904 1904 1904 1904 1915 1915 1926 2005 1458 1458 1458 1458 1452 1452 1452 1452 1452 1452 1445 1445 1445 1445 1439 1433 1433 1433 1433 1433 1439 1433 1433 1433 1439 2028 2040 2040 2040 2040 2040 2040 2040 2040 2040 2040 2040 2040 2040 2053 2053 2053 2053 2053 2053 2053 2053 2053 2053 2053 2053 2040 2040 2053 2053 2053 2040 2040 2053 2040 2040 2040 2040 2053 2053 2040 2040 2040 2040 2040 2040 2040 2040 2040 2040 2040 2040 2040 2040 2040 2053 2053 2040 2040 2040 2040 2040 2040 2040 2040 2040 2053 2053 2053 2053 2053 2053 2053 2053 2053 2053 2053 2053 2053 2053 2053 2053 2053 2053 2053 2053 2053 2053 2053 2053 2053 2053 2065 2065 2065 2065 2065 2053 2053 2053 2065 2065 2065 2065 2065 2065 2078 2065 2065 2065 2065 2078 2065 2065 2065 2078 2078 2078 2078 2065 2053 2053 2040 2040 2053 2040 2040 2040 2040 2065 2065 2065 2065 2065 2053 2053 2053 2053 2053 2053 2053 2053 2053 2053 2053 2053 2053 2053 2053 2053 2053 2053 2053 2053 2065 2065 2065 2065 2065 2065 2078 2065 2065 2065 2065 2065 2065 0 0 0 0 0 0 0 0
0 0 0 0 0 0 0 0 0 0 0 0 0 0 0 0 0 0 0 0 0 0 0 0 0 0 0 0 0 0 0 0 0 0 1863 1853 1853 1853 1863 1863 1863 1863 1863 1863 1863 1863 1863 1863 1863 1873 1873 1873 1873 1873 1873 1873 1873 1873 1873 1873 1873 1873 1873 1873 1873 1873 1873 1873 1873 1873 1873 1873 1873 1873 1873 1873 1873 1873 1873 1873 1873 1873 1873 1873 1873 1863 1863 1873 1873 1873 1873 1873 1873 1883 1883 1883 1883 1883 1873 1873 1883 1883 1883 1894 1894 1894 1904 1904 1904 1894 1894 1894 1894 1894 1894 1883 1883 1894 1894 1894 1894 1894 1894 1894 1904 1904 1904 1894 1883 1873 1853 1843 1843 1843 1833 1833 1833 1833 1833 1843 1853 1853 1873 1883 1894 1904 1904 1915 1915 1926 1926 1926 1926 1926 1926 1936 1926 1926 1926 1926 1926 1926 1926 1926 1926 1926 1926 1926 1926 1926 1936 1936 1936 1936 1936 1936 1926 1926 1926 1926 1936 1936 1936 1936 1936 1936 1936 1936 1936 1936 1947 1947 1936 1936 1936 1936 1936 1936 1936 1936 1947 1947 1947 1722 1722 1722 1722 1722 1722 1722 1722 1722 1731 1731 1739 1739 1748 1739 1739 1959 1959 1959 1959 1959 1959 1959 1959 1947 1947 1959 1959 1959 1959 1959 1970 1970 1970 1970 1970 1981 1981 1981 1579 1579 1579 1579 1579 1579 1579 1579 1579 1579 1579 1579 1586 1594 1594 1594 1601 1601 1981 1671 1671 1696 1696 1705 1705 1713 1713 1722 1731 1739 1748 1748 1748 1757 1757 1766 1981 1981 1970 1970 1970 1970 1970 1970 1970 1970 1970 1970 1970 1981 1981 1981 1981 1981 1981 1981 1981 1981 1981 1981 1993 1993 1981 1981 1993 1993 1993 1993 1993 1993 2005 2005 1993 1993 1993 1993 1993 1981 1981 1981 1981 1993 1993 1993 1993 2005 1993 1993 1993 1993 1993 1993 1993 1993 1445 1445 1439 1439 1439 1439 1439 1439 1439 1439 1439 1439 1439 1445 1452 1452 1458 1458 1458 2005 2005 2005 2005 2005 2005 2005 2005 2005 2005 2016 2016 2016 2016 2016 2016 2016 2016 2016 2016 2016 2028 2028 2040 2053 1776 1766 1766 1766 1766 1776 1776 1776 1785 1794 1794 1804 1813 1823 1833 1833 1843 1843 1843 2028 2028 2040 2040 2040 2040 2040 2028 2028 2028 2028 2028 2028 2028 2028 2016 2016 2016 2016 2016 2016 2016 2028 2028 2028 2028 2016 1915 1915 1904 1904 1904 1894 1894 1904 1904 1904 1915 1915 1926 2005 2005 2005 1458 1458 1452 1452 1452 1452 1452 1452 1452 1445 1445 1445 1439 1433 1433 1433 1433 1433 1439 1433 1433 1439 1439 2028 2028 2028 2028 2028 2040 2040 2040 2040 2040 2040 2040 2040 2040 2053 2053 2053 2053 2053 2053 2053 2053 2040 2040 2040 2040 2040 2040 2040 2040 2040 2040 2040 2040 2028 2028 2028 2040 2040 2040 2040 2028 2028 2040 2028 2028 2040 2040 2040 2040 2040 2040 2040 2040 2040 2040 2040 2040 2040 2040 2028 2028 2040 2040 2040 2040 2040 2040 2040 2040 2040 2040 2040 2053 2053 2040 2040 2040 2040 2040 2040 2053 2053 2053 2053 2040 2040 2040 2053 2053 2053 2053 2053 2053 2053 2053 2053 2053 2053 2053 2053 2053 2053 2053 2053 2053 2065 2053 2053 2053 2065 2065 2065 2065 2065 2065 2065 2065 2065 2065 2040 2040 2040 2040 2040 2040 2040 2040 2040 2040 2040 2040 2040 2040 2040 2040 2053 2053 2040 2040 2040 2040 2053 2053 2053 2053 2053 2053 2053 2053 2053 2053 2053 2053 2053 2053 2053 2065 2065 2065 2065 2065 2065 2065 2065 2053 2053 0 0 0 0 0 0 0 0
0 0 0 0 0 0 0 0 0 0 0 0 0 0 0 0 0 0 0 0 0 0 0 0 0 0 0 0 0 0 0 0 0 0 0 1843 1843 1853 1853 1863 1853 1853 1853 1853 1853 1853 1863 1863 1863 1863 1863 1863 1863 1863 1863 1863 1863 1863 1873 1873 1873 1873 1873 1873 1873 1863 1863 1873 1873 1873 1863 1863 1873 1873 1873 1873 1873 1873 1873 1873 1873 1863 1863 1863 1863 1863 1863 1873 1873 1873 1873 1873 1873 1873 1873 1873 1873 1873 1873 1873 1873 1873 1883 1883 1883 1894 1894 1904 1904 1883 1883 1894 1894 1894 1894 1883 1883 1894 1894 1894 1894 1894 1894 1894 1894 1894 1894 1894 1883 1873 1853 1843 1843 1843 1833 1833 1833 1833 1833 1843 1853 1853 1873 1883 1894 1904 1904 1915 1915 1915 1915 1915 1915 1926 1926 1926 1926 1926 1926 1926 1926 1915 1915 1915 1915 1915 1915 1915 1915 1915 1926 1926 1926 1926 1926 1926 1926 1926 1926 1926 1926 1936 1936 1936 1936 1936 1936 1936 1936 1936 1936 1936 1936 1936 1936 1936 1936 1936 1936 1936 1936 1947 1947 1722 1722 1722 1722 1722 1722 1722 1722 1722 1731 1731 1739 1739 1748 1739 1739 1947 1947 1947 1947 1947 1947 1947 1947 1947 1947 1947 1947 1947 1947 1959 1959 1959 1959 1959 1959 1970 1970 1970 1579 1579 1579 1579 1579 1579 1579 1579 1579 1579 1579 1586 1586 1594 1594 1594 1601 1609 1609 1671 1671 1696 1696 1705 1705 1713 1713 1722 1731 1739 1739 1748 1757 1757 1766 1970 1970 1970 1970 1970 1970 1970 1970 1970 1970 1970 1970 1970 1970 1970 1970 1970 1970 1981 1981 1981 1970 1970 1970 1970 1970 1970 1981 1981 1981 1981 1981 1981 1981 1981 1981 1981 1981 1981 1981 1981 1981 1981 1981 1981 1981 1981 1981 1981 1981 1993 1981 1981 1981 1981 1981 1981 1993 1993 1452 1445 1439 1439 1439 1439 1439 1439 1439 1439 1439 1439 1439 1452 1452 1458 1458 1458 0 2005 2005 2005 2005 2005 2005 2005 2005 2005 2005 2005 2005 2005 2005 2005 2005 2016 2016 2016 2016 2016 2028 2028 2040 1757 1757 1757 1757 1757 1757 1766 1766 1766 1776 1794 1794 1813 1823 1823 1833 1843 1843 1853 1853 2028 2028 2028 2028 2028 2028 2028 2016 2016 2028 2028 2028 2028 2028 2016 2005 2005 2005 2005 2005 2005 2005 2005 2016 2016 2016 2005 1915 1915 1904 1904 1904 1894 1894 1904 1904 1904 1915 1926 1981 2005 2016 2016 2016 1452 1452 1452 1452 1452 1452 1452 1452 1452 1445 1445 1445 1439 1439 1439 1439 1439 1439 1433 1433 1433 1433 2016 2016 2016 2028 2028 2028 2028 2028 2028 2028 2028 2028 2040 2040 2040 2040 2040 2040 2040 2040 2040 2040 2040 2040 2040 2040 2028 2028 2028 2028 2028 2028 2028 2028 2028 2028 2028 2028 2028 2028 2028 2028 2028 2028 2028 2028 2028 2028 2040 2028 2028 2028 2028 2040 2040 2028 2028 2028 2028 2028 2028 2028 2028 2028 2028 2028 2028 2040 2040 2040 2040 2040 2040 2040 2040 2028 2028 2028 2040 2040 2040 2040 2040 2040 2040 2040 2040 2040 2040 2040 2040 2040 2053 2053 2053 2053 2053 2053 2040 2040 2053 2040 2040 2040 2040 2053 2053 2053 2053 2053 2053 2053 2053 2053 2053 2053 2053 2053 2053 2053 2040 2028 2028 2040 2040 2028 2028 2028 2028 2028 2028 2040 2040 2040 2040 2040 2040 2040 2040 2040 2040 2040 2040 2040 2040 2040 2040 2040 2040 2028 2028 2028 2028 2028 2040 2040 2040 2040 2053 2053 2065 2065 2065 2053 2053 2040 2040 0 0 0 0 0 0 0 0
0 0 0 0 0 0 0 0 0 0 0 0 0 0 0 0 0 0 0 0 0 0 0 0 0 0 0 0 0 0 0 0 0 0 0 1843 1843 1843 1853 1853 1853 1843 1843 1843 1853 1853 1853 1853 1853 1863 1863 1863 1863 1863 1863 1863 1863 1863 1863 1863 1863 1873 1863 1863 1863 1863 1863 1863 1863 1873 1863 1863 1863 1863 1863 1863 1863 1863 1863 1863 1863 1863 1863 1863 1863 1863 1863 1863 1873 1873 1873 1873 1873 1873 1873 1873 1873 1873 1873 1873 1873 1873 1873 1883 1883 1883 1894 1894 1873 1873 1873 1883 1883 1883 1883 1883 1883 1883 1883 1883 1894 1894 1894 1894 1894 1894 1894 1883 1883 1873 1853 1853 1853 1843 1843 1843 1843 1843 1843 1843 1853 1873 1873 1883 1894 1904 1904 1915 1904 1904 1904 1915 1915 1915 1915 1915 1915 1915 1915 1915 1915 1915 1915 1904 1904 1904 1904 1904 1904 1904 1915 1915 1915 1915 1915 1915 1915 1915 1915 1915 1926 1926 1936 1936 1926 1926 1926 1926 1926 1926 1926 1926 1926 1926 1926 1926 1926 1926 1926 1926 1926 1936 1947 1722 1722 1722 1722 1722 1722 1722 1731 1731 1731 1731 1739 1739 1748 1739 1739 1947 1947 1947 1947 1947 1947 1947 1947 1947 1947 1947 1947 1947 1947 1947 1947 1959 1959 1959 1959 1947 1947 1947 1579 1579 1579 1579 1579 1579 1586 1586 1586 1586 1586 1586 1594 1601 1601 1601 1601 1609 1609 1671 1671 1696 1696 1705 1705 1713 1722 1722 1722 1739 1739 1748 1748 1757 1959 1959 1959 1959 1959 1959 1959 1959 1959 1959 1959 1959 1970 1970 1970 1970 1970 1970 1970 1970 1970 1970 1970 1970 1970 1970 1970 1970 1981 1981 1970 1970 1970 1970 1981 1981 1970 1970 1970 1970 1970 1970 1981 1970 1970 1981 1981 1981 1981 1981 1981 1981 1981 1981 1981 1981 1981 1981 1981 1452 1452 1445 1439 1439 1439 1439 1439 1439 1439 1439 1439 1439 1439 1452 1452 1458 1458 1458 1464 2005 2005 1993 1993 2005 2005 2005 2005 1993 1993 2005 2005 2005 2005 2005 2005 2005 2005 2005 2016 2016 2016 1757 1757 1757 1757 1757 1757 1757 1757 1757 1766 1766 1776 1794 1794 1823 1823 1833 1833 1843 1843 1853 1853 2016 2016 2016 2016 2016 2016 2016 2016 2016 2028 2028 2016 2016 2016 2005 2005 2005 2005 2005 2005 2005 2005 2005 2005 2016 2005 1993 1915 1915 1915 1904 1904 1904 1904 1904 1904 1904 1915 1981 1981 2005 2016 2016 2028 1445 1445 1445 1452 1452 1452 1452 1452 1452 1452 1445 1445 1439 1439 1439 1439 1439 1439 1433 1433 1433 1433 2005 2005 2016 2016 2016 2016 2016 2016 2028 2028 2028 2028 2028 2028 2040 2040 2040 2040 2040 2040 2040 2028 2028 2028 2028 2028 2028 2028 2028 2028 2016 2016 2016 2028 2016 2016 2016 2016 2016 2016 2016 2016 2016 2028 2028 2028 2028 2028 2028 2028 2028 2028 2028 2028 2028 2028 2028 2028 2028 2028 2028 2028 2028 2028 2028 2028 2028 2028 2028 2028 2028 2028 2028 2028 2028 2028 2028 2028 2028 2028 2040 2040 2040 2040 2040 2040 2040 2040 2040 2040 2040 2040 2040 2040 2040 2040 2040 2040 2040 2040 2040 2040 2040 2040 2040 2040 2040 2040 2040 2053 2053 2053 2053 2040 2040 2040 2040 2040 2040 2040 2028 2028 2028 2028 2028 2028 2028 2028 2028 2028 2028 2028 2028 2040 2040 2040 2040 2040 2040 2028 2028 2028 2028 2028 2028 2028 2028 2028 2028 2028 2028 2016 2016 2028 2028 2028 2028 2028 2028 2028 2028 2028 2040 2040 2040 2028 2028 0 0 0 0 0 0 0 0
0 0 0 0 0 0 0 0 0 0 0 0 0 0 0 0 0 0 0 0 0 0 0 0 0 0 0 0 0 0 0 0 0 0 0 1843 1843 1843 1843 1843 1843 1843 1843 1843 1843 1843 1843 1853 1853 1853 1853 1863 1863 1853 1853 1863 1863 1863 1863 1863 1863 1863 1863 1863 1863 1863 1863 1863 1863 1863 1863 1863 1863 1863 1863 1863 1853 1853 1853 1853 1853 1853 1853 1853 1853 1863 1863 1863 1863 1873 1873 1873 1873 1873 1873 1863 1863 1863 1863 1863 1863 1873 1873 1873 1873 1873 1883 1883 1873 1873 1873 1883 1883 1873 1873 1873 1873 1873 1883 1883 1883 1883 1883 1894 1894 1883 1883 1883 1873 1873 1863 1853 1853 1843 1843 1843 1843 1843 1843 1853 1853 1873 1873 1883 1883 1894 1904 1904 1904 1904 1904 1904 1904 1904 1915 1915 1904 1904 1904 1904 1904 1904 1904 1904 1904 1904 1904 1894 1894 1904 1904 1904 1904 1904 1904 1904 1904 1904 1904 1904 1915 1915 1915 1915 1926 1915 1915 1915 1915 1915 1915 1915 1915 1915 1915 1915 1915 1915 1915 1926 1926 1926 1936 1722 1722 1722 1722 1722 1722 1731 1731 1731 1731 1739 1739 1739 1748 1748 1947 1947 1936 1936 1936 1936 1936 1936 1936 1936 1936 1947 1947 1947 1947 1947 1947 1947 1947 1947 1947 1947 1947 1947 1579 1579 1579 1579 1586 1586 1586 1586 1586 1586 1586 1586 1594 1601 1601 1601 1609 1609 1680 1680 1696 1705 1705 1705 1705 1705 1713 1713 1722 1739 1739 1748 1748 1947 1947 1947 1947 1947 1947 1947 1947 1947 1959 1959 1959 1959 1959 1959 1970 1970 1970 1970 1970 1959 1959 1959 1959 1959 1959 1959 1959 1970 1970 1970 1970 1970 1970 1970 1970 1970 1970 1970 1970 1970 1970 1970 1970 1970 1970 1970 1981 1970 1970 1970 1970 1970 1970 1970 1970 1970 1970 1970 1970 1452 1452 1445 1439 1439 1445 1445 1445 1439 1439 1439 1439 1439 1439 1452 1452 1458 1464 1464 1464 1981 1981 1970 1970 1970 1970 1981 1981 1981 1981 1981 2005 1993 1993 2005 2005 2005 2005 2005 2005 2005 2005 1748 1739 1739 1739 1748 1757 1757 1757 1757 1766 1766 1785 1794 1794 1823 1833 1833 1843 1843 1843 1843 1993 1993 2005 2005 2005 2016 2016 2016 2016 2016 2016 2016 2016 2016 2016 2005 2005 2005 2005 2005 2005 2005 2005 2005 2005 2005 2005 1993 1915 1915 1915 1904 1904 1904 1904 1904 1904 1904 1926 2005 2005 2005 2016 2028 2028 1445 1445 1445 1452 1452 1452 1452 1452 1452 1452 1452 1445 1445 1445 1439 1439 1439 1439 1439 1439 1439 2005 2005 2005 2016 2016 2016 2016 2016 2016 2016 2016 2016 2016 2028 2028 2040 2040 2040 2040 2028 2028 2028 2016 2016 2016 2016 2016 2016 2016 2016 2016 2016 2016 2016 2016 2005 2005 2005 2005 2016 2016 2016 2016 2016 2016 2016 2028 2028 2028 2028 2028 2028 2028 2028 2028 2028 2016 2016 2016 2016 2028 2028 2028 2028 2028 2028 2028 2028 2028 2028 2028 2028 2028 2028 2028 2028 2028 2028 2028 2028 2028 2028 2040 2040 2040 2028 2028 2028 2028 2028 2028 2028 2040 2040 2040 2040 2040 2040 2040 2040 2040 2040 2040 2040 2028 2028 2040 2040 2040 2040 2040 2040 2040 2040 2040 2040 2040 2040 2040 2040 2040 2028 2028 2028 2028 2028 2028 2028 2028 2028 2028 2028 2028 2028 2028 2028 2028 2028 2028 2028 2028 2028 2028 2028 2028 2028 2028 2016 2016 2028 2016 2016 2016 2016 2016 2016 2016 2016 2016 2016 2016 2028 2028 2028 2028 2028 2028 2028 0 0 0 0 0 0 0 0
