0 0 0 0 0 0 0 0 0 0 0 0 0 0 0 0 0 0 0 0 0 0 0 0 0 0 0 0 0 0 4774 4774 4774 4842 4842 4842 4842 4842 4842 4842 4842 4842 4842 4983 5132 5210 5210 5291 5291 5291 5291 5291 5291 5291 5374 5374 5374 5548 5640 6259 6375 6497 6497 6497 6497 6375 6375 6497 6375 6375 6375 6375 6375 6375 6375 6497 6497 6497 6497 6497 6497 6497 6497 6497 6375 6375 6497 6497 6497 6497 6622 6497 6497 6497 6259 6259 6259 6259 6259 6375 6375 6259 6259 6375 6375 6497 6497 6497 6497 6622 6622 6622 6622 6497 6497 6622 6622 6622 6622 6622 6622 6622 6622 6622 6622 6622 6622 6622 6622 6622 6622 6753 6753 6753 6753 6622 6622 6622 6753 6753 6753 6753 6753 6753 6753 6753 6753 6753 6753 6622 6622 6622 6622 6622 6622 3178 3178 3149 3120 3120 3120 3120 3120 3120 3120 3120 3120 3120 3149 3149 3149 3149 3149 3149 3149 3149 3149 3149 3149 3149 3149 3149 3149 3149 3149 3149 3149 3178 3178 3178 3178 3178 3178 3178 3178 3178 3178 3178 3178 3178 3178 3178 3178 3178 3178 3178 3178 3178 3178 3208 3208 3208 3208 3208 3208 3208 3208 3208 3208 3208 3208 3208 3238 3238 3238 3238 3238 3238 3238 3238 3238 3269 3269 3269 3269 3269 3269 3269 3269 3238 3238 3238 3238 3238 3238 3269 3269 3269 3238 3238 3238 3238 3238 3238 3238 3238 3238 3269 3269 3269 3269 3269 3300 3300 3300 3333 3365 3365 4645 4645 4645 4708 6146 6146 6259 6375 6497 7332 7492 7492 7492 7492 7492 7492 7492 7332 6753 6622 6622 6753 6753 6753 7030 7492 7492 7660 7660 7660 7660 7660 7660 7660 7660 7660 7660 7660 7660 7660 7660 7660 7660 7660 7492 7492 7492 7492 7332 7332 7492 7492 7492 7660 7660 7332 7332 7332 7332 7030 7030 7030 7178 7332 7332 7332 7332 7492 7492 7492 7332 7332 7492 7660 7492 7492 7492 7492 7492 7492 7660 7660 7660 7660 7660 7660 7660 7660 7660 7660 7660 7660 5132 5132 5210 5210 5210 5210 5210 5210 5210 5132 5132 5132 5132 5132 5056 5056 5056 5056 5056 5056 5056 5056 5056 5056 4983 4983 4983 4911 4911 4911 4911 4911 4911 4911 4911 4911 4911 4911 4842 4842 4911 4911 4911 4911 4911 4911 4911 4911 4842 4842 4842 4774 4774 4774 4774 4774 4842 4842 4911 4911 5056 5056 5132 5132 5210 0 0 0 3576 3503 3503 3503 3503 3539 3539 3539 3539 0 0 0 0 0 3399 3399 3399 3433 3468 3539 3539 3539 0 0 0 0 0 0 0 0 0 0 0 0 0 0 0 0 0 0 0 0 0 0 0 3539 3539 3576 3576 3576 3576 3576 3614 3614 3614 3614 3614 3614 3614 3653 3653 3503 3503 3539 3576 3576 3576 3614 3614 3653 3692 3692 3692 3692 3653 3653 3653 3576 3576 3576 3576 3576 3576 0 3576 3576 3576 0 0 0 3539 3539 0 0 0 0 0 0 0 0 3614 3614 3576 3576 3576 3576 3576 3576 3576 3576 3576 3576 3576 3614 3614 3614 3614 3653 3653 3653 3653 3653 3653 0 0 0 0 0 0 0 0 0 0 2744 2744 2744 2767 2767 2767 2767 2767 2767 2767 2744 2744 2767 2744 2744 2744 2744 2744 2744 2744 2744 2744 2744 2744 2744 2744 2744 2701 2701 2701 2701 2723 2723 2723 2723 2723 2723 2723 2723 2723 2723 2723 2723 2723 2723 2723 2723 2723 2701 2701 2701 2701 2701 2701 2701 2701 2723 2723 2744 2744 2744 2744 2744 2744 2744 2767 2767 2767 2789 0 0 0 0 0 0 0 0 0 0
0 0 0 0 0 0 0 0 0 0 0 0 0 0 0 0 0 0 0 0 0 0 0 0 0 0 0 0 0 0 4774 4774 4842 4842 4842 4842 4842 4842 4842 4842 4842 4842 4842 4842 5132 5291 5291 5291 5291 5291 5291 5291 5291 5291 5374 5374 5374 5548 5640 6259 6497 6497 6497 6497 6497 6375 6375 6497 6375 6375 6375 6375 6375 6375 6375 6375 6375 6375 6375 6375 6375 6375 6375 6375 6375 6375 6497 6497 6497 6497 6622 6497 6497 6497 6259 6259 6259 6259 6259 6259 6259 6259 6259 6259 6375 6497 6497 6497 6497 6622 6622 6622 6622 6497 6497 6622 6622 6622 6622 6622 6622 6622 6622 6622 6622 6622 6622 6753 6753 6753 6753 6753 6753 6753 6753 6622 6622 6622 6753 6753 6753 6753 6753 6753 6753 6753 6753 6753 6753 6622 6622 6622 6622 6622 6622 3178 3178 3149 3120 3120 3120 3120 3120 3120 3120 3120 3120 3120 3149 3149 3149 3149 3149 3149 3149 3149 3149 3149 3149 3149 3149 3149 3149 3149 3149 3178 3178 3178 3178 3178 3178 3178 3178 3178 3178 3178 3178 3178 3178 3178 3178 3178 3178 3178 3178 3178 3178 3178 3178 3208 3208 3208 3208 3208 3208 3208 3208 3208 3208 3208 3208 3208 3238 3238 3238 3238 3238 3238 3238 3238 3269 3269 3269 3269 3269 3269 3269 3269 3269 3238 3238 3238 3238 3238 3238 3269 3269 3269 3238 3238 3238 3238 3238 3238 3238 3238 3238 3269 3269 3269 3269 3269 3300 3300 3300 3333 3365 4645 4645 4645 4645 4708 6146 6146 6259 6259 6375 6497 7492 7492 7492 7492 7492 7492 7492 7332 6622 6622 6622 6622 6753 6753 6889 7492 7492 7660 7660 7660 7660 7660 7660 7660 7660 7660 7660 7660 7660 7660 7660 7660 7660 7492 7492 7492 7492 7492 7492 7492 7492 7492 7492 7660 7660 7492 7332 7332 7492 7030 7030 7030 7030 7332 7492 7492 7492 7492 7492 7492 7332 7332 7492 7492 7492 7492 7492 7492 7492 7660 7660 7660 7660 7660 7660 7660 7660 7660 7660 7660 7835 7835 5132 5132 5210 5210 5210 5210 5210 5210 5210 5132 5132 5132 5132 5132 5056 5056 5056 5056 5056 5056 5056 5056 5056 5056 5056 5056 4983 4911 4911 4911 4911 4911 4911 4911 4911 4911 4911 4911 4842 4842 4911 4911 4911 4911 4911 4911 4911 4911 4842 4842 4842 4774 4774 4774 4774 4774 4842 4842 4911 4983 5056 5056 5056 5132 5210 5210 0 0 3576 3539 3539 3539 3539 3539 3539 3539 3539 0 0 0 0 0 3399 3399 3399 3399 3468 3503 3539 3539 0 0 0 0 0 0 0 0 0 0 0 0 3468 3468 3576 3576 0 0 0 0 0 3468 3433 3433 3468 3576 3539 3539 3539 3576 3576 3576 3576 3576 3576 3576 3576 3576 3539 3503 3503 3539 3539 3576 3576 3576 3614 3653 3692 3692 3692 3692 3653 3503 3503 3503 3503 3503 3503 3503 3503 3576 3576 3576 3576 3576 0 3576 3539 3539 3503 3503 3503 0 0 0 3614 3614 3576 3576 3576 3576 3576 3539 3539 3539 3539 3539 3539 3539 3576 3576 3576 3576 3614 3614 3614 3614 3576 3576 3576 3539 3539 0 0 0 0 0 0 0 2744 2744 2744 2767 2767 2767 2767 2767 2767 2767 2767 2767 2767 2767 2744 2723 2723 2744 2723 2723 2744 2744 2744 2744 2744 2744 2744 2744 2723 2701 2701 2701 2723 2723 2723 2723 2723 2723 2723 2723 2723 2723 2723 2723 2744 2744 2723 2723 2723 2723 2723 2701 2701 2723 2723 2723 2723 2723 2744 2744 2744 2744 2744 2744 2744 2767 2767 2767 2767 2789 0 0 0 0 0 0 0 0 0 0
0 0 0 0 0 0 0 0 0 0 0 0 0 0 0 0 0 0 0 0 0 0 0 0 0 0 0 0 0 0 4774 4774 4842 4842 4842 4842 4842 4842 4842 4842 4842 4842 4842 4842 5132 5291 5291 5291 5374 5374 5291 5291 5374 5374 5374 5374 5374 5460 5548 6622 6622 6622 6622 6497 6497 6497 6497 6497 6375 6375 6375 6375 6375 6375 6375 6375 6375 6375 6375 6375 6259 6259 6375 6375 6375 6375 6497 6497 6497 6497 6497 6375 6375 6375 6259 6146 6146 6146 6146 6038 6038 6146 6146 6259 6259 6497 6497 6497 6497 6622 6622 6622 6497 6497 6497 6497 6497 6497 6622 6622 6622 6622 6622 6622 6622 6753 6753 6753 6753 6753 6753 6753 6753 6622 6622 6622 6622 6622 6753 6753 6753 6753 6753 6753 6753 6753 6753 6753 6753 6622 6622 6622 6622 6753 6753 3178 3149 3149 3120 3120 3120 3120 3120 3120 3120 3120 3120 3120 3149 3149 3149 3149 3149 3149 3149 3149 3149 3149 3149 3149 3149 3149 3149 3149 3149 3178 3178 3178 3178 3178 3178 3178 3178 3178 3178 3178 3178 3178 3178 3178 3178 3178 3178 3178 3178 3208 3208 3208 3208 3208 3208 3208 3208 3238 3238 3208 3208 3208 3208 3208 3208 3208 3238 3238 3238 3238 3238 3238 3238 3238 3269 3269 3269 3269 3269 3269 3269 3269 3269 3238 3238 3238 3238 3238 3238 3269 3269 3269 3238 3238 3238 3238 3238 3238 3238 3238 3238 3269 3269 3269 3269 3300 3300 3300 3300 3365 3365 4645 4708 4645 4645 4708 6038 6038 6146 6259 6375 6497 7492 7492 7492 7492 7492 7492 7492 7332 6622 6622 6622 6622 6753 6753 6889 7178 7492 7660 7660 7660 7660 7492 7492 7492 7492 7492 7492 7660 7660 7660 7660 7660 7660 7492 7492 7492 7492 7492 7492 7492 7492 7492 7492 7660 7660 7332 7332 7332 7178 7030 7030 7030 7030 7332 7492 7492 7492 7492 7492 7492 7492 7492 7492 7492 7492 7492 7492 7492 7492 7660 7660 7660 7660 7660 7660 7660 7660 7492 7492 7660 7660 5210 5210 5210 5291 5210 5210 5210 5210 5210 5210 5210 5132 5132 5132 5132 5132 5132 5132 5056 5056 5056 5056 5056 5056 5056 4983 4983 4983 4983 4911 4911 4911 4911 4911 4911 4911 4911 4911 4911 4911 4911 4911 4911 4911 4911 4911 4911 4911 4911 4911 4842 4842 4774 4774 4774 4842 4842 4842 4842 4911 5056 5132 5056 5056 5210 5210 3614 3614 3576 3576 3539 3539 3539 3539 3539 3503 3503 3503 3503 0 0 0 0 0 0 3399 3399 3468 3503 3503 3539 3539 3365 3365 0 0 0 0 0 0 0 3433 3433 3433 3433 3468 3468 3576 0 0 0 0 3433 3433 3433 3433 3468 3539 3539 3539 3576 3576 3576 3576 3576 3576 3576 3539 3539 3503 3503 3468 3468 3539 3539 3539 3576 3653 3653 3653 3653 3399 3503 3503 3503 3468 3468 3468 3468 3468 3468 3468 3468 3539 3539 3576 3576 3576 3576 3539 3539 3503 3503 3468 3468 3539 3576 3539 3539 3539 3576 3576 3539 3539 3539 3539 3539 3503 3503 3503 3503 3539 3576 3576 3576 3614 3614 3576 3576 3576 3576 3539 3539 3539 3576 0 0 0 0 0 0 2767 2767 2767 2767 2767 2767 2767 2767 2767 2767 2767 2767 2767 2767 2744 2723 2723 2744 2723 2723 2744 2744 2744 2744 2744 2744 2744 2744 2723 2723 2723 2723 2723 2723 2723 2723 2723 2723 2723 2723 2723 2723 2723 2723 2744 2744 2723 2723 2723 2723 2723 2723 2723 2723 2723 2723 2723 2723 2744 2744 2744 2744 2744 2744 2744 2767 2767 2767 2767 2767 0 0 0 0 0 0 0 0 0 0
0 0 0 0 0 0 0 0 0 0 0 0 0 0 0 0 0 0 0 0 0 0 0 0 0 0 0 0 0 0 4842 4842 4842 4842 4842 4842 4842 4842 4842 4842 4842 4842 4842 4842 5132 5374 5374 5374 5374 5374 5291 5291 5374 5374 5374 5374 5374 5460 5460 5548 6622 6622 6622 6497 6497 6497 6497 6497 6375 6375 6375 6375 6375 6375 6375 6375 6375 6375 6375 6375 6259 6259 6375 6375 6375 6375 6375 6375 6375 6375 6375 6375 6259 6259 6038 6038 6146 6146 6146 6038 6038 6146 6146 6259 6259 6497 6497 6497 6497 6497 6497 6497 6497 6497 6497 6497 6497 6497 6622 6622 6622 6622 6622 6622 6622 6753 6753 6753 6753 6753 6622 6622 6622 6622 6622 6622 6622 6622 6753 6753 6753 6753 6753 6753 6753 6753 6753 6753 6753 6622 6622 6622 6622 6622 0 3149 3149 3120 3120 3120 3120 3120 3120 3120 3120 3120 3120 3120 3149 3149 3149 3149 3149 3149 3149 3149 3149 3149 3149 3149 3149 3149 3149 3149 3149 3149 3178 3178 3178 3178 3178 3178 3178 3178 3178 3178 3178 3178 3178 3178 3178 3178 3178 3178 3178 3178 3178 3178 3178 3178 3178 3208 3208 3238 3238 3238 3238 3208 3208 3208 3238 3238 3238 3238 3238 3238 3238 3238 3238 3269 3269 3269 3269 3269 3269 3269 3269 3269 3269 3238 3238 3238 3238 3238 3238 3269 3269 3269 3269 3238 3238 3238 3238 3238 3238 3238 3238 3269 3269 3269 3269 3300 3300 3333 3333 3365 3365 4582 4645 4582 4582 4708 4708 6038 6146 6146 6375 6497 6622 7492 7492 7492 7492 7492 7332 7178 6753 6753 6753 6753 6889 6889 6889 7178 7492 7660 7660 7660 7660 7492 7492 7492 7492 7492 7492 7492 7492 7492 7660 7660 7660 7660 7492 7492 7492 7492 7492 7492 7492 7492 7660 7660 7660 7332 7332 7332 7178 6889 6889 6889 7030 7332 7492 7492 7492 7492 7492 7492 7492 7492 7492 7492 7492 7492 7492 7492 7492 7660 7660 7660 7660 7660 7660 7660 7660 7492 7492 7660 7660 5210 5210 5291 5291 5291 5291 5291 5210 5210 5210 5210 5210 5210 5132 5132 5132 5132 5132 5132 5132 5056 5056 5056 5056 5056 4983 4983 4983 4983 4911 4911 4911 4911 4911 4911 4911 4911 4911 4911 4911 4911 4911 4911 4911 4911 4911 4911 4911 4911 4842 4842 4911 4842 4842 4842 4842 4842 4842 4911 4983 5056 5132 5132 5210 5210 5210 3614 3614 3614 3576 3539 3539 3539 3539 3539 3468 3468 3503 3503 0 0 0 0 0 0 3399 3399 3468 3503 3503 3503 3433 3365 3365 3365 3365 0 0 0 3433 3433 3399 3399 3399 3433 3433 3433 3576 0 0 0 0 3365 3365 3399 3433 3433 3503 3503 3503 3576 3576 3576 3576 3576 3539 3539 3468 3468 3503 3468 3468 3468 3468 3468 3468 3468 3468 3468 3468 3399 3399 3399 3468 3468 3468 3468 3468 3468 3468 3468 3468 3468 3539 3539 3576 3576 3539 3539 3539 3539 3468 3468 3468 3468 3468 3503 3539 3539 3539 3539 3539 3539 3539 3503 3503 3503 3503 3503 3468 3468 3503 3539 3539 3576 3576 3576 3576 3576 3539 3539 3539 3539 3539 3539 0 0 0 0 0 0 2767 2767 2767 2767 2767 2767 2767 2767 2767 2767 2767 2767 2767 2767 2744 2744 2744 2744 2744 2744 2744 2744 2744 2744 2744 2744 2744 2744 2723 2723 2723 2723 2723 2723 2723 2723 2723 2723 2723 2723 2723 2723 2723 2723 2744 2744 2744 2744 2744 2723 2723 2723 2723 2723 2723 2723 2723 2723 2744 2744 2744 2744 2744 2744 2767 2767 2767 2767 2767 2767 0 0 0 0 0 0 0 0 0 0
0 0 0 0 0 0 0 0 0 0 0 0 0 0 0 0 0 0 0 0 0 0 0 0 0 0 0 0 0 0 4842 4842 4842 4842 4842 4842 4842 4842 4842 4842 4842 4842 4842 4911 5132 5291 5374 5374 5374 5374 5374 5374 5374 5291 5291 5291 5291 5374 5374 5460 5460 6622 6622 6497 6497 6497 6497 6497 6375 6375 6375 6375 6375 6259 6259 6375 6375 6259 6259 6259 6259 6259 6375 6375 6375 6375 6375 6375 6375 6375 6375 6259 6259 6146 6038 6038 6038 6038 6038 6038 6146 6146 6146 6259 6259 6497 6497 6497 6497 6497 6497 6497 6375 6375 6375 6497 6497 6497 6497 6622 6622 6622 6622 6622 6622 6753 6753 6753 6753 6622 6622 6622 6622 6622 6622 6622 6622 6622 6753 6753 6753 6753 6753 6753 6753 6753 6753 6753 6753 6622 6622 6622 6622 6622 6622 3149 3149 3120 3120 3120 3120 3120 3120 3120 3120 3120 3120 3120 3120 3120 3149 3149 3149 3149 3149 3149 3149 3149 3149 3149 3149 3149 3149 3149 3149 3149 3149 3149 3178 3178 3178 3178 3178 3178 3178 3178 3178 3178 3178 3178 3178 3178 3178 3178 3178 3178 3178 3178 3178 3178 3178 3178 3178 3208 3208 3208 3208 3238 3208 3208 3238 3238 3238 3238 3238 3238 3238 3238 3238 3269 3269 3269 3269 3269 3269 3269 3238 3238 3238 3208 3208 3238 3238 3238 3238 3238 3238 3269 3269 3269 3269 3238 3238 3238 3238 3238 3238 3269 3269 3269 3269 3300 3300 3300 3300 3333 3365 4582 4645 4582 4582 4645 4708 6038 6146 6146 6259 6497 6622 7492 7492 7492 7492 7492 7332 7030 6753 6622 6622 6753 6753 6889 7030 7178 7492 7660 7660 7660 7660 7660 7492 7332 7332 7492 7492 7492 7492 7492 7660 7660 7660 7660 7492 7492 7492 7492 7492 7492 7492 7492 7660 7660 7660 7332 7332 7332 7332 6889 6889 6889 7030 7332 7492 7492 7492 7492 7492 7492 7492 7492 7492 7492 7660 7492 7492 7660 7660 7660 7660 7660 7660 7660 7660 7660 7660 7660 7660 7660 7660 5291 5291 5210 5210 5210 5291 5291 5210 5210 5210 5210 5210 5210 5132 5132 5132 5132 5132 5132 5132 5056 5056 5056 5056 5056 4983 4983 4983 4983 4983 4911 4911 4911 4911 4911 4911 4911 4911 4911 4911 4911 4911 4911 4911 4911 4911 4911 4911 4911 4842 4842 4911 4774 4774 4774 4842 4842 4842 4842 4983 4983 5132 5132 5210 5210 3614 3614 3614 3614 3576 3539 3539 3539 3539 3539 3468 3468 3503 0 0 0 0 0 0 0 3399 3399 3468 3503 3539 3503 3433 3399 3399 3365 3365 3433 3433 3433 3433 3433 3399 3399 3399 3433 3433 3433 3433 3365 3365 0 3365 3365 3365 3365 3399 3433 3468 3468 3503 3539 3576 3576 3576 3539 3539 3399 3365 3333 3333 3433 3433 3433 3433 3433 3433 3433 3433 3433 3399 3399 3399 3399 3399 3399 3433 3433 3433 3433 3433 3433 3433 3433 3468 3539 3539 3539 3539 3539 3468 3433 3433 3433 3433 3433 3433 3468 3468 3503 3503 3539 3539 3539 3539 3503 3503 3468 3468 3468 3468 3468 3468 3539 3539 3539 3539 3576 3539 3539 3539 3539 3503 3503 3503 3503 3503 0 0 0 0 0 2789 2767 2767 2767 2767 2767 2767 2767 2767 2767 2767 2767 2767 2744 2744 2744 2744 2744 2744 2744 2744 2744 2767 2744 2744 2744 2744 2744 2723 2723 2723 2723 2723 2723 2723 2723 2723 2723 2723 2723 2723 2723 2723 2723 2744 2744 2744 2744 2744 2723 2723 2723 2723 2723 2723 2723 2723 2723 2744 2744 2744 2744 2744 2767 2767 2767 2767 2767 2767 2767 0 0 0 0 0 0 0 0 0 0
0 0 0 0 0 0 0 0 0 0 0 0 0 0 0 0 0 0 0 0 0 0 0 0 0 0 0 0 0 0 4774 4774 4774 4911 4842 4842 4774 4774 4842 4842 4842 4842 4842 4911 4983 5132 5291 5374 5374 5374 5374 5374 5374 5291 5291 5291 5291 5374 5374 5374 5460 6622 6622 6497 6375 6375 6497 6497 6497 6497 6497 6497 6259 6259 6259 6259 6259 6259 6259 6259 6259 6259 6375 6375 6375 6375 6375 6375 6375 6375 6375 6259 6259 6038 6038 6038 6038 6038 6038 6038 6146 6146 6259 6259 6259 6497 6375 6375 6375 6375 6375 6497 6375 6375 6375 6497 6497 6497 6497 6497 6622 6622 6375 6375 6375 6375 6753 3269 3269 3238 3238 6622 6622 6622 6622 6622 6622 6622 6753 6753 6753 6753 6753 6753 6753 6753 6753 6753 6753 6622 6622 6622 6622 6622 6622 3149 3149 3120 3120 2103 2103 2090 2090 2103 2116 2116 2116 3120 3120 3120 3149 3149 3149 3149 3149 3149 3149 3149 3149 3149 3149 3149 3149 3149 3149 3149 2156 2156 2143 2143 2156 2156 3149 3149 3178 3178 3178 3208 3208 3208 3178 3178 3178 3178 3178 3178 2184 2184 2184 2198 2198 2184 2184 2184 2184 2184 2184 3238 3208 3208 3238 3238 3238 3238 3238 3238 3238 3238 3238 3238 3238 3238 3238 3238 3238 3269 3238 3238 3238 3208 3208 3238 3238 3238 3238 3238 3238 3269 3269 3269 3269 3269 3269 3269 3238 3238 3238 3269 3269 3269 3269 3300 3300 3300 3300 3300 4522 4582 4582 4582 4582 4645 4708 6038 6146 6146 6259 6375 7492 7492 7492 7492 7492 7492 7332 6889 6753 6622 6622 6753 6753 6889 7030 7178 7492 7660 7660 7660 7660 7660 7492 7332 7332 7492 7492 7492 7492 7492 7660 7660 7660 7660 7492 7492 7492 7492 7492 7492 7660 7660 7660 7660 7492 7332 7332 7332 7332 7332 7332 2271 2271 2271 2271 0 2286 2286 2271 7492 7492 7492 7492 7492 7660 7660 7660 7660 7660 7660 7660 7660 7660 7660 7660 7660 7660 7660 7660 7660 7660 5374 5374 5210 5210 5210 5291 5291 5210 5210 5210 5210 5210 5210 5132 5132 5132 5132 5132 5132 5132 5132 5056 5056 5056 5056 4983 4983 4911 4911 4911 4911 4911 4911 4842 4842 4911 4911 4911 4911 4911 4911 4911 4911 4911 4911 4911 4911 4911 4911 4911 4911 4911 4774 4774 4774 4842 4842 4842 4842 4911 4983 5056 5132 5210 5210 3576 3576 3576 3576 3576 3539 3539 3576 3576 3576 3576 0 0 0 0 0 0 0 0 0 3399 3399 3468 3503 3503 3503 3468 3433 3433 3433 3433 3433 3433 3433 3433 3433 3399 3399 3433 3433 3399 3399 3399 3365 3365 3365 3365 3365 3365 3365 3365 3399 3433 3433 3433 3539 3576 3576 3576 3539 3539 3333 3333 3333 3300 3300 3333 3333 3365 3365 3365 3399 3433 3433 3399 3399 3333 3333 3333 3399 3365 3365 3399 3399 3433 3433 3399 3399 3399 3503 3539 3539 3399 3399 3399 3365 3365 3365 3365 3399 3399 3433 3433 3468 3503 3539 3539 3539 3539 3503 3503 3468 3468 3468 3468 3468 3468 3503 3539 3539 3539 3539 3539 3539 3503 3503 3468 3468 3503 3468 3433 3433 3399 3399 0 0 0 2767 2767 2789 2789 2789 2789 2789 2789 2789 2767 2767 2767 2744 2744 2744 2744 2744 2744 2744 2744 2744 2767 2744 2744 2744 2744 2744 2723 2723 2723 2723 2723 2723 2723 2723 2723 2723 2723 2723 2723 2723 2744 2744 2744 2744 2744 2744 2744 2723 2723 2723 2723 2723 2723 2723 2723 2723 2723 2744 2744 2744 2744 2767 2767 2767 2767 2767 2767 2789 0 0 0 0 0 0 0 0 0 0
0 0 0 0 0 0 0 0 0 0 0 0 0 0 0 0 0 0 0 0 0 0 0 0 0 0 0 0 0 0 4708 4708 4774 0 0 0 4645 4645 4774 4842 4842 4842 4842 4911 4911 4983 5132 5374 5374 5374 5374 5374 5374 5291 5291 5291 5374 5374 5374 5374 5460 0 6497 6497 6375 6375 6497 6497 6497 0 0 0 6259 6259 6259 6259 6259 6259 6146 6146 6259 6259 6259 6259 6259 6375 6375 6259 6259 6259 6259 6259 6259 6038 5933 5933 6038 6038 6038 6038 6146 6146 6259 6259 6375 6497 6375 6375 6375 6375 6375 6375 6259 6259 6375 6497 6497 6497 6497 6497 6622 6259 6259 6259 6375 6375 3208 3208 3238 3238 3238 6622 6622 6622 6622 6622 6622 6622 6622 6753 6753 6753 6753 6753 6753 6889 6889 6889 6753 6622 6622 6622 6622 6622 0 3010 2116 2116 2103 2103 2103 2090 2090 2103 2116 2116 2116 2129 2129 2129 3149 3149 3149 3149 3149 3149 3149 3149 3149 3149 3149 3149 3149 3149 2156 2156 2156 2156 2143 2143 2156 2156 2156 2156 2156 2170 2170 2156 2156 2156 2156 2170 2170 2184 2184 2184 2184 2184 2184 2198 2198 2184 2184 2184 2184 2184 2184 2184 3238 3238 3238 3238 3238 3238 3238 3238 3238 3238 3238 3238 3238 3238 3238 3238 3238 3269 3238 2198 2198 2198 2212 2226 2226 3238 3238 3238 3238 3269 3269 3269 3269 3269 3269 3269 3238 3238 3238 3269 3269 3269 3269 3300 3300 3300 3300 3300 4522 4582 4582 4582 4582 4645 6038 6038 6146 6146 6259 6375 7492 7492 7492 7492 7492 7332 7178 6889 6753 6753 6753 6753 6889 6889 7030 7178 7492 7660 7660 7660 7660 7835 7492 7332 7332 7492 7492 7492 2271 2271 2271 2286 2271 2271 2286 7492 7492 7492 7492 7492 7660 7660 7660 7660 7492 7332 7332 7332 7332 7332 0 0 2271 2271 2271 2286 2286 2286 2271 2271 2271 2271 2271 2286 2286 2286 7660 7660 7660 7660 7660 7660 7492 7492 7492 7492 7660 7660 7835 7835 2286 5374 5374 5374 5291 5291 5291 5291 5210 5210 5210 5210 5210 5210 5210 5132 5132 5132 5132 5132 2271 2271 2271 2271 2286 2286 4983 4983 4911 4911 4911 4911 4911 4911 4842 4842 4911 4911 4911 4911 4911 4911 4911 4911 4911 4911 4911 4911 4911 4911 4911 4911 4911 4842 4774 4774 4842 4842 4842 4842 4911 4983 5056 5132 5132 5132 3576 3576 3576 3576 3539 3539 3539 3576 3576 3576 3576 0 0 0 0 0 0 0 0 0 3399 3399 3468 3468 3503 3468 3468 3433 3433 3433 3433 3433 3433 3433 3433 3433 3333 3333 3333 3365 3333 3333 3333 3333 3333 3333 3333 3333 3333 3333 3333 3365 3365 3365 3433 3468 3503 3576 3576 3300 3269 3269 3300 3300 3300 3300 3300 3333 3365 3365 3365 3365 3365 3333 3333 3365 3333 3333 3333 3333 3365 3365 3365 3365 3399 3399 3365 3365 3399 3399 3399 3399 3399 3399 3399 3333 3333 3365 3365 3365 3365 3399 3399 3433 3468 3503 3503 3503 3503 3468 3468 3433 3433 3433 3433 3433 3433 3433 3539 3539 3539 3503 3503 3468 3468 3468 3433 3433 3468 3433 3433 3433 3399 3399 3399 0 0 2767 2767 2789 2789 2789 2789 2789 2789 2789 2767 2767 2767 2744 2744 2744 2744 2744 2744 2744 2744 2744 2767 2767 2744 2744 2744 2744 2723 2723 2723 2723 2723 2723 2723 2723 2723 2723 2723 2744 2723 2723 2744 2744 2744 2744 2744 2744 2744 2744 2744 2723 2723 2723 2723 2723 2744 2723 2723 2744 2744 2744 2767 2767 2767 2767 2767 2767 2767 2789 0 0 0 0 0 0 0 0 0 0
0 0 0 0 0 0 0 0 0 0 0 0 0 0 0 0 0 0 0 0 0 0 0 0 0 0 0 0 0 0 4708 4708 0 0 0 0 4645 4645 4774 4842 4842 4842 4842 4911 4911 4983 5132 5374 5374 5374 5374 5374 5374 5374 5291 5291 5374 5374 5460 5460 5460 0 0 0 0 0 6622 6622 0 0 0 0 6375 6259 6259 6259 6146 6146 6146 6146 6146 6146 6259 6259 6259 6375 6259 6259 6259 6146 6146 6146 6038 6038 5933 5933 6038 6038 6038 6038 6038 6146 6146 6259 6259 6497 6375 6375 6375 6259 6259 6375 6259 6259 6259 6375 6375 6497 6497 6622 6622 6259 6259 6259 6259 3208 3208 3208 3238 3208 3208 6622 6622 6622 3064 3064 3064 3064 3064 3064 3064 3064 3064 3064 6753 6753 6889 6889 3037 3037 3092 6622 6622 3010 3010 0 2143 2116 2116 2103 2103 2103 2103 2116 2116 2116 2129 2129 2129 2129 2129 2129 3149 3149 3149 3149 3149 3149 3149 3149 3149 2156 2156 2156 2156 2156 2156 2156 2156 2156 2156 2156 2156 2156 2156 2170 2170 2156 2156 2156 2156 2170 2170 2184 2184 2184 2184 2184 2184 2184 2184 2184 2184 2184 2184 2184 2184 2184 2184 2184 3238 3238 3238 3238 3238 3238 3238 3208 3208 3208 3238 3238 3269 3269 2212 2212 2212 2198 2198 2198 2212 2212 2212 2212 2226 2226 3238 3269 3269 3269 3269 3269 3269 3269 3269 3269 3269 3269 3269 3269 3269 3300 3300 3269 3269 3300 4522 4582 4582 4582 4582 4645 6146 6146 6259 6259 6375 6497 6622 7178 7492 7492 7492 7332 7030 6889 6753 6753 6753 6753 6889 6889 7030 7030 7492 7492 7660 0 0 0 0 0 0 0 0 2241 2241 2256 2256 2271 2256 2256 2256 2256 7660 7660 7660 7660 7660 7492 7492 7660 7492 7332 7332 7332 7332 2286 2271 2256 2271 2271 2271 2271 2271 2271 2256 2256 2271 2271 2271 2271 2271 2286 2286 2286 2286 2286 2286 2286 7332 7332 2286 2286 2271 2271 2271 2286 2286 2286 5210 5210 5291 5291 5291 5291 5210 5210 5210 5210 5210 5210 5210 5132 5132 5132 2256 2256 2271 2271 2271 2271 2286 2286 4983 4911 4911 4911 4911 4911 4911 4911 4911 4911 4911 4911 4911 4911 4911 4911 4911 4911 4911 4911 4911 4911 4911 4911 4911 4911 4911 4842 4842 4842 4842 4842 4842 4842 4911 4983 5056 5056 5132 5132 3614 3614 3614 3539 3539 3539 3539 3576 3576 3576 0 0 0 0 0 0 0 0 0 0 0 3468 3468 3468 3503 3468 3468 3433 3433 3433 3433 3433 3433 3433 3433 3433 3300 3300 3300 3300 3300 3300 3300 3300 3300 3333 3333 3300 3300 3333 3333 3333 3333 3333 3365 3365 3333 3333 3333 3269 3269 3269 3269 3300 3300 3300 3300 3300 3333 3333 3333 3333 3333 3333 3333 3333 3300 3300 3300 3300 3300 3300 3333 3269 3269 3300 3300 3333 3333 3333 3333 3365 3333 3333 3333 3333 3333 3333 3333 3365 3365 3399 3399 3399 3399 3433 3433 3468 3468 3433 3433 3433 3399 3399 3399 3399 3365 3333 3333 3539 3539 3503 3503 3468 3468 3468 3433 3433 3468 3433 3433 3433 3399 3399 3399 0 0 2789 2789 2812 2812 2812 2812 2789 2789 2789 2767 2767 2767 2744 2744 2744 2744 2744 2744 2744 2767 2767 2767 2767 2767 2767 2767 2767 2723 2723 2723 2723 2723 2723 2723 2723 2723 2723 2723 2723 2723 2723 2744 2744 2744 2744 2744 2744 2744 2723 2723 2723 2723 2723 2723 2723 2744 2744 2744 2744 2744 2744 2767 2767 2767 2767 2767 2767 2789 2789 0 0 0 0 0 0 0 0 0 0
0 0 0 0 0 0 0 0 0 0 0 0 0 0 0 0 0 0 0 0 0 0 0 0 0 0 0 0 0 0 0 0 0 0 0 0 0 4774 4774 4842 4842 4842 4842 4911 4911 4983 5132 5291 5374 5374 5374 5374 5374 5374 5374 5374 5374 5374 5460 5460 5460 0 0 0 0 0 0 0 0 0 0 0 6375 6259 6259 6259 6146 6146 6038 6038 6038 6038 6146 6146 6259 6259 6259 6146 6146 6146 6146 6146 6038 6038 6038 6038 6038 6038 6038 6038 6038 6146 6146 6259 6259 6497 6497 6375 6375 6259 6259 0 6259 6259 6259 6375 6375 6497 6497 0 0 0 3010 0 3010 3120 3120 3120 3178 3178 3092 3064 3064 3064 3064 3064 3064 3064 3064 3064 3064 3064 3064 3064 3064 3064 3064 3037 3037 3037 3037 3010 3010 3010 3010 3037 2143 2143 2116 2103 2103 2116 2116 2116 2129 2129 2129 2129 2129 2129 2129 2129 2129 2116 2116 2129 2129 3149 2143 2143 2156 2156 2156 2156 2156 2156 2156 2156 2156 2156 2170 2170 2170 2170 2170 2170 2170 2170 2170 2170 2170 2170 2184 2184 2184 2184 2184 2184 2184 2184 2184 2184 2184 2184 2184 2184 2184 2184 2184 2184 2184 2184 2184 2184 2184 2198 2198 2198 2198 2198 2198 2212 2212 2212 2198 2198 2198 2198 2198 2198 2212 2212 2212 2212 2212 2226 3238 3269 3269 3269 3269 3269 3269 3269 3269 3238 3238 3269 3238 3238 3269 3269 3300 3269 3269 3269 4522 4582 4582 4582 4582 4582 6146 6146 6259 6259 6375 6375 6622 7178 7492 7492 7492 7332 7030 6889 6753 6753 6753 6753 6889 6889 7030 7030 7332 7492 7660 0 0 0 0 0 0 0 0 2241 2241 2256 2256 2256 2256 2256 2256 2256 2271 2271 2271 2271 2286 2286 2286 7660 7492 7492 7492 7492 7492 2286 2271 2256 2256 2256 2271 2271 2271 2271 2256 2256 2271 2271 2271 2271 2271 2286 2286 2286 2286 2286 2286 2271 2271 2271 2271 2271 2271 2271 2271 2271 2271 2286 2286 2286 2286 2286 2286 2301 2301 2301 5210 5210 5210 5210 5210 5210 2271 2271 2256 2256 2271 2271 2271 2286 2286 2286 4983 4911 4911 4911 4911 4911 4911 4911 4911 4911 4911 4911 4911 4911 4911 4911 4911 4911 4911 4911 4842 4842 4911 4911 4911 4911 4911 4842 4842 4842 4842 4842 4842 4842 4911 4911 4983 5056 5132 5132 3614 3614 3653 3539 3539 3539 3539 0 0 0 0 0 0 0 0 0 0 0 0 0 0 0 3503 3503 3503 3503 3503 3468 3468 3433 3433 3433 3468 3468 3399 3399 3300 3300 3300 3300 3300 3300 3300 3300 3300 3300 3300 3300 3300 3300 3333 3333 3333 3333 3333 3333 3300 3300 3300 3269 3269 3269 3269 3269 3269 3269 3269 3300 3300 3300 3300 3300 3300 3300 3300 3300 3269 3269 3269 3269 3269 3269 3300 3238 3238 3269 3269 3300 3300 3300 3300 3300 3300 3300 3300 3300 3300 3333 3333 3365 3365 3365 3399 3365 3365 3365 3365 3399 3399 3399 3399 3365 3365 3365 3333 3333 3300 3300 3300 3300 3269 3269 3399 3399 3399 3433 3433 3433 3433 3468 3433 3433 3433 3433 0 0 0 2812 2812 2812 2812 2812 2812 2789 2789 2767 2767 2767 2767 2744 2744 2744 2744 2744 2767 2767 2767 2767 2767 2767 2767 2767 2767 2767 2723 2723 2723 2723 2723 2723 2723 2723 2723 2723 2723 2723 2723 2723 2744 2744 2744 2744 2744 2744 2744 2723 2723 2723 2723 2723 2723 2744 2744 2744 2744 2744 2744 2744 2767 2767 2767 2767 2789 2789 2789 2789 0 0 0 0 0 0 0 0 0 0
0 0 0 0 0 0 0 0 0 0 0 0 0 0 0 0 0 0 0 0 0 0 0 0 0 0 0 0 0 0 0 0 0 0 0 0 0 0 4842 4842 4842 4842 4911 4911 4911 4983 5056 5210 5374 5374 5374 5374 5374 5374 5374 5374 5374 5291 5291 5291 5291 0 0 0 0 0 0 0 0 0 0 0 6375 6259 6259 6146 6038 6038 5933 5933 6038 6038 6146 6146 6259 6259 6259 6038 6038 6038 6146 6146 6146 6146 6146 6146 6038 6038 6038 6038 6038 6146 6146 6259 6259 6497 0 0 0 0 0 0 0 0 0 0 0 0 0 0 0 0 0 3010 3010 3010 3010 3037 3064 3064 3064 3010 3010 3037 3037 3037 3037 3064 3064 3064 3064 3064 3064 3064 3064 3064 3064 3037 3037 3037 3037 3010 3010 3010 3037 3037 2143 2143 2103 2103 2103 2116 2116 2116 2129 2129 2129 2129 2129 2129 2129 2129 2129 2116 2116 2129 2129 2143 2143 2143 2156 2156 2156 2156 2156 2156 2156 2156 2156 2156 2170 2170 2170 2170 2170 2170 2170 2170 2170 2170 2170 2170 2184 2184 2184 2184 2184 2184 2184 2184 2184 2184 2184 2184 2184 2184 2184 2184 2184 2184 2184 2184 2184 2184 2184 2198 2198 2198 2198 2198 2198 2212 2212 2198 2198 2198 2198 2198 2198 2198 2212 2212 2212 2212 2212 2212 2286 3238 3238 3238 3238 3238 3238 3238 3238 3238 3238 3238 3238 3238 3238 3269 3269 3269 3269 3269 4582 4582 4582 4582 4582 6259 6146 6146 6259 6259 6375 6375 6375 7492 7332 7332 7332 7178 7030 6889 6889 6889 6889 6889 6889 7030 7030 7178 7332 7492 0 0 0 0 0 0 0 0 0 2241 2241 2241 2241 2256 2256 2256 2256 2256 2271 2271 2271 2271 2271 2286 2286 2271 2271 2271 2271 2271 2271 2271 2271 2256 2256 2256 2271 2271 2271 2271 2256 2256 2271 2271 2271 2271 2271 2286 2286 2271 2271 2271 2271 2271 2271 2271 2271 2271 2271 2271 2271 2271 2271 2271 2271 2271 2286 2286 2286 2286 2286 2286 2301 5210 5210 5210 5210 2286 2271 2271 2271 2271 2271 2271 2271 2286 2286 2286 2286 2286 4911 4911 4911 4911 4911 4911 4911 4911 4911 4911 4911 4911 4911 4911 4911 4911 4911 4911 4842 4842 4911 4911 4911 4911 4911 4842 4842 4842 4842 4842 4842 4842 4911 4911 4983 5056 5210 5210 3653 3653 3653 0 0 0 0 0 0 0 0 0 0 0 0 0 0 0 0 0 0 0 3539 3539 3539 3503 3503 3468 3468 3468 3433 3433 3468 3468 3399 3399 3300 3300 3300 3333 3300 3300 3300 3300 3300 3300 3300 3300 3300 3300 3300 3300 3300 3300 3300 3269 3269 3269 3269 3238 3238 3238 3238 3238 3238 3238 3269 3269 3300 3300 3300 3300 3300 3300 3300 3300 3269 3269 3238 3238 3238 3208 3208 3178 3178 3208 3208 3238 3238 3269 3269 3269 3300 3300 3300 3300 3300 3333 3333 3333 3333 3365 3300 3300 3300 3269 3269 3365 3399 3399 3399 3365 3365 3333 3300 3300 3269 3238 3238 3238 3269 3269 3269 3300 3333 3365 3333 3300 3300 3300 3433 3433 3433 3433 0 0 0 2812 2812 2812 2812 2812 2812 2789 2789 2767 2767 2767 2767 2744 2744 2744 2767 2767 2767 2767 2767 2767 2767 2767 2767 2767 2767 2767 2723 2723 2723 2723 2723 2723 2723 2723 2723 2723 2723 2744 2723 2723 2744 2744 2744 2744 2744 2744 2744 2744 2723 2723 2723 2723 2744 2744 2744 2744 2744 2744 2744 2744 2767 2767 2767 2767 2789 2789 2789 2789 0 0 0 0 0 0 0 0 0 0
0 0 0 0 0 0 0 0 0 0 0 0 0 0 0 0 0 0 0 0 0 0 0 0 0 0 0 0 0 0 0 0 0 0 0 0 0 0 4911 4911 4911 4911 4911 4911 4911 4983 4983 5132 5291 5374 5374 5374 5374 5374 5374 5374 5374 5291 5291 5291 5291 0 0 0 0 0 0 0 0 0 0 0 0 0 6259 6038 6038 5832 5832 5832 6038 0 0 6038 0 0 0 5933 5933 5933 5933 5933 6038 6038 6146 6146 6038 6038 6038 6038 6038 6146 6259 6259 6375 0 0 0 0 0 0 0 0 0 0 0 0 0 0 0 0 0 3010 3010 3010 3010 3010 3010 3010 3037 3037 3010 3010 3037 3037 3037 3037 3064 3037 3037 3064 3064 3064 3064 3064 3092 3064 3037 3037 3064 3064 3037 3037 3037 3037 3064 3064 2116 2103 2103 2103 2116 2116 2116 2129 2129 2129 2129 2129 2129 2129 2129 2129 2129 2129 2129 2143 2143 2143 2143 2156 2156 2156 2156 2156 2156 2156 2156 2156 2156 2170 2170 2170 2170 2170 2156 2156 2170 2170 2170 2170 2170 2184 2184 2184 2184 2184 2184 2184 2184 2184 2184 2184 2184 2184 2184 2184 2184 2184 2184 2184 2184 2184 2184 2198 2198 2198 2198 2198 2212 2212 2212 2212 2198 2198 2198 2198 2198 2198 2198 2212 2212 2212 2212 2212 2212 2286 2301 3208 3208 3208 3208 3238 3238 3238 3208 3208 3238 3208 3208 3238 3238 3238 3238 3238 3269 4522 4522 4522 4582 4582 6259 6259 6259 3208 3208 6375 6375 6375 7332 7332 7332 7178 7178 6889 6889 6889 6753 6753 6889 6889 7030 7030 7178 7332 7492 0 0 0 0 0 0 0 0 2226 2226 2241 2241 2241 2256 2256 2256 2256 2256 2271 2271 2271 2271 2271 2286 2271 2271 2271 2271 2271 2271 2271 2271 2271 2271 2271 2271 2271 2271 2271 2256 2256 2256 2256 2256 2271 2271 2271 2271 2271 2271 2271 2271 2271 2271 2271 2271 2271 2271 2271 2271 2271 2271 2271 2271 2271 2271 2271 2271 2286 2286 2286 2286 2286 2301 2301 2301 2301 2286 2286 2286 2286 2286 2271 2271 2286 2286 2286 2286 2286 2286 2286 4983 4911 4911 4911 4911 4911 4911 4911 4911 4911 4911 4911 4911 4911 4911 4911 4911 4842 4842 4911 4911 4911 4911 4911 4842 4842 4842 4842 4842 4842 4842 4842 4911 5056 5132 5210 5210 5291 5291 5374 0 0 0 0 0 0 0 0 0 0 0 0 0 0 0 0 0 0 0 0 3539 3539 3503 3503 3468 3468 3468 3468 3468 3468 3468 3433 3433 3333 3333 3333 3333 3300 3300 3300 3300 3300 3300 3300 3300 3300 3300 3300 3300 3300 3300 3300 3269 3269 3269 3238 3238 3238 3238 3238 3238 3208 3208 3238 3238 3238 3269 3269 3269 3269 3269 3269 3269 3238 3238 3178 3178 3178 3178 3178 3178 3178 3178 3178 3178 3178 3208 3238 3269 3300 3300 3300 3300 3300 3300 3333 3333 3333 3300 3300 3300 3269 3269 3269 3269 3269 3269 3399 3365 3365 3333 3300 3300 3269 3238 3238 3238 3238 3238 3238 3238 3238 3269 3300 3300 3300 3300 3300 0 0 3300 0 0 2835 2835 2835 2835 2835 2812 2812 2789 2789 2767 2767 2767 2767 2767 2767 2767 2767 2767 2767 2767 2767 2767 2767 2767 2767 2767 2767 2767 2723 2723 2723 2723 2723 2723 2723 2723 2723 2723 2723 2744 2723 2723 2744 2744 2744 2744 2744 2744 2744 2744 2744 2723 2723 2723 2744 2744 2744 2744 2744 2744 2744 2744 2767 2789 2789 2789 2789 2789 2812 2812 0 0 0 0 0 0 0 0 0 0
0 0 0 0 0 0 0 0 0 0 0 0 0 0 0 0 0 0 0 0 0 0 0 0 0 0 0 0 0 0 0 0 0 0 0 0 0 0 4911 4842 4842 4842 4842 4842 4911 4911 4911 4983 5291 5374 5374 5374 5460 5460 5374 5374 5374 5374 5460 5460 5548 0 0 0 0 0 0 0 0 0 0 0 0 0 6259 6038 6038 5832 5734 5734 0 0 0 0 0 0 5933 5933 5933 5832 5832 5933 6038 6038 6146 6146 6259 6146 6146 6038 6038 6146 6146 6146 6375 0 0 0 0 0 0 0 0 0 0 0 0 0 0 0 0 2984 3010 3010 3010 2984 2984 2984 2984 3010 2984 2984 2984 3010 3010 3037 3037 3064 3037 3037 3064 3064 3064 3064 3064 3092 3064 3064 3064 3064 3064 3037 3037 3037 3037 3064 3064 2116 2103 2103 2103 2116 2116 2116 2129 2129 2129 2129 2129 2129 2129 2129 2129 2129 2129 2143 2143 2143 2143 2143 2156 2156 2156 2156 2156 2156 2156 2156 2170 2170 2170 2170 2170 2170 2170 2156 2156 2170 2170 2170 2170 2170 2184 2184 2184 2184 2184 2184 2184 2184 2184 2184 2184 2184 2198 2198 2198 2198 2198 2198 2198 2198 2198 2198 2198 2198 2198 2198 2212 2212 2212 2212 2212 2198 2198 2198 2198 2198 2198 2198 2212 2212 2212 2212 2212 2226 2286 2301 3208 3208 3208 3208 3208 3238 3208 3208 3208 3208 3208 3208 3208 3238 3238 3208 3208 4522 4522 4522 4522 4582 4582 4582 6259 3208 3208 3208 3208 3208 7030 7030 7030 7030 7030 7030 6889 6753 6753 6753 6753 6753 6889 6889 6889 7030 7178 7492 0 0 0 0 0 0 0 0 2226 2226 2241 2241 2241 2256 2256 2256 2256 2256 2271 2271 2271 2271 2271 2286 2271 2271 2271 2271 2271 2271 2271 2271 2271 2271 2271 2271 2271 2256 2256 2256 2256 2256 2256 2256 2271 2271 2271 2271 2271 2271 2271 2271 2271 2271 2271 2271 2271 2271 2271 2271 2271 2271 2271 2271 2271 2271 2271 2271 2286 2286 2286 2286 2286 2301 2301 2301 2286 2286 2286 2286 2286 2286 2286 2286 2286 2286 2286 2286 2286 2286 2286 4983 4983 4983 4911 4911 4911 4911 4911 4911 4911 4911 4911 4911 4911 4911 4911 4911 4842 4842 4911 4911 4911 4911 4911 4842 4842 4842 4842 4842 4842 4842 4842 4983 5132 5210 5291 5291 5291 5291 5291 0 0 0 0 0 0 0 0 0 0 0 0 0 0 0 0 0 0 0 0 3539 3503 3503 3503 3468 3468 3468 3468 3468 3468 3468 3433 3433 3333 3333 3333 3333 3300 3300 3300 3300 3300 3300 3300 3300 3300 3300 3300 3300 3300 3300 3269 3269 3269 3269 3238 3208 3208 3208 3208 3208 3208 3208 3208 3238 3238 3238 3269 3269 3269 3238 3238 3238 3178 3178 3149 3149 3149 3149 3178 3149 3149 3178 3178 3178 3178 3178 3208 3238 3269 3269 3269 3269 3269 3300 3300 3300 3300 3269 3269 3269 3238 3238 3238 3269 3269 3269 3269 3333 3333 3300 3269 3269 3269 3269 3238 3238 3238 3208 3208 3208 3208 3238 3269 3269 3269 3269 3269 0 0 0 0 0 2859 2859 2859 2812 2812 2812 2812 2789 2789 2767 2767 2767 2767 2767 2767 2767 2767 2767 2767 2767 2767 2767 2767 2767 2767 2767 2767 2767 2744 2723 2723 2723 2723 2723 2723 2723 2723 2723 2723 2744 2744 2744 2744 2744 2744 2744 2744 2744 2744 2744 2744 2744 2744 2744 2744 2744 2744 2744 2744 2744 2744 2744 2767 2789 2789 2789 2789 2789 2812 2812 0 0 0 0 0 0 0 0 0 0
0 0 0 0 0 0 0 0 0 0 0 0 0 0 0 0 0 0 0 0 0 0 0 0 0 0 0 0 0 0 0 0 0 0 0 0 0 0 4911 4842 4842 4842 4842 4842 4911 4911 4911 4983 5291 5374 5374 5374 5460 5460 5374 5374 5374 5291 5291 5734 5734 0 0 0 0 0 0 0 0 0 0 0 0 0 6259 5832 5734 5734 5548 5548 0 0 0 0 0 0 5933 5933 5933 5832 5832 5832 6038 6038 6146 6146 6259 6146 6146 6146 6146 6038 6038 6146 0 0 0 0 0 0 0 0 0 0 0 0 0 0 0 0 0 0 2984 2984 2984 2984 2984 2984 2984 3010 2984 2984 2984 3010 3010 3037 3037 3064 3064 3064 3064 3064 3064 3064 3064 3092 3064 3064 3064 3064 3064 3037 3037 3037 3037 3037 3037 2129 2116 2116 2116 2116 2116 2116 2129 2129 2129 2129 2129 2129 2129 2129 2129 2129 2129 2143 2143 2143 2143 2143 2156 2156 2156 2156 2156 2156 2170 2170 2170 2170 2170 2170 2170 2156 2156 2156 2156 2170 2170 2170 2170 2184 2184 2184 2184 2184 2184 2184 2184 2184 2184 2184 2184 2184 2198 2198 2198 2198 2198 2198 2198 2198 2198 2198 2198 2198 2198 2212 2212 2212 2212 2212 2212 2198 2198 2198 2198 2198 2198 2198 2212 2212 2212 2212 2212 2226 2286 2301 3178 3178 3178 3178 3178 3208 3208 3208 3208 3208 3208 3208 3208 3208 3208 3208 3178 3178 3208 3208 3178 3178 3178 3178 3178 3208 3208 3208 3208 3208 0 7030 7030 6889 6889 6889 6889 6622 6622 6622 6622 6753 6889 6889 6889 7030 7178 7492 7492 0 0 0 0 0 0 0 2226 2226 2226 2241 2241 2256 2241 2241 2256 2256 2256 2256 2271 2271 2271 2286 2286 2271 2271 2271 2271 2286 2286 2286 2271 2271 2271 2271 2271 2256 2256 2256 2256 2256 2256 2256 2271 2271 2271 2271 2271 2271 2271 2271 2271 2271 2271 2271 2271 2271 2271 2271 2271 2271 2271 2271 2271 2271 2271 2271 2271 2286 2286 2286 2286 2286 2286 2301 2286 2286 2286 2286 2286 2286 2286 2286 2286 2286 2286 2286 2286 2286 2271 0 4983 4983 4911 4911 4911 4911 4911 4911 4911 4911 4911 4911 4911 4911 4911 4911 4911 4911 4911 4911 4911 4911 4911 4842 4842 4842 4842 4842 4842 4842 4911 5056 5132 5132 5132 5132 5132 5132 5132 5132 0 0 0 0 0 0 0 0 0 0 0 0 0 0 0 0 0 0 0 0 3468 3468 3503 3468 3468 3468 3468 3468 3468 3468 3433 3399 3333 3333 3333 3333 3300 3300 3300 3300 3300 3300 3300 3300 3300 3300 3300 3300 3300 3269 3269 3238 3238 3238 3238 3208 3208 3208 3208 3208 3208 3208 3208 3208 3208 3238 3238 3208 3208 3208 3208 3178 3149 3149 3149 3149 3149 3149 3178 3149 3149 3149 3149 3178 3178 3178 3208 3208 3238 3238 3238 3269 3269 3269 3269 3269 3269 3269 3269 3238 3238 3238 3238 3238 3238 3238 3178 3238 3238 3238 3208 3208 3208 3178 3178 3178 3208 3178 3178 3178 3178 3208 3238 3238 3269 3269 3269 0 0 0 0 0 0 3178 2859 2789 2789 2789 2789 2767 2767 2767 2767 2767 2767 2767 2767 2767 2767 2767 2767 2767 2767 2767 2767 2767 2767 2767 2767 2767 2744 2744 2723 2723 2723 2723 2723 2723 2723 2723 2723 2744 2744 2744 2744 2744 2744 2744 2744 2744 2744 2744 2744 2744 2744 2744 2744 2744 2744 2744 2744 2767 2767 2767 2767 2789 2789 2789 2789 2789 2812 2812 0 0 0 0 0 0 0 0 0 0
0 0 0 0 0 0 0 0 0 0 0 0 0 0 0 0 0 0 0 0 0 0 0 0 0 0 0 0 0 0 0 0 0 0 0 0 0 0 4911 4842 4842 4842 4842 4842 4911 4911 4983 5132 5210 5374 5374 5460 5460 5460 5460 5460 5460 5291 5210 5210 5210 5291 0 0 0 0 0 0 0 0 0 0 0 0 0 5832 5734 5734 5548 5548 0 0 0 0 0 0 5933 5933 5933 5832 5832 5832 6038 6038 6038 6146 6259 6146 6146 6146 6146 6038 6038 0 0 0 0 0 0 0 0 0 0 0 0 0 0 2883 2883 2883 2908 2958 2984 2984 2984 2984 2984 2984 2984 3010 2984 2984 2984 3010 3010 3037 3037 3037 3037 3064 3064 3064 3064 3064 3092 3092 3092 3092 3064 3064 3064 3037 3037 3010 3010 3037 3037 2129 2129 2116 2116 2129 2129 2129 2129 2129 2129 2129 2129 2129 2129 2129 2129 2129 2129 2143 2143 2143 2143 2143 2156 2156 2156 2156 2156 2156 2170 2170 2170 2170 2170 2170 2170 2156 2156 2156 2156 2170 2170 2170 2170 2184 2184 2184 2184 2184 2184 2184 2184 2184 2198 2198 2198 2198 2198 2198 2198 2198 2198 2198 2198 2198 2198 2198 2198 2198 2198 2212 2212 2212 2212 2212 2212 2198 2198 2198 2198 2198 2198 2198 2212 2198 2198 2212 2212 2241 2301 2301 3149 3149 3149 3149 3149 3178 3208 3208 3208 3208 3208 3208 3208 3208 3208 3178 3178 3178 3178 3178 3149 3149 3149 3149 3149 3178 3238 3208 3208 3208 8019 6889 6889 6889 6889 6889 6889 6622 6622 6622 6622 6753 6753 6889 6889 7178 7332 7492 7492 0 0 0 0 0 0 0 2226 2226 2226 2241 2241 2241 2241 2241 2256 2256 2256 2256 2271 2271 2271 2271 2286 2286 2286 2286 2271 2271 2286 2286 2271 2271 2271 2271 2271 2256 2256 2256 2256 2256 2256 2256 2256 2271 2271 2271 2271 2286 2286 2286 2271 2271 2271 2271 2271 2271 2271 2271 2271 2271 2271 2271 2271 2271 2271 2271 2271 2286 2286 2286 2286 2286 2286 2286 2286 2286 2286 2286 2286 2286 2286 2286 2286 2286 2286 2286 2271 2271 2271 5132 5132 5132 4983 4983 4983 4911 4911 4911 4911 4911 4911 4911 4911 4911 4911 4911 4911 4911 4911 4911 4911 4911 4911 4842 4842 4842 4842 4842 4842 4842 4911 5056 5132 5132 5132 5132 5132 5132 5132 5132 5132 0 0 0 0 0 0 0 0 0 0 0 0 0 0 0 0 0 0 0 3468 3468 3503 3503 3503 3468 3468 3468 3468 3433 3399 3399 3333 3333 3333 3333 3300 3300 3300 3300 3300 3300 3300 3300 3300 3300 3300 3300 3300 3269 3269 3238 3238 3238 3238 3208 3208 3208 3208 3208 3208 3208 3208 3208 3208 3208 3208 3208 3208 3178 3178 3178 3149 3120 3120 3120 3120 3120 3120 3120 3149 3149 3149 3178 3178 3178 3178 3178 3208 3238 3238 3238 3238 3238 3238 3238 3208 3208 3238 3208 3208 3208 3208 3208 3208 3178 3178 3178 3208 3208 3178 3178 3178 3149 3149 3178 3120 3120 3178 3178 3149 3149 3178 3178 3178 3178 3178 0 0 3064 0 0 0 3178 3149 2767 2767 2789 2789 2767 2767 2767 2767 2767 2767 2767 2767 2767 2767 2767 2789 2789 2767 2767 2767 2767 2767 2767 2767 2767 2744 2744 2744 2744 2723 2723 2723 2723 2723 2723 2744 2744 2744 2744 2744 2744 2744 2744 2744 2744 2744 2744 2744 2744 2744 2767 2744 2744 2767 2767 2767 2767 2767 2767 2767 2767 2789 2789 2789 2789 2812 2812 0 0 0 0 0 0 0 0 0 0
0 0 0 0 0 0 0 0 0 0 0 0 0 0 0 0 0 0 0 0 0 0 0 0 0 0 0 0 0 0 0 0 0 0 0 0 0 0 4983 4911 4911 4911 4911 4911 4911 4911 4983 5056 5132 5210 5291 5374 5374 5460 5374 5374 5374 5291 5210 5210 5210 5210 0 0 0 0 0 0 0 0 0 0 0 0 0 0 5548 5548 5548 5548 0 0 0 0 0 6146 6038 6038 5933 5933 5832 5832 6038 6038 6038 6146 6146 0 0 0 6146 6146 0 0 0 0 0 0 0 0 0 0 0 2835 2835 2859 2859 2883 2883 2883 2908 2958 2958 2958 2984 2984 2984 2984 2984 2984 3010 2984 2984 3010 3010 3037 3037 3037 3037 3064 3064 3064 3064 3064 3092 3092 3092 3092 3064 3064 3064 3010 3010 3010 3010 3010 3010 2129 2116 2116 2116 2116 2129 2129 2129 2129 2129 2129 2129 2129 2129 2129 2129 2129 2129 2143 2143 2143 2143 2143 2156 2156 2156 2156 2156 2156 2170 2170 2170 2170 2170 2170 2170 2170 2156 2156 2156 2170 2170 2170 2170 2184 2184 2184 2184 2184 2184 2184 2184 2184 2198 2198 2198 2198 2198 2198 2198 2198 2198 2198 2198 2198 2198 2198 2198 2198 2212 2212 2212 2212 2212 2212 2212 2198 2198 2198 2198 2198 2198 2198 2198 2198 2198 2212 2212 2241 2301 2301 2317 3149 3149 3149 3149 3178 3208 3208 3208 3178 3178 3208 3178 3178 3178 3178 3149 3149 3149 3149 3149 3149 3149 3149 3149 3149 3208 3208 3208 3208 8019 8019 6889 6889 6889 6889 6889 6753 6622 6622 6622 6753 6753 6889 6889 7178 7332 7492 7492 0 0 0 0 0 0 0 2226 2226 2226 2241 2241 2241 2241 2241 2256 2256 2256 2256 2271 2271 2271 2271 2286 2286 2286 2286 2271 2271 2286 2286 2271 2271 2271 2271 2271 2256 2256 2256 2256 2256 2256 2256 2256 2271 2271 2286 2286 2286 2286 2286 2271 2271 2271 2271 2271 2271 2271 2271 2271 2271 2271 2271 2271 2271 2271 2271 2271 2286 2286 2286 2286 2286 2286 2286 2286 2286 2286 2286 2286 2286 2286 2286 2286 2286 2286 2271 2271 2271 2271 5132 5132 4983 4983 4983 4911 4911 4911 4911 4911 4911 4911 4842 4842 4911 4911 4911 4911 4842 4842 4842 4842 4842 4911 4774 4774 4842 4842 4842 4842 4911 4983 5056 5132 5132 5132 5132 5132 5132 5132 5056 5056 0 0 0 0 0 0 0 0 0 0 0 0 0 0 0 0 0 0 0 0 3468 3468 3503 3503 3468 3468 3468 3468 3433 3399 3399 3333 3333 3333 3333 3333 3333 3333 3333 3333 3300 3300 3300 3300 3300 3300 3300 3300 3300 3269 3269 3269 3269 3238 3238 3238 3238 3238 3208 3208 3208 3208 3208 3208 3208 3208 3208 3178 3178 3178 3178 3149 3120 3120 3120 3120 3120 3120 3120 3120 3120 3149 3149 3149 3149 3149 3149 3178 3178 3178 3178 3092 3092 3149 3120 3120 3149 3149 3149 3149 3149 3149 3149 3149 3149 3149 3149 3149 3149 3149 3149 3149 3149 3149 3149 3092 3092 3092 3092 3120 3120 3149 3149 3149 3149 3149 3149 3064 3064 3064 3064 3064 3178 3149 2767 2767 2789 2767 2767 2767 2767 2767 2767 2767 2767 2767 2767 2789 2789 2789 2789 2767 2767 2767 2767 2767 2767 2767 2767 2744 2744 2744 2744 2744 2744 2744 2744 2744 2744 2744 2744 2744 2744 2744 2744 2744 2744 2744 2767 2744 2744 2767 2767 2767 2767 2744 2744 2767 2767 2767 2767 2767 2767 2767 2767 2789 2789 2812 2812 2812 2835 0 0 0 0 0 0 0 0 0 0
0 0 0 0 0 0 0 0 0 0 0 0 0 0 0 0 0 0 0 0 0 0 0 0 0 0 0 0 0 0 0 0 0 0 0 0 0 0 4983 4911 4911 4911 4911 4911 4911 4911 4911 4983 5056 5210 5291 5291 5374 5374 5374 5374 5291 5210 5210 5210 5210 5210 5210 0 0 0 0 0 0 0 0 0 0 0 0 0 5460 5548 5548 5548 0 0 0 5832 0 6038 6038 6038 5933 5734 5734 5734 6038 6038 6038 6146 6146 0 0 0 0 0 0 0 0 0 0 0 0 0 0 0 2835 2835 2835 2859 2859 2883 2883 2908 2908 2933 2958 2958 2958 2984 2984 2984 2984 2984 2984 2984 2984 2984 2984 2984 2984 3010 3010 3037 3037 3064 3064 3064 3064 3064 3064 3064 3064 3037 3037 3010 2984 2958 2958 2958 2958 2116 2116 2116 2116 2116 2129 2129 2129 2129 2129 2129 2129 2129 2129 2129 2129 2129 2129 2143 2143 2143 2143 2156 2156 2156 2156 2156 2156 2156 2156 2170 2170 2170 2170 2170 2170 2170 2170 2170 2170 2170 2170 2170 2184 2184 2184 2184 2184 2184 2184 2184 2184 2184 2198 2198 2198 2198 2198 2198 2198 2198 2198 2198 2198 2198 2198 2198 2198 2212 2212 2212 2212 2212 2212 2212 2212 2198 2198 2198 2198 2198 2198 2198 2198 2198 2198 2212 2212 2241 2301 2301 2317 3149 3149 3149 3149 3178 3208 3178 3178 3178 3178 3208 3178 3178 3149 3149 3149 3120 3120 3149 3149 3120 3120 3120 3120 3149 3208 3149 3149 3149 7492 7492 7030 7030 7030 7030 6889 6753 6622 6622 6622 6622 6622 6889 6889 7178 0 0 0 0 0 0 0 0 0 0 2226 2226 2241 2241 2241 2241 2241 2241 2241 2256 2256 2256 2271 2271 2271 2271 2286 2286 2286 2286 2271 2271 2286 2286 2271 2271 2271 2271 2271 2271 2256 2256 2256 2256 2256 2256 2271 2271 2271 2286 2286 2286 2286 2286 2271 2271 2271 2271 2271 2271 2271 2271 2271 2271 2271 2271 2271 2271 2271 2271 2286 2286 2286 2286 2286 2286 2286 2286 2286 2286 2286 2286 2286 2286 2286 2286 2286 2286 2286 2271 2271 2271 2271 5374 5132 4983 4983 4983 4911 4911 4911 4911 4911 4911 4911 4842 4842 4911 4911 4911 4911 4842 4842 4842 4842 4842 4911 4774 4774 4842 4842 4842 4842 4911 4983 5056 5132 5132 5132 5132 5132 5132 5056 5056 5056 0 0 0 0 0 0 0 0 0 0 0 0 0 0 0 0 0 0 0 0 3468 3468 3503 3503 3433 3433 3433 3433 3433 3399 3399 3333 3333 3333 3333 3333 3333 3333 3333 3333 3300 3300 3300 3300 3300 3300 3300 3300 3300 3300 3269 3269 3269 3238 3238 3238 3238 3238 3208 3208 3208 3208 3208 3208 3208 3208 3208 3178 3178 3178 3149 3149 3120 3120 3120 3120 3120 3120 3149 3120 3120 3120 3149 3149 3149 3149 3149 3149 3149 3149 3120 3092 3092 3120 3092 3092 3092 3092 3092 3092 3092 3092 3092 3120 3092 3092 3064 3064 3064 3064 3037 3037 3064 3064 3064 3064 3064 3064 3064 3064 3092 3120 3120 3092 3092 3092 3092 3064 3064 3064 3064 3064 3092 3178 2767 2767 2789 2767 2767 2767 2789 2767 2767 2789 2789 2789 2789 2789 2789 2789 2789 2767 2767 2767 2767 2767 2767 2789 2789 2767 2767 2767 2767 2744 2744 2744 2744 2744 2744 2744 2744 2744 2744 2744 2744 2744 2744 2744 2744 2723 2723 2744 2744 2744 2744 2744 2744 2767 2767 2767 2767 2767 2767 2789 2789 2789 2812 2812 2812 2812 2835 0 0 0 0 0 0 0 0 0 0
0 0 0 0 0 0 0 0 0 0 0 0 0 0 0 0 0 0 0 0 0 0 0 0 0 0 0 0 0 0 0 4463 4463 0 0 0 0 0 0 4911 4911 4911 4911 4911 4911 4911 4911 4983 5056 5132 5210 5291 5374 5374 5374 5374 5291 5210 5132 5132 5132 5210 5210 5210 5210 5374 5460 0 0 0 0 0 0 0 0 0 5460 5460 5548 5548 0 0 0 5832 5832 5832 5933 5933 5933 5734 5734 5734 5640 5640 5640 0 0 0 0 0 0 0 0 0 0 0 0 0 0 0 2958 2883 2835 2835 2835 2859 2859 2883 2883 2883 2908 2908 2933 2933 2933 2958 2958 2984 2984 2984 2984 2984 2958 2933 2933 2933 2933 2933 2984 2984 3010 3037 3037 3064 3064 3064 3064 3064 3064 3037 3037 2984 2984 2958 2958 2958 2984 2116 2116 2116 2116 2116 2129 2129 2129 2129 2129 2129 2129 2129 2129 2143 2143 2143 2143 2143 2143 2143 2143 2156 2156 2156 2156 2156 2156 2156 2156 2170 2170 2170 2170 2170 2170 2170 2170 2170 2170 2170 2184 2184 2184 2184 2184 2184 2184 2184 2184 2184 2184 2184 2198 2198 2198 2198 2198 2198 2198 2198 2198 2212 2212 2212 2198 2198 2198 2212 2212 2212 2212 2198 2198 2212 2198 2198 2198 2198 2198 2198 2198 2212 2212 2198 2198 2212 2212 2241 2301 2317 2317 3149 3149 3149 3149 3178 3208 3178 3178 3178 3178 3178 3149 3149 3120 3120 3120 3092 3092 3120 3120 3120 3120 3120 3120 3208 3208 3149 3149 3149 7492 7178 7030 7030 7030 7030 6889 6622 6622 6497 6497 6497 6497 6753 6753 0 0 0 0 0 0 0 0 0 0 0 2226 2226 2241 2241 2241 2241 2241 2241 2241 2241 2256 2256 2271 2271 2271 2271 2286 2286 2286 2286 2286 2286 2286 2286 2271 2271 2271 2271 2271 2271 2271 2271 2271 2271 2271 2271 2271 2271 2271 2286 2286 2286 2286 2286 2271 2271 2271 2271 2271 2271 2271 2271 2271 2271 2271 2271 2271 2271 2271 2286 2286 2286 2286 2286 2286 2286 2286 2286 2286 2286 2286 2286 2286 2286 2286 2286 2286 2286 2286 2286 2286 2286 5291 5291 5132 5056 4983 4983 4911 4842 4842 4911 4842 4842 4842 4842 4842 4911 4911 4911 4911 4842 4842 4842 4842 4842 4842 4774 4774 4842 4842 4842 4842 4911 4983 5056 5132 5132 5132 5132 5132 5132 5056 5056 5056 0 0 0 0 0 0 0 0 0 0 0 0 0 0 0 0 0 0 0 0 0 0 0 0 3433 3433 3433 3433 3433 3399 3399 3365 3333 3333 3333 3333 3333 3333 3333 3333 3333 3300 3300 3300 3300 3300 3300 3300 3300 3300 3269 3269 3269 3238 3238 3238 3238 3238 3238 3208 3208 3208 3208 3208 3208 3208 3208 3178 3178 3178 3149 3149 3149 3120 3120 3120 3149 3149 3149 3149 3120 3120 3149 3149 3149 3149 3149 3149 3149 3149 3120 3092 3092 3120 3092 3092 3092 3092 3092 3092 3092 3092 3092 3120 3092 3092 3064 3064 3064 3064 3037 3037 3064 3064 3064 3064 3064 3064 3064 3064 3092 3092 3092 3092 3092 3064 3064 3064 3064 3064 3064 3064 3092 3149 3178 2789 2789 2767 2767 2767 2789 2789 2789 2789 2789 2789 2812 2789 2789 2789 2789 2789 2789 2767 2767 2767 2789 2789 2789 2767 2767 2789 2812 2767 2744 2744 2744 2744 2744 2767 2767 2767 2767 2767 2744 2744 2723 2723 2701 2701 2701 2723 2723 2744 2723 2723 2723 2744 2767 2767 2767 2767 2789 2789 2789 2789 2812 2812 2812 2812 2835 0 0 0 0 0 0 0 0 0 0
0 0 0 0 0 0 0 0 0 0 0 0 0 0 0 0 0 0 0 0 0 0 0 0 0 0 0 0 0 0 0 4463 4463 0 0 0 0 0 0 4911 4911 4911 4911 4911 4911 4911 4911 4983 5056 5132 5210 5291 5291 5374 5374 5291 5291 5210 5132 5132 5132 5210 5210 5210 5210 5291 5291 5460 0 0 0 0 5548 5548 5548 5460 5460 5460 5548 5548 0 5640 5734 5832 5832 5832 5933 5933 5933 5832 5832 5734 5640 5548 5548 0 0 0 0 0 0 0 0 0 0 0 0 0 0 2958 2958 2859 2859 2835 2835 2859 2859 2859 2859 2859 2859 2859 2859 2859 2883 2933 2958 2958 2958 2984 2984 2984 2958 2908 2908 2908 2908 2908 2908 2908 2933 2984 3037 3037 3037 3064 3037 3037 3010 2984 2984 2984 2933 2908 2908 2933 2933 2933 2116 2116 2116 2129 2129 2129 2129 2129 2129 2129 2129 2129 2143 2143 2143 2143 2143 2143 2143 2143 2143 2156 2156 2156 2156 2156 2156 2170 2170 2170 2170 2170 2170 2170 2170 2170 2170 2170 2170 2184 2184 2184 2184 2184 2184 2184 2184 2184 2184 2184 2184 2184 2198 2198 2198 2198 2198 2198 2198 2198 2198 2212 2212 2212 2198 2198 2198 2198 2212 2212 2198 2198 2198 2212 2198 2198 2198 2198 2198 2198 2198 2212 2212 2198 2198 2212 2226 2241 2301 2317 2317 3120 3149 3149 3149 3149 3149 3149 3149 3149 3149 3178 3149 3149 3037 3037 3064 3064 3064 3037 3037 3037 3092 3037 3037 3037 3208 3149 3149 3149 7178 7178 7030 7030 7030 7030 6889 6622 6497 6497 6497 6497 6497 6622 6753 0 0 0 0 0 0 0 0 0 0 0 2226 2226 2241 2241 2241 2241 2241 2241 2241 2241 2256 2256 2271 2271 2271 2271 2286 2286 2286 2286 2286 2286 2286 2286 2271 2271 2271 2271 2271 2271 2271 2271 2271 2271 2271 2271 2271 2271 2271 2286 2286 2286 2286 2286 2286 2286 2286 2271 2271 2271 2271 2271 2271 2271 2271 2286 2286 2286 2286 2286 2286 2286 2286 2286 2286 2286 2286 2286 2286 2286 2286 2286 2286 2286 2286 2286 2286 2286 2286 2286 2286 2301 5210 5210 4983 4983 4983 4911 4911 4842 4842 4911 4842 4842 4842 4842 4842 4911 4911 4911 4911 4842 4842 4842 4842 4842 4842 4774 4774 4842 4842 4842 4911 4983 5056 5056 5132 5132 5132 5132 5132 5056 5056 5056 5056 0 0 0 0 0 0 0 0 0 0 0 0 0 0 0 0 0 0 0 0 0 0 0 0 0 3433 3433 3433 0 0 3399 3399 3333 3333 3333 3333 3333 3333 3333 3333 3333 3333 3333 3333 3333 3333 3300 3300 3300 3300 3300 3300 3269 3238 3238 3238 3238 3238 3238 3238 3238 3238 3208 3208 3208 3208 3208 3208 3178 3178 3178 3149 3149 3149 3149 3149 3149 3149 3149 3149 3149 3149 3149 3149 3149 3149 3149 3149 3149 3120 3120 3092 3092 3092 3092 3092 3092 3092 3092 3092 3092 3092 3092 3120 3092 3092 3064 3064 3064 3064 3064 3064 3064 3064 3064 3064 3064 3064 3064 3064 3092 3092 3092 3092 3064 3064 3064 3064 3064 3064 3064 3064 3064 3037 2859 2789 2789 2767 2767 2767 2789 2789 2789 2812 2812 2812 2812 2812 2812 2812 2812 2789 2789 2767 2767 2767 2789 2789 2767 2767 2767 2789 3010 3010 3010 3037 3010 3010 2984 2984 2767 2767 2767 2767 2744 2744 2701 2701 2639 2639 2639 2639 2659 2680 2701 2701 2701 2744 2767 2767 2767 2789 2789 2789 2789 2789 2812 2812 2812 2812 2812 0 0 0 0 0 0 0 0 0 0
0 0 0 0 0 0 0 0 0 0 0 0 0 0 0 0 0 0 0 0 0 0 0 0 0 0 0 0 0 0 0 4463 4463 0 0 0 0 0 0 0 4911 4911 4911 4911 4911 4911 4911 4983 5056 5132 5210 5291 5291 5374 5374 5291 5291 5210 5132 5132 5132 5210 5132 5132 5210 5291 5291 5460 5640 5640 5734 5640 5548 5460 5460 5548 5460 5460 5548 5548 5640 5640 5734 5734 5734 5832 6038 5933 5933 5832 5832 5734 5734 5548 5548 0 0 0 0 0 0 0 0 0 0 0 0 0 0 2958 2883 2859 2859 2835 2835 2859 2835 2835 2859 2835 2835 2835 2835 2835 2835 2835 2859 2859 2883 2883 2883 2883 2883 2859 2859 2883 2883 2883 2883 2883 2883 2883 2883 2883 3037 3037 2984 2984 2908 2908 2933 2933 2883 2883 2883 2883 2883 2883 2129 2116 2116 2129 2129 2129 2129 2129 2129 2129 2129 2129 2129 2129 2143 2143 2143 2143 2143 2143 2143 2156 2156 2156 2156 2156 2156 2170 2170 2170 2170 2170 2170 2170 2170 2170 2170 2170 2170 2184 2184 2184 2184 2184 2184 2184 2184 2184 2184 2184 2184 2184 2198 2198 2198 2198 2198 2198 2198 2198 2198 2212 2212 2212 2198 2198 2198 2198 2198 2198 2198 2198 2198 2198 2198 2198 2198 2198 2198 2198 2198 2212 2212 2198 2198 2212 2226 2241 2317 2317 2317 3120 3120 3149 3149 3149 3120 3120 3120 3120 3120 3120 2908 3010 3010 3010 3037 3037 3037 3010 3010 3010 3037 3010 3010 3010 3037 3037 3037 3064 3064 3064 3064 3064 6622 6622 6622 6622 6497 6497 6497 6497 6497 6622 6753 6889 0 0 0 0 0 0 0 0 0 2226 2226 2241 2241 2241 2241 2241 2241 2241 2241 2241 2256 2256 2271 2271 2271 2271 2286 2286 2286 2286 2286 2286 2271 2271 2256 2256 2256 2271 2271 2271 2271 2271 2271 2271 2271 2271 2271 2271 2271 2286 2286 2286 2286 2286 2286 2286 2286 2286 2271 2271 2271 2271 2271 2271 2271 2286 2286 2286 2286 2286 2286 2286 2286 2286 2286 2286 2286 2286 2286 2286 2286 2286 2286 2286 2286 2286 2286 2286 2286 2286 2301 2301 5210 5210 4911 4911 4983 4911 4911 4842 4842 4911 4911 4842 4842 4842 4842 4911 4911 4842 4842 4842 4842 4842 4842 4842 4842 4842 4842 4842 4842 4842 4911 4983 5056 5056 5056 5056 5056 5056 5056 5056 5056 5056 5056 0 0 0 0 0 0 0 0 0 0 0 0 0 0 0 0 0 0 0 0 0 0 0 0 0 0 0 0 0 0 0 0 0 3333 3333 3333 3333 3333 3333 3333 3333 3333 3333 3333 3333 3333 3300 3300 3300 3300 3300 3300 3269 3269 3269 3269 3269 3269 3238 3238 3238 3238 3208 3208 3208 3208 3208 3208 3178 3178 3178 3149 3149 3149 3149 3149 3149 3149 3149 3149 3149 3149 3149 3149 3149 3149 3149 3149 3149 3120 3092 3092 3092 3092 3092 3092 3092 3092 3092 3092 3092 3092 3092 3092 3092 3064 3064 3064 3064 3064 3064 3064 3064 3064 3064 3064 3064 3064 3064 3064 3092 3092 3092 3092 3064 3064 3064 3064 3064 3064 3064 3064 3037 3010 2859 2812 2789 2789 2789 2789 2789 2789 2789 2812 2812 2812 2812 2812 2812 2812 2812 2789 2789 2789 2789 2789 2789 2789 2767 2767 3010 3010 3010 3037 3037 3037 3037 3037 3010 3010 2984 2984 2984 2984 3037 3178 2701 2701 2579 2579 2579 2598 2639 2639 2701 2701 2701 2744 2767 2767 2789 2789 2789 2789 2812 2812 2812 2812 2812 2812 2812 0 0 0 0 0 0 0 0 0 0
0 0 0 0 0 0 0 0 0 0 0 0 0 0 0 0 0 0 0 0 0 0 0 0 0 0 0 0 0 0 0 4463 4463 4522 0 0 0 0 0 0 0 4911 4911 4911 4911 4911 4983 5056 5132 5210 5291 5374 5374 5460 5460 5374 5291 5210 5210 5132 5132 5132 5132 5132 5132 5291 5291 5460 5548 5548 5734 5640 5374 5374 5460 5548 5460 5460 5548 5640 5640 5640 5734 5734 5734 5832 6038 5933 5933 5832 5832 5734 5734 5548 5548 0 0 0 0 0 0 0 0 0 0 0 0 0 0 2859 2859 2859 2859 2835 2835 2859 2835 2835 2859 2835 2835 2835 2835 2812 2812 2835 2835 2835 2859 2859 2859 2859 2859 2859 2859 2859 2859 2859 2859 2859 2859 2883 2883 2883 2883 2883 2883 2883 2883 2883 2883 2908 2883 2859 2859 2883 2883 2883 2129 2129 2129 2129 2129 2129 2129 2129 2129 2129 2129 2129 2129 2129 2143 2129 2129 2143 2143 2143 2143 2156 2156 2156 2156 2156 2156 2170 2170 2170 2170 2170 2170 2170 2170 2170 2170 2170 2170 2184 2184 2184 2184 2184 2184 2184 2184 2184 2184 2184 2184 2184 2198 2198 2198 2198 2198 2198 2198 2198 2198 2212 2212 2212 2198 2198 2212 2212 2198 2198 2198 2198 2198 2198 2198 2198 2198 2198 2198 2198 2198 2198 2212 2198 2198 2212 2226 2241 2301 2317 2317 3064 3092 3092 3120 3092 3037 3037 3092 3092 2883 2883 2908 2933 2933 3010 3010 3010 3010 3010 3010 3010 3010 3010 3010 3010 3037 3037 3037 3037 3064 3064 3064 0 0 0 6497 6497 6497 6497 6497 6497 6497 6497 6622 6753 0 0 0 0 0 0 0 0 0 2226 2226 2241 2241 2241 2241 2241 2241 2241 2241 2256 2256 2271 2271 2271 2271 2271 2286 2286 2286 2286 2286 2286 2271 2271 2256 2256 2256 2271 2256 2256 2271 2271 2271 2271 2271 2271 2271 2286 2286 2286 2286 2286 2286 2286 2286 2286 2286 2286 2286 2271 2271 2271 2271 2286 2286 2286 2286 2286 2286 2286 2286 2286 2286 2286 2286 2286 2286 2286 2286 2286 2286 2286 2286 2286 2286 2286 2286 2286 2286 2286 2301 2301 5210 5210 4911 4911 4983 4911 4911 4911 4911 4911 4842 4842 4842 4842 4842 4911 4911 4842 4842 4842 4842 4842 4842 4842 4842 4774 4774 4842 4911 4911 4983 5056 5056 5056 5056 5056 5056 5056 5056 5056 5056 5056 5056 0 0 0 0 0 0 0 0 0 0 0 0 0 0 0 0 0 0 0 0 0 0 0 0 0 0 0 0 0 0 0 0 0 0 3333 3333 3333 3333 3333 3333 3333 3333 3333 3333 3333 3333 3300 3300 3300 3300 3300 3300 3300 3269 3269 3269 3269 3238 3238 3238 3238 3238 3208 3208 3208 3208 3208 3208 3178 3178 3178 3149 3149 3149 3149 3149 3149 3149 3149 3149 3149 3149 3149 3149 3149 3149 3149 3149 3149 3149 3092 3092 3092 3092 3092 3092 3092 3092 3092 3092 3092 3092 3092 3092 3092 3064 3064 3064 3064 3064 3064 3064 3064 3064 3064 3064 3064 3064 3064 3064 3092 3092 3092 3064 3064 3064 3064 3064 3064 3064 3037 3037 3010 2933 2883 2859 2812 2789 2789 2789 2789 2789 2789 2812 2812 2812 2812 2812 2812 2812 2812 2812 2812 2789 2789 2789 2789 2859 2859 2958 3010 3037 3037 3037 3037 3037 3037 3037 3037 3037 3037 3037 3037 3064 3149 3149 3178 3178 2579 2560 2560 2579 2560 2560 2579 2579 2723 2723 2767 2789 2789 2789 2789 2789 2812 2812 2812 2812 2812 2812 2812 0 0 0 0 0 0 0 0 0 0
0 0 0 0 0 0 0 0 0 0 0 0 0 0 0 0 0 0 0 0 0 0 0 0 0 0 0 0 0 0 0 4463 4463 4522 4645 0 0 0 0 0 0 4983 4983 4983 4911 4911 4983 5056 5132 5210 5210 5291 5291 5460 5460 5374 5291 5210 5210 5132 5132 5132 5132 5132 5132 5291 5291 5460 5460 5548 5640 5640 5291 5291 5460 5460 5460 5640 5640 5640 5640 5640 5734 5460 5374 5374 5374 5374 5640 5640 5640 5640 5548 5548 5548 0 0 0 0 0 0 0 0 0 0 0 0 2883 2883 2883 2859 2859 2859 2859 2859 2859 2835 2835 2835 2835 2812 2812 2812 2812 2812 2812 2812 2812 2835 2835 2835 2835 2835 2835 2835 2859 2859 2859 2859 2859 2859 2859 2859 2859 2859 2859 2859 2883 2859 2859 2883 2883 2859 2859 2859 2859 2859 2859 2116 2116 2116 2129 2129 2129 2129 2129 2129 2129 2129 2129 2129 2129 2143 2129 2129 2143 2143 2143 2143 2156 2156 2156 2170 2170 2170 2170 2170 2170 2170 2170 2170 2170 2170 2170 2184 2184 2184 2184 2184 2184 2184 2184 2184 2184 2184 2184 2184 2184 2184 2184 2198 2198 2198 2198 2198 2198 2198 2198 2198 2212 2198 2198 2212 2212 2212 2212 2198 2198 2198 2198 2198 2198 2198 2198 2198 2198 2198 2198 2198 2198 2212 2198 2198 2212 2226 2241 2286 3010 2984 2984 2984 2984 2958 2958 2958 2958 2958 2933 2883 2883 2908 2933 2933 2984 2984 2984 2984 2984 2984 3010 3010 3010 3010 3010 3037 3037 3037 3037 3064 3064 3064 3037 3037 3037 0 6375 6375 6375 6375 6375 6497 6497 6622 6622 0 0 0 0 0 0 0 0 0 2226 2226 2241 2241 2241 2241 2241 2241 2256 2256 2256 2256 2271 2271 2271 2271 2271 2286 2286 2286 2286 2286 2286 2286 2286 2256 2256 2256 2256 2256 2256 2271 2271 2271 2271 2271 2271 2271 2286 2286 2286 2286 2286 2286 2286 2286 2286 2286 2286 2286 2271 2271 2271 2286 2286 2286 2286 2286 2301 2286 2286 2301 2301 2286 2286 2286 2271 2271 2286 2286 2286 2286 2286 2286 2286 2286 2286 2286 2286 2286 2286 2317 2317 2317 4983 4983 4983 4983 4911 4911 4911 4911 4911 4842 4842 4842 4842 4842 4911 4911 4911 4911 4842 4842 4842 4842 4842 4842 4774 4774 4842 4911 4911 4983 5056 5056 5056 5056 5056 5056 5056 5056 5056 5056 5056 5056 5056 0 0 0 0 0 0 0 0 0 0 0 0 0 0 0 0 0 0 0 0 0 0 0 0 0 0 0 0 0 0 0 0 0 0 0 0 0 0 3365 3333 3333 3333 3333 3333 3333 3300 3300 3300 3300 3300 3300 3269 3269 3269 3269 3269 3238 3238 3238 3238 3238 3208 3208 3208 3208 3208 3208 3178 3178 3178 3149 3149 3149 3149 3149 3149 3149 3149 3149 3149 3149 3149 3149 3149 3149 3149 3149 3149 3149 3120 3120 3120 3092 3092 3092 3092 3092 3092 3092 3092 3092 3092 3092 3092 3064 3064 3064 3064 3064 3064 3064 3064 3064 3064 3092 3092 3092 3064 3064 3092 3092 3092 3064 3064 3064 3064 3064 3064 3064 3037 3037 3010 2933 2883 2859 2835 2812 2812 2812 2789 2789 2812 2812 2812 2812 2812 2812 2812 2812 2812 2812 2812 2812 2812 2835 2859 2859 2933 2984 3037 3037 3064 3064 3064 3064 3064 3064 3064 3064 3064 3092 3092 3120 3149 3149 3178 3178 3178 2560 2541 2541 2541 2541 2579 2579 2723 2723 2767 2789 2789 2789 2812 2812 2812 2812 2812 2812 2812 2812 2812 0 0 0 0 0 0 0 0 0 0
0 0 0 0 0 0 0 0 0 0 0 0 0 0 0 0 0 0 0 0 0 0 0 0 0 0 0 0 0 0 0 4463 4463 4522 4522 0 0 0 0 0 0 4911 4911 4911 4911 4911 4983 5056 5056 5210 5210 5291 5291 5460 5374 5374 5291 5210 5210 5210 5210 5210 5210 5210 5210 5210 5210 5374 5460 5548 5640 5640 5291 5291 5460 5460 5640 5640 5640 5640 5640 5734 0 0 0 5374 5374 5374 5374 5640 5640 5640 5548 5460 5460 0 0 0 0 0 0 0 0 0 0 0 0 2883 2883 2859 2859 2859 2859 2859 2859 2859 2835 2835 2835 2835 2812 2812 2812 2812 2812 2812 2812 2812 2835 2812 2812 2835 2835 2835 2835 2859 2859 2859 2859 2859 2859 2859 2859 2859 2859 2859 2859 2859 2859 2859 2859 2883 2859 2859 2859 2859 2859 2859 2116 2116 2116 2129 2129 2129 2129 2129 2129 2129 2129 2129 2129 2129 2143 2129 2129 2143 2143 2143 2143 2143 2143 2156 2170 2170 2170 2156 2156 2170 2170 2170 2170 2170 2170 2184 2184 2184 2184 2184 2184 2184 2184 2184 2184 2184 2184 2184 2184 2184 2184 2184 2184 2184 2184 2184 2198 2198 2198 2198 2212 2212 2198 2198 2212 2212 2212 2212 2198 2198 2198 2198 2198 2198 2198 2198 2198 2198 2198 2198 2198 2212 2212 2198 2198 2212 2212 2226 2271 2958 2958 2933 2933 2933 2933 2933 2933 2933 2958 2933 2933 2933 2933 2933 2958 2984 2984 2984 2984 2984 2984 2984 2984 3010 3010 3010 3037 3037 3037 3037 3064 3037 3037 3037 3037 3037 6375 6375 6375 6375 6375 6375 6375 6375 6497 6622 0 0 0 0 0 0 0 0 0 2226 2226 2241 2241 2241 2241 2241 2241 2256 2256 2256 2271 2271 2271 2286 2286 2286 2286 2286 2286 2286 2286 2286 2286 2271 2256 2256 2256 2256 2256 2256 2271 2271 2271 2271 2271 2271 2286 2286 2286 2286 2286 2286 2286 2286 2286 2286 2286 2286 2286 2286 2286 2286 2286 2286 2286 2286 2286 2301 2301 2301 2301 2301 2301 2271 2271 2271 2271 2286 2286 2286 2286 2286 2286 2286 2286 2286 2286 2286 2301 2301 2317 2317 0 4983 4983 4983 4983 4911 4911 4911 4911 4911 4911 4911 4842 4842 4842 4911 4911 4911 4911 4842 4842 4842 4842 4842 4842 4842 4842 4842 4911 4911 4983 5056 5056 5132 5056 5056 5056 5056 5056 5056 5056 5056 5056 5056 0 0 0 0 0 0 0 0 0 0 0 0 0 0 0 0 0 0 0 0 0 0 0 0 0 0 0 0 0 0 0 0 0 0 0 0 0 0 0 0 0 0 0 3333 3333 3333 3300 3300 3300 3300 3269 3269 3269 3269 3269 3238 3238 3238 3238 3238 3238 3208 3208 3208 3208 3208 3208 3208 3208 3208 3178 3178 3178 3178 3178 3178 3178 3149 3149 3149 3149 3149 3149 3149 3149 3149 3149 3149 3149 3149 3149 3120 3120 3120 3120 3120 3120 3120 3120 3120 3120 3120 3120 3092 3092 3064 3064 3064 3064 3064 3064 3064 3092 3092 3120 3092 3092 3092 3092 3092 3092 3092 3064 3064 3064 3064 3064 3064 3064 3037 3037 3010 2958 2883 2859 2835 2812 2812 2812 2812 2812 2812 2812 2812 2812 2812 2812 2812 2812 2812 2835 2835 2812 2812 2835 2859 2883 3010 3010 3037 3064 3064 3064 3092 3064 3064 3064 3064 3092 3092 3120 3120 3120 3149 3149 3178 3178 3178 3178 2541 2541 2541 2541 2579 2579 2723 2723 2789 2789 2789 2789 2812 2812 2812 2812 2812 2812 2812 2789 2789 0 0 0 0 0 0 0 0 0 0
0 0 0 0 0 0 0 0 0 0 0 0 0 0 0 0 0 0 0 0 0 0 0 0 0 0 0 0 0 0 0 4463 4463 4522 4522 0 0 0 0 0 0 4911 4774 4774 4842 4911 4983 5056 5056 5210 5291 5291 5291 5460 5374 5374 5374 5210 5210 5210 5210 5210 5210 5210 5210 5210 5210 5374 5460 5548 5640 5640 5640 5548 5548 5640 5640 5640 5640 5640 5734 5734 5548 5460 5460 5374 5374 5374 5374 5374 5374 5460 5548 5460 5460 0 0 0 0 0 0 0 0 0 0 0 0 0 2908 2859 2859 2859 2859 2859 2859 2859 2835 2835 2835 2835 2812 2812 2812 2812 2812 2812 2812 2812 2812 2812 2812 2812 2812 2835 2835 2835 2835 2859 2859 2859 2859 2859 2859 2859 2859 2859 2859 2859 2859 2859 2859 2883 2859 2859 2859 2859 2859 2859 2859 2129 2129 2129 2129 2129 2129 2129 2129 2129 2129 2143 2143 2143 2143 2129 2129 2143 2143 2143 2143 2143 2143 2170 2170 2156 2156 2156 2156 2156 2156 2170 2156 2156 2170 2184 2184 2184 2184 2184 2184 2184 2184 2184 2184 2184 2184 2184 2184 2184 2184 2184 2184 2184 2184 2184 2198 2198 2198 2198 2212 2212 2198 2198 2212 2212 2212 2212 2198 2198 2198 2198 2198 2198 2198 2198 2198 2198 2198 2198 2198 2212 2212 2212 2212 2212 2212 2226 2271 2933 2933 2933 2933 2933 2933 2933 2933 2933 2958 2933 2933 2933 2933 2958 2958 2984 2984 2984 2984 2984 2984 2984 2984 3010 3010 3037 3037 3037 3037 3037 3064 3037 3037 3037 3037 0 0 6375 6375 6375 6375 6375 6375 6375 6497 6497 6622 6622 6622 0 0 0 0 0 0 2226 2226 2226 2226 2241 2241 2241 2256 2256 2256 2256 2271 2271 2271 2286 2286 2286 2286 2286 2286 2286 2286 2286 2271 2271 2256 2256 2256 2256 2256 2256 2271 2271 2271 2271 2286 2286 2286 2286 2286 2286 2286 2286 2286 2271 2271 2286 2286 2286 2286 2286 2286 2286 2286 2286 2286 2286 2286 2301 2301 2301 2301 2317 2317 2271 2271 2271 2271 2286 2286 2271 2271 2286 2286 2286 2286 2286 2301 2301 2301 2301 2333 2333 0 4983 4983 4983 5056 4983 4983 4911 4911 4911 4911 4911 4911 4911 4911 4911 4911 4911 4911 4842 4842 4842 4842 4911 4911 4842 4842 4842 4911 4983 5056 5132 5132 5132 5132 5056 5056 5056 5056 5056 5056 5056 5056 5056 0 0 0 0 0 0 0 0 0 0 0 0 0 0 0 0 0 0 0 0 0 0 0 0 0 0 0 0 0 0 0 0 0 0 0 0 0 0 0 0 0 0 0 0 0 3333 3300 3300 3300 3300 3269 3269 3269 3300 3269 3238 3238 3238 3238 3238 3238 3208 3208 3208 3208 3208 3208 3208 3208 3208 3178 3178 3178 3178 3178 3178 3178 3178 3178 3178 3178 3178 3149 3149 3149 3149 3149 3149 3149 3149 3149 3149 3120 3120 3120 3120 3120 3120 3120 3120 3120 3120 3120 3092 3092 3092 3092 3092 3064 3064 3064 3064 3092 3120 3120 3120 3092 3092 3092 3092 3092 3092 3064 3064 3064 3064 3064 3064 3064 3037 3037 3010 2958 2883 2859 2835 2812 2812 2812 2812 2812 2812 2812 2812 2812 2812 2835 2835 2812 2812 2835 2835 2812 2812 2835 2859 2908 3010 3037 3037 3064 3092 3092 3092 3064 3064 3092 3092 3092 3120 3120 3120 3149 3149 3149 3178 3178 3178 3178 2541 2541 2541 2541 0 2723 2723 2723 2789 2789 2789 2789 2789 2789 2812 2812 2812 2812 2812 2789 2789 0 0 0 0 0 0 0 0 0 0
0 0 0 0 0 0 0 0 0 0 0 0 0 0 0 0 0 0 0 0 0 0 0 0 0 0 0 0 0 0 4582 4522 4522 4582 4645 0 0 0 0 0 0 0 4708 4708 4842 4911 4983 5056 5132 5210 5291 5291 5374 5460 5460 5374 5374 5291 5291 5291 5210 5210 5210 5210 5210 5210 5210 5374 5460 5548 5640 5640 5640 5548 5548 5640 5640 5640 5640 5640 5640 5640 5548 5460 5460 5460 5374 5374 5374 5374 5374 5460 5548 5548 5548 0 0 0 0 0 0 0 0 0 0 0 0 0 0 2859 2835 2835 2859 2859 2859 2859 2859 2835 2835 2835 2835 2835 2835 2812 2812 2812 2812 2812 2812 2812 2812 2812 2812 2835 2835 2835 2835 2859 2859 2859 2859 2859 2859 2859 2859 2859 2883 2883 2859 2859 2883 2883 2859 2859 2859 2859 2859 2859 2859 2129 2129 2129 2129 2129 2129 2129 2143 2143 2143 2143 2143 2143 2143 2143 2933 2933 2933 2933 2908 2908 2170 2170 2170 2156 2156 2156 2156 2156 2156 2170 2156 2156 2170 2184 2184 2184 2184 2184 2184 2184 2184 2184 2184 2184 2184 2184 2184 2184 2184 2184 2198 2184 2184 2184 2198 2198 2198 2198 2212 2226 3037 3037 2212 2212 2212 2212 2212 2198 2198 2198 2198 2212 2198 2198 2198 2198 2212 2198 2198 2198 2212 2212 2212 2212 2212 2226 2933 2933 2933 2933 2933 2933 2933 2933 2933 2933 2958 2958 2958 2958 2958 2958 2958 2984 2984 2984 2984 2984 2984 3010 3010 3010 3010 3037 3037 3037 3037 3037 3037 3037 3037 3037 3037 0 0 6375 6375 6375 6375 6375 6375 6375 6375 6375 6497 6497 6497 6375 6375 6146 6146 0 0 2226 2226 2226 2226 2241 2241 2241 2256 2256 2256 2256 2271 2271 2271 2286 2286 2286 2286 2286 2286 2286 2286 2286 2271 2271 2256 2256 2256 2256 2256 2256 2271 2286 2286 2286 2286 2286 2286 2286 2286 2286 2286 2286 2271 2271 2271 2271 2271 2286 2286 2286 2286 2301 2301 2301 2301 2301 2301 2301 2301 2301 2317 2317 2317 2286 2286 2271 2271 2286 2271 2271 2271 2286 2286 2286 2286 2286 2286 2286 2301 2301 2317 2317 0 5056 5056 5056 5056 4983 4983 4911 4911 4911 4911 4911 4842 4842 4842 4911 4911 4911 4911 4911 4911 4911 4911 4911 4911 4842 4842 4911 4911 5056 5132 5132 5132 5132 5132 5056 5056 5056 5056 5132 5056 5056 5056 5056 0 0 0 0 0 0 0 0 0 0 0 0 0 0 0 0 0 0 0 0 0 0 0 0 0 0 0 0 0 0 0 0 0 0 0 0 0 0 0 0 0 0 0 0 0 0 0 0 3300 3300 3333 0 0 3300 3269 3238 3208 3208 3238 3238 3238 3208 3208 3208 3208 3208 3208 3208 3208 3208 3178 3178 3178 3178 3208 3208 3178 3178 3178 3178 3178 3178 3149 3149 3149 3149 3149 3149 3149 3149 3149 3149 3120 3120 3120 3120 3120 3120 3120 3120 3120 3120 3120 3120 3120 3120 3092 3092 3092 3092 3092 3092 3092 3120 3120 3120 3092 3092 3092 3092 3092 3092 3092 3092 3064 3064 3064 3064 3064 3064 3037 3037 3010 2859 2835 2835 2835 2812 2812 2812 2812 2812 2812 2812 2835 2835 2835 2835 2835 2835 2835 2835 2835 2835 2859 2859 2908 3010 3037 3064 3092 3092 3092 3092 3064 3064 3092 3092 3092 3120 3120 3120 3149 3149 3178 3178 3178 3208 3208 3238 3238 3238 3238 2723 0 2723 2723 2789 2789 2789 2812 2789 2789 2812 2812 2812 2812 2812 2812 2812 0 0 0 0 0 0 0 0 0 0
0 0 0 0 0 0 0 0 0 0 0 0 0 0 0 0 0 0 0 0 0 0 0 0 0 0 0 0 0 0 4582 4582 4582 4645 4708 4708 0 0 0 0 0 0 4708 4708 4842 4983 5056 5132 5132 5210 5291 5374 5374 5460 5460 5374 5374 5291 5291 5291 5210 5210 5210 5210 5210 5210 5210 5374 5460 5548 5640 5640 5640 5548 5548 5734 5640 5640 5640 5640 5548 5548 5548 5460 5460 5460 5460 5460 5460 5460 5460 5460 5460 5460 0 0 0 0 0 0 0 0 0 0 0 0 0 0 2835 0 2835 2835 2859 2859 2859 2859 2859 2835 2835 2835 2835 2835 2835 2812 2812 2812 2812 2812 2812 2812 2812 2812 2835 2835 2835 2835 2835 2859 2859 2859 2859 2883 2859 2859 2883 2883 2883 2883 2859 2859 2883 2883 2859 2859 2859 2859 2859 2859 2859 2116 2116 2129 2129 2129 2129 2129 2143 2143 2143 2143 2143 2156 2933 2933 2933 2933 2933 2933 2908 2908 2908 2933 2933 2933 2908 2156 2156 2156 2908 2908 2908 2908 2908 2933 2933 2933 2184 2184 2184 2908 2933 2933 2933 2933 2933 2933 2933 2933 2184 2184 2198 2198 2198 2198 2198 2198 2198 3010 3010 3037 3037 3037 3037 3037 3037 3037 3037 3037 2198 2198 2198 3010 2198 2198 2198 2198 2212 2198 2198 2198 2212 2212 2212 2212 2212 2226 2933 2933 2933 2933 2933 2933 2933 2933 2933 2933 2958 2958 2958 2958 2958 2958 2958 2984 2984 2984 2984 2984 2984 3010 3010 3010 3037 3037 3037 3037 3037 3037 3037 3037 3037 3037 3037 0 0 6259 6259 6259 6259 6259 6375 6375 6375 6375 6375 6375 6375 6375 6259 6146 6146 0 0 2241 2241 2226 2226 2241 2241 2256 2256 2256 2256 2256 2271 2271 2271 2286 2286 2286 2286 2286 2286 2286 2286 2271 2271 2271 2256 2256 2256 2271 2271 2271 2286 2286 2286 2301 2301 2301 2301 2286 2286 2286 2286 2286 2271 2271 2271 2271 2271 2286 2286 2301 2317 2317 2317 2317 2301 2301 2301 2301 2301 2317 2317 2333 2349 2349 5374 5460 5460 2271 2271 2256 2256 2286 2286 2286 2286 2286 2286 2286 2301 2301 2317 2317 5056 5056 5056 5056 5056 4983 4983 4911 4911 4911 4911 4911 4842 4842 4842 4911 4911 4911 4911 4911 4911 4911 4911 4911 4911 4911 4911 4911 4911 5056 5056 5132 5132 5132 5132 5056 5056 5132 5132 5132 5132 5132 5056 5056 0 0 0 0 0 0 0 0 0 0 0 0 0 0 0 0 0 0 0 0 0 0 0 0 0 0 0 0 0 0 0 0 0 0 0 0 0 0 0 0 0 0 0 0 0 0 0 0 0 0 0 0 0 0 0 0 3208 3208 3238 3238 3238 3208 3208 3208 3208 3208 3178 3178 3178 3208 3208 3208 3208 3208 3208 3208 3208 3208 3178 3178 3178 3178 3178 3178 3178 3178 3178 3178 3178 3178 3178 3149 3149 3149 3149 3120 3120 3120 3120 3120 3149 3149 3149 3149 3120 3120 3120 3120 3120 3120 3092 3092 3092 3120 3120 3120 3120 3120 3120 3120 3120 3092 3092 3092 3092 3092 3064 3064 3064 3064 3037 3010 2859 2859 2835 2835 2835 2835 2835 2835 2835 2835 2812 2812 2835 2835 2835 2835 2835 2835 2835 2835 2835 2835 2859 2883 2908 3037 3064 3092 3092 3092 3092 3092 3092 3092 3092 3092 3120 3120 3120 3120 3149 3178 3178 3178 3208 3238 3238 3300 3300 0 0 0 0 2789 2789 2789 2812 2812 2812 2812 2812 2812 2812 2812 2812 2812 2812 2812 0 0 0 0 0 0 0 0 0 0
0 0 0 0 0 0 0 0 0 0 0 0 0 0 0 0 0 0 0 0 0 0 0 0 0 0 0 0 0 0 4582 4522 4522 4582 4645 4645 0 0 0 0 0 0 5132 4774 4774 4911 5056 5132 5132 5210 5291 5374 5374 5460 5460 5374 5374 5291 5291 5291 5210 5210 5210 5210 5210 5291 5291 5374 5460 5548 5640 5640 5640 5460 5460 5460 5548 5548 5548 5548 5548 5548 5548 5460 5460 5460 5460 5460 5460 5460 5460 5460 5460 5460 0 0 0 0 0 0 0 0 0 0 0 0 0 0 0 2835 2835 2835 2859 2859 2859 2859 2859 2835 2835 2835 2835 2835 2835 2835 2835 2835 2835 2835 2835 2835 2835 2835 2835 2835 2835 2835 2859 2859 2859 2859 2859 2883 2883 2883 2883 2883 2883 2883 2859 2859 2883 2883 2859 2859 2859 2883 2883 2883 2883 2116 2116 2116 2129 2129 2129 2129 2143 2143 2143 2156 2156 2198 2933 2933 2933 2933 2933 2933 2908 2908 2933 2933 2933 2908 2908 2908 2908 2908 2908 2908 2908 2933 2933 2933 2933 2933 2933 2933 2933 2933 2933 2933 2933 2933 2933 2933 2933 2958 2958 2958 2933 2933 2958 2933 2933 3010 3010 3037 3037 3037 3064 3064 3064 3037 3037 3064 3037 3037 3037 3010 3010 3010 2212 2198 2198 2212 2212 2212 2212 2212 2212 2212 2212 2212 2212 2226 2933 2933 2933 2933 2933 2933 2933 2933 2933 2933 2958 2958 2958 2958 2958 2958 2958 2984 2984 2984 2984 3010 3010 3010 3010 3010 3037 3037 3037 3037 3037 3037 3064 3037 3037 3037 3037 6146 6146 6146 6146 6146 6259 6259 6259 6259 6259 6259 6259 6259 6259 6259 6259 6146 6146 6146 0 0 2241 2226 2226 2241 2241 2256 2256 2256 2271 2271 2271 2271 2286 2286 2286 2286 2286 2286 2286 2286 2286 2271 2271 2271 2271 0 0 0 0 2286 2286 2286 2286 2301 2301 2301 2301 2286 2286 2301 2301 6375 6375 6375 6375 6259 6259 6259 6259 2317 2317 2333 2317 2317 2317 2301 2301 2301 2301 2317 2333 2333 2349 2365 5374 5374 5460 5460 2256 2256 2256 2271 2271 2271 2286 2286 2286 2286 2286 2301 2333 2333 5056 5056 5056 5056 5056 4983 4983 4911 4911 4911 4911 4911 4842 4842 4911 4911 4911 4911 4911 4911 4911 4911 4911 4911 4911 4911 4911 4911 4983 5056 5056 5132 5132 5210 5132 5132 5132 5056 5056 5056 5056 5132 5056 5056 0 0 0 0 0 0 0 0 0 0 0 0 0 0 0 0 0 0 0 0 0 0 0 0 0 0 0 0 0 0 0 0 0 0 0 0 0 0 0 0 0 0 0 0 0 0 0 0 0 0 0 0 0 0 0 0 0 0 0 0 0 0 0 0 0 3208 3178 3178 3178 3208 3208 3208 3208 3208 3208 3208 3208 3208 3208 3208 3178 3178 3178 3178 3178 3178 3178 3178 3178 3178 3178 3149 3149 3149 3149 3149 3149 3149 3149 3149 3149 3149 3149 3149 3149 3149 3120 3120 3120 3120 3092 3092 3092 3120 3120 3120 3120 3120 3120 3120 3120 3092 3092 3092 3092 3092 3092 3092 3092 3064 3037 2984 2859 2859 2835 2835 2835 2835 2835 2835 2835 2835 2812 2812 2835 2835 2835 2835 2835 2835 2835 2835 2835 2835 2859 2859 2883 3037 3064 3092 3092 3120 3120 3120 3120 3120 3120 3120 3120 3120 3149 3149 3149 3178 3208 3238 3238 3269 3269 3300 3300 0 0 3653 0 0 3653 3653 2812 2812 2812 2812 2812 2835 2812 2812 2812 2812 2812 2812 0 0 0 0 0 0 0 0 0 0
0 0 0 0 0 0 0 0 0 0 0 0 0 0 0 0 0 0 0 0 0 0 0 0 0 0 0 0 0 0 0 4522 4522 4522 4522 4582 4582 4708 4911 0 0 0 0 4774 4774 4911 4983 5056 5132 5132 5210 5291 5374 5460 5460 5374 5374 5291 5291 5291 5291 5291 5210 5210 5210 5291 5374 5460 5460 5548 5640 5640 5640 5460 5460 5460 5548 5548 5548 5548 5548 5548 5460 5460 5460 5374 5374 5374 5374 5374 5374 5374 5460 5460 0 0 0 0 0 0 0 5832 5734 5734 5734 0 0 0 2835 2835 2835 2835 2859 2859 2859 2859 2859 2835 2835 2835 2835 2835 2835 2835 2835 2835 2835 2835 2835 2835 2835 2835 2835 2835 2859 2859 2859 2859 2859 2859 2859 2883 2883 2883 2883 2883 2883 2883 2859 2859 2883 2883 2859 2859 2883 2908 2908 2908 2933 2116 2116 2116 2129 2129 2129 2129 2143 2143 2143 2156 2156 2198 2933 2933 2933 2933 2933 2933 2908 2908 2908 2908 2908 2908 2908 2908 2908 2908 2908 2908 2933 2933 2933 2933 2933 2933 2933 2933 2933 2933 2933 2933 2933 2933 2958 2958 2958 2958 2958 2958 2958 2984 3010 3010 3037 3037 3037 3037 3037 3064 3064 3064 3092 3120 3092 3092 3064 3064 3037 3010 3010 3010 3010 2198 2184 2184 2212 2212 2212 2212 2212 2212 2212 2212 2212 2226 2933 2933 2933 2933 2933 2933 2933 2933 2933 2958 2958 2958 2958 2958 2958 2958 2958 2984 2984 2984 2984 3010 3010 3010 3010 3010 3037 3037 3037 3037 3037 3037 3064 3037 3037 3037 3037 6146 6146 6146 6146 6146 6146 6146 6146 6259 6259 6146 6146 6146 6259 6259 6146 6038 6038 6038 0 2241 2241 2226 2226 2241 2241 2241 2256 2256 2256 2271 2271 2271 2286 2286 2301 2301 2301 2286 2286 0 0 0 0 0 0 0 0 0 0 0 0 0 0 2301 2301 2301 5933 2286 2286 6038 6146 6146 6259 6259 6259 6259 6259 6259 6146 6146 6146 6146 6146 5374 5374 5374 5374 5374 2317 2317 2333 2333 5374 5374 5374 5374 5460 5460 5460 2271 2271 2271 2271 2271 2271 2286 2286 2286 2286 2301 2333 2333 5132 5056 5056 5056 5056 4983 4983 4983 4983 4983 4911 4911 4842 4842 4842 4911 4911 4911 4911 4911 4911 4911 4911 4911 4911 4911 4911 4983 4983 5056 5132 5132 5132 5132 5132 5056 5056 5056 5056 5056 5056 5056 5132 0 0 0 0 0 0 0 0 0 0 0 0 0 0 0 0 0 0 0 0 0 0 0 0 0 0 0 0 0 0 0 0 0 0 0 0 0 0 0 0 0 0 0 0 0 0 0 0 0 0 0 0 0 0 0 0 0 0 0 0 0 0 0 0 0 0 4139 4139 3208 3208 3208 3208 3208 3208 3208 3238 3238 3238 3238 3238 3208 3208 3208 3208 3208 3208 3178 3178 3178 3178 3178 3178 3178 3178 3149 3149 3149 3149 3149 3149 3149 3149 3149 3149 3149 3149 3149 3149 3120 3120 3120 3092 3092 3092 3120 3120 3120 3120 3120 3120 3120 3120 3120 3092 3092 3120 3120 3092 3092 3092 3092 3010 2883 2859 2859 2835 2835 2835 2835 2835 2835 2835 2835 2835 2835 2835 2835 2835 2835 2835 2835 2835 2835 2835 2835 2835 2859 2859 2908 3037 3092 3092 3120 3120 3120 3120 3120 3120 3120 3149 3149 3149 3149 3178 3238 3238 3269 3269 3300 3300 2744 2744 2744 2744 3653 3653 3653 3653 3653 3433 2812 2812 2812 2812 2835 2812 2812 2789 2789 2812 2812 0 0 0 0 0 0 0 0 0 0
0 0 0 0 0 0 0 0 0 0 0 0 0 0 0 0 0 0 0 0 0 0 0 0 0 0 0 0 0 0 0 4522 4522 4522 4522 4582 4582 4645 4774 0 0 0 0 4911 4911 4842 4842 4983 5056 5056 5132 5210 5291 5374 5374 5374 5374 5374 5374 5291 5291 5291 5210 5210 5210 5291 5291 5374 5460 5460 5640 5640 5548 5460 5460 5460 5460 5460 5460 5548 5548 5548 5460 5460 5460 5374 5374 5374 5374 5374 5374 5374 5460 5374 5374 0 0 0 0 0 0 5734 5734 5734 5640 5640 5548 5548 5548 2835 2835 2835 2835 2859 2859 2859 2859 2835 2835 2835 2835 2835 2835 2835 2835 2835 2835 2835 2835 2835 2835 2835 2835 2835 2859 2859 2859 2859 2859 2859 2883 2883 2883 2883 2883 2883 2883 2883 2859 2859 2883 2883 2859 2859 2908 2908 2908 2908 2933 2933 2116 2116 2116 2129 2129 2129 2143 2143 2143 2156 2170 2198 2212 2933 2933 2933 2933 2933 2908 2908 2908 2908 2908 2908 2908 2908 2908 2908 2908 2908 2933 2933 2933 2933 2933 2933 2933 2933 2933 2933 2933 2933 2933 2958 2958 2958 2958 2958 2958 2984 2984 2984 3010 3010 3037 3037 3037 3037 3037 3064 3064 3064 3092 3092 3092 3092 3064 3064 3037 3010 3010 3010 3010 3010 2184 2184 2198 2212 2212 2212 2212 2212 2212 2212 2212 2226 2933 2933 2933 2933 2933 2958 2958 2958 2958 2958 2958 2958 2958 2958 2958 2958 2958 2984 2984 2984 2984 3010 3010 3010 3010 3010 3037 3037 3037 3037 3064 3037 3037 3064 0 3064 0 6038 6038 6038 6038 6038 6146 6146 6146 6146 6146 6146 6038 6038 6146 6146 6038 6038 6038 6038 0 2226 2226 2226 2226 2241 2241 2241 2241 2241 2256 2256 2271 2271 2286 2301 2317 2317 2317 0 0 0 0 0 0 0 0 0 0 0 0 0 0 0 0 0 0 6146 6038 6038 6038 6038 6038 6038 6259 6259 6259 6259 6259 6146 6146 6146 6146 0 0 0 5374 5374 5374 5374 5374 5374 5374 5374 5374 5374 5374 5374 5374 5374 0 2271 2271 2271 2271 2271 2271 2286 2286 2286 2286 2301 2333 2333 5056 5056 5056 5056 5056 4983 4983 4983 4983 4983 4911 4911 4842 4842 4842 4911 4911 4911 4911 4911 4911 4911 4911 4911 4911 4911 4911 4983 4983 5056 5132 5132 5132 5132 5132 5056 5056 5056 5056 5056 5056 5056 0 0 0 0 0 0 0 0 0 0 0 0 0 0 0 0 0 0 0 0 0 0 0 0 0 0 0 0 0 0 0 0 0 0 0 0 0 0 0 0 0 0 0 0 0 0 0 0 0 0 0 0 0 0 0 0 0 0 0 0 0 0 0 0 0 0 0 4190 4139 4139 4139 4139 4139 4139 4139 4139 3238 3238 3238 3238 3238 3238 3238 3238 3269 3269 3269 3178 3178 3208 3178 3178 3178 3178 3178 3178 3178 3178 3178 3178 3149 3149 3149 3149 3149 3149 3149 3149 3149 3149 3120 3120 3092 3092 3092 3120 3120 3120 3120 3120 3120 3120 3120 3120 3092 3092 3120 3149 3120 3120 3120 3120 2859 2859 2859 2859 2835 2835 2835 2835 2835 2835 2835 2835 2835 2835 2835 2835 2835 2835 2835 2835 2835 2835 2835 2835 2835 2835 2859 2859 3037 3092 3092 3120 3120 3120 3120 3120 3149 3149 3149 3149 3149 3178 3178 3269 3269 3300 3300 2744 2744 2744 2744 2744 2744 3732 3653 3653 3433 3433 3433 2812 2812 2812 2812 2812 2812 2812 2789 2789 2812 2812 0 0 0 0 0 0 0 0 0 0
0 0 0 0 0 0 0 0 0 0 0 0 0 0 0 0 0 0 0 0 0 0 0 0 0 0 0 0 0 0 0 4522 4522 4522 4522 4522 4522 4645 4774 0 0 0 0 4911 4911 4842 4842 4983 4983 4983 4983 5056 5132 5210 5210 5291 5291 5291 5291 5291 5291 5291 5132 5132 5132 5210 5291 5291 5374 5374 5460 5548 5460 5460 5460 5460 5460 5460 5460 5460 5460 5460 5460 5374 5374 5374 5374 5374 5374 5374 5374 5374 5460 5374 5374 0 0 0 0 0 0 5734 5734 5640 5548 5548 5548 5460 5460 5460 2835 2835 2835 2859 2859 2859 2859 2835 2835 2835 2835 2835 2835 2835 2835 2835 2835 2835 2835 2835 2835 2835 2835 2835 2859 2859 2859 2859 2859 2859 2883 2883 2883 2883 2883 2883 2883 2883 2883 2883 2883 2883 2859 2859 2908 2908 2908 2933 2933 2933 2933 2116 2116 2129 2129 2129 2143 2143 2143 2156 2170 2184 2212 2933 2933 2933 2933 2933 2908 2908 2908 2908 2908 2908 2908 2908 2908 2908 2908 2908 2933 2933 2933 2933 2933 2933 2933 2933 2933 2933 2933 2933 2933 2958 2958 2958 2958 2958 2984 2984 2984 2984 3010 3037 3037 3037 3037 3037 3037 3064 3064 3064 3092 3092 3092 3092 3064 3064 3037 3010 3010 3010 3010 3010 3010 2198 2198 2212 2212 2212 2212 2212 2212 2226 2226 2226 2933 2933 2933 2933 2933 2958 2958 2958 2958 2958 2984 2984 2984 2958 2958 2984 2984 2984 2984 3010 3010 3010 3010 3010 3010 3037 3037 3037 3037 3037 3064 3037 3037 3064 3064 0 0 6038 6038 6038 6038 6038 6038 6038 6038 6038 6038 6038 6038 6038 6038 6038 5933 5933 5933 5933 0 0 2241 2241 2241 2241 2241 2241 2241 2241 2256 2256 2271 2271 2286 2301 2317 2317 2333 0 0 0 0 0 0 0 0 0 0 0 0 0 0 0 0 0 0 6146 6038 6038 5933 5933 5933 5933 6146 6146 6146 6259 6259 6146 6146 6146 6146 0 0 5374 5374 5374 5374 5374 5374 5374 5374 5374 5374 5374 5374 5374 5374 5374 0 2271 2271 2271 2271 2271 2286 2286 2286 2286 2301 2301 2333 4983 4983 4983 4983 4983 4983 4983 4983 4983 4983 4911 4911 4911 4842 4842 4842 4911 4911 4911 4911 4911 4911 4911 4911 4911 4911 4911 4911 4983 5056 5056 5132 5132 5132 5132 5132 5056 5056 5056 5056 5132 5132 0 0 0 0 0 0 0 0 0 0 0 0 0 0 0 0 0 0 0 0 0 0 0 0 0 0 0 0 0 0 0 0 0 0 0 0 0 0 0 0 0 0 0 0 0 0 0 0 0 0 0 0 0 0 0 0 0 0 0 0 0 0 0 0 0 0 4139 4190 4190 4139 4139 4139 4139 4139 4139 4139 0 3269 3269 3238 3238 3269 3269 3269 3269 3269 3539 3539 3269 3269 3269 3208 3208 3208 3208 3178 3178 3178 3178 3178 3503 4983 3178 3178 3178 3178 3178 3149 3149 3149 3149 3120 3120 3120 3092 3092 3092 3120 3120 3120 3120 3120 3120 3120 3092 3092 3092 3120 3149 3149 3120 3120 3120 2859 2859 2859 2859 2835 2835 2835 2835 2835 2835 2835 2835 2835 2835 2835 2835 2835 2835 2835 2835 2835 2835 2835 2835 2835 2835 2835 2859 2859 3092 3092 3120 3120 3120 3120 3120 3149 3149 3149 3149 3149 3399 3399 3433 3433 3468 2812 2744 2744 2812 2744 2744 2744 3503 3468 3468 3433 3433 3433 3433 2812 2812 2812 2812 2812 2812 2789 2789 2789 2789 0 0 0 0 0 0 0 0 0 0
0 0 0 0 0 0 0 0 0 0 0 0 0 0 0 0 0 0 0 0 0 0 0 0 0 0 0 0 0 0 0 4522 4522 4522 4522 4522 4522 4582 4774 0 0 0 4911 0 4842 4842 4842 4842 4911 4911 4911 4983 5056 5210 5210 5210 5210 5210 5210 5210 5210 5210 5132 5132 5132 5132 5132 5132 5374 5374 5460 5460 5460 5460 5374 5374 5374 5374 5374 5374 5460 5460 5460 5374 5374 5374 5374 5374 5374 5374 5374 5374 5460 5374 5374 0 0 0 0 0 0 5460 5460 5548 5460 5460 5460 5460 5460 5460 2835 2835 2859 2859 2859 2859 2859 2835 2835 2835 2835 2859 2859 2835 2835 2835 2835 2835 2835 2835 2835 2835 2859 2859 2859 2859 2859 2859 2859 2859 2883 2883 2883 2883 2883 2883 2883 2883 2883 2883 2883 2883 2859 2859 2908 2908 2908 2933 2933 2933 2933 2116 2116 2129 2129 2129 2143 2143 2143 2143 2156 2184 2933 2933 2933 2933 2933 2933 2933 2933 2908 2908 2908 2908 2908 2908 2908 2933 2908 2908 2933 2933 2933 2933 2933 2933 2933 2933 2933 2933 2933 2933 2933 2958 2958 2958 2958 2958 2984 2984 2984 2984 3010 3037 3037 3037 3037 3037 3037 3064 3064 3064 3092 3092 3092 3092 3064 3037 3010 3010 3010 3010 3010 3010 3010 2198 2198 2212 2212 2212 2212 2212 2212 2226 2226 2226 2933 2933 2933 2958 2958 2958 2958 2958 2958 2958 2984 2984 2984 2958 2958 2984 2984 2984 2984 3010 3010 3010 3010 3037 3037 3037 3037 3037 3037 3037 3064 3037 3037 3037 0 0 0 5933 5933 5933 6038 6038 6038 5933 5933 6038 6038 6038 6038 6038 6038 6038 5933 5933 5933 5933 5832 0 2241 2241 2241 2241 2241 2256 2256 2256 2256 2271 2271 2271 2286 2301 2317 2333 0 0 0 0 0 0 0 0 0 0 0 0 0 0 0 0 0 0 0 0 0 6038 5933 5933 5933 5933 5933 6038 6146 6146 6146 6146 6146 6146 6146 5832 5548 5374 5374 5374 5374 5374 5374 5374 5374 5374 5374 5291 5291 5374 5374 5374 5291 2271 2271 2271 2271 2286 2286 2286 2286 2301 2301 2301 2333 4983 4983 4983 4983 4983 4983 4983 4983 4983 4911 4911 4911 4911 4911 4911 4911 4911 4911 4911 4911 4911 4911 4911 4911 4911 4911 4911 4911 4983 5056 5056 5132 5132 5132 5132 5132 5056 5056 5056 5056 5132 5132 0 0 0 0 0 0 0 0 0 0 0 0 0 0 0 0 0 0 0 0 0 0 0 0 0 0 0 0 0 0 0 0 0 0 0 0 0 0 0 0 0 0 0 0 0 0 0 0 0 0 0 0 0 0 0 0 0 0 0 0 0 0 0 0 0 0 0 4139 4139 4139 4139 4139 4089 4089 4139 4139 4139 3238 3238 3238 3238 3269 3300 3300 3399 3399 3503 3539 3468 3433 3433 3433 3503 3503 3503 3503 3503 3503 3503 3503 3503 3576 4911 4911 4842 3208 3178 3178 3178 3178 3178 3149 3149 3120 3092 3092 3092 3120 3120 3120 3120 3120 3120 3120 3092 3092 3092 3120 3149 3149 3149 3120 3120 2859 2859 2859 2859 2859 2835 2835 2835 2835 2835 2835 2835 2835 2835 2835 2835 2835 2835 2835 2835 2835 2835 2835 2835 2835 2835 2835 2859 2835 2835 3120 3120 3120 3120 3120 3120 3120 3120 3120 3120 3503 3503 3503 3539 2812 2812 2812 2812 2812 2812 2812 2812 2812 3433 3433 3433 3433 3433 3433 3433 2812 2812 2812 2812 2812 2812 2789 2789 2789 2789 0 0 0 0 0 0 0 0 0 0
0 0 0 0 0 0 0 0 0 0 0 0 0 0 0 0 0 0 0 0 0 0 0 0 0 0 0 0 0 0 0 4522 4522 4522 4522 4522 4522 4582 4645 0 4582 0 0 0 4911 4842 4842 4842 4911 4911 4911 4983 4983 5132 5132 5210 5210 5210 5210 5210 5210 5210 5210 5132 4842 4842 4911 4911 5374 5374 5460 5460 5460 5374 5374 5291 5291 5291 5291 5291 5374 5460 5374 5374 5374 5374 5374 5374 5291 5291 5374 5374 5374 5374 5374 0 0 5210 0 0 0 5460 5460 5460 5374 5374 5374 5460 5460 5460 2859 2859 2859 2859 2859 2859 2859 2859 2859 2859 2859 2859 2859 2859 2859 2859 2835 2835 2835 2835 2859 2859 2859 2859 2859 2859 2859 2859 2859 2883 2883 2883 2883 2883 2883 2883 2883 2883 2883 2883 2883 2883 2859 2859 2908 2908 2908 2933 2933 2933 2933 2116 2116 2129 2129 2143 2143 2143 2143 2143 2156 2184 2933 2933 2933 2933 2933 2933 2933 2933 2933 2933 2933 2933 2908 2908 2908 2933 2908 2908 2933 2933 2933 2933 2933 2933 2933 2933 2933 2933 2933 2933 2958 2958 2958 2958 2958 2958 2984 2984 2984 2984 3010 3010 3037 3037 3037 3037 3037 3064 3064 3064 3092 3092 3092 3092 3064 3037 3010 3010 3010 3010 3010 3010 3010 2212 2212 2212 2212 2212 2212 2212 2212 2226 2226 2226 2933 2933 2933 2958 2958 2958 2984 2984 2984 2984 2984 2984 2984 2958 2958 2984 2984 2984 2984 3010 3010 3010 3010 3010 3037 3037 3037 3037 3064 3064 3064 3037 3037 3037 0 0 0 0 5933 5933 6038 6038 6038 5933 5933 6038 6038 6038 5933 5933 5933 5933 5832 5832 5832 5832 5832 0 2256 2256 2256 2256 2256 2256 2256 2256 2256 2271 2271 2271 2271 2301 0 0 0 0 0 0 0 0 0 0 0 0 0 0 0 0 0 0 0 0 0 0 0 6038 5933 5933 5933 5933 5933 5933 6038 6146 6146 6146 6038 5933 5832 5832 5548 5460 5374 5374 5374 5374 5374 5374 5374 5291 5291 5291 5291 5291 5291 5291 5291 2271 2271 2271 2271 2286 2286 2286 2286 2301 2301 2317 2333 4842 4842 4911 4983 4983 5056 4983 4983 4983 4911 4911 4911 4911 4911 4911 4911 4911 4911 4911 4911 4911 4911 4911 4911 4911 4911 4911 4911 4983 4983 5056 5132 5132 5132 5132 5132 5056 5056 5056 5056 5132 0 0 0 0 0 0 0 0 0 0 0 0 0 0 0 0 0 0 0 0 0 0 0 0 0 0 0 0 0 0 0 0 0 0 0 0 0 0 0 0 0 0 0 0 0 0 0 0 0 0 0 0 0 0 0 0 0 0 0 0 0 0 0 0 0 0 0 0 4139 4139 4139 4139 4139 4089 4089 4139 4139 4139 0 3269 3269 3269 3269 3300 3333 3399 3399 3503 3539 3503 3503 3503 3503 3539 3539 3539 3539 3539 3539 3539 3539 3539 3539 3539 4911 4842 4842 4774 3208 3208 3208 3178 3178 4645 3149 3092 3092 3120 4708 3178 3149 3120 3120 3120 3120 3092 3092 3092 3149 3149 3178 3149 3149 3149 2835 2835 2835 2859 2859 2835 2835 2835 2835 2835 2835 2835 2835 2835 2835 2835 2835 2835 2835 2835 2835 2835 2835 2835 2835 2835 2835 2835 2835 2835 2859 2859 2835 3120 3120 3120 3120 3120 3120 3120 3120 3653 3653 2812 2812 2812 2812 2812 2812 2789 2789 2812 3433 3433 3433 3433 3433 3433 3433 2812 2812 2812 2812 2812 2812 2812 2812 2812 2812 2812 0 0 0 0 0 0 0 0 0 0
0 0 0 0 0 0 0 0 0 0 0 0 0 0 0 0 0 0 0 0 0 0 0 0 0 0 0 0 0 0 4582 4522 4522 4463 4463 4522 4522 4522 4582 4582 4582 0 0 4911 4911 4842 4842 4911 4911 4842 4842 4911 4911 5056 5132 5132 5132 5132 5132 5132 5132 5132 4842 4842 4842 4842 4911 4911 4911 4983 5460 5460 5460 5374 5374 5291 5291 5291 5291 5291 5374 5374 5374 5291 5210 5210 5210 5210 5210 5210 5291 5374 5374 5291 5210 5210 5210 5210 5132 0 0 5374 5374 5460 5374 5374 5374 5460 5460 2883 2859 2859 2859 2859 2859 2859 2859 2859 2859 2859 2859 2859 2859 2859 2859 2859 2859 2859 2859 2859 2859 2859 2859 2859 2859 2859 2859 2859 2883 2883 2883 2883 2883 2883 2883 2883 2883 2883 2883 2883 2883 2883 2859 2859 2908 2908 2908 2933 2933 2933 2933 2129 2129 2129 2129 2143 2143 2143 2143 2143 2156 2156 2933 2933 2933 2933 2933 2933 2933 2933 2933 2933 2933 2933 2908 2908 2908 2908 2908 2908 2908 2908 2933 2933 2933 2933 2933 2933 2933 2933 2933 2933 2958 2958 2958 2958 2958 2958 2984 2984 2984 2984 2984 3010 3010 3010 3037 3037 3037 3064 3064 3064 3092 3092 3092 3092 3092 3064 3037 3010 3010 3010 3010 3010 3010 2198 2198 2198 2212 2212 2226 2226 2226 2226 2226 2226 2933 2933 2933 2958 2958 2958 2984 2984 2984 2984 2984 2984 2984 2984 2984 2984 2984 2984 3010 3010 3010 3010 3010 3010 3037 3037 3037 3037 3064 3064 3064 3037 3037 3037 0 0 0 0 5933 5933 5933 5933 5933 5933 5933 5933 5933 5933 5933 5933 5933 5933 5832 5832 5832 5832 5832 0 2241 2241 2241 2241 2256 2256 2256 2256 2256 2256 2271 2271 2271 0 0 0 0 0 0 0 0 0 0 0 0 0 0 0 0 0 0 0 0 0 0 0 0 0 5933 5933 5933 5933 5933 5933 6038 6146 6146 6146 6038 5933 5832 5832 5548 5460 5374 5374 5291 5291 5374 5374 5374 5291 5291 5291 5291 5291 5291 5291 5291 2286 2286 2286 2286 2286 2286 2286 2286 2301 2301 2301 2333 4708 4842 4911 4983 4983 5056 4983 4983 4983 4983 4911 4911 4911 4911 4911 4911 4911 4911 4911 4911 4911 4911 4911 4911 4911 4911 4911 4911 4983 4983 5056 5132 5132 5132 5056 5056 5132 5056 5056 5056 5210 5291 0 0 0 0 0 0 0 0 0 0 0 0 0 0 0 0 0 0 0 0 0 0 0 0 0 0 0 0 0 0 0 0 0 0 0 0 0 0 0 0 0 0 0 0 0 0 0 0 0 0 0 0 4139 4139 0 0 0 0 0 0 0 0 0 0 0 4139 4139 4139 4139 4139 4139 4190 4139 4139 4139 4139 4139 0 0 4041 0 3503 3503 3468 3468 3468 3503 3539 3539 3539 3539 3539 3539 3539 3539 3539 3539 3539 3539 3539 3539 3539 3539 4983 4842 4708 4645 4645 3208 3208 4645 4645 4645 4645 4708 4708 4708 4708 4708 4708 4708 4708 4774 4774 4774 4774 4842 3178 3178 3178 3149 2859 2835 2835 2835 2835 2859 2859 2835 2835 2835 2835 2835 2835 2835 2835 2835 2835 2835 2835 2859 2835 2835 2835 2835 2835 2835 2835 2812 2812 2835 2812 2812 2812 2812 2835 2835 2835 2835 2812 2812 2812 2812 2812 2812 2812 2812 2812 2812 2812 2812 2812 2789 2789 2812 3433 3433 3433 3433 3468 3433 2812 2812 2812 2812 2812 2812 2812 2812 2812 2812 2812 2812 0 0 0 0 0 0 0 0 0 0
