0 0 0 0 0 0 0 0 0 0 0 0 0 0 0 0 0 0 0 0 0 0 0 0 0 0 0 0 0 0 0 0 0 0 0 0 0 0 0 0 0 5460 5374 5374 5291 5210 5210 5210 5210 5210 5210 5210 5132 5132 5132 5210 5132 5132 5210 5210 5210 5132 5132 5132 5132 5132 5132 5056 5056 5056 5132 5210 5210 0 0 0 0 0 0 0 5056 5056 5056 5132 5056 5056 5132 5132 5132 5210 5210 5210 5210 2744 2744 2744 2744 2744 2744 2723 2723 2723 2723 2701 2701 2701 2701 2701 2701 2701 2701 2701 2723 2723 2723 2723 2723 2723 2723 2723 2723 2744 2744 2744 2744 2744 2744 2767 2767 2767 2767 2767 2767 2767 2767 2767 2789 2789 2789 2789 2789 2789 2812 2812 2835 2835 2859 2859 2883 2883 2908 2933 2933 2933 2958 2908 2883 2883 2933 2933 2040 2040 2040 2040 2040 2040 2040 2040 2040 2040 2040 2028 2028 2812 2812 2835 2835 2835 2835 2835 2835 2835 2835 2835 2835 2835 2835 2835 2835 2859 2859 2859 2859 2859 2859 2859 2859 2859 2859 2859 2883 2883 2883 2908 2908 2933 2933 2933 2958 2958 2958 2984 2958 2958 2958 2958 2958 2933 2933 2933 2908 2908 2908 2908 2908 2883 2883 2908 2908 2908 2908 2908 2908 2908 2908 2908 2908 2908 2143 2143 2143 2143 2156 2156 2143 2143 2143 2156 2156 2933 2933 2908 2908 2933 2933 2933 2933 2933 2933 2933 2958 2958 2984 2984 3010 3010 3010 3010 3010 0 0 0 0 0 0 0 0 0 0 0 0 5933 5933 5832 5832 5734 5734 5832 5832 5640 5640 5640 5548 5548 5548 5460 5933 5933 5933 6038 5734 5734 5640 5640 5640 5640 0 0 2212 2212 2212 2212 2212 2212 2212 2226 2226 2226 2226 2241 2241 2241 2241 2241 2241 2241 2241 2241 2226 2226 2226 2226 2226 2226 2226 2226 2226 2241 2241 2241 2241 2241 2241 2241 2241 2241 2241 2241 2241 2241 2256 2256 2256 2256 2256 2256 2256 2256 2256 2256 2256 2256 2256 2256 2271 2256 2256 2271 2271 2271 2271 2271 2271 2271 2271 2271 2271 2271 2271 2271 2271 2271 2271 2271 2271 2271 2256 2256 0 0 0 0 0 0 0 0 0 0 0 0 0 0 0 0 0 0 0 0 0 0 0 0 0 0 0 0 0 0 0 0 0 0 0 0 0 0 0 0 0 0 0 0 0 0 0 0 0 0 0 0 0 0 0 0 0 0 0 0 0 0 0 0 0 0 0 0 0 0 0 0 0 0 0 0 0 0 0 0 0 0 3859 3859 0 0 0 0 0 0 0 0 3816 3816 3816 3816 3816 3859 3859 3859 3859 3859 3816 3816 3774 3774 3732 3653 3653 3614 3614 3614 3653 3614 3614 3614 3653 3653 3692 3692 3732 3732 3774 3816 3859 3859 5132 5056 4911 4911 4911 4842 4842 4842 4774 4774 4774 4842 4911 3859 3859 2859 2859 3859 3816 3816 3816 3816 0 0 0 0 0 0 2933 2933 2933 2933 2933 2933 2933 2933 2933 2958 2958 2958 2958 2958 2958 2958 2958 2958 2958 2958 2958 2958 2958 2958 2958 2958 2958 2958 2958 2958 2958 2958 2958 2958 0 0 0 0 0 0 2908 2908 2908 2908 2908 2883 2883 2883 2933 2933 2933 2933 2908 2908 2908 2908 2908 2908 2908 2933 2933 2933 2933 2933 2933 2933 0 0 0 0 0 0 5056 5056 5056 4983 4983 4983 4911 4911 4911 0 0 0 0 0 0 0 0 0 0 0 0 0 0 0 0 0
0 0 0 0 0 0 0 0 0 0 0 0 0 0 0 0 0 0 0 0 0 0 0 0 0 0 0 0 0 0 0 0 0 0 0 0 0 0 0 0 0 5460 5374 5374 5291 5210 5210 5210 5210 5210 5210 5132 5132 5132 5132 5210 5210 5210 5210 5210 5210 5132 5132 5132 5132 5056 5056 5056 5056 5056 5056 5210 5210 0 0 0 0 0 0 5056 5056 5056 5056 5056 5056 5056 5056 5132 5132 5132 5132 5132 5132 5132 2744 2744 2744 2744 2744 2744 2744 2744 2723 2723 2723 2701 2701 2701 2701 2701 2701 2701 2723 2723 2723 2723 2723 2723 2723 2723 2723 2723 2744 2744 2744 2744 2744 2767 2767 2767 2767 2767 2767 2789 2789 2789 2789 2789 2789 2789 2789 2789 2812 2812 2835 2835 2859 2859 2883 2883 2908 2933 2933 2958 2958 2933 2933 2933 2933 2933 2040 2040 2040 2040 2040 2040 2040 2040 2040 2040 2040 2040 2040 2812 2812 2835 2835 2835 2835 2835 2835 2835 2835 2835 2835 2835 2835 2835 2859 2859 2859 2859 2859 2859 2859 2859 2859 2859 2859 2859 2883 2883 2908 2908 2933 2933 2933 2933 2129 2129 2129 2143 2143 2143 2143 2143 2129 2129 2129 2129 2933 2933 2908 2908 2908 2908 2908 2908 2883 2883 2883 2883 2908 2908 2908 2908 2908 2908 2143 2143 2143 2156 2156 2156 2156 2156 2156 2156 2156 2933 2933 2908 2908 2933 2933 2933 2933 2933 2933 2933 2958 2958 2984 2984 3010 3010 3010 3010 3010 0 0 0 0 0 0 0 0 0 0 0 0 0 5548 5548 5640 5640 5640 5640 5640 5640 5548 5548 5548 5460 5460 5460 5548 5548 5640 5640 5640 5640 5640 5640 5640 5640 0 2226 2226 2226 2212 2212 2212 2212 2212 2226 2226 2226 2226 2241 2241 2241 2241 2241 2241 2241 2241 2241 2226 2226 2226 2226 2226 2226 2226 2226 2226 2226 2226 2241 2241 2241 2241 2241 2241 2241 2241 2241 2241 2241 2256 2256 2256 2256 2256 2271 2256 2256 2256 2271 2271 2256 2256 2256 2256 2271 2271 2271 2271 2271 2271 2271 2271 2271 2271 2271 2271 2271 2271 2271 2271 2271 2271 2271 2271 2271 2256 2256 2271 0 0 0 0 0 0 0 0 0 0 0 0 0 0 0 0 0 0 0 0 0 0 0 0 0 0 0 0 0 0 0 0 0 0 0 0 0 0 0 0 0 0 0 0 0 0 0 0 0 0 0 0 0 0 0 0 0 0 0 0 0 0 0 0 0 0 0 0 0 0 0 0 0 0 0 0 0 0 0 0 0 0 0 0 0 0 0 0 0 0 0 0 3859 3859 3816 3816 3859 3859 3859 3859 3859 3816 3816 3774 3774 3732 3653 3653 3614 3614 3614 3653 3614 3614 3614 3653 3653 3692 3692 3732 3774 3816 3816 3859 3903 5132 5056 4911 4911 4911 4842 4842 4842 4842 4842 4842 4842 3859 3859 3859 3859 3859 3859 3816 3816 3816 3816 0 0 0 0 0 0 2933 2933 2933 2933 2933 2933 2958 2958 2958 2958 2958 2958 2958 2958 2958 2958 2958 2958 2958 2958 2958 2958 2958 2958 2958 2958 2958 2958 2958 2958 0 0 0 0 0 0 0 0 0 0 2908 2908 2908 2908 2908 2908 2908 2908 2933 2933 2908 2908 2933 2908 2908 2908 2908 2908 2933 2933 2933 2933 2933 2933 2933 2958 0 0 0 0 0 0 5056 5056 5056 4983 4983 4983 4983 4983 4983 4983 0 0 0 0 0 0 0 0 0 0 0 0 0 0 0 0
0 0 0 0 0 0 0 0 0 0 0 0 0 0 0 0 0 0 0 0 0 0 0 0 0 0 0 0 0 0 0 0 0 0 0 0 0 0 0 0 0 0 5291 5291 5291 5210 5210 5132 5132 5132 5132 5056 5056 5056 5056 5132 5132 5210 5210 5210 5210 5132 5132 5132 5132 5056 5056 5056 5056 5132 5132 0 0 0 0 0 0 0 0 5056 5056 5056 5056 5056 5056 5056 5056 5056 5056 5056 5056 5056 5132 5132 2767 2767 2767 2744 2744 2744 2744 2744 2744 2723 2723 2723 2723 2723 2723 2723 2723 2723 2723 2723 2723 2723 2723 2723 2723 2723 2723 2723 2744 2744 2744 2744 2744 2767 2767 2767 2767 2767 2767 2789 2789 2789 2789 2789 2789 2789 2789 2789 2812 2835 2835 2835 2859 2859 2883 2883 2908 2933 2933 2958 2958 2958 2933 2933 2933 2933 2040 2040 2040 2040 2040 2040 2053 2053 2053 2053 2040 2040 2040 2812 2812 2835 2835 2835 2835 2835 2835 2835 2835 2835 2835 2835 2835 2835 2859 2859 2859 2859 2859 2859 2859 2859 2859 2859 2859 2859 2883 2883 2908 2129 2129 2129 2129 2129 2129 2129 2129 2143 2143 2143 2143 2143 2129 2129 2129 2129 2129 2129 2143 2143 2143 2143 2143 2143 2143 2883 2883 2883 2908 2908 2908 2143 2143 2143 2143 2143 2156 2156 2156 2170 2156 2156 2156 2156 2156 2933 2908 2908 2908 2933 2933 2933 2933 2933 2933 2933 2958 2958 2984 3010 3010 3010 3010 3010 3010 0 0 0 0 0 0 0 0 0 0 0 0 0 5548 5548 5548 5640 5640 5640 5640 5548 5548 5460 5460 5460 5460 5460 5548 5548 5548 5640 5640 5640 5640 5640 5734 5734 0 2226 2226 2212 2212 2212 2212 2212 2226 2226 2226 2226 2226 2241 2241 2241 2241 2241 2241 2241 2241 2241 2226 2226 2226 2226 2226 2241 2241 2226 2226 2226 2226 2241 2241 2256 2256 2256 2256 2241 2241 2256 2256 2256 2256 2256 2256 2256 2256 2271 2271 2271 2271 2271 2271 2256 2256 2256 2256 2271 2271 2271 2271 2271 2271 2271 2271 2271 2271 2271 2271 2271 2271 2271 2271 2271 2271 2286 2286 2286 2286 2271 2271 0 0 0 0 0 0 0 0 0 0 0 0 0 0 0 0 0 0 0 0 0 0 0 0 0 0 0 0 0 0 0 0 0 0 0 0 0 0 0 0 0 0 0 0 0 0 0 0 0 0 0 0 0 0 0 0 0 0 0 0 0 0 0 0 0 0 0 0 0 0 0 0 0 0 0 0 0 0 0 0 0 0 0 0 0 0 0 0 0 0 0 0 3903 3859 3816 3816 3859 3859 3859 3859 3859 3816 3816 3774 3774 3732 3692 3653 3653 3653 3653 3653 3653 3653 3653 3653 3653 3692 3692 3732 3774 3816 3859 3903 3903 5056 4983 4911 4911 4911 4842 4842 4842 4842 4842 4842 4842 3859 3859 3859 3859 3859 3859 3859 3859 3859 3859 0 0 0 0 0 2958 2933 2933 2933 2933 2933 2933 2958 2958 2958 2958 2958 2958 2958 2958 2958 2958 2958 2958 2958 2958 2958 2958 2933 2933 2958 2933 2933 2933 2933 2958 0 0 0 0 0 0 0 0 0 0 0 2908 2908 2908 2908 2908 2908 2933 2933 2933 2908 2908 2933 2908 2908 2908 2908 2908 2933 2933 2933 2933 2933 2933 2958 2958 0 0 5056 5056 0 0 5056 5056 5056 4983 4983 4983 4983 4983 4983 4983 0 0 0 0 0 0 0 0 0 0 0 0 0 0 0 0
0 0 0 0 0 0 0 0 0 0 0 0 0 0 0 0 0 0 0 0 0 0 0 0 0 0 0 0 0 0 0 0 0 0 0 0 0 0 0 0 0 0 5210 5210 5210 5210 5132 5132 5132 5056 5056 4983 4983 4983 4983 5056 5132 5132 5210 5210 5291 5210 5210 5210 5132 5132 5132 5132 5056 5056 5056 0 0 0 0 0 0 0 0 4983 4983 5056 5056 5056 4983 4983 5056 4983 4983 4983 5056 5056 5056 5132 2744 2744 2744 2744 2744 2744 2744 2744 2744 2744 2723 2723 2723 2723 2723 2723 2723 2723 2723 2723 2723 2723 2723 2723 2723 2723 2723 2723 2723 2723 2744 2767 2767 2767 2767 2767 2767 2789 2789 2789 2789 2789 2789 2789 2789 2789 2789 2789 2812 2835 2835 2835 2859 2859 2883 2883 2908 2908 2933 2958 2958 2933 2933 2933 2933 2933 2040 2040 2040 2040 2040 2040 2053 2053 2053 2053 2053 2053 2053 2016 2016 2016 2835 2835 2835 2835 2835 2835 2835 2835 2835 2835 2835 2835 2835 2835 2859 2859 2859 2835 2835 2859 2859 2835 2835 2859 2116 2116 2129 2129 2129 2129 2129 2129 2129 2129 2129 2129 2129 2143 2143 2143 2129 2129 2129 2129 2129 2129 2129 2129 2129 2143 2143 2143 2143 2156 2143 2143 2143 2143 2143 2143 2143 2143 2156 2156 2156 2156 2156 2156 2156 2156 2143 2129 2129 2933 2908 2908 2933 2933 2933 2933 2933 2933 2933 2933 2958 2958 2984 3010 3010 3010 3010 3010 3010 0 0 0 0 0 0 0 0 0 5374 5374 5374 5374 5374 5548 5548 5548 5548 5640 5640 5548 5548 5460 5460 5374 5374 5460 5460 5548 5548 5548 5548 5640 5640 5640 5734 5734 0 2212 2212 2212 2212 2212 2212 2212 2226 2226 2226 2226 2226 2226 2241 2241 2241 2241 2241 2241 2241 2241 2226 2226 2226 2226 2226 2241 2241 2241 2241 2241 2241 2241 2241 2241 2241 2256 2256 2256 2256 2256 2256 2256 2256 2256 2256 2271 2271 2271 2271 2271 2271 2271 2271 2256 2256 2271 2271 2271 2271 2271 2271 2271 2271 2271 2271 2271 2271 2271 2271 2271 2271 2271 2271 2271 2271 2286 2286 2286 2286 2271 2271 0 0 0 0 0 0 0 0 0 0 0 0 0 0 0 0 0 0 0 0 0 0 0 0 0 0 0 0 0 0 0 0 0 0 0 0 0 0 0 0 0 0 0 0 0 0 0 0 0 0 0 0 0 0 0 0 0 0 0 0 0 0 0 0 0 0 0 0 0 0 0 0 0 0 0 0 0 0 0 0 0 0 0 0 0 0 0 0 0 0 0 0 0 0 3859 3859 3859 3816 3774 3774 3774 3774 3774 3774 3774 3732 3692 3653 3653 3653 3653 3653 3653 3653 3653 3653 3653 3692 3732 3774 3816 3859 3859 3903 3903 5056 4983 4911 4911 4911 4842 4842 4842 4842 4842 4842 3859 3859 3859 3859 3859 3859 3859 3859 3859 3859 3903 0 0 0 0 0 2958 2933 2933 2933 2933 2933 2933 2958 2958 2958 2958 2958 2958 2958 2958 2958 2958 2958 2958 2958 2958 2958 2958 2933 2933 2958 2933 2933 2933 2933 2958 0 0 0 0 0 0 0 0 0 0 0 0 2908 2908 2908 2908 2908 2933 2933 2933 2908 2908 2958 2933 2908 2908 2908 2908 2933 2933 2933 2933 2933 2958 2958 2958 0 5056 5056 5056 5056 5056 5056 5056 5056 4983 4983 4983 4983 4983 4983 4983 4983 0 0 0 0 0 0 0 0 0 0 0 0 0 0 0
0 0 0 0 0 0 0 0 0 0 0 0 0 0 0 0 0 0 0 0 0 0 0 0 0 0 0 0 0 0 0 0 0 0 0 0 0 0 0 0 0 0 5210 5210 5132 5132 5056 5056 4983 4983 4983 4911 4911 4911 4911 4983 5056 5056 5132 5210 5210 5210 5210 5210 5210 5132 5132 5132 5056 4983 4983 0 0 0 0 0 0 0 4983 4983 4983 5056 5056 5056 4983 4983 4983 4911 4911 4983 4983 4983 4983 4983 2744 2744 2744 2744 2767 2744 2744 2744 2744 2744 2744 2723 2723 2744 2723 2723 2723 2723 2744 2723 2723 2723 2723 2723 2723 2723 2723 2723 2723 2723 2744 2767 2767 2767 2767 2767 2789 2789 2789 2789 2789 2789 2789 2789 2789 2789 2789 2812 2812 2835 2835 2835 2859 2859 2883 2883 2908 2908 2933 2958 2958 2933 2933 2933 2958 2958 2040 2040 2040 2040 2040 2040 2053 2053 2053 2053 2053 2053 2053 2016 2016 2016 2835 2859 2859 2859 2859 2835 2835 2835 2835 2835 2835 2835 2835 2835 2859 2090 2090 2090 2090 2090 2090 2103 2103 2103 2116 2116 2129 2129 2129 2129 2129 2129 2129 2129 2129 2129 2129 2143 2143 2143 2129 2129 2129 2129 2129 2129 2129 2129 2129 2143 2143 2143 2143 2143 2143 2143 2143 2143 2143 2143 2143 2143 2156 2156 2156 2156 2156 2156 2156 2156 2143 2129 2129 2908 2908 2908 2933 2933 2933 2933 2933 2933 2933 2958 2958 2958 2984 3010 3010 3010 3010 3010 3037 0 0 0 0 5374 5374 5374 5374 5374 5374 5374 5374 5374 5374 5460 5460 5548 5548 5548 5548 5548 5460 5374 5374 5374 5374 5374 5460 5460 5548 5548 5548 5640 5640 5640 5734 5734 0 2212 2212 2212 2212 2212 2212 2212 2226 2226 2226 2226 2226 2226 2241 2241 2241 2241 2241 2241 2241 2241 2226 2226 2226 2226 2226 2241 2241 2241 2241 2241 2241 2241 2241 2241 2241 2256 2256 2256 2256 2256 2256 2256 2271 2271 2271 2271 2271 2271 2271 2271 2271 2271 2271 2271 2271 2271 2271 2271 2271 2271 2286 2286 2271 2271 2271 2271 2271 2271 2271 2271 2271 2271 2271 2271 2271 2286 2286 2286 2286 2271 2271 0 0 0 0 0 0 0 0 0 0 0 0 0 0 0 0 0 0 0 0 0 0 0 0 0 0 0 2212 2212 0 0 0 2198 2198 2212 0 0 0 0 0 0 0 0 0 0 0 0 0 0 0 0 0 0 0 0 0 0 0 0 0 0 0 0 0 0 0 0 0 0 0 0 0 0 0 0 0 0 0 0 0 0 0 0 0 0 0 0 0 0 0 0 0 0 0 0 0 0 3816 3732 3732 3732 3732 3774 3774 3774 3774 3692 3692 3653 3653 3653 3653 3653 3653 3653 3653 3692 3692 3732 3774 3816 3859 3903 3903 4983 4983 4911 4911 4911 4911 4842 4842 4842 4842 4842 4842 3859 3859 3859 3859 3859 3859 3859 3859 3859 3903 0 0 0 0 0 0 2958 2933 2933 2933 2933 2958 2958 2958 2958 2958 2958 2958 2958 2984 2958 2958 2958 2958 2958 2958 2958 2958 2933 2933 2933 2958 2958 2958 2958 0 0 0 0 0 0 0 0 0 0 0 0 0 0 2908 2908 2908 2908 2908 2933 2933 2933 2933 2958 2958 2958 2933 2933 2933 2933 2933 2933 2933 2933 2933 2958 2958 0 0 4983 4983 4983 4983 4983 4983 5056 5056 5056 5056 4983 4983 4983 4983 4983 4983 0 0 0 0 0 0 0 0 0 0 0 0 0 0 0
0 0 0 0 0 0 0 0 0 0 0 0 0 0 0 0 0 0 0 0 0 0 0 0 0 0 0 0 0 0 0 0 0 0 0 0 0 0 0 0 4911 4911 4983 4983 4911 4911 4911 4911 4911 4911 4911 4911 4842 4842 4842 4911 4911 4911 5056 5132 5210 5210 5210 5210 5210 5210 5210 5132 5056 4983 4983 4983 0 0 0 0 0 0 4983 4983 4983 5056 5056 4983 4983 4983 4983 4911 4911 4911 4983 4983 4983 4983 2744 2744 2767 2767 2767 2767 2767 2767 2767 2744 2744 2744 2744 2744 2723 2723 2723 2723 2744 2723 2723 2723 2723 2723 2723 2723 2723 2723 2723 2723 2744 2767 2767 2767 2767 2767 2789 2789 2789 2789 2789 2789 2789 2789 2789 2789 2789 2812 2812 2835 2835 2835 2859 2859 2883 2883 2908 2908 2908 2958 2984 2958 2958 2958 2958 2958 2040 2040 2040 2040 2040 2040 2053 2053 2053 2053 2053 2053 2065 2078 2065 2065 2065 2078 2078 2859 2090 2090 2090 2090 2103 2090 2090 2090 2103 2103 2090 2090 2090 2090 2090 2090 2090 2103 2103 2103 2116 2116 2129 2129 2129 2129 2129 2129 2129 2129 2129 2129 2129 2143 2143 2143 2143 2129 2129 2129 2129 2129 2129 2129 2129 2143 2143 2143 2143 2143 2143 2143 2143 2143 2156 2156 2156 2156 2156 2156 2170 2170 2170 2170 2156 2156 2156 2143 2143 2908 2908 2908 2933 2933 2958 2958 2958 2958 2958 2984 2984 2984 2984 3010 3010 3010 3010 3010 3037 0 0 0 5291 5291 5291 5291 5291 5291 5291 5374 5374 5374 5374 5460 5460 5548 5460 5460 5460 5460 5374 5374 5374 5374 5374 5374 5374 5460 5460 5460 5548 5548 5548 5640 5734 0 2212 2198 2198 2198 2212 2212 2212 2212 2226 2226 2226 2226 2226 2241 2241 2241 2241 2241 2241 2241 2241 2241 2241 2241 2241 2226 2226 2241 2241 2241 2241 2241 2241 2241 2256 2256 2256 2256 2256 2256 2271 2271 2256 2256 2271 2271 2271 2271 2271 2271 2271 2271 2271 2271 2271 2271 2271 2271 2271 2271 2271 2286 2286 2286 2271 2271 2271 2271 2271 2271 2271 2271 2271 2271 2271 2271 2271 2286 2286 2286 2286 2271 2271 0 0 0 2156 2143 2143 2143 2143 2143 0 0 0 0 0 0 0 0 0 0 0 0 0 2226 2226 2212 2198 2198 2198 2198 2198 0 2184 2184 2198 2198 0 0 0 0 0 0 0 0 0 0 0 0 0 0 0 0 0 0 0 0 0 0 0 0 0 0 0 0 0 0 0 0 0 0 0 0 0 0 0 0 0 0 0 0 0 0 0 0 0 0 0 0 0 0 0 0 0 0 0 0 0 0 0 3692 3692 3732 3732 3732 3774 3732 3732 3692 3692 3653 3653 3653 3653 3653 3653 3653 3692 3692 3692 3732 3816 3859 3859 3903 3903 4911 4911 4911 4911 4911 4911 4911 4911 4911 4911 4911 4911 3859 3859 3859 3859 3903 3903 3903 3903 3903 3903 0 0 0 0 0 0 2958 2958 2958 2958 2958 2958 2958 2958 2958 2958 2958 2958 2958 2984 2958 2958 2958 2958 2958 2958 2958 2958 2933 2933 2933 2933 2958 2984 0 0 0 0 0 0 0 0 0 0 0 0 0 0 0 0 2908 2908 2908 2908 2933 2933 2958 2958 2958 2984 2958 2933 2933 2933 2933 2933 2933 2933 2933 2933 2958 2958 2958 0 4983 4983 4983 4983 4983 4983 5056 5056 5056 5056 4983 4983 4983 4983 4983 5056 5056 3774 3774 0 0 0 0 0 0 0 0 0 0 0 0
0 0 0 0 0 0 0 0 0 0 0 0 0 0 0 0 0 0 0 0 0 0 0 0 0 0 0 0 0 0 0 0 0 0 4911 4911 4842 4842 4842 4774 4774 4911 4911 4911 4911 4911 4911 4911 4842 4842 4842 4842 4842 4842 4842 4774 4774 4774 4842 4911 5210 5210 5291 5291 5291 5291 5210 5132 5056 4983 4911 4911 0 0 0 0 0 0 4911 4911 4911 4983 4911 4911 4911 4911 4911 4842 4842 4842 4911 4911 4911 2744 2744 2744 2767 2767 2767 2767 2767 2767 2767 2744 2744 2744 2744 2744 2723 2723 2723 2744 2744 2744 2744 2744 2744 2744 2744 2744 2723 2723 2723 2723 2744 2767 2767 2767 2767 2767 2789 2789 2789 2789 2789 2789 2789 2789 2789 2789 2789 2812 2812 2835 2835 2835 2859 2859 2883 2883 2908 2908 2908 2958 2984 2984 2958 2958 3010 2016 2016 2028 2040 2040 2040 2053 2053 2053 2065 2065 2065 2065 2065 2078 2065 2065 2065 2078 2078 2078 2078 2078 2090 2090 2103 2090 2090 2090 2103 2103 2090 2090 2090 2090 2103 2103 2103 2116 2116 2116 2116 2116 2129 2129 2116 2116 2129 2129 2129 2129 2129 2129 2129 2143 2143 2143 2143 2143 2143 2129 2129 2143 2143 2143 2143 2143 2143 2143 2143 2143 2143 2156 2156 2156 2156 2156 2156 2156 2170 2170 2170 2170 2170 2170 2170 2170 2156 2156 2156 2170 2908 2908 2933 2933 2933 2958 2958 2958 2958 2958 2984 2984 2984 3010 3010 3037 3037 3037 3037 5210 5210 5291 5291 5291 5291 5291 5291 5291 5291 5291 5291 5291 5291 5374 5374 5460 5460 5460 5460 5460 5374 5374 5374 5374 5374 5374 5374 5374 5374 5460 5460 5548 5548 5640 5640 5640 2212 2212 2198 2198 2212 2212 2212 2226 2226 2226 2226 2226 2226 2241 2241 2241 2241 2241 2241 2241 2241 2241 2226 2226 2241 2226 2226 2241 2241 2241 2241 2241 2241 2241 2256 2256 2256 2256 2256 2256 2271 2271 2256 2256 2271 2271 2271 2271 2271 2271 2271 2271 2271 2271 2271 2271 2271 2271 2271 2271 2286 2286 2286 2286 2271 2271 2271 2271 2271 2271 2271 2271 2271 2271 2271 2271 2271 2271 2271 2271 2271 2271 2271 2271 2184 2156 2156 2143 2143 2143 2143 2143 2156 2170 2170 0 0 0 0 0 0 0 0 0 2241 2226 2226 2212 2198 2198 2198 2198 2198 2184 2184 2184 2198 2198 2198 2198 0 0 0 0 0 0 0 0 0 0 0 0 0 0 0 0 0 0 0 0 0 0 0 0 0 0 0 0 0 0 0 0 0 0 0 0 0 0 0 0 0 0 0 0 0 0 0 0 0 0 0 0 0 0 0 0 0 0 0 0 0 3692 3692 3732 3732 3732 3732 3732 3732 3653 3653 3653 3653 3653 3653 3653 3653 3653 3692 3692 3732 3774 3816 3859 3859 3948 3948 3994 4842 4911 4911 4842 4842 4911 4983 4911 4911 3859 3859 3859 3859 3859 3903 3903 3903 3903 3903 3903 3903 0 0 0 0 0 2958 2958 2958 2958 2958 2958 2958 2958 2958 2958 2958 2958 2958 2958 2984 2958 2958 2958 2958 2958 2958 2958 2933 2933 2933 2933 2933 0 0 0 0 0 0 0 0 0 0 0 0 0 0 0 0 0 0 0 0 2908 2908 2933 2933 2958 2958 2958 2984 2984 2933 2933 2933 2933 2933 2933 2933 2933 2933 2933 2933 2933 4983 4983 4983 4983 4983 4983 4983 5056 5056 5132 5132 5056 5056 5056 4983 4983 5056 3816 3774 3774 0 0 0 0 0 0 0 0 0 0 0 0
0 0 0 0 0 0 0 0 0 0 0 0 0 0 0 0 0 0 0 0 0 0 0 0 0 0 0 0 0 0 0 0 0 0 4842 4842 4842 4842 4842 4774 4774 4911 4911 4911 4842 4842 4842 4842 4842 4842 4774 4774 4842 4842 4774 4774 4774 4774 4842 4842 4842 4842 5291 5291 5291 5291 4911 4911 4983 4911 4842 4774 4774 0 0 0 0 4842 4842 4842 4842 4842 4842 4842 4842 4842 4842 4842 4842 4842 4911 4911 0 2744 2744 2744 2767 2767 2767 2767 2767 2767 2767 2744 2744 2744 2744 2744 2744 2744 2744 2744 2744 2744 2744 2744 2744 2744 2744 2744 2723 2723 2723 2723 2744 2767 2767 2767 2767 2767 2767 2767 2789 2789 2789 2789 2789 2789 2812 2812 2812 2812 2812 2835 2835 2835 2859 2859 2883 2883 2908 2908 2933 3010 3010 2984 2958 2933 2933 2016 2016 2028 2040 2040 2040 2053 2053 2053 2065 2065 2065 2065 2078 2078 2078 2065 2065 2078 2078 2078 2078 2078 2090 2090 2103 2103 2103 2103 2103 2103 2103 2103 2103 2103 2116 2116 2116 2116 2116 2116 2116 2129 2129 2116 2116 2116 2129 2129 2129 2129 2129 2129 2129 2143 2143 2143 2143 2143 2143 2143 2143 2143 2143 2143 2143 2143 2143 2143 2143 2143 2156 2156 2156 2156 2156 2156 2170 2170 2170 2170 2170 2170 2170 2170 2170 2170 2170 2170 2156 2156 2908 2908 2933 2933 2933 2958 2958 2958 2958 2958 2984 2984 3010 3010 3037 3037 3037 3037 3037 5210 5210 5210 5210 5291 5210 5210 5210 5291 5291 5291 5291 5291 5291 5291 5374 5374 5460 5460 5460 5460 5374 5374 5374 5374 5374 5374 5374 5374 5374 5460 5460 5548 5548 5548 5548 0 2212 2212 2212 2212 2212 2212 2226 2226 2226 2226 2226 2226 2226 2241 2241 2241 2241 2241 2241 2241 2241 2241 2226 2226 2226 2226 2226 2241 2241 2241 2241 2241 2241 2241 2256 2256 2256 2256 2256 2256 2271 2271 2271 2271 2256 2256 2256 2256 2256 2256 2256 2256 2256 2271 2256 2256 2256 2256 2256 2256 2256 2256 2271 2271 2256 2256 2271 2271 2271 2256 2256 2271 2271 2256 2256 2256 2256 2256 2256 2256 2256 2241 2226 2226 2184 2184 2156 2156 2143 2143 2156 2156 2156 2170 2170 2184 2184 2198 2212 0 0 0 2226 2226 2226 2226 2226 2212 2198 2198 2198 2184 2184 2184 2184 2198 2198 2198 2198 2198 0 0 0 0 0 0 0 0 0 0 0 0 0 0 0 0 0 0 0 0 0 0 0 0 0 0 0 0 0 0 0 0 0 0 0 0 0 0 0 0 0 0 0 0 0 0 0 0 0 0 0 0 0 0 0 0 0 0 0 0 0 3732 3732 3732 3732 3732 3732 3732 3732 3653 3653 3653 3653 3653 3653 3653 3653 3653 3692 3692 3732 3816 3859 3903 3903 3948 3994 3269 3269 4911 4842 4842 4842 4842 4983 4911 4911 3859 3859 3859 3859 3859 3903 3903 3903 3903 3903 3903 3903 0 0 0 0 3010 2958 2958 2958 2958 2958 2958 2958 2958 2958 2958 2958 2958 2958 2958 2984 2984 2984 2984 2984 2984 2958 2958 2933 2933 2933 0 0 0 0 0 0 0 0 0 0 0 0 0 0 0 0 0 0 0 0 0 0 2933 2933 2933 2958 2958 2958 2958 2984 2984 2958 2958 2958 2958 2958 2933 2933 2933 2933 2933 2933 0 4983 4983 4983 4983 4983 4983 4983 5056 5056 5132 5056 5056 5056 5056 5056 5056 3816 3816 3816 3816 0 0 0 0 0 0 0 0 0 0 0 0
0 0 0 0 0 0 0 0 0 0 0 0 0 0 0 0 0 0 0 0 0 0 0 0 0 0 0 0 0 0 0 0 0 0 4774 4774 4842 4842 4842 4842 4842 4842 4911 4911 4842 4842 4842 4774 4774 4774 4774 4774 4774 4774 4774 4774 4774 4774 4774 4842 4842 4842 4842 4708 4708 4842 4842 4842 4911 4774 4774 4708 4708 4774 4774 4708 4708 4708 4774 4774 4774 4774 4774 4774 4774 4774 4842 4842 4842 4842 4911 4911 0 2767 2767 2767 2767 2767 2767 2767 2767 2767 2767 2767 2767 2744 2744 2744 2744 2744 2744 2744 2744 2744 2767 2767 2767 2767 2767 2744 2744 2744 2744 2744 2744 2767 2767 2767 2767 2767 2767 2767 2789 2789 2789 2789 2789 2789 2789 2812 2812 2812 2812 2835 2859 2859 2859 2859 2883 2883 2883 2908 2933 2958 2984 2958 2958 2933 2933 2933 2040 2040 2040 2040 2040 2053 2053 2053 2065 2065 2065 2078 2078 2078 2078 2065 2065 2078 2078 2078 2078 2090 2090 2103 2103 2103 2103 2103 2103 2103 2103 2103 2103 2103 2116 2116 2116 2116 2129 2129 2129 2129 2129 2116 2116 2116 2129 2129 2129 2129 2129 2129 2129 2143 2143 2143 2143 2143 2143 2143 2143 2143 2143 2143 2143 2143 2143 2143 2143 2143 2156 2156 2156 2156 2156 2170 2170 2170 2170 2170 2170 2184 2184 2170 2170 2170 2170 2170 2156 2156 2908 2908 2933 2933 2933 2958 2958 2958 2958 2984 2984 3010 3010 3010 3037 3037 3037 3037 5291 5210 5210 5210 5210 5291 5210 5210 5210 5210 5210 5210 5291 5291 5291 5291 5374 5374 5374 5374 5460 5460 5374 5291 5291 5291 5291 5374 5374 5374 5374 5460 5548 5548 5548 5548 5548 5460 2212 2212 2198 2198 2198 2212 2212 2212 2226 2226 2226 2226 2226 2241 2241 2241 2241 2241 2241 2241 2241 2241 2226 2226 2226 2226 2226 2241 2241 2226 2226 2241 2241 2241 2256 2256 2256 2256 2256 2271 2271 2271 2271 2256 2256 2256 2256 2256 2241 2241 2241 2241 2241 2241 2241 2241 2241 2226 2226 2241 2256 2256 2256 2256 2256 2256 2256 2256 2256 2256 2256 2256 2256 2241 2241 2226 2226 2241 2241 2241 2241 2212 2212 2198 2184 2184 2170 2170 2156 2156 2156 2156 2156 2170 2170 2184 2184 2198 2198 2198 2198 2198 2212 2212 2212 2212 2212 2198 2198 2184 2184 2170 2170 2170 2184 2184 2184 2184 2184 2198 2198 2184 2184 0 0 0 0 0 0 0 0 0 0 0 0 0 0 0 0 0 0 0 0 0 0 0 0 0 0 0 0 0 0 0 0 0 0 0 0 0 0 0 0 0 0 0 0 0 0 0 0 0 0 0 0 0 0 0 0 0 0 3774 3774 3732 3732 3774 3732 3732 3732 3653 3653 3653 3653 3653 3653 3653 3614 3614 3653 3653 3732 3816 3903 3903 3903 3948 3300 3269 3269 3399 3399 3399 4774 4842 4842 4983 4983 3859 3859 3859 3903 3903 3903 3903 3903 3903 3903 3903 0 0 0 2984 0 3010 2984 2958 2958 2958 2958 2958 2958 2958 2958 2958 2958 2958 2958 2958 2984 2984 2984 2984 2984 2984 2984 2958 2958 2958 2958 2933 0 0 0 0 0 0 0 0 0 0 0 0 0 0 0 0 0 0 0 0 0 0 2933 2933 2958 2958 2958 2984 2984 2984 2958 2958 2958 2958 2958 2933 2933 2933 2933 2933 5210 5210 5056 5056 4983 4983 4983 4983 4983 5056 5132 5132 5056 5056 5056 5056 5056 5056 3816 3816 3816 3859 0 0 0 0 0 0 0 0 0 0 0 0
0 0 0 0 0 0 0 0 0 0 0 0 0 0 0 0 0 0 0 0 0 0 0 0 0 0 0 0 0 0 0 0 0 0 4774 4774 4842 4842 4842 4774 4774 4774 4842 4911 4842 4708 4708 4774 4774 4774 4774 4774 4774 4774 4774 4774 4774 4774 4774 4842 4842 4842 0 0 4708 4708 4708 4774 4842 4774 4708 4708 4708 4708 4708 4708 4708 4708 4708 4774 4774 4708 4708 4708 4708 4708 4708 4774 4774 4842 4842 4842 0 2767 2767 2744 2744 2744 2767 2767 2767 2767 2767 2767 2767 2744 2744 2744 2744 2744 2744 2744 2744 2767 2767 2767 2767 2767 2767 2744 2744 2744 2744 2744 2767 2767 2767 2767 2767 2767 2767 2767 2789 2789 2789 2789 2789 2789 2789 2812 2812 2812 2812 2835 2859 2859 2859 2859 2883 2883 2883 2908 2908 2958 2984 2958 2958 2958 2958 2958 2040 2040 2040 2040 2040 2053 2053 2053 2065 2065 2065 2078 2078 2078 2078 2078 2078 2078 2078 2090 2090 2090 2090 2103 2103 2103 2103 2103 2116 2103 2103 2103 2103 2116 2116 2116 2116 2129 2129 2129 2129 2129 2116 2116 2116 2116 2129 2129 2129 2129 2129 2129 2129 2143 2143 2143 2143 2143 2143 2143 2143 2143 2143 2143 2143 2143 2143 2143 2143 2143 2156 2156 2156 2156 2156 2170 2170 2170 2170 2184 2184 2184 2184 2184 2170 2170 2170 2170 2170 2170 2908 2933 2933 2933 2933 2958 2958 2958 2984 2984 2984 3010 3010 3010 3037 3037 3037 3037 5210 5210 5210 5210 5210 5291 5210 5210 5210 5210 5210 5210 5291 5291 5291 5291 5374 5374 5374 0 2090 5374 5374 5291 5291 5291 5291 2129 2129 2129 5374 5374 5460 5548 5548 5460 5460 5460 2116 2198 2198 2184 2184 2198 2212 2212 2212 2212 2226 2226 2226 2226 2226 2226 2226 2226 2226 2226 2241 2241 2226 2226 2226 2226 2226 2241 2241 2226 2226 2226 2226 2226 2256 2256 2256 2256 2256 2271 2271 2256 2256 2241 2241 2226 2226 2212 2212 2212 2212 2198 2184 2184 2212 2212 2212 2212 2212 2226 2226 2226 2226 2226 2226 2226 2226 2226 2226 2226 2226 2241 2241 2212 2212 2212 2212 2198 2198 2198 2184 2184 2184 2184 2184 2184 2170 2170 2156 2156 2170 2170 2170 2170 2170 2184 2184 2184 2184 2184 2184 2198 2198 2198 2198 2212 2212 2198 2184 2184 2170 2170 2170 2170 2170 2184 2184 2184 2184 2184 2184 2170 2170 2156 2156 2156 2156 2156 2156 0 0 0 0 0 0 0 0 0 0 0 0 0 0 0 0 0 0 0 0 0 0 0 0 0 0 0 0 0 0 0 0 0 0 0 0 0 0 0 0 0 3539 3539 3576 0 0 0 0 0 0 0 0 3774 3774 3732 3732 3732 3732 3732 3732 3653 3653 3653 3653 3653 3653 3614 3614 3614 3539 3539 3433 3333 3300 3300 3300 3300 3300 3300 3365 3399 3399 3399 3399 3399 3399 3399 3399 3903 3903 3903 3903 3903 3903 3903 3903 3399 3399 3399 3399 0 0 2984 2984 2984 2984 2984 2958 2958 2958 2958 2958 2958 2958 2958 2958 2958 2958 2958 2984 2984 2984 2984 3010 2984 2984 2984 3010 3010 0 2933 2933 0 0 0 0 0 0 0 0 0 0 0 0 0 0 0 0 0 0 0 0 2984 2933 2933 2958 2984 2984 2984 2984 2984 2958 2958 2958 2958 2958 2958 2933 2933 2933 5291 5210 5210 5132 5056 5056 5056 4983 4911 4911 4983 5056 5132 5132 5132 5132 5132 5132 5132 3816 3816 3816 3859 0 0 0 0 0 0 0 0 0 0 0 0
0 0 0 0 0 0 0 0 0 0 0 0 0 0 0 0 0 0 0 0 0 0 0 0 0 0 0 0 0 0 0 0 0 0 4645 4645 4645 4645 4842 4645 4645 4774 4708 4708 4708 4708 4708 4774 4774 4774 4774 4774 4774 4708 4708 4708 4774 4774 4774 4842 4842 4774 4774 4708 4708 4708 4708 4774 4774 4645 4645 4645 4645 4645 4645 4645 4645 4645 4708 4708 4708 4708 4645 4645 4582 4582 4582 4708 4774 4842 0 0 0 2744 0 2744 2744 2744 2767 2767 2767 2767 2767 2767 2767 2744 2744 2744 2744 2744 2744 2744 2744 2744 2767 2744 2744 2744 2744 2744 2744 2744 2744 2744 2767 2767 2767 2767 2767 2767 2767 2767 2789 2789 2789 2789 2789 2789 2789 2812 2812 2812 2812 2835 2859 2859 2859 2859 2883 2883 2883 2908 2908 2958 3010 2984 2984 3010 3010 3010 2040 2040 2040 2040 2053 2053 2053 2065 2065 2078 2078 2078 2078 2078 2078 2078 2078 2078 2090 2090 2090 2090 2090 2103 2103 2103 2103 2103 2103 2103 2103 2103 2103 2116 2116 2116 2116 2129 2129 2129 2116 2116 2116 2116 2116 2116 2129 2129 2129 2129 2129 2129 2143 2143 2143 2143 2143 2143 2143 2143 2143 2143 2143 2143 2143 2143 2143 2143 2143 2143 2156 2156 2156 2170 2170 2170 2170 2170 2170 2184 2184 2184 2184 2184 2170 2170 2170 2170 2170 2170 2933 2933 2933 2933 2933 2958 2958 2958 2984 2984 2984 3010 3010 3010 3010 3037 3037 3037 5210 5210 5210 5210 5210 5291 5210 5132 5132 5210 5210 5210 5210 5210 5210 5291 5291 5291 5291 2103 2090 2090 2090 2116 2116 2116 2116 2129 2129 2129 2129 5374 5460 5548 2116 2116 2116 2116 2116 2116 2143 2143 2170 2184 2198 2198 2198 2198 2212 2212 2212 2226 2226 2226 2226 2226 2226 2226 2226 2226 2212 2212 2226 2226 2226 2226 2241 2226 2226 2212 2212 2226 2241 2256 2256 2256 2256 2256 2256 2241 2226 2212 2212 2212 2184 2184 2184 2184 2184 2184 2170 2170 2170 2170 2170 2170 2170 2170 2156 2156 2156 2156 2198 2198 2184 2184 2170 2170 2184 2184 2170 2170 2170 2170 2170 2170 2170 2170 2170 2170 2170 2170 2170 2170 2170 2170 2170 2170 2156 2156 2170 2170 2170 2170 2184 2184 2184 2184 2184 2184 2170 2170 2184 2170 2170 2170 2156 2156 2170 2170 2170 2170 2170 2170 2170 2184 2184 2184 2170 2170 2170 2156 2156 2156 2156 2143 2143 0 0 0 0 0 0 0 0 0 0 0 0 0 0 0 0 0 0 0 0 0 0 0 0 0 0 0 0 0 0 0 3859 3859 3859 0 0 0 0 3539 3539 3576 3539 3539 3576 3614 0 0 0 0 0 0 3903 3774 3774 3732 3732 3732 3732 3732 3732 3653 3653 3653 3653 3653 3653 3614 3614 3614 3468 3433 3433 3333 3300 3300 3300 3300 3300 3333 3365 3365 3399 3399 3365 3365 3365 3365 3365 3300 3300 3333 3333 3365 3399 3399 3399 3399 3399 3399 3399 0 0 2984 2984 2984 2984 2984 2958 2958 2958 2958 2958 2958 2958 2958 2958 2958 2958 2958 2984 2984 2984 3010 3010 3037 3010 3010 3010 3010 3064 2933 2933 2933 2984 2984 3037 3064 3064 3064 0 0 0 0 0 0 0 0 0 0 0 0 0 2984 2958 2958 2984 2984 2984 2984 2984 2984 2958 2958 2958 2958 2984 2958 2933 2933 2933 5291 5291 5210 5132 5056 5056 5056 4983 4911 4911 4983 5056 5056 5132 5132 5132 5056 5056 5056 3816 3816 3816 3859 0 0 0 0 0 0 0 0 0 0 0 0
0 0 0 0 0 0 0 0 0 0 0 0 0 0 0 0 0 0 0 0 0 0 0 0 0 0 0 0 0 0 0 0 0 4463 4463 4645 4645 4645 4645 4645 4645 4645 4645 4645 4645 4645 4645 4708 4708 4708 4708 4708 4708 4708 4708 4708 4774 4774 4774 4774 4774 4774 4774 4708 4708 4708 4708 4708 4708 4645 4645 4645 4645 4645 4645 4645 4645 4645 4708 4708 4708 4645 4645 4582 4582 4582 4582 4645 4708 0 0 0 0 0 0 2701 2701 2723 2744 2744 2744 2767 2767 2767 2767 2744 2744 2744 2744 2744 2744 2744 2744 2744 2767 2744 2744 2744 2744 2744 2744 2744 2744 2744 2767 2767 2767 2767 2767 2767 2767 2767 2789 2789 2789 2789 2789 2789 2789 2812 2812 2812 2812 2835 2859 2859 2859 2859 2883 2883 2883 2908 2933 3010 3010 2984 2984 3010 3010 3010 2040 2040 2040 2040 2053 2053 2053 2065 2065 2078 2078 2078 2078 2078 2078 2078 2078 2078 2090 2090 2090 2090 2090 2103 2103 2103 2103 2103 2103 2103 2103 2116 2116 2116 2116 2116 2116 2129 2129 2129 2116 2116 2129 2116 2116 2129 2129 2129 2129 2129 2129 2143 2143 2143 2143 2143 2143 2143 2143 2143 2143 2143 2143 2143 2143 2143 2143 2143 2143 2156 2156 2156 2156 2170 2170 2170 2170 2170 2170 2184 2184 2184 2184 2184 2170 2170 2170 2170 2156 2156 2933 2933 2933 2933 2933 2933 2958 2958 2958 2984 2984 3010 3010 3010 3010 3037 3037 3037 5210 2078 2078 2078 2090 2090 2103 2103 2116 2116 2116 5132 5132 5210 5210 5291 2116 2116 2103 2103 2090 2090 2090 2116 2103 2103 2116 2116 2116 2116 2116 2116 2116 2116 2116 2116 2116 2116 2116 2116 2129 2143 2156 2184 2184 2184 2184 2184 2184 2198 2198 2212 2212 2212 2212 2226 2226 2212 2212 2212 2198 2198 2198 2198 2198 2212 2226 2226 2198 2198 2198 2212 2226 2241 2241 2256 2256 2212 2198 2198 2156 2156 2156 2170 2156 2156 2156 2170 2170 2170 2156 2156 2156 2156 2156 2156 2156 2156 2143 2143 2143 2143 2156 2156 2156 2156 2156 2156 2170 2170 2170 2170 2170 2170 2170 2170 2170 2156 2156 2156 2156 2156 2170 2170 2170 2170 2156 2156 2156 2156 2156 2156 2170 2170 2170 2170 2170 2170 2170 2170 2170 2170 2170 2170 2170 2156 2156 2156 2156 2156 2156 2156 2156 2156 2156 2156 2170 2170 2156 2156 2156 2156 2156 2156 2143 2143 2143 2143 0 0 0 0 0 0 0 0 0 0 0 0 0 0 0 0 0 0 0 0 0 0 0 0 0 0 0 0 0 3903 3859 3859 3816 3816 3774 3774 0 3539 3539 3576 3576 3576 3576 3614 0 0 0 0 0 0 3903 3859 3816 3774 3774 3774 3732 3732 3732 3692 3692 3692 3653 3653 3653 3653 3614 3539 3433 3433 3399 3365 3333 3333 3333 3333 3333 3333 3365 3365 3399 3399 3365 3365 3365 3365 3365 3300 3300 3333 3333 3333 3333 3333 3365 3365 3399 3399 3399 3333 3333 3037 3037 3010 3010 3010 2984 2984 2984 2984 2958 2958 2958 2958 2958 2958 2984 3010 3010 3010 3010 3010 3037 3037 3037 3037 3037 3064 3064 2933 2933 2933 2984 2984 3037 3064 3064 3037 3037 3010 3010 3010 2958 2958 2984 2984 2958 2958 2984 2984 3010 2984 2984 3010 3010 3010 2984 2984 2984 2984 2984 2958 2958 2984 2984 2958 2958 2958 0 5291 5291 5291 5210 5056 5056 5132 4983 4983 5056 5056 5056 5056 5132 5132 5132 5056 5056 5056 3859 3859 3859 3859 0 0 0 0 0 0 0 0 0 0 0 0
0 0 0 0 0 0 0 0 0 0 0 0 0 0 0 0 0 0 0 0 0 0 0 0 0 0 0 0 0 0 0 0 0 4463 4463 4645 4645 4645 4645 4645 4645 4645 4582 4582 4645 4645 4645 4708 4708 4708 4708 4708 4708 4708 4708 4708 4774 4774 4774 4708 4708 4708 4708 4708 4708 4708 4708 4708 4645 4582 4582 4582 4582 4645 4645 4645 4645 4708 4708 4708 4645 4582 4582 4582 4582 4582 4582 4645 4645 4708 0 4645 4645 0 0 2680 2680 2701 2744 2744 2744 2767 2767 2767 2767 2767 2767 2767 2744 2744 2744 2767 2767 2767 2767 2744 2744 2767 2767 2744 2744 2744 2767 2767 2767 2767 2767 2767 2767 2767 2767 2767 2789 2789 2789 2789 2789 2789 2812 2812 2812 2812 2812 2835 2859 2859 2859 2883 2883 2883 2908 2908 2933 3010 3010 3010 3010 3010 3010 3010 2040 2040 2040 2040 2040 2053 2053 2065 2065 2078 2078 2078 2078 2078 2078 2078 2078 2078 2078 2090 2090 2090 2090 2103 2103 2103 2103 2103 2103 2103 2103 2116 2116 2129 2129 2129 2129 2129 2129 2129 2129 2129 2129 2129 2129 2129 2129 2129 2129 2129 2129 2143 2143 2143 2143 2143 2143 2143 2143 2143 2143 2143 2143 2143 2143 2143 2143 2143 2143 2156 2156 2156 2156 2170 2170 2170 2170 2170 2170 2184 2170 2170 2184 2184 2170 2170 2170 2156 2156 2156 2156 2933 2933 2933 2933 2933 2958 2958 2958 2984 2984 3010 3010 3010 3010 3037 3037 3037 3037 2078 2078 2078 2090 2090 2090 2103 2116 2116 2116 2116 2116 2116 2116 2116 2116 2116 2103 2103 2090 2090 2116 2116 2103 2103 2116 2116 2116 2116 2116 2116 2116 2116 2116 2116 2116 2103 2103 2116 2116 2129 2143 2170 2184 2184 2184 2170 2170 2184 2198 2198 2198 2212 2212 2212 2212 2212 2143 2129 2129 2116 2116 2116 2170 2198 2129 2129 2156 2170 2170 2184 2198 2198 2198 2256 2256 2170 2170 2170 2129 2129 2129 2143 2143 2143 2143 2156 2156 2156 2143 2143 2143 2143 2143 2143 2143 2143 2143 2143 2143 2143 2143 2129 2129 2129 2129 2129 2143 2156 2156 2156 2156 2156 2156 2156 2156 2156 2143 2143 2143 2156 2156 2156 2156 2156 2143 2143 2143 2143 2143 2156 2156 2156 2156 2170 2170 2170 2170 2170 2170 2170 2170 2170 2170 2156 2143 2143 2156 2143 2143 2143 2156 2156 2156 2156 2156 2156 2156 2156 2156 2156 2156 2143 2143 2143 2143 2143 2129 2129 0 0 0 0 0 0 0 0 0 0 0 0 0 0 0 0 0 0 0 0 0 0 0 0 3948 3948 3903 3903 3903 3903 3816 3816 3774 3774 3732 3614 3576 3576 3576 3576 3576 0 0 0 0 0 0 0 3903 3859 3859 3774 3774 3774 3774 3732 3732 3692 3692 3692 3653 3653 3653 3653 3576 3468 3399 3399 3365 3333 3333 3333 3333 3333 3333 3333 3365 3365 3365 3365 3365 3365 3365 3365 3365 3333 3333 3333 3333 3333 3333 3333 3333 3333 3365 3365 3333 3333 3333 3064 3037 3010 3010 3010 3010 2984 2984 2984 2984 2984 2958 2958 2958 2958 2984 3010 3010 3010 3010 3010 3037 3037 3037 3037 3037 3037 3037 3037 2984 2984 2984 2984 3037 3037 3037 3037 3037 3010 3010 3010 2958 2958 2984 2984 2958 2958 2984 2984 2984 2984 2984 3010 3010 3010 2984 2984 2984 2984 2984 2984 2984 2984 2984 2958 2958 2958 0 5291 5291 5291 5210 5210 5210 5210 4911 4911 5056 4983 4983 4983 4983 4911 4911 4983 4983 4983 3859 3859 3859 3859 0 0 0 0 0 0 0 0 0 0 0 0
0 0 0 0 0 0 0 0 0 0 0 0 0 0 0 0 0 0 0 0 0 0 0 0 0 0 0 0 0 0 0 0 0 4522 4522 4582 4645 4645 4645 4645 4645 4582 4582 4582 4582 4582 4645 4708 4708 4708 4708 4708 4708 4708 4708 4708 4774 4774 4774 4708 4708 4708 4708 4645 4645 4645 4645 4645 4645 4582 4582 4582 4582 4582 4645 4645 4645 4645 4645 4645 4582 4582 4582 4582 4522 4522 4522 4645 4645 4645 4645 4645 4645 0 0 2680 2680 2701 2744 2744 2744 2767 2767 2767 2767 2767 2767 2767 2744 2744 2744 2767 2744 2744 2744 2744 2744 2767 2767 2767 2767 2767 2767 2767 2767 2767 2767 2767 2767 2767 2789 2789 2789 2789 2789 2812 2812 2812 2812 2812 2812 2812 2812 2835 2859 2859 2859 2883 2883 2883 2908 2908 2933 2958 3010 3010 2984 2984 3010 3010 2040 2040 2040 2040 2040 2053 2065 2065 2078 2078 2078 2078 2078 2078 2078 2078 2078 2078 2078 2090 2090 2090 2090 2103 2103 2103 2103 2103 2103 2103 2103 2116 2116 2129 2129 2129 2129 2129 2129 2129 2129 2129 2129 2129 2129 2129 2129 2129 2129 2129 2129 2143 2143 2143 2143 2143 2143 2143 2143 2143 2143 2143 2143 2143 2143 2143 2143 2143 2143 2156 2156 2156 2156 2156 2170 2170 2170 2170 2170 2170 2170 2170 2170 2170 2156 2156 2156 2156 2156 2156 2156 2933 2933 2933 2933 2933 2933 2958 2958 2984 2984 2984 3010 3010 3010 3010 3037 2065 2065 2078 2078 2078 2090 2090 2090 2090 2103 2103 2103 2090 2090 2103 2103 2103 2103 2103 2103 2103 2103 2116 2116 2116 2103 2103 2116 2116 2116 2116 2116 2116 2116 2116 2116 2103 2103 2103 2103 2103 2116 2116 2116 2116 2116 2116 2129 2129 2143 2143 2143 2170 2184 2184 2184 2184 2129 2129 2116 2116 2116 2103 2103 2103 2116 2116 2116 2116 2129 2129 2129 2129 2129 2116 2116 2116 2116 2103 2103 2116 2116 2116 2116 2116 2129 2129 2129 2129 2129 2129 2129 2129 2129 2129 2129 2129 2143 2143 2129 2129 2129 2129 2129 2129 2116 2116 2116 2116 2129 2143 2156 2156 2156 2143 2143 2143 2143 2129 2129 2129 2143 2143 2143 2143 2143 2143 2143 2129 2129 2129 2143 2143 2143 2143 2143 2156 2156 2156 2156 2156 2156 2156 2156 2156 2156 2143 2143 2143 2143 2143 2143 2143 2143 2143 2143 2143 2156 2156 2143 2143 2143 2143 2143 2143 2143 2143 2129 2129 2116 2116 2103 2103 0 0 0 0 0 0 0 0 0 0 0 0 0 0 0 0 0 0 0 0 0 3948 3948 3903 3903 3903 3903 3903 3859 3859 3816 3774 3732 3614 3614 3576 3576 3576 3576 0 0 0 0 0 0 0 0 0 3859 3816 3816 3774 3774 3732 3732 3692 3692 3692 3692 3653 3653 3653 3539 3433 3399 3365 3365 3333 3333 3333 3333 3333 3333 3333 3333 3365 3365 3365 3365 3365 3365 3365 3365 3333 3333 3333 3333 3333 3333 3333 3333 3333 3333 3333 3300 3269 3064 3064 3037 3037 3010 3010 3010 2984 2984 2984 2984 2984 2984 2984 2984 2984 2984 3010 3010 3010 3010 3037 3037 3064 3064 3064 3064 3037 3037 3037 3010 3010 2984 2984 3037 3037 3037 3037 3010 3010 3010 3010 3010 3010 3010 2984 2958 2958 3010 3010 2984 2984 2984 3010 3010 3010 3010 3010 2984 2984 2984 2984 2984 2984 2984 2984 2984 2984 0 0 0 0 0 0 5210 5210 4911 4911 4911 4983 4983 4983 4983 4911 4911 4911 4983 4983 3903 3903 3903 3903 0 0 0 0 0 0 0 0 0 0 0 0
0 0 0 0 0 0 0 0 0 0 0 0 0 0 0 0 0 0 0 0 0 0 0 0 0 0 0 0 0 0 0 0 4522 4522 4522 4582 4582 4582 4582 4582 4582 4582 4582 4582 4582 4582 4645 4708 4774 4774 4774 4774 4774 4708 4708 4708 4774 4774 4774 4708 4708 4708 4645 4645 4645 4645 4645 4645 4645 4582 4582 4582 4582 4582 4582 4645 4645 4645 4645 4645 4582 4582 4582 4582 4522 4522 4522 4582 4582 4645 4645 4645 4645 0 0 2701 2701 2701 2744 2744 2744 2767 2767 2767 2767 2767 2767 2767 2744 2744 2744 2744 2744 2744 2744 2744 2744 2767 2767 2767 2767 2767 2767 2767 2767 2767 2767 2767 2789 2789 2789 2789 2789 2789 2812 2812 2812 2812 2812 2835 2812 2812 2835 2835 2859 2859 2859 2883 2883 2883 2908 2908 2933 2958 2984 2984 2958 2958 2958 2933 2040 2040 2040 2040 2040 2053 2065 2065 2078 2078 2078 2078 2078 2078 2078 2078 2078 2078 2078 2090 2090 2090 2090 2103 2103 2103 2103 2103 2103 2103 2103 2116 2116 2129 2129 2129 2116 2116 2129 2129 2116 2116 2129 2129 2129 2129 2129 2129 2129 2129 2129 2143 2143 2143 2143 2143 2143 2143 2143 2143 2143 2143 2143 2143 2143 2143 2143 2143 2143 2156 2156 2156 2156 2156 2156 2156 2170 2170 2170 2170 2170 2170 2170 2170 2156 2156 2143 2129 2116 2090 2078 2053 2053 2933 2933 2933 2933 2958 2984 2984 2984 2984 3010 3010 3010 3010 2078 2065 2065 2078 2078 2078 2078 2078 2078 2078 2090 2090 2090 2090 2090 2103 2103 2090 2090 2103 2090 2090 2078 2078 2078 2116 2116 2103 2103 2116 2116 2116 2103 2103 2103 2103 2103 2103 2103 2090 2090 2090 2090 2103 2103 2103 2103 2103 2116 2116 2116 2116 2129 2129 2129 2129 2116 2090 2090 2103 2103 2103 2103 2090 2090 2090 2090 2090 2090 2103 2116 2116 2116 2116 2116 2116 2116 2103 2103 2103 2103 2103 2103 2116 2116 2116 2116 2116 2116 2116 2116 2116 2116 2116 2116 2116 2129 2129 2129 2116 2116 2116 2116 2116 2116 2116 2116 2116 2116 2116 2116 2116 2129 2129 2129 2116 2116 2116 2116 2116 2116 2116 2129 2129 2129 2143 2129 2129 2129 2129 2129 2129 2129 2129 2129 2129 2143 2143 2143 2143 2143 2143 2143 2143 2143 2143 2143 2129 2129 2129 2129 2129 2129 2129 2129 2129 2143 2143 2143 2143 2143 2143 2143 2143 2143 2143 2143 2129 2129 2116 2116 2103 2103 2103 0 0 0 0 0 0 0 0 0 0 0 0 0 0 0 0 0 0 0 0 0 3948 3948 3903 3903 3903 3903 3903 3859 3859 3859 3816 3774 3614 3614 3614 3614 3614 3614 0 0 0 0 0 0 0 0 0 3816 3816 3816 3774 3774 3774 3774 3732 3692 3692 3692 3692 3653 3653 3539 3433 3399 3365 3365 3333 3333 3333 3333 3333 3333 3300 3300 3333 3333 3333 3333 3333 3333 3333 3333 3333 3333 3333 3333 3300 3300 3300 3333 3333 3333 3333 3300 3178 3064 3064 3037 3037 3037 3010 3010 3010 2984 2984 2984 2984 2984 2984 2984 2984 3010 3010 3010 3010 3010 3010 3037 3037 3037 3037 3010 3010 3037 3037 3010 3010 3010 3010 3037 3037 3037 3037 3010 3010 3010 3010 3010 3010 3010 3010 3010 3010 3010 3010 3010 3010 3010 3010 3010 3010 3010 3010 2984 2984 3010 2984 2984 2984 2984 2984 2984 3010 0 0 0 0 0 0 5210 5210 4983 4983 4983 4983 4911 4911 4911 4911 4842 4842 4983 4983 3903 3859 3859 3859 0 0 0 0 0 0 0 0 0 0 0 0
0 0 0 0 0 0 0 0 0 0 0 0 0 0 0 0 0 0 0 0 0 0 0 0 0 0 0 0 0 0 0 4405 4405 4463 4522 4522 4522 4582 4582 4582 4582 4582 4582 4582 4582 4582 4645 4645 4774 4774 4774 4774 4774 4774 4774 4774 4774 4708 4708 4708 4645 4645 4645 4645 4645 4645 4645 4645 4645 4582 4582 4582 4582 4582 4582 4582 4582 4645 4582 4522 4522 4522 4522 4522 4522 4522 4522 4522 4522 4582 4582 4645 4645 4582 0 2701 2701 2701 2744 2744 2744 2744 2767 2767 2767 2767 2767 2767 2744 2744 2744 2744 2744 2744 2744 2744 2744 2767 2767 2767 2767 2767 2767 2767 2767 2767 2767 2767 2789 2789 2789 2789 2789 2789 2812 2812 2812 2835 2835 2835 2835 2835 2835 2835 2859 2859 2883 2883 2883 2908 2908 2908 2933 2958 2984 2984 2958 2958 2958 2933 2053 2053 2040 2040 2053 2053 2065 2065 2078 2078 2078 2078 2078 2078 2078 2078 2078 2078 2078 2078 2078 2090 2090 2090 2103 2103 2090 2090 2103 2103 2103 2116 2116 2129 2129 2129 2116 2116 2116 2116 2116 2116 2116 2116 2116 2129 2129 2129 2129 2129 2129 2129 2143 2143 2143 2143 2143 2143 2143 2143 2143 2143 2143 2143 2143 2143 2143 2143 2156 2156 2156 2156 2156 2156 2156 2156 2170 2170 2170 2170 2156 2156 2156 2143 2129 2129 2116 2090 2090 2078 2065 2053 2040 2040 2053 2065 2065 2078 2078 2984 2078 2078 2090 3010 3010 2065 2065 2065 2065 2065 2078 2078 2078 2078 2078 2078 2078 2078 2078 2078 2078 2090 2103 2090 2090 2090 2090 2078 2078 2078 2078 2078 2078 2078 2078 2078 2078 2103 2090 2090 2090 2103 2103 2090 2090 2078 2078 2090 2090 2090 2090 2090 2090 2090 2103 2116 2116 2116 2116 2116 2116 2103 2103 2090 2090 2090 2090 2090 2090 2078 2078 2078 2078 2078 2078 2078 2090 2090 2090 2090 2090 2103 2103 2090 2090 2090 2090 2103 2103 2103 2103 2103 2103 2090 2090 2103 2103 2103 2103 2103 2103 2103 2103 2103 2103 2103 2103 2103 2103 2103 2103 2103 2103 2103 2103 2103 2103 2116 2116 2116 2116 2116 2116 2103 2103 2116 2116 2116 2116 2116 2129 2129 2116 2116 2116 2116 2116 2116 2103 2103 2116 2129 2129 2129 2129 2116 2116 2116 2116 2116 2129 2116 2116 2116 2103 2103 2116 2116 2116 2116 2129 2129 2129 2129 2129 2129 2129 2129 2129 2143 2143 2129 2129 2129 2116 2116 2103 2103 2103 2103 2103 0 0 0 0 0 0 0 0 0 0 0 0 0 0 0 0 0 0 0 0 3994 3994 3903 3903 3903 3903 3903 3903 3903 3859 3816 3774 3653 3653 3614 3614 3614 3614 0 0 0 0 0 0 0 0 0 3816 3774 3774 3774 3774 3774 3774 3732 3692 3692 3692 3692 3653 3653 3653 3433 3399 3365 3365 3333 3333 3300 3300 3300 3300 3300 3300 3300 3300 3300 3300 3300 3300 3333 3333 3300 3300 3300 3300 3300 3300 3300 3300 3300 3300 3300 3238 3092 3064 3064 3037 3037 3037 3037 3010 3010 3010 3010 2984 2984 2984 2984 3010 3010 3010 3010 3010 3010 3010 3010 3037 3037 3037 3037 3010 3010 3037 3037 3010 3010 3010 3010 3010 3037 3037 3037 3037 3010 3010 3010 3010 3010 3010 3010 2984 2984 3010 3010 3010 3010 3010 3010 3010 3010 3010 3010 3010 3010 3010 3010 2984 2984 2984 2984 3010 3010 0 0 0 0 0 0 0 0 4842 4842 4842 0 0 4911 4911 4911 4842 4842 4842 4842 3903 3859 3859 3859 0 0 0 0 0 0 0 0 0 0 0 0
0 0 0 0 0 0 0 0 0 0 0 0 0 0 0 0 0 0 0 0 0 0 0 0 0 0 0 0 0 0 0 4405 4405 4463 4522 4522 4522 4582 4582 4582 4522 4522 4463 4463 4522 4582 4582 4645 4708 4708 4708 4774 4774 4774 4774 4774 4774 4708 4708 4645 4645 4645 4645 4582 4582 4582 4645 4645 4582 4522 4522 4582 4582 4582 4582 4582 4582 4582 4522 4463 4463 4463 4522 4522 4463 4463 4522 4522 4522 4522 4522 4582 4582 4582 2701 2701 2701 2701 2744 2744 2744 2744 2767 2767 2767 2767 2767 2767 2767 2767 2767 2767 2767 2767 2767 2744 2744 2767 2767 2767 2767 2767 2767 2767 2767 2767 2767 2767 2767 2767 2789 2789 2789 2789 2789 2812 2812 2835 2835 2835 2835 2835 2835 2859 2859 2859 2883 2883 2883 2908 2908 2933 2933 2958 2984 2984 2984 2984 2958 2958 2958 2958 2040 2040 2040 2053 2053 2065 2065 2078 2078 2078 2078 2078 2078 2078 2078 2078 2078 2078 2078 2078 2090 2090 2090 2090 2090 2090 2090 2103 2103 2116 2116 2103 2103 2103 2090 2090 2103 2103 2103 2103 2090 2090 2103 2116 2103 2103 2116 2116 2116 2129 2129 2129 2143 2129 2129 2143 2143 2143 2143 2143 2143 2143 2143 2143 2143 2143 2143 2156 2143 2143 2143 2143 2156 2156 2156 2156 2143 2143 2143 2143 2116 2116 2103 2090 2078 2078 2078 2065 2065 2040 2040 2040 2040 2053 2053 2065 2065 2065 2065 2065 2040 2040 2040 2040 2040 2065 2065 2065 2065 2078 2078 2065 2065 2065 2065 2065 2040 2040 2065 2065 2065 2053 2053 2065 2078 2078 2078 2078 2078 2078 2078 2078 2078 2078 2078 2078 2078 2078 2078 2090 2090 2078 2078 2078 2078 2078 2078 2078 2078 2078 2078 2078 2090 2090 2090 2090 2103 2103 2090 2090 2090 2078 2078 2090 2090 2090 2090 2078 2065 2065 2065 2065 2065 2078 2078 2078 2078 2078 2078 2078 2090 2078 2078 2078 2078 2090 2090 2090 2090 2090 2090 2078 2078 2090 2090 2090 2090 2090 2090 2103 2090 2090 2090 2090 2090 2090 2090 2103 2103 2103 2103 2090 2090 2090 2090 2090 2090 2078 2078 2078 2090 2090 2090 2090 2090 2103 2103 2103 2116 2116 2103 2103 2103 2103 2103 2090 2090 2090 2103 2103 2103 2103 2103 2103 2103 2103 2103 2103 2103 2103 2103 2103 2103 2103 2103 2103 2103 2116 2116 2116 2116 2116 2116 2116 2116 2116 2129 2129 2129 2116 2103 2103 2103 2103 2103 2090 2090 2090 2090 0 0 0 0 0 0 0 0 0 0 0 0 0 0 0 0 0 0 0 4089 3994 3994 3903 3903 3903 3903 3903 3903 3903 3903 3903 3816 3692 3653 3614 3614 3614 3614 0 0 0 0 0 0 0 0 0 3816 3774 3774 3774 3774 3774 3774 3732 3692 3692 3692 3692 3653 3653 3653 3468 3399 3365 3365 3333 3333 3300 3300 3300 3300 3300 3300 3300 3300 3300 3300 3300 3300 3300 3300 3269 3269 3269 3269 3269 3269 3269 3269 3269 3269 3269 3208 3092 3064 3064 3037 3037 3037 3037 3010 3010 3010 3010 2984 2984 3010 3010 3010 3010 3010 3037 3037 3037 3037 3037 3037 3037 3037 3037 3037 3037 3037 3037 3010 3010 3010 3010 3010 3037 3037 3037 3037 3037 3037 3037 3037 3037 3037 3010 2958 2958 3010 3010 3010 3010 3010 3010 3010 3010 3010 3010 3010 3010 3010 3010 2984 2984 2984 2984 3010 3010 0 0 0 0 0 0 0 0 4842 4842 0 0 0 4911 4774 4774 4842 4842 4842 3948 3903 3903 3859 3859 0 0 0 0 0 0 0 0 0 0 0 0
0 0 0 0 0 0 0 0 0 0 0 0 0 0 0 0 0 0 0 0 0 0 0 0 0 0 0 0 0 0 0 4405 4405 4463 4522 4522 4463 4463 4522 4463 4463 4463 4463 4463 4522 4522 4582 4582 4645 4708 4708 4774 4842 4842 4842 4842 4774 4774 4645 4645 4645 4645 4645 4582 4582 4582 4645 4582 4582 4522 4522 4522 4582 4582 4582 4582 4582 4522 4522 4463 4463 4463 4522 4522 4463 4463 4522 4522 4522 4522 4522 4582 4582 4645 4645 2723 2723 2723 2744 2744 2744 2767 2767 2767 2767 2767 2767 2767 2767 2767 2767 2767 2767 2767 2767 2767 2767 2767 2767 2767 2767 2767 2767 2767 2767 2767 2767 2767 2767 2767 2789 2789 2789 2789 2789 2812 2812 2835 2835 2835 2835 2835 2835 2859 2859 2883 2883 2908 2908 2908 2933 2933 2933 2958 3010 3010 2984 2984 2958 2958 2958 2958 2028 2028 2040 2040 2040 2040 2065 2078 2078 2078 2078 2078 2078 2078 2078 2078 2065 2065 2065 2078 2078 2078 2078 2090 2090 2090 2090 2103 2103 2090 2090 2090 2090 2090 2090 2090 2090 2090 2090 2090 2090 2090 2090 2090 2078 2053 2053 2053 2090 2028 2028 2040 2103 2116 2116 2116 2129 2129 2129 2103 2103 2143 2040 2040 2040 2143 2143 2143 2143 2129 2129 2129 2129 2143 2143 2129 2129 2129 2129 2129 2103 2103 2090 2078 2053 2053 2053 2053 2040 2040 2040 2040 2040 2040 2040 2053 2053 2053 2053 2053 2040 2040 2028 2028 2040 2053 2053 2053 2065 2065 2065 2053 2053 2053 2053 2040 2040 2040 2040 2040 2040 2040 2040 2040 2065 2053 2053 2065 2065 2053 2053 2065 2065 2065 2065 2065 2065 2065 2065 2078 2078 2065 2065 2065 2065 2065 2065 2065 2065 2065 2065 2078 2078 2078 2078 2078 2078 2078 2065 2065 2065 2065 2065 2078 2078 2078 2078 2065 2065 2065 2065 2065 2065 2065 2065 2065 2065 2065 2065 2065 2065 2065 2065 2065 2065 2078 2078 2078 2078 2078 2065 2065 2065 2065 2065 2065 2065 2078 2078 2078 2078 2078 2078 2078 2078 2078 2065 2065 2078 2078 2078 2078 2078 2078 2065 2065 2078 2065 2065 2065 2078 2078 2078 2078 2078 2090 2090 2090 2090 2103 2090 2090 2090 2090 2078 2078 2078 2078 2078 2090 2090 2090 2090 2090 2090 2090 2090 2090 2090 2090 2090 2078 2078 2078 2090 2090 2090 2103 2103 2103 2103 2116 2103 2090 2090 2090 2090 2090 2078 2078 2078 2090 2090 2090 2090 2078 2078 2078 2078 2078 0 0 0 0 0 0 0 0 0 0 0 0 0 0 0 0 0 0 4089 3994 3994 3859 3859 3903 3903 3903 3903 3903 3903 3903 3859 3732 3653 3614 3614 3614 3614 0 0 0 0 0 0 0 0 0 3816 3816 3816 3774 3774 3774 3774 3732 3692 3692 3692 3692 3653 3653 3653 3468 3399 3365 3365 3333 3333 3300 3300 3300 3300 3300 3300 3300 3300 3300 3300 3300 3300 3300 3300 3269 3269 3269 3269 3269 3269 3238 3238 3238 3238 3238 3178 3092 3064 3064 3064 3037 3037 3037 3037 3037 3010 3010 3010 3010 3010 3037 3037 3037 3037 3037 3037 3037 3037 3037 3037 3037 3037 3037 3037 3037 3037 3037 3037 3037 3010 3010 3037 3037 3037 3037 3037 3037 3037 3037 3037 3037 3037 3010 2958 2958 0 0 0 3010 3010 3010 3010 3010 3010 3010 3010 3010 3010 3010 2984 2984 2984 2984 3010 3010 0 0 0 0 0 0 0 0 4842 4842 0 0 0 0 4774 4774 4842 4842 4842 3903 3903 3903 3859 3859 0 0 0 0 0 0 0 0 0 0 0 0
0 0 0 0 0 0 0 0 0 0 0 0 0 0 0 0 0 0 0 0 0 0 0 0 0 0 0 0 0 0 0 4405 4405 4463 4522 4463 4463 4463 4463 4463 4463 4463 4463 4463 4522 4522 4522 4582 4645 4708 4708 4774 4842 4842 4842 4842 4842 4645 4645 4645 4645 4645 4582 4582 4582 4582 4582 4582 4582 4522 4522 4522 4522 4522 4522 4522 4522 4463 4463 4405 4405 4405 4405 4405 4405 4405 4463 4463 4463 4522 4522 4522 4582 4582 4582 2723 2723 2723 2744 2744 2767 2767 2767 2767 2767 2767 2767 2767 2767 2767 2767 2767 2767 2767 2767 2767 2767 2767 2767 2767 2767 2767 2767 2767 2767 2767 2767 2767 2767 2767 2767 2789 2789 2789 2789 2812 2812 2812 2812 2835 2812 2812 2835 2835 2859 2859 2883 2883 2883 2908 2908 2933 2933 2933 2984 3010 2984 2958 2958 2958 2958 2958 2028 2016 2016 2016 2028 2040 2065 2065 2065 2065 2078 2078 2078 2065 2065 2065 2065 2065 2065 2065 2078 2078 2078 2078 2005 2005 2005 2005 2005 1993 1993 2065 2065 2065 2065 2065 2065 2078 2078 2078 2065 2065 2078 2040 2040 2016 2016 2016 2016 2005 2005 2016 2016 2016 2078 2005 2005 2005 2005 2040 2028 2028 2028 2028 2028 2028 2028 2028 2028 2028 2028 2040 2016 2016 2028 2028 2028 2028 2028 2028 2040 2040 2028 2028 2028 2028 2028 2040 2028 2028 2028 2028 2028 2028 2028 2028 2028 2028 2028 2028 2028 2028 2016 2016 2028 2040 2040 2040 2040 2053 2053 2040 2040 2040 2040 2028 2028 2028 2028 2028 2028 2028 2028 2040 2040 2040 2040 2040 2040 2040 2040 2040 2053 2053 2053 2053 2053 2053 2065 2065 2065 2065 2053 2053 2053 2053 2053 2053 2065 2065 2065 2065 2065 2065 2065 2065 2065 2065 2053 2053 2053 2053 2065 2065 2065 2065 2065 2053 2053 2053 2053 2053 2053 2053 2053 2053 2053 2053 2053 2053 2053 2053 2053 2053 2053 2065 2065 2065 2065 2053 2053 2053 2053 2053 2053 2053 2053 2053 2053 2053 2053 2053 2065 2053 2053 2065 2053 2053 2065 2078 2078 2065 2065 2065 2065 2065 2065 2065 2065 2065 2065 2065 2065 2065 2065 2078 2078 2078 2078 2090 2078 2078 2065 2065 2078 2065 2065 2065 2065 2078 2078 2078 2078 2078 2078 2078 2078 2078 2065 2065 2078 2065 2065 2065 2078 2078 2078 2090 2090 2103 2103 2090 2090 2040 2040 2065 2065 2065 2065 2065 2065 2065 2065 2065 2065 2065 2065 2065 2053 2040 2040 2040 0 0 0 0 0 0 0 0 0 0 0 0 0 0 0 0 4089 3994 3948 3859 3859 3903 3903 3903 3903 3903 3903 3903 3859 3774 3692 3653 3653 0 0 0 0 0 0 0 0 0 0 0 3774 3774 3774 3774 3774 3774 3774 3732 3692 3692 3692 3692 3653 3653 3653 3468 3399 3365 3365 3333 3333 3300 3300 3300 3300 3300 3269 3269 3269 3269 3269 3269 3269 3269 3269 3269 3269 3269 3238 3238 3238 3238 3238 3238 3238 3208 3178 3092 3064 3064 3037 3037 3037 3037 3037 3037 3037 3037 3037 3037 3037 3064 3064 3064 3064 3064 3037 3037 3037 3037 3064 3064 3064 3064 3064 3064 3037 3037 3037 3037 3037 3037 3037 3037 3037 3037 3064 3064 3064 3064 3064 3037 3037 3037 0 3037 3037 0 0 3010 3010 3010 3010 3010 3010 3010 3010 3010 3010 3010 3010 2984 2984 3010 3010 0 0 0 0 0 0 0 0 0 0 0 0 0 0 0 4774 4774 4774 3994 3903 3903 3903 3903 3859 3859 0 0 0 0 0 0 0 0 0 0 0 0
0 0 0 0 0 0 0 0 0 0 0 0 0 0 0 0 0 0 0 0 0 0 0 0 0 0 0 0 0 0 0 4463 4463 4522 4522 4463 4463 4463 4405 4405 4463 4463 4463 4463 4463 4522 4522 4582 4645 4708 4708 4774 4842 4842 4842 4582 4582 4582 4582 4582 4522 4522 4522 4522 4522 4522 4522 4522 4522 4463 4463 4463 4463 4463 4463 4463 4405 4349 4349 4349 4349 4349 4349 4405 4405 4405 4463 4463 4463 4522 4522 4522 4522 4582 4582 2723 2723 2744 2744 2767 2767 2767 2767 2767 2767 2767 2767 2767 2767 2767 2767 2767 2767 2767 2767 2767 2767 2767 2767 2767 2767 2767 2767 2767 2767 2767 2767 2767 2767 2767 2767 2789 2789 2789 2789 2812 2812 2812 2812 1947 1947 1947 1959 1947 1947 1947 1959 1959 1959 1959 1970 1970 1970 1981 1981 1981 1970 1970 2958 2958 2958 2958 2958 1993 1993 1993 2005 2005 2005 2016 2016 1993 1993 1993 1993 1993 1993 1993 1993 1993 1993 1993 1993 1993 1993 1993 1993 1993 1993 1993 1993 1993 1993 2005 2005 2005 2005 2005 2016 2016 2016 2005 2005 2005 2005 2005 2005 2005 2005 2005 2005 2005 2005 2005 2005 2005 2005 1993 1993 2005 1993 1993 2005 2005 2005 2016 2016 2016 2005 2005 2005 2005 2005 2005 2005 2005 2016 2016 2016 2016 2016 2016 2028 2028 2016 2016 2016 2016 2016 2016 2016 2016 2016 2016 2016 2016 2016 2016 2016 2016 2016 2016 2016 2016 2016 2016 2016 2016 2016 2016 2016 2028 2028 2028 2028 2028 2028 2028 2028 2028 2028 2028 2028 2016 2016 2028 2028 2028 2028 2028 2028 2028 2028 2028 2040 2040 2040 2040 2040 2053 2053 2053 2053 2053 2053 2053 2053 2053 2053 2053 2053 2053 2053 2053 2040 2040 2040 2040 2040 2040 2040 2040 2053 2053 2053 2053 2053 2053 2053 2040 2040 2040 2040 2040 2040 2040 2040 2053 2040 2040 2040 2040 2040 2040 2053 2040 2040 2040 2040 2040 2040 2040 2040 2040 2040 2040 2040 2040 2040 2040 2040 2040 2053 2040 2040 2040 2040 2053 2053 2053 2065 2053 2053 2065 2065 2065 2065 2065 2053 2053 2053 2053 2065 2065 2065 2065 2065 2065 2065 2065 2065 2065 2065 2065 2065 2065 2065 2065 2065 2065 2065 2065 2065 2065 2078 2065 2065 2078 2078 2078 2065 2065 2065 2053 2053 2053 2065 2065 2065 2078 2078 2078 2078 2065 2065 2040 2040 2053 2053 2053 2053 2053 2053 2053 2053 2053 2053 2053 2053 2040 2040 2040 2040 2016 2016 2016 2016 2016 0 0 0 0 0 0 0 0 0 0 0 0 4089 3994 3948 3948 3903 3903 3903 3903 3903 3903 3903 3903 3859 3816 3816 0 0 0 0 0 0 0 0 0 0 0 0 0 3774 3774 3774 3774 3774 3774 3774 3732 3692 3692 3692 3692 3692 3692 3653 3653 3365 3365 3365 3333 3300 3300 3300 3300 3300 3269 3269 3269 3269 3269 3269 3269 3269 3269 3238 3208 3208 3208 3208 3208 3208 3208 3208 3208 3208 3208 3178 3092 3064 3064 3037 3037 3037 3037 3037 3037 3037 3037 3037 3037 3064 3092 3092 3092 3064 3064 3064 3064 3064 3064 3064 3064 3092 3064 3064 3064 3064 3064 3064 3037 3037 3037 3037 3037 3064 3064 3064 3064 3064 3064 3064 3064 3064 3064 3064 0 0 0 3010 3010 3010 3010 3010 3010 3010 3010 3010 3010 3010 3010 3010 3010 3010 3010 3010 0 0 0 0 0 0 0 0 0 0 0 0 0 0 0 0 0 3994 3994 3948 3903 3903 3903 3859 3859 0 0 0 0 0 0 0 0 0 0 0 0
0 0 0 0 0 0 0 0 0 0 0 0 0 0 0 0 0 0 0 0 0 0 0 0 0 0 0 0 0 0 0 4405 4405 4463 4463 4463 4463 4463 4405 4405 4405 4405 4405 4405 4463 4463 4463 4522 4522 4645 4645 4645 4645 4405 4582 4582 4582 4582 4522 4463 4463 4463 4463 4463 4463 4463 4463 4463 4463 4463 4463 4463 4463 4405 4405 4405 4349 4349 4349 4349 4349 4349 4349 4405 4405 4405 4463 4463 4463 4522 4522 4522 4522 4522 4522 2767 2744 2744 2744 2767 2767 2767 2767 2767 2767 2767 2767 2767 2767 2767 2767 2767 2767 2767 2767 2767 2767 2767 2767 2767 2767 2767 2767 2767 2767 2767 2767 2767 2767 2767 2767 2767 2767 2789 2789 2789 2812 1947 1947 1947 1947 1947 1947 1947 1947 1947 1959 1959 1959 1959 1959 1970 1970 1970 1970 1970 1959 1959 1959 1947 1936 1936 1947 1947 1947 1959 1981 1981 1993 1993 1970 1970 1970 1970 1970 1970 1981 1970 1970 1981 1981 1981 1981 1981 1981 1981 1981 1981 1981 1981 1981 1981 1981 1981 1993 1993 1993 1993 1993 1993 1993 1993 1993 1993 1993 1993 1993 1993 1993 1993 1993 1993 1993 1993 1993 1993 2005 1993 1993 1993 1993 1993 2005 2005 2005 2016 2016 2005 1993 1993 1993 1993 1993 1993 1993 2005 2005 2005 2005 2005 2005 2016 2016 2016 2005 2005 2005 2005 2005 2005 2005 2005 2005 2005 2005 2005 1993 1993 2005 2005 2005 2005 2005 2005 2005 2005 2005 2005 2005 2005 2005 2005 2016 2016 2016 2016 2016 2016 2016 2016 2005 2005 2005 2005 2005 2005 2005 2005 2016 2016 2016 2016 2016 2016 2016 2028 2028 2028 2028 2028 2028 2028 2028 2028 2028 2040 2040 2040 2040 2040 2040 2028 2028 2028 2028 2028 2028 2028 2028 2028 2028 2028 2040 2040 2040 2040 2040 2040 2040 2028 2028 2028 2028 2028 2028 2028 2028 2028 2028 2028 2028 2040 2040 2040 2040 2028 2028 2028 2028 2028 2028 2028 2028 2028 2028 2028 2028 2028 2028 2028 2028 2028 2028 2040 2028 2028 2040 2040 2040 2040 2040 2040 2040 2053 2053 2053 2053 2053 2053 2053 2053 2053 2053 2053 2053 2053 2053 2053 2053 2053 2053 2053 2053 2053 2053 2053 2053 2053 2053 2053 2053 2053 2053 2065 2065 2065 2065 2065 2065 2065 2053 2053 2053 2053 2040 2040 2040 2053 2053 2053 2053 2053 2028 2028 2028 2040 2040 2040 2040 2040 2040 2040 2040 2040 2040 2040 2040 2040 2040 2040 2040 2028 2028 2016 2016 2005 2005 2005 2016 2016 2016 0 0 0 0 0 0 0 0 0 0 4041 3948 3948 3903 3903 3903 3903 3903 3903 3903 3903 3903 3859 3859 0 0 0 0 0 0 0 0 0 0 0 0 3774 3774 3774 3774 3774 3774 3774 3732 3732 3692 3692 3692 3692 3692 3692 3653 3653 3365 3365 3365 3333 3300 3300 3300 3300 3300 3269 3269 3269 3269 3269 3269 3269 3238 3238 3208 3208 3208 3208 3208 3208 3208 3208 3208 3208 3208 3178 3149 3092 3064 3064 3064 3037 3037 3037 3037 3037 3037 3037 3037 3037 3064 3120 3120 3120 3092 3092 3092 3092 3092 3092 3092 3092 3092 3092 3092 3092 3064 3064 3064 3064 3064 3064 3064 3064 3064 3064 3092 3064 3064 3064 3092 3092 3092 3092 0 0 0 0 3010 3010 3010 3010 3010 3010 3010 3010 3010 3010 3010 3010 3010 3010 3010 3037 3037 0 0 0 0 0 0 0 0 0 0 0 0 0 0 0 0 0 3994 3994 3948 3903 3903 3903 3903 3903 0 0 0 0 0 0 0 0 0 0 0 0
0 0 0 0 0 0 0 0 0 0 0 0 0 0 0 0 0 0 0 0 0 0 0 0 0 0 0 0 0 0 0 4405 4405 4405 4405 4405 4405 4405 4405 4405 4405 4405 4405 4405 4405 4405 4405 4463 4463 4522 4522 4522 4405 4405 4405 4582 4582 4405 4405 4463 4405 4405 4405 4405 4405 4405 4405 4405 4405 4405 4405 4405 4405 4349 4349 4349 4349 4295 4295 4349 4349 4349 4349 4405 4405 4463 4463 4463 4463 4463 4463 4463 4463 4463 4463 2767 2744 2744 2744 2767 2767 2767 2767 2767 2789 2767 2767 2789 2789 2767 2767 2767 2767 2767 2767 2767 2767 2767 2767 2767 2767 2767 2767 2767 2767 2767 2767 2767 2767 2767 2767 2767 2767 2789 2789 2789 1947 1947 1947 1947 1947 1947 1947 1947 1936 1936 1947 1947 1947 1947 1959 1959 1959 1970 1970 1959 1947 1947 1947 1936 1936 1936 1947 1947 1947 1959 1970 1970 1970 1970 1959 1959 1959 1959 1959 1959 1970 1959 1959 1970 1970 1970 1970 1970 1970 1981 1981 1981 1981 1970 1970 1981 1981 1981 1981 1981 1981 1981 1981 1981 1981 1981 1981 1981 1981 1981 1981 1981 1993 1993 1993 1993 1993 1993 1993 1993 1993 1993 1993 1993 1993 1993 2005 2005 2005 2005 2005 2005 1993 1993 1993 1993 1993 1993 1993 1993 1993 1993 1993 1993 1993 2005 2005 2005 1993 1993 1993 1993 1993 1993 1993 1993 1993 1993 1993 1981 1981 1981 1981 1981 1981 1993 1993 1993 1993 1993 1993 1993 1993 1993 1993 1993 1993 1993 2005 2005 2005 2016 2005 2005 2005 2005 2005 2005 2005 2005 2005 2005 2016 2016 2016 2016 2016 2005 2005 2005 2005 2005 2005 2016 2016 2016 2016 2005 2005 2005 2005 2005 2005 2005 2005 2016 2016 2016 2016 2016 2005 2005 2016 2016 2016 2016 2016 2028 2028 2028 2028 2016 2016 2016 2016 2016 2016 2016 2016 2016 2016 2016 2016 2016 2016 2028 2028 2028 2028 2016 2016 2028 2016 2016 2016 2016 2016 2016 2016 2016 2016 2016 2016 2016 2016 2016 2028 2028 2028 2028 2028 2028 2028 2028 2028 2028 2028 2028 2028 2040 2040 2040 2040 2016 2016 2016 2016 2028 2028 2028 2028 2028 2040 2040 2028 2028 2040 2040 2040 2040 2040 2040 2040 2040 2040 2040 2040 2040 2053 2053 2053 2053 2053 2053 2053 2053 2053 2053 2028 2028 2040 2040 2040 2040 2040 2040 2016 2016 2016 2016 2016 2028 2028 2028 2028 2028 2028 2028 2028 2028 2028 2028 2028 2028 2028 2028 2028 2005 2005 2005 2005 2005 2005 2005 2005 2005 2005 0 0 0 0 0 0 0 0 0 0 3948 3903 3903 3903 3903 3903 3903 3948 3903 3903 3859 3859 0 0 0 0 0 0 0 0 0 0 0 0 3774 3774 3774 3774 3774 3774 3774 3732 3732 3692 3692 3692 3692 3692 3653 3653 3503 3399 3365 3365 3365 3333 3300 3300 3300 3300 3300 3269 3269 3269 3269 3269 3238 3238 3208 3208 3208 3208 3178 3178 3178 3178 3178 3178 3178 3178 3178 3149 3092 3064 3064 3064 3037 3037 3037 3037 3037 3037 3037 3064 3064 3092 3149 3149 3149 3120 3120 3092 3092 3092 3120 3120 3120 3120 3149 3149 3120 3092 3092 3092 3092 3092 3092 3092 3120 3092 3092 3092 3092 3092 3092 3120 3120 3120 3238 0 3238 3238 0 0 3010 3010 3010 3010 3037 3037 3037 3037 3010 3010 3010 3010 3010 3010 3037 3037 0 0 0 0 0 0 0 0 0 0 0 0 0 0 0 0 0 3903 3903 3948 3903 3903 3903 3903 3903 0 0 0 0 0 0 0 0 0 0 0 0
0 0 0 0 0 0 0 0 0 0 0 0 0 0 0 0 0 0 0 0 0 0 0 0 0 0 0 0 0 0 0 4349 4349 4405 4405 4405 4405 4405 4405 4405 4405 4405 4405 4405 4405 4405 4405 4463 4463 4463 4463 4463 4405 4405 4405 4349 4349 4405 4405 4405 4405 4405 4405 4405 4405 4405 4405 4405 4405 4349 4349 4349 4349 4349 4349 4349 4349 4295 4295 4349 4349 4349 4405 4405 4405 4463 4463 4463 4463 4463 4463 4463 4463 4463 4463 2789 2767 2767 2767 2767 2767 2767 2767 2789 2789 2789 2789 2789 2789 2789 2767 2767 2767 2767 2767 2767 2767 2767 2767 2767 2789 2789 2789 2767 2767 2767 2767 2767 2744 2744 2767 2767 2767 1926 1926 1936 1936 1936 1936 1936 1947 1947 1947 1947 1936 1936 1947 1947 1947 1947 1947 1959 1959 1959 1959 1959 1947 1947 1947 1936 1936 1936 1936 1947 1947 1947 1959 1947 1947 1947 1947 1947 1947 1947 1947 1947 1947 1947 1947 1959 1959 1959 1959 1959 1959 1970 1981 1970 1970 1970 1970 1981 1981 1970 1970 1970 1970 1981 1970 1970 1970 1970 1970 1970 1970 1981 1981 1981 1981 1981 1981 1981 1981 1981 1970 1970 1981 1981 1981 1981 1981 1981 1993 1993 1981 1981 1981 1981 1981 1981 1981 1981 1981 1981 1981 1981 1981 1981 1981 1981 1993 1993 1993 1993 1981 1981 1981 1981 1981 1970 1970 1970 1970 1970 1970 1970 1970 1970 1981 1970 1970 1981 1981 1981 1981 1981 1981 1981 1981 1981 1981 1981 1981 1981 1993 1993 2005 2005 1993 1981 1981 1981 1981 1981 1993 1993 1993 1993 2005 2005 2005 1993 1993 1993 1993 1993 1993 1993 1993 1993 2005 2005 2016 1993 1993 1993 1993 1993 1993 1993 1993 1993 1993 2005 2005 2005 1993 1993 2005 2005 2005 2005 2005 2005 2005 2005 2005 2005 2005 1993 1993 1993 1981 1981 1981 1981 1981 1981 1981 1981 1993 1993 1993 2005 2005 2005 2005 2005 2005 2005 2005 2005 2005 2005 2005 2005 2016 2016 2016 2016 2016 2016 2016 2016 2016 2016 2016 2016 2016 2016 2016 2016 2016 2016 2016 2016 2016 2005 2005 2005 2005 2016 2016 2016 2016 2016 2016 2016 2016 2028 2016 2016 2028 2028 2028 2028 2016 2016 2016 2016 2028 2028 2028 2028 2028 2040 2040 2053 2040 2040 2040 2016 2016 2016 2016 2016 2028 2028 2016 2016 2028 2005 2005 2005 2016 2005 2005 2016 2016 2016 2016 2016 2016 2016 2016 2016 2016 2016 2016 2016 2028 2028 2016 2005 2005 2005 2005 2005 2005 2005 2005 2005 2005 2005 1993 1993 0 0 0 0 0 0 0 3948 3903 3903 3903 3903 3903 3903 3948 3948 3948 3903 3903 0 0 0 0 0 0 0 0 0 0 0 3859 3816 3774 3774 3774 3774 3774 3774 3774 3732 3732 3692 3692 3692 3692 3653 3653 3468 3399 3399 3365 3365 3333 3333 3300 3300 3300 3300 3269 3269 3269 3269 3238 3238 3238 3208 3178 3178 3178 3178 3178 3178 3178 3178 3178 3178 3178 3149 3120 3092 3064 3064 3037 3037 3037 3037 3037 3037 3037 3037 3064 3064 3092 3178 3178 3178 3149 3149 3120 3120 3149 3149 3149 3149 3178 3178 3178 3149 3120 3120 3149 3149 3149 3149 3149 3178 3149 3149 3149 3149 3149 3178 3178 3178 3208 3238 3238 3238 3238 3120 0 3037 3037 3037 3037 3037 3037 3037 3037 3010 3010 3037 3037 3037 3037 3037 3037 0 0 0 4645 4645 4708 0 0 0 0 0 0 0 0 0 0 3859 3859 3859 3948 3903 3903 3903 3903 3903 0 0 0 0 0 0 0 0 0 0 0 0
0 0 0 0 0 0 0 0 0 0 0 0 0 0 0 0 0 0 0 0 0 0 0 0 0 0 0 0 0 0 0 4349 4349 4349 4349 4405 4405 4405 4405 4405 4405 4405 4405 4405 4405 4405 4405 4405 4405 4405 4405 4405 4405 4405 4405 4349 4349 4349 4405 4405 4405 4405 4405 4405 4349 4349 4349 4349 4349 4349 4349 4349 4349 4349 4349 4295 4295 4295 4295 4349 4349 4349 4349 4405 4405 4463 4463 4463 4463 4463 4463 4463 4405 4405 4405 4405 2789 2767 2767 2767 2767 2789 2789 2789 2789 2789 2789 2789 2789 2789 2789 2789 2767 2767 2767 2767 2767 2767 2767 2767 2789 2789 2789 2767 2767 2767 2767 2767 2744 2744 1915 1915 1926 1926 1915 1915 1926 1926 1926 1926 1926 1936 1936 1936 1936 1936 1947 1936 1936 1936 1947 1947 1947 1947 1947 1947 1947 1947 1947 1936 1936 1936 1936 1936 1936 1936 1947 1936 1936 1936 1936 1936 1936 1947 1947 1947 1947 1947 1947 1947 1947 1947 1947 1959 1959 1959 1970 1970 1970 1970 1970 1970 1970 1970 1970 1970 1970 1959 1959 1959 1959 1959 1959 1959 1959 1959 1959 1970 1981 1970 1970 1970 1970 1970 1959 1959 1959 1959 1970 1970 1970 1970 1981 1981 1970 1970 1970 1970 1981 1981 1981 1981 1970 1970 1970 1970 1970 1970 1970 1970 1970 1981 1981 1993 1981 1981 1981 1970 1959 1947 1947 1959 1970 1970 1970 1970 1970 1970 1981 1970 1970 1970 1970 1970 1970 1970 1970 1970 1970 1970 1970 1970 1981 1981 1981 1981 1981 1981 1970 1970 1970 1970 1970 1970 1981 1981 1981 1981 1981 1981 1981 1981 1970 1970 1970 1981 1970 1970 1981 1981 1981 1981 1970 1970 1970 1981 1981 1981 1981 1981 1981 1981 1981 1981 1981 1981 1981 1981 1993 1993 1993 1981 1981 1981 1981 1981 1981 1993 1993 1981 1981 1981 1970 1970 1970 1970 1981 1981 1981 1981 1981 1981 1981 1981 1981 1981 1993 1993 2005 2005 2005 2005 1993 1993 1993 2005 2005 1993 1993 2005 2005 2005 2005 2005 2005 2005 2005 2005 2005 2005 2005 1993 1993 1993 1993 1981 1981 1981 1981 1970 1970 1981 1970 1970 1981 1981 1981 1981 1993 1993 2005 2005 2005 2005 2005 2005 2016 2016 2016 2016 2016 2016 2016 2016 2016 2016 2016 2028 2016 2016 2016 2016 2016 2016 2005 2005 2005 2005 2005 2005 2005 1993 1993 1993 2005 2005 2005 2005 2005 2005 2016 2005 2005 2005 2005 2016 2016 2016 2016 2016 2016 2016 2016 2005 2005 2005 2005 2005 2005 2005 2005 1993 1993 2005 1993 1993 1993 1993 0 0 0 0 0 0 3903 3903 3903 3903 3903 3948 3948 3948 3948 3948 0 0 0 0 0 0 0 0 0 0 0 0 3859 3816 3774 3774 3774 3774 3732 3732 3732 3732 3732 3692 3692 3692 3692 3653 3653 3399 3399 3365 3365 3365 3333 3333 3333 3300 3300 3300 3300 3269 3269 3238 3238 3238 3208 3208 3178 3178 3178 3178 3178 3178 3178 3178 3178 3178 3178 3149 3120 3092 3064 3064 3037 3037 3037 3037 3037 3037 3037 3037 3064 3064 3092 3149 3149 3178 3149 3149 3149 3149 3149 3149 3149 3149 3178 3178 3178 3149 3149 3149 3178 3178 3178 3178 3178 3208 3178 3178 3178 3178 3178 3178 3178 3178 3178 3178 3149 3149 3149 3120 3092 3064 3037 3037 3037 3037 3037 3037 3037 3037 3037 3037 3037 3037 3037 3037 4708 4708 4708 4708 4645 4645 4708 4708 4708 4708 4708 0 0 0 0 0 0 3859 3859 3859 3903 3859 3859 3859 3903 3903 0 0 0 0 0 0 0 0 0 0 0 0
0 0 0 0 0 0 0 0 0 0 0 0 0 0 0 0 0 0 0 0 0 0 0 0 0 0 0 0 0 0 0 4349 4349 4349 4349 4349 4405 4405 4405 4405 4349 4349 4349 4295 4295 4349 4349 4349 4349 4349 4349 4349 4405 4405 4405 4405 4349 4349 4405 4405 4405 4405 4405 4405 4349 4349 4349 4349 4349 4295 4295 4295 4241 4241 4295 4295 4295 4241 4241 4295 4295 4349 4349 4405 4405 4405 4405 4405 4463 4405 4405 4405 4405 4349 4295 4295 2789 2789 2789 2789 2789 2789 2789 2789 2789 2789 2789 2789 2789 2789 2789 2789 2767 2767 2767 2767 2767 2767 2767 2767 2789 2789 2789 2789 2767 2767 2767 2767 1915 1915 1915 1915 1915 1915 1915 1915 1915 1915 1915 1915 1926 1926 1926 1926 1926 1936 1936 1936 1936 1936 1936 1947 1947 1947 1947 1947 1936 1936 1936 1926 1926 1926 1926 1926 1926 1926 1926 1926 1926 1926 1926 1926 1926 1936 1936 1936 1936 1936 1936 1936 1936 1936 1947 1947 1947 1947 1947 1959 1959 1959 1959 1959 1970 1959 1959 1947 1947 1959 1947 1947 1947 1947 1947 1947 1947 1947 1947 1947 1959 1947 1947 1947 1947 1947 1947 1947 1947 1959 1959 1959 1959 1959 1959 1959 1959 1959 1959 1959 1970 1970 1970 1970 1959 1959 1947 1947 1947 1947 1947 1947 1947 1981 1970 1970 1970 1970 1970 1947 1947 1947 1947 1947 1959 1959 1947 1947 1970 1970 1970 1947 1947 1959 1959 1959 1970 1959 1959 1959 1959 1970 1970 1970 1970 1970 1970 1970 1970 1947 1947 1947 1947 1970 1959 1959 1959 1959 1970 1970 1959 1959 1959 1947 1947 1947 1947 1959 1959 1959 1959 1959 1970 1970 1947 1947 1947 1970 1970 1970 1970 1970 1970 1970 1970 1970 1970 1970 1970 1970 1970 1981 1970 1970 1970 1959 1959 1970 1970 1970 1970 1970 1970 1970 1970 1970 1970 1970 1970 1970 1970 1970 1970 1970 1970 1970 1970 1970 1970 1970 1970 1970 1981 1981 1993 1981 1981 1993 1993 1993 1993 1981 1981 1981 1981 1981 1981 1993 1993 1993 1981 1981 1993 1981 1981 1981 1970 1970 1970 1970 1970 1970 1970 1970 1970 1970 1970 1970 1970 1981 1981 1981 1993 1993 1993 1993 1993 1993 1993 1993 1981 1981 1993 1993 1993 1993 1993 1993 1981 1981 1970 1970 1981 1981 1981 1993 1981 1981 1981 1981 1981 1981 1981 1981 1981 1993 1981 1981 1970 1970 1970 1981 1981 1981 1981 1981 1993 1993 1993 1993 1993 1993 1993 1993 1993 1993 1993 1993 1993 1993 1993 1993 1993 1993 1993 1993 1993 1993 1993 1993 0 0 0 0 0 0 3903 3903 3903 3903 3903 3948 3948 3948 3948 3948 0 0 0 0 0 0 0 0 0 0 0 3903 3903 3816 3774 3774 3774 3774 3732 3732 3732 3732 3732 3692 3692 3692 3692 3653 3539 3399 3399 3365 3365 3365 3333 3333 3333 3300 3300 3300 3300 3269 3269 3238 3238 3238 3208 3208 3178 3178 3178 3178 3178 3178 3178 3178 3178 3178 3149 3149 3120 3092 3064 3064 3037 3037 3037 3037 3037 3037 3037 3037 3064 3064 3092 3149 3149 3149 3149 3149 3149 3149 3149 3149 3149 3149 3149 3149 3149 3149 3149 3178 3178 3178 3178 3178 3208 3208 3178 3178 3178 3149 3149 3178 3149 3149 3178 3178 3149 3120 3120 3120 3092 3064 3037 3037 3037 3037 3037 3037 3037 3037 3037 3037 3037 3037 3037 3037 4708 4708 4645 4645 4645 4645 4708 4708 4708 4708 4708 0 0 0 0 0 3903 3903 3859 3859 3859 3859 3859 3859 3903 3903 0 0 0 0 0 0 0 0 0 0 0 0
0 0 0 0 0 0 0 0 0 0 0 0 0 0 0 0 0 0 0 0 0 0 0 0 0 0 0 0 0 0 0 4349 4349 4349 4349 4349 4349 4349 4349 4295 4295 4295 4295 4241 4241 4295 4295 4349 4295 4295 4295 4295 4349 4349 4349 4349 4349 4349 4349 4349 4349 4349 4349 4349 4349 4349 4349 4295 4295 4241 4241 4241 4241 4241 4241 4241 4241 4241 4241 4295 4295 4295 4295 4349 4349 4349 4349 4349 4349 4349 4349 4349 4295 4295 4295 4295 4295 2789 2789 2789 2789 2789 2789 2789 2789 2789 2789 2789 2789 2789 2789 2789 2789 2767 2767 2767 2767 2767 2767 2767 2789 2789 2789 2789 2767 2767 2767 1894 1894 1894 1904 1904 1915 1915 1915 1915 1915 1915 1915 1915 1915 1915 1926 1926 1926 1926 1926 1926 1926 1926 1926 1926 1926 1926 1926 1926 1926 1926 1926 1915 1915 1915 1926 1915 1915 1915 1915 1915 1915 1915 1915 1915 1915 1926 1915 1915 1926 1926 1926 1936 1936 1936 1936 1936 1936 1936 1936 1936 1947 1947 1947 1959 1947 1947 1947 1936 1936 1936 1936 1936 1936 1936 1936 1947 1947 1947 1947 1947 1947 1947 1936 1936 1936 1936 1936 1936 1947 1947 1947 1947 1947 1947 1947 1947 1947 1947 1947 1947 1947 1959 1959 1947 1947 1947 1947 1947 1936 1936 1936 1947 1947 1947 1947 1959 1947 1947 1947 1936 1936 1936 1936 1936 1936 1936 1936 1936 1936 1936 1936 1936 1936 1936 1947 1947 1959 1947 1947 1947 1947 1947 1959 1959 1970 1970 1970 1970 1936 1936 1936 1936 1936 1936 1947 1947 1947 1947 1947 1947 1947 1947 1936 1936 1936 1936 1936 1947 1947 1947 1947 1947 1947 1947 1936 1936 1947 1947 1947 1959 1959 1959 1959 1947 1947 1947 1947 1947 1959 1959 1959 1959 1959 1947 1947 1947 1947 1947 1959 1959 1959 1959 1959 1959 1959 1959 1959 1959 1959 1959 1959 1959 1959 1959 1959 1959 1959 1959 1959 1959 1959 1959 1959 1970 1970 1970 1970 1970 1970 1970 1970 1970 1959 1959 1959 1959 1959 1970 1970 1970 1970 1970 1970 1970 1970 1970 1970 1970 1970 1970 1970 1970 1970 1970 1970 1970 1970 1970 1970 1970 1981 1981 1981 1981 1981 1981 1981 1981 1981 1981 1981 1981 1981 1970 1970 1970 1970 1970 1970 1970 1970 1970 1970 1970 1981 1981 1970 1970 1970 1970 1970 1970 1970 1970 1970 1981 1970 1970 1970 1970 1970 1970 1970 1981 1981 1981 1981 1981 1981 1981 1981 1981 1981 1981 1981 1981 1981 1981 1981 1981 1981 1970 1970 1959 1959 1959 1959 1959 1959 1959 1959 0 0 0 0 0 3903 3903 3903 3903 3903 3948 3948 3948 3948 4089 4190 4295 0 0 0 0 0 0 0 3903 3903 3903 3859 3816 3774 3774 3774 3774 3732 3732 3732 3732 3732 3692 3692 3692 3692 3503 3433 3399 3399 3399 3365 3365 3365 3333 3333 3300 3300 3300 3300 3269 3269 3269 3238 3238 3208 3208 3178 3178 3178 3178 3178 3178 3149 3149 3149 3149 3149 3149 3120 3092 3064 3064 3037 3037 3037 3037 3037 3037 3037 3037 3064 3064 3092 3120 3149 3149 3120 3120 3120 3120 3120 3120 3120 3120 3120 3120 3149 3149 3149 3149 3178 3178 3178 3178 3178 3178 3178 3178 3149 3149 3149 3149 3149 3149 3149 3149 3120 3120 3120 3120 3064 3064 3037 3037 3037 3037 3037 3037 3037 3037 3037 3037 3064 3064 3064 3064 4645 4645 4645 4645 4645 4645 4645 4708 4708 4774 4774 0 0 0 0 0 3903 3859 3859 3859 3859 3859 3859 3859 3903 3903 0 0 0 0 0 0 0 0 0 0 0 0
0 0 0 0 0 0 0 0 0 0 0 0 0 0 0 0 0 0 0 0 0 0 0 0 0 0 0 0 0 0 0 4349 4349 4349 4349 4349 4295 4295 4241 4241 4190 4190 4190 4190 4190 4241 4241 4295 4295 4295 4295 4295 4349 4349 4349 4349 4349 4349 4349 4349 4349 4349 4349 4349 4349 4349 4295 4295 4241 4241 4241 4190 4190 4190 4190 4241 4241 4241 4241 4241 4241 4241 4241 4241 4241 4295 4349 4349 4349 4349 4295 4295 4295 4295 4241 4241 4241 2789 2789 2789 2789 2789 2789 2789 2789 2789 2789 2789 2789 2789 2789 2789 2789 2767 2767 2767 2767 2767 2767 2789 2789 2789 2789 2789 2767 2767 2767 1883 1883 1883 1894 1894 1904 1904 1904 1904 1904 1904 1904 1904 1915 1915 1915 1915 1915 1915 1915 1915 1915 1915 1915 1915 1915 1915 1915 1915 1915 1915 1915 1904 1904 1904 1904 1904 1904 1904 1904 1904 1904 1904 1904 1904 1904 1904 1904 1904 1904 1915 1915 1915 1915 1915 1915 1926 1926 1926 1926 1926 1936 1926 1926 1926 1936 1936 1936 1926 1926 1926 1926 1926 1936 1936 1936 1936 1936 1936 1936 1936 1936 1936 1926 1926 1926 1926 1926 1936 1936 1936 1947 1947 1947 1936 1936 1936 1936 1936 1936 1936 1936 1936 1936 1936 1936 1936 1936 1936 1936 1936 1936 1936 1936 1936 1936 1936 1936 1936 1936 1936 1936 1936 1936 1926 1926 1926 1926 1926 1926 1915 1915 1915 1926 1926 1936 1936 1936 1936 1936 1936 1936 1936 1936 1947 1947 1947 1936 1926 1926 1926 1926 1926 1926 1936 1936 1936 1936 1936 1947 1936 1926 1926 1926 1926 1936 1936 1936 1936 1936 1936 1936 1936 1936 1936 1926 1926 1936 1936 1936 1947 1947 1947 1947 1936 1936 1936 1936 1936 1947 1947 1947 1947 1947 1947 1947 1936 1936 1936 1947 1947 1959 1947 1947 1947 1947 1947 1947 1947 1947 1947 1947 1947 1947 1947 1947 1947 1947 1947 1947 1947 1947 1947 1947 1947 1947 1947 1959 1959 1959 1959 1959 1959 1947 1936 1936 1936 1947 1959 1959 1959 1959 1959 1959 1959 1959 1959 1959 1959 1959 1959 1959 1959 1959 1970 1970 1970 1970 1970 1970 1970 1970 1970 1959 1959 1970 1970 1970 1970 1970 1970 1970 1970 1959 1959 1959 1959 1959 1959 1959 1959 1959 1959 1970 1970 1970 1970 1959 1959 1959 1959 1959 1959 1959 1959 1959 1959 1959 1959 1959 1959 1959 1970 1970 1970 1970 1970 1970 1970 1959 1959 1970 1959 1959 1959 1959 1959 1959 1959 1959 1959 1959 1959 1959 1959 1947 1947 1959 1959 1959 1959 1959 0 0 0 0 0 3903 3903 3903 3903 3948 3948 3948 3948 3994 4089 4139 4241 0 0 0 0 0 0 3816 3816 3859 3859 3859 3816 3774 3774 3774 3774 3774 3774 3774 3732 3732 3692 3692 3692 3653 3433 3433 3399 3399 3399 3365 3365 3365 3365 3333 3333 3300 3300 3300 3300 3269 3269 3238 3238 3208 3208 3178 3178 3178 3178 3178 3178 3149 3149 3149 3149 3149 3120 3092 3092 3064 3064 3037 3037 3037 3037 3037 3037 3037 3064 3064 3064 3092 3092 3092 3092 3092 3092 3092 3092 3092 3092 3092 3092 3120 3120 3120 3120 3120 3120 3120 3120 3120 3120 3120 3120 3120 3092 3092 3092 3092 3092 3092 3092 3092 3092 3092 3092 3064 3064 3064 3037 3037 3037 3037 3037 3037 3037 3037 3037 3037 3064 3064 3064 3064 3064 4582 4582 4582 4582 4582 4582 4582 4774 4774 4774 4774 0 0 0 0 0 3903 3859 3859 3859 3859 3859 3859 3859 3903 3903 0 0 0 0 0 0 0 0 0 0 0 0
0 0 0 0 0 0 0 0 0 0 0 0 0 0 0 0 0 0 0 0 0 0 0 0 0 0 0 0 0 0 0 4349 4349 4349 4349 4349 4295 4241 4241 4190 4190 4190 4139 4139 4190 4190 4241 4295 4241 4241 4241 4295 4295 4295 4295 4295 4295 4295 4295 4295 4295 4295 4295 4295 4295 4295 4295 4241 4241 4241 4190 4190 4190 4190 4190 4241 4241 4241 4241 4241 4241 4241 4190 4190 4190 4241 4295 4295 4295 4295 4295 4295 4295 4295 4241 4241 4241 2789 2789 2789 2789 2789 2789 2789 2789 2789 2789 2789 2789 2789 2789 2789 2789 2767 2767 2767 2767 2767 2767 2789 2789 2789 2789 2789 2789 2789 1873 1873 1873 1873 1883 1883 1883 1894 1894 1894 1894 1894 1894 1894 1904 1904 1904 1904 1904 1904 1904 1904 1904 1904 1904 1904 1904 1904 1904 1904 1904 1904 1904 1904 1904 1904 1904 1904 1904 1894 1894 1894 1894 1894 1894 1904 1904 1904 1904 1904 1904 1904 1904 1904 1904 1904 1904 1915 1915 1904 1904 1904 1904 1904 1904 1915 1915 1915 1915 1904 1904 1904 1904 1904 1915 1915 1926 1926 1926 1926 1926 1926 1915 1915 1915 1915 1915 1904 1904 1904 1915 1936 1936 1926 1926 1926 1926 1926 1926 1926 1926 1926 1926 1926 1926 1926 1936 1936 1936 1936 1936 1936 1936 1936 1936 1936 1915 1915 1915 1926 1926 1926 1926 1926 1926 1915 1915 1915 1915 1915 1915 1904 1904 1904 1915 1915 1926 1926 1926 1926 1926 1926 1926 1926 1926 1926 1926 1926 1926 1926 1915 1915 1915 1915 1915 1915 1926 1926 1926 1926 1926 1926 1926 1926 1926 1926 1926 1926 1926 1936 1936 1936 1926 1926 1926 1926 1926 1926 1926 1926 1926 1936 1936 1936 1936 1936 1936 1936 1936 1936 1936 1936 1936 1936 1936 1936 1936 1926 1926 1926 1936 1936 1936 1936 1936 1936 1936 1936 1926 1926 1926 1926 1926 1926 1926 1926 1936 1936 1936 1936 1936 1936 1936 1936 1936 1936 1936 1936 1936 1936 1936 1936 1936 1936 1926 1926 1926 1926 1936 1936 1947 1947 1947 1959 1947 1947 1947 1947 1947 1947 1947 1947 1947 1959 1959 1959 1959 1959 1959 1970 1959 1959 1959 1959 1947 1947 1959 1959 1959 1959 1959 1959 1959 1959 1947 1947 1936 1936 1936 1947 1947 1947 1947 1947 1959 1959 1959 1959 1959 1947 1947 1947 1947 1936 1936 1936 1947 1947 1947 1947 1947 1947 1959 1959 1959 1959 1959 1959 1959 1947 1947 1947 1947 1947 1947 1947 1947 1947 1947 1947 1947 1947 1947 1947 1947 1947 1947 1947 1947 1947 1947 1959 0 0 0 0 0 1317 1312 1312 1317 3903 3948 3948 3994 3994 3994 4089 4139 4241 0 0 0 0 0 0 3774 3774 3859 3816 3816 3816 3774 3774 3774 3774 3774 3774 3774 3732 3732 3732 3692 3692 3653 3433 3433 3399 3399 3399 3365 3365 3365 3365 3365 3365 3333 3333 3300 3300 3269 3269 3238 3238 3208 3208 3178 3178 3178 3178 3178 3178 3149 3149 3149 3149 3120 3120 3092 3064 3064 3064 3064 3037 3037 3037 3037 3037 3037 3064 3064 3064 3092 3092 3092 3092 3092 3092 3064 3064 3092 3092 3092 3092 3092 3092 3092 3092 3120 3120 3120 3092 3092 3092 3092 3092 3092 3092 3092 3092 3092 3092 3064 3064 3064 3092 3064 3064 3064 3064 3037 3037 3037 3037 3037 3037 3037 3037 3037 3037 3037 3064 3064 3037 3037 3037 4582 4582 4582 4582 4522 4522 4582 4708 4708 4645 4645 0 0 0 0 3948 3903 3859 3859 3859 3859 3859 3859 3859 3903 3903 0 0 0 0 0 0 0 0 0 0 0 0
0 0 0 0 0 0 0 0 0 0 0 0 0 0 0 0 0 0 0 0 0 0 0 0 0 0 0 0 0 0 0 4349 4349 4295 4295 4349 4295 4241 4241 4190 4190 4190 4139 4139 4190 4190 4190 4241 4241 4241 4241 4241 4295 4241 4241 4241 4295 4241 4241 4241 4241 4241 4295 4295 4295 4295 4295 4241 4241 4241 4190 4190 4190 4190 4190 4241 4241 4241 4241 4241 4241 4241 4190 4190 4190 4190 4241 4241 4241 4241 4295 4295 4295 4295 4295 4295 0 0 0 0 2812 2789 2789 2789 2789 2789 2789 2789 2789 2789 2789 2789 2789 2767 2767 2767 2767 2789 2789 2789 2789 2789 2789 2812 2812 1873 1863 1863 1863 1863 1863 1873 1873 1873 1873 1873 1873 1873 1873 1873 1883 1894 1894 1894 1894 1894 1894 1894 1894 1894 1894 1894 1894 1894 1894 1894 1894 1904 1904 1894 1894 1894 1894 1894 1894 1894 1894 1894 1894 1894 1894 1894 1894 1894 1894 1894 1894 1894 1894 1894 1894 1894 1904 1904 1904 1894 1894 1894 1894 1894 1894 1894 1894 1894 1894 1894 1894 1894 1894 1894 1894 1904 1915 1915 1915 1915 1915 1915 1904 1904 1904 1904 1904 1904 1894 1894 1904 1915 1915 1904 1904 1904 1904 1904 1904 1915 1915 1915 1915 1915 1915 1915 1915 1915 1926 1926 1926 1926 1915 1915 1915 1904 1904 1904 1904 1904 1904 1904 1915 1915 1915 1904 1904 1904 1904 1904 1904 1904 1904 1904 1904 1915 1915 1915 1926 1926 1926 1926 1915 1915 1915 1926 1926 1915 1915 1915 1915 1904 1904 1904 1904 1904 1915 1915 1915 1915 1915 1915 1915 1915 1926 1915 1915 1915 1926 1926 1926 1915 1915 1915 1915 1915 1915 1915 1915 1915 1915 1926 1926 1926 1926 1926 1926 1926 1926 1926 1926 1926 1926 1926 1926 1926 1926 1915 1915 1915 1915 1926 1926 1915 1915 1915 1915 1904 1904 1904 1904 1904 1915 1915 1915 1915 1926 1926 1926 1926 1926 1926 1926 1926 1926 1926 1926 1926 1926 1926 1926 1926 1926 1926 1926 1926 1926 1926 1926 1926 1936 1936 1936 1947 1936 1936 1926 1926 1936 1936 1936 1936 1936 1947 1947 1947 1947 1947 1959 1959 1959 1947 1947 1947 1936 1936 1936 1936 1936 1959 1959 1959 1959 1947 1936 1936 1926 1926 1926 1926 1926 1926 1936 1936 1936 1947 1947 1947 1947 1936 1936 1936 1936 1926 1926 1936 1936 1947 1926 1926 1936 1936 1947 1947 1947 1947 1947 1936 1936 1936 1936 1936 1936 1936 1936 1936 1936 1936 1936 1936 1936 1936 1936 1936 1936 1936 1936 1947 1947 1947 1947 1959 0 1317 1317 1317 1317 1312 1312 1312 1312 1312 1312 1312 1317 1317 1317 4190 4190 4241 0 0 0 0 0 0 3774 3774 3859 3816 3816 3774 3774 3774 3774 3774 3774 3774 3774 3732 3732 3732 3692 3692 3653 3468 3433 3433 3399 3399 3399 3399 3399 3399 3365 3365 3333 3333 3300 3300 3269 3269 3238 3238 3208 3208 3178 3178 3178 3178 3178 3178 3149 3149 3149 3149 3120 3120 3092 3064 3064 3064 3037 3037 3037 3037 3037 3037 3037 3064 3064 3064 3064 3064 3064 3092 3092 3064 3064 3064 3064 3064 3092 3092 3092 3092 3092 3092 3092 3092 3092 3092 3064 3064 3064 3064 3064 3064 3064 3064 3064 3064 3064 3064 3064 3064 3037 3037 3037 3037 3037 3037 3037 3037 3037 3037 3037 3037 3037 3037 3037 3037 3037 3037 3037 3037 4645 4582 4582 4522 4522 4522 4582 4708 4708 4645 4645 0 0 0 3903 3903 3859 3859 3859 3859 3859 3859 3903 3903 3903 3994 0 0 0 0 0 0 0 0 0 0 0 0
0 0 0 0 0 0 0 0 0 0 0 0 0 0 0 0 0 0 0 0 0 0 0 0 0 0 0 0 0 0 0 4349 4295 4241 4241 4241 4241 4190 4190 4190 4190 4190 4139 4139 4190 4190 4190 4190 4190 4190 4190 4190 4190 4190 4190 4241 4241 4241 4241 4241 4241 4241 4241 4241 4241 4241 4241 4241 4241 4241 4190 4190 4190 4190 4190 4241 4241 4241 4241 4241 4190 4190 4190 4190 4190 4190 4241 4190 4190 4241 4241 4241 4241 4295 4295 0 0 0 0 0 2812 2789 2789 2789 2789 2789 2789 2789 2789 2789 2789 2789 2789 2789 2789 2789 2789 2789 2789 2789 2789 2789 2812 2859 2859 1873 1853 1853 1843 1843 1853 1863 1863 1863 1873 1873 1863 1863 1863 1873 1873 1873 1873 1873 1873 1873 1873 1873 1873 1873 1863 1863 1863 1863 1863 1863 1863 1873 1894 1894 1883 1883 1883 1883 1883 1883 1883 1894 1883 1883 1883 1894 1894 1883 1883 1883 1894 1894 1894 1894 1894 1894 1894 1894 1894 1894 1894 1894 1894 1894 1894 1894 1894 1894 1894 1894 1883 1883 1883 1894 1894 1894 1904 1904 1894 1894 1904 1904 1904 1904 1894 1894 1894 1894 1894 1894 1894 1894 1904 1894 1894 1904 1904 1894 1894 1904 1904 1904 1904 1904 1904 1904 1904 1904 1904 1904 1915 1915 1904 1904 1904 1904 1894 1894 1894 1894 1894 1894 1894 1904 1904 1904 1894 1894 1894 1894 1894 1894 1894 1894 1904 1904 1915 1915 1915 1915 1915 1915 1904 1904 1904 1915 1915 1915 1915 1915 1904 1904 1904 1904 1894 1894 1904 1915 1915 1915 1915 1915 1915 1904 1904 1915 1915 1915 1915 1915 1915 1904 1904 1904 1904 1904 1904 1904 1904 1904 1904 1915 1915 1915 1915 1915 1915 1915 1915 1926 1915 1915 1915 1915 1915 1915 1904 1904 1904 1904 1915 1915 1915 1904 1894 1894 1894 1894 1894 1894 1894 1894 1904 1904 1904 1904 1915 1915 1915 1926 1926 1926 1926 1926 1926 1926 1926 1926 1926 1915 1915 1915 1915 1915 1915 1915 1915 1915 1915 1926 1926 1926 1926 1926 1926 1926 1926 1926 1926 1926 1926 1926 1926 1926 1926 1926 1926 1947 1947 1947 1947 1936 1936 1926 1926 1926 1926 1926 1926 1926 1926 1926 1936 1936 1936 1926 1926 1926 1926 1926 1926 1926 1926 1926 1926 1936 1936 1936 1926 1926 1926 1926 1926 1915 1915 1915 1915 1915 1915 1926 1926 1926 1936 1926 1926 1926 1926 1926 1926 1936 1936 1936 1936 1915 1915 1915 1915 1926 1926 1926 1926 1926 1926 1926 1926 1926 1926 1926 1926 1926 1947 1947 1312 1312 1312 1317 1317 1312 1312 1312 1307 1307 1312 1312 1312 1317 1317 4190 4190 4241 0 0 0 0 0 0 3774 3774 3816 3816 3816 3774 3774 3774 3774 3774 3774 3774 3774 3732 3732 3732 3692 3692 3653 3468 3433 3433 3399 3399 3399 3399 3399 3399 3399 3399 3365 3333 3300 3300 3269 3269 3238 3238 3238 3208 3208 3178 3178 3178 3178 3178 3149 3149 3149 3149 3120 3120 3092 3064 3064 3064 3037 3037 3037 3037 3037 3037 3037 3064 3064 3064 3064 3064 3064 3064 3064 3064 3064 3064 3064 3064 3064 3064 3092 3092 3092 3064 3064 3064 3064 3064 3064 3064 3064 3064 3064 3064 3064 3064 3064 3064 3064 3064 3064 3064 3037 3037 3037 3037 3037 3037 3037 3037 3037 3037 3037 3037 3037 3037 3037 3037 3037 3037 3010 2984 2984 2984 2984 4463 4463 4463 4463 4463 4463 4463 4582 4582 4463 0 3903 3903 3859 3859 3859 3859 3859 3859 3903 3903 3903 3994 0 0 0 0 0 0 0 0 0 0 0 0
0 0 0 0 0 0 0 0 0 0 0 0 0 0 0 0 0 0 0 0 0 0 0 0 0 0 0 0 0 0 0 4349 4241 4241 4241 4241 4241 4190 4190 4190 4190 4190 4139 4139 4190 4190 4190 4190 4190 4190 4139 4139 4139 4139 4139 4190 4241 4241 4241 4241 4241 4241 4241 4241 4241 4241 4241 4190 4190 4241 4190 4190 4190 4190 4190 4241 4241 4241 4241 4190 4190 4190 4139 4139 4139 4190 4190 4190 4190 4241 4241 4241 4241 4295 0 0 0 0 0 0 2812 2789 2789 2789 2789 2789 2789 2789 2789 2789 2789 2789 2789 2789 2789 2789 2789 2789 2789 2789 2789 2789 2789 2812 2812 1843 1843 1843 1843 1843 1843 1853 1853 1853 1853 1863 1863 1863 1863 1863 1863 1863 1863 1863 1863 1863 1863 1863 1863 1863 1863 1863 1863 1853 1853 1853 1863 1863 1863 1853 1853 1853 1853 1853 1853 1853 1853 1863 1863 1863 1863 1873 1873 1873 1873 1873 1873 1873 1873 1873 1873 1883 1873 1873 1873 1873 1883 1883 1883 1883 1883 1883 1883 1883 1883 1883 1883 1883 1883 1883 1883 1883 1894 1894 1894 1894 1894 1894 1894 1894 1883 1883 1883 1883 1883 1883 1883 1883 1883 1883 1883 1894 1894 1894 1894 1894 1894 1894 1894 1894 1894 1894 1894 1894 1894 1904 1904 1904 1894 1894 1894 1894 1894 1894 1894 1883 1883 1883 1883 1894 1894 1894 1894 1894 1894 1894 1894 1894 1894 1894 1894 1904 1915 1915 1904 1904 1915 1904 1894 1894 1894 1904 1904 1904 1904 1904 1904 1894 1894 1894 1894 1894 1894 1904 1904 1904 1904 1904 1904 1904 1904 1904 1904 1904 1904 1904 1894 1894 1894 1894 1894 1894 1894 1894 1894 1904 1904 1904 1904 1904 1904 1904 1904 1904 1904 1915 1904 1904 1904 1894 1894 1904 1904 1904 1904 1904 1904 1904 1894 1883 1883 1883 1883 1883 1883 1883 1883 1883 1894 1894 1894 1894 1904 1904 1904 1904 1915 1915 1915 1915 1915 1915 1915 1915 1904 1904 1904 1904 1904 1904 1904 1915 1915 1915 1915 1915 1915 1915 1915 1915 1915 1915 1915 1915 1915 1915 1915 1915 1915 1915 1915 1904 1904 1926 1936 1926 1926 1915 1915 1915 1915 1915 1915 1915 1915 1915 1926 1926 1926 1926 1926 1926 1915 1915 1915 1915 1915 1915 1926 1926 1926 1926 1936 1936 1915 1915 1915 1915 1915 1915 1915 1915 1915 1915 1915 1915 1915 1926 1926 1915 1915 1915 1915 1915 1915 1915 1915 1915 1915 1904 1904 1904 1904 1915 1915 1915 1915 1915 1915 1915 1915 1915 1915 1915 1904 1904 1904 1904 1312 1312 1312 1312 1312 1307 1307 1307 1307 1307 1307 1312 1312 1317 1317 4190 4190 4241 0 0 0 0 0 0 3774 3774 3774 3774 3774 3774 3774 3774 3774 3774 3774 3774 3774 3732 3732 3732 3692 3692 3653 3468 3433 3433 3399 3399 3399 3399 3399 3399 3433 3732 3732 3732 3732 3300 3269 3269 3269 3238 3238 3208 3208 3208 3178 3178 3178 3178 3178 3149 3149 3149 3120 3120 3092 3064 3064 3064 3064 3064 3037 3037 3064 3064 3064 3064 3064 3064 3064 3064 3064 3064 3064 3064 3064 3064 3064 3064 3064 3064 3064 3064 3064 3064 3064 3064 3064 3064 3064 3064 3064 3064 3064 3064 3064 3064 3064 3064 3064 3064 3064 3064 3010 3010 3037 3037 3037 3037 3037 3037 3037 3037 3037 3037 3037 3037 3037 3037 3037 3037 3010 2984 2984 2984 2984 4463 4405 4405 4463 4463 4463 4463 4463 4463 4463 4190 3903 3903 3903 3903 3859 3859 3859 3859 3903 3948 3948 3994 0 0 0 0 0 0 0 0 0 0 0 0
0 0 0 0 0 0 0 0 0 0 0 0 0 0 0 0 0 0 0 0 0 0 0 0 0 0 0 0 0 0 0 0 4241 4190 4190 4190 4139 4139 4190 4190 4139 4139 4139 4139 4190 4190 4139 4139 4139 4139 4139 4089 4089 4089 4139 4190 4190 4241 4241 4241 4190 4190 4190 4190 4190 4190 4190 4190 4190 4190 4139 4139 4139 4190 4190 4241 4241 4241 4190 4190 4190 4190 4139 4139 4139 4139 4190 4190 4190 4190 4241 4241 4295 0 0 0 0 0 0 0 2812 2789 2789 2789 2789 2789 2789 2789 2789 2789 2789 2789 2789 2789 2789 2789 2789 2789 2789 2789 2789 2789 2789 2812 2812 1833 1833 1833 1833 1833 1833 1843 1843 1833 1833 1853 1853 1853 1853 1853 1853 1843 1843 1853 1853 1853 1843 1843 1843 1843 1843 1843 1843 1843 1843 1843 1843 1843 1843 1833 1833 1833 1843 1843 1843 1843 1853 1853 1853 1853 1853 1853 1853 1843 1843 1853 1853 1853 1843 1843 1853 1853 1853 1853 1853 1863 1863 1863 1863 1863 1863 1863 1873 1873 1873 1863 1863 1863 1873 1863 1863 1863 1863 1863 1863 1863 1863 1863 1863 1863 1873 1873 1873 1873 1873 1873 1873 1873 1873 1873 1873 1873 1883 1883 1883 1883 1883 1883 1883 1883 1883 1883 1873 1873 1873 1883 1894 1894 1883 1883 1883 1883 1883 1883 1883 1873 1873 1873 1873 1883 1894 1883 1883 1883 1883 1883 1883 1883 1894 1894 1894 1894 1894 1894 1894 1894 1894 1894 1894 1894 1883 1883 1894 1904 1904 1894 1894 1894 1894 1894 1883 1883 1883 1883 1883 1894 1883 1883 1894 1894 1894 1894 1883 1883 1894 1883 1883 1883 1883 1883 1883 1883 1894 1894 1894 1894 1894 1894 1894 1894 1894 1894 1894 1894 1904 1904 1894 1894 1894 1894 1894 1894 1894 1894 1894 1894 1894 1894 1894 1883 1873 1873 1873 1873 1873 1873 1873 1883 1883 1883 1883 1894 1894 1894 1894 1894 1904 1904 1904 1904 1904 1904 1904 1904 1894 1894 1894 1894 1904 1904 1904 1904 1904 1904 1904 1904 1904 1904 1904 1904 1904 1904 1904 1904 1904 1904 1904 1904 1894 1894 1894 1894 1894 1894 1894 1894 1894 1904 1904 1904 1894 1894 1904 1904 1904 1904 1915 1915 1915 1915 1915 1915 1915 1915 1915 1915 1904 1904 1915 1915 1915 1915 1915 1915 1915 1904 1904 1904 1904 1904 1904 1904 1904 1904 1915 1915 1915 1904 1904 1904 1904 1904 1904 1904 1904 1904 1904 1904 1904 1904 1894 1894 1904 1904 1904 1915 1915 1904 1904 1904 1915 1904 1904 1904 1894 1894 1894 1307 1312 1312 1312 1312 1312 1307 1307 1307 1302 1302 1307 1307 1312 1312 1307 1307 1307 0 0 0 0 0 0 0 3774 3774 3774 3774 3774 3774 3774 3774 3774 3774 3774 3774 3774 3732 3732 3732 3692 3692 3653 3468 3433 3433 3399 3399 3399 3399 3399 3433 3692 3732 3732 3732 3732 3774 3269 3269 3269 3238 3238 3208 3208 3208 3178 3178 3178 3178 3178 3149 3149 3149 3120 3120 3092 3064 3064 3064 3064 3064 3037 3037 3064 3064 3064 3064 3064 3064 3064 3064 3037 3037 3064 3064 3064 3064 3064 3064 3064 3064 3064 3064 3064 3064 3064 3064 3064 3064 3064 3064 3064 3064 3064 3064 3064 3064 3064 3064 3064 3064 3064 3064 3010 3010 3010 3037 3037 3037 3037 3037 3037 3037 3037 3037 3037 3037 3037 3037 3037 3037 3010 2984 2984 2984 4463 4405 4405 4405 4405 4405 4405 4405 4405 4405 4405 4190 4190 3948 3903 3903 3859 3859 3859 3859 3903 3948 3948 3994 0 0 0 0 0 0 0 0 0 0 0 0
