0 0 0 0 0 0 0 0 0 0 0 0 0 0 0 0 0 0 0 0 0 0 0 0 0 0 0 0 0 0 4645 4645 4645 4645 4645 4582 4582 4582 5832 5832 5832 5832 5832 5832 5933 5933 5933 6259 5933 5832 5832 5933 5933 5933 6038 6038 6146 6146 6259 6259 6259 6038 6038 5933 5832 5832 5832 5832 5832 5832 5832 5832 5832 5832 5832 5832 6038 6038 6146 6146 6259 6259 6259 6259 6259 6259 6259 6259 6259 6259 6259 6259 6259 6259 6259 6375 6375 6375 6375 6375 6375 6375 6375 6375 6375 6259 6259 6259 6259 6259 6259 6259 6259 6259 6259 6375 6259 6259 6259 6259 6259 6259 6259 6375 6497 6497 6497 6375 6375 6497 6497 6497 6497 6497 6497 6622 6622 6622 6622 6622 6622 6497 6497 6622 6622 6622 6497 6497 6497 6497 6375 6146 6038 5933 5734 5734 5734 5734 5734 5734 5734 5832 5832 5832 5933 5832 5832 2859 2859 2883 2883 2883 2883 2908 2908 2883 2883 2883 2883 2859 2859 2859 2859 2859 2859 2835 2835 2835 2859 2859 2859 2859 2859 2859 2859 2859 2859 2859 2883 2859 2859 2883 2859 2859 2859 2859 2859 2859 2859 2859 2859 2883 2883 2883 2883 2883 2908 2908 2933 2933 2933 2933 2933 2958 2984 3010 3010 2984 2984 3010 2984 2984 2984 2984 2984 2984 2984 2984 2984 2984 3010 3010 2958 2933 2933 2933 2933 3037 3010 3010 3037 3037 3064 3064 3092 3010 2958 2933 2933 2933 2933 2958 2958 3010 3037 3064 3037 3037 3092 3092 3092 3092 3120 3120 3120 3120 3149 3149 3149 3149 7030 7030 7030 7178 7178 7178 7332 7332 7332 7332 7332 7178 7030 7030 7030 6889 6889 7030 7030 7030 7030 7178 7178 7178 7178 7332 7492 7492 7492 7332 7332 7332 7332 7332 7178 7178 7332 7492 7492 7660 7492 7492 7660 7492 7492 7492 7492 7492 7492 7492 7660 7660 7492 7492 7492 7492 7332 7332 7332 7332 7332 7332 7332 7178 7030 7030 7178 7178 7178 7332 7332 7332 7492 7492 7492 7492 7492 5132 5132 5132 5132 5132 5132 5132 5132 5132 5132 5132 5132 5056 5056 5132 5056 5056 5056 4983 4983 4911 4911 4911 4911 4911 4911 4911 4842 4842 4842 4842 4842 4842 4842 4842 4842 4842 4842 4842 4842 4842 4842 4842 4842 4842 4774 4774 4774 4774 4774 4842 4842 4708 4708 4774 4708 4708 4774 4774 4774 4774 4774 4774 4774 4774 4774 4774 4842 4842 4842 4842 6622 6622 6622 6497 6497 6622 6622 6497 6497 6375 6375 6375 6375 6259 6259 6259 6375 6375 6497 6622 6622 6497 6497 6497 6622 6497 6497 6497 6497 6497 6497 6497 6497 6497 6497 6497 6622 4089 4041 4041 4041 4041 4041 4041 4089 4089 4089 4089 4089 4089 4089 4139 4089 4089 4139 4089 4089 4089 4089 4089 4089 4089 4089 4089 4089 4089 4139 4089 4089 4089 4089 4089 4089 4089 4089 4089 4089 4139 4139 4139 4139 4139 4190 4190 4842 4774 4774 4774 4774 4774 4774 4774 4774 4774 4708 4708 4708 4708 4708 4708 4708 4708 4708 4645 4645 4645 4582 4582 4645 4645 4645 4645 4645 4708 4645 4645 4645 4645 4645 4645 4645 4645 4645 4645 4645 4645 4645 4645 4645 4645 4645 4645 4645 4645 4645 4645 4645 4645 4645 4708 4708 4708 4708 4708 4708 4708 4708 4645 4582 4582 4645 4645 4582 4582 4582 4582 4645 4582 4582 4645 4645 4645 4645 4645 4645 4708 4708 4708 4708 4645 4645 4645 4645 4708 4645 4645 4708 4708 4708 4708 4774 4708 4708 4774 4774 4842 4842 4842 4842 4842 4842 4842 4842 4911 4911 4911 4983 4983 4983 0 0 0 0 0 0 0 0 0 0 0 0 0
0 0 0 0 0 0 0 0 0 0 0 0 0 0 0 0 0 0 0 0 0 0 0 0 0 0 0 0 0 0 4645 4645 4708 4708 4708 4645 4645 4645 5832 5832 5734 5734 5832 5832 5933 5933 5933 5933 5933 5832 5832 5933 5933 5933 6038 6038 6038 6146 6146 6259 6146 5933 5933 5933 5832 5832 5832 5832 5832 5832 5832 5832 5832 5832 5832 5832 6038 6038 6038 6146 6146 6259 6259 6259 6259 6259 6259 6259 6259 6259 6259 6259 6259 6259 6259 6375 6375 6375 6375 6375 6375 6375 6375 6375 6375 6375 6259 6259 6259 6259 6259 6259 6375 6375 6375 6375 6375 6375 6375 6375 6375 6375 6497 6497 6497 6497 6497 6375 6375 6375 6497 6497 6497 6497 6497 6622 6622 6622 6622 6622 6497 6497 6497 6497 6622 6622 6497 6497 6497 6497 6375 6038 5933 5933 5734 5734 5734 5734 5832 5832 5832 5832 5832 5933 5933 5832 5832 5832 5832 2883 2883 2908 2933 2933 2933 2933 2933 2958 2933 2883 2883 2883 2883 2883 2883 2859 2859 2859 2859 2859 2859 2859 2859 2859 2859 2859 2883 2883 2908 2883 2883 2908 2883 2883 2883 2883 2883 2883 2883 2883 2883 2908 2908 2908 2933 2933 2933 2958 2958 2958 2958 2984 2984 3010 3037 3037 3037 3037 3037 3037 3037 3037 3037 3010 3010 3037 3037 3037 3037 3037 3037 3037 3037 3037 3064 3037 3037 3037 3037 3037 3037 3064 3064 3064 3092 3092 3092 3092 3092 3092 3092 3037 3037 3037 3092 3092 3092 3092 3092 3092 3120 3120 3120 3149 3149 3149 3149 3149 3149 3149 6889 6889 7030 7030 7030 7178 7332 7332 7332 7332 7178 7178 7030 7030 7030 7030 7030 6889 6889 7030 7030 7030 7178 7178 7178 7332 7332 7492 7332 7332 7332 7178 7178 7178 7178 7178 7178 7332 7492 7492 7492 7492 7660 7492 7492 7492 7492 7492 7492 7492 7660 7492 7492 7492 7492 7492 7332 7332 7332 7332 7332 7332 7178 7030 7030 7030 7030 7030 7030 7178 7332 7332 7332 7332 7332 7332 7332 5132 5132 5132 5132 5132 5132 5132 5132 5132 5132 5132 5132 5056 5056 5132 5056 5056 5056 4983 4983 4911 4911 4911 4911 4911 4911 4911 4842 4842 4842 4842 4842 4842 4842 4842 4842 4842 4842 4842 4842 4842 4842 4842 4842 4842 4774 4774 4774 4774 4774 4842 4842 4708 4708 4774 4774 4774 4774 4774 4774 4774 4774 4774 4774 4774 4774 4774 4842 4911 4911 4911 6622 6622 6622 6497 6497 6622 6622 6497 6497 6375 6375 6375 6375 6375 6375 6375 6375 6375 6497 6622 6622 6497 6497 6622 6622 6497 6497 6497 6497 6497 6497 6497 6375 6375 6259 6259 4089 4089 4041 4041 4041 4041 4041 4041 4041 4089 4089 4089 4089 4089 4089 4089 4089 4089 4139 4139 4139 4139 4139 4139 4139 4139 4139 4139 4139 4139 4139 4089 4089 4089 4089 4089 4089 4089 4089 4089 4089 4089 4089 4089 4139 4139 4139 4139 4774 4774 4774 4774 4842 4774 4774 4774 4774 4774 4774 4774 4774 4708 4708 4708 4708 4708 4708 4708 4708 4708 4582 4582 4645 4645 4645 4645 4645 4708 4645 4645 4645 4645 4645 4645 4645 4645 4645 4645 4645 4708 4708 4708 4645 4645 4645 4645 4645 4645 4645 4645 4645 4645 4645 4645 4645 4708 4708 4645 4645 4708 4708 4645 4645 4645 4645 4645 4645 4582 4582 4582 4645 4582 4582 4645 4645 4645 4645 4645 4645 4708 4708 4708 4708 4708 4708 4645 4645 4708 4708 4708 4708 4708 4708 4708 4774 4708 4708 4774 4774 4842 4842 4842 4842 4842 4842 4842 4911 4911 4983 4983 4983 4983 4983 0 0 0 0 0 0 0 0 0 0 0 0 0
0 0 0 0 0 0 0 0 0 0 0 0 0 0 0 0 0 0 0 0 0 0 0 0 0 0 0 0 0 0 4582 4582 4774 4774 4774 4774 4774 4842 4842 5832 5734 5734 5832 5832 5832 5832 5832 5832 5832 5933 5933 5933 5933 5933 5933 5933 5933 6038 6038 6038 6038 5933 5933 5933 5832 5832 5832 5832 5832 5832 5832 5832 5832 5832 5832 5832 5832 6038 6038 6146 6146 6259 6259 6259 6259 6259 6259 6259 6259 6259 6259 6259 6259 6259 6259 6375 6375 6375 6375 6375 6375 6375 6375 6375 6375 6375 6259 6259 6259 6259 6259 6259 6375 6375 6375 6375 6375 6375 6375 6375 6375 6497 6497 6497 6497 6375 6375 6375 6375 6375 6497 6497 6497 6497 6497 6622 6622 6622 6622 6622 6497 6497 6497 6497 6622 6622 6622 6622 6497 6497 6259 6038 5933 5933 5734 5734 5734 5734 5832 5832 5832 5832 5734 5734 5933 5832 5832 5734 5734 2933 2933 2933 2933 2958 2958 2958 2958 2958 2984 2933 2933 2933 2933 2908 2908 2883 2883 2883 2883 2859 2859 2859 2859 2859 2883 2883 2908 2908 2958 2958 2958 2958 2908 2908 2908 2908 2908 2908 2908 2908 2908 2933 2933 2958 2958 2984 2984 2984 3010 3010 3010 3010 3037 3037 3037 3064 3064 3064 3064 3064 3064 3064 3064 3064 3064 3064 3064 3064 3064 3064 3064 3064 3064 3064 3064 3064 3037 3037 3064 3064 3064 3064 3092 3092 3092 3092 3092 3092 3092 3092 3092 3092 3092 3092 3092 3120 3120 3120 3120 3120 3149 3149 3149 3149 3149 3149 3149 3149 3149 3149 6889 6889 7030 7030 7030 7030 7178 7178 7178 7178 7030 7030 7030 7030 7030 7030 7030 6889 6889 7030 7030 7030 7030 7030 7030 7178 7178 7332 7332 7178 7178 7178 7178 7178 7178 7178 7178 7332 7492 7492 7492 7492 7660 7492 7492 7492 7492 7492 7332 7332 7492 7332 7332 7332 7332 7332 7332 7332 7332 7178 7178 7178 7030 6889 6889 7030 7030 7030 7030 7178 7178 7332 7332 7332 7332 7332 7332 5056 5056 5132 5132 5132 5132 5132 5132 5132 5132 5132 5132 5056 5056 5132 5132 5056 5056 4983 4983 4911 4911 4911 4911 4911 4911 4842 4842 4842 4842 4842 4842 4842 4842 4842 4911 4911 4911 4911 4911 4842 4842 4842 4842 4842 4842 4842 4842 4774 4774 4842 4842 4708 4708 4774 4774 4774 4774 4774 4774 4774 4774 4774 4774 4774 4842 4842 4842 4911 4911 4911 4983 5056 6622 6622 6622 6622 6497 6497 6497 6375 6375 6375 6375 6259 6259 6259 6259 6375 6497 6622 6753 6497 6497 6622 6622 6622 6497 6497 6497 6497 6497 6375 6375 6259 6259 6259 4089 4089 4089 4089 4089 4089 4041 4041 4041 4089 4089 4089 4089 4089 4089 4089 4089 4089 4139 4139 4139 4139 4139 4139 4139 4139 4139 4139 4139 4139 4139 4089 4089 4139 4089 4089 4089 4139 4089 4089 4089 4089 4089 4089 4089 4089 4089 4089 4774 4774 4774 4842 4842 4774 4774 4774 4774 4774 4774 4774 4774 4774 4774 4708 4708 4708 4708 4708 4645 4582 4582 4582 4582 4582 4645 4645 4645 4708 4708 4708 4645 4645 4708 4645 4645 4645 4645 4645 4645 4645 4708 4708 4708 4708 4708 4645 4645 4645 4645 4645 4645 4645 4645 4645 4645 4708 4708 4645 4645 4708 4708 4645 4645 4645 4645 4645 4645 4645 4645 4645 4645 4582 4582 4645 4645 4645 4645 4645 4645 4645 4708 4708 4708 4708 4708 4708 4708 4708 4708 4708 4708 4708 4708 4708 4708 4708 4708 4774 4774 4842 4842 4842 4842 4842 4842 4911 4911 4911 4983 4983 4983 4983 4983 0 0 0 0 0 0 0 0 0 0 0 0 0
0 0 0 0 0 0 0 0 0 0 0 0 0 0 0 0 0 0 0 0 0 0 0 0 0 0 0 0 0 0 4582 4582 4774 4774 4774 4842 4842 4842 5832 5832 5832 5832 5832 5832 5832 5832 5832 5832 5832 5933 5933 5933 5933 5933 5933 5933 5933 6038 6038 6038 6038 5933 5933 5933 5933 5832 5832 5832 5832 5832 5832 5832 5832 5832 5832 5832 6146 6146 6146 6146 6146 6146 6259 6259 6259 6259 6259 6259 6259 6259 6259 6259 6259 6259 6259 6259 6259 6259 6375 6375 6375 6375 6375 6375 6375 6375 6375 6259 6259 6259 6259 6259 6375 6375 6375 6375 6375 6375 6375 6375 6375 6497 6497 6497 6497 6375 6375 6375 6375 6375 6497 6497 6497 6497 6497 6622 6622 6622 6622 6622 6622 6497 6497 6497 6497 6622 6622 6622 6497 6497 6259 6146 5933 5933 5734 5734 5734 5734 5832 5832 5832 5832 5734 5734 5933 5832 5832 5734 5734 5734 2958 2958 2958 2958 2984 2984 2984 3010 3010 2984 2984 2958 2958 2933 2933 2933 2933 2933 2933 2908 2908 2908 2908 2908 2908 2933 2958 2958 2984 3010 2984 2984 2958 2958 2958 2958 2958 2958 2958 2958 2958 2984 2984 2984 3010 3010 3010 3037 3037 3037 3037 3064 3064 3064 3064 3064 3064 3064 3064 3064 3064 3064 3064 3064 3064 3064 3064 3064 3064 3064 3064 3092 3092 3064 3064 3064 3064 3064 3064 3064 3064 3064 3092 3092 3092 3092 3092 3092 3092 3092 3092 3120 3120 3120 3120 3120 3120 3120 3149 3149 3149 3149 3149 3149 3149 3149 3149 3149 3149 3120 3120 6889 6889 6889 6889 7030 7030 7030 7030 7030 7030 7030 7030 7030 7030 7030 7030 7030 7030 7030 7030 7030 7030 7030 7030 7030 7178 7178 7178 7030 7030 7030 7030 7030 7030 7030 7030 7332 7332 7492 7492 7492 7660 7492 7492 7332 7332 7332 7178 7178 7332 7178 7178 7332 7332 7332 7332 7178 7178 7030 7030 7030 7030 6889 6889 7030 7030 7030 7030 7178 7178 7332 7332 7178 7178 7178 7178 5056 5056 5132 5132 5132 5132 5132 5132 5132 5132 5132 5132 5132 5132 5132 5132 5056 5056 5056 4983 4983 4911 4911 4911 4911 4911 4842 4842 4842 4842 4842 4842 4842 4842 4842 4911 4911 4842 4842 4911 4911 4842 4842 4842 4842 4842 4842 4842 4842 4842 4842 4842 4708 4708 4774 4774 4774 4774 4774 4774 4774 4774 4774 4774 4842 4842 4842 4842 4911 4911 4911 4983 5056 6753 6622 6497 6497 6375 6375 6375 6375 6375 6259 6259 6259 6038 6038 6146 6375 6497 6622 6753 0 0 0 6622 6622 6497 6497 6497 6497 6497 6375 6375 6259 6259 6259 4089 4089 4089 4089 4089 4089 4041 4041 4041 4089 4089 4089 4089 4089 4089 4089 4089 4089 4139 4139 4139 4139 4139 4139 4139 4139 4139 4139 4139 4139 4139 4139 4139 4139 4139 4139 4139 4139 4089 4089 4089 4089 4089 4089 4089 4089 4089 4089 4774 4774 4842 4842 4842 4774 4774 4774 4774 4774 4774 4774 4774 4774 4774 4774 4774 4708 4708 4708 4645 4582 4582 4582 4582 4582 4582 4582 4645 4645 4708 4708 4645 4645 4645 4645 4645 4645 4645 4645 4645 4645 4708 4708 4708 4708 4708 4708 4708 4645 4645 4645 4645 4645 4645 4645 4645 4708 4645 4645 4708 4708 4708 4708 4708 4774 4774 4774 4645 4645 4645 4645 4645 4582 4582 4645 4645 4645 4645 4645 4645 4645 4708 4708 4708 4708 4708 4708 4708 4708 4708 4708 4708 4708 4708 4708 4708 4708 4708 4774 4774 4842 4842 4842 4842 4842 4911 4911 4911 4911 4983 4983 4983 4983 4983 0 0 0 0 0 0 0 0 0 0 0 0 0
0 0 0 0 0 0 0 0 0 0 0 0 0 0 0 0 0 0 0 0 0 0 0 0 0 0 0 0 0 0 4582 4582 4774 4842 4842 4911 4911 5832 5832 5832 5832 5832 5832 5832 5832 5832 5832 5832 5832 5933 5933 5933 5933 5933 5933 5933 5933 5933 6038 6038 6038 6038 6038 6038 5933 5933 5933 5832 5832 5832 5832 5832 5832 5832 5832 5832 5734 6038 6038 6038 6146 6146 6146 6259 6259 6259 6259 6259 6259 6259 6259 6259 6259 6259 6259 6259 6259 6259 6375 6375 6375 6375 6375 6375 6375 6259 6259 6259 6259 6259 6259 6259 6375 6375 6259 6259 6259 6259 6375 6375 6375 6497 6497 6497 6497 6375 6375 6375 6375 6375 6497 6497 6497 6497 6497 6622 6622 6622 6622 6622 6622 6497 6497 6497 6497 6622 6622 6622 6497 6497 6259 6146 5933 5933 5734 5734 5734 5734 5832 5832 5832 5734 5734 5734 5933 5832 5734 5734 5734 5734 2984 2984 2984 2984 2984 2984 2984 2984 3010 3010 3010 2984 2958 2958 2958 2958 2933 2933 2958 2933 2933 2933 2933 2933 2958 2958 2984 2984 3010 3010 3010 3010 3010 2984 2984 2984 2984 3010 3010 2984 2984 3010 3010 3010 3010 3037 3037 3037 3064 3064 3064 3064 3064 3064 3064 3064 3064 3064 3064 3064 3064 3064 3064 3064 3064 3064 3064 3064 3064 3092 3092 3092 3064 3064 3064 3092 3064 3064 3064 3064 3064 3092 3092 3092 3092 3092 3092 3092 3120 3120 3120 3120 3120 3120 3120 3120 3120 3120 3120 3120 3120 3149 3149 3149 3149 3149 3149 3149 3149 3120 3120 3120 6889 6889 6889 6889 6889 6889 7030 7030 7030 6889 6889 6889 6889 7030 7030 7030 7030 7030 7030 7030 7030 7030 7030 7030 7030 7030 7030 6889 6889 6889 6889 7030 7030 7030 7030 7332 7332 7492 7492 7492 7660 7332 7332 7332 7332 7178 7178 7030 7030 7030 7030 7030 7178 7178 7178 7030 7030 6889 6889 6889 6889 6889 6889 7030 7030 7030 7030 7030 7030 7178 7178 7178 7030 7030 7030 7030 5132 5132 5132 5132 5132 5132 5132 5132 5132 5132 5132 5132 5132 5132 5132 5056 5056 5056 5056 5056 4983 4983 4983 4983 4911 4911 4911 4911 4911 4911 4911 4911 4842 4842 4911 4911 4842 4842 4842 4842 4842 4842 4842 4842 4842 4842 4842 4842 4842 4842 4842 4708 4708 4708 4708 4708 4774 4774 4774 4774 4842 4842 4842 4842 4842 4842 4842 4911 4911 4911 4911 6753 6622 6622 6497 6375 6375 6375 6375 6375 6259 6259 6259 6146 6038 6038 6146 0 0 0 0 0 0 0 0 0 0 0 0 0 0 0 0 0 0 0 4089 4041 4041 4041 4089 4089 4041 4041 4041 4089 4089 4089 4089 4089 4089 4089 4089 4139 4139 4139 4139 4139 4139 4139 4139 4139 4139 4139 4139 4139 4139 4089 4089 4089 4089 4089 4139 4139 4089 4089 4089 4089 4089 4089 4089 4089 4089 4522 4708 4708 4774 4774 4842 4842 4774 4774 4774 4774 4774 4774 4774 4774 4774 4774 4774 4708 4708 4708 4645 4582 4582 4582 4582 4582 4582 4582 4645 4645 4708 4708 4645 4645 4645 4645 4645 4645 4645 4645 4645 4708 4708 4708 4708 4708 4708 4708 4708 4708 4645 4645 4645 4645 4645 4645 4645 4708 4645 4645 4645 4708 4708 4708 4774 4774 4708 4708 4645 4645 4582 4582 4582 4582 4582 4645 4645 4645 4645 4645 4645 4645 4708 4708 4708 4708 4708 4708 4708 4708 4708 4708 4708 4708 4708 4708 4708 4708 4708 4774 4774 4842 4842 4842 4842 4911 4911 4911 4911 4911 4911 4911 4911 4983 4983 0 0 0 0 0 0 0 0 0 0 0 0 0
0 0 0 0 0 0 0 0 0 0 0 0 0 0 0 0 0 0 0 0 0 0 0 0 0 0 0 0 0 0 4582 4582 4774 4842 4842 4911 4911 5640 5832 5832 5832 5832 5832 5832 5832 5832 5832 5832 5832 5933 5933 5933 5933 5933 5933 5933 5933 5933 5933 5933 5933 5933 5933 5933 5933 5933 5933 5933 5933 5832 5832 5832 5832 5832 5832 5832 5734 5734 5832 5832 6146 6146 6146 6259 6259 6259 6259 6259 6259 6259 6259 6259 6259 6259 6259 6375 6375 6375 6375 6375 6375 6375 6375 6375 6375 6259 6259 6375 6375 6375 6259 6259 6375 6375 6259 6259 6259 6259 6375 6375 6375 6375 6375 6375 6259 6259 6259 6259 6259 6375 6497 6497 6497 6497 6497 6622 6622 6622 6622 6622 6622 6497 6497 6497 6497 6497 6622 6622 6497 6497 6375 6146 5933 5933 5734 5734 5734 5734 5832 5734 5734 5734 5734 5734 5734 5734 5734 5734 5832 2984 2984 2984 2958 2958 2958 2958 2958 2984 2984 2984 2984 2984 2958 2958 2958 2984 2958 2958 2984 2984 3010 2984 2984 2984 2984 2984 3010 3010 3010 3010 3010 3010 3010 3010 3010 3010 3010 3010 3010 3010 3010 3010 3037 3037 3037 3037 3037 3064 3064 3064 3064 3064 3064 3064 3064 3064 3064 3064 3064 3064 3064 3064 3064 3092 3092 3064 3064 3064 3092 3092 3092 3092 3064 3064 3064 3092 3064 3064 3064 3064 3064 3092 3092 3092 3092 3092 3092 3092 3120 3120 3120 3120 3120 3120 3120 3120 3120 3120 3120 3120 3120 3120 3120 3149 3120 3120 3149 3149 3120 3120 3120 3120 3120 6889 6889 6889 6889 6889 6889 6889 6889 6889 6889 6889 6889 6889 6889 6889 6889 6889 6889 7030 7030 7030 7030 7030 7030 7030 7030 6889 6889 6889 6889 7030 7030 7030 7030 7332 7492 7492 7492 7492 7332 7332 7332 7332 7332 7178 7030 7030 7030 7030 7030 7030 7030 7030 7030 6889 6889 6889 6889 6889 6889 6889 6889 7030 7030 7030 7030 7030 7030 7030 7030 7030 7030 7030 7030 5056 5056 5132 5132 5132 5132 5132 5132 5132 5132 5132 5132 5132 5132 5132 5132 5132 5132 5056 5056 5056 4983 4983 4983 4983 4911 4911 4911 4911 4911 4911 4911 4911 4911 4911 4911 4911 4842 4842 4842 4842 4842 4842 4842 4842 4842 4842 4842 4842 4842 4842 4842 4708 4708 4708 4708 4708 4774 4774 4774 4774 4774 4774 4774 4842 4842 4842 4842 4911 4983 4983 4983 6622 6622 6622 6497 6375 6375 6375 6375 6375 6259 6146 6146 6146 6038 6038 0 0 0 0 0 0 0 0 0 0 0 0 0 0 0 0 0 0 0 0 4089 4041 4041 4041 4089 4089 4041 4041 4041 4089 4089 4089 4089 4089 4089 4089 4089 4139 4139 4139 4139 4139 4139 4139 4139 4139 4139 4139 4139 4139 4139 4089 4089 4089 4089 4089 4089 4089 4089 4089 4089 4089 4089 4089 4089 4089 4089 4522 4708 4708 4774 4774 4842 4842 4842 4774 4774 4774 4774 4774 4774 4774 4774 4774 4774 4774 4708 4708 4708 4645 4582 4582 4645 4645 4645 4645 4645 4708 4708 4708 4708 4708 4708 4645 4645 4645 4645 4645 4645 4708 4708 4708 4708 4708 4708 4708 4708 4708 4708 4645 4645 4645 4645 4645 4645 4645 4645 4645 4645 4708 4708 4708 4708 4708 4708 4708 4645 4645 4582 4582 4582 4582 4582 4645 4645 4645 4645 4645 4645 4645 4708 4708 4708 4708 4708 4708 4708 4708 4645 4645 4645 4708 4708 4708 4708 4708 4708 4774 4774 4774 4774 4774 4774 4842 4842 4842 4911 4911 4911 4911 4911 4911 4983 0 0 0 0 0 0 0 0 0 0 0 0 0
0 0 0 0 0 0 0 0 0 0 0 0 0 0 0 0 0 0 0 0 0 0 0 0 0 0 0 0 0 0 4645 4645 4708 4774 4774 4842 5640 5640 5734 5832 5734 5734 5734 5734 5832 5832 5832 5832 5933 5933 5933 5933 5933 5933 5933 5933 5933 5933 5933 5933 5933 5933 5933 5933 5933 5933 5933 5933 5933 5832 5832 5832 5832 5832 5832 5832 5734 5734 5832 5832 6146 6146 6146 6259 6259 6259 6259 6259 6259 6259 6259 6259 6259 6259 6259 6259 6259 6259 6259 6375 6375 6375 6259 6259 6259 6259 6259 6259 6259 6375 6375 6375 6375 6375 6259 6259 6259 6259 6259 6375 6259 6259 6375 6375 6259 6259 6259 6259 6259 6375 6497 6497 6497 6497 6497 6622 6622 6622 6622 6622 6497 6497 6497 6497 6497 6497 6497 6497 6497 6497 6375 6259 5933 5933 5734 5734 5734 5832 5832 5734 5734 5734 5734 5734 5734 5734 5734 5734 5734 2984 2984 2984 2958 2958 2958 2958 2958 2984 2984 2984 2984 2958 2958 2958 2958 2958 2958 2958 2984 2984 3010 2984 2984 2984 2984 2984 3010 3010 3010 3010 3010 3010 3010 3010 3010 3010 3010 3037 3037 3037 3037 3037 3037 3037 3037 3037 3037 3064 3064 3064 3064 3064 3064 3064 3064 3064 3064 3064 3064 3064 3064 3064 3064 3064 3064 3064 3064 3064 3092 3092 3092 3092 3064 3064 3092 3092 3092 3064 3064 3064 3092 3092 3092 3092 3092 3092 3092 3092 3092 3092 3120 3120 3120 3120 3120 3120 3120 3120 3120 3120 3120 3120 3120 3149 3120 3120 3149 3149 3120 3120 3120 3120 3120 6889 6889 6889 6889 6889 6889 6889 6889 6889 6889 6889 6889 6889 6889 6889 6889 6889 6889 7030 7030 7030 7030 7030 7030 7030 6889 6889 6889 6889 6889 7030 7030 7030 7030 7030 7030 7030 7332 7332 7030 6889 6889 7030 7030 7030 7030 7030 7030 7030 7030 6889 6889 6889 6889 6889 6889 6889 6889 6889 6889 6889 6889 6889 7030 7030 7030 7030 7030 7030 7030 7030 7030 7030 7030 5056 5056 5132 5132 5132 5132 5132 5132 5132 5132 5132 5132 5132 5132 5132 5132 5132 5132 5056 5056 5056 4983 4983 4983 4911 4911 4911 4911 4911 4911 4911 4911 4911 4911 4911 4911 4911 4911 4911 4911 4911 4842 4842 4842 4842 4842 4842 4842 4842 4842 4842 4842 4708 4708 4708 4708 4708 4774 4774 4774 4774 4774 4774 4774 4842 4842 4842 4842 4911 4983 4983 6622 6622 6622 6622 6497 6375 6375 6375 6375 6375 6259 6146 6038 6038 6146 0 0 0 0 0 0 0 0 0 0 0 0 0 0 0 0 0 0 0 0 0 4089 4041 4041 4089 4089 4089 4089 4089 4089 4089 4089 4089 4089 4089 4089 4089 4089 4139 4139 4139 4139 4139 4139 4139 4139 4139 4139 4139 4139 4139 4139 4139 4089 4089 4089 4089 4089 4089 4089 4089 4089 4089 4089 4089 4089 3903 3903 4708 4708 4774 4774 4842 4842 4842 4842 4842 4842 4842 4774 4774 4774 4774 4774 4774 4774 4774 4708 4645 4645 4582 4582 4582 4645 4645 4645 4645 4708 4708 4708 4708 4708 4708 4708 4708 4708 4708 4645 4645 4645 4708 4708 4708 4708 4708 4708 4708 4708 4708 4708 4645 4645 4645 4645 4645 4645 4645 4708 4645 4645 4708 4708 4708 4708 4708 4708 4708 4645 4645 4645 4645 4582 4582 4582 4645 4645 4645 4645 4645 4645 4645 4708 4708 4708 4708 4708 4708 4708 4708 4645 4645 4645 4708 4708 4708 4708 4708 4708 4774 4774 4774 4774 4774 4774 4842 4842 4842 4911 4911 4911 4911 4911 4911 4983 0 0 0 0 0 0 0 0 0 0 0 0 0
0 0 0 0 0 0 0 0 0 0 0 0 0 0 0 0 0 0 0 0 0 0 0 0 0 0 0 0 0 0 4645 4645 4708 4774 4774 4842 5640 5640 5734 5832 5734 5734 5734 5734 5734 5832 5832 5832 5933 5933 5933 5933 5933 5933 5933 5933 5933 5933 5933 5933 5933 5933 5933 5933 5933 5933 5933 5933 5933 5832 5832 5832 5832 5832 5832 5832 5832 5832 5832 5832 6146 6146 6146 6259 6259 6259 6259 6375 6375 6375 6375 6375 6375 6259 6259 6259 6259 6259 6259 6375 6259 6259 6259 6259 6259 6259 6259 6259 6259 6259 6259 6259 6375 6375 6259 6259 6259 6259 6259 6375 6259 6259 6375 6375 6375 6375 6375 6375 6375 6375 6497 6497 6497 6497 6497 6622 6622 6622 6497 6375 6259 6259 6259 6259 6259 6375 6375 6497 6375 6375 6375 6259 6146 5933 5832 5832 5832 5832 5832 5832 5734 5734 5734 5734 5640 5640 5640 5640 5640 2984 2984 2984 2958 2958 2958 2958 2958 2958 2984 2984 2958 2958 2958 2958 2958 2958 2958 2958 2984 2984 2984 2984 2984 2984 3010 3010 3010 3010 3010 3010 3010 3010 3010 3010 3010 3010 3010 3037 3037 3037 3037 3037 3037 3037 3037 3037 3037 3064 3064 3064 3064 3064 3064 3064 3064 3064 3064 3064 3064 3064 3064 3064 3064 3064 3064 3064 3064 3064 3092 3092 3092 3092 3064 3064 3092 3092 3092 3092 3092 3092 3092 3120 3092 3092 3092 3092 3092 3092 3092 3092 3120 3120 3120 3120 3120 3120 3120 3120 3120 3120 3120 3149 3149 3149 3120 3120 3120 3149 3120 3120 3120 3149 3149 6889 6889 6889 6753 6753 6889 6889 6889 6889 6889 6889 6889 6889 6889 6889 6889 6889 6889 6889 6889 6889 6889 6889 6889 6889 6889 6889 6889 7030 7030 7178 7178 7178 7178 7178 0 0 0 0 0 7030 6889 6889 6889 7030 7030 7030 7030 7030 7030 6889 6889 6889 6889 6889 6889 6889 6889 6889 6889 6889 6889 6889 6889 7030 7030 7030 7030 7030 7030 7030 7030 7030 4911 4911 5056 5132 5132 5132 5132 5132 5132 5132 5132 5132 5132 5132 5132 5132 5132 5056 5056 5056 4983 4983 4983 4983 4983 4911 4911 4911 4911 4911 4911 4911 4911 4911 4911 4911 4911 4911 4842 4842 4842 4842 4842 4842 4842 4842 4842 4842 4842 4842 4842 4842 4842 4774 4708 4708 4708 4708 4708 4708 4708 4774 4774 4774 4774 4842 4842 4842 4842 4911 4983 4983 6622 6622 6622 6622 6497 6375 6375 6375 6375 6375 6259 5933 5933 6038 0 0 0 0 0 0 0 0 0 0 0 0 0 0 0 0 0 0 0 0 0 0 4089 4089 4089 4089 4089 4089 4089 4089 4089 4089 4089 4089 4089 4089 4089 4089 4089 4139 4139 4139 4139 4139 4139 4089 4089 4089 4089 4139 4139 4139 4190 4089 4089 4089 4089 4089 4089 4089 4089 4089 4089 4089 4041 4041 3994 3903 3903 4774 4774 4774 4842 4842 4842 4842 4842 4842 4842 4842 4774 4774 4774 4774 4774 4774 4774 4774 4708 4645 4645 4582 4582 4582 4645 4645 4645 4645 4708 4708 4708 4708 4708 4708 4708 4708 4708 4708 4708 4708 4708 4708 4708 4708 4708 4708 4708 4708 4708 4708 4708 4708 4708 4708 4708 4708 4708 4708 4708 4708 4708 4708 4708 4708 4708 4774 4774 4708 4645 4645 4645 4582 4582 4582 4645 4645 4645 4645 4645 4645 4645 4645 4708 4708 4708 4708 4708 4708 4708 4708 4708 4708 4708 4708 4708 4708 4708 4708 4708 4774 4774 4774 4774 4774 4774 4842 4842 4842 4911 4911 4911 4911 4911 4911 4983 0 0 0 0 0 0 0 0 0 0 0 0 0
0 0 0 0 0 0 0 0 0 0 0 0 0 0 0 0 0 0 0 0 0 0 0 0 0 0 0 0 0 0 4645 4645 4645 4708 4774 4842 5460 5460 5734 5832 5832 5832 5734 5734 5734 5734 5734 5734 5734 5832 5832 5933 5933 5933 5933 5933 5933 5933 5933 5933 5933 5933 5933 5933 5933 5933 5933 5933 5933 5832 5832 5832 5832 5832 5832 5832 5832 5832 6038 6038 6146 6146 6146 6259 6259 6259 6259 6375 6375 6375 6375 6375 6375 6259 6259 6259 6259 6259 6259 6259 6259 6259 6259 6259 6259 6259 6259 6259 6259 6259 6259 6259 6259 6259 6259 6259 6259 6259 6375 6375 6259 6259 6375 6375 6375 6375 6375 6375 6375 6497 6497 6497 6497 6497 6497 6497 6497 6497 6375 6259 6259 6259 6259 6259 6259 6259 6259 6259 6259 6259 6259 6259 6146 5933 5832 5832 5832 5832 5734 5734 5734 5734 5734 5640 5640 5548 5548 5640 2984 2984 2958 2958 2958 2958 2958 2958 2958 2958 2958 2958 2958 2958 2958 2958 2958 2958 2958 2958 2984 2984 2984 2984 2984 2984 3010 3010 3010 3010 3010 3010 3010 3010 3010 3010 3010 3010 3037 3037 3037 3037 3037 3037 3037 3037 3037 3037 3064 3064 3064 3064 3064 3064 3064 3064 3064 3064 3064 3064 3064 3064 3064 3064 3064 3064 3092 3092 3092 3092 3092 3092 3092 3092 3064 3064 3064 3092 3092 3092 3092 3092 3120 3120 3092 3092 3120 3120 3092 3092 3092 3092 3092 3120 3120 3120 3120 3120 3120 3120 3149 3149 3149 3149 3149 3149 3120 3120 3120 3149 3120 3120 3120 3149 3149 3149 6889 6889 6753 6753 6889 6889 6889 6889 6889 6889 6889 6889 6889 6889 6889 6889 6889 6889 6889 6889 6889 6889 6889 6889 6889 6889 6889 7030 7030 7178 7178 7178 7178 7332 7332 7332 7332 7332 7332 7030 7030 6889 6889 7030 7178 7178 7030 7030 7030 7030 6889 6889 6889 6889 6889 6889 6889 6889 6889 6889 6889 6889 6889 7030 7030 7030 7030 7030 7030 7030 7030 7030 4911 4911 4983 5132 5132 5132 5210 5132 5132 5132 5132 5132 5132 5132 5132 5132 5132 5056 5056 5056 4983 4983 4983 4983 4983 4983 4911 4911 4911 4911 4911 4911 4911 4911 4842 4842 4911 4911 4842 4842 4842 4842 4842 4842 4842 4842 4842 4842 4842 4842 4842 4842 4842 4774 4774 4774 4708 4708 4708 4708 4708 4774 4774 4774 4774 4842 4842 4774 4774 4842 4983 6622 6622 6622 6622 6622 6497 6375 6259 6259 6259 6259 6259 5832 5832 0 0 0 0 0 0 0 0 0 0 0 0 0 0 0 0 0 0 0 0 0 0 0 4089 4089 4089 4089 4089 4089 4089 4089 4089 4089 4089 4089 4089 4089 4089 4089 4139 4139 4139 4139 4139 4139 4139 4089 4089 4089 4089 4139 4139 4139 4139 4089 4089 4089 4089 4089 4089 4089 4089 4089 4089 4041 4041 4041 3994 3903 3903 4842 4842 4842 4842 4842 4842 4842 4842 4842 4774 4774 4774 4774 4774 4774 4774 4774 4774 4708 4708 4708 4645 4645 4645 4645 4645 4645 4645 4645 4708 4708 4708 4708 4708 4708 4708 4708 4708 4708 4708 4708 4708 4708 4708 4708 4708 4708 4708 4708 4708 4708 4708 4708 4708 4708 4708 4708 4708 4708 4708 4708 4708 4708 4708 4708 4708 4708 4774 4774 4645 4645 4645 4582 4582 4582 4645 4645 4645 4645 4645 4645 4645 4645 4708 4708 4708 4708 4708 4708 4708 4708 4708 4708 4708 4708 4708 4708 4708 4708 4774 4774 4774 4774 4774 4774 4774 4842 4842 4842 4842 4842 4911 4911 4911 4911 4911 0 0 0 0 0 0 0 0 0 0 0 0 0
0 0 0 0 0 0 0 0 0 0 0 0 0 0 0 0 0 0 0 0 0 0 0 0 0 0 0 0 0 0 4645 4645 4645 4708 4708 4842 5460 5460 5734 5832 5734 5734 5734 5640 5640 5734 5640 5640 5734 5832 5832 5933 5933 5933 5933 5933 5933 5933 5933 5933 5933 5933 5933 5933 5933 5933 5933 5933 5933 5832 5832 5832 5832 5832 5832 5832 5832 6038 6038 6038 6146 6146 6146 6259 6259 6259 6259 6375 6375 6375 6375 6259 6259 6259 6259 6259 6259 6259 6259 6259 6259 6259 6259 6259 6259 6259 6259 6259 6259 6259 6259 6259 6259 6259 6259 6259 6259 6375 6375 6375 6259 6259 6375 6375 6375 6375 6375 6375 6497 6497 6497 6497 6497 6497 6497 6497 6375 6375 6375 6259 6259 6146 6146 6146 6146 6146 6146 6259 6259 6259 6146 6146 6146 5933 5832 5832 5832 5734 5734 5734 5734 5734 5734 5640 5640 5548 5548 5640 2984 2958 2958 2958 2958 2958 2958 2958 2958 2958 2958 2958 2958 2958 2958 2958 2958 2958 2958 2958 2958 2958 2984 2984 2984 2984 3010 3010 3010 3010 3037 3037 3010 3010 3010 3010 3010 3037 3037 3037 3037 3037 3037 3037 3037 3037 3037 3064 3064 3064 3064 3064 3064 3064 3064 3064 3064 3064 3064 3064 3064 3064 3064 3064 3064 3092 3092 3092 3092 3092 3092 3092 3092 3092 3064 3064 3064 3092 3092 3092 3092 3120 3120 3120 3120 3120 3120 3120 3092 3092 3092 3092 3092 3120 3120 3120 3120 3120 3120 3120 3120 3149 3120 3120 3120 3120 3120 3120 3120 3149 3149 3149 3149 3149 3149 3149 6889 6889 6889 6889 6889 6889 6889 6889 6889 6889 6889 6889 6889 6889 6889 6889 6889 6889 6889 6889 6889 6889 6889 6889 6889 6889 7030 7030 7030 7178 7178 7178 7332 7332 7332 7332 7332 7332 7332 7332 7030 7030 7030 7030 7178 7178 7178 7178 7030 7030 7030 7030 7030 6889 6889 6889 6889 6889 6889 6889 6889 6889 7030 7178 7178 7178 7178 7178 7178 7178 7178 7178 7178 4983 4983 5056 5132 5132 5132 5132 5132 5132 5132 5132 5132 5132 5132 5132 5056 5056 5056 4983 4983 4983 4983 4983 4983 4983 4983 4911 4911 4911 4911 4911 4911 4911 4842 4842 4842 4842 4842 4842 4842 4842 4842 4842 4842 4842 4842 4842 4842 4842 4842 4842 4842 4774 4708 4708 4708 4708 4708 4708 4708 4774 4774 4774 4774 4774 4842 4774 4774 4842 6622 6622 6622 6622 6622 6622 6497 6375 6259 6259 6259 6259 6259 5734 5734 0 0 0 0 0 0 0 0 0 0 0 0 0 0 0 0 0 0 0 0 0 0 0 4139 4139 4139 4089 4089 4041 4041 4041 4089 4089 4089 4089 4089 4089 4089 4089 4089 4139 4139 4139 4139 4139 4139 4139 4139 4139 4139 4139 4139 4139 4139 4089 4089 4089 4089 4089 4089 4089 4089 4089 4089 4041 4041 3994 3994 4911 4911 4911 4842 4842 4842 4842 4842 4842 4842 4842 4774 4774 4774 4774 4774 4774 4774 4774 4774 4708 4708 4708 4708 4645 4645 4645 4645 4645 4708 4708 4708 4708 4708 4708 4708 4774 4708 4708 4708 4708 4708 4708 4708 4708 4708 4708 4708 4708 4708 4708 4708 4708 4708 4708 4708 4708 4708 4708 4708 4708 4708 4708 4774 4708 4708 4708 4708 4708 4708 4708 4645 4645 4645 4582 4582 4582 4645 4645 4645 4645 4708 4708 4708 4708 4708 4708 4708 4708 4708 4708 4708 4708 4708 4708 4708 4708 4708 4708 4708 4708 4774 4774 4774 4774 4774 4774 4774 4842 4842 4842 4842 4842 4842 4911 4842 4842 4911 0 0 0 0 0 0 0 0 0 0 0 0 0
0 0 0 0 0 0 0 0 0 0 0 0 0 0 0 0 0 0 0 0 0 0 0 0 0 0 0 0 0 0 4582 4582 4645 4645 4708 4774 5548 5548 5734 5734 5734 5734 5734 5640 5640 5640 5640 5640 5734 5734 5832 5832 5832 5832 5832 5933 5933 5933 5933 5933 5933 5933 5933 5933 5933 5933 5933 5933 5933 5832 5832 5832 5832 5832 5832 5832 5933 6146 6146 6146 6146 6146 6146 6259 6259 6259 6259 6259 6375 6375 6259 6259 6259 6259 6259 6259 6259 6259 6259 6375 6259 6259 6259 6259 6259 6259 6259 6259 6259 6259 6259 6259 6375 6375 6375 6375 6375 6375 6375 6375 6259 6259 6375 6375 6375 6375 6375 6497 6497 6497 6497 6497 6497 6497 6497 6497 6375 6375 6259 6259 6146 6146 6146 6038 6038 6038 6038 6146 6146 6146 6146 6146 6146 5933 5832 5832 5832 5734 5734 5734 5734 5734 5734 5734 5640 5548 5548 5548 2984 2958 2958 2958 2958 2958 2958 2958 2958 2958 2958 2984 2958 2958 2958 2958 2958 2958 2958 2958 2958 2958 2984 2984 2984 3010 3010 3010 3010 3010 3010 3037 3010 3010 3037 3010 3010 3037 3037 3037 3037 3037 3037 3037 3037 3037 3037 3064 3064 3064 3064 3064 3064 3064 3064 3064 3064 3064 3064 3064 3064 3064 3064 3064 3092 3092 3092 3092 3092 3092 3092 3092 3092 3092 3064 3064 3064 3064 3064 3092 3092 3092 3120 3120 3092 3092 3120 3120 3092 3092 3092 3092 3120 3120 3120 3120 3120 3120 3120 3120 3120 3149 3120 3120 3120 3120 3120 3120 3120 3149 3149 3149 3149 3149 3178 3178 6889 6889 6889 6889 6889 6889 6889 6889 6889 6889 7030 7030 7030 7030 7030 7030 7030 7030 7030 7030 7030 7030 7030 7030 7030 7030 7030 7178 7178 7332 7332 7332 7332 7332 7332 7332 7332 7332 7332 7332 7178 7178 7178 7178 7178 7178 7178 7178 7178 7178 7030 7030 7030 7030 6889 6889 6889 6889 6889 6889 6889 6889 7030 7178 7178 7178 7178 7178 7178 7178 7178 7178 7332 4983 4983 5056 5132 5132 5132 5132 5132 5132 5132 5132 5132 5132 5132 5132 5056 5056 5056 4983 4983 4983 4983 4983 4983 4983 4983 4983 4911 4911 4911 4911 4911 4911 4911 4911 4842 4842 4842 4842 4842 4842 4842 4842 4842 4842 4842 4842 4842 4842 4842 4842 4842 4774 4708 4708 4708 4708 4708 4708 4708 4774 4774 4774 4774 4774 4842 4774 4774 6622 6622 6622 6622 6622 6622 6622 6497 6375 6259 6259 6259 0 0 5734 5734 0 0 0 0 0 0 0 0 0 0 0 0 0 0 0 0 0 0 0 0 0 0 0 4139 4139 4139 4089 4089 4041 4041 4041 4089 4089 4089 4089 4089 4089 4089 4089 4089 4139 4139 4139 4139 4139 4139 4139 4139 4139 4139 4139 4139 4139 4139 4139 4089 4089 4089 4139 4089 4089 4089 4089 4089 4041 4041 3994 3994 4983 4983 4911 4911 4911 4842 4842 4842 4842 4842 4842 4774 4774 4774 4774 4774 4774 4774 4774 4708 4708 4708 4708 4708 4645 4645 4645 4645 4645 4708 4708 4708 4708 4708 4708 4708 4774 4774 4774 4774 4774 4708 4708 4708 4708 4708 4708 4708 4708 4708 4708 4708 4708 4708 4708 4708 4708 4708 4708 4708 4708 4708 4708 4708 4774 4774 4708 4708 4708 4708 4708 4645 4582 4582 4582 4582 4582 4645 4645 4645 4645 4708 4708 4708 4708 4708 4708 4708 4708 4774 4774 4774 4708 4708 4708 4708 4708 4708 4708 4708 4708 4708 4708 4708 4774 4774 4774 4774 4842 4842 4842 4842 4842 4842 4842 4842 4842 4911 0 0 0 0 0 0 0 0 0 0 0 0 0
0 0 0 0 0 0 0 0 0 0 0 0 0 0 0 0 0 0 0 0 0 0 0 0 0 0 0 0 0 0 4582 4582 4645 4645 4708 4774 5460 5460 5734 5734 5734 5734 5734 5640 5640 5640 5640 5640 5734 5734 5734 5832 5832 5832 5832 5832 5832 5933 5933 5933 5933 5933 5933 5933 5933 5933 5933 5933 5933 5832 5832 5832 5832 5832 5832 5832 5933 6146 6146 6146 6146 6146 6146 6259 6259 6259 6259 6259 6375 6375 6259 6259 6259 6259 6259 6259 6259 6259 6259 6375 6259 6259 6259 6259 6259 6259 6259 6259 6259 6259 6259 6259 6375 6375 6375 6375 6375 6375 6375 6375 6375 6375 6375 6375 6375 6375 6375 6497 6497 6497 6497 6497 6497 6497 6497 6497 6497 6259 6259 6146 6038 6038 6038 5933 5933 5933 5933 5933 6038 6146 6146 6146 6146 6038 5933 5832 5832 5734 5734 5734 5734 5734 5832 5832 5640 5548 5548 5548 2984 2958 2958 2958 2958 2958 2958 2958 2958 2958 2958 2984 2958 2958 2958 2958 2958 2958 2958 2958 2958 2958 2984 2984 2984 3010 3010 3010 3010 3010 3010 3037 3037 3037 3037 3037 3037 3037 3037 3037 3037 3037 3037 3037 3037 3037 3037 3037 3064 3064 3064 3064 3064 3064 3064 3064 3064 3064 3064 3064 3064 3064 3064 3064 3092 3092 3092 3092 3092 3092 3092 3092 3092 3092 3064 3064 3064 3064 3064 3092 3092 3092 3120 3120 3092 3092 3120 3120 3092 3092 3092 3120 3120 3120 3120 3120 3120 3120 3149 3149 3149 3149 3149 3149 3149 3120 3120 3149 3149 3149 3149 3149 3149 3208 3208 3238 3238 6889 6889 6889 6889 6889 6889 6889 6889 7030 7030 7030 7030 7030 7030 7030 7030 7030 7030 7030 7030 7030 7030 7178 7178 7178 7178 7178 7332 7492 7492 7492 7492 7492 7492 7492 7492 7492 7492 7332 7332 7332 7332 7332 7332 7332 7332 7178 7178 7178 7178 7178 7030 7030 7030 7030 7030 6889 6889 6889 6889 6889 7030 7030 7178 7332 7332 7332 7332 7332 7332 7332 7332 5056 5056 5132 5132 5132 5132 5132 5132 5132 5132 5132 5132 5132 5132 5132 5056 5056 5056 4983 4983 4983 4983 4983 4983 4983 4983 4983 4911 4911 4911 4911 4911 4911 4911 4911 4842 4842 4842 4842 4842 4911 4842 4842 4842 4842 4842 4842 4842 4842 4842 4842 4842 4774 4708 4708 4708 4708 4708 4708 4708 4708 4774 4774 4774 4774 4774 4774 4774 6622 6622 6622 6622 6622 6622 6622 6497 6497 6375 6375 0 0 0 0 0 0 0 0 0 0 0 0 0 0 0 0 0 0 0 0 0 0 0 0 0 0 0 0 0 0 4139 4139 4089 4041 4041 4089 4089 4089 4089 4089 4089 4089 4089 0 0 0 0 0 0 4190 4190 0 4139 4139 4139 4139 4139 4139 4139 4139 4089 4089 4089 4139 4139 4089 4089 4089 4089 4041 4041 4041 4983 4983 4983 4983 4911 4911 4911 4842 4842 4842 4842 4842 4774 4774 4774 4774 4774 4774 4774 4774 4708 4708 4708 4708 4708 4708 4708 4645 4645 4708 4708 4708 4708 4708 4708 4774 4774 4774 4774 4774 4774 4774 4708 4708 4708 4708 4708 4708 4708 4708 4708 4708 4708 4708 4708 4708 4708 4708 4708 4708 4708 4708 4708 4708 4708 4708 4708 4708 4708 4708 4708 4708 4645 4582 4582 4582 4582 4582 4645 4645 4645 4645 4708 4708 4708 4708 4708 4708 4708 4708 4774 4774 4774 4774 4708 4708 4708 4708 4708 4708 4708 4708 4708 4708 4708 4774 4774 4774 4842 4842 4842 4842 4842 4842 4842 4842 4842 4842 4911 0 0 0 0 0 0 0 0 0 0 0 0 0
0 0 0 0 0 0 0 0 0 0 0 0 0 0 0 0 0 0 0 0 0 0 0 0 0 0 0 0 0 0 4582 4582 4582 4645 4708 4774 4911 5291 5291 5734 5734 5734 5734 5734 5640 5640 5640 5640 5734 5734 5734 5832 5832 5832 5832 5832 5832 5832 5832 5832 5933 5933 5933 5933 5933 5933 5933 5933 5933 5832 5832 5832 5832 5832 5832 5832 5933 6146 6146 6146 6146 6146 6146 6146 6259 6259 6259 6259 6259 6259 6259 6259 6259 6259 6259 6259 6259 6259 6259 6375 6259 6259 6259 6259 6259 6259 6259 6259 6259 6259 6259 6259 6375 6375 6375 6259 6259 6497 6497 6375 6375 6375 6375 6375 6375 6375 6375 6497 6497 6497 6497 6497 6497 6497 6497 6497 6497 6259 6259 6146 6038 6038 6038 5933 5933 5933 5933 5933 6038 6038 6146 6146 6146 6038 5933 5832 5832 5734 5734 5734 5734 5734 5832 5832 5640 5548 5548 5548 2984 2958 2958 2958 2958 2958 2958 2958 2958 2958 2958 2984 2958 2958 2958 2958 2958 2958 2958 2958 2958 2958 2984 2984 2984 3010 3010 3010 3010 3037 3037 3037 3037 3037 3037 3037 3037 3037 3037 3037 3037 3037 3037 3037 3037 3037 3037 3037 3037 3037 3064 3064 3064 3064 3064 3064 3064 3064 3064 3064 3064 3064 3064 3092 3092 3092 3092 3092 3092 3092 3092 3092 3092 3092 3064 3064 3064 3064 3064 3064 3092 3092 3120 3120 3120 3120 3120 3120 3120 3092 3092 3120 3120 3120 3120 3120 3120 3149 3149 3149 3149 3149 3149 3149 3149 3120 3120 3149 3149 3149 3149 3178 3178 3208 3238 3238 3238 7030 7030 7030 7030 7030 7030 7030 7030 7030 7178 7030 7030 7030 7030 7030 7030 7030 7030 7030 7030 7178 7178 7178 7178 7332 7332 7332 7492 7492 7492 7492 7492 7492 7492 7492 7492 7492 7492 7332 7332 7332 7332 7332 7332 7332 7332 7332 7332 7332 7178 7178 7178 7178 7030 7030 7030 6889 6889 6889 6889 6889 7030 7030 7178 7332 7332 7492 7332 7332 7492 7492 7660 5056 5056 5132 5132 5132 5132 5132 5132 5132 5132 5132 5132 5132 5132 5132 5056 5056 5056 4983 4983 4983 4983 4983 4983 4983 4983 4983 4911 4911 4911 4911 4911 4911 4911 4911 4911 4911 4842 4842 4911 4842 4842 4842 4842 4842 4842 4842 4842 4842 4842 4842 4842 4774 4708 4708 4708 4708 4708 4708 4708 4708 4774 4774 4774 4774 4774 4774 4774 6622 6622 6622 6622 6622 6622 6622 6622 6497 6497 6497 0 0 0 0 0 0 0 0 0 0 0 0 0 0 0 0 0 0 0 0 0 0 0 0 0 0 0 0 0 0 4139 4139 4139 4041 4041 4089 4089 4089 4089 4089 4089 4089 0 0 0 0 0 0 0 0 0 0 0 0 4139 4139 4139 4139 4139 4089 4089 4089 4089 4089 4089 4089 4089 4089 4089 4041 4041 4983 4983 4983 4983 4983 4983 4911 4911 4842 4842 4842 4842 4774 4774 4774 4774 4774 4774 4774 4708 4708 4708 4708 4708 4708 4708 4708 4708 4708 4708 4708 4708 4708 4708 4708 4708 4774 4774 4774 4774 4774 4774 4774 4774 4774 4708 4708 4708 4708 4708 4708 4708 4708 4774 4774 4774 4774 4774 4708 4708 4708 4708 4708 4708 4708 4708 4708 4708 4708 4708 4708 4708 4708 4645 4645 4582 4582 4582 4582 4645 4645 4645 4645 4708 4708 4708 4708 4708 4708 4708 4708 4774 4774 4774 4774 4708 4708 4708 4708 4708 4774 4708 4708 4708 4708 4708 4842 4774 4774 4842 4842 4708 4708 4842 4842 4842 4911 4911 4911 4911 0 0 0 0 0 0 0 0 0 0 0 0 0
0 0 0 0 0 0 0 0 0 0 0 0 0 0 0 0 0 0 0 0 0 0 0 0 0 0 0 0 0 0 4582 4582 4582 4645 4708 4774 4911 4983 5132 5548 5734 5734 5734 5734 5734 5640 5640 5640 5640 5640 5734 5832 5832 5832 5832 5832 5832 5832 5832 5832 5832 5832 5933 5933 5832 5832 5933 5933 5933 5832 5832 5832 5832 5832 5832 5933 5933 6146 6146 6146 6146 6146 6146 6146 6146 6146 6146 6146 6259 6259 6259 6259 6259 6259 6259 6259 6259 6259 6259 6375 6259 6259 6259 6259 6259 6259 6259 6259 6259 6259 6259 6259 6375 6375 6375 6259 6259 6497 6497 6375 6375 6375 6497 6375 6375 6375 6375 6497 6497 6497 6497 6497 6497 6497 6497 6497 6497 6375 6259 6146 6038 6038 6038 5933 5933 5933 5933 5933 6038 6038 6146 6146 6146 5933 5832 5832 5832 5734 5734 5734 5734 5832 5832 5832 5832 5640 5640 5640 2958 2958 2958 2958 2958 2958 2958 2958 2958 2958 2958 2958 2958 2958 2958 2958 2958 2958 2958 2958 2984 2984 2984 2984 3010 3010 3010 3037 3037 3037 3037 3037 3037 3037 3037 3037 3037 3037 3037 3037 3037 3037 3037 3037 3037 3037 3037 3037 3037 3037 3064 3064 3064 3064 3064 3064 3064 3064 3064 3064 3064 3064 3064 3092 3092 3092 3092 3092 3092 3092 3092 3092 3092 3092 3064 3064 3064 3064 3064 3064 3092 3092 3120 3120 3120 3120 3120 3120 3120 3092 3092 3120 3120 3120 3120 3120 3120 3149 3149 3149 3149 3149 3149 3149 3149 3120 3120 3149 3149 3149 3178 3178 3178 3208 3208 3208 3208 7030 7030 7030 7030 7030 7030 7030 7030 7178 7178 7178 7178 7178 7030 7030 7030 7030 7030 7030 7030 7178 7178 7178 7332 7332 7492 7492 7492 7492 7492 7492 7492 7492 7492 7492 7492 7492 7492 7332 7332 7332 7332 7332 7332 7332 7332 7332 7332 7332 7332 7332 7332 7332 7178 7178 7178 7030 6889 6889 6889 6889 0 7178 7178 7332 7492 7492 7492 7492 7492 7492 7492 5056 5056 5132 5132 5132 5132 5132 5132 5132 5132 5132 5132 5132 5132 5132 5056 5056 5056 5056 5056 5056 5056 4983 4983 4983 4983 4911 4911 4911 4911 4911 4911 4911 4911 4911 4911 4911 4842 4842 4911 4842 4842 4842 4842 4842 4842 4842 4842 4842 4842 4842 4842 4774 4708 4708 4708 4708 4708 4708 4774 4774 4774 4774 4774 4774 4774 4774 4774 6622 6622 6622 6622 6622 6622 6753 6753 6622 6622 0 0 0 0 0 0 0 0 0 0 0 0 0 0 0 0 0 0 0 0 0 0 0 0 0 0 0 0 0 0 0 0 0 0 4041 4041 4089 4089 4089 4089 4089 4089 0 0 0 0 0 0 0 0 0 0 0 0 0 0 4190 4190 4190 4190 4089 4089 4089 4089 4089 4089 4089 4089 4089 4089 4089 4983 4983 4983 4983 4983 4983 4983 4911 4842 4842 4842 4842 4774 4774 4774 4774 4774 4774 4708 4708 4708 4708 4708 4708 4708 4708 4708 4708 4708 4708 4708 4708 4708 4708 4708 4708 4708 4708 4708 4708 4708 4708 4708 4774 4708 4708 4708 4708 4708 4708 4708 4708 4708 4708 4774 4774 4774 4774 4774 4774 4774 4708 4708 4708 4708 4708 4708 4708 4708 4708 4708 4708 4708 4708 4645 4645 4645 4645 4645 4645 4645 4645 4645 4645 4708 4708 4708 4708 4708 4708 4708 4708 4708 4708 4708 4774 4708 4708 4708 4774 4708 4708 4708 4708 4774 4708 4708 4842 4842 4842 4842 4842 4708 4708 4842 4842 4842 4911 4911 4911 4911 0 0 0 0 0 0 0 0 0 0 0 0 0
0 0 0 0 0 0 0 0 0 0 0 0 0 0 0 0 0 0 0 0 0 0 0 0 0 0 0 0 0 0 4582 4582 4582 4645 4708 4774 4911 4983 5056 5291 5640 5734 5734 5734 5734 5640 5640 5640 5640 5640 5734 5832 5832 5832 5832 5933 5933 5933 5832 5832 5832 5832 5933 5933 5832 5832 5933 5933 5933 5832 5832 5832 5832 5832 5832 5933 6038 6146 6146 6146 6146 6146 6146 6146 6146 6146 6146 6146 6259 6259 6259 6259 6259 6259 6259 6259 6259 6259 6259 6375 6259 6259 6259 6259 6259 6259 6259 6259 6259 6259 6259 6375 6375 6375 6375 6497 6497 6497 6497 6375 6375 6375 6497 6375 6375 6375 6375 6497 6497 6497 6497 6497 6497 6497 6497 6375 6259 6259 6259 6259 6146 6038 6038 6038 6038 6038 6038 6038 6038 6146 6146 6146 6146 5933 5832 5832 5832 5734 5734 5734 5734 5832 5832 5832 5832 5734 5734 5734 5734 2958 2958 2958 2958 2958 2958 2958 2958 2958 2958 2958 2958 2958 2958 2958 2958 2958 2958 2958 2984 2984 2984 3010 3010 3010 3010 3010 3010 3037 3037 3037 3037 3037 3037 3037 3037 3037 3037 3037 3037 3037 3037 3037 3037 3037 3037 3037 3037 3037 3064 3064 3064 3064 3064 3064 3064 3064 3064 3064 3064 3064 3064 3092 3092 3092 3092 3092 3092 3092 3092 3092 3092 3092 3064 3064 3064 3064 3064 3092 3092 3120 3120 3120 3120 3120 3120 3120 3120 3092 3092 3120 3120 3120 3120 3120 3120 3149 3149 3149 3149 3149 3149 3149 3149 3120 3120 3149 3149 3149 3178 3178 3178 3208 3208 3208 3208 7030 7030 7030 7030 7030 7030 7178 7178 7178 7178 7178 7178 7178 7030 7030 7030 7030 7030 7030 7178 7178 7178 7332 7332 7332 7492 7492 7492 7492 7492 7492 7492 7492 7492 7492 7660 7660 7660 7492 7492 7332 7332 7332 7332 7492 7492 7492 7492 7492 7492 7492 7492 7492 7492 7492 7492 7030 6889 6889 6889 0 0 0 7332 7332 7332 7492 7332 7332 7492 7492 7492 5056 5056 5132 5132 5132 5132 5132 5132 5132 5132 5132 5132 5132 5132 5132 5132 5056 5056 5056 5056 5056 5056 4983 4983 4983 4983 4911 4911 4911 4911 4911 4911 4911 4911 4911 4911 4911 4842 4842 4911 4911 4842 4842 4842 4842 4842 4842 4842 4842 4842 4842 4842 4774 4708 4708 4708 4708 4708 4708 4774 4774 4774 4774 4774 4842 4774 4774 4774 6622 6622 6622 6622 6622 6753 6753 6753 6753 6753 0 0 0 0 0 0 0 0 0 0 0 0 0 0 0 0 0 0 0 0 0 0 0 0 0 0 0 0 0 0 0 0 0 0 0 0 0 4089 4089 4089 0 0 0 0 0 0 0 0 0 0 0 0 0 0 0 0 4190 4190 4139 4139 4089 4089 4089 4089 4089 4089 4089 4089 4089 4089 4089 4983 4983 4983 4983 4983 4983 4983 4911 4842 4842 4842 4842 4774 4774 4774 4774 4774 4774 4708 4708 4708 4708 4708 4645 4645 4645 4645 4645 4708 4708 4708 4708 4708 4708 4708 4708 4708 4708 4708 4708 4708 4708 4708 4708 4708 4708 4708 4708 4708 4708 4708 4708 4708 4708 4774 4774 4774 4774 4774 4774 4774 4774 4708 4708 4708 4708 4708 4645 4645 4708 4708 4708 4708 4708 4645 4645 4645 4645 4645 4645 4645 4645 4645 4645 4708 4708 4708 4708 4708 4708 4708 4708 4708 4708 4708 4774 4708 4708 4708 4774 4708 4708 4708 4708 4774 4708 4708 4842 4842 4842 4842 4842 4774 4774 4842 4842 4842 4842 4842 4911 4911 0 0 0 0 0 0 0 0 0 0 0 0 0
0 0 0 0 0 0 0 0 0 0 0 0 0 0 0 0 0 0 0 0 0 0 0 0 0 0 0 0 0 0 4582 4582 4645 4645 4708 4774 4911 4911 4983 5291 5640 5734 5734 5734 5734 5734 5734 5734 5734 5734 5832 5832 5832 5832 5832 5933 5933 5933 5933 5832 5832 5933 5832 5832 5832 5832 5832 5933 5933 5832 5832 5832 5832 5832 5933 5933 6038 6146 6146 6259 6146 6146 6146 6146 6146 6146 6146 6146 6259 6259 6259 6259 6259 6259 6259 6259 6259 6259 6259 6259 6375 6375 6259 6259 6259 6259 6259 6259 6259 6259 6259 6259 6259 6259 6259 6259 6259 6497 6497 6375 6375 6375 6497 6375 6375 6375 6375 6497 6497 6497 6497 6497 6497 6497 6497 6375 6259 6259 6259 6259 6146 6146 6146 6146 6038 6038 6038 6038 6146 6146 6259 6259 6146 6038 5832 5832 5832 5734 5734 5734 5734 5832 5832 5832 5832 5832 5734 5734 3037 2984 2984 2984 2984 2984 2958 2958 2958 2958 2958 2958 2958 2958 2958 2958 2958 2984 2984 2984 2984 2984 2984 3010 3010 3010 3010 3010 3010 3037 3037 3037 3037 3037 3037 3037 3037 3037 3064 3064 3064 3064 3037 3037 3037 3037 3037 3037 3037 3037 3037 3064 3064 3064 3064 3064 3064 3064 3064 3064 3092 3092 3092 3064 3064 3064 3064 3092 3092 3092 3092 3092 3092 3120 3092 3092 3092 3092 3092 3092 3120 3120 3120 3120 3120 3120 3120 3120 3120 3120 3120 3120 3120 3120 3120 3120 3120 3149 3149 3149 3149 3149 3149 3149 3149 3120 3120 3149 3149 3149 3178 3178 3178 3208 3208 3208 3208 3208 7030 7030 7030 7030 7178 7178 7178 7178 7492 7332 7332 7178 7178 7178 7178 7030 7030 7178 7178 7332 7332 7492 7492 7492 7492 7492 7492 7492 7492 7492 7492 7492 7660 7660 7660 7660 7660 7492 7492 7492 7492 7492 7492 7492 7492 7492 7492 7492 7492 7492 7660 7660 7660 7660 0 0 0 0 0 0 0 0 0 7332 7332 7492 7332 7332 7492 7492 7492 5056 5056 5132 5132 5132 5132 5132 5132 5132 5132 5132 5132 5132 5132 5132 5132 5056 5056 5056 5056 5056 5056 5056 5056 4983 4983 4983 4983 4911 4911 4911 4911 4911 4911 4911 4911 4911 4842 4842 4911 4911 4842 4842 4911 4911 4911 4911 4842 4842 4842 4842 4842 4774 4708 4708 4708 4708 4708 4708 4774 4774 4774 4842 4842 4842 4842 6497 6497 6622 6622 6622 6622 6622 6753 6753 6753 6753 6753 0 0 0 0 0 0 0 0 0 0 0 0 0 0 0 0 0 0 0 0 0 0 0 0 0 0 0 0 0 0 0 0 0 0 0 0 0 0 0 0 0 0 0 0 0 0 0 0 0 0 0 0 0 0 0 0 4190 4190 4139 4139 4089 4089 4089 4089 4089 4089 4089 4139 4139 4139 4139 4139 4983 4983 4983 4983 4983 4983 4983 4911 4842 4842 4842 4774 4774 4774 4774 4774 4774 4774 4708 4708 4708 4708 4645 4645 4645 4645 4645 4708 4645 4645 4645 4645 4645 4708 4708 4708 4708 4708 4708 4708 4708 4708 4708 4708 4708 4708 4708 4708 4708 4708 4708 4708 4708 4774 4774 4774 4774 4774 4774 4774 4774 4708 4708 4708 4708 4708 4645 4645 4708 4708 4708 4708 4708 4645 4645 4645 4645 4645 4645 4645 4645 4645 4708 4708 4708 4708 4708 4708 4708 4708 4708 4708 4708 4708 4708 4708 4708 4708 4708 4708 4774 4774 4774 4774 4774 4774 4842 4842 4842 4842 4842 4774 4774 4842 4842 4842 4842 4842 4911 4911 0 0 0 0 0 0 0 0 0 0 0 0 0
0 0 0 0 0 0 0 0 0 0 0 0 0 0 0 0 0 0 0 0 0 0 0 0 0 0 0 0 0 0 4582 4582 4645 4708 4774 4842 4911 4911 4983 5291 5640 5734 5734 5734 5734 5734 5832 5832 5832 5832 5832 5832 5832 5933 5933 5933 5933 5933 5933 5832 5832 5832 5832 5832 5832 5832 5832 5832 5832 5734 5734 5832 5832 5832 5832 5933 5933 6146 6146 6259 6146 6146 6146 6146 6146 6146 6146 6146 6259 6259 6259 6259 6259 6259 6259 6259 6259 6259 6259 6259 6375 6375 6259 6259 6259 6259 6259 6259 6259 6259 6259 6259 6259 6259 6259 6259 6259 6375 6375 6375 6375 6375 6375 6375 6375 6375 6375 6497 6497 6497 6497 6497 6497 6497 6497 6497 6497 6497 6497 6375 6259 6146 6146 6146 6146 6146 6146 6146 6146 6259 6375 6259 6259 6146 5933 5832 5832 5832 5734 5734 5734 5832 5832 5832 5832 5832 5933 5933 3037 3010 2984 2984 2984 2984 2958 2958 2958 2958 2958 2958 2958 2958 2958 2958 2958 2984 2984 2984 3010 3010 3010 3010 3010 3010 3037 3037 3037 3037 3037 3037 3037 3037 3037 3037 3037 3037 3064 3064 3064 3064 3037 3037 3037 3037 3037 3037 3037 3037 3037 3064 3064 3064 3064 3064 3064 3064 3064 3064 3092 3092 3092 3064 3064 3064 3064 3092 3092 3092 3120 3120 3120 3120 3092 3092 3092 3092 3092 3092 3120 3120 3120 3120 3120 3120 3120 3120 3120 3120 3120 3120 3120 3120 3149 3149 3149 3149 3149 3149 3149 3149 3149 3149 3149 3120 3120 3149 3149 3149 3178 3178 3178 3208 3208 3208 3208 0 7178 7178 7178 7178 7332 7332 7178 7178 7332 7332 7332 7178 7030 7030 7178 7030 7030 7030 7178 7332 7492 7332 7332 7492 7492 7492 7492 7660 7492 7492 7660 7660 7660 7660 7660 7660 7660 7492 7492 7492 7492 7492 7492 7492 7492 7332 7332 7332 7332 7332 7492 7492 7492 7492 0 0 0 0 0 0 0 0 0 0 0 0 7492 7492 7030 7030 7492 5132 5132 5132 5132 5132 5132 5132 5132 5132 5132 5132 5132 5132 5132 5132 5132 5056 5056 5056 5056 5056 5056 5056 5056 4983 4983 4983 4983 4911 4911 4911 4911 4911 4911 4911 4911 4911 4842 4842 4911 4911 4911 4911 4911 4911 4911 4911 4842 4842 4842 4842 4774 4774 4708 4708 4708 4708 4774 4774 4774 4774 4842 4842 4911 4911 6497 6497 6497 6622 6622 6622 6622 6622 6753 6753 6753 6753 6753 0 0 0 0 0 0 0 0 0 0 0 0 0 0 0 0 0 0 0 0 0 0 0 0 0 0 0 0 0 0 0 0 0 0 0 0 0 0 0 0 0 0 0 0 0 0 0 0 0 0 0 0 0 0 0 0 4241 4190 4190 4190 4089 4089 4089 4089 4089 4089 4089 4139 4139 4139 4139 4139 4983 4983 4983 4983 4983 4983 4983 4911 4842 4842 4842 4774 4774 4774 4774 4774 4774 4774 4708 4708 4708 4708 4708 4708 4645 4645 4645 4645 4645 4645 4645 4645 4645 4645 4708 4708 4708 4708 4708 4708 4708 4708 4708 4708 4708 4708 4708 4708 4708 4708 4708 4708 4708 4774 4774 4774 4774 4774 4774 4774 4774 4708 4708 4708 4708 4708 4708 4708 4708 4708 4708 4708 4708 4645 4645 4645 4645 4645 4645 4645 4645 4645 4708 4708 4708 4708 4708 4708 4708 4708 4708 4708 4708 4708 4708 4708 4708 4708 4708 4708 4774 4774 4911 4911 4842 4842 4842 4842 4842 4842 4842 4774 4774 4842 4911 4911 4911 4911 4983 4983 0 0 0 0 0 0 0 0 0 0 0 0 0
0 0 0 0 0 0 0 0 0 0 0 0 0 0 0 0 0 0 0 0 0 0 0 0 0 0 0 0 0 0 4582 4582 4645 4708 4774 4842 4911 4983 4983 5291 5640 5734 5734 5734 5734 5734 5832 5832 5832 5832 5832 5832 5832 5933 5933 5933 5933 5933 5933 5832 5832 5832 5832 5734 5734 5734 5734 5832 5832 5734 5734 5832 5832 5832 5832 5933 5933 6038 6038 6259 6146 6146 6146 6146 6146 6146 6146 6146 6259 6259 6259 6259 6259 6259 6259 6259 6259 6259 6259 6259 6375 6375 6375 6259 6259 6259 6259 6259 6259 6259 6259 6259 6259 6259 6375 6375 6375 6375 6375 6375 6259 6259 6259 6259 6259 6375 6375 6497 6497 6497 6497 6497 6497 6497 6497 6497 6497 6497 6497 6497 6375 6259 6259 6259 6259 6259 6259 6259 6259 6375 6497 6375 6375 6259 5933 5832 5832 5832 5832 5832 5832 5832 5832 5832 5832 5832 5933 5933 3037 3010 2984 2984 2984 2984 2958 2958 2958 2958 2958 2958 2958 2958 2958 2958 2958 2984 3010 3010 3010 3010 3010 3010 3010 3037 3037 3037 3037 3037 3037 3037 3037 3037 3037 3037 3037 3037 3064 3064 3064 3064 3037 3037 3037 3037 3037 3037 3037 3037 3037 3064 3064 3064 3064 3064 3064 3064 3064 3092 3092 3092 3092 3092 3092 3092 3092 3092 3092 3092 3120 3120 3120 3120 3092 3092 3092 3120 3120 3120 3120 3120 3120 3120 3120 3120 3120 3120 3120 3120 3120 3120 3120 3149 3149 3149 3149 3149 3149 3149 3149 3149 3149 3149 3149 3149 3149 3149 3149 3149 3149 3178 3178 3178 3178 3208 3208 3208 7178 7178 7178 7178 7178 7332 7178 7178 7332 7492 7660 7178 7030 7030 7178 7030 6889 6889 6889 7332 7492 7178 7178 7332 7492 7492 7492 7492 7660 7660 7660 7660 7660 7660 7660 7660 7660 7492 7492 7492 7492 7492 7492 7492 7492 7332 7332 7332 7332 7332 7492 7492 7492 7492 0 0 0 0 0 0 0 0 0 0 0 0 0 0 7030 7030 7030 5132 5132 5132 5132 5132 5132 5132 5132 5132 5132 5132 5132 5132 5132 5132 5132 5056 5056 5056 5056 5056 5056 5056 5056 4983 4983 4983 4983 4911 4911 4911 4911 4911 4911 4911 4911 4911 4911 4911 4911 4911 4911 4911 4911 4911 4911 4911 4911 4911 4911 4842 4774 4774 4708 4708 4708 4708 4774 4774 4774 4842 4842 4911 5056 5056 6622 6622 6622 6622 6622 6753 6753 6753 6753 6753 6753 6753 6753 6753 0 0 0 0 0 0 0 0 0 0 0 0 0 0 0 0 0 0 0 0 0 0 0 0 0 0 0 0 0 0 0 0 0 0 0 0 0 0 0 0 0 0 0 0 0 0 0 0 0 0 0 0 0 0 0 4190 4190 4190 4139 4089 4089 4089 4089 4089 4089 4089 4089 4139 4139 4139 4139 4983 4983 4983 4983 4983 4983 4983 4983 4842 4842 4842 4774 4774 4774 4774 4774 4774 4774 4774 4774 4774 4774 4708 4708 4708 4645 4645 4645 4645 4645 4645 4645 4645 4645 4708 4708 4708 4708 4708 4645 4645 4708 4708 4708 4708 4708 4708 4708 4708 4708 4708 4774 4774 4774 4774 4774 4774 4774 4774 4774 4774 4708 4708 4708 4708 4708 4708 4708 4708 4708 4708 4708 4708 4645 4645 4645 4645 4645 4645 4645 4645 4645 4708 4708 4708 4708 4708 4708 4708 4708 4645 4645 4645 4645 4645 4645 4645 4645 4645 4708 4774 4842 4911 4911 4911 4911 4842 4842 4842 4842 4842 4911 4911 4911 4911 4911 4911 4911 4983 4983 0 0 0 0 0 0 0 0 0 0 0 0 0
0 0 0 0 0 0 0 0 0 0 0 0 0 0 0 0 0 0 0 0 0 0 0 0 0 0 0 0 0 0 4645 4645 4708 4774 4842 4911 4911 4983 5132 5548 5640 5734 5734 5734 5734 5734 5832 5832 5832 5832 5832 5933 5933 5933 5933 5933 5933 5933 5933 5832 5832 5832 5832 5734 5734 5734 5734 5832 5832 5734 5734 5832 5832 5832 5832 5933 5933 5933 5933 6146 6146 6146 6146 6146 6146 6146 6146 6146 6259 6259 6259 6259 6259 6259 6259 6259 6259 6259 6259 6259 6375 6375 6375 6259 6259 6259 6259 6259 6259 6259 6259 6259 6259 6259 6259 6259 6259 6259 6259 6259 6259 6259 6259 6259 6259 6259 6259 6497 6497 6497 6497 6497 6497 6497 6497 6497 6497 6497 6622 6622 6622 6497 6375 6375 6497 6375 6375 6497 6497 6497 6497 6497 6375 6259 5832 5832 5832 5832 5734 5734 5734 5734 5734 5832 5832 5832 5832 5832 3037 3010 3010 2984 2984 2984 2958 2958 2958 2958 2958 2958 2958 2958 2958 2958 2958 2984 3010 3010 3010 3010 3010 3037 3037 3037 3037 3037 3037 3037 3037 3037 3037 3037 3037 3037 3037 3037 3037 3037 3037 3064 3064 3037 3037 3037 3037 3037 3037 3037 3064 3064 3064 3064 3064 3064 3064 3064 3064 3092 3092 3092 3092 3092 3092 3092 3092 3092 3092 3120 3120 3120 3120 3120 3120 3120 3120 3120 3120 3120 3120 3120 3120 3120 3120 3120 3120 3120 3120 3120 3120 3120 3120 3149 3149 3149 3149 3149 3149 3149 3149 3149 3149 3149 3149 3149 3149 3149 3149 3149 3149 3178 3178 3178 3178 3208 3208 3208 3208 7332 7332 7030 7030 7178 7332 7332 6375 6375 6375 6375 6375 6375 6497 6889 6889 6622 6622 6622 6497 6497 6497 6497 6497 7178 7332 7492 7492 7660 7660 7660 7660 0 0 0 0 0 0 0 0 0 0 0 0 0 0 0 0 0 0 0 0 0 0 0 0 0 0 0 0 0 0 0 0 0 0 0 0 0 0 5132 5132 5132 5132 5132 5132 5132 5132 5132 5132 5132 5132 5132 5132 5132 5132 5132 5056 5056 5056 5056 5056 4983 4983 4983 4983 4911 4911 4911 4911 4911 4911 4911 4911 4911 4911 4911 4911 4911 4911 4911 4911 4911 4911 4911 4911 4911 4842 4842 4842 4842 4842 4774 4708 4708 4708 4774 4774 4774 4774 4842 4842 4983 5056 5056 6622 6622 6622 6622 6622 6753 6753 6753 6753 6753 6753 6753 6753 6753 6889 0 0 0 0 0 0 0 0 0 0 0 0 0 0 0 0 0 0 0 0 0 0 0 0 0 0 0 0 0 0 0 0 0 0 0 0 0 0 0 0 0 0 0 0 0 0 0 0 0 0 0 0 0 4139 4139 4139 4139 4139 4089 4089 4089 4041 4041 4089 4089 4089 4089 4089 4139 4139 4089 4089 3994 4983 4983 4983 4983 5056 4842 4842 4842 4842 4842 4842 4774 4774 4774 4774 4774 4774 4774 4774 4774 4774 4774 4645 4645 4708 4708 4708 4645 4582 4582 4645 4708 4708 4708 4708 4645 4645 4645 4708 4708 4708 4708 4708 4708 4708 4708 4708 4708 4708 4708 4708 4708 4708 4708 4708 4774 4774 4774 4774 4774 4708 4708 4708 4708 4708 4708 4708 4708 4708 4708 4645 4645 4645 4645 4645 4645 4645 4645 4645 4708 4708 4708 4708 4708 4708 4708 4708 4645 2789 2789 2789 2789 2767 2767 4582 4645 4708 2812 2767 2767 2723 2723 2723 2701 2701 4842 4911 4911 4911 4911 4911 4911 4911 4911 4911 4983 4983 0 0 0 0 0 0 0 0 0 0 0 0 0
0 0 0 0 0 0 0 0 0 0 0 0 0 0 0 0 0 0 0 0 0 0 0 0 0 0 0 0 0 0 4645 4645 4708 4774 4842 4911 4911 5056 5210 5548 5640 5734 5734 5734 5734 5734 5832 5832 5832 5832 5832 5832 5933 5933 5933 5933 5933 5933 5933 5832 5832 5832 5832 5832 5832 5832 5832 5832 5832 5734 5734 5832 5832 5832 5832 5933 5832 5832 5832 6146 6146 6146 6146 6146 6146 6146 6146 6146 6259 6259 6259 6259 6259 6259 6259 6259 6259 6259 6259 6375 6375 6375 6375 6375 6259 6259 6259 6259 6259 6259 6259 6259 6259 6259 6259 6259 6259 6259 6259 6259 6259 6259 6259 6259 6259 6259 6259 6497 6497 6497 6497 6497 6497 6497 6497 6497 6497 6622 6622 6622 6622 6622 6622 6622 6622 6497 6497 6497 6497 6497 6497 6375 6259 6038 5832 5832 5734 5734 5734 5734 5734 5734 5734 5734 5734 5734 5832 5832 3037 3010 3010 2984 2984 2984 2984 2984 2958 2958 2958 2958 2958 2958 2958 2958 2958 2984 3010 3010 3010 3010 3010 3037 3037 3037 3037 3037 3037 3037 3037 3037 3037 3037 3037 3037 3037 3037 3037 3037 3037 3064 3064 3037 3037 3064 3064 3064 3064 3064 3064 3064 3064 3064 3064 3064 3092 3092 3092 3092 3092 3092 3092 3092 3092 3092 3092 3092 3092 3120 3120 3120 3120 3120 3120 3120 3120 3120 3120 3120 3120 3120 3120 3120 3120 3120 3120 3120 3120 3120 3120 3120 3120 3149 3149 3149 3149 3149 3149 3149 3149 3149 3149 3149 3149 3149 3149 3149 3149 3149 3178 3178 3178 3208 3208 3208 3208 3208 0 6497 6622 6622 6622 6497 6497 6497 6375 6375 6375 6375 6375 6375 6497 6497 6497 6497 6375 6375 6375 6375 6497 6497 6497 6497 6497 7492 7492 7660 7660 0 0 0 0 0 0 0 0 0 0 0 0 0 0 0 0 0 0 0 0 0 0 0 0 0 0 0 0 0 0 0 0 0 0 0 0 0 0 0 0 5132 5132 5132 5132 5132 5132 5132 5132 5132 5132 5132 5132 5132 5132 5132 5132 5132 5056 5056 5056 5056 5056 4983 4983 4983 4983 4911 4911 4911 4911 4911 4911 4911 4911 4911 4911 4911 4911 4911 4911 4911 4911 4911 4911 4911 4842 4842 4842 4842 4842 4842 4842 4774 4708 4708 4774 4774 4774 4774 4774 4842 4842 4983 4983 6753 6753 6753 6622 6622 6753 6753 6753 6753 6753 6753 6753 6889 6753 6753 6889 6889 0 0 0 0 0 0 0 0 0 0 0 0 0 0 0 0 0 0 0 0 0 0 0 0 0 0 0 0 0 0 0 0 0 0 0 0 0 0 0 0 0 0 0 0 0 0 0 0 0 0 0 4041 4041 4089 4089 4089 4089 4041 4041 4041 4041 4041 4041 4041 4089 4089 4089 4089 4089 4089 3994 0 0 3859 3859 3859 3859 4842 4842 4842 4842 4842 4842 4842 4842 4842 4842 4774 4774 4774 4774 4774 4774 4774 4774 4708 4708 4708 4708 4645 4582 4582 4645 4645 4645 4708 4708 4645 4645 4645 4708 4708 4708 4708 4708 4708 4708 4708 4708 4708 4708 4708 4708 4708 4708 4708 4708 4708 4708 4774 4774 4774 4774 4774 4774 4708 4708 4708 4708 4708 4708 4708 4708 4708 4708 4645 4645 4708 4708 4708 4708 4708 4708 2812 2789 2744 2723 2723 2744 2744 2767 2767 2767 2767 2767 2767 2767 2789 2789 2767 2744 2723 2723 2723 2723 2701 2701 2723 2744 2744 4911 2744 2744 2767 2767 2767 2767 2789 2789 2789 2789 2789 0 0 0 0 0 0 0 0 0 0
0 0 0 0 0 0 0 0 0 0 0 0 0 0 0 0 0 0 0 0 0 0 0 0 0 0 0 0 0 0 4645 4645 4708 4774 4842 4911 4911 5132 5374 5640 5640 5734 5734 5734 5734 5734 5832 5832 5832 5832 5832 5832 5832 5832 5832 5933 5933 5933 5933 5933 5933 5933 5832 5832 5832 5832 5832 5832 5832 5734 5734 5734 5832 5832 5832 5832 5832 5832 5832 6038 6146 6146 6146 6146 6146 6146 6146 6146 6259 6259 6259 6259 6259 6259 6259 6259 6259 6259 6259 6375 6375 6375 6375 6375 6259 6259 6259 6259 6259 6259 6259 6259 6259 6259 6259 6259 6259 6259 6259 6259 6259 6259 6259 6259 6259 6259 6259 6497 6497 6497 6497 6497 6497 6497 6497 6497 6497 6622 6622 6622 6622 6753 6753 6753 6753 6622 6622 6622 6497 6497 6497 6259 6146 5933 5734 5734 5734 5734 5734 5734 5734 5734 5734 5734 5734 5734 5734 5734 3010 3010 2984 2984 2984 2984 2984 2984 2984 2958 2958 2958 2984 2984 2984 2984 2984 3010 3010 3010 3010 3010 3010 3037 3037 3037 3037 3037 3037 3037 3037 3037 3037 3037 3037 3037 3037 3037 3037 3037 3037 3064 3064 3064 3064 3064 3064 3064 3064 3064 3064 3064 3064 3064 3064 3064 3092 3092 3092 3092 3092 3092 3092 3092 3092 3120 3120 3120 3120 3120 3120 3149 3149 3149 3120 3120 3120 3120 3120 3120 3120 3120 3120 3120 3120 3120 3120 3120 3120 3120 3120 3120 3120 3149 3149 3149 3149 3149 3149 3149 3149 3149 3149 3149 3149 3149 3149 3149 3149 3149 3178 3178 3178 3208 3208 3208 3208 3208 6375 6497 6497 6497 6497 6497 6375 6375 6375 6375 6375 6375 6375 6375 6375 6375 6375 6375 6375 6375 6375 6375 6375 6497 6497 6497 6497 6497 6622 6622 6497 0 0 0 0 0 0 0 0 0 0 0 0 0 0 0 0 0 0 0 0 0 0 0 0 0 0 0 0 0 0 0 0 0 0 0 0 0 0 0 0 5132 5132 5132 5210 5210 5210 5210 5210 5132 5132 5132 5132 5132 5132 5132 5132 5132 5056 5056 5056 5056 5056 5056 4983 4983 4983 4983 4983 4911 4911 4911 4911 4911 4911 4911 4911 4911 4911 4911 4911 4911 4911 4911 4842 4842 4842 4842 4842 4911 4911 4842 4842 4774 4774 4774 4774 4774 4842 4842 4842 4842 4911 4983 4983 6753 6753 6753 6753 6753 6753 6753 6753 6753 6753 6753 6753 6753 6622 6622 6753 6753 0 0 0 0 0 0 0 0 0 0 0 0 0 0 0 0 0 0 0 0 0 0 0 0 0 0 0 0 0 0 0 0 0 0 0 0 0 0 0 0 0 0 0 0 0 0 0 0 0 0 0 4041 4041 4041 4041 4041 4041 3994 3994 3948 3948 3994 3994 3994 3994 3994 4041 4041 3994 3994 3994 3859 3859 3859 3859 3859 3859 3859 3859 3859 4842 4842 4842 4842 4842 4842 4911 4911 4842 4842 4842 4842 4842 4842 4842 4774 4774 4708 4708 4645 4645 0 0 4645 4645 0 0 0 4645 4645 4708 4708 4708 4708 4708 4708 4708 4708 4708 4708 4708 4708 4774 4774 4774 4708 4708 4708 4708 4708 4708 4708 4774 4774 4774 4774 4708 4708 4708 4708 4708 4774 4708 4708 4708 4645 4645 4645 4645 4708 2767 2767 2767 2789 2789 2744 2723 2723 2744 2744 2767 2767 2767 2767 2767 2767 2767 2767 2767 2767 2744 2723 2723 2723 2723 2723 2723 2723 2744 2744 2744 2744 2744 2767 2767 2767 2767 2789 2789 2789 2789 2789 0 0 0 0 0 0 0 0 0 0
0 0 0 0 0 0 0 0 0 0 0 0 0 0 0 0 0 0 0 0 0 0 0 0 0 0 0 0 0 0 4645 4645 4708 4774 4842 4911 4911 5132 5374 5640 5640 5734 5734 5734 5734 5734 5832 5832 5832 5832 5832 5832 5832 5832 5832 5832 5832 5933 5933 5933 5933 5832 5832 5832 5832 5832 5832 5832 5832 5734 5734 5734 5734 5832 5832 5832 5832 5832 5832 5933 6038 6038 6146 6146 6146 6146 6259 6259 6259 6259 6259 6259 6259 6259 6259 6259 6259 6259 6259 6375 6375 6375 6375 6259 6259 6259 6259 6259 6259 6259 6259 6259 6259 6259 6259 6259 6259 6259 6259 6259 6259 6259 6259 6259 6259 6375 6375 6497 6497 6497 6497 6622 6622 6497 6497 6622 6622 6622 6622 6622 6622 6753 6622 6622 6622 6622 6622 6622 6497 6497 6497 6038 5933 5832 5734 5734 5734 5734 5734 5640 5640 5640 5734 5640 5640 5640 5640 5640 3010 3010 2984 2984 2984 2984 2984 2984 2984 2958 2958 2984 2984 2984 2984 2984 3010 3010 3010 3010 3010 3010 3037 3037 3010 3010 3010 3037 3037 3037 3037 3037 3037 3037 3037 3037 3037 3037 3037 3037 3037 3064 3064 3064 3064 3064 3064 3064 3064 3064 3064 3064 3064 3064 3064 3092 3092 3092 3092 3092 3092 3092 3092 3092 3120 3120 3120 3120 3120 3120 3120 3120 3149 3149 3120 3120 3120 3120 3120 3120 3120 3120 3120 3120 3120 3120 3120 3120 3120 3120 3120 3120 3120 3149 3149 3149 3149 3149 3149 3149 3149 3149 3149 3149 3149 3149 3149 3149 3149 3149 3178 3178 3178 3208 3208 3238 3238 6375 6375 6375 6375 6375 6375 6375 6375 6375 6375 6375 6375 6375 6375 6375 6375 6375 6375 6375 6375 6375 6375 6375 6375 6375 6375 6375 6375 6375 6497 6497 6497 7332 7332 0 0 0 0 0 0 0 0 0 0 0 0 0 0 0 0 0 0 0 0 0 0 0 0 0 0 0 0 0 0 0 0 0 0 0 0 0 0 5132 5132 5132 5210 5210 5210 5210 5210 5132 5132 5132 5132 5132 5132 5132 5132 5132 5056 5056 5056 5056 5056 5056 4983 4983 4983 4983 4983 4983 4983 4983 4911 4911 4983 4911 4911 4911 4911 4911 4911 4911 4911 4911 4842 4842 4842 4842 4842 4842 4842 4842 4842 4774 4774 4774 4774 4774 4842 4842 4842 4983 5056 5056 5056 6753 6753 6753 6753 6753 6753 6753 6753 6753 6753 6753 6753 6753 6622 6622 6753 6753 0 0 0 0 0 0 0 0 0 0 0 0 0 0 0 0 0 0 0 0 0 0 0 0 0 0 0 0 0 0 0 0 0 0 0 0 0 0 0 0 0 0 0 0 0 0 0 0 0 0 0 4041 3994 3994 3994 3994 4041 3994 3903 3903 3903 3903 3948 3903 3903 3948 3948 3948 3903 3903 3948 3859 3859 3859 3859 3816 3816 3816 3816 3816 3816 3816 3816 3816 3816 3816 3732 3732 5056 5056 5056 4983 4911 4911 4911 4911 4911 4911 0 0 0 0 0 0 0 0 0 0 0 0 0 4774 4774 4774 4774 4774 4708 4708 4708 4708 4708 0 0 4774 4774 4708 4708 4708 4708 4708 4708 4708 4708 4708 4774 4774 4708 4708 4708 4708 4708 4774 4708 4708 4708 4582 4582 4405 4405 4405 2767 2767 2767 2767 2767 2744 2744 2744 2744 2744 2767 2767 2767 2767 2767 2767 2767 2767 2767 2744 2744 2723 2723 2723 2723 2723 2723 2744 2744 2744 2744 2744 2744 2767 2767 2767 2789 2789 2789 2789 2789 2789 0 0 0 0 0 0 0 0 0 0
0 0 0 0 0 0 0 0 0 0 0 0 0 0 0 0 0 0 0 0 0 0 0 0 0 0 0 0 0 0 4708 4708 4708 4774 4911 4911 4983 5210 5460 5640 5734 5734 5734 5734 5734 5734 5832 5832 5832 5832 5832 5832 5832 5832 5832 5832 5832 5933 5933 5832 5832 5832 5832 5832 5832 5832 5832 5832 5832 5734 5734 5734 5734 5832 5832 5832 5832 5832 5832 5933 6038 6038 6146 6146 6146 6146 6259 6259 6259 6259 6259 6259 6259 6259 6259 6259 6259 6259 6259 6375 6375 6375 6375 6259 6259 6259 6259 6259 6259 6259 6259 6259 6259 6259 6259 6259 6259 6259 6259 6259 6259 6259 6259 6259 6259 6375 6497 6497 6497 6497 6497 6497 6622 6497 6497 6622 6622 6622 6622 6622 6622 6753 6622 6622 6622 6622 6622 6622 6497 6497 6375 5832 5734 5734 5640 5640 5640 5640 5640 5640 5640 5640 5640 5640 5640 5640 5640 5640 3010 3010 3010 2984 2984 2984 2984 2984 2984 2984 2984 2984 2984 3010 3010 3010 3010 3010 3010 3010 3010 3010 3037 3037 3010 3010 3010 3037 3037 3037 3037 3037 3037 3037 3037 3037 3037 3037 3037 3037 3064 3064 3064 3064 3064 3064 3064 3064 3064 3064 3064 3064 3064 3064 3064 3092 3092 3092 3092 3092 3092 3092 3092 3092 3120 3120 3120 3120 3120 3120 3120 3120 3149 3149 3120 3120 3120 3120 3120 3120 3120 3120 3120 3120 3120 3120 3120 3120 3120 3120 3120 3120 3149 3149 3149 3149 3149 3149 3149 3149 3149 3149 3149 3149 3149 3149 3149 3149 3149 3149 3178 3178 3208 3208 3238 3238 6375 6375 6375 6375 6375 6375 6375 6375 6375 6375 6375 6375 6375 6375 6375 6375 6375 6375 6375 6375 6375 6375 6375 6375 6375 6375 6375 6375 6375 6375 6497 6497 6497 7332 7332 7332 0 0 0 0 0 0 0 0 0 0 0 0 0 0 0 0 0 0 0 0 0 0 0 0 0 0 0 0 0 0 0 0 0 0 0 0 0 5132 5132 5132 5210 5210 5210 5210 5210 5132 5132 5132 5132 5132 5132 5132 5132 5132 5056 5056 5056 4983 4983 4983 4983 4983 4983 4983 4983 4983 4983 4983 4911 4911 4983 4911 4911 4911 4911 4911 4911 4911 4911 4911 4842 4842 4842 4842 4842 4842 4842 4842 4842 4774 4774 4774 4774 4774 4842 4842 4911 4983 5056 5132 5132 6753 6753 6753 6753 6753 6753 6753 6753 6753 6753 6753 6753 6753 6622 6622 6753 6753 0 0 0 0 0 0 0 0 0 0 0 0 0 0 0 0 0 0 0 0 0 0 0 0 0 0 0 0 0 0 0 0 0 0 0 0 0 0 0 0 0 0 0 0 0 0 0 0 0 0 0 3994 3994 3948 3948 3948 3994 3903 3859 3859 3859 3859 3859 3903 3859 3859 3903 3903 3859 3859 3903 3859 3859 3859 3816 3816 3816 3816 3816 3816 3816 3816 3816 3816 3816 0 3732 3732 3732 3732 3732 4911 4911 4911 4911 4911 0 0 0 0 0 0 0 0 0 0 0 0 0 0 0 3816 3816 3816 4774 4774 4774 4774 4774 0 0 0 0 0 0 0 0 4708 4708 4708 4708 4708 4708 4708 4774 4774 4774 4774 4708 4708 4708 4774 4774 4708 4708 4582 4295 2744 2744 2767 2767 2767 2767 2767 2767 2744 2744 2744 2744 2744 2767 2767 2767 2767 2767 2767 2767 2767 2767 2744 2744 2723 2723 2744 2744 2744 2744 2744 2744 2744 2744 2744 2744 2767 2767 2767 2789 2789 2789 2789 2789 2789 0 0 0 0 0 0 0 0 0 0
0 0 0 0 0 0 0 0 0 0 0 0 0 0 0 0 0 0 0 0 0 0 0 0 0 0 0 0 0 0 4708 4708 4708 4842 4911 4911 4983 5210 5460 5640 5734 5734 5734 5734 5734 5832 5832 5832 5832 5832 5832 5832 5832 5832 5832 5832 5832 5933 5933 5832 5832 5832 5832 5832 5832 5832 5832 5832 5832 5734 5734 5734 5734 5832 5832 5832 5832 5832 5832 5933 6038 6038 6146 6146 6146 6146 6259 6259 6259 6259 6259 6259 6146 6146 6259 6259 6259 6375 6375 6375 6375 6375 6375 6259 6259 6259 6259 6259 6259 6259 6259 6259 6259 6259 6259 6259 6259 6259 6259 6259 6259 6259 6259 6259 6259 6375 6497 6497 6497 6497 6497 6497 6497 6497 6497 6622 6622 6622 6622 6622 6622 6753 6622 6622 6622 6622 6622 6622 6497 6146 5734 5640 5640 5640 5640 5640 5640 5640 5640 5640 5548 5548 5548 5548 5548 5548 5548 5548 3010 3010 3010 2984 2984 2984 2984 2984 2984 2984 2984 2984 3010 3010 3010 3010 3010 3037 3010 3010 3010 3010 3010 3037 3037 3037 3037 3037 3037 3037 3037 3037 3037 3037 3037 3037 3037 3037 3037 3064 3064 3064 3064 3064 3064 3064 3064 3064 3064 3064 3092 3092 3092 3092 3092 3092 3092 3092 3092 3092 3092 3092 3092 3092 3120 3120 3120 3120 3120 3120 3120 3120 3120 3120 3120 3120 3120 3120 3120 3120 3120 3120 3120 3120 3120 3120 3120 3120 3120 3120 3120 3120 3149 3149 3149 3149 3149 3149 3149 3149 3149 3149 3149 3149 3149 3149 3149 3149 3149 3149 3178 3178 3208 3208 3238 3238 6259 6259 6375 6375 6375 6375 6259 6259 6259 6375 6375 6375 6375 6375 6375 6375 6375 6375 6375 6375 6375 6375 6375 6375 6375 6375 6375 6375 6375 6497 6497 6497 6497 7178 7178 7178 7492 0 0 0 0 0 0 0 0 0 0 0 7492 7492 7492 7492 7492 7492 0 0 0 0 0 0 0 0 6889 6889 0 0 6753 6753 6889 6889 0 0 0 5132 5132 5132 5210 5210 5210 5210 5132 5132 5132 5132 5132 5132 5132 5132 5056 5056 5056 5056 5056 4983 4983 4983 4983 4983 4983 4983 4983 4983 4983 4983 4911 4911 4983 4911 4911 4911 4911 4911 4911 4911 4911 4911 4842 4842 4842 4842 4842 4842 4842 4842 4842 4774 4774 4774 4774 4774 4842 4842 4911 4983 5056 5210 5210 6622 6622 6622 6622 6753 6753 6753 6753 6753 6753 6753 6753 6753 6622 6622 6753 0 0 0 0 0 0 0 0 0 0 0 0 0 0 0 0 0 0 0 0 0 0 0 0 0 0 0 0 0 0 0 0 0 0 0 0 0 0 0 0 0 0 0 0 0 0 0 0 0 0 0 0 3994 3948 3903 3903 3903 3948 3859 3859 3859 3816 3816 3859 3816 3816 3816 3859 3859 3859 3859 3859 3859 3859 3859 3816 3816 3816 3816 3816 3816 3774 3774 3774 3774 3774 3692 3732 3732 3732 3732 3732 3732 3732 3732 3732 3732 3692 3692 3692 0 0 0 0 0 0 0 0 0 0 3774 3816 3816 3816 3816 3816 3816 3816 3816 0 0 0 0 0 0 0 0 0 0 0 0 0 0 0 0 0 4774 4774 4774 4774 4774 4774 4842 4842 4774 4774 4842 2723 2723 2744 2744 2767 2767 2767 2789 2789 2789 2767 2767 2767 2767 2767 2767 2767 2767 2767 2767 2767 2767 2767 2744 2744 2744 2744 2744 2744 2744 2744 2767 2767 2767 2767 2767 2767 2767 2767 2789 2789 2789 2789 2789 2767 2767 0 0 0 0 0 0 0 0 0 0
0 0 0 0 0 0 0 0 0 0 0 0 0 0 0 0 0 0 0 0 0 0 0 0 0 0 0 0 0 0 4708 4708 4708 4774 4842 4911 4983 5210 5460 5640 5640 5734 5734 5734 5734 5832 5832 5832 5832 5832 5832 5832 5832 5832 5832 5832 5832 5832 5832 5832 5832 5832 5832 5832 5832 5832 5832 5832 5832 5734 5734 5734 5832 5832 5832 5832 5832 5832 5832 5832 6038 6038 6146 6146 6146 6146 6259 6259 6259 6259 6259 6146 6146 6146 6146 6146 6259 6375 6259 6259 6375 6375 6375 6259 6259 6259 6259 6375 6375 6375 6259 6259 6259 6259 6259 6259 6259 6259 6259 6259 6259 6259 6259 6375 6375 6375 6497 6497 6497 6497 6497 6497 6497 6497 6497 6622 6622 6622 6622 6622 6622 6753 6622 6622 6622 6622 6622 6622 5734 5640 5640 5640 5640 5548 5548 5548 5548 5548 5640 5548 5548 5548 5548 5548 5548 5548 5548 5548 5548 3010 3010 2984 2984 2984 2984 2984 2984 2984 2984 2984 3010 3010 3010 3010 3010 3010 3010 3010 3010 3010 3010 3037 3037 3037 3037 3037 3037 3037 3037 3037 3037 3037 3037 3037 3037 3037 3037 3064 3064 3064 3064 3064 3064 3064 3064 3064 3064 3092 3092 3092 3092 3092 3092 3092 3092 3092 3092 3092 3092 3092 3092 3092 3092 3120 3120 3120 3120 3120 3120 3120 3120 3120 3120 3120 3120 3120 3120 3120 3120 3120 3120 3120 3120 3120 3120 3120 3120 3120 3120 3120 3149 3149 3149 3149 3149 3149 3149 3149 3149 3149 3149 3149 3149 3149 3149 3149 3149 3149 3178 3208 3208 3208 3238 3238 6259 6259 6375 6375 6375 6375 6259 6259 6259 6375 6375 6375 6497 6375 6375 6497 6497 6497 6497 6497 6375 6375 6497 6497 6497 6497 6375 6375 6375 6497 6497 6497 6889 6889 7030 7178 7178 0 0 0 0 0 0 0 7492 7492 7492 7492 7492 7492 7492 7492 7492 7492 7492 7492 7492 7492 7492 0 0 6889 6889 6889 6889 6889 6753 6753 6889 6889 7178 7178 5132 5132 5132 5132 5210 5210 5210 5132 5132 5132 5132 5132 5132 5132 5132 5056 5056 5056 5056 5056 5056 4983 4983 4983 4983 4983 4983 4983 4983 4983 4911 4911 4911 4911 4911 4911 4911 4911 4911 4911 4911 4911 4911 4911 4842 4842 4842 4842 4842 4842 4842 4911 4911 4774 4774 4842 4774 4774 4842 4842 4911 4983 5132 5132 5132 6497 6497 6497 6622 6753 6753 6753 6753 6753 6753 6753 6753 6753 6622 6622 0 0 0 0 0 0 0 0 0 0 0 0 0 0 0 0 0 0 0 0 0 0 0 0 0 0 0 0 0 0 0 0 0 0 0 0 0 0 0 0 0 0 0 0 0 0 0 0 0 0 0 0 0 0 3948 3903 3903 3903 3692 3692 3732 3774 3732 3732 3732 3816 3774 3774 3816 3816 3816 3816 3859 3859 3859 3859 3859 3816 3816 3816 3774 3774 3774 3774 3732 3692 3692 3692 3692 3732 3692 3692 3732 3732 3732 3692 3692 3692 3692 3692 3692 0 0 0 0 0 0 0 0 0 0 0 3774 3774 3774 3816 3816 3816 3816 3774 3774 0 0 0 0 0 0 0 0 0 0 0 0 0 0 0 0 0 0 0 0 0 0 0 4911 4911 4911 4911 2723 2723 2744 2744 2767 2767 2767 2789 2789 2789 2789 2767 2767 2767 2767 2767 2767 2767 2767 2767 2767 2767 2767 2767 2767 2744 2744 2744 2744 2744 2744 2767 2767 2767 2767 2767 2767 2767 2789 2789 2789 2789 2789 2789 2767 2767 0 0 0 0 0 0 0 0 0 0
0 0 0 0 0 0 0 0 0 0 0 0 0 0 0 0 0 0 0 0 0 0 0 0 0 0 0 0 0 0 4645 4645 4708 4708 4774 4911 4983 5210 5460 5640 5640 5734 5734 5734 5734 5832 5832 5832 5832 5832 5832 5832 5832 5832 5832 5832 5832 5832 5832 5832 5832 5832 5832 5832 5832 5832 5832 5832 5832 5734 5734 5832 5832 5832 5832 5832 5832 5734 5734 5832 5933 6038 6146 6146 6146 6146 6259 6259 6259 6259 6259 6146 6146 6146 6146 6146 6259 6259 6259 6259 6375 6375 6259 6259 6259 6259 6146 6146 6259 6259 6259 6259 6259 6259 6259 6259 6259 6375 6375 6375 6375 6375 6375 6375 6375 6497 6497 6497 6497 6497 6497 6497 6497 6497 6622 6622 6622 6622 6622 6622 6622 6622 6622 6622 6622 6622 6622 6622 5548 5548 5548 5548 5548 5548 5548 5548 5548 5548 5548 5548 5548 5548 5548 5548 5548 5548 5460 5460 5548 2984 2984 3010 3010 3010 3010 3010 3010 2984 2984 2984 3010 3010 3010 3010 3010 3010 3010 3010 3010 3010 3010 3037 3037 3037 3037 3037 3037 3037 3037 3037 3037 3037 3037 3064 3064 3064 3064 3064 3064 3064 3064 3064 3064 3064 3064 3064 3064 3092 3092 3092 3092 3092 3092 3092 3092 3092 3092 3092 3092 3092 3092 3092 3092 3120 3120 3120 3120 3120 3120 3120 3149 3120 3120 3120 3120 3120 3120 3120 3120 3120 3120 3120 3120 3120 3120 3120 3120 3120 3120 3120 3149 3149 3149 3149 3149 3149 3149 3149 3149 3149 3149 3149 3149 3149 3149 3149 3178 3178 3178 3208 3208 3208 3238 3238 6146 6259 6375 6375 6375 6375 6375 6375 6375 6375 6375 6375 6497 6497 6497 6497 6497 6497 6497 6497 6497 6497 6497 6497 6497 6497 6497 6497 6497 6497 6622 6622 6889 6889 7030 7030 7178 7178 0 0 7178 7178 7178 7492 7492 7492 7492 7492 7492 7492 7492 7492 7492 7492 7492 7492 7492 7492 7492 7332 7332 6889 6889 6889 6889 6889 6889 6889 7030 7030 7178 7178 5132 5132 5132 5132 5210 5210 5210 5132 5132 5132 5132 5132 5132 5132 5056 5056 5056 5056 5056 5056 5056 4983 4983 4983 4983 4983 4983 4983 4983 4983 4911 4911 4911 4911 4911 4911 4911 4911 4911 4911 4911 4911 4911 4911 4842 4842 4842 4842 4842 4842 4842 4842 4842 4774 4774 4774 4774 4774 4774 4774 4842 4842 5132 5132 0 6497 6497 6497 6622 6622 6753 6753 6753 6622 6622 6622 6622 6622 6375 6375 0 0 0 0 0 0 0 0 0 0 0 0 0 0 0 0 0 0 0 0 0 0 0 0 0 0 0 0 0 0 0 0 0 0 0 0 0 0 0 0 0 0 0 0 0 0 0 0 0 0 0 0 0 0 3948 3653 3653 3614 3614 3692 3692 3692 3653 3653 3653 3774 3774 3774 3816 3816 3816 3816 3859 3859 3859 3859 3576 3774 3774 3774 3774 3732 3732 3692 3692 3692 3692 3692 3692 3692 3692 3692 3692 3692 3692 3692 3692 3692 3692 3692 3692 0 0 0 0 0 0 0 0 0 0 0 3774 3732 3732 3774 3774 3774 3774 3774 3774 0 0 0 0 0 0 0 0 0 0 0 0 0 0 0 0 0 0 0 0 0 0 0 0 0 0 0 2744 2744 2767 2789 2789 2767 2767 2789 2789 2789 2767 2767 2767 2767 2767 2767 2767 2767 2767 2767 2767 2767 2767 2767 2767 2744 2744 2744 2744 2744 2744 2767 2767 2767 2767 2767 2767 2789 2789 2789 2789 2812 2789 2789 2789 2789 0 0 0 0 0 0 0 0 0 0
0 0 0 0 0 0 0 0 0 0 0 0 0 0 0 0 0 0 0 0 0 0 0 0 0 0 0 0 0 0 4645 4645 4708 4708 4774 4911 4983 5291 5460 5640 5640 5640 5734 5734 5734 5832 5832 5832 5832 5832 5832 5832 5832 5832 5832 5832 5832 5832 5832 5832 5832 5832 5832 5832 5832 5832 5933 5933 5933 5832 5832 5734 5734 5832 5832 5832 5832 5734 5734 5832 5933 6038 6146 6146 6146 6259 6259 6259 6259 6259 6259 6259 6259 6259 6259 6259 6259 6259 6259 6259 6375 6375 6259 6259 6259 6259 6146 6146 6259 6259 6259 6259 6259 6259 6259 6375 6375 6375 6375 6375 6375 6375 6375 6375 6375 6497 6497 6497 6497 6497 6497 6497 6497 6497 6497 6622 6622 6622 6622 6622 6622 6622 6622 6622 6753 6622 6622 5734 5548 5548 5548 5548 5548 5548 5548 5548 5460 5460 5548 5548 5548 5548 5548 5548 5548 5548 5460 5460 5548 2984 2984 3010 3010 3010 3010 3010 3010 2984 2984 2984 3010 3010 3010 3010 3010 3037 3037 3037 3010 3010 3037 3037 3037 3037 3037 3037 3037 3037 3037 3037 3037 3037 3037 3064 3064 3064 3064 3064 3064 3064 3064 3064 3064 3064 3064 3064 3064 3092 3092 3092 3092 3092 3092 3092 3092 3092 3092 3092 3092 3092 3092 3092 3120 3120 3120 3120 3120 3120 3120 3120 3149 3149 3120 3120 3120 3120 3120 3120 3120 3120 3120 3120 3120 3120 3120 3120 3120 3120 3120 3120 3149 3149 3149 3149 3149 3149 3149 3149 3149 3149 3149 3149 3149 3149 3149 3149 3178 3178 3208 3208 3208 3208 3238 6146 6146 6259 6375 6375 6375 6375 6375 6375 6497 6497 6497 6622 6622 6497 6497 6497 6497 6497 6497 6497 6497 6497 6622 6622 6622 6622 6622 6497 6497 6622 6622 6622 6889 6889 7030 7030 7178 7030 7030 7332 7178 7178 7178 7492 7492 7492 7492 7492 7492 7492 7492 7492 7492 7492 7492 7492 7492 7492 7492 7332 7332 7178 7178 7178 7178 7178 7178 7178 7178 7178 7332 7332 7332 5132 5132 5132 5132 5210 5132 5132 5132 5132 5132 5132 5132 5056 5056 5056 4983 4983 4983 4983 4983 4983 4983 4983 4983 4983 4983 4911 4911 4911 4911 4911 4911 4911 4911 4911 4911 4911 4911 4911 4911 4911 4911 4842 4842 4842 4842 4842 4842 4842 4842 4842 4842 4774 4774 4774 4774 4774 4774 4774 4842 4842 4842 4842 6753 6622 6622 6622 6622 6622 6753 6622 6622 6622 6622 6622 6497 6497 6375 6375 0 0 0 0 0 0 0 0 0 0 0 0 0 0 0 0 0 0 0 0 0 0 0 0 0 0 0 0 0 0 0 0 0 0 0 0 0 0 0 0 0 0 0 0 0 0 0 0 0 0 0 0 0 0 3614 3614 3653 3614 3614 3614 3614 3653 3614 3614 3614 3614 3732 3732 3732 3732 3774 3903 3903 3994 3994 3994 3576 3576 3576 3614 3614 3653 3653 3653 3653 3653 3614 3614 3653 3692 3692 3692 3692 3692 3692 3692 3653 3653 3653 3614 3614 3576 3576 3576 3614 0 0 0 0 3692 3692 3692 3692 3692 3692 3732 3732 3732 3732 3732 3732 3732 3732 0 0 0 0 0 0 0 0 0 0 0 0 0 0 0 0 0 0 0 0 0 0 0 0 0 2812 2812 2812 2812 2789 2789 2789 2789 2789 2767 2767 2767 2767 2744 2744 2767 2767 2767 2767 2767 2789 2789 2767 2767 2789 2767 2767 2744 2744 2767 2767 2767 2767 2767 2767 2767 2789 2789 2789 2789 2812 2812 2812 2789 2789 2812 0 0 0 0 0 0 0 0 0 0
0 0 0 0 0 0 0 0 0 0 0 0 0 0 0 0 0 0 0 0 0 0 0 0 0 0 0 0 0 0 4645 4645 4708 4708 4774 4911 5056 5374 5460 5640 5640 5640 5734 5734 5734 5832 5832 5832 5832 5832 5832 5832 5832 5832 5832 5832 5832 5832 5832 5832 5832 5832 5832 5933 5933 5933 5933 5933 5933 5832 5832 5734 5734 5832 5734 5734 5734 5734 5734 5832 5933 6146 6146 6146 6146 6259 6259 6259 6259 6259 6259 6259 6259 6259 6259 6259 6259 6259 6259 6259 6375 6375 6375 6259 6259 6259 6146 6146 6259 6375 6375 6259 6259 6259 6259 6375 6375 6375 6375 6375 6375 6375 6375 6375 6375 6497 6497 6497 6497 6497 6497 6497 6497 6497 6497 6622 6622 6622 6622 6622 6622 6753 6753 6753 6622 6622 6622 5734 5548 5548 5548 5548 5548 5548 5548 5548 5460 5460 5548 5548 5548 5548 5548 5548 5548 5548 5548 5548 5548 5548 3010 3010 3010 3010 3010 3010 3010 2984 2984 3010 3010 3010 3037 3037 3037 3037 3037 3037 3010 3010 3037 3037 3037 3037 3037 3037 3037 3037 3037 3037 3037 3064 3064 3064 3064 3064 3064 3064 3064 3064 3064 3064 3064 3064 3064 3064 3064 3092 3092 3092 3092 3092 3092 3092 3092 3092 3092 3092 3092 3092 3092 3120 3120 3120 3120 3120 3120 3120 3149 3149 3149 3149 3120 3120 3120 3120 3120 3120 3120 3120 3120 3120 3120 3120 3120 3120 3120 3120 3120 3120 3149 3149 3149 3149 3149 3149 3149 3149 3149 3149 3149 3149 3149 3178 3149 3149 3178 3178 3208 3208 3208 3208 3238 6146 6146 6259 6375 6375 6375 6497 6622 6622 6753 6889 7030 7030 7030 6889 6753 6622 6622 6622 6622 6622 6622 6622 6889 7332 7332 6622 6622 6622 6622 6622 6753 6753 6889 6889 7030 7178 7178 7030 7030 7030 7332 7332 7332 7332 7492 7492 7492 7492 7492 7492 7492 7492 7492 7492 7492 7492 7492 7492 7492 7332 7332 7178 7178 7178 7178 7178 7178 7178 7178 7178 7332 7332 7332 7332 5132 5132 5132 5210 5132 5132 5132 5132 5132 5132 5132 5056 5056 5056 4983 4983 4983 4983 4983 4983 4983 4983 4983 4911 4911 4911 4911 4911 4911 4911 4911 4911 4911 4911 4911 4911 4911 4911 4911 4911 4911 4842 4842 4842 4842 4842 4842 4842 4842 4842 4842 4774 4774 4774 4774 4774 4774 4774 4842 4842 4842 0 6753 6753 6622 6622 6753 6753 6622 6622 6622 6622 6622 6622 6497 6497 6375 6375 0 0 0 0 0 0 0 0 0 0 0 0 0 0 0 0 0 0 0 0 0 0 0 0 0 0 0 0 0 0 0 0 0 0 0 0 0 0 0 0 0 0 0 0 0 0 0 0 0 0 0 0 0 3614 3614 3614 3614 3614 3614 3576 3576 3576 3576 3576 3576 3503 3503 3732 3732 3732 3774 0 0 0 3576 3576 3576 3576 3576 3576 3576 3576 3614 3614 3614 3614 3576 3576 3614 3692 3692 3653 3653 3653 3692 3653 3653 3614 3614 3614 3614 3576 3576 3576 3576 3576 3576 3576 0 3653 3653 3653 3653 3653 3653 3692 3732 3732 3732 3732 3732 3732 3732 3732 0 0 0 0 0 0 0 0 0 0 0 0 0 0 0 0 0 0 0 0 0 0 0 0 2789 2789 2789 2789 2789 2789 2789 2789 2789 2767 2767 2767 2767 2744 2744 2767 2767 2767 2767 2767 2789 2789 2789 2789 2789 2767 2767 2744 2744 2767 2767 2767 2767 2767 2767 2789 2789 2789 2789 2789 2812 2812 2812 2789 2789 2812 0 0 0 0 0 0 0 0 0 0
0 0 0 0 0 0 0 0 0 0 0 0 0 0 0 0 0 0 0 0 0 0 0 0 0 0 0 0 0 0 4645 4645 4708 4708 4774 4842 4983 5291 5460 5640 5640 5640 5734 5832 5832 5832 5832 5832 5832 5832 5832 5832 5832 5832 5832 5832 5832 5832 5832 5832 5832 5832 5832 5933 5933 5933 5933 5933 5933 5832 5832 5734 5734 5734 5734 5734 5734 5734 5734 5832 5933 6038 6146 6146 6146 6259 6259 6259 6259 6259 6259 6259 6259 6259 6259 6259 6259 6259 6259 6259 6259 6259 6375 6259 6259 6259 6259 6259 6259 6375 6375 6259 6259 6259 6259 6259 6259 6375 6259 6259 6375 6375 6375 6375 6375 6375 6497 6497 6497 6497 6497 6497 6497 6497 6497 6622 6622 6622 6622 6622 6622 6753 6753 6753 6622 6622 5832 5640 5548 5548 5548 5548 5548 5548 5460 5460 5460 5460 5460 5460 5548 5548 5548 5548 5548 5548 5548 5548 5548 5548 3037 3037 3037 3037 3010 3010 3037 3010 3010 3010 3010 3037 3037 3037 3037 3037 3037 3037 3037 3037 3037 3037 3037 3037 3037 3037 3037 3037 3037 3064 3064 3064 3064 3064 3064 3064 3064 3064 3064 3064 3064 3064 3064 3064 3064 3064 3064 3092 3092 3092 3092 3092 3092 3092 3092 3092 3092 3092 3092 3092 3092 3120 3120 3120 3120 3120 3149 3149 3149 3149 3149 3149 3120 3120 3120 3120 3120 3120 3120 3120 3120 3120 3120 3120 3120 3120 3120 3120 3120 3120 3149 3149 3149 3149 3149 3149 3149 3149 3149 3149 3149 3149 3149 3178 3178 3178 3178 3178 3208 3208 3208 3208 3238 3238 6497 6497 6497 6497 6497 6622 6889 7030 7030 7178 7178 7178 7178 7332 7178 7030 6889 6889 6889 6889 6889 6889 7178 7332 7332 7178 7178 6753 6753 6753 6753 6753 6889 6889 7178 7178 7178 7030 7030 7030 7332 7332 7332 7332 7492 7492 7492 7492 7492 7492 7492 7492 7492 7492 7492 7492 7492 7492 7492 7332 7332 7178 7178 7332 7332 7332 7332 7332 7332 7332 7332 7332 7332 7178 5132 5132 5132 5132 5132 5132 5132 5132 5132 5132 5132 5056 5056 5056 4983 4983 4983 4983 4983 4983 4983 4983 4911 4911 4911 4911 4911 4911 4911 4911 4911 4911 4911 4911 4911 4911 4911 4911 4911 4911 4911 4842 4842 4842 4842 4842 4842 4842 4842 4842 4842 4774 4774 4774 4774 4774 4774 4774 4842 4842 4842 0 6753 6753 6622 6622 6753 6753 6622 6622 6622 6622 6622 6622 6497 6497 6497 0 0 0 0 0 0 0 0 0 0 0 0 0 0 0 0 0 0 0 0 0 0 0 0 0 3468 3468 0 0 0 0 0 0 0 0 0 0 0 0 0 0 0 0 0 0 0 0 0 0 0 0 0 0 0 3614 3576 3576 3576 3576 3576 3576 3576 3539 3539 3539 3503 3503 3503 3433 0 0 0 0 0 0 0 0 3539 3539 3539 3539 3539 3539 3539 3539 3539 3539 3576 3576 3576 3576 3576 3576 3614 3614 3614 3614 3614 3614 3614 3614 3576 3576 3576 3576 3576 3576 3576 3576 3576 3614 3653 3653 3653 3653 3653 3692 3732 3732 3732 3732 3692 3692 3732 3692 3692 3653 3653 0 0 0 3614 3614 3614 3653 3653 3653 0 0 0 0 0 0 0 0 0 0 0 0 2789 2789 2789 2789 2789 2789 2789 2789 2789 2789 2767 2767 2767 2767 2767 2767 2767 2767 2767 2767 2789 2789 2789 2789 2789 2767 2767 2744 2744 2767 2767 2767 2767 2767 2767 2789 2789 2789 2789 2812 2812 2812 2812 2812 2812 2812 0 0 0 0 0 0 0 0 0 0
0 0 0 0 0 0 0 0 0 0 0 0 0 0 0 0 0 0 0 0 0 0 0 0 0 0 0 0 0 0 4645 4645 4645 4708 4708 4842 4983 5210 5460 5640 5734 5734 5734 5832 5832 5832 5832 5832 5734 5734 5734 5832 5832 5832 5832 5832 5832 5832 5832 5832 5832 5832 5832 5933 5933 5933 5933 5933 5933 5832 5832 5734 5734 5734 5734 5734 5734 5832 5832 5832 5933 6038 6146 6146 6146 6259 6259 6259 6259 6259 6259 6259 6259 6259 6259 6259 6259 6259 6259 6259 6259 6259 6375 6259 6259 6259 6146 6146 6259 6375 6375 6375 6259 6259 6375 6259 6259 6375 6259 6259 6375 6375 6375 6375 6375 6375 6497 6497 6497 6497 6497 6497 6497 6497 6497 6622 6622 6622 6622 6622 6622 6753 6753 6753 6622 6622 5832 5640 5548 5548 5548 5548 5548 5548 5460 5460 5460 5460 5460 5460 5460 5460 5548 5548 5640 5548 5548 5548 5548 5548 3037 3010 3010 3037 3010 3010 3037 3010 3010 3010 3010 3037 3037 3037 3037 3037 3037 3037 3037 3037 3037 3037 3037 3037 3037 3037 3037 3037 3037 3064 3064 3064 3064 3064 3064 3064 3064 3064 3064 3064 3064 3064 3064 3064 3064 3064 3064 3092 3092 3092 3092 3092 3092 3092 3092 3092 3092 3092 3092 3092 3092 3120 3120 3120 3120 3149 3149 3149 3149 3149 3149 3149 3120 3120 3120 3120 3120 3120 3120 3120 3120 3120 3120 3120 3120 3120 3120 3120 3120 3120 3149 3149 3149 3149 3149 3149 3149 3149 3149 3149 3149 3149 3149 3178 3178 3178 3178 3178 3208 3208 3208 3208 3238 3238 7492 7492 7332 7030 7030 7178 7178 7332 7332 7332 7332 7332 7492 7492 7332 7332 7178 7178 7030 7030 7030 7030 7178 7332 7332 7332 7332 7178 6889 6889 6753 6753 6889 7030 7178 7178 7178 7030 7030 7178 7178 7178 7332 7332 7492 7492 7492 7492 7492 7492 7492 7492 7492 7492 7492 7492 7492 7492 7492 7332 7332 7178 7178 7332 7332 7332 7332 7332 7332 7332 7332 7332 7332 5056 5056 5132 5132 5132 5132 5132 5132 5132 5132 5132 5132 5056 5056 5056 4983 4983 4983 4983 4983 4983 4911 4911 4911 4911 4911 4911 4911 4911 4911 4911 4911 4911 4911 4911 4911 4842 4842 4911 4911 4911 4911 4842 4842 4842 4842 4842 4842 4842 4842 4842 4842 4774 4774 4774 4774 4774 4774 4842 4842 5056 5056 0 6753 6753 6753 6753 6753 6753 6753 6622 6622 6497 6497 6622 6622 6622 6622 6622 0 0 0 0 0 0 0 0 0 0 0 0 0 0 0 0 0 0 0 0 0 0 0 0 3468 3468 0 0 0 0 0 0 0 0 0 0 0 0 0 0 0 0 0 0 0 0 0 0 0 0 0 3576 3539 3539 3539 3539 3576 3576 3576 3539 3539 3503 3503 3468 3468 3468 3433 3433 0 0 0 0 0 0 0 0 3503 3503 3503 3503 3503 3503 3468 3468 3468 3503 3503 3503 3539 3539 3576 3576 3614 3576 3576 3576 3576 3576 3576 3539 3539 3539 3539 3576 3576 3576 3576 3576 3576 3614 3614 3614 3614 3614 3614 3692 3732 3732 3732 3732 3692 3692 3692 3653 3653 3614 3576 3539 3539 3539 3539 3576 3576 3576 3576 3614 3653 3653 3653 0 0 0 0 0 0 3653 3653 3653 2723 2723 2789 2789 2789 2789 2789 2789 2789 2789 2789 2767 2767 2767 2767 2767 2767 2767 2767 2767 2789 2789 2789 2789 2789 2767 2767 2744 2744 2767 2767 2767 2767 2767 2767 2789 2789 2789 2789 2812 2812 2812 2812 2812 2812 2812 0 0 0 0 0 0 0 0 0 0
0 0 0 0 0 0 0 0 0 0 0 0 0 0 0 0 0 0 0 0 0 0 0 0 0 0 0 0 0 0 4645 4645 4645 4708 4708 4708 4911 5210 5460 5640 5640 5640 5734 5734 5734 5734 5734 5734 5734 5734 5734 5832 5832 5832 5832 5832 5832 5832 5832 5832 5832 5933 5933 5933 5933 5933 5933 5933 5933 5832 5832 5734 5734 5734 5734 5832 5832 5832 5832 5832 5933 6038 6146 6146 6146 6259 6259 6259 6259 6259 6259 6259 6259 6259 6259 6259 6259 6259 6259 6259 6259 6375 6375 6375 6259 6259 6146 6146 6259 6375 6375 6375 6375 6375 6375 6375 6375 6375 6259 6259 6375 6375 6497 6375 6375 6375 6497 6497 6497 6497 6497 6497 6497 6497 6497 6497 6497 6622 6622 6622 6622 6622 6753 6753 6622 6622 5933 5734 5640 5548 5548 5548 5548 5548 5460 5460 5460 5460 5460 5460 5460 5460 5548 5548 5640 5640 5548 5548 5548 5548 5548 3010 3010 3010 3010 3010 3010 3010 3010 3010 3010 3037 3037 3037 3037 3037 3037 3037 3037 3037 3037 3037 3037 3037 3037 3037 3037 3037 3037 3064 3064 3064 3064 3064 3064 3064 3064 3064 3064 3064 3064 3064 3064 3064 3064 3064 3092 3092 3092 3092 3092 3092 3092 3092 3120 3120 3092 3092 3120 3120 3120 3120 3120 3149 3149 3149 3149 3149 3149 3149 3149 3149 3120 3120 3120 3120 3120 3120 3120 3120 3120 3120 3120 3120 3120 3120 3120 3120 3120 3120 3149 3149 3149 3149 3149 3149 3149 3149 3149 3149 3149 3149 3149 3178 3178 3178 3178 3178 3208 3208 3208 3208 3238 3238 7492 7492 7332 7332 7332 7332 7332 7332 7332 7492 7492 7492 7492 7492 7332 7332 7178 7178 7178 7178 7030 7030 7178 7492 7492 7492 7332 7178 7030 6889 6753 6753 6753 6889 7178 7178 7178 7030 7030 7178 7178 7178 7332 7332 7492 7492 7492 7492 7492 7492 7492 7492 7492 7492 7492 7492 7492 7492 7492 7332 7332 7332 7332 7332 7332 7332 7332 7332 7332 7332 7332 7332 7178 4983 4983 5056 5132 5132 5132 5132 5132 5132 5132 5132 5132 5056 5056 5056 4983 4983 4983 4983 4983 4983 4911 4911 4911 4911 4911 4911 4911 4911 4911 4911 4911 4911 4911 4911 4911 4842 4842 4911 4842 4842 4842 4842 4842 4842 4842 4842 4842 4842 4842 4842 4842 4842 4842 4842 4842 4842 4842 4911 4911 5056 5056 6622 6753 6753 6753 6753 6753 6753 6753 6622 6622 6497 6497 6622 6622 6622 6622 6622 0 0 0 0 0 0 0 0 0 0 0 0 0 0 0 0 0 0 0 0 0 0 0 3503 3503 3503 3539 3503 3503 0 0 0 0 0 0 0 0 0 0 0 0 0 0 0 0 0 0 0 3433 3433 3433 3433 3539 3468 3468 3539 3539 3576 3576 3539 3539 3503 3503 3468 3433 3433 3433 3433 0 0 0 0 0 0 3433 3433 3433 3433 3468 3468 3503 3503 3468 3468 3468 3468 3468 3468 3468 3468 3503 3468 3468 3503 3503 3503 3503 3576 3576 3539 3539 3539 3539 3576 3576 3576 3576 3576 3576 3576 3576 3576 3576 3576 3576 3692 3732 3732 3732 3732 3692 3692 3692 3576 3576 3576 3503 3468 3468 3503 3503 3539 3539 3539 3539 3576 3576 3576 3576 0 0 0 0 0 0 3539 3539 3539 2723 2723 2789 2789 2812 2812 2812 2789 2789 2767 2767 2767 2767 2767 2767 2767 2767 2767 2767 2767 2789 2789 2789 2789 2789 2789 2789 2744 2744 2767 2767 2767 2767 2767 2767 2789 2789 2789 2812 2812 2812 2812 2812 2812 2812 2812 0 0 0 0 0 0 0 0 0 0
0 0 0 0 0 0 0 0 0 0 0 0 0 0 0 0 0 0 0 0 0 0 0 0 0 0 0 0 0 0 4645 4645 4645 4708 4708 4708 4911 4983 5374 5640 5640 5640 5734 5734 5640 5640 5734 5734 5734 5734 5734 5832 5832 5832 5832 5832 5832 5832 5832 5832 5832 5933 5933 5933 5933 5933 5933 5933 5933 5832 5832 5734 5734 5734 5734 5832 5832 5832 5832 5832 5832 5933 6038 6038 6146 6146 6259 6259 6259 6259 6259 6259 6259 6259 6259 6375 6375 6259 6259 6259 6259 6375 6375 6259 6259 6259 6259 6259 6259 6375 6375 6375 6375 6375 6375 6375 6375 6375 6375 6375 6375 6375 6375 6375 6375 6375 6497 6497 6497 6497 6497 6497 6497 6497 6497 6497 6497 6622 6622 6622 6622 6622 6622 6622 6622 6497 5832 5734 5640 5548 5548 5548 5548 5548 5460 5460 5460 5460 5460 5460 5548 5548 5548 5548 5640 5640 5640 5640 5548 5548 5548 3010 3010 3010 3010 3010 3010 3010 3010 3010 3010 3037 3037 3037 3037 3037 3037 3037 3037 3037 3037 3037 3037 3037 3037 3037 3037 3037 3037 3037 3037 3037 3037 3064 3064 3064 3064 3064 3064 3064 3064 3064 3064 3092 3064 3064 3092 3092 3092 3092 3120 3120 3120 3120 3120 3120 3120 3120 3120 3120 3120 3149 3149 3149 3149 3149 3149 3149 3149 3149 3149 3149 3120 3120 3120 3120 3120 3120 3120 3120 3120 3120 3120 3120 3120 3120 3120 3149 3120 3120 3149 3149 3149 3149 3149 3149 3149 3149 3149 3149 3149 3149 3149 3178 3178 3178 3178 3178 3208 3208 3208 3208 3238 3269 3269 7492 7492 7492 7492 7492 7492 7492 7492 7492 7492 7492 7492 7492 7332 7332 7178 7178 7332 7332 7332 7332 7332 7492 7492 7492 7332 7178 7030 6753 6753 6753 6753 6889 7178 7332 7332 7332 7178 7178 7332 7332 7332 7332 7492 7492 7492 7492 7492 7492 7492 7492 7492 7660 7492 7492 7492 7492 7492 7332 7332 7332 7332 7332 7332 7332 7332 7332 7332 7332 7030 7030 7178 4983 4983 5056 5056 5132 5132 5132 5132 5132 5132 5132 5132 5056 5056 5056 5056 4983 4983 4983 4983 4983 4911 4911 4911 4911 4911 4911 4911 4911 4911 4911 4911 4911 4911 4842 4842 4842 4842 4842 4842 4842 4842 4842 4842 4842 4842 4842 4842 4842 4842 4842 4842 4842 4842 4842 4842 4842 4842 4911 4983 4983 0 6622 6622 6622 6753 6753 6753 6753 6622 6622 6622 6622 6622 6622 6622 6622 6622 6622 6753 0 0 0 0 0 0 0 0 0 0 0 0 0 0 0 0 0 0 0 0 0 0 3503 3503 3503 3503 3468 3468 3468 0 0 0 0 0 0 0 0 0 0 0 0 0 0 0 3468 3433 3433 3433 3433 3433 3433 3468 3468 3468 3468 3503 3503 3503 3503 3503 3468 3468 3468 3433 3433 3433 3433 0 0 0 0 0 3399 3399 3433 3433 3433 3433 3468 3468 3468 3468 3468 3433 3433 3433 3433 3433 3433 3433 3433 3433 3468 3468 3468 3503 3539 3576 3576 3576 3576 3576 3576 3576 3576 3576 3576 3576 3576 3576 3539 3539 3539 3539 3539 3539 3399 3732 3732 3692 3653 3576 3539 3503 3503 3468 3468 3468 3468 3468 3503 3503 3503 3503 3539 3503 3503 3539 0 0 0 3468 3468 3468 3468 3503 3503 3503 2789 2789 2789 2812 2812 2812 2789 2767 2767 2767 2767 2767 2744 2744 2767 2767 2767 2767 2767 2789 2789 2789 2789 2789 2789 2789 2767 2767 2767 2767 2789 2767 2767 2789 2789 2789 2789 2812 2812 2812 2812 2812 2812 2812 2812 0 0 0 0 0 0 0 0 0 0
