0 0 0 0 0 0 0 0 0 0 0 0 0 0 0 0 0 0 0 0 0 0 0 0 0 0 0 0 0 0 0 3300 3300 3300 3300 3333 3333 3333 3333 3333 3333 3333 3333 3333 3333 3300 3300 3300 3300 3300 3333 3333 3333 3333 3333 3300 3300 3300 3300 3300 3300 3300 3333 3333 3333 3333 3333 3300 3300 3269 3269 3269 3300 3300 3300 3300 3300 3300 3333 3300 3300 3300 3300 3300 3300 3300 3300 3300 3300 3300 3300 3300 0 0 0 0 0 1433 1433 1433 1433 1433 1433 1433 1433 1433 1433 1433 1433 1439 1445 1452 1452 1452 1458 1464 1543 1543 1543 1543 1550 1550 1550 1543 1543 1543 1543 1543 1543 1543 1543 1543 1543 1543 1543 1543 1543 1543 1543 1543 1543 1543 1536 1536 1536 1536 1536 1536 1529 1529 1529 1529 1529 1529 1529 1529 1529 1529 1529 1523 1523 1523 1523 1523 1523 1523 1523 1523 1523 1523 1523 1523 1523 1523 1516 1516 1516 1516 1516 1516 1516 1516 1509 1509 1516 1516 1516 1516 1516 1516 1516 1516 1509 1509 1509 1503 1503 1503 1503 1376 1376 1381 1381 1381 1381 1381 1381 1381 1381 1381 1381 1381 1387 1392 1398 1398 1398 1404 1489 1489 1489 1489 1489 1489 1483 1483 1483 1483 1483 1477 1477 1477 1477 1477 1477 1477 1477 1477 1477 1477 1477 1477 1477 1477 1477 1470 1470 1470 1470 1464 1464 1464 1464 1464 1464 1464 1464 1464 1464 1464 1464 1273 1273 1273 1273 1273 1273 1273 1273 1273 1273 1273 1273 1278 1278 1278 1278 1278 1278 1278 1278 1273 1273 1273 1273 1273 1273 1273 1268 1268 1268 1268 1268 1268 1268 1268 1268 1264 1259 1259 1259 1259 1259 1259 1259 1259 1259 1259 1259 1259 1255 1255 1255 1255 1250 1250 1250 1250 1250 1250 1250 1250 1250 1250 1250 1250 1250 1250 1245 1245 1245 1245 1245 1241 1236 1236 1236 1236 1236 1236 1236 1236 1236 1236 1232 1232 1232 1232 1232 1232 1232 1232 1232 1232 1232 1232 1232 1232 1232 1232 1232 1232 1232 1232 1232 1232 1232 1232 1232 1232 1232 1232 1236 1232 1232 1232 1232 1232 1232 1232 1232 1232 1232 1232 1227 1227 1223 1219 1214 1214 1214 1214 1214 1214 1214 1210 1210 1210 1214 1214 1214 1214 1392 1392 1392 1392 1392 1398 1398 1398 1398 1398 1392 1392 1392 1392 1392 1387 1387 1387 1387 1387 1387 1387 1381 1381 1381 1381 1387 1381 1381 1387 1381 1381 1381 1381 1381 1376 1370 1370 1370 1370 1370 1370 1370 1370 1376 1376 1376 1370 1370 1365 1365 1365 1365 1365 1365 1365 1365 1365 1365 1365 1365 1365 1359 1359 1359 1359 1359 1359 1359 1359 1359 1359 1359 1359 1354 1354 1354 1354 1354 1354 1349 1349 1349 1349 1349 1343 1343 1343 1343 1349 1343 1343 1343 1343 1343 1343 1343 1343 1343 1338 1338 1333 1333 1333 1333 1333 1333 1333 1333 1328 1328 1328 1328 1328 1328 0 0 0 0 0 0 3365 3365 3399 3399 3399 3399 3399 3399 3399 3399 3399 3399 3399 3399 3399 3399 3399 3399 3399 3399 3399 3399 3399 3399 3399 3399 3433 3399 3399 3399 3399 3399 3399 3399 3399 3365 3365 3365 3365 3365 3365 3333 3333 3333 3365 3365 3333 3300 3300 3300 2984 2958 2958 3010 3037 3092 3149 3178 3178 3178 3178 3178 3149 3149 3149 3149 3149 3149 3149 3149 3149 3149 3120 3120 3120 3120 3120 3149 3120 3120 3120 3149 3149 3149 3120 3120 3149 3149 3149 3149 3149 3149 3208 3208 3208 3208 3238 3208 3178 3178 3178 3178 3178 3178 3178 3178 0 0 0 0 0 0 0 0 0 0 0
0 0 0 0 0 0 0 0 0 0 0 0 0 0 0 0 0 0 0 0 0 0 0 0 0 0 0 0 0 0 0 3300 3300 3300 3300 3300 3300 3333 3333 3333 3333 3333 3300 3300 3300 3269 3269 3269 3269 3269 3300 3300 3300 3300 3300 3300 3300 3300 3269 3269 3269 3269 3269 3300 3300 3300 3333 3300 3269 3269 3269 3269 3269 3269 3269 3269 3300 3300 3300 3300 3300 3300 3300 3300 3300 3300 3300 3300 3300 3300 3300 3269 3269 0 0 0 0 1433 1433 1433 1433 1433 1433 1433 1433 1433 1433 1433 1433 1445 1445 1452 1452 1452 1458 1464 1550 1543 1543 1543 1550 1550 1550 1543 1543 1543 1543 1543 1543 1543 1543 1543 1543 1543 1543 1543 1543 1543 1543 1543 1543 1543 1536 1536 1536 1536 1536 1536 1529 1529 1529 1529 1529 1529 1529 1529 1529 1529 1529 1529 1529 1529 1529 1529 1523 1523 1523 1523 1523 1523 1523 1523 1523 1523 1516 1516 1523 1516 1516 1516 1516 1516 1509 1509 1516 1516 1516 1516 1516 1516 1516 1509 1509 1509 1509 1509 1503 1503 1503 1503 1381 1381 1381 1381 1381 1381 1381 1381 1381 1381 1381 1381 1387 1392 1398 1398 1398 1404 1489 1489 1489 1489 1489 1489 1489 1489 1483 1483 1483 1483 1483 1483 1483 1483 1483 1477 1477 1477 1477 1477 1477 1477 1477 1477 1477 1470 1470 1470 1470 1470 1470 1464 1464 1464 1464 1464 1464 1464 1464 1464 1464 1273 1273 1273 1273 1273 1273 1273 1273 1273 1273 1273 1278 1278 1278 1278 1278 1278 1278 1278 1278 1273 1273 1273 1273 1273 1273 1273 1268 1268 1268 1268 1268 1268 1268 1268 1268 1264 1264 1264 1264 1264 1264 1264 1264 1264 1264 1264 1264 1259 1255 1255 1255 1255 1255 1255 1255 1250 1250 1250 1250 1250 1250 1250 1250 1250 1250 1250 1250 1245 1245 1245 1245 1241 1241 1241 1241 1241 1236 1236 1236 1236 1236 1236 1236 1236 1236 1236 1236 1236 1236 1236 1236 1232 1232 1232 1232 1232 1232 1232 1232 1232 1232 1232 1232 1232 1232 1232 1232 1232 1236 1236 1236 1232 1232 1232 1232 1232 1232 1232 1232 1232 1232 1232 1227 1227 1223 1219 1219 1214 1214 1214 1214 1214 1214 1214 1214 1214 1214 1214 1214 1214 1398 1392 1392 1398 1398 1398 1398 1398 1398 1398 1392 1392 1392 1392 1392 1387 1387 1387 1387 1387 1387 1387 1381 1381 1381 1381 1387 1381 1381 1387 1387 1381 1381 1381 1381 1376 1376 1370 1370 1370 1370 1370 1376 1376 1376 1376 1376 1376 1370 1365 1365 1365 1365 1365 1365 1365 1365 1365 1365 1365 1365 1365 1365 1365 1365 1365 1365 1365 1359 1359 1359 1359 1359 1359 1359 1354 1354 1359 1359 1354 1349 1349 1349 1354 1349 1349 1349 1349 1349 1349 1349 1349 1343 1343 1343 1343 1343 1343 1343 1338 1338 1333 1333 1333 1333 1333 1333 1333 1333 1333 1333 1333 1333 1333 1333 0 0 0 0 3300 3300 3300 3333 3399 3399 3399 3399 3399 3399 3365 3365 3365 3365 3365 3365 3365 3365 3399 3399 3399 3399 3399 3399 3399 3399 3399 3399 3399 3399 3399 3399 3399 3399 3365 3365 3365 3365 3333 3333 3333 3333 3333 3333 3300 3300 3300 3300 3269 3238 3238 3269 3269 2958 2958 3010 3064 3120 3149 3178 3178 3178 3178 3178 3178 3178 3178 3178 3149 3149 3149 3149 3149 3149 3120 3120 3120 3120 3149 3149 3149 3149 3149 3149 3149 3149 3149 3149 3149 3149 3149 3149 3178 3178 3238 3238 3238 3238 3238 3238 3178 3178 3178 3178 3178 3178 3178 3178 0 0 0 0 0 0 0 0 0 0 0
0 0 0 0 0 0 0 0 0 0 0 0 0 0 0 0 0 0 0 0 0 0 0 0 0 0 0 0 0 0 0 3300 3269 3269 3269 3269 3269 3300 3300 3333 3300 3300 3238 3238 3238 3238 3238 3238 3238 3238 3269 3300 3300 3300 3300 3269 3269 3269 3269 3238 3238 3269 3269 3269 3269 3300 3300 3300 3269 3238 3238 3238 3238 3238 3238 3269 3269 3300 3300 3269 3269 3269 3269 3269 3269 3300 3269 3269 3269 3269 3269 3269 3269 0 0 0 0 0 1433 1433 1433 1433 1433 1433 1433 1433 1433 1433 1439 1445 1445 1452 1452 1452 1458 1458 1550 1550 1550 1550 1550 1550 1550 1543 1543 1543 1543 1543 1543 1543 1543 1543 1543 1543 1550 1543 1543 1543 1543 1543 1543 1543 1543 1536 1536 1536 1536 1536 1529 1529 1529 1529 1529 1529 1529 1529 1536 1536 1536 1529 1529 1529 1529 1529 1523 1523 1523 1523 1523 1523 1523 1523 1523 1523 1523 1523 1523 1523 1516 1516 1516 1516 1516 1516 1516 1516 1516 1516 1516 1516 1516 1509 1509 1509 1509 1509 1503 1503 1503 1503 1381 1381 1381 1381 1381 1381 1381 1381 1381 1387 1387 1387 1387 1392 1398 1398 1398 1404 1496 1496 1496 1496 1489 1489 1489 1489 1489 1489 1483 1483 1483 1483 1483 1483 1483 1483 1483 1477 1477 1477 1477 1477 1477 1477 1477 1470 1470 1470 1470 1470 1470 1470 1470 1470 1470 1470 1464 1464 1464 1464 1464 1273 1273 1278 1278 1278 1278 1278 1278 1278 1278 1278 1278 1278 1283 1283 1283 1283 1278 1278 1278 1278 1278 1278 1273 1273 1273 1273 1273 1273 1273 1273 1268 1268 1268 1268 1268 1268 1264 1264 1264 1264 1264 1264 1264 1264 1264 1264 1264 1264 1259 1259 1255 1255 1255 1255 1255 1255 1255 1255 1250 1250 1255 1250 1250 1250 1250 1250 1250 1250 1250 1250 1245 1245 1241 1241 1241 1241 1241 1236 1236 1236 1236 1241 1236 1236 1236 1241 1241 1236 1236 1236 1236 1232 1232 1232 1232 1232 1232 1232 1232 1232 1232 1232 1232 1232 1232 1232 1232 1232 1236 1236 1236 1232 1232 1232 1232 1232 1232 1232 1232 1232 1232 1232 1227 1227 1223 1223 1219 1219 1214 1214 1214 1214 1214 1214 1214 1214 1219 1219 1219 1398 1398 1398 1398 1398 1398 1398 1398 1398 1398 1398 1398 1398 1392 1392 1392 1387 1387 1387 1387 1387 1387 1387 1387 1387 1381 1381 1387 1381 1381 1387 1387 1387 1381 1381 1381 1381 1376 1376 1376 1376 1376 1376 1376 1376 1376 1376 1376 1376 1370 1370 1365 1365 1365 1365 1365 1365 1365 1365 1365 1365 1365 1365 1365 1365 1365 1365 1365 1365 1365 1359 1359 1359 1359 1359 1359 1359 1359 1359 1359 1354 1354 1354 1354 1354 1349 1349 1349 1349 1349 1354 1349 1349 1349 1343 1343 1343 1343 1343 1343 1338 1338 1333 1333 1333 1333 1333 1333 1333 1333 1333 1333 1333 1333 1333 1333 0 0 0 0 3269 3269 3300 3333 3365 3365 3399 3399 3399 3365 3365 3365 3365 3365 3365 3365 3365 3365 3365 3399 3365 3365 3365 3365 3365 3365 3365 3399 3399 3365 3365 3365 3365 3365 3365 3333 3333 3333 3333 3333 3300 3300 3300 3300 3269 3269 3269 3269 3238 3238 3238 3208 3208 3208 3010 3010 3092 3149 3178 3178 3178 3178 3178 3178 3178 3178 3178 3178 3149 3149 3149 3149 3149 3149 3120 3120 3149 3149 3149 3149 3149 3149 3149 3149 3149 3149 3149 3149 3149 3149 3178 3178 3208 3208 3238 3238 3269 3269 3269 3238 3208 3178 3178 3178 3178 3178 3178 3178 0 0 0 0 0 0 0 0 0 0 0
0 0 0 0 0 0 0 0 0 0 0 0 0 0 0 0 0 0 0 0 0 0 0 0 0 0 0 0 0 0 0 0 3238 3238 3238 3238 3238 3269 3269 3269 3269 3238 3238 3238 3238 3208 3208 3208 3238 3238 3238 3269 3269 3269 3269 3269 3238 3238 3238 3238 3238 3238 3269 3269 3269 3269 3300 3300 3238 3238 3238 3238 3238 3238 3238 3238 3238 3269 3269 3269 3238 3238 3269 3269 3269 3269 3269 3269 3269 3269 3269 3269 3269 0 0 0 0 0 1439 1433 1433 1433 1433 1433 1433 1433 1439 1439 1439 1445 1445 1452 1452 1452 1458 1458 1564 1564 1557 1550 1550 1550 1550 1543 1543 1543 1543 1543 1543 1543 1543 1543 1543 1550 1550 1550 1550 1543 1543 1543 1543 1543 1543 1543 1536 1536 1536 1536 1536 1536 1536 1536 1536 1529 1529 1529 1536 1536 1536 1529 1529 1529 1529 1529 1529 1523 1523 1523 1523 1523 1523 1523 1523 1523 1523 1523 1523 1523 1516 1516 1516 1516 1516 1516 1516 1516 1516 1516 1516 1516 1516 1516 1509 1509 1509 1509 1503 1503 1503 1503 1381 1381 1381 1381 1387 1387 1387 1387 1387 1387 1387 1387 1387 1392 1398 1398 1398 1404 1496 1496 1496 1496 1496 1496 1496 1496 1496 1489 1489 1489 1489 1489 1483 1483 1483 1483 1483 1477 1477 1477 1477 1477 1477 1477 1477 1470 1470 1470 1470 1470 1470 1470 1470 1470 1470 1470 1470 1470 1470 1464 1464 1278 1278 1278 1278 1283 1278 1278 1278 1278 1278 1278 1278 1278 1283 1283 1283 1283 1283 1283 1283 1278 1278 1278 1278 1273 1273 1273 1273 1273 1273 1273 1273 1268 1268 1268 1268 1268 1268 1268 1268 1268 1268 1264 1264 1264 1264 1264 1264 1264 1259 1259 1259 1255 1255 1255 1255 1255 1255 1255 1255 1255 1255 1250 1250 1250 1250 1250 1250 1250 1250 1250 1245 1245 1241 1241 1241 1241 1241 1241 1241 1241 1241 1241 1241 1241 1241 1241 1241 1241 1236 1236 1236 1236 1232 1232 1232 1232 1232 1236 1232 1232 1236 1236 1236 1232 1232 1236 1236 1236 1236 1236 1236 1232 1232 1232 1232 1232 1232 1232 1232 1232 1232 1232 1227 1227 1227 1223 1223 1219 1219 1219 1219 1214 1214 1214 1219 1219 1219 1219 1223 1398 1398 1398 1398 1398 1398 1398 1398 1398 1398 1398 1398 1398 1392 1392 1392 1387 1387 1387 1387 1387 1387 1387 1387 1387 1387 1387 1387 1387 1387 1387 1387 1387 1387 1381 1381 1381 1376 1376 1376 1376 1376 1376 1376 1376 1381 1381 1376 1376 1376 1370 1365 1365 1365 1365 1365 1365 1370 1370 1365 1365 1365 1365 1365 1365 1365 1365 1365 1365 1365 1359 1359 1359 1359 1359 1359 1354 1354 1359 1359 1354 1354 1354 1354 1354 1354 1349 1349 1349 1349 1354 1349 1349 1349 1343 1343 1343 1343 1343 1343 1343 1343 1333 1333 1333 1333 1333 1333 1333 1333 1333 1333 1333 1333 1333 1333 0 0 0 3269 3269 3269 3300 3333 3365 3365 3365 3365 3365 3365 3365 3333 3333 3333 3333 3333 3365 3365 3365 3365 3365 3365 3365 3365 3365 3365 3365 3365 3399 3365 3365 3365 3365 3365 3365 3333 3333 3333 3333 3333 3300 3300 3269 3269 3269 3238 3238 3238 3238 3208 3208 3149 3149 3149 3064 3064 3120 3149 3178 3178 3178 3178 3178 3178 3178 3178 3178 3178 3149 3149 3149 3149 3149 3149 3120 3120 3149 3149 3149 3149 3149 3149 3149 3149 3149 3178 3178 3178 3178 3208 3208 3208 3208 3238 3238 3269 3269 3269 3269 3269 3238 3208 3208 3208 3208 3208 3178 3178 0 0 0 0 0 0 0 0 0 0 0
0 0 0 0 0 0 0 0 0 0 0 0 0 0 0 0 0 0 0 0 0 0 0 0 0 0 0 0 0 0 0 0 3238 3238 3238 3238 3238 3238 3269 3238 3238 3238 3238 3238 3238 3208 3208 3208 3238 3238 3238 3269 3269 3269 3269 3238 3238 3238 3238 3238 3238 3238 3238 3238 3238 3269 3269 3269 3208 3208 3208 3208 3208 3208 3208 3208 3238 3238 3238 3238 3238 3238 3238 3238 3238 3269 3269 3269 3269 3269 3269 3269 3269 0 0 0 0 0 1439 1439 1433 1433 1433 1439 1439 1439 1439 1439 1445 1445 1445 1452 1452 1458 1458 1464 1477 1564 1564 1557 1557 1550 1550 1543 1536 1536 1543 1543 1543 1550 1550 1550 1543 1543 1536 1536 1543 1543 1543 1543 1543 1543 1543 1543 1536 1536 1543 1536 1536 1536 1536 1536 1536 1529 1529 1536 1536 1536 1536 1529 1529 1529 1529 1529 1529 1529 1523 1523 1523 1523 1523 1523 1523 1523 1523 1523 1523 1523 1516 1516 1516 1516 1516 1516 1516 1523 1523 1523 1516 1516 1516 1516 1516 1516 1509 1509 1509 1503 1503 1503 1503 1387 1387 1387 1387 1387 1387 1387 1387 1387 1387 1387 1392 1392 1398 1398 1398 1404 1496 1496 1496 1496 1496 1496 1496 1496 1496 1496 1496 1489 1489 1489 1489 1489 1489 1483 1483 1483 1483 1483 1483 1483 1483 1477 1477 1470 1470 1470 1470 1470 1470 1470 1470 1470 1470 1470 1470 1470 1470 1470 1470 1283 1283 1283 1283 1283 1283 1283 1283 1283 1283 1283 1283 1283 1288 1288 1288 1288 1288 1283 1283 1283 1283 1278 1278 1278 1273 1273 1273 1273 1273 1273 1273 1273 1268 1268 1268 1268 1268 1268 1268 1268 1268 1268 1268 1268 1268 1268 1268 1264 1264 1264 1264 1259 1255 1255 1255 1255 1255 1255 1255 1255 1255 1255 1255 1255 1255 1250 1250 1250 1250 1250 1245 1245 1245 1245 1245 1245 1241 1241 1241 1241 1241 1241 1241 1241 1241 1241 1241 1241 1241 1236 1236 1236 1236 1232 1232 1232 1232 1236 1236 1236 1236 1236 1236 1232 1232 1236 1236 1236 1236 1236 1236 1236 1236 1232 1232 1232 1232 1232 1232 1232 1232 1232 1232 1227 1227 1223 1223 1219 1219 1219 1219 1219 1219 1219 1219 1219 1223 1223 1223 1398 1398 1398 1398 1398 1398 1398 1398 1398 1398 1398 1398 1398 1398 1392 1392 1387 1387 1387 1387 1387 1387 1387 1387 1387 1387 1387 1387 1387 1387 1387 1387 1387 1387 1381 1381 1381 1376 1376 1376 1376 1376 1376 1376 1376 1381 1381 1381 1376 1376 1370 1370 1370 1365 1365 1365 1370 1370 1370 1365 1365 1365 1365 1365 1365 1365 1365 1365 1365 1365 1365 1359 1359 1359 1359 1359 1354 1354 1359 1359 1359 1354 1354 1354 1354 1354 1349 1349 1349 1349 1354 1349 1349 1349 1349 1343 1343 1343 1343 1343 1343 1343 1333 1333 1333 1333 1333 1333 1333 1333 1333 1333 1333 1333 1333 1333 0 0 0 3300 3300 3300 3300 3333 3333 3333 3333 3333 3333 3333 3333 3333 3333 3333 3333 3333 3300 3300 3333 3333 3333 3333 3333 3333 3333 3333 3333 3333 3365 3333 3333 3333 3333 3333 3333 3333 3300 3300 3300 3300 3300 3269 3269 3269 3238 3208 3208 3238 3208 3178 3149 3092 3092 3064 3064 3064 3092 3149 3178 3178 3178 3178 3178 3178 3178 3178 3178 3178 3149 3149 3178 3149 3149 3149 3149 3149 3149 3149 3149 3178 3178 3178 3178 3178 3178 3178 3178 3178 3208 3208 3208 3208 3208 3238 3238 3238 3238 3238 3269 3238 3238 3208 3208 3208 3208 3208 3208 3208 0 0 0 0 0 0 0 0 0 0 0
0 0 0 0 0 0 0 0 0 0 0 0 0 0 0 0 0 0 0 0 0 0 0 0 0 0 0 0 0 0 0 0 3238 3238 3238 3238 3238 3238 3238 3238 3238 3238 3238 3238 3238 3208 3208 3208 3208 3208 3238 3238 3238 3238 3238 3238 3238 3238 3238 3238 3238 3238 3238 3238 3238 3238 3238 3238 3208 3208 3208 3208 3208 3208 3208 3208 3208 3208 3208 3238 3208 3208 3238 3238 3238 3238 3238 3238 3238 3238 3269 3300 3300 0 0 0 0 0 1433 1433 1433 1433 1433 1439 1439 1439 1439 1445 1445 1445 1452 1452 1452 1458 1464 1470 1477 1572 1564 1557 1557 1550 1550 0 1536 1536 1543 1543 1543 1550 1550 1550 1536 1536 1536 1536 1543 1543 1543 1543 1543 1543 1543 1543 1543 1543 1543 1543 1536 1536 1536 1536 1536 1536 1536 1536 1536 1543 1543 1536 1536 1536 1536 1529 1529 1529 1529 1523 1523 1523 1523 1523 1523 1523 1523 1523 1523 1523 1523 1516 1516 1523 1516 1516 1516 1523 1523 1523 1516 1516 1516 1516 1516 1516 1509 1509 1509 1509 1509 1509 1509 1387 1387 1387 1387 1392 1392 1392 1392 1387 1387 1387 1392 1392 1398 1398 1398 1404 1410 1496 1496 1496 1496 1496 1496 1496 1496 1496 1496 1489 1489 1489 1489 1489 1489 1483 1483 1483 1483 1483 1483 1483 1483 1483 1477 1470 1470 1470 1470 1470 1470 1470 1470 1470 1470 1470 1470 1470 1470 1470 1470 1288 1288 1288 1288 1288 1288 1283 1283 1283 1283 1283 1288 1288 1288 1288 1288 1288 1288 1288 1288 1288 1283 1283 1283 1278 1278 1278 1278 1278 1278 1278 1273 1273 1273 1273 1273 1268 1268 1268 1268 1268 1268 1268 1268 1268 1268 1268 1268 1268 1264 1264 1264 1259 1255 1255 1255 1255 1255 1255 1255 1255 1255 1255 1255 1255 1255 1255 1255 1250 1250 1250 1245 1245 1245 1245 1245 1245 1245 1245 1245 1245 1245 1245 1245 1245 1245 1245 1245 1241 1241 1241 1236 1236 1236 1236 1236 1236 1236 1236 1236 1236 1236 1236 1236 1236 1236 1236 1236 1236 1236 1236 1236 1236 1236 1236 1236 1236 1236 1236 1236 1236 1236 1232 1232 1232 1227 1227 1223 1223 1219 1219 1219 1219 1219 1219 1223 1223 1223 1219 1219 1398 1398 1398 1398 1404 1404 1398 1398 1398 1398 1398 1398 1398 1398 1392 1392 1387 1387 1387 1387 1387 1387 1387 1387 1387 1387 1387 1387 1387 1387 1387 1387 1387 1387 1381 1381 1381 1381 1376 1376 1376 1376 1376 1381 1381 1381 1381 1381 1381 1376 1376 1376 1370 1370 1370 1370 1370 1370 1370 1370 1365 1365 1365 1365 1365 1365 1365 1365 1365 1365 1365 1359 1359 1359 1359 1359 1359 1359 1359 1359 1359 1354 1354 1354 1354 1354 1354 1349 1349 1354 1354 1349 1349 1349 1349 1343 1343 1343 1343 1343 1343 1343 1338 1338 1333 1333 1333 1333 1333 1333 1333 1333 1333 1333 1333 1333 0 0 0 3300 3300 3300 3333 3333 3333 3333 3333 3333 3333 3333 3300 3300 3300 3300 3300 3300 3300 3300 3300 3300 3300 3300 3333 3300 3300 3300 3300 3333 3333 3333 3333 3333 3333 3300 3300 3300 3300 3300 3300 3300 3300 3269 3269 3269 3238 3208 3208 3208 3208 3149 3120 3064 3064 3064 3064 3064 3092 3149 3178 3178 3208 3178 3178 3178 3178 3178 3178 3178 3178 3178 3178 3178 3178 3149 3149 3149 3149 3178 3178 3178 3178 3178 3178 3178 3178 3178 3178 3178 3208 3208 3208 3208 3208 3208 3238 3238 3238 3238 3238 3208 3208 3178 3178 3178 3208 3208 3208 3208 0 0 0 0 0 0 0 0 0 0 0
0 0 0 0 0 0 0 0 0 0 0 0 0 0 0 0 0 0 0 0 0 0 0 0 0 0 0 0 0 0 0 0 3208 3208 3208 3208 3208 3208 3238 3238 3208 3208 3208 3208 3208 3208 3208 3208 3208 3208 3208 3238 3238 3238 3238 3208 3208 3208 3208 3208 3208 3208 3238 3238 3238 3238 3238 3238 3208 3208 3208 3208 3208 3208 3208 3208 3208 3208 3208 3208 3208 3208 3208 3208 3208 3238 3238 3238 3238 3238 3269 3269 3269 0 0 0 0 0 1433 1433 1433 1439 1439 1439 1445 1445 1445 1445 1445 1452 1452 1452 1458 1458 1464 1470 1477 1586 1586 1564 1564 0 0 0 0 0 0 0 3399 3365 3365 3365 1536 1536 1536 1536 1543 1543 1543 1543 1550 1550 1550 1543 1543 1543 1543 1543 1543 1536 1536 1536 1536 1536 1536 1543 1543 1543 1543 1543 1543 1536 1536 1529 1529 1529 1529 1529 1523 1523 1523 1523 1523 1523 1523 1523 1529 1523 1523 1523 1523 1523 1516 1516 1523 1523 1523 1523 1523 1516 1516 1516 1509 1509 1509 1509 1509 1509 1516 1516 1516 1392 1387 1387 1387 1392 1392 1392 1392 1392 1392 1392 1392 1398 1398 1398 1398 1404 1410 1496 1496 1496 1496 1496 1496 1496 1496 1496 1496 1489 1489 1489 1489 1489 1489 1489 1489 1489 1489 1489 1483 1483 1483 1483 1483 1470 1470 1470 1470 1470 1470 1470 1470 1470 1470 1470 1470 1470 1470 1470 1470 1288 1288 1288 1288 1288 1288 1288 1288 1288 1288 1288 1288 1288 1288 1288 1288 1288 1288 1288 1288 1288 1288 1283 1283 1283 1278 1278 1278 1278 1278 1278 1278 1273 1273 1273 1273 1273 1268 1268 1268 1268 1268 1268 1268 1268 1268 1268 1268 1268 1268 1268 1264 1264 1259 1259 1259 1259 1259 1259 1259 1259 1259 1255 1255 1255 1255 1255 1255 1255 1255 1255 1245 1245 1245 1245 1245 1245 1245 1245 1245 1245 1245 1245 1245 1245 1245 1245 1245 1245 1241 1241 1241 1236 1236 1236 1236 1236 1236 1236 1236 1236 1236 1236 1236 1236 1236 1236 1236 1236 1236 1236 1236 1236 1236 1236 1236 1236 1236 1236 1236 1236 1236 1232 1232 1232 1227 1227 1223 1223 1219 1219 1223 1223 1223 1223 1223 1223 1223 1219 1219 1398 1398 1398 1398 1404 1404 1404 1404 1404 1404 1398 1398 1398 1398 1398 1392 1387 1387 1387 1387 1387 1387 1387 1387 1387 1387 1387 1387 1387 1387 1387 1387 1387 1387 1387 1387 1381 1381 1381 1381 1381 1381 1381 1381 1381 1381 1381 1381 1381 1381 1376 1376 1370 1370 1370 1370 1370 1370 1370 1370 1370 1365 1365 1365 1365 1365 1365 1365 1365 1365 1365 1365 1359 1359 1359 1359 1359 1359 1359 1359 1359 1359 1359 1359 1359 1359 1354 1354 1354 1354 1354 1349 1349 1349 1349 1343 1343 1343 1343 1343 1343 1343 1338 1338 1333 1333 1333 1333 1333 1333 1333 1333 1333 1333 1333 1333 0 0 0 3300 3300 3300 3300 3300 3300 3300 3300 3300 3300 3300 3300 3300 3300 3300 3300 3300 3300 3300 3300 3300 3300 3300 3300 3300 3300 3300 3300 3300 3300 3300 3300 3300 3300 3300 3300 3300 3300 3300 3300 3300 3300 3269 3269 3269 3238 3208 3208 3208 3178 3149 3120 3064 3064 3064 3064 3064 3120 3149 3178 3178 3208 3178 3178 3178 3178 3178 3178 3178 3178 3178 3178 3178 3178 3178 3149 3149 3178 3178 3178 3208 3208 3208 3208 3178 3178 3178 3178 3178 3178 3178 3208 3208 3208 3208 3208 3208 3208 3208 3208 3208 3208 3178 3178 3178 3178 3208 3178 3178 0 0 0 0 0 0 0 0 0 0 0
0 0 0 0 0 0 0 0 0 0 0 0 0 0 0 0 0 0 0 0 0 0 0 0 0 0 0 0 0 0 0 0 3208 3208 3208 3208 3208 3208 3208 3208 3208 3208 3208 3208 3208 3208 3178 3178 3208 3208 3208 3208 3208 3208 3208 3208 3208 3178 3178 3208 3208 3208 3208 3208 3208 3208 3208 3208 3178 3178 3178 3178 3178 3178 3178 3178 3178 3178 3208 3208 3208 3208 3208 3208 3208 3208 3208 3208 3208 3208 3238 3238 3238 0 0 0 0 0 0 1433 1433 1439 1439 1439 1445 1445 1445 1445 1452 1452 1452 1458 1458 1458 1464 1470 1464 1464 0 0 0 0 0 0 0 0 0 0 3399 3399 3365 3365 3333 3333 3333 3333 3333 3333 3333 3333 3333 3333 3333 1543 1543 3333 3333 3333 3333 3365 3365 1543 1543 1543 1543 1543 1550 1550 1550 1543 1543 1536 1536 1529 1529 1529 1529 1529 1529 3300 3300 3269 3269 3269 3269 3300 1529 1529 1529 1523 1523 1523 1523 1523 1523 1523 1523 1523 1523 1516 1516 1516 1509 1509 1509 1509 1516 1516 1523 1523 1529 1529 1529 1387 1387 1392 1392 1392 1392 1392 1392 1392 1392 1398 1398 1398 1398 1404 1410 1496 1496 1496 1496 1496 1496 1496 1496 1496 1496 1489 1489 1489 1489 1489 1489 1489 1489 1489 1489 1489 1483 1483 1483 1483 1483 1477 1477 1470 1470 1470 1470 1470 1470 1470 1470 1470 1470 1470 1470 1470 1470 1292 1288 1288 1288 1288 1288 1288 1288 1288 1288 1288 1288 1288 1288 1288 1288 1288 1292 1288 1288 1288 1288 1288 1283 1283 1283 1283 1283 1278 1278 1278 1278 1273 1273 1273 1273 1273 1273 1273 1273 1273 1273 1268 1268 1268 1268 1268 1268 1268 1268 1268 1268 1264 1264 1259 1259 1264 1259 1259 1259 1259 1259 1259 1259 1259 1259 1259 1255 1255 1255 1255 1250 1250 1250 1250 1250 1250 1250 1250 1250 1250 1245 1245 1245 1245 1245 1245 1245 1245 1245 1245 1245 1245 1245 1245 1245 1245 1245 1245 1245 1245 1241 1241 1241 1236 1236 1236 1236 1236 1241 1241 1241 1241 1241 1241 1241 1241 1241 1241 1241 1241 1236 1236 1232 1232 1232 1227 1227 1223 1223 1223 1223 1223 1223 1223 1223 1223 1223 1219 1219 1404 1404 1398 1398 1404 1404 1404 1404 1404 1404 1398 1398 1398 1398 1398 1392 1387 1387 1387 1387 1387 1387 1387 1387 1387 1387 1387 1387 1387 1387 1387 1387 1387 1387 1387 1387 1381 1381 1381 1381 1381 1381 1381 1381 1381 1381 1381 1381 1381 1381 1376 1376 1376 1376 1370 1370 1376 1376 1370 1370 1370 1370 1370 1365 1365 1365 1365 1365 1365 1365 1365 1365 1359 1359 1359 1359 1359 1359 1359 1359 1359 1359 1359 1359 1359 1359 1359 1354 1354 1354 1354 1349 1349 1349 1349 1349 1343 1343 1343 1343 1343 1343 1338 1338 1338 1338 1333 1333 1333 1333 1333 1333 1338 1338 1338 1338 0 0 0 3300 3300 3300 3269 3269 3300 3300 3300 3300 3300 3300 3300 3300 3300 3300 3300 3300 3300 3300 3300 3300 3300 3300 3300 3300 3300 3300 3300 3300 3300 3300 3300 3300 3300 3300 3300 3300 3300 3300 3300 3300 3300 3269 3269 3269 3238 3208 3208 3208 3178 3149 3120 3064 3064 3064 3064 3092 3120 3149 3208 3208 3208 3178 3178 3178 3178 3178 3178 3178 3178 3178 3178 3178 3178 3178 3178 3178 3178 3208 3208 3208 3208 3208 3178 3178 3178 3178 3178 3178 3178 3178 3178 3178 3178 3178 3178 3178 3178 3178 3178 3178 3178 3178 3178 3178 3178 3178 3178 3178 0 0 0 0 0 0 0 0 0 0 0
0 0 0 0 0 0 0 0 0 0 0 0 0 0 0 0 0 0 0 0 0 0 0 0 0 0 0 0 0 0 0 0 3178 3178 3178 3178 3178 3178 3178 3178 3178 3208 3178 3178 3178 3178 3178 3178 3149 3149 3149 3149 3178 3178 3208 3178 3178 3178 3178 3178 3178 3178 3178 3208 3208 3208 3208 3208 3178 3178 3178 3149 3149 3178 3178 3178 3178 3178 3178 3178 3178 3178 3208 3208 3208 3208 3208 3208 3208 3208 3208 3208 3208 0 0 0 0 0 0 0 1439 1439 1439 1445 1445 1445 1445 1445 1452 1452 1452 1458 1458 1458 1464 1464 1464 1464 0 0 0 0 0 0 0 0 0 3365 3365 3365 3333 3333 3333 3333 3300 3300 3300 3300 3300 3300 3300 3300 3333 3333 3333 3333 3333 3333 3333 3333 3333 3333 3333 3300 1550 1550 1550 1550 1550 1557 3333 3333 3333 1529 1529 1529 1529 1529 3269 3269 3269 3269 3269 3269 3269 3300 3300 3300 3300 3300 3333 1523 1523 1523 1523 1523 1523 1523 1523 1516 1516 1516 1509 1509 1509 1509 1509 1516 1523 1523 1523 1529 1529 1392 1392 1392 1392 1392 1392 1392 1392 1392 1398 1398 1404 1404 1404 1404 1410 1496 1496 1496 1496 1496 1496 1496 1496 1496 1489 1489 1489 1489 1489 1489 1489 1489 1489 1489 1489 1483 1483 1483 1483 1483 1483 1477 1477 1477 1470 1470 1477 1470 1470 1470 1470 1470 1470 1470 1470 1470 1470 1292 1292 1292 1292 1288 1288 1288 1288 1288 1288 1288 1288 1288 1288 1288 1292 1292 1292 1292 1292 1288 1288 1288 1283 1283 1283 1283 1283 1283 1283 1283 1283 1278 1273 1273 1273 1273 1273 1273 1273 1273 1273 1273 1268 1268 1268 1268 1268 1268 1268 1268 1268 1264 1264 1264 1264 1264 1264 1259 1259 1264 1259 1259 1259 1259 1259 1259 1259 1259 1255 1255 1250 1250 1250 1250 1250 1250 1250 1250 1250 1250 1250 1250 1245 1245 1245 1245 1245 1245 1245 1245 1245 1245 1245 1245 1245 1245 1245 1245 1245 1245 1245 1245 1245 1241 1241 1241 1241 1241 1245 1245 1245 1245 1245 1245 1245 1245 1245 1245 1245 1241 1241 1236 1236 1232 1232 1227 1227 1227 1227 1227 1227 1223 1223 1223 1223 1223 1223 1219 1219 1404 1404 1404 1404 1404 1404 1404 1404 1404 1404 1398 1398 1398 1398 1398 1398 1387 1387 1387 1387 1387 1387 1387 1387 1387 1387 1387 1387 1387 1387 1387 1387 1387 1387 1387 1387 1387 1387 1387 1381 1381 1381 1381 1381 1381 1381 1381 1381 1381 1381 1381 1376 1376 1376 1376 1376 1376 1376 1376 1376 1370 1370 1370 1370 1370 1370 1365 1365 1365 1365 1365 1365 1359 1359 1359 1359 1359 1359 1359 1359 1359 1359 1359 1359 1359 1359 1359 1354 1354 1354 1354 1354 1349 1349 1349 1349 1343 1343 1343 1343 1343 1343 1338 1338 1338 1338 1333 1333 1333 1333 1333 1333 1338 1338 1338 1338 0 0 0 3269 3269 3269 3269 3269 3269 3269 3269 3300 3300 3300 3300 3300 3269 3269 3269 3269 3269 3269 3300 3300 3300 3300 3300 3300 3269 3269 3269 3300 3300 3269 3269 3269 3269 3300 3300 3300 3269 3269 3269 3269 3269 3238 3238 3238 3238 3238 3208 3208 3178 3120 3092 3064 3064 3064 3092 3092 3149 3178 3208 3208 3238 3178 3178 3178 3178 3178 3178 3178 3178 3178 3178 3178 3178 3178 3178 3178 3178 3208 3208 3208 3178 3178 3178 3178 3149 3149 3149 3149 3178 3178 3178 3178 3178 3178 3149 3149 3149 3149 3149 3149 3178 3149 3149 3178 3178 3178 3149 3149 0 0 0 0 0 0 0 0 0 0 0
0 0 0 0 0 0 0 0 0 0 0 0 0 0 0 0 0 0 0 0 0 0 0 0 0 0 0 0 0 0 0 0 3178 3149 3149 3149 3149 3149 3149 3149 3149 3178 3178 3149 3149 3149 3149 3149 3120 3120 3149 3149 3149 3149 3149 3149 3149 3149 3149 3149 3149 3149 3149 3149 3149 3149 3149 3149 3120 3120 3120 3149 3149 3149 3149 3149 3149 3149 3149 3149 3178 3178 3178 3178 3178 3208 3208 3208 3208 3208 3208 3208 3208 0 0 0 0 0 0 0 1452 1445 1445 1445 1445 1445 1445 1452 1452 1452 1452 1458 1458 1464 1464 1464 1470 1470 1470 0 0 0 0 0 0 0 0 3333 3333 3333 3300 3300 3300 3300 3300 3300 3300 3300 3300 3300 3300 3300 3333 3333 3333 3333 3333 3333 3333 3333 3333 3333 3333 3300 3300 3300 3300 3333 3333 3333 3333 3333 3300 3300 3300 3269 3269 3269 3269 3269 3269 3269 3269 3269 3269 3269 3300 3300 3300 3333 3333 3333 3333 1523 1523 1523 1523 1523 1523 1516 1516 1516 1509 1509 1509 1509 1509 1516 1523 1523 1523 1392 1392 1392 1392 1398 1392 1392 1398 1398 1392 1392 1398 1398 1404 1404 1404 1404 1410 1415 1489 1489 1489 1489 1489 1489 1489 1489 1489 1489 1489 1489 1489 1489 1489 1489 1489 1489 1489 1483 1483 1483 1483 1483 1483 1477 1477 1477 1470 1470 1477 1470 1470 1470 1470 1470 1470 1470 1470 1470 1470 1292 1292 1292 1292 1292 1292 1288 1288 1288 1288 1288 1288 1288 1288 1292 1292 1292 1292 1292 1292 1288 1288 1288 1283 1283 1283 1283 1283 1283 1283 1283 1283 1278 1278 1273 1273 1273 1273 1273 1273 1273 1273 1273 1273 1273 1273 1268 1268 1268 1268 1268 1268 1264 1264 1264 1264 1264 1264 1264 1264 1264 1264 1264 1264 1264 1264 1264 1259 1259 1259 1259 1250 1250 1250 1250 1250 1250 1250 1250 1250 1250 1250 1250 1250 1250 1245 1245 1245 1245 1245 1245 1245 1245 1245 1245 1245 1245 1245 1245 1245 1245 1245 1245 1245 1245 1245 1245 1245 1245 1245 1245 1245 1245 1245 1245 1245 1245 1245 1245 1245 1245 1241 1241 1236 1236 1232 1232 1227 1227 1227 1227 1227 1227 1227 1227 1227 1227 1227 1227 1227 1404 1404 1404 1404 1410 1410 1410 1410 1404 1404 1404 1404 1398 1398 1398 1398 1392 1392 1392 1387 1387 1387 1387 1387 1387 1387 1387 1387 1387 1387 1387 1387 1387 1387 1387 1387 1387 1387 1387 1381 1381 1381 1381 1381 1381 1381 1381 1381 1381 1381 1381 1381 1376 1376 1376 1376 1376 1376 1376 1376 1376 1376 1376 1370 1370 1370 1370 1370 1365 1365 1365 1365 1359 1359 1359 1359 1359 1359 1359 1359 1359 1359 1359 1359 1359 1359 1359 1359 1359 1359 1359 1354 1354 1354 1349 1349 1343 1343 1343 1343 1343 1343 1338 1338 1338 1338 1338 1338 1333 1333 1333 1333 1338 1338 1338 1338 0 0 0 3269 3269 3238 3208 3208 3238 3238 3269 3269 3269 3269 3269 3269 3269 3269 3269 3269 3269 3269 3269 3269 3269 3269 3269 3269 3269 3269 3269 3269 3269 3269 3269 3269 3269 3269 3269 3269 3269 3269 3269 3269 3238 3238 3238 3238 3238 3238 3208 3208 3178 3092 3064 3064 3064 3064 3092 3092 3149 3178 3208 3208 3208 3178 3178 3178 3178 3178 3178 3178 3178 3178 3178 3178 3178 3178 3178 3178 3178 3178 3178 3178 3178 3178 3178 3149 3149 3149 3149 3149 3149 3149 3149 3149 3149 3149 3149 3149 3149 3149 3149 3149 3149 3149 3149 3149 3149 3149 3149 3149 0 0 0 0 0 0 0 0 0 0 0
0 0 0 0 0 0 0 0 0 0 0 0 0 0 0 0 0 0 0 0 0 0 0 0 0 0 0 0 0 0 0 0 3149 3120 3120 3120 3120 3120 3120 3149 3149 3149 3149 3120 3120 3120 3120 3120 3120 3120 3120 3120 3120 3149 3120 3120 3120 3120 3120 3149 3149 3149 3149 3149 3149 3149 3149 3149 3120 3120 3120 3120 3120 3120 3120 3120 3120 3120 3149 3149 3149 3149 3149 3149 3178 3178 3178 3178 3178 3178 3208 3178 3178 0 0 0 0 0 0 0 0 1445 1445 1445 1445 1445 1452 1452 1452 1452 1458 1458 1458 1464 1464 1464 1470 1470 1470 0 0 0 0 0 0 0 3365 3333 3333 3333 3300 3300 3300 3300 3300 3300 3269 3269 3300 3269 3269 3300 3300 3300 3333 3333 3333 3333 3333 3333 3333 3333 3333 3300 3300 3300 3300 3300 3300 3333 3300 3300 3300 3300 3300 3269 3269 3269 3269 3269 3269 3269 3269 3269 3269 3269 3300 3300 3300 3300 3300 3333 3333 3333 3300 3300 3300 3300 3300 3269 3269 3269 3269 3269 3269 1981 1523 1523 1523 1523 1523 1392 1392 1398 1398 1398 1398 1398 1398 1398 1398 1398 1398 1398 1404 1404 1404 1410 1415 1415 1489 1483 1483 1489 1489 1489 1489 1489 1489 1483 1483 1483 1483 1489 1489 1489 1489 1489 1483 1483 1483 1477 1477 1477 1483 1477 1477 1477 1470 1470 1470 1470 1470 1470 1470 1470 1470 1470 1470 1470 1470 1297 1292 1292 1292 1292 1292 1292 1292 1292 1292 1292 1292 1292 1292 1292 1292 1292 1292 1292 1292 1292 1288 1288 1288 1288 1283 1283 1283 1283 1283 1283 1283 1278 1278 1278 1278 1273 1273 1273 1273 1273 1273 1273 1273 1273 1273 1268 1268 1268 1268 1268 1268 1264 1264 1264 1264 1268 1268 1264 1264 1268 1268 1268 1264 1264 1264 1264 1259 1259 1259 1259 1255 1250 1250 1255 1255 1255 1255 1255 1255 1255 1250 1250 1250 1250 1250 1250 1250 1250 1250 1245 1245 1245 1245 1250 1250 1250 1250 1250 1250 1245 1245 1245 1245 1245 1245 1245 1245 1245 1245 1245 1245 1245 1245 1245 1245 1245 1245 1245 1245 1245 1241 1241 1241 1236 1232 1232 1232 1227 1227 1227 1227 1227 1227 1227 1227 1227 1227 1227 1227 1404 1404 1404 1404 1410 1410 1410 1410 1404 1404 1404 1404 1398 1398 1398 1398 1392 1392 1392 1392 1392 1392 1387 1387 1392 1392 1387 1387 1392 1392 1387 1387 1387 1387 1387 1387 1387 1387 1387 1387 1387 1387 1387 1387 1381 1381 1381 1381 1381 1381 1381 1381 1376 1376 1376 1376 1376 1376 1376 1376 1376 1376 1376 1376 1370 1370 1370 1370 1370 1365 1365 1365 1365 1365 1365 1359 1359 1365 1365 1365 1365 1359 1359 1359 1359 1359 1359 1359 1359 1359 1359 1354 1354 1354 1349 1349 1343 1343 1343 1343 1343 1343 1338 1338 1338 1338 1338 1338 1338 1338 1338 1338 1338 1338 1338 0 0 0 0 3269 3269 3208 3178 3178 3208 3208 3238 3238 3238 3269 3269 3269 3238 3238 3238 3238 3238 3238 3238 3269 3269 3269 3269 3269 3238 3238 3238 3238 3238 3238 3238 3238 3238 3238 3269 3238 3238 3238 3238 3238 3238 3208 3208 3238 3238 3208 3208 3178 3120 3064 3064 3037 3037 3064 3092 3120 3149 3149 3178 3178 3208 3178 3149 3149 3178 3178 3178 3178 3178 3178 3178 3178 3178 3178 3178 3149 3149 3178 3178 3178 3149 3149 3149 3149 3149 3149 3149 3149 3149 3149 3149 3149 3149 3149 3149 3120 3120 3120 3149 3149 3149 3149 3149 3149 3149 3149 3120 3120 0 0 0 0 0 0 0 0 0 0 0
0 0 0 0 0 0 0 0 0 0 0 0 0 0 0 0 0 0 0 0 0 0 0 0 0 0 0 0 0 0 0 0 3120 3120 3120 3120 3120 3120 3120 3120 3120 3120 3120 3120 3120 3120 3092 3092 3120 3120 3120 3120 3120 3120 3120 3120 3120 3120 3120 3120 3120 3120 3149 3149 3149 3149 3149 3120 3092 3092 3092 3092 3092 3092 3092 3092 3092 3120 3120 3120 3120 3149 3149 3149 3149 3178 3178 3178 3178 3178 3178 3149 3149 3149 0 0 0 0 0 0 0 1439 1439 1439 1439 1445 1452 1452 1452 1452 1458 1458 1458 1464 1464 1464 1470 1470 1470 1477 0 0 0 0 0 0 3333 3333 3300 3300 3300 3300 3269 3269 3269 3269 3269 3269 3269 3269 3269 3300 3300 3300 3300 3300 3300 3300 3300 3300 3300 3300 3300 3300 3300 3300 3300 3300 3300 3300 3300 3300 3300 3300 3300 3269 3269 3269 3269 3269 3269 3269 3269 3269 3269 3269 3269 3269 3300 3300 3300 3300 3300 3300 3300 3300 3300 3300 3300 3269 3269 3269 3269 3269 1981 1981 1981 1981 1981 1392 1392 1392 1392 1398 1398 1398 1398 1398 1398 1398 1398 1398 1398 1398 1404 1404 1404 1410 1415 1421 1427 1470 1470 1477 1483 1477 1477 1483 1483 1483 1483 1483 1483 1489 1489 1489 1489 1489 1483 1483 1483 1477 1477 1477 1477 1477 1470 1470 1464 1464 1470 1470 1470 1464 1464 1464 1470 1470 1470 1470 1470 1297 1292 1292 1292 1292 1292 1292 1292 1292 1292 1292 1292 1292 1292 1292 1292 1292 1297 1297 1297 1292 1288 1288 1288 1288 1288 1288 1283 1283 1283 1283 1283 1278 1278 1278 1278 1273 1273 1278 1278 1273 1273 1273 1273 1273 1273 1268 1268 1268 1268 1268 1268 1268 1268 1268 1268 1268 1268 1268 1268 1268 1268 1268 1268 1268 1268 1268 1264 1264 1264 1259 1255 1255 1255 1255 1255 1255 1255 1255 1255 1255 1250 1250 1250 1250 1250 1250 1250 1250 1250 1250 1250 1250 1250 1250 1250 1250 1250 1250 1250 1245 1245 1245 1245 1245 1245 1245 1245 1245 1245 1245 1245 1245 1245 1245 1245 1245 1245 1245 1245 1245 1245 1241 1241 1236 1232 1232 1232 1232 1227 1227 1227 1227 1227 1227 1227 1227 1227 1227 1210 1210 1410 1410 1410 1410 1410 1410 1410 1410 1404 1404 1404 1404 1404 1404 1404 1398 1398 1398 1392 1392 1392 1392 1392 1392 1392 1387 1387 1392 1392 1387 1387 1387 1392 1392 1392 1392 1387 1387 1387 1387 1387 1387 1387 1387 1387 1381 1381 1381 1381 1381 1381 1376 1376 1376 1376 1376 1376 1376 1376 1376 1376 1376 1376 1376 1376 1370 1370 1370 1370 1365 1365 1365 1365 1365 1365 1365 1365 1365 1365 1365 1365 1359 1359 1359 1359 1359 1359 1359 1359 1359 1354 1354 1354 1349 1349 1343 1343 1343 1343 1343 1343 1338 1338 1338 1338 1338 1338 1338 1338 1338 1338 1338 1338 1338 0 0 0 0 0 3178 3178 3149 3149 3178 3178 3178 3178 3178 3208 3208 3208 3208 3208 3208 3208 3208 3208 3208 3208 3208 3208 3208 3238 3238 3238 3238 3238 3238 3238 3238 3238 3238 3238 3238 3238 3208 3208 3208 3208 3208 3208 3208 3208 3238 3208 3178 3149 3120 3064 3064 3037 3037 3064 3092 3120 3149 3149 3178 3178 3208 3149 3149 3149 3149 3149 3149 3149 3149 3149 3149 3149 3149 3149 3149 3149 3149 3149 3149 3149 3149 3149 3149 3149 3149 3149 3120 3120 3120 3120 3120 3120 3120 3120 3120 3120 3120 3120 3120 3120 3120 3120 3120 3120 3120 3120 3092 3092 0 0 0 0 0 0 0 0 0 0 0
0 0 0 0 0 0 0 0 0 0 0 0 0 0 0 0 0 0 0 0 0 0 0 0 0 0 0 0 0 0 0 0 3120 3092 3092 3092 3092 3092 3092 3092 3120 3120 3092 3092 3092 3092 3092 3092 3092 3092 3092 3120 3092 3092 3120 3092 3092 3092 3092 3092 3120 3120 3120 3120 3120 3120 3120 3120 3092 3092 3092 3092 3092 3092 3092 3092 3092 3092 3120 3120 3120 3120 3120 3120 3149 3149 3149 3149 3149 3178 3178 3149 3149 3149 0 0 0 0 0 0 0 1439 1439 1439 1439 1445 1452 1452 1452 1452 1458 1458 1458 1464 1464 1464 1470 1470 1477 1477 0 0 0 0 0 0 3333 3300 3269 3269 3269 3269 3269 3269 3269 3269 3269 3269 3269 3269 3269 3269 3300 3300 3300 3300 3300 3300 3300 3269 3269 3300 3300 3300 3269 3269 3269 3269 3269 3269 3269 3269 3269 3269 3269 3269 3269 3269 3269 3269 3269 3269 3269 3269 3269 3269 3269 3269 3269 3269 3269 3300 3300 3300 3300 3269 3269 3300 3300 3269 3269 3269 3269 3269 1981 1981 1981 1981 1981 1993 1398 1398 1398 1398 1398 1398 1398 1398 1398 1398 1398 1398 1398 1398 1404 1404 1410 1410 1415 1421 1421 1427 1470 1477 1483 1477 1477 1483 1483 1483 1483 1483 1489 1489 1489 2005 2005 1993 1993 1483 1483 1477 1477 1477 1477 1477 1470 1470 1464 1464 1470 1464 1464 1464 1464 1464 1470 1470 1470 1470 1292 1292 1292 1297 1292 1292 1292 1292 1292 1292 1292 1292 1292 1292 1292 1292 1297 1302 1302 1307 1307 1307 1307 1993 1993 1288 1288 1288 1283 1283 1283 1283 1283 1278 1278 1278 1278 1273 1273 1278 1278 1278 1278 1273 1273 1273 1273 1268 1268 1268 1268 1268 1268 1268 1268 1268 1268 1268 1268 1268 1268 1268 1268 1268 1268 1268 1268 1268 1264 1264 1264 1264 1259 1259 1259 1255 1255 1255 1255 1255 1255 1255 1255 1255 1250 1250 1250 1250 1250 1250 1250 1250 1250 1250 1250 1250 1250 1250 1250 1250 1250 1250 1250 1250 1250 1250 1250 1250 1245 1245 1245 1245 1245 1245 1245 1245 1245 1245 1245 1245 1245 1245 1245 1241 1241 1236 1232 1232 1232 1232 1227 1227 1227 1227 1227 1227 1227 1227 1227 1227 1210 1210 1410 1410 1410 1410 1410 1410 1410 1410 1404 1404 1404 1404 1404 1404 1404 1398 1398 1398 1398 1392 1392 1392 1392 1392 1392 1392 1392 1392 1392 1392 1392 1392 1392 1392 1392 1392 1392 1392 1387 1387 1387 1387 1387 1387 1387 1387 1387 1381 1381 1381 1381 1381 1381 1376 1376 1381 1376 1376 1376 1376 1376 1376 1376 1376 1376 1376 1376 1370 1370 1365 1365 1365 1365 1365 1365 1365 1365 1365 1365 1365 1365 1365 1365 1359 1359 1359 1359 1359 1359 1359 1354 1354 1354 1354 1349 1343 1343 1343 1343 1343 1343 1338 1338 1338 1338 1343 1343 1338 1338 1338 1338 1338 1338 0 0 0 0 0 0 3178 3178 3149 3149 3178 3178 3178 3178 3178 3178 3178 3178 3178 3178 3178 3178 3178 3178 3178 3208 3208 3208 3208 3208 3178 3178 3178 3178 3178 3178 3208 3208 3208 3208 3208 3208 3178 3178 3178 3178 3178 3178 3178 3178 3208 3178 3149 3092 3064 3064 3064 3064 3064 3064 3092 3120 3149 3149 3178 3178 3178 3149 3149 3149 3149 3149 3149 3149 3149 3149 3149 3149 3149 3149 3149 3120 3120 3149 3149 3149 3149 3149 3149 3149 3120 3120 3120 3120 3120 3120 3120 3120 3120 3120 3120 3120 3092 3092 3092 3120 3120 3092 3092 3120 3120 3092 3092 3092 0 0 0 0 0 0 0 0 0 0 0
0 0 0 0 0 0 0 0 0 0 0 0 0 0 0 0 0 0 0 0 0 0 0 0 0 0 0 0 0 0 0 0 3092 3092 3092 3092 3092 3092 3092 3092 3092 3092 3092 3092 3092 3092 3064 3064 3092 3092 3092 3092 3092 3092 3092 3092 3092 3092 3092 3092 3092 3092 3092 3092 3120 3120 3120 3120 3092 3092 3092 3092 3092 3092 3092 3092 3092 3092 3092 3120 3120 3120 3120 3120 3149 3149 3149 3149 3149 3178 3178 3149 3149 3149 0 0 0 0 0 0 0 1439 1439 1439 1445 1445 1452 1452 1458 1458 1458 1458 1458 1464 1464 1464 1470 1470 1477 1477 1477 0 0 0 0 0 3333 3300 3269 3269 3238 3238 3238 3238 3238 3238 3238 3238 3238 3238 3238 3238 3238 3238 3238 3238 3238 3238 3238 3238 3238 3238 3238 3269 3269 3269 3269 3269 3269 3269 3269 3269 3269 3269 3269 3269 3269 3269 3238 3238 3238 3238 3238 3238 3238 3269 3269 3269 3269 3269 3269 3269 3269 3269 3269 3269 3269 3269 3300 3269 3269 3300 3300 3300 1993 1981 1981 1981 1993 1993 1993 1404 1404 1398 1398 1398 1398 1398 1398 1398 1398 1398 1398 1404 1404 1410 1410 1415 1415 1421 1421 1427 1427 1427 2005 2005 1483 1483 1483 1489 2016 2016 2016 2005 2005 1993 1993 1993 1993 1993 1993 1993 1993 1993 1993 1993 2005 2005 2005 2005 2005 1464 1464 1993 1993 1993 1993 2005 2005 2005 1292 1292 1292 1297 1297 1297 1292 1292 1292 1292 1292 1292 1292 1292 1292 1297 1302 1307 1307 1312 1317 1317 0 1993 1993 1993 1288 1288 1981 1981 1959 1959 1288 1288 1993 1278 1278 1278 1278 1278 1278 1278 1278 1278 1273 1273 1273 1268 1268 1268 1268 1268 1268 1268 1268 1268 1268 1268 1268 1268 1268 1268 1268 1268 1268 1268 1268 1268 1264 1264 1264 1264 1259 1259 1259 1259 1259 1259 1259 1259 1255 1255 1255 1255 1255 1255 1250 1250 1255 1255 1255 1255 1255 1250 1250 1250 1250 1250 1250 1250 1250 1250 1250 1250 1250 1250 1250 1250 1250 1250 1250 1250 1250 1250 1245 1245 1250 1250 1250 1250 1245 1245 1245 1245 1241 1236 1236 1232 1232 1232 1232 1227 1227 1227 1227 1232 1232 1232 1232 1232 1214 1214 1410 1410 1410 1410 1410 1410 1410 1410 1410 1410 1410 1410 1410 1410 1410 1404 1404 1398 1398 1398 1398 1392 1392 1392 1392 1392 1392 1392 1392 1392 1392 1392 1392 1392 1392 1392 1392 1392 1387 1387 1387 1387 1387 1387 1387 1387 1387 1381 1381 1381 1381 1381 1381 1381 1381 1381 1381 1381 1381 1381 1381 1381 1381 1381 1376 1376 1376 1376 1376 1365 1365 1365 1365 1365 1365 1365 1365 1365 1365 1365 1365 1365 1365 1359 1359 1359 1359 1359 1359 1359 1359 1359 1359 1354 1354 1349 1349 1349 1349 1343 1343 1338 1338 1338 1338 1343 1343 1338 1338 1338 1338 1338 0 0 0 0 0 0 0 3149 3149 3120 3120 3149 3149 3149 3178 3178 3178 3178 3178 3178 3178 3178 3178 3178 3178 3178 3178 3178 3178 3178 3178 3178 3178 3178 3178 3178 3178 3178 3178 3178 3178 3178 3178 3178 3178 3178 3178 3178 3178 3178 3178 3178 3149 3120 3064 3064 3037 3037 3037 3064 3064 3092 3092 3120 3149 3149 3149 3149 3120 3120 3120 3120 3149 3149 3149 3120 3120 3120 3120 3120 3120 3120 3120 3120 3120 3120 3120 3120 3120 3120 3120 3120 3120 3120 3120 3120 3120 3120 3120 3092 3092 3092 3092 3064 3064 3064 3064 3064 3064 3092 3092 3092 3064 3064 3092 0 0 0 0 0 0 0 0 0 0 0
0 0 0 0 0 0 0 0 0 0 0 0 0 0 0 0 0 0 0 0 0 0 0 0 0 0 0 0 0 0 0 0 3092 3064 3064 3064 3064 3064 3064 3092 3064 3064 3064 3064 3064 3064 3064 3064 3064 3092 3092 3092 3092 3092 3092 3064 3064 3064 3064 3092 3092 3092 3092 3092 3092 3092 3092 3092 3064 3064 3064 3064 3064 3064 3092 3092 3092 3092 3092 3092 3092 3092 3092 3092 3120 3120 3120 3120 3149 3149 3149 3149 3149 3149 0 0 0 0 0 0 0 0 1439 1439 1445 1445 1452 1452 1458 1458 1458 1458 1458 1464 1464 1464 1470 1470 1477 1477 1477 1483 1483 1483 1483 1483 1477 1477 3269 3269 3238 3238 3238 3238 3238 3238 3238 3238 3238 3238 3238 3238 3238 3238 3238 3208 3208 3208 3208 3208 3208 3238 3238 3238 3238 3238 3208 3208 3208 3208 3208 3208 3208 3208 3208 3208 3208 3208 3208 3208 3208 3208 3208 3208 3208 3238 3238 3238 3269 3269 3269 3269 3269 3269 3269 3269 3269 3269 3269 3269 3269 3300 3300 1970 1970 1981 1981 1981 1993 1993 1993 1404 1404 1404 1404 1404 1398 1398 1398 1398 1398 1398 1398 1404 1404 1410 1415 1415 1421 1421 1421 1427 1427 1433 1993 1993 1993 1993 1993 1993 2005 2005 2005 1993 1993 1993 1993 1993 1993 1993 1993 1993 1981 1981 1981 1981 1993 1993 1993 1993 2005 1993 1993 1981 1981 1981 1981 1981 1981 1307 1297 1297 1297 1297 1297 1297 1297 1297 1297 1292 1292 1292 1292 1292 1297 1302 1307 1312 1312 1312 1317 1317 1970 1993 1993 1981 1981 1981 1981 1981 1981 1981 1981 1981 1981 1981 1959 1959 1959 1278 1278 1278 1278 1278 1278 1273 1273 1268 1268 1268 1268 1268 1268 1268 1268 1268 1268 1268 1268 1268 1268 1268 1268 1268 1268 1268 1268 1268 1264 1264 1264 1264 1259 1259 1259 1259 1259 1259 1259 1259 1255 1255 1255 1255 1255 1255 1255 1255 1255 1255 1255 1255 1255 1250 1250 1250 1250 1250 1250 1250 1250 1250 1250 1250 1250 1250 1250 1250 1250 1250 1250 1250 1250 1250 1250 1250 1250 1250 1250 1250 1250 1250 1245 1245 1241 1241 1236 1236 1232 1232 1232 1232 1232 1232 1232 1232 1232 1232 1232 1232 1236 1404 1410 1410 1410 1410 1410 1410 1410 1410 1410 1410 1410 1410 1410 1410 1410 1404 1404 1404 1404 1398 1398 1398 1398 1392 1392 1392 1392 1392 1398 1398 1398 1398 1398 1398 1398 1392 1392 1392 1387 1387 1387 1387 1387 1387 1387 1387 1387 1381 1381 1381 1381 1381 1381 1381 1381 1381 1381 1381 1381 1381 1381 1381 1381 1381 1381 1376 1376 1376 1376 1370 1365 1365 1365 1365 1365 1365 1365 1365 1365 1365 1365 1365 1365 1359 1359 1359 1359 1359 1359 1359 1359 1359 1359 1354 1354 1349 1349 1349 1349 1343 1343 1343 1338 1338 1343 1343 1343 1338 1338 1338 1338 1343 0 0 0 0 0 0 0 3120 3120 3120 3120 3149 3149 3149 3149 3149 3178 3178 3178 3178 3178 3178 3178 3178 3178 3178 3178 3149 3149 3149 3149 3149 3149 3149 3149 3178 3178 3178 3178 3178 3178 3178 3178 3178 3178 3178 3149 3149 3149 3149 3149 3178 3120 3120 3064 3064 3037 3037 3037 3064 3064 3092 3092 3120 3149 3149 3149 3149 3120 3120 3120 3120 3120 3120 3120 3120 3120 3120 3120 3092 3092 3092 3092 3092 3092 3092 3092 3092 3120 3120 3120 3120 3120 3092 3092 3092 3092 3092 3092 3064 3064 3092 3064 3037 3037 3037 3037 3037 3037 3037 3037 3037 3037 3037 3037 0 0 0 0 0 0 0 0 0 0 0
0 0 0 0 0 0 0 0 0 0 0 0 0 0 0 0 0 0 0 0 0 0 0 0 0 0 0 0 0 0 0 0 3064 3064 3064 3064 3064 3064 3064 3064 3064 3064 3064 3064 3064 3037 3037 3037 3037 3064 3064 3064 3064 3064 3064 3064 3064 3064 3064 3064 3064 3064 3064 3092 3092 3092 3092 3092 3064 3064 3064 3064 3064 3064 3064 3064 3092 3092 3092 3092 3092 3092 3092 3092 3092 3092 3092 3120 3149 3149 3149 3149 3149 3149 3149 0 0 0 0 0 0 0 1439 1439 1439 1445 1452 1452 1458 1458 1458 1458 1458 1464 1464 1464 1470 1470 1477 1477 1477 1483 1483 1477 1477 1477 1477 1477 1477 3238 3238 3238 3238 3238 3238 3238 3238 3238 3238 3238 3238 3238 3238 3238 3208 3208 3208 3208 3208 3208 3208 3208 3208 3208 3208 3208 3178 3178 3178 3178 3178 3178 3178 3178 3178 3178 3178 3178 3178 3178 3178 3178 3178 3208 3208 3208 3208 3238 3238 3238 3238 3238 3238 3238 3238 3269 3269 3269 3269 3269 3269 1947 1947 1959 1959 1970 1970 1970 1981 1981 1981 1981 1404 1404 1404 1404 1404 1404 1404 1404 1398 1398 1404 1404 1404 1410 1415 1415 1421 1421 1427 1427 1433 1433 1981 1981 1981 1993 1993 1993 1993 1993 1993 1993 1993 1993 1993 1993 1993 1981 1981 1981 1981 1981 1981 1981 1981 1981 1981 1981 1981 1981 1981 1981 1981 1981 1981 1981 1981 1307 1307 1302 1302 1297 1297 1297 1297 1297 1297 1292 1292 1292 1292 1297 1297 1307 1307 1312 1317 1322 1322 1322 1970 1970 1970 1970 1970 1970 1981 1981 1981 1981 1981 1981 1981 1981 1959 1959 1959 1959 1278 1278 1278 1278 1278 1273 1273 1268 1268 1268 1268 1268 1273 1268 1268 1268 1268 1268 1268 1268 1268 1268 1268 1268 1268 1268 1268 1268 1264 1264 1264 1264 1259 1259 1259 1259 1259 1259 1259 1259 1259 1259 1255 1255 1255 1255 1255 1255 1255 1255 1255 1255 1255 1255 1250 1250 1250 1250 1250 1250 1250 1250 1250 1250 1250 1250 1250 1250 1250 1250 1250 1250 1250 1250 1250 1250 1250 1250 1250 1250 1250 1250 1245 1245 1245 1241 1241 1236 1236 1232 1232 1232 1232 1232 1232 1232 1232 1232 1232 1232 1236 1236 1410 1410 1410 1410 1410 1410 1410 1410 1410 1410 1410 1410 1410 1410 1410 1404 1404 1404 1404 1404 1398 1398 1398 1398 1398 1392 1392 1392 1398 1398 1398 1398 1398 1398 1398 1392 1392 1392 1387 1387 1387 1387 1387 1387 1387 1387 1387 1387 1381 1381 1381 1381 1381 1381 1381 1381 1381 1381 1381 1381 1381 1381 1376 1376 1376 1376 1376 1376 1376 1370 1370 1370 1365 1365 1365 1365 1365 1365 1365 1365 1365 1365 1365 1359 1359 1359 1359 1359 1359 1359 1359 1359 1359 1354 1354 1349 1349 1349 1349 1349 1349 1343 1343 1343 1343 1343 1343 1338 1338 1338 1338 1338 1338 0 0 0 0 0 0 3120 3120 3120 3120 3149 3149 3149 3149 3149 3149 3149 3149 3149 3149 3149 3149 3149 3149 3149 3149 3149 3149 3149 3149 3149 3149 3149 3149 3149 3149 3149 3149 3149 3149 3149 3149 3149 3149 3149 3149 3149 3149 3149 3149 3149 3120 3092 3064 3064 3037 3037 3037 3064 3064 3092 3092 3120 3149 3149 3149 3149 3120 3120 3120 3120 3120 3120 3120 3092 3092 3092 3092 3092 3092 3064 3064 3064 3064 3064 3064 3092 3092 3092 3092 3092 3092 3092 3064 3064 3092 3092 3092 3064 3064 3064 3064 3037 3037 3037 3037 3037 3037 3037 3037 3037 3037 3037 3037 0 0 0 0 0 0 0 0 0 0 0
0 0 0 0 0 0 0 0 0 0 0 0 0 0 0 0 0 0 0 0 0 0 0 0 0 0 0 0 0 0 0 0 3064 3064 3064 3064 3064 3064 3064 3064 3064 3064 3064 3037 3037 3010 3010 3037 3037 3037 3037 3037 3037 3037 3037 3037 3037 3037 3037 3037 3037 3037 3064 3064 3064 3064 3064 3092 3064 3037 3037 3064 3064 3064 3064 3064 3064 3092 3092 3092 3092 3092 3092 3092 3092 3092 3092 3092 3120 3120 3149 3149 3149 3149 3149 0 0 0 1564 1564 1564 1564 1439 1439 1439 1445 1452 1452 1458 1458 1458 1458 1458 1464 1470 1470 1470 1477 1477 1477 1477 1483 1483 1477 1477 1477 1477 1483 1477 1477 1483 3238 1483 1483 3269 3269 3238 3238 3238 3238 3208 3208 3208 3208 3208 3208 3208 3208 3208 3208 3208 3208 3208 3208 3178 3178 3178 3178 3178 3178 3178 3178 3178 3178 3178 3178 3178 3178 3178 3178 3178 3178 3178 3208 3208 3208 3208 3208 3208 3238 3238 3238 3238 3238 3238 3238 3238 3269 3269 3269 1936 1936 1947 1947 1959 1959 1959 1959 1970 1970 1970 1970 1404 1404 1404 1404 1404 1404 1404 1404 1404 1404 1404 1404 1404 1410 1415 1415 1421 1421 1427 1427 1433 1433 1947 1947 1947 1959 1970 1970 1970 1981 1981 1981 1981 1970 1970 1981 1981 1981 1981 1981 1970 1970 1970 1970 1970 1970 1970 1970 1959 1959 1970 1970 1970 1970 1970 1970 1970 1302 1302 1302 1302 1302 1302 1302 1302 1297 1297 1297 1297 1297 1297 1302 1302 1307 1312 1317 1322 1322 1328 1328 1970 1970 1959 1959 1959 1970 1970 1970 1970 1970 1970 1981 1981 1970 1970 1959 1959 1959 1278 1278 1273 1273 1273 1268 1268 1268 1268 1268 1268 1273 1268 1268 1268 1268 1273 1268 1268 1268 1268 1268 1268 1268 1268 1268 1268 1268 1264 1264 1259 1259 1259 1259 1259 1259 1259 1259 1264 1264 1264 1259 1259 1259 1255 1255 1255 1255 1255 1259 1259 1259 1255 1250 1250 1250 1250 1250 1250 1250 1250 1250 1250 1250 1250 1250 1250 1250 1250 1250 1250 1250 1250 1250 1250 1250 1250 1250 1250 1250 1250 1250 1245 1245 1245 1241 1241 1241 1236 1236 1232 1232 1232 1232 1232 1232 1232 1232 1232 1232 1236 1236 1410 1410 1410 1410 1410 1410 1410 1410 1410 1410 1410 1410 1410 1410 1410 1404 1404 1404 1404 1404 1404 1398 1398 1398 1398 1398 1398 1398 1398 1398 1398 1398 1398 1398 1398 1398 1392 1392 1387 1387 1387 1387 1387 1387 1387 1387 1387 1387 1381 1381 1381 1381 1381 1381 1381 1381 1381 1381 1381 1381 1381 1381 1376 1376 1376 1376 1376 1376 1370 1370 1370 1370 1370 1370 1370 1370 1370 1365 1365 1370 1370 1365 1365 1365 1365 1359 1359 1359 1359 1359 1359 1359 1359 1359 1354 1354 1354 1354 1349 1349 1349 1349 1343 1343 1343 1343 1343 1338 1338 1338 1338 1338 1338 0 0 0 0 0 0 3120 3120 3092 3092 3120 3120 3120 3120 3120 3120 3120 3120 3149 3149 3149 3149 3149 3149 3149 3149 3149 3120 3120 3120 3120 3120 3149 3149 3149 3149 3149 3149 3149 3149 3149 3149 3149 3149 3149 3120 3120 3120 3120 3120 3120 3120 3092 3064 3064 3037 3037 3037 3064 3064 3064 3092 3092 3120 3120 3120 3120 3120 3120 3120 3092 3092 3120 3092 3092 3092 3092 3092 3064 3064 3064 3064 3064 3064 3064 3064 3064 3064 3064 3064 3064 3092 3064 3064 3064 3064 3064 3064 3064 3064 3064 3037 3037 3037 3037 3037 3037 3037 3037 3037 3037 3037 3010 3010 0 0 0 0 0 0 0 0 0 0 0
0 0 0 0 0 0 0 0 0 0 0 0 0 0 0 0 0 0 0 0 0 0 0 0 0 0 0 0 0 0 0 0 3037 3037 3037 3037 3037 3037 3064 3064 3037 3037 3037 3037 3010 3010 3010 3010 3010 3010 3010 3010 3010 3010 3010 3010 3010 3010 3010 3037 3037 3037 3037 3037 3037 3037 3064 3064 3037 3037 3037 3037 3064 3064 3064 3064 3064 3064 3064 3064 3064 3092 3092 3092 3092 3092 3092 3092 3120 3120 3120 3120 3120 3149 3149 0 0 0 1564 1564 1564 1564 1564 1439 1439 1445 1452 1452 1458 1458 1458 1464 1464 1464 1470 1470 1477 1477 1477 1483 1483 1483 1483 1483 1483 1477 1477 1477 1477 1477 1483 1483 1483 1483 1483 1477 1477 1470 1464 1464 1470 1470 3208 3208 3208 3208 3208 3208 3208 3208 3208 3208 3208 1452 1452 1452 3178 3178 3178 3178 3178 3178 3178 3178 3178 3178 3178 3149 3149 3149 3178 3178 3178 3178 3178 3208 3208 3208 3208 3208 3208 3208 3208 3208 3208 3208 3238 3269 3269 1936 1936 1936 1936 1947 1947 1947 1947 1959 1959 1959 1959 1959 1404 1404 1404 1404 1404 1404 1404 1404 1404 1404 1404 1404 1404 1410 1415 1421 1421 1427 1427 1427 1433 1433 1936 1936 1947 1959 1959 1959 1959 1959 1970 1959 1959 1959 1959 1959 1959 1959 1959 1959 1959 1947 1947 1947 1947 1947 1947 1936 1936 1936 1936 1936 1936 1936 1936 1936 1936 1302 1302 1297 1297 1302 1302 1302 1302 1302 1302 1302 1297 1297 1302 1302 1307 1312 1317 1322 1322 1322 1328 1328 1328 1970 1959 1959 1959 1959 1970 1970 1970 1970 1970 1970 1970 1970 1959 1947 1936 1936 2286 2286 1273 1273 1273 1268 1268 1268 3149 3149 1273 1273 1268 1268 1268 1268 3208 3238 3238 1268 1268 1268 1273 1273 1273 1273 1268 1268 1259 1259 1259 1259 1259 1259 1259 1259 1259 1259 1264 1264 1264 1264 1264 1259 1259 1259 1259 1259 1259 1259 1259 1259 1255 1250 1250 1250 1250 1250 1250 1250 1250 1250 1250 1250 1250 1250 1250 1250 1250 1250 1250 1250 1250 1250 1250 1250 1250 1250 1250 1250 1250 1250 1245 1245 1245 1241 1241 1241 1241 1236 1236 1236 1236 1236 1236 1236 1236 1236 1241 1241 1241 1410 1410 1410 1410 1410 1410 1410 1410 1410 1410 1410 1410 1410 1415 1415 1410 1404 1404 1404 1404 1404 1404 1404 1398 1398 1398 1398 1398 1398 1398 1398 1398 1398 1398 1404 1398 1398 1392 1392 1387 1387 1387 1387 1387 1387 1387 1387 1387 1387 1381 1381 1381 1381 1381 1381 1381 1381 1381 1381 1381 1381 1381 1381 1381 1376 1376 1376 1376 1376 1370 1370 1370 1370 1370 1370 1370 1370 1370 1365 1365 1370 1370 1365 1365 1365 1365 1365 1359 1359 1359 1359 1359 1359 1359 1359 1354 1354 1354 1354 1349 1349 1354 1349 1349 1349 1343 1343 1343 1338 1338 1338 1338 1338 1338 0 0 0 0 0 0 3092 3092 3092 3092 3092 3092 3120 3120 3120 3120 3120 3120 3120 3120 3120 3120 3120 3120 3120 3120 3120 3092 3092 3092 3120 3120 3120 3120 3120 3120 3120 3120 3120 3120 3120 3120 3120 3120 3120 3120 3120 3120 3120 3120 3120 3120 3092 3064 3064 3037 3037 3037 3064 3064 3064 3064 3092 3092 3092 3092 3120 3120 3092 3092 3064 3064 3092 3064 3064 3064 3064 3064 3064 3064 3064 3064 3064 3037 3037 3064 3064 3064 3064 3037 3037 3064 3037 3037 3037 3037 3037 3037 3037 3037 3037 3037 3037 3010 3010 3010 3010 3010 3010 3037 3010 3010 3010 3010 0 0 0 0 0 0 0 0 0 0 0
0 0 0 0 0 0 0 0 0 0 0 0 0 0 0 0 0 0 0 0 0 0 0 0 0 0 0 0 0 0 0 0 3037 3037 3037 3037 3010 3010 3010 3010 3010 3010 3010 3010 2984 2984 3010 3010 3010 3010 3010 3010 3010 3010 3010 3010 3010 3010 3010 3010 3037 3037 3037 3010 3010 3010 3037 3037 3010 3010 3010 3037 3037 3064 3037 3037 3064 3064 3064 3064 3064 3064 3064 3064 3092 3092 3092 3092 3120 3092 3092 3120 3120 3149 3149 0 0 0 1564 1564 1572 1572 1572 1452 1452 1452 1452 1458 1458 1458 1458 1464 1464 1470 1470 1477 1477 1477 1477 1477 1483 1483 1483 1483 1477 1477 1477 1477 1477 1477 1477 1477 1477 1477 1477 1477 1477 1470 1464 1464 1470 1470 3208 3208 3208 3208 3208 3208 3208 3208 3208 3208 1452 1452 1452 1452 1452 1452 1452 1458 1458 1458 1458 3178 3178 3178 3178 3149 3149 3149 1477 1477 1477 1477 1477 1477 3208 3208 3208 3208 3208 3208 3208 3208 3208 3208 3238 3238 1936 1936 1936 1936 1936 1947 1947 1947 1947 1947 1959 1959 1959 1959 1404 1404 1404 1404 1404 1404 1404 1404 1404 1404 1404 1404 1410 1415 1415 1421 1421 1427 1427 1427 1433 1936 1936 1936 1947 1947 1947 1947 1947 1947 1959 1959 1959 1947 1947 1947 1947 1947 1947 1947 1947 1936 1936 1936 1936 1936 1936 1936 1936 1936 1936 1936 1936 1936 1936 1936 1936 1936 1297 1297 1297 1302 1302 1302 1302 1302 1302 1302 1297 1297 1302 1302 1307 1312 1317 1322 1322 1322 1328 1328 1328 1926 1926 1936 1936 1947 1959 1959 1959 1959 1959 1959 1959 1959 1947 1936 1936 1936 2286 2286 2271 2271 2286 2301 2301 3149 3149 3149 3178 3178 3208 3178 3178 3178 3208 3178 3178 3178 3178 3178 3178 3178 1273 1273 1268 1268 1259 1259 1259 1259 3120 3120 3149 3149 3178 3208 3238 3238 1936 1936 1936 1936 1936 1259 1259 1259 1259 1259 1259 1259 1255 1250 1250 1250 1250 1250 1250 1250 1250 1250 1250 1250 1250 1250 1250 1250 1250 1250 1250 1250 1250 1255 1250 1250 1250 1250 1250 1250 1250 1250 1245 1245 1245 1245 1241 1241 1241 1241 1236 1236 1236 1236 1236 1241 1241 1241 1241 1241 1241 1410 1410 1404 1404 1410 1410 1410 1410 1410 1410 1415 1415 1415 1415 1415 1415 1410 1404 1404 1404 1404 1404 1404 1398 1398 1398 1398 1398 1398 1404 1404 1404 1404 1404 1404 1398 1398 1392 1387 1387 1387 1387 1387 1387 1387 1387 1387 1387 1387 1381 1381 1381 1381 1381 1381 1381 1381 1381 1381 1381 1381 1381 1381 1381 1376 1376 1376 1376 1376 1376 1370 1370 1370 1370 1370 1370 1370 1370 1370 1370 1370 1370 1365 1365 1365 1365 1365 1365 1365 1365 1359 1359 1359 1359 1359 1359 1359 1359 1359 1354 1354 1354 1354 1349 1349 1349 1343 1343 1338 1338 1338 1338 1338 1338 0 0 0 0 0 3064 3064 3064 3064 3064 3092 3092 3092 3092 3092 3092 3092 3092 3092 3092 3092 3092 3092 3092 3092 3092 3092 3092 3092 3092 3092 3092 3092 3092 3120 3120 3092 3092 3092 3092 3092 3092 3092 3092 3092 3092 3092 3092 3092 3092 3120 3120 3092 3064 3064 3037 3037 3037 3037 3064 3064 3064 3092 3092 3092 3092 3092 3092 3064 3064 3064 3064 3064 3064 3064 3064 3064 3037 3037 3037 3037 3037 3037 3037 3037 3037 3037 3037 3037 3037 3037 3037 3037 3037 3037 3037 3037 3037 3037 3037 3037 3037 3010 3010 3010 3010 3010 3010 3010 3010 3010 3010 3010 3010 0 0 0 0 0 0 0 0 0 0 0
0 0 0 0 0 0 0 0 0 0 0 0 0 0 0 0 0 0 0 0 0 0 0 0 0 0 0 0 0 0 0 0 3010 3010 3010 3010 3010 3010 3010 3010 3010 3010 3010 3010 2984 2984 2984 2984 3010 2984 2984 2984 2984 3010 3010 3010 3010 3010 3010 3010 3010 3010 3010 3010 3010 3010 3010 3037 2984 2984 3010 3010 3037 3037 3037 3037 3037 3064 3064 3064 3064 3064 3064 3064 3092 3092 3092 3092 3092 3092 3092 3092 3092 3120 3120 0 0 0 1564 1564 1572 1572 1579 1586 1452 1452 1458 1458 1458 1464 1464 1464 1464 1470 1470 1477 1477 1477 1477 1477 1483 1483 1483 1483 1477 1477 1477 1477 1477 1477 1477 1477 1477 1477 1477 1470 1470 1470 1470 1464 1464 1464 1470 1470 3208 3208 3208 3208 3208 1464 1464 1452 1452 1452 1452 1452 1452 1452 1452 1458 1458 1458 1458 1458 1458 1458 1458 1458 1458 1458 1458 1464 1470 1470 1470 1464 1458 1458 1458 1452 1452 3208 3208 3208 3208 3208 3208 1936 1936 1936 1445 1445 1936 1947 1947 1947 1947 1947 1959 1959 1959 1959 1410 1410 1410 1410 1410 1410 1410 1404 1404 1404 1404 1404 1410 1415 1415 1421 1421 1427 1427 1427 1433 1936 1936 1936 1936 1936 1947 1947 1947 1947 1947 1947 1947 1936 1936 1936 1936 1936 1936 1936 1936 1926 1926 1926 1926 1926 1926 1926 1926 1926 1926 1926 1926 1926 1926 1915 1915 1915 1297 1297 1297 1302 1302 1302 1302 1302 1302 1302 1302 1302 1302 1302 1307 1312 1317 1322 1322 1322 1328 1328 1328 1894 1894 1915 1926 1926 1936 1936 1936 1936 1936 1936 1936 1936 1936 1926 1926 1926 1926 2286 2271 2271 2286 2301 3149 3149 3149 3149 3178 3178 3208 3178 3178 3178 3178 3178 3178 3178 3178 3178 3178 3178 3178 3149 3149 3149 3149 3149 3149 3149 3120 3120 3149 3149 3178 3208 3269 3269 1936 1936 1936 1936 1936 1264 1264 1259 1259 1926 1926 1926 1926 1250 1250 1926 1926 1926 1926 1926 1936 1936 1926 1926 1936 1250 1250 1250 1250 1250 1255 1255 1255 1255 1250 1250 1250 1250 1250 1250 1245 1245 1245 1245 1245 1245 1245 1241 1241 1241 1236 1236 1236 1236 1241 1241 1241 1245 1245 1245 1245 1410 1410 1404 1404 1410 1410 1410 1410 1410 1410 1415 1415 1415 1415 1415 1415 1404 1404 1404 1404 1404 1404 1404 1398 1398 1398 1398 1398 1398 1398 1398 1398 1404 1404 1404 1398 1398 1392 1387 1387 1387 1387 1387 1387 1387 1387 1387 1387 1387 1387 1387 1387 1381 1381 1381 1381 1381 1381 1381 1381 1381 1381 1381 1381 1376 1376 1376 1376 1376 1376 1370 1370 1370 1370 1370 1370 1370 1370 1370 1370 1370 1370 1365 1365 1365 1365 1365 1365 1365 1365 1365 1365 1365 1365 1359 1359 1359 1359 1359 1359 1354 1354 1354 1349 1349 1349 1349 1349 1343 1343 1343 1343 1338 1338 0 0 0 0 0 3064 3064 3064 3064 3064 3064 3064 3064 3064 3064 3064 3064 3092 3092 3092 3092 3092 3092 3092 3092 3092 3092 3064 3064 3064 3092 3092 3092 3092 3092 3092 3092 3092 3092 3092 3092 3092 3092 3092 3092 3092 3092 3092 3092 3092 3092 3092 3064 3064 3037 3037 3037 3037 3037 3037 3064 3064 3064 3092 3092 3064 3064 3092 3037 3037 3037 3037 3037 3037 3037 3037 3037 3037 3037 3037 3037 3037 3037 3037 3037 3037 3037 3037 3037 3037 3037 3037 3037 3037 3037 3037 3037 3037 3037 3010 3010 3010 3010 3010 3010 3010 3010 3010 3010 3010 3010 3010 2984 2984 0 0 0 0 0 0 0 0 0 0 0
0 0 0 0 0 0 0 0 0 0 0 0 0 0 0 0 0 0 0 0 0 0 0 0 0 0 0 0 0 0 0 0 3010 3010 2984 2984 2984 2984 2984 2984 2984 2984 2984 2984 2984 2984 2984 2984 2984 2984 2984 2984 2984 2984 2984 2984 3010 3010 3010 3010 3010 3010 3010 3010 3010 3010 3010 3010 2984 2984 2984 3010 3010 3010 3010 3010 3037 3037 3037 3064 3064 3064 3064 3064 3064 3064 3092 3092 3092 3092 3092 3092 3092 3092 3120 0 3092 0 1564 1564 1564 1572 1579 1586 1458 1458 1458 1458 1458 1464 1470 1470 1470 1470 1477 1477 1477 1477 1477 1477 1483 1483 1483 1477 1477 1477 1477 1477 1477 1477 1477 1477 1477 1477 1477 1470 1470 1464 1464 1464 1458 1458 1464 1464 1464 1470 3208 3208 1464 1464 1464 1458 1458 1458 1458 1452 1452 1452 1452 1452 1452 1452 1458 1452 1452 1452 1452 1458 1458 1458 1452 1452 1464 1464 1464 1458 1458 1458 1452 1452 1452 1452 1452 1452 1452 3208 1445 1445 1445 1445 1445 1445 1445 1947 1936 1936 1947 1947 1947 1959 1959 1445 1439 1421 1415 1415 1415 1410 1410 1410 1410 1404 1404 1404 1410 1415 1415 1421 1421 1427 1427 1427 1439 1936 1926 1926 1936 1936 1936 1936 1936 1936 1936 1936 1936 1926 1926 1926 1926 1926 1926 1926 1926 1926 1926 1926 1926 1926 1926 1926 1915 1915 1926 1915 1915 1915 1915 1904 1904 1915 1915 1307 1307 1307 1307 1307 1307 1307 1307 1307 1307 1307 1307 1307 1307 1312 1312 1322 1322 1322 1328 1328 1328 1894 1894 1904 1915 1915 1926 1926 1926 1926 1926 1926 1926 1926 1926 1926 1926 1926 1926 2286 2286 2286 2301 2301 3149 3149 3149 3149 3149 3149 3149 3149 3149 3149 3149 3149 3149 3149 3149 3149 3149 3149 3149 3149 3149 3149 3149 3149 3149 3149 3149 3149 3149 3149 3149 3208 3208 1926 1915 1915 1926 1926 1926 1926 1926 1926 1926 1926 1926 1926 1926 1926 1926 1926 1926 1926 1926 1926 1926 1926 1926 1926 1926 1926 1926 1926 1926 1926 1936 1936 1936 1936 1936 1926 1926 1936 1936 1936 1245 1245 1245 1245 1245 1245 1245 1245 1245 1241 1241 1241 1241 1241 1241 1245 1245 1245 1241 1241 1241 1410 1410 1404 1404 1410 1404 1404 1410 1410 1410 1415 1415 1415 1415 1415 1415 1404 1404 1404 1404 1404 1404 1404 1404 1404 1398 1398 1398 1398 1398 1398 1398 1398 1398 1398 1398 1398 1392 1387 1387 1387 1387 1387 1387 1387 1387 1387 1387 1387 1387 1387 1387 1381 1381 1381 1381 1381 1381 1381 1381 1381 1381 1381 1381 1381 1381 1376 1376 1376 1376 1370 1370 1370 1370 1370 1376 1370 1370 1370 1370 1370 1376 1370 1365 1365 1365 1365 1365 1365 1365 1365 1365 1365 1365 1365 1359 1359 1359 1359 1359 1359 1359 1354 1354 1349 1349 1349 1349 1349 1349 1349 1343 1333 1333 0 0 0 0 0 3064 3064 3064 3064 3064 3064 3064 3064 3064 3064 3064 3064 3064 3064 3064 3064 3064 3064 3092 3092 3092 3092 3064 3064 3064 3064 3064 3064 3064 3064 3064 3064 3064 3064 3064 3064 3064 3092 3092 3092 3092 3092 3092 3064 3064 3092 3092 3064 3037 3037 3037 3037 3037 3037 3037 3064 3064 3064 3064 3064 3064 3064 3064 3037 3037 3037 3037 3037 3037 3037 3037 3037 3037 3037 3037 3037 3037 3037 3037 3037 3037 3037 3037 3037 3037 3037 3037 3010 3010 3010 3010 3010 3037 3010 3010 3010 3010 3010 3010 2984 2984 2984 2984 2984 2984 2984 2958 2958 2958 0 0 0 0 0 0 0 0 0 0 0
0 0 0 0 0 0 0 0 0 0 0 0 0 0 0 0 0 0 0 0 0 0 0 0 0 0 0 0 0 0 0 0 3010 2984 2984 2984 2984 2984 2984 2984 2984 2984 2984 2984 2984 2984 2984 2984 2984 2984 2984 2984 2984 2984 2984 2984 2984 2984 2984 3010 3010 3010 3010 3010 3010 3010 3010 3010 2984 2984 2984 2984 3010 3010 3010 3010 3037 3037 3037 3037 3037 3064 3064 3064 3064 3064 3064 3064 3064 3064 3064 3064 3064 3092 3092 3092 3092 0 1564 1564 1564 1572 1579 1586 1458 1458 1458 1464 1464 1464 1470 1470 1470 1477 1477 1477 1477 1477 1477 1477 1483 1483 1477 1477 1477 1477 1477 1477 1477 1477 1477 1477 1477 1477 1477 1470 1470 1464 1464 1464 1458 1458 1464 1464 1464 1464 1464 1464 1464 1464 1464 1458 1458 1458 1458 1458 1458 1458 1458 1452 1452 1452 1452 1452 1452 1452 1452 1452 1452 1452 1452 1452 1452 1458 1458 1452 1452 1452 1452 1452 1452 1445 1445 1445 1445 1445 1445 1445 1445 1445 1439 1439 1445 1445 1439 1439 1445 1445 1947 1947 1445 1445 1439 1427 1421 1421 1421 1415 1415 1415 1415 1410 1404 1404 1410 1415 1415 1421 1421 1427 1427 1433 1439 1936 1926 1915 1915 1926 1936 1936 1936 1936 1936 1926 1926 1915 1915 1915 1915 1915 1915 1915 1915 1915 1915 1915 1915 1915 1926 1915 1915 1915 1915 1915 1915 1904 1904 1904 1894 1894 1894 1894 1312 1312 1312 1307 1307 1307 1307 1307 1307 1307 1307 1307 1307 1312 1312 1317 1322 1322 1328 1328 1883 1883 1894 1904 1904 1904 1915 1915 1915 1915 1915 1915 1915 1915 1915 1915 1915 1915 1926 2286 2286 2301 2301 2317 3120 3120 3120 3149 3149 3149 3149 3149 3149 3149 3149 3149 3149 3149 3149 3149 3149 3149 3149 3120 3120 3120 3120 3120 3120 3120 3149 3120 3120 3149 3149 3149 1904 1904 1904 1904 1915 1915 1915 1915 1915 1915 1915 1915 1915 1915 1915 1915 1915 1915 1915 1915 1915 1915 1915 1915 1915 1915 1926 1926 1926 1926 1926 1926 1926 1926 1926 1926 1926 1926 1926 1926 1926 1926 1915 1245 1245 1245 1245 1245 1245 1245 1245 1245 1245 1245 1245 1245 1245 1245 1245 1241 1241 1241 1241 1410 1410 1404 1404 1410 1404 1404 1410 1915 1915 1915 1915 1915 1915 1415 1415 1404 1404 1404 1404 1404 1404 1404 1404 1404 1398 1398 1398 1398 1398 1398 1398 1398 1398 1398 1398 1398 1398 1392 1392 1387 1387 1387 1387 1387 1387 1387 1387 1381 1381 1387 1387 1381 1381 1381 1381 1381 1381 1381 1381 1381 1381 1381 1381 1381 1376 1376 1370 1370 1370 1370 1370 1376 1376 1376 1376 1376 1370 1370 1370 1370 1376 1370 1365 1365 1365 1365 1365 1365 1365 1365 1365 1365 1365 1365 1359 1359 1359 1359 1359 1359 1359 1354 1354 1354 1349 1349 1349 1349 1349 1343 1343 1333 1333 0 0 0 0 0 3064 3064 3064 3064 3064 3064 3064 3064 3064 3064 3064 3064 3064 3064 3064 3064 3064 3064 3064 3064 3064 3064 3064 3064 3064 3064 3064 3064 3064 3064 3064 3037 3037 3037 3037 3064 3064 3064 3064 3064 3064 3064 3064 3064 3064 3064 3064 3064 3037 3037 3037 3037 3037 3037 3037 3037 3064 3064 3064 3064 3064 3064 3064 3037 3037 3037 3037 3037 3037 3037 3037 3037 3037 3037 3010 3010 3010 3010 3010 3010 3010 3010 3010 3010 3010 3010 3010 3010 3010 3010 3010 3010 3010 3010 3010 3010 2984 2984 2984 2984 2984 2984 2984 2984 2984 2984 2958 2958 2958 0 0 0 0 0 0 0 0 0 0 0
0 0 0 0 0 0 0 0 0 0 0 0 0 0 0 0 0 0 0 0 0 0 0 0 0 0 0 0 0 0 0 0 2984 2984 2958 2958 2958 2958 2958 2958 2958 2958 2958 2984 2984 2984 2984 2984 2984 2984 2984 2984 2984 2984 2984 2984 2984 2984 2984 2984 3010 3010 3010 3010 3010 3010 3010 3010 2984 2984 2984 2984 2984 2984 2984 2984 3010 3010 3010 3010 3037 3037 3037 3064 3064 3064 3064 3064 3064 3064 3064 3064 3064 3064 3092 3092 3092 0 1572 0 1572 1572 1579 1586 1586 1464 1464 1464 1464 1470 1470 1470 1470 1477 1477 1477 1477 1477 1477 1483 1483 1483 1477 1477 1477 1477 1477 1477 1477 1477 1477 1477 1477 1477 1477 1470 1470 1464 1464 1464 1464 1464 1464 1464 1464 1464 1464 1464 1464 1464 1464 1458 1458 1458 1458 1458 1458 1458 1458 1452 1452 1452 1452 1452 1452 1452 1452 1452 1452 1452 1452 1452 1452 1452 1452 1452 1452 1452 1452 1445 1445 1445 1445 1445 1445 1445 1445 1445 1445 1445 1439 1439 1445 1445 1439 1439 1445 1445 1439 1439 1439 1439 1439 1433 1427 1427 1421 1421 1421 1421 1415 1410 1410 1410 1410 1415 1415 1421 1421 1427 1427 1433 1439 1445 1915 1915 1915 1915 1915 1926 1926 1915 1915 1915 1915 1904 1904 1904 1904 1904 1904 1904 1904 1904 1904 1904 1904 1904 1915 1904 1904 1904 1904 1904 1904 1894 1894 1894 1894 1894 1894 1894 1312 1312 1312 1312 1307 1307 1307 1307 1307 1307 1307 1307 1312 1312 1312 1317 1322 1322 1322 1328 1883 1883 1894 1894 1894 1904 1904 1904 1904 1904 1904 1904 1904 1904 1904 1904 1904 1904 2286 2286 2301 2301 2317 2317 3120 3120 3120 3120 3149 3149 3120 3120 3120 3120 3120 3120 3120 3120 3149 3149 3120 3120 3120 3120 3120 3120 3120 3120 3120 3120 3120 3120 3120 3149 3149 1894 1894 1894 1894 1894 1904 1904 1904 1904 1904 1904 1904 1915 1915 1915 1915 1915 1915 1915 1904 1904 1915 1915 1915 1915 1915 1915 1915 1915 1915 1915 1915 1915 1915 1915 1915 1915 1915 1915 1915 1915 1915 1915 1915 1245 1245 1245 1245 1245 1245 1245 1245 1245 1245 1245 1245 1245 1245 1245 1245 1241 1241 1241 1245 1250 1250 1926 1410 1398 1398 1404 1904 1904 1915 1915 1915 1915 1904 1904 1904 1404 1404 1904 1904 1404 1404 1404 1404 1404 1404 1404 1404 1398 1398 1398 1904 1904 1904 1904 1904 1904 1904 1904 1392 1387 1387 1387 1387 1387 1387 1387 1387 1381 1381 1387 1387 1381 1381 1381 1381 1381 1381 1381 1381 1381 1381 1381 1381 1376 1376 1370 1370 1370 1370 1370 1370 1370 1370 1370 1376 1376 1370 1370 1370 1370 1370 1365 1365 1365 1365 1365 1365 1365 1365 1365 1365 1365 1365 1365 1359 1359 1359 1359 1359 1359 1359 1354 1354 1354 1354 1354 1354 1349 1349 1343 1343 1333 1333 0 0 0 0 0 3037 3037 3064 3064 3064 3064 3064 3064 3064 3064 3064 3064 3037 3037 3037 3037 3037 3037 3064 3064 3064 3064 3064 3064 3064 3064 3064 3064 3064 3037 3037 3037 3037 3037 3037 3064 3064 3064 3064 3064 3064 3064 3064 3064 3064 3064 3064 3037 3037 3037 3010 3010 3010 3037 3037 3037 3037 3037 3064 3064 3064 3064 3064 3037 3037 3010 3010 3010 3010 3010 3010 3037 3037 3037 3010 3010 3010 3010 3010 3010 3010 2984 2984 2984 2984 3010 3010 3010 3010 3010 3010 3010 3010 2984 2984 2984 2984 2984 2958 2958 2958 2958 2958 2958 2958 2958 2933 2933 2933 0 0 0 0 0 0 0 0 0 0 0
0 0 0 0 0 0 0 0 0 0 0 0 0 0 0 0 0 0 0 0 0 0 0 0 0 0 0 0 0 0 0 0 2984 2958 2958 2958 2958 2958 2933 2933 2933 2933 2933 2958 2958 2958 2958 2958 2984 2984 2984 2984 2984 2958 2958 2984 2984 2984 2984 2984 2984 2984 2984 2984 2984 3010 3010 2984 2958 2958 2984 2984 2984 2984 2984 2984 2984 3010 3010 3010 3010 3037 3037 3037 3037 3037 3037 3037 3037 3037 3064 3064 3064 3064 3092 3092 3092 0 0 0 1564 1564 1572 1579 1579 1579 1464 1464 1464 1470 1470 1470 1470 1477 1477 1477 1477 1477 1477 1483 1483 1483 1477 1477 1477 1477 1477 1477 1477 1477 1477 1477 1477 1470 1470 1470 1470 1464 1464 1464 1464 1464 1464 1464 1464 1464 1464 1458 1458 1458 1458 1458 1458 1458 1458 1458 1458 1458 1458 1452 1452 1452 1452 1452 1452 1452 1452 1452 1452 1452 1445 1445 1452 1452 1445 1445 1445 1445 1445 1445 1445 1445 1445 1445 1445 1445 1445 1445 1445 1445 1445 1445 1439 1439 1439 1439 1439 1445 1439 1439 1439 1439 1439 1433 1427 1427 1421 1421 1421 1421 1421 1415 1415 1415 1415 1421 1421 1421 1421 1427 1427 1433 1433 1445 1904 1904 1904 1904 1915 1915 1915 1915 1915 1915 1904 1904 1904 1904 1904 1904 1904 1904 1904 1894 1894 1894 1894 1894 1904 1894 1894 1894 1894 1894 1894 1894 1894 1883 1883 1883 1894 1894 1312 1312 1312 1312 1312 1307 1307 1307 1307 1307 1307 1307 1312 1312 1312 1317 1322 1322 1322 1328 1883 1883 1883 1894 1894 1894 1894 1894 1894 1894 1904 1904 1904 1904 1904 1904 1904 1904 2286 2301 2301 2301 2317 2333 3092 3092 3120 3120 3120 3120 3120 3120 3120 3120 3120 3120 3120 3120 3120 3120 3120 3120 3120 3092 3092 3120 3120 3120 3120 3120 3120 3120 3120 3120 1873 1873 1883 1883 1894 1894 1894 1894 1894 1894 1894 1894 1894 1894 1904 1904 1904 1904 1904 1904 1894 1894 1904 1904 1904 1904 1904 1904 1904 1904 1904 1904 1904 1915 1904 1904 1904 1904 1904 1904 1904 1904 1894 1894 1894 1894 1245 1245 1245 1245 1245 1250 1250 1250 1245 1245 1245 1245 1245 1245 1245 1245 1245 1245 1245 1250 1250 1926 1915 1398 1398 1915 1904 1904 1904 1904 1904 1904 1894 1894 1894 1894 1894 1894 1894 1894 1894 1883 1883 1873 1873 1873 1873 1873 1873 1883 1894 1894 1904 1904 1904 1904 1904 1904 1904 1894 1894 1904 1894 1894 1894 1883 1883 1883 1883 1873 1873 1381 1381 1381 1381 1381 1381 1381 1381 1381 1381 1381 1381 1376 1376 1370 1365 1365 1370 1370 1370 1370 1370 1370 1376 1370 1370 1370 1370 1370 1370 1365 1365 1365 1365 1365 1365 1365 1365 1365 1365 1365 1365 1365 1365 1365 1359 1359 1359 1359 1359 1354 1354 1354 1354 1354 1354 1354 1349 1343 1343 1333 1333 0 0 0 0 0 3037 3037 3037 3037 3037 3037 3037 3037 3037 3037 3037 3037 3037 3037 3037 3037 3037 3037 3037 3037 3037 3037 3037 3037 3037 3037 3037 3037 3037 3037 3037 3037 3037 3037 3037 3037 3037 3037 3037 3037 3064 3064 3064 3064 3064 3064 3037 3037 3037 3037 3010 3010 3010 3010 3037 3037 3037 3037 3037 3037 3037 3037 3037 3010 3010 3010 2984 2984 3010 3010 3010 3010 3010 3010 3010 3037 3010 3010 2984 2984 2984 2958 2958 2958 2958 2984 3010 2984 2984 2984 2984 2984 2958 2958 2958 2958 2958 2958 2933 2933 2933 2933 2933 2933 2958 2933 2933 2933 2933 0 0 0 0 0 0 0 0 0 0 0
0 0 0 0 0 0 0 0 0 0 0 0 0 0 0 0 0 0 0 0 0 0 0 0 0 0 0 0 0 0 0 0 2958 2933 2933 2933 2933 2933 2933 2908 2908 2908 2908 2908 2933 2933 2908 2908 2908 2958 2958 2958 2958 2958 2958 2958 2984 2984 2984 2984 2984 2984 2984 2984 2984 2984 2984 2984 2958 2958 2984 2984 2984 2984 2984 2984 2984 2984 2984 2984 3010 3010 3010 3010 3010 3010 3010 3010 3010 3010 3037 3064 3064 3064 3092 3092 3092 0 0 0 1564 1564 1572 1579 1579 1579 1470 1470 1470 1470 1470 1470 1470 1477 1477 1477 1477 1477 1477 1483 1483 1483 1477 1477 1477 1477 1477 1477 1477 1477 1477 1477 1477 1470 1470 1470 1470 1470 1464 1464 1464 1464 1464 1464 1464 1464 1464 1458 1458 1458 1458 1458 1458 1458 1458 1458 1458 1458 1458 1452 1452 1452 1452 1452 1452 1452 1452 1452 1452 1452 1445 1445 1452 1452 1445 1445 1445 1445 1445 1445 1445 1445 1445 1445 1445 1445 1445 1445 1445 1445 1445 1439 1439 1439 1439 1439 1439 1445 1439 1439 1439 1439 1439 1433 1427 1427 1427 1421 1421 1421 1421 1415 1415 1415 1415 1421 1421 1421 1421 1427 1427 1433 1433 1445 1894 1894 1894 1894 1904 1904 1904 1904 1904 1904 1894 1894 1894 1894 1894 1894 1894 1904 1904 1894 1894 1894 1894 1894 1894 1894 1894 1894 1894 1883 1883 1883 1883 1883 1883 1883 1883 1883 1317 1317 1312 1312 1312 1312 1307 1307 1307 1307 1307 1307 1307 1312 1312 1317 1328 1328 1328 1328 1883 1883 1883 1894 1894 1894 1894 1894 1894 1894 1894 1894 1904 1904 1904 1904 1904 2286 2286 2301 2301 2317 2317 2333 2349 3092 3092 3120 3120 3120 3120 3120 3120 3120 3120 3120 3120 3120 3120 3120 3120 3120 3120 3092 3092 3092 3092 3120 3120 3120 3120 3149 3149 1873 1873 1873 1873 1883 1883 1883 1894 1883 1883 1883 1883 1883 1883 1883 1894 1894 1894 1894 1894 1894 1894 1894 1894 1894 1894 1894 1894 1894 1894 1894 1894 1894 1894 1894 1894 1894 1894 1894 1894 1894 1894 1894 1883 1883 1883 1873 1245 1245 1245 1245 1250 1250 1250 1250 1250 1250 1250 1250 1250 1245 1245 1250 1250 1250 1250 1250 1250 1904 1904 1904 1904 1904 1904 1904 1894 1894 1894 1894 1883 1883 1883 1883 1883 1883 1883 1883 1883 1873 1873 1873 1873 1873 1873 1873 1873 1873 1883 1883 1883 1883 1883 1894 1883 1883 1883 1883 1883 1883 1883 1883 1883 1873 1873 1873 1873 1873 1863 1863 1863 1863 1863 1381 1381 1381 1381 1381 1381 1381 1381 1381 1376 1370 1365 1365 1370 1370 1370 1370 1370 1370 1370 1370 1365 1365 1370 1365 1365 1365 1365 1365 1365 1365 1365 1365 1365 1365 1365 1365 1365 1365 1365 1365 1365 1359 1359 1359 1359 1354 1354 1354 1354 1354 1354 1354 1349 1349 1349 1338 1338 0 0 0 0 0 3037 3010 3010 3037 3037 3037 3037 3037 3037 3037 3037 3037 3037 3010 3010 3010 3010 3010 3037 3037 3037 3037 3037 3037 3037 3037 3037 3037 3037 3037 3037 3037 3037 3037 3037 3037 3037 3037 3037 3037 3037 3037 3037 3037 3037 3037 3037 3010 3010 3010 3010 3010 3010 3010 3010 3037 3037 3037 3037 3037 3037 3037 3037 3010 3010 2984 2984 2984 2984 2984 2984 3010 3010 3010 3010 3010 3010 2984 2984 2958 2958 2933 2933 2958 2958 2984 2984 2958 2958 2958 2958 2933 2933 2933 2933 2933 2933 2933 2933 2933 2933 2933 2933 2933 2933 2933 2908 2908 2908 0 0 0 0 0 0 0 0 0 0 0
0 0 0 0 0 0 0 0 0 0 0 0 0 0 0 0 0 0 0 0 0 0 0 0 0 0 0 0 0 0 0 0 2933 2933 2933 2933 2933 2933 2908 2908 2908 2908 2908 2908 2908 2908 2908 2908 2908 2908 2908 2908 2908 2933 2933 2958 2958 2958 2958 2958 2958 2958 2984 2984 2984 2984 2984 2984 2958 2958 2958 2984 2984 2984 2984 2984 2984 2984 2984 2984 2984 2984 2984 3010 2984 2984 2984 2984 3010 3010 3037 3037 3037 3064 3064 3064 3064 0 0 1572 1572 1572 1579 1586 1579 1579 1470 1470 1470 1477 1470 1470 1470 1477 1477 1477 1477 1477 1477 1483 1483 1483 1483 1477 1477 1477 1477 1477 1477 1477 1477 1477 1477 1470 1470 1470 1470 1470 1470 1464 1464 1464 1464 1470 1464 1464 1464 1458 1458 1464 1458 1458 1458 1458 1458 1458 1458 1458 1458 1452 1452 1452 1452 1452 1452 1452 1452 1452 1452 1452 1445 1445 1452 1445 1445 1445 1445 1445 1445 1445 1445 1439 1439 1445 1445 1445 1445 1445 1445 1445 1445 1439 1439 1439 1439 1439 1439 1439 1439 1439 1439 1439 1439 1433 1427 1427 1427 1421 1421 1421 1421 1421 1415 1415 1421 1421 1421 1421 1427 1427 1433 1439 1439 1445 1452 1883 1883 1894 1894 1894 1894 1894 1894 1894 1894 1894 1894 1894 1894 1894 1894 1894 1894 1883 1883 1883 1883 1883 1883 1883 1883 1883 1883 1883 1883 1883 1873 1873 1873 1883 1883 1883 1317 1317 1312 1312 1312 1312 1312 1312 1307 1307 1307 1307 1307 1312 1312 1317 1328 1333 1328 1328 1883 1883 1883 1894 1894 1894 1894 1894 1894 1894 1894 1894 1894 1894 1894 1894 1904 2286 2286 2301 2317 2317 2317 2333 2349 3064 3064 3092 3120 3120 3120 3120 3120 3120 3092 3092 3092 3092 3092 3120 3092 3092 3092 3092 3092 3092 3092 3092 3092 3092 3120 3120 1873 1873 1873 1873 1873 1873 1873 1883 1883 1883 1883 1873 1873 1883 1883 1883 1883 1883 1883 1883 1883 1883 1883 1883 1883 1883 1883 1883 1883 1883 1883 1883 1883 1883 1883 1883 1883 1883 1883 1883 1883 1883 1883 1883 1873 1873 1873 0 1245 1245 1245 1250 1250 1250 1250 1250 1250 1250 1250 1250 1250 1250 1250 1250 1250 1245 1245 1245 1245 1904 1904 1883 1883 1894 1883 1883 1883 1883 1883 1883 1873 1873 1873 1873 1873 1873 1873 1873 1873 1873 1873 1873 1863 1863 1863 1863 1873 1873 1873 1873 1883 1883 1883 1883 1883 1883 1883 1883 1873 1873 1873 1873 1873 1873 1863 1863 1863 1863 1863 1863 1863 1863 1863 1387 1387 1381 1381 1381 1381 1381 1381 1381 1381 1381 2078 1376 1376 1376 1370 1370 1370 1370 1370 1370 1365 1365 1370 1365 1365 1365 1365 1365 1365 1365 1365 1365 1365 1365 1365 1365 1365 1365 1365 1365 1365 1359 1359 1359 1359 1354 1354 1354 1354 1354 1354 1354 1354 1349 1349 1343 1343 0 0 0 0 0 3010 2984 2984 3010 3010 3010 3010 3010 3010 3010 3010 3010 2984 2984 2984 2984 3010 3010 3010 3010 3010 3010 3037 3037 3037 3037 3037 3037 3037 3037 3010 3010 3010 3010 3010 3037 3037 3037 3037 3037 3037 3037 3037 3037 3037 3037 3010 2984 2984 2984 2984 2984 2984 2984 2984 3010 3010 3010 3010 3010 3010 3010 3010 2984 2984 2984 2958 2958 2958 2984 2984 2984 2984 2984 3010 2984 2984 2984 2958 2958 2958 2933 2933 2958 2958 2958 2958 2958 2933 2933 2933 2933 2908 2908 2908 2908 2908 2908 2908 2908 2908 2908 2908 2908 2908 2908 2908 2908 2908 0 0 0 0 0 0 0 0 0 0 0
0 0 0 0 0 0 0 0 0 0 0 0 0 0 0 0 0 0 0 0 0 0 0 0 0 0 0 0 0 0 0 0 2908 2908 2908 2908 2908 2908 2908 2908 2908 2908 2908 2908 2908 2908 2883 2883 2883 2883 2908 2908 2908 2908 2908 2933 2958 2958 2958 2958 2958 2958 2958 2958 2958 2984 2984 2984 2958 2958 2958 2958 2984 2984 2984 2984 2984 2984 2958 2958 2958 2958 2958 2984 2984 2984 2984 2984 2984 2984 3010 3037 3037 3037 3064 3064 3064 0 0 0 1572 1572 1579 1586 1586 1586 1477 1477 1477 1477 1477 1477 1477 1477 1477 1477 1477 1477 1483 1483 1483 1483 1483 1483 1477 1477 1477 1477 1477 1477 1477 1477 1477 1477 1477 1470 1470 1470 1470 1470 1470 1464 1464 1470 1464 1464 1464 1458 1458 1464 1458 1458 1458 1458 1458 1458 1458 1458 1458 1452 1452 1452 1452 1452 1452 1452 1452 1452 1452 1452 1445 1445 1452 1445 1445 1445 1445 1445 1445 1439 1439 1439 1439 1439 1445 1445 1445 1445 1445 1445 1445 1439 1439 1439 1439 1439 1439 1439 1439 1439 1439 1439 1439 1433 1427 1427 1427 1421 1421 1421 1421 1421 1421 1421 1421 1421 1421 1427 1427 1427 1433 1439 1439 1445 1452 1873 1883 1883 1883 1883 1894 1894 1894 1894 1894 1883 1883 1883 1894 1894 1894 1883 1883 1873 1863 1863 1863 1863 1873 1873 1873 1873 1873 1873 1873 1873 1873 1873 1873 1873 1883 1883 1317 1317 1312 1312 1312 1312 1312 1312 1312 1312 1312 1312 1312 1312 1317 1322 1328 1333 1333 1338 1894 1883 1883 1894 1894 1894 1894 1894 1894 1894 1894 1894 1894 1894 1894 1894 2286 2286 2301 2301 2317 2317 2317 2333 2333 2349 3064 3092 3092 3092 3092 3092 3092 3092 3092 3092 3092 3092 3092 3092 3092 3092 3092 3064 3064 3064 3064 3092 3092 3092 3092 1873 1873 1873 1873 1873 1873 1873 1873 1873 1873 1873 1873 1873 1873 1873 1873 1873 1873 1873 1873 1873 1873 1873 1873 1873 1873 1873 1873 1873 1873 1873 1873 1873 1873 1873 1873 1883 1883 1883 1883 1883 1883 1883 1883 1883 1873 1873 1873 1873 1873 1250 1250 1250 1250 1250 1250 1250 1250 1250 1250 1250 1250 1250 1250 1250 1250 1245 1245 1245 1245 1853 1853 1853 1863 1873 1873 1873 1873 1873 1873 1873 1863 1863 1863 1863 1863 1873 1873 1873 1863 1863 1863 1863 1863 1863 1863 1863 1863 1863 1873 1873 1873 1873 1873 1873 1873 1873 1873 1873 1873 1873 1873 1863 1863 1863 1863 1863 1863 1863 1863 1863 1863 1863 1863 0 1863 1853 1381 1381 1381 1381 1381 2065 2078 2078 2078 2078 2078 1376 1376 1370 1370 1370 1370 2053 2040 2040 2040 2040 1365 1365 1365 1359 1359 1365 1365 1365 1365 1365 1365 1365 1365 1365 1359 1359 1359 1359 1359 1359 1359 1354 1354 1354 1354 1354 1354 1354 1354 1354 1354 1343 1343 0 0 0 0 0 2984 2984 2984 2984 2984 2984 2984 2984 2984 2984 2984 2984 2984 2984 2984 2984 2984 2984 2984 3010 3010 3010 3010 3037 3037 3037 3037 3010 3010 3010 3010 3010 3010 2984 2984 3010 2984 2984 3010 3010 3010 3010 3010 3010 3010 2984 2984 2984 2984 2984 2958 2958 2984 2984 2984 2984 2984 2984 2984 2984 2984 2984 2984 2958 2958 2958 2958 2958 2958 2958 2958 2984 2984 2984 2984 2958 2958 2958 2958 2933 2933 2933 2933 2933 2933 2933 2933 2933 2933 2908 2908 2908 2908 2883 2883 2883 2883 2883 2883 2883 2883 2908 2908 2908 2908 2908 2908 2908 2908 0 0 0 0 0 0 0 0 0 0 0
0 0 0 0 0 0 0 0 0 0 0 0 0 0 0 0 0 0 0 0 0 0 0 0 0 0 0 0 0 0 0 0 2883 2883 2883 2883 2883 2908 2908 2908 2908 2883 2883 2883 2883 2883 2883 2883 2883 2883 2883 2883 2883 2908 2908 2908 2933 2933 2933 2933 2933 2933 2933 2933 2933 2958 2958 2958 2933 2933 2958 2958 2984 2984 2984 2984 2984 2984 2958 2958 2958 2958 2958 2958 2958 2958 2958 2958 2984 2984 2984 2984 2984 2984 3010 3010 3010 0 0 0 1579 1579 1579 1586 1586 1586 1477 1477 1477 1477 1477 1477 1477 1477 1477 1483 1483 1483 1483 1483 1483 1483 1483 1483 1483 1477 1477 1477 1477 1477 1477 1477 1477 1477 1477 1470 1470 1470 1470 1470 1470 1470 1470 1470 1470 1464 1464 1464 1464 1464 1464 1458 1458 1458 1458 1458 1458 1458 1458 1452 1452 1452 1452 1452 1452 1452 1452 1452 1452 1452 1452 1452 1452 1452 1445 1445 1445 1445 1445 1439 1439 1439 1439 1439 1445 1445 1445 1445 1445 1445 1445 1439 1439 1439 1439 1439 1439 1439 1439 1439 1439 1439 1439 1433 1433 1427 1427 1427 1427 1421 1421 1421 1421 1421 1421 1421 1427 1427 1427 1433 1433 1439 1445 1445 1452 1873 1873 1873 1873 1873 1883 1883 1883 1883 1883 1883 1883 1883 1883 1883 1883 1873 1873 1863 1853 1853 1853 1853 1853 1853 1863 1863 1863 1863 1863 1863 1863 1863 1863 1863 1873 1873 1317 1317 1312 1312 1312 1312 1312 1312 1312 1312 1312 1312 1312 1312 1317 1322 1328 1333 1333 1338 1343 1343 1883 1894 1894 1894 1894 1894 1894 1894 1894 1894 1894 1894 1894 1894 2286 2301 2301 2301 2317 2317 2317 2333 2333 2333 3064 3092 3092 3092 3064 3064 3092 3092 3064 3064 3092 3064 3064 3064 3064 3064 3064 3037 3037 3064 3064 3064 3064 3064 3064 1873 1873 1863 1863 1873 1873 1873 1873 1873 1873 1873 1873 1873 1863 1863 1873 1873 1873 1873 1873 1873 1873 1873 1863 1863 1873 1863 1863 1863 1863 1863 1863 1863 1863 1863 1863 1873 1873 1873 1873 1873 1873 1873 1873 1873 1863 1863 1863 1863 0 1250 1250 1250 1250 1250 1250 1250 1250 1250 1250 1250 1250 1250 1250 1250 1250 1245 1245 1245 1245 1843 1843 1843 1853 1853 1863 1873 1863 1863 1863 1873 1863 1853 1853 1863 1863 1863 1863 1863 1863 1863 1863 1853 1853 1853 1853 1853 1863 1863 1863 1863 1863 1863 1863 1863 1863 1863 1863 1863 1863 1863 1863 1853 1853 1863 1863 1863 1863 1863 1853 1853 1853 1853 1853 1853 0 0 0 0 0 2065 2065 2065 2065 2065 2078 2078 2078 2065 2065 2065 2053 2053 2053 2053 2053 2053 2053 0 1365 1365 1365 1359 1359 1365 1365 1365 1365 1365 1365 1365 1359 1359 1359 1359 1359 1359 1359 1359 1359 1354 1354 1354 1354 1354 1354 1354 1354 1354 1354 1343 1343 0 0 0 0 0 2958 2958 2958 2958 2958 2958 2958 2958 2958 2958 2958 2958 2958 2958 2958 2958 2958 2958 2958 2984 3010 3010 3010 3037 3037 3037 3010 3010 3010 3010 2984 2984 2984 2984 2984 2984 2984 2984 2984 3010 3010 2984 2984 2984 2984 2984 2984 2958 2958 2958 2958 2958 2958 2958 2958 2958 2958 2958 2958 2958 2958 2958 2958 2933 2933 2933 2933 2933 2933 2958 2958 2958 2958 2958 2958 2958 2933 2933 2933 2933 2908 2908 2908 2908 2933 2933 2933 2933 2908 2908 2908 2908 2883 2883 2859 2859 2859 2883 2883 2883 2883 2883 2908 2908 2908 2908 2908 2908 2908 0 0 0 0 0 0 0 0 0 0 0
0 0 0 0 0 0 0 0 0 0 0 0 0 0 0 0 0 0 0 0 0 0 0 0 0 0 0 0 0 0 0 0 2883 2883 2883 2883 2883 2883 2883 2883 2883 2883 2883 2883 2883 2883 2883 2883 2883 2883 2883 2883 2883 2883 2883 2908 2908 2908 2908 2908 2933 2933 2933 2933 2933 2933 2958 2958 2933 2933 2933 2958 2958 2958 2958 2958 2958 2958 2958 2958 2958 2958 2958 2958 2958 2958 2958 2958 2958 2984 2984 2984 2984 2984 2984 2984 2984 0 0 0 1579 1579 1579 1586 1586 1586 1477 1477 1477 1477 1477 1477 1477 1477 1477 1483 1483 1483 1483 1483 1483 1483 1483 1483 1483 1477 1477 1477 1477 1477 1477 1477 1477 1477 1477 1477 1477 1477 1470 1470 1470 1470 1470 1470 1470 1470 1464 1464 1464 1464 1464 1458 1458 1458 1458 1458 1458 1458 1458 1452 1452 1452 1452 1452 1452 1452 1452 1452 1452 1452 1452 1452 1452 1452 1445 1445 1445 1445 1445 1439 1439 1445 1445 1445 1445 1445 1445 1445 1445 1445 1445 1439 1439 1439 1439 1439 1439 1439 1439 1439 1439 1439 1439 1433 1433 1427 1427 1427 1427 1427 1427 1421 1421 1421 1421 1427 1427 1427 1427 1433 1439 1439 1445 1445 1452 1863 1863 1863 1863 1863 1873 1873 1873 1873 1873 1873 1873 1873 1873 1873 1873 1863 1863 1853 1853 1853 1853 1853 1853 1853 1853 1853 1863 1853 1853 1853 1853 1853 1853 1863 1873 1873 1317 1317 1317 1312 1312 1312 1312 1312 1312 1312 1312 1312 1312 1317 1322 1328 1333 1333 1338 1338 1343 1343 1349 1894 1894 1894 1894 1894 1894 1894 1894 1894 1894 1894 1894 1894 2301 2301 2301 2301 2317 2317 2317 2333 2333 2333 3064 3064 3064 3037 3037 3037 3064 3064 3037 3037 3064 3037 3037 3037 3037 3064 3037 3037 3037 3037 3037 3037 3037 3037 0 1873 1873 1863 1863 1863 1863 1863 1863 1863 1863 1863 1863 1863 1863 1863 1863 1863 1863 1863 1863 1863 1863 1863 1863 1853 1853 1853 1853 1853 1853 1853 1853 1853 1853 1853 1853 1863 1863 1863 1863 1863 1863 1863 1863 1863 1853 1853 1853 1853 0 1250 1250 1250 1250 1250 1255 1255 1250 1250 1250 1250 1250 1250 1250 1250 1250 1245 1245 1245 1245 1843 1843 1843 1843 1843 1853 1853 1863 1853 1853 1863 1853 1843 1843 1843 1853 1853 1853 1853 1853 1853 1853 1853 1853 1853 1853 1853 1853 1853 1853 1853 1853 1853 1853 1853 1853 1853 1853 1853 1853 1853 1853 1843 1843 1843 1853 1853 1853 1853 1853 1853 1853 1853 1853 1853 0 0 0 0 0 0 2065 2065 2065 2065 2078 2078 2078 2065 2065 2065 2065 2053 2053 2053 2053 2053 2053 0 1365 1365 1365 1365 1365 1365 1365 1365 1365 1359 1359 1365 1359 1359 1359 1359 1359 1359 1359 1359 1359 1354 1354 1354 1354 1354 1354 1354 1354 1354 1354 1354 1354 0 0 0 0 0 2933 2933 2933 2933 2958 2958 2958 2958 2958 2958 2958 2933 2933 2933 2933 2933 2933 2958 2958 2958 2958 2958 2958 2984 2984 2984 2984 2984 2984 2984 2958 2958 2958 2958 2958 2958 2958 2958 2958 2958 2958 2958 2958 2933 2933 2933 2958 2958 2958 2958 2958 2958 2958 2958 2958 2958 2933 2933 2933 2908 2908 2908 2908 2933 2908 2908 2933 2933 2933 2933 2933 2958 2958 2958 2958 2933 2933 2933 2933 2908 2908 2908 2908 2908 2908 2908 2908 2908 2908 2883 2883 2883 2883 2859 2859 2859 2859 2859 2859 2859 2859 2883 2883 2883 2883 2883 2883 2883 2883 0 0 0 0 0 0 0 0 0 0 0
0 0 0 0 0 0 0 0 0 0 0 0 0 0 0 0 0 0 0 0 0 0 0 0 0 0 0 0 0 0 0 0 2859 2859 2859 2859 2859 2883 2883 2883 2883 2883 2883 2859 2859 2859 2859 2859 2859 2859 2859 2883 2883 2883 2883 2883 2883 2908 2908 2908 2908 2908 2933 2933 2933 2933 2933 2933 2933 2933 2933 2933 2958 2958 2958 2958 2958 2958 2958 2958 2958 2958 2958 2958 2958 2958 2958 2958 2958 2958 2958 2958 2958 2958 2958 2958 2958 2958 0 1564 1564 1564 1579 1586 1586 1586 1477 1477 1477 1477 1477 1477 1477 1477 1483 1483 1483 1483 1483 1483 1483 1483 1483 1483 1483 1483 1483 1483 1483 1477 1477 1477 1477 1477 1477 1477 1477 1477 1477 1477 1477 1477 1477 1477 1470 1470 1470 1470 1470 1470 1464 1458 1458 1458 1458 1458 1458 1458 1458 1452 1452 1452 1452 1452 1452 1452 1452 1452 1452 1452 1452 1452 1452 1452 1445 1445 1445 1445 1445 1439 1439 1445 1445 1445 1445 1445 1445 1445 1445 1445 1445 1439 1439 1439 1439 1439 1445 1445 1439 1439 1439 1439 1439 1439 1433 1433 1427 1427 1427 1427 1427 1427 1427 1427 1427 1427 1427 1427 1427 1433 1439 1439 1445 1445 1452 1863 1863 1863 1863 1863 1863 1863 1863 1863 1863 1863 1863 1863 1863 1863 1863 1863 1863 1843 1843 1843 1843 1843 1843 1843 1853 1853 1853 1853 1853 1853 1853 1853 1853 1853 1863 1863 1312 1312 1312 1312 1312 1317 1317 1317 1312 1312 1312 1312 1317 1317 1322 1328 1333 1338 1343 1343 1343 1343 1349 1894 1894 1894 1894 1894 1894 1894 1894 1894 1894 1894 1894 1894 2286 2301 2301 2301 2317 2317 2317 2333 2333 2333 2365 3037 3037 3037 3037 3037 3037 3037 3037 3037 3037 3037 3037 3037 3037 3037 3037 3037 3037 3037 3037 3037 3037 3037 3010 1873 1873 1863 1863 1863 1863 1863 1863 1863 1863 1853 1853 1853 1853 1853 1853 1853 1863 1863 1863 1863 1863 1863 1863 1853 1853 1853 1853 1853 1843 1843 1853 1853 1853 1853 1853 1853 1853 1863 1863 1863 1853 1853 1853 1853 1843 1843 1853 1853 1843 1250 1250 1250 1250 1250 1255 1255 1255 1255 1255 1250 1250 1250 1250 1250 1250 1245 1245 1245 1245 1843 1843 1843 1843 1843 1843 1853 1853 1853 1853 1853 1843 1833 1833 1843 1843 1843 1853 1853 1853 1843 1843 1843 1843 1843 1833 1833 1843 1843 1843 1843 1843 1843 1843 1843 1843 1843 1843 1843 1843 1833 1833 1833 1833 1833 1833 1833 1843 1843 1843 1843 1843 1843 1843 1853 0 0 0 0 0 2065 2065 2065 2065 2078 2078 2078 2078 2065 2065 2065 2065 2053 2053 2053 2053 2053 2053 1365 1365 1365 1365 1365 1365 1365 1365 1365 1365 1359 1359 1365 1359 1359 1359 1359 1359 1359 1359 1359 1359 1354 1354 1354 1354 1354 1354 1354 1354 1354 1354 1359 1359 0 1359 0 2883 0 2908 2908 2933 2933 2933 2933 2933 2933 2958 2958 2933 2933 2933 2933 2933 2933 2933 2933 2933 2933 2933 2933 2933 2958 2958 2958 2958 2958 2958 2958 2958 2958 2958 2958 2958 2958 2958 2933 2933 2933 2933 2933 2933 2933 2933 2933 2933 2933 2933 2933 2933 2933 2933 2933 2933 2908 2908 2883 2883 2859 2859 2883 2883 2908 2908 2908 2908 2908 2908 2908 2933 2933 2933 2933 2933 2933 2908 2908 2908 2908 2908 2908 2908 2908 2908 2908 2908 2908 2883 2883 2883 2883 2859 2859 2859 2859 2859 2859 2859 2859 2859 2859 2859 2883 2883 2883 2883 2883 2883 0 0 0 0 0 0 0 0 0 0 0
0 0 0 0 0 0 0 0 0 0 0 0 0 0 0 0 0 0 0 0 0 0 0 0 0 0 0 0 0 0 0 0 2835 2835 2835 2859 2859 2859 2859 2859 2859 2859 2859 2859 2859 2859 2859 2859 2859 2859 2859 2859 2859 2859 2859 2883 2883 2908 2908 2908 2908 2908 2933 2933 2933 2933 2933 2933 2908 2908 2933 2933 2933 2933 2933 2933 2933 2933 2933 2933 2933 2933 2933 2933 2933 2933 2933 2933 2933 2933 2933 2933 2933 2958 2958 2958 2958 0 0 0 1564 1564 1579 1586 1586 1594 1477 1477 1477 1477 1483 1483 1483 1483 1483 1483 1483 1483 1483 1489 1489 1489 1489 1489 1489 1489 1489 1483 1483 1483 1483 1483 1483 1483 1483 1483 1483 1483 1483 1477 1477 1477 1477 1477 1477 1477 1470 1470 1470 1470 1470 1464 1464 1464 1458 1458 1458 1458 1458 1458 1458 1452 1452 1458 1452 1452 1452 1452 1452 1452 1452 1452 1458 1452 1452 1452 1452 1445 1445 1445 1445 1445 1445 1445 1445 1445 1445 1445 1445 1445 1445 1445 1445 1445 1445 1445 1445 1445 1445 1445 1445 1439 1439 1439 1439 1433 1427 1427 1427 1427 1427 1427 1427 1427 1427 1427 1427 1427 1433 1433 1439 1445 1445 1445 1458 1863 1853 1853 1853 1853 1863 1863 1863 1863 1863 1863 1853 1853 1853 1853 1853 1853 1853 1843 1843 1843 1843 1843 1843 1843 1843 1843 1843 1843 1843 1843 1843 1843 1843 1843 1843 1843 1312 1312 1312 1312 1317 1317 1317 1317 1317 1312 1312 1317 1317 1317 1328 1333 1333 1338 1343 1343 1349 1349 1349 1894 1894 1894 1894 1894 1894 1894 1894 1904 1904 1904 1904 2286 2286 2301 2301 2301 2317 2317 2317 2333 2333 2333 2365 3037 3010 3010 3037 3037 3037 3037 3037 3037 3037 3037 3037 3037 3037 3037 3037 3010 3010 3010 3010 3037 3010 3010 3010 1873 1873 1863 1863 1863 1853 1853 1863 1863 1853 1853 1853 1853 1853 1853 1853 1853 1863 1853 1853 1853 1853 1853 1853 1853 1853 1853 1843 1843 1843 1843 1843 1843 1843 1843 1843 1853 1853 1853 1853 1853 1853 1853 1843 1843 1843 1843 1843 1843 1843 1250 1250 1250 1250 1250 1255 1255 1255 1255 1255 1250 1250 1250 1250 1250 1250 1245 1245 1245 1245 1843 1843 1843 1833 1833 1843 1843 1843 1843 1843 1843 1833 1833 1833 1833 1833 1843 1833 1833 1833 1833 1833 1833 1833 1833 1833 1833 1833 1833 1833 1833 1833 1833 1833 1843 1843 1843 1833 1833 1833 1833 1823 1823 1823 1823 1823 1823 1833 1833 1833 1833 1833 1833 1833 1853 0 0 0 0 2078 2065 2065 2065 2065 2078 2078 2078 2078 2078 2065 2065 2065 2065 2053 2053 2053 2053 2053 1365 1365 1365 1365 1365 1365 1365 1365 1365 1365 1359 1359 1365 1359 1359 1359 1359 1359 1359 1359 1359 1359 1354 1354 1354 1354 1354 1354 1354 1354 1354 1354 1359 1359 1359 1359 0 2883 2883 2883 2883 2908 2908 2933 2933 2933 2933 2933 2933 2933 2933 2933 2933 2908 2908 2933 2908 2908 2933 2933 2933 2933 2933 2933 2933 2933 2933 2933 2933 2933 2933 2933 2933 2933 2933 2958 2933 2933 2933 2933 2908 2908 2908 2908 2908 2908 2908 2908 2908 2908 2908 2908 2908 2908 2883 2883 2883 2883 2859 2859 2859 2883 2883 2883 2883 2883 2883 2908 2908 2908 2908 2908 2908 2908 2908 2883 2883 2883 2883 2883 2859 2859 2859 2883 2883 2859 2859 2859 2859 2859 2859 2859 2859 2859 2835 2835 2835 2835 2835 2835 2835 2835 2859 2859 2859 2883 2883 2883 0 0 0 0 0 0 0 0 0 0 0
