0 0 0 0 0 0 0 0 0 0 0 0 0 0 0 0 0 0 0 0 0 0 0 0 0 0 0 0 0 0 0 0 3010 3010 3010 3037 3037 3064 3064 3064 0 3037 3010 3010 3010 3092 0 0 0 0 0 0 0 0 0 0 0 0 0 0 0 0 0 0 0 0 0 0 0 3178 3178 3208 3208 3238 3238 3269 3269 3269 0 4582 4582 4582 4645 4582 4582 4582 4582 0 0 0 0 0 0 0 0 0 0 0 0 0 0 1523 1523 1523 1523 1516 1516 1523 1523 1523 1529 1529 1529 1529 1529 1536 1536 1536 0 0 0 0 0 0 0 0 0 0 0 0 0 0 0 0 0 0 0 0 0 0 0 0 0 0 1458 1458 1458 1458 1458 1458 1452 1452 1452 1452 1452 1452 1452 1452 1452 1452 1445 1445 1445 1439 1433 1433 1439 1433 1433 1433 1433 1433 1433 1427 1427 1427 1421 1421 1421 1421 1427 1427 1427 1421 1421 1421 1415 1410 1404 1404 1404 1404 1404 1404 1404 1404 1410 1415 1427 1427 1427 1433 1433 1427 1427 1427 1947 1947 1947 1959 1970 1970 1970 1970 1981 1970 1970 1970 1970 1970 1970 1959 1959 1959 1970 1970 0 1283 1283 1283 1283 1283 1278 1278 1278 1278 1278 1278 1278 1278 1278 1278 1278 1283 1283 1278 1278 1268 1268 1268 1268 1268 1268 1264 1264 1259 1255 1255 1255 1250 1245 1245 1245 1245 1245 1227 1227 1227 1219 1219 1223 1232 1232 1232 1232 1232 1232 1232 1232 1232 1232 1232 1232 1232 1232 1232 1227 1223 1223 1223 1219 1219 1219 1219 1219 1219 2053 1219 1214 1214 1210 1210 2065 2065 2065 2065 2040 2040 2040 2040 2040 2028 2028 2040 2040 2040 2040 2053 2053 2053 2053 2053 2053 2053 2053 2053 2065 2065 2053 2053 2053 2053 2065 2065 2065 2065 2065 2078 2078 2090 2090 2090 2078 2078 2078 2090 2090 2078 2078 2090 2090 2090 2090 2078 2078 2078 2065 2065 2065 2065 2065 2065 2065 2065 3064 3064 3064 3064 3064 3064 3064 3064 3064 3064 3092 3092 3092 3092 3092 3092 3092 3092 3092 3092 3064 3037 3010 2984 2984 2984 2984 2984 2958 2933 2933 2933 2958 2958 2958 2103 2103 2103 2116 2116 2116 2116 2116 2116 2116 2116 2116 2116 2116 2103 2103 2103 2090 2090 2103 2090 2090 2090 2090 2090 2090 2090 2090 2090 2090 2090 2090 2090 2090 2090 2078 2065 2065 2065 2053 2053 2053 2053 2053 2053 2053 2053 2040 2028 2016 2016 2040 2040 2040 2040 2040 2053 2053 3732 3732 4349 4349 4349 4349 4349 4349 4349 4349 4349 4349 4349 4349 4349 4349 4349 4349 4405 4405 4405 1993 1993 1993 1993 1993 1993 1993 1993 1993 1993 1993 1993 1993 0 0 0 0 0 6038 6038 6146 6146 6146 6146 6146 6146 6375 6146 6146 6375 6259 6259 6146 6146 6146 6146 6038 5933 5832 5832 5832 5832 5832 5832 5832 5933 6146 6259 6497 6622 6497 6497 6497 6375 6375 6259 6146 5933 5832 5734 5734 5832 5933 5933 6038 6146 6146 0 0 0 0 0 0 0 0 0 0 0 6622 6622 6622 6622 6497 6146 6038 6038 6038 6146 6146 6146 6259 6259 6375 6497 6497 6497 6497 6146 6146 6146 5832 5640 5460 5460 5460 5460 5548 5640 5734 6038 6038 6146 6146 5933 5933 5933 0 5548 5548 5640 5933 6146 6146 6146 6146 6146 6146 6259 6259 6259 4190 4190 4241 4241 4190 4190 4190 4190 4139 4089 4089 4139 4139 4190 4190 4190 4190 4139 4139 0 0 0 0 0 0 0 0 0 0 0 0 0
0 0 0 0 0 0 0 0 0 0 0 0 0 0 0 0 0 0 0 0 0 0 0 0 0 0 0 0 0 0 0 0 0 0 0 0 0 0 0 0 0 0 3092 3092 3092 3092 0 0 0 0 0 0 0 0 0 0 0 0 0 0 0 0 0 0 0 0 0 0 0 0 3178 3178 3208 3238 3238 3269 4582 4522 4522 4522 4522 4582 4582 4582 4582 4582 4522 4522 0 0 0 0 0 0 0 0 0 0 0 0 0 1523 1523 1523 1523 1523 1523 1523 1523 1523 1523 1523 1529 1529 1529 1536 1536 1536 0 0 0 0 0 0 0 0 0 0 0 0 0 0 0 0 0 0 0 0 0 0 0 0 0 0 0 0 1458 1458 1458 1458 1458 1843 1452 1452 1452 1452 1445 1445 1445 1452 1452 1445 1445 1445 1445 1452 1445 1445 1439 1439 1439 1439 1433 1433 1427 1427 1421 1421 1421 1421 1427 1427 1427 1421 1421 1421 1415 1410 1404 1404 1404 1404 1404 1404 1404 1410 1410 1415 1421 1427 1427 1427 1427 1433 1433 1947 1947 1936 1936 1936 1936 1936 1926 1926 1936 1936 1947 1936 1936 1936 1936 1936 1936 1926 1926 1959 0 1288 1288 1283 1283 1283 1278 1278 1278 1278 1278 1278 1278 1278 1283 1283 1283 1283 1283 1278 1278 1268 1268 1268 1268 1268 1264 1264 1264 1255 1255 1255 1250 1250 1250 1250 1245 1245 1245 1236 1232 1232 1223 1223 1227 1232 1232 1232 1232 1232 1232 1227 1227 1227 1223 1223 1227 1227 1227 1227 1223 1223 1223 1223 1219 1219 1219 1219 1219 1219 1219 1219 1214 1214 1210 1210 1210 2065 2053 2040 2040 2040 2040 2028 2028 2028 2028 2028 2028 2028 2040 2040 2040 2040 2053 2040 2040 2040 2040 2040 2053 2053 2053 2053 2053 2053 2053 2053 2053 2065 2065 2065 2065 2078 2078 2078 2078 2078 2078 2090 2090 2090 2078 2078 2090 2078 2078 2078 2078 2065 2065 2065 2065 2065 2065 2065 2065 2065 2065 3064 3064 3064 3064 3064 3064 3037 3037 3064 3092 3092 3092 3092 3092 3120 3092 3092 3092 3092 3064 3037 3010 2984 2984 2984 2958 2958 2958 2933 2933 2933 2958 2958 2958 2103 2103 2103 2116 2116 2116 2116 2116 2116 2116 2116 2116 2116 2116 2103 2103 2103 2103 2103 2103 2103 2103 2103 2103 2090 2090 2090 2090 2090 2090 2090 2090 2090 2090 2090 2078 2065 2065 2065 2053 2053 2053 2053 2053 2053 2053 2053 2040 2028 2028 2040 2040 2040 2040 2040 2040 2053 2053 2053 2053 2053 4405 4349 4349 4349 4349 4349 4349 4349 4349 4349 4349 4349 4349 4349 4405 4349 4349 4349 1993 1993 1993 1993 1993 1993 1993 1993 1993 1981 1981 1981 1981 0 0 0 0 0 6038 6038 6146 6146 6146 6146 6146 6146 6375 6146 6146 6375 6259 6259 6146 6146 6146 6146 6038 5832 5832 5734 5734 5832 5832 5832 5832 6038 6259 6497 6622 6622 6497 6497 6497 6375 6375 6259 6146 5933 5832 5832 5832 5933 5933 5933 6038 6038 6038 0 0 0 0 0 0 0 0 0 0 0 6622 6622 6622 6622 6375 6146 6038 6038 6038 6038 6038 6146 6146 6259 6375 6497 6497 6497 0 6146 6146 5832 5640 5640 5460 5460 5374 5374 5548 5548 5734 6146 6146 6146 6146 5933 5933 0 0 0 0 5933 5933 6146 6146 6146 6146 6146 6146 4190 4190 4190 4190 4190 4241 4241 4190 4190 4190 4139 4139 4089 4089 4089 4089 4139 4139 4190 4241 4190 4190 0 0 0 0 0 0 0 0 0 0 0 0 0
0 0 0 0 0 0 0 0 0 0 0 0 0 0 0 0 0 0 0 0 0 0 0 0 0 0 0 0 0 0 0 0 0 0 0 0 0 0 0 0 0 0 0 0 0 0 0 0 0 0 0 0 0 0 0 0 0 0 0 0 0 0 0 0 0 0 0 0 0 0 3178 3178 3208 3238 3238 3238 4582 4522 4522 4522 4522 4522 4582 4522 4522 4522 4522 4463 4463 0 0 0 0 0 0 0 0 0 0 0 1529 1523 1523 1523 1523 1523 1523 1523 1523 1523 1523 1523 1529 1529 1529 1536 1536 1543 1550 0 0 0 0 0 0 0 0 0 0 0 0 0 0 0 0 0 0 0 0 0 0 0 0 0 0 1833 1833 1813 1813 1833 1843 1843 1813 1823 1823 1823 1445 1445 1445 1452 1452 1445 1445 1452 1452 1452 1452 1452 1452 1439 1439 1439 1433 1427 1427 1427 1427 1421 1421 1421 1421 1427 1421 1421 1421 1421 1415 1415 1410 1404 1404 1404 1404 1404 1410 1410 1415 1415 1421 1427 1427 1427 1427 1427 1427 1427 1936 1936 1915 1904 1904 1915 1904 1904 1915 1915 1915 1926 1926 1926 1926 1915 1915 1904 1904 1904 0 1904 1283 1283 1283 1283 1283 1283 1283 1278 1278 1278 1283 1283 1283 1283 1283 1283 1283 1278 1278 1273 1268 1268 1268 1268 1264 1264 1264 1255 1255 1255 1250 1250 1250 1250 1245 1245 1245 1241 1236 1236 1232 1232 1232 1232 1232 1232 1232 1232 1232 1227 1227 1227 1223 1223 1223 1223 1223 1223 1223 1223 1219 1219 1219 1219 1219 1219 1219 1219 1219 1219 1219 1214 1214 1210 1210 1214 2040 2040 2040 2028 2028 2028 2016 2016 2016 2028 2028 2028 2028 2028 2040 2040 2040 2040 2040 2040 2040 2040 2040 2040 2040 2040 2028 2028 2040 2028 2028 2040 2040 2040 2040 2040 2040 2040 2028 2028 2040 2040 2040 2053 2065 2065 2078 2065 2065 2065 2065 2053 2053 2053 2053 2053 2053 2053 2053 2053 2053 2053 2053 2053 2065 3064 3064 3037 2103 2103 2116 3092 3092 3092 3120 3120 3092 3092 3092 3092 3064 3010 3010 2984 2984 2984 2958 2958 2933 2933 2933 2933 2958 2958 2958 2090 2090 2116 2116 2116 2116 2116 2116 2116 2116 2116 2116 2116 2116 2103 2103 2103 2103 2103 2103 2103 2103 2103 2103 2090 2090 2090 2090 2090 2090 2090 2090 2090 2090 2090 2078 2065 2065 2065 2053 2053 2053 2053 2053 2053 2053 2053 2053 2053 2040 2040 2040 2040 2040 2040 2040 2040 2040 2040 2040 2040 2028 2028 4349 4349 4349 4349 4349 4349 4349 4349 4349 4349 4349 4349 4349 4349 4349 4349 1993 1993 1993 1993 1993 1993 1993 1993 1981 1981 1981 1981 1981 0 0 0 0 0 6038 6038 6146 6146 6146 6146 6146 6146 0 0 0 0 0 0 6259 6146 6146 6038 5832 5734 5734 5734 5734 5734 5832 5832 5933 6146 6375 6497 6497 6622 6497 6497 6497 6375 6375 6259 6146 5933 5933 5832 5832 5933 5933 6038 6038 6038 6038 0 0 0 0 0 0 0 0 0 0 0 0 0 0 0 6146 6038 6038 6038 6038 6038 6038 6146 6146 6146 6146 6497 6497 6497 5832 5832 5734 5734 5640 5640 5460 5460 5374 5374 5460 5548 5734 0 0 0 0 0 0 0 0 0 0 0 6146 6146 6146 6146 6146 6146 6146 4190 4190 4190 4190 4190 4241 4241 4241 4190 4190 4139 4139 4089 4089 4089 4089 4139 4139 4190 4190 4190 4190 0 0 0 0 0 0 0 0 0 0 0 0 0
0 0 0 0 0 0 0 0 0 0 0 0 0 0 0 0 0 0 0 0 0 0 0 0 0 0 0 0 0 0 0 0 0 0 0 0 0 0 0 0 0 0 0 0 0 0 0 0 0 0 0 0 0 0 0 0 0 0 0 0 0 0 0 0 0 0 0 0 0 0 3178 3178 3208 3238 3238 3238 4582 4522 4522 4522 4522 4522 4582 4522 4522 4522 4522 4463 4463 0 0 0 0 0 0 0 0 0 0 1529 1529 1529 1529 1529 1529 1523 1523 1523 1523 1523 1523 1523 1529 1529 1529 1536 1536 1543 1550 1557 0 0 0 0 0 0 0 0 0 0 0 0 0 0 0 0 0 0 0 0 0 0 0 0 1804 1804 1804 1804 1804 1813 1833 1833 1813 1813 1813 1823 1823 1823 1823 1823 1823 1823 1823 1823 1823 1823 1823 1823 1823 1823 1439 1439 1433 1427 1427 1427 1833 1421 1421 1421 1421 1421 1421 1421 1415 1415 1415 1415 1410 1410 1410 1410 1410 1410 1410 1410 1415 1415 1421 1427 1427 1427 1427 1427 1427 1427 1894 1894 1894 1894 1904 1904 1904 1904 1904 1904 1904 1915 1915 1915 1915 1904 1904 1904 1904 1904 1904 0 1283 1283 1283 1283 1288 1288 1283 1283 1283 1283 1283 1283 1283 1283 1283 1283 1283 1278 1278 1273 1268 1268 1268 1268 1268 1264 1264 1259 1255 1255 1255 1250 1250 1250 1250 1250 1250 1245 1241 1241 1236 1236 1236 1236 1236 1232 1232 1232 1232 1227 1227 1223 1223 1223 1223 1223 1223 1223 1223 1223 1219 1219 1219 1219 1219 1219 1219 1219 1219 1219 1219 1214 1214 1214 1214 1214 1214 1214 1214 1214 1214 1214 2016 2016 2016 2016 2016 2016 2028 2028 2028 2040 2028 2028 2028 2028 2028 2028 2028 2028 2016 2016 2016 2016 2016 2016 2016 2028 2016 2016 2016 2016 2016 2016 2016 2016 2016 2028 2028 2040 2040 2065 2053 2053 2053 2040 2040 2028 2028 2028 2028 2028 2053 2053 2053 2053 2053 2053 2053 2053 2053 2053 2053 2065 2065 2065 2103 3092 3092 3092 3092 3092 3092 2065 2065 2065 2065 2053 2053 2053 2984 2984 2958 2958 2933 2933 2933 2933 2958 2958 2103 2090 2090 2103 2116 2116 2116 2116 2116 2116 2116 2116 2116 2116 2116 2103 2103 2103 2116 2116 2103 2103 2103 2103 2103 2090 2090 2090 2090 2090 2090 2090 2090 2090 2090 2090 2090 2078 2065 2065 2053 2053 2053 2053 2053 2053 2053 2053 2053 2053 2053 2053 2040 2040 2040 2040 2040 2040 2040 2040 2040 2040 2028 2028 2040 2040 4349 4349 4349 4349 4349 4349 4349 4349 4349 4349 4349 4349 4349 4349 1993 1993 1993 1993 1993 1993 1993 1993 1981 1981 1981 1981 0 0 0 0 0 0 6146 6146 6146 6146 6146 6146 6146 0 0 0 0 0 0 0 0 6146 6146 5933 5832 5734 5734 5734 5734 5734 5734 5832 5933 6259 6375 6497 6497 6497 6497 6497 6497 6497 6375 6375 5933 5832 5832 5832 5832 5933 5933 6038 6038 6038 6038 0 0 0 0 0 0 0 0 0 0 0 0 0 0 0 6038 6038 6038 6038 6038 6038 6038 6146 6146 6146 6146 6146 5832 5832 5832 5832 5734 5734 5640 5640 5460 5374 5374 5374 5460 0 0 0 0 0 0 0 0 0 0 0 0 0 6146 6146 6146 6146 6146 6146 6146 4241 4241 4241 4241 4241 4241 4241 4190 4190 4190 4139 4139 4089 4089 4089 4089 4139 4139 4190 4139 4139 4190 0 0 0 0 0 0 0 0 0 0 0 0 0
0 0 0 0 0 0 0 0 0 0 0 0 0 0 0 0 0 0 0 0 0 0 0 0 0 0 0 0 0 0 0 0 0 0 0 0 0 0 0 0 0 0 0 0 0 0 0 0 0 0 0 0 0 0 0 0 0 0 0 0 0 0 0 0 0 0 0 0 0 0 3208 3208 3208 3238 3238 3269 4582 4582 4522 4522 4522 4522 4582 4522 4522 4522 4522 4463 4463 0 0 0 0 0 0 0 0 0 0 1529 1529 1523 1523 1529 1529 1529 1523 1523 1523 1523 1529 1529 1529 1529 1529 1536 1543 1543 1550 1557 1557 0 0 0 0 0 0 0 0 0 0 0 0 0 0 0 0 0 0 0 0 0 0 1794 1794 1794 1794 1794 1804 1804 1804 1804 1804 1804 1813 1813 1813 1823 1823 1823 1823 1823 1823 1823 1813 1813 1813 1813 1823 1823 1823 1823 1433 1427 1427 1823 1823 1823 1813 1813 1813 1421 1421 1421 1415 1415 1415 1415 1415 1410 1410 1410 1410 1410 1410 1410 1415 1415 1421 1427 1427 1427 1427 1427 1427 1427 0 1883 1883 1873 1873 1894 1894 1894 1894 1894 1894 1894 1894 1904 1904 1894 1894 1894 1883 1883 1883 0 1288 1288 1288 1288 1288 1288 1288 1288 1288 1288 1283 1283 1283 1288 1288 1288 1283 1283 1283 1273 1273 1273 1268 1268 1268 1264 1264 1259 1255 1255 1255 1255 1250 1250 1250 1250 1250 1245 1241 1241 1241 1236 1236 1236 1236 1232 1232 1232 1227 1227 1223 1223 1223 1223 1219 1219 1219 1223 1219 1219 1219 1219 1219 1219 1219 1214 1214 1214 1214 1214 1214 1214 1214 1214 1214 1214 1214 1214 1214 1214 1214 1214 1214 2016 2016 2016 2016 2016 2028 2028 2028 2028 2016 2016 2016 2016 2016 2016 2016 2016 2005 2005 2016 2016 2016 2005 2005 2005 2005 2005 2005 1993 1993 2005 2005 2005 2005 2016 2016 2028 2028 2040 2040 2028 2028 2028 2028 2028 2028 2028 2028 2028 2016 2016 2040 2040 2053 2053 2040 2040 2040 2040 2040 2040 2053 2053 2065 3092 3092 3092 2090 2090 2065 2065 2065 2053 2053 2053 2053 2053 2984 2984 2984 2984 2933 2933 2933 2933 2958 2065 2065 2078 2090 2090 2129 2129 2129 2129 2129 2129 2116 2116 2116 2116 2116 2103 2103 2103 2116 2103 2103 2103 2103 2103 2103 2090 2090 2090 2090 2090 2090 2090 2090 2090 2090 2090 2078 2078 2065 2065 2065 2065 2053 2053 2053 2053 2053 2053 2053 2053 2053 2053 2040 2040 2040 2040 2040 2040 2040 2040 2040 2040 2028 2028 2040 2040 2040 4349 4349 4349 4349 4349 2016 2016 4295 4295 4295 4295 4349 4349 1993 1993 1993 1993 1993 1993 1993 1993 1981 1981 1970 1970 1970 0 0 0 0 0 0 6259 6146 6146 6146 6259 0 0 0 0 0 0 0 0 0 0 6146 5832 5734 5734 5734 5734 5734 5734 5734 5832 5832 6259 6375 6497 6497 6497 6497 6497 6497 6497 6497 6375 5832 5832 5832 5832 5832 5933 5933 6038 6038 6146 6146 0 0 0 0 0 0 0 0 0 0 0 0 0 0 0 5933 5933 6038 5933 5933 6038 6038 6038 6038 5933 5933 5832 5832 5832 5832 5832 5832 5734 5640 5640 5460 5374 5374 5374 0 0 0 0 0 0 0 0 0 0 0 0 0 0 0 6146 6146 6146 6146 6146 4241 4241 4241 4241 4241 4241 4241 4190 4190 4190 4190 4139 4139 4139 4139 4139 4139 4190 4190 4139 4139 4139 4139 4190 0 0 0 0 0 0 0 0 0 0 0 0
0 0 0 0 0 0 0 0 0 0 0 0 0 0 0 0 0 0 0 0 0 0 0 0 0 0 0 0 0 0 0 0 0 0 0 0 0 0 0 0 0 0 0 4405 4405 4463 0 0 0 0 0 0 0 0 0 0 0 0 0 0 0 0 0 0 0 0 0 0 0 0 0 3208 3208 3238 3238 4582 4582 4522 4522 4522 4522 4522 4522 4522 4522 4522 4463 4463 4463 4463 0 0 0 0 0 0 0 0 0 0 0 1523 1523 1529 1529 1529 1529 1529 1523 1523 1529 1529 1529 1529 1529 1536 1543 1543 1550 1557 1557 0 0 0 0 0 0 0 0 0 0 0 0 0 1748 1748 0 0 0 0 0 0 0 1785 1785 1785 1785 1794 1794 1794 1804 1804 1804 1804 1813 1813 1813 1813 1813 1813 1813 1813 1813 1813 1804 1804 1804 1813 1813 1813 1813 1813 1813 1823 1823 1823 1823 1813 1813 1813 1813 1813 1813 1421 1421 1421 1421 1421 1421 1415 1415 1415 1415 1415 1415 1415 1415 1421 1421 1427 1427 1427 1433 1427 1427 1427 1823 1853 1853 1853 1853 1863 1863 1863 1863 1873 1863 1863 1873 1873 1883 1873 1873 1883 1873 1873 1873 1873 0 1292 1292 1292 1288 1288 1292 1288 1288 1288 1288 1288 1288 1288 1288 1288 1283 1283 1283 1273 1273 1273 1268 1268 1268 1264 1264 1259 1255 1255 1255 1255 1255 1250 1250 1250 1250 1245 1245 1245 1241 1241 1241 1236 1236 1236 1232 1232 1227 1227 1223 1223 1223 1223 1219 1219 1219 1223 1219 1219 1219 1219 1219 1219 1214 1214 1214 1214 1214 1214 1214 1214 1214 1210 1210 1214 1210 1206 1206 1210 1210 1206 1206 1197 1197 1197 1197 1197 1197 1197 1202 1202 1206 1206 2016 2005 2005 2005 2005 2016 2005 2005 2005 2005 2005 2005 2005 2005 1993 1993 1993 1993 1993 1993 2005 2005 2005 2005 2005 2016 2016 2016 2016 2016 2016 2016 2016 2016 2016 2016 2016 2016 2016 2016 2016 2040 2040 2040 2040 2040 2028 2028 2028 2028 2016 2016 2016 2016 2016 2040 2040 2040 2040 2053 2053 2053 2053 2053 2053 2040 2028 2028 2028 2984 2984 2958 2053 2053 2053 2053 2065 2078 2090 2090 2129 2129 2129 2129 2129 2116 2116 2116 2116 2116 2116 2103 2103 2103 2116 2103 2103 2103 2103 2103 2103 2090 2090 2090 2090 2090 2090 2090 2090 2090 2090 2090 2078 2078 2065 2065 2065 2065 2065 2065 2065 2065 2053 2053 2053 2053 2053 2053 2053 2053 2040 2040 2040 2040 2040 2040 2040 2040 2040 2040 2040 2040 2028 2028 2028 2028 4349 4349 2016 2016 4295 4295 4295 4295 4295 1993 1993 1993 1993 1993 1993 1993 1993 1993 1981 1970 1970 1970 1970 0 0 0 0 0 5933 5933 6146 6146 6146 6146 0 0 0 0 0 0 0 0 0 0 0 5832 5734 5734 5734 5734 5734 5734 5734 5734 5734 6146 6375 6497 6622 6622 6497 6497 6497 6497 6497 6375 5832 5832 5832 5832 5832 5933 5933 6038 6038 6038 6146 0 0 0 0 0 0 0 0 0 0 0 0 0 0 0 5933 5832 5832 5933 5933 5933 6038 6038 5933 5832 5832 5832 5832 5832 5832 5832 5832 5734 5640 5640 5460 5460 5374 5374 0 0 0 0 0 0 0 0 0 0 0 0 0 0 0 6146 6146 6146 6146 6146 4241 4241 4241 4241 4241 4241 4241 4190 4190 4139 4139 4139 4089 4089 4089 4089 4139 4139 4139 4139 4139 4139 4139 4139 0 0 0 0 0 0 0 0 0 0 0 0
0 0 0 0 0 0 0 0 0 0 0 0 0 0 0 0 0 0 0 0 0 0 0 0 0 0 0 0 0 0 0 0 0 0 0 0 0 0 0 0 0 0 0 4349 4349 4405 0 0 0 0 0 0 0 0 0 0 0 0 0 0 0 0 0 0 0 4190 4190 4190 4190 0 0 0 4582 4582 0 4582 4582 4522 4463 4463 4463 4463 4463 4463 4463 4463 4463 4463 4405 4405 4405 0 0 0 0 0 0 0 0 0 0 1523 1523 1529 1529 1529 1529 1529 1529 1529 1529 1529 1529 1529 1529 1536 1543 1543 1543 1550 1557 0 0 0 0 0 0 0 0 0 0 0 0 1739 1739 1748 0 0 0 0 0 0 0 1766 1766 1776 1776 1785 1794 1794 1794 1794 1794 1804 1804 1804 1804 1804 1804 1804 1804 1804 1804 1804 1794 1794 1804 1804 1804 1804 1804 1804 1804 1813 1813 1804 1804 1813 1813 1813 1813 1813 1813 1421 1421 1421 1421 1421 1421 1421 1421 1421 1415 1415 1415 1415 1421 1421 1421 1427 1427 1427 1433 1433 1433 1823 1823 1823 1823 1833 1843 1843 1853 1853 1853 1853 1853 1853 1853 1853 1853 1853 1853 1853 1853 1853 1853 1853 0 1292 1292 1292 1292 1292 1292 1292 1288 1288 1288 1288 1288 1288 1288 1288 1283 1283 1283 1273 1273 1273 1268 1268 1268 1264 1264 1259 1255 1255 1255 1255 1255 1250 1250 1250 1250 1245 1245 1245 1245 1241 1241 1241 1236 1236 1232 1232 1232 1227 1227 1223 1223 1223 1223 1219 1219 1223 1219 1219 1219 1219 1219 1219 1214 1214 1214 1214 1214 1214 1214 1214 1210 1210 1210 1210 1210 1206 1206 1206 1206 1206 1202 1197 1197 1197 1197 1197 1197 1197 1197 1202 1202 1202 1197 1197 1206 2005 2005 2005 2005 2005 2005 2005 1993 1981 1970 1970 1189 1189 1959 1959 1970 1970 1981 1981 1981 1993 1993 2005 2005 1993 1993 1993 1993 2005 2016 2016 2016 2016 2016 2016 2016 2016 2016 2028 2028 2040 2028 2028 2028 2016 2016 2016 2016 2005 2005 2005 2005 2016 2016 2016 2028 2028 2040 2040 2040 2040 2040 2040 2028 2016 2016 2984 2028 2028 2040 2040 2040 2040 2040 2065 2065 2065 2078 2129 2129 2129 2129 2116 2116 2116 2116 2116 2116 2103 2103 2103 2103 2103 2103 2103 2090 2090 2090 2090 2090 2090 2090 2090 2090 2090 2090 2090 2090 2090 2078 2078 2065 2065 2065 2065 2065 2065 2065 2065 2053 2053 2053 2053 2053 2053 2053 2053 2053 2040 2040 2040 2040 2040 2040 2040 2040 2040 2040 2040 2028 2028 2028 2028 2028 2028 2016 2016 2028 2028 2016 2005 1993 1993 1993 1993 1993 1993 1993 1993 1993 1993 1981 1970 1970 1970 1970 0 0 0 0 0 5933 5933 6146 6146 6146 6146 0 0 0 0 0 0 0 0 0 0 0 5832 5734 5734 5734 5734 5734 5734 5734 5734 5734 6146 6622 6622 6622 6622 6497 6497 6497 6497 6259 6146 6146 5832 5832 5832 5832 5933 5933 6038 6038 6038 6146 0 0 0 0 0 0 0 0 0 0 0 0 0 0 0 0 5832 5832 5933 5933 5933 6038 6038 5933 5734 5734 5734 5734 5832 5832 5734 5734 5734 5640 5640 5460 5460 5374 5374 0 0 0 0 0 0 0 0 0 0 0 0 0 0 0 0 0 0 4295 4295 4295 4241 4241 4241 4190 4190 4190 4190 4190 4139 4139 4139 4089 4089 4089 4089 4139 4139 4139 4139 4139 4139 4041 4041 0 0 0 0 0 0 0 0 0 0 0 0
0 0 0 0 0 0 0 0 0 0 0 0 0 0 0 0 0 0 0 0 0 0 0 0 0 0 0 0 0 0 0 0 0 0 0 0 0 0 0 0 0 0 0 4349 4349 4349 4295 4295 4295 0 0 0 0 0 0 0 0 0 0 0 0 0 0 0 4405 4190 4190 4190 4190 4295 0 0 0 0 4582 4582 4582 4522 4463 4463 4463 4405 4405 4405 4405 4405 4463 4405 4405 4405 4405 0 0 0 0 0 0 0 0 0 1529 1523 1523 1529 1529 1529 1529 1529 1529 1529 1529 1529 1529 1529 1529 1536 1543 1543 1543 1550 1557 0 0 0 0 0 0 0 0 0 0 0 1731 1731 1739 1739 0 0 0 0 0 1748 1748 1757 1757 1766 1766 1776 1785 1785 1785 1785 1794 1794 1794 1785 1785 1794 1794 1785 1785 1785 1794 1794 1794 1794 1794 1794 1794 1794 1794 1794 1794 1794 1794 1794 1794 1794 1794 1804 1804 1813 1813 1813 1813 1421 1421 1421 1421 1421 1421 1421 1421 1415 1415 1415 1421 1421 1421 1427 1427 1433 1433 1433 1433 1823 1823 1823 1823 1823 1823 1823 1833 1833 1833 1843 1843 1843 1843 1843 1843 1843 1843 1833 1833 1833 1843 1843 0 1292 1292 1292 1292 1292 1292 1292 1292 1292 1288 1288 1288 1288 1288 1288 1288 1283 1283 1273 1273 1273 1273 1268 1268 1264 1264 1264 1259 1259 1259 1255 1255 1255 1250 1250 1250 1250 1245 1245 1245 1245 1241 1241 1236 1236 1236 1232 1232 1227 1227 1223 1223 1223 1223 1219 1219 1223 1219 1219 1219 1219 1219 1219 1214 1214 1214 1210 1210 1210 1210 1210 1210 1210 1210 1210 1206 1206 1206 1206 1206 1202 1202 1197 1197 1197 1197 1197 1197 1197 1197 1202 1202 1202 1197 1197 1202 1214 1189 1189 1193 2005 2005 1197 1197 1197 1193 1193 1189 1189 1189 1189 1193 1970 1970 1970 1970 1970 1993 2005 2005 1993 1165 1165 1165 1165 1165 1165 1165 2005 2005 2005 2005 2005 2016 2016 2028 2028 2028 2028 2016 2005 2005 2005 1993 1993 1981 1981 1981 1993 1993 1993 2005 2005 2016 2016 2016 2028 2028 2005 2005 2005 2005 2005 2005 2005 2028 2028 2028 2028 2028 2028 2028 2028 2028 2116 2116 2116 2116 2116 2116 2116 2103 2103 2103 2103 2103 2103 2103 2103 2103 2090 2090 2090 2090 2078 2078 2078 2078 2078 2078 2078 2078 2090 2090 2090 2078 2078 2065 2065 2065 2065 2065 2065 2065 2053 2053 2053 2053 2053 2053 2053 2053 2053 2053 2040 2040 2040 2040 2040 2040 2040 2040 2040 2040 2040 2028 2028 2028 2028 2016 2016 2016 2016 2016 2016 2005 2005 1993 1993 1993 1993 1993 1993 1993 1993 1993 1993 1993 1981 1981 0 0 0 0 0 0 0 0 6259 6146 6146 6146 6146 0 0 0 0 0 0 0 0 0 0 0 5734 5734 5734 5734 5734 5734 5734 5734 5734 6497 6497 0 0 0 0 0 0 0 6146 6146 6146 6146 5832 5832 5734 5734 5832 5933 5933 6038 6038 0 0 0 0 0 0 6038 6038 6038 6038 0 0 0 0 0 0 5933 5933 5933 6038 5933 5933 6038 5933 5832 5734 5734 5734 5734 5832 5832 5734 5734 5734 5640 5640 5460 5460 5291 5291 5291 0 0 0 0 0 0 0 0 0 0 0 0 0 0 0 0 0 0 4241 4241 4241 4241 4241 4190 4190 4190 4190 4190 4139 4139 4139 4089 4089 4139 4139 4139 4089 4089 4089 4041 4041 3994 3994 0 0 0 0 0 0 0 0 0 0 0 0
0 0 0 0 0 0 0 0 0 0 0 0 0 0 0 0 0 0 0 0 0 0 0 0 0 0 0 0 0 0 0 0 0 0 0 0 0 0 0 0 0 0 0 4241 4241 4295 4241 4241 4241 4241 0 0 0 0 0 0 0 0 0 0 0 0 0 0 4405 4241 4241 4241 4241 4295 0 0 0 0 0 4582 4522 4522 4405 4349 4295 4295 4349 4349 4349 4349 4349 4405 4405 4405 4405 0 0 0 0 0 0 0 0 0 1529 1529 1529 1529 1529 1529 1529 1529 1529 1529 1529 1529 1529 1529 1536 1536 1543 1543 1550 1550 1557 1557 0 0 0 0 0 0 0 0 0 1713 1713 1722 1731 1731 1722 1722 1731 1739 1739 1739 1739 1748 1748 1757 1766 1776 1776 1776 1776 1776 1785 1776 1766 1766 1776 1776 1776 1757 1757 1757 1776 1785 1785 1785 1785 1785 1785 1785 1785 1776 1776 1776 1776 1776 1776 1776 1794 1794 1804 1804 1813 1813 1813 1421 1421 1421 1421 1421 1421 1421 1421 1421 1421 1421 1421 1421 1427 1427 1433 1433 1439 1439 1439 1823 1823 1813 1813 1813 1813 1823 1823 1823 1833 1833 1843 1843 1843 1833 1833 1833 1833 1833 1833 1833 1833 1833 1833 0 1292 1292 1292 1292 1292 1292 1292 1292 1288 1288 1288 1288 1288 1288 1288 1288 1288 1278 1273 1273 1273 1273 1268 1268 1268 1264 1264 1264 1259 1255 1255 1255 1250 1250 1250 1250 1250 1250 1245 1245 1245 1241 1241 1236 1236 1236 1232 1232 1232 1227 1227 1227 1223 1223 1223 1223 1223 1223 1219 1219 1219 1219 1214 1214 1210 1210 1210 1210 1210 1210 1210 1210 1210 1210 1206 1206 1206 1206 1206 1202 1202 1202 1202 1202 1202 1197 1197 1197 1197 1197 1197 1197 1197 1197 1193 1193 1189 1189 1193 1193 1197 1197 1197 1193 1193 1193 1193 1189 1189 1189 1193 1959 1959 1959 1970 1970 1970 1165 1165 1165 1165 1165 1165 1165 1165 1165 1165 1993 2005 2005 2005 2005 2016 2016 2028 2028 2016 2005 2005 1993 1993 1981 1981 1981 1970 1970 1970 1970 1981 1981 1981 1981 1993 1993 1993 2005 1993 1981 1981 1981 1981 1981 2005 2005 2005 2005 2005 2005 1993 1993 2005 2005 2005 2016 2005 2005 2016 2016 2103 2016 2005 2005 2016 2016 1993 1993 2078 2078 2090 2078 2065 2065 2078 2065 2065 2053 2053 2053 2065 2065 2065 2078 2078 2078 2078 2078 2078 2078 2078 2065 2053 2053 2053 2053 2053 2053 2053 2053 2053 2053 2053 2053 2053 2053 2040 2040 2040 2040 2040 2040 2040 2040 2040 2040 2040 2028 2028 2028 2016 2016 2016 2016 2016 2016 2005 2005 2005 2005 2005 1993 1993 1993 1993 1993 1993 1993 1993 1993 1993 0 0 0 0 0 0 0 0 0 0 0 0 0 0 0 0 0 0 0 0 0 0 0 5734 5734 5734 5734 5734 5734 5734 5734 5734 5734 6497 6497 0 0 0 0 0 0 0 6146 6146 6038 5734 5734 5734 5734 5734 5734 5832 5832 5832 0 0 0 0 0 0 0 6038 6038 6038 6038 0 0 0 0 0 0 5933 5933 5933 5933 5933 5933 5933 5933 5832 5734 5734 5734 5734 5734 5734 5832 5832 5734 5640 5640 5460 5291 5210 5210 5291 0 0 0 0 0 0 0 0 0 0 0 0 0 0 0 0 0 4295 4241 4241 4190 4190 4190 4190 4190 4190 4190 4190 4190 4139 4139 4139 4139 4089 4089 4089 4089 4041 4041 4041 4041 3994 3994 0 0 0 0 0 0 0 0 0 0 0 0
0 0 0 0 0 0 0 0 0 0 0 0 0 0 0 0 0 0 0 0 0 0 0 0 0 0 0 0 0 0 0 0 0 0 0 0 0 0 0 0 0 0 4241 4241 4241 4241 4241 4241 4190 4190 4295 0 0 0 0 0 0 0 0 0 0 0 0 0 0 4349 4295 4241 4241 4295 4349 4349 0 0 0 4582 4522 4522 4405 4349 4295 4295 4295 4295 4349 4349 4349 4349 4349 4405 4405 4405 0 0 0 0 0 0 0 0 1529 1529 1523 1523 1529 1529 1529 1529 1529 1529 1529 1529 1536 1536 1536 1536 1543 1543 1550 1550 1557 1557 0 0 0 0 0 0 0 1705 1705 1713 1713 1722 1731 1722 1722 1722 1731 1731 1731 1731 1739 1739 1748 1748 1748 1748 1757 1757 1757 1757 1766 1757 1748 1748 1757 1757 1748 1739 1739 1748 1748 1766 1766 1766 1766 1776 1766 1766 1766 1766 1766 1766 1757 1757 1757 1766 1766 1776 1776 1794 1804 1804 1813 1415 1415 1421 1421 1421 1421 1421 1421 1421 1421 1421 1421 1427 1427 1427 1433 1433 1439 1439 1439 1452 1813 1813 1813 1813 1813 1813 1813 1813 1813 1813 1813 1823 1823 1823 1823 1823 1823 1823 1823 1823 1823 1833 1833 1292 1292 1292 1292 1292 1292 1292 1292 1292 1292 1292 1288 1288 1288 1288 1288 1288 1288 1278 1278 1278 1273 1273 1273 1268 1268 1268 1264 1264 1259 1259 1255 1255 1255 1250 1250 1250 1250 1250 1245 1245 1245 1245 1241 1241 1236 1236 1236 1232 1232 1232 1227 1227 1227 1227 1227 1223 1223 1223 1219 1219 1219 1219 1214 1214 1210 1210 1210 1210 1210 1210 1210 1210 1206 1206 1206 1206 1206 1206 1206 1202 1202 1202 1202 1197 1197 1197 1197 1197 1197 1197 1197 1197 1197 1197 1193 1193 1193 1193 1193 1193 1193 1193 1193 1193 1193 1193 1193 1189 1189 1189 1185 1185 1959 1959 1959 1161 1165 1165 1161 1161 1161 1165 1165 1161 1161 1161 1161 1161 1161 1161 1161 1161 1165 1165 1165 2005 2005 1993 1993 1981 1970 1970 1970 1970 1970 1970 1970 1970 1970 1970 1970 1970 1970 1970 1970 1970 1981 1970 1970 1970 1970 1970 1981 1993 1993 1993 1993 1993 1993 1981 1981 1993 1993 2005 2005 1981 1981 1981 1981 1993 1993 1993 1993 1981 1981 1993 2016 2040 2078 2078 2065 2065 2078 2065 2065 2040 2005 2005 2005 2040 2040 2065 2065 2078 2078 2078 2078 2078 2065 2040 2040 2040 2053 2053 2053 2053 2053 2053 2053 2053 2053 2053 2053 2053 2053 2040 2040 2053 2053 2040 2040 2040 2040 2040 2040 2028 2028 2028 2028 2028 2016 2016 2016 2016 2005 2005 2005 2005 2005 2005 1993 1993 1993 1993 2005 2005 2005 2005 2005 0 0 0 0 0 0 0 0 0 0 0 0 0 0 0 0 0 0 0 0 0 0 0 5734 5734 5734 5734 5734 5734 5734 5734 5832 6375 6375 6497 0 0 0 0 0 0 0 5640 5640 5640 5734 5734 5734 5734 5734 5734 5734 5734 5734 5734 0 0 5734 5734 5734 5832 5933 6038 5933 5933 0 0 0 0 0 0 5933 5933 5933 5832 5832 5832 5832 5734 5640 5640 5640 5640 5640 5734 5734 5734 5832 5734 5640 5548 5374 5210 5210 5210 0 0 0 0 0 0 0 0 0 0 0 0 0 0 0 0 0 4295 4295 4349 4190 4190 4190 4190 4190 4190 4190 4190 4190 4139 4139 4139 4139 4139 4089 4089 4089 4041 4041 4041 4041 3994 3994 3994 0 0 0 0 0 0 0 0 0 0 0 0
0 0 0 0 0 0 0 0 0 0 0 0 0 0 0 0 0 0 0 0 0 0 0 0 0 0 0 0 0 0 0 0 0 0 0 0 0 0 0 0 0 4190 4190 4190 4241 4241 4241 4241 4190 4190 4241 0 0 0 0 0 0 0 0 0 0 0 0 0 0 4241 4241 4241 4241 4295 4295 4295 0 0 0 0 0 4522 4349 4241 4241 4241 4295 4295 4295 4295 4295 4295 4349 4349 4349 4349 0 0 0 0 0 0 0 0 0 1529 1523 1523 1529 1529 1536 1536 1536 1536 1536 1536 1536 1536 1536 1536 1543 1550 1550 1550 1557 1557 0 0 0 1688 1688 1688 1688 1696 1696 1705 1713 1722 1722 1722 1722 1722 1731 1731 1731 1731 1731 1731 1739 1739 1739 1731 1731 1739 1739 1731 1722 1722 1731 1731 1739 1739 1722 1722 1722 1731 1731 1739 1739 1739 1748 1757 1757 1757 1757 1757 1757 1748 1748 1757 1757 1757 1757 1757 1766 1766 1766 1794 1794 1410 1410 1415 1421 1421 1421 1427 1421 1421 1421 1421 1427 1427 1427 1433 1439 1439 1439 1439 1445 1452 1452 1813 1813 1813 1813 1813 1794 1794 1804 1794 1794 1813 1813 1813 1813 1813 1813 1813 1813 1813 1813 1833 1833 1297 1297 1297 1297 1297 1297 1292 1292 1292 1292 1292 1292 1292 1288 1288 1288 1288 1288 1278 1278 1278 1273 1273 1273 1273 1268 1268 1264 1264 1259 1259 1255 1255 1255 1255 1250 1250 1250 1250 1250 1245 1245 1245 1245 1241 1236 1236 1236 1236 1236 1232 1232 1232 1227 1227 1227 1227 1223 1223 1219 1219 1219 1219 1214 1214 1214 1214 1210 1210 1210 1210 1210 1206 1206 1206 1206 1206 1206 1206 1206 1202 1202 1202 1202 1197 1197 1197 1197 1197 1197 1197 1197 1197 1197 1197 1197 1193 1193 1193 1193 1193 1193 1189 1189 1189 1189 1189 1189 1189 1189 1189 1185 1185 1185 1165 1161 1161 1161 1161 1161 1161 1161 1161 1161 1161 1161 1161 1161 1161 1161 1161 1161 1161 1165 1165 0 2005 2005 1993 1970 1959 1947 1947 1959 1959 1959 1959 1970 1970 1970 1970 1970 1970 1959 1959 1959 1959 1959 1959 1959 1959 1970 1970 1970 1970 1970 1970 1970 1970 1970 1970 1970 1970 1959 1959 1970 1970 1970 1970 1981 1981 1970 1970 1970 1970 1970 1970 1981 2005 2078 2078 2065 2065 2065 2065 2065 2040 1993 1993 1993 2005 2005 2028 2053 2065 2065 2078 2078 2065 2040 2028 2028 2028 2040 2040 2040 2040 2040 2040 2053 2040 2040 2053 2053 2053 2053 2053 2053 2053 2053 2040 2040 2040 2040 2040 2040 2040 2040 2028 2028 2028 2016 2016 2016 2016 2005 2005 2005 2005 2005 2005 2005 2005 2005 2005 2005 2005 2005 2005 2005 0 0 0 0 0 0 0 0 0 0 0 0 0 0 0 0 0 0 0 0 0 0 0 5734 5734 5734 5734 5734 5734 5734 5832 5832 6375 6375 0 0 0 0 0 0 0 5374 5640 5640 5640 5734 5734 5734 5734 5734 5734 5734 5734 5734 0 5640 0 5734 5734 5734 5734 5933 6038 5933 5933 0 0 0 0 0 0 5933 5933 5933 5832 5832 5832 5832 5734 5548 5548 5640 5640 5640 5734 5734 5734 5832 5832 5640 5548 5374 5210 5210 0 0 0 0 0 0 0 0 0 0 0 0 0 0 0 0 0 0 4295 4295 4139 4139 4190 4190 4190 4190 4190 4190 4190 4190 4139 4139 4139 4139 4089 4089 4041 4041 4041 4041 4041 4041 3994 3994 3994 0 0 0 0 0 0 0 0 0 0 0 0
0 0 0 0 0 0 0 0 0 0 0 0 0 0 0 0 0 0 0 0 0 0 0 0 0 0 0 0 0 0 0 0 0 0 0 0 0 0 0 0 4190 4190 4190 4190 4190 4241 4190 4190 4190 4190 4190 0 0 0 0 0 0 0 0 0 0 0 0 0 4190 4190 4190 4190 4190 4241 4241 4190 4190 0 0 0 0 0 4349 4190 4190 4190 4190 4190 4241 4241 4241 4295 4295 4295 4295 4349 0 0 0 0 0 0 0 0 0 1594 1594 1529 1529 1529 1536 1536 1536 1536 1536 1536 1536 1536 1536 1536 1543 1550 1550 1550 1557 1557 1680 1680 1680 1680 1680 1688 1688 1688 1688 1696 1696 1713 1705 1705 1705 1713 1713 1713 1713 1713 1713 1722 1731 1731 1731 1722 1722 1722 1722 1722 1722 1722 1722 1731 1731 1731 1722 1722 1722 1722 1722 1722 1722 1731 1731 1739 1739 1739 1739 1739 1739 1739 1739 1748 1748 1748 1748 1748 1748 1748 1748 1766 1766 1410 1410 1415 1421 1421 1421 1427 1427 1421 1421 1421 1427 1427 1433 1433 1439 1439 1445 1445 1445 1452 1452 1794 1804 1804 1804 1804 1794 1794 1794 1785 1785 1794 1794 1794 1813 1804 1804 1804 1804 1804 1804 1804 1804 1297 1297 1297 1297 1297 1297 1297 1292 1292 1292 1292 1292 1292 1292 1292 1288 1288 1288 1283 1278 1278 1278 1273 1273 1273 1268 1268 1264 1264 1264 1259 1259 1259 1255 1255 1255 1250 1250 1250 1250 1245 1245 1245 1245 1241 1241 1241 1236 1236 1236 1232 1232 1232 1232 1232 1232 1227 1223 1223 1219 1219 1219 1219 1214 1214 1214 1214 1210 1210 1210 1210 1210 1206 1206 1206 1206 1206 1206 1206 1206 1206 1202 1202 1202 1197 1197 1197 1197 1197 1197 1197 1197 1197 1197 1197 1193 1193 1193 1193 1193 1193 1193 1189 1189 1189 1189 1189 1189 1189 1189 1193 1189 1181 1173 1165 1165 1161 1161 1161 1161 1161 1161 1161 1161 1161 1161 1161 1161 1161 1161 1161 1161 1161 1165 1169 0 1169 1970 1970 1970 1959 1947 1947 1947 1947 1947 1947 1959 1959 1970 1970 1959 1959 1959 1947 1947 1936 1936 1947 1947 1947 1959 1959 1959 1959 1959 1959 1959 1959 1959 1959 1959 1970 1959 1959 1970 1970 1970 1970 1970 1970 1970 1970 1970 1970 1970 1970 1970 1970 1970 1959 1959 1981 2065 1970 1970 1970 1970 1970 1970 1970 1970 1981 2040 2053 2053 2065 2065 2028 2016 2005 2005 2016 2028 2028 2028 2040 2040 2040 2040 2040 2040 2040 2053 2053 2053 2053 2053 2053 2053 2040 2040 2040 2040 2040 2040 2040 2040 2028 2028 2028 2016 2016 2016 2016 2005 2005 2005 2005 2005 2005 2005 2005 2005 2005 2005 2005 2005 2016 0 0 0 0 0 0 0 0 0 0 0 0 0 0 0 0 0 0 0 0 0 0 0 0 5640 5640 5734 5734 5832 5832 5933 6038 6038 6375 6375 0 0 0 0 0 0 5460 5374 5374 5374 5640 5640 5734 5734 5734 5734 5734 5734 5734 0 0 0 5640 5640 5640 5734 5734 5933 6038 5933 5933 0 0 0 0 0 0 0 0 0 5832 5832 5832 5734 5734 5548 5548 5640 5640 0 0 0 0 0 0 0 0 0 0 0 0 0 0 0 0 0 0 0 0 0 0 0 0 0 0 0 0 0 4190 4190 4139 4139 4190 4190 4190 4190 4190 4190 4190 4190 4190 4139 4139 4139 4089 4041 4041 4041 4041 4041 4041 4041 3994 3994 3994 0 0 0 0 0 0 0 0 0 0 0 0
0 0 0 0 0 0 0 0 0 0 0 0 0 0 0 0 0 0 0 0 0 0 0 0 0 0 0 0 0 0 0 0 0 0 0 0 0 0 0 0 4190 4190 4190 4190 4190 4190 4190 4139 4139 4139 3994 3994 3948 3859 3859 0 0 0 0 0 0 0 0 4139 4139 4190 4190 4190 4190 4190 4190 4190 4190 0 0 0 0 0 0 4139 4139 4190 4190 4190 4190 4190 4241 4241 4295 4295 4295 4349 0 0 0 0 0 1586 1586 1594 1594 1594 1594 1594 1536 1536 1543 1536 1536 1536 1536 1536 1536 1536 1536 1543 1550 1550 1557 1557 1557 1557 1680 1680 1680 1680 1680 1680 1680 1680 1680 1680 1688 1688 1688 1688 1688 1688 1688 1688 1688 1696 1696 1705 1713 1713 1713 1713 1713 1713 1713 1713 1713 1713 1713 1722 1722 1722 1713 1713 1713 1713 1713 1713 1713 1713 1722 1722 1722 1722 1722 1722 1722 1722 1731 1739 1739 1739 1739 1739 1739 1739 1739 1739 1739 1421 1421 1421 1421 1427 1427 1427 1427 1427 1427 1427 1427 1433 1433 1433 1439 1445 1445 1445 1452 1452 1458 1785 1785 1785 1785 1785 1785 1785 1785 1785 1785 1785 1785 1785 1785 1794 1785 1785 1785 1785 1785 1785 1307 1302 1302 1302 1297 1297 1297 1297 1297 1292 1292 1292 1292 1292 1292 1292 1292 1292 1288 1283 1283 1283 1278 1278 1273 1273 1273 1273 1264 1264 1264 1259 1259 1259 1255 1255 1255 1255 1255 1250 1250 1250 1250 1250 1245 1241 1241 1241 1241 1241 1236 1236 1232 1232 1232 1232 1232 1227 1227 1223 1223 1223 1219 1219 1219 1219 1214 1214 1214 1214 1214 1210 1210 1210 1206 1206 1210 1210 1206 1206 1206 1206 1202 1202 1202 1197 1197 1197 1197 1197 1197 1197 1197 1197 1197 1197 1193 1193 1193 1193 1193 1193 1193 1193 1193 1189 1189 1189 1189 1189 1189 1189 1189 1181 1173 1165 1165 1161 1161 1161 1161 1161 1161 1161 1161 1161 1161 1161 1161 1161 1161 1161 1165 1165 1165 1169 0 0 0 1959 0 1959 1926 1926 1936 1926 1926 1936 1947 1947 1959 1959 1959 1959 1947 1936 1936 1926 1926 1926 1936 1936 1936 1947 1947 1936 1936 1936 1936 1936 1936 1936 1947 1947 1947 1947 1959 1959 1959 1959 1959 1959 1959 1959 1959 1959 1959 1959 1959 1947 1936 1936 1947 1947 1947 1947 1959 1959 1959 1970 1970 1970 1970 1970 1970 1959 1959 1947 1947 1947 1959 1959 1970 1981 1981 1993 2005 2016 2005 2005 2028 2028 2040 2040 2040 2040 2053 2040 2040 2040 2040 2028 2028 2040 2028 2028 2040 2040 2040 2028 2028 2028 2028 2016 2016 2016 2016 2016 2016 2005 2005 2005 2005 2005 2005 2005 2005 2005 2005 2016 0 0 0 0 0 0 0 0 0 0 0 0 0 0 0 0 0 0 0 0 0 0 0 5640 5640 5640 5640 5734 5832 5832 5933 6038 6038 6375 6375 0 0 0 0 0 0 5460 5374 5374 5374 5548 5548 5640 5640 5734 5734 5734 0 0 0 0 0 5640 5640 5640 5640 5734 5832 6038 6038 6038 0 0 0 0 0 0 0 0 0 5832 5832 5734 5734 5640 5640 5640 5640 5640 0 0 0 0 0 0 0 0 0 0 0 0 0 0 0 0 0 0 0 0 0 0 0 0 0 0 0 0 0 4190 4190 4139 4139 4190 4190 4190 4190 4190 4190 4190 4190 4190 4139 4139 4139 4089 4041 4041 4041 3994 3994 4041 3994 3994 3994 3994 0 0 0 0 0 0 0 0 0 0 0 0
0 0 0 0 0 0 0 0 0 0 0 0 0 0 0 0 0 0 0 0 0 0 0 0 0 0 0 0 0 0 0 0 0 0 0 0 0 0 0 0 4139 4139 4190 4190 4190 4190 4139 4139 4139 4089 3994 3948 3948 3859 3859 0 0 0 0 0 0 0 0 4139 4139 4139 4190 4190 4190 4139 4139 4190 4190 4190 0 0 0 0 0 4139 4139 4139 4139 4139 4139 4190 4190 4190 4190 4241 4241 4295 0 0 0 0 0 1586 1586 1594 1594 1594 1594 1594 1543 1543 1543 1543 1536 1536 1536 1536 1536 1536 1536 1543 1550 1557 1557 1557 1564 1564 1680 1671 1671 1680 1680 1680 1671 1671 1671 1671 1671 1680 1680 1680 1688 1688 1688 1688 1688 1696 1696 1696 1696 1696 1696 1705 1705 1705 1696 1696 1696 1696 1696 1696 1696 1696 1696 1705 1705 1705 1705 1705 1705 1705 1713 1713 1713 1713 1713 1713 1713 1713 1722 1731 1731 1731 1731 1731 1731 1731 1731 1731 1731 1421 1421 1421 1421 1427 1427 1427 1427 1427 1427 1427 1427 1433 1439 1439 1445 1445 1452 1452 1452 1452 1458 1785 1785 1776 1766 1766 1766 1766 1766 1766 1766 1776 1748 1748 1748 1748 1757 1757 1757 1766 1766 1766 1307 1307 1302 1302 1297 1297 1297 1297 1297 1292 1292 1292 1292 1292 1292 1292 1292 1292 1292 1288 1283 1283 1278 1278 1273 1273 1273 1273 1268 1264 1264 1264 1264 1259 1259 1255 1255 1255 1255 1255 1255 1250 1250 1250 1250 1245 1245 1241 1241 1241 1236 1236 1232 1232 1232 1232 1232 1232 1232 1227 1223 1223 1219 1219 1219 1219 1219 1219 1214 1214 1214 1214 1214 1214 1210 1210 1210 1210 1206 1206 1206 1206 1206 1202 1202 1202 1197 1197 1197 1197 1197 1197 1197 1197 1197 1197 1193 1193 1193 1193 1193 1193 1193 1193 1193 1189 1189 1189 1189 1189 1189 1185 1185 1181 1177 1169 1165 1165 1161 1161 1161 1161 1161 1161 1161 1161 1161 1161 1161 1161 1165 1165 1165 1165 1169 0 0 0 0 0 0 1894 1894 1894 1904 1904 1904 1915 1926 1926 1926 1947 1926 1926 1915 1915 1915 1915 1926 1926 1926 1926 1926 1936 1926 1926 1926 1926 1926 1926 1926 1926 1936 1936 1936 1936 1947 1959 1959 1947 1947 1959 1947 1947 1959 1947 1947 1947 1947 1936 1926 1926 1926 1936 1936 1936 1947 1947 1947 1959 1959 1959 1959 1959 1959 1947 1947 1947 1947 1947 1947 1947 1959 1970 1970 1970 1970 1959 1959 1959 1959 2028 2028 2040 2040 2040 2040 2040 2028 2028 2016 2005 2005 2005 2005 2028 2028 2028 2028 2028 2028 2028 2028 2016 2016 2016 2005 2005 2005 2005 2005 2005 2005 2005 2005 2005 2005 2016 2016 2016 2053 0 0 0 0 0 0 0 0 0 0 0 0 0 0 0 0 0 0 0 0 0 5548 5548 5640 5640 5640 5734 5832 0 0 0 0 0 0 0 0 0 0 0 5374 5374 5374 5374 5374 5460 5460 5460 5640 5734 5734 5734 0 0 0 5374 5374 5460 5548 5548 5640 5640 5734 0 0 0 0 0 0 0 0 0 0 0 0 5832 5832 5734 5734 5640 5640 5640 5640 5640 0 0 0 0 0 0 0 0 0 0 0 0 0 0 0 0 0 0 0 0 0 0 0 0 0 0 0 0 0 4139 4139 4190 4190 4190 4190 4241 4190 4190 4190 4190 4190 4190 4139 4139 4139 4089 4041 4041 4041 3994 3994 3994 3994 3994 3994 3994 0 0 0 0 0 0 0 0 0 0 0 0
0 0 0 0 0 0 0 0 0 0 0 0 0 0 0 0 0 0 0 0 0 0 0 0 0 0 0 0 0 0 0 0 0 0 0 0 0 0 0 0 4139 4139 4139 4139 4190 4190 4139 4139 4139 4041 3994 3948 3948 3903 3903 0 0 0 0 0 0 0 0 4139 4139 4139 4139 4139 4139 4089 4089 4139 4139 4139 0 0 0 0 0 4139 4139 4139 4139 4139 4139 4190 4190 4190 4190 4190 4190 4190 0 0 0 0 0 1594 1594 1601 1601 1594 1594 1594 1550 1550 1550 1550 1543 1543 1543 1543 1543 1543 1543 1543 1550 1557 1557 1557 1564 1572 1680 1671 1671 1671 1671 1671 1663 1663 1663 1663 1663 1663 1663 1680 1680 1688 1688 1688 1688 1696 1696 1696 1696 1696 1696 1696 1696 1696 1696 1688 1688 1688 1688 1688 1688 1688 1688 1688 1688 1688 1688 1688 1688 1696 1696 1696 1696 1696 1696 1696 1696 1696 1705 1713 1722 1722 1722 1722 1722 1713 1713 1722 1731 1731 1421 1421 1427 1427 1427 1427 1427 1427 1427 1427 1433 1433 1439 1439 1445 1445 1452 1452 1452 1452 1452 1452 1766 1757 1757 1748 1748 1748 1748 1757 1748 1748 1739 1739 1748 1748 1748 1748 1748 1748 1748 1748 1307 1307 1307 1307 1302 1302 1302 1297 1297 1297 1297 1297 1297 1297 1292 1292 1292 1297 1292 1288 1288 1288 1283 1283 1278 1278 1273 1273 1268 1268 1268 1264 1264 1259 1259 1259 1259 1255 1255 1255 1255 1250 1250 1250 1250 1245 1245 1241 1241 1241 1236 1236 1236 1236 1232 1232 1232 1232 1232 1227 1223 1223 1223 1219 1219 1219 1219 1219 1219 1214 1214 1214 1214 1214 1214 1214 1214 1214 1210 1210 1210 1210 1206 1202 1202 1202 1202 1202 1197 1197 1197 1197 1197 1197 1197 1197 1193 1193 1193 1193 1193 1193 1193 1193 1193 1185 1185 1185 1185 1185 1185 1185 1181 1181 1177 1173 1165 1165 1165 1161 1161 1161 1161 1161 1161 1161 1161 1161 1161 1161 1165 1165 1169 1169 1169 1177 0 0 0 0 0 1883 1883 1883 1883 1883 1883 1894 1904 1926 1926 1947 1926 1926 1915 1894 1894 1915 1915 1915 1915 1915 1915 1915 1915 1915 1915 1915 1915 1915 1915 1915 1926 1926 1926 1926 1936 1947 1947 1926 1926 1926 1926 1926 1936 1936 1926 1926 1936 1926 1926 1915 1915 1915 1915 1915 1926 1936 1947 1947 1959 1959 1959 1947 1947 1936 1936 1936 1947 1947 1947 1947 1947 1959 1959 1959 1959 1959 1959 1959 1959 1959 1959 1959 2040 2040 2040 2040 1970 1970 1970 1970 1970 1959 1959 1959 1981 1959 1959 2028 2028 2028 2028 2016 2016 2016 2005 2005 2005 2005 2005 2005 2005 2005 2005 2005 2005 2005 2005 2005 2053 0 0 0 0 0 0 0 0 0 0 0 0 0 0 0 0 0 0 0 0 0 5548 5548 5640 5640 5640 5734 0 0 0 0 0 0 0 0 0 0 0 0 5374 5374 5374 5374 5374 5460 5374 5374 5640 0 0 0 0 0 0 5374 5374 5460 5548 5548 5548 5640 5734 0 0 0 0 0 0 0 0 0 0 0 0 5832 5832 5734 5734 5734 5640 5548 5548 5548 0 0 0 0 0 0 0 0 0 0 0 0 0 0 0 0 0 0 0 0 0 0 0 0 0 0 0 0 0 4139 4139 4190 4190 4190 4241 4241 4190 4190 4190 4190 4190 4190 4139 4139 4139 4041 4041 4041 4041 3994 3994 3994 3994 3994 3994 3994 0 0 0 0 0 0 0 0 0 0 0 0
0 0 0 0 0 0 0 0 0 0 0 0 0 0 0 0 0 0 0 0 0 0 0 0 0 0 0 0 0 0 0 0 0 0 0 0 0 0 0 0 0 4190 4139 4139 4139 4139 4139 4089 4089 4041 3994 3948 3948 3859 3816 3816 0 0 0 0 0 0 0 0 4139 4139 4139 4089 4089 4089 4089 4089 4089 4089 0 0 0 0 0 4139 4139 4139 4139 4139 4139 4139 4139 4139 4139 4139 4139 4139 4190 4190 0 0 0 1594 1594 1601 1609 1601 1586 1586 1557 1557 1550 1550 1543 1543 1543 1543 1543 1543 1543 1550 1550 1557 1557 1557 1564 1564 1572 1671 1671 1671 1663 1663 1663 1663 1663 1663 1655 1655 1663 1671 1516 1516 1688 1688 1688 1688 1688 1696 1696 1696 1696 1696 1696 1688 1688 1680 1680 1680 1680 1680 1680 1680 1680 1680 1680 1680 1680 1680 1680 1688 1688 1688 1688 1688 1688 1688 1688 1688 1688 1696 1688 1688 1688 1705 1705 1705 1705 1705 1705 1705 1427 1427 1427 1427 1427 1427 1427 1427 1427 1427 1433 1433 1439 1439 1445 1445 1452 1452 1452 1452 1452 1452 1748 1748 1739 1739 1739 1722 1722 1739 1739 1739 1731 1731 1731 1739 1739 1739 1739 1739 1739 1739 1739 1317 1307 1307 1302 1302 1302 1302 1302 1297 1297 1297 1297 1297 1297 1297 1297 1297 1292 1288 1288 1288 1288 1283 1283 1283 1273 1273 1268 1268 1268 1264 1264 1264 1259 1259 1259 1259 1259 1255 1255 1250 1250 1250 1250 1245 1245 1241 1241 1241 1241 1236 1236 1236 1236 1232 1232 1232 1232 1232 1227 1227 1223 1223 1219 1219 1219 1219 1219 1219 1219 1219 1219 1219 1214 1214 1214 1214 1210 1210 1210 1210 1210 1206 1202 1202 1202 1202 1202 1197 1197 1197 1197 1197 1197 1197 1193 1193 1193 1193 1193 1193 1189 1189 1189 1185 1185 1185 1185 1185 1185 1181 1181 1181 1177 1173 1165 1165 1165 1165 1161 1161 1161 1161 1161 1161 1161 1161 1161 1161 1165 1165 1169 1169 1177 1177 0 0 0 0 0 1863 1863 1873 1873 1873 1873 1873 1873 1883 1833 1833 1843 1843 1873 1873 1883 1894 1904 1904 1915 1915 1915 1904 1904 1904 1904 1904 1894 1894 1894 1894 1915 1915 1915 1904 1904 1915 1915 1915 1915 1915 1915 1915 1915 1915 1904 1904 1904 1904 1904 1904 1904 1904 1904 1904 1915 1926 1936 1936 1947 1947 1947 1936 1936 1936 1936 1936 1936 1936 1936 1936 1936 1947 1947 1947 1947 1947 1947 1947 1947 1947 1936 1936 2040 1894 1894 1915 1936 1936 1947 1947 1947 1947 1947 1947 1947 1947 1947 1959 2016 2028 2028 2016 2016 2016 2005 2005 2005 2005 2005 2005 2005 2005 2005 2005 2005 1993 1993 2005 0 0 0 0 0 0 0 0 0 0 0 0 0 0 0 0 0 0 0 0 0 0 5460 5460 5640 5640 5640 5734 0 0 0 0 0 0 0 0 0 0 0 0 0 5374 5374 5374 5374 0 5374 5374 0 0 0 0 0 0 0 5374 5548 5548 5548 5548 5548 0 0 0 0 0 0 0 0 0 0 0 0 0 0 0 0 5734 5734 5734 5640 5548 5460 5460 5460 0 0 0 0 0 0 0 0 0 0 0 0 0 0 0 0 0 0 0 0 0 0 0 0 0 0 0 0 0 4241 4241 4241 4241 4241 4241 4241 4241 4241 4190 4190 4190 4190 4190 4190 4041 4041 4041 4041 3994 3994 3994 3994 3994 3994 3994 0 0 0 0 0 0 0 0 0 0 0 0
0 0 0 0 0 0 0 0 0 0 0 0 0 0 0 0 0 0 0 0 0 0 0 0 0 0 0 0 0 0 0 0 0 0 0 0 0 0 0 0 0 4190 4139 4139 4139 4139 4089 4089 4089 3994 3948 3948 3948 3859 3816 3816 0 0 0 0 0 0 0 4089 4089 4139 4139 4089 4089 4089 4089 4089 4089 4089 4139 0 0 0 0 4139 4139 4139 4139 4089 4089 4139 4139 4139 4139 4139 4139 4139 4139 4139 0 0 0 0 0 1616 1616 1609 1586 1586 1564 1564 1557 1557 1550 1550 1550 1550 1550 1550 1550 1550 1557 1557 1557 1557 1557 1564 1564 1564 1564 1663 1655 1655 1655 1655 1655 1655 1655 1655 1663 1671 1509 1509 1516 1516 1516 1688 1688 1696 1696 1696 1696 1696 1688 1688 1680 1680 1680 1680 1680 1671 1671 1671 1671 1663 1663 1663 1663 1663 1663 1671 1680 1680 1680 1680 1680 1671 1671 1671 1671 1671 1671 1671 1680 1680 1680 1680 1680 1680 1680 1688 1427 1427 1427 1433 1433 1433 1433 1433 1433 1433 1433 1433 1439 1439 1445 1445 1452 1452 1452 1458 1458 1458 1696 1696 1713 1713 1705 1705 1713 1713 1713 1722 1722 1722 1722 1731 1731 1731 1731 1731 1731 1731 1731 1317 1312 1312 1307 1302 1302 1302 1302 1297 1297 1297 1297 1297 1297 1297 1297 1297 1297 1288 1288 1288 1288 1283 1283 1283 1273 1273 1268 1268 1268 1268 1264 1264 1264 1259 1259 1259 1259 1255 1255 1250 1250 1250 1250 1245 1245 1245 1245 1241 1241 1241 1236 1236 1236 1236 1236 1232 1232 1232 1227 1227 1227 1223 1223 1223 1223 1219 1219 1219 1219 1219 1219 1219 1214 1214 1214 1214 1214 1214 1210 1210 1210 1206 1202 1202 1202 1202 1202 1197 1197 1197 1197 1197 1197 1197 1197 1197 1193 1193 1193 1193 1189 1189 1189 1185 1185 1185 1181 1181 1181 1181 1181 1181 1177 1173 1169 1169 1165 1165 1161 1161 1161 1161 1161 1161 1161 1161 1161 1161 1165 1165 1169 1173 1177 1181 0 0 0 0 0 1853 1843 1843 1843 1853 1853 1863 1843 1813 1813 1833 1833 1833 1833 1853 1873 1873 1883 1883 1894 1894 1894 1883 1883 1883 1883 1883 1873 1873 1883 1883 1883 1883 1894 1894 1894 1894 1894 1894 1894 1883 1883 1883 1883 1883 1873 1873 1883 1883 1894 1894 1894 1904 1904 1904 1904 1915 1915 1926 1926 1926 1926 1926 1926 1926 1926 1926 1926 1926 1926 1926 1926 1926 1936 1936 1936 1936 1936 1936 1936 1915 1915 1915 1915 1894 1894 1904 1926 1926 1926 1926 1936 1926 1926 1926 1926 1926 1926 1936 1970 2005 2005 2005 2005 2016 2005 2005 2005 2005 2005 2005 2005 2005 2005 2005 2005 1993 1993 0 0 0 0 0 0 0 0 0 0 0 0 0 0 0 0 0 0 0 0 0 0 0 5460 5460 0 0 0 0 0 0 0 0 0 0 0 0 0 0 0 0 0 0 0 0 0 0 0 0 0 0 0 0 0 0 0 5374 5374 5374 5374 5460 5460 5460 0 0 0 0 0 0 0 0 0 0 0 0 0 0 0 0 0 5734 5640 5548 5460 5460 5460 0 0 0 0 0 0 0 0 0 0 0 0 0 0 0 0 0 0 0 0 0 0 0 0 0 0 0 0 0 4241 4190 4190 4241 4241 4241 4241 4241 4241 4241 4241 4190 4190 4190 4190 4041 4041 4041 4041 4041 4041 3994 3994 3994 3948 3948 0 0 0 0 0 0 0 0 0 0 0 0
0 0 0 0 0 0 0 0 0 0 0 0 0 0 0 0 0 0 0 0 0 0 0 0 0 0 0 0 0 0 0 0 0 0 0 0 0 0 0 0 0 4190 4139 4139 4139 4089 4089 4089 4089 3994 3948 3948 3948 3903 3903 0 0 0 0 0 0 0 4139 4089 4089 4089 4089 4089 4041 4041 4041 4089 4089 4089 4089 4089 0 0 0 4089 4089 4089 4089 4089 4089 4089 4089 4089 4089 4139 4139 4139 4139 4139 4190 4190 0 0 1616 1616 1616 1616 1594 1586 1564 1564 1557 1557 1557 1550 1550 1550 1550 1550 1550 1550 1557 1557 1557 1557 1557 1557 1557 1557 1550 1543 1543 1655 1655 1655 1655 1655 1655 1655 1663 1671 1509 1509 1516 1516 1516 1516 1516 1516 1696 1688 1688 1509 1509 1509 1503 1496 1496 1496 1496 1496 1496 1496 1655 1655 1655 1655 1647 1647 1655 1655 1663 1663 1663 1663 1671 1663 1663 1663 1663 1663 1663 1663 1671 1671 1671 1671 1671 1671 1671 1680 1680 1433 1433 1439 1439 1439 1439 1433 1433 1433 1433 1433 1439 1445 1445 1445 1452 1452 1458 1458 1458 1458 1688 1688 1696 1696 1696 1696 1705 1705 1705 1705 1705 1713 1713 1713 1713 1713 1713 1713 1705 1705 1705 1317 1312 1307 1307 1307 1302 1302 1302 1297 1297 1297 1297 1297 1297 1297 1297 1297 1297 1292 1288 1288 1288 1288 1288 1283 1278 1278 1273 1273 1273 1268 1268 1268 1264 1264 1264 1259 1259 1259 1255 1255 1255 1250 1250 1250 1245 1245 1245 1241 1241 1241 1241 1241 1241 1236 1236 1236 1236 1232 1232 1232 1227 1227 1223 1223 1223 1223 1223 1219 1219 1219 1219 1219 1219 1214 1214 1214 1214 1214 1210 1210 1210 1206 1206 1202 1202 1202 1202 1202 1202 1202 1202 1202 1197 1197 1197 1197 1193 1193 1193 1193 1193 1193 1189 1185 1185 1185 1181 1181 1181 1181 1181 1181 1177 1173 1169 1169 1165 1165 1161 1161 1161 1161 1161 1161 1161 1161 1161 1161 1165 1169 1173 1173 1177 1181 0 0 0 0 0 1843 1833 1833 1833 1833 1833 1823 1823 1813 1813 1823 1823 1833 1833 1843 1853 1853 1863 1863 1873 1873 1873 1863 1863 1863 1863 1863 1863 1863 1863 1873 1863 1863 1883 1873 1873 1873 1873 1883 1883 1873 1873 1873 1883 1883 1873 1873 1873 1873 1873 1883 1894 1904 1904 1894 1894 1904 1894 1894 1894 1894 1894 1894 1904 1904 1904 1904 1904 1904 1904 1904 1904 1904 1915 1915 1926 1915 1915 1926 1915 1904 1904 1904 1894 1894 1894 1904 1915 1915 1915 1926 1926 1926 1926 1926 1926 1926 1926 1926 1936 1926 1926 1936 1981 1993 1993 1993 1993 1993 1993 1993 2005 1993 1993 1993 2005 2005 2005 1894 0 0 0 0 0 0 0 0 0 0 0 0 0 0 0 0 0 0 0 0 0 0 5460 5460 0 0 0 0 0 0 0 0 0 0 0 0 0 0 0 0 0 0 0 0 0 0 0 0 0 0 0 0 0 0 5460 5374 5374 5374 5374 5374 5374 5374 0 0 0 0 0 0 0 0 0 0 0 0 0 0 0 0 0 0 0 0 0 0 0 0 0 0 0 0 0 0 0 0 0 0 0 0 0 0 0 0 0 0 0 0 0 0 0 0 0 0 0 0 4190 4190 4190 4241 4241 4241 4241 4241 4241 4241 4241 4190 4190 4190 4190 4041 4041 4041 4041 4041 4041 3994 3994 3994 3948 3948 0 0 0 0 0 0 0 0 0 0 0 0
0 0 0 0 0 0 0 0 0 0 0 0 0 0 0 0 0 0 0 0 0 0 0 0 0 0 0 0 0 0 0 4041 3994 3994 4041 0 0 0 0 0 0 4190 4139 4089 4089 4089 4041 4041 4041 3994 3994 3994 3994 3948 3948 3948 0 0 0 0 0 0 4139 4089 4089 4089 4089 4041 4041 4041 4041 4041 4089 4089 4089 4089 0 0 0 4089 4089 4089 4089 4089 4089 4089 4089 4089 4089 4089 4089 4089 4139 4139 4190 4241 4241 4139 1624 1624 1624 1616 1594 1579 1564 1564 1564 1564 1557 1557 1557 1557 1557 1550 1550 1557 1557 1557 1557 1557 1557 1557 1557 1557 1550 1543 1543 1543 1543 1655 1655 1655 1655 1655 1529 1529 1523 1523 1523 1516 1516 1516 1516 1516 1516 1516 1516 1509 1509 1509 1503 1496 1496 1496 1496 1496 1496 1496 1496 1496 1655 1647 1647 1647 1647 1655 1655 1655 1647 1647 1655 1655 1655 1655 1647 1647 1647 1647 1655 1655 1655 1663 1663 1655 1655 1663 1663 1439 1439 1439 1439 1439 1439 1433 1433 1433 1439 1439 1439 1445 1445 1452 1452 1452 1458 1458 1458 1680 1680 1680 1688 1688 1696 1696 1696 1696 1696 1696 1696 1705 1705 1705 1705 1705 1705 1705 1688 1688 1688 1688 1312 1307 1307 1307 1307 1302 1302 1302 1302 1302 1302 1297 1297 1297 1297 1297 1297 1292 1288 1288 1288 1288 1288 1283 1278 1278 1273 1273 1273 1273 1268 1268 1268 1264 1264 1264 1264 1259 1259 1255 1255 1250 1250 1250 1250 1245 1245 1245 1245 1245 1245 1245 1241 1241 1241 1236 1236 1236 1232 1232 1232 1227 1227 1227 1223 1223 1223 1223 1223 1223 1223 1223 1219 1219 1219 1219 1214 1214 1210 1210 1210 1206 1206 1202 1202 1202 1202 1202 1202 1202 1202 1202 1197 1197 1197 1197 1193 1193 1193 1193 1193 1193 1193 1185 1185 1185 1181 1181 1181 1181 1181 1181 1177 1177 1173 1173 1169 1165 1165 1165 1161 1161 1161 1161 1161 1161 1161 1165 1169 1169 1173 1177 1181 1181 0 0 0 0 0 1833 1823 1823 1823 1823 1823 1823 1823 1813 1813 1823 1823 1823 1833 1843 1843 1853 1853 1853 1853 1853 1843 1843 1843 1843 1843 1853 1853 1853 1853 1863 1863 1863 1863 1863 1863 1863 1863 1873 1873 1863 1863 1863 1863 1873 1863 1863 1863 1863 1863 1863 1873 1873 1863 1863 1863 1873 1863 1863 1853 1853 1863 1873 1894 1894 1894 1894 1894 1894 1883 1883 1883 1894 1894 1904 1904 1904 1894 1894 1894 1894 1883 1883 1883 1883 1894 1894 1904 1904 1915 1915 1915 1915 1915 1915 1915 1915 1915 1915 1915 1915 1915 1915 1915 1993 1993 1981 1926 1926 1970 1981 1981 1993 1981 1981 1981 1981 1894 1894 1894 0 0 0 0 0 0 0 0 0 0 0 0 0 0 0 0 0 0 0 0 0 0 0 0 0 0 0 0 0 0 0 0 0 0 0 0 0 0 0 0 0 0 0 0 0 0 0 0 0 0 0 0 0 5374 5291 5291 5291 5291 5291 5291 5374 5548 5640 0 0 0 0 0 0 0 0 0 0 0 0 0 0 0 0 0 0 0 0 0 0 0 0 0 0 0 0 0 0 0 0 0 0 0 0 0 0 0 0 0 0 0 0 0 0 0 0 0 0 4190 4190 4190 4241 4295 4295 4241 4241 4241 4241 4241 4190 4190 4190 4139 4089 4089 4089 4089 4041 4041 4041 3994 3994 3948 3948 0 0 0 0 0 0 0 0 0 0 0 0
0 0 0 0 0 0 0 0 0 0 0 0 0 0 0 0 0 0 0 0 0 0 0 0 0 0 0 0 0 0 0 3994 3994 3994 3994 0 0 0 0 0 0 0 4041 4041 3994 3994 3994 3994 3994 3994 3994 3994 3994 3994 3948 3948 3948 0 0 0 0 0 0 4041 4041 4041 4041 4041 3994 3994 3994 3994 4041 4041 4041 4041 4139 0 0 4089 4089 4089 4041 4041 4041 4041 4041 4041 4041 4089 4089 4089 4089 4139 4139 4139 4139 4139 4349 1616 1616 1616 1594 1579 1579 1572 1564 1564 1557 1557 1557 1557 1557 1557 1557 1557 1557 1557 1557 1557 1557 1557 1557 1550 1550 1543 1543 1543 1536 1536 1655 1529 1529 1529 1529 1529 1523 1523 1523 1516 1516 1516 1516 1516 1516 1516 1516 1509 1509 1509 1503 1503 1496 1496 1496 1496 1496 1496 1496 1496 1496 1647 1647 1647 1647 1647 1647 1647 1647 1647 1647 1647 1639 1639 1632 1632 1639 1639 1639 1639 1647 1647 1647 1647 1647 1647 1647 1439 1439 1439 1439 1439 1439 1439 1439 1439 1439 1439 1445 1445 1445 1452 1452 1452 1458 1458 1458 1671 1671 1671 1680 1680 1688 1688 1696 1696 1688 1688 1688 1696 1696 1696 1696 1696 1696 1696 1688 1680 1671 1671 1312 1312 1312 1312 1307 1307 1307 1302 1302 1302 1302 1302 1302 1302 1302 1302 1297 1292 1292 1292 1292 1288 1288 1288 1283 1278 1273 1273 1273 1273 1268 1268 1268 1264 1264 1264 1264 1264 1259 1255 1255 1255 1255 1250 1250 1245 1245 1245 1245 1245 1245 1245 1245 1241 1241 1236 1236 1236 1232 1232 1232 1227 1227 1227 1227 1223 1223 1223 1223 1223 1223 1223 1219 1219 1219 1219 1214 1214 1210 1210 1210 1206 1206 1202 1202 1202 1202 1202 1202 1202 1202 1202 1202 1202 1197 1197 1197 1193 1193 1193 1193 1193 1193 1185 1185 1185 1185 1185 1185 1185 1181 1181 1181 1177 1177 1173 1173 1169 1165 1165 1165 1161 1161 1161 1161 1161 1165 1169 1169 1173 1177 1181 1181 1181 0 1202 0 1813 0 1833 1823 1823 1823 1823 1813 1813 1813 1813 1813 1813 1813 1823 1823 1833 1833 1833 1833 1843 1843 1833 1833 1833 1833 1843 1843 1843 1843 1843 1853 1843 1843 1843 1853 1853 1853 1853 1853 1853 1853 1863 1863 1853 1853 1853 1853 1853 1853 1843 1843 1853 1853 1863 1853 1853 1853 1853 1843 1843 1843 1843 1853 1853 1863 1863 1873 1873 1873 1873 1873 1873 1873 1873 1873 1873 1873 1873 1873 1873 1873 1873 1873 1873 1873 1873 1883 1883 1894 1894 1904 1904 1904 1915 1904 1904 1904 1904 1894 1894 1894 1894 1904 1904 1915 1915 1915 1904 1904 1904 1904 1915 1915 1904 1904 1904 1904 1904 1894 1873 1873 1873 1883 1883 1894 0 0 0 0 0 0 0 0 0 0 1863 1863 0 0 0 0 0 0 0 0 0 0 0 0 0 0 0 0 0 0 0 0 0 0 0 0 0 0 0 0 0 0 0 0 0 0 0 0 0 5374 5291 5291 5291 5291 5291 5291 5291 5548 5640 0 0 0 0 0 0 0 0 0 0 0 0 0 0 0 0 0 0 0 0 0 0 0 0 0 0 0 0 0 0 0 0 0 0 0 0 0 0 0 0 0 0 0 0 0 0 0 0 0 0 0 4190 4190 4241 4295 4295 4241 4241 4241 4241 4241 4190 4190 4190 4139 4089 4089 4089 4139 4139 4139 3994 3994 3994 3948 3948 0 0 0 0 0 0 0 0 0 0 0 0
0 0 0 0 0 0 0 0 0 0 0 0 0 0 0 0 0 0 0 0 0 0 0 0 0 0 0 0 0 0 0 3994 3948 3948 3994 3994 4041 0 0 0 0 0 3994 3994 3994 3994 3994 3994 3994 3994 3994 3994 3994 3994 3948 3948 3948 0 0 0 0 0 3994 3994 3994 3994 3994 3994 3994 3994 3994 3994 3994 3994 3994 4041 4139 4139 0 4089 4041 4041 3994 3994 3994 3994 3994 3994 3994 4041 4041 4041 4089 4089 4139 4139 4139 4349 4349 4241 0 0 1594 1579 1572 1572 1564 1564 1557 1557 1557 1557 1557 1557 1557 1557 1557 1557 1557 1557 1557 1557 1557 1550 1550 1543 1543 1543 1536 1536 1536 1529 1529 1529 1529 1529 1529 1529 1523 1523 1516 1516 1516 1516 1523 1516 1516 1516 1516 1516 1509 1503 1503 1503 1503 1503 1496 1496 1496 1496 1496 1496 1496 1647 1647 1647 1647 1639 1639 1639 1639 1639 1632 1624 1624 1624 1624 1624 1624 1632 1632 1632 1639 1639 1639 1639 1639 1439 1439 1439 1439 1439 1439 1439 1439 1439 1439 1445 1445 1445 1445 1452 1452 1452 1458 1458 1458 1663 1671 1671 1671 1671 1671 1680 1680 1680 1680 1671 1671 1671 1680 1680 1688 1688 1688 1680 1680 1671 1655 1655 1655 1312 1312 1312 1312 1312 1312 1307 1307 1307 1307 1302 1302 1302 1302 1307 1307 1307 1302 1302 1297 1292 1292 1288 1288 1283 1278 1278 1278 1273 1273 1268 1268 1268 1268 1264 1264 1264 1264 1259 1259 1255 1255 1255 1250 1250 1250 1250 1250 1250 1250 1250 1245 1245 1241 1241 1236 1236 1232 1232 1232 1232 1232 1227 1227 1232 1227 1223 1223 1223 1223 1223 1219 1219 1219 1219 1219 1219 1210 1210 1210 1210 1210 1206 1202 1202 1206 1202 1202 1202 1202 1202 1202 1202 1202 1197 1197 1197 1197 1197 1197 1197 1197 1189 1189 1189 1185 1185 1185 1185 1181 1181 1181 1177 1177 1173 1173 1173 1165 1165 1165 1165 1161 1161 1165 1165 1165 1169 1169 1173 1177 1181 1181 1193 1202 0 0 1813 1813 1813 1813 1813 1813 1813 1813 1813 1813 1804 1804 1813 1813 1823 1823 1823 1823 1813 1813 1823 1833 1823 1823 1823 1823 1833 1833 1833 1833 1833 1843 1833 1833 1833 1843 1833 1833 1843 1843 1843 1853 1853 1843 1843 1843 1843 1833 1833 1833 1833 1833 1843 1843 1843 1843 1843 1833 1833 1833 1833 1833 1833 1833 1843 1843 1843 1843 1853 1853 1863 1863 1863 1863 1863 1863 1863 1863 1863 1863 1863 1863 1863 1863 1863 1863 1863 1863 1863 1873 1873 1883 1894 1894 1894 1894 1894 1894 1894 1883 1883 1894 1894 1894 1904 1904 1894 1894 1894 1883 1883 1883 1883 1873 1873 1883 1883 1883 1873 1873 1873 1873 1873 1883 1883 1883 1894 1894 1904 0 0 0 0 1863 1863 1863 1863 1863 1863 1843 1843 0 0 0 1904 1904 1904 1904 0 0 0 0 0 0 0 0 0 0 0 0 0 0 0 0 0 0 0 0 0 0 0 0 0 5548 5374 5374 5291 5291 5291 5291 5291 5132 5132 0 0 0 0 0 0 0 0 0 0 0 0 0 0 0 0 0 0 0 0 0 0 0 0 0 0 0 0 0 0 0 0 0 0 0 0 0 0 0 0 0 0 0 0 0 0 0 0 0 0 0 0 0 4241 4241 4241 4295 4295 4241 4241 4241 4241 4190 4190 4190 4190 4139 4089 4089 4089 4139 4139 4089 4041 4041 3994 3994 3994 0 0 0 0 0 0 0 0 0 0 0 0
0 0 0 0 0 0 0 0 0 0 0 0 0 0 0 0 0 0 0 0 0 0 0 0 0 0 0 0 0 0 0 3948 3948 3948 3948 3994 3994 3994 3994 3994 0 3948 3948 3948 3948 3948 3948 3994 3948 3948 3948 3948 3948 3994 3948 3948 3948 0 0 0 3948 3948 3948 3948 3994 3994 3994 3948 3948 3948 3948 3948 3994 3994 3994 4041 4089 4089 0 4089 4041 3994 3994 3948 3948 3994 3994 3994 3994 3994 3994 4041 4041 4089 4089 4139 4139 4295 4349 4241 4241 4241 0 0 1572 1572 1564 1564 1557 1557 1557 1557 1557 1557 1557 1557 1557 1557 1557 1557 1557 1557 1557 1550 1550 1550 1550 1543 1536 1536 1536 1529 1529 1529 1529 1529 1529 1529 1523 1523 1523 1523 1523 1523 1523 1516 1516 1516 1516 1516 1516 1509 1503 1503 1503 1503 1496 1496 1503 1496 1496 1496 1496 1496 1496 1496 1496 1483 1477 1477 1477 1477 1632 1624 1616 1616 1624 1624 1624 1624 1624 1624 1639 1639 1639 1639 1632 1445 1445 1445 1439 1439 1439 1439 1439 1439 1445 1445 1445 1445 1445 1452 1452 1452 1458 1458 1663 1663 1663 1663 1663 1663 1663 1671 1663 1663 1671 1671 1671 1671 1680 1680 1688 1680 1680 1680 1671 1663 1655 1655 1655 1655 1317 1317 1312 1312 1312 1312 1312 1312 1312 1307 1307 1312 1312 1312 1307 1307 1307 1307 1302 1297 1292 1288 1288 1283 1278 1278 1273 1273 1273 1273 1268 1268 1268 1268 1268 1268 1268 1264 1259 1259 1255 1255 1255 1250 1250 1250 1250 1250 1250 1250 1245 1245 1241 1241 1236 1236 1236 1232 1232 1232 1232 1232 1232 1232 1227 1227 1227 1223 1223 1223 1219 1219 1219 1219 1219 1219 1214 1214 1210 1210 1210 1206 1206 1206 1206 1206 1202 1202 1202 1202 1202 1202 1202 1202 1197 1197 1197 1197 1197 1197 1197 1189 1189 1189 1189 1189 1189 1185 1185 1185 1181 1181 1177 1177 1173 1173 1165 1165 1165 1165 1161 1161 1165 1165 1165 1169 1173 1173 1177 1181 1189 1193 1202 0 0 1794 1794 1794 1794 1794 1794 1794 1794 1794 1794 1794 1794 1794 1794 1804 1813 1804 1804 1804 1804 1804 1804 1804 1813 1813 1823 1823 1823 1823 1823 1823 1833 1823 1823 1823 1833 1833 1833 1833 1833 1833 1833 1833 1833 1833 1823 1823 1823 1823 1823 1823 1833 1833 1833 1833 1833 1823 1823 1823 1823 1823 1823 1823 1833 1833 1833 1833 1833 1843 1843 1843 1843 1843 1853 1853 1843 1843 1843 1843 1853 1843 1843 1853 1853 1853 1863 1853 1853 1853 1853 1853 1853 1853 1873 1873 1883 1883 1883 1883 1883 1883 1883 1883 1883 1894 1894 1883 1883 1883 1883 1873 1873 1873 1873 1873 1873 1873 1873 1873 1873 1873 1873 1873 1873 1873 1873 1883 1883 1894 0 1883 1883 1883 1863 1863 1863 1863 1863 1863 1843 1843 1853 1853 1883 1904 1904 1904 1904 0 0 0 0 0 0 1883 1883 0 0 0 0 0 0 0 0 0 0 0 0 0 0 0 0 0 5548 5374 5374 5291 5291 5291 5291 5132 5132 5132 5210 0 0 0 0 0 0 0 0 0 0 0 0 0 0 0 0 0 5056 5056 5056 5056 0 0 0 0 0 0 0 0 0 0 0 0 0 0 0 0 0 0 0 0 0 0 0 0 0 0 0 0 0 0 4190 4190 4241 4241 4295 4295 4241 4241 4241 4241 4190 4190 4190 4190 4139 4089 4089 4041 4041 4041 4089 4089 4041 3994 3994 3994 0 0 0 0 0 0 0 0 0 0 0 0
0 0 0 0 0 0 0 0 0 0 0 0 0 0 0 0 0 0 0 0 0 0 0 0 0 0 0 0 0 0 0 3903 3903 3903 3948 3948 3948 3948 3994 3994 0 3948 3948 3948 3948 3948 3948 3948 3948 3948 3948 3948 3948 3948 3948 3948 3903 3903 3903 0 3948 3948 3948 3948 3994 3994 3994 3948 3948 3948 3948 3948 3994 3994 3994 4041 4089 4089 0 4041 4041 3948 3948 3948 3948 3948 3948 3948 3948 3994 3994 4041 4041 4041 4089 4089 4139 4295 4295 4241 4241 4349 0 0 0 0 1564 1564 1557 1557 1557 1557 1557 1557 1557 1557 1557 1557 1557 1557 1557 1557 1550 1550 1550 1543 1543 1543 1536 1536 1536 1529 1529 1529 1529 1529 1529 1529 1523 1523 1523 1516 1516 1516 1516 1516 1516 1516 1516 1516 1516 1509 1503 1503 1503 1503 1503 1503 1503 1496 1496 1496 1496 1496 1496 1496 1489 1483 1477 1477 1477 1477 1477 1616 1616 1616 1616 1616 1616 1616 1616 1616 1624 1624 1624 1624 1624 1624 1445 1445 1439 1439 1439 1445 1445 1445 1445 1445 1445 1445 1452 1452 1452 1458 1458 1464 1663 1655 1647 1647 1647 1647 1639 1639 1647 1647 1655 1655 1655 1655 1671 1671 1663 1663 1663 1671 1663 1655 1647 1647 1647 1647 1312 1312 1312 1312 1312 1312 1312 1312 1312 1312 1312 1312 1312 1312 1312 1312 1312 1312 1307 1297 1292 1292 1288 1283 1278 1278 1273 1273 1273 1273 1273 1273 1273 1273 1268 1268 1268 1264 1264 1259 1259 1255 1255 1255 1255 1250 1250 1250 1250 1250 1245 1245 1241 1241 1236 1236 1236 1236 1236 1236 1232 1232 1232 1232 1232 1232 1227 1223 1223 1223 1223 1223 1219 1219 1219 1219 1214 1214 1210 1210 1210 1210 1206 1206 1206 1206 1206 1206 1206 1206 1206 1206 1202 1202 1202 1197 1197 1197 1197 1197 1197 1193 1193 1189 1189 1189 1189 1189 1185 1185 1181 1181 1177 1177 1173 1173 1169 1169 1165 1165 1165 1165 1165 1165 1169 1169 1173 1177 1181 1185 1189 1193 1193 0 1776 1776 1776 1776 1785 1785 1785 1785 1785 1785 1785 1776 1776 1776 1776 1776 1785 1794 1794 1794 1794 1794 1794 1804 1804 1804 1813 1813 1813 1813 1813 1813 1823 1813 1813 1813 1823 1823 1823 1823 1823 1823 1823 1813 1813 1813 1813 1813 1804 1804 1823 1823 1823 1833 1823 1823 1823 1813 1813 1813 1813 1813 1823 1823 1823 1823 1823 1823 1823 1833 1833 1843 1843 1843 1843 1843 1833 1823 1823 1833 1833 1833 1833 1843 1843 1843 1843 1843 1843 1843 1843 1843 1853 1853 1863 1863 1873 1873 1873 1883 1873 1873 1873 1873 1873 1873 1873 1873 1873 1873 1873 1873 1863 1863 1863 1863 1863 1863 1863 1863 1863 1863 1863 1873 1873 1873 1873 1873 1883 1883 1873 1873 1873 1873 1863 1863 1863 1863 1863 1863 1853 1853 1853 1853 1883 1894 1894 1894 1894 0 0 0 0 0 0 1883 1883 1894 1904 0 0 0 0 0 0 0 0 0 0 0 0 0 0 0 5460 5374 5291 5291 5291 5291 5291 5132 5132 5132 5210 5291 0 0 0 0 0 0 0 0 0 0 0 0 0 0 0 0 5056 5056 5056 4983 4983 0 0 0 0 0 0 0 0 0 0 0 0 0 0 0 0 0 0 0 0 0 0 0 0 0 0 0 0 0 4190 4190 4241 4295 4295 4295 4241 4241 4241 4241 4190 4190 4190 4190 4139 4089 4089 4041 4041 4041 4041 4041 4041 3994 3994 3994 0 0 0 0 0 0 0 0 0 0 0 0
0 0 0 0 0 0 0 0 0 0 0 0 0 0 0 0 0 0 0 0 0 0 0 0 0 0 0 0 0 0 0 3903 3903 3903 3903 3948 3948 3903 3903 3903 0 3948 3948 3948 3948 3948 3948 3948 3948 3903 3903 3903 3903 3903 3903 3903 3859 3859 3859 3903 3948 3948 3948 3948 3948 3948 3948 3903 3903 3948 3948 3948 3948 3948 3994 4041 4089 4089 0 4041 4041 3948 3948 3948 3948 3948 3948 3948 3948 3994 3994 3994 3994 3994 4041 4041 4089 4241 4295 4295 4295 4349 0 0 0 0 0 1564 1557 1557 1557 1557 1557 1557 1557 1557 1557 1557 1557 1557 1557 1557 1550 1550 1550 1543 1543 1543 1543 1536 1536 1536 1536 1529 1529 1529 1529 1529 1523 1523 1523 1516 1516 1516 1516 1516 1516 1516 1516 1516 1509 1509 1503 1503 1503 1503 1503 1503 1503 1496 1496 1496 1496 1496 1496 1496 1489 1489 1483 1483 1483 1477 1470 1470 1477 1609 1609 1616 1616 1616 1616 1616 1616 1616 1616 1616 1616 1616 1445 1445 1445 1439 1439 1445 1445 1445 1445 1445 1445 1452 1452 1452 1458 1458 1464 1464 1655 1647 1639 1639 1632 1632 1624 1624 1632 1639 1639 1647 1647 1639 1639 1647 1647 1647 1647 1647 1647 1647 1647 1639 1639 1639 1312 1312 1312 1312 1312 1312 1312 1312 1312 1312 1312 1312 1312 1317 1312 1312 1312 1312 1312 1302 1297 1292 1288 1288 1273 1273 1273 1273 1273 1273 1273 1273 1273 1273 1273 1268 1264 1264 1264 1259 1255 1255 1255 1255 1255 1255 1250 1250 1250 1250 1250 1245 1245 1241 1241 1236 1236 1236 1236 1236 1236 1232 1232 1232 1232 1232 1232 1232 1227 1227 1227 1227 1223 1223 1219 1219 1219 1219 1214 1214 1214 1214 1214 1210 1210 1210 1210 1210 1206 1206 1206 1206 1206 1206 1202 1202 1202 1202 1197 1197 1197 1193 1193 1193 1193 1193 1193 1189 1189 1189 1185 1181 1177 1177 1173 1173 1169 1169 1169 1165 1165 1165 1165 1165 1169 1173 1177 1181 1181 1189 1189 1193 1193 0 1757 1757 1757 1757 1757 1757 1757 1757 1757 1757 1748 1748 1748 1748 1748 1748 1748 1757 1757 1766 1766 1766 1776 1785 1785 1794 1794 1794 1794 1785 1785 1804 1804 1804 1804 1804 1804 1804 1804 1804 1804 1804 1804 1804 1804 1804 1804 1804 1804 1794 1794 1794 1813 1813 1813 1813 1813 1813 1813 1813 1813 1813 1813 1813 1813 1813 1813 1813 1823 1823 1823 1833 1833 1833 1833 1823 1823 1823 1823 1823 1823 1823 1823 1823 1823 1823 1833 1833 1833 1833 1833 1833 1843 1843 1853 1853 1853 1863 1863 1863 1873 1863 1863 1863 1863 1863 1863 1863 1843 1843 1863 1863 1863 1863 1863 1863 1863 1853 1853 1853 1863 1863 1863 1863 1863 1863 1863 1863 1873 1873 1873 1873 1873 1873 1853 1853 1853 1853 1853 1863 1863 1863 1863 1863 1873 1873 1853 1853 1843 1843 1843 1843 1863 1873 1873 1894 1894 1894 1904 0 0 0 0 0 0 0 0 0 0 0 0 0 0 0 5374 5374 5291 5291 5291 5210 5210 5132 5132 5132 5291 5291 0 0 0 0 0 0 0 0 0 0 0 0 0 5291 5291 5132 5056 5056 5056 4983 4842 4842 0 0 0 0 0 0 0 0 0 0 0 0 0 0 0 0 0 0 0 0 0 0 0 0 0 0 0 4241 4241 4241 4241 4295 4295 4295 4241 4241 4241 4190 4190 4190 4139 4139 4139 4089 4089 4089 4089 4089 4041 4041 4041 4041 3994 3994 0 0 0 0 0 0 0 0 0 0 0 0
0 0 0 0 0 0 0 0 0 0 0 0 0 0 0 0 0 0 0 0 0 0 0 0 0 0 0 0 0 0 0 3903 3859 3859 3859 3903 3903 3859 3859 3859 3859 3903 3903 3903 3903 3903 3903 3859 3859 3859 3859 3903 3903 3903 3903 3903 3859 3859 3859 3903 3903 3903 3948 3948 3903 3859 3859 3816 3816 3816 3859 3903 3903 3948 3948 3994 4089 4190 4190 4190 3948 3948 3903 3903 3903 3948 3948 3948 3948 3948 3948 3994 3994 3994 3994 4041 4089 4190 4295 0 0 0 0 0 0 0 0 1564 1557 1557 1557 1557 1557 1557 1557 1557 1557 1557 1557 1557 1557 1557 1550 1550 1550 1550 1543 1543 1543 1536 1536 1536 1536 1529 1529 1529 1529 1529 1523 1523 1523 1516 1516 1516 1516 1516 1516 1516 1516 1516 1509 1509 1509 1503 1503 1503 1503 1503 1503 1496 1496 1496 1496 1496 1496 1496 1489 1489 1483 1483 1483 1477 1470 1470 1477 1483 1609 1609 1609 1609 1609 1609 1616 1616 1616 1609 1609 1616 1445 1445 1445 1445 1445 1445 1445 1445 1445 1445 1445 1452 1452 1452 1458 1458 1464 1464 1470 1639 1624 1616 1616 1616 1616 1616 1624 1632 1632 1639 1639 1632 1632 1639 1639 1639 1639 1639 1639 1647 1639 1632 1632 1632 1312 1312 1317 1317 1317 1312 1312 1312 1312 1312 1312 1312 1317 1317 1317 1317 1312 1312 1312 1302 1297 1292 1292 1288 1273 1268 1268 1273 1273 1273 1273 1273 1273 1273 1273 1268 1264 1264 1264 1259 1255 1255 1255 1255 1255 1250 1250 1250 1250 1250 1250 1250 1245 1245 1245 1245 1236 1236 1236 1236 1236 1232 1232 1236 1236 1232 1232 1232 1232 1232 1232 1227 1223 1223 1223 1223 1219 1219 1219 1214 1214 1214 1214 1214 1210 1210 1210 1210 1210 1210 1210 1210 1206 1206 1206 1206 1202 1202 1202 1202 1202 1193 1193 1193 1193 1193 1193 1193 1193 1193 1189 1189 1181 1177 1177 1173 1169 1169 1169 1169 1165 1165 1169 1169 1173 1177 1181 1181 1185 1189 1189 1189 1189 1757 1757 1748 1748 1748 1748 1739 1739 1739 1748 1739 1739 1739 1739 1739 1739 1739 1739 1739 1748 1748 1757 1766 1766 1766 1776 1776 1776 1776 1776 1766 1766 1766 1766 1766 1776 1776 1776 1776 1776 1766 1766 1766 1766 1776 1785 1785 1785 1785 1776 1776 1776 1776 1785 1785 1794 1794 1794 1794 1794 1785 1785 1785 1785 1785 1785 1785 1794 1794 1804 1804 1813 1813 1813 1813 1813 1804 1804 1794 1794 1794 1794 1794 1794 1813 1813 1823 1823 1823 1823 1823 1823 1833 1833 1833 1833 1833 1833 1833 1833 1843 1853 1853 1853 1853 1853 1853 1853 1853 1843 1843 1853 1853 1853 1853 1853 1853 1853 1853 1853 1853 1853 1853 1853 1853 1853 1853 1853 1853 1863 1863 1863 1863 1863 1863 1853 1853 1853 1853 1853 1853 1853 1853 1863 1863 1873 1843 1843 1843 1833 1833 1833 1833 1853 1863 1863 1863 1873 0 0 0 0 0 0 0 0 0 0 0 0 0 0 0 0 0 5374 5374 5291 5291 5291 5210 5210 5210 5132 5132 5291 5291 0 0 0 0 0 0 0 0 0 0 0 0 0 5291 5291 5132 5056 5056 5056 4983 4842 4842 4983 0 0 0 0 0 0 0 0 0 0 0 0 0 0 0 0 0 0 0 0 0 0 0 0 0 0 4241 4241 4241 4241 4295 4295 4295 4241 4241 4241 4190 4190 4139 4139 4139 4089 4089 4041 4041 4041 4041 4041 4041 4041 3994 3994 4041 0 0 0 0 0 0 0 0 0 0 0 0
0 0 0 0 0 0 0 0 0 0 0 0 0 0 0 0 0 0 0 0 0 0 0 0 0 0 0 0 0 0 0 3859 3816 3816 3816 3859 3859 3816 3816 3859 3859 3903 3816 3816 3859 3859 3859 3859 3859 3859 3859 3859 3859 3859 3859 3859 3859 3859 3859 3859 3903 3903 3903 3903 3859 3859 3816 3774 3774 3816 3816 3859 3903 3903 3948 3994 4089 4190 4190 0 3948 3948 3859 3859 3859 3903 3903 3903 3903 3948 3948 3948 3948 3948 3948 3994 3994 4089 0 0 0 0 0 0 0 0 0 1564 1564 1557 1557 1557 1557 1557 1557 1557 1564 1564 1564 1557 1557 1557 1557 1557 1550 1550 1550 1550 1543 1536 1536 1536 1536 1536 1529 1529 1529 1529 1529 1529 1523 1523 1523 1516 1516 1516 1516 1516 1516 1516 1516 1509 1509 1509 1509 1503 1503 1503 1503 1496 1496 1496 1496 1496 1496 1496 1496 1489 1489 1483 1483 1477 1477 1477 1477 1483 1483 1601 1601 1609 1609 1609 1609 1609 1609 1609 1609 1609 1445 1445 1445 1445 1445 1445 1445 1445 1445 1445 1452 1452 1452 1452 1458 1458 1464 1464 1470 1632 1624 1609 1609 1609 1609 1609 1609 1616 1616 1616 1616 1616 1616 1624 1624 1624 1624 1632 1632 1624 1616 1616 1616 1616 1317 1317 1317 1317 1317 1317 1312 1312 1317 1312 1312 1317 1317 1317 1317 1317 1322 1317 1317 1322 1322 1624 1624 1632 1632 1268 1268 1647 1647 1639 1639 1639 1632 1632 1616 1609 1609 1264 1264 1259 1259 1255 1255 1255 1255 1250 1250 1250 1250 1250 1250 1250 1245 1245 1245 1245 1245 1241 1241 1236 1236 1236 1236 1236 1236 1236 1232 1232 1232 1232 1232 1232 1227 1223 1223 1227 1219 1219 1219 1219 1219 1219 1219 1214 1214 1214 1214 1214 1210 1210 1210 1210 1210 1210 1206 1206 1202 1202 1202 1202 1202 1193 1193 1193 1193 1193 1193 1193 1193 1193 1189 1189 1181 1181 1177 1177 1173 1173 1173 1169 1169 1169 1173 1173 1173 1177 1181 1185 1185 1189 0 0 0 0 1748 1748 1748 1739 1739 1731 1731 1731 1731 1731 1739 1739 1739 1739 1739 1739 1739 1739 1739 1748 1748 1757 1757 1757 1757 1757 1748 1748 1757 1757 1757 1757 1757 1757 1757 1757 1757 1757 1757 1757 1757 1757 1757 1766 1766 1766 1766 1776 1766 1766 1757 1757 1757 1766 1766 1785 1785 1785 1776 1776 1776 1776 1785 1785 1785 1785 1785 1794 1794 1794 1794 1794 1794 1794 1794 1794 1794 1794 1794 1794 1794 1785 1785 1794 1794 1794 1804 1804 1813 1813 1813 1823 1813 1813 1813 1813 1813 1804 1804 1804 1804 1804 1813 1823 1823 1823 1823 1823 1823 1823 1823 1823 1823 1823 1823 1823 1823 1823 1823 1823 1823 1833 1833 1833 1843 1833 1833 1833 1833 1833 1833 1833 1833 1843 1833 1833 1843 1843 1843 1843 1813 1813 1833 1833 1823 1823 1823 1813 1813 1813 1813 1823 1843 1853 1853 1853 1853 0 0 0 0 0 0 0 0 0 0 0 0 0 0 0 0 0 5291 5291 5291 5291 5291 5210 5210 5210 5210 5056 0 0 0 0 0 0 0 0 0 0 0 0 0 0 5210 5210 5291 5210 5132 5056 5056 5056 4983 4983 4983 5056 5056 0 0 0 0 0 0 0 0 0 0 0 0 0 0 0 0 0 0 0 0 0 0 0 4349 4241 4241 4295 4295 4295 4295 4295 4241 4190 4190 4190 4139 4089 4089 4089 4041 4041 4041 4041 4041 4041 4041 4041 3994 3994 3994 3994 0 0 0 0 0 0 0 0 0 0 0 0
0 0 0 0 0 0 0 0 0 0 0 0 0 0 0 0 0 0 0 0 0 0 0 0 0 0 0 0 0 0 0 3816 3816 3816 3816 3816 3816 3816 3816 3774 3774 3692 3692 3816 3816 3816 3816 3816 3816 3816 3859 3859 3859 3859 3816 3816 3859 3816 3816 3816 3859 3859 3903 3859 3859 3816 3816 3774 3774 3774 3816 3816 3859 3903 3903 3948 4041 4139 4139 0 3774 3774 3774 3774 3816 3859 3903 3903 3903 3903 3903 3903 3903 3903 3903 3948 3948 3948 3994 0 0 0 0 0 0 0 0 1564 1564 1557 1557 1557 1557 1557 1557 1557 1564 1564 1564 1557 1557 1557 1557 1557 1557 1550 1550 1550 1543 1536 1536 1536 1536 1536 1529 1529 1529 1529 1529 1529 1529 1529 1529 1529 1523 1523 1523 1516 1516 1516 1516 1509 1509 1509 1509 1503 1503 1503 1503 1496 1496 1496 1503 1496 1496 1496 1496 1496 1489 1489 1489 1483 1483 1477 1477 1483 1483 1483 1477 1477 1477 1477 1609 1609 1609 1609 1609 1609 1452 1452 1452 1445 1445 1452 1452 1452 1452 1452 1452 1452 1452 1452 1458 1458 1464 1464 1639 1632 1632 1594 1594 1594 1594 1601 1609 1609 1609 1609 1609 1609 1609 1616 1616 1616 1616 1624 1624 1616 1609 1609 1609 1616 1317 1317 1317 1317 1317 1317 1317 1317 1317 1317 1317 1317 1317 1322 1322 1322 1322 1322 1322 1333 1333 1616 1616 1616 1616 1624 1624 1639 1632 1632 1632 1632 1624 1624 1609 1609 1601 1601 1264 1264 1259 1255 1255 1255 1255 1250 1250 1245 1245 1245 1245 1245 1245 1245 1245 1245 1250 1250 1241 1241 1236 1236 1236 1236 1236 1236 1236 1236 1232 1232 1232 1232 1227 1223 1223 1227 1223 1219 1219 1219 1219 1219 1219 1219 1214 1214 1214 1214 1214 1214 1214 1214 1210 1210 1206 1206 1206 1202 1202 1202 1202 1193 1193 1193 1193 1193 1193 1193 1193 1193 1193 1193 1185 1181 1177 1177 1173 1173 1173 1169 1169 1169 1173 1173 1177 1177 1181 1189 1189 1193 1193 0 0 0 1748 1739 1739 1731 1731 1722 1722 1722 1722 1722 1722 1731 1731 1731 1731 1731 1731 1731 1731 1731 1748 1748 1739 1739 1748 1739 1739 1739 1739 1739 1739 1748 1748 1748 1748 1748 1739 1739 1739 1748 1748 1748 1748 1757 1757 1757 1757 1766 1757 1757 1757 1757 1757 1748 1748 1757 1757 1776 1766 1766 1766 1776 1776 1776 1766 1766 1776 1776 1776 1776 1776 1785 1776 1776 1785 1776 1776 1785 1785 1785 1785 1776 1776 1785 1785 1785 1794 1794 1794 1804 1776 1776 1804 1804 1804 1804 1804 1785 1785 1785 1785 1785 1794 1804 1804 1804 1804 1804 1804 1804 1794 1794 1804 1804 1804 1804 1804 1804 1804 1804 1813 1813 1813 1823 1823 1823 1813 1813 1813 1813 1813 1813 1823 1823 1823 1823 1833 1823 1823 1823 1804 1804 1823 1823 1813 1813 1813 1813 1813 1813 1813 1813 1823 1843 1843 1853 1853 0 0 0 0 0 0 0 0 0 0 0 0 4983 4983 5056 0 0 5056 5056 5210 5210 5210 5210 5132 5132 5056 5056 0 0 0 0 0 0 0 0 0 0 0 0 0 0 5132 5132 5210 5210 5132 5132 5132 5056 5056 5056 5056 5056 5056 0 0 0 0 0 0 0 0 0 0 0 0 0 0 0 0 0 0 0 0 0 0 4349 4349 4349 4349 4295 4295 4241 4241 4241 4241 4190 4190 4139 4139 4089 4089 4041 4041 4041 4041 4041 4041 4041 4041 4041 3994 3994 3994 3994 0 0 0 0 0 0 0 0 0 0 0 0
0 0 0 0 0 0 0 0 0 0 0 0 0 0 0 0 0 0 0 0 0 0 0 0 0 0 0 0 0 0 0 3774 3774 3816 3816 3816 3816 3774 3774 3774 3732 3653 3614 3614 3774 3774 3774 3774 3816 3816 3816 3816 3816 3816 3816 3816 3816 3816 3816 3816 3816 3816 3816 3816 3816 3816 3816 3774 3774 3774 3816 3816 3859 3903 3903 3948 4041 4139 4139 0 0 3732 3732 3732 3774 3859 3859 3859 3903 3903 3903 3903 3903 3903 3903 3903 3903 3948 3948 0 0 0 0 0 0 0 0 1564 1564 1557 1557 1557 1564 1564 1564 1564 1564 1564 1564 1564 1564 1564 1557 1557 1557 1557 1550 1550 1550 1543 1536 1536 1536 1536 1536 1529 1529 1529 1529 1529 1529 1529 1529 1529 1529 1523 1523 1523 1516 1516 1516 1516 1509 1509 1509 1509 1509 1509 1509 1496 1496 1496 1496 1496 1496 1496 1496 1496 1496 1489 1489 1489 1483 1483 1483 1489 1489 1483 1477 1477 1477 1477 1483 1483 1609 1609 1609 1452 1452 1452 1452 1452 1452 1452 1452 1452 1452 1452 1452 1452 1452 1458 1458 1464 1464 1470 1470 1639 1586 1586 1586 1586 1586 1594 1594 1594 1601 1594 1594 1601 1601 1601 1601 1601 1601 1601 1609 1609 1594 1594 1601 1601 1317 1317 1317 1317 1317 1317 1317 1317 1317 1312 1312 1317 1317 1322 1322 1322 1328 1328 1328 1333 1609 1609 1609 1609 1609 1616 1616 1624 1624 1624 1632 1632 1616 1616 1609 1609 1601 1601 1601 1609 1259 1259 1259 1259 1255 1250 1245 1245 1245 1245 1245 1245 1245 1245 1245 1245 1250 1250 1245 1245 1241 1236 1236 1236 1236 1236 1236 1232 1232 1232 1232 1232 1227 1227 1227 1227 1223 1223 1223 1223 1223 1223 1219 1219 1214 1214 1214 1214 1214 1214 1214 1214 1210 1210 1206 1206 1206 1202 1202 1202 1202 1197 1197 1197 1197 1193 1193 1197 1193 1193 1193 1193 1185 1181 1181 1177 1177 1173 1173 1169 1169 1169 1173 1173 1177 1177 1181 1189 1189 1193 1197 0 0 0 0 1731 1731 1713 1713 1705 1705 1713 1713 1713 1722 1722 1722 1722 1722 1722 1722 1731 1731 1731 1739 1739 1731 1731 1722 1722 1722 1722 1731 1731 1731 1731 1731 1731 1731 1739 1731 1731 1731 1731 1731 1739 1739 1748 1748 1748 1748 1748 1748 1748 1748 1748 1748 1748 1748 1748 1748 1757 1757 1757 1757 1757 1757 1757 1757 1748 1748 1757 1757 1748 1748 1766 1757 1757 1757 1757 1766 1766 1766 1766 1766 1766 1766 1776 1776 1776 1776 1776 1785 1785 1766 1766 1766 1766 1757 1757 1766 1766 1766 1776 1776 1776 1785 1785 1785 1794 1794 1785 1785 1785 1785 1785 1785 1785 1785 1785 1794 1794 1794 1794 1794 1804 1804 1813 1813 1804 1804 1804 1804 1804 1804 1804 1804 1813 1813 1794 1794 1794 1794 1794 1794 1794 1794 1804 1813 1813 1813 1804 1804 1804 1813 1813 1813 1823 1843 1853 0 0 0 0 0 0 0 0 0 0 0 0 0 4983 4983 5056 5056 5056 5056 5056 5056 5210 5210 5210 5132 5132 4983 4983 4983 4983 0 0 0 0 0 0 0 0 0 0 0 0 5132 5132 5132 5132 5210 5210 5210 5132 5056 4983 4983 5056 5056 5056 0 0 0 0 0 0 0 0 0 0 0 0 0 0 0 0 0 0 0 0 4405 4349 4349 4295 4295 4295 4295 4241 4241 4241 4241 4190 4190 4139 4139 4089 4089 4041 4041 4041 4041 4041 4041 4041 3994 3994 3994 3948 3948 3994 0 0 0 0 0 0 0 0 0 0 0 0
0 0 0 0 0 0 0 0 0 0 0 0 0 0 0 0 0 0 0 0 0 0 0 0 0 0 0 0 0 0 0 3774 3774 3774 3774 3774 3774 3774 3732 3732 3653 3614 3614 3614 3732 3774 3774 3774 3774 3816 3816 3816 3816 3816 3816 3816 3816 3816 3816 3816 3816 3774 3774 3774 3774 3774 3774 3774 3774 3774 3774 3816 3816 3859 3859 3903 3903 4041 4041 0 0 3732 3732 3732 3774 3816 3816 3859 3859 3859 3859 3859 3859 3859 3903 3903 3903 3903 3903 0 0 0 0 0 0 0 0 0 1572 1564 1564 1564 1564 1564 1564 1564 1564 1564 1564 1564 1564 1564 1557 1557 1557 1557 1557 1550 1550 1543 1543 1543 1543 1536 1536 1536 1536 1536 1536 1536 1529 1529 1529 1529 1529 1529 1529 1529 1523 1516 1516 1516 1516 1509 1509 1509 1509 1509 1509 1496 1496 1496 1496 1496 1496 1496 1496 1496 1496 1489 1489 1489 1489 1483 1483 1483 1483 1489 1483 1483 1483 1483 1483 1483 1489 1489 1489 1489 1464 1458 1458 1452 1452 1452 1452 1452 1452 1452 1452 1452 1452 1458 1458 1464 1464 1470 1470 1470 1579 1579 1586 1586 1579 1579 1586 1586 1586 1586 1586 1586 1594 1586 1586 1586 1586 1594 1594 1586 1579 1579 1586 1586 1317 1317 1317 1317 1317 1317 1317 1317 1317 1312 1312 1317 1317 1322 1322 1322 1328 1328 1333 1338 1609 1601 1601 1601 1601 1609 1609 1609 1609 1616 1624 1624 1616 1616 1609 1609 1601 1601 1601 1601 1609 1609 1609 1609 1609 1609 1245 1245 1241 1241 1241 1245 1245 1245 1245 1250 1250 1250 1245 1245 1245 1236 1236 1236 1236 1232 1232 1232 1232 1232 1232 1232 1232 1227 1227 1232 1223 1223 1223 1223 1223 1223 1219 1219 1219 1214 1214 1214 1214 1214 1214 1214 1210 1210 1210 1206 1206 1206 1206 1202 1202 1197 1197 1197 1197 1197 1197 1197 1197 1193 1193 1193 1185 1185 1181 1181 1177 1177 1177 1173 1173 1173 1173 1173 1177 1177 1185 1189 1189 1193 1193 0 0 0 0 1731 1705 1696 1696 1696 1696 1705 1705 1696 1696 1705 1705 1713 1713 1713 1722 1722 1722 1722 1731 1731 1722 1713 1713 1713 1713 1713 1722 1722 1722 1722 1722 1722 1722 1722 1722 1722 1722 1722 1722 1731 1731 1731 1731 1731 1731 1731 1731 1731 1731 1739 1739 1739 1739 1748 1739 1739 1739 1739 1748 1748 1748 1739 1739 1739 1739 1739 1739 1739 1739 1757 1748 1748 1748 1748 1748 1757 1757 1757 1757 1757 1766 1766 1757 1757 1766 1766 1766 1757 1748 1748 1748 1748 1748 1748 1748 1757 1757 1766 1766 1766 1766 1766 1776 1776 1776 1776 1776 1776 1766 1766 1766 1766 1766 1766 1776 1776 1776 1776 1785 1785 1785 1785 1785 1785 1785 1794 1794 1794 1794 1794 1794 1794 1794 1794 1785 1785 1785 1785 1785 1785 1785 1794 1804 1804 1804 1804 1804 1804 1804 1804 1804 1813 0 0 0 0 0 0 0 0 0 0 0 0 0 0 0 4911 4911 4983 4983 5056 5056 5056 5056 5056 5210 5210 5132 5132 4983 4983 4983 4983 0 0 0 0 0 0 0 0 5056 5056 5056 4983 4983 5056 5056 5056 5056 5056 5132 5132 5056 4983 4983 5056 5056 5056 0 0 0 0 0 0 0 0 0 0 0 0 0 0 0 0 0 0 0 0 4349 4295 4295 4295 4295 4295 4241 4241 4241 4241 4241 4190 4190 4139 4139 4139 4089 4089 4089 4041 4041 4041 4041 4041 3994 3994 3994 3948 3948 3948 0 0 0 0 0 0 0 0 0 0 0 0
0 0 0 0 0 0 0 0 0 0 0 0 0 0 0 0 0 0 0 0 0 0 0 0 0 0 0 0 0 0 0 3732 3732 3774 3774 3774 3732 3732 3732 3732 3653 3614 3614 3614 3732 3774 3732 3732 3774 3774 3774 3774 3774 3774 3774 3816 3816 3774 3774 3774 3774 3774 3774 3774 3774 3774 3774 3774 3774 3774 3774 3774 3774 3816 3816 3859 3859 4041 4041 0 3903 3774 3774 3774 3774 3816 3816 3816 3859 3859 3859 3859 3859 3859 3859 3859 3859 3859 3903 3903 0 0 0 0 0 0 0 0 0 1572 1564 1564 1564 1564 1564 1564 1572 1572 1572 1564 1564 1564 1564 1564 1557 1557 1557 1550 1550 1550 1543 1543 1543 1543 1543 1536 1536 1536 1536 1536 1536 1536 1536 1536 1529 1529 1529 1529 1523 1523 1523 1523 1516 1516 1516 1516 1509 1509 1509 1496 1496 1496 1496 1496 1496 1496 1496 1496 1496 1489 1489 1489 1489 1483 1483 1483 1483 1489 1489 1483 1483 1489 1489 1489 1489 1489 1489 1483 1477 1464 1458 1458 1452 1452 1452 1452 1452 1452 1452 1452 1452 1452 1458 1464 1464 1464 1464 1470 1579 1579 1579 1579 1579 1572 1572 1579 1579 1579 1579 1579 1586 1586 1586 1586 1586 1586 1586 1579 1579 1579 1579 1579 1317 1317 1317 1322 1322 1322 1317 1317 1317 1317 1317 1317 1322 1328 1328 1328 1328 1328 1333 1338 1609 1586 1586 1594 1594 1594 1594 1594 1594 1601 1601 1609 1609 1609 1601 1601 1601 1601 1601 1601 1601 1601 1609 1609 1609 1609 1609 1609 1241 1241 1241 1245 1245 1245 1245 1250 1250 1250 1250 1245 1245 1241 1241 1232 1232 1232 1232 1232 1232 1232 1232 1232 1232 1227 1227 1232 1227 1227 1227 1223 1223 1223 1219 1219 1219 1219 1219 1219 1219 1214 1214 1214 1214 1210 1210 1210 1206 1206 1206 1206 1202 1197 1197 1197 1197 1197 1197 1197 1197 1197 1193 1193 1185 1185 1181 1181 1177 1177 1177 1173 1173 1177 1177 1177 1177 1181 1185 1189 1189 1193 1193 0 0 0 0 0 1688 1688 1680 1680 1688 1696 1696 1688 1688 1696 1696 1696 1696 1696 1705 1713 1705 1705 1705 1705 1696 1696 1705 1696 1696 1705 1713 1713 1713 1713 1713 1713 1713 1713 1713 1713 1713 1713 1713 1722 1722 1722 1722 1722 1722 1722 1722 1722 1722 1722 1731 1731 1731 1731 1731 1731 1731 1731 1731 1731 1731 1731 1731 1722 1722 1731 1731 1731 1731 1748 1748 1748 1739 1739 1739 1739 1739 1739 1748 1748 1748 1757 1757 1748 1748 1748 1748 1748 1739 1739 1739 1739 1739 1748 1748 1748 1757 1766 1757 1757 1757 1757 1757 1757 1757 1757 1757 1757 1757 1757 1766 1757 1757 1766 1766 1766 1766 1766 1776 1776 1776 1776 1776 1776 1776 1785 1785 1785 1785 1785 1785 1785 1776 1776 1757 1757 1757 1757 1776 1766 1766 1776 1776 1794 1794 1794 1794 1804 1804 1794 1794 1813 0 0 0 0 0 0 0 0 0 0 0 0 0 0 0 4911 4911 4983 4983 4983 4983 4983 4983 4983 5210 5210 5132 5132 4983 4983 4983 4983 0 0 0 0 4911 4911 4983 4983 4983 5056 4983 4983 4983 5056 5056 4983 4983 5056 5056 5132 5056 4983 4983 4983 5056 0 0 0 0 0 0 0 0 0 0 0 0 0 0 0 0 0 0 0 0 4295 4295 4295 4295 4295 4295 4295 4241 4241 4241 4241 4241 4190 4190 4139 4139 4139 4089 4041 4041 4041 4041 4041 4041 4041 3994 3994 3994 3994 3948 3948 0 0 0 0 0 0 0 0 0 0 0 0
0 0 0 0 0 0 0 0 0 0 0 0 0 0 0 0 0 0 0 0 0 0 0 0 0 0 0 0 0 0 0 3732 3732 3732 3732 3732 3692 3692 3692 3692 3653 3653 3692 3732 3732 3732 3732 3732 3774 3774 3774 3774 3774 3774 3774 3816 3816 3774 3774 3774 3774 3732 3732 3774 3774 3774 3774 3732 3732 3732 3774 3774 3774 3774 3816 3816 3816 3816 3816 3774 3903 3903 3774 3774 3774 3816 3816 3816 3816 3816 3816 3816 3859 3859 3859 3859 3859 3859 3903 3903 0 0 0 0 0 0 0 0 0 1572 1564 1564 1564 1564 1572 1572 1572 1572 1572 1572 1564 1564 1564 1564 1564 1557 1557 1557 1557 1550 1550 1550 1550 1543 1543 1543 1543 1543 1543 1543 1536 1536 1536 1536 1536 1529 1529 1529 1529 1523 1523 1523 1523 1523 1516 1516 1509 1509 1509 1496 1496 1496 1496 1496 1496 1496 1496 1496 1496 1496 1489 1489 1489 1489 1489 1489 1489 1489 1489 1483 1483 1489 1489 1483 1483 1483 1483 1483 1477 1470 1464 1458 1458 1452 1452 1452 1452 1452 1452 1452 1452 1452 1458 1464 1464 1464 1464 1470 1579 1579 1579 1579 1579 1572 1564 1564 1572 1572 1572 1572 1579 1579 1579 1579 1579 1579 1579 1579 1572 1572 1579 1317 1317 1317 1317 1322 1322 1322 1322 1317 1317 1317 1317 1322 1322 1328 1328 1328 1328 1328 1333 1338 1586 1579 1579 1586 1586 1586 1586 1586 1586 1586 1586 1594 1594 1594 1594 1594 1601 1601 1601 1601 1601 1601 1601 1601 1601 1601 1601 1594 1594 1241 1241 1245 1245 1245 1250 1601 1609 1594 1594 1601 1601 1241 1241 1232 1232 1232 1232 1232 1232 1232 1232 1232 1232 1227 1227 1232 1227 1227 1227 1223 1223 1223 1219 1219 1219 1219 1219 1219 1219 1219 1214 1214 1214 1214 1210 1210 1206 1206 1206 1206 1206 1197 1197 1197 1197 1197 1197 1197 1197 1197 1193 1193 1189 1185 1181 1181 1181 1177 1177 1177 1177 1177 1177 1177 1177 1181 1185 1189 1189 1193 1197 0 0 0 0 0 1688 1663 1663 1663 1680 1688 1688 1688 1688 1688 1680 1680 1680 1680 1688 1688 1680 1680 1688 1680 1680 1680 1688 1688 1688 1688 1696 1705 1696 1696 1705 1705 1705 1705 1696 1696 1705 1705 1705 1722 1722 1713 1713 1705 1705 1713 1713 1713 1713 1713 1722 1722 1722 1722 1722 1722 1722 1722 1722 1722 1722 1722 1722 1722 1722 1722 1722 1722 1722 1731 1739 1739 1731 1731 1731 1731 1731 1731 1731 1739 1739 1739 1739 1739 1739 1739 1731 1731 1731 1731 1731 1731 1731 1731 1731 1739 1748 1748 1748 1748 1748 1748 1739 1739 1739 1748 1748 1748 1748 1748 1757 1757 1757 1757 1757 1766 1766 1766 1766 1766 1766 1766 1766 1766 1766 1776 1776 1776 1776 1785 1785 1776 1757 1757 1757 1757 1757 1757 1757 1757 1757 1757 1757 1766 1776 1776 1776 1785 1785 1785 1785 0 0 0 0 0 0 0 0 0 0 0 0 0 0 0 0 4911 4842 4842 4911 4911 4983 4983 4983 4983 5210 5210 5210 5132 4983 4983 4911 4911 4911 4842 4842 4842 4842 4842 4983 4983 4983 4983 4983 4911 4911 4983 4983 4983 4983 4983 5056 5056 4983 4983 4911 4911 5056 0 0 0 0 0 0 0 0 0 0 0 0 0 0 0 0 0 0 0 0 4295 4295 4295 4295 4295 4295 4295 4241 4241 4241 4241 4241 4190 4190 4139 4139 4089 4041 4041 4041 3994 3994 4041 4041 4041 4041 3994 3994 3994 3948 3948 0 0 0 0 0 0 0 0 0 0 0 0
0 0 0 0 0 0 0 0 0 0 0 0 0 0 0 0 0 0 0 0 0 0 0 0 0 0 0 0 0 0 0 3692 3692 3732 3692 3692 3692 3692 3653 3653 3653 3653 3692 3732 3732 3732 3732 3732 3732 3732 3774 3774 3774 3774 3774 3774 3774 3774 3774 3774 3732 3732 3732 3732 3732 3732 3732 3732 3732 3732 3732 3732 3732 3732 3774 3774 3774 3774 3774 3774 3903 3903 3774 3774 3774 3774 3774 3774 3816 3816 3816 3816 3816 3816 3816 3816 3816 3859 3903 3948 0 0 0 0 0 0 0 0 0 1572 1572 1564 1564 1572 1572 1572 1572 1572 1572 1572 1572 1572 1564 1564 1564 1564 1564 1557 1557 1557 1557 1550 1550 1550 1550 1543 1543 1543 1543 1543 1536 1536 1536 1536 1536 1536 1536 1529 1529 1529 1529 1523 1523 1523 1523 1523 1516 1509 1509 1503 1503 1503 1503 1503 1503 1496 1496 1496 1496 1496 1489 1489 1489 1489 1489 1489 1489 1489 1483 1483 1483 1483 1483 1483 1483 1483 1477 1477 1477 1477 1470 1458 1458 1458 1452 1452 1452 1452 1452 1452 1452 1458 1458 1464 1464 1470 1470 1470 1557 1557 1572 1572 1564 1564 1564 1564 1564 1564 1564 1564 1564 1572 1572 1572 1572 1572 1572 1579 1557 1557 1557 1317 1317 1317 1317 1322 1322 1322 1322 1317 1317 1317 1317 1322 1322 1328 1328 1328 1333 1333 1333 1338 1579 1579 1579 1579 1579 1579 1579 1579 1579 1579 1579 1579 1579 1586 1586 1586 1594 1594 1594 1601 1594 1594 1594 1594 1594 1594 1594 1594 1594 1594 1594 1594 1594 1594 1594 1594 1594 1586 1586 1594 1594 1601 1241 1241 1236 1232 1232 1232 1232 1232 1232 1227 1227 1227 1227 1232 1227 1227 1232 1223 1223 1219 1219 1219 1219 1219 1219 1219 1219 1219 1219 1214 1214 1214 1214 1210 1206 1206 1206 1206 1206 1202 1197 1197 1197 1197 1197 1197 1197 1197 1193 1193 1189 1185 1181 1181 1181 1177 1177 1177 1177 1177 1177 1177 1177 1181 1185 1189 1193 1193 1197 0 0 0 0 0 0 1647 1647 1655 1663 1671 1671 1671 1663 1663 1663 1663 1663 1663 1663 1663 1663 1671 1671 1671 1671 1671 1671 1671 1671 1680 1680 1688 1688 1688 1688 1688 1688 1688 1688 1688 1688 1696 1696 1696 1696 1696 1696 1696 1696 1705 1705 1705 1705 1705 1713 1713 1713 1713 1705 1705 1705 1705 1705 1705 1705 1705 1705 1713 1713 1705 1705 1705 1705 1705 1713 1688 1688 1705 1705 1705 1713 1705 1696 1696 1713 1722 1722 1722 1722 1722 1722 1722 1722 1722 1722 1722 1722 1722 1722 1731 1731 1739 1739 1739 1739 1739 1739 1739 1739 1739 1739 1739 1748 1748 1748 1748 1748 1748 1748 1757 1757 1757 1757 1757 1757 1748 1748 1748 1748 1757 1757 1766 1766 1776 1776 1766 1748 1748 1748 1748 1748 1748 1748 1748 1748 1757 1757 1757 1757 1766 1766 1776 1785 1776 1776 0 0 0 0 0 0 0 0 0 0 0 0 0 0 0 0 4842 4842 4842 4911 4911 4911 4911 4911 4983 4983 4983 5056 5056 4983 4983 4911 4911 4911 4842 4842 4774 4774 4842 4842 4842 4911 4911 4911 4911 4911 4983 4983 4983 4983 4983 4983 4983 4983 4911 4842 4842 4911 0 0 0 0 0 0 0 0 0 0 0 0 0 0 0 0 0 0 0 0 4349 4349 4295 4295 4295 4295 4295 4241 4241 4241 4241 4241 4190 4190 4139 4139 4089 4041 4041 4041 3994 3994 4041 4041 4041 4041 3994 3994 3994 3948 3948 0 0 0 0 0 0 0 0 0 0 0 0
