0 0 0 0 0 0 0 0 0 0 0 0 0 0 0 0 0 0 0 0 0 0 0 0 0 0 0 0 0 0 0 0 2908 2908 2908 2958 2984 2984 3010 3010 3010 3010 3010 3010 3010 3037 3037 3037 3037 3037 3064 3064 3064 3064 3064 3092 3092 3092 3092 3120 3120 3120 3120 3120 3120 3120 3149 3149 3149 3149 3178 3178 3178 3178 3208 3208 3208 3208 3208 3208 3208 3238 3238 3269 3269 3300 3300 3300 3300 3333 3333 3333 3333 3333 3333 3333 3365 3365 3399 3399 4645 4645 4708 4774 4774 4842 4911 4911 4911 5056 4983 4983 5056 5056 5056 5056 5056 5056 5132 5132 5132 5132 5132 5132 5132 5132 5132 5210 5210 5210 5291 5291 5374 5374 5374 5374 5374 5374 5374 5460 5460 5460 5460 5374 5374 5374 5374 5374 5374 5460 5460 5548 5640 5640 5640 5640 5640 5734 5734 5640 5640 5734 5734 5832 5734 5734 5832 5832 5832 5832 5734 5734 5734 5832 5832 5832 4774 4774 4708 4708 4708 4708 4708 4708 4708 4774 4774 4774 4774 4774 4774 4774 4708 4708 5933 5933 5933 5933 5933 5933 5291 5210 5056 5056 5056 5056 5056 5056 4983 4983 4983 4983 4983 4983 5056 5056 5056 5056 5056 5056 5132 5132 5132 5210 5210 5291 5291 5291 5374 5374 5374 5460 5460 5548 5640 5734 5734 5832 5832 5832 5832 5832 5734 5734 5734 5734 5832 5832 5832 5933 5933 5933 6038 6038 2241 2241 2241 2241 2241 2241 2241 2241 2241 2241 2241 2241 2241 2241 2241 2226 2226 2226 2226 2241 2226 2226 2241 2241 2241 2226 2226 2241 2226 2226 2226 2226 2226 2226 2226 2226 2226 2241 2241 2241 2241 2226 2226 2226 2226 2226 2212 2212 2212 2212 2212 2212 2198 2198 2226 2226 2226 2226 3399 3399 3365 3365 3365 3365 3365 3365 3333 3333 3333 3333 3333 3269 3269 3269 2184 2170 2170 2170 2184 2184 3300 3300 3300 3269 3269 3269 3269 3269 3269 3300 3300 3300 3300 3300 3300 3300 3300 3300 3300 3269 3269 3238 3238 3238 3238 3238 3269 3269 3269 3269 3269 3238 3238 3238 3238 3238 3238 3238 3238 3238 3238 3238 3238 3238 3238 3238 3238 3238 3238 3238 3238 3238 3208 3208 3208 3208 3208 3238 3238 3208 3208 3238 3208 3208 3208 3208 3208 3208 3238 3238 3238 3238 3238 3238 3269 3269 3300 3333 3333 3399 3433 3468 3503 3576 3576 4463 4463 4463 4463 4405 4405 4405 4405 4405 4405 4405 4405 4405 4405 4405 4405 4405 4405 4405 4349 4349 4405 4349 4349 4349 6146 6146 6146 6146 6146 6146 6259 6259 6259 6259 6259 6259 6259 6259 6146 6146 6259 6259 6259 6375 6375 6497 6622 6622 6753 6753 6753 6753 6753 6753 6753 6753 6753 6753 6622 6622 6622 6622 6753 6753 6753 6753 6753 6753 6753 6753 6753 6753 6753 6753 6497 6497 6497 6497 6497 6497 6497 6497 6497 6497 6622 6622 6622 6497 6497 6497 6497 6497 6497 6497 6497 6497 6622 6622 6622 6622 6622 6497 6497 6497 6497 6497 6375 6375 6375 6375 6375 6375 6375 6375 6497 6497 6497 6497 6497 6497 6497 6497 6497 6497 6497 6497 6497 6497 6622 6622 6622 4522 4522 4522 4522 4582 4582 4582 4582 4522 4522 4522 4522 4522 4463 4463 4463 4463 4463 4405 4405 4349 4295 4295 4295 4295 4295 4295 4295 4295 4295 4190 4190 4190 4190 4190 4139 4139 4139 4089 4089 4089 4089 4089 4089 4089 4089 0 0 0 0 0 0 0 0 3859 3859 3859 3859 3859 3948 3948 3948 3994 3994 3994 3994 4041 0 0 0 0 0 0 0 0 0 0 0 0 0 0 0 0 0 0 0 0 0 0
0 0 0 0 0 0 0 0 0 0 0 0 0 0 0 0 0 0 0 0 0 0 0 0 0 0 0 0 0 0 0 0 2908 2908 2908 2958 2984 2984 3010 3010 3010 3010 3010 3010 3010 3037 3037 3037 3037 3064 3064 3064 3064 3064 3064 3092 3092 3092 3092 3092 3120 3120 3120 3120 3120 3120 3149 3178 3149 3149 3178 3178 3178 3208 3208 3208 3208 3208 3208 3208 3208 3238 3238 3269 3269 3300 3300 3300 3300 3333 3333 3333 3333 3333 3333 3333 3365 3365 3399 3399 4645 4645 4708 4774 4774 4842 4911 4911 4911 4983 4983 4983 5056 5056 5056 5056 5056 5056 5132 5132 5132 5132 5132 5132 5132 5132 5132 5210 5210 5210 5291 5291 5374 5374 5374 5374 5374 5374 5374 5460 5460 5460 5460 5374 5374 5374 5374 5374 5374 5374 5374 5460 5548 5548 5548 5548 5548 5640 5640 5640 5640 5640 5734 5734 5734 5734 5734 5734 5734 5734 5734 5734 5734 5734 5734 5734 4774 4774 4708 4708 4774 4774 4708 4708 4774 4774 4774 4774 4774 4774 4774 4774 4708 4708 5832 5832 5832 5832 5832 5832 5734 5291 5056 5056 5056 5056 5056 5056 4983 4983 4983 4983 4983 4983 5056 5056 5056 5056 5056 5056 5132 5132 5132 5210 5210 5291 5291 5291 5374 5374 5374 5460 5460 5640 5640 5734 5832 5832 5832 5832 5832 5832 5734 5734 5734 5734 5832 5832 5832 5933 5933 6038 6038 6038 2241 2241 2241 2241 2241 2241 2241 2241 2241 2241 2241 2241 2241 2241 2241 2241 2241 2241 2241 2241 2241 2241 2241 2241 2241 2241 2241 2241 2226 2226 2226 2226 2226 2241 2226 2226 2241 2241 2241 2241 2241 2226 2226 2226 2226 2226 2226 2212 2212 2212 2212 2212 2198 2198 2226 2226 2226 2212 2212 3399 3399 3365 3365 3365 3365 3365 3333 3333 3333 3333 3333 3269 2198 2170 2170 2170 2170 2170 2184 2184 2170 2170 3300 3269 3269 3269 3269 3269 3269 3300 3300 3300 3300 3333 3333 3333 3300 3300 3300 3300 3269 3269 3269 3269 3269 3269 3269 3269 3269 3269 3269 3269 3269 3238 3238 3238 3238 3238 3238 3238 3238 3269 3238 3238 3238 3269 3269 3269 3238 3238 3238 3238 3238 3208 3208 3208 3208 3238 3238 3238 3238 3238 3238 3238 3238 3238 3238 3238 3238 3238 3238 3238 3238 3238 3269 3269 3300 3333 3333 3399 3433 3468 3503 3576 3576 4463 4463 4463 4463 4463 4405 4405 4405 4405 4405 4405 4405 4405 4405 4405 4405 4405 4405 4349 4349 4349 4349 4349 4349 4349 6038 6038 6038 6146 6146 6146 6146 6146 6146 6146 6146 6146 6146 6146 6146 6146 6146 6259 6259 6259 6375 6497 6622 6753 6753 6753 6889 6889 6889 6889 6753 6753 6753 6753 6753 6622 6622 6622 6622 6622 6753 6753 6753 6753 6753 6753 6753 6753 6753 6753 6622 6622 6497 6497 6497 6497 6497 6375 6375 6375 6375 6497 6497 6497 6497 6497 6497 6497 6497 6497 6497 6497 6622 6622 6622 6622 6622 6622 6622 6622 6497 6497 6497 6375 6375 6375 6375 6375 6375 6375 6497 6497 6497 6497 6622 6622 6497 6497 6497 6497 6497 6497 6497 6622 6622 6753 6889 4463 4463 4522 4522 4522 4582 4522 4522 4522 4522 4522 4463 4463 4463 4463 4463 4463 4463 4405 4405 4349 4349 4295 4295 4295 4295 4295 4295 4295 4295 4190 4190 4190 4190 4190 4139 4139 4139 4089 4089 4089 4089 4089 4089 4089 4041 4041 0 0 0 0 0 0 0 3816 3816 3859 3859 3859 3903 3948 3948 3948 3948 3994 3994 4041 0 0 0 0 0 0 0 0 0 0 0 0 0 0 0 0 0 0 0 0 0 0
0 0 0 0 0 0 0 0 0 0 0 0 0 0 0 0 0 0 0 0 0 0 0 0 0 0 0 0 0 0 0 0 2908 2908 2933 2958 2984 2984 3010 3010 3010 3010 3010 3010 3010 3037 3037 3037 3037 3037 3037 3037 3037 3037 3064 3092 3092 3092 3092 3092 3120 3120 3120 3120 3120 3149 3149 3178 3149 3149 3178 3178 3178 3208 3208 3208 3208 3208 3208 3208 3238 3238 3269 3269 3269 3300 3300 3300 3300 3333 3333 3333 3333 3333 3333 3333 3365 3365 3399 3399 4708 4708 4774 4842 4842 4911 4911 4911 4911 4983 4983 4983 5056 5056 5056 5056 5056 5132 5132 5132 5132 5132 5132 5132 5132 5132 5132 5132 5210 5210 5210 5291 5291 5374 5374 5374 5374 5374 5374 5460 5460 5460 5460 5374 5374 5374 5374 5374 5374 5374 5374 5374 5460 5460 5460 5460 5460 5548 5548 5548 5640 5640 5640 5734 5640 5640 5640 5734 5734 5734 5640 5640 5640 5734 5734 5734 5734 4774 4708 4708 4708 4708 4708 4708 4774 4774 4774 4842 4842 4842 4842 4774 4774 5640 5734 5734 5832 5832 5832 5734 5734 5548 5132 5056 5056 5056 5056 5056 5056 5056 5056 4983 4983 4983 5056 5056 5056 5056 5056 5056 5132 5132 5210 5210 5210 5291 5291 5374 5374 5374 5374 5460 5548 5640 5640 5734 5832 5832 5832 5832 5832 5832 5832 5832 5832 5832 5832 5832 5832 5832 5933 6146 6146 0 2241 2241 2241 2241 2241 2241 2241 2241 2241 2241 2241 2241 2241 2241 2241 2241 2241 2241 2241 2241 2241 2241 2241 2241 2241 2226 2226 2241 2226 2226 2226 2226 2226 2241 2241 2241 2241 2241 2241 2241 2241 2226 2226 2226 2226 2226 2226 2226 2212 2212 2212 2212 2212 2212 2212 2212 2226 2212 2212 2212 2226 2226 2226 2226 3365 2226 2226 2226 2212 2212 3333 3333 2198 2170 2170 2184 2170 2170 2184 2184 2170 2170 2170 3269 3269 3269 3269 3269 3300 3300 3300 3300 3300 3333 3300 3300 3300 3300 3333 3269 3269 3269 3269 3269 3269 3269 3269 3269 3269 3238 3238 3269 3269 3238 3238 3238 3238 3238 3238 3269 3269 3269 3238 3238 3238 3238 3269 3269 3269 3238 3238 3238 3238 3238 3238 3238 3238 3238 3238 3238 3238 3238 3238 3238 3238 3238 2103 2103 2103 2116 2116 3208 3238 3269 3269 3269 3300 2103 2103 3433 2078 2078 2078 2078 2103 2116 2129 4463 4463 4463 4463 4463 4463 4463 4463 2103 2103 2103 2103 2103 2090 2090 2090 4349 4349 4349 4349 4349 4349 4349 5933 5933 2053 2053 2053 2053 2053 2053 6038 6038 6038 6038 6038 6038 6038 6146 6146 6146 6259 6259 6259 6375 6622 6753 6753 6889 6889 7030 6889 6889 6889 6889 6753 6753 6753 6753 6622 6622 6622 6622 6622 6622 6622 6753 6753 6753 6753 6753 6753 6753 6622 6622 6497 6497 6375 6375 6259 6259 6259 6259 6259 6259 6497 6497 6497 6497 6497 6497 6375 6375 6497 6497 6497 6622 6622 6622 6622 6622 6622 6622 6622 6497 6497 6375 6375 6375 6375 6497 6375 6375 6497 6497 6622 6622 6622 6622 6622 6622 6622 6622 6622 6622 6622 6622 6753 6889 4463 4463 4463 4522 4522 4522 4522 4522 4522 4522 4522 4522 4463 4463 4463 4463 4463 4463 4463 4405 4405 4349 4349 4295 4295 4295 4295 4295 4295 4295 4295 4190 4190 4190 4190 4190 4139 4139 4139 4139 4089 4089 4089 4089 4089 4041 4041 4041 0 0 0 0 0 0 0 3816 3816 3859 3859 3859 3903 3948 3948 3948 3948 3994 3994 4041 0 0 0 0 0 0 0 0 0 0 0 0 0 0 0 0 0 0 0 0 0 0
0 0 0 0 0 0 0 0 0 0 0 0 0 0 0 0 0 0 0 0 0 0 0 0 0 0 0 0 0 0 0 0 2908 2908 2933 2958 2984 2984 3010 3010 3010 3010 3010 3010 3010 3010 3010 3037 3037 3037 3037 3037 3037 3037 3064 3092 3092 3092 3092 3092 3120 3120 3120 3120 3149 3149 3149 3178 3178 3178 3178 3178 3208 3208 3208 3208 3208 3208 3238 3238 3238 3269 3269 3269 3269 3300 3300 3300 3333 3333 3333 3333 3333 3365 3365 3365 3365 3365 3399 4708 4708 4774 4774 4842 4842 4911 4911 4911 4983 4983 4983 4983 5056 5056 5056 5132 5132 5132 5132 5132 5210 5210 5210 5132 5132 5132 5132 5132 5210 5210 5210 5291 5291 5374 5374 5374 5374 5374 5374 5374 5460 5460 5460 5374 5374 5374 5374 5210 5210 5291 5291 5291 5374 5374 5374 5374 5460 5460 5460 5460 5548 5548 5548 5640 5640 5548 5548 5548 5548 5548 5548 5548 5548 5640 5548 5548 5640 4774 4708 4708 4708 4708 4708 4708 4774 4774 4774 4842 4842 4842 4911 4983 5056 5548 5640 5640 5734 5734 5734 5734 5734 5548 5132 5132 5056 5056 5056 5056 5056 5056 5056 5056 4983 4983 5056 5056 5056 5056 5132 5132 5132 5132 5210 5291 5291 5291 5291 5374 5374 5374 5460 5548 5548 5640 5734 5734 5832 5832 5832 5832 5832 5832 5832 5832 5832 5832 5832 5832 5832 5832 6038 6038 6038 0 2241 2241 2241 2241 2241 2241 2241 2241 2241 2241 2241 2241 2241 2241 2241 2241 2241 2241 2241 2241 2241 2241 2241 2241 2241 2226 2226 2241 2241 2226 2226 2226 2226 2241 2241 2241 2241 2241 2241 2241 2241 2226 2226 2226 2226 2226 2226 2226 2226 2226 2212 2212 2212 2212 2212 2212 2226 2212 2212 2212 2226 2212 2212 2226 2226 2226 2226 2226 2212 2212 2198 2198 2198 2184 2184 2184 2184 2184 2184 2184 2170 2170 2170 2170 3269 3269 3269 3269 3300 3300 3300 3300 3300 3333 3300 3300 3300 3300 3300 3269 3269 3269 3269 3269 3269 3269 3269 3269 3269 3238 3238 3269 3269 3269 3238 3238 3238 3238 3238 3238 3269 3269 3238 3238 3238 3238 3269 3269 3269 3238 3238 3238 3238 3238 3238 3238 3238 3238 3238 3238 3238 3238 3238 3238 3238 2103 2103 2103 2103 2116 2116 2116 2116 2116 3238 3269 3333 2103 2103 2090 2078 2078 2078 2078 2103 2103 2116 2116 2103 2090 2090 2090 4463 4463 2103 2103 2103 2103 2103 2103 2090 2090 2090 2090 2090 2090 4349 4349 4405 4405 2078 2065 2053 2053 2053 2053 2053 2053 2065 2065 2090 2090 2090 5933 5933 6038 6146 6146 6146 6146 6146 6259 6497 6753 6753 6889 7030 7030 7030 7030 7030 7030 7030 6889 6753 6753 6622 6497 6497 6497 6497 6497 6497 6622 6622 6622 6622 6622 6622 6622 6497 6497 6497 6375 6259 6259 6146 6146 6146 6146 6146 6146 6259 6259 6375 6497 6497 6375 6375 6375 6375 6375 6497 6497 6622 6622 6753 6753 6753 6753 6622 6622 6622 6497 6497 6497 6497 6497 6497 6497 6622 6622 6622 6622 6622 6622 6622 6622 6622 6622 6753 6753 6753 6753 6889 6889 4463 4463 4522 4522 4522 4522 4522 4522 4522 4522 4522 4463 4463 4463 4463 4463 4463 4463 4463 4405 4405 4405 4349 4349 4349 4349 4349 4295 4295 4295 4295 4190 4190 4190 4190 4190 4190 4139 4139 4139 4089 4089 4089 4089 4089 4041 4041 4041 4041 4089 0 0 0 0 0 0 0 0 3994 3994 3948 3948 3948 3948 3994 3994 4041 0 0 0 0 0 0 0 0 0 0 0 0 0 0 0 0 0 0 0 0 0 0 0
0 0 0 0 0 0 0 0 0 0 0 0 0 0 0 0 0 0 0 0 0 0 0 0 0 0 0 0 0 0 0 0 2908 2908 2933 2984 2984 3010 3010 3010 3010 3010 3010 3010 3010 3010 3010 3037 3037 3037 3037 3037 3037 3037 3064 3092 3092 3092 3092 3092 3120 3120 3120 3120 3149 3149 3149 3178 3178 3178 3178 3178 3208 3208 3208 3208 3208 3208 3208 3208 3238 3238 3269 3269 3269 3300 3300 3300 3333 3333 3333 3333 3333 3365 3365 3365 3365 3365 3399 4708 4774 4774 4774 4842 4842 4842 4911 4911 4983 4983 4983 4983 4983 5056 5056 5132 5132 5132 5132 5132 5132 5210 5210 5132 5132 5132 5132 5132 5210 5210 5210 5291 5291 5291 5291 5291 5291 5291 5291 5374 5374 5374 5374 5374 5374 5291 5291 5132 5132 5210 5210 5210 5291 5291 5291 5291 5374 5374 5374 5374 5460 5460 5374 5374 5460 5460 5460 5460 5460 5460 5460 5460 5460 5460 5460 5460 5548 4842 4774 4774 4774 4708 4708 4708 4774 4774 4774 4842 4842 4842 4911 4983 5132 5291 5460 5548 5640 5640 5640 5548 5548 5291 5132 5132 5056 5056 5056 5056 5056 5056 5056 5056 4983 4983 5056 5056 5056 5056 5132 5132 5132 5210 5210 5291 5291 5291 5291 5374 5374 5460 5548 5640 5640 5734 5734 5734 5832 5832 5832 5832 5832 5832 5832 5832 5832 5832 5832 5832 5832 5832 5933 6038 6038 0 2241 2241 2241 2241 2241 2241 2241 2241 2241 2241 2241 2241 2241 2241 2241 2241 2241 2241 2241 2241 2241 2241 2241 2241 2241 2241 2241 2241 2241 2241 2241 2241 2241 2241 2241 2241 2241 2241 2241 2241 2241 2226 2226 2226 2226 2226 2226 2226 2226 2226 2226 2212 2212 2212 2226 2226 2226 2226 2212 2212 2226 2212 2212 2226 2226 2226 2226 2226 2212 2212 2198 2198 2198 2184 2184 2184 2184 2170 2170 2170 2184 2170 2170 2170 3269 3269 3269 3269 3300 3300 3300 3300 3300 3333 3333 3333 3333 3333 3300 3300 3300 3269 3269 3269 3269 3269 3269 3269 3269 3238 3238 3269 3238 3238 3238 3269 3269 3238 3238 3238 3269 3269 3238 3238 3238 3238 3269 3269 3269 3238 3238 3238 3238 3238 3238 3238 3238 3238 3238 3238 3238 3238 3238 3238 2103 2103 2103 2103 2103 2116 2116 2116 2116 2116 2116 2116 2116 2103 2103 2090 2078 2078 2078 2078 2090 2103 2103 2103 2103 2090 2090 2090 2090 2090 2090 2090 2103 2103 2103 2103 2103 2090 2090 2090 2090 2090 2090 2090 2090 2078 2078 2065 2065 2065 2065 2065 2065 2065 2065 2065 2065 2090 2090 2090 5933 6038 6146 6146 6146 6146 6146 6146 6375 6753 6753 6889 7030 7030 7030 2016 2016 2016 2016 2016 2016 2016 6375 2028 2028 6259 6259 6259 6259 6259 6375 6375 6497 6497 6497 6497 6375 6375 6259 6259 6146 6146 6038 6038 6038 6038 6038 6146 6146 6259 6259 6375 6259 6259 6259 6259 6259 6259 6375 6497 6497 6622 6753 6753 6753 6753 6753 6753 6622 6622 6622 6622 6497 6497 6497 6497 6497 6497 6497 6497 6375 6375 6497 6497 6622 6622 6753 4241 4241 6889 6889 4463 4463 4463 4522 4522 4522 4522 4522 4522 4522 4522 4463 4463 4463 4463 4463 4463 4463 4463 4405 4405 4405 4349 4349 4349 4349 4349 4349 4295 4295 4295 4295 4241 4190 4190 4190 4190 4139 4139 4139 4139 4089 4089 4089 4089 4089 4041 4041 4041 4041 4041 0 0 0 0 0 0 0 0 0 3948 3948 3948 3948 3948 3994 4041 0 0 0 0 0 0 0 0 0 0 0 0 0 0 0 0 0 0 0 0 0 0 0 0
0 0 0 0 0 0 0 0 0 0 0 0 0 0 0 0 0 0 0 0 0 0 0 0 0 0 0 0 0 0 0 0 2908 2908 2933 2958 2984 2984 3010 3010 3010 3010 3010 3010 3010 3037 3037 3037 3037 3064 3064 3064 3064 3064 3064 3092 3092 3092 3092 3092 3120 3120 3120 3120 3149 3149 3178 3178 3178 3178 3178 3178 3178 3178 3208 3208 3208 3208 3208 3208 3238 3238 3269 3269 3269 3300 3300 3300 3333 3333 3333 3333 3365 3365 3365 3365 3399 3399 3433 3468 4774 4774 4774 4842 4842 4842 4842 4842 4911 4983 4983 4983 4983 4983 5056 5056 5132 5132 5132 5132 5132 5132 5132 5132 5132 5132 5132 5132 5132 5132 5132 5210 5210 5210 5210 5210 5210 5210 5210 5210 5210 5210 5291 5210 5210 5210 5210 5132 5132 5210 5210 5210 5291 5291 5291 5291 5291 5291 5291 5291 5291 5291 5291 5291 5374 5374 5374 5374 5374 5374 5374 5374 5374 5374 5374 5374 5210 4842 4774 4774 4774 4774 4708 4708 4774 4774 4774 4842 4842 4911 4911 4983 5132 5291 5374 5374 5460 5460 5548 5374 5291 5210 5132 5132 5056 5056 5056 5056 5056 5056 5056 5056 5056 5056 5056 5056 5056 5132 5132 5210 5210 5210 5291 5291 5291 5291 5291 5374 5374 5460 5548 5640 5734 5734 5734 5832 5832 5832 5734 5734 5832 5832 5832 5832 5832 5832 5832 5832 5832 5832 5933 5933 5933 0 2256 2256 2241 2241 2241 2241 2241 2241 2241 2241 2241 2241 2241 2241 2241 2241 2241 2241 2241 2241 2241 2241 2241 2241 2241 2241 2241 2241 2241 2241 2241 2226 2226 2241 2241 2241 2241 2241 2241 2241 2241 2226 2226 2226 2226 2226 2226 2226 2226 2226 2226 2226 2212 2212 2226 2226 2226 2226 2226 2226 2226 2212 2212 2226 2226 2226 2226 2212 2212 2212 2198 2198 2198 2184 2184 2184 2184 2170 2170 2170 2170 2170 2170 2170 2170 3269 3269 3300 3300 3300 3300 3300 3300 3333 3333 3333 3333 3300 3300 3300 3300 3300 3300 3300 3269 3269 3269 3269 3269 3269 3269 3269 3238 3238 3238 3269 3238 3238 3238 3238 3269 3238 3238 3238 3238 3238 3269 3269 3269 3238 3238 3238 3238 3238 3238 3238 3238 3238 3238 3238 3238 3208 3208 3208 2103 2103 2103 2116 2116 2116 2116 2116 2116 2116 2116 2116 2116 2103 2103 2090 2090 2090 2090 2090 2090 2103 2103 2103 2103 2090 2090 2090 2090 2090 2090 2090 2103 2103 2103 2103 2090 2090 2090 2090 2090 2090 2090 2090 2090 2078 2078 2065 2065 2065 2065 2065 2065 2065 2065 2065 2065 2065 2065 2065 2078 6038 6038 6038 6038 6038 6038 6038 6375 6753 6889 6889 2040 2040 2028 2016 2016 2016 2016 2016 2005 2005 2016 2016 2028 2028 6259 6259 6259 6259 6259 6259 6259 6259 6375 6259 6259 6146 6146 6146 6038 6038 6038 6038 6038 6038 6038 6038 6038 6146 6146 6146 6146 6146 6146 6038 6038 6146 6146 6259 6375 6497 6622 6753 6889 6889 6889 6753 6753 6622 6622 6497 6497 6497 6497 6497 6259 6259 6259 6259 6146 6146 6375 6375 6497 6622 6753 4241 4241 4349 4405 4463 4463 4463 4522 4522 4522 4522 4522 4522 4522 4463 4463 4463 4463 4463 4463 4463 4463 4463 4405 4405 4405 4349 4349 4349 4349 4349 4349 4295 4295 4295 4295 4241 4190 4190 4190 4190 4139 4139 4139 4139 4089 4089 4089 4089 4041 4041 4041 4041 4041 4041 0 0 0 0 0 0 0 0 4041 3994 3994 3994 3994 3994 4041 0 0 0 0 0 0 0 0 0 0 0 0 0 0 0 0 0 0 0 0 0 0 0 0 0
0 0 0 0 0 0 0 0 0 0 0 0 0 0 0 0 0 0 0 0 0 0 0 0 0 0 0 0 0 0 0 0 2908 2908 2933 2958 2984 2984 3010 3010 3010 3010 3010 3010 3010 3037 3037 3037 3037 3064 3064 3064 3064 3064 3064 3092 3092 3092 3092 3092 3120 3120 3120 3120 3149 3149 3178 3178 3178 3178 3178 3178 3178 3178 3208 3208 3208 3208 3208 3208 3238 3269 3269 3269 3269 3300 3300 3300 3300 3333 3333 3333 3365 3399 3399 3399 3399 3433 3433 3468 4774 4774 4774 4774 4842 4842 4842 4842 4911 4911 4983 4983 4983 4983 5056 5056 5056 5132 5132 5132 5132 5132 5132 5132 5132 5132 5132 5132 5132 5132 5132 5132 5132 5132 5132 5210 5210 5210 5132 5132 5210 5210 5210 5210 5210 5132 5132 5132 5132 5210 5210 5210 5210 5132 5132 5132 5132 5132 5132 5132 5132 5210 5210 5210 5210 5210 5210 5210 5210 5291 5291 5291 5291 5210 5210 5210 5056 4842 4774 4774 4774 4774 4774 4774 4774 4774 4774 4774 4842 4842 4983 4983 5132 5210 5291 5291 5291 5374 5374 5291 5291 5210 5132 5132 5056 5056 5056 5056 5056 5056 5056 5056 5056 5056 5056 5056 5056 5132 5210 5210 5210 5210 5291 5291 5291 5291 5291 5374 5374 5460 5640 5640 5734 5734 5734 5832 5832 5832 5734 5734 5734 5832 5832 5832 5832 5832 5933 5933 5933 5933 5933 5933 5933 0 2241 2241 2241 2241 2241 2241 2241 2241 2256 2241 2241 2241 2241 2241 2241 2241 2241 2241 2241 2241 2241 2241 2241 2241 2241 2241 2241 2241 2241 2241 2241 2226 2226 2241 2241 2241 2241 2241 2241 2241 2241 2226 2226 2226 2226 2226 2226 2226 2226 2226 2226 2226 2226 2226 2226 2226 2226 2226 2226 2226 2226 2226 2226 2226 2226 2226 2226 2212 2212 2212 2198 2198 2212 2184 2184 2198 2184 2184 2170 2170 2170 2170 2170 2170 2170 2170 3300 3300 3300 3300 3300 3300 3333 3333 3333 3300 3300 3300 3300 3300 3300 3300 3300 3300 3300 3269 3269 3269 3269 3269 3269 3238 3238 3238 3238 3238 3238 3238 3238 3238 3269 3238 3238 3238 3238 3238 3269 3238 3238 3238 3238 3238 3238 3238 3238 3238 3238 3238 3238 3238 3208 3208 3208 3208 2103 2103 2116 2116 2116 2116 2116 2116 2116 2116 2116 2116 2116 2116 2116 2103 2103 2103 2103 2103 2103 2103 2103 2103 2103 2103 2103 2103 2090 2090 2090 2090 2090 2090 2090 2090 2090 2090 2090 2090 2090 2090 2090 2090 2078 2078 2078 2078 2078 2065 2065 2065 2065 2065 2065 2065 2065 2065 2065 2065 2065 2053 2053 2053 2040 2040 2040 2053 2053 2053 2053 2053 2040 2040 2028 2016 2016 2016 2016 2016 2005 2005 2016 2016 2028 2016 2016 2028 6259 6146 6146 6259 6146 6146 6375 6259 6146 6146 6146 6146 6038 6038 6038 6038 5933 5933 6038 6038 6038 6038 6038 6146 6146 6146 6038 6038 6038 6038 6038 6038 6038 6375 6497 6753 6753 6753 6889 6889 6753 6622 6622 6497 6497 6497 6497 6375 6259 6146 6146 6038 6038 6038 6038 6038 6375 6497 6622 4241 4241 4349 4405 4463 4463 4522 4522 4522 4522 4522 4522 4522 4522 4463 4463 4463 4463 4463 4463 4463 4463 4463 4463 4405 4405 4349 4349 4349 4349 4349 4349 4295 4295 4295 4241 4190 4190 4190 4190 4190 4139 4139 4139 4089 4089 4089 4089 4089 4041 4041 4041 4041 4041 4041 0 0 0 0 0 0 0 4089 4041 3994 3994 3994 4041 4041 4041 0 0 0 0 0 0 0 0 0 0 0 0 0 0 0 0 0 0 0 0 0 0 0 0 0
0 0 0 0 0 0 0 0 0 0 0 0 0 0 0 0 0 0 0 0 0 0 0 0 0 0 0 0 0 0 0 0 2908 2908 2933 2958 2984 2984 3010 3010 3010 3010 3037 3037 3037 3037 3037 3037 3037 3064 3064 3064 3064 3064 3064 3092 3092 3092 3092 3092 3120 3120 3120 3120 3149 3149 3149 3178 3178 3178 3178 3178 3178 3178 3208 3208 3208 3208 3208 3208 3238 3269 3269 3269 3269 3300 3300 3300 3300 3333 3333 3333 3365 3399 3399 3399 3433 3433 3433 3468 4774 4774 4774 4774 4774 4842 4842 4842 4911 4911 4983 4983 5056 5056 5056 5056 5056 5132 5132 5132 5132 5132 5132 5132 5132 5132 5132 5132 5132 5132 5132 5132 5132 5132 5132 5132 5132 5132 5132 5132 5132 5132 5132 5132 5132 5132 5132 5132 5132 5132 5132 5132 5132 5132 5132 5132 5132 5132 5132 5132 5132 5132 5132 5132 5132 5210 5132 5132 5132 5132 5210 5132 5132 5056 5056 5056 4983 4842 4774 4774 4774 4774 4774 4774 4774 4774 4774 4774 4842 4842 4983 4983 5056 5132 5210 5291 5291 5291 5291 5210 5210 5132 5132 5056 5056 5056 5056 5056 5056 5056 5056 5056 5056 5056 5056 5056 5056 5132 5210 5210 5291 5291 5291 5291 5291 5291 5291 5374 5374 5460 5640 5640 5734 5734 5734 5832 5832 5832 5734 5734 5734 5832 5832 5832 5832 5832 5933 5933 5933 5933 5933 5933 5933 0 2241 2241 2241 2241 2241 2241 2241 2241 2241 2241 2241 2241 2241 2241 2241 2241 2241 2241 2241 2241 2241 2241 2241 2241 2241 2241 2241 2241 2241 2241 2241 2241 2241 2241 2241 2241 2241 2241 2241 2241 2241 2226 2226 2226 2226 2226 2226 2226 2226 2226 2226 2226 2226 2226 2226 2226 2226 2226 2226 2226 2226 2226 2226 2226 2226 2226 2226 2212 2212 2212 2212 2212 2212 2184 2184 2198 2198 2184 2170 2170 2170 2170 2170 2170 2170 2170 3300 3300 3300 3300 3300 3300 3333 3333 3333 3300 3300 3300 3300 3300 3300 3300 3300 3300 3300 3269 3269 3269 3269 3269 3269 3238 3238 3238 3238 3238 3238 3238 3269 3269 3269 3269 3269 3269 3269 3238 3238 3238 3238 3238 3238 3238 3238 3238 3238 3238 3238 3238 3238 3238 3208 3208 3208 3208 2103 2103 2116 2116 2116 2116 2116 2116 2116 2116 2116 2116 2116 2116 2116 2103 2103 2103 2103 2103 2103 2103 2103 2103 2103 2103 2103 2103 2103 2090 2090 2090 2090 2090 2090 2090 2090 2090 2090 2090 2090 2090 2090 2078 2078 2078 2078 2078 2078 2078 2078 2065 2065 2065 2065 2065 2065 2065 2065 2065 2065 2053 2053 2053 2040 2040 2040 2053 2053 2053 2053 2053 2040 2040 2040 2028 2028 2028 2028 2028 2016 2016 2016 2028 2016 2016 2016 2016 2016 2028 6146 6146 6146 6146 6259 6259 6146 6146 6038 6038 6038 6038 6038 6038 5933 5933 6038 6038 6038 6038 6038 6038 6038 6038 6038 5933 5933 5933 5933 6038 6038 6259 6497 6753 6753 6753 6889 6889 6753 6753 6622 6622 6622 6497 6497 6375 6259 6146 6146 6038 6038 6038 6038 6038 6375 6375 6622 4349 4349 4405 4463 4463 4522 4522 4582 4582 4582 4522 4522 4522 4522 4463 4463 4463 4463 4463 4463 4463 4463 4405 4405 4349 4349 4349 4349 4349 4349 4349 4349 4295 4295 4295 4241 4190 4190 4190 4190 4190 4139 4139 4139 4089 4089 4089 4089 4089 4041 4041 3994 3994 3994 3994 0 0 0 0 0 0 0 4089 4041 4041 4041 4041 4041 4041 4089 0 0 0 0 0 0 0 0 0 0 0 0 0 0 0 0 0 0 0 0 0 0 0 0 0
0 0 0 0 0 0 0 0 0 0 0 0 0 0 0 0 0 0 0 0 0 0 0 0 0 0 0 0 0 0 0 0 2908 2908 2933 2958 2984 2984 3010 3010 3010 3010 3037 3037 3037 3037 3037 3037 3064 3064 3064 3064 3064 3064 3064 3092 3092 3092 3092 3092 3120 3120 3120 3120 3149 3149 3149 3178 3178 3178 3178 3178 3178 3178 3208 3208 3208 3208 3208 3208 3238 3269 3269 3269 3300 3300 3300 3300 3333 3333 3333 3333 3365 3399 3433 3433 3433 3433 3468 3468 4774 4774 4774 4774 4774 4842 4842 4842 4911 4911 4983 4983 5056 5056 5056 5056 5056 5056 5056 5132 5132 5132 5132 5132 5132 5132 5132 5132 5132 5132 5132 5132 5132 5132 5132 5132 5056 5056 5132 5132 5132 5132 5132 5132 5132 5132 5132 5132 5132 5132 5132 5132 5056 5056 5056 5056 5056 5056 5056 5056 5056 5056 5056 5056 5056 5132 5132 5132 5132 5132 5132 5132 5132 5056 5056 5056 4983 4842 4774 4774 4774 4774 4774 4774 4774 4774 4774 4774 4842 4842 4983 4983 5056 5056 5132 5132 5132 5132 5132 5132 5132 5132 5056 5056 5056 5056 5056 5056 5056 5056 5056 5056 5056 5056 5056 5056 5132 5132 5210 5210 5291 5291 5291 5291 5291 5291 5374 5374 5460 5548 5640 5640 5734 5734 5734 5832 5832 5832 5734 5734 5734 5832 5832 5832 5832 5832 5933 5933 5933 5933 5933 5933 5933 5933 0 2241 2241 2241 2241 2241 2241 2241 2241 2241 2241 2241 2241 2241 2241 2241 2241 2241 2241 2241 2241 2241 2241 2241 2241 2241 2241 2241 2241 2241 2241 2241 2241 2241 2241 2241 2241 2241 2241 2241 2241 2226 2226 2226 2226 2226 2226 2226 2226 2226 2226 2226 2226 2226 2226 2226 2226 2226 2226 2226 2226 2226 2226 2226 2226 2226 2226 2212 2212 2212 2212 2212 2212 2184 2184 2198 2198 2184 2184 2184 2184 2184 2184 2170 2170 2170 2184 3269 3269 3300 3300 3300 3333 3333 3333 3333 3333 3300 3300 3300 3300 3300 3300 3300 3300 3300 3300 3269 3269 3269 3269 3269 3269 3269 3269 3269 3238 3238 3269 3269 3269 3269 3269 3269 3269 3238 3238 3238 3238 3238 3238 3238 3238 3238 3238 3238 3238 3238 3238 3238 3208 3208 3208 2116 2116 2116 2116 2116 2116 2116 2116 2116 2116 2116 2116 2116 2116 2116 2116 2103 2103 2103 2103 2103 2103 2103 2103 2103 2103 2103 2103 2103 2103 2090 2090 2090 2090 2090 2090 2090 2090 2090 2090 2090 2090 2090 2078 2078 2078 2078 2078 2078 2078 2078 2078 2065 2065 2065 2065 2065 2065 2065 2065 2053 2053 2053 2053 2053 2053 2053 2053 2053 2053 2053 2053 2053 2040 2040 2040 2040 2028 2028 2028 2028 2028 2016 2016 2028 2016 2016 2016 2016 2016 2028 6146 6146 6146 6146 6259 6259 6146 6038 6038 6038 6038 6038 5933 5933 5933 5933 5933 6038 6038 6038 6038 6038 6038 5933 5933 5933 5933 5933 5933 6038 6038 6146 6375 6753 6753 6753 6889 6889 6753 6753 6753 6622 6622 6622 6622 6497 6259 6259 6146 6038 6038 6038 6038 6038 6375 6375 6375 4463 4463 4463 4522 4522 4522 4522 4645 4582 4582 4522 4522 4522 4463 4463 4463 4463 4463 4463 4463 4463 4463 4405 4405 4349 4349 4349 4349 4349 4349 4349 4295 4295 4295 4295 4241 4190 4190 4190 4190 4190 4190 4139 4139 4089 4089 4089 4089 4041 4041 4041 3994 3994 3994 3994 0 0 0 0 0 0 0 0 0 4041 3994 3994 4041 4041 4041 0 0 0 0 0 0 0 0 0 0 0 0 0 0 0 0 0 0 0 0 0 0 0 0 0
0 0 0 0 0 0 0 0 0 0 0 0 0 0 0 0 0 0 0 0 0 0 0 0 0 0 0 0 0 0 0 0 2933 2933 2958 2984 2984 2984 3010 3010 3010 3010 3037 3037 3037 3037 3037 3037 3064 3064 3064 3064 3064 3092 3092 3092 3092 3092 3092 3120 3120 3120 3120 3120 3149 3149 3149 3178 3178 3178 3178 3178 3178 3178 3208 3208 3208 3208 3238 3238 3238 3269 3269 3300 3300 3300 3300 3300 3300 3333 3333 3333 3365 3399 3433 3433 3433 3433 3468 3468 4708 4774 4774 4774 4774 4842 4842 4842 4911 4911 4983 4983 5056 5056 5056 5056 5056 5056 5056 5056 5056 5056 5056 5056 5056 5056 5132 5132 5132 5132 5132 5132 5132 5056 5056 5056 5056 5056 5056 5056 5056 5132 5132 5132 5132 5132 5132 5132 5132 5132 5132 5132 5056 5056 5056 5056 5056 5056 5056 5056 5056 5056 5056 5056 5056 5056 5056 5056 5056 5056 5056 5056 5056 5056 5056 5056 4983 4911 4842 4774 4774 4774 4774 4774 4774 4774 4774 4774 4842 4911 4911 4983 4983 5056 5056 5132 5132 5132 5056 5056 5056 5056 5056 5056 5056 5056 5056 5056 5056 5056 5056 5056 5056 5056 5056 5056 5132 5132 5210 5210 5291 5291 5291 5291 5291 5374 5374 5374 5460 5548 5640 5734 5734 5734 5734 5832 5832 5832 5734 5734 5832 5832 5832 5832 5832 5832 5933 5933 5933 5933 5933 5933 5933 5933 0 2256 2241 2241 2241 2241 2241 2241 2241 2241 2241 2241 2241 2241 2241 2241 2241 2241 2241 2241 2241 2241 2241 2241 2241 2241 2241 2241 2241 2241 2241 2241 2241 2241 2241 2241 2241 2241 2241 2241 2241 2226 2226 2226 2226 2226 2226 2226 2226 2226 2226 2226 2226 2226 2226 2226 2226 2226 2226 2226 2226 2226 2226 2226 2226 2226 2226 2212 2212 2212 2212 2212 2212 2198 2198 2198 2198 2198 2184 2184 2184 2184 2184 2184 2184 2184 2184 3269 3269 3300 3300 3300 3333 3333 3333 3333 3333 3300 3300 3300 3300 3300 3300 3300 3300 3300 3300 3269 3269 3269 3269 3269 3269 3269 3269 3269 3269 3269 3269 3269 3269 3269 3269 3269 3269 3238 3238 3238 3238 3238 3238 3238 3238 3238 3238 3238 3238 3238 3238 3238 3238 3238 3238 2116 2116 2116 2116 2116 2116 2116 2116 2116 2116 2116 2116 2116 2116 2116 2116 2103 2103 2103 2103 2103 2103 2103 2103 2103 2103 2103 2103 2103 2090 2090 2090 2090 2090 2090 2090 2090 2090 2090 2090 2090 2090 2078 2078 2078 2078 2078 2078 2065 2065 2078 2078 2065 2065 2065 2065 2065 2065 2053 2053 2053 2053 2053 2053 2053 2053 2053 2053 2053 2053 2053 2053 2053 2040 2040 2040 2040 2028 2028 2028 2028 2028 2028 2028 2028 2028 2028 2028 2028 2028 2028 6146 6146 6146 6146 6259 6146 6146 6038 6038 6038 5933 5933 5933 5933 5933 5933 5933 6038 6038 6038 6038 6038 6038 5933 5933 5933 5933 5933 5933 6038 6038 6038 6259 6622 6753 6753 6889 6889 6753 6753 6753 6622 6622 6622 6622 6497 6375 6259 6146 6038 6038 6038 6038 6038 6375 4295 4295 4405 4463 4522 4582 4582 4582 4582 4582 4582 4582 4582 4522 4522 4463 4463 4463 4463 4463 4463 4463 4463 4405 4405 4405 4405 4405 4349 4349 4349 4349 4349 4295 4295 4295 4295 4241 4190 4190 4190 4190 4190 4190 4139 4139 4089 4089 4089 4089 4041 4041 4041 4041 4041 4041 4041 0 0 0 0 0 0 0 0 0 0 3994 3994 4041 4041 4041 0 0 0 0 0 0 0 0 0 0 0 0 0 0 0 0 0 0 0 0 0 0 0 0 0
0 0 0 0 0 0 0 0 0 0 0 0 0 0 0 0 0 0 0 0 0 0 0 0 0 0 0 0 0 0 0 0 2933 2933 2958 2984 2984 2984 3010 3010 3010 3037 3037 3037 3037 3037 3064 3064 3064 3064 3064 3064 3064 3092 3092 3092 3092 3092 3120 3120 3120 3120 3120 3120 3149 3149 3149 3178 3178 3178 3178 3178 3178 3178 3208 3208 3208 3208 3238 3238 3269 3269 3269 3269 3300 3300 3300 3300 3300 3333 3333 3333 3365 3399 3433 3433 3468 3468 3468 3468 4708 4774 4774 4774 4774 4842 4842 4842 4911 4911 4983 4983 5056 5056 5056 5056 5056 5056 5056 5056 5056 5056 5056 5056 5056 5056 5056 5056 5132 5132 5132 5132 5056 5056 5056 5056 5056 5056 5056 5056 5056 5132 5132 5132 5132 5132 5132 5132 5132 5132 5132 5132 5056 5056 5056 5056 5056 5056 5056 5056 5056 5056 5056 5056 5056 5056 5056 5056 5056 5056 5056 5056 5056 5056 5056 4983 4983 4911 4842 4842 4842 4774 4774 4774 4774 4774 4774 4774 4842 4911 4911 4983 4983 5056 5056 5056 5056 5056 5056 5056 5056 5056 5056 5056 5056 5056 5056 5056 5056 5056 5056 5056 5056 5056 5056 5056 5132 5132 5210 5210 5210 5291 5291 5291 5291 5374 5374 5460 5460 5548 5640 5640 5734 5734 5832 5832 5832 5832 5832 5832 5832 5832 5933 5832 5832 5832 5933 5933 5933 5933 5933 5933 5933 5933 2241 2241 2241 2241 2256 2241 2241 2241 2241 2241 2241 2241 2241 2241 2241 2241 2241 2241 2241 2241 2241 2241 2241 2241 2241 2241 2241 2241 2241 2241 2241 2241 2241 2241 2241 2241 2241 2241 2241 2241 2226 2226 2226 2226 2226 2226 2226 2226 2226 2226 2226 2226 2226 2226 2226 2226 2226 2226 2226 2226 2226 2226 2226 2226 2212 2212 2226 2212 2212 2212 2212 2212 2212 2184 2184 2184 2184 2184 2184 2184 2184 2184 2184 2184 2170 2170 2170 2170 3300 3300 3300 3333 3333 3333 3333 3333 3333 3333 3300 3300 3300 3300 3300 3300 3300 3300 3300 3269 3269 3269 3269 3269 3269 3269 3269 3269 3269 3269 3269 3269 3269 3269 3269 3269 3269 3269 3269 3238 3238 3238 3238 3238 3238 3238 3238 3238 3238 3238 3238 3238 3238 3238 3238 2116 2116 2116 2116 2116 2116 2116 2116 2116 2116 2116 2116 2116 2116 2116 2116 2103 2103 2103 2103 2103 2103 2103 2090 2090 2090 2090 2103 2090 2090 2090 2090 2090 2090 2090 2090 2090 2090 2090 2090 2090 2090 2078 2078 2078 2078 2078 2065 2065 2065 2078 2065 2065 2065 2065 2065 2065 2065 2053 2053 2053 2053 2053 2053 2053 2053 2053 2053 2053 2053 2053 2053 2053 2040 2040 2040 2040 2028 2028 2028 2028 2028 2028 2028 2028 2028 2028 2028 2028 2028 2028 2028 6038 6038 6146 6259 6146 6146 6038 6038 6038 5933 5933 5933 5933 5933 5933 5933 6038 6038 6038 6038 6038 6038 5933 5933 5933 5933 5933 5933 6038 6038 6038 6259 6622 6753 6753 6889 6889 6753 6753 6753 6622 6622 6622 6622 6497 6497 6375 6375 6146 6146 6146 6146 6146 6375 4295 4295 4405 4463 4522 4582 4582 4582 4582 4582 4582 4582 4582 4582 4522 4522 4463 4463 4463 4463 4463 4463 4463 4405 4405 4405 4405 4405 4405 4349 4349 4349 4295 4295 4295 4241 4241 4241 4190 4190 4190 4190 4190 4190 4139 4139 4089 4089 4089 4089 4041 4041 4041 4041 4041 4041 4041 0 0 0 0 0 0 0 0 0 0 3994 3994 3994 4041 4041 4041 4041 4041 4041 0 0 0 0 0 0 0 0 0 0 0 0 0 0 0 0 0 0 0 0 0
0 0 0 0 0 0 0 0 0 0 0 0 0 0 0 0 0 0 0 0 0 0 0 0 0 0 0 0 0 0 0 0 2933 2933 2958 2984 2984 3010 3010 3010 3037 3037 3037 3037 3037 3064 3064 3064 3064 3064 3064 3092 3092 3092 3092 3092 3092 3092 3120 3120 3120 3120 3120 3120 3149 3149 3149 3178 3178 3178 3178 3178 3208 3208 3208 3208 3208 3208 3208 3238 3269 3269 3269 3269 3300 3300 3300 3300 3300 3333 3333 3365 3365 3399 3433 3433 3468 3468 3468 3468 4774 4774 4774 4774 4774 4842 4842 4842 4911 4911 4983 5056 5056 5056 5056 5056 5056 5056 5056 5056 5056 5056 5056 5056 5056 5056 5056 5056 5132 5132 5132 5132 5056 5056 5056 5056 5056 5056 5056 5056 5056 5132 5132 5132 5132 5056 5056 5132 5132 5132 5132 5132 5056 5056 5056 5056 5056 5056 5056 5056 5056 5056 5056 5056 5056 5056 5056 5056 5056 5056 5056 5056 5056 5056 5056 4983 4983 4911 4842 4842 4842 4842 4774 4774 4774 4774 4774 4842 4842 4911 4983 4983 4983 5056 5056 5056 5056 5056 5056 5056 5056 5056 5056 5056 5056 5056 5056 5056 5056 5056 5056 5056 5056 5056 5056 5132 5132 5132 5210 5210 5210 5291 5291 5291 5291 5374 5374 5460 5548 5548 5640 5640 5734 5734 5832 5832 5832 5832 5832 5832 5832 5832 5933 5832 5832 5832 5933 5933 5933 5933 5933 6038 6038 6038 2241 2241 2241 2241 2256 2241 2241 2241 2241 2241 2241 2241 2241 2241 2241 2241 2241 2241 2241 2241 2241 2241 2241 2241 2241 2241 2241 2241 2241 2241 2241 2241 2241 2241 2241 2241 2241 2241 2241 2241 2226 2226 2226 2226 2226 2226 2226 2226 2226 2226 2226 2226 2226 2226 2226 2226 2226 2226 2226 2226 2226 2226 2226 2226 2212 2212 2226 2212 2212 2212 2212 2198 2198 2184 2184 2184 2184 2184 2184 2184 2184 2184 2184 2184 2170 2170 2170 2170 3300 3300 3333 3333 3333 3333 3333 3333 3333 3333 3333 3333 3333 3333 3333 3300 3300 3300 3300 3269 3269 3269 3269 3269 3269 3269 3269 3269 3269 3269 3269 3269 3269 3269 3300 3300 3300 3300 3300 3238 3238 3238 3238 3238 3238 3238 3238 3238 3238 3238 3238 3238 3238 3238 3238 3238 2116 2116 2116 2116 2116 2116 2116 2116 2116 2116 2116 2116 2116 2116 2116 2103 2103 2103 2103 2103 2103 2103 2090 2090 2090 2090 2103 2090 2090 2090 2090 2090 2090 2090 2090 2090 2090 2090 2090 2090 2090 2090 2078 2078 2078 2078 2065 2065 2065 2065 2065 2065 2065 2065 2065 2065 2065 2053 2053 2053 2053 2053 2053 2053 2053 2053 2053 2053 2053 2053 2040 2040 2040 2040 2040 2040 2040 2028 2028 2028 2028 2016 2016 2016 2016 2016 2016 2028 2028 2028 2028 2028 6038 6146 6259 6259 6146 6146 6146 6146 6038 6038 6038 6038 6038 6038 6038 6146 6146 6146 6038 6038 6146 6038 5933 5933 5933 5933 5933 6038 6038 6146 6259 6622 6753 6753 6889 6889 6753 6753 6753 6753 6622 6622 6622 6497 6497 6375 6375 6259 6259 6146 6146 6146 6375 6375 4405 4405 4522 4522 4582 4582 4582 4582 4582 4582 4582 4522 4522 4522 4522 4522 4463 4463 4463 4463 4405 4405 4405 4405 4405 4349 4349 4349 4349 4349 4349 4295 4295 4295 4241 4241 4241 4190 4190 4139 4139 4139 4139 4139 4139 4089 4089 4089 4089 4041 4041 4041 4041 4041 3994 3994 0 0 0 0 0 0 0 0 0 0 3994 3994 3994 4041 4041 4041 4041 4041 4041 0 0 0 0 0 0 0 0 0 0 0 0 0 0 0 0 0 0 0 0 0
0 0 0 0 0 0 0 0 0 0 0 0 0 0 0 0 0 0 0 0 0 0 0 0 0 0 0 0 0 0 0 0 2933 2933 2958 2984 2984 3010 3010 3010 3010 3037 3037 3037 3037 3037 3064 3064 3064 3064 3092 3092 3092 3092 3092 3092 3092 3092 3120 3120 3120 3120 3120 3149 3149 3149 3149 3178 3149 3149 3178 3178 3178 3178 3208 3208 3208 3208 3208 3238 3269 3269 3300 3300 3300 3300 3300 3300 3300 3333 3365 3365 3399 3433 3433 3468 3468 3468 3468 3468 4774 4774 4774 4774 4774 4842 4842 4842 4911 4911 4983 5056 5056 5056 5056 5056 5056 5056 5056 5056 5056 5056 5056 5056 5056 5056 5056 5132 5132 5132 5132 5132 5056 5056 5056 5056 5056 5056 5056 5056 5056 5056 5056 5056 5056 5056 5056 5056 5056 5056 5056 5056 5056 5056 5056 5056 5056 5056 5056 5056 5056 5056 5056 5056 5056 5056 5056 5056 5056 5056 5056 5056 4983 4983 4983 4983 4983 4983 4911 4911 4911 4842 4842 4842 4774 4774 4842 4842 4911 4911 4983 4983 4983 4983 5056 5056 5056 5056 5056 5056 5056 5056 5056 5056 5056 5056 5056 5056 5056 5056 5056 5056 5056 5056 5056 5132 5132 5132 5210 5210 5210 5291 5291 5291 5291 5374 5460 5460 5548 5548 5640 5640 5734 5734 5832 5832 5933 5933 5832 5832 5832 5832 5933 5832 5832 5832 5832 5832 5933 5933 5933 6038 6038 6038 2241 2241 2241 2241 2241 2241 2241 2241 2241 2241 2241 2241 2241 2241 2241 2241 2241 2241 2241 2241 2241 2241 2241 2241 2241 2241 2241 2241 2241 2241 2241 2241 2241 2241 2241 2241 2241 2241 2241 2241 2241 2226 2226 2226 2226 2226 2226 2226 2226 2226 2226 2226 2226 2226 2226 2226 2226 2226 2226 2226 2226 2226 2226 2226 2226 2226 2226 2212 2212 2212 2212 2198 2198 2184 2184 2184 2184 2184 2184 2184 2184 2184 2184 2184 2184 2184 2170 2170 3300 3333 3333 3333 3333 3333 3333 3333 3333 3333 3333 3333 3300 3300 3300 3300 3300 3300 3300 3300 3269 3269 3269 3269 3269 3269 3269 3269 3269 3269 3269 3269 3269 3300 3300 3300 3300 3269 3269 3269 3269 3238 3238 3238 3238 3238 3238 3238 3238 3238 3238 3238 3238 3238 3238 3238 2116 2116 2116 2116 2116 2129 2116 2116 2116 2116 2116 2116 2116 2116 2116 2103 2103 2103 2103 2103 2103 2103 2103 2103 2090 2090 2090 2090 2090 2090 2090 2090 2090 2090 2090 2090 2090 2090 2090 2090 2090 2090 2078 2078 2078 2078 2065 2065 2065 2065 2065 2065 2065 2065 2065 2065 2065 2053 2053 2053 2053 2053 2053 2053 2053 2053 2053 2053 2053 2053 2040 2040 2040 2040 2040 2040 2040 2028 2028 2028 2028 2016 2016 2016 2016 2016 2016 2028 2028 2028 2028 2028 2040 2040 6622 6622 6497 6497 6497 6497 6497 6497 6497 6497 6375 6375 6259 6259 6375 6375 6375 6375 6375 6259 6038 5933 5933 5933 5933 6038 6038 6146 6259 6622 6753 6753 6889 6753 6753 6753 6753 6753 6622 6622 6622 6622 6622 6497 6497 6375 6375 6259 6259 6375 6375 6375 4463 4463 4522 4582 4582 4522 4522 4522 4582 4582 4522 4522 4522 4522 4522 4522 4463 4463 4463 4463 4405 4405 4405 4405 4405 4349 4349 4349 4349 4349 4349 4295 4295 4241 4241 4241 4241 4190 4190 4139 4139 4139 4139 4139 4089 4089 4089 4089 4041 4041 4041 4041 4041 3994 3994 3994 0 0 0 0 0 0 0 0 0 0 4041 3994 3994 3994 3994 3994 3994 3994 3994 0 0 0 0 0 0 0 0 0 0 0 0 0 0 0 0 0 0 0 0 0
0 0 0 0 0 0 0 0 0 0 0 0 0 0 0 0 0 0 0 0 0 0 0 0 0 0 0 0 0 0 0 0 2933 2933 2958 2984 2984 3010 3010 3010 3010 3037 3037 3037 3037 3037 3037 3064 3064 3064 3064 3092 3092 3092 3092 3120 3120 3120 3120 3120 3120 3120 3120 3120 3120 3149 3149 3149 3149 3149 3178 3178 3178 3178 3208 3208 3208 3208 3208 3238 3269 3269 3300 3300 3300 3300 3300 3300 3333 3333 3365 3365 3399 3433 3433 3468 3468 3503 3503 4774 4774 4774 4774 4774 4842 4842 4842 4842 4911 4911 4983 5056 5056 5056 5056 5056 5056 5056 5056 5056 5056 5056 5056 5056 5056 5056 5132 5132 5132 5132 5056 5056 5056 5056 5056 5056 5056 5056 5056 5056 5056 5056 5056 5056 5056 5056 5056 5056 5056 5056 5056 5056 5056 5056 5056 5056 5056 5056 5056 5056 5056 5056 5056 5056 5056 5056 5056 5056 5056 5056 5056 5056 4983 4983 4983 4983 4983 4983 4911 4911 4911 4842 4842 4774 4774 4774 4842 4842 4911 4911 4983 4983 4983 4983 5056 5056 5056 5056 5056 5056 5056 5056 5056 5056 5056 5056 5056 5056 5056 5056 5056 5056 5056 5056 5056 5132 5132 5132 5210 5210 5210 5291 5291 5291 5291 5374 5460 5548 5548 5548 5548 5640 5734 5734 5832 5832 5933 5832 5832 5832 5832 5832 5832 5832 5832 5832 5832 5832 5933 5933 5933 6038 6038 2241 2241 2241 2241 2241 2241 2241 2241 2241 2241 2241 2241 2241 2241 2241 2241 2241 2241 2241 2241 2241 2241 2241 2241 2241 2241 2241 2241 2241 2241 2241 2241 2241 2241 2241 2241 2241 2241 2241 2241 2241 2226 2226 2226 2226 2226 2226 2226 2226 2226 2226 2226 2226 2226 2226 2226 2226 2226 2226 2226 2226 2226 2226 2226 2226 2226 2226 2226 2212 2212 2212 2212 2198 2198 2184 2184 2184 2184 2184 2184 2184 2184 2184 2184 2184 2184 2184 2170 2170 3300 3300 3333 3333 3333 3333 3333 3333 3333 3333 3333 3333 3300 3300 3300 3300 3300 3300 3300 3300 3300 3300 3300 3269 3269 3269 3269 3269 3269 3269 3269 3269 3269 3300 3300 3300 3300 3269 3269 3269 3269 3238 3238 3238 3238 3238 3238 3238 3238 3238 3238 3238 3238 3238 3238 2116 2116 2116 2116 2116 2116 2116 2116 2116 2116 2116 2116 2116 2116 2116 2116 2103 2103 2103 2103 2103 2103 2103 2103 2103 2090 2090 2090 2090 2090 2090 2090 2090 2090 2090 2090 2090 2090 2090 2090 2090 2090 2078 2078 2078 2078 2078 2065 2065 2065 2065 2065 2065 2065 2065 2065 2065 2065 2053 2053 2053 2053 2053 2053 2053 2053 2053 2053 2053 2053 2053 2040 2040 2040 2040 2040 2040 2040 2040 2040 2040 2028 2028 2028 2028 2016 2016 2028 2028 2016 2016 2028 2028 2040 2040 6622 6622 6622 6622 6622 6622 6622 6753 6753 6753 6753 6622 6622 6622 6622 6497 6497 6497 6497 6497 6259 6146 6146 6146 6146 6146 6146 6259 6375 6622 6753 6753 6889 6753 6753 6753 6753 6753 6622 6622 6622 6622 6622 6622 6497 6497 6497 6497 6497 6497 6497 6622 4405 4405 4463 4522 4522 4522 4522 4522 4522 4522 4522 4522 4522 4522 4522 4522 4463 4463 4463 4463 4405 4405 4405 4405 4349 4349 4349 4349 4349 4295 4295 4295 4295 4241 4241 4241 4241 4139 4139 4139 4139 4139 4139 4139 4089 4089 4089 4089 4041 4041 4041 4041 4041 3994 3994 4041 0 0 0 0 0 0 0 0 0 0 0 3994 3994 3994 3994 3994 3994 3994 3994 0 0 0 0 0 0 0 0 0 0 0 0 0 0 0 0 0 0 0 0 0
0 0 0 0 0 0 0 0 0 0 0 0 0 0 0 0 0 0 0 0 0 0 0 0 0 0 0 0 0 0 0 0 2958 2958 2958 2984 2984 3010 3010 3010 3010 3010 3037 3037 3037 3037 3037 3037 3064 3064 3064 3092 3092 3092 3092 3120 3120 3120 3120 3120 3120 3120 3120 3120 3120 3149 3149 3149 3178 3178 3178 3178 3208 3208 3208 3208 3208 3208 3238 3269 3269 3300 3300 3300 3300 3300 3300 3333 3333 3333 3365 3365 3399 3399 3433 3468 3468 3503 3503 4774 4774 4774 4774 4774 4842 4842 4842 4842 4911 4911 4983 5056 5056 5056 5056 5056 5056 5056 5056 5056 5056 5056 5056 5056 5056 5056 5132 5132 5056 5056 5056 5056 5056 5056 5056 5056 5056 5056 5056 5056 5056 5056 5056 5056 5056 5056 5056 5056 5056 5056 5056 5056 4983 4983 5056 5056 5056 5056 5056 5056 5056 5056 5056 5056 5056 5056 5056 4983 4983 4983 4983 4983 4983 4983 5056 4983 4983 4983 4983 4911 4911 4842 4842 4774 4774 4774 4842 4911 4911 4911 4983 4983 4983 4983 4983 5056 5056 5056 5056 5056 5056 5056 5056 5056 5056 5056 5056 5056 5056 5056 5056 5056 5056 5132 5132 5132 5132 5132 5210 5210 5210 5291 5291 5291 5374 5374 5460 5548 5548 5548 5548 5640 5640 5734 5832 5832 5832 5832 5832 5832 5832 5832 5832 5832 5933 5933 5832 5832 5933 5933 5933 6038 6038 2241 2241 2241 2241 2241 2241 2241 2241 2241 2241 2241 2241 2241 2241 2241 2241 2241 2241 2241 2241 2241 2241 2241 2241 2241 2241 2241 2241 2241 2241 2241 2241 2241 2241 2241 2241 2241 2241 2241 2241 2241 2226 2226 2226 2226 2226 2226 2226 2226 2226 2226 2226 2226 2226 2226 2226 2226 2226 2226 2226 2226 2226 2226 2226 2226 2226 2226 2226 2212 2212 2212 2212 2198 2198 2184 2184 2184 2184 2184 2184 2184 2184 2184 2184 2184 2184 2184 2170 2170 3300 3300 3333 3333 3333 3333 3333 3333 3333 3333 3333 3333 3333 3333 3333 3333 3333 3333 3300 3300 3300 3300 3300 3269 3269 3269 3269 3269 3300 3300 3300 3269 3269 3269 3269 3269 3269 3269 3238 3238 3238 3238 3238 3238 3238 3238 3238 3238 3238 3238 3238 3238 3238 3238 3269 2116 2103 2103 2116 2116 2116 2116 2116 2116 2116 2116 2116 2116 2116 2116 2116 2103 2103 2103 2103 2103 2103 2103 2103 2103 2090 2090 2103 2090 2090 2090 2090 2090 2090 2090 2090 2090 2090 2090 2090 2090 2090 2078 2078 2078 2078 2078 2065 2065 2065 2065 2065 2065 2065 2065 2065 2065 2065 2065 2053 2053 2053 2053 2053 2053 2053 2053 2053 2053 2053 2053 2040 2040 2040 2040 2040 2040 2040 2040 2040 2040 2028 2028 2028 2028 2028 2028 2028 2016 2016 2016 2016 2016 2028 2040 6753 6753 6753 6753 6753 6753 6753 6889 6889 6889 6889 6889 6889 6753 6753 6622 6622 6622 6622 6622 6497 6375 6375 6375 6259 6259 6375 6375 6497 6753 6753 6753 6889 6889 6753 6753 6753 6753 6753 6622 6622 6622 6622 6622 6622 6622 6622 6497 6497 6622 6622 6622 4405 4405 4463 4463 4522 4522 4463 4463 4522 4522 4522 4522 4522 4522 4463 4463 4463 4463 4405 4405 4405 4405 4405 4405 4349 4349 4349 4349 4349 4295 4295 4295 4295 4241 4241 4241 4241 4139 4139 4139 4139 4139 4139 4139 4089 4089 4089 4089 4041 4041 4041 4041 4041 3994 3994 3994 0 0 0 0 0 0 0 0 0 0 0 3994 3994 3994 3994 3994 3994 3994 0 0 0 0 0 0 0 0 0 0 0 0 0 0 0 0 0 0 0 0 0 0
0 0 0 0 0 0 0 0 0 0 0 0 0 0 0 0 0 0 0 0 0 0 0 0 0 0 0 0 0 0 0 0 2958 2958 2958 2984 2984 2984 3010 3010 3010 3010 3037 3037 3037 3037 3037 3037 3064 3064 3064 3092 3092 3092 3092 3120 3120 3120 3120 3120 3120 3120 3120 3120 3120 3120 3149 3178 3178 3178 3178 3178 3178 3208 3208 3208 3208 3238 3238 3269 3269 3269 3300 3300 3300 3300 3300 3333 3333 3333 3365 3365 3399 3399 3433 3433 3468 3503 3503 4774 4774 4774 4774 4842 4842 4842 4842 4911 4911 4911 4983 5056 5056 5056 5056 5056 5056 5056 5056 5056 5056 5056 5056 5056 5056 5056 5132 5132 5056 5056 5056 5056 5056 5056 5056 5056 5056 5056 5056 5056 5056 5056 5056 5056 5056 5056 5056 5056 5056 5056 5056 5056 4983 4983 5056 5056 5056 5056 4983 4983 5056 5056 5056 5056 5056 5056 5056 4983 4983 4983 4983 4983 4983 4983 5056 4983 4983 4983 4983 4911 4911 4911 4842 4842 4842 4842 4842 4911 4911 4911 4983 4983 4983 4983 4983 4983 4983 5056 5056 5056 5056 5056 5056 5056 5056 5056 5056 5056 5056 5056 5056 5132 5132 5132 5132 5132 5132 5132 5210 5210 5291 5291 5374 5374 5374 5460 5460 5548 5460 5460 5460 5548 5640 5734 5734 5832 5832 5832 5832 5832 5832 5832 5832 5832 5933 5933 5933 5933 5933 5933 6038 6038 2256 2241 2241 2241 2241 2241 2241 2241 2241 2241 2241 2256 2256 2256 2256 2256 2241 2241 2256 2256 2241 2241 2241 2241 2241 2241 2241 2241 2241 2241 2241 2241 2241 2241 2241 2241 2241 2241 2241 2241 2241 2241 2226 2226 2226 2226 2226 2226 2226 2226 2226 2226 2241 2241 2241 2241 2226 2226 2226 2226 2226 2226 2226 2226 2226 2226 2226 2226 2226 2226 2212 2212 2212 2198 2198 2184 2184 2184 2184 2184 2184 2184 2184 2184 2184 2184 2184 2184 2170 2170 3300 3333 3333 3333 3333 3333 3333 3333 3333 3333 3333 3333 3333 3333 3333 3333 3333 3333 3300 3300 3300 3300 3300 3269 3269 3269 3269 3300 3300 3300 3269 3269 3269 3269 3238 3238 3238 3238 3238 3238 3208 3208 3238 3238 3238 3238 3238 3238 3238 3238 3238 3238 3269 3269 3269 3269 2103 2103 2116 2116 2116 2116 2116 2116 2116 2116 2116 2116 2116 2116 2116 2103 2103 2103 2103 2103 2103 2090 2090 2103 2090 2090 2103 2090 2090 2090 2090 2090 2090 2090 2090 2090 2090 2090 2090 2090 2090 2090 2090 2090 2078 2078 2065 2065 2065 2065 2065 2065 2078 2065 2065 2078 2065 2065 2053 2053 2053 2053 2053 2053 2053 2053 2053 2053 2053 2053 2040 2040 2040 2040 2040 2040 2040 2040 2040 2040 2028 2028 2028 2028 2028 2028 2028 2016 2016 2016 2016 2016 2016 2016 6889 6889 6889 6889 6889 6753 6753 6889 6889 6889 6889 6889 6889 6889 6753 6753 6753 6622 6622 6622 6497 6497 6497 6497 6497 6497 6497 6497 6622 6753 6753 6753 6753 6753 6753 6753 6753 6753 6753 6753 6753 6622 6622 6622 6622 6622 6622 6622 6622 6622 6622 6753 4405 4405 4463 4463 4463 4463 4463 4463 4463 4463 4522 4522 4522 4522 4463 4463 4463 4463 4405 4405 4405 4405 4405 4405 4349 4349 4349 4349 4349 4295 4295 4295 4295 4241 4241 4241 4241 4139 4139 4139 4139 4139 4139 4139 4089 4089 4089 4089 4041 4041 4041 4041 4041 3994 3994 3994 0 0 0 0 0 0 0 0 0 0 0 0 3994 3994 3994 0 3994 3994 0 0 0 0 0 0 0 0 0 0 0 0 0 0 0 0 0 0 0 0 0 0
0 0 0 0 0 0 0 0 0 0 0 0 0 0 0 0 0 0 0 0 0 0 0 0 0 0 0 0 0 0 0 0 2958 2958 2958 2958 2984 2984 2984 2984 3010 3010 3010 3010 3010 3037 3037 3037 3064 3064 3064 3092 3092 3092 3092 3120 3120 3120 3120 3120 3120 3120 3120 3120 3120 3120 3149 3178 3178 3178 3178 3178 3178 3178 3208 3208 3208 3238 3238 3269 3269 3269 3300 3300 3300 3300 3333 3333 3333 3333 3365 3365 3399 3399 3433 3433 3468 3503 3503 4774 4774 4842 4842 4842 4842 4842 4842 4842 4911 4911 4983 4983 5056 5056 5056 5056 5056 5056 5056 5056 5056 5056 5056 5056 5056 5056 5132 5132 5056 5056 5056 5056 5056 5056 5056 5056 5056 5056 5056 5056 5056 5056 5056 5056 5056 5056 5056 5056 5056 5056 5056 5056 5056 5056 5056 5056 5056 5056 4983 4983 5056 5056 5056 5056 5056 5056 5056 4983 4983 4983 4983 4983 4983 5056 5056 4983 4983 4983 4983 4911 4911 4911 4842 4842 4842 4842 4842 4911 4911 4911 4983 4983 4983 4983 4983 4983 4983 5056 5056 5056 5056 5056 5056 5056 5056 5132 5056 5056 5056 5056 5056 5132 5132 5132 5132 5132 5132 5132 5210 5291 5291 5291 5291 5374 5374 5374 5460 5460 5460 5460 5460 5548 5548 5548 5548 5933 5933 5832 5832 5832 5832 5832 5832 5832 5832 5933 5933 5933 5933 5933 6038 6038 2256 2256 2241 2241 2241 2241 2241 2241 2241 2241 2241 2256 2256 2256 2256 2256 2256 2256 2256 2256 2241 2241 2241 2241 2241 3333 3365 3365 3365 3365 3365 2241 2241 2241 2241 2241 2241 2241 2241 2241 2241 2241 2241 2226 2226 2226 2226 2226 2226 2226 2226 2226 2226 2226 2241 2241 2241 2226 2226 2226 2226 2226 2226 2226 2226 2226 2226 2226 2226 2226 2212 2212 2212 2198 2198 2184 2184 2184 2184 2198 2198 2198 2198 2198 2198 2198 2198 2198 2198 3300 3300 3300 3300 3333 3333 3333 3300 3300 3333 3333 3333 3333 3333 3333 3333 3333 3333 3333 3300 3300 3300 3300 3300 3300 3300 3269 3269 3300 3269 3269 3269 3269 3269 3269 3238 3238 3238 3208 3208 3208 3208 3208 3208 3208 3208 3208 3238 3238 3238 3238 3238 3269 3269 3269 3300 2116 2116 2116 2116 2116 2116 2116 2116 2116 2116 2116 2116 2116 2116 2116 2116 2103 2103 2103 2103 2103 2103 2090 2090 2103 2090 2090 2103 2103 2090 2090 2090 2090 2090 2090 2090 2090 2090 2090 2090 2090 2090 2090 2090 2090 2078 2078 2078 2065 2065 2065 2065 2065 2078 2078 2078 2078 2065 2065 2065 2053 2053 2053 2053 2053 2053 2053 2053 2053 2053 2053 2040 2040 2040 2040 2040 2040 2040 2040 2040 2040 2040 2040 2028 2028 2028 2028 2016 2016 2016 2016 2028 2028 2016 2016 7030 7030 6889 6889 6889 6889 6889 6889 6889 6889 6889 6889 6889 6889 6753 6753 6753 6753 6753 6753 6622 6622 6622 6497 6497 6497 6497 6622 6622 6753 6753 6753 6753 6753 6753 6753 6622 6622 6622 6622 6622 6622 6622 6622 6622 6622 6622 6622 6622 6753 6753 6753 6889 4405 4405 4463 4463 4463 4463 4463 4463 4463 4522 4522 4522 4522 4463 4463 4405 4405 4349 4349 4349 4349 4349 4405 4349 4349 4349 4295 4295 4295 4295 4295 4295 4241 4241 4241 4241 4139 4089 4089 4089 4089 4089 4089 4089 4089 4041 4041 4041 4041 4041 4041 3994 3994 3994 3994 3994 0 0 0 0 0 0 0 0 0 0 0 4041 4041 4041 0 0 0 0 0 0 0 0 0 0 0 0 0 0 0 0 0 0 0 0 0 0 0 0 0
0 0 0 0 0 0 0 0 0 0 0 0 0 0 0 0 0 0 0 0 0 0 0 0 0 0 0 0 0 0 0 0 2933 2933 2933 2958 2984 2984 2984 2984 3010 3010 3010 3010 3010 3010 3010 3037 3064 3064 3064 3092 3092 3092 3092 3092 3092 3092 3120 3120 3120 3120 3120 3120 3120 3149 3178 3178 3178 3178 3178 3178 3178 3178 3208 3208 3208 3238 3238 3269 3269 3269 3300 3300 3300 3300 3333 3333 3333 3365 3365 3399 3399 3399 3433 3433 3468 3503 3503 4842 4842 4842 4842 4842 4842 4842 4842 4842 4911 4911 4983 4983 5056 5056 5056 5056 5056 5056 5056 5056 5056 5056 5056 5056 5056 5132 5132 5132 5132 5132 5056 5056 5056 5056 5056 5056 5056 5056 5056 5056 5056 5056 5056 5056 5056 5056 5056 5056 5056 5056 5056 5056 5056 5056 5056 5056 5056 5056 4983 4983 5056 5056 5056 5056 5056 5056 4983 4983 4983 4983 4983 4983 4983 5056 5056 4983 4983 4983 4983 4983 4911 4911 4911 4842 4842 4842 4842 4842 4842 4911 4983 4983 4983 4983 5056 5056 5056 5056 5056 5056 5056 5056 5056 5056 5056 5056 5056 5056 5056 5056 5056 5132 5132 5132 5132 5132 5132 5132 5210 5291 5291 5291 5291 5374 5374 5374 5460 5460 5460 5460 5460 5548 5548 5548 0 5933 5933 5933 5832 5734 5734 5832 5832 5832 5832 5933 5933 5933 5933 5933 5933 5933 2256 2256 2256 2241 2241 2241 2241 2241 2241 2241 2241 2256 2256 2256 2256 2256 2256 2256 2256 2256 2256 2256 2256 2241 2241 3333 3365 3365 3333 3333 3269 3238 3238 3238 2241 2241 2241 2241 2241 2226 2226 2241 2241 2226 2226 2226 2226 2226 2226 2226 2226 2226 2226 2226 2241 2241 2241 2226 2226 2226 2226 2226 2226 2226 2226 2226 2226 2226 2241 2226 2212 2212 2212 2198 2198 2198 2184 2184 2184 2198 2198 2198 2198 2198 2198 2198 2212 2198 2198 3300 3300 3300 3300 3333 3333 3333 3300 3300 3300 3333 3333 3333 3333 3333 3333 3333 3333 3333 3300 3300 3300 3300 3300 3269 3269 3269 3269 3300 3269 3269 3269 3269 3269 3238 3238 3208 3208 3208 3208 3208 3208 3208 3208 3208 3208 3208 3208 3238 3238 3238 3269 3269 3269 3300 3300 2116 2116 2116 2116 2116 2116 2116 2116 2116 2116 2116 2116 2116 2116 2116 2116 2103 2103 2103 2103 2103 2103 2103 2103 2103 2090 2090 2103 2103 2103 2090 2090 2090 2090 2090 2090 2090 2090 2090 2090 2090 2090 2090 2090 2090 2078 2078 2078 2078 2078 2065 2065 2065 2078 2078 2078 2078 2078 2078 2065 2065 2053 2053 2053 2053 2053 2053 2053 2053 2053 2053 2040 2040 2040 2040 2040 2040 2040 2040 2040 2040 2040 2028 2028 2028 2028 2028 2016 2016 2016 2016 2028 2028 2028 2040 7030 7030 6889 6889 6889 6889 6889 6889 6889 6889 6889 6889 6889 6753 6753 6753 6753 6753 6753 6753 6753 6622 6622 6622 6622 6622 6622 6622 6753 6753 6753 6753 6753 6753 6753 6753 6622 6622 6622 6622 6622 6622 6622 6622 6622 6622 6622 6622 6622 6753 6753 6889 6889 4405 4405 4463 4463 4463 4463 4463 4463 4463 4522 4522 4463 4463 4463 4463 4405 4405 4349 4349 4349 4349 4349 4349 4349 4295 4295 4295 4295 4295 4295 4241 4241 4241 4241 4190 4190 4089 4089 4089 4089 4089 4089 4089 4041 4041 4041 4041 4041 4041 4041 4041 3994 3994 3994 3994 3994 0 0 0 0 0 0 0 0 0 0 0 0 0 0 0 0 0 0 0 0 0 0 0 0 0 0 0 0 0 0 0 0 0 0 0 0 0 0 0
0 0 0 0 0 0 0 0 0 0 0 0 0 0 0 0 0 0 0 0 0 0 0 0 0 0 0 0 0 0 0 0 2933 2933 2933 2933 2958 2958 2958 2984 3010 3010 3010 3010 3010 3010 3010 3037 3037 3064 3064 3092 3092 3092 3092 3092 3092 3092 3120 3120 3120 3120 3120 3120 3149 3149 3178 3178 3178 3178 3178 3178 3178 3208 3208 3208 3208 3238 3238 3269 3269 3269 3300 3300 3300 3300 3333 3333 3333 3365 3365 3399 3399 3399 3399 3433 3433 3468 3468 4842 4842 4842 4842 4842 4842 4842 4842 4842 4911 4983 4983 4983 5056 5056 5056 5132 5132 5132 5132 5132 5132 5132 5132 5132 5132 5132 5132 5132 5132 5132 5132 5132 5132 5056 5056 5132 5132 5132 5132 5056 5056 5056 5056 5056 5056 5056 5056 5056 5056 5056 5056 5132 5056 5056 5056 5056 5056 5056 5056 5056 5056 5056 5056 5056 4983 4983 4983 4983 4983 4983 4983 4983 4983 5056 5056 4983 4983 4983 4983 4983 4911 4911 4842 4842 4842 4842 4842 4842 4842 4911 4911 4983 4983 4983 4983 4983 5056 5056 5056 5056 5056 5056 5056 5056 5056 5056 5056 5056 5056 5056 5056 5132 5132 5132 5132 5132 5132 5210 5291 5291 5291 5291 5374 5374 5374 5374 5460 5460 5460 5460 5460 5460 5460 5640 0 5548 5734 5734 5734 5734 5734 5832 5832 5832 5832 5933 5933 5933 5933 5933 5933 2241 2241 2241 2226 2226 2241 2241 2241 2241 2241 2241 2241 2256 2256 2256 2256 2256 2256 2256 2256 2256 2256 2256 3178 3178 3178 3178 3178 3178 3269 3208 3178 3178 3208 3208 3208 3238 3238 2256 2241 2226 2226 2241 2241 2226 2226 2226 2226 2226 2226 2226 2226 2226 2226 2226 2241 2241 2241 2241 2241 2241 2226 2226 2226 2226 2212 2212 2226 2226 2226 2226 2226 2212 2212 2198 2198 2198 2198 2198 2198 2198 2198 2198 2198 2198 2198 2198 2198 2198 3300 3300 3300 3300 3300 3333 3333 3333 3300 3300 3300 3333 3333 3333 3333 3333 3333 3333 3333 3333 3300 3300 3269 3269 3269 3269 3269 3269 3269 3269 3269 3269 3238 3238 3238 3208 3208 3208 3208 3208 3208 3178 3178 3178 3178 3208 3208 3208 3208 3208 3208 3238 3238 3269 3269 3269 3269 2116 2116 2116 2116 2116 2116 2116 2116 2116 2116 2116 2116 2116 2116 2116 2116 2103 2103 2103 2103 2103 2103 2103 2103 2103 2103 2103 2103 2103 2103 2103 2103 2103 2090 2090 2090 2090 2090 2090 2090 2090 2090 2090 2090 2090 2078 2078 2090 2078 2078 2078 2078 2078 2078 2078 2078 2078 2078 2078 2065 2065 2053 2053 2053 2053 2053 2053 2053 2053 2053 2053 2040 2040 2040 2040 2040 2040 2040 2040 2040 2040 2040 2028 2028 2028 2028 2028 2016 2016 2016 2016 2028 2028 2028 2040 7030 7030 6889 6889 6889 6889 6889 6889 6889 6889 6889 6889 6889 6753 6753 6753 6753 6753 6753 6753 6753 6622 6622 6622 6622 6622 6622 6622 6753 6753 6753 6753 6753 6753 6753 6753 6753 6753 6753 6753 6753 6622 6622 6622 6622 6622 6622 6753 6753 6753 6753 6889 6889 7030 4463 4463 4463 4463 4463 4463 4463 4463 4522 4522 4463 4463 4463 4463 4405 4349 4349 4349 4349 4349 4349 4349 4295 4295 4295 4295 4295 4241 4241 4241 4241 4241 4190 4190 4139 4089 4089 4089 4041 4041 4041 4041 4041 4041 4041 4041 4041 4041 4041 4041 4041 3994 3994 3994 0 0 0 0 0 0 0 0 0 0 0 0 0 0 0 0 0 0 0 0 0 0 0 0 0 0 0 0 0 0 0 0 0 0 0 0 0 0 0 0
0 0 0 0 0 0 0 0 0 0 0 0 0 0 0 0 0 0 0 0 0 0 0 0 0 0 0 0 0 0 0 0 2933 2933 2933 2933 2958 2958 2958 2984 3010 3010 3010 3010 3037 3010 3010 3037 3037 3064 3064 3064 3064 3092 3092 3120 3120 3120 3120 3120 3120 3120 3120 3120 3149 3149 3178 3178 3178 3178 3178 3178 3178 3208 3208 3208 3238 3238 3269 3269 3269 3269 3300 3300 3300 3300 3333 3333 3333 3365 3365 3399 3399 3399 3399 3433 3433 3468 3468 4842 4842 4842 4842 4842 4842 4842 4842 4842 4911 4911 4911 4983 4983 5056 5056 5132 5132 5132 5132 5132 5132 5132 5132 5132 5132 5132 5132 5132 5056 5056 5132 5132 5132 5132 5132 5132 5132 5132 5132 5132 5132 5132 5132 5132 5056 5056 5056 5056 5056 5056 5056 5056 5056 5056 5056 5056 5056 5056 5056 5056 5056 5056 5056 5056 4983 4983 4983 4983 4983 4983 5056 5056 5056 5056 5056 5056 5056 4983 4983 4983 4911 4911 4842 4842 4842 4842 4842 4842 4842 4911 4911 4983 4983 4983 4983 4983 5056 5056 5056 5056 5056 5056 5056 5056 5056 5056 5056 5056 5056 5056 5056 5056 5056 5056 5056 5056 5056 5132 5210 5291 5291 5374 5374 5374 5374 5374 5460 5460 5460 5460 5460 5460 5640 5640 5548 0 0 5734 5734 5734 5734 5832 5832 5832 5832 5933 5933 5933 5933 6038 6038 0 2241 2241 2226 2226 2241 2241 2241 2241 2241 2241 2241 2256 2256 2256 2256 2256 2256 2256 2256 2256 2256 3120 3149 3149 3149 3149 3149 3149 3178 3178 3149 3149 3178 3178 3178 3178 3178 3178 2241 2241 2241 2241 2256 3149 3149 3149 2241 2241 3178 3178 3149 3149 3120 3120 3120 3092 2241 2241 2241 2241 2226 2226 2226 2226 2212 2212 2226 2226 2226 2226 2226 2212 2212 2212 2198 2198 2198 2198 2198 2198 2198 2198 2198 2198 2198 2198 2198 2198 2198 3010 3010 3010 3333 3333 3333 3333 3333 3064 3064 3064 3064 3333 3333 3333 3333 3333 3333 3333 3300 3300 3269 3269 3269 3238 3238 3238 3238 3238 3238 3238 3238 3238 3208 3208 3208 3178 3178 3178 3178 3178 3178 3178 3178 3208 3208 3208 3208 3208 3208 3238 3238 3269 3269 3269 3269 2116 2116 2116 2116 2116 2116 2116 2116 2116 2116 2116 2116 2116 2116 2116 2116 2103 2103 2103 2103 2103 2103 2103 2103 2103 2103 2103 2103 2103 2103 2103 2090 2090 2090 2090 2090 2090 2090 2090 2090 2090 2090 2090 2090 2090 2090 2090 2090 2078 2078 2078 2078 2078 2078 2078 2078 2078 2078 2078 2065 2065 2053 2053 2053 2053 2053 2053 2053 2053 2053 2053 2040 2040 2040 2040 2040 2040 2040 2040 2040 2040 2040 2040 2040 2028 2028 2028 2028 2028 2028 2028 2028 2028 2028 2040 7178 7178 6889 6889 6889 6889 6889 7030 6889 6889 6889 6889 6889 6889 6889 6889 6889 6889 6753 6753 6753 6622 6622 6622 6622 6622 6622 6622 6753 6753 6753 6753 6753 6753 6753 6753 6753 6753 6753 6753 6753 6753 6753 6753 6753 6753 6753 6753 6753 6753 6753 6889 6889 7030 4463 4463 4463 4463 4463 4463 4463 4463 4522 4522 4463 4463 4463 4463 4405 4349 4349 4349 4349 4349 4349 4349 4295 4295 4295 4295 4295 4241 4241 4241 4241 4241 4190 4190 4139 4089 4089 4089 4041 4041 4041 4041 4041 4041 4041 4041 4041 4041 4041 4041 4041 4041 4041 4041 4041 4041 0 0 0 0 0 0 0 0 0 0 0 0 0 0 0 0 0 0 0 0 0 0 0 0 0 0 0 0 0 0 0 0 0 0 0 0 0 0
0 0 0 0 0 0 0 0 0 0 0 0 0 0 0 0 0 0 0 0 0 0 0 0 0 0 0 0 0 0 0 0 2933 2933 2933 2933 2958 2958 2958 2984 3010 3010 3010 3010 3037 3010 3010 3037 3037 3064 3064 3064 3064 3092 3092 3120 3120 3120 3120 3120 3120 3120 3120 3149 3149 3149 3178 3178 3178 3178 3178 3178 3178 3208 3208 3238 3238 3238 3269 3269 3300 3300 3300 3300 3300 3300 3333 3333 3333 3365 3365 3399 3399 3399 3399 3433 3433 3433 3433 4842 4842 4842 4842 4842 4842 4842 4842 4842 4911 4911 4911 4911 4983 5056 5056 5132 5132 5132 5132 5132 5132 5132 5132 5132 5132 5132 5132 5056 5056 5056 5056 5132 5132 5132 5132 5132 5132 5132 5132 5132 5132 5132 5132 5132 5132 5056 5056 5056 5056 5056 5056 5056 5056 5056 5056 5056 5056 5056 5056 5056 5056 5056 5056 5056 5056 5056 4983 4983 5056 5056 5056 5056 5056 5056 5056 5056 5056 4983 4983 4983 4911 4911 4842 4842 4842 4842 4842 4842 4842 4842 4911 4983 4983 4983 4983 4983 4983 5056 5056 5056 5056 5056 5056 5056 5056 5056 5056 5056 5056 5056 5056 5056 5056 5056 5056 5056 5056 5132 5210 5210 5291 5291 5374 5374 5374 5374 5460 5460 5460 5460 5460 5548 5548 5548 5548 0 5933 5832 5832 5734 5734 5832 5832 5832 5832 5933 5933 5933 5933 5933 5933 2241 2241 2241 2241 2241 2241 2241 2241 2241 2241 2241 2241 2256 2256 2256 2256 2271 2271 2256 2256 3120 3120 3120 3120 3120 3120 3120 3120 3149 3149 3149 3149 3149 3149 3149 3149 3178 3178 3178 3178 3178 3178 3149 3149 3149 3149 3149 3178 3178 3178 3178 3149 3149 3120 3120 3092 3092 3092 3064 3037 3037 2241 2226 2226 2226 2226 3010 3010 3010 2241 2241 2212 2212 2212 2212 2212 2198 2198 2198 2198 2198 2198 2198 2198 2198 2198 2198 2198 2198 3010 3010 3010 3010 3092 3092 3092 3092 3092 3064 3064 3064 0 0 3064 3064 3333 3333 3333 3333 3333 3300 3269 3269 3269 3238 3238 3238 3238 3238 3238 3238 3208 3208 3208 3208 3178 3178 3178 3178 3178 3178 3178 3178 3178 3178 3178 3208 3208 3208 3208 3238 3238 3238 3269 3269 3269 2116 2116 2116 2116 2116 2116 2116 2116 2116 2116 2116 2116 2116 2116 2116 2116 2103 2103 2103 2103 2103 2103 2103 2103 2103 2103 2103 2103 2103 2103 2103 2090 2090 2090 2090 2090 2090 2090 2090 2090 2090 2090 2090 2090 2090 2090 2090 2090 2090 2078 2078 2078 2078 2078 2078 2078 2065 2065 2065 2065 2065 2053 2053 2053 2053 2053 2053 2053 2053 2053 2053 2040 2040 2040 2040 2040 2040 2040 2040 2040 2040 2040 2028 2028 2028 2028 2028 2028 2028 2028 2028 2028 2028 2028 7178 7178 7178 6889 6889 6889 6889 6889 7030 6889 6889 6889 6889 6889 6889 6889 6889 6889 6889 6889 6753 6753 6622 6622 6622 6622 6622 6622 6622 6753 6753 6753 6753 6753 6753 6753 6753 6753 6753 6753 6753 6753 6753 6753 6753 6753 6753 6753 6753 6753 6753 6753 6889 6889 6889 6889 7030 4463 4463 4463 4463 4463 4522 4522 4522 4522 4522 4463 4463 4405 4349 4349 4349 4349 4349 4349 4349 4349 4295 4295 4295 4295 4241 4241 4241 4241 4241 4190 4190 4139 4089 4089 4089 4041 4041 4041 4041 4041 4041 4041 4041 4041 4041 4041 4041 4041 4041 4041 4041 4041 4041 0 0 0 0 0 0 0 0 0 0 0 0 0 0 0 0 0 0 0 0 0 0 0 0 0 0 0 0 0 0 0 0 0 0 0 0 0 0
0 0 0 0 0 0 0 0 0 0 0 0 0 0 0 0 0 0 0 0 0 0 0 0 0 0 0 0 0 0 0 0 2933 2933 2933 2933 2958 2958 2958 2984 3010 3037 3037 3037 3037 3037 3037 3064 3064 3064 3092 3092 3092 3092 3092 3120 3120 3120 3120 3120 3120 3120 3149 3149 3149 3178 3178 3208 3178 3178 3178 3178 3178 3208 3208 3208 3238 3238 3269 3269 3300 3300 3300 3300 3300 3300 3333 3333 3333 3365 3365 3399 3399 3399 3399 3433 3433 3433 3433 4842 4842 4842 4842 4842 4842 4842 4842 4911 4911 4911 4911 4911 4983 5056 5056 5132 5132 5132 5132 5210 5210 5132 5132 5132 5132 5132 5132 5056 5056 5056 5056 5132 5132 5132 5132 5132 5132 5132 5132 5132 5132 5132 5132 5132 5132 5132 5056 5056 5056 5056 5056 5056 5056 5056 5056 5056 5056 5056 5056 5056 5056 5056 5056 5056 5056 5056 5056 5056 4983 4983 4983 4983 4983 4983 5056 5056 5056 5056 4983 4983 4911 4911 4842 4842 4842 4842 4842 4842 4842 4842 4911 4983 4983 4983 4983 4983 4983 5056 5056 5056 5056 5056 5056 5056 5056 5056 5056 5056 5132 5056 5056 5056 5056 5056 5056 5056 5056 5132 5132 5210 5291 5291 5374 5374 5374 5374 5460 5460 5548 5548 5548 5548 5548 5548 5548 5548 5933 5933 5832 5734 5734 5832 5832 5832 5832 5832 5933 5933 5933 5933 0 2241 2241 2241 2241 2241 2241 2241 2241 2241 2241 2241 2241 2256 2256 2256 2256 2271 2271 2256 2256 3120 3120 3120 3120 3120 3092 3092 3120 3120 3120 3120 3120 3120 3149 3149 3149 3149 3149 3149 3178 3178 3149 3149 3149 3149 3149 3149 3149 3149 3149 3178 3149 3149 3120 3120 3092 3092 3064 3064 3064 3037 3010 3010 3010 3010 3037 3037 3010 3010 3010 3010 2212 2212 2212 2212 2198 2198 2198 2198 2198 2198 2198 2198 2198 2198 2198 2198 2198 2198 3010 3010 3010 3064 3092 3092 3092 3092 3092 3064 3064 3064 3064 3064 3064 0 0 0 3010 3010 3010 3300 3300 3300 3300 3238 3238 3238 3238 3238 3238 3208 3178 3178 3178 3178 3149 3149 3149 3149 3149 3149 3178 3178 3178 3178 3178 3208 3208 3208 3208 3238 3238 3238 3269 3269 3269 2116 2116 2116 2116 2116 2116 2116 2116 2116 2116 2116 2116 2116 2116 2116 2116 2103 2103 2103 2103 2103 2103 2103 2090 2090 2090 2090 2090 2103 2103 2103 2103 2103 2103 2103 2090 2090 2090 2090 2090 2090 2090 2090 2090 2090 2090 2090 2090 2090 2078 2078 2078 2078 2078 2078 2078 2065 2065 2065 2065 2065 2053 2053 2053 2053 2053 2053 2053 2053 2053 2053 2053 2040 2040 2040 2040 2040 2040 2040 2040 2040 2040 2028 2028 2028 2028 2028 2028 2028 2028 2028 2028 2028 2040 7178 7178 7178 7030 6889 6889 7030 7030 7030 6889 6889 6889 6889 6889 6889 6889 6889 6889 6889 6889 6889 6753 6753 6622 6622 6622 6622 6753 6753 6753 6753 6753 6753 6753 6753 6753 6753 6753 6753 6753 6753 6753 6753 6753 6753 6753 6753 6753 6753 6753 6753 6753 6889 6889 6889 6889 7030 4522 4522 4522 4463 4463 4522 4522 4522 4522 4522 4463 4463 4405 4349 4349 4349 4349 4349 4349 4349 4349 4295 4295 4295 4295 4241 4241 4241 4241 4241 4190 4190 4190 4089 4089 4089 4041 4041 4041 4041 4041 4041 4041 4041 4041 4041 4041 4041 4041 4041 4041 4041 4041 4041 4041 0 0 0 0 0 0 0 0 0 0 0 0 0 0 0 0 0 0 0 0 0 0 0 0 0 0 0 0 0 0 0 0 0 0 0 0 0
0 0 0 0 0 0 0 0 0 0 0 0 0 0 0 0 0 0 0 0 0 0 0 0 0 0 0 0 0 0 0 0 2933 2933 2933 2933 2958 2958 2958 2984 3010 3037 3037 3037 3037 3037 3037 3064 3064 3064 3092 3092 3092 3092 3120 3120 3120 3120 3120 3120 3120 3120 3149 3149 3149 3178 3178 3178 3178 3178 3178 3178 3178 3208 3208 3208 3238 3238 3269 3269 3300 3300 3300 3300 3300 3300 3333 3333 3333 3365 3365 3399 3399 3399 3433 3433 3433 3433 3399 3399 4774 4842 4842 4842 4842 4842 4911 4911 4911 4911 4911 4911 4983 5056 5056 5132 5132 5132 5210 5210 5291 5291 5210 5210 5210 5132 5056 5056 4983 4983 4983 5132 5132 5210 5210 5210 5210 5210 5210 5210 5210 5210 5210 5210 5210 5132 5132 5132 5132 5132 5132 5132 5056 5056 5056 5056 5056 5056 5056 5056 5056 5056 5056 5056 5056 5056 4983 4983 4983 4983 4983 4983 4983 4983 5056 5056 5056 5056 4983 4983 4911 4911 4842 4842 4842 4842 4842 4842 4842 4911 4911 4983 4983 4983 5056 5056 5056 5056 5056 5056 5056 5056 5056 5056 5056 5056 5056 5056 5056 5056 5056 5056 5056 5056 5056 5056 5056 5132 5132 5210 5291 5291 5374 5374 5374 5460 5460 5460 5548 5548 5460 5460 5548 5548 5548 0 0 5933 5933 5734 5734 5832 5832 5832 5832 5832 5933 5933 5933 5933 0 2241 2241 2241 2241 2241 2241 2241 2241 2241 2241 2241 2241 2256 2256 2256 2256 2256 2271 2271 3092 3092 3092 3092 3092 3092 3092 3092 3120 3120 3120 3120 3120 3120 3120 3120 3120 3120 3149 3149 3149 3149 3149 3149 3149 3149 3149 3149 3149 3149 3149 3149 3149 3149 3120 3120 3092 3092 3064 3064 3064 3064 3037 3010 3010 3037 3037 3037 3010 3010 3010 3010 2212 2212 2212 2212 2198 2198 2198 2198 2198 2198 2184 2184 2198 2198 2198 2198 2184 2184 3010 3010 3010 3064 3064 3064 3092 3092 3092 3064 3064 3064 3064 3064 3064 3064 3064 3037 3010 3010 3010 3010 2984 2984 3238 3238 3238 3208 3208 3208 3208 3178 3178 3178 3149 3149 3120 3120 3120 3120 3120 3120 3149 3149 3149 3120 3120 3208 3208 3208 3208 3208 3208 3238 3269 2116 2116 2116 2116 2116 2116 2116 2129 2116 2116 2116 2116 2116 2116 2116 2116 2116 2116 2116 2103 2103 2103 2103 2090 2090 2090 2090 2090 2090 2090 2090 2103 2103 2103 2103 2103 2103 2090 2090 2090 2090 2090 2090 2090 2090 2090 2090 2090 2090 2090 2090 2090 2090 2090 2078 2078 2078 2078 2065 2065 2065 2065 2065 2053 2053 2053 2053 2053 2053 2053 2053 2053 2053 2053 2053 2053 2053 2040 2040 2040 2040 2040 2040 2040 2028 2028 2028 2028 2028 2028 2028 2028 2028 2028 2028 2040 7332 7178 7178 7030 6889 6889 7030 7030 7030 6889 6889 6889 6889 6889 6889 6889 6889 6889 6889 6889 6889 6889 6753 6753 6622 6622 6622 6753 6753 6753 6753 6753 6753 6753 6753 6753 6753 6753 6753 6753 6753 6753 6753 6753 6753 6753 6753 6753 6753 6753 6889 6889 6889 6889 6889 6889 7030 4522 4522 4522 4522 4522 4522 4522 4522 4522 4522 4463 4463 4463 4405 4349 4349 4349 4349 4349 4349 4349 4295 4295 4295 4295 4241 4241 4241 4241 4241 4190 4190 4139 4089 4089 4089 4089 4041 4041 4041 4041 4041 4041 4041 4041 4041 4041 4041 4041 4041 4041 4041 4041 4041 4041 0 0 0 0 0 0 0 0 0 0 0 0 0 0 0 0 0 0 0 0 0 0 0 0 0 0 0 0 0 0 0 0 0 0 0 0 0
0 0 0 0 0 0 0 0 0 0 0 0 0 0 0 0 0 0 0 0 0 0 0 0 0 0 0 0 0 0 0 0 2933 2933 2933 2933 2958 2958 2958 2984 3010 3037 3037 3037 3037 3037 3037 3064 3064 3064 3092 3092 3092 3092 3120 3120 3120 3120 3120 3120 3120 3120 3149 3149 3149 3178 3178 3178 3178 3178 3178 3178 3178 3208 3208 3238 3269 3269 3269 3269 3300 3300 3300 3300 3300 3300 3333 3333 3333 3365 3399 3399 3433 3433 3433 3433 3433 3433 3399 3399 4774 4842 4842 4842 4842 4842 4911 4911 4911 4911 4911 4911 4983 5056 5056 5132 5132 5132 5210 5210 5291 5291 5291 5291 5374 5460 5056 5056 4983 4983 4983 5132 5210 5291 5374 5374 5374 5374 5374 5374 5460 5460 5548 5374 5374 5210 5210 5132 5132 5132 5132 5132 5056 5056 5056 5056 5056 5056 5056 5056 5056 5056 5056 5056 5056 5056 4983 4983 4983 4983 4983 4983 4983 4983 5056 5132 5056 5056 4983 4983 4911 4911 4842 4842 4842 4842 4842 4842 4842 4911 4911 4983 4983 4983 5056 5056 5056 5056 5056 5056 5056 5056 5056 5056 5056 5056 5056 5056 5056 5056 5056 5056 5056 5056 5056 5056 5056 5132 5210 5210 5291 5374 5374 5374 5374 5460 5460 5460 5548 5548 5460 5460 5548 5548 5548 0 5548 5933 5933 5832 5832 5832 5832 5832 5832 5832 5933 5933 5933 5933 0 2241 2241 2241 2241 2241 2241 2241 2241 2241 2241 2241 2241 2241 2241 2256 2256 2256 2271 2286 2286 3092 3092 3092 3092 3092 3092 3092 3120 3120 3120 3120 3120 3120 3120 3120 3120 3120 3120 3120 3149 3149 3149 3149 3149 3149 3149 3149 3149 3149 3149 3149 3149 3149 3120 3120 3092 3092 3064 3064 3092 3064 3064 3037 3037 3037 3037 3037 3037 3010 3010 3010 3010 2212 2212 2212 2212 2198 2198 2198 2198 2198 2184 2184 2184 2198 2198 2198 2184 2184 3010 3010 3010 3037 3064 3064 3064 3064 3092 3092 3064 3064 3064 3064 3064 3064 3064 3037 3010 3010 3010 3010 2984 2984 2984 2984 2984 3010 3010 3010 3010 3010 3010 3010 3037 3092 3037 3037 3064 3092 3092 3092 3092 3092 3092 3092 3120 3120 3149 3178 3178 3208 3208 3238 2103 2103 2116 2116 2116 2116 2116 2116 2129 2116 2116 2116 2116 2116 2129 2129 2129 2129 2129 2116 2090 2090 2090 2090 2090 2090 2090 2090 2090 2090 2090 2090 2103 2103 2103 2103 2103 2103 2090 2090 2090 2090 2090 2090 2090 2090 2090 2090 2090 2090 2090 2090 2090 2090 2090 2090 2078 2078 2078 2065 2065 2053 2053 2065 2065 2053 2053 2053 2053 2053 2053 2053 2053 2053 2053 2053 2053 2053 2040 2040 2040 2040 2040 2040 2028 2028 2028 2028 2028 2028 2028 2028 2028 2028 2040 2040 2040 7492 7178 7178 7030 7030 7030 7030 7030 7030 6889 6889 7030 6889 6889 6889 6889 6889 6889 6889 6889 6889 6889 6753 6753 6622 6622 6753 6753 6753 6753 6753 6753 6753 6753 6753 6753 6753 6753 6753 6753 6753 6753 6753 6753 6753 6753 6753 6753 6753 6889 6889 6889 6889 6889 6889 6889 7030 4522 4522 4522 4522 4522 4522 4522 4522 4522 4522 4463 4463 4463 4405 4405 4349 4349 4349 4349 4349 4349 4295 4295 4295 4295 4241 4241 4241 4241 4190 4190 4190 4139 4089 4089 4089 4089 4041 4041 4041 4041 4041 4041 4041 4041 4041 4041 4041 4041 4041 4041 4041 4041 4041 4041 0 0 0 0 0 0 0 0 0 0 0 0 0 0 0 0 0 0 0 0 0 0 0 0 0 0 0 0 0 0 0 0 0 0 0 0 0
0 0 0 0 0 0 0 0 0 0 0 0 0 0 0 0 0 0 0 0 0 0 0 0 0 0 0 0 0 0 0 0 2933 2933 2958 2958 2984 2984 2984 3010 3010 3037 3037 3037 3037 3037 3037 3064 3064 3064 3092 3092 3092 3092 3120 3120 3120 3120 3120 3120 3120 3149 3149 3149 3149 3149 3178 3178 3178 3178 3178 3178 3178 3208 3208 3208 3269 3269 3269 3269 3300 3300 3300 3300 3300 3300 3333 3333 3365 3365 3399 3399 3433 3433 3433 3433 3433 3433 3399 3399 4842 4842 4842 4842 4842 4911 4911 4911 4911 4911 4983 4983 4983 5056 5056 5132 5132 5132 5210 5210 5210 5210 5210 5210 5374 5460 5460 5056 5056 0 0 5210 5210 5291 5374 5374 5374 5460 5460 5460 5548 5548 5640 5548 5460 5374 5291 5132 5132 5132 5132 5132 5056 5056 5056 5056 5056 5056 5056 5056 5056 5056 5056 5056 5056 5056 5056 5056 5056 4983 4983 5056 4983 4983 5056 5132 5132 5056 4983 4983 4911 4911 4842 4842 4842 4842 4842 4842 4842 4842 4911 4911 5056 5056 5056 5056 5056 5056 5056 5056 5056 5056 5056 5056 5056 5056 5056 5056 5056 5056 5056 5056 5056 5056 5056 5056 5056 5132 5210 5291 5374 5374 5460 5460 5460 5460 5460 5460 5548 5548 5548 5548 5548 5548 5640 5640 0 5933 5933 5832 5832 5832 5832 5832 5832 5832 5933 5933 5933 5933 0 2241 2241 2241 2241 2241 2241 2241 2241 2241 2241 2241 2241 2241 2241 2256 2256 2271 2271 2271 2271 3092 3092 3092 3092 3092 3092 3092 3120 3120 3092 3092 3120 3120 3120 3120 3120 3120 3120 3120 3120 3120 3120 3149 3149 3149 3149 3149 3149 3149 3149 3149 3149 3149 3120 3120 3092 3092 3064 3064 3092 3064 3064 3064 3037 3037 3037 3037 3037 3037 3037 3037 3037 2212 2212 2212 2212 2198 2198 2198 2198 2198 2184 2184 2184 2198 2198 2198 2198 2198 3010 3010 3010 3037 3064 3064 3064 3064 3092 3092 3064 3064 3064 3064 3064 3064 3064 3010 3010 2984 2984 2984 2984 2958 2958 2958 2984 2984 2984 2984 2984 3010 3010 2984 2984 2958 2958 2984 2984 3037 3037 3037 3037 3037 3037 3037 3064 3092 3092 3149 3149 3208 3208 2103 2103 2103 2116 2116 2116 2116 2129 2129 2129 2116 2116 2116 2116 2116 2129 2129 2129 2129 2143 2156 2090 2090 2090 2078 2078 2078 2078 2090 2090 2090 2090 2103 2103 2103 2103 2103 2103 2103 2090 2090 2090 2090 2090 2090 2090 2090 2090 2078 2078 2065 2065 2065 2078 2078 2103 2090 2078 2078 2078 2065 2065 2053 2053 2065 2065 2065 2065 2053 2053 2053 2053 2053 2053 2053 2053 2053 2053 2040 2040 2040 2040 2040 2040 2040 2028 2028 2028 2028 2028 2028 2028 2028 2028 2040 2040 2040 2040 7492 7178 7178 7030 7030 7030 7030 7030 7030 7030 7030 7030 7030 7030 6889 6889 6889 6889 6889 6889 6889 6889 6889 6753 6622 6622 6753 6753 6753 6753 6753 6753 6753 6753 6753 6753 6753 6753 6753 6753 6753 6753 6753 6753 6753 6753 6753 6753 6753 6753 6889 6889 6889 6889 7030 7030 7030 4522 4522 4522 4522 4522 4522 4522 4522 4522 4522 4463 4463 4463 4405 4405 4349 4349 4349 4349 4349 4349 4349 4295 4295 4295 4241 4241 4241 4241 4190 4190 4190 4190 4089 4089 4089 4089 4089 4041 4041 4041 4041 4041 4041 4041 4041 4041 4041 4041 4041 4041 4041 4041 4041 4089 0 0 0 0 0 0 0 0 0 0 0 0 0 0 0 0 0 0 0 0 0 0 0 0 0 0 0 0 0 0 0 0 0 0 0 0 0
0 0 0 0 0 0 0 0 0 0 0 0 0 0 0 0 0 0 0 0 0 0 0 0 0 0 0 0 0 0 0 0 2933 2933 2958 2958 2984 2984 2984 3010 3010 3037 3037 3037 3064 3064 3064 3064 3064 3064 3092 3092 3092 3092 3120 3120 3120 3120 3120 3120 3120 3149 3149 3149 3149 3149 3178 3178 3178 3178 3178 3178 3178 3208 3208 3208 3269 3269 3269 3269 3300 3300 3300 3300 3300 3300 3333 3333 3365 3365 3399 3399 3433 3433 3433 3433 3433 3433 3399 3399 3399 3399 4842 4911 4911 4911 4911 4911 4983 4983 4983 4983 4983 5056 5132 5132 5132 5132 5210 5210 5210 5210 5210 5210 5374 5460 0 0 0 0 0 0 5374 5374 5460 5460 5460 5460 5548 5548 5640 5640 5734 5640 5640 5548 5460 5374 5132 5132 5132 5132 5056 5056 5056 5056 5056 5056 5056 5056 5056 5056 5056 5056 5056 5056 5056 5056 5056 5056 5056 6038 6038 5374 5374 5374 5291 5210 5056 5056 4911 4911 4842 4842 4842 4842 4842 4842 4842 4842 4911 4911 4983 5056 5132 5132 5132 5132 5132 5056 5056 5056 5056 5056 5056 5056 5056 5056 5056 5056 5056 5056 5056 5056 5056 5056 5056 5291 5374 5460 5548 5548 5460 5460 5460 5548 5548 5548 5548 5548 5548 5548 5548 5548 5640 5640 5640 5933 5933 5832 5832 5832 5832 5832 5832 5832 5832 5933 5933 5933 0 2256 2256 2256 2241 2241 2241 2241 2241 2241 2241 2241 2241 2256 2256 2256 2271 2271 2271 2271 2271 2271 3092 3092 3092 3092 3092 3092 3120 3120 3092 3092 3120 3120 3120 3120 3120 3120 3120 3120 3120 3120 3120 3149 3149 3149 3149 3149 3149 3149 3149 3149 3149 3149 3120 3120 3092 3092 3064 3064 3092 3064 3064 3064 3037 3037 3037 3037 3037 3037 3037 3010 3010 2212 2212 2212 2212 2198 2198 2198 2198 2198 2184 2184 2184 2198 2198 2212 2212 3010 3010 3010 3010 3037 3064 3064 3064 3064 3092 3092 3092 3092 3092 3092 3092 3064 3037 3010 3010 2984 2984 2984 2984 2958 2958 2958 2984 2958 2958 2958 2984 2984 2984 2958 2958 2933 2933 2933 2933 2984 2984 2984 2984 3010 3010 3010 3037 3064 3064 3120 3120 3149 3149 2103 2103 2103 2116 2116 2116 2116 2129 2129 2129 2116 2116 2116 2116 2116 2116 2116 2116 2129 2129 2129 2090 2090 2090 2078 2078 2078 2078 2078 2090 2090 2090 4463 4463 4405 4405 4463 4405 4405 2103 2090 2090 2090 2090 2090 2090 2090 2090 2078 2078 2065 2065 2065 2078 2078 2103 7332 7178 2078 2078 2065 2065 2065 2065 2065 2065 2065 2065 2053 2053 2053 2053 2053 2053 2053 2053 2053 2053 2040 2040 2040 2040 2028 2028 2040 2028 2028 2028 2028 2028 2028 2028 2028 2028 2040 2040 2040 2040 7492 7178 7030 7030 6889 6889 6889 6889 6889 7030 7030 7030 7030 7030 7030 6889 6889 6889 6889 6889 6889 6889 6889 6753 6753 6753 6753 6753 6753 6753 6753 6889 6889 6889 6889 6753 6753 6753 6622 6622 6622 6622 6753 6753 6753 6753 6753 6753 6753 6753 6889 6889 6889 6889 7030 7030 7030 4522 4522 4522 4522 4522 4522 4522 4522 4522 4522 4522 4463 4463 4405 4405 4405 4405 4349 4349 4405 4349 4349 4295 4295 4295 4295 4241 4241 4241 4241 4241 4241 4190 4089 4089 4089 4089 4089 4089 4089 4089 4089 4089 4089 4089 4041 4041 4041 4041 4041 4041 4041 4041 4041 4041 4041 0 0 0 0 0 0 0 0 0 0 0 0 0 0 0 0 0 0 0 0 0 0 0 0 0 0 0 0 0 0 0 0 0 0 0 0
0 0 0 0 0 0 0 0 0 0 0 0 0 0 0 0 0 0 0 0 0 0 0 0 0 0 0 0 0 0 0 0 2958 2958 2958 2984 2984 2984 2984 3010 3010 3037 3037 3064 3064 3064 3064 3064 3064 3092 3092 3092 3092 3092 3092 3120 3120 3120 3120 3120 3120 3149 3149 3149 3149 3149 3178 3178 3178 3178 3178 3178 3208 3208 3208 3208 3269 3269 3269 3300 3300 3300 3300 3300 3300 3333 3333 3333 3365 3365 3399 3399 3433 3433 3433 3433 3433 3433 3399 3399 3399 3399 4842 4842 4911 4911 4911 4911 4911 4983 4983 4983 4983 5056 5132 5132 5132 5132 5210 5210 5210 5210 5291 5374 5374 5460 0 0 0 0 0 0 5460 5460 5460 5548 5548 5548 5640 5640 5640 5734 5734 5640 5640 5640 5548 5210 5132 5132 5132 5132 5056 5056 5056 5056 5056 5056 5056 5056 5056 5056 5056 5056 5056 5056 5056 5056 5056 5056 5056 6146 6146 6038 5640 5548 5460 5291 5132 5056 4911 4911 4842 4842 4842 4842 4842 4842 4842 4842 4842 4911 4983 5056 5734 5734 5640 5640 5291 5132 5132 5056 5056 5056 5056 5056 5056 5056 5056 5056 5056 5056 5056 5056 5056 5056 5132 5374 5460 5734 5734 5640 5548 5548 5548 5548 5548 5548 5548 5548 5548 5548 5548 5548 5640 5640 5640 5933 5933 5734 5734 5734 5734 5832 5832 5832 5832 5933 5933 5933 5832 2256 2256 2256 2241 2241 2241 2241 2241 2241 2241 2241 2256 2256 2256 2271 2271 2271 2271 2271 2271 2271 3092 3092 3092 3092 3092 3092 3120 3120 3120 3120 3120 3120 3120 3120 3120 3120 3120 3120 3120 3120 3149 3149 3149 3149 3149 3149 3178 3149 3149 3149 3149 3149 3120 3120 3120 3092 3092 3092 3092 3064 3064 3064 3037 3037 3037 3037 3037 3037 3037 3010 3010 2226 2226 2226 2212 2198 2198 2198 2198 2198 2184 2184 2184 2198 2212 2212 2212 3010 3010 3010 3010 3037 3064 3064 3064 3064 3092 3092 3092 3092 3092 3092 3064 3037 3037 3010 3010 2984 2984 2984 2984 2958 2958 2958 2984 2933 2933 2958 2958 2958 2958 2958 2958 2933 2933 2933 2933 2958 2958 2958 2958 2958 2958 2958 2984 3010 3010 3037 3092 3149 3149 2103 2103 2103 2116 2116 2116 2129 2129 2129 2129 2129 2116 2116 2116 2116 2116 2116 2116 2129 2129 0 0 4582 0 4582 4582 4522 2078 2078 2090 2090 4522 4522 4522 4522 4522 4463 4405 4405 4463 4522 4522 4522 4582 4582 4522 4522 4522 4522 4522 7030 7178 7178 7178 7178 7178 7332 7178 7178 7332 7332 7030 2065 2065 2065 2078 2065 2065 2065 2065 2053 2053 2053 2053 2053 2053 2053 2053 2040 2040 2040 2040 2028 2028 2028 2028 2028 2028 2028 2028 2028 2028 2028 2028 2040 2040 2040 2040 7492 7178 7030 6889 6889 6889 6889 6889 6889 6889 6889 6889 7030 7030 7030 7030 7030 6889 6889 6889 6889 6889 6889 6753 6753 6753 6753 6753 6889 6753 6753 6889 6889 6889 6753 6753 6753 6622 6622 6622 6622 6622 6753 6753 6753 6753 6753 6753 6889 6889 6889 6889 6889 6889 7030 7030 4522 4522 4522 4522 4522 4522 4522 4522 4522 4522 4522 4463 4463 4463 4405 4405 4405 4405 4405 4405 4405 4349 4349 4295 4295 4295 4295 4241 4241 4241 4241 4241 4241 4190 4089 4089 4089 4089 4089 4089 4089 4089 4089 4089 4089 4041 4041 4041 4041 4041 4041 4041 4041 4041 4041 4041 4041 0 0 0 0 0 0 0 0 0 0 0 0 0 0 0 0 0 0 0 0 0 0 0 0 0 0 0 0 0 0 0 0 0 0 0 0
0 0 0 0 0 0 0 0 0 0 0 0 0 0 0 0 0 0 0 0 0 0 0 0 0 0 0 0 0 0 0 0 2958 2958 2984 2984 2984 2984 2984 3010 3010 3010 3037 3037 3064 3064 3064 3064 3064 3064 3064 3092 3092 3092 3092 3120 3120 3120 3120 3149 3149 3149 3149 3149 3149 3149 3178 3178 3178 3178 3178 3178 3208 3208 3208 3208 3269 3269 3269 3269 3300 3300 3300 3300 3333 3333 3333 3333 3365 3399 3399 3433 3433 3433 3433 3433 3433 3433 3433 3399 3399 3399 4842 4842 4911 4911 4911 4911 4911 4983 4983 4983 4983 5056 5056 5056 5132 5132 5210 5210 5210 5210 5291 5291 0 0 0 0 0 0 0 0 0 5548 5548 5548 5548 5548 5640 5640 5640 5734 5734 5640 5640 5374 5374 5210 5132 5132 5132 5132 5056 5056 5056 5056 5056 5056 5056 5056 5056 5056 5056 5056 5056 5056 5056 5056 5056 5056 5734 6146 6146 6038 5832 5832 5460 5460 5210 5132 4911 4911 4842 4842 4842 4842 4842 4842 4842 4842 4842 5056 5056 5734 5734 5832 5832 5832 5734 5734 5933 5933 5933 5132 5132 5132 5132 5132 5056 5056 5056 5132 5132 5210 5210 5210 5210 5734 6146 6146 6146 6038 5933 5640 5640 5548 5548 5640 5548 5548 5548 5548 5548 5548 5640 5640 5640 5933 5933 5734 5734 5734 5734 5832 5832 5832 5832 5832 5832 5832 5832 5832 2271 2271 2256 2256 2241 2241 2241 2241 2256 2256 2256 2256 2256 2256 2256 2256 2256 2256 2256 2256 3092 3092 3120 3120 3092 3092 3120 3120 3120 3120 3120 3120 3120 3120 3120 3120 3120 3120 3120 3120 3149 3149 3149 3149 3149 3149 3149 3149 3149 3149 3149 3149 3120 3120 3120 3092 3092 3064 3064 3064 3064 3064 3037 3037 3037 3037 3037 3037 3037 3010 3010 2226 2226 2226 2226 2212 2198 2198 2198 2198 2198 2198 2198 2198 2198 2212 2212 3010 3010 3037 3037 3037 3064 3064 3064 3064 3092 3092 3092 3092 3092 3092 3064 3037 3010 3010 3010 2984 2984 2984 2984 2984 2984 2984 2984 2933 2933 2958 2958 2958 2958 2958 2933 2933 2933 2908 2908 2908 2908 2908 2908 2908 2908 2908 2958 2984 2984 2984 2984 2984 2103 2103 2103 2103 2116 2116 2129 2129 2129 2129 2129 2129 2116 2116 2116 2116 2116 2129 2129 2129 2129 0 0 4522 4522 4522 4522 4522 4522 4522 4522 4522 4522 4522 4522 4522 4522 4522 4522 4522 4522 4522 4522 4522 4582 4582 4582 4582 4582 4582 7178 7178 7178 7332 7332 7332 7332 7332 7178 7178 7178 7030 7030 6259 5933 2090 2090 2090 2090 6038 6038 6146 6146 6146 0 6375 0 2040 0 2040 2028 2028 2040 2028 2028 2028 2028 2028 2040 2028 2028 2028 2028 2028 2028 2040 2040 2040 2040 7492 7492 7030 6889 6889 6889 6889 6889 6889 6889 6889 6889 7030 7030 7030 6889 6889 6889 6889 6889 6889 6889 6889 6889 6753 6753 6889 6889 6753 6753 6753 6889 6889 6889 6753 6753 6753 6622 6622 6622 6622 6622 6753 6753 6753 6753 6753 6753 6889 6889 6889 6889 6889 7030 7030 7030 4522 4522 4522 4522 4522 4522 4522 4522 4522 4522 4463 4463 4463 4463 4405 4405 4405 4405 4405 4405 4405 4349 4349 4295 4295 4295 4295 4295 4295 4241 4241 4241 4241 4190 4089 4089 4089 4089 4089 4089 4089 4089 4089 4089 4089 4041 4041 4041 4041 4041 4041 4041 4041 4041 4041 4041 4041 4089 0 0 0 0 0 0 0 0 0 0 0 0 0 0 0 0 0 0 0 0 0 0 0 0 0 0 0 0 0 0 0 0 0 0 0
0 0 0 0 0 0 0 0 0 0 0 0 0 0 0 0 0 0 0 0 0 0 0 0 0 0 0 0 0 0 0 0 2984 2984 2984 2984 2984 2984 2984 3010 3010 3010 3037 3037 3037 3064 3064 3064 3064 3064 3064 3064 3092 3092 3092 3092 3092 3120 3120 3149 3149 3149 3149 3149 3149 3178 3178 3178 3178 3178 3178 3178 3208 3208 3208 3208 3269 3269 3269 3269 3300 3300 3300 3300 3333 3333 3333 3333 3365 3399 3399 3433 3433 3433 3433 3433 3433 3433 3399 3399 3300 3300 4842 4842 4842 4911 4911 4911 4983 4983 4983 4983 5056 5056 5056 5056 5132 5132 5210 5210 5210 5210 5291 5460 0 0 0 0 0 0 0 0 0 5548 5548 5548 5640 5640 5640 5640 5640 5734 5640 5640 5640 5374 5374 5291 5132 5132 5132 5056 4983 4983 4983 5056 5056 5056 5056 5056 5056 5056 5056 5056 5056 5056 5056 5056 5132 5132 5933 6146 6146 6146 6038 6038 5640 5460 5210 5132 4911 4842 4842 4842 4842 4842 4842 4842 4842 4842 4842 5056 5132 5832 5832 5832 5933 5933 5933 5933 6038 6038 5933 5933 5374 5291 5210 5132 5132 5056 5056 5056 5132 5132 5210 5210 6146 6146 6259 6259 6375 6259 6146 6038 5832 5734 5640 5640 5548 5548 5548 5548 5548 5640 5640 5640 0 6146 5734 5734 5734 5832 5832 5832 5832 5832 5832 5832 5832 5832 5832 5832 5832 2271 2256 2256 2256 2241 2241 2241 2256 2256 2256 2256 2256 2256 2256 2256 2256 2256 2256 2256 3092 3092 3120 3120 3092 3092 3120 3120 3120 3120 3120 3120 3120 3120 3092 3092 3092 3092 3092 3120 3120 3149 3149 3149 3149 3149 3149 3149 3149 3149 3149 3149 3120 3120 3120 3092 3092 3064 3064 3064 3064 3064 3064 3037 3037 3037 3037 3037 3037 3010 3010 3010 2226 2226 2212 2212 2198 2198 2198 2198 2198 2198 2198 2198 2198 2212 2212 3037 3037 3037 3037 3037 3037 3064 3037 3037 3064 3064 3064 3064 3064 3064 3064 3010 3010 3010 3010 2984 2984 2984 2984 2984 2984 2984 2984 2958 2958 2958 2958 2958 2958 2958 2933 2908 2908 2908 2908 2908 2908 2908 2908 2908 2908 2908 2933 2933 2933 2933 2933 2933 2933 2103 2103 2116 2116 2129 2129 2129 2129 2129 2129 2129 2129 2129 2116 2116 2116 2129 2129 2129 2129 0 0 4522 4522 4522 4522 4463 4463 4522 4522 4522 4522 4522 4522 4522 4522 4522 4522 4522 4522 4522 4522 4522 4522 4522 4522 4522 4522 4522 4522 7178 7178 7332 7332 7332 7332 7178 7178 7178 7030 6753 6753 6259 5933 5933 5933 5933 6038 6038 6038 6146 6146 6146 6375 0 0 0 0 0 2028 2028 2028 2028 2028 2040 2040 2040 2040 2040 2040 2028 2028 2028 2028 2040 2040 2040 7332 7332 7332 6753 6753 6753 6622 6622 6753 6753 6753 6753 6889 6889 6889 7030 6889 6889 6753 6753 6889 6753 6753 6889 6753 6753 6753 6753 6753 6753 6753 6753 6889 6889 6889 6753 6753 6753 6622 6622 6622 6622 6622 6753 6753 6753 6753 6753 6753 6889 6889 6889 6889 7030 7030 7030 4522 4522 4522 4522 4522 4522 4522 4522 4522 4522 4522 4463 4463 4463 4463 4405 4405 4405 4405 4405 4405 4405 4405 4349 4295 4295 4295 4295 4295 4295 4241 4241 4241 4241 4190 4089 4089 4089 4089 4089 4089 4089 4089 4089 4041 4041 4041 4041 4041 4041 4041 4041 4041 4041 4041 4041 4041 4041 4041 0 0 0 0 0 0 0 0 0 0 0 0 0 0 0 0 0 0 0 0 0 0 0 0 0 0 0 0 0 0 0 0 0 0 0
0 0 0 0 0 0 0 0 0 0 0 0 0 0 0 0 0 0 0 0 0 0 0 0 0 0 0 0 0 0 0 0 2984 2984 2984 2984 2984 2984 2984 2984 3010 3010 3010 3037 3037 3037 3064 3064 3064 3064 3064 3064 3092 3092 3092 3092 3092 3120 3120 3149 3149 3149 3149 3149 3149 3149 3178 3178 3178 3178 3178 3178 3208 3208 3208 3208 3269 3269 3269 3269 3300 3300 3300 3300 3333 3333 3333 3333 3365 3399 3399 3433 3433 3433 3433 3433 3433 3433 3399 3399 3300 3300 3399 4842 4842 4911 4911 4911 4983 4983 4983 5056 5056 5132 5132 5132 5132 5132 5210 5210 5210 5291 5291 5460 0 0 0 0 0 0 0 0 0 5640 5640 5640 5640 5640 5640 5640 5640 5734 5640 5640 5640 5460 5460 5291 5132 5056 5056 5056 4983 4983 4983 5056 5056 5056 5056 5056 5056 5056 5056 5056 5056 5056 5056 5056 5132 5132 6038 6146 6146 6259 6038 6038 5640 5460 5374 5210 4911 4842 4842 4774 4774 4774 4842 4842 4842 4842 4842 4983 5132 5832 5832 5933 5933 5933 6038 6038 6038 6038 5933 5933 5548 5291 5210 5132 5132 5056 5056 5056 5132 5132 5132 5210 6146 6146 6259 6259 6259 6259 6259 6038 5832 5734 5640 5640 5640 5640 5548 5548 5640 5640 5640 5640 0 6146 6146 5933 5832 5832 5832 5832 5832 5832 5832 5832 5832 5832 5832 5832 5832 5832 2256 2256 2256 2241 2241 2241 2241 2241 2256 2256 2256 2256 2271 2271 2256 2256 2256 2256 3092 3092 3120 3120 3092 3092 3092 3120 3120 3120 3120 3120 3120 3120 3092 3092 3092 3092 3092 3092 3120 3149 3149 3149 3149 3149 3149 3149 3149 3178 3149 3149 3120 3120 3120 3092 3064 3064 3064 3064 3064 3064 3064 3037 3037 3037 3037 3037 3037 3010 3010 3010 2226 2226 2212 2212 2198 2198 2198 2198 2198 2198 2198 2198 2198 2212 2212 3010 3010 3037 3037 3037 3037 3037 3037 3037 3064 3064 3064 3064 3064 3064 3064 3010 3010 3010 3010 3010 2984 2984 2984 2984 2984 2984 2984 2958 2958 2958 2958 2933 2933 2933 2933 2908 2908 2908 2908 2908 2908 2908 2908 2908 2908 2908 2933 2933 2933 2933 2933 2908 2908 2116 2116 2116 2116 2129 2129 2129 2129 2129 2129 2129 2129 2129 2116 2116 2116 2116 2116 2116 2116 0 0 4522 4522 4522 4522 4463 4463 4522 4522 4522 4522 4522 4522 4522 4522 4522 4522 4522 4522 4522 4522 4522 4522 4522 4522 4522 4522 4522 4522 7178 7178 7178 7332 7332 7332 7178 7030 7030 6889 6622 6622 6259 5933 5933 5933 6038 6038 6038 6146 6259 6259 6375 0 0 0 0 0 0 0 2028 2028 2028 2028 2040 2040 2040 2040 2040 2040 2040 2040 2028 2028 2040 2040 2040 2040 2040 0 6622 6622 6622 6622 6622 6622 6753 6753 6753 6889 6889 6889 7030 6889 6889 6753 6753 6753 6753 6753 6753 6622 6622 6622 6753 6753 6753 6753 6753 6889 6889 6753 6753 6622 6622 6622 6622 6622 6622 6622 6753 6753 6753 6753 6753 6753 6889 6889 6889 6889 7030 7030 7030 4522 4522 4522 4522 4522 4522 4522 4522 4522 4522 4522 4463 4463 4463 4463 4405 4405 4405 4405 4405 4405 4405 4405 4349 4349 4349 4349 4295 4295 4295 4241 4241 4241 4190 4190 4089 4089 4089 4089 4089 4089 4089 4089 4089 4041 4041 4041 4041 3994 3994 4041 4041 4041 4041 4041 4041 4041 4041 4041 0 0 0 0 0 0 0 0 0 0 0 0 0 0 0 0 0 0 0 0 0 0 0 0 0 0 0 0 0 0 0 0 0 0 0
0 0 0 0 0 0 0 0 0 0 0 0 0 0 0 0 0 0 0 0 0 0 0 0 0 0 0 0 0 0 0 0 2984 2984 2984 2984 2984 2984 2984 2984 3010 3010 3010 3037 3037 3037 3064 3064 3064 3064 3064 3064 3092 3092 3092 3092 3092 3092 3120 3149 3149 3149 3149 3149 3149 3149 3178 3178 3178 3178 3178 3178 3208 3208 3208 3238 3269 3269 3269 3269 3300 3300 3300 3300 3300 3333 3333 3333 3333 3399 3399 3433 3433 3433 3433 3433 3433 3433 3399 3399 3365 3365 3399 4842 4842 4911 4911 4911 4911 4983 4983 5056 5056 5132 5132 5132 5132 5132 5210 5291 5291 5291 0 0 0 0 0 0 0 0 0 0 5832 5640 5640 5640 5640 5640 5640 5640 5640 5734 5640 5548 5460 5460 5291 5210 5132 5056 5056 5056 4983 4983 4983 5056 5056 5056 5056 5056 5056 5056 5056 5056 5132 5132 5056 5056 5056 5056 5933 6146 6146 6146 6038 5933 5734 5548 5374 5291 4911 4842 4842 4774 4774 4774 4842 4842 4842 4842 4842 4911 4983 5832 5933 5933 5933 5933 6038 6038 6038 6038 5933 5933 5832 5460 5291 5132 5132 5056 5056 5056 5056 5132 5132 5132 5132 6259 6259 6259 6259 6259 6259 6146 5933 5734 5640 5640 5640 5640 5640 5640 5640 5640 5640 5640 5640 6146 6146 6038 5933 5933 5832 5832 5832 5832 5832 5832 5832 5734 5734 5734 5734 2286 2256 2256 2256 2256 2241 2241 2241 2241 2256 2256 2256 2256 2256 2271 2256 2241 2241 2241 3092 3092 3120 3120 3092 3092 3092 3120 3120 3120 3120 3120 3120 3120 3120 2241 2241 3092 3092 3092 2241 2241 2256 3149 3149 3149 3149 3149 3149 3178 3149 3149 3120 3120 3120 3092 3064 3064 3064 3064 3064 3064 3064 3064 3064 3037 3037 3037 3037 3010 3010 3010 2226 2226 2212 2212 2198 2198 2198 2198 2198 2198 2198 2212 2212 2212 2226 3010 3010 3010 3037 3037 3037 3037 3037 3037 3064 3064 3064 3064 3064 3064 3064 3037 3010 3010 3010 3010 3010 2984 2984 2984 2984 2984 2984 2958 2958 2958 2958 2933 2933 2933 2933 2933 2908 2908 2908 2908 2908 2908 2908 2908 2908 2908 2933 2933 2958 2958 2933 2908 2908 2116 2116 2116 2129 2129 2129 2129 2129 2129 2129 2129 2129 2129 2116 2116 2116 2116 2116 2116 2116 2143 2143 4522 4522 4522 4522 4522 4522 4522 4522 4522 4522 4522 4522 4522 4522 4522 4522 4522 4522 4522 4522 4522 4522 4522 4522 4522 4522 4522 4522 7178 7178 7178 7178 7178 7178 7030 7030 6889 6622 6622 6259 6146 6038 6038 6038 6038 6146 6146 6146 6259 6259 6375 6622 6622 0 0 0 0 0 2028 2028 2028 2028 2028 2028 2040 2040 2040 2040 2040 2040 2028 2028 2040 2040 2040 2040 0 0 6497 6497 6497 6497 6622 6622 6622 6622 6753 6753 6889 6889 7030 7030 7030 6753 6753 6753 6753 6622 6622 6497 6497 6497 6622 6622 6622 6622 6622 6889 6889 6753 6622 6622 6622 6622 6622 6622 6622 6622 6753 6753 6753 6753 6753 6753 6889 6753 6753 6889 7030 7030 4522 4522 4522 4522 4522 4522 4522 4522 4522 4522 4522 4522 4463 4463 4463 4463 4405 4405 4405 4405 4463 4463 4405 4349 4349 4349 4349 4295 4295 4295 4295 4241 4241 4241 4190 4190 4089 4089 4089 4089 4089 4089 4089 4089 4089 4041 4041 4041 3994 3994 3994 4041 3994 3994 4041 4041 4041 4041 4041 4041 4139 0 0 0 0 0 0 0 0 0 0 0 0 0 0 0 0 0 0 0 0 0 0 0 0 0 0 0 0 0 0 0 0 0 0
