0 0 0 0 0 0 0 0 0 0 0 0 0 0 0 0 0 0 0 0 0 0 0 0 0 0 0 0 0 0 0 3208 3208 3208 3208 3208 3208 3238 3238 3238 3238 3238 3238 3269 3269 3269 3300 3300 3300 3300 3300 3333 3333 3333 3365 3365 3365 3365 3399 3399 3433 3433 3433 3468 3468 3468 3433 3433 3433 3468 3468 3468 3468 3503 0 0 0 0 0 0 0 0 0 0 0 0 0 0 4774 4774 4842 4842 4842 4842 4911 4911 4983 4983 4983 5056 5056 5056 5056 5132 0 0 0 0 0 0 0 0 0 0 0 0 0 0 0 0 0 0 0 0 5548 5548 5548 5548 5548 5548 5460 5460 5460 5460 5460 5460 5210 5132 5132 5132 5132 5056 5056 5056 5056 5056 5056 5056 5056 5056 5132 5210 5210 5291 5374 5374 5374 5374 5374 5374 5374 4645 4645 4645 4774 4774 4774 4774 4774 4774 4774 4774 4774 4983 5210 5374 5460 5548 5640 5734 5734 5734 5734 5734 5640 5640 5640 5734 5734 5734 0 0 0 0 0 0 2286 2286 2286 2301 2301 2301 2301 2301 2301 2317 2317 2317 2317 2317 2317 2317 2317 2301 2301 2301 2301 2301 2301 2317 2317 2301 2301 2301 2301 2301 2301 2301 2301 2301 2301 2301 2301 2301 2301 2301 2286 2286 2286 2286 2286 2256 2256 2256 2256 2271 2271 2271 2271 2271 2271 2271 2271 2271 2271 2271 2256 2256 2256 2256 2256 2241 2241 2241 2241 2241 2241 2256 2256 2256 2271 2271 2286 3037 3037 3037 3037 3064 3064 3064 3064 3064 3092 3092 3092 3092 3092 3092 3092 3064 3064 3064 3064 3064 3064 3092 3092 3092 3092 3092 3092 3092 3092 3092 3120 3120 3120 3120 3120 3149 3149 3149 3120 3120 3064 3037 3037 3037 3037 3037 3010 3010 3010 3010 3010 2984 2984 2170 2170 2170 2170 2156 2156 2156 2156 2156 2156 2156 2156 2156 2156 2156 2156 2156 2156 2156 2156 2156 2156 2156 2156 2156 2156 2156 2156 2156 2156 2156 2156 2156 2156 2156 2156 2143 2143 2156 2156 2156 2143 2143 2129 2129 2129 2129 2129 2129 2129 2129 2129 2129 2129 2129 2129 2116 2116 2129 2116 2116 2116 2116 2116 2116 2116 2116 2116 2116 2116 2116 2116 2116 2103 2103 2103 2103 2090 2090 2090 2090 2090 2090 2090 0 0 0 0 0 0 0 0 0 0 5460 5460 5460 5460 5460 5374 5374 5291 5291 5374 5374 5460 5374 5374 5460 5460 5460 5374 5210 5210 5210 5210 5210 5291 5291 5210 5210 5132 5132 5132 5132 5132 5132 5056 5056 5056 5056 5056 4983 4983 4983 4983 4983 5132 5132 5132 5132 5132 5132 5132 5056 5056 5056 5056 5056 5056 5056 5056 5056 5056 5056 5056 5056 4983 4983 4983 4911 4911 4842 4842 4842 4842 4842 4842 4842 4842 4842 4911 4911 4842 4842 4911 4842 4842 4842 4842 4842 4842 4774 4774 4774 4774 4842 4842 4842 4842 4774 4774 4708 4708 4708 4708 4645 4645 4645 4645 4582 4522 4522 4522 4522 4522 4463 4463 4463 4463 4405 4405 4349 4349 4349 4349 4295 4295 4295 4295 4295 4295 4295 4241 4241 4190 4190 4190 4190 4190 4190 4190 4190 4139 4139 4139 0 0 0 0 0 0 0 0 0 0 0 0 0 0 0 0 0 0 0 0 0 0 0 0 0 0 0 0 0 0 0 0 0 0 0 0 0 0 0 0 0 0 0 0 0 0 0 0 0 0 0 0 0 0 0 0 0 0 0 0 0 0 0 0 0 0 0 0 0 0 0 0 0 0 0 0 0
0 0 0 0 0 0 0 0 0 0 0 0 0 0 0 0 0 0 0 0 0 0 0 0 0 0 0 0 0 0 0 3208 3208 3208 3208 3208 3208 3238 3238 3238 3238 3238 3269 3269 3300 3300 3300 3333 3333 3300 3300 3333 3333 3333 3365 3365 3365 3399 3399 3433 3433 3468 3468 3468 3468 3468 3468 3468 3468 3468 3468 3468 3468 3468 3468 0 0 0 0 0 0 0 0 0 0 0 0 0 4774 4774 4842 4842 4842 4842 4911 4911 4983 4983 4983 5056 5056 5056 5056 5132 0 0 0 0 0 0 0 0 0 0 0 0 0 0 0 0 0 0 0 0 5548 5548 5548 5548 5548 5640 5460 5460 5460 5460 5460 5374 5210 5210 5132 5132 5132 5132 5056 5056 5056 5056 5056 5056 5056 5132 5291 5374 5374 5374 5374 5374 5374 5374 5374 5374 5374 4645 4645 4645 4774 4774 4774 4774 4774 4774 4774 4774 4774 4842 5210 5374 5460 5548 5640 5640 5734 5734 5734 5734 5640 5640 5640 0 0 0 0 0 0 0 2286 2286 2286 2286 2301 2301 2301 2301 2301 2301 2301 2301 2317 2317 2301 2301 2301 2301 2301 2301 2301 2301 2301 2301 2301 2301 2301 2301 2301 2301 2301 2301 2301 2301 2301 2301 2301 2301 2301 2301 2301 2301 2301 2301 2286 2286 2286 2271 2256 2256 2256 2271 2271 2271 2271 2271 2271 2271 2271 2271 2271 2271 2256 2256 2256 2256 2256 2241 2241 2241 2241 2241 2241 2256 2256 2256 2271 2271 2286 3064 3064 3037 3037 3064 3064 3064 3064 3092 3092 3092 3092 3092 3092 3092 3092 3092 3064 3064 3064 3092 3092 3092 3092 3092 3092 3092 3092 3092 3092 3092 3120 3120 3120 3120 3120 3149 3149 3149 3120 3092 3064 3064 3037 3037 3037 3037 3010 3010 3010 3010 3010 2984 2984 2984 2170 2170 2170 2156 2156 2156 2156 2156 2156 2156 2156 2156 2156 2156 2156 2156 2156 2156 2156 2156 2156 2156 2156 2156 2156 2156 2156 2156 2156 2156 2156 2156 2156 2143 2143 2143 2143 2143 2156 2143 2143 2143 2129 2129 2129 2129 2129 2129 2129 2129 2129 2129 2129 2129 2129 2116 2116 2116 2116 2116 2116 2116 2116 2116 2116 2116 2116 2116 2116 2116 2116 2103 2103 2103 2103 2103 2090 2090 2090 2090 2090 2090 2116 0 0 0 0 0 0 0 0 0 0 5374 5374 5374 5374 5374 5374 5210 5210 5132 5132 5132 5132 5132 5132 5374 5374 5374 5374 5291 5291 5291 5132 5132 5132 5210 5210 5210 5132 5132 5132 5132 5056 5056 5056 5056 5056 5056 4983 4983 4983 4911 4911 4983 5056 5132 5132 5056 5056 5056 5132 5056 5056 4983 4983 5056 5056 5056 5056 5056 5056 4983 4983 4983 4911 4911 4911 4911 4842 4842 4842 4842 4842 4842 4842 4774 4774 4842 4842 4842 4842 4842 4911 4842 4842 4842 4842 4842 4842 4774 4774 4774 4774 4774 4774 4774 4842 4842 4774 4774 4774 4708 4708 4708 4645 4645 4645 4582 4522 4522 4522 4522 4522 4522 4463 4463 4463 4463 4463 4405 4405 4405 4405 4349 4295 4295 4295 4295 4295 4295 4241 4241 4190 4190 4190 4190 4190 4190 4139 4139 4089 4089 4089 0 0 0 0 0 0 0 0 0 0 0 0 0 0 0 0 0 0 0 0 0 0 0 0 0 0 0 0 0 0 0 0 0 0 0 0 0 0 0 0 0 0 0 0 0 0 0 0 0 0 0 0 0 0 0 0 0 0 0 0 0 0 0 0 0 0 0 0 0 0 0 0 0 0 0 0 0
0 0 0 0 0 0 0 0 0 0 0 0 0 0 0 0 0 0 0 0 0 0 0 0 0 0 0 0 0 0 0 3178 3178 3208 3208 3208 3208 3238 3238 3238 3238 3238 3269 3269 3269 3269 3300 3300 3300 3333 3333 3333 3333 3333 3365 3365 3399 3399 3399 3433 3468 3468 3468 3468 3468 3468 3468 3433 3433 3433 3433 3468 3468 3468 3468 3468 0 0 0 0 0 0 0 0 0 0 0 0 4774 4774 4842 4842 4842 4842 4842 4911 4983 4983 4983 4983 5056 5056 5056 0 0 0 0 0 0 0 0 0 0 0 0 0 0 0 0 0 0 0 0 0 5640 5640 5640 5640 5640 5640 5640 5640 5460 5460 5374 5374 5210 5210 5210 5132 5132 5132 5056 5056 5056 5056 5056 5056 5132 5132 5291 5374 5374 5374 5374 5374 5374 5291 5291 5374 5374 5374 4774 4774 4774 4774 4774 4774 4774 4774 4774 4774 4774 4842 5291 5460 5460 5548 5640 5640 5734 5734 5734 5734 5734 0 0 0 0 0 0 0 0 2226 0 2286 2286 2301 2301 2301 2301 2301 2301 2301 2301 2301 2301 2301 2301 2301 2301 2301 2301 2301 2301 2301 2301 2301 2301 2301 2301 2301 2301 2301 2301 2301 2301 2301 2301 2301 2301 2301 2301 2301 2301 2301 2301 2301 2286 2286 2286 2271 2256 2256 2256 2271 2271 2271 2271 2271 2271 2271 2271 2271 2271 2271 2271 2271 2256 2256 2256 2256 2241 2241 2241 2241 2241 2256 2256 2256 2271 2271 2286 3064 3064 3064 3064 3092 3092 3092 3092 3092 3092 3092 3092 3092 3092 3092 3092 3092 3064 3064 3064 3064 3092 3092 3064 3064 3092 3092 3092 3092 3092 3092 3120 3120 3120 3120 3120 3149 3149 3149 3149 3092 3064 3064 3037 3037 3037 3037 3037 3037 3037 3010 3010 3010 3010 3010 2170 2170 2170 2156 2156 2156 2156 2156 2156 2156 2156 2156 2156 2156 2156 2156 2156 2156 2156 2156 2156 2156 2156 2156 2156 2156 2156 2156 2156 2156 2156 2156 2143 2143 2143 2143 2143 2143 2143 2143 2143 2143 2129 2129 2129 2129 2129 2129 2129 2129 2129 2129 2129 2129 2129 2116 2116 2116 2116 2116 2116 2116 2116 2116 2103 2103 2116 2103 2103 2103 2103 2103 2103 2103 2103 2090 2090 2090 2090 2090 2090 2103 2116 0 0 0 0 0 0 0 0 0 0 5374 5291 5291 5210 5210 5132 5132 5132 5056 5056 5132 5132 5132 5132 5132 5132 5132 5291 5291 5210 5210 5132 5132 5132 5132 5132 5132 5132 5132 5056 5056 4983 4983 4983 4983 4983 4983 4983 4983 4911 4842 4842 4911 5056 5056 5132 5056 5056 5056 5056 5056 4911 4911 4911 4983 4983 4983 4983 4983 4983 4911 4911 4911 4842 4842 4842 4842 4842 4842 4842 4842 4842 4842 4842 4774 4774 4842 4842 4842 4842 4842 4842 4842 4774 4774 4842 4842 4842 4774 4774 4774 4774 4774 4774 4774 4774 4774 4774 4774 4774 4774 4708 4708 4645 4645 4582 4582 4522 4522 4522 4522 4522 4522 4463 4463 4463 4463 4463 4405 4405 4405 4405 4349 4295 4295 4295 4295 4295 4295 4241 4241 4241 4190 4190 4190 4190 4190 4139 4139 4089 4089 4089 0 0 0 0 0 0 0 0 0 0 0 0 0 0 0 0 0 0 0 0 0 0 0 0 0 0 0 0 0 0 0 0 0 0 0 0 0 0 0 0 0 0 0 0 0 0 0 0 0 0 0 0 0 0 0 0 0 0 0 0 0 0 0 0 0 0 0 0 0 0 0 0 0 0 0 0 0
0 0 0 0 0 0 0 0 0 0 0 0 0 0 0 0 0 0 0 0 0 0 0 0 0 0 0 0 0 0 0 3178 3178 3208 3208 3208 3208 3238 3238 3238 3238 3238 3238 3238 3269 3269 3269 3300 3300 3333 3333 3333 3333 3333 3365 3365 3399 3399 3399 3433 3468 3468 3468 3468 3468 3468 3468 3433 3433 3433 3503 3468 3468 3468 3468 3468 0 0 0 0 0 0 0 0 0 0 0 0 4774 4774 4842 4842 4842 4842 4842 4911 4911 4911 4983 4983 4983 5056 5056 0 0 0 0 0 0 0 0 0 0 0 0 0 0 0 0 0 0 0 0 0 0 5734 5734 5734 5734 5734 5734 5734 5460 5460 5374 5374 5210 5132 5132 5132 5132 5132 5056 5056 5132 5132 5056 5056 5132 5210 5291 5374 5374 5374 5374 5374 5374 5291 5291 5374 5374 0 4774 4774 4774 4774 4774 4774 4774 4774 4774 4774 4774 4842 5132 5374 5460 5548 5548 5640 5734 5640 5640 5640 5640 0 0 0 0 0 0 0 0 2226 2226 2256 2301 2301 2301 2301 2301 2301 2301 2301 2301 2301 2301 2301 2301 2301 2301 2301 2301 2301 2301 2301 2301 2301 2301 2301 2301 2301 2301 2301 2301 2301 2301 2301 2301 2301 2301 2301 2301 2301 2301 2301 2301 2301 2286 2286 2286 2271 2256 2256 2256 2271 2271 2271 2271 2271 2271 2271 2271 2271 2271 2271 2256 2256 2256 2256 2256 2241 2241 2241 2241 2241 2241 2256 2256 2256 2256 2256 2271 3037 3037 3037 3037 3037 3092 3092 3092 3092 3092 3092 3092 3092 3092 3092 3092 3092 3064 3064 3064 3064 3064 3064 3064 3064 3064 3092 3092 3092 3092 3092 3120 3120 3120 3120 3149 3149 3149 3149 3149 3092 3064 3064 3037 3037 3037 3037 3037 3037 3010 3010 3010 2984 2984 3010 3010 2170 2170 2156 2156 2156 2156 2156 2156 2156 2156 2156 2156 2156 2156 2156 2156 2156 2156 2156 2156 2156 2156 2156 2156 2156 2156 2156 2156 2156 2156 2143 2143 2143 2143 2143 2143 2143 2143 2143 2143 2143 2129 2129 2129 2129 2129 2129 2129 2129 2129 2129 2129 2129 2129 2116 2116 2116 2116 2116 2116 2116 2116 2116 2103 2103 2103 2103 2103 2103 2103 2103 2103 2103 2103 2090 2090 2090 2090 2090 2090 2090 2116 2116 0 0 0 0 0 0 0 0 0 5291 5210 5210 5132 5132 5132 5056 5056 5056 5056 5056 5056 5056 5132 5132 5132 5132 5132 5210 5210 5210 5132 5132 5132 5132 5132 5056 5056 5056 4983 4983 4983 4983 4911 4911 4983 4983 4983 4911 4842 4842 4842 4842 4983 4983 4983 4983 4983 4983 4983 4911 4911 4911 4911 4911 4911 4911 4911 4911 4911 4911 4842 4842 4842 4842 4842 4842 4842 4842 4842 4774 4774 4774 4774 4708 4708 4774 4774 4774 4774 4774 4774 4774 4774 4774 4774 4774 4842 4774 4774 4774 4774 4774 4774 4774 4774 4774 4774 4774 4774 4774 4708 4645 4645 4645 4582 4522 4522 4522 4522 4522 4522 4522 4522 4522 4522 4463 4463 4463 4405 4405 4405 4349 4295 4295 4295 4295 4295 4295 4295 4241 4241 4241 4241 4241 4241 4190 4139 4139 4089 4089 4089 0 0 0 0 0 0 0 0 0 0 0 0 0 0 0 0 0 0 0 0 0 0 0 0 0 0 0 0 0 0 0 0 0 0 0 0 0 0 0 0 0 0 0 0 0 0 0 0 0 0 0 0 0 0 0 0 0 0 0 0 0 0 0 0 0 0 0 0 0 0 0 0 0 0 0 0 0
0 0 0 0 0 0 0 0 0 0 0 0 0 0 0 0 0 0 0 0 0 0 0 0 0 0 0 0 0 0 0 3178 3178 3208 3208 3208 3208 3238 3238 3238 3238 3238 3238 3238 3269 3269 3269 3300 3300 3333 3333 3333 3333 3365 3365 3365 3399 3399 3433 3433 3468 3468 3468 3468 3468 3468 3468 3468 3468 3468 3503 0 0 0 0 0 0 0 0 0 0 0 0 0 0 0 0 0 4842 4842 4842 4842 4842 4842 4842 4911 4911 4911 4983 4983 4983 5056 5056 0 0 0 0 0 0 0 0 0 0 0 0 0 0 0 0 0 0 0 0 0 0 0 0 0 0 0 0 5460 5460 5460 5374 5374 5210 5132 5132 5132 5132 5132 5132 5132 5132 5132 5132 5132 5132 5210 5291 5374 5374 5374 5374 5374 5374 5374 5374 5374 5374 0 4774 4774 4645 4645 4708 4774 4842 4774 4774 4774 4774 4842 4983 5291 5460 5548 5548 5640 5734 5640 5640 5640 5640 0 2241 0 0 0 0 0 0 2226 2226 2256 2301 2301 2301 2301 2301 2301 2301 2301 2301 2301 2301 2301 2301 2301 2301 2301 2301 2301 2301 2301 2301 2301 2301 2301 2301 2301 2301 2301 2301 2301 2301 2301 2301 2301 2301 2301 2301 2301 2301 2301 2301 2301 2301 2286 2286 2271 2271 2271 2271 2271 2271 2271 2271 2271 2271 2256 2256 2256 2256 2256 2256 2256 2256 2256 2241 2241 2241 2241 2241 2241 2241 2241 2241 2241 2256 2256 2271 3037 3037 3037 3037 3037 3092 3092 3092 3092 3064 3064 3092 3064 3064 3064 3064 3064 3064 3064 3064 3064 3064 3064 3064 3064 3064 3092 3092 3092 3092 3092 3120 3120 3120 3120 3120 3149 3149 3149 3120 3092 3092 3064 3037 3037 3037 3037 3010 3010 3010 3010 3010 2984 2984 3010 2170 2170 2156 2156 2156 2156 2156 2156 2156 2156 2156 2156 2156 2156 2156 2156 2156 2156 2156 2156 2156 2156 2156 2156 2156 2156 2156 2156 2156 2143 2143 2143 2143 2143 2143 2143 2143 2143 2143 2143 2129 2129 2129 2129 2129 2129 2129 2129 2129 2129 2116 2116 2116 2129 2116 2116 2116 2116 2116 2116 2116 2116 2116 2116 2103 2103 2103 2103 2103 2103 2103 2103 2103 2090 2090 2090 2090 2090 2078 2078 2078 2078 2116 2116 0 0 0 0 0 0 0 0 5210 5210 5210 5132 5132 5132 5056 5056 5056 5056 5056 5056 5056 5056 5056 5056 5132 5132 5132 5132 5132 5132 5132 5132 5132 5056 5056 5056 4983 4983 4911 4911 4911 4911 4911 4911 4911 4911 4911 4911 4842 4842 4842 4842 4911 4911 4911 4911 4983 4983 4911 4911 4911 4911 4911 4911 4911 4911 4911 4911 4842 4842 4842 4842 4774 4774 4842 4842 4842 4774 4774 4774 4774 4774 4774 4708 4708 4774 4774 4774 4708 4708 4708 4708 4708 4708 4774 4774 4774 4774 4774 4774 4774 4774 4774 4774 4774 4774 4774 4774 4774 4708 4708 4645 4645 4645 4582 4522 4522 4522 4522 4522 4522 4522 4522 4522 4522 4463 4463 4463 4405 4405 4405 4349 4349 4295 4295 4295 4295 4295 4295 4295 4241 4241 4241 4241 4241 4190 4190 4139 4139 4089 4089 0 0 0 0 0 0 0 0 0 0 0 0 0 0 0 0 0 0 0 0 0 0 0 0 0 0 0 0 0 0 0 0 0 0 0 0 0 0 0 0 0 0 0 0 0 0 0 0 0 0 0 0 0 0 0 0 0 0 0 0 0 0 0 0 0 0 0 0 0 0 0 0 0 0 0 0 0
0 0 0 0 0 0 0 0 0 0 0 0 0 0 0 0 0 0 0 0 0 0 0 0 0 0 0 0 0 0 0 3178 3178 3208 3208 3208 3208 3238 3238 3238 3238 3238 3269 3269 3269 3269 3269 3269 3300 3333 3333 3333 3333 3365 3365 3399 3399 3399 3433 3433 3433 3468 3468 3468 3468 3468 3468 3468 3433 3433 3503 0 0 0 0 0 0 0 0 0 0 0 0 0 0 0 0 0 4842 4842 4842 4842 4842 4842 4842 4911 4911 4911 4983 4983 4983 5056 5056 0 0 0 0 0 0 0 0 0 0 0 0 0 0 0 0 0 0 0 0 0 0 0 0 0 0 0 0 5460 5460 5460 5374 5291 5210 5132 5132 5132 5056 5056 5056 5056 5056 5056 5132 5132 5132 5210 5291 5374 5291 5291 5291 5374 5291 5291 5291 5291 5291 0 4708 4708 4645 4645 4708 4774 4842 4842 4842 4774 4774 4842 4842 5291 5460 5548 5548 5640 5734 5640 5640 5640 5640 2226 2241 2241 2241 0 2212 2212 2212 2212 2226 2256 2301 2301 2301 2301 2301 2301 2301 2301 2301 2301 2301 2301 2301 2301 2301 2301 2301 2301 2301 2301 2301 2301 2301 2301 2301 2301 2301 2301 2301 2301 2301 2301 2301 2301 2301 2301 2301 2301 2301 2301 2301 2301 2301 2301 2286 2271 2271 2271 2271 2271 2271 2271 2271 2271 2271 2256 2256 2256 2256 2256 2256 2256 2241 2241 2241 2241 2241 2241 2241 2241 2241 2241 2241 2241 2241 2241 2241 3064 3037 3037 3037 3064 3092 3092 3092 3092 3064 3064 3064 3064 3064 3064 3064 3064 3064 3064 3064 3064 3064 3064 3064 3064 3064 3092 3092 3092 3092 3092 3120 3120 3120 3120 3120 3149 3149 3120 3120 3092 3092 3064 3037 3037 3010 3010 3010 3010 3010 3010 3010 2958 2958 2958 2156 2156 2156 2156 2156 2156 2156 2156 2156 2156 2156 2156 2156 2156 2156 2156 2156 2156 2156 2156 2156 2156 2156 2156 2156 2156 2156 2156 2156 2143 2143 2143 2143 2143 2143 2143 2143 2143 2143 2143 2129 2129 2129 2129 2129 2129 2129 2129 2129 2116 2116 2116 2116 2116 2116 2116 2116 2116 2116 2116 2116 2116 2116 2116 2103 2103 2103 2103 2103 2103 2103 2103 2103 2090 2090 2090 2090 2078 2078 2078 2078 2078 2116 2116 2116 2143 0 0 0 0 0 5132 5132 5132 5210 5132 5132 5132 5056 5056 4983 4983 4983 5056 5056 5056 5056 5056 5056 5056 5056 5132 5132 5132 5132 5132 5056 4983 4983 4983 4911 4911 4842 4842 4842 4842 4911 4911 4911 4911 4911 4911 4842 4842 4842 4842 4911 4911 4911 4911 4911 4911 4911 4911 4911 4911 4911 4911 4842 4842 4842 4842 4774 4774 4774 4774 4774 4774 4774 4842 4842 4774 4774 4774 4774 4774 4774 4708 4708 4774 4774 4708 4645 4645 4645 4645 4645 4708 4708 4774 4774 4774 4774 4774 4774 4708 4708 4708 4774 4708 4708 4708 4708 4708 4645 4645 4582 4582 4582 4522 4522 4522 4522 4522 4522 4522 4522 4522 4522 4463 4463 4463 4463 4405 4405 4349 4349 4349 4349 4295 4295 4295 4295 4295 4241 4241 4241 4241 4241 4241 4190 4139 4139 4089 4089 0 0 0 0 0 0 0 0 0 0 0 0 0 0 0 0 0 0 0 0 0 0 0 0 0 0 0 0 0 0 0 0 0 0 0 0 0 0 0 0 0 0 0 0 0 0 0 0 0 0 0 0 0 0 0 0 0 0 0 0 0 0 0 0 0 0 0 0 0 0 0 0 0 0 0 0 0
0 0 0 0 0 0 0 0 0 0 0 0 0 0 0 0 0 0 0 0 0 0 0 0 0 0 0 0 0 0 0 3208 3208 3208 3208 3208 3208 3238 3238 3238 3269 3238 3238 3269 3269 3269 3269 3269 3300 3300 3333 3333 3365 3365 3365 3365 3399 3399 3433 3433 3433 3468 3468 3468 3468 3468 3468 3468 3433 3433 3433 0 0 0 0 0 0 0 0 0 0 0 0 0 0 0 0 0 4842 4842 4842 4842 4911 4842 4842 4911 4911 4911 4983 4983 4983 5056 5056 0 0 0 0 0 0 0 0 0 0 0 0 0 0 0 0 0 0 0 0 0 0 0 0 0 0 0 0 5374 5374 5460 5460 5210 5210 5132 5132 5132 5056 5056 5056 5056 5056 5056 5132 5132 5132 5210 5291 5374 5291 5291 5291 5291 5291 5291 5291 5291 5291 0 0 4708 4708 4708 4708 4842 4842 4842 4842 4842 4842 4842 4842 4842 5548 2241 2241 5640 5734 2198 2198 2198 2198 2226 2226 2226 2241 2241 2212 2212 2198 2198 2212 2226 2286 2286 2301 2301 2301 2317 2301 2301 2301 2301 2301 2301 2301 2301 2301 2301 2301 2301 2301 2286 2286 2301 2301 2301 2301 2301 2301 2301 2301 2301 2301 2301 2301 2301 2301 2301 2301 2301 2301 2301 2301 2301 2301 2301 2286 2271 2271 2271 2271 2271 2271 2271 2271 2271 2271 2256 2256 2256 2256 2256 2256 2241 2241 2241 2241 2241 2241 2241 2241 2241 2241 2241 2241 2241 2241 2241 2241 3037 3037 3037 3037 3064 3064 3064 3064 3064 3064 3064 3064 3064 3064 3064 3064 3064 3064 3064 3064 3064 3064 3064 3064 3064 3064 3064 3064 3064 3092 3092 3120 3120 3120 3120 3120 3149 3149 3120 3120 3120 3092 3064 3037 3037 3010 3010 3010 3010 3010 3010 3010 2958 2958 2958 2156 2156 2156 2156 2156 2156 2156 2156 2156 2156 2156 2156 2156 2156 2156 2156 2156 2156 2156 2156 2156 2156 2156 2156 2156 2156 2156 2156 2156 2143 2143 2143 2143 2143 2143 2143 2143 2143 2143 2143 2129 2129 2129 2129 2129 2129 2129 2116 2116 2116 2116 2116 2116 2116 2116 2116 2116 2116 2116 2116 2116 2116 2116 2116 2103 2103 2103 2103 2103 2103 2103 2090 2090 2090 2090 2090 2078 2078 2078 2078 2078 2053 2053 2116 2116 2143 0 0 0 0 0 5132 5132 5132 5132 5132 5056 5056 5056 5056 4983 4983 4983 4983 5056 5056 5056 5056 5056 5056 5056 5132 5132 5132 5132 5056 5056 4983 4983 4911 4911 4842 4842 4842 4842 4842 4842 4911 4911 4911 4983 4983 4911 4911 4911 4911 4911 4842 4842 4842 4842 4842 4842 4842 4842 4842 4842 4774 4774 4774 4774 4774 4708 4708 4774 4708 4708 4708 4708 4774 4774 4774 4774 4774 4774 4774 4774 4708 4708 4708 4708 4645 4582 4582 4582 4582 4582 4645 4708 4708 4708 4708 4708 4708 4708 4708 4708 4708 4708 4582 4582 4645 4645 4645 4582 4582 4522 4522 4522 4522 4522 4522 4522 4522 4522 4522 4522 4522 4522 4463 4463 4463 4463 4405 4405 4349 4349 4349 4295 4295 4295 4295 4295 4295 4241 4241 4241 4241 4241 4241 4190 4139 4139 4089 4089 0 0 0 0 0 0 0 0 0 0 0 0 0 0 0 0 0 0 0 0 0 0 0 0 0 0 0 0 0 0 0 0 0 0 0 0 0 0 0 0 0 0 0 0 0 0 0 0 0 0 0 0 0 0 0 0 0 0 0 0 0 0 0 0 0 0 0 0 0 0 0 0 0 0 0 0 0
0 0 0 0 0 0 0 0 0 0 0 0 0 0 0 0 0 0 0 0 0 0 0 0 0 0 0 0 0 0 0 3208 3208 3208 3208 3208 3238 3238 3269 3269 3269 3238 3238 3269 3269 3269 3269 3269 3300 3300 3333 3333 3365 3365 3365 3365 3399 3399 3399 3433 3468 3468 3468 3468 3468 3503 3503 3468 3468 3433 3433 0 0 0 0 0 0 0 0 0 0 0 0 0 0 0 0 4911 4842 4842 4842 4842 4842 4842 4842 4842 4911 4911 4983 4983 4983 5056 5056 5056 5132 0 0 0 0 0 0 0 0 0 0 0 0 0 0 0 0 0 0 0 0 0 0 0 0 0 0 5374 5374 5460 5291 5210 5132 5132 5132 5132 5132 5132 5132 5132 5132 5132 5132 5132 5132 5210 5291 5374 5374 5374 5374 5291 5291 5291 5291 5291 5291 0 4708 4708 4708 4708 4708 4708 4774 4842 4774 4774 4842 4842 4842 2226 2226 2226 2212 2212 2198 2198 2198 2198 2198 2212 2212 2212 2241 2226 2212 2212 2198 2198 2212 2198 2198 2212 2286 2301 2301 2301 2301 2301 2301 2301 2301 2301 2301 2301 2301 2301 2301 2286 2286 2286 2286 2286 2286 2301 2301 2301 2301 2301 2301 2301 2301 2301 2301 2301 2301 2301 2301 2301 2301 2301 2301 2301 2301 2301 2286 2271 2271 2271 2271 2271 2271 2271 2271 2271 2271 2256 2256 2241 2241 2256 2256 2241 2241 2241 2241 2241 2241 2241 2241 2241 2241 2241 2241 2241 2241 2226 2226 3037 3037 3037 3064 3064 3064 3064 3064 3064 3037 3037 3037 3037 3037 3064 3064 3064 3064 3064 3064 3092 3064 3064 3064 3064 3064 3064 3064 3064 3092 3092 3120 3120 3120 3120 3120 3149 3149 3149 3120 3120 3092 3064 3037 3037 3010 3010 3010 3010 3010 3010 3010 2984 2984 2984 2156 2156 2156 2156 2156 2156 2156 2156 2156 2156 2156 2156 2156 2156 2156 2156 2156 2156 2143 2143 2156 2156 2156 2156 2156 2143 2143 2143 2143 2143 2143 2143 2143 2143 2129 2129 2129 2129 2129 2129 2116 2116 2116 2116 2116 2116 2116 2116 2116 2116 2116 2116 2116 2116 2116 2116 2116 2116 2116 2116 2116 2103 2103 2116 2103 2103 2103 2103 2103 2103 2090 2090 2090 2090 2090 2090 2078 2078 2078 2078 2078 2053 2053 2116 2116 1959 1959 1959 1959 1970 1981 1981 1981 1981 5132 5132 5056 5056 4983 4983 4983 4983 4983 4983 5056 5056 5056 5056 5132 5132 5132 5132 5210 1959 1959 1959 1959 1959 1959 4911 4842 4774 4774 4774 4774 4842 4842 4842 4842 4842 4842 4911 4842 4842 4842 4842 4842 4842 4842 4842 4842 4842 4842 4774 4774 4774 4774 4774 4774 4774 4774 4774 4708 4708 4774 4708 4708 4708 4708 4708 4774 4708 4708 4708 4708 4708 4708 4645 4645 4645 4645 4582 4582 4582 4582 4522 4522 4582 4582 4582 4708 4708 4708 4708 4645 4582 4582 4645 4645 4582 4582 4582 4645 4645 4582 4582 4522 4522 4522 4522 4522 4522 4522 4522 4522 4522 4522 4522 4522 4463 4463 4463 4463 4405 4405 4349 4349 4349 4295 4295 4295 4295 4295 4295 4295 4295 4241 4241 4241 4241 4241 4190 4139 4089 4089 4089 0 0 0 0 0 0 0 0 0 0 0 0 0 0 0 0 0 0 0 0 0 0 0 0 0 0 0 0 0 0 0 0 0 0 0 0 0 0 0 0 0 0 0 0 0 0 0 0 0 0 0 0 0 0 0 0 0 0 0 0 0 0 0 0 0 0 0 0 0 0 0 0 0 0 0 0
0 0 0 0 0 0 0 0 0 0 0 0 0 0 0 0 0 0 0 0 0 0 0 0 0 0 0 0 0 0 0 3208 3208 3208 3208 3208 3238 3238 3238 3269 3269 3269 3269 3269 3269 3269 3269 3300 3300 3300 3333 3333 3365 3365 3365 3365 3399 3399 3399 3433 3468 3468 3468 3468 3468 3468 3503 3468 3468 3468 0 0 0 0 0 0 0 0 0 0 0 0 0 0 0 0 0 4842 4842 4842 4842 4842 4842 4842 4842 4842 4842 4911 4911 4911 4911 5056 5056 5056 5132 0 0 0 0 0 0 0 0 0 0 0 0 0 0 0 0 0 0 0 0 0 0 0 0 0 0 5460 5460 5374 5291 5210 5132 5132 5132 5132 5132 5132 5132 5132 5132 5132 5132 5132 5132 5210 5291 5374 5374 5374 5374 5374 5374 5210 5210 5291 5291 0 4708 4708 4708 4708 4708 4708 4774 4774 4774 4774 4842 4842 2212 2212 2212 2212 2198 2198 2198 2198 2198 2198 2198 2198 2212 2212 2226 2212 2212 2198 2198 2198 2198 2184 2184 2198 2212 2301 2301 2301 2301 2301 2301 2301 2301 2301 2301 2286 2286 2286 2286 2271 2271 2271 2271 2271 2286 2286 2286 2286 2286 2286 2286 2286 2286 2286 2286 2286 2286 2286 2301 2301 2301 2286 2286 2301 2301 2301 2286 2271 2271 2271 2271 2271 2256 2241 2241 2241 2241 2256 2256 2241 2241 2241 2241 2226 2226 2226 2226 2226 2226 2226 2226 2226 2241 2226 2226 2226 2212 2212 2226 3064 2129 2129 2143 3064 3037 3037 3037 3037 3037 3037 3037 3037 3037 3064 3064 3064 3064 3064 3064 3092 3092 3092 3064 3064 3064 3064 3092 3092 3092 3092 3120 3120 3120 3120 3120 3120 3120 3092 3092 3092 3092 3064 3037 3037 3010 3010 3010 3010 3010 3010 3010 2958 2958 2958 2143 2143 2156 2156 2156 2156 2156 2156 2156 2156 2156 2143 2143 2143 2143 2143 2143 2143 2143 2143 2143 2143 2143 2143 2143 2143 2143 2143 2143 2143 2143 2143 2143 2143 2129 2129 2129 2129 2129 2129 2116 2116 2116 2116 2116 2116 2116 2116 2116 2116 2116 2103 2103 2103 2103 2103 2103 2103 2103 2103 2103 2103 2103 2103 2103 2103 2103 2103 2103 2103 2090 2090 2090 2090 2090 2090 2065 2065 2065 2078 2078 2053 2053 2065 2065 1959 1959 1959 1959 1970 1970 1970 1970 1970 1970 1970 1970 1959 1959 1959 1959 4983 4983 4983 5056 5056 5056 5056 5132 5132 1959 1959 1959 1959 1959 1959 1959 1947 1947 1947 4708 4708 4708 4774 4774 4774 4774 4774 4774 4774 4842 4842 4842 4842 4842 4842 4842 4842 4774 4774 4774 4774 4774 4774 4774 4774 4774 4774 4774 4774 4774 4774 4708 4708 4774 4708 4708 4708 4708 4708 4708 4645 4645 4645 4645 4645 4645 4582 4582 4582 4582 4582 4522 4522 4582 4522 4522 4582 4582 4582 4645 4645 4645 4645 4582 4582 4582 4582 4582 4522 4522 4522 4522 4582 4522 4522 4522 4522 4522 4522 4522 4522 4522 4522 4522 4522 4522 4522 4463 4463 4463 4405 4405 4405 4405 4349 4349 4349 4349 4295 4295 4295 4295 4295 4295 4295 4241 4241 4241 4241 4241 4190 4139 4089 4089 4089 0 0 0 0 0 0 0 0 0 0 0 0 0 0 0 0 0 0 0 0 0 0 0 0 0 0 0 0 0 0 0 0 0 0 0 0 0 0 0 0 0 0 0 0 0 0 0 0 0 0 0 0 0 0 0 0 0 0 0 0 0 0 0 0 0 0 0 0 0 0 0 0 0 0 0 0
0 0 0 0 0 0 0 0 0 0 0 0 0 0 0 0 0 0 0 0 0 0 0 0 0 0 0 0 0 0 0 3208 3208 3208 3208 3208 3238 3238 3238 3269 3269 3269 3269 3269 3269 3269 3269 3269 3300 3300 3333 3333 3365 3365 3365 3365 3399 3399 3399 3433 3468 3468 3468 3468 3468 3468 3503 3468 3468 3468 0 0 0 0 0 0 0 0 0 0 0 0 0 0 0 0 0 4842 4842 4842 4774 4774 4842 4842 4842 4842 4842 4842 4842 4911 4911 5056 5056 5056 5056 0 0 0 0 0 0 0 0 0 0 0 0 0 0 0 0 0 0 0 0 0 0 0 0 5291 5291 5374 5374 5374 5374 5210 5132 5132 5132 5132 5132 5132 5132 5132 5132 5132 5210 5132 5132 5210 5291 5374 5374 5374 5374 5374 5374 5210 5210 5210 2198 2198 2198 4708 4708 4708 2198 2198 2198 2198 2198 2198 2212 2212 2212 2212 2212 2198 2198 2198 2198 2198 2198 2198 2198 2198 2212 2212 2226 2212 2198 2198 2184 2184 2184 2184 2184 2184 2184 2301 2301 2301 2301 2301 2301 2301 2286 2271 2271 2271 2271 2286 2271 2256 2256 2256 2256 2256 2271 2271 2271 2286 2286 2286 2286 2286 2286 2286 2286 2286 2286 2286 2286 2286 2286 2286 2286 2301 2301 2301 2286 2271 2271 2271 2271 2271 2256 2241 2241 2241 2241 2241 2226 2226 2226 2241 2241 2212 2212 2212 2212 2226 2226 2226 2226 2226 2226 2226 2212 2212 2212 2212 2212 2129 2129 2129 2143 3064 3037 3037 3037 3037 3010 3010 3010 3037 3037 3037 3064 3064 3064 3064 3064 3092 3092 3092 3064 3064 3064 3092 3092 3092 3120 3120 3120 3120 3120 3120 3120 3120 3120 3092 3092 2053 2053 2078 3037 3037 3010 3010 3010 3010 3010 3010 2984 2958 2958 2958 2143 2143 2156 2156 2156 2156 2156 2156 2143 2143 2143 2143 2129 2129 2129 2143 2143 2143 2143 2143 2143 2143 2143 2143 2143 2143 2143 2143 2143 2143 2143 2116 2116 2129 2116 2116 2116 2116 2116 2116 2116 2103 2103 2103 2116 2116 2116 2116 2103 2103 2103 2103 2103 2103 2103 2103 2103 2103 2103 2103 2103 2103 2103 2103 2103 2103 2103 2103 2103 2103 2090 2090 2103 2090 2090 2090 2053 2053 2053 2065 2040 2016 2016 1981 1970 1959 1959 1959 1959 1959 1959 1959 1959 1959 1959 1959 1970 1959 1959 1959 1959 1959 1959 1959 1959 1959 1959 1959 1959 1959 1959 1959 1959 1959 1959 1959 1959 1947 1947 1947 4708 4645 4645 4708 4774 4774 4774 4774 4774 4774 4774 4842 4842 4842 4842 4842 4842 4774 4774 4774 4774 4774 4774 4774 4774 4774 4774 4774 4774 4774 4774 4774 4708 4708 4774 4708 4708 4708 4708 4708 4645 4645 4645 4582 4582 4582 4582 4522 4522 4522 4522 4522 4522 4522 4522 4522 4522 4522 4582 4582 4582 4582 4582 4582 4522 4522 4522 4522 4522 4522 4522 4522 4522 4582 4522 4522 4522 4522 4522 4522 4522 4522 4522 4522 4522 4522 4522 4463 4463 4463 4463 4405 4405 4405 4405 4349 4349 4349 4349 4349 4349 4295 4295 4295 4295 4295 4241 4241 4241 4241 4241 4190 4190 4139 4139 4190 0 0 0 0 0 0 0 0 0 0 0 0 0 0 0 0 0 0 0 0 0 0 0 0 0 0 0 0 0 0 0 0 0 0 0 0 0 0 0 0 0 0 0 0 0 0 0 0 0 0 0 0 0 0 0 0 0 0 0 0 0 0 0 0 0 0 0 0 0 0 0 0 0 0 0 0
0 0 0 0 0 0 0 0 0 0 0 0 0 0 0 0 0 0 0 0 0 0 0 0 0 0 0 0 0 0 0 3208 3208 3208 3208 3208 3238 3238 3269 3269 3269 3269 3269 3269 3269 3269 3269 3269 3300 3300 3333 3333 3365 3365 3365 3365 3399 3399 3399 3433 3468 3468 3468 3468 3503 3503 3503 3468 3468 0 0 0 0 0 0 0 0 0 0 0 0 0 0 0 0 0 0 4774 4774 4774 4774 4774 4774 4842 4842 4842 4842 4842 4842 4911 4911 5056 5056 5056 5056 0 0 0 0 0 0 0 0 0 0 0 0 0 0 0 0 0 0 0 0 0 0 0 0 5291 5291 5374 5374 5374 5374 5291 5210 5132 5132 5132 5132 5132 5132 5132 5132 5132 5210 5056 5056 5210 5291 5374 5374 5460 5460 5460 5460 5460 2184 2184 2198 2198 2198 2198 2198 2184 2184 2184 2198 2198 2184 2184 2184 2198 2198 2198 2198 2198 2198 2198 2198 2198 2198 2198 2198 2198 2198 2198 2212 2212 2198 2184 2184 2184 2184 2170 2170 2156 2143 2143 2301 2301 2301 2301 2286 2212 2212 2212 2212 2226 2226 2241 2241 2241 2241 2241 2256 2256 2256 2256 2256 2271 2271 2271 2256 2256 2256 2256 2256 2256 2256 2256 2256 2256 2256 2256 2256 2286 2301 2301 2301 2286 2286 2271 2271 2271 2271 2241 2241 2241 2241 2226 2212 2212 2212 2212 2226 2212 2212 2212 2212 2212 2226 2226 2226 2226 2226 2226 2212 2212 2212 2129 2129 2129 2116 2116 2090 2090 3037 3037 3037 3010 3010 3010 3010 3010 3010 3037 3037 3064 3064 3064 3064 3064 3064 3064 3064 3064 3064 3092 3092 3120 3120 3120 2065 2065 2053 2053 2053 2053 2040 2028 2028 2028 2040 2028 2028 2065 2065 2078 2984 2984 2984 2984 2984 2933 2933 2933 2156 2143 2143 2156 2156 2156 2156 2156 2143 2143 2129 2129 2103 2103 2116 2116 2129 2129 2129 2129 2129 2129 2143 2143 2143 2143 2143 2143 2143 2143 2143 2090 2090 2129 2116 2116 2116 2103 2103 2103 2103 2090 2090 2090 2103 2116 2116 2116 2103 2103 2103 2103 2103 2103 2090 2090 2103 2103 2103 2103 2103 2103 2103 2103 2103 2103 2103 2103 2103 2103 2103 2103 2090 2090 2090 2090 2040 2040 2040 2040 2016 1993 1993 1970 1970 1959 1947 1947 1947 1959 1959 1959 1959 1959 1959 1959 1959 1959 1959 1959 1959 1959 1947 1947 1947 1947 1947 1959 1959 1947 1947 1947 1947 1947 1947 1947 1947 1959 1959 1959 4645 4645 4645 4708 4774 4774 4774 4708 4708 4774 4774 4774 4774 4774 4774 4774 4842 4774 4774 4708 4708 4708 4708 4708 4708 4774 4774 4708 4708 4708 4708 4708 4708 4708 4708 4708 4708 4708 4708 4708 4645 4645 4582 4582 4582 4582 4582 4522 4522 4522 4522 4522 4522 4522 4522 4522 4522 4522 4522 4522 4522 4522 4522 4522 4463 4463 4463 4522 4522 4463 4463 4463 4522 4522 4522 4522 4522 4522 4522 4463 4463 4522 4522 4522 4522 4463 4463 4463 4463 4405 4405 4405 4405 4405 4405 4349 4349 4349 4349 4349 4349 4349 4295 4295 4295 4295 4295 4241 4241 4241 4241 4241 4241 4190 4190 4139 4139 0 0 0 0 0 0 0 0 0 0 0 0 0 0 0 0 0 0 0 0 0 0 0 0 0 0 0 0 0 0 0 0 0 0 0 0 0 0 0 0 0 0 0 0 0 0 0 0 0 0 0 0 0 0 0 0 0 0 0 0 0 0 0 0 0 0 0 0 0 0 0 0 0 0 0
0 0 0 0 0 0 0 0 0 0 0 0 0 0 0 0 0 0 0 0 0 0 0 0 0 0 0 0 0 0 0 3208 3208 3208 3208 3238 3238 3238 3269 3269 3269 3269 3269 3269 3269 3269 3269 3300 3300 3300 3333 3333 3365 3365 3365 3365 3399 3399 3399 3433 3468 3468 3503 3503 3503 3503 3503 3468 3468 0 0 0 0 0 0 0 0 0 0 0 0 0 0 0 0 0 0 4774 4774 4774 4774 4774 4774 4774 4842 4842 4842 4842 4842 4842 4842 5056 5132 5132 0 0 0 0 0 0 0 0 0 0 0 0 0 0 0 0 0 0 0 0 0 0 0 0 0 5210 5210 5210 5291 5291 5374 5291 5132 5132 5132 5132 5056 5056 5056 5056 5132 5210 5291 5056 5056 5210 5210 5291 5374 5460 5460 5548 5548 2156 2184 2184 2184 2184 2184 2198 2184 2184 2184 2184 2184 2184 2184 2170 2170 2184 2184 2184 2184 2184 2184 2184 2184 2184 2184 2198 2198 2198 2198 2198 2198 2184 2184 2170 2170 2170 2170 2156 2156 2143 2143 2143 2143 2143 2143 2143 2156 2156 2170 2170 2198 2198 2198 2198 2198 2198 2226 2226 2256 2256 2256 2256 2256 2271 2271 2143 2143 2143 2143 2143 2241 2241 2241 2241 2241 2241 2226 2226 2241 2286 2286 2286 2301 2286 2090 2090 2090 2090 2090 2103 2116 2241 2241 2103 2103 2116 2116 2116 2129 2129 2129 2143 2184 2212 2226 2226 2212 2212 2226 2226 2226 2226 2103 2103 2116 2078 2078 2078 2078 2078 2065 2065 2078 2078 2065 2065 2065 2065 2065 3037 2065 2065 2065 2065 2065 2065 2065 2053 2053 2053 2053 3092 2065 2053 2053 2053 2053 2053 2053 2053 2040 2040 2028 2028 2028 2028 2040 2028 2028 2040 2040 2040 2040 2028 2028 2028 2028 2028 2933 2028 2016 2016 2028 2143 2143 2143 2143 2143 2028 2028 2028 2028 2028 2028 2028 2090 2116 2116 2116 2116 2116 2129 2143 2143 2143 2143 2143 2143 2143 2143 2078 2065 2065 2116 2103 2103 2103 2016 2016 2028 2016 2016 2016 2040 2078 2103 2103 2103 2103 2103 2103 2090 2090 2090 2090 2090 2090 2090 2090 2090 2090 2090 2103 2103 2103 2103 2103 2103 2103 2103 2103 2005 2005 1993 1981 1981 1981 1970 1970 1970 1970 1970 1970 1959 1959 1947 1947 1947 1947 1947 1947 1959 1959 1959 1959 1959 1959 1959 1959 1959 1947 1947 1947 1947 1947 1947 1947 1947 1947 1936 1936 1936 1947 1947 1947 1947 1947 1947 1959 1959 4582 4582 4582 4645 4708 4708 4708 4708 4708 4774 4774 4774 4774 4774 4774 4774 4842 4774 4708 4708 4708 4708 4708 4645 4645 4708 4708 4708 4708 4708 4708 4708 4708 4708 4708 4708 4708 4708 4645 4645 4645 4582 4582 4582 4582 4582 4582 4522 4522 4522 4522 4522 4522 4522 4522 4522 4522 4522 4522 4463 4463 4463 4463 4463 4463 4463 4463 4522 4522 4463 4463 4463 4522 4522 4522 4522 4522 4522 4522 4463 4463 4522 4463 4463 4463 4463 4463 4405 4405 4405 4405 4405 4405 4405 4405 4349 4349 4349 4349 4349 4349 4349 4349 4349 4295 4295 4295 4241 4241 4241 4241 4241 4241 4139 4139 4089 4089 4139 0 0 0 0 0 0 0 0 0 0 0 0 0 0 0 0 0 0 0 0 0 0 0 0 0 0 0 0 0 0 0 0 0 0 0 0 0 0 0 0 0 0 0 0 0 0 0 0 0 0 0 0 0 0 0 0 0 0 0 0 0 0 0 0 0 0 0 0 0 0 0 0 0 0
0 0 0 0 0 0 0 0 0 0 0 0 0 0 0 0 0 0 0 0 0 0 0 0 0 0 0 0 0 0 0 3208 3208 3208 3208 3208 3238 3238 3238 3269 3269 3269 3269 3269 3269 3269 3269 3300 3300 3300 3300 3333 3365 3365 3365 3399 3399 3399 3399 3433 3468 3503 3503 3539 3503 3503 3503 3433 3433 0 0 0 0 0 0 0 0 0 0 0 0 0 0 0 0 0 0 4774 4774 4774 4774 4774 4774 4774 4842 4842 4842 4842 4842 4842 4842 4911 5210 0 0 0 0 0 0 0 0 0 0 0 0 0 0 0 0 0 0 0 0 0 0 0 0 0 0 5210 5210 5210 5291 5291 5374 5210 5132 5132 5132 5132 5056 5056 5056 5056 5132 5291 5291 5056 5056 5210 5210 5291 5374 5374 2156 2156 2156 2156 2156 2156 2170 2170 2170 2170 2170 2156 2156 2156 2156 2156 2156 2156 2156 2156 2156 2156 2156 2156 2156 2156 2170 2170 2184 2184 2184 2184 2184 2184 2170 2170 2156 2156 2156 2156 2156 2143 2143 2129 2129 2129 2116 2116 2116 2116 2129 2143 2143 2143 2156 2156 2156 2143 2143 2143 2103 2103 2103 2103 2103 2090 2090 2090 2103 2143 2143 2143 2129 2129 2129 2129 2116 2116 2116 2103 2103 2116 2103 2103 2103 2090 2090 2090 2090 2090 2090 2090 2090 2090 2090 2078 2078 2090 2090 2090 2090 2078 2078 2090 2090 2129 2184 2212 2226 2226 2212 2212 2226 2226 2078 2078 2078 2078 2053 2053 2053 2065 2053 2053 2053 2065 2065 2078 2065 2065 2065 2065 2065 2065 2065 2053 2053 2065 2053 2053 2053 2053 2053 2053 2053 2053 2053 2053 2053 2053 2053 2040 2040 2040 2040 2028 2028 2028 2028 2028 2028 2028 2028 2028 2028 2028 2028 2016 2016 2028 2028 2028 2028 2028 2016 2016 2016 2016 2016 2005 2005 2016 2016 2005 2005 2005 2016 2016 2016 2028 2016 2016 2028 1981 1981 1970 1970 1970 1970 1981 1981 1970 1970 1993 1993 2005 2016 1981 1981 2016 1981 1981 1981 1993 2005 2005 2005 2016 2016 2016 2103 2103 2103 2103 2090 2065 2016 2005 2005 1993 1993 1981 1970 1970 1970 1970 1970 1959 1959 1959 1959 1959 1970 1970 1970 1981 1981 1981 1970 1970 1970 1970 1959 1959 1959 1959 1959 1947 1947 1936 1936 1936 1947 1947 1947 1947 1947 1947 1947 1947 1959 1947 1947 1947 1947 1947 1936 1936 1936 1936 1936 1936 1936 1926 1926 1926 1936 1936 1936 1947 1947 1947 1959 4582 4582 4582 4582 4645 4708 4708 4708 4645 4645 4708 4708 4708 4708 4708 4708 4774 4774 4774 4645 4645 4582 4582 4582 4582 4582 4582 4645 4645 4645 4708 4708 4645 4645 4645 4645 4645 4645 4645 4645 4582 4582 4582 4582 4582 4582 4522 4522 4463 4463 4522 4522 4522 4522 4463 4463 4463 4463 4463 4463 4463 4463 4463 4463 4463 4463 4463 4463 4463 4463 4463 4463 4463 4463 4463 4463 4463 4463 4463 4463 4463 4463 4463 4463 4463 4463 4405 4405 4405 4405 4405 4405 4405 4405 4405 4349 4349 4349 4349 4349 4349 4349 4349 4349 4349 4295 4295 4295 4241 4241 4241 4241 4190 4190 4139 4139 4089 4089 4089 0 0 0 0 0 0 0 0 0 0 0 0 0 0 0 0 0 0 0 0 0 0 0 0 0 0 0 0 0 0 0 0 0 0 0 0 0 0 0 0 0 0 0 0 0 0 0 0 0 0 0 0 0 0 0 0 0 0 0 0 0 0 0 0 0 0 0 0 0 0 0 0 0 0
0 0 0 0 0 0 0 0 0 0 0 0 0 0 0 0 0 0 0 0 0 0 0 0 0 0 0 0 0 0 0 3208 3208 3208 3208 3208 3238 3238 3238 3238 3238 3269 3269 3269 3269 3269 3269 3300 3300 3300 3300 3333 3365 3365 3365 3399 3399 3433 3433 3468 3468 3503 3539 3539 3539 3539 3503 3433 3433 0 0 0 0 0 0 0 0 0 0 0 0 0 0 0 0 0 0 0 4774 4774 4774 4774 4774 4774 4842 4842 4842 4842 4842 4842 4842 4842 0 0 0 0 0 0 0 0 0 0 0 0 0 0 0 0 0 0 0 0 0 0 0 0 0 0 5132 5056 5056 5132 5132 5132 5210 5132 5132 5132 5132 5132 5056 5056 5056 5291 5291 5291 5291 5291 5460 5460 5460 2156 2156 2156 2156 2156 2143 2143 2156 2156 2156 2156 2156 2156 2156 2143 2143 2143 2143 2143 2143 2143 2143 2143 2143 2143 2143 2143 2143 2143 2143 2143 2156 2156 2156 2170 2156 2156 2143 2143 2143 2143 2143 2143 2143 2143 2129 2129 2116 2116 2116 2116 2116 2116 2116 2129 2129 2129 2143 2143 2143 2129 2116 2116 2103 2103 2090 2090 2090 2090 2090 2090 2103 2116 2116 2129 2129 2116 2103 2103 2103 2103 2103 2090 2090 2090 2090 2090 2090 2090 2090 2090 2090 2078 2078 2090 2090 2090 2090 2078 2078 2078 2078 2078 2078 2078 2078 2078 2078 2078 2078 2078 2078 2065 2065 2065 2065 2065 2065 2065 2065 2065 2053 2053 2053 2053 2053 2053 2040 2040 2065 2065 2065 2065 2065 2065 2065 2053 2053 2053 2053 2053 2053 2040 2040 2040 2040 2040 2040 2040 2040 2040 2040 2040 2028 2028 2028 2028 2028 2028 2016 2016 2016 2016 2016 2016 2016 2016 2028 2028 2016 2016 2016 2016 2016 2016 2016 2016 2005 2005 2005 2005 2005 1993 1993 2005 2005 2005 1993 1993 1993 2005 2005 2005 1981 1981 1981 1970 1970 1970 1970 1970 1970 1970 1981 1970 1970 1981 1981 1981 1993 1981 1981 1981 1981 1981 1981 1981 1981 1993 1993 1993 1981 1970 1970 1959 1959 1936 1936 1959 1970 1970 1970 1970 1970 1970 1970 1970 1970 1959 1959 1959 1959 1959 1959 1959 1959 1959 1959 1970 1970 1970 1959 1959 1959 1959 1959 1959 1947 1947 1947 1947 1936 1926 1926 1926 1936 1936 1936 1936 1936 1936 1936 1947 1936 1936 1936 1936 1926 1926 1926 1926 1926 1915 1915 1915 1915 1915 1915 1915 1926 1926 1936 1936 1936 1947 1959 4645 4645 4582 4582 4645 4645 4645 4645 4645 4645 4645 4645 4645 4645 4708 4708 4708 4774 4708 4645 4645 4582 4582 4582 4582 4582 4582 4645 4645 4645 4645 4645 4645 4582 4582 4582 4582 4582 4582 4582 4522 4522 4582 4522 4522 4522 4522 4522 4463 4463 4463 4463 4463 4463 4463 4463 4463 4463 4463 4463 4463 4463 4463 4463 4463 4463 4463 4463 4463 4463 4463 4463 4463 4463 4463 4463 4463 4463 4463 4463 4463 4463 4463 4405 4405 4405 4349 4349 4349 4349 4349 4405 4405 4405 4405 4349 4349 4349 4349 4349 4349 4349 4349 4349 4349 4295 4295 4295 4241 4241 4241 4190 4190 4190 4089 4089 4089 4089 4089 4089 4089 0 0 0 0 0 0 0 0 0 0 0 0 0 0 0 0 0 0 0 0 0 0 0 0 0 0 0 0 0 0 0 0 0 0 0 0 0 0 0 0 0 0 0 0 0 0 0 0 0 0 0 0 0 0 0 0 0 0 0 0 0 0 0 0 0 0 0 0 0 0 0 0
0 0 0 0 0 0 0 0 0 0 0 0 0 0 0 0 0 0 0 0 0 0 0 0 0 0 0 0 0 0 0 3178 3178 3208 3208 3208 3208 3238 3238 3238 3238 3269 3269 3269 3269 3269 3269 3300 3300 3300 3333 3333 3365 3365 3365 3399 3433 3433 3433 3468 3503 3503 3539 3539 3539 3539 3503 3503 0 0 0 0 0 0 0 0 0 0 0 0 0 0 0 0 0 0 0 4645 4645 4708 4708 4708 4774 4774 4774 4774 4842 4842 4842 4842 4842 4842 4842 0 0 0 0 0 0 0 0 0 0 0 0 0 0 0 0 0 0 0 0 0 0 0 0 0 5132 5056 5056 5132 5056 5056 5132 5056 5056 5056 5056 5056 5056 5056 5056 5374 5374 5374 5460 5460 2129 2129 2143 2143 2156 2156 2156 2143 2143 2143 2143 2143 2143 2143 2143 2143 2143 2143 2129 2129 2129 2129 2129 2129 2129 2129 2129 2129 2129 2129 2129 2129 2129 2129 2129 2129 2129 2143 2129 2129 2129 2129 2129 2129 2129 2129 2129 2129 2129 2116 2116 2116 2116 2116 2116 2116 2116 2116 2116 2116 2116 2129 2116 2103 2103 2103 2103 2090 2090 2090 2090 2090 2090 2103 2103 2103 2103 2116 2116 2103 2103 2103 2103 2090 2090 2090 2090 2090 2090 2090 2090 2090 2090 2090 2078 2078 2078 2078 2078 2078 2078 2078 2078 2078 2078 2078 2078 2078 2078 2078 2078 2065 2065 2065 2065 2065 2065 2053 2053 2053 2053 2053 2053 2053 2040 2040 2040 2040 2028 2028 2028 2028 2040 2053 2053 2053 2053 2053 2053 2040 2040 2040 2040 2040 2040 2040 2040 2040 2040 2040 2040 2028 2028 2028 2028 2028 2028 2028 2028 2028 2028 2016 2016 2016 2016 2016 2016 2005 2005 2005 2016 2016 2016 2005 2005 2016 2016 2016 2016 2016 1993 1993 1993 1993 1981 1981 1981 1993 1993 1993 1981 1981 1993 1993 1993 1981 1981 1981 1981 1970 1970 1959 1959 1970 1970 1970 1970 1970 1970 1970 1970 1970 1970 1970 1970 1970 1970 1970 1970 1970 1970 1970 1970 1970 1959 1959 1959 1959 1959 1936 1936 1959 1947 1947 1947 1947 1959 1947 1947 1959 1959 1947 1947 1947 1947 1947 1947 1947 1959 1959 1959 1959 1959 1959 1959 1959 1947 1947 1947 1947 1936 1936 1926 1926 1936 1926 1926 1926 1926 1926 1926 1926 1936 1936 1936 1936 1926 1926 1926 1915 1894 1894 1904 1904 1904 1904 1904 1904 1904 1904 1904 1904 1904 1915 1915 1915 1915 0 1915 0 4582 4582 4582 4645 4645 4645 4582 4582 4582 4582 4582 4582 4582 4645 4645 4708 4708 4645 4582 4582 4582 4582 4522 4522 4522 4522 4522 4582 4582 4582 4582 4582 4522 4463 4463 4463 4522 4463 4463 4463 4463 4522 4522 4522 4522 4522 4522 4405 4405 4405 4405 4405 4405 4405 4405 4405 4405 4405 4405 4405 4405 4405 4405 4405 4405 4463 4463 4463 4463 4463 4463 4463 4463 4463 4463 4463 4463 4463 4405 4405 4405 4405 4349 4349 4349 4349 4349 4349 4349 4349 4349 4349 4405 4405 4349 4349 4349 4349 4349 4349 4349 4349 4349 4349 4295 4295 4241 4241 4241 4190 4190 4190 4190 4089 4089 4089 4089 4089 4089 4089 0 0 0 0 0 0 0 0 0 0 0 0 0 0 0 0 0 0 0 0 0 0 0 0 0 0 0 0 0 0 0 0 0 0 0 0 0 0 0 0 0 0 0 0 0 0 0 0 0 0 0 0 0 0 0 0 0 0 0 0 0 0 0 0 0 0 0 0 0 0 0 0
0 0 0 0 0 0 0 0 0 0 0 0 0 0 0 0 0 0 0 0 0 0 0 0 0 0 0 0 0 0 0 3178 3178 3208 3208 3208 3208 3238 3238 3238 3238 3269 3269 3269 3269 3300 3300 3300 3333 3333 3333 3365 3365 3365 3365 3433 3468 3468 3468 3503 3503 3539 0 0 0 0 0 0 0 0 0 0 0 0 0 0 0 0 0 0 0 0 0 0 0 4645 4645 4645 4645 4708 4708 4708 4774 4774 4774 4774 4842 4842 4842 4842 4842 4774 4774 0 0 0 0 0 0 0 0 0 0 0 0 0 0 0 0 0 0 0 0 0 0 0 4983 4983 5056 4983 4983 4983 4983 4983 5056 5056 5056 5056 5056 5056 5056 2065 2078 2090 2090 2090 2103 2103 2129 2129 2143 2143 2143 2143 2143 2143 2129 2129 2129 2129 2143 2129 2129 2129 2129 2129 2116 2116 2129 2129 2129 2129 2129 2129 2129 2129 2129 2116 2116 2103 2103 2116 2116 2116 2116 2116 2103 2103 2103 2116 2116 2116 2116 2116 2116 2116 2116 2116 2116 2116 2103 2103 2103 2103 2103 2116 2116 2103 2103 2116 2116 2103 2103 2090 2090 2090 2090 2090 2090 2090 2090 2090 2090 2090 2090 2103 2103 2090 2090 2103 2090 2090 2090 2090 2090 2090 2090 2090 2090 2090 2090 2090 2078 2065 2065 2065 2065 2065 2053 2053 2053 2065 2065 2065 2065 2065 2065 2065 2065 2053 2053 2053 2053 2053 2053 2053 2053 2053 2040 2040 2040 2040 2028 2028 2028 2016 2016 2016 2016 2028 2028 2028 2028 2028 2040 2040 2028 2028 2028 2028 2028 2028 2028 2028 2028 2028 2028 2028 2028 2016 2016 2016 2016 2016 2016 2016 2016 2016 2016 2016 2005 2005 2005 2005 2005 2005 2005 2005 2005 2005 2005 2005 2005 2005 2016 2005 2005 2005 1981 1981 1981 1981 1970 1970 1970 1981 1981 1981 1981 1981 1981 1993 1981 1970 1970 1970 1970 1959 1959 1959 1959 1970 1970 1970 1959 1959 1959 1959 1959 1959 1970 1970 1970 1970 1970 1970 1970 1959 1959 1959 1959 1947 1947 1947 1947 1947 1947 1936 1936 1947 1936 1936 1936 1936 1936 1936 1936 1936 1936 1947 1947 1947 1947 1947 1947 1947 1947 1947 1947 1947 1947 1947 1947 1947 1947 1947 1936 1936 1926 1926 1926 1926 1926 1926 1915 1915 1915 1915 1915 1915 1915 1926 1926 1915 1894 1894 1883 1883 1883 1883 1883 1883 1883 1883 1883 1883 1883 1883 1894 1894 1904 1904 1904 1904 1904 0 0 0 4645 0 4645 4645 4645 4645 4582 4582 4582 4582 4522 4522 4582 4582 4582 4582 4645 4582 4582 4582 4582 4522 4463 4463 4463 4463 4522 4522 4522 4582 4582 4582 4522 4463 4463 4463 4463 4405 4405 4405 4405 4463 4463 4463 4463 4463 4463 4405 4405 4349 4349 4349 4349 4349 4349 4349 4349 4349 4349 4349 4405 4405 4405 4405 4405 4463 4463 4463 4463 4405 4405 4405 4463 4405 4349 4349 4405 4405 4405 4405 4405 4349 4349 4295 4295 4295 4295 4295 4295 4295 4349 4349 4349 4405 4349 4349 4349 4349 4349 4349 4349 4349 4349 4349 4295 4295 4241 4241 4241 4190 4190 4190 4190 4089 4089 4089 4089 4089 4089 4089 0 0 0 0 0 0 0 0 0 0 0 0 0 0 0 0 0 0 0 0 0 0 0 0 0 0 0 0 0 0 0 0 0 0 0 0 0 0 0 0 0 0 0 0 0 0 0 0 0 0 0 0 0 0 0 0 0 0 0 0 0 0 0 0 0 0 0 0 0 0 0 0
0 0 0 0 0 0 0 0 0 0 0 0 0 0 0 0 0 0 0 0 0 0 0 0 0 0 0 0 0 0 0 3178 3178 3208 3208 3208 3238 3238 3238 3238 3269 3269 3269 3269 3269 3300 3300 3300 3333 3333 3333 3365 3365 3365 3365 3468 3503 3503 3503 3503 3539 0 0 0 0 0 0 0 0 0 0 0 0 0 0 0 0 0 0 0 0 0 0 0 0 4645 4645 4645 4645 4708 4774 4774 4774 4774 4774 4774 4842 4842 4842 4842 4842 4774 4774 4774 0 0 0 0 0 0 0 0 0 0 0 0 0 0 0 0 0 0 0 0 0 0 4983 4983 4983 4911 4911 4983 4983 4983 5056 5132 5132 2065 2065 2065 2065 2065 2078 2078 2078 2090 2103 2103 2116 2116 2116 2116 2129 2116 2116 2116 2103 2103 2103 2103 2116 2103 2103 2103 2103 2103 2103 2103 2103 2103 2116 2116 2116 2116 2103 2103 2103 2090 2090 2090 2090 2090 2090 2090 2090 2090 2090 2090 2090 2103 2116 2103 2103 2116 2116 2103 2103 2103 2103 2103 2103 2103 2090 2090 2090 2103 2103 2090 2090 2103 2103 2090 2090 2090 2090 2090 2078 2078 2078 2078 2078 2078 2078 2078 2078 2090 2078 2078 2078 2078 2078 2078 2078 2078 2078 2078 2078 2078 2078 2078 2078 2078 2065 2053 2053 2053 2053 2053 2040 2040 2040 2040 2053 2053 2053 2053 2053 2053 2053 2040 2040 2040 2040 2040 2040 2040 2040 2040 2040 2028 2028 2028 2016 2016 2005 2005 2005 2016 2016 2016 2016 2028 2028 2028 2028 2028 2016 2016 2005 2005 2016 2016 2016 2016 2016 2016 2016 2016 2016 2016 2005 2005 2005 2005 1993 1993 1993 1993 2005 2005 1993 1993 1993 1993 1993 1993 1981 1981 1993 1993 1993 1993 1993 1993 1993 1993 1993 1993 1970 1959 1959 1959 1959 1959 1959 1959 1970 1970 1970 1970 1970 1970 1959 1959 1959 1959 1959 1947 1947 1947 1947 1959 1959 1959 1959 1959 1959 1947 1947 1947 1947 1947 1947 1947 1947 1947 1947 1936 1936 1936 1947 1936 1936 1947 1947 1947 1947 1936 1936 1926 1926 1926 1926 1926 1926 1926 1926 1926 1936 1936 1936 1936 1936 1936 1936 1936 1936 1936 1936 1936 1936 1936 1936 1936 1936 1926 1926 1915 1915 1915 1915 1915 1915 1915 1904 1904 1904 1904 1904 1904 1904 1904 1904 1894 1883 1883 1873 1873 1873 1873 1873 1873 1873 1873 1873 1873 1873 1873 1883 1883 1883 1894 1883 1883 1894 0 0 0 0 0 4708 4582 4582 4582 4582 4522 4522 4522 4522 4522 4522 4522 4582 4582 4582 4582 4582 4582 4522 4522 4463 4463 4463 4463 4463 4463 4463 4522 4522 4582 4463 4463 4463 4405 4405 4349 4349 4349 4405 4463 4463 4463 4463 4463 4463 4405 4349 4349 4349 4349 4349 4349 4349 4349 4295 4295 4295 4295 4349 4349 4349 4405 4405 4405 4463 4463 4463 4349 4349 4349 4463 4295 4295 4295 4349 4349 4349 4349 4349 4349 4295 4295 4295 4295 4295 4295 4295 4295 4295 4295 4295 4295 4295 4295 4295 4295 4295 4295 4295 4295 4295 4349 4295 4295 4241 4241 4241 4190 4139 4139 4139 4089 4089 4089 4139 4139 4139 4139 0 0 0 0 0 0 0 0 0 0 0 0 0 0 0 0 0 0 0 0 0 0 0 0 0 0 0 0 0 0 0 0 0 0 0 0 0 0 0 0 0 0 0 0 0 0 0 0 0 0 0 0 0 0 0 0 0 0 0 0 0 0 0 0 0 0 0 0 0 0 0 0
0 0 0 0 0 0 0 0 0 0 0 0 0 0 0 0 0 0 0 0 0 0 0 0 0 0 0 0 0 0 0 3208 3208 3208 3208 3208 3208 3238 3238 3238 3269 3269 3269 3300 3300 3300 3300 3333 3333 3333 3333 3365 3365 3468 3468 3468 3503 3503 3503 3503 0 0 0 0 0 0 0 0 0 0 0 0 0 0 0 0 0 0 0 0 0 0 0 0 0 0 4645 4645 4645 4774 4774 4774 4774 4774 4842 4842 4842 4842 4842 4842 4774 4774 4774 4708 4708 4708 4774 0 0 0 0 0 0 0 0 0 0 0 0 0 0 0 0 0 0 4774 4774 4842 4842 4911 4911 4983 4983 4983 5132 5132 5132 2065 2065 2065 2065 2065 2078 2078 2078 2090 2090 2103 2103 2103 2103 2103 2116 2116 2103 2103 2103 2090 2090 2090 2103 2090 2090 2090 2090 2103 2090 2090 2090 2090 2103 2103 2103 2103 2103 2090 2090 2090 2078 2078 2078 2078 2078 2078 2078 2078 2078 2078 2078 2090 2090 2090 2090 2090 2090 2078 2078 2078 2078 2065 2065 2065 2065 2065 2065 2065 2065 2065 2065 2053 2053 2053 2053 2053 2053 2065 2065 2065 2065 2065 2078 2065 2065 2065 2065 2065 2065 2065 2065 2065 2065 2065 2065 2065 2065 2065 2065 2065 2065 2065 2065 2065 2053 2053 2053 2040 2040 2040 2028 2028 2028 2040 2040 2040 2040 2040 2040 2040 2040 2028 2028 2028 2028 2028 2028 2028 2028 2028 2028 2028 2016 2016 2016 2005 2005 2005 2005 2005 2005 2005 2005 2016 2028 2016 2016 2016 2005 2005 1993 1993 1993 1993 1993 2005 2005 2005 2005 2005 2005 1993 1993 1993 1993 1993 1993 1993 1993 1993 1993 1993 1993 1993 1993 1981 1981 1970 1970 1970 1970 1970 1970 1981 1981 1981 1981 1981 1981 1970 1959 1947 1947 1947 1936 1936 1947 1947 1959 1959 1959 1959 1959 1959 1959 1959 1959 1959 1947 1947 1947 1947 1947 1947 1947 1947 1947 1947 1947 1936 1936 1936 1936 1936 1936 1936 1936 1926 1926 1926 1926 1926 1936 1936 1936 1936 1936 1936 1936 1926 1926 1926 1926 1926 1926 1926 1926 1926 1926 1926 1926 1926 1926 1926 1926 1926 1926 1926 1926 1926 1926 1926 1926 1926 1926 1926 1926 1915 1915 1915 1904 1904 1904 1904 1904 1904 1894 1894 1894 1894 1894 1894 1894 1894 1873 1873 1873 1873 1873 1873 1873 1873 1873 1873 1873 1873 1873 1873 1873 1873 1873 1873 1873 1873 1873 1873 1894 0 0 0 0 0 0 4582 4522 4522 4522 4522 4522 4522 4522 4522 4522 4522 4522 4522 4522 4522 4522 4522 4463 4463 4405 4405 4405 4405 4405 4463 4463 4522 4522 4582 4463 4463 4463 4405 4405 4349 4349 4349 4405 4405 4405 4405 4405 4405 4405 4295 4295 4295 4349 4349 4349 4295 4295 4295 4295 4295 4295 4295 4295 4295 4349 4349 4349 4349 4405 4405 4405 4349 4295 4295 4405 4295 4295 4295 4295 4349 4295 4295 4295 4295 4295 4241 4241 4241 4241 4241 4241 4241 4241 4241 4241 4241 4241 4241 4241 4295 4295 4295 4295 4295 4295 4295 4295 4241 4241 4241 4241 4139 4139 4139 4139 4089 4089 4089 4089 4139 4139 4139 0 0 0 0 0 0 0 0 0 0 0 0 0 0 0 0 0 0 0 0 0 0 0 0 0 0 0 0 0 0 0 0 0 0 0 0 0 0 0 0 0 0 0 0 3300 3300 3300 3300 3269 3269 3269 0 0 0 0 0 0 0 0 0 0 0 0 0 0 0 0 0 0 0 0 0
0 0 0 0 0 0 0 0 0 0 0 0 0 0 0 0 0 0 0 0 0 0 0 0 0 0 0 0 0 0 0 3208 3208 3208 3208 3208 3208 3238 3238 3238 3269 3269 3269 3300 3300 3300 3300 3333 3333 3333 3333 3333 3503 3503 3468 3468 3539 3539 3539 3539 3539 0 0 0 0 0 0 0 0 0 0 0 0 0 0 0 0 0 0 0 0 0 0 0 0 0 0 4774 4774 4774 4774 4774 4774 4774 4842 4842 4842 4842 4842 4774 4774 4774 4774 4708 4708 4708 4708 4708 4708 4708 4708 0 0 0 0 0 0 0 0 0 0 0 0 0 4708 4708 4774 4842 4842 4911 4911 4983 4983 4983 5132 5132 2065 2065 2065 2065 2065 2065 2078 2078 2078 2078 2090 2090 2090 2090 2103 2103 2103 2103 2103 2103 2090 2078 2078 2078 2090 2090 2090 2090 2090 2090 2090 2090 2090 2090 2090 2090 2090 2090 2090 2090 2078 2078 2065 2065 2065 2065 2065 2065 2065 2065 2065 2065 2078 2078 2078 2078 2078 2090 2078 2065 2065 2065 2053 2053 2053 2053 2053 2053 2040 2040 2053 2053 2053 2053 2053 2053 2053 2040 2040 2040 2053 2053 2040 2040 2053 2040 2040 2028 2028 2028 2028 2028 2028 2028 2028 2028 2028 2028 2028 2028 2028 2028 2028 2028 2028 2016 2005 2005 2016 2016 2016 2016 2016 2028 2028 2028 2028 2028 2028 2028 2028 2028 2028 2016 2016 2016 2016 2016 2016 2005 2005 2016 2016 2016 2016 2005 2005 1993 1993 1993 1993 1993 1993 1993 1993 1993 2005 2005 2005 1993 1993 1993 1981 1981 1981 1981 1981 1993 1993 1993 1993 1993 1981 1981 1981 1981 1981 1981 1981 1981 1981 1981 1981 1981 1981 1981 1981 1981 1970 1970 1947 1947 1947 1959 1959 1959 1970 1970 1970 1959 1959 1947 1947 1936 1936 1926 1926 1926 1947 1936 1936 1926 1926 1936 1926 1926 1926 1926 1947 1947 1936 1936 1936 1936 1936 1936 1947 1936 1936 1936 1936 1926 1926 1926 1926 1926 1926 1915 1915 1926 1915 1915 1915 1915 1926 1926 1926 1926 1926 1926 1926 1915 1915 1915 1915 1915 1915 1915 1915 1915 1915 1915 1915 1915 1915 1904 1904 1904 1904 1904 1915 1915 1904 1904 1915 1915 1904 1904 1894 1894 1894 1883 1883 1894 1894 1894 1894 1894 1883 1883 1883 1873 1873 1873 1873 1873 1863 1863 1863 1863 1863 1863 1863 1863 1863 1863 1863 1863 1863 1863 1863 1863 1863 1863 1853 1843 1843 1853 1863 0 0 0 0 0 0 0 4522 4522 4522 4522 4463 4463 4463 4463 4463 4463 4463 4463 4522 4522 4522 4463 4463 4405 4405 4405 4405 4405 4405 4405 4463 4522 4522 4522 4463 4405 4405 4405 4349 4349 4349 4349 4349 4405 4405 4405 4405 4405 4349 4295 4241 4241 4295 4295 4295 4295 4295 4295 4241 4241 4241 4241 4241 4295 4295 4295 4295 4295 4349 4349 4349 4295 4295 4295 4405 4241 4241 4241 4295 4241 4241 4241 4241 4241 4241 4190 4190 4190 4241 4241 4241 4190 4190 4241 4190 4190 4190 4190 4241 4241 4241 4241 4241 4295 4295 4295 4295 4241 4241 4241 4241 4139 4139 4139 4139 4089 4089 4089 4089 4089 4139 0 0 0 0 0 0 0 0 0 0 0 0 0 0 0 0 0 0 0 0 0 0 0 0 0 0 0 0 0 0 0 0 0 0 0 0 0 0 0 0 0 0 0 0 0 3300 3269 3269 3300 3269 3269 3269 0 0 0 0 0 0 0 0 0 0 0 0 0 0 0 0 0 0 0 0 0
0 0 0 0 0 0 0 0 0 0 0 0 0 0 0 0 0 0 0 0 0 0 0 0 0 0 0 0 0 0 0 3208 3208 3208 3208 3208 3238 3238 3238 3238 3269 3269 3269 3300 3300 3300 3300 3333 3333 3365 3365 0 3539 3539 3468 3468 3539 3539 3503 3503 3539 0 0 0 0 0 0 0 0 0 0 0 0 0 0 0 0 0 0 0 0 0 0 0 0 0 0 0 4774 4774 4708 4708 4708 4774 4842 4842 4842 4842 4842 4774 4774 4774 4708 4708 4708 4708 4645 4645 4708 4708 4708 0 0 0 0 0 0 0 0 0 0 0 0 0 4708 4708 4774 4842 4842 4911 4911 4983 4983 4983 2053 2053 2053 2065 2065 2065 2065 2065 2065 2065 2065 2078 2078 2078 2090 2090 2078 2078 2078 2090 2090 2090 2065 2065 2065 2065 2065 2065 2065 2065 2078 2078 2078 2078 2065 2065 2078 2078 2078 2078 2078 2078 2078 2065 2053 2053 2053 2053 2053 2053 2053 2053 2053 2053 2065 2065 2065 2065 2078 2078 2053 2053 2040 2040 2040 2040 2028 2028 2028 2028 2028 2028 2028 2028 2028 2028 2028 2028 2028 2028 2028 2028 2028 2040 2028 2028 2040 2028 2028 2028 2016 2016 2016 2016 2016 2016 2005 2005 2005 2016 2016 2005 2005 2005 2005 2005 2005 2005 1993 1993 1993 2005 2005 1993 1993 2005 2005 2005 2005 1993 1993 1993 1993 1993 1993 1993 1993 1993 1993 1981 1981 1981 1981 1981 1981 1981 1981 1981 1970 1970 1970 1970 1970 1970 1970 1981 1981 1981 1981 1981 1981 1981 1981 1981 1981 1981 1981 1970 1970 1981 1981 1981 1981 1981 1970 1970 1981 1981 1981 1970 1970 1970 1970 1970 1970 1970 1970 1970 1970 1970 1947 1947 1936 1936 1947 1947 1947 1947 1947 1959 1959 1947 1947 1936 1936 1926 1926 1926 1926 1926 1926 1926 1926 1926 1926 1915 1915 1915 1926 1926 1926 1915 1915 1926 1926 1915 1915 1915 1915 1926 1926 1926 1926 1926 1926 1915 1915 1915 1904 1904 1904 1915 1904 1904 1904 1904 1915 1915 1915 1915 1915 1915 1904 1904 1904 1904 1904 1904 1904 1915 1915 1904 1904 1894 1894 1894 1894 1883 1883 1894 1883 1883 1894 1894 1894 1894 1894 1883 1883 1883 1883 1873 1873 1873 1873 1883 1883 1883 1883 1883 1863 1863 1873 1863 1863 1863 1863 1863 1853 1853 1853 1853 1853 1853 1853 1863 1863 1863 1863 1863 1863 1853 1853 1843 1843 1843 1843 1833 1833 1843 1843 1843 0 0 0 0 0 0 4463 4463 4463 4463 4463 4405 4405 4405 4405 4405 4405 4405 4405 4405 4463 4405 4405 4405 4349 4349 4349 4349 4349 4405 4405 4405 4405 4405 4405 4405 4405 4349 4349 4349 4349 4349 4349 4349 4295 4295 4295 4295 4295 4241 4241 4241 4241 4295 4295 4295 4241 4241 4241 4241 4241 4241 4241 4295 4295 4295 4295 4295 4295 4295 4295 4241 4241 4241 4241 4241 4241 4241 4241 4241 4241 4241 4241 4190 4190 4139 4139 4190 4190 4190 4190 4190 4190 4190 4139 4139 4139 4139 4139 4139 4190 4190 4241 4241 4295 4241 4241 4241 4241 4241 4190 4139 4089 4089 4089 4089 4089 4089 4089 4089 0 0 0 0 0 0 0 0 0 0 0 0 0 0 0 0 0 0 0 0 0 0 0 0 0 0 0 0 0 0 0 0 0 0 0 0 0 0 0 0 0 0 0 0 0 0 3269 3269 3269 3269 3269 3269 3269 3269 0 0 0 0 0 0 0 0 0 0 0 0 0 0 0 0 0 0 0 0
0 0 0 0 0 0 0 0 0 0 0 0 0 0 0 0 0 0 0 0 0 0 0 0 0 0 0 0 0 0 0 3208 3208 3208 3208 3208 3238 3238 3238 3269 3269 3300 3269 3269 3300 3300 3300 3300 3300 1404 1404 0 3539 3539 3539 3539 3539 3539 3503 3503 3539 0 0 0 0 0 0 0 0 0 0 0 0 0 0 0 0 0 0 0 0 0 0 0 0 0 0 0 4645 4645 4708 4582 4582 4774 4842 4842 4842 4842 4842 4774 4774 4708 4708 4708 4708 4708 4645 4645 4645 4645 0 0 0 0 0 0 1381 1381 1381 1381 0 0 0 0 0 0 4842 4842 4842 2053 2053 2053 2053 2053 2053 2053 2053 2053 2053 2053 2065 2065 2065 2065 2065 2065 2065 2065 2078 2065 2065 2065 2065 2065 2065 2065 2053 2053 2053 2053 2053 2053 2053 2053 2053 2065 2053 2053 2040 2040 2040 2040 2040 2065 2065 2053 2053 2040 2040 2040 2040 2040 2040 2040 2040 2040 2040 2040 2028 2028 2028 2040 2040 2053 2040 2016 2016 2028 2016 2016 2016 2005 2005 2005 2005 2005 2005 2005 2005 2005 2005 2016 2016 2016 2016 2016 2028 2028 2016 2016 2016 2016 2016 2016 2005 2005 2005 2005 2005 2005 1993 1993 2005 2005 2005 2005 1993 1993 1993 1993 1981 1981 1970 1970 1981 1981 1981 1981 1981 1981 1981 1981 1981 1981 1981 1981 1981 1981 1981 1981 1981 1981 1981 1981 1970 1970 1959 1959 1959 1959 1970 1970 1970 1970 1970 1970 1970 1970 1959 1959 1959 1947 1947 1947 1947 1947 1947 1947 1947 1947 1947 1947 1947 1947 1947 1947 1947 1936 1936 1936 1936 1936 1959 1959 1959 1970 1970 1970 1970 1959 1959 1959 1947 1947 1936 1936 1936 1936 1936 1936 1936 1936 1936 1936 1936 1936 1936 1936 1926 1915 1915 1915 1915 1915 1915 1915 1915 1915 1915 1904 1904 1904 1915 1915 1915 1904 1904 1904 1904 1904 1904 1904 1904 1915 1915 1915 1915 1915 1904 1904 1904 1904 1894 1894 1894 1904 1894 1894 1894 1904 1904 1904 1904 1904 1894 1894 1894 1894 1894 1894 1894 1894 1894 1904 1904 1894 1894 1883 1883 1873 1863 1863 1873 1873 1873 1873 1873 1873 1873 1873 1873 1863 1863 1863 1863 1863 1863 1863 1873 1873 1873 1873 1873 1873 1853 1853 1853 1843 1843 1843 1853 1843 1833 1833 1833 1833 1843 1843 1843 1853 1853 1853 1853 1853 1853 1843 1833 1833 1833 1833 1823 1823 1823 1833 1833 1833 0 0 0 0 0 0 4463 4463 4463 4405 4405 4405 4405 4405 4349 4349 4349 4349 4405 4405 4405 4349 4349 4349 4349 4349 4349 4349 4349 4349 4349 4405 4349 4349 4349 4349 4349 4349 4295 4295 4349 4349 4349 4295 4295 4295 4295 4295 4295 4241 4241 4241 4241 4241 4241 4241 4241 4241 4241 4241 4241 4241 4241 4241 4241 4241 4241 4241 4190 4190 4190 4241 4241 4241 4241 4241 4241 4241 4241 4241 4190 4139 4139 4190 4139 4139 4139 4139 4190 4190 4190 4139 4139 4139 4139 4139 4139 4139 4139 4139 4139 4139 4190 4241 4241 4241 4241 4241 4241 4241 4190 4139 4089 4089 4089 4089 4089 4041 4041 4089 0 0 0 0 0 0 0 0 0 0 0 0 0 0 0 0 0 0 0 0 0 0 0 0 0 0 0 0 0 3774 3732 3732 3732 3816 3859 3816 3816 3816 0 3732 3692 3692 3692 0 0 3269 3269 3269 3269 3269 3269 3269 3269 3269 0 0 0 0 0 0 0 0 0 0 0 0 0 0 0 0 0 0 0 0
0 0 0 0 0 0 0 0 0 0 0 0 0 0 0 0 0 0 0 0 0 0 0 0 0 0 0 0 0 0 0 3208 3208 3208 3208 3238 3238 3238 3269 3269 3269 3300 3269 3269 3300 3300 3300 3300 1404 1404 1404 1404 3539 3539 3539 3539 3539 3539 3503 3503 3539 0 0 0 0 0 0 0 1349 1349 0 0 0 0 0 0 0 0 0 0 0 0 0 0 0 0 0 0 4645 4645 4708 4582 4582 4774 4842 4842 4842 4842 4842 4774 4774 4708 4645 4645 4645 4645 4645 4645 4645 0 0 0 0 0 1376 1376 1376 1381 1381 1376 1376 1376 1376 0 0 0 2053 0 2053 2053 2053 2053 2040 2040 2040 2040 2040 2040 2040 2040 2040 2040 2053 2053 2053 2053 2053 2053 2040 2040 2040 2040 2053 2053 2053 2053 2040 2040 2040 2040 2040 2040 2028 2028 2028 2028 2028 2028 2028 2028 2028 2028 2028 2040 2040 2028 2028 2028 2028 2028 2028 2028 2028 2028 2028 2028 2028 2028 2005 2005 2005 2005 2005 2005 2005 1993 1993 2005 1993 1993 2005 2005 1993 1993 1993 1993 1993 1993 1993 1993 1993 2005 2005 2005 2005 2016 2016 2016 1981 1981 1981 1981 1993 1993 1993 1993 1981 1981 1981 1981 1993 1993 1993 1993 1993 1993 1981 1981 1981 1981 1981 1970 1970 1959 1959 1970 1970 1970 1970 1970 1959 1959 1947 1947 1947 1959 1959 1959 1970 1970 1970 1970 1970 1970 1959 1959 1947 1947 1936 1936 1947 1947 1947 1947 1947 1947 1947 1947 1947 1936 1936 1936 1936 1936 1926 1926 1936 1936 1936 1936 1936 1936 1936 1936 1936 1936 1926 1926 1926 1926 1926 1926 1926 1926 1926 1915 1904 1894 1894 1894 1894 1904 1904 1915 1915 1915 1915 1915 1915 1915 1915 1915 1915 1926 1915 1915 1915 1915 1904 1904 1904 1904 1904 1904 1904 1894 1894 1904 1894 1894 1894 1894 1894 1894 1894 1894 1894 1894 1894 1894 1894 1904 1904 1904 1904 1904 1904 1894 1894 1894 1894 1894 1883 1883 1883 1883 1883 1883 1883 1883 1883 1883 1883 1883 1883 1883 1883 1883 1883 1873 1873 1873 1873 1883 1883 1873 1873 1873 1873 1863 1853 1853 1853 1863 1863 1853 1853 1853 1853 1853 1853 1853 1853 1853 1853 1853 1853 1853 1863 1863 1863 1863 1853 1853 1843 1843 1833 1833 1833 1833 1833 1833 1823 1823 1823 1823 1823 1833 1833 1843 1843 1843 1843 1833 1833 1823 1813 1813 1813 1823 1823 1823 1823 1823 1833 1833 0 0 0 0 0 0 4405 4405 4405 4405 4349 4349 4349 4349 4349 4349 4349 4349 4349 4349 4349 4349 4295 4295 4295 4295 4295 4349 4349 4349 4349 4349 4349 4349 4349 4349 4349 4295 4295 4295 4295 4295 4295 4241 4241 4295 4241 4241 4241 4190 4190 4190 4241 4241 4241 4241 4241 4241 4241 4190 4190 4190 4190 4139 4139 4190 4190 4190 4139 4139 4190 4190 4190 4241 4241 4241 4241 4241 4241 4241 4139 4139 4139 4139 4139 4139 4139 4139 4139 4139 4139 4139 4139 4139 4089 4089 4139 4139 4089 4089 4089 4139 4139 4139 4190 4190 4190 4190 4190 4190 4139 4089 4089 4089 4089 4089 4041 4041 4041 0 0 0 0 0 0 0 0 0 0 0 4041 4041 4041 4041 0 0 0 0 0 0 0 0 0 0 0 0 3903 3859 3859 3774 3732 3732 3732 3774 3816 3816 3774 3774 3774 3732 3692 3692 3692 0 0 3269 3269 3269 3269 3269 3269 3269 3238 3238 0 0 0 0 0 0 0 0 0 0 0 0 0 0 0 0 0 0 0 0
0 0 0 0 0 0 0 0 0 0 0 0 0 0 0 0 0 0 0 0 0 0 0 0 0 0 0 0 0 0 0 3238 3238 3238 3238 3238 3238 3269 3269 3269 3269 3300 3300 3300 3300 3300 3300 3300 1404 1404 1404 1404 0 3539 3539 3539 3539 3503 3503 3503 3539 0 0 0 0 0 1349 1349 1349 1349 0 0 0 0 0 0 0 0 0 0 0 0 0 0 0 0 0 0 0 0 0 0 0 1376 4842 0 4842 4842 4842 4774 4774 4774 4645 4645 4645 4645 4645 4645 0 1365 1365 1365 1365 1370 1370 1370 1376 1381 1376 1376 1376 1376 1376 1376 1376 1376 0 2053 2053 2053 2005 2005 2005 2016 2016 2016 2028 2028 2028 2028 2028 2028 2028 2040 2028 2028 2028 2028 2016 2016 2016 2028 2040 2040 2040 2040 2028 2028 2016 2016 2016 2016 2016 2016 2016 2016 2016 2016 2016 2016 2016 2016 2016 2028 2028 2016 2016 2005 2005 2005 2005 2016 2016 2028 2016 2016 2016 2005 1993 1993 1993 1981 1981 1981 1981 1981 1981 1993 1981 1981 1981 1993 1993 1993 1981 1981 1993 1981 1981 1993 1993 1993 1993 1993 1993 1993 1981 1981 1981 1970 1970 1981 1981 1981 1970 1970 1970 1970 1981 1981 1981 1981 1981 1981 1981 1981 1981 1981 1970 1970 1959 1959 1947 1947 1947 1947 1947 1947 1947 1947 1947 1936 1936 1947 1947 1947 1936 1936 1936 1936 1959 1959 1959 1959 1947 1936 1936 1936 1926 1926 1936 1936 1936 1936 1936 1936 1936 1926 1926 1926 1926 1926 1936 1926 1926 1915 1915 1926 1926 1926 1926 1926 1915 1915 1926 1926 1904 1904 1904 1904 1915 1915 1915 1904 1904 1904 1894 1894 1894 1894 1894 1894 1894 1894 1894 1894 1894 1894 1904 1894 1894 1894 1894 1904 1894 1894 1904 1904 1894 1894 1894 1883 1883 1883 1883 1883 1883 1883 1883 1883 1883 1883 1883 1873 1873 1873 1873 1883 1883 1883 1883 1883 1883 1873 1863 1863 1873 1873 1873 1873 1873 1873 1873 1873 1873 1873 1873 1873 1873 1873 1873 1873 1873 1873 1873 1873 1873 1873 1873 1863 1863 1863 1863 1863 1853 1853 1853 1863 1863 1843 1843 1843 1843 1843 1843 1843 1843 1843 1843 1843 1843 1843 1843 1843 1843 1843 1843 1843 1853 1843 1843 1843 1833 1833 1833 1823 1823 1823 1823 1823 1823 1823 1823 1823 1823 1813 1813 1823 1823 1813 1813 1813 1804 1804 1804 1804 1804 1804 1804 1804 1813 1813 1813 1823 1823 1833 0 0 0 0 0 4349 4349 4349 4349 4349 4349 4349 4349 4349 4349 4349 4349 4349 4349 4349 4295 4295 4295 4295 4295 4295 4295 4295 4295 4295 4349 4295 4295 4295 4295 4295 4295 4295 4295 4295 4295 4295 4295 4241 4241 4241 4241 4241 4241 4190 4190 4190 4190 4190 4241 4190 4190 4190 4190 4139 4139 4190 4139 4139 4139 4139 4139 4139 4139 4139 4139 4139 4190 4190 4190 4241 4241 4190 4190 4190 4139 4089 4089 4089 4089 4089 4089 4089 4139 4139 4139 4089 4089 4089 4089 4089 4089 4089 4089 4089 4089 4089 4089 4089 4089 4139 4139 4139 4139 4139 4089 4089 4089 4089 4089 4041 4041 4041 0 0 0 0 0 0 0 0 0 0 0 4089 4041 4041 3994 3994 0 0 0 0 0 0 0 0 0 0 0 0 3859 3859 3859 3859 3816 3816 3774 3774 3816 3816 3774 3774 3774 3816 3816 3692 3692 0 3269 3269 3269 3269 3269 3269 3269 3269 3238 3238 0 0 0 0 0 0 0 0 0 0 0 0 0 0 0 0 0 0 0 0
0 0 0 0 0 0 0 0 0 0 0 0 0 0 0 0 0 0 0 0 0 0 0 0 0 0 0 0 0 0 0 3238 3238 3238 3238 3238 3238 3238 3269 3269 3269 3300 3300 3300 3300 3300 1410 1410 1398 1398 1398 1398 1415 1415 3503 3503 3503 3503 3503 3503 0 0 0 0 0 0 1349 1349 1349 1349 1359 0 0 0 0 0 0 0 0 0 0 0 0 0 0 0 0 0 0 0 0 0 0 0 0 0 0 0 0 1381 1381 1365 0 0 0 0 1354 1354 1354 1365 1365 1365 1365 1370 1370 1370 1376 1376 1376 1376 1370 1370 1376 1376 1376 1376 0 1981 1981 1981 2005 2005 2005 2005 2005 2005 2016 2005 2005 2016 2016 2028 2028 2028 2028 2028 2028 2016 2016 2016 2016 2016 2028 2028 2028 2028 2016 2016 2005 2005 1993 1993 1993 1993 1993 1981 1981 1993 1993 1993 2016 2005 2005 1993 1993 1993 1993 1981 1981 1981 1981 1993 1993 1993 1993 1993 1981 1981 1981 1970 1970 1970 1970 1970 1970 1970 1970 1981 1981 1981 1981 1981 1981 1981 1981 1981 1981 1970 1970 1981 1981 1981 1970 1970 1970 1970 1970 1970 1970 1970 1970 1970 1970 1970 1959 1959 1959 1959 1970 1970 1970 1970 1981 1981 1981 1981 1970 1970 1959 1959 1959 1947 1936 1936 1936 1936 1936 1947 1936 1936 1936 1936 1936 1936 1926 1926 1936 1936 1936 1936 1936 1936 1936 1936 1926 1926 1926 1915 1915 1915 1915 1915 1915 1915 1926 1926 1926 1915 1915 1915 1915 1904 1904 1915 1904 1904 1904 1904 1904 1904 1904 1904 1894 1894 1894 1894 1894 1894 1894 1894 1904 1904 1894 1894 1894 1883 1883 1883 1883 1883 1883 1883 1883 1883 1883 1883 1883 1883 1883 1873 1873 1883 1873 1873 1873 1873 1883 1883 1873 1873 1873 1873 1873 1873 1863 1863 1873 1873 1873 1873 1873 1873 1873 1863 1863 1863 1863 1873 1873 1873 1873 1863 1863 1853 1853 1843 1843 1843 1843 1843 1843 1843 1843 1843 1853 1843 1843 1843 1843 1843 1843 1843 1843 1843 1843 1833 1833 1833 1833 1833 1843 1843 1843 1843 1843 1833 1833 1833 1843 1833 1833 1833 1833 1833 1833 1833 1833 1833 1833 1833 1833 1833 1833 1833 1833 1833 1833 1833 1833 1833 1833 1823 1823 1823 1813 1813 1813 1813 1813 1813 1813 1813 1804 1804 1813 1804 1804 1804 1804 1794 1794 1794 1785 1785 1785 1794 1794 1794 1794 1794 1804 1804 1813 1823 1823 1823 0 0 0 0 4295 4295 4295 4295 4295 4295 4295 4349 4349 4295 4295 4295 4295 4295 4295 4295 4295 4295 4295 4295 4295 4295 4295 4295 4295 4295 4295 4295 4295 4295 4295 4295 4295 4295 4295 4295 4241 4241 4241 4241 4190 4190 4190 4190 4241 4139 4139 4139 4190 4190 4190 4139 4139 4190 4190 4139 4139 4139 4139 4089 4089 4139 4139 4139 4139 4139 4139 4139 4190 4190 4190 4190 4190 4139 4139 4139 4089 4089 4089 4089 4089 4089 4089 4089 4139 4139 4139 4089 4089 4089 4089 4089 4089 4089 4041 4041 4041 4089 4089 4089 4089 4089 4139 4139 4089 4089 4089 4089 4041 4041 4041 4041 4041 4041 0 0 0 0 0 0 0 0 0 0 0 4089 4041 3994 3994 3994 0 0 0 0 0 0 0 0 0 0 0 0 3859 3859 3859 3859 3859 3816 3816 3816 3816 3816 3774 3774 3774 3816 3816 3774 3774 3774 3269 3269 3269 3269 3269 3300 3269 3269 3238 3238 0 0 0 0 0 0 0 0 0 0 0 0 0 0 0 0 0 0 0 0
0 0 0 0 0 0 0 0 0 0 0 0 0 0 0 0 0 0 0 0 0 0 0 0 0 0 0 0 0 0 0 3208 3208 3238 3238 3208 3208 3238 3269 3269 3300 3333 3300 3300 3300 1398 1410 1410 1410 1398 1398 1410 1415 1415 1421 3503 3503 3503 3503 3503 3503 0 0 0 0 0 1354 1354 1354 1354 1359 1381 0 0 0 0 0 0 0 0 0 0 0 0 0 0 0 0 0 0 0 0 0 0 1381 1381 0 0 0 0 0 0 0 0 0 0 0 0 1354 1354 1354 1359 1359 1365 1365 1365 1365 1370 1370 1370 1365 1365 1370 1370 1376 1376 0 1970 1970 1970 1993 1993 1993 2005 2005 2005 2005 2005 2005 2005 2005 2005 2005 2005 2005 2016 2016 2005 2005 1993 1993 2005 2005 2005 2005 2005 1993 1993 1993 1993 1981 1981 1981 1970 1970 1970 1970 1970 1970 1959 1959 1993 1993 1981 1981 1981 1970 1959 1959 1959 1959 1970 1970 1981 1970 1970 1959 1959 1959 1959 1959 1970 1970 1970 1959 1959 1970 1970 1970 1970 1970 1970 1959 1959 1959 1959 1959 1959 1959 1959 1959 1959 1959 1959 1959 1959 1959 1959 1959 1959 1959 1959 1959 1959 1947 1947 1947 1947 1947 1947 1959 1959 1959 1959 1970 1970 1959 1947 1947 1947 1947 1936 1926 1926 1926 1936 1936 1936 1936 1936 1936 1926 1926 1926 1926 1926 1926 1926 1926 1915 1915 1915 1915 1915 1915 1904 1904 1904 1904 1904 1904 1904 1904 1904 1904 1904 1904 1904 1904 1904 1904 1894 1894 1894 1894 1894 1894 1894 1883 1883 1894 1883 1883 1883 1883 1883 1883 1883 1883 1883 1883 1883 1883 1883 1883 1873 1873 1873 1863 1863 1863 1863 1863 1863 1863 1863 1863 1863 1863 1853 1853 1863 1863 1853 1853 1853 1853 1853 1843 1843 1843 1853 1853 1843 1843 1853 1853 1863 1843 1843 1853 1853 1853 1843 1843 1843 1843 1853 1853 1853 1853 1843 1843 1833 1833 1833 1833 1833 1833 1833 1833 1823 1823 1823 1833 1833 1833 1833 1833 1833 1833 1823 1823 1823 1813 1813 1813 1813 1813 1804 1804 1804 1813 1813 1804 1804 1804 1804 1804 1804 1804 1813 1813 1813 1813 1813 1813 1813 1813 1813 1813 1833 1823 1823 1823 1823 1823 1823 1823 1823 1813 1813 1813 1813 1804 1804 1794 1794 1804 1804 1804 1794 1794 1794 1794 1794 1794 1785 1785 1785 1776 1776 1766 1766 1776 1776 1776 1776 1776 1785 1785 1794 1794 1813 1813 1823 0 0 4349 4349 4295 4295 4295 4295 4295 4295 4295 4295 4295 4295 4295 4295 4295 4295 4295 4295 4295 4295 4295 4295 4295 4295 4295 4295 4295 4295 4295 4295 4241 4241 4241 4241 4241 4241 4241 4241 4241 4241 4241 4241 4190 4190 4190 4190 4241 4139 4139 4139 4139 4139 4139 4139 4139 4139 4139 4139 4139 4139 4089 4089 4089 4089 4089 4089 4089 4089 4139 4139 4139 4139 4139 4139 4139 4139 4089 4089 4089 4041 4041 4089 4089 4089 4089 4089 4139 4139 4089 4089 4089 4041 4041 4041 4089 4089 4041 4041 4041 4089 4089 4089 4089 4089 4089 4089 4089 4089 4089 4089 4041 4041 4041 3994 3994 3994 0 0 0 0 0 0 0 0 0 0 0 3994 3948 3948 3948 3948 3903 3903 0 0 0 0 0 0 0 0 0 3859 3859 3859 3859 3816 3816 3816 3816 3816 3816 3816 3816 3816 3816 3816 3816 3774 3774 3774 3774 3269 3269 3269 3269 3269 3269 3269 3238 3238 0 0 0 0 0 0 0 0 0 0 0 0 0 0 0 0 0 0 0 0
0 0 0 0 0 0 0 0 0 0 0 0 0 0 0 0 0 0 0 0 0 0 0 0 0 0 0 0 0 0 0 3178 3178 3178 3178 3208 3208 3238 3269 3269 3300 3300 1398 1398 1398 1398 1404 1404 1410 1410 1410 1410 1410 1410 1415 1415 1415 1410 1404 1404 3503 0 1392 0 0 0 1365 1365 1365 1365 1370 1381 1392 1392 1392 1392 0 0 0 0 0 0 0 0 0 0 0 0 0 0 1376 1376 1376 1376 1381 1381 1381 1381 1381 1381 0 0 0 0 0 0 1354 1354 1354 1354 1354 1359 1359 1365 1365 1365 1365 1365 1365 1365 1365 1365 1365 1370 1370 1370 1970 1970 1970 1970 1981 1981 1993 1993 1993 1993 1993 1993 1993 1993 1993 1993 1993 1993 1993 1993 1993 1993 1993 1993 1981 1981 1993 1993 1993 1993 1970 1970 1970 1970 1970 1970 1959 1959 1959 1959 1959 1959 1959 1959 1959 1959 1970 1970 1970 1947 1947 1959 1959 1959 1959 1959 1959 1970 1959 1947 1947 1947 1947 1959 1959 1959 1959 1959 1959 1959 1959 1959 1959 1959 1959 1947 1947 1947 1959 1947 1947 1947 1947 1947 1947 1947 1947 1947 1947 1947 1936 1936 1936 1936 1936 1936 1947 1936 1936 1936 1936 1936 1936 1936 1936 1936 1936 1947 1947 1947 1936 1936 1926 1926 1926 1926 1915 1915 1915 1926 1926 1926 1926 1926 1926 1926 1926 1915 1915 1926 1915 1915 1915 1904 1904 1894 1894 1894 1894 1894 1894 1894 1894 1894 1894 1894 1894 1894 1883 1883 1883 1894 1894 1894 1894 1894 1894 1883 1883 1873 1873 1873 1873 1873 1873 1873 1863 1863 1863 1863 1863 1863 1873 1873 1873 1873 1873 1873 1863 1863 1853 1853 1853 1853 1853 1853 1853 1853 1853 1853 1863 1853 1853 1853 1853 1853 1853 1843 1843 1843 1843 1853 1843 1843 1843 1843 1843 1843 1843 1833 1833 1833 1833 1833 1823 1823 1823 1833 1833 1833 1833 1833 1843 1843 1833 1833 1833 1833 1833 1823 1823 1823 1823 1823 1823 1813 1813 1813 1813 1813 1813 1813 1823 1823 1823 1823 1823 1813 1813 1813 1804 1804 1804 1804 1804 1804 1804 1804 1804 1804 1804 1804 1794 1794 1794 1794 1794 1794 1794 1804 1804 1804 1804 1804 1804 1804 1804 1794 1794 1804 1804 1804 1804 1794 1794 1794 1794 1794 1785 1785 1785 1785 1785 1776 1776 1776 1785 1785 1785 1785 1785 1776 1776 1766 1766 1766 1766 1766 1766 1766 1766 1766 1766 1776 1776 1785 1785 1794 1813 1813 0 0 4349 4295 4295 4295 4295 4241 4241 4241 4241 4241 4241 4241 4241 4241 4241 4295 4295 4295 4295 4295 4295 4295 4241 4241 4241 4241 4241 4241 4241 4241 4241 4241 4190 4190 4241 4241 4241 4190 4190 4190 4190 4190 4190 4190 4190 4190 4190 4139 4139 4139 4139 4089 4089 4089 4089 4089 4089 4089 4089 4089 4089 4089 4089 4089 4089 4089 4089 4089 4139 4139 4139 4139 4139 4139 4139 4139 4089 4089 4041 4041 4041 4041 4041 4041 4041 4089 4089 4089 4089 4041 4041 4041 4041 4041 4041 4041 3994 3994 4041 4041 4041 4041 4041 4041 4041 4089 4041 4041 4041 4041 3994 3948 3948 3948 3948 3859 3859 3859 0 0 0 0 0 0 0 0 0 3994 3948 3948 3948 3948 3903 3903 0 0 0 0 0 0 0 0 0 3859 3859 3859 3816 3816 3816 3816 3816 3816 3859 3859 3816 3816 3816 3816 3816 3774 3774 3774 0 3269 3269 3269 3269 3269 3269 3269 3208 3120 3120 0 0 0 0 0 0 0 0 0 0 0 0 0 0 0 0 0 0 0
0 0 0 0 0 0 0 0 0 0 0 0 0 0 0 0 0 0 0 0 0 0 0 0 0 0 0 0 0 0 0 3149 3149 3178 3178 3208 3238 3238 3238 1404 1404 1404 1404 1398 1398 1398 1404 1404 1410 1404 1404 1410 1410 1410 1410 1410 1410 1404 1398 1398 1392 1392 1392 1387 1387 1387 1365 1365 1370 1376 1376 1381 1387 1387 1387 1387 1392 1387 1387 0 0 0 1376 1376 1376 1370 1370 1370 1370 1370 1370 1376 1376 1376 1376 1376 1381 1381 1381 1381 1365 1365 1365 0 0 0 1354 1354 1354 1354 1354 1359 1359 1359 1359 1365 1365 1365 1365 1365 1365 1365 1365 1365 1370 1370 1970 1970 1970 1970 1970 1970 1981 1981 1993 1993 1993 1981 1981 1981 1981 1981 1981 1981 1959 1959 1959 1970 1970 1970 1981 1981 1993 1981 1981 1993 1959 1959 1959 1959 1959 1959 1959 1959 1959 1959 1959 1959 1947 1947 1947 1947 1947 1959 1947 1947 1947 1947 1947 1947 1947 1947 1947 1947 1947 1947 1947 1947 1947 1947 1947 1947 1947 1947 1947 1947 1947 1947 1947 1947 1947 1947 1947 1947 1947 1947 1947 1936 1936 1947 1936 1936 1936 1936 1926 1926 1926 1926 1926 1926 1926 1926 1926 1926 1926 1926 1926 1926 1926 1926 1926 1926 1926 1926 1926 1926 1915 1915 1915 1915 1915 1915 1904 1904 1915 1915 1915 1915 1915 1915 1915 1915 1904 1894 1894 1904 1904 1894 1894 1883 1883 1883 1883 1883 1883 1883 1883 1883 1883 1883 1883 1883 1873 1873 1873 1873 1873 1873 1883 1883 1883 1883 1883 1873 1873 1863 1863 1863 1863 1863 1863 1863 1863 1853 1853 1853 1853 1863 1863 1863 1863 1863 1863 1863 1853 1843 1843 1843 1843 1843 1843 1853 1853 1853 1853 1853 1853 1843 1843 1843 1843 1843 1843 1833 1833 1833 1833 1843 1833 1833 1833 1833 1833 1833 1833 1823 1823 1823 1823 1813 1813 1813 1823 1823 1823 1823 1823 1823 1833 1823 1813 1813 1804 1804 1804 1813 1813 1813 1813 1813 1813 1804 1804 1804 1804 1804 1813 1813 1813 1813 1813 1813 1813 1804 1804 1804 1804 1794 1794 1794 1794 1794 1794 1794 1794 1794 1794 1794 1785 1785 1785 1785 1785 1785 1785 1794 1794 1794 1785 1785 1794 1794 1794 1785 1785 1785 1785 1785 1776 1776 1776 1776 1776 1785 1776 1776 1776 1776 1776 1766 1766 1766 1766 1766 1766 1766 1766 1766 1757 1757 1757 1757 1757 1757 1757 1757 1757 1757 1757 1757 1757 1766 1776 1776 0 0 0 0 4295 4295 4295 4295 4295 4241 4241 4241 4241 4241 4241 4241 4241 4190 4190 4241 4241 4241 4190 4190 4190 4241 4190 4190 4190 4190 4190 4190 4190 4190 4241 4190 4190 4190 4241 4241 4190 4190 4190 4190 4190 4190 4139 4139 4139 4139 4139 4089 4089 4089 4089 4089 4089 4089 4089 4089 4089 4089 4089 4089 4089 4089 4089 4089 4089 4089 4089 4089 4089 4089 4089 4089 4089 4139 4089 4089 4089 4089 4041 4041 4041 4041 4041 4041 4041 4041 4041 4041 4041 4041 4041 4041 4041 4041 4041 4041 3994 3994 3994 4041 4041 4041 4041 4041 4041 4041 3994 3994 3994 3994 3994 3948 3948 3948 3903 3859 3859 3859 0 0 0 0 0 0 0 3948 3948 3948 3948 3948 3948 3948 3903 3903 0 0 0 0 0 0 0 0 0 3859 3859 3859 3816 3816 3816 3816 3816 3816 3816 3816 3816 3816 3816 3816 3816 3816 3816 3816 3774 3269 3269 3269 3269 3269 3269 3269 3208 3120 3120 0 0 0 0 0 0 0 0 0 0 0 0 0 0 0 0 0 0 0
0 0 0 0 0 0 0 0 0 0 0 0 0 0 0 0 0 0 0 0 0 0 0 0 0 0 0 0 0 0 0 3149 3149 3178 3178 3178 0 1404 1404 1404 1404 1404 1404 1404 1404 1404 1404 1404 1410 1404 1404 1404 1404 1404 1404 1404 1398 1398 1398 1398 1392 1392 1392 1387 1387 1387 1381 1370 1370 1381 1381 1381 1387 1387 1387 1387 1387 1381 1381 1381 1376 1370 1370 1370 1370 1365 1365 1370 1370 1370 1370 1376 1376 1376 1376 1376 1376 1376 1376 1370 1365 1365 1365 1359 1359 1359 1354 1354 1354 1354 1354 1359 1359 1359 1359 1359 1359 1359 1365 1365 1365 1365 1365 1365 1370 1370 1959 1959 1947 1947 1959 1970 1970 1970 1970 1970 1970 1970 1970 1970 1970 1970 1970 1947 1947 1947 1959 1959 1959 1970 1970 1970 1981 1970 1970 1970 1947 1947 1947 1947 1947 1947 1947 1947 1947 1947 1947 1947 1947 1936 1936 1936 1936 1947 1947 1936 1936 1936 1936 1936 1936 1936 1936 1936 1936 1926 1926 1926 1926 1926 1936 1936 1936 1936 1936 1936 1926 1926 1936 1926 1926 1926 1926 1926 1936 1936 1936 1936 1936 1936 1926 1926 1926 1915 1915 1904 1904 1915 1915 1915 1915 1915 1915 1915 1915 1915 1915 1915 1915 1915 1915 1904 1904 1915 1915 1904 1904 1904 1904 1904 1904 1904 1894 1894 1894 1894 1904 1894 1894 1894 1894 1894 1883 1873 1873 1873 1883 1873 1873 1853 1853 1853 1863 1863 1873 1873 1873 1873 1873 1873 1873 1873 1863 1863 1863 1863 1863 1863 1873 1873 1863 1863 1863 1853 1853 1853 1853 1853 1853 1853 1853 1863 1853 1853 1843 1843 1853 1853 1853 1853 1853 1853 1853 1843 1843 1843 1833 1833 1833 1833 1833 1843 1843 1843 1843 1843 1843 1843 1833 1833 1823 1823 1833 1823 1823 1823 1833 1833 1823 1823 1823 1823 1823 1823 1823 1813 1804 1804 1804 1804 1804 1804 1804 1813 1813 1813 1813 1804 1804 1804 1804 1794 1794 1794 1794 1804 1794 1794 1794 1794 1794 1794 1794 1794 1794 1804 1804 1804 1804 1804 1804 1804 1804 1794 1794 1794 1794 1785 1785 1785 1785 1794 1785 1785 1785 1785 1785 1785 1776 1776 1776 1785 1785 1776 1776 1785 1785 1785 1776 1776 1776 1785 1776 1776 1776 1776 1776 1776 1766 1766 1776 1776 1776 1776 1766 1766 1766 1757 1757 1748 1748 1757 1757 1757 1757 1757 1757 1757 1748 1748 1748 1748 1748 1748 1748 1748 1748 1748 1748 1748 1748 1748 1748 1776 0 0 0 4241 4241 4241 4241 4241 4241 4241 4241 4241 4190 4190 4190 4190 4190 4139 4139 4190 4190 4190 4190 4190 4190 4190 4190 4139 4139 4139 4190 4139 4139 4139 4190 4190 4139 4139 4190 4190 4139 4139 4139 4139 4139 4139 4139 4139 4139 4139 4139 4089 4089 4089 4089 4089 4089 4089 4089 4089 4041 4041 4041 4041 4041 4041 4041 4041 4089 4089 4089 4089 4089 4041 4041 4041 4041 4041 4041 4089 4041 4041 4041 3994 3994 3994 3994 3994 3994 3994 3994 4041 4041 3994 3994 3994 3994 3994 3994 3994 3994 3994 3994 3994 3994 4041 4041 4041 4041 3994 3994 3994 3994 3948 3948 3903 3903 3903 3903 3816 3816 3816 0 0 0 0 0 0 0 3903 3903 3903 3903 3903 3903 3948 3948 3948 0 0 0 0 0 0 0 0 0 3859 3859 3816 3816 3816 3816 3816 3816 3816 3816 3816 3816 3816 3816 3816 3816 3816 3774 3774 3774 3269 3269 3269 3269 3269 3269 3269 3178 3178 3037 3037 0 0 0 0 0 0 0 0 0 0 0 0 0 0 0 0 0 0
0 0 0 0 0 0 0 0 0 0 0 0 0 0 0 0 0 0 0 0 0 0 0 0 0 0 0 0 0 0 0 0 0 0 0 0 0 1404 1404 1404 1404 1404 1404 1404 1404 1404 1410 1410 1404 1398 1398 1398 1398 1398 1398 1398 1398 1398 1392 1392 1392 1392 1392 1387 1387 1387 1381 1381 1381 1381 1387 1387 1387 1387 1381 1381 1381 1381 1381 1376 1376 1370 1370 1370 1370 1365 1365 1370 1370 1370 1370 1376 1376 1376 1376 1376 1376 1376 1370 1370 1365 1365 1359 1359 1359 1354 1354 1354 1354 1354 1354 1354 1354 1354 1354 1359 1359 1359 1359 1365 1365 1365 1365 1370 1370 1370 1959 1947 1947 1947 1947 1959 1959 1970 1959 1959 1959 1959 1959 1959 1959 1936 1936 1936 1936 1936 1947 1947 1947 1947 1947 1959 1959 1959 1959 1959 1936 1936 1936 1936 1936 1947 1947 1936 1936 1936 1936 1936 1936 1926 1926 1926 1926 1926 1926 1926 1926 1926 1926 1926 1926 1936 1926 1926 1926 1926 1926 1926 1926 1915 1915 1936 1936 1936 1936 1926 1915 1915 1926 1915 1915 1904 1904 1904 1915 1915 1915 1926 1926 1926 1915 1915 1915 1904 1904 1904 1904 1904 1904 1904 1904 1904 1904 1904 1904 1904 1904 1904 1904 1894 1894 1894 1894 1894 1894 1894 1894 1894 1904 1894 1894 1894 1883 1883 1883 1883 1873 1863 1863 1873 1863 1863 1863 1863 1853 1853 1853 1843 1843 1843 1843 1843 1853 1853 1863 1863 1863 1863 1863 1863 1863 1853 1853 1853 1853 1853 1853 1853 1853 1843 1843 1843 1843 1843 1843 1843 1843 1843 1843 1843 1843 1843 1843 1843 1843 1843 1843 1843 1843 1843 1843 1843 1843 1813 1813 1813 1823 1823 1823 1823 1823 1833 1833 1833 1833 1833 1833 1823 1823 1823 1813 1813 1823 1813 1813 1823 1823 1823 1823 1823 1823 1813 1813 1804 1804 1804 1804 1804 1804 1804 1794 1794 1794 1794 1804 1804 1804 1785 1785 1785 1776 1776 1776 1776 1785 1794 1785 1785 1785 1794 1794 1794 1794 1794 1794 1794 1794 1794 1785 1785 1785 1794 1794 1794 1785 1785 1785 1776 1776 1776 1776 1776 1776 1776 1776 1776 1776 1766 1766 1766 1766 1766 1776 1766 1766 1776 1776 1776 1766 1766 1766 1766 1766 1766 1766 1757 1757 1757 1757 1757 1757 1757 1766 1766 1757 1757 1748 1739 1739 1731 1731 1739 1739 1731 1731 1739 1739 1748 1739 1731 1731 1731 1739 1739 1739 1739 1739 1739 1748 1748 1739 1739 1748 0 0 0 0 4190 4190 4190 4190 4190 4190 4139 4139 4139 4139 4139 4139 4139 4139 4139 4139 4139 4190 4190 4139 4139 4139 4139 4139 4139 4139 4139 4139 4139 4139 4139 4190 4190 4139 4139 4139 4139 4139 4139 4139 4139 4139 4139 4139 4089 4089 4089 4139 4041 4041 4089 4089 4041 4041 4041 4041 4041 4041 4041 3994 3994 3994 3994 3994 4041 4041 4041 4041 4041 4041 4041 3994 3994 3994 3994 3994 4041 3994 3994 3994 3994 3994 3994 3948 3948 3948 3948 3948 3994 3994 3948 3948 3948 3948 3948 3948 3948 3948 3948 3948 3994 3994 4041 4041 3994 3994 3948 3948 3948 3948 3903 3903 3903 3903 3903 3859 3816 3816 3816 0 0 0 0 0 0 3859 3859 3903 3903 3903 3903 3903 3948 3948 3948 0 0 0 0 0 0 0 0 0 3859 3859 3816 3816 3816 3816 3816 3816 3816 3816 3816 3816 3816 3816 3816 3774 3774 3732 3732 3732 3269 3269 3269 3269 3269 3269 3269 3178 3178 3037 3037 0 0 0 0 0 0 0 0 0 0 0 0 0 0 0 0 0 0
0 0 0 0 0 0 0 0 0 0 0 0 0 0 0 0 0 0 0 0 0 0 0 0 0 0 0 0 0 0 0 0 0 0 0 0 0 1410 1410 1410 1410 1410 1410 1404 1404 1404 1410 1404 1404 1398 1398 1398 1398 1398 1398 1392 1392 1392 1392 1392 1392 1387 1387 1392 1387 1387 1387 1387 1387 1387 1387 1387 1387 1381 1381 1376 1376 1376 1376 1376 1370 1370 1370 1370 1370 1365 1365 1370 1370 1370 1370 1370 1376 1376 1376 1376 1376 1376 1370 1370 1365 1365 1359 1359 1359 1354 1354 1354 1354 1354 1354 1354 1354 1354 1354 1354 1359 1359 1359 1365 1365 1365 1365 1370 1370 1370 1947 1947 1947 1947 1947 1947 1947 1959 1947 1947 1947 1936 1936 1936 1936 1926 1926 1926 1926 1926 1926 1926 1926 1936 1936 1947 1936 1936 1947 1936 1926 1926 1936 1936 1936 1936 1936 1936 1936 1936 1936 1926 1926 1915 1915 1915 1915 1915 1915 1915 1915 1915 1915 1915 1915 1926 1926 1915 1915 1915 1915 1915 1915 1915 1915 1915 1915 1926 1926 1915 1904 1904 1915 1904 1904 1894 1894 1894 1904 1894 1894 1915 1915 1915 1904 1904 1904 1894 1894 1894 1894 1894 1894 1894 1894 1894 1894 1894 1894 1894 1894 1894 1883 1883 1883 1883 1883 1873 1873 1873 1883 1883 1894 1883 1883 1883 1873 1873 1873 1873 1853 1853 1853 1853 1853 1853 1853 1853 1843 1843 1843 1843 1843 1833 1833 1833 1843 1843 1843 1843 1853 1853 1853 1853 1853 1843 1843 1843 1843 1843 1843 1843 1843 1833 1823 1823 1823 1823 1833 1833 1833 1833 1833 1833 1833 1833 1833 1833 1833 1833 1833 1833 1823 1823 1813 1813 1804 1804 1804 1813 1804 1804 1813 1813 1813 1823 1823 1823 1823 1823 1813 1813 1813 1813 1804 1804 1813 1813 1813 1813 1813 1813 1813 1813 1813 1804 1804 1794 1794 1794 1794 1794 1794 1794 1785 1785 1785 1785 1785 1794 1776 1776 1776 1776 1766 1766 1766 1766 1776 1776 1776 1776 1776 1785 1785 1785 1785 1785 1785 1776 1776 1776 1776 1776 1776 1785 1785 1785 1776 1776 1776 1766 1766 1766 1766 1766 1766 1766 1766 1766 1766 1766 1757 1757 1766 1766 1766 1757 1757 1766 1757 1757 1757 1757 1757 1757 1748 1748 1748 1739 1739 1739 1739 1739 1748 1748 1748 1757 1739 1739 1731 1731 1731 1722 1722 1731 1731 1731 1731 1731 1731 1731 1722 1722 1722 1731 1731 1731 1731 1731 1731 1739 1739 1739 1731 1731 1748 0 0 0 0 4139 4139 4139 4190 4190 4190 4139 4139 4139 4139 4139 4139 4139 4139 4139 4139 4139 4139 4139 4139 4139 4139 4089 4089 4089 4089 4089 4089 4089 4089 4089 4139 4089 4089 4089 4089 4089 4089 4089 4089 4089 4139 4139 4139 4089 4089 4089 4089 4041 4041 4041 4041 4041 4041 4041 4041 4041 3994 3994 3948 3948 3994 3994 3994 3994 3994 3994 4041 3994 3994 3994 3994 3948 3948 3994 3994 3994 3994 3948 3948 3948 3948 3948 3948 3948 3948 3948 3948 3994 3948 3903 3903 3903 3903 3948 3903 3903 3903 3948 3948 3948 3948 3948 3994 3948 3948 3948 3948 3948 3903 3903 3903 3903 3903 3859 3859 3859 0 0 0 0 0 0 0 0 3859 3859 3859 3859 3903 3903 3903 3903 3903 0 0 0 0 0 0 0 0 0 0 3859 3816 3732 3732 3774 3774 3774 3774 3774 3774 3774 3774 3774 3774 3774 3732 3732 3732 3692 3692 3692 3300 3269 3269 3269 3269 3269 3269 0 0 0 0 0 0 0 0 0 0 0 0 0 0 0 0 0 0 0 0 0
0 0 0 0 0 0 0 0 0 0 0 0 0 0 0 0 0 0 0 0 0 0 0 0 0 0 0 0 0 0 0 0 0 0 0 0 0 1410 1410 1410 1410 1410 1410 1404 1404 1404 1404 1404 1404 1398 1398 1398 1392 1392 1392 1392 1392 1392 1392 1392 1387 1387 1387 1387 1387 1387 1387 1387 1387 1387 1381 1381 1381 1376 1376 1376 1376 1376 1376 1376 1370 1370 1370 1370 1370 1365 1365 1365 1370 1370 1370 1370 1370 1376 1376 1376 1376 1376 1370 1370 1365 1365 1359 1359 1359 1354 1354 1354 1354 1354 1354 1349 1349 1354 1354 1354 1354 1359 1359 1365 1365 1365 1365 1370 1370 1370 1370 1947 1947 1936 1936 1936 1936 1926 1926 1926 1926 1926 1926 1926 1926 1926 1926 1926 1926 1926 1926 1926 1926 1926 1926 1926 1926 1926 1936 1926 1915 1915 1926 1926 1936 1936 1936 1936 1926 1926 1926 1915 1904 1904 1904 1904 1904 1904 1904 1904 1904 1904 1904 1904 1904 1915 1904 1904 1904 1904 1904 1894 1894 1894 1904 1904 1904 1904 1904 1904 1894 1894 1894 1894 1883 1883 1883 1883 1883 1883 1883 1894 1894 1894 1883 1883 1883 1873 1873 1873 1873 1873 1873 1873 1873 1873 1873 1873 1873 1873 1873 1883 1873 1873 1873 1873 1863 1863 1863 1873 1873 1873 1883 1883 1883 1883 1873 1863 1863 1853 1853 1853 1853 1853 1843 1843 1843 1843 1833 1833 1833 1833 1833 1833 1833 1833 1833 1833 1833 1833 1833 1843 1843 1843 1833 1833 1833 1833 1833 1833 1833 1823 1823 1823 1823 1823 1813 1813 1823 1823 1823 1823 1823 1833 1833 1833 1823 1823 1823 1823 1823 1813 1813 1804 1804 1804 1804 1804 1804 1804 1804 1804 1804 1804 1813 1813 1804 1804 1804 1804 1794 1794 1804 1804 1804 1804 1804 1804 1804 1804 1804 1813 1804 1804 1804 1804 1785 1785 1785 1785 1785 1785 1785 1785 1785 1776 1776 1776 1776 1776 1766 1766 1766 1766 1766 1766 1766 1766 1766 1766 1766 1766 1766 1776 1776 1776 1766 1766 1776 1766 1766 1766 1766 1766 1766 1776 1776 1776 1766 1766 1766 1757 1748 1748 1748 1748 1748 1748 1748 1757 1757 1757 1757 1757 1757 1757 1757 1757 1748 1748 1748 1739 1739 1748 1748 1748 1748 1739 1739 1739 1731 1731 1731 1739 1739 1739 1739 1748 1731 1731 1722 1722 1722 1722 1722 1722 1722 1713 1713 1722 1722 1713 1713 1713 1713 1713 1713 1713 1713 1713 1722 1722 1722 1722 1722 1722 0 0 0 0 0 4139 4139 4139 4139 4139 4139 4139 4139 4139 4139 4089 4089 4089 4139 4139 4139 4139 4139 4089 4089 4089 4089 4089 4089 4089 4089 4089 4041 4041 4041 4089 4089 4041 4041 4041 4089 4089 4089 4041 4041 4041 4041 4041 3994 3994 3994 3994 3994 3994 3994 3994 3994 3994 3994 3994 3994 3994 3994 3994 3948 3948 3948 3948 3948 3948 3948 3948 3994 3948 3948 3948 3948 3948 3948 3948 3948 3948 3948 3903 3903 3903 3903 3903 3903 3903 3903 3903 3903 3948 3903 3903 3903 3903 3903 3903 3903 3903 3903 3903 3903 3903 3903 3903 3948 3903 3903 3903 3903 3903 3903 3903 3903 3859 3859 3859 3859 3859 0 0 0 0 0 0 0 0 3859 3859 3859 3859 3859 3859 3903 3903 3903 0 0 0 0 0 0 0 0 0 0 0 3732 3692 3692 3732 3732 3732 3732 3732 3774 3774 3774 3774 3774 3774 3732 3732 3692 3692 3692 3692 3300 3269 3269 3269 3269 3269 0 0 0 0 0 0 0 0 0 0 0 0 0 0 0 0 0 0 0 0 0 0
0 0 0 0 0 0 0 0 0 0 0 0 0 0 0 0 0 0 0 0 0 0 0 0 0 0 0 0 0 0 0 0 0 0 0 0 0 1410 1410 1410 1410 1404 1404 1404 1404 1404 1404 1404 1404 1398 1398 1392 1392 1392 1392 1392 1392 1387 1387 1387 1387 1387 1387 1387 1387 1387 1387 1387 1387 1387 1381 1381 1381 1376 1376 1376 1376 1376 1376 1376 1370 1365 1365 1365 1365 1365 1365 1365 1365 1365 1370 1370 1370 1370 1370 1370 1370 1370 1365 1365 1365 1359 1359 1359 1359 1354 1354 1354 1354 1354 1354 1349 1349 1354 1354 1354 1354 1354 1359 1359 1365 1365 1370 1370 1370 1370 1370 1947 1947 1936 1926 1926 1926 1915 1915 1915 1915 1915 1915 1915 1915 1915 1915 1915 1915 1915 1915 1915 1915 1904 1904 1915 1915 1915 1915 1915 1904 1904 1926 1926 1936 1259 1259 1255 1255 1259 1259 1259 1259 1894 1894 1894 1904 1894 1894 1894 1894 1894 1883 1883 1894 1883 1883 1883 1883 1883 1894 1894 1883 1883 1894 1894 1894 1894 1883 1883 1883 1883 1873 1873 1873 1873 1873 1873 1873 1873 1873 1873 1873 1873 1873 1873 1863 1863 1863 1873 1873 1873 1873 1863 1863 1863 1863 1863 1863 1863 1863 1863 1863 1853 1853 1853 1853 1853 1853 1863 1863 1863 1873 1863 1863 1863 1863 1843 1843 1843 1843 1843 1843 1843 1833 1833 1833 1833 1833 1823 1823 1823 1823 1823 1823 1823 1823 1823 1823 1823 1823 1833 1833 1833 1823 1823 1823 1823 1823 1813 1813 1813 1813 1804 1804 1804 1804 1804 1813 1813 1813 1813 1813 1813 1813 1813 1813 1813 1813 1804 1804 1794 1794 1785 1785 1794 1794 1794 1794 1794 1794 1794 1804 1804 1804 1804 1794 1794 1794 1794 1785 1785 1785 1785 1785 1785 1776 1776 1785 1776 1776 1785 1785 1794 1794 1766 1766 1776 1776 1776 1776 1776 1766 1766 1766 1766 1766 1766 1757 1757 1757 1757 1757 1757 1757 1757 1757 1757 1757 1757 1757 1757 1757 1757 1757 1757 1757 1757 1757 1748 1748 1757 1757 1766 1766 1766 1757 1757 1748 1748 1748 1739 1739 1739 1739 1739 1739 1739 1739 1748 1748 1748 1748 1748 1748 1748 1748 1748 1739 1739 1739 1731 1731 1739 1739 1739 1739 1731 1731 1731 1722 1722 1722 1722 1722 1731 1731 1731 1713 1713 1713 1713 1713 1713 1713 1705 1705 1713 1713 1705 1705 1705 1705 1705 1705 1696 1696 1696 1696 1696 1705 1705 1705 1705 1705 1722 0 0 0 0 0 0 4139 4139 4139 4139 4139 4089 4089 4139 4139 4089 4089 4089 4139 4089 4089 4089 4089 4089 4041 4041 4041 4041 4041 4041 4041 4041 4041 4041 4041 4041 4089 4041 4041 4041 4041 4041 4089 4041 4041 4041 4041 3994 3994 3994 3994 3994 3994 3948 3948 3948 3948 3948 3948 3948 3948 3948 3948 3948 3948 3948 3948 3948 3903 3903 3948 3903 3903 3948 3903 3903 3948 3948 3948 3948 3948 3948 3948 3903 3903 3903 3903 3903 3903 3903 3903 3903 3903 3903 3859 3859 3859 3859 3859 3903 3903 3903 3903 3903 3903 3903 3903 3903 3903 3859 3859 3903 3903 3903 3903 3903 3903 3859 3859 3859 3859 3859 0 0 0 0 0 0 0 0 3816 3816 3816 3816 3859 3859 3859 3859 3859 0 0 0 0 0 0 0 0 0 3732 3732 3692 3692 3692 3692 3732 3732 3732 3732 3732 3732 3732 3732 3732 3732 3692 3692 3692 3692 3692 3300 3300 3269 3269 3269 3269 3269 3269 0 0 0 0 0 0 0 0 0 0 0 0 0 0 0 0 0 0 0 0 0
0 0 0 0 0 0 0 0 0 0 0 0 0 0 0 0 0 0 0 0 0 0 0 0 0 0 0 0 0 0 0 0 0 0 0 0 0 1410 1410 1410 1410 1404 1404 1404 1404 1404 1398 1398 1398 1398 1398 1392 1392 1392 1392 1392 1392 1387 1387 1387 1387 1387 1387 1387 1387 1387 1381 1381 1381 1381 1381 1381 1381 1376 1376 1376 1370 1370 1370 1370 1370 1365 1365 1365 1365 1365 1365 1365 1365 1365 1365 1365 1365 1370 1370 1365 1365 1370 1365 1365 1365 1359 1359 1359 1359 1359 1354 1354 1354 1354 1354 1349 1349 1354 1349 1349 1354 1354 1359 1359 1365 1365 1370 1370 1370 1370 1370 1370 1370 1926 1926 1926 1894 1894 1894 1894 1904 1894 1894 1894 1883 1883 1883 1904 1904 1904 1904 1904 1904 1883 1883 1883 1883 1883 1883 1904 1904 1904 1904 1264 1259 1259 1259 1255 1255 1259 1259 1259 1259 1264 1883 1883 1894 1883 1883 1883 1883 1883 1873 1873 1873 1873 1873 1873 1873 1873 1873 1873 1873 1873 1883 1883 1873 1863 1863 1863 1863 1863 1863 1863 1863 1863 1863 1863 1863 1863 1863 1863 1863 1863 1853 1853 1863 1863 1863 1863 1863 1863 1863 1863 1863 1853 1853 1853 1853 1853 1843 1833 1833 1843 1843 1843 1843 1843 1843 1843 1853 1843 1843 1843 1843 1843 1843 1823 1823 1823 1823 1833 1833 1833 1823 1823 1823 1823 1823 1813 1813 1813 1813 1813 1813 1813 1813 1813 1813 1813 1813 1823 1813 1813 1813 1813 1813 1813 1813 1804 1804 1804 1804 1804 1794 1794 1794 1804 1804 1804 1804 1804 1804 1804 1804 1804 1804 1794 1794 1794 1785 1785 1785 1776 1776 1776 1776 1776 1776 1785 1785 1785 1785 1785 1785 1785 1785 1776 1776 1776 1776 1776 1766 1766 1776 1766 1766 1766 1776 1766 1766 1766 1766 1757 1757 1748 1748 1757 1757 1757 1757 1757 1757 1757 1757 1748 1748 1748 1748 1757 1757 1757 1757 1757 1757 1757 1757 1748 1748 1748 1739 1739 1748 1748 1748 1748 1739 1739 1739 1739 1739 1731 1731 1731 1739 1739 1739 1739 1731 1731 1739 1731 1731 1731 1731 1731 1731 1731 1731 1731 1731 1731 1731 1739 1713 1713 1722 1722 1722 1722 1722 1722 1722 1731 1731 1731 1731 1722 1722 1713 1713 1705 1705 1705 1705 1705 1705 1705 1705 1705 1705 1705 1705 1705 1705 1696 1696 1696 1696 1696 1696 1696 1696 1696 1696 1696 1696 1696 1696 1688 1688 1680 1680 1688 1688 0 0 0 0 0 0 0 4139 4139 4139 4089 4089 4089 4089 4089 4089 4089 4089 4089 4089 4089 4089 4089 4089 4041 4041 3994 3994 3994 4041 4041 3994 3994 4041 3994 3994 3994 3994 3994 3994 3994 3994 3994 4041 4041 4041 4041 4041 3994 3994 3994 3994 3994 3994 3948 3948 3948 3948 3903 3903 3903 3903 3903 3903 3903 3903 3903 3903 3903 3903 3903 3903 3903 3903 3903 3903 3903 3903 3903 3903 3903 3903 3903 3903 3903 3903 3903 3903 3903 3903 3903 3903 3903 3903 3903 3859 3859 3859 3859 3859 3859 3859 3859 3859 3903 3859 3859 3859 3859 3816 3816 3816 3859 3859 3859 3859 3903 3903 3903 3903 3859 3859 3859 0 0 0 0 0 0 0 0 3774 3774 3816 3816 3816 3774 3774 3859 3859 0 0 0 0 0 0 0 0 0 3692 3692 3692 3692 3692 3692 3692 3692 3692 3692 3692 3692 3692 3692 3692 3692 3692 3692 3692 3692 3692 3365 3300 3269 3269 3269 3269 3269 3269 0 0 0 0 0 0 0 0 0 0 0 0 0 0 0 0 0 0 0 0 0
