0 0 0 0 0 0 0 0 0 0 0 0 0 0 0 0 0 0 0 0 0 0 0 0 0 0 0 0 0 0 0 0 2984 2984 2984 2984 2984 2984 2984 2984 2984 3010 3010 3010 3037 3064 3064 3064 3064 3064 3092 3092 3092 3092 3120 3120 3149 3178 3178 3178 3178 3208 3208 3238 3238 3238 3238 3238 3208 3208 3208 3208 3208 3208 3208 3269 3300 3300 3300 3300 3300 3300 3300 3300 3300 3300 3300 3300 3333 3333 3365 3365 3365 3399 3399 3433 3433 3433 3433 3433 3468 3468 3468 3468 3468 3503 3503 3503 3539 3539 3539 3539 3576 3576 3614 3614 3614 3614 3653 3653 3653 3692 3732 3774 3774 0 0 0 0 0 0 0 0 0 0 0 0 0 0 0 0 5132 5132 5132 5210 5210 5210 5291 5291 5291 5374 5374 5460 5460 5548 5548 5640 5640 5734 0 0 0 0 0 0 0 0 0 0 0 0 0 0 0 6146 6038 6038 6038 6038 6038 6038 6038 6038 6038 5132 5132 5132 5210 5210 5291 5291 5374 5640 5548 5548 5548 5460 5460 5460 5374 5374 5460 5548 5640 5640 5734 0 0 0 0 0 0 4983 4983 4983 4983 4983 5056 5056 5056 5132 5132 5291 5374 5640 5734 5734 5832 5933 6038 6146 6259 6259 6375 6375 6497 6497 6375 6375 6375 5210 5210 5210 5210 5210 5291 5210 5210 5210 0 2333 2333 2317 2317 2333 2349 2349 2349 2349 2349 2365 0 0 0 0 0 0 0 0 3238 3238 3238 3238 3238 3238 3208 3208 3208 3208 3208 3178 3178 3178 3178 3178 3178 3178 3178 3149 3149 3149 3149 3178 3178 3178 3208 3208 3208 3208 3208 3238 3238 3208 3208 3238 3238 3238 3238 3238 3238 3238 3269 2286 2271 2271 2271 2271 2271 2271 2271 2271 2286 2286 2286 2301 2301 2333 3092 3064 3064 3064 3092 3092 3064 3064 3064 3092 3064 3064 3064 3064 3064 3064 3092 3092 3092 3092 3092 3092 3092 3092 3092 3092 3092 3092 3092 3092 3120 3120 3120 3120 3149 3178 3269 3300 3300 3333 3333 3333 3333 3333 3333 3333 3333 3300 3300 3269 3269 3269 3269 2143 2143 2156 2156 2156 2156 2156 2156 2170 2156 2156 2156 2156 2156 2156 2156 2156 2156 2156 2143 2143 2143 2143 2143 2143 2143 2143 2143 2143 2143 2143 2143 2143 2116 2103 2103 2103 2103 2103 2103 2103 2103 2103 2103 2103 2103 2103 2103 2103 2103 2103 2090 2090 2090 2090 2090 2090 2090 2090 2078 2078 2078 2078 2065 2065 2065 2065 2065 2053 2053 2053 2053 2053 2053 2053 2053 2053 2040 2040 2040 2040 2028 2028 2040 2040 2040 2040 2040 2040 0 0 0 0 0 7030 7030 7030 7178 7178 7178 7178 7178 7178 7178 7178 7178 7178 7178 7178 7178 7178 7030 6259 6146 5933 5933 5933 5933 6146 6375 6622 6889 6889 7030 7030 7030 7030 7030 6889 6753 6497 6146 5933 5933 5933 6038 6038 6146 6146 6259 6622 6753 6753 6753 6889 6889 6889 6753 6753 6753 6753 6753 6753 6753 6753 6753 6753 6753 6753 6622 6622 6622 6753 6622 6622 6622 6622 6622 6497 6375 6375 6375 6375 6259 6259 6259 6259 6375 6497 6497 6497 6497 6497 6497 6497 6375 6038 5933 5832 5832 5832 5832 5832 6146 6375 6375 6497 6497 6497 4241 4241 4295 4295 4295 4241 4241 4241 4241 4241 4190 4190 4190 4190 4190 4139 4139 4089 4089 4041 4041 4041 4041 4041 4041 4041 4041 4041 4041 3994 3994 3994 3948 3948 0 0 0 0 0 0 0 0 0 0 0 0 0 0 0 0 0 0 0 0 0 0 0 0 0 0 0
0 0 0 0 0 0 0 0 0 0 0 0 0 0 0 0 0 0 0 0 0 0 0 0 0 0 0 0 0 0 0 0 2984 2984 2984 2984 2984 2984 2984 2984 2984 3010 3010 3010 3037 3064 3064 3092 3092 3092 3092 3092 3092 3120 3120 3120 3149 3178 3178 3178 3178 3208 3208 3238 3269 3300 3300 3300 3208 3208 3208 3208 3208 3208 3208 3238 3269 3269 3300 3300 3300 3300 3300 3300 3300 3300 3300 3300 3333 3365 3365 3365 3365 3399 3399 3433 3433 3433 3433 3433 3468 3468 3468 3468 3468 3503 3503 3503 3539 3539 3576 3576 3576 3614 3614 3614 3614 3614 3653 3653 3653 3692 3732 3774 3816 0 0 0 0 0 0 0 0 0 0 0 0 0 0 0 0 5132 5132 5210 5210 5210 5291 5291 5291 5291 5374 5460 5460 5460 5548 5548 5640 5640 5734 0 0 0 0 0 0 0 0 0 0 0 0 0 0 0 6146 6038 6038 6038 6038 6038 6038 6038 6146 6146 5132 5132 5132 5210 5210 5291 5374 5374 5640 5548 5460 5460 5460 5460 5460 5460 5460 5460 5548 5640 5640 5734 0 0 0 0 0 0 4983 4983 4983 4983 5056 5056 5056 5056 5132 5210 5291 5460 5640 5734 5734 5832 5933 6038 6146 6146 6375 6375 6375 6375 6497 6375 6375 6375 5291 5210 5210 5210 5291 5291 5210 5210 0 2333 2333 2333 2317 2317 2349 2349 2349 2349 2349 2349 2365 2365 0 0 0 0 0 0 3238 3238 3238 3238 3238 3238 3238 3208 3208 3208 3208 3208 3178 3178 3178 3178 3178 3178 3178 3178 3149 3149 3149 3149 3178 3178 3178 3208 3208 3208 3238 3238 3238 3238 3208 3208 3238 3238 3238 3238 3238 3269 3269 3269 3269 2286 2271 2271 2271 2271 2271 2271 2286 2286 2301 2301 2301 2317 2333 3092 3064 3064 3064 3092 3092 3064 3064 3092 3092 3064 3064 3064 3064 3064 3064 3064 3092 3092 3092 3092 3092 3092 3092 3092 3092 3092 3092 3092 3092 3092 3120 3120 3120 3120 3120 3120 3149 3149 3120 3120 3120 3120 3120 3092 3037 3037 3037 3037 3037 3269 3269 2143 2143 2143 2156 2156 2156 2156 2156 2156 2170 2156 2156 2156 2156 2156 2156 2156 2156 2156 2156 2143 2143 2143 2143 2143 2143 2143 2143 2143 2143 2143 2143 2143 2143 2116 2103 2103 2103 2103 2103 2103 2103 2103 2103 2103 2103 2103 2103 2103 2103 2103 2103 2103 2103 2103 2090 2090 2090 2090 2090 2078 2078 2078 2078 2065 2065 2065 2065 2065 2053 2053 2053 2053 2053 2053 2053 2053 2053 2040 2040 2040 2040 2028 2028 2040 2040 2040 2040 2040 0 0 0 0 0 0 7030 7030 7030 7178 7178 7332 7332 7332 7178 7178 7178 7178 7178 7178 7178 7178 7178 7178 5933 5933 5933 5933 5933 5933 6146 6375 6622 6753 6889 7030 7030 7030 7030 6889 6889 6753 6497 6146 5933 5933 5933 6038 6038 6146 6259 6375 6622 6753 6753 6753 6889 6889 6889 6753 6753 6753 6753 6753 6753 6753 6753 6753 6753 6753 6753 6622 6622 6622 6622 6622 6622 6622 6622 6622 6497 6375 6375 6375 6375 6375 6259 6259 6375 6375 6497 6375 6375 6375 6497 6497 6375 6259 6038 5933 5832 5832 5832 5832 5832 6375 6375 6497 6497 6497 6622 4241 4241 4295 4295 4295 4295 4241 4241 4241 4241 4190 4190 4190 4190 4139 4139 4089 4089 4041 4041 4041 4041 4041 4041 4041 4041 4041 4041 4041 4041 3994 3994 3948 3948 0 0 0 0 0 0 0 0 0 0 0 0 0 0 0 0 0 0 0 0 0 0 0 0 0 0 0
0 0 0 0 0 0 0 0 0 0 0 0 0 0 0 0 0 0 0 0 0 0 0 0 0 0 0 0 0 0 0 0 2984 2984 2984 2984 3010 2984 2984 3010 3010 3010 3010 3037 3037 3064 3064 3092 3092 3092 3092 3092 3092 3120 3120 3120 3149 3178 3178 3178 3178 3208 3208 3238 3269 3333 3365 3365 3576 3208 3208 3208 3208 3208 3208 3238 3269 3269 3300 3300 3300 3300 3300 3300 3300 3300 3300 3333 3333 3365 3365 3365 3399 3399 3399 3433 3433 3433 3433 3468 3468 3468 3468 3468 3468 3503 3503 3503 3539 3539 3576 3576 3576 3614 3614 3614 3614 3614 3653 3653 3653 3732 3732 3774 3816 0 0 0 0 0 0 0 0 0 0 0 0 0 0 0 0 0 5210 5210 5210 5210 5291 5291 5291 5291 5460 5460 5548 5548 5548 5548 5640 5640 5734 0 0 0 0 0 0 0 0 0 0 0 0 0 0 0 6146 6038 6038 6038 6038 6038 6038 6038 6146 6146 6146 5210 5210 5210 5210 5291 5374 5374 5640 5548 5460 5460 5460 5460 5374 5374 5374 5460 5548 5640 5640 5832 0 0 0 0 0 0 0 5056 5056 5056 5056 5056 5056 5132 5132 5210 5374 5460 5640 5734 5734 5832 5933 6038 6038 6146 6259 6259 6259 6375 6497 6375 6375 6375 5291 5210 5210 5210 5291 5291 5210 5210 0 2333 2333 2333 2317 2317 2349 2349 2349 2349 2349 2349 2349 2349 0 0 0 0 0 0 0 3238 3238 3238 3238 3238 3238 3208 3208 3208 3208 3208 3178 3178 3178 3178 3178 3178 3178 3178 3178 3178 3178 3178 3178 3178 3178 3208 3208 3208 3238 3238 3238 3238 3238 3238 3238 3238 3238 3238 3238 3269 3269 3269 3269 3269 2271 2271 2271 2271 2271 2271 2286 2286 2301 2301 2301 2301 2317 3064 3064 3064 3064 3064 3064 3092 3092 3092 3092 3064 3064 3064 3064 3064 3064 3064 3092 3092 3092 3092 3092 3092 3092 3092 3092 3092 3092 3092 3092 3092 3120 3120 3120 3120 3120 3120 3120 3092 3064 3064 3037 3037 3037 3037 3010 3010 3010 3010 3010 3010 3010 2143 2143 2143 2156 2156 2156 2156 2156 2156 2156 2156 2156 2156 2156 2156 2156 2156 2156 2156 2156 2156 2143 2143 2143 2143 2143 2143 2143 2143 2143 2143 2143 2143 2143 2116 2116 2103 2103 2103 2103 2103 2103 2103 2103 2103 2103 2103 2103 2103 2103 2103 2103 2103 2090 2090 2090 2090 2090 2090 2090 2090 2090 2078 2078 2078 2065 2065 2065 2065 2053 2053 2053 2053 2053 2053 2053 2053 2053 2040 2040 2040 2040 2028 2028 2040 2040 2040 2040 2040 0 0 0 0 0 0 7178 7178 7178 7178 7178 7332 7332 7332 7178 7178 7178 7178 7178 7178 7178 7178 7178 7178 5933 5933 5933 5933 5933 5933 6146 6375 6622 6753 6889 7030 7030 7030 7030 6889 6889 6753 6622 6146 5933 5933 5933 6038 6038 6146 6375 6497 6753 6753 6753 6889 6889 6889 6889 6753 6753 6753 6753 6753 6753 6753 6753 6753 6753 6753 6622 6622 6622 6622 6622 6622 6622 6622 6622 6497 6497 6375 6375 6259 6259 6259 6146 6146 6259 6375 6375 6375 6375 6375 6497 6497 6375 6259 5933 5933 5933 5832 5832 5832 5832 6375 6497 6622 6622 6622 6622 4241 4241 4295 4295 4295 4295 4241 4241 4241 4241 4190 4190 4190 4190 4139 4139 4089 4089 4041 4041 4041 4041 4041 4041 4041 4041 4041 4041 4041 3994 3994 3994 3903 3903 0 0 0 0 0 0 0 0 0 0 0 0 0 0 0 0 0 0 0 0 0 0 0 0 0 0 0
0 0 0 0 0 0 0 0 0 0 0 0 0 0 0 0 0 0 0 0 0 0 0 0 0 0 0 0 0 0 0 0 2984 2984 2984 3010 3010 3010 3010 3010 3010 3010 3037 3037 3037 3064 3064 3092 3092 3092 3092 3092 3120 3120 3120 3120 3149 3178 3178 3178 3178 3208 3208 3238 3576 3614 3614 3614 3576 3468 3365 3269 3208 3208 3208 3238 3269 3269 3300 3300 3300 3300 3300 3300 3300 3300 3300 3333 3333 3365 3365 3399 3399 3399 3433 3433 3433 3433 3468 3468 3468 3468 3468 3468 3503 3503 3503 3503 3539 3576 3576 3576 3614 3614 3614 3614 3614 3614 3653 3653 3653 3732 3732 3774 3816 0 0 0 0 0 0 0 0 0 0 0 0 0 0 0 0 0 5291 5291 5291 5291 5291 5291 5291 5291 5374 5374 5374 5374 5548 5548 5640 5640 5640 0 0 0 0 0 0 0 0 0 0 0 0 0 0 0 0 6038 6038 6038 6038 6038 6038 6038 6146 6146 0 0 5291 5291 5291 5291 5374 5460 5734 5640 5548 5548 5460 5460 5374 5374 5374 5460 5548 5640 5640 0 0 0 0 0 0 0 4983 4983 4983 4983 5056 5056 5056 5132 5132 5210 5374 5460 5640 5734 5734 5832 5933 6038 6038 6146 6259 6259 6259 6375 6375 6259 6259 6259 5291 5210 5210 5210 5291 5291 5291 5291 2349 2333 2333 2333 2333 2333 2349 2349 2349 2349 2349 2349 0 0 0 0 0 0 0 0 0 0 3238 3238 3238 3238 3238 3208 3208 3238 3208 3208 3178 3178 3178 3178 3178 3178 3178 3178 3178 3178 3178 3178 3178 3178 3178 3208 3208 3208 3238 3238 3238 3238 3238 3238 3238 3238 3238 3238 3269 3269 3269 3269 3269 2271 2271 2271 2271 2271 2271 2271 2286 2286 2301 2301 2301 2301 2317 3064 3064 3064 3064 3064 3064 3064 3064 3064 3064 3064 3064 3064 3064 3064 3092 3092 3092 3092 3092 3092 3092 3092 3092 3092 3092 3092 3092 3092 3092 3120 3120 3120 3120 3120 3120 3120 3092 3092 3064 3037 3010 3010 3010 3010 3010 3010 3010 3010 3010 3010 3010 2156 2156 2156 2156 2156 2156 2156 2156 2170 2156 2156 2156 2156 2156 2156 2156 2156 2156 2156 2156 2156 2156 2156 2156 2156 2143 2143 2143 2143 2143 2143 2143 2143 2143 2116 2116 2116 2103 2103 2103 2103 2103 2103 2103 2103 2103 2103 2103 2103 2103 2103 2103 2103 2090 2090 2090 2090 2090 2090 2090 2090 2090 2078 2078 2078 2065 2065 2065 2065 2053 2053 2053 2053 2053 2053 2053 2053 2053 2040 2040 2040 2040 2040 2040 2040 2040 2040 2053 2053 0 0 0 0 0 7178 7178 7178 7178 7178 7178 7332 7332 7332 7178 7178 7178 7178 7178 7178 7332 7178 7178 7178 5933 5933 5933 5933 5933 5933 6146 6375 6622 6889 6889 7030 7030 7030 7030 6889 6889 6753 6622 6259 5832 5832 5832 6038 6146 6375 6497 6497 6753 6889 6889 6889 6889 6889 6889 6889 6753 6753 6753 6753 6753 6753 6753 6753 6753 6753 6622 6622 6622 6622 6622 6622 6622 6622 6622 6497 6497 6375 6375 6259 6259 6146 6038 6038 6038 6038 6375 6375 6375 6375 6497 6497 6375 6259 5933 5933 5933 5933 5933 6259 6497 6497 6622 6622 6622 6622 4295 4295 4295 4295 4295 4295 4241 4241 4241 4241 4241 4190 4190 4190 4190 4190 4139 4089 4089 4041 4041 4041 4041 4041 4041 4041 4041 4041 4041 4041 3994 3994 3994 3903 3903 3903 3903 0 0 0 0 0 0 0 0 0 0 0 0 0 0 0 0 0 0 0 0 0 0 0 0 0
0 0 0 0 0 0 0 0 0 0 0 0 0 0 0 0 0 0 0 0 0 0 0 0 0 0 0 0 0 0 0 0 3010 2984 2984 3010 3010 3010 3010 3010 3010 3037 3037 3037 3037 3037 3064 3064 3064 3064 3092 3120 3120 3120 3120 3149 3149 3178 3178 3178 3178 3208 3238 3269 3576 3614 3614 3614 3614 3576 3539 3539 3208 3208 3208 3208 3238 3238 3269 3300 3300 3300 3300 1496 1496 1503 1503 1503 3333 3365 3365 3365 3399 3399 3433 3433 3433 3433 3468 3468 3468 3468 3468 3503 3503 3503 3503 3503 3539 3576 3576 3576 3614 3614 3614 3614 3614 3614 3653 3653 3692 3732 3732 3774 3816 0 0 0 0 0 0 0 0 0 0 0 0 0 0 0 0 5374 5291 5291 5291 5291 5291 5291 5291 5291 5374 5374 5374 5374 5460 5548 5548 5548 5640 0 0 0 0 0 0 0 0 0 0 0 0 0 0 0 0 6038 6038 6038 6038 6038 6038 6038 6146 6146 0 0 5374 5374 5374 5374 5374 5548 5460 5460 5460 5460 5374 5374 5374 5374 5374 5460 5548 5640 5640 0 0 0 0 0 0 0 4983 4983 4983 4983 5056 5056 5056 5056 5056 5056 5374 5460 5640 5734 5734 5832 5933 6038 6038 6146 6146 6259 6259 6259 6375 6259 6259 6259 5210 5210 5210 5210 5291 5291 5291 5291 0 2349 2349 2333 2333 2333 2349 2349 2349 2349 2349 2349 2349 0 0 0 2349 2349 0 2349 2349 2349 3269 3238 3238 3238 3238 3238 3238 3238 3208 3208 3178 3178 3178 3178 3178 3178 3178 3178 3178 3178 3178 3178 3178 3208 3208 3208 3208 3208 3238 3238 3238 3238 3238 3238 3238 3238 3238 3238 3269 3269 3269 3269 3300 2271 2271 2271 2271 2271 2271 2271 2286 2286 2301 2301 2301 2301 2317 3092 3064 3064 3064 3064 3064 3064 3064 3064 3064 3064 3064 3064 3064 3092 3092 3092 3092 3092 3092 3092 3092 3092 3092 3092 3092 3092 3092 3092 3092 3120 3120 3120 3120 3120 3120 3120 3092 3092 3064 3037 3010 3010 3010 3010 3010 3010 3010 3010 3010 3010 3010 2156 2156 2156 2156 2156 2156 2156 2156 2170 2156 2156 2156 2156 2156 2156 2156 2156 2156 2156 2156 2156 2156 2156 2156 2156 2143 2143 2143 2143 2143 2143 2143 2143 2143 2129 2116 2116 2116 2116 2116 2103 2103 2103 2103 2103 2103 2103 2103 2103 2103 2103 2103 2103 2103 2090 2090 2090 2090 2090 2090 2090 2090 2078 2078 2078 2065 2065 2065 2065 2053 2053 2053 2053 2053 2053 2053 2053 2053 2040 2040 2040 2040 2040 2040 2040 2040 2040 2040 2053 0 0 0 0 0 7178 7178 7178 7178 7178 7332 7332 7332 7332 7332 7332 7178 7178 7178 7178 7332 7178 7178 7178 5933 5933 5933 5933 5933 6038 6146 6259 6622 6889 6889 7030 6889 6889 6889 6889 6753 6622 6497 6375 5832 5832 5832 6038 6146 6375 6497 6622 6753 6889 6889 6889 6889 6889 6889 6889 6753 6753 6753 6753 6753 6622 6622 6622 6622 6622 6622 6622 6622 6622 6622 6622 6622 6622 6622 6497 6497 6375 6375 6259 6146 6146 6038 6038 5933 5933 6259 6375 6375 6375 6497 6497 6375 6146 5933 5933 6038 6146 6146 6259 6375 6497 6622 6622 6622 6622 4295 4295 4295 4295 4295 4295 4241 4241 4241 4241 4241 4190 4190 4190 4190 4190 4139 4139 4089 4089 4041 4041 4041 4041 4041 4041 4041 4041 4041 4041 3994 3994 3994 3948 3948 3903 3903 0 0 0 0 0 0 0 0 0 0 0 0 0 0 0 0 0 0 0 0 0 0 0 0 0
0 0 0 0 0 0 0 0 0 0 0 0 0 0 0 0 0 0 0 0 0 0 0 0 0 0 0 0 0 0 0 0 3010 3010 3010 3010 3010 3010 3010 3010 3037 3037 3037 3037 3037 3037 3064 3064 3064 3064 3092 3120 3120 3120 3149 3149 3149 3178 3178 3178 3178 3208 3238 3365 3539 3614 3614 3614 3614 3576 3576 3539 3539 3208 3208 3208 3238 1483 1483 1483 1483 1483 1483 1483 1489 1489 1496 1503 1503 1509 3365 3365 3399 3399 3433 3433 3433 3468 3468 3468 3468 3468 3468 3468 3503 3468 3468 3468 3503 3503 3539 3576 3576 3614 3614 3614 3614 3614 3614 3653 3692 3732 3732 3774 3816 0 0 0 0 0 0 0 0 0 0 0 0 0 0 0 5374 5374 5374 5291 5291 5291 5291 5291 5291 5291 5374 5460 5374 5374 5460 5548 5548 5548 5640 0 0 0 0 0 0 0 0 0 0 0 0 0 0 0 0 6038 6038 6038 6038 6038 6038 6038 6146 6146 6038 5832 5734 5374 5374 5374 5374 5548 5460 5374 5374 5460 5374 5374 5374 5374 5374 5460 5548 5640 0 0 0 0 0 0 0 0 4911 4911 4983 4983 5056 5056 5056 5056 5056 5056 5132 5210 5640 5734 5734 5832 5933 6038 6038 6146 6146 6259 6259 6259 6375 6375 6375 5374 5374 5291 5291 5291 5291 5291 5291 5291 0 2349 2349 2333 2333 2333 2349 2349 2349 2349 2349 2349 2349 2349 2333 2333 2333 2349 2349 2349 2349 2333 2317 2317 2317 2317 2317 3208 3208 3208 3208 3208 3178 3178 3178 3178 3178 3178 3178 3178 3178 3208 3178 3178 3208 3208 3208 3208 3238 3238 3238 3238 3238 3238 3238 3238 3238 3238 3238 3269 3269 3269 3269 3300 3300 3300 2271 2271 2271 2271 2271 2286 2286 2286 2286 2286 2301 2301 2317 3092 3092 3064 3064 3064 3064 3064 3064 3064 3064 3064 3092 3092 3092 3092 3092 3092 3092 3092 3092 3092 3092 3092 3092 3092 3092 3092 3092 3092 3120 3120 3120 3120 3120 3120 3120 3120 3120 3092 3092 3037 3010 3010 3010 3010 3010 2984 2984 2984 2984 2984 2984 2156 2156 2156 2156 2156 2156 2156 2156 2170 2170 2170 2156 2156 2156 2156 2156 2156 2156 2156 2156 2156 2156 2156 2156 2156 2143 2143 2143 2143 2156 2143 2143 2143 2143 2116 2116 2116 2116 2116 2103 2103 2103 2103 2103 2103 2103 2103 2103 2103 2103 2103 2103 2103 2103 2090 2090 2090 2090 2090 2090 2090 2090 2078 2078 2078 2065 2065 2065 2065 2065 2053 2053 2053 2053 2053 2053 2053 2040 2040 2040 2040 2040 2040 2040 2040 2040 2040 2040 0 0 0 0 0 0 7178 7178 7178 7178 7332 7332 7332 7332 7332 7332 7332 7332 7332 7332 7332 7332 7178 7178 7178 5933 5933 6038 6038 6038 6038 6146 6259 6497 6753 6889 7030 6889 6889 6889 6889 6753 6622 6497 6497 6038 5933 5933 6038 6259 6497 6622 6622 6753 6889 6889 6889 6889 6889 6889 6889 6753 6753 6753 6753 6753 6622 6622 6622 6622 6622 6622 6622 6622 6622 6622 6622 6622 6622 6622 6497 6497 6375 6375 6259 6146 6038 5832 5832 5832 5832 6038 6259 6375 6375 6497 6497 6375 6146 6038 6038 6038 6146 6146 6146 6259 6375 6622 6622 6622 6622 6753 4295 4295 4295 4295 4295 4295 4241 4241 4241 4241 4190 4190 4190 4139 4139 4139 4139 4089 4041 4041 4041 4041 3994 3994 3994 3994 3994 3994 3994 3948 3903 3903 3903 3948 3903 3903 0 0 0 0 0 0 0 0 0 0 0 0 0 0 0 0 0 0 0 0 0 0 0 0 0
0 0 0 0 0 0 0 0 0 0 0 0 0 0 0 0 0 0 0 0 0 0 0 0 0 0 0 0 0 0 0 0 3010 3010 3010 3010 3010 3010 3010 3010 3010 3010 3010 3037 3037 3037 3064 3064 3064 3064 3092 3120 3120 3120 3149 3149 3149 3178 3178 3178 3178 3208 3269 3365 3539 3614 3614 3614 3614 3614 3576 3576 3576 3208 3208 3208 3208 1483 1483 1483 1483 1483 1483 1483 1489 1489 1496 1503 1503 1503 1496 1496 3399 3433 3433 3433 3433 3433 3468 3468 3468 3468 3468 3468 3503 3468 3468 3468 3503 3503 3539 3576 3576 3614 3614 3614 3614 3614 3614 3653 3692 3692 3732 3732 3774 3774 3774 0 0 0 0 0 0 0 0 0 0 0 0 0 5374 5374 5374 5291 5291 5291 5291 5291 5374 5374 5374 5460 5374 5374 5460 5460 5548 5548 5640 5734 0 0 0 0 0 0 0 0 0 0 0 0 0 0 5933 5933 6038 6038 6038 6038 6038 6038 6146 6146 6038 5832 5734 5640 5460 5460 5460 5460 5374 5374 5374 5374 5374 5374 5374 5374 5374 5460 5548 5640 0 0 0 0 0 0 0 4911 4911 4911 4983 4983 5056 5056 5056 5056 5056 5056 5132 5132 5132 5640 5734 5933 6038 6038 6038 6146 6146 6146 6146 6259 6375 6146 6038 6038 5374 5374 5291 5291 5291 5291 5291 2365 2349 2349 2349 2349 2333 2333 2349 2349 2349 2349 2349 2349 2349 2349 2333 2333 2333 2349 2349 2349 2349 2333 2317 2317 2317 2317 2301 2301 2301 3178 3178 3178 3178 3178 3178 3178 3178 3178 3178 3208 3208 3208 3178 3178 3178 3208 3208 3208 3238 3238 3238 3238 3238 3238 3238 3238 3238 3238 3238 3269 3269 3269 3269 3300 3300 2271 2271 2271 2271 2271 2271 2286 2286 2286 2286 2286 2301 2317 2317 3092 3092 3092 3092 3092 3064 3064 3064 3064 3092 3092 3092 3092 3092 3092 3092 3092 3092 3092 3092 3092 3092 3092 3092 3092 3092 3120 3120 3120 3120 3120 3120 3120 3120 3120 3120 3120 3092 3064 3064 3037 3010 3010 3010 3010 3010 2984 2984 2984 2984 2984 2984 2984 2156 2156 2156 2156 2156 2156 2156 2170 2170 2170 2156 2156 2156 2156 2156 2156 2156 2156 2156 2156 2156 2156 2156 2156 2156 2156 2143 2143 2156 2156 2143 2143 2143 2116 2116 2116 2116 2116 2103 2103 2103 2103 2103 2103 2103 2103 2103 2103 2103 2103 2103 2090 2090 2090 2090 2090 2090 2090 2090 2090 2090 2078 2078 2078 2065 2065 2065 2065 2065 2065 2053 2053 2053 2053 2053 2053 2040 2040 2040 2040 2040 2040 2040 2040 2040 2040 2053 0 0 0 0 0 0 7178 7178 7178 7178 7178 7332 7178 7178 7178 7178 7178 7178 7178 7178 7178 7178 7178 7178 7178 6497 5933 5832 5832 5933 6038 6038 6146 6497 6753 6889 7030 6889 6889 6889 6753 6753 6622 6497 6497 6146 6146 6146 6146 6259 6497 6622 6622 6753 6889 6889 6889 6889 6889 6889 6889 6753 6753 6753 6753 6753 6622 6622 6622 6622 6622 6622 6622 6622 6753 6622 6622 6753 6622 6497 6497 6497 6375 6375 6146 6038 5734 5734 5734 5734 5734 5832 5832 6497 6497 6497 6497 6375 6146 6038 6038 6038 6146 6146 6146 6259 6375 6497 6622 6622 6753 6753 4295 4295 4295 4295 4295 4295 4241 4241 4241 4241 4190 4190 4190 4139 4139 4139 4089 4089 4041 4041 3994 3994 3994 3994 3994 3994 3994 3994 3994 3948 3903 3903 3903 3903 3903 3903 3903 0 0 0 0 0 0 0 0 0 0 0 0 0 0 0 0 0 0 0 0 0 0 0 0
0 0 0 0 0 0 0 0 0 0 0 0 0 0 0 0 0 0 0 0 0 0 0 0 0 0 0 0 0 0 0 0 3010 3010 3010 3010 3010 3010 3010 3010 3010 3010 3010 3037 3037 3064 3064 3092 3092 3092 3120 3120 3120 3120 3149 3149 3149 3178 3178 3178 3178 3238 3238 3365 3503 3576 3576 3614 3614 3614 3576 3576 3576 1477 1464 1464 1464 1470 1483 1483 1483 1483 1483 1483 1489 1489 1489 1496 1503 1503 1496 1496 3399 3399 3433 3433 3433 3433 3433 3433 3468 3433 3433 3468 3503 3468 3468 3503 3503 3503 3576 3576 3576 3576 3614 3614 3614 3653 3653 3653 3692 3692 3732 3732 3732 3774 3774 0 0 0 0 0 0 0 0 0 0 0 0 0 0 5374 5374 5291 5291 5291 5291 5291 5291 5374 5374 5374 5374 5374 5374 5460 5460 5460 5640 5734 0 0 0 0 0 0 0 0 0 0 0 0 0 0 5933 5933 6038 6038 6038 6038 6038 6038 6038 6146 6038 5734 5640 5548 5460 5374 5374 5374 5374 5374 5374 5374 5374 5374 5374 5374 5374 5548 5640 5734 0 0 0 0 0 0 0 4911 4911 4983 4983 4983 4983 4983 5056 5056 5056 5056 5056 5132 5132 5640 5734 5933 6038 6146 6146 6146 6146 6146 6146 6146 6259 6038 6038 6038 5374 5374 5374 5291 5291 5291 0 2365 2365 2349 2349 2349 2333 2333 2349 2349 2349 2349 2349 2349 2349 2349 2333 2333 2349 2349 2349 2349 2349 2333 2317 2317 2317 2317 2301 2301 2301 2317 2317 2333 2349 3178 3178 3178 3178 3208 3208 3208 3208 3208 3178 3178 2301 2301 2301 2301 3238 3238 3238 3238 3238 3238 3238 3238 3238 3238 3269 3269 3269 3269 3269 3269 3269 2271 2271 2271 2271 2271 2271 2286 2286 2286 2286 2286 2301 2301 2317 3092 3092 3092 3092 3092 3092 3064 3064 3064 3092 3092 3092 3092 3092 3092 3092 3092 3092 3092 3092 3092 3092 3092 3092 3092 3092 3120 3120 3120 3120 3120 3120 3120 3120 3120 3120 3120 3092 3064 3064 3037 3010 3010 3010 3010 3010 2984 2984 2984 2984 2958 2958 2958 2156 2156 2156 2156 2156 2156 2156 2170 2170 2170 2156 2156 2156 2156 2156 2156 2156 2958 2984 2984 2984 2958 2958 2958 2958 2156 2143 2143 2156 2156 2143 2143 2129 2116 2116 2116 2116 2116 2116 2103 2103 2103 2103 2103 2103 2103 2103 2103 2103 2103 2103 2090 2090 2090 2090 2090 2090 2090 2090 2078 2078 2090 2090 2078 2078 2078 2065 2065 2065 2053 2053 2053 2053 2053 2053 2053 2053 2053 2040 2040 2040 2040 2040 2040 2040 2040 2040 2053 0 0 0 0 0 6889 6889 7030 7030 7178 7030 7030 7030 7030 7030 7178 7178 7178 7178 7178 7178 7178 7178 6622 6259 5933 5832 5832 5933 5933 5933 6038 6497 6753 6889 6889 6889 6889 6753 6753 6622 6622 6622 6146 6146 6038 6038 6038 6146 6497 6497 6622 6622 6753 6889 6889 6753 6753 6753 6753 6753 6753 6753 6753 6753 6622 6622 6622 6622 6622 6622 6622 6622 6622 6622 6622 6622 6622 6497 6497 6497 6497 6375 6038 5832 5734 5734 5734 5734 5734 5832 5832 6497 6497 6622 6622 6497 6146 6038 6038 6146 6146 6146 6146 6259 6375 6497 6622 6622 6753 6889 4295 4295 4295 4349 4349 4295 4241 4241 4241 4241 4190 4190 4190 4139 4139 4139 4089 4089 4041 4041 3994 3994 3994 3994 3994 3994 3994 3994 3994 3948 3948 3903 3903 3903 3903 3903 3903 0 0 0 0 0 0 0 0 0 0 0 0 0 0 0 0 0 0 0 0 0 0 0 0
0 0 0 0 0 0 0 0 0 0 0 0 0 0 0 0 0 0 0 0 0 0 0 0 0 0 0 0 0 0 0 0 2984 2984 2984 2984 3010 3010 3010 3010 3010 3010 3037 3064 3064 3064 3064 3092 3092 3092 3120 3120 3120 3120 3149 3149 3149 3178 3178 3178 3178 3238 3238 3433 3503 3539 3576 3576 3576 3576 3399 1477 1477 1477 1458 1458 1464 1470 1483 1483 1483 1483 1483 1483 1483 1489 1489 1489 1496 1496 1496 1489 1483 1483 3433 3433 1477 1477 3433 3433 3468 3433 3433 3468 3503 3503 3503 3539 3539 3576 3576 3576 3576 3576 3614 3614 3614 3653 3653 3692 3692 3692 3732 3732 3732 3732 3732 0 0 0 0 0 0 0 0 0 0 0 0 0 0 5374 5291 5291 5291 5291 5291 5291 5291 5374 5374 5374 5374 5374 5374 5374 5460 5460 5640 5734 5734 0 0 0 0 0 0 0 0 0 0 0 0 0 0 6038 6038 6038 6038 6038 6038 6038 6038 6038 5933 5734 5640 5548 5460 5374 5374 5374 5374 5374 5291 5291 5374 5374 5374 5374 5374 5548 5640 5832 0 0 0 0 0 0 0 4911 4911 4983 4983 4983 4983 4983 5056 5056 5056 5056 5056 5056 5056 5640 5832 5933 6038 6146 6146 6146 6146 6146 6146 6146 6259 6038 6038 6038 6038 6038 5548 5548 5548 0 0 2349 2349 2349 2349 2349 2349 2349 2349 2349 2349 2349 2349 2349 2349 2333 2333 2333 2349 2349 2349 2349 2349 2333 2317 2317 2317 2317 2301 2301 2301 2301 2317 2333 2349 2333 2333 2349 2333 2333 2333 3208 3208 3208 2317 2301 2301 2301 2301 2301 2301 2301 2286 2286 2301 3238 3238 3238 3238 3238 3269 3269 3269 3269 3269 3269 2256 2256 2271 2271 2271 2271 2271 2286 2286 2286 2286 2286 2301 2301 2317 3092 3092 3092 3092 3092 3092 3092 3064 3064 3092 3092 3092 3092 3092 3092 3092 3092 3092 3092 3092 3092 3092 3092 3092 3092 3120 3120 3120 3120 3120 3120 3120 3120 3120 3120 3120 3120 3092 3064 3064 3037 3010 3010 3010 3010 2984 2984 2984 2984 2984 2958 2958 2958 2170 2156 2156 2170 2170 2170 2170 2170 2170 2170 2170 2170 2156 2156 2958 2958 2984 2984 2984 2984 2984 2958 2958 2958 2958 2958 2958 2958 2156 2156 2156 2156 2129 2116 2116 2116 2116 2116 2116 2116 2116 2103 2103 2103 2103 2103 2103 2103 2103 2103 2103 2103 2090 2090 2090 2090 2078 2078 2078 2078 2078 2078 2090 2090 2078 2078 2078 2065 2053 2053 2053 2040 2040 2040 2053 2053 2040 2040 2040 2040 2040 2040 2040 2040 2040 2040 2040 2053 0 0 0 0 0 6753 6753 6889 6889 7030 7030 7030 7030 7030 7030 7030 7030 6889 6889 7178 7178 6753 6622 6497 6146 5933 5933 5933 5933 5933 5933 6038 6375 6753 6889 6889 6889 6889 6753 6753 6622 6622 6146 6146 6146 6038 6038 6038 6146 6146 6497 6497 6622 6753 6753 6753 6753 6753 6753 6753 6753 6753 6753 6753 6753 6622 6622 6622 6622 6622 6622 6622 6622 6622 6622 6622 6622 6622 6497 6497 6497 6497 6375 5832 5832 5734 5734 5734 5734 5734 5832 6375 6497 6497 6622 6622 6497 6146 6038 6038 6146 6146 6146 6146 6259 6497 6622 6622 6622 6622 6889 4295 4295 4349 4349 4349 4295 4295 4295 4241 4241 4190 4190 4190 4190 4139 4139 4139 4089 4089 4041 4041 3994 3994 3994 3994 3994 3994 3994 3948 3948 3948 3903 3903 3948 3903 3903 3903 3903 0 0 0 0 0 0 0 0 0 0 0 0 0 0 0 0 0 0 0 0 0 0 0
0 0 0 0 0 0 0 0 0 0 0 0 0 0 0 0 0 0 0 0 0 0 0 0 0 0 0 0 0 0 0 0 2984 2984 2984 2984 2984 2984 2984 3010 3010 3010 3010 3037 3064 3064 3064 3092 3092 3120 3120 3120 3120 3120 3149 3149 3178 3178 3178 3208 3208 3238 3269 3433 3468 3503 3503 3503 3503 3399 3399 0 1477 1477 1458 1458 1470 1477 1483 1483 1483 1483 1483 1483 1483 1489 1489 1489 1496 1496 1489 1489 1483 1483 1483 1477 1477 1477 1477 3433 3433 3433 3468 3468 3468 3503 3503 3503 3539 3539 3576 3576 3576 3576 3576 3576 3614 3653 3692 3692 3692 3692 3732 3732 3732 3692 3692 3732 0 0 0 0 0 0 0 0 0 0 0 0 0 5291 5291 5291 5291 5291 5291 5291 5291 5374 5374 5374 5374 5374 5374 5374 5460 5460 5640 5734 5734 5933 6146 6259 0 0 0 0 0 0 0 0 0 0 0 0 6038 6038 5933 5933 5933 5933 5933 5933 5832 5734 5640 5548 5460 5374 5374 5374 5374 5374 5291 5291 5374 5374 5374 5374 5374 5460 5548 5734 6375 6375 6375 0 0 0 0 4911 4842 4842 4911 4983 4983 4983 4983 5056 5056 5056 5056 5056 5056 5933 5933 5933 6038 6146 6146 6146 6146 6146 6146 6259 6259 6038 6038 6038 5734 5640 5548 5548 5548 5291 0 2365 2349 2349 2349 2349 2333 2333 2349 2349 2349 2349 2349 2349 2349 2333 2333 2333 2349 2349 2349 2349 2349 2333 2333 2317 2317 2317 2301 2301 2301 2301 2317 2333 2333 2317 2317 2333 2333 2333 2333 3208 3208 3208 2317 2301 2301 2301 2301 2301 2301 2301 2286 2286 2301 2301 2301 3208 3208 3238 3238 3238 3238 3238 3269 3269 2256 2256 2271 2271 2271 2271 2271 2286 2286 2286 2286 2286 2286 2301 2317 3092 3092 3064 3064 3092 3092 3064 3064 3092 3092 3092 3092 3092 3092 3092 3092 3092 3092 3092 3092 3092 3092 3092 3092 3120 3120 3120 3120 3120 3120 3149 3149 3149 3149 3149 3120 3120 3092 3064 3037 3010 3010 3010 3010 3010 2984 2984 2984 3010 2984 2984 2984 2984 2170 2156 2156 2170 2170 2170 2170 2170 2170 2170 2170 2170 2170 2958 2958 2958 2984 2984 2984 2984 2984 2958 2958 2984 2984 2958 2958 2958 2984 2984 2984 2958 2129 2129 2129 2129 2143 2143 2129 2129 3468 3503 3503 3503 3576 3576 2103 2103 2103 2103 2103 2103 2103 2090 2090 2090 2078 2078 2078 2078 2078 2078 2090 2090 2078 2078 2078 2065 2053 2053 2040 2040 2040 2040 2040 2053 2040 2040 2040 2040 2040 2040 2040 2040 2040 2040 2053 0 0 0 0 0 6753 6753 6753 6889 6889 6889 7030 7030 7030 7030 7030 7030 6889 6889 6889 6889 6753 6622 6497 6259 6146 6038 5933 5933 5933 5933 6038 6146 6375 6622 6753 6889 6889 6889 6622 6622 6497 6497 6146 6038 6038 6038 6038 6038 6146 6146 6259 6497 6622 6753 6753 6753 6753 6753 6753 6753 6753 6753 6753 6622 6622 6622 6622 6622 6622 6622 6622 6622 6622 6622 6622 6622 6622 6622 6497 6497 6497 6497 6375 5832 5832 5832 5734 5734 5734 5734 5832 6497 6497 6497 6622 6622 6497 6146 6038 6038 6146 6146 6146 6146 6375 6497 6622 6622 6622 6622 6622 4349 4349 4349 4349 4349 4295 4295 4295 4241 4241 4190 4190 4190 4139 4139 4139 4089 4089 4089 4041 4041 4041 3994 3994 3994 3994 3994 3994 3948 3948 3903 3903 3903 3903 3903 3903 3903 3903 3903 0 0 0 0 0 0 0 0 0 0 0 0 0 0 0 0 0 0 0 0 0 0
0 0 0 0 0 0 0 0 0 0 0 0 0 0 0 0 0 0 0 0 0 0 0 0 0 0 0 0 0 0 0 0 2984 2984 2984 2984 2984 2984 2984 3010 3010 3010 3010 3037 3064 3092 3092 3092 3092 3092 3120 3120 3120 3120 3120 3149 3178 3178 3178 3208 3208 3238 3269 3365 3468 3468 3503 3503 3399 3399 3399 0 0 1477 1464 1464 1470 1477 1483 1483 1483 1483 1483 1483 1483 1483 1489 1489 1489 1496 1489 1483 1483 1483 1483 1477 1477 1477 1477 1477 1470 1470 3433 3433 3468 3468 3468 3503 3503 3503 3576 3576 3614 3576 3576 1452 1452 1452 1452 1452 1452 1458 3732 3732 3732 3692 3692 3732 3732 3774 0 0 0 0 0 0 1427 1427 1427 0 0 5291 5291 5291 5291 5291 5291 5291 5291 5374 5374 5374 5374 5374 5374 5460 5460 5460 5734 5734 5832 5832 6146 6259 0 0 0 0 0 0 0 0 0 0 0 5734 6038 6038 5933 5832 5832 5832 5832 5832 5734 5734 5640 5460 5460 5374 5374 5374 5374 5374 5291 5291 5374 5374 5374 5374 5374 5460 5548 5734 5734 6038 6259 6259 0 0 0 0 4842 4842 4911 4983 4983 4983 4983 5056 5056 5056 5056 5056 5056 5734 5933 5933 6038 6146 6146 6146 6146 6146 6146 6259 6259 6038 6038 6038 5734 5640 5291 5291 5291 0 0 2365 2349 2349 2349 2349 2333 2333 2349 2349 2349 2349 2349 2349 2349 2333 2333 2333 2349 2349 2349 2349 2349 2333 2333 2333 2333 2333 2317 2317 2317 2317 2333 2333 2333 2317 2317 2333 2333 2333 2333 3238 2317 2317 2317 2317 2301 2301 2301 2301 2301 2301 2301 2301 2301 2301 2301 2317 3208 3208 3238 3238 3238 3238 3238 2271 2271 2271 2271 2271 2271 2271 2271 2286 2286 2286 2286 2286 2286 2317 2317 3092 3092 3064 3064 3092 3092 3064 3064 3092 3092 3092 3092 3092 3092 3092 3092 3092 3092 3092 3092 3092 3092 3092 3092 3120 3120 3120 3120 3149 3149 3149 3149 3149 3149 3149 3120 3120 3092 3064 3037 3010 3010 3010 3010 3010 3010 2984 2984 3010 3010 3010 3010 3010 2156 2156 2156 2156 2156 2170 2170 2170 2170 2170 2184 2184 2933 2933 2958 2958 2984 2984 2984 2984 2984 2984 2984 2984 2984 2984 2984 2984 2984 2984 2984 2958 2958 2958 2958 2958 2958 2156 2156 3468 3468 3503 3503 3539 3576 3576 3576 3614 3614 3692 3732 2103 2103 2090 2090 2090 2090 2090 2090 2090 2090 2090 2090 2090 2078 2078 2078 2065 2053 2053 2040 2040 2040 2040 2040 2053 2040 2040 2040 2040 2040 2040 2040 2028 2028 2040 2053 0 0 0 0 6753 6753 6753 6753 6753 6753 6889 6889 6889 6889 6889 7030 6889 6889 6753 6753 6753 6753 6622 6497 6259 6146 6038 6038 5933 5933 6038 6038 6259 6497 6622 6753 6753 6889 6889 6622 6497 6375 6259 6146 6038 6038 6038 6038 6038 6146 6146 6259 6497 6753 6753 6753 6753 6753 6753 6753 6753 6753 6753 6753 6622 6622 6622 6622 6622 6622 6622 6622 6622 6622 6622 6622 6622 6622 6497 6497 6497 6497 6497 6375 5933 5832 5832 5734 5734 5832 5832 5832 6497 6497 6497 6622 6622 6497 6146 6146 6146 6146 6146 6146 6146 6375 6497 6497 6622 6622 6622 6622 4349 4349 4349 4349 4295 4295 4295 4295 4241 4241 4190 4190 4190 4139 4139 4139 4089 4089 4089 4041 4041 4041 4041 3994 3994 3994 3994 3994 3948 3948 3903 3903 3903 3903 3903 3859 3859 3903 3903 0 0 0 0 0 0 0 0 0 0 0 0 0 0 0 0 0 0 0 0 0 0
0 0 0 0 0 0 0 0 0 0 0 0 0 0 0 0 0 0 0 0 0 0 0 0 0 0 0 0 0 0 0 0 2984 2984 2984 2984 2984 2984 2984 3010 3010 3010 3037 3064 3064 3092 3092 3092 3092 3092 3120 3120 3120 3120 3120 3149 3178 3178 3178 3208 3208 3238 3238 3333 3365 3399 3433 3433 3365 3365 3365 0 1470 1470 1470 1470 1477 1483 1483 1483 1483 1483 1483 1483 1483 1483 1489 1489 1489 1489 1489 1483 1483 1477 1477 1477 1477 1477 1477 1477 1470 1470 1477 1477 3433 3468 3468 3503 3503 3503 3503 1452 1452 1452 1445 1445 1452 1452 1452 1452 1452 1452 1452 1452 1452 3692 3692 3732 3732 3774 0 0 0 0 0 1427 1427 1427 1427 1427 1415 5291 5291 5291 5291 5291 5291 5291 5291 5374 5374 5374 5374 5374 5374 5460 5548 5548 5734 5734 5832 5832 0 0 0 0 0 0 0 0 0 0 1404 1404 1404 5734 5734 5832 5832 5832 5832 5832 5832 5734 5734 5734 5460 5460 5460 5374 5374 5374 5374 5374 5374 5374 5374 5374 5374 5460 5460 5548 5640 5640 5640 5734 5734 6259 0 0 0 0 4842 4842 4911 4983 4983 4983 4983 5056 5056 5056 5056 5132 5132 5734 5933 5933 6038 6038 6146 6146 6146 6146 6146 6146 6259 6038 6038 6038 5933 5832 5291 5291 5291 0 5291 2333 2333 2333 2333 2333 2333 2349 2349 2349 2349 2349 2349 2349 2349 2333 2333 2333 2333 2349 2349 2349 2349 2333 2333 2333 2333 2333 2333 2333 2333 2333 2333 2333 2333 2317 2317 2317 2317 2317 2317 2317 2317 2317 2317 2317 2301 2301 2301 2301 2301 2301 2301 2301 2301 2301 2301 2317 2317 2317 3238 3238 3238 2286 2286 2271 2271 2271 2271 2271 2271 2271 2286 2286 2286 2286 2286 2286 2301 2333 3092 3092 3092 3092 3092 3092 3092 3092 3092 3092 3092 3092 3092 3092 3092 3092 3092 3092 3092 3092 3092 3092 3092 3092 3092 3120 3120 3120 3120 3120 3149 3149 3149 3149 3149 3149 3120 3120 3092 3064 3037 3010 3010 3010 3010 3010 3010 2984 2984 3010 3010 3010 3010 3010 2156 2156 2156 2156 2156 2170 2170 2170 2170 2170 2184 2212 2933 2933 2958 2958 2984 2984 2984 2984 2984 2984 2984 2984 2984 2984 2984 2984 2984 2984 2984 2984 2984 2984 2984 2984 2984 3468 3468 3468 3468 3503 3503 3539 3576 3576 3614 3653 3653 3692 3732 3732 3774 3774 3816 2103 2090 2090 2090 2090 2090 2090 2090 2090 2078 2078 2078 4522 2053 2053 2040 2040 2040 2040 2040 2040 2040 2040 2040 2040 2040 2040 2040 2028 2028 2040 2053 0 0 0 0 6753 6753 6753 6753 6753 6753 6753 6753 6889 6889 6889 6889 6889 6753 6753 6753 6753 6622 6622 6497 6259 6146 6146 6038 6038 6038 6038 6146 6259 6497 6497 6622 6622 6622 6622 6622 6497 6259 6146 6146 6146 6146 6038 6038 6146 6146 6259 6259 6497 6753 6753 6753 6753 6753 6753 6753 6753 6753 6753 6753 6753 6753 6622 6622 6622 6622 6622 6622 6622 6622 6622 6622 6622 6497 6497 6375 6375 6375 6375 6259 5832 5832 5832 5734 5734 5832 5832 5832 6497 6497 6497 6622 6622 6497 6497 6497 6497 6375 6375 6375 6375 6497 6497 6497 6622 6622 6622 6622 4405 4405 4295 4295 4295 4295 4295 4295 4241 4241 4190 4190 4190 4190 4139 4089 4089 4089 4089 4041 4041 4041 4041 4041 3994 3994 3994 3994 3948 3948 3903 3903 3903 3903 3859 3859 3859 3859 3859 0 0 0 0 0 0 0 0 0 0 0 0 0 0 0 0 0 0 0 0 0 0
0 0 0 0 0 0 0 0 0 0 0 0 0 0 0 0 0 0 0 0 0 0 0 0 0 0 0 0 0 0 0 0 2984 2984 2984 2984 2984 2984 2984 3010 3010 3037 3037 3064 3092 3092 3092 3092 3092 3120 3120 3120 3120 3120 3120 3149 3178 3178 3178 3208 3208 3238 3238 3300 3333 3333 3365 3365 3333 3333 0 0 0 0 1470 1470 1477 1483 1483 1483 1483 1483 1483 1483 1483 1483 1489 1489 1489 1489 1489 1483 1483 1477 1477 1470 1470 1470 1470 1470 1470 1470 1470 1477 1477 3468 3468 3503 3503 1452 1452 1452 1452 1452 1445 1445 1452 1452 1452 1452 1452 1452 1452 1452 1452 1452 1439 1439 1439 1433 1433 1427 1427 1427 1427 1427 1427 1427 1421 1415 1415 5210 5210 1421 1421 5291 5291 5291 5291 5291 5291 5374 5374 5374 5374 5460 5548 5548 5832 0 0 0 0 0 0 0 0 0 0 0 1404 1404 1404 1404 1404 1404 5734 5832 5734 5734 5832 5832 5832 5734 5734 5734 5460 5460 5460 5374 5374 5374 5374 5374 5374 5374 5374 5374 5460 5460 5548 5548 5548 5640 5640 5640 5734 0 0 0 0 0 4911 4911 4911 4983 4983 4983 4983 5056 5056 5056 5056 5132 5132 5640 5640 5933 6038 6038 6146 6146 6146 6146 6146 6146 6259 6038 6038 6038 6038 6038 2226 2226 2226 2226 0 2317 2317 2317 2333 2333 2333 2333 2349 2349 2349 2349 2349 2349 2349 2333 2333 2333 2333 2349 2349 2349 2349 2333 2333 2333 2333 2349 2333 2333 2333 2333 2333 2317 2317 2317 2317 2317 2317 2317 2317 2301 2301 2317 2317 2301 2301 2301 2301 2301 2301 2301 2301 2301 2301 2301 2301 2301 2301 2317 2301 2301 2286 2286 2286 2271 2271 2271 2271 2271 2271 2271 2271 2271 2271 2271 2286 2301 3120 3092 3092 3092 3092 3092 3092 3092 3092 3092 3092 3092 3092 3092 3092 3092 3092 3092 3092 3092 3092 3092 3092 3092 3092 3092 3092 3120 3120 3120 3120 3120 3149 3149 3149 3149 3149 3149 3120 3092 3064 3037 3037 3010 3010 3010 3010 3010 3010 2984 2984 3010 3010 3010 3010 3010 2156 2156 2156 2156 2170 2170 2170 2170 2170 2170 2198 2212 2933 2958 2958 2958 2984 2984 2984 2984 2984 2984 2984 2984 2984 2984 2984 2984 2984 2984 2984 2984 2984 2984 2984 2984 2984 3468 3468 3468 3468 3503 3503 3539 3576 3576 3614 3653 3653 3692 3732 3732 3774 3774 3816 3816 4582 4582 4582 4582 2090 2090 2090 2090 2090 4522 4522 4522 4522 4522 2040 2040 2040 2040 2040 2040 2040 2040 2040 2040 2040 2040 2040 2040 2040 2040 2053 0 0 0 6753 6753 6753 6753 6753 6753 6753 6753 6753 6753 6753 6753 6753 6753 6753 6622 6622 6622 6622 6497 6375 6259 6146 6146 6038 6038 6038 6038 6146 6375 6497 6497 6497 6497 6497 6497 6497 6259 6146 6146 6146 6038 6038 6038 6038 6146 6146 6259 6259 6497 6622 6753 6753 6753 6753 6753 6753 6753 6753 6753 6753 6753 6622 6622 6622 6622 6622 6622 6622 6622 6622 6622 6622 6497 6497 6375 6375 6375 6375 6259 6146 5832 5832 5832 5734 5734 5832 5832 5832 6497 6497 6497 6497 6497 6497 6497 6497 0 6497 6497 6497 6497 6497 6497 6622 6622 6622 6622 6622 4405 4405 4295 4295 4241 4241 4241 4241 4241 4241 4190 4190 4190 4190 4139 4089 4089 4089 4089 4041 4041 4041 4041 4041 3994 3994 3994 3994 3948 3903 3903 3903 3903 3859 3859 3859 3859 3859 3859 0 0 0 0 0 0 0 0 0 0 0 0 0 0 0 0 0 0 0 0 0 0
0 0 0 0 0 0 0 0 0 0 0 0 0 0 0 0 0 0 0 0 0 0 0 0 0 0 0 0 0 0 0 0 3010 3010 2984 2984 2984 2984 3010 3010 3010 3010 3037 3064 3092 3092 3092 3092 3092 3120 3120 3120 3120 3120 3120 3120 3178 3208 3208 3208 3208 3238 3238 3300 3300 3333 3365 3365 3333 3333 3333 0 0 0 1477 1477 1483 1483 1483 1483 1483 1483 1483 1483 1483 1483 1489 1489 1489 1489 1483 1483 1477 1477 1477 1470 1470 1470 1470 1464 1464 1470 1470 1470 1470 1464 1464 1464 1452 1452 1452 1452 1452 1452 1445 1445 1445 1445 1445 1445 1445 1445 1445 1445 1445 1439 1439 1439 1439 1433 1433 1427 1427 1427 1427 1427 1427 1427 1421 1415 1415 1427 1421 1421 1421 1415 1415 5210 1410 1410 5291 5291 5374 5374 5374 5460 5548 5640 5933 0 0 0 0 0 0 0 0 0 0 1398 1398 1398 1398 1404 1404 1404 1404 1404 5734 5734 5832 5832 0 5832 5832 0 0 5460 5460 5374 5374 5374 5374 5374 5374 5374 5374 5460 5460 5460 5548 5548 5548 5640 5640 5640 5640 5640 0 0 0 0 4911 4911 4911 2226 2226 2241 4983 5056 5056 5056 5132 5132 5640 5640 5640 5933 5933 2256 2256 2256 2256 6259 6259 6259 2256 2256 2241 2241 2241 2241 2226 2226 2226 0 0 2317 2317 2317 2333 2333 2333 2333 2333 2349 2349 2349 2349 2349 2349 2333 2333 2333 2333 2317 2317 2317 2333 2333 2333 2333 2317 2317 2317 2317 2317 2317 2333 2317 2317 2317 2317 2317 2301 2301 2301 2301 2301 2301 2301 2301 2301 2301 2301 2301 2301 2301 2301 2301 2301 2301 2301 2301 2301 2301 2301 2301 2286 2286 2286 2286 2271 2271 2271 2271 2271 2271 2271 2271 2271 2271 2286 2301 3120 3092 3092 3092 3092 3092 3092 3092 3092 3092 3092 3092 3092 3092 3092 3092 3092 3092 3092 3092 3092 3092 3092 3092 3092 3092 3092 3120 3120 3120 3120 3149 3149 3149 3149 3149 3149 3120 3120 3092 3064 3037 3037 3010 3010 3010 3010 3010 3010 2984 2984 3010 3010 3010 3010 3010 2156 2156 2156 2156 2170 2170 2170 2170 2170 2170 2212 2226 2256 2958 2958 2984 2984 2984 2984 2984 2984 2984 2984 2984 2984 2984 2984 2984 2984 3010 3010 2984 2984 2984 2984 3010 3010 3468 3468 3468 3468 3503 3503 3539 3576 3576 3614 3653 3653 3692 3732 3732 3774 3816 3816 3816 4582 4582 4582 4582 2090 2090 2090 4582 4582 4522 4522 4522 4522 4582 4582 2053 2053 2040 2040 2040 2040 2040 2040 2040 2040 2040 2040 2040 2040 2040 2040 0 0 0 6753 6753 6753 6753 6753 6753 6753 6753 6753 6753 6753 6753 6753 6753 6622 6622 6622 6622 6622 6497 6375 6146 6146 6146 6038 6038 6038 6038 6259 6375 6497 6497 6497 6497 6497 6375 6375 6259 6146 6146 6146 6038 6038 6038 6038 6146 6146 6259 6375 6497 6622 6622 6753 6753 6753 6753 6753 6622 6622 6622 6622 6622 6622 6622 6622 6497 6497 6497 6497 6497 6497 6497 6497 6375 6259 6259 6259 6259 6259 6259 6146 5933 5832 5832 5832 5832 5832 5832 6375 6375 6497 6497 6497 6497 6497 6497 6497 0 0 6497 6497 6497 6497 6622 6622 6622 6622 6622 4405 4405 4349 4295 4241 4241 4241 4241 4241 4241 4241 4241 4241 4190 4190 4190 4139 4089 4089 4089 4041 4041 4041 4041 4041 4041 4041 4041 3994 3948 3903 3903 3903 3903 3859 3859 3859 3859 3859 3859 0 0 0 0 0 0 0 0 0 0 0 0 0 0 0 0 0 0 0 0 0 0
0 0 0 0 0 0 0 0 0 0 0 0 0 0 0 0 0 0 0 0 0 0 0 0 0 0 0 0 0 0 0 0 2984 2984 2984 2984 2984 2984 3010 3010 3010 3010 3064 3064 3092 3092 3092 3120 3120 3120 3120 3120 3120 3120 3120 3120 3208 3208 3208 3208 3208 3238 3238 3300 3300 3333 3333 3333 3300 3300 3300 0 1477 1483 1483 1483 1483 1483 1483 1483 1483 1483 1483 1483 1483 1483 1489 1489 1489 1489 1483 1483 1477 1477 1470 1470 1470 1470 1470 1464 1464 1470 1470 1470 1464 1464 1464 1458 1458 1452 1452 1452 1452 1452 1445 1445 1445 1445 1445 1445 1445 1445 1445 1445 1445 1439 1439 1439 1439 1433 1433 1433 1433 1433 1433 1433 1427 1427 1427 1427 1427 1427 1421 1421 1421 1415 1415 1415 1410 1410 5291 5291 5374 5374 5374 5548 5640 5640 5640 5640 0 0 0 0 0 0 1381 1381 1392 1392 1398 1398 1398 1398 1398 1404 1404 1404 5734 5832 5832 0 0 0 0 0 0 5460 5374 5291 5210 5210 5374 5374 5374 5374 5374 5460 5460 5460 5548 5548 5548 5548 5548 5640 5640 0 0 0 2241 0 2241 2241 2241 2226 2226 2241 2241 5056 5056 5056 5132 5132 6038 6038 6038 6038 2256 2256 2256 2256 2256 2256 2256 2256 2241 2241 2241 2241 2241 2241 2226 2226 2226 0 0 2301 2301 2301 2333 2333 2333 2333 2333 2333 2349 2349 2349 2349 2349 2349 2333 2333 2333 2317 2317 2317 2333 2333 2333 2333 2317 2317 2317 2317 2317 2317 2333 2317 2317 2317 2317 2317 2301 2301 2301 2301 2301 2301 2301 2301 2301 2301 2301 2301 2301 2301 2301 2301 2286 2286 2286 2286 2286 2286 2286 2286 2286 2286 2271 2271 2271 2271 2271 2271 2271 2271 2271 2271 2271 2271 2286 3120 3120 3092 3092 3092 3092 3092 3092 3092 3092 3092 3092 3092 3092 3092 3092 3092 3092 3092 3092 3092 3092 3092 3092 3092 3092 3092 3092 3120 3120 3120 3120 3149 3149 3149 3149 3149 3149 3120 3120 3092 3064 3037 3037 3010 3010 3010 3010 3010 3010 3010 3010 3010 3010 3010 3010 2156 2156 2156 2156 2156 2170 2170 2170 2170 2170 2170 2212 2226 2256 2271 2984 2984 2984 2984 2984 2984 2984 2984 2984 2984 2984 2984 2984 2984 2984 3010 3010 2984 2984 3010 3010 3010 3010 3468 3468 3468 3468 3503 3503 3539 3576 3614 3614 3653 3653 3692 3732 3732 3774 3816 3859 3859 4582 4582 4582 4582 4582 4582 4582 4582 4582 4582 4522 4522 4522 4522 4522 4522 2040 2040 2040 2040 2040 2040 2040 2040 2040 2040 2040 2040 2040 2040 2040 0 0 0 6753 6753 6753 6753 6753 6753 6753 6753 6753 6753 6753 6753 6753 6753 6622 6622 6622 6622 6622 6497 6375 6146 6146 6146 6038 6038 6038 6038 6259 6375 6497 6497 6497 6497 6497 6375 6375 6146 6146 6146 6146 6038 6038 6038 6038 6146 6146 6259 6259 6497 6622 6622 6622 6622 6622 6622 6622 6622 6622 6622 6622 6622 6622 6497 6497 6497 6497 6497 6497 6497 6497 6497 6497 6375 6259 6259 6146 6146 6259 6259 6146 6038 5832 5832 5832 5832 5832 5933 6375 6375 6497 6497 6497 6497 6497 6497 0 0 0 6497 6497 6497 6622 6622 6622 6622 6622 6622 4405 4405 4349 4295 4241 4241 4241 4241 4241 4241 4241 4241 4241 4190 4190 4190 4139 4089 4089 4089 4041 4041 4041 4041 4041 4041 4041 4041 3994 3948 3948 3903 3903 3903 3859 3859 3859 3859 3859 3859 0 0 0 0 0 0 0 0 0 0 0 0 0 0 0 0 0 0 0 0 0 0
0 0 0 0 0 0 0 0 0 0 0 0 0 0 0 0 0 0 0 0 0 0 0 0 0 0 0 0 0 0 0 0 2984 2984 2984 2984 2984 2984 3010 3010 3010 3037 3064 3092 3092 3092 3092 3120 3120 3120 3120 3120 3120 3120 3120 3120 3208 3208 3208 3208 3238 3238 3238 3300 3300 3333 3333 3333 3300 3300 0 0 1477 1477 1477 1483 1483 1483 1483 1483 1483 1483 1483 1483 1483 1483 1489 1489 1489 1483 1483 1483 1477 1477 1470 1470 1470 1470 1470 1464 1464 1470 1470 1470 1464 1458 1458 1458 1458 1452 1452 1452 1452 1452 1445 1445 1445 1445 1445 1445 1445 1445 1445 1445 1439 1439 1439 1439 1439 1433 1433 1433 1433 1433 1433 1433 1427 1427 1427 1427 1421 1421 1421 1421 1421 1415 1415 1415 1410 1410 1415 1415 5291 5291 5374 5374 5374 5374 0 0 0 0 0 0 1381 1381 1381 1381 1392 1392 1392 1392 1398 1398 1398 1398 1398 1404 5734 5734 5832 0 0 0 0 0 0 5291 5291 5291 5210 5210 5374 5374 5374 5374 5460 5460 5460 5460 5548 5548 5548 5548 5548 5640 5640 2184 2184 2184 2241 2241 2241 2226 2226 2226 2226 2226 2226 5056 5056 5056 5056 2241 2241 2241 2226 2226 2256 2256 2256 2256 2241 2241 2256 2256 2226 2226 2226 2241 2241 2241 2226 2226 2226 2226 2226 2301 2301 2301 2333 2333 2333 2333 2333 2333 2349 2349 2349 2349 2349 2349 2333 2317 2317 2317 2317 2317 2333 2333 2333 2333 2333 2333 2317 2317 2317 2317 2333 2317 2317 2317 2317 2317 2301 2301 2301 2301 2301 2301 2301 2301 2301 2301 2301 2301 2301 2286 2286 2301 2286 2286 2286 2286 2286 2286 2286 2286 2286 2271 2271 2271 2271 2271 2271 2271 2271 2271 2271 2271 2271 2271 2271 3120 3120 3092 3092 3092 3092 3092 3092 3092 3092 3092 3092 3092 3092 3092 3092 3092 3092 3092 3092 3092 3092 3092 3092 3092 3092 3092 3092 3092 3120 3120 3120 3149 3149 3149 3149 3149 3149 3120 3120 3092 3064 3037 3037 3010 3010 3010 3010 3010 3010 3010 3010 3010 3010 3010 3010 2156 2156 2156 2156 2156 2156 2170 2170 2170 2170 2170 2212 2241 2256 2271 2984 2984 2984 2984 2984 2984 2984 2984 2984 2984 2984 2984 2984 2984 2984 3010 3010 2984 2984 3010 3010 3010 3037 3468 3468 3468 3468 3503 3503 3539 3576 3614 3614 3653 3653 3692 3732 3732 3774 3816 3859 3994 4582 4522 4522 4582 4582 4582 4582 4582 4582 4522 4522 4522 4522 4522 4522 4522 2040 2040 2040 2040 2040 2040 2040 2040 2040 2040 2040 2040 2040 2040 2040 0 0 0 6753 6753 6753 6753 6753 6753 6753 6753 6753 6753 6753 6753 6753 6622 6622 6622 6622 6622 6622 6497 6259 6146 6146 6146 6038 6038 6038 6146 6259 6375 6497 6497 6497 6497 6375 6375 6259 6146 6146 6146 6146 6038 6038 6038 6038 6146 6146 6259 6259 6497 6622 6622 6622 6622 6622 6622 6622 6622 6497 6497 6622 6622 6497 6497 6497 6497 6497 6497 6497 6497 6497 6497 6375 6146 6146 6146 6146 6146 6146 6146 6146 6038 5933 5832 5832 5832 5832 5933 6375 6375 6497 6497 6497 6497 0 0 0 0 0 6622 6622 6622 6622 6622 6622 6622 6622 6622 4405 4405 4349 4295 4241 4241 4241 4241 4241 4241 4241 4241 4241 4190 4190 4190 4139 4089 4089 4089 4089 4089 4089 4089 4041 4041 4041 4041 3994 3948 3948 3948 3903 3903 3903 3859 3859 3859 3859 3859 0 0 0 0 0 0 0 0 0 0 0 0 0 0 0 0 0 0 0 0 0 0
0 0 0 0 0 0 0 0 0 0 0 0 0 0 0 0 0 0 0 0 0 0 0 0 0 0 0 0 0 0 0 0 2984 2984 2984 2984 2984 2984 3010 3010 3010 3037 3064 3092 3092 3092 3092 3120 3120 3120 3120 3120 3120 3120 3120 3120 3208 3208 3208 3208 3238 3238 3238 3269 3300 3300 3333 3333 3333 0 0 0 1477 1477 1477 1483 1483 1483 1483 1483 1483 1483 1483 1489 1489 1489 1489 1489 1489 1483 1483 1483 1477 1477 1470 1464 1464 1464 1464 1464 1464 1464 1470 1470 1458 1458 1458 1458 1452 1452 1452 1452 1452 1452 1445 1445 1445 1445 1445 1439 1439 1439 1439 1439 1439 1433 1433 1433 1433 1433 1433 1433 1433 1433 1433 1433 1427 1427 1427 1427 1421 1421 1421 1421 1421 1421 1421 1415 1415 1415 1415 1415 1421 1421 1421 1421 0 0 0 0 0 0 1381 1381 1381 1381 1387 1387 1392 1392 1392 1392 1392 1392 1398 1398 1398 1404 1404 1404 1410 0 0 0 0 0 0 5291 5291 5374 5291 5291 5374 5374 5460 5460 5460 5460 5460 5460 5548 5548 5548 5548 5548 5640 5640 2184 2184 2184 2198 2226 2226 2226 2226 2212 2212 2212 2212 2198 2198 2226 2241 2241 2241 2226 2226 2226 2256 2256 2256 2256 2241 2241 2256 2241 2226 2226 2226 2226 2226 2226 2226 2212 2212 2226 2226 2301 2301 2301 2317 2333 2333 2333 2333 2333 2333 2349 2349 2349 2349 2349 2333 2317 2317 2317 2317 2317 2333 2333 2333 2333 2333 2333 2317 2317 2317 2333 2333 2317 2317 2317 2317 2317 2301 2301 2301 2301 2301 2301 2301 2301 2301 2301 2301 2301 2301 2286 2286 2301 2286 2286 2286 2286 2286 2286 2286 2286 2271 2271 2271 2271 2271 2271 2271 2271 2271 2271 2271 2271 2271 2271 2271 3120 3120 3092 3092 3092 3092 3092 3092 3092 3092 3092 3092 3092 3092 3092 3092 3092 3092 3092 3092 3092 3092 3092 3092 3092 3092 3092 3092 3092 3092 3120 3120 3120 3120 3149 3149 3149 3120 3120 3092 3092 3064 3037 3037 3010 3010 3010 3010 3010 3010 3010 3010 3010 3010 3010 3037 2156 2156 2156 2156 2156 2156 2170 2170 2170 2170 2184 2212 2241 2241 2271 2958 2984 2984 2984 2984 2984 2984 2984 2984 2984 2984 2984 2984 2984 2984 3010 3010 2984 2984 3010 3010 3037 3037 3468 3468 3468 3468 3503 3503 3539 3576 3614 3614 3653 3653 3692 3732 3732 3774 3859 3903 3994 3994 4522 4522 4582 4582 4582 4582 4522 4522 4522 4522 4522 4522 4522 4522 4522 4522 2040 2040 2040 2040 2040 2040 2040 2040 2040 2040 2040 2040 2040 2040 0 0 0 6753 6622 6622 6753 6753 6753 6753 6753 6753 6753 6753 6753 6753 6622 6622 6622 6622 6622 6622 6497 6259 6146 6146 6146 6038 6038 6146 6146 6259 6375 6497 6497 6497 6497 6375 6259 6259 6146 6038 6038 6038 6038 6038 6038 6146 6146 6146 6259 6375 6497 6622 6622 6622 6622 6622 6622 6622 6622 6497 6497 6497 6622 6497 6375 6375 6375 6375 6497 6497 6497 6497 6497 6375 6146 6038 6038 6038 6038 6038 6146 6146 6038 5832 5832 5832 5832 5832 5832 5832 6375 6497 6375 6375 6497 0 0 0 0 0 6497 6497 6622 6497 6497 6497 6622 6622 4349 4349 4349 4349 4295 4241 4241 4241 4241 4241 4241 4241 4241 4190 4190 4190 4190 4139 4089 4089 4089 4089 4089 4089 4089 4041 4041 4041 4041 3994 3948 3948 3948 3903 3903 3903 3859 3859 3859 3859 3859 0 0 0 0 0 0 0 0 0 0 0 0 0 0 0 0 0 0 0 0 0 0
0 0 0 0 0 0 0 0 0 0 0 0 0 0 0 0 0 0 0 0 0 0 0 0 0 0 0 0 0 0 0 0 2984 2984 3010 2984 2984 2984 3010 3064 3064 3064 3064 3092 3092 3092 3092 3120 3120 3120 3120 3120 3120 3120 3120 3149 3178 3178 3208 3208 3208 3208 3208 3238 3269 3300 3300 3333 3333 0 0 0 1483 1477 1477 1483 1483 1483 1483 1483 1483 1489 1489 1489 1489 1489 1489 1489 1489 1483 1483 1483 1477 1470 1470 1464 1464 1464 1464 1464 1464 1464 1464 1464 1458 1458 1458 1458 1452 1452 1452 1452 1452 1452 1439 1439 1445 1445 1445 1439 1439 1439 1439 1439 1439 1433 1433 1433 1433 1433 1433 1433 1433 1433 1433 1433 1427 1427 1427 1427 1427 1427 1421 1421 1421 1421 1421 1415 1415 1415 1421 1421 1421 1421 1421 1421 1427 1427 1421 0 0 1392 1381 1381 1392 1387 1387 1387 1392 1392 1392 1392 1392 1392 1398 1398 1398 1404 1404 1404 1410 0 0 0 0 0 0 5291 5291 5374 5291 5291 5291 5210 5210 5291 5374 5374 5374 5548 5548 5548 2156 2156 2170 2170 2170 2170 2184 2184 2198 2212 2212 2212 2212 2212 2198 2198 2212 2198 2198 2212 2212 2226 2226 2212 2212 2226 2241 2241 2241 2256 2256 2241 2241 2241 2241 2226 2226 2226 2226 2212 2212 2212 2212 2212 2212 2301 2301 2301 2301 2317 2317 2317 2317 2333 2333 2349 2349 2349 2349 2349 2333 2333 2317 2317 2317 2317 2333 2333 2317 2317 2333 2317 2317 2317 2317 2317 2317 2317 2317 2317 2317 2301 2301 2301 2301 2301 2301 2301 2301 2301 2301 2301 2301 2301 2301 2301 2301 2301 2286 2286 2286 2286 2286 2271 2271 2271 2271 2271 2271 2271 2271 2271 2271 2271 2271 2271 2271 2271 2271 2271 2271 3120 3120 3092 3092 3092 3092 3092 3092 3092 3092 3092 3092 3092 3092 3092 3092 3092 3092 3092 3092 3092 3092 3092 3092 3092 3092 3092 3092 3092 3092 3120 3120 3120 3120 3120 3149 3149 3120 3120 3092 3092 3064 3037 3037 3010 3010 3010 3010 3010 3010 3010 3010 3010 3010 3010 3037 3037 2156 2156 2156 2156 2156 2170 2170 2170 2170 2184 2198 2212 2212 2198 2198 2984 2984 2984 2984 2984 2984 2984 2984 2984 2958 2958 2933 2933 2984 3010 3010 3010 3010 3010 3037 3037 3037 3468 3468 3468 3468 3503 3539 3539 3576 3614 3614 3653 3653 3692 3732 3732 3774 3859 3903 3948 4582 4522 4522 4582 4582 4582 4582 4522 4522 4522 4522 4522 4522 4522 4522 4522 4522 2040 2040 2040 2053 2040 2040 2040 2040 2040 2040 2040 2040 2040 2040 0 0 0 0 6622 6622 6753 6753 6753 6753 6753 6753 6753 6753 6753 6753 6622 6622 6622 6622 6622 6497 6375 6259 6146 6146 6146 6038 6038 6038 6146 6259 6375 6497 6497 6497 6497 6375 6259 6259 6146 6038 6038 6038 6038 6038 6038 6146 6146 6146 6259 6375 6497 6622 6622 6622 6497 6497 6622 6622 6497 6497 6497 6497 6622 6375 6375 6259 6259 6259 6375 6375 6375 6375 6497 6497 6146 6038 6038 6038 6038 6038 6038 6038 5933 5832 5832 5832 5832 5832 5832 5832 6375 6497 6375 6375 0 0 0 0 0 0 6497 6497 6497 6497 6497 6497 6622 6622 4349 4349 4349 4349 4295 4295 4241 4241 4241 4241 4241 4241 4190 4190 4190 4190 4190 4139 4139 4089 4089 4089 4089 4041 4041 4041 4041 4041 3994 3994 3948 3948 3948 3903 3903 3903 3859 3859 3859 3859 3859 0 0 0 0 0 0 0 0 0 0 0 0 0 0 0 0 0 0 0 0 0 0
0 0 0 0 0 0 0 0 0 0 0 0 0 0 0 0 0 0 0 0 0 0 0 0 0 0 0 0 0 0 0 0 2984 2984 3010 3010 3010 3010 3064 3064 3064 3064 3064 3064 3092 3092 3092 3120 3120 3120 3120 3120 3120 3120 3120 3149 3178 3178 3178 3178 3208 3208 3208 3238 3269 3269 3300 3333 3333 0 0 0 1483 1477 1477 1483 1483 1483 1483 1483 1483 1489 1489 1489 1489 1489 1489 1489 1489 1483 1483 1483 1477 1470 1470 1464 1464 1464 1464 1464 1464 1464 1464 1464 1458 1458 1458 1458 1452 1452 1452 1452 1452 1452 1439 1439 1445 1445 1445 1439 1439 1439 1439 1439 1439 1433 1433 1433 1433 1433 1433 1433 1433 1433 1433 1433 1427 1427 1427 1427 1427 1427 1427 1427 1421 1421 1421 1421 1415 1415 1421 1421 1421 1421 1421 1427 1427 1427 1421 1415 1404 1392 1387 1387 1392 1392 1392 1392 1392 1392 1392 1392 1392 1398 1398 1398 1398 1398 1404 1404 1410 0 0 0 0 0 0 5374 5374 5374 5210 5210 5210 2090 2090 5291 5374 2129 2129 2143 2143 2143 2143 2143 2156 2170 2170 2170 2170 2184 2198 2198 2198 2198 2198 2198 2198 2198 2198 2184 2184 2198 2198 2198 2198 2198 2198 2212 2212 2226 2226 2241 2241 2226 2226 2241 2226 2226 2212 2212 2212 2212 2184 2184 2184 2184 2198 2198 2301 2301 2301 2301 2317 2317 2317 2333 2333 2349 2349 2349 2349 2349 2333 2333 2317 2317 2317 2317 2317 2317 2317 2317 2317 2317 2317 2317 2317 2317 2317 2317 2317 2317 2317 2301 2301 2286 2286 2301 2301 2301 2301 2301 2301 2301 2301 2301 2301 2301 2301 2301 2286 2286 2286 2286 2286 2271 2271 2271 2271 2271 2256 2256 2271 2271 2271 2271 2271 2271 2271 2271 2271 2286 2286 3120 3120 3092 3092 3092 3092 3120 3120 3092 3092 3092 3092 3092 3092 3092 3092 3092 3092 3092 3092 3092 3092 3092 3092 3092 3092 3092 3092 3092 3092 3120 3120 3120 3120 3120 3149 3149 3149 3120 3120 3092 3092 3064 3037 3037 3010 3010 3010 3010 3010 3010 3010 3010 3010 3010 3010 3010 2156 2156 2156 2156 2156 2170 2170 2170 2170 2170 2184 2184 2184 2170 2170 2170 2984 2984 2984 2984 2984 2984 2984 2958 2958 2933 2933 2933 2933 2984 3010 3010 3010 3010 3037 3037 3037 2116 2116 2129 2143 3503 3539 3576 3576 3614 3614 3653 3653 3732 3774 2103 2103 2090 2090 3948 4522 4522 4522 4582 4582 4582 4582 4582 4582 4522 4522 4522 4522 4522 4522 4522 4522 2053 2053 2040 2040 2040 2040 2040 2040 2040 2040 2040 2040 2040 2040 0 0 0 0 0 6753 6753 6753 6753 6753 6753 6753 6753 6753 6753 6622 6622 6622 6622 6622 6622 6497 6259 6259 6146 6146 6146 6038 6038 6038 6146 6259 6375 6375 6497 6497 6497 6375 6375 6259 6146 6038 6038 6038 6038 6038 6038 6038 6038 6146 6259 6375 6497 6622 6622 6622 6497 6497 6497 6497 6497 6375 6259 6259 6259 6259 6259 6259 6259 6259 6375 6375 6259 6259 6259 6038 6038 6038 6038 6038 6038 6038 6038 6038 5933 5832 5832 5734 5734 5734 5832 5832 6375 6375 6375 6375 0 0 0 0 0 0 6497 6375 6375 6497 6497 6497 4349 4349 4349 4349 4349 4349 4295 4295 4241 4241 4241 4241 4241 4241 4190 4190 4190 4190 4190 4139 4139 4139 4089 4089 4089 4041 4041 4041 3994 3994 3994 3994 3948 3948 3948 3903 3903 3903 3903 3859 3859 3859 0 0 0 0 0 0 0 0 0 0 0 0 0 0 0 0 0 0 0 0 0 0 0
0 0 0 0 0 0 0 0 0 0 0 0 0 0 0 0 0 0 0 0 0 0 0 0 0 0 0 0 0 0 0 0 2984 2984 2984 3010 3010 3010 3010 3010 3037 3037 3037 3064 3092 3092 3092 3092 3120 3120 3120 3120 3120 3120 3149 3149 3178 3178 3178 3178 3208 3208 3208 3238 3269 3269 3300 3300 3333 0 0 1477 1477 1477 1477 1483 1483 1483 1483 1483 1483 1489 1489 1489 1489 1489 1489 1489 1489 1483 1483 1483 1477 1477 1470 1470 1470 1464 1464 1464 1464 1464 1464 1464 1458 1458 1458 1458 1458 1452 1452 1452 1452 1452 1445 1445 1445 1445 1445 1439 1439 1439 1439 1439 1439 1433 1433 1433 1433 1433 1433 1433 1433 1433 1433 1433 1427 1427 1427 1427 1427 1427 1427 1427 1421 1421 1421 1421 1415 1415 1421 1421 1421 1421 1421 1427 1427 1421 1421 1415 1404 1398 1398 1398 1398 1392 1392 1392 1398 1392 1392 1392 1392 1398 1398 1398 1398 1398 1404 1404 1410 0 0 0 0 0 0 0 2078 5210 5210 2090 2090 2090 2090 2103 2103 2129 2129 2143 2143 2143 2143 2143 2156 2170 2170 2170 2170 2184 2184 2184 2184 2184 2184 2184 2184 2184 2198 2184 2184 2184 2184 2184 2184 2184 2184 2184 2184 2184 2198 2212 2212 2212 2212 2226 2226 2198 2198 2198 2198 2198 2184 2184 2184 2184 2184 2184 2184 2301 2271 2271 2301 2301 2317 2333 2333 2349 2349 2349 2349 2349 2333 2333 2317 2317 2317 2317 2317 2301 2301 2301 2317 2317 2317 2317 2317 2317 2317 2317 2317 2301 2301 2301 2301 2286 2286 2301 2301 2301 2301 2301 2301 2301 2301 2301 2301 2301 2301 2286 2286 2286 2286 2286 2286 2271 2271 2271 2271 2271 2256 2256 2271 2271 2271 2271 2271 2271 2271 2271 2271 2286 2286 2286 3120 3092 3092 3092 3092 3120 3120 3092 3092 3092 3092 3092 3092 3092 3092 3092 3092 3092 3092 3092 3092 3092 3092 3120 3092 3092 3092 3092 3092 3120 3120 3120 3120 3149 3149 3149 3149 3120 3120 3120 3092 3064 3037 3037 3010 3010 3010 3010 3010 3010 3010 3010 3010 3010 3010 3010 2143 2143 2156 2156 2156 2170 2170 2170 2170 2170 2170 2170 2170 2156 2156 2156 2156 2984 2984 3010 3010 2984 2984 2958 2143 2143 2156 2156 2156 2984 2156 2143 2129 2116 2116 2116 2116 2116 2116 2129 2129 2129 3539 3576 3614 3614 3614 3653 3653 3732 3816 2103 2103 2090 2090 2090 2090 2103 2103 4582 4582 4582 4582 4582 4582 4522 4522 4522 4522 4522 4522 4522 4522 2040 2040 2040 2040 2040 2040 2040 2040 2040 2028 2028 2028 2028 2040 0 0 0 0 0 0 0 6753 6753 6753 6622 6622 6622 6622 6622 6622 6622 6497 6497 6497 6497 6259 6259 6146 6146 6146 6146 6038 6038 6038 6146 6146 6259 6375 6375 6497 6497 6375 6259 6146 6146 6038 6038 6038 6038 6038 6038 6038 6038 6146 6259 6259 6375 6497 6622 6497 6497 6497 6375 6375 6497 6259 6259 6259 6259 6259 6259 6146 6146 6146 6259 6375 6259 6259 6259 6038 6038 6038 6038 6038 6038 6038 6038 6038 5933 5832 5734 5734 5734 5734 5734 5832 6146 6375 6375 0 0 0 0 0 0 0 0 6259 6259 6375 6375 6375 4349 4349 4349 4349 4349 4349 4295 4295 4241 4241 4241 4241 4241 4241 4190 4190 4190 4190 4190 4139 4139 4139 4089 4089 4089 4041 4041 4041 3994 3994 3994 3994 3948 3948 3948 3903 3903 3903 3903 3859 3859 3859 0 0 0 0 0 0 0 0 0 0 0 0 0 0 0 0 0 0 0 0 0 0 0
0 0 0 0 0 0 0 0 0 0 0 0 0 0 0 0 0 0 0 0 0 0 0 0 0 0 0 0 0 0 0 0 2984 2984 2984 3010 3010 3010 3010 3010 3037 3037 3037 3064 3092 3092 3092 3092 3120 3120 3120 3120 3120 3120 3178 3178 3178 3178 3178 3208 3208 3208 3238 3238 3269 3269 3300 3300 3300 0 0 0 1483 1483 1483 1483 1483 1483 1483 1483 1483 1489 1489 1489 1489 1489 1489 1496 1489 1483 1483 1483 1483 1477 1477 1477 1477 1464 1464 1464 1464 1464 1464 1464 1458 1458 1458 1458 1458 1452 1452 1452 1452 1445 1445 1445 1445 1445 1445 1445 1445 1445 1445 1439 1433 1433 1433 1433 1433 1433 1433 1433 1433 1433 1433 1433 1427 1427 1427 1427 1427 1427 1427 1427 1427 1421 1421 1421 1421 1421 1421 1421 1421 1421 1421 1421 1421 1421 1415 1415 1404 1404 1404 1398 1398 1398 1392 1392 1392 1392 1392 1392 1392 1398 1398 1398 1398 1398 1404 1404 1410 0 0 0 0 0 0 2078 2078 2090 2090 2090 2090 2090 2090 2103 2116 2116 2129 2143 2143 2143 2143 2143 2156 2156 2156 2156 2170 2170 2184 2184 2184 2184 2184 2184 2184 2184 2184 2184 2184 2170 2170 2184 2184 2170 2170 2170 2170 2170 2184 2198 2198 2198 2198 2212 2198 2198 2198 2198 2198 2198 2170 2170 2170 2170 2170 2170 2170 2170 2184 2184 2301 2301 2317 2333 2333 2349 2349 2349 2349 2349 2333 2333 2317 2317 2317 2301 2301 2301 2301 2301 2317 2317 2317 2317 2317 2317 2317 2317 2317 2301 2301 2301 2301 2286 2286 2301 2301 2301 2301 2301 2301 2301 2301 2301 2301 2301 2301 2286 2286 2286 2286 2286 2286 2271 2271 2271 2271 2271 2256 2256 2271 2271 2271 2271 2271 2271 2271 2286 2286 2286 2286 2286 3120 3092 3092 3092 3092 3120 3120 3092 3092 3092 3092 3092 3092 3092 3092 3092 3120 3120 3092 3092 3092 3092 3092 3120 3120 3120 3120 3120 3120 3120 3149 3149 3149 3149 3149 3149 3149 3149 3120 3120 3092 3064 3037 3037 3010 3010 3010 3010 3010 3010 3010 3010 3010 3010 3037 3037 2143 2143 2156 2156 2156 2170 2170 2170 2170 2170 2170 2170 2170 2156 2156 2156 2156 2156 2170 3010 3010 3010 2143 2143 2143 2143 2156 2156 2156 2156 2156 2143 2129 2116 2116 2116 2116 2116 2116 2116 2116 2116 2116 2103 2103 2103 2103 2103 3653 2116 2103 2103 2103 2090 2090 2090 2090 2103 2103 4582 4582 4582 4582 4522 4522 4522 4522 4522 4522 4522 4522 4522 4522 0 2040 2040 2040 2040 2040 2040 2040 2040 2028 2028 2028 2028 0 0 0 0 0 0 0 0 0 0 0 6622 6622 6622 6622 6622 6497 6497 6497 6497 6497 6375 6259 6146 6146 6146 6146 6146 6038 6038 6038 6146 6146 6259 6375 6375 6375 6375 6375 6146 6038 6038 6038 6038 6038 6038 5933 5933 6038 6038 6038 6038 6259 6375 6497 6622 6497 6497 6497 6375 6375 6375 6259 6038 6038 6038 6038 6038 6038 6038 6038 6146 6146 6146 6146 6146 6038 6038 6038 6038 6038 6038 6038 6038 6038 5933 5734 5734 5640 5640 5640 5640 5734 6146 6146 0 0 0 0 0 0 0 0 0 6259 6259 6375 6375 6375 4349 4349 4349 4349 4349 4349 4295 4295 4295 4295 4241 4241 4241 4241 4241 4190 4190 4190 4190 4139 4139 4139 4139 4089 4041 4041 4041 3994 3994 3994 3994 3994 3994 3948 3948 3903 3903 3903 3903 3859 3859 3859 3859 0 0 0 0 0 0 0 0 0 0 0 0 0 0 0 0 0 0 0 0 0 0
0 0 0 0 0 0 0 0 0 0 0 0 0 0 0 0 0 0 0 0 0 0 0 0 0 0 0 0 0 0 0 0 2984 2984 2984 3010 3010 3010 3010 3010 3064 3064 3064 3064 3092 3092 3092 3092 3120 3120 3120 3149 3149 3149 3178 3178 3178 3178 3178 3208 3208 3208 3208 3238 3269 3269 3300 3300 3300 0 3269 0 1483 0 1483 1483 1483 1483 1489 1489 1489 1489 1496 1496 1496 1496 1496 1496 1489 1483 1483 1483 1483 1483 1477 1477 1477 1477 1477 1470 1470 1470 1464 1464 1458 1458 1458 1458 1458 1452 1452 1452 1452 1445 1445 1445 1445 1445 1445 1445 1445 1445 1445 1439 1433 1433 1433 1433 1433 1433 1433 1433 1433 1433 1433 1433 1427 1427 1427 1427 1427 1427 1427 1427 1427 1421 1421 1421 1421 1421 1421 1421 1421 1421 1421 1421 1421 1421 1415 1415 1410 1404 1404 1404 1398 1398 1392 1392 1392 1387 1387 1392 1392 1392 1398 1398 1398 1404 1404 1410 1415 0 0 0 2078 2078 2078 2078 2078 2090 2090 2090 2090 2090 2090 2103 2103 2103 2116 2116 2116 2116 2116 2116 2143 2156 2156 2156 2156 2170 2184 2170 2170 2184 2184 2170 2170 2170 2170 2170 2170 2170 2156 2156 2156 2156 2156 2156 2156 2156 2170 2184 2184 2184 2184 2198 2184 2170 2170 2170 2170 2170 2156 2156 2156 2156 2156 2156 2156 2143 2143 2156 2156 2317 2317 2143 2143 2349 2349 2349 2349 2349 2333 2333 2317 2317 2317 2301 2301 2301 2301 2301 2317 2317 2317 2317 2317 2317 2317 2317 2301 2301 2301 2301 2301 2286 2286 2301 2301 2301 2301 2301 2301 2301 2301 2301 2301 2301 2301 2301 2286 2286 2286 2286 2286 2286 2271 2271 2271 2271 2256 2256 2256 2256 2271 2271 2271 2271 2271 2286 2286 2271 2271 3149 3120 3092 3092 3092 3092 3092 3092 3092 3092 3092 3092 3092 3092 3092 3092 3092 3120 3092 3092 3092 3092 3092 3092 3092 3092 3120 3120 3120 3120 3149 3149 3149 3149 3149 3149 3149 3149 3149 3120 3120 3092 3064 3037 3037 3010 3010 3010 3010 3010 3010 3010 3010 3037 3037 3037 3037 2156 2156 2156 2156 2156 2170 2170 2170 2170 2170 2170 2170 2170 2156 2156 2156 2156 2156 2156 2156 2143 2143 2143 2143 2143 2143 2156 2156 2156 2156 2156 2143 2143 2116 2116 2116 2116 2116 2116 2116 2116 2116 2103 2103 2103 2103 2103 2103 2103 2103 2103 2103 2090 2090 2090 2090 2090 2103 2103 2103 4582 4582 4582 4522 4522 4522 4522 4522 4522 4522 4522 4522 4522 2053 2053 2040 2040 2040 2040 2040 2040 2040 2040 2028 2028 0 0 0 0 0 0 0 0 0 0 0 0 0 0 0 0 6622 6497 6497 6497 6497 6497 6259 6146 6146 6146 6146 6146 6146 6038 6038 6038 6146 6146 6146 6259 6259 6259 6259 6146 6038 6038 5933 5933 5933 5933 5933 5933 5933 5933 6038 6038 6038 6038 6038 6146 6146 6038 0 6038 0 5734 5734 5734 5734 5640 5640 5548 5548 6038 6038 6038 6038 6146 6146 6146 6146 6038 6038 6038 6038 6038 6038 6038 5933 5933 5832 5734 5734 5640 5640 5640 5640 5734 5832 5832 0 0 0 0 0 0 0 0 0 0 0 0 0 0 4349 4349 4349 4349 4349 4349 4241 4241 4241 4241 4241 4241 4241 4241 4241 4190 4190 4190 4190 4139 4139 4139 4139 4089 4041 4041 4041 3994 3994 3994 3994 3994 3994 3994 3948 3948 3948 3948 3903 3903 3859 3859 3859 0 0 0 0 0 0 0 0 0 0 0 0 0 0 0 0 0 0 0 0 0 0
0 0 0 0 0 0 0 0 0 0 0 0 0 0 0 0 0 0 0 0 0 0 0 0 0 0 0 0 0 0 0 0 2984 2984 3010 3010 3010 3010 3037 3037 3064 3064 3064 3064 3092 3092 3092 3120 3120 3120 3120 3149 3149 3178 3178 3178 3178 3178 3178 3208 3208 3208 3208 3238 3269 3269 3300 3300 3269 3269 0 0 0 0 1483 1483 1483 1483 1489 1489 1489 1496 1496 1496 1496 1496 1496 1496 1489 1483 1483 1483 1483 1483 1483 1477 1477 1477 1477 1470 1470 1470 1464 1464 1458 1458 1458 1458 1458 1452 1452 1452 1452 1452 1452 1445 1445 1445 1445 1445 1445 1445 1445 1439 1439 1439 1433 1433 1433 1433 1433 1433 1433 1433 1433 1433 1433 1427 1427 1427 1427 1427 1427 1427 1427 1421 1421 1421 1421 1421 1421 1421 1421 1427 1427 1421 1421 1421 1421 1421 1410 1404 1404 1404 1398 1398 1392 1392 1387 1387 1387 1387 1392 1392 1398 1398 1404 1404 1404 1410 1415 0 1427 0 2078 2078 2078 2078 2078 2090 2090 2090 2090 2090 2090 2090 2090 2090 2090 2090 2090 2090 2090 2116 2143 2143 2156 2156 2156 2170 2170 2156 2156 2156 2143 2143 2143 2143 2143 2156 2156 2143 2143 2143 2143 2143 2143 2143 2143 2143 2156 2170 2170 2156 2156 2170 2170 2156 2143 2143 2170 2156 2143 2143 2143 2143 2143 2143 2143 2143 2143 2156 2143 2143 2143 2143 2143 2349 2365 2349 2349 2349 2333 2333 2333 2317 2317 2301 2301 2286 2286 2286 2301 2301 2301 2317 2317 2317 2317 2301 2301 2301 2301 2301 2301 2286 2286 2286 2286 2301 2301 2301 2301 2301 2301 2301 2301 2301 2301 2301 2286 2286 2286 2286 2286 2286 2286 2286 2271 2271 2256 2256 2256 2256 2271 2271 2271 2271 2271 2286 2286 2271 2271 3149 3149 3092 3092 3092 3092 3092 3092 3092 3092 3092 3092 3092 3092 3092 3092 3092 3092 3092 3092 3092 3092 3092 3120 3092 3092 3120 3120 3120 3149 3149 3149 3149 3149 3149 3178 3178 3178 3178 3149 3120 3092 3064 3037 3037 3010 3010 3010 3010 3010 3010 3010 3010 3010 3037 3037 3037 2156 2156 2156 2156 2156 2170 2170 2170 2170 2170 2170 2156 2156 2156 2156 2156 2156 2156 2156 2156 2143 2143 2143 2143 2143 2143 2156 2156 2156 2156 2156 2143 2143 2116 2116 2116 2116 2116 2103 2103 2103 2103 2103 2103 2103 2103 2103 2103 2103 2103 2103 2103 2090 2090 2090 2103 2103 2103 2103 2103 2103 4582 4582 4582 4582 4522 4522 4522 4522 4522 4522 4522 4522 2053 2053 2053 2040 2040 2040 2040 2040 2040 2040 2028 2028 0 0 0 0 0 0 0 0 0 0 0 0 0 0 0 0 0 0 0 0 0 0 6259 6146 6146 6146 6146 6146 6146 6038 6038 6038 6038 6146 6146 6259 6146 6146 6146 6038 6038 5933 5933 5933 5933 5832 5832 5832 5832 5832 5933 5933 6038 6038 6038 6146 6146 6038 6038 6038 6038 0 5734 5734 5734 5640 5548 5548 5548 6038 6038 6038 6038 6146 6146 6146 6146 6038 6038 6038 6038 6038 6038 6038 5933 5933 5832 5734 5734 5734 5734 5734 5734 5734 5832 5832 0 5640 5640 5640 0 0 0 0 0 0 0 0 0 4349 4349 4349 4349 4349 4349 4349 4241 4241 4241 4241 4241 4241 4241 4241 4241 4190 4190 4190 4190 4139 4139 4139 4089 4089 4041 4041 4041 3994 3994 3994 3994 3994 3994 3994 3948 3948 3948 3948 3948 3903 3903 3903 3903 0 0 0 0 0 0 0 0 0 0 0 0 0 0 0 0 0 0 0 0 0 0
0 0 0 0 0 0 0 0 0 0 0 0 0 0 0 0 0 0 0 0 0 0 0 0 0 0 0 0 0 0 0 0 2984 2984 3010 3010 3010 3010 3037 3037 3064 3064 3064 3064 3092 3092 3092 3120 3120 3120 3149 3149 3149 3178 3178 3178 3178 3208 3208 3208 3208 3238 3238 3238 3269 3269 3300 3300 3269 3269 0 0 0 0 1483 1483 1483 1489 1489 1489 1489 1496 1496 1496 1496 1496 1503 1496 1489 1489 1483 1483 1483 1483 1483 1477 1477 1477 1477 1477 1470 1470 1470 1464 1458 1458 1458 1458 1458 1452 1452 1452 1452 1452 1452 1452 1452 1452 1452 1452 1452 1452 1452 1445 1439 1439 1439 1433 1433 1433 1433 1433 1433 1433 1433 1433 1433 1433 1433 1433 1427 1427 1427 1427 1427 1427 1421 1421 1421 1421 1421 1421 1421 1427 1421 1421 1421 1421 1421 1421 1410 1404 1404 1404 1398 1398 1392 1392 1387 1387 1387 1387 1392 1392 1398 1398 1404 1404 1404 1410 1415 1427 1427 2065 2078 2078 2078 2078 2078 2078 2090 2090 2090 2090 2090 2090 2090 2090 2090 2090 2090 2078 2078 2103 2129 2143 2143 2156 2156 2156 2156 2143 2143 2129 2129 2116 2116 2116 2129 2129 2129 2129 2143 2143 2129 2129 2143 2143 2143 2143 2143 2156 2156 2143 2143 2156 2129 2129 2129 2143 2156 2143 2129 2129 2143 2129 2129 2129 2143 2143 2143 2143 2143 2143 2143 2129 2129 2129 2116 2116 2129 2103 2103 2333 2333 2301 2301 2301 2156 2156 2156 2156 2156 2143 2143 2301 2301 2317 2317 2301 2301 2301 2301 2301 2301 2286 2286 2286 2286 2286 2286 2286 2286 2301 2301 2301 2301 2301 2301 2301 2286 2286 2286 2286 2286 2286 2286 2286 2286 2271 2256 2256 2271 2271 2271 2271 2271 2271 2271 2271 2271 2271 2271 3149 3149 3092 3092 3092 3092 3092 3092 3092 3092 3092 3092 3092 3092 3092 3092 3092 3092 3092 3092 3092 3092 3092 3120 3120 3120 3120 3120 3120 3149 3149 3149 3149 3149 3149 3178 3178 3178 3178 3149 3120 3092 3092 3064 3037 3010 3010 3010 3010 3010 3010 3010 3010 3010 3037 3037 3037 2156 2156 2156 2156 2156 2170 2170 2170 2170 2156 2156 2156 2156 2156 2156 2156 2156 2156 2156 2156 2143 2143 2143 2143 2143 2143 2156 2156 2156 2156 2156 2143 2143 2116 2116 2116 2116 2116 2103 2103 2103 2103 2103 2103 2103 2103 2103 2103 2103 2103 2103 2103 2103 2103 2103 2103 2103 2103 2103 2103 2103 2116 4582 4582 4582 4582 4522 4522 4522 4522 4522 4522 4522 2053 2053 2053 2040 2040 2040 2040 2040 2040 2040 2040 2040 0 0 0 0 0 0 0 0 0 0 0 0 0 0 0 0 0 0 0 0 0 0 6146 6146 6146 6146 6146 6146 6146 6038 6038 6038 6038 6146 6146 6146 6146 6146 6038 6038 5933 5933 5933 5832 5832 5832 5832 5832 5832 5832 5832 5933 5933 6038 6038 6038 6038 6038 6038 6038 6038 0 5734 5734 5640 5640 5460 5460 5460 5460 5933 5933 6038 6038 6038 6038 6146 6146 6038 6038 6038 6038 6038 5933 5832 5832 5832 5734 5734 5734 5734 5734 5734 5734 5734 5734 5734 5640 5640 5640 5640 0 0 0 0 0 0 0 0 4405 4405 4349 4349 4349 4349 4349 4295 4295 4241 4241 4241 4241 4241 4241 4241 4190 4190 4139 4139 4139 4139 4139 4089 4089 4041 4041 4041 3994 3994 3994 3994 3994 3994 3994 3948 3948 3948 3948 3948 3903 3903 3903 3903 0 0 0 0 0 0 0 0 0 0 0 0 0 0 0 0 0 0 0 0 0 0
0 0 0 0 0 0 0 0 0 0 0 0 0 0 0 0 0 0 0 0 0 0 0 0 0 0 0 0 0 0 0 0 2984 2984 3010 3010 3010 3010 3037 3037 3064 3064 3064 3064 3092 3092 3092 3120 3120 3149 3149 3149 3149 3178 3178 3178 3178 3208 3208 3208 3238 3238 3238 3269 3269 3269 3300 3300 3238 3238 0 0 0 0 1483 1483 1483 1489 1489 1489 1496 1496 1496 1496 1496 1503 1503 1503 1496 1489 1483 1483 1483 1489 1483 1477 1477 1477 1477 1477 1470 1470 1470 1470 1464 1464 1464 1458 1458 1458 1458 1458 1458 1452 1452 1452 1452 1452 1452 1452 1452 1452 1452 1445 1445 1445 1445 1439 1439 1433 1433 1433 1433 1433 1433 1433 1433 1433 1433 1433 1433 1427 1427 1427 1427 1427 1427 1427 1421 1421 1421 1421 1421 1427 1421 1421 1421 1421 1421 1421 1410 1404 1404 1404 1398 1392 1392 1387 1387 1387 1387 1387 1392 1392 1398 1398 1404 1404 1410 1415 1421 1427 1427 2065 2065 2065 2065 2065 2078 2078 2078 2078 2078 2078 2078 2078 2078 2078 2078 2078 2065 2065 2065 2090 2103 2129 2143 2143 2143 2156 2156 2143 2129 2116 2116 2103 2103 2103 2103 2103 2103 2116 2116 2129 2129 2129 2129 2143 2143 2143 2143 2129 2129 2129 2129 2129 2116 2116 2116 2129 2143 2129 2116 2116 2129 2116 2116 2116 2116 2129 2143 2143 2129 2129 2129 2129 2116 2116 2116 2116 2116 2103 2103 2116 2116 2116 2129 2129 2143 2156 2156 2143 2143 2143 2143 2129 2129 2129 2129 2301 2301 2301 2301 2301 2301 2286 2286 2286 2286 2286 2286 2286 2286 2301 2301 2301 2301 2301 2301 2301 2286 2286 2286 2286 2286 2271 2271 2286 2286 2271 2256 2256 2271 2271 2271 2271 2271 2271 2271 2271 2271 2271 3120 3120 3120 3120 3092 3092 3092 3092 3092 3092 3092 3092 3092 3092 3092 3092 3092 3092 3092 3092 3092 3092 3092 3092 3120 3120 3120 3120 3120 3120 3120 3149 3149 3149 3149 3149 3178 3178 3178 3149 3149 3120 3092 3092 3064 3037 3010 3010 3010 3010 3010 3010 3010 3010 3010 3037 3037 3037 2156 2156 2170 2170 2170 2170 2170 2170 2170 2156 2156 2156 2156 2156 2156 2156 2156 2156 2156 2156 2156 2143 2143 2143 2143 2143 2156 2156 2156 2143 2143 2143 2143 2129 2116 2116 2116 2116 2103 2103 2103 2103 2103 2103 2103 2103 2103 2103 2103 2103 2103 2103 2103 2103 2103 2103 2103 2103 2103 2103 2103 2103 4582 4582 4582 4582 4522 4522 4522 4522 4522 4522 2053 2053 2053 2053 2040 2040 2040 2040 2040 2040 2040 2028 2028 0 0 0 0 0 0 0 0 0 5832 5832 5933 0 0 0 0 0 0 0 0 0 0 6038 6038 6146 6146 6146 6146 6146 6146 6038 6038 6146 6146 6146 6146 5933 5933 5933 5933 5933 5832 5832 5734 5734 5734 5734 5734 5734 5734 5832 5832 5933 6038 6038 6038 6038 6038 6038 6038 0 0 0 5640 5640 5548 5460 5460 5460 5548 5548 5933 6038 6038 6038 6038 6146 6146 6038 6038 6038 6038 6038 5832 5832 5832 5832 5734 5734 5734 5734 5640 5640 5734 5734 5734 5734 5734 5640 5640 5640 0 0 0 0 0 0 0 0 4405 4405 4405 4405 4405 4405 4349 4295 4295 4241 4241 4241 4241 4241 4241 4241 4190 4190 4139 4139 4139 4139 4139 4089 4089 4041 4041 4041 3994 3994 3994 3994 3994 3994 3994 3948 3948 3948 3948 3948 3903 3903 3903 3948 3994 0 0 0 0 0 0 0 0 0 0 0 0 0 0 0 0 0 0 0 0 0
0 0 0 0 0 0 0 0 0 0 0 0 0 0 0 0 0 0 0 0 0 0 0 0 0 0 0 0 0 0 0 0 3010 3010 3010 3010 3010 3037 3037 3037 3064 3064 3064 3064 3092 3092 3092 3120 3120 3149 3149 3149 3149 3178 3178 3178 3178 3178 3208 3238 3238 3238 0 3300 3300 3300 3300 3300 3238 3238 0 0 0 0 1489 1489 1496 1496 1496 1496 1496 1496 1496 1503 1503 1503 1503 1503 1503 1496 1496 1496 1496 1489 1489 1483 1483 1483 1477 1477 1477 1477 1470 1470 1464 1464 1464 1458 1458 1458 1458 1458 1458 1458 1458 1458 1452 1452 1452 1452 1452 1452 1452 1445 1445 1445 1445 1445 1439 1439 1433 1433 1433 1433 1433 1433 1433 1433 1433 1433 1433 1427 1427 1427 1427 1427 1427 1427 1427 1427 1427 1427 1427 1427 1421 1421 1421 1421 1421 1421 1410 1410 1404 1404 1398 1392 1392 1387 1387 1387 1387 1387 1392 1392 1398 1398 1404 1410 1410 1415 1421 1421 1421 2065 2065 2065 2065 2065 2053 2053 2053 2053 2053 2053 2053 2053 2053 2053 2065 2065 2053 2053 2053 2078 2090 2129 2129 2143 2143 2143 2143 2129 2103 2103 2103 2090 2090 2090 2090 2090 2090 2103 2103 2116 2116 2129 2129 2143 2129 2129 2129 2129 2116 2116 2103 2103 2116 2116 2116 2129 2090 2090 2103 2103 2103 2103 2103 2103 2103 2116 2116 2116 2116 2116 2116 2103 2103 2103 2103 2103 2103 2103 2103 2103 2103 2103 2116 2116 2129 2129 2143 2129 2129 2129 2129 2116 2116 2103 2078 2078 2103 2090 2090 2090 2090 2090 2078 2078 2078 2301 2301 2301 2301 2301 2301 2301 2301 2301 2301 2301 2286 2286 2286 2286 2286 2271 2271 2286 2286 2271 2256 2256 2271 2271 2271 2271 2271 2271 2271 2116 2116 2116 2103 2103 2116 3120 3092 3092 3092 3092 3092 3092 3092 3092 3092 3092 3092 3092 3092 3092 3092 3092 3092 3092 3092 3092 3120 3120 3120 3120 3120 3120 3120 3149 3149 3149 3149 3178 3178 3178 3178 3149 3149 3120 3092 3092 3064 3037 3010 3010 3010 3010 3010 3010 3010 3010 3010 3010 3037 2170 2170 2170 2170 2170 2170 2170 2170 2170 2170 2170 2170 2170 2156 2156 2156 2156 2156 2156 2156 2156 2156 2156 2156 2156 2143 2143 2156 2156 2156 2143 2143 2143 2143 2129 2116 2116 2116 2116 2116 2103 2103 2103 2103 2103 2103 2103 2103 2103 2103 2103 2103 2103 2103 2103 2103 2103 2103 2103 2090 2090 2090 2090 2090 2090 2090 4582 4522 4522 4522 4522 4522 4522 2053 2053 2053 2053 2053 2040 2040 2040 2040 2040 2040 2028 2028 0 0 0 0 0 0 0 0 5734 5734 5832 5832 5832 0 0 0 0 0 0 0 0 6038 6038 6038 6146 6038 6038 6146 6146 6146 6146 6146 6146 6146 6146 6038 5832 5832 5832 5832 5832 5734 5734 5734 5734 5734 5734 5734 5734 5734 5734 5832 5933 6038 6038 6038 5933 5933 5933 6038 0 0 0 5640 5640 5548 5460 5460 5548 5548 5548 5640 5734 5734 6038 6038 6146 6146 6038 6038 6038 6038 6038 5832 5734 5734 5734 5734 5734 5734 5734 5640 5640 5640 5640 5640 5640 5640 5734 5734 5734 0 0 0 0 0 0 0 0 4463 4405 4405 4405 4405 4405 4405 4295 4295 4295 4295 4241 4241 4241 4241 4241 4241 4190 4190 4190 4139 4139 4139 4089 4089 4041 4041 4041 3994 3994 3994 3994 3994 3994 3994 3948 3948 3948 3948 3948 3903 3903 3903 3948 3994 3994 0 0 0 0 0 0 0 0 0 0 0 0 0 0 0 0 0 0 0 0
0 0 0 0 0 0 0 0 0 0 0 0 0 0 0 0 0 0 0 0 0 0 0 0 0 0 0 0 0 0 0 0 3010 3010 3010 3010 3010 3037 3037 3037 3064 3064 3064 3092 3092 3092 3092 3120 3120 3149 3149 3149 3149 3178 3178 3178 3178 3178 0 3178 0 0 0 0 0 0 0 0 0 0 0 0 0 0 0 1496 1496 1496 1503 1496 1496 1496 1503 1503 1503 1503 1503 1503 1503 1503 1503 1503 1496 1496 1489 1489 1483 1483 1477 1477 1477 1477 1470 1470 1464 1464 1464 1464 1458 1458 1458 1458 1458 1458 1458 1458 1458 1452 1452 1452 1452 1452 1452 1452 1445 1445 1445 1445 1445 1439 1439 1439 1439 1433 1433 1433 1433 1433 1433 1433 1433 1427 1427 1427 1427 1427 1427 1427 1427 1427 1427 1427 1427 1427 1421 1421 1421 1421 1421 1421 1410 1410 1404 1404 1398 1392 1392 1387 1387 1387 1387 1392 1392 1398 1398 1404 1404 1410 1415 1415 1421 1421 1421 2065 2065 2053 2053 2053 2053 2040 2040 2028 2028 2040 2040 2040 2040 2040 2053 2053 2053 2053 2053 2065 2078 2129 2129 2143 2143 1273 1273 1273 1273 1278 1283 1283 1283 1288 1288 1283 1283 2078 2090 2090 2090 2103 2129 2129 2129 2116 2103 2103 2090 2090 2078 2078 2090 2090 2090 2090 2090 2090 2090 2078 2078 2090 2090 2090 2103 2103 2090 2090 2090 2090 2090 2078 2078 2078 2078 2078 2078 2078 2090 2078 2078 2090 2090 2103 2116 2116 2129 2129 2116 2116 2116 2116 2116 2103 2078 2078 2103 2090 2090 2090 2090 2090 2078 2078 2078 2078 2078 2301 2301 2301 2301 2301 2301 2103 2090 2090 2286 2286 2286 2286 2286 2271 2271 2286 2286 2078 2078 2256 2271 2271 2271 2271 2271 2271 2271 2116 2090 2090 2103 2103 2116 3120 3120 3092 3092 3092 3092 3092 3092 3092 3092 3092 3092 3092 3092 3092 3092 3092 3092 3092 3092 3092 3120 3120 3120 3120 3120 3120 3120 3120 3120 3149 3149 3178 3178 3178 3178 3149 3120 3120 3092 3092 3064 3037 3037 3010 3010 3010 3010 3010 3010 3010 3010 3010 2156 2156 2170 2170 2170 2170 2170 2170 2170 2170 2170 2170 2170 2170 2156 2156 2156 2156 2156 2156 2156 2156 2156 2156 2156 2156 2143 2143 2156 2156 2156 2143 2143 2156 2143 2129 2129 2116 2116 2116 2116 2103 2103 2103 2103 2103 2103 2103 2103 2103 2103 2103 2103 2103 2103 2103 2103 2103 2090 2090 2090 2090 2090 2090 2090 2090 2090 2090 2090 2090 4582 2090 2090 2065 2053 2053 2053 2053 2053 2040 2040 2040 2040 2040 2040 2028 2028 0 0 0 0 0 0 0 0 5734 5734 5832 5832 5832 0 0 0 0 0 0 0 0 0 6497 6146 6146 6038 6038 6146 6146 6038 6038 6038 6146 6146 6146 6038 5832 5832 5832 5832 5832 5734 5734 5640 5640 5640 5640 5640 5640 5734 5734 5832 6038 6038 5933 5933 5933 5933 5933 6038 0 0 0 5640 5640 5548 5460 5460 5548 5548 5548 5640 5734 5832 6038 6038 6038 0 0 0 0 0 0 5832 5734 5734 5734 5734 5734 5734 5734 5640 5640 5640 5640 5640 5640 5640 5640 5640 5734 5734 5734 0 0 0 0 0 0 4463 4463 4463 4463 4405 4405 4405 4349 4295 4295 4295 4295 4295 4241 4241 4241 4241 4190 4190 4190 4139 4139 4139 4089 4089 4041 4041 4041 4041 4041 3994 3994 3994 3994 3994 3948 3948 3948 3948 3948 3903 3903 3903 3948 3994 3994 0 0 0 0 0 0 0 0 0 0 0 0 0 0 0 0 0 0 0 0
0 0 0 0 0 0 0 0 0 0 0 0 0 0 0 0 0 0 0 0 0 0 0 0 0 0 0 0 0 0 0 0 3010 3010 3010 3010 3010 3037 3037 3037 3064 3064 3064 3092 3092 3092 3092 3120 3120 3149 3149 3149 3178 3178 3178 3178 3178 0 3178 0 0 0 0 4582 4582 4645 0 0 0 0 0 0 0 0 1483 1483 1496 1496 1503 1503 1503 1503 1503 1503 1503 1503 1503 1503 1503 1503 1503 1503 1503 1496 1496 1489 1483 1483 1483 1477 1477 1477 1477 1470 1470 1470 1464 1464 1464 1464 1464 1464 1464 1464 1458 1458 1458 1452 1452 1452 1452 1452 1452 1452 1452 1452 1452 1445 1445 1439 1439 1439 1439 1439 1439 1439 1439 1433 1433 1433 1433 1433 1433 1433 1433 1433 1427 1427 1427 1427 1427 1427 1427 1427 1421 1421 1421 1421 1421 1421 1410 1410 1404 1404 1398 1398 1392 1387 1387 1387 1392 1392 1392 1398 1398 1404 1404 1410 1415 1415 1421 1421 1421 2053 2053 2053 2053 2053 2040 2028 2016 2016 2016 2016 2016 2016 2016 2016 2040 2040 2040 2040 2040 2053 2065 2065 2065 1273 1273 1273 1273 1273 1273 1278 1283 1283 1283 1288 1288 1283 1283 1283 1283 1283 1288 2090 2103 2129 2116 2103 2090 2040 2040 2040 2040 2040 2040 2040 2040 2040 2053 2065 2065 2065 2053 2053 2065 2065 2053 2053 2053 2078 2078 2065 2065 2065 2065 2053 2053 2053 2065 2065 2065 2078 2078 2078 2078 2090 2103 2103 2116 2116 2116 2116 2116 2116 2103 2103 2078 2078 2078 2078 2090 2090 2090 2090 2078 2078 2078 2078 2078 2065 2065 2078 2090 2090 2078 2078 2090 2090 2078 2078 2065 2065 2065 2078 2271 2090 2078 2078 2078 2078 2078 2065 2078 2078 2103 2103 2103 2103 2090 2090 2103 2103 2116 2116 2116 3092 3092 3092 3092 3092 3092 3092 3092 3092 3092 3092 3092 3092 3092 3092 3092 3092 3092 3092 3120 3120 3120 3120 3120 3120 3120 3120 3120 3120 3149 3178 3178 3178 3178 3149 3120 3092 3092 3064 3064 3037 3037 3010 3010 3010 3010 3010 3010 3010 3010 3010 2156 2156 2170 2170 2170 2170 2170 2170 2170 2170 2170 2170 2170 2170 2156 2156 2156 2156 2156 2156 2156 2156 2156 2156 2156 2156 2156 2156 2156 2156 2156 2156 2156 2156 2143 2129 2129 2129 2116 2116 2116 2116 2103 2103 2103 2103 2103 2103 2103 2103 2103 2103 2103 2103 2103 2103 2103 2103 2090 2090 2090 2090 2090 2090 2090 2090 2090 2090 2090 2090 2090 2090 2090 2065 2065 2053 2053 2053 2053 2053 2053 2053 2053 2040 2040 2028 2028 0 0 0 0 0 0 0 0 5734 5734 5832 5832 5832 0 0 0 0 0 0 0 0 0 6497 6259 6259 6038 6038 6038 6038 5933 5933 5933 5933 5933 5832 5832 5832 5832 5832 5832 5832 5734 5734 5640 5640 5640 5640 5640 5640 5640 5734 5832 5933 5933 5933 5933 5933 0 0 0 0 0 0 0 5640 5548 5548 5640 5640 5640 5640 5640 5734 5832 6038 6038 6038 0 0 0 0 0 0 5734 5734 5734 5734 5734 5734 5734 5734 5640 5640 5640 5640 5640 5640 5640 5640 5640 5734 5734 5734 5832 0 0 0 0 0 4463 4463 4463 4463 4463 4463 4463 4349 4349 4349 4295 4295 4295 4241 4241 4241 4241 4190 4190 4190 4139 4139 4139 4089 4089 4041 4041 4041 4041 4041 3994 3994 3994 3994 3948 3903 3903 3903 3903 3948 3948 3948 3948 3948 3994 3948 3948 0 0 0 0 0 0 0 0 0 0 0 0 0 0 0 0 0 0 0
0 0 0 0 0 0 0 0 0 0 0 0 0 0 0 0 0 0 0 0 0 0 0 0 0 0 0 0 0 0 0 0 3010 3010 3010 3010 3037 3037 3064 3064 3064 3064 3064 3092 3092 3092 3092 3120 3120 3149 3149 3149 3149 3178 3178 3208 3208 3208 0 0 4582 4582 4582 4582 4582 4645 4645 0 0 0 0 0 0 0 1464 1464 1483 1496 1503 1503 1503 1503 1503 1503 1503 1503 1503 1503 1503 1503 1503 1503 1503 1503 1496 1496 1489 1483 1483 1483 1477 1477 1477 1477 1470 1470 1470 1464 1464 1464 1464 1464 1464 1458 1458 1458 1458 1458 1458 1458 1452 1452 1452 1452 1452 1452 1452 1445 1445 1445 1445 1445 1445 1439 1439 1439 1439 1433 1433 1433 1433 1433 1433 1433 1433 1433 1427 1427 1427 1427 1427 1427 1427 1427 1421 1421 1421 1421 1421 1421 1410 1410 1410 1404 1398 1398 1392 1392 1392 1392 1392 1392 1398 1398 1398 1404 1404 1410 1415 1415 1421 1421 1421 1421 2053 2053 2053 2040 2040 2028 2016 2016 2016 2005 2005 2005 2005 2005 2005 2005 2016 2028 2028 2040 2040 2040 1273 1273 1273 1273 1273 1273 1273 1278 1278 1283 1283 1283 1283 1283 1283 1283 1283 1283 1288 1292 1292 2129 2116 2103 2090 2028 2028 2028 2028 2028 2028 2028 2028 2028 2040 2053 2053 2040 2040 2040 2040 2040 2028 2028 2028 2028 2040 2028 2028 2028 2028 2028 2028 2028 2028 2040 2040 2040 2053 2053 2065 2065 2078 2078 2078 2090 2090 2090 2090 2090 2078 2078 2078 2078 2078 2078 2078 2078 2078 2078 2078 2078 2078 2078 2078 2065 2065 2065 2078 2078 2078 2078 2078 2078 2078 2065 2065 2065 2065 2078 2078 2078 2078 2078 2078 2078 2065 2065 2078 2078 2078 2103 2103 2103 2078 2078 2090 2090 2103 2103 2090 2090 3092 3092 3092 3092 3064 3064 3092 3092 3092 3092 3092 3092 3092 3092 3092 3092 3092 3092 3120 3120 3120 3120 3120 3120 3120 3120 3120 3120 3149 3178 3178 3178 3178 3149 3120 3092 3092 3064 3064 3037 3037 3010 3010 3010 3010 3010 3010 3010 3010 2156 2156 2156 2170 2170 2170 2170 2170 2170 2170 2170 2170 2170 2170 2170 2170 2156 2156 2156 2156 2156 2156 2156 2156 2156 2156 2156 2156 2156 2156 2156 2156 2156 2156 2156 2156 2143 2129 2129 2129 2129 2116 2116 2103 2103 2103 2103 2103 2103 2103 2103 2103 2116 2103 2103 2103 2103 2103 2103 2090 2090 2090 2090 2090 2090 2090 2090 2090 2090 2090 2090 2090 2090 2078 2065 2065 2065 2053 2053 2053 2053 2053 2053 2053 2040 2040 2040 0 0 0 0 0 0 0 0 0 0 5832 5832 5734 5734 0 0 0 0 0 0 0 0 0 6259 6259 6146 6038 6038 6038 6038 5933 5933 5933 5933 5548 5832 5832 5832 5734 5734 5734 5832 5734 5640 5640 5548 5548 5548 5640 5640 5640 5734 5832 5933 5933 6038 5933 5933 0 0 0 0 0 0 0 0 0 5548 5548 5640 5640 5640 5640 5734 5734 5832 5832 6038 0 0 0 0 0 0 5734 5734 5734 5734 5832 5734 5734 5734 5734 5734 5640 5640 5640 5640 5640 5734 5734 5734 5734 5734 5832 0 0 0 0 4463 4463 4463 4463 4463 4463 4463 4463 4405 4405 4405 4405 4295 4295 4241 4241 4241 4241 4190 4190 4139 4139 4089 4089 4041 4041 4041 4041 4041 3994 3994 3994 3948 3948 3948 3948 3903 3903 3903 3903 3948 3948 3948 3948 3948 3994 3948 3948 0 0 0 0 0 0 0 0 0 0 0 0 0 0 0 0 0 0 0
0 0 0 0 0 0 0 0 0 0 0 0 0 0 0 0 0 0 0 0 0 0 0 0 0 0 0 0 0 0 0 0 3010 3010 3010 3010 3037 3037 3064 3064 3064 3064 3064 3064 3064 3092 3092 3120 3120 3149 3149 3149 3149 3178 3178 3208 3238 3238 0 0 4582 4582 4582 4582 4582 4582 4522 4522 4522 4522 0 0 0 0 1464 1464 1483 1496 1503 1503 1503 1503 1503 1503 1503 1503 1503 1503 1503 1503 1509 1509 1503 1503 1503 1496 1489 1483 1483 1483 1477 1477 1477 1477 1477 1470 1470 1464 1464 1464 1464 1464 1464 1458 1458 1458 1458 1458 1458 1458 1458 1458 1452 1452 1452 1452 1452 1445 1445 1445 1445 1445 1445 1439 1439 1439 1439 1433 1433 1433 1433 1433 1433 1433 1433 1433 1427 1427 1427 1427 1427 1427 1427 1427 1421 1421 1421 1421 1421 1421 1410 1410 1410 1404 1404 1404 1398 1398 1398 1398 1398 1398 1398 1398 1404 1404 1410 1410 1415 1415 1421 1421 1421 1421 1421 2053 2053 2040 2016 2016 2016 2005 2005 2005 1993 1993 1993 1993 1993 1993 1993 2005 2016 2028 2040 2040 1273 1273 1273 1273 1278 1273 1273 1278 1278 1278 1278 1278 1283 1283 1283 1283 1283 1288 1288 1292 1292 1292 1292 1292 2016 2016 2016 2016 2016 2016 2016 2016 2016 2028 2040 2040 2040 2028 2028 2028 2028 2028 2016 2016 2016 2016 2028 2016 2016 2016 2028 2016 2016 2028 2028 2028 2040 2040 2040 2040 2053 2065 2065 2065 2065 2078 2078 2078 2065 2065 2065 2053 2053 2053 2053 2040 2040 2040 2040 2040 2028 2028 2040 2040 2053 2053 2053 2053 2053 2053 2065 2065 2065 2065 2065 2065 2065 2065 2065 2065 2065 2065 2065 2065 2065 2065 2065 2065 2078 2078 2078 2078 2078 2090 2065 2065 2065 2078 2090 2090 2078 2078 2065 2065 2078 2078 2065 2065 2065 2065 2065 2065 2065 2065 3092 3092 3092 3092 3092 3092 3120 3120 3120 3120 3120 3120 3120 3120 3120 3120 3149 3178 3178 3178 3178 2065 2065 2065 3092 3092 3064 3037 3037 3037 3010 3010 3010 3010 3010 3010 2143 2143 2156 2156 2170 2170 2170 2170 2170 2170 2170 2170 2170 2170 2170 2170 2170 2156 2156 2156 2156 2156 2156 2156 2156 2156 2156 2156 2156 2156 2156 2156 2156 2156 2156 2156 2156 2143 2143 2129 2129 2129 2116 2116 2103 2103 2103 2103 2103 2103 2103 2103 2103 2116 2103 2103 2103 2103 2103 2103 2090 2090 2090 2090 2090 2090 2090 2090 2090 2090 2090 2078 2078 2078 2078 2065 2065 2053 2053 2053 2053 2053 2053 2053 2053 2040 2040 2040 0 0 0 0 0 0 0 0 0 0 5734 5734 5734 5734 5734 5548 5548 5548 5548 5460 5460 5460 5460 5460 5548 5734 5832 6038 5933 5933 5933 5933 5734 5640 5548 5548 5734 5734 5734 5640 5640 5734 5640 5640 5548 5460 5460 5548 5548 5548 5640 5640 5640 5933 5933 5933 5933 5933 0 0 0 0 0 0 0 0 0 5548 5548 5548 5548 5548 5548 5640 5640 5832 5832 0 0 0 0 0 0 0 0 0 0 5832 5832 5832 5832 5734 5734 5734 5640 5640 5640 5640 5640 5734 5734 5734 5832 5832 5734 5734 0 0 0 4463 4463 4463 4463 4463 4463 4463 4522 4405 4405 4405 4405 4295 4295 4241 4241 4241 4241 4190 4190 4139 4139 4089 4089 4041 4041 4041 4041 4041 3994 3994 3994 3948 3948 3948 3948 3903 3903 3903 3903 3948 3948 3948 3948 3948 3994 3994 0 0 0 0 0 0 0 0 0 0 0 0 0 0 0 0 0 0 0 0
0 0 0 0 0 0 0 0 0 0 0 0 0 0 0 0 0 0 0 0 0 0 0 0 0 0 0 0 0 0 0 0 3010 3010 3010 3010 3037 3037 3037 3064 3037 3037 3037 3037 3064 3092 3092 3092 3120 3149 3149 3178 3178 3178 3208 3208 3208 3269 0 4463 0 4582 4522 4522 4522 4522 4522 4522 4463 4463 4522 0 0 0 0 0 1503 1503 1503 1503 1503 1503 1503 1503 1503 1503 1509 1509 1509 1509 1509 1509 1503 1503 1503 1503 1496 1489 1483 1483 1477 1477 1477 1477 1477 1470 1470 1464 1464 1464 1464 1464 1464 1458 1458 1458 1458 1458 1458 1458 1458 1458 1458 1458 1452 1452 1452 1452 1452 1452 1445 1445 1445 1439 1439 1433 1433 1433 1433 1433 1433 1433 1433 1433 1433 1433 1433 1433 1427 1427 1427 1427 1427 1427 1427 1427 1427 1427 1427 1421 1415 1410 1410 1404 1404 1404 1398 1398 1398 1398 1398 1398 1398 1404 1404 1404 1410 1410 1415 1415 1421 1421 1421 1421 1421 1421 2016 2016 2005 2005 2005 2005 2005 2005 1993 1993 1993 1993 1981 1981 1981 1993 1993 2005 2005 2005 1273 1273 1273 1273 1278 1278 1278 1278 1278 1278 1278 1278 1283 1283 1283 1283 1283 1288 1292 1292 1292 1292 1292 1292 2016 2016 2016 2005 2005 2016 2016 2016 2016 2016 2028 2028 2028 2016 2016 2028 2028 2016 2016 2016 2016 2016 2016 1993 1993 2005 2016 2016 2016 2016 2016 2016 2028 2028 2028 2028 2028 2040 2040 2040 2065 2065 2053 2053 2053 2040 2040 2028 2028 2028 2028 2028 2028 2028 2016 2016 2016 2016 2028 2028 2028 2040 2040 2040 2040 2040 2053 2053 2053 2053 2053 2053 2053 2053 2040 2040 2040 2040 2040 2040 2040 2053 2053 2065 2065 2065 2065 2065 2065 2053 2040 2040 2040 2053 2065 2065 2065 2065 2053 2053 2065 2065 2065 2065 2065 2065 2053 2053 2053 2053 2053 2065 3092 3092 3092 3120 3120 3120 3120 3120 3120 3120 3120 3120 3120 2065 2065 2065 2065 2065 2065 2065 2065 2065 2065 2065 3064 3037 3037 3037 3010 3010 3010 3010 3010 3010 2143 2143 2156 2156 2170 2170 2170 2170 2170 2170 2170 2170 2170 2170 2170 2170 2170 2156 2156 2156 2156 2156 2156 2156 2156 2156 2156 2156 2156 2156 2156 2156 2156 2156 2156 2156 2156 2143 2143 2129 2129 2129 2129 2116 2116 2103 2103 2103 2103 2103 2103 2103 2116 2116 2103 2103 2103 2103 2103 2103 2090 2090 2090 2090 2090 2090 2090 2090 2090 2090 2078 2078 2078 2078 2078 2065 2065 2053 2053 2053 2053 2053 2053 2053 2053 2040 2040 2040 0 0 0 0 0 0 0 0 0 0 5734 5734 5640 5640 5734 5548 5548 5548 5460 5460 5460 5460 5460 5460 5548 5734 5832 6038 5832 5832 5734 5734 5640 5548 5548 5548 5548 5640 5640 5548 5548 5640 5548 5548 5548 5460 5460 5460 5548 5548 5640 5640 0 5933 5933 5933 5933 5933 0 0 0 0 0 0 0 0 5640 5548 5548 5548 5548 5548 5548 5548 5548 0 0 0 0 0 0 0 0 0 0 0 0 0 5832 5832 5734 5734 5734 5640 5640 5640 5640 5640 5640 5734 5734 5832 5832 5832 5734 5734 0 0 0 4522 4522 4463 4463 4463 4463 4522 4522 4405 4405 4405 4405 4349 4295 4241 4241 4241 4241 4190 4190 4139 4139 4089 4089 4041 4041 4041 4041 4041 4041 3994 3994 3994 3994 3994 3948 3903 3903 3903 3903 3948 3903 3903 3903 3948 3994 3948 3948 0 0 0 0 0 0 0 0 0 0 0 0 0 0 0 0 0 0 0
0 0 0 0 0 0 0 0 0 0 0 0 0 0 0 0 0 0 0 0 0 0 0 0 0 0 0 0 0 0 0 0 3010 3010 3010 3010 3010 3037 3010 3010 3037 3037 3037 3037 3064 3092 3092 3092 3120 3149 3149 3178 3178 3178 3208 3238 3269 3269 4463 4463 4463 4463 4463 4463 4522 4522 4463 4463 4463 4463 4522 0 0 0 0 0 0 1503 1503 1503 1503 1503 1503 1503 1503 1503 1509 1509 1509 1509 1509 1509 1509 1503 1503 1503 1496 1489 1483 1483 1477 1477 1477 1477 1477 1477 1470 1470 1470 1470 1464 1464 1464 1464 1464 1464 1464 1458 1458 1458 1458 1458 1458 1458 1458 1452 1452 1452 1452 1452 1452 1445 1445 1439 1439 1433 1433 1433 1433 1433 1433 1433 1433 1433 1433 1433 1433 1433 1433 1427 1427 1427 1427 1427 1427 1427 1427 1427 1427 1427 1415 1415 1415 1410 1404 1404 1398 1398 1398 1398 1398 1404 1404 1404 1404 1404 1410 1415 1415 1415 1421 1421 1421 1421 1421 1427 2016 2016 1993 1981 1981 1993 1993 1993 1981 1981 1981 1970 1970 1970 1970 1981 1981 1993 1993 0 1273 1273 1273 1273 1278 1278 1278 1278 1278 1278 1278 1278 1283 1283 1283 1283 1283 1288 1292 1292 1292 1292 1292 1292 2016 2016 2005 1993 1993 1993 1993 1993 1993 1993 1993 2005 2016 2016 2016 2016 2016 2016 2016 2005 2005 2005 1993 1981 1981 1981 1981 1981 1981 1981 2016 2016 2028 2028 2028 2028 2028 2028 2028 2028 2028 2028 2028 2028 2016 2016 2005 2005 2005 2016 2016 2005 2005 2005 2005 2005 2005 2005 2016 2028 2028 2028 2028 2028 2028 2028 2028 2028 2028 2028 2040 2040 2028 2028 2028 2028 2028 2028 2028 2028 2028 2040 2040 2040 2053 2053 2040 2040 2040 2040 2028 2028 2028 2040 2040 2040 2040 2040 2040 2040 2053 2053 2053 2053 2040 2040 2040 2040 2040 2040 2040 2053 2065 2065 2053 2040 2040 2016 2016 2016 2016 2016 2028 2040 2040 2040 2040 2040 2040 2040 2053 2040 2040 2040 2040 2053 2053 3037 3037 3037 3010 3010 3010 3010 3037 3037 2143 2143 2156 2156 2156 2170 2170 2170 2170 2170 2170 2170 2170 2170 2170 2170 2170 2156 2156 2156 2156 2156 2156 2156 2156 2156 2156 2156 2156 2156 2156 2156 2156 2156 2156 2156 2156 2143 2143 2143 2143 2143 2129 2129 2116 2116 2116 2103 2103 2103 2103 2103 2103 2116 2103 2103 2103 2103 2103 2103 2090 2090 2090 2090 2090 2090 2090 2090 2090 2078 2078 2078 2078 2078 2078 2065 2065 2053 2053 2053 2053 2053 2053 2053 2053 2053 2053 2040 2040 0 0 0 0 0 0 0 0 0 0 5734 5640 5640 5734 5548 5548 5548 5460 5460 5460 5460 5460 5460 5548 5548 5460 5734 5734 5734 5640 5640 5640 5548 5548 5548 5548 5640 5640 5548 5548 5548 5548 5548 5460 5460 5460 5460 5460 5460 5548 5548 0 0 0 0 0 0 0 0 0 0 0 0 5640 5640 5640 5548 5548 5548 5460 5460 5460 5460 5460 0 0 0 0 0 0 0 0 0 0 0 0 0 5832 5832 5734 5734 5640 5640 5640 5640 5640 5640 5640 5734 5734 5832 5933 5933 0 0 0 0 0 0 4522 4522 4463 4463 4463 4522 4522 4405 4405 4405 4405 4349 4295 4241 4241 4241 4241 4190 4190 4190 4139 4139 4139 4089 4041 4041 4041 4041 4041 3994 3994 3994 3994 3994 3948 3903 3903 3903 3903 3948 3903 3903 3903 3948 3948 3948 3903 3903 0 0 0 0 0 0 0 0 0 0 0 0 0 0 0 0 0 0
