0 0 0 0 0 0 0 0 0 0 0 0 0 0 0 0 0 0 0 0 0 0 0 0 0 0 0 0 0 0 4842 4842 4842 4842 4911 4911 4911 4911 4983 4983 5056 5056 5056 5056 5056 5056 5056 5056 5056 4983 4983 4983 8849 8849 8849 9084 9331 9331 9331 9331 9331 9331 9331 9084 9084 8849 8849 8849 8849 8849 8849 8849 8849 8849 9084 9084 8849 8849 8626 8626 8849 8626 8626 8626 8626 8626 8626 8413 8413 8413 8413 8413 8413 8413 8413 8019 8019 8212 8212 8413 8413 8626 8413 8413 8212 8212 8019 8019 8019 8019 8019 8019 8019 8019 8019 8019 8019 8019 8019 8019 8019 8019 8019 8019 8019 8019 8019 8019 8019 8212 8212 8212 8212 8212 8212 8019 8019 8019 7835 7835 8019 8019 8019 8019 8019 8212 8413 8626 8626 8849 8849 8626 8626 8413 8413 8212 8019 8019 7835 7835 7835 7835 7835 7835 7835 7835 7835 7835 7835 7835 7835 7835 7835 7835 7835 8019 8019 8212 8212 8212 8413 8212 8212 8212 8212 8413 8413 8413 8413 8413 8413 8413 8413 8413 8413 8212 8212 8019 8019 8019 8019 8019 8019 8212 8212 8212 8212 8212 5548 5548 5548 5548 5640 5640 5640 5640 5640 5640 5640 5734 5734 5734 5734 5734 5832 5832 5832 5832 5933 5933 5933 5933 5933 5933 6038 6038 6038 5933 5933 5933 5933 5933 6038 6038 0 0 0 0 0 0 5460 5460 5460 5460 5460 5374 5374 5374 5374 5374 5291 5291 5291 5291 5291 5291 5291 5374 5374 5460 5460 5460 5460 6622 6622 6622 6753 6753 6753 6889 6889 8019 8019 8019 8212 8413 8413 8413 8626 8626 8626 8626 8626 8626 8413 8413 8413 8413 8413 8626 8626 8626 8626 8413 8413 8413 8413 8413 8413 8413 8413 8212 8019 8019 5210 5210 5291 5291 5291 5291 5291 5291 5291 5210 5210 5210 5210 5210 5210 5210 5210 5210 8212 8212 8212 8212 8212 8212 8019 8019 8019 8019 8019 8212 8212 8212 8212 8212 8212 8212 8019 5832 5832 5832 5832 5832 5832 5933 5933 5933 8019 8019 8019 8212 8212 8212 8212 6146 6146 6146 8019 7835 7835 7835 8019 8019 8019 8019 8019 8019 8019 8019 8019 7835 7835 8019 8019 8019 8019 8019 8019 8019 8019 3365 3365 3365 3333 3333 3365 3365 3365 3365 3333 3333 3333 3333 3333 3333 3333 3333 3300 3269 3269 3269 3269 3269 3269 3238 3238 3238 3238 3238 3238 3238 3238 3238 3238 3238 3238 3238 3238 3238 3208 3208 3208 3208 3208 3208 3208 3178 3178 3178 3178 3178 3178 3178 3178 3178 3178 3178 3178 3178 3178 3178 3178 3178 3149 3149 3149 3149 3149 3149 3149 3149 3149 3120 3120 3120 3092 3092 3092 3092 3092 3092 3092 3092 3120 3120 3120 3149 3149 3178 3208 3208 3208 3208 3178 3178 3178 3178 3178 3178 3178 3178 3178 3178 3178 3120 3120 3092 3092 3064 3064 3064 3064 3092 3064 3064 3064 3064 3064 3064 3064 3064 3064 3092 3092 3092 3092 3903 3903 4089 4089 4089 4089 4089 4089 4089 4089 4089 4089 4089 4089 4089 4089 4089 4089 4089 4089 4089 4089 4089 4089 4089 4089 4089 4089 4089 4089 4089 4089 6146 6146 6146 6146 6146 6146 6146 6146 6146 6146 6259 6146 6146 6146 6146 6146 6146 6146 6146 6146 6146 6146 6038 6038 6038 6038 6146 6146 6146 6038 6038 6038 6038 5933 5933 6038 6038 6038 6038 6038 6146 6146 6146 6146 6146 6146 6146 6146 6146 6146 6146 6146 6146 6146 6038 6038 6146 6146 6146 6146 6146 6146 6146 6146 6146 6146 6038 6038 6146 6146 6259 6375 6375 6375 6375 6375 0 0 0 0 0 0 0 0 0 0 0 0 0
0 0 0 0 0 0 0 0 0 0 0 0 0 0 0 0 0 0 0 0 0 0 0 0 0 0 0 0 0 0 4842 4842 4842 4842 4842 4842 4842 4842 4911 4983 5056 4983 4983 4983 4983 4983 4983 4983 4983 4983 4911 4911 4911 4911 9084 9084 9331 9593 9331 9331 9331 9331 9331 9331 9331 9331 9084 8849 8849 8849 8849 8849 8849 8849 8849 8849 8849 8626 8626 8626 8849 8626 8626 8626 8626 8413 8212 8212 8212 8413 8413 8413 8413 8413 8019 8019 8019 8019 8019 8019 8212 8212 8413 8413 8212 8212 8019 8019 8019 8019 8019 8019 8019 8019 8019 8019 8019 8019 8019 8019 8019 8019 8019 8019 8019 8019 8019 8019 8019 8212 8212 8212 8212 8212 8212 8019 8019 8019 7835 7835 7835 8019 8019 8019 8019 8212 8413 8626 8626 8849 8849 8849 8626 8413 8413 8212 8019 8019 8019 7835 7835 7835 7835 8019 7835 7835 7835 7835 7835 7835 7835 7835 7835 7835 7835 8019 8019 8212 8413 8413 8413 8413 8413 8413 8413 8413 8413 8413 8413 8413 8413 8413 8413 8413 8413 8212 8212 8212 8019 8019 8019 8019 8019 8212 8212 8212 8212 8212 5640 5548 5548 5548 5640 5640 5640 5640 5640 5640 5640 5734 5734 5734 5734 5734 5734 5832 5832 5832 5933 5933 5933 5933 5933 5933 6038 6038 6038 5933 5933 5933 5933 5933 5933 5933 0 0 0 0 0 0 5460 5460 5460 5460 5374 5374 5374 5374 5374 5374 5291 5291 5291 5291 5291 5291 5291 5374 5374 5460 5374 5374 5374 6497 6497 6622 6753 6753 6753 6889 7030 7030 8019 8019 8212 8413 8413 8413 8626 8626 8626 8626 8626 8626 8413 8413 8413 8413 8413 8626 8626 8626 8626 8626 8626 8413 8413 8413 8413 8413 8212 8212 8019 8019 5210 5210 5210 5210 5210 5291 5291 5291 5291 5210 5210 5210 5210 5210 5210 5210 5210 5210 5374 5374 5460 5460 5548 8019 8019 8019 8019 8019 8019 8212 8212 8212 8212 8212 8212 5832 5832 5832 5832 5933 5832 5832 5832 5832 5832 5933 5832 5832 5933 5933 5933 5933 5933 5933 6038 6038 6038 7835 7835 7835 8019 8019 8019 8019 8019 8019 8019 8019 7835 7835 7835 8019 8019 8019 8019 8019 8019 8019 3365 3365 3365 3365 3333 3333 3365 3365 3365 3333 3333 3365 3365 3333 3333 3333 3333 3333 3300 3269 3269 3269 3269 3269 3269 3238 3238 3238 3238 3238 3208 3208 3208 3208 3238 3238 3208 3208 3238 3238 3208 3208 3208 3208 3208 3208 3208 3178 3178 3178 3178 3178 3178 3178 3178 3178 3178 3178 3178 3178 3178 3178 3178 3178 3149 3149 3149 3149 3149 3149 3149 3149 3149 3120 3092 3092 3092 3092 3092 3092 3092 3092 3092 3092 3120 3120 3120 3149 3149 3178 3208 3208 3208 3208 3208 3178 3149 3149 3178 3178 3178 3178 3178 3178 3178 3120 3120 3092 3092 3064 3064 3064 3064 3092 3092 3092 3092 3092 3092 3064 3064 3064 3064 3092 3092 3092 3092 3903 3903 4089 4089 4089 4089 4089 4089 4089 4089 4089 4089 4089 4089 4089 4089 4089 4089 4089 4089 4089 4089 4041 4041 4089 4089 4089 4089 4089 4089 4089 4089 6038 6038 6038 6146 6146 6146 6146 6146 6146 6146 6146 6146 6146 6146 6146 6146 6146 6146 6146 6146 6146 6146 6038 6038 6038 6038 6038 6146 6146 6038 6038 6038 5933 5933 5933 6038 6038 6038 6038 6038 6146 6146 6146 6146 6146 6146 6146 6146 6146 6146 6146 6146 6038 6038 6146 6146 6146 6146 6146 6146 6146 6146 6146 6146 6146 6146 6146 6146 6146 6259 6259 6375 6375 6375 6375 6375 0 0 0 0 0 0 0 0 0 0 0 0 0
0 0 0 0 0 0 0 0 0 0 0 0 0 0 0 0 0 0 0 0 0 0 0 0 0 0 0 0 0 0 4842 4774 4774 4842 4774 4774 4774 4774 4842 4842 4911 4911 4911 4911 4911 4911 4911 4911 4911 4911 4911 4911 4911 4911 4983 9084 9331 9593 9331 9331 9331 9331 9331 9593 9593 8849 8849 8849 8849 8849 8849 8849 8849 8849 8849 8849 8849 8626 8626 8626 8626 8626 8626 8626 8626 8413 8212 8212 8212 8212 8212 8212 8212 8212 8019 8019 8019 8019 8019 8019 8019 8019 8212 8212 8212 8212 8019 8019 8019 8019 8019 8019 7835 7835 7835 7835 7835 7835 8019 8019 8019 8019 8019 8019 8019 8019 8019 8019 8019 8212 8212 8212 8212 8212 8212 8019 8019 8019 7835 7835 7835 8019 8019 8019 8019 8212 8413 8626 8849 8849 8849 8849 8626 8413 8413 8212 8019 8019 8019 7835 7835 7835 8019 8019 7835 7835 7835 7835 7835 7835 7835 7835 7835 7835 8019 8019 8212 8413 8413 8413 8413 8413 8413 8413 8413 8413 8413 8413 8626 8626 8626 8413 8413 8413 8413 8212 8212 8019 8019 8019 8212 8019 8019 8212 8212 8212 8212 8212 5640 5640 5640 5640 5640 5640 5640 5640 5640 5640 5640 5640 5640 5640 5734 5734 5734 5832 5832 5832 5933 5933 5933 5933 5933 5933 6038 6038 6038 5933 5933 5933 5933 5933 5933 5933 6038 0 0 0 0 0 5460 5374 5374 5374 5374 5374 5374 5374 5374 5374 5291 5291 5291 5291 5291 5291 5291 5374 5374 5460 5374 5374 5374 6497 6497 6622 6622 6753 6753 6889 7030 7030 8212 8212 8212 8413 8413 8413 8413 8626 8626 8626 8626 8626 8626 8626 8413 8413 8626 8626 8626 8626 8626 8626 8626 8413 8413 8413 8413 8413 8212 8212 8019 8019 5210 5210 5210 5210 5210 5210 5291 5291 5291 5210 5210 5210 5210 5210 5210 5291 5291 5291 5374 5374 5460 5460 5548 5548 8019 8019 8019 8019 8019 8212 8212 8212 8212 8212 5832 5832 5832 5832 5832 5933 5832 5832 5832 5832 5832 5933 5832 5832 5933 5933 5933 5933 5933 5933 6038 6038 6038 7835 7835 7835 7835 7835 7835 7835 8019 8019 8019 8019 7835 7835 7835 8019 8019 7835 7835 8019 8019 8019 3333 3333 3333 3333 3333 3333 3333 3333 3333 3333 3333 3333 3365 3333 3333 3333 3333 3300 3300 3269 3269 3238 3238 3269 3238 3238 3238 3238 3238 3238 3208 3208 3208 3208 3208 3208 3208 3208 3208 3208 3208 3208 3208 3208 3208 3208 3208 3178 3178 3178 3178 3178 3178 3178 3178 3178 3178 3178 3178 3178 3178 3178 3178 3178 3149 3149 3149 3149 3149 3149 3149 3149 3149 3120 3092 3092 3092 3092 3092 3092 3092 3092 3092 3092 3120 3120 3149 3149 3149 3178 3178 3178 3178 3178 3149 3149 3149 3149 3178 3178 3178 3208 3208 3208 3208 3208 3149 3092 3092 3064 3064 3064 3092 3092 3092 3120 3120 3092 3092 3092 3092 3064 3064 3092 3092 3092 3120 3120 4089 4089 4089 4089 4089 4089 4089 4089 4089 4089 4089 4089 4089 4089 4089 4089 4089 4089 4089 4089 4089 4041 4041 4089 4089 4089 4089 4089 4089 4089 6038 6038 6038 6038 6146 6146 6146 6146 6038 6038 6038 6038 6038 6038 6038 6146 6146 6146 6146 6038 6038 6038 6038 6038 6038 6038 6038 6038 6038 6038 5933 5933 5933 5933 5933 5933 6038 6038 6038 6038 6038 6038 6038 6146 6146 6146 6146 6146 6146 6146 6146 6038 6038 6038 6038 6038 6038 6038 6146 6146 6146 6146 6146 6146 6146 6146 6259 6259 6259 6259 6259 6259 6259 6259 6375 6375 6375 0 0 0 0 0 0 0 0 0 0 0 0 0
0 0 0 0 0 0 0 0 0 0 0 0 0 0 0 0 0 0 0 0 0 0 0 0 0 0 0 0 0 0 4774 4774 4774 4774 4774 4774 4774 4774 4774 4842 4842 4842 4842 4842 4911 4911 4911 4911 4911 4911 4911 4911 4983 4983 4983 5056 5056 5056 5056 9593 9331 9331 9593 9593 4842 4842 4983 8849 8849 8849 8849 9084 8849 8849 8626 8626 8626 8413 8413 8212 8212 8626 8849 8626 8626 8413 8413 8212 8212 8212 8212 8019 8019 8019 8019 7835 7835 8019 8019 8019 8019 8019 8212 8212 8019 8019 8019 8019 8019 8019 8019 7835 7492 7492 7492 7660 7660 7835 7835 8019 8019 8019 8019 8019 8019 7835 7835 8019 8019 8212 8212 8212 8212 8212 8212 8019 8019 8019 8019 8212 8212 8413 8019 8019 8019 8413 8626 8626 8849 8849 9084 8849 8849 8413 8413 8019 8019 8019 8019 8019 8019 8019 8019 8019 7835 7835 7835 7835 7835 7835 7835 7835 7835 7835 8019 8019 8212 8413 8413 8413 8413 8413 8413 8413 8413 8413 8413 8413 8626 8626 8626 8413 8413 8413 8413 8212 8212 8019 8019 8019 8212 8019 8019 8212 8212 8212 8212 8212 5640 5640 5640 5640 5640 5734 5640 5640 5640 5734 5734 5640 5640 5640 5734 5734 5734 5734 5832 5832 5933 5832 5832 5832 5933 5933 5933 6038 6038 5933 5933 5933 5933 5933 5933 5933 5933 0 0 0 0 0 5548 5374 5374 5374 5374 5374 5374 5374 5374 5374 5291 5291 5291 5374 5374 5374 5374 5374 5460 5460 5374 5374 6497 6497 6497 6622 6622 6622 6753 6889 7030 8019 8019 8212 8413 8413 8413 8413 8413 8626 8626 8626 8849 8626 8626 8626 8626 8626 8626 8626 8626 8626 8626 8626 8626 8413 8413 8413 8413 8212 8212 8212 8212 5210 5210 5210 5210 5210 5210 5210 5291 5291 5291 5210 5210 5210 5210 5210 5210 5210 5291 5291 5374 5460 5460 5460 5548 5548 5548 8019 8019 8019 8019 8212 8212 8212 8212 5832 5832 5832 5933 5933 5933 5933 5933 5832 5832 5832 5832 5933 5933 5933 5933 5933 5933 5933 5933 5933 5933 5933 7835 7835 7660 7660 7835 7835 7835 7835 7835 7835 8019 7835 7835 7835 7835 7835 7835 7835 7835 8019 8019 3300 3300 3333 3333 3333 3333 3333 3333 3333 3333 3333 3333 3333 3333 3300 3300 3300 3300 3269 3269 3269 3238 3238 3238 3238 3238 3208 3208 3208 3208 3238 3208 3208 3208 3208 3208 3208 3208 3208 3208 3208 3208 3208 3208 3208 3208 3208 3208 3178 3178 3178 3178 3178 3178 3178 3178 3178 3208 3208 3178 3178 3178 3178 3178 3178 3149 3149 3149 3149 3149 3149 3149 3120 3120 3120 3120 3120 3092 3092 3092 3092 3092 3092 3092 3092 3092 3120 3149 3178 3178 3178 3178 3178 3178 3149 3149 3149 3149 3178 3178 3178 3208 3208 3208 3208 3208 3149 3149 3092 3064 3064 3064 3064 3092 3092 3092 3120 3120 3120 3064 3064 3092 3064 3064 3092 3092 3120 3120 3120 4139 4089 4089 4089 4089 4089 4089 4089 4089 4089 4089 4089 4089 4089 4089 4089 4089 4089 4089 4041 4041 4041 4041 4089 4089 4089 4089 4089 4089 4139 6038 6038 6038 6038 6038 6038 6038 6038 6038 6038 6038 6038 6038 6038 6038 6038 6146 6146 6038 6038 6038 6038 6038 5933 5933 5933 5933 5933 5933 6038 5933 5933 5933 5933 5933 5933 6038 6038 6038 6038 6038 6038 6038 6146 6146 6146 6146 6038 6038 6038 6038 6038 6038 6038 6038 6038 6038 6038 6038 6038 6146 6038 6038 6146 6146 6146 6146 6146 6146 6146 6259 6259 6259 6259 6259 6259 6375 0 0 0 0 0 0 0 0 0 0 0 0 0
0 0 0 0 0 0 0 0 0 0 0 0 0 0 0 0 0 0 0 0 0 0 0 0 0 0 0 0 0 0 4708 4708 4708 4774 4774 4774 4708 4708 4774 4774 4774 4842 4842 4842 4842 4911 4842 4842 4911 4911 4911 4911 4911 4983 4983 5056 5056 5056 5056 5056 5056 4983 4983 4983 4842 4842 4983 4983 4983 4983 8849 9084 8849 8849 8626 8626 8626 8413 8413 8212 8212 0 0 0 0 0 0 0 8212 8212 8212 8019 8019 8019 8019 7835 7835 8019 8019 8019 8019 8019 8212 8212 8019 8019 8019 8019 8019 8019 8019 7835 7492 7492 7492 7660 7660 7835 7835 7835 8019 8019 7835 7835 7835 7835 7835 8019 8019 8212 8413 8212 8019 8019 8212 8019 8019 8019 8019 8212 8212 8413 8413 8413 8413 8413 8626 8626 8849 8849 9084 8849 8849 8413 8413 8019 8019 8019 8019 8019 8019 8019 8019 8019 7835 7835 7835 7835 7835 7835 7835 7835 7835 7835 8019 8019 8212 8413 8413 8413 8413 8413 8413 8413 8413 8413 8413 8626 8626 8626 8626 8626 8413 8413 8413 8212 8212 8212 8212 8212 8212 8019 8019 8212 8212 8212 8212 8212 5640 5640 5640 5640 5640 5640 5640 5734 5734 5734 5734 5640 5640 5640 5734 5734 5734 5734 5832 5832 5832 5832 5832 5832 5933 5933 5933 6038 6038 5933 5933 5933 5933 5933 5933 5933 5933 6038 0 0 0 0 0 5374 5374 5374 5374 5374 5374 5374 5374 5374 5374 5374 5374 5374 5374 5374 5374 5374 5460 5460 5374 5374 6497 6497 6497 6622 6622 6622 6753 6889 7030 8019 8019 8212 8413 8413 8413 8413 8626 8626 8626 8626 8626 8626 8626 8626 8626 8626 8626 8626 8626 8626 8626 8626 8626 8413 8413 8413 8413 8212 8212 8212 8212 5210 5210 5210 5210 5210 5291 5291 5291 5291 5291 5210 5210 5210 5210 5210 5210 5210 5291 5291 5374 5460 5460 5460 5460 5460 5548 8019 8019 8019 8019 8212 8212 8212 5832 5832 5832 5933 5933 5933 5933 5933 5933 5933 5933 5933 5933 5933 5933 5933 6038 6038 6038 6038 6038 6038 6146 0 7835 7835 7660 7660 7835 7835 7835 7835 7835 7835 7835 7835 7835 7835 7835 7835 7835 7835 7835 7835 3300 3300 3300 3300 3300 3333 3333 3333 3333 3333 3333 3333 3333 3333 3300 3269 3269 3300 3238 3238 3238 3238 3208 3208 3208 3208 3208 3208 3208 3208 3208 3208 3208 3208 3208 3208 3208 3208 3178 3178 3178 3178 3178 3178 3208 3208 3178 3178 3178 3178 3178 3178 3178 3208 3208 3208 3208 3208 3208 3208 3208 3178 3178 3178 3178 3178 3149 3149 3149 3120 3120 3149 3120 3120 3120 3120 3120 3120 3092 3092 3092 3092 3092 3092 3092 3092 3092 3092 3149 3178 3178 3178 3178 3178 3149 3149 3149 3149 3149 3178 3178 3178 3178 3178 3208 3208 3208 3149 3149 3092 3064 3064 3064 3064 3092 3092 3092 3120 3120 3120 3064 3064 3092 3092 3092 3092 3092 3120 3149 3149 4139 4089 4089 4089 4089 4089 4089 4089 4089 4089 4089 4089 4089 4089 4089 4089 4089 4089 4089 4041 4041 4041 4041 4089 4089 4089 4089 4089 4139 4139 6038 5933 5933 5933 6038 6038 6038 6038 5933 5933 5933 6038 5933 5933 5933 6038 6038 6038 6038 6038 5933 5933 5933 5933 5933 5933 5933 5832 5832 5933 5933 5933 5933 5933 5933 5933 6038 6038 6038 6038 6038 6038 6038 6146 6146 6146 6146 6038 6038 6038 5933 5933 6038 6038 6038 6038 6038 6038 6038 6038 6146 6038 6038 6038 6038 6146 6146 6146 6146 6146 6146 6259 6259 6259 6259 6259 6375 0 0 0 0 0 0 0 0 0 0 0 0 0
0 0 0 0 0 0 0 0 0 0 0 0 0 0 0 0 0 0 0 0 0 0 0 0 0 0 0 0 0 0 4708 4708 4708 4708 4708 4708 4708 4708 4708 4708 4774 4774 4774 4842 4842 4842 4842 4842 4911 4911 4911 4911 4911 4983 4983 4983 4983 4983 4983 4983 5056 4983 4983 4983 4983 4983 4983 4983 4983 4983 4983 5056 8849 8849 8849 0 0 0 0 0 0 0 0 0 0 0 0 0 0 0 8019 8019 8019 8019 8019 7835 7835 8019 8019 8019 8019 8019 8212 8212 8019 8019 8019 7835 7835 8019 8019 7835 7835 0 0 0 0 7835 7835 7835 7835 7835 7835 7835 7835 7835 7835 7835 8019 8019 8413 8212 8019 8019 8212 8019 8019 8019 8019 8212 8413 8413 8413 8413 8413 8413 8626 8626 8849 8849 9084 8849 8626 8626 8413 8019 8019 8019 8019 8019 7835 7835 8019 8019 7835 7835 7835 7835 7835 7835 7835 7835 7835 7835 8019 8019 8413 8626 8626 8626 8626 8626 8413 8413 8413 8413 8413 8626 8626 8626 8626 8413 8413 8413 8413 8212 8212 8212 8212 8212 8212 8019 8019 8212 8212 8212 8212 8212 8413 5640 5640 5640 5640 5640 5640 5640 5734 5734 5734 5640 5640 5640 5734 5734 5734 5734 5832 5832 5832 5933 5832 5832 5933 5933 5933 6038 6038 5933 5933 5933 5933 5933 5933 5933 6038 6038 0 0 0 0 0 5374 5374 5374 5374 5374 5374 5374 5374 5374 5374 5374 5374 5460 5460 5460 5460 5460 5460 5460 5460 6375 6497 6622 6622 6622 6622 6753 6753 6889 7030 8019 8019 8212 8413 8413 8413 8413 8626 8626 8626 8626 8626 8626 8626 8626 8626 8626 8626 8626 8626 8626 8626 8626 8626 8626 8626 8413 8413 8212 8212 8212 5210 5210 5210 5210 5210 5210 5210 5210 5291 5291 5291 5210 5210 5210 5210 5210 5210 5291 5291 5374 5374 5460 5460 5460 5460 5460 5548 8019 8019 8019 8019 8212 8212 8212 5832 5832 5832 5933 5933 5933 5933 5933 5933 5933 5933 5933 5933 5933 6038 6038 6038 6146 6146 6038 6038 6146 6146 0 7660 7660 7660 7660 3365 3365 3365 7835 7835 7835 7835 7835 7835 7835 7835 3269 3238 3238 3238 3238 3238 3238 3238 3238 3238 3269 3300 3300 3300 3300 3300 3300 3300 3269 3238 3238 3238 3238 3238 3238 3238 3208 3208 3208 3208 3208 3178 3178 3208 3208 3208 3208 3208 3208 3208 3178 3178 3178 3149 3120 3120 3120 3149 3149 3208 3208 3178 3178 3178 3178 3178 3178 3178 3178 3208 3178 3178 3178 3178 3178 3178 3178 3178 3178 3149 3149 3149 3120 3120 3120 3120 3120 3120 3120 3120 3120 3120 3120 3120 3092 3092 3092 3092 3092 3092 3092 3092 3092 3149 3149 3149 3178 3149 3149 3149 3120 3120 3120 3120 3149 3149 3178 3178 3178 3208 3178 3178 3149 3120 3092 3092 3092 3064 3064 3120 3092 3092 3092 3092 3064 3064 3064 3092 3092 3092 3092 3120 3149 3149 3149 4089 4089 4089 4089 4089 4089 4089 4089 4089 4089 4089 4089 4089 4089 4089 4089 4089 4089 4089 4089 4089 4089 4089 4089 4089 4089 4089 4089 4190 5933 5933 5933 5933 5933 6038 6038 6038 5933 5933 5933 5933 5933 5933 5933 5933 6038 6038 6038 5933 5933 5933 5933 5933 5832 5832 5832 5832 5832 5832 5933 5933 5832 5832 5832 5933 5933 5933 5933 5933 6038 6038 6038 6038 6146 6146 6146 6146 6038 5933 5933 5933 5933 5933 5933 5933 5933 5933 5933 5933 6038 6038 6038 6038 6038 6038 6146 6146 6146 6146 6146 6146 6146 6146 6259 6146 6146 6259 0 0 0 0 0 0 0 0 0 0 0 0 0
0 0 0 0 0 0 0 0 0 0 0 0 0 0 0 0 0 0 0 0 0 0 0 0 0 0 0 0 0 0 4645 4645 4645 4645 4645 4645 4645 4645 4708 4708 4708 4774 4774 4774 4842 4842 4842 4842 4911 4911 4911 4911 4911 4911 4983 4911 4911 4983 4983 4983 4983 4983 4983 4983 4983 5056 4983 4983 4983 4911 4911 5056 8849 8849 0 0 0 0 0 0 0 0 0 0 0 0 0 0 0 0 0 0 6146 6146 5832 5832 0 0 5832 5933 6038 6038 8019 8019 8019 8019 8019 7835 7835 7835 0 7835 0 0 0 0 0 7835 7835 7835 7835 7835 7835 7660 7660 7835 7835 7835 8019 8019 8413 8212 8019 8019 8212 8019 8019 8019 8019 8212 8413 8413 8413 8413 8413 8626 8626 8626 8849 8849 8849 8849 8626 8626 8212 8019 7835 7835 7835 8019 7835 7835 8019 7835 7835 7835 7835 7835 7835 7835 7835 7835 7835 7835 8019 8019 8212 8626 8626 8626 8626 8626 8413 8413 8413 8413 8413 8626 8626 8626 8413 8413 8413 8413 8212 8212 8212 8212 8212 8212 8212 8212 8212 8212 8212 8212 8212 8212 8413 5640 5640 5640 5640 5640 5640 5640 5734 5734 5640 5640 5640 5640 5640 5734 5734 5734 5832 5832 5832 5933 5832 5832 5933 5933 5933 6038 6038 5933 5933 5933 5933 5933 5933 5933 6038 6038 0 0 0 0 0 5374 5374 5374 5374 5374 5374 5374 5374 5460 5460 5460 5460 5460 5460 5460 5460 5460 5460 5460 5460 6375 6497 6622 6622 6622 6622 6753 6753 7030 7030 8019 8019 8212 8413 8413 8413 8413 8626 8626 8626 8626 8626 8626 8626 8626 8849 8626 8626 8849 8849 8849 8849 8626 8626 8626 8626 8626 8413 8212 8212 5210 5210 5210 5210 5210 5210 5210 5210 5210 5291 5291 5291 5291 5210 5210 5210 5210 5210 5291 5291 5374 5374 5460 5460 5460 5460 5460 5548 8019 8019 8019 8212 8212 8212 5933 5832 5832 5832 5933 5933 5933 5933 5933 5933 5933 5933 5933 5933 5933 6038 6038 6146 6146 6146 6146 6146 6146 6146 3269 3269 3365 3365 3365 3365 3365 3365 7835 3365 3365 3333 3333 3300 3300 3269 3238 3238 3238 3238 3238 3238 3238 3238 3238 3238 3269 3269 3269 3300 3269 3269 3238 3238 3238 3208 3208 3208 3208 3208 3238 3238 3208 3208 3208 3208 3178 3178 3178 3178 3178 3178 3178 3178 3178 3178 3149 3149 3120 3092 3092 3092 3092 3092 3120 3178 3178 3178 3178 3178 3178 3178 3178 3178 3178 3178 3178 3178 3149 3149 3149 3178 3178 3178 3149 3149 3149 3120 3092 3092 3092 3092 3120 3092 3092 3092 3120 3120 3120 3092 3092 3092 3092 3092 3092 3092 3092 3092 3120 3120 3149 3149 3149 3120 3120 3120 3092 3092 3092 3092 3120 3149 3149 3149 3178 3178 3149 3149 3064 3064 3064 3037 3037 3064 3064 3064 3064 3092 3064 3064 3037 3037 3037 3037 3064 3064 3092 3092 3120 3120 3149 4089 4089 4089 4089 4089 4089 4089 4089 4089 4089 4089 4089 4089 4089 4089 4089 4089 4089 4089 4089 4089 4089 4089 4089 4089 4089 4089 4190 4190 5933 5933 5933 5832 5832 5933 5933 5933 5832 5832 5832 5832 5832 5832 5832 5832 5832 5832 5832 5832 5832 5832 5832 5832 5832 5832 5832 5734 5734 5734 5832 5832 5734 5734 5832 5832 5933 5933 5933 5933 5933 6038 6038 6038 6038 6038 6038 6038 5933 5933 5933 5832 5832 5933 5933 5933 5933 5832 5832 5933 6038 6038 6038 6038 6038 6038 6038 6038 6146 6146 6146 6146 6146 6146 6146 6038 6038 6038 0 0 0 0 0 0 0 0 0 0 0 0 0
0 0 0 0 0 0 0 0 0 0 0 0 0 0 0 0 0 0 0 0 0 0 0 0 0 0 0 0 0 0 4645 4645 4645 4645 4645 4645 4645 4645 4708 4708 4708 4708 4708 4774 4842 4842 4842 4842 4842 4842 4842 4911 4911 4911 4911 4911 4911 4911 4911 4911 4983 4983 4983 4983 4983 4983 4983 4983 4983 4911 4911 8849 9593 0 0 0 0 0 0 0 0 0 0 0 0 0 0 6146 6146 6146 6146 6146 6146 0 0 0 0 0 0 0 0 6038 0 6038 6038 6038 6038 5933 5933 0 0 0 0 0 0 0 0 0 0 5734 5734 7660 7660 7660 7660 7660 7835 7835 7835 7835 7835 5734 5734 8019 8019 8019 8019 8019 8019 8019 8413 8413 8413 8413 8413 8626 8626 8849 8849 8849 8849 8849 8626 8626 8212 8019 7835 7835 7835 8019 7835 7835 7835 7835 7835 7835 7835 7835 7835 7835 7835 7835 7835 7835 8019 8019 8212 8626 8626 8626 8626 8626 8626 8413 8413 8413 8413 8626 8626 8626 8413 8413 8413 8413 8212 8212 8212 8212 8212 8212 8212 8212 8212 8212 8212 8212 8212 8212 8212 8413 5640 5640 5640 5640 5640 5734 5734 5734 5640 5640 5640 5640 5640 5734 5734 5734 5734 5832 5832 5832 5933 5933 5933 5933 5933 6038 6038 5933 5933 5933 5933 5933 5933 6038 6038 6038 6038 6038 6038 0 5374 5374 5374 5460 5460 5460 5460 5460 5460 5460 5460 5460 5460 5460 5460 5460 5460 5460 5460 5460 5460 6497 6497 6497 6497 6497 6622 6622 6753 7030 7030 8212 8212 8413 8413 8413 8413 8413 8413 8626 8626 8626 8626 8626 8626 8626 8849 8849 8849 8849 8626 8626 8626 8626 8626 8626 8849 8626 8626 8413 5210 5210 5210 5210 5210 5210 5210 5210 5210 5291 5291 5291 5291 5291 5291 5291 5291 5291 5291 5374 5374 5374 5374 5460 5460 5460 5548 5548 5548 8212 8212 8212 8212 8212 5933 5933 5933 5832 5832 5933 5933 5933 5933 5933 5933 5933 5933 5933 5933 5933 6038 6038 6146 6146 6259 6259 6259 6259 3269 3269 3269 3300 3365 3365 3365 3365 3365 3365 3365 3365 3333 3333 3300 3300 3269 3238 3238 3238 3238 3238 3238 3238 3238 3238 3238 3238 3238 3238 3238 3238 3238 3238 3208 3208 3208 3208 3208 3208 3208 3178 3178 3149 3149 3149 3149 3149 3120 3120 3120 3149 3149 3149 3149 3120 3120 3092 3092 3064 3064 3064 3064 3064 3064 3064 3064 3092 3092 3178 3149 3149 3149 3149 3149 3149 3149 3149 3149 3149 3120 3120 3120 3120 3120 3092 3092 3092 3064 3064 3064 3064 3064 3092 3064 3064 3064 3092 3092 3092 3092 3092 3092 3092 3064 3064 3064 3092 3092 3092 3092 3092 3092 3064 3064 3064 3037 3037 3064 3064 3037 3037 3092 3092 3092 3120 3149 3092 3064 3064 3010 3010 3010 3037 3037 3064 3064 3064 3064 3064 3064 3037 3037 3037 3037 3037 3037 3064 3064 3064 3092 3092 3064 3064 4089 4089 4089 4089 4089 4089 4089 4089 4089 4089 4089 4089 4089 4089 4089 4089 4089 4089 4089 4089 4089 4089 4089 4089 4089 4190 4241 5832 5832 5832 5832 5832 5933 5933 5933 5832 5832 5832 5832 5832 5832 5832 5832 5832 5832 5734 5734 5734 5734 5734 5734 5734 5734 5734 5734 5734 5734 5734 5734 5640 5640 5734 5832 5734 5734 5832 5933 5933 6038 6038 6038 6038 6038 6038 6038 5933 5933 5734 5734 5734 5933 5832 5832 5832 5832 5832 5933 5933 5933 5933 5933 6038 6038 6038 6038 6038 6146 6146 6146 6038 6038 6038 6038 6038 6038 0 0 0 0 0 0 0 0 0 0 0 0 0
0 0 0 0 0 0 0 0 0 0 0 0 0 0 0 0 0 0 0 0 0 0 0 0 0 0 0 0 0 0 4645 4645 4645 4645 4645 4645 4645 4645 4645 4708 4708 4708 4708 4774 4774 4842 4842 4842 4842 4842 4842 4911 4911 4911 4911 4911 4911 4911 4911 4911 4983 4983 4983 4983 4983 4983 4983 4983 4983 4983 4983 0 0 0 0 0 0 0 0 0 0 0 0 0 0 0 6146 6146 6146 6146 6146 6146 6146 6146 5832 5832 0 0 5832 5933 5933 6038 6038 6038 6038 6038 0 0 0 0 0 0 0 0 0 0 5734 5734 5734 5734 5734 5734 0 5832 5832 6038 6038 5832 5832 0 0 0 5734 5734 5734 8019 8019 8019 8019 8019 8212 8413 8019 8019 8212 8626 8626 8626 8849 8849 8849 8626 8626 8413 8019 8019 7835 7835 7835 7835 7835 7835 7835 7835 7835 7835 7835 7835 7835 7835 7835 7835 7835 8019 8019 8019 8413 8626 8626 8626 8626 8849 8626 8626 8626 8626 8626 8626 8626 8626 8413 8413 8413 8413 8212 8212 8212 8212 8212 8212 8212 8212 8212 8212 8212 8212 8212 8212 8212 8413 5548 5548 5640 5640 5640 5734 5734 5734 5734 5734 5640 5640 5734 5734 5734 5734 5734 5832 5832 5832 5933 5933 5933 5933 5933 6038 6038 5933 5933 5933 5933 5933 5933 6038 6038 6038 6038 6038 0 5548 5548 5460 5460 5460 5460 5460 5460 5460 5460 5548 5460 5460 5460 5460 5460 5460 5460 5460 5460 5460 5548 6497 6497 6497 6497 6497 6622 6622 6753 7030 7030 8212 8212 8212 8413 8413 8413 8413 8413 8413 8626 8626 8626 8626 8626 8626 8849 8849 8849 8626 8626 8626 8626 8626 8626 8626 8626 8849 8626 5210 5210 5210 5210 5210 5210 5210 5210 5210 5291 5291 5291 5291 5291 5291 5291 5291 5374 5374 5374 5374 5374 5460 5460 5460 5460 5460 5548 5548 5548 8212 8212 8212 8212 5933 5933 5933 5933 5933 5933 5933 5933 5933 5933 5933 5933 5933 5933 5933 5933 6038 6038 6146 6259 6259 6259 6259 6259 6259 3269 3269 3269 3300 3333 3365 3365 3365 3365 3365 3365 3365 3333 3333 3300 3300 3269 3269 3238 3238 3238 3238 3238 3238 3238 3238 3238 3238 3238 3238 3238 3238 3208 3208 3208 3208 3208 3208 3208 3178 3178 3178 3178 3149 3149 3149 3149 3149 3120 3120 3120 3120 3120 3120 3120 3092 3092 3092 3092 3064 3064 3064 3064 3064 3064 3064 3064 3092 3092 3092 3149 3149 3120 3120 3120 3120 3120 3092 3092 3092 3092 3092 3120 3092 3092 3064 3064 3064 3037 3037 3037 3037 3037 3064 3064 3064 3064 3092 3092 3092 3092 3092 3092 3092 3037 3037 3064 3064 3064 3064 3064 3064 3092 3037 3037 3037 3037 3037 3037 3037 3037 3037 3037 3037 3064 3092 3092 3010 3010 3037 3010 2984 2984 2984 3010 3037 3037 3037 3037 3037 3037 3037 3037 3037 3037 3037 3037 3064 3064 3064 3064 3064 3064 3064 3064 4089 4089 4089 4089 4089 4089 4089 4089 4089 4041 4041 4089 4089 4089 4089 4089 4089 4089 4089 4089 4139 4139 4190 4190 4190 4241 5734 5734 5734 5734 5734 5832 5832 5832 5832 5832 5832 5832 5832 5832 5832 5832 5832 5832 5734 5734 5734 5734 5734 5734 5734 5734 5734 5734 5734 5734 5734 5734 5640 5640 5734 5734 5734 5734 5832 5933 5933 5933 6038 6038 6146 6038 6038 5933 5933 5832 5734 5734 5734 5832 5734 5734 5734 5832 5832 5832 5832 5832 5832 5933 5933 5933 5933 5933 6038 6038 5933 5933 5933 5933 5933 5933 6038 6038 0 0 0 0 0 0 0 0 0 0 0 0 0
0 0 0 0 0 0 0 0 0 0 0 0 0 0 0 0 0 0 0 0 0 0 0 0 0 0 0 0 0 0 4645 4645 4645 4645 4645 4645 4645 4645 4645 4708 4708 4708 4708 4774 4774 4842 4842 4842 4842 4842 4842 4911 4911 4911 4911 4911 4911 4911 4911 4911 4911 4911 4911 4983 4983 4983 4911 4911 4911 4911 8849 0 0 0 0 0 0 0 0 0 0 0 0 0 0 6259 6146 6146 6146 6146 6146 6146 6146 6146 5832 5832 5832 5832 5832 5933 5933 6038 6038 6038 6038 6038 6038 5933 5933 0 0 0 0 0 0 5734 5734 5734 5734 5734 5734 5734 5734 5832 5832 6038 0 5832 5832 5832 5734 5734 5734 5734 5734 5734 5933 5933 8212 8212 8212 8413 8019 8019 8212 8626 8626 8626 8626 8849 8849 8626 8626 8413 8019 8019 7835 7835 7835 7835 7835 7835 7835 7835 7835 7835 7835 8019 8019 7835 7835 8019 8019 8212 8212 8212 8413 8626 8626 8626 8626 8849 8626 8626 8626 8626 8626 8626 8626 8626 8413 8413 8413 8413 8212 8019 8019 8019 8019 8019 8019 8019 8212 8212 8212 8212 8212 8212 8212 8212 5548 5548 5640 5640 5640 5640 5734 5734 5734 5734 5734 5734 5734 5734 5734 5734 5734 5734 5832 5832 5933 5933 5933 5933 5933 6038 6038 5933 5933 5933 5933 5933 5933 5933 6038 6038 6038 6038 0 5548 5548 5460 5460 5460 5460 5460 5460 5460 5460 5460 5460 5460 5460 5460 5460 5460 5460 5460 5460 5460 5548 6497 6497 6622 6622 6622 6622 6753 6753 6889 7030 8212 8212 8212 8413 8413 8413 8413 8413 8413 8413 8626 8626 8626 8626 8626 8849 8849 8849 8626 8626 8626 8626 8626 8626 8626 8626 8849 8849 5210 5210 5210 5210 5210 5210 5210 5210 5210 5291 5291 5291 5291 5291 5291 5291 5291 5374 5374 5374 5374 5374 5460 5460 5460 5460 5460 5548 5548 5548 8212 8212 8212 5832 5832 5933 5933 5933 5933 5933 5933 5933 5933 5933 5933 5933 5933 5933 6038 6038 6038 6146 6146 6259 6259 6259 6259 6375 6375 3269 3269 3269 3300 3333 3365 3365 3365 3365 3365 3365 3365 3333 3333 3333 3300 3269 3269 3269 3269 3238 3238 3238 3238 3238 3238 3238 3238 3238 3238 3208 3208 3208 3208 3208 3208 3178 3178 3178 3178 3178 3178 3178 3149 3149 3149 3149 3120 3120 3120 3120 3120 3092 3092 3092 3092 3092 3064 3064 3064 3064 3037 3037 3064 3064 3064 3064 3064 3092 3092 3120 3120 3120 3092 3092 3092 3064 3064 3064 3064 3092 3092 3092 3092 3064 3037 3037 3037 3037 3037 3037 3037 3037 3037 3037 3037 3037 3064 3064 3064 3064 3064 3092 3064 3037 3037 3064 3064 3064 3037 3037 3037 3037 3037 3037 3010 3010 3010 3010 3010 3010 3010 3010 3010 3037 3064 3064 3010 3010 3037 3037 2984 2984 2984 3010 3037 3037 3037 3037 3037 3037 3037 3037 3037 3037 3037 3037 3064 3064 3064 3064 3064 3064 3064 3064 3064 4089 4089 4089 4139 4139 4190 4089 4089 4041 4041 4041 4089 4089 4089 4089 4089 4089 4089 4139 4139 4139 4241 4241 4241 4241 5734 5734 5734 5734 5734 5832 5832 5832 5734 5734 5734 5832 5832 5832 5832 5832 5832 5832 5734 5734 5734 5734 5734 5734 5734 5734 5734 5734 5734 5734 5734 5734 5640 5640 5640 5734 5734 5734 5832 5933 5933 5933 6038 6038 6146 6038 6038 5933 5933 5832 5640 5640 5640 5832 5734 5734 5734 5832 5832 5832 5832 5832 5832 5933 5933 5933 5933 5933 6038 6038 5933 5933 5933 5933 5933 5933 5933 6038 0 0 0 0 0 0 0 0 0 0 0 0 0
0 0 0 0 0 0 0 0 0 0 0 0 0 0 0 0 0 0 0 0 0 0 0 0 0 0 0 0 0 0 4582 4582 4645 4645 4645 4645 4645 4645 4645 4708 4708 4708 4708 4774 4774 4842 4774 4774 4842 4842 4842 4842 4842 4911 4911 4911 4911 4911 4911 4911 4911 4911 4911 4983 4983 4983 4911 4911 4911 4842 4842 0 0 0 0 0 0 0 0 0 0 0 0 0 6375 6259 6146 6146 6146 6146 6146 6038 5933 5933 5832 5832 5832 5832 5832 5933 5933 6038 6038 6038 6038 6038 6038 5933 5933 5933 5933 5832 5832 5832 0 5734 5734 5734 5734 5734 5734 5734 5734 5832 5832 6038 6038 5832 5832 5832 5734 5734 5734 5734 5734 5832 5933 5933 5933 5832 5832 5832 5832 5832 8626 8626 8626 8626 8626 8849 8849 8626 8626 8626 5933 5933 5933 5933 5933 5832 5832 5832 7835 7835 7835 7835 8019 8019 8019 7835 7835 7835 8019 8212 8212 8212 8413 8626 8626 8849 8849 8849 3692 3816 3816 3816 3816 3859 8849 8626 8413 8413 8413 8212 7835 7835 7835 8019 8019 8019 8019 8019 8212 8212 8212 8212 8212 8212 8212 8212 8212 5640 5640 5640 5640 5640 5734 5734 5734 5734 5734 5734 5734 5734 5734 5734 5734 5734 5832 5832 5933 5933 5933 5933 5933 6038 6038 5933 5933 5933 5933 5933 5933 5933 5933 5933 5933 6038 6038 5548 5548 5548 5548 5548 5548 5548 5460 5460 5460 5460 5460 5460 5460 5460 5460 5460 5460 5460 5460 5460 5460 6497 6497 6622 6622 6622 6622 6753 6753 6889 7178 8212 8212 8212 8212 8413 8413 8413 8413 8413 8413 8413 8626 8626 8626 8626 8849 8849 8849 8849 8849 8626 8626 8626 8626 8626 8849 8849 5291 5291 5210 5210 5210 5210 5210 5210 5210 5210 5210 5291 5291 5291 5291 5291 5291 5291 5374 5374 5374 5374 5460 5460 5460 5460 5460 5460 5548 5548 5548 8212 8212 8413 5832 5832 5832 5832 5933 5933 5933 5933 5933 5933 5933 5933 5933 5933 5933 6038 6038 6146 6146 6146 6259 6259 6259 6259 6375 6375 7835 3269 3269 3333 3365 3399 3399 3365 3365 3365 3365 3365 3333 3333 8019 3300 3269 3269 3269 3269 3269 3238 3238 3238 3238 3238 3238 3238 3238 3238 3208 3208 3208 3208 3208 3178 3178 3178 3178 3178 3178 3178 3178 3120 3120 3120 3120 3120 3120 3120 3120 3120 3092 3092 3092 3092 3092 3064 3064 3064 3064 3037 3037 3064 3064 3064 3064 3064 3092 3092 3120 3092 3092 3092 3092 3064 3064 3037 3037 3064 3064 3064 3064 3064 3064 3037 3037 3037 3010 3010 3010 3010 3010 3037 3010 3010 3010 3037 3037 3037 3064 3064 3064 3064 3010 3010 3037 3037 3037 3037 3037 3037 3037 3037 3010 3010 3010 3010 3010 3010 3010 3010 3010 3010 3010 3010 3064 3010 3010 3010 3010 2984 2984 2984 2984 2984 2984 3010 3010 3010 3010 3010 3010 3010 3010 3037 3037 3037 3037 3037 3037 3037 3037 3037 3064 3064 3064 4089 4089 4139 4139 4139 4089 4089 4089 4041 4041 4089 4089 4089 4089 4089 4089 4089 4139 4139 4139 4190 4241 4241 5734 5734 5734 5734 5734 5734 5832 5832 5832 5734 5734 5734 5832 5832 5734 5734 5734 5734 5832 5734 5734 5734 5734 5734 5734 5734 5734 5734 5734 5734 5734 5734 5734 5640 5640 5640 5734 5734 5734 5832 5933 5933 5933 6038 6038 6146 6038 5933 5933 5933 5832 5640 5640 5640 5832 5832 5832 5832 5832 5832 5832 5832 5832 5933 5933 5933 5933 5933 5933 5933 6038 5933 5933 5933 5933 5933 5933 5933 5933 0 0 0 0 0 0 0 0 0 0 0 0 0
0 0 0 0 0 0 0 0 0 0 0 0 0 0 0 0 0 0 0 0 0 0 0 0 0 0 0 0 0 0 4582 4582 4582 4582 4645 4645 4645 4645 4645 4708 4708 4708 4708 4774 4774 4842 4774 4774 4842 4842 4842 4842 4842 4842 4911 4911 4911 4911 4911 4911 4911 4911 4983 4983 4983 4983 4911 4911 4911 4842 4842 0 0 0 0 0 0 0 0 0 0 0 0 0 6375 6259 6259 6259 6146 6038 6038 5933 5933 5933 5933 5933 5933 5933 5933 5933 6038 6146 6146 6146 6146 6038 6038 5933 5933 5933 5832 5832 5832 5832 5832 5734 5734 5734 5734 5734 5734 5734 5734 5832 5832 5832 5832 5832 3092 3092 5734 5734 5734 5734 5734 5832 5832 5832 5832 5832 5832 5832 5832 5832 5832 5832 5933 5933 5832 5832 5832 5734 5734 5734 5933 5933 5933 5933 5933 5832 5832 5832 6038 6038 6038 6038 6146 6146 6146 6146 3692 3653 3576 3576 3539 3503 3503 8626 8849 8849 9084 0 3692 3692 3692 3774 3653 3653 3692 3692 8413 8413 6753 6753 6753 7030 7492 7835 7835 7835 8019 8019 8212 8212 8212 8413 8413 8212 8212 8212 8212 5640 5640 5640 5640 5640 5640 5640 5640 5734 5734 5734 5734 5734 5734 5734 5734 5832 5832 5832 5933 5933 5933 5933 5933 6038 6038 5933 5933 5933 5933 5933 5933 5933 5933 5933 5933 5933 5640 5640 5548 5548 5548 5548 5548 5548 5460 5460 5460 5460 5460 5460 5374 5374 5460 5460 5460 5460 5460 5460 5548 6622 6622 6622 6622 6622 6622 6622 6753 6889 7178 8212 8212 8212 8212 8413 8413 8413 8413 8413 8413 8413 8626 8626 8626 8626 8849 8849 8849 8626 8626 8626 8626 8626 8626 8626 8626 8626 5210 5210 5210 5210 5210 5210 5210 5210 5210 5210 5210 5210 5291 5291 5291 5291 5291 5291 5374 5374 5374 5460 5460 5460 5460 5460 5460 5548 5548 5548 8413 8413 8413 8413 5832 5832 5832 5832 5832 5933 5933 5933 5933 5933 5933 5933 5933 5933 5933 6038 6038 6146 6146 6259 6259 6259 6259 6259 6259 6259 7835 7835 7835 8019 8019 8019 8019 8019 8019 8019 8019 8019 8019 8019 8019 8019 3269 3269 3269 3269 3269 3269 3269 3269 3269 3269 3238 3238 3238 3238 3208 3208 3208 3208 3208 3178 3178 3178 3208 3178 3178 3178 3178 3120 3120 3120 3120 3120 3120 3092 3092 3092 3092 3092 3092 3092 3092 3064 3064 3064 3064 3037 3037 3064 3064 3064 3064 3064 3064 3092 3092 3092 3092 3064 3064 3064 3037 3037 3037 3037 3037 3037 3037 3037 3037 3037 3010 3010 3010 3010 3010 3010 3010 3010 2984 2984 3010 3010 3010 3010 3010 3037 3037 3037 3010 3010 3037 3037 3010 3010 3010 3010 3010 3010 3010 3010 2984 2984 2984 2984 2984 2984 2984 2984 3010 2984 2984 3010 3010 3010 2984 2984 2984 2984 2984 2984 2984 3010 3010 3010 3010 3010 3010 3010 3010 3037 3037 3037 3037 3037 3037 3037 3037 3037 3064 3064 3064 3064 3064 4139 4139 4139 4139 4089 4089 4089 4089 4089 4089 4089 4089 4089 4089 4089 4139 4139 4139 4190 4241 5734 5734 5734 5734 5734 5832 5832 5832 5832 5734 5734 5734 5734 5734 5832 5734 5734 5734 5734 5734 5734 5734 5734 5734 5734 5734 5734 5734 5734 5734 5734 5734 5734 5734 5640 5640 5640 5734 5734 5734 5832 5933 5933 6038 6038 6038 6146 6038 5933 5933 5933 5832 5734 5734 5734 5832 5832 5832 5832 5832 5832 5832 5832 5832 5832 5933 5933 5933 5933 5933 5933 6038 5933 5933 5933 5933 5933 5933 5933 5933 0 0 0 0 0 0 0 0 0 0 0 0 0
0 0 0 0 0 0 0 0 0 0 0 0 0 0 0 0 0 0 0 0 0 0 0 0 0 0 0 0 0 0 4582 4582 4582 4582 4645 4645 4645 4645 4645 4708 4708 4708 4708 4774 4774 4774 4774 4774 4842 4842 4842 4842 4842 4842 4911 4911 4911 4911 4911 4911 4911 4911 4911 4911 4911 4983 4911 4911 4911 4911 0 0 0 0 0 0 0 0 0 0 0 0 0 0 6375 6375 6259 6146 6038 6038 5933 5933 5933 5933 5933 5933 5933 5933 5933 6038 6038 6038 6038 6146 6146 6038 6038 5933 5933 5933 5832 5832 5832 5832 5832 5832 5832 5734 5734 5832 5832 5832 5832 5832 5832 5832 3064 3064 3064 3092 3092 5734 5734 5734 5734 5832 5832 5832 5832 5832 5832 5832 5832 5832 5832 5832 5933 5933 5832 5832 5832 5832 5734 5734 5734 5933 5933 5933 5933 5832 5832 5832 6038 6038 6038 6038 6038 6146 6146 6146 3692 3614 3576 3576 3539 3503 3503 8626 8849 9084 9084 3576 3653 3653 3653 3653 3653 3653 3692 3692 3692 6753 6753 6753 6753 6889 7332 7660 7835 7835 8019 8019 8212 8212 8413 8413 8413 8413 8212 8212 5640 5640 5640 5640 5640 5640 5640 5640 5640 5640 5734 5734 5734 5734 5734 5734 5832 5832 5832 5832 5933 5933 5933 5933 5933 5933 5933 5933 5933 5933 5933 5933 5933 5933 5933 5933 5933 5933 5640 5640 5640 5548 5548 5548 5548 5548 5460 5460 5460 5460 5460 5460 5374 5374 5460 5460 5460 5460 5460 5460 5548 6497 6497 6497 6497 6497 6497 6622 6622 6622 7178 8212 8212 8212 8212 8413 8413 8413 8413 8413 8413 8626 8626 8626 8626 8626 8626 8626 8849 8626 8626 8626 8626 8626 8626 8626 8626 5210 5210 5210 5210 5210 5210 5210 5210 5210 5210 5210 5210 5210 5291 5291 5291 5291 5291 5291 5374 5374 5374 5460 5460 5460 5460 5548 5548 5548 5548 5640 8413 8413 8413 5832 5832 5832 5832 5832 5832 5933 5933 5933 5933 5933 5933 5933 5933 5933 6038 6038 6146 6146 6146 6146 6146 6259 6259 6259 6259 6259 7835 7835 8019 8019 8019 8019 8019 8019 8019 8019 8019 8019 8019 8019 8019 8019 8019 3269 3269 3269 3269 3269 3269 3269 3269 3269 3269 3269 3238 3238 3238 3238 3208 3208 3208 3208 3208 3208 3208 3208 3208 3178 3178 3149 3120 3120 3092 3092 3092 3092 3092 3092 3092 3092 3092 3092 3092 3064 3064 3064 3064 3064 3064 3064 3064 3064 3064 3064 3064 3092 3092 3092 3092 3064 3064 3064 3037 3037 3037 3037 3037 3010 3010 3010 3010 3010 3010 3010 3010 3010 3010 3010 3010 2984 2984 2984 2984 2984 2984 2984 3010 3010 3037 3037 3010 3010 2984 2984 2984 2984 2984 3010 3010 3010 3010 2984 2984 2984 2984 2984 2984 2984 2984 2984 2984 2984 2984 3010 3010 2984 2984 2984 2984 2984 2984 3010 3010 3010 3010 3010 3010 3010 3010 3010 3010 3010 3010 3037 3037 3037 3037 3037 3037 3037 3064 3064 3064 3064 3064 3092 3092 3120 4089 4089 4089 4089 4089 4089 4089 4089 4089 4089 4089 4139 4139 4139 4139 4190 4190 5734 5734 5734 5734 5734 5832 5832 5832 5832 5734 5734 5734 5734 5734 5832 5734 5734 5734 5734 5734 5734 5734 5734 5734 5734 5734 5734 5734 5734 5734 5734 5734 5734 5734 5640 5640 5640 5734 5734 5734 5832 5933 5933 6038 6038 6038 6146 6038 5933 5933 5933 5933 5734 5734 5832 5933 5832 5832 5832 5832 5832 5832 5832 5832 5832 5933 5933 5933 5933 6038 6038 6038 5933 5933 5933 5933 5933 5933 5933 5933 0 0 0 0 0 0 0 0 0 0 0 0 0
0 0 0 0 0 0 0 0 0 0 0 0 0 0 0 0 0 0 0 0 0 0 0 0 0 0 0 0 0 0 4582 4582 4582 4582 4582 4645 4645 4645 4645 4708 4708 4708 4708 4774 4774 4774 4774 4774 4842 4842 4842 4842 4842 4842 4911 4911 4911 4911 4911 4911 4911 4911 4911 4911 4911 4983 4911 4911 4911 0 0 0 0 0 0 0 0 0 0 0 0 0 0 0 6375 6375 6146 6146 6038 6038 5933 5933 5933 5933 5933 5933 5933 5933 5933 6038 6038 6038 6038 6146 6146 6146 6038 5933 5933 5933 5832 5832 5832 5832 5832 5832 5832 5832 5832 5832 5832 5832 5832 3064 3064 3064 3064 3064 3064 3092 3092 5734 5832 5832 5832 5832 5832 5933 5933 5933 5933 5832 5832 5832 5832 5832 5933 5933 5832 5832 5832 5832 5734 5734 5734 5832 5734 5734 6038 6038 5832 5832 6038 6038 5933 5933 5933 6038 6038 3468 3468 3614 3576 3576 3539 3503 3503 3539 3539 3576 3576 3576 3614 3614 3653 3653 3653 3653 3692 3692 3692 6753 6622 6622 6622 6753 7030 7660 7835 7835 8019 8019 8212 8212 8212 8212 8212 8212 8212 8212 5640 5640 5640 5640 5640 5640 5640 5640 5640 5640 5640 5734 5734 5734 5734 5734 5832 5832 5832 5832 5832 5832 5933 5933 5933 5933 5933 5933 5933 5832 5832 5832 5933 5933 5933 5933 5933 5933 5640 5640 5640 5548 5548 5460 5460 5460 5460 5374 5374 5374 5374 5374 5374 5374 5374 5374 5374 5374 5460 5548 5640 6497 6497 6497 6497 6497 6497 6622 6622 6622 8212 8413 8212 8212 8212 8413 8212 8212 8413 8413 8413 8626 8626 8626 8626 8626 8626 8626 8849 8849 8849 8626 8626 8626 8626 8626 8626 5210 5210 5210 5210 5210 5210 5210 5210 5210 5210 5210 5210 5210 5291 5291 5291 5291 5291 5291 5374 5374 5374 5460 5460 5460 5460 5548 5548 5548 5548 8626 8626 8413 8413 5832 5832 5832 5832 5832 5832 5933 5933 5933 5933 5933 5933 5933 5933 5933 6038 6038 6146 6146 6146 6146 6146 6146 6146 6146 6146 8019 8019 8019 8019 8019 8019 8019 8019 8019 8019 8019 8019 8019 8019 8019 8019 8019 8019 8019 8019 3269 3269 3300 3300 3300 3300 3300 3300 3269 3269 3269 3269 3238 3238 3238 3208 3208 3208 3208 3238 3208 3208 3178 3178 3178 3120 3120 3092 3092 3092 3092 3092 3092 3092 3092 3092 3092 3092 3092 3064 3064 3064 3064 3064 3064 3064 3064 3064 3064 3092 3092 3092 3092 3092 3064 3064 3064 3037 3037 3010 3010 3010 3010 3010 3010 3010 3010 2984 2984 2984 2984 3010 2984 2984 2984 2984 2984 2984 2984 2984 2984 2984 3010 3010 3010 3010 2984 2984 2984 2984 2984 2984 3010 3010 3010 3010 2984 2984 2984 2984 2984 2984 2984 3010 3010 2984 2984 2984 3010 3010 2984 2984 2984 2984 2984 2984 3010 3010 3010 3010 3010 3010 3010 3010 3037 3037 3010 3010 3010 3037 3037 3037 3037 3037 3037 3064 3064 3064 3064 3092 3092 3092 3120 3120 3149 3149 4089 4089 4089 4089 4089 4089 4089 4089 4139 4139 4139 4139 4139 4190 5832 5832 5832 5832 5832 5832 5832 5832 5832 5832 5832 5832 5832 5832 5832 5734 5734 5734 5734 5832 5734 5734 5734 5734 5734 5734 5734 5734 5734 5734 5734 5734 5734 5734 5640 5640 5734 5734 5734 5832 5832 5933 6038 6038 6038 6038 6146 6038 5933 5933 5933 5933 5832 5832 5832 5933 5933 5933 5933 5832 5832 5832 5832 5832 5832 5933 5933 5933 5933 6038 6038 6038 5933 5933 5933 5933 5933 5933 5933 5933 0 0 0 0 0 0 0 0 0 0 0 0 0
0 0 0 0 0 0 0 0 0 0 0 0 0 0 0 0 0 0 0 0 0 0 0 0 0 0 0 0 0 0 4582 4582 4582 4582 4582 4645 4645 4645 4645 4645 4645 4708 4708 4708 4774 4774 4774 4774 4842 4842 4842 4842 4842 4911 4911 4911 4911 4911 4911 4911 4911 4911 4983 4983 4983 4983 4911 4911 4911 4911 0 0 0 0 0 0 0 0 0 0 0 0 0 0 6375 6375 6146 6038 5933 5933 5933 5933 5933 5933 5933 5933 6038 6038 6038 6038 6038 6146 6146 6146 6146 6146 6038 5933 5933 5933 5832 5832 5832 5832 5832 5832 5832 5832 5832 5832 5832 5933 3037 3037 3064 3064 3064 3064 3092 3149 3149 3178 3149 3149 5832 5832 5832 5832 5933 5933 5933 5832 5832 5832 5832 5832 5933 5933 5832 5832 5832 5832 5734 5734 5832 5734 5734 5734 6038 6038 5933 5933 6038 3365 3333 3333 3399 3399 3433 3433 3468 3468 3503 3503 3503 3539 3539 3539 3539 3576 3576 3576 3614 3614 3614 3653 3653 3653 3653 3653 3692 6622 6622 6622 6622 6622 6753 7660 7835 7835 7835 7835 8019 8019 8212 8212 8212 8212 8212 8212 5640 5548 5548 5640 5640 5640 5640 5640 5640 5640 5640 5734 5734 5734 5734 5734 5832 5832 5832 5832 5832 5832 5933 5933 5933 5933 5933 5933 5933 5832 5832 5832 5933 5933 5933 5933 5933 5933 5640 5640 5548 5460 5460 5460 5460 5460 5374 5374 5374 5374 5291 5291 5374 5374 5374 5374 5374 5374 5460 5548 5640 6497 6497 6497 6497 6497 6497 6622 6622 8413 8413 8413 8212 8212 8212 8212 8212 8212 8413 8413 8413 8626 8626 8626 8626 8626 8626 8626 8849 8849 8849 8626 8626 8626 8626 8626 8626 5210 5210 5210 5210 5210 5210 5210 5210 5210 5210 5210 5210 5291 5291 5291 5291 5291 5291 5291 5374 5374 5374 5460 5460 5548 5548 5548 5548 5548 5548 8413 8413 8413 5734 5734 5734 5832 5832 5832 5832 5832 5933 5933 5933 5933 5933 5933 5933 6038 6038 6038 6146 6038 6038 6146 6146 6146 6146 6146 6146 8019 8019 8019 8019 8019 8019 8019 8019 8019 8019 8019 8019 8019 8019 8019 8019 8019 8019 8212 8212 3300 3300 3300 3300 3333 3333 3333 3300 3300 3269 3269 3269 3269 3238 3238 3238 3238 3238 3238 3238 3238 3238 3208 3208 3178 3149 3149 3149 3120 3120 3092 3092 3092 3092 3092 3092 3092 3092 3092 3064 3064 3064 3064 3064 3064 3064 3064 3092 3092 3092 3120 3120 3120 3092 3092 3092 3064 3037 3037 3010 3010 3010 3010 3010 3010 3010 3010 2984 2984 2984 2984 3010 2984 2984 2984 2984 2984 2984 2984 2984 2984 2984 2984 3010 3010 3010 2984 2984 2984 2984 2984 2984 3010 3010 3010 3010 3010 3010 3010 3010 3010 3010 3010 3010 3010 2984 2984 2984 3010 3010 2984 2984 2984 2984 2984 2984 2984 2984 3010 3010 3010 3010 3010 3010 3037 3037 3037 3010 3010 3037 3037 3037 3037 3037 3037 3064 3064 3064 3064 3092 3120 3120 3120 3120 3149 3149 4089 4089 4089 4089 4089 4089 4089 4139 4139 4139 4139 4139 4139 4190 4190 5832 5832 5832 5832 5832 5832 5933 5933 5832 5832 5832 5832 5832 5832 5734 5734 5734 5734 5832 5832 5734 5734 5734 5734 5734 5734 5734 5734 5734 5734 5734 5734 5734 5640 5640 5734 5734 5734 5832 5832 5933 6038 6038 6038 6038 6146 5933 5933 5933 5933 5933 5832 5832 5832 5933 5933 5933 5933 5933 5933 5933 5933 5933 5933 6038 5933 5933 6146 6038 6038 5933 5933 5933 5933 5933 5933 5933 5933 5933 0 0 0 0 0 0 0 0 0 0 0 0 0
0 0 0 0 0 0 0 0 0 0 0 0 0 0 0 0 0 0 0 0 0 0 0 0 0 0 0 0 0 0 4582 4582 4582 4582 4582 4645 4645 4645 4645 4645 4645 4708 4708 4708 4774 4774 4774 4774 4842 4842 4842 4842 4911 4911 4911 4911 4911 4911 4911 4983 4983 4983 4983 4983 4983 4983 4911 4911 4842 4842 4842 4842 0 0 0 0 0 0 0 0 0 0 0 0 0 6375 6146 6038 5933 5933 5933 5933 5933 6146 5933 5933 6038 6038 6038 6038 6038 6146 6146 6146 6146 6146 6146 5933 5933 5832 5832 3037 3037 3037 3037 3037 3037 3037 3037 3037 3037 3037 3037 3037 3064 3092 3092 3092 3120 3149 3149 3149 3149 3149 3178 5832 5832 5832 5832 5832 5832 5933 5933 5832 5832 5832 5933 5933 5933 5933 5933 5933 5734 5734 5832 5734 3365 3365 3365 3365 3365 3365 3365 3365 3333 3333 3399 3399 3433 3433 3468 3468 3503 3503 3503 3539 3539 3539 3539 3576 3576 3576 3576 3614 3614 3614 3653 3653 3653 3653 3653 3692 6622 6622 6622 6622 6753 7030 7178 7660 7835 7835 8019 8019 8212 8212 8212 8212 8212 8212 8212 5460 5460 5548 5640 5640 5640 5640 5640 5640 5640 5734 5734 5734 5734 5734 5832 5832 5832 5832 5832 5832 5933 5933 5933 5933 5933 5933 5933 5832 5832 5832 5933 5933 5933 5933 5933 5933 5548 5548 5548 5460 5374 5374 5374 5374 5374 5374 5374 5374 5291 5291 5291 5291 5374 5374 5374 5374 5460 5548 5548 6497 6497 6497 6497 6497 6497 6622 6622 8413 8413 8413 8212 8212 8212 8212 8212 8212 8212 8212 8413 8626 8626 8626 8849 8849 8849 8626 8626 8849 8849 8626 8626 8626 8626 8626 5210 5210 5210 5210 5210 5210 5210 5210 5210 5210 5210 5210 5291 5291 5291 5291 5291 5291 5291 5291 5374 5374 5374 5460 5460 5548 5548 5548 5548 5548 5548 8413 8413 5832 5734 5734 5734 5832 5832 5832 5832 5832 5933 5933 5933 5933 5933 6038 6038 6038 6038 6038 6038 6038 6038 6146 6146 6146 6146 6146 6146 8019 8019 8019 8019 8019 8019 8019 8019 8019 8019 8019 8019 8019 8019 8019 8019 8019 8019 8019 8212 3333 3333 3333 3333 3333 3333 3333 3333 3333 3333 3333 3269 3269 3269 3269 3269 3269 3300 3300 3269 3269 3238 3238 3238 3208 3208 3178 3178 3178 3149 3149 3120 3120 3120 3120 3120 3120 3120 3092 3092 3092 3092 3092 3092 3092 3092 3092 3120 3149 3149 3149 3149 3149 3120 3092 3092 3092 3064 3037 3037 3037 3010 3010 3010 3010 3010 3010 3010 3010 3010 3010 3010 2984 2984 2984 2984 2984 2984 2984 2984 2984 2984 2984 3010 3010 3010 3010 3010 2984 2984 2984 2984 3010 3010 3010 3010 3010 3010 3010 3010 3010 3010 3010 3010 3010 3010 3010 3010 3010 3010 3010 2984 2984 2984 2984 2984 2984 2984 2984 2984 3010 2984 2984 3010 3037 3037 3037 3037 3037 3037 3037 3037 3037 3037 3064 3064 3064 3064 3092 3092 3149 3120 3120 3149 3149 3149 4089 4089 4089 4089 4089 4089 4089 4139 4139 4089 4089 4089 4089 4139 4190 5832 5933 5933 5933 5933 5933 5933 5933 5832 5832 5832 5832 5832 5832 5832 5832 5734 5734 5734 5832 5734 5734 5734 5734 5734 5734 5734 5734 5734 5734 5734 5734 5734 5640 5640 5734 5734 5734 5832 5933 6038 6038 6038 6038 6038 6146 5933 5933 5933 5933 5933 5832 5832 5933 5933 5933 5933 5933 5933 5933 5933 5933 5933 6038 6038 6038 6038 6146 6038 6038 5933 5933 5933 5933 5933 5933 6038 6038 6038 0 0 0 0 0 0 0 0 0 0 0 0 0
0 0 0 0 0 0 0 0 0 0 0 0 0 0 0 0 0 0 0 0 0 0 0 0 0 0 0 0 0 0 4582 4582 4582 4582 4582 4645 4645 4645 4645 4708 4708 4708 4708 4774 4774 4774 4774 4774 4842 4842 4911 4911 4911 4911 4911 4911 4911 4911 4911 4983 4983 4983 4983 5056 4983 4983 4911 4911 4842 4842 4842 4842 4842 4842 4842 0 0 0 0 0 0 0 0 0 0 6375 6146 6038 5933 5933 5933 6038 6038 6146 6038 6038 2984 2984 3010 3010 3037 3064 6259 6259 6259 3010 3010 3010 3010 3010 3037 3037 3037 3037 3037 3037 3037 3037 3037 3037 3037 3037 3064 3064 3064 3092 3092 3092 3120 3149 3149 3149 3149 3149 3178 5832 5832 5832 5832 5832 5832 5933 5832 5832 5832 5832 5933 5933 5933 5933 5933 6038 3399 3399 3365 3365 3365 3365 3365 3365 3365 3365 3365 3365 3365 3365 3399 3433 3433 3433 3468 3468 3503 3503 3503 3539 3539 3539 3539 3576 3576 3576 3576 3614 3614 3614 3653 3653 3653 3653 3653 3692 6622 6622 6622 6622 6753 6889 7030 7492 7660 7835 8019 8019 8019 8212 8212 8212 8212 8212 8413 5460 5460 5548 5548 5640 5640 5640 5640 5640 5640 5640 5734 5734 5734 5734 5832 5832 5832 5832 5832 5832 5933 5933 5933 5933 5933 5933 5933 5933 5933 5933 5933 5933 6038 5933 5933 5933 5548 5548 5548 5374 5374 5374 5374 5374 5374 5374 5374 5374 5291 5291 5291 5291 5374 5374 5374 5374 5460 5548 5548 6622 6622 6622 6622 6622 6622 6622 0 8413 8413 8626 8212 8212 8212 8212 8212 8019 8019 8212 8626 8626 8626 8849 8849 8849 9084 8626 8626 8849 8849 8626 8626 8626 8626 8626 5210 5210 5210 5210 5210 5210 5210 5210 5210 5210 5210 5210 5210 5291 5291 5291 5291 5291 5291 5291 5374 5374 5374 5460 5460 5548 5548 5548 5548 5548 5548 8413 8413 5832 5832 5832 5832 5832 5832 5832 5832 5832 5933 5933 5933 5933 6038 6038 6038 6038 6038 6038 6038 6038 6038 6038 6146 6146 6038 6038 6038 7835 7835 7835 8019 8019 8019 8019 8019 8019 8019 8019 8019 8019 8019 8019 8019 8019 8019 8019 8019 3333 3333 3333 3333 3333 3333 3365 3365 3365 3333 3333 3333 3333 3300 3300 3333 3333 3300 3300 3300 3269 3269 3269 3269 3238 3208 3208 3208 3208 3178 3178 3178 3149 3149 3149 3149 3149 3149 3120 3120 3120 3120 3120 3120 3120 3120 3120 3178 3178 3178 3178 3178 3178 3149 3149 3120 3092 3064 3064 3037 3037 3010 3010 3010 3010 3010 3010 3010 3010 3010 3010 3010 3010 3010 3010 2984 2984 2984 2984 2984 2984 2984 3010 3010 3010 3010 3010 3010 3010 3010 3010 3037 3010 3010 3010 3010 3010 3010 3010 3010 3037 3010 3010 3010 3010 3010 3010 3010 3010 3010 3010 3010 3010 2984 2984 3010 2984 2984 2984 2984 2984 2984 2984 2984 3010 3010 3037 3037 3037 3037 3037 3037 3037 3037 3064 3064 3064 3064 3092 3120 3149 3149 3149 3149 3149 3149 4089 4089 4089 4089 4089 4089 4089 4139 4139 4089 4089 4089 4089 4139 4139 5933 5933 5933 5933 5933 5933 5933 5933 5832 5832 5832 5832 5832 5832 5734 5734 5734 5734 5734 5734 5734 5734 5734 5734 5734 5734 5734 5734 5734 5734 5734 5734 5734 5640 5640 5734 5734 5832 5832 5933 6038 6038 6038 6038 6038 6146 6038 5933 5933 5933 5933 5832 5832 5933 5933 5933 5933 6038 6038 6038 6038 5933 5933 6038 6038 5933 5933 5933 5933 6038 5933 5933 5933 6038 5933 5933 6038 6038 6038 0 0 0 0 0 0 0 0 0 0 0 0 0
0 0 0 0 0 0 0 0 0 0 0 0 0 0 0 0 0 0 0 0 0 0 0 0 0 0 0 0 0 0 4582 4582 4582 4645 4645 4645 4645 4645 4645 4708 4708 4708 4708 4708 4708 4774 4774 4774 4842 4911 4911 4911 4911 4911 4911 4911 4983 4983 4983 4983 4983 4983 5056 5056 5056 4983 4911 4911 4842 4842 4842 4842 4842 4842 4842 0 0 0 0 0 0 0 0 0 0 0 2908 2908 2908 2933 2933 2908 2908 2933 6146 3010 2984 2984 3010 3010 3010 3037 6497 6497 3010 3010 3010 3010 3010 3010 3037 3037 3037 3037 3037 3037 3037 3037 3064 3064 3064 3064 3064 3092 3092 3092 3092 3120 3149 3178 3178 3178 3178 3178 3178 5832 5832 5832 5832 5832 5832 5933 5832 5832 5832 5832 5933 5933 5933 5933 5933 3365 3365 3365 3333 3333 3333 3365 3365 3365 3365 3365 3365 3399 3399 3399 3399 3433 3433 3468 3468 3468 3503 3503 3503 3539 3539 3539 3539 3576 3576 3576 3576 3614 3614 3614 3653 3653 3653 3653 3653 3653 6622 6622 6622 6753 6753 6889 7030 7492 7660 7835 8019 8019 8019 8212 8212 8212 8212 5460 5460 5460 5460 5548 5548 5640 5640 5640 5640 5640 5640 5640 5640 5640 5640 5640 5734 5734 5734 5832 5832 5832 5933 5933 5933 5933 5933 5933 5933 5933 5933 5933 6038 6038 6038 6038 6038 6038 5374 5460 5460 5374 5291 5291 5374 5374 5374 5374 5374 5374 5291 5291 5291 5291 5374 5374 5374 5374 5460 5548 5548 5548 6622 6622 6622 6753 6753 0 0 0 0 8626 8212 8212 8212 8212 8212 8019 8019 8849 8849 9084 8849 8849 9084 9084 8849 8849 8849 8849 9084 9084 8849 8849 8849 5291 5210 5210 5210 5210 5210 5210 5210 5210 5210 5210 5210 5210 5210 5291 5291 5291 5291 5291 5291 5291 5374 5374 5374 5460 5460 5548 5548 5548 5548 5640 5640 5640 5832 5832 5832 5832 5832 5832 5832 5832 5832 5832 5933 5933 5933 5933 6038 6038 6038 6038 6038 6038 6038 6038 6038 6038 6146 6146 6038 6038 6038 7835 7835 7835 8019 8019 8019 8019 8019 8019 8019 7835 7835 7835 7835 8019 8019 8019 8019 8019 8019 3300 3300 3333 3333 3365 3365 3365 3365 3365 3333 3333 3333 3333 3333 3333 3333 3333 3333 3333 3333 3300 3300 3269 3269 3238 3238 3208 3208 3208 3208 3208 3178 3178 3178 3178 3178 3178 3178 3149 3149 3149 3149 3149 3149 3149 3149 3149 3178 3178 3178 3208 3178 3178 3149 3149 3120 3092 3064 3064 3064 3037 3037 3037 3037 3037 3010 3010 3037 3037 3037 3037 3037 3037 3037 3037 3010 3010 3037 3037 3010 3010 3010 3010 3010 3010 3010 3037 3037 3037 3037 3037 3037 3037 3010 3010 3037 3010 3010 3037 3037 3037 3010 3010 3010 3010 3010 3010 3010 3010 3010 3010 3010 3010 2984 2984 2984 2984 2984 2984 2958 2958 2984 2984 2984 3010 3010 3037 3037 3037 3037 3037 3037 3037 3064 3064 3064 3064 3064 3092 3092 3149 3149 3149 4089 4089 4089 4089 4089 4089 4089 4089 4089 4089 4139 4139 4089 4089 4089 4139 4190 5832 5832 5933 5933 5933 5933 5933 5933 5933 5933 5933 5832 5832 5832 5832 5734 5734 5734 5734 5734 5734 5734 5734 5734 5734 5734 5734 5734 5734 5734 5832 5734 5734 5734 5640 5640 5734 5734 5832 5933 5933 6038 6038 6038 6038 6146 6146 6038 6038 6038 6038 6038 5933 5933 5933 5933 5933 5933 6038 6038 6038 6038 6038 5933 5933 6038 5933 5933 5933 5933 6038 6038 6038 6038 6038 6038 6038 6038 6038 6038 0 0 0 0 0 0 0 0 0 0 0 0 0
0 0 0 0 0 0 0 0 0 0 0 0 0 0 0 0 0 0 0 0 0 0 0 0 0 0 0 0 0 0 4582 4582 4582 4645 2812 2812 4645 4645 4645 4645 4708 4708 4708 4708 4708 4774 4774 4774 4842 4911 4911 4983 4983 4983 4983 4983 4983 4983 4983 4983 4983 5056 5056 5056 5056 4983 4911 4911 4842 4842 4842 4842 4842 4842 4842 4911 0 0 0 0 0 0 0 0 0 2933 2908 2908 2908 2933 2933 2908 2908 2933 2984 3010 2984 2984 3010 3010 3010 3010 3010 3010 3010 3010 3010 3010 3010 3037 3037 3037 3064 3064 3064 3064 3037 3037 3064 3064 3064 3064 3064 3092 3120 3120 3120 3149 3178 3178 3178 3178 3178 3178 3178 3208 5832 5832 5832 5832 5832 5832 5832 5832 5832 5832 5933 5933 5933 6038 3365 3365 3365 3365 3333 3333 3333 3365 3365 3365 3365 3399 3399 3399 3399 3399 3433 3433 3468 3468 3468 3468 3503 3503 3503 3539 3539 3539 3539 3576 3576 3576 3576 3614 3614 3614 3653 3653 3653 3653 3653 3653 3692 6622 6622 6753 6753 6889 7178 7660 7660 7835 7835 8019 8019 8019 8212 8212 5374 5374 5374 5460 5460 5460 5548 5548 5548 5548 5548 5548 5640 5640 5640 5640 5640 5640 5734 5734 5734 5734 5734 5832 5832 5832 5734 5734 5734 5832 5832 5832 5832 5832 5933 6038 6038 6038 6038 5210 5374 5374 5374 5374 5291 5291 5374 5374 5374 5374 5374 5291 5291 5291 5291 5291 5291 5374 5374 5374 5460 5548 5548 0 6622 6622 6622 0 0 0 0 0 0 0 0 8212 8212 0 0 0 0 9084 9084 9331 9084 9084 9084 9084 8849 8849 8849 9084 9084 9084 9084 9084 5291 5291 5210 5210 5210 5210 5210 5210 5210 5210 5210 5210 5210 5210 5291 5291 5291 5291 5291 5291 5291 5291 5374 5374 5374 5460 5460 5548 5548 5548 5548 5640 5640 5734 5832 5832 5832 5832 5832 5832 5832 5832 5832 5933 5933 5933 5933 5933 6038 6038 6038 6038 6038 6038 6038 6038 6146 6146 6146 6146 6146 6146 7492 7492 7492 7835 7835 7835 7835 7835 7835 7835 7835 7660 7660 7660 7660 7835 7835 8019 8019 8019 3300 3300 3300 3333 3333 3365 3365 3365 3365 3365 3365 3333 3333 3333 3333 3333 3333 3333 3333 3333 3333 3333 3300 3300 3269 3238 3238 3238 3238 3238 3208 3208 3238 3208 3178 3178 3178 3178 3178 3178 3178 3178 3178 3178 3178 3178 3178 3178 3178 3178 3178 3208 3178 3178 3178 3149 3120 3092 3092 3092 3092 3064 3064 3064 3064 3064 3064 3064 3064 3037 3037 3037 3037 3037 3037 3037 3037 3037 3064 3064 3037 3010 3010 3010 3010 3010 3037 3037 3037 3037 3037 3037 3037 3037 3037 3037 3037 3037 3037 3037 3037 3037 3037 3037 3037 3010 3010 3010 3010 3010 3010 3010 3010 3010 3010 3010 2984 2984 2984 2984 2958 2958 2958 2958 2984 3010 3010 3010 3010 3037 3037 3037 3037 3037 3064 3064 3064 3064 3064 3092 3092 3149 4089 4089 4089 4089 4139 4139 4139 4139 4139 4139 4139 4139 4139 4139 4139 4139 4089 4089 4139 5832 5832 5933 5933 5933 5933 5933 5933 5933 5933 5933 5933 5832 5832 5832 5832 5734 5734 5734 5734 5734 5734 5734 5734 5734 5734 5734 5734 5734 5734 5734 5734 5734 5734 5640 5640 5734 5734 5832 5933 5933 6038 6038 6038 6038 6146 6146 6038 6038 6038 6038 6038 5933 5933 5933 6038 6038 6038 6038 6038 6038 6038 5933 5933 5933 6038 5933 5933 6038 6038 6038 6038 6038 6038 6038 6038 6038 6038 6038 6038 0 0 0 0 0 0 0 0 0 0 0 0 0
0 0 0 0 0 0 0 0 0 0 0 0 0 0 0 0 0 0 0 0 0 0 0 0 0 0 0 0 0 0 4582 4582 4582 4645 2789 2789 2789 4645 4645 4645 4645 4645 4708 4708 4708 4708 4774 4842 4842 4911 4983 5056 5132 5056 4983 4983 4983 4983 4983 4983 4983 5056 5056 5056 5056 4983 4911 4911 4842 4842 4842 4842 4842 4842 4842 4774 4774 4774 0 0 0 0 0 0 2933 2933 2933 2933 2933 2933 2958 2933 2933 2958 2984 2984 2984 3010 3010 3010 3010 3010 3010 3010 3010 3010 3010 3010 3010 3010 3037 3037 3037 3064 3064 3064 3064 3064 3064 3064 3064 3064 3092 3092 3120 3120 3120 3149 3178 3178 3178 3178 3208 3208 3208 3208 5832 5832 5832 5734 5734 5832 5832 5832 5832 5832 5933 5933 5933 3365 3365 3365 3365 3365 3333 3333 3365 3365 3399 3399 3399 3399 3399 3399 3433 3433 3433 3468 3468 3468 3468 3503 3503 3503 3503 3539 3539 3539 3539 3576 3576 3576 3614 3614 3614 3653 3653 3653 3692 3692 3692 3692 3692 6753 6753 6753 6753 6889 7030 7492 7660 7835 7835 8019 8019 8019 5210 5210 5210 5291 5291 5374 5374 5460 5460 5548 5548 5460 5460 5460 5460 5548 5548 5548 5548 5640 5640 5640 5640 5640 5640 5734 5734 5640 5640 5460 5460 5460 5832 5832 5832 5832 5933 6038 6038 6038 6038 5210 5210 5210 5291 5291 5291 5291 5291 5291 5374 5291 5291 5291 5291 5291 5291 5291 5291 5291 5374 5374 5374 5548 5548 0 5548 0 0 0 0 0 0 0 0 0 0 0 0 0 0 0 9331 9331 9331 9331 9084 9084 9084 9084 9084 8849 8849 9084 9084 9084 9084 0 5291 5291 5210 5210 5210 5291 5291 5291 5291 5291 5291 5291 5291 5291 5291 5291 5291 5291 5291 5291 5291 5291 5374 5374 5374 5460 5460 5548 5548 5548 5548 5640 5640 5734 5832 5832 5832 5832 5832 5832 5832 5832 5832 5933 5933 5933 6038 6038 6038 6038 6038 6146 6146 6146 6146 6146 6146 6146 6146 6146 6146 7492 7492 7492 7492 7660 7835 7835 7835 7835 7835 7660 7660 7660 7492 7492 7492 7660 7835 7835 8019 8019 3300 3300 3333 3333 3333 3365 3365 3365 3365 3365 3365 3333 3333 3333 3333 3333 3333 3333 3333 3333 3333 3333 3300 3300 3269 3238 3238 3238 3238 3238 3238 3238 3238 3238 3208 3208 3208 3208 3208 3208 3178 3178 3178 3178 3208 3208 3178 3178 3208 3208 3208 3208 3178 3178 3178 3149 3149 3120 3120 3120 3092 3092 3092 3092 3092 3120 3092 3092 3092 3064 3064 3064 3064 3064 3064 3064 3064 3064 3064 3064 3064 3064 3064 3037 3037 3037 3037 3037 3037 3064 3037 3037 3064 3037 3037 3037 3037 3037 3037 3037 3037 3064 3037 3037 3037 3010 3010 3010 3010 3010 3010 3010 3010 3037 3010 3010 2984 2984 2984 2984 2958 2958 2958 2958 2984 3010 3010 3010 3010 3037 3037 3037 3037 3037 3064 3064 3064 3092 3092 3092 4089 4089 4089 4089 4089 4089 4139 4139 4139 4089 4089 4089 4089 4089 4139 4139 4139 4139 4089 4089 4089 5832 5832 5933 5933 5933 5933 5933 5933 5933 5933 5933 5933 5933 5832 5832 5832 5832 5832 5734 5734 5734 5734 5734 5734 5734 5734 5734 5734 5734 5734 5734 5734 5734 5734 5734 5734 5734 5832 5832 5933 6038 6038 6146 6146 6146 6146 6146 6038 6038 6038 5933 5933 5933 5933 5933 5933 5933 5933 5933 5933 5933 6038 5933 5933 5933 6038 5933 5933 6038 6038 6038 6038 6038 6038 6038 6038 6038 6038 6038 6038 0 0 0 0 0 0 0 0 0 0 0 0 0
0 0 0 0 0 0 0 0 0 0 0 0 0 0 0 0 0 0 0 0 0 0 0 0 0 0 0 0 0 0 0 0 0 2723 2723 2723 2723 2723 2723 4645 4645 4645 4645 4708 2723 2723 2723 2723 2723 2744 2744 2744 5291 5210 4983 2789 2789 2812 2812 2812 2812 5056 5056 5056 5056 5056 4911 4911 4911 4842 4842 4842 4842 4911 4842 4774 4774 4774 0 0 0 0 0 0 2933 2933 2933 2933 2933 2933 2958 2958 2958 2958 2958 2984 2984 2984 2984 2984 3010 3010 3010 3010 3010 3010 3010 3010 3010 3010 3037 3037 3037 3064 3064 3064 3064 3064 3064 3064 3064 3092 3092 3092 3120 3120 3120 3149 3178 3178 3178 3178 3208 3208 3208 3208 3208 5832 5734 5734 5734 5832 5832 5832 5832 5832 5933 5933 3333 3333 3365 3365 3365 3399 3365 3365 3365 3365 3399 3399 3399 3399 3399 3433 3433 3433 3433 3468 3468 3468 3468 3503 3503 3503 3503 3539 3539 3539 3539 3576 3576 3576 3614 3614 3614 3653 3653 3653 3692 3692 3692 3692 3692 6753 6753 6753 6753 6889 7030 7178 7660 7835 7835 8019 8019 8019 5210 5210 5210 5291 5291 5291 5374 5374 5460 5460 5460 5460 5460 5460 5460 5460 5460 5460 5548 5548 5548 5640 5640 5640 5548 5548 5548 5548 5460 5374 5374 5374 5460 5460 5291 5291 5291 4983 4983 5210 5210 5210 5210 5210 5291 5291 5291 5291 5291 5291 5291 5291 5291 5291 5291 5291 5291 5291 5291 5291 5291 5291 5291 5291 5291 0 0 0 0 0 0 0 0 0 0 0 0 0 0 0 0 0 0 0 0 0 5210 5210 5210 5210 5210 5210 5291 5210 5210 5210 5210 5210 5210 5210 5210 5210 5210 5210 5210 5291 5291 5291 5291 5291 5291 5291 5291 5291 5291 5374 5374 5291 5291 5374 5374 5374 5460 5460 5460 5548 5548 5548 5548 5640 5640 5832 5832 5832 5832 5832 5832 5832 5832 5832 5933 5933 5933 5933 5933 5933 6038 6038 6038 6146 6146 6146 6146 6146 6146 6146 6146 6146 6146 7492 7492 7492 7492 7660 7835 7835 7660 7660 7660 7660 7660 7492 7492 7492 7492 7660 7835 7835 8019 3238 3238 3300 3333 3333 3333 3365 3365 3365 3365 3365 3333 3333 3333 3333 3333 3333 3333 3333 3333 3333 3333 3333 3333 3300 3300 3269 3238 3238 3238 3238 3238 3238 3238 3238 3208 3208 3208 3208 3208 3208 3208 3178 3178 3208 3208 3208 3208 3208 3208 3208 3208 3208 3178 3178 3178 3149 3149 3149 3120 3120 3120 3120 3120 3120 3120 3120 3092 3092 3092 3092 3064 3064 3064 3064 3064 3064 3064 3064 3092 3092 3092 3064 3064 3064 3064 3064 3064 3064 3064 3064 3064 3064 3064 3064 3064 3037 3037 3037 3064 3064 3064 3064 3064 3064 3064 3037 3037 3037 3037 3037 3037 3037 3037 3064 3064 3064 3010 2984 2984 2984 2933 2933 2958 2958 2984 3010 3010 3010 3010 4139 4139 4139 4139 4139 4139 4139 4139 4139 4089 4089 4089 4089 4089 4089 4089 4089 4089 4089 4089 4089 4089 4089 4089 4089 4139 4139 4139 4139 4139 4089 4089 5832 5832 5933 5933 5832 5832 5933 5933 5933 5832 5832 5933 5933 5832 5832 5832 5832 5832 5734 5734 5832 5734 5734 5734 5734 5734 5734 5734 5734 5734 5734 5734 5734 5734 5734 5734 5734 5832 5832 5933 6038 6038 6038 6038 6146 6146 6146 6038 6038 6038 5933 5933 5933 5832 5832 5832 5832 5933 5933 5933 5933 6038 6038 6038 6038 6038 6038 6038 6038 6038 6038 6038 6038 6038 6038 6038 6038 5933 5933 6038 0 0 0 0 0 0 0 0 0 0 0 0 0
0 0 0 0 0 0 0 0 0 0 0 0 0 0 0 0 0 0 0 0 0 0 0 0 0 0 0 0 0 0 0 0 0 2680 2680 2680 2680 2680 2701 2701 2701 2701 2723 2723 2723 2723 2723 2723 2723 2744 2744 2744 2789 2789 2789 2789 2789 2812 2812 2812 2812 2812 2812 5056 5056 5056 4983 4911 4911 4911 4842 4842 4911 4983 4983 4774 4774 4774 0 0 0 0 0 2958 2933 2933 2958 2958 2958 2958 2958 2958 2958 2958 2958 2958 2958 2984 2984 2984 2984 2984 2984 3010 3010 3010 3010 3010 3037 3037 3037 3037 3064 3064 3064 3064 3064 3064 3064 3064 3064 3092 3092 3092 3120 3120 3120 3149 3178 3178 3178 3178 3208 3208 3208 3208 3208 5832 5734 5734 0 0 5832 5832 5832 5832 5933 5933 3333 3333 3365 3365 3365 3399 3365 3365 3365 3365 3399 3399 3399 3399 3399 3433 3433 3433 3433 3468 3468 3503 3503 3503 3503 3503 3539 3539 3539 3539 3539 3576 3576 3576 3614 3614 3614 3653 3653 3653 3692 3692 3692 3692 3692 6753 6753 6753 6753 6889 7030 7178 7492 7835 7835 8019 8019 5210 5210 5210 5210 5291 5291 5291 5374 5374 5374 5374 5374 5374 5374 5374 5374 5374 5374 5374 5460 5548 5548 5548 5548 5460 5460 5460 5460 5460 5374 5374 5374 5374 5291 5291 5291 5291 5291 4983 4983 4983 5132 5132 5132 5210 5210 5291 5291 5210 5210 5291 5291 5291 5291 5291 5291 5291 5291 5291 5291 5291 5291 5291 5291 5291 0 0 0 0 0 0 0 0 0 0 0 0 0 0 0 0 0 0 0 0 0 0 5210 5210 5210 5210 5210 5210 5291 5210 5210 5210 5210 5210 5210 5210 5210 5210 5210 5210 5210 5291 5291 5291 5291 5291 5291 5291 5291 5291 5291 5374 5374 5291 5291 5374 5374 5374 5460 5460 5460 5548 5548 5548 5548 5640 5640 5832 5832 5933 5933 5832 5832 5832 5832 5933 5933 5933 5933 5933 5933 5933 6038 6038 6038 6146 6146 6146 6146 6146 6146 6146 6146 6146 6259 6259 7332 7332 7332 7492 7660 7660 7660 7660 7660 7492 7492 7492 7492 7492 7492 7492 7660 7835 7835 3238 3238 3333 3333 3333 3333 3365 3365 3365 3365 3365 3333 3333 3333 3333 3333 3333 3333 3333 3333 3333 3333 3333 3333 3333 3300 3269 3238 3238 3238 3238 3238 3238 3238 3238 3208 3208 3208 3208 3208 3208 3208 3208 3208 3208 3208 3208 3208 3208 3208 3208 3208 3208 3208 3178 3178 3178 3149 3149 3120 3120 3120 3149 3120 3120 3120 3120 3120 3092 3092 3092 3092 3092 3092 3092 3092 3092 3092 3092 3092 3092 3092 3092 3064 3064 3064 3064 3064 3064 3064 3064 3064 3064 3064 3064 3064 3037 3037 3037 3064 3064 3064 3064 3064 3064 3064 3064 3064 3064 3064 3092 3092 3120 3120 3208 3269 3269 3300 3300 3333 3365 2933 2933 2958 2958 3010 3010 3037 4089 4089 4139 4139 4139 4139 4139 4139 4139 4139 4139 4089 4089 4089 4089 4089 4089 4089 4089 4089 4089 4089 4089 4089 4089 4089 4089 4089 4089 4139 4139 4139 4139 4190 5832 5832 5933 5933 5832 5832 5933 5933 5933 5832 5832 5933 5933 5832 5832 5832 5832 5832 5734 5734 5734 5734 5734 5734 5734 5734 5734 5734 5734 5734 5734 5734 5734 5734 5640 5640 5734 5832 5832 5933 6038 6038 6038 6038 6146 6146 6146 6038 6038 6038 5933 5933 5933 5832 5832 5832 5832 5933 5933 5933 5933 6038 6038 6038 6038 6038 6038 6038 6038 6038 6038 6038 6038 6038 6038 6038 6038 5933 5933 5933 0 0 0 0 0 0 0 0 0 0 0 0 0
0 0 0 0 0 0 0 0 0 0 0 0 0 0 0 0 0 0 0 0 0 0 0 0 0 0 0 0 0 0 0 0 0 2659 2659 2659 2659 2680 2680 2701 2701 2701 2723 2723 2723 2723 2723 2723 2744 2744 2744 2767 2789 2789 2789 2789 2789 2789 2789 2789 2789 2789 2789 2789 5056 5056 4983 4983 4911 4911 4842 4842 4911 4983 4983 4983 4983 3399 0 0 0 0 2958 2958 2958 2958 2958 2958 2958 2958 2958 2958 2958 2958 2958 2958 2958 2984 2984 2984 2984 2984 2984 3010 3010 3010 3010 3037 3037 3037 3037 3037 3064 3064 3064 3064 3064 3064 3092 3092 3092 3092 3092 3120 3120 3149 3149 3149 3178 3178 3178 3208 3208 3208 3208 3208 3208 0 0 0 0 0 0 0 0 0 3365 3365 3333 3333 3365 3365 3365 3399 3365 3365 3365 3399 3399 3399 3399 3433 3433 3433 3433 3433 3468 3468 3468 3503 3503 3503 3539 3539 3539 3539 3539 3539 3539 3576 3576 3576 3614 3614 3614 3653 3653 3692 3692 3692 3692 3732 3732 3732 6622 6753 6753 6753 6889 7030 7332 7660 7835 8019 8019 5210 5210 5210 5210 5291 5291 5374 5374 5374 5374 5374 5374 5374 5374 5374 5374 5374 5374 5374 5374 5460 5460 5460 5460 5460 5460 5374 5374 5374 5374 5374 5374 5374 5291 5291 5291 5210 5210 5132 4983 4983 5132 5132 5132 5210 5210 5291 5291 5210 5210 5210 5291 5291 5210 5210 5210 5291 5291 5291 5291 5291 5291 5210 5210 5210 5210 5210 0 0 0 0 0 0 0 0 0 5132 5132 5210 5210 0 0 0 0 0 0 0 5210 5210 5210 5210 5210 5210 5291 5210 5210 5210 5210 5210 5210 5210 5210 5210 5210 5210 5210 5291 5291 5291 5291 5291 5291 5291 5291 5291 5291 5374 5374 5291 5291 5374 5374 5460 5460 5460 5460 5548 5548 5548 5548 5640 5734 5832 5933 5933 5933 5933 5933 5832 5832 5933 5933 5933 5933 5933 6038 6038 6038 6038 6038 6146 6146 6146 6146 6146 6146 6146 6146 6259 6259 6259 7332 7332 7332 7492 7492 7492 7492 7492 7492 7492 7492 7492 7332 7332 7332 7492 7492 7660 7660 3269 3269 3333 3333 3333 3333 3365 3365 3365 3365 3365 3365 3333 3333 3333 3333 3333 3333 3333 3333 3333 3333 3333 3333 3333 3333 3269 3269 3269 3238 3238 3238 3238 3238 3238 3238 3238 3238 3238 3238 3238 3208 3208 3208 3208 3208 3208 3208 3208 3208 3208 3208 3208 3208 3178 3178 3178 3178 3178 3149 3149 3149 3149 3149 3149 3149 3149 3120 3120 3120 3120 3092 3092 3092 3092 3092 3092 3092 3092 3092 3092 3092 3092 3064 3064 3064 3064 3064 3064 3064 3064 3064 3064 3064 3064 3064 3064 3064 3064 3064 3064 3064 3064 3064 3064 3064 3092 3092 3092 3092 3120 3120 3149 3178 3269 3269 3269 3300 3300 3333 3365 3399 3399 3399 3468 3539 3539 4139 4139 4089 4089 4139 4139 4139 4139 4139 4139 4139 4139 4139 4139 4139 4139 4139 4089 4089 4089 4089 4089 4089 4089 4089 4089 4089 4089 4089 4089 4139 4139 4190 4190 4190 5832 5832 5832 5832 5832 5832 5933 5933 5933 5933 5933 5933 5933 5933 5832 5832 5832 5832 5734 5734 5734 5734 5734 5734 5734 5734 5734 5734 5734 5734 5734 5734 5734 5734 5640 5640 5734 5734 5832 5933 6038 6038 6038 6038 6038 6146 6038 6038 6038 6038 5933 5933 5933 5832 5832 5832 5832 5933 5933 5933 5933 5933 5933 5933 6038 6038 6038 6038 6038 6038 6038 6038 6038 6038 6038 6038 6038 5933 5933 5933 0 0 0 0 0 0 0 0 0 0 0 0 0
0 0 0 0 0 0 0 0 0 0 0 0 0 0 0 0 0 0 0 0 0 0 0 0 0 0 0 0 0 0 0 0 0 2639 2639 2639 2639 2659 2680 2680 2701 2701 2723 2723 2723 2723 2723 2723 2744 2744 2767 2767 2789 2789 2789 2789 2789 2789 2789 2789 2789 2789 2789 2789 4911 5132 4983 4983 4911 4911 4842 3333 3333 3333 3333 3333 3399 3399 0 0 2933 2933 2933 2933 2933 2933 2958 2958 2958 2958 2958 2958 2958 2958 2958 2958 2958 2958 2984 2984 2984 2984 2984 2984 3010 3010 3010 3010 3037 3037 3037 3064 3064 3064 3064 3064 3064 3064 3092 3092 3092 3092 3120 3120 3120 3149 3149 3149 3178 3178 3178 3208 3208 3208 3208 3208 3208 0 0 0 0 0 0 0 0 0 3365 3333 3333 3333 3365 3365 3365 3399 3365 3365 3399 3399 3399 3399 3399 3433 3433 3433 3433 3433 3468 3468 3503 3503 3539 3539 3539 3539 3539 3539 3539 3539 3576 3576 3576 3576 3614 3614 3653 3653 3653 3692 3692 3692 3692 3692 3692 3692 6622 6753 6753 6753 6889 7030 7332 7660 7835 7835 8019 5210 5210 5210 5210 5291 5291 5374 5374 5374 5374 5374 5374 5374 5374 5374 5374 5374 5374 5374 5374 5374 5374 5374 5374 5374 5374 5374 5374 5374 5374 5374 5374 5374 5291 5291 5291 5210 5210 5132 5132 5132 5132 5132 5132 5210 5210 5210 5210 5210 5210 5210 5210 5210 5210 5210 5210 5210 5210 5210 5210 5210 5210 5210 5210 5210 5132 5132 5132 5132 5132 0 5056 5056 0 0 5056 5056 5132 5132 5210 5132 5132 5132 5132 5210 5132 5132 5132 5210 5210 5210 5210 5210 5210 5210 5210 5210 5210 5210 5210 5210 5210 5210 5210 5210 5210 5291 5291 5291 5291 5291 5291 5291 5291 5291 5374 5374 5460 5374 5374 5374 5460 5460 5460 5460 5548 5548 5548 5548 5640 5640 5734 5832 5933 5933 5933 5933 5933 5933 5933 5933 5933 5933 5933 5933 6038 6038 6038 6038 6038 6146 6146 6146 6146 6259 6259 6259 6259 6259 6375 7332 7332 7332 7332 7492 7492 7492 7492 7492 7492 7492 7492 7332 7332 7332 7332 7332 7492 7492 7492 3365 3365 3333 3333 3333 3333 3365 3365 3365 3365 3365 3365 3333 3333 3333 3333 3333 3333 3333 3333 3333 3333 3333 3333 3300 3300 3300 3269 3269 3269 3269 3269 3238 3238 3238 3238 3238 3238 3238 3238 3238 3238 3208 3208 3208 3208 3208 3208 3208 3208 3208 3208 3208 3208 3178 3178 3178 3178 3178 3178 3178 3178 3178 3178 3178 3178 3149 3149 3149 3149 3120 3120 3092 3092 3092 3092 3092 3092 3092 3092 3092 3092 3092 3092 3092 3092 3092 3092 3092 3064 3064 3064 3064 3064 3064 3064 3064 3064 3064 3064 3064 3064 3064 3092 3092 3092 3092 3092 3120 3149 3178 3178 3208 3208 3269 3269 3300 3300 3333 3333 3365 3399 3399 3433 3468 3503 3539 3539 4139 4089 4089 4139 4139 4139 4139 4139 4190 4139 4139 4139 4139 4139 4139 4139 4089 4089 4089 4089 4089 4089 4089 4089 4089 4089 4089 4089 4139 4190 4190 4190 4190 4295 5832 5832 5832 5832 5832 5832 5933 5933 5933 5832 5832 5933 5832 5832 5832 5832 5734 5734 5734 5734 5734 5734 5734 5734 5734 5734 5734 5734 5734 5734 5734 5734 5734 5734 5640 5640 5734 5734 5832 5933 5933 6038 6038 6038 6038 6038 6038 5933 5933 5832 5832 5832 5832 5832 5832 5832 5832 5933 5933 5933 5933 5933 5933 5933 5933 5933 5933 6038 6038 6038 6038 6038 6038 5933 5933 5933 5933 5933 5933 5933 0 0 0 0 0 0 0 0 0 0 0 0 0
0 0 0 0 0 0 0 0 0 0 0 0 0 0 0 0 0 0 0 0 0 0 0 0 0 0 0 0 0 0 0 0 0 2639 2639 2639 2639 2659 2680 2680 2701 2701 2723 2723 2723 2723 2723 2723 2744 2744 2744 2767 2789 2789 2789 2789 2789 2789 2789 2789 2789 2789 2789 2789 2789 3365 3333 3333 3269 3269 3269 3269 3300 3300 3333 3333 3399 3399 2883 2933 2933 2933 2933 2933 2933 2933 2958 2958 2958 2958 2958 2958 2958 2958 2958 2958 2958 2958 2984 2984 2984 2984 2984 2984 3010 3010 3010 3010 3037 3037 3037 3064 3064 3064 3064 3064 3064 3064 3092 3092 3092 3092 3092 3120 3120 3149 3149 3178 3178 3178 3178 3208 3208 3208 3208 3208 3238 3238 0 0 0 0 0 0 0 3365 3365 3333 3333 3333 3365 3365 3365 3399 3399 3399 3399 3399 3399 3399 3399 3433 3433 3433 3433 3433 3468 3468 3503 3503 3539 3539 3539 3539 3539 3539 3539 3539 3576 3576 3576 3576 3614 3614 3614 3614 3653 3692 3692 3692 3692 3692 3692 3692 6622 6622 6622 6753 6889 7030 7332 7492 7835 7835 5291 5291 5291 5291 5291 5291 5374 5374 5374 5374 5374 5374 5374 5374 5374 5374 5374 5374 5374 5374 5374 5374 5374 5374 5291 5291 5291 5291 5291 5291 5291 5291 5291 5291 5210 5210 5291 5210 5210 5210 5210 5210 5132 5132 5132 5210 5210 5210 5210 5210 5210 5210 5210 5210 5210 5210 5210 5210 5210 5210 5210 5210 5210 5210 5210 5210 5132 5132 5132 5132 5056 5056 5056 5056 5210 5056 5056 5056 5056 5056 5056 5056 5056 5056 5056 5056 5056 5056 5132 5132 5210 5210 5210 5210 5210 5210 5210 5210 5210 5210 5210 5210 5210 5210 5210 5291 5291 5291 5291 5291 5291 5291 5291 5291 5374 5374 5374 5374 5460 5374 5374 5374 5460 5460 5460 5460 5548 5548 5548 5640 5640 5734 5832 5933 5933 5933 5933 5933 5933 5933 5933 5933 5933 5933 5933 5933 6038 6038 6038 6146 6146 6146 6146 6259 6259 6259 6259 6259 6259 6375 6497 7178 7178 7332 7332 7332 7332 7492 7492 7492 7492 7492 7492 7332 7332 7332 7332 7332 7332 7492 7492 3365 3365 3365 3365 3365 3365 3365 3365 3365 3365 3365 3365 3333 3333 3333 3333 3333 3333 3333 3333 3300 3300 3333 3333 3300 3300 3300 3269 3269 3269 3269 3269 3238 3238 3238 3238 3238 3238 3238 3238 3238 3238 3208 3208 3208 3208 3208 3208 3208 3208 3208 3208 3208 3208 3178 3178 3208 3178 3178 3178 3178 3178 3178 3178 3178 3178 3149 3149 3149 3149 3149 3149 3120 3120 3120 3120 3120 3092 3092 3092 3092 3092 3092 3092 3092 3092 3092 3092 3092 3064 3064 3064 3064 3064 3064 3064 3064 3064 3064 3064 3064 3064 3092 3092 3092 3092 3092 3120 3149 3149 3149 3178 3208 3208 3269 3269 3300 3300 3333 3365 3399 3399 3433 3433 3468 3503 3503 4241 4190 4139 4139 4139 4190 4190 4190 4139 4139 4139 4139 4139 4139 4089 4089 4089 4089 4089 4089 4089 4089 4089 4041 4041 4041 4089 4089 4089 4089 4139 4190 4190 4190 4295 5832 5832 5832 5832 5832 5832 5933 5933 5832 5832 5832 5832 5832 5832 5832 5832 5734 5734 5832 5832 5734 5734 5734 5734 5734 5734 5734 5734 5734 5734 5734 5734 5734 5734 5640 5640 5734 5734 5832 5933 5933 6038 6038 6038 6038 6038 5933 5933 5832 5832 5832 5734 5734 5832 5832 5832 5832 5933 5933 5933 5933 5933 5933 5933 5933 5933 5933 6038 6038 6038 5933 5933 5933 5933 5933 5933 5933 5933 5933 5933 0 0 0 0 0 0 0 0 0 0 0 0 0
0 0 0 0 0 0 0 0 0 0 0 0 0 0 0 0 0 0 0 0 0 0 0 0 0 0 0 0 0 0 0 0 0 2639 2639 2639 2659 2659 2680 2680 2701 2701 2701 2723 2723 2723 2723 2723 2744 2744 2744 2767 2789 2789 2789 2789 2789 2789 2789 2789 2789 2812 2812 2789 2789 3365 3333 3333 3269 3269 3269 3269 3300 3300 3333 3333 3365 3365 2883 2883 2883 2933 2933 2933 2933 2933 2958 2958 2958 2958 2958 2958 2958 2958 2958 2958 2958 2958 2984 2984 2984 2984 2984 2984 3010 3010 3010 3010 3037 3037 3037 3064 3064 3064 3064 3064 3064 3064 3092 3092 3092 3092 3092 3120 3120 3149 3149 3178 3178 3178 3178 3208 3208 3208 3208 3208 3208 3208 0 0 0 0 0 0 0 3365 3365 3365 3365 3365 3365 3365 3399 3399 3399 3399 3399 3399 3399 3399 3399 3433 3433 3433 3433 3433 3468 3468 3503 3503 3539 3539 3539 3539 3539 3539 3539 3539 3576 3576 3576 3576 3614 3614 3614 3614 3653 3692 3692 3692 3692 3692 3692 3692 3692 6622 6622 6753 6889 7030 7178 7492 7660 7835 5291 5291 5291 5291 5291 5374 5374 5374 5374 5374 5374 5374 5374 5374 5374 5374 5374 5374 5374 5374 5374 5374 5374 5374 5291 5291 5291 5291 5291 5291 5291 5291 5291 5291 5210 5210 5291 5210 5210 5210 5210 5210 5132 5132 5132 5132 5210 5210 5210 5210 5210 5210 5210 5210 5210 5210 5210 5210 5210 5210 5210 5210 5210 5210 5210 5210 5132 5132 5132 5132 5056 5056 5056 5056 5132 5056 5056 5056 5056 5056 4983 4983 5056 5056 5056 5056 5056 5056 5132 5132 5210 5210 5210 5210 5210 5210 5291 5210 5210 5210 5210 5210 5210 5210 5210 5291 5291 5291 5291 5291 5291 5291 5291 5291 5374 5374 5374 5460 5460 5460 5374 5374 5460 5460 5460 5460 5548 5548 5548 5640 5640 5734 5832 5933 5933 5933 5933 5933 5933 5933 5933 5933 5933 5933 5933 5933 5933 5933 6038 6038 6038 6146 6146 6259 6259 6259 6259 6259 6259 6375 6753 7178 7178 7332 7332 7332 7332 7492 7492 7492 7492 7332 7332 7332 7332 7332 7332 7332 7332 7332 3365 3365 3365 3365 3365 3365 3365 3365 3365 3365 3365 3365 3365 3365 3333 3333 3333 3333 3333 3300 3300 3300 3300 3333 3333 3333 3333 3300 3269 3269 3269 3269 3269 3238 3238 3238 3238 3238 3238 3238 3269 3238 3238 3238 3208 3208 3208 3208 3208 3208 3208 3208 3208 3208 3208 3178 3178 3178 3178 3178 3178 3178 3178 3178 3178 3149 3149 3149 3149 3149 3149 3149 3149 3120 3120 3120 3120 3120 3092 3092 3092 3092 3092 3092 3092 3092 3092 3092 3092 3092 3092 3092 3092 3064 3064 3064 3064 3064 3064 3064 3064 3064 3092 3092 3092 3092 3092 3092 3120 3149 3149 3149 3178 3208 3208 3269 3269 3300 3300 3333 3365 3399 3399 3433 3433 3468 3503 3503 3539 3539 4139 4139 4190 4190 4190 4190 4139 4139 4139 4139 4139 4139 4089 4089 4089 4089 4089 4089 4089 4089 4089 4041 4041 4041 4089 4089 4089 4089 4139 4139 4190 4190 4190 5832 5832 5832 5832 5832 5832 5933 5933 5832 5832 5832 5832 5832 5832 5832 5832 5734 5734 5832 5734 5734 5734 5734 5734 5734 5734 5734 5734 5734 5734 5734 5734 5734 5734 5640 5640 5734 5832 5832 5933 5933 6038 6038 6038 6038 5933 5933 5933 5832 5832 5832 5734 5734 5832 5933 5832 5832 5933 5933 5933 5933 6038 6038 6038 6038 6038 6038 6038 6038 6038 5933 5933 5933 5933 5933 5933 5933 5933 5933 5933 0 0 0 0 0 0 0 0 0 0 0 0 0
0 0 0 0 0 0 0 0 0 0 0 0 0 0 0 0 0 0 0 0 0 0 0 0 0 0 0 0 0 0 0 0 0 2639 2639 2639 2659 2659 2680 2680 2701 2701 2701 2723 2723 2723 2723 2723 2723 2744 2744 2744 2767 2767 2767 2789 2789 2789 2789 2789 2812 2812 2812 2812 2812 3333 3333 3333 3269 3269 3269 3269 3300 3300 3333 3333 3365 3433 3433 2883 2883 2933 2933 2933 2933 2933 2958 2958 2933 2933 2933 2958 2958 2958 2958 2958 2958 2958 2984 2984 2984 2984 2984 2984 3010 3010 3010 3037 3037 3037 3037 3064 3064 3064 3064 3064 3092 3092 3092 3092 3092 3092 3120 3120 3120 3149 3178 3178 3178 3178 3178 3208 3208 3208 3208 3208 3208 3208 0 0 0 0 0 0 3365 3365 3365 3365 3365 3365 3365 3399 3399 3399 3399 3399 3399 3399 3399 3399 3433 3433 3433 3433 3433 3433 3468 3468 3468 3468 3503 3503 3539 3539 3539 3539 3539 3576 3576 3576 3576 3576 3614 3614 3614 3653 3653 3692 3692 3692 3692 3692 3692 3692 3692 6497 6497 6622 6753 6889 7178 7332 7660 7835 5291 5291 5291 5291 5291 5374 5374 5374 5374 5374 5374 5374 5374 5374 5291 5291 5374 5374 5374 5374 5374 5374 5374 5374 5291 5291 5291 5291 5291 5291 5291 5291 5291 5291 5210 5210 5210 5210 5210 5210 5210 5210 5132 5132 5132 5132 5210 5210 5210 5210 5210 5210 5210 5210 5210 5210 5132 5132 5210 5132 5132 5210 5132 5132 5210 5210 5132 5132 5132 5132 5056 5056 5056 5056 5132 5056 5056 5056 5056 5056 4983 4983 5056 5056 5056 5132 5132 5132 5132 5210 5210 5210 5210 5210 5210 5210 5291 5291 5210 5210 5210 5210 5210 5210 5210 5291 5291 5291 5291 5291 5291 5291 5291 5291 5291 5291 5374 5460 5460 5460 5460 5460 5548 5548 5548 5548 5548 5548 5548 5640 5734 5832 5832 5933 5933 5933 5933 5933 5933 5933 5933 5933 5933 5933 5933 5933 5933 5933 6038 6038 6038 6146 6146 6259 6259 6259 6259 6259 6259 6375 6889 7332 7332 7332 7332 7492 7492 7492 7492 7492 7492 7332 7332 7332 7332 7332 7332 7332 7492 7492 3365 3365 3365 3365 3365 3365 3365 3365 3365 3365 3365 3365 3365 3333 3333 3333 3333 3333 3333 3300 3300 3300 3300 3333 3333 3333 3333 3300 3269 3269 3269 3269 3269 3269 3269 3269 3238 3238 3238 3238 3238 3238 3238 3238 3238 3208 3208 3208 3208 3208 3208 3208 3208 3208 3178 3178 3178 3178 3178 3178 3178 3178 3178 3178 3178 3149 3149 3149 3149 3149 3149 3149 3149 3149 3149 3149 3149 3120 3120 3120 3092 3092 3092 3092 3092 3092 3092 3092 3092 3092 3092 3092 3092 3092 3064 3064 3064 3064 3064 3064 3064 3092 3092 3092 3092 3092 3092 3120 3120 3149 3149 3178 3178 3208 3208 3269 3269 3300 3300 3333 3365 3399 3399 3433 3433 3468 3539 3539 3539 3539 4139 4139 4190 4190 4190 4190 4139 4139 4139 4139 4139 4139 4089 4089 4139 4089 4089 4089 4089 4089 4089 4089 4089 4089 4089 4089 4089 4139 4139 4139 4190 4295 4295 5734 5734 5832 5832 5933 5933 5933 5933 5933 5933 5933 5832 5832 5832 5832 5734 5734 5734 5734 5734 5734 5734 5734 5734 5734 5734 5734 5734 5734 5734 5734 5734 5734 5734 5640 5640 5734 5832 5832 5933 5933 6038 6038 6038 5933 5933 5933 5832 5832 5832 5832 5734 5734 5832 5933 5933 5933 5933 5933 5933 6038 6038 6038 6038 6038 6038 6038 6038 6038 6038 6038 6038 6038 5933 5933 5933 5933 5933 5933 5933 0 0 0 0 0 0 0 0 0 0 0 0 0
0 0 0 0 0 0 0 0 0 0 0 0 0 0 0 0 0 0 0 0 0 0 0 0 0 0 0 0 0 0 0 0 0 2639 2639 2639 2659 2659 2680 2680 2701 2701 2701 2723 2723 2723 2723 2723 2723 2744 2744 2744 2767 2767 2767 2789 2789 2789 2789 2789 2789 2789 2812 2812 2812 3333 3333 3333 3269 3269 3269 3269 3300 3300 3333 3333 3365 3433 3468 2883 2883 2933 2933 2933 2933 2933 2933 2933 2933 2933 2933 2958 2958 2958 2958 2958 2958 2984 2984 2984 2984 2984 2984 2984 3010 3010 3037 3037 3037 3037 3037 3064 3064 3064 3064 3064 3092 3092 3092 3092 3092 3092 3120 3120 3120 3149 3178 3178 3178 3178 3178 3208 3208 3208 3208 3208 3208 0 0 0 0 0 0 0 3365 3365 3365 3365 3365 3365 3365 3399 3399 3399 3399 3399 3399 3399 3399 3433 3433 3433 3433 3433 3433 3433 3468 3468 3468 3468 3503 3503 3539 3539 3539 3539 3539 3576 3576 3576 3576 3576 3614 3614 3614 3614 3653 3692 3692 3692 3692 3692 3692 3692 3692 6375 6497 6622 6622 6889 7030 7332 7492 5291 5291 5291 5291 5374 5374 5374 5374 5374 5291 5291 5374 5374 5374 5374 5291 5291 5374 5374 5374 5374 5374 5374 5374 5374 5291 5291 5291 5291 5291 5291 5291 5291 5291 5291 5210 5210 5210 5210 5210 5210 5210 5210 5210 5132 5132 5210 5210 5210 5210 5210 5210 5210 5210 5210 5132 5132 5132 5132 5210 5132 5132 5210 5132 5132 5132 5132 5132 5132 5132 5132 5132 5132 5132 5132 5132 5132 5056 5056 5056 5056 5056 5056 5056 5056 5132 5132 5132 5132 5132 5210 5210 5210 5210 5210 5210 5210 5291 5291 5291 5291 5291 5291 5291 5291 5291 5291 5291 5291 5291 5291 5291 5291 5291 5291 5291 5291 5374 5460 5460 5460 5460 5460 5548 5548 5548 5548 5548 5640 5640 5640 5734 5832 5933 5933 5933 5933 5933 5933 5933 5933 5933 5933 5933 5933 5933 5933 6038 6038 6038 6038 6038 6146 6146 6259 6259 6259 6259 6259 6259 6375 7030 7332 7332 7332 7492 7492 7492 7492 7492 7492 7332 7332 7332 7332 7332 7332 7332 7492 7492 7492 3365 3365 3365 3365 3365 3365 3365 3365 3365 3365 3365 3365 3365 3333 3333 3333 3333 3333 3333 3300 3300 3300 3300 3300 3300 3300 3300 3300 3269 3269 3269 3269 3269 3238 3238 3238 3238 3238 3238 3238 3238 3238 3238 3238 3238 3208 3208 3208 3208 3208 3208 3208 3208 3208 3178 3178 3178 3178 3178 3178 3178 3178 3178 3178 3178 3178 3178 3178 3149 3149 3149 3149 3149 3149 3149 3120 3120 3120 3120 3120 3120 3092 3092 3092 3092 3092 3092 3092 3092 3092 3092 3092 3092 3092 3092 3092 3092 3092 3064 3064 3064 3092 3092 3092 3092 3092 3092 3120 3120 3149 3149 3178 3178 3208 3208 3269 3269 3300 3300 3333 3365 3399 3433 3433 3433 3503 3539 3539 3539 3539 4190 4190 4190 4190 4190 4190 4139 4089 4089 4139 4139 4139 4089 4089 4139 4089 4089 4089 4089 4089 4089 4089 4089 4089 4089 4089 4139 4139 4190 4190 4190 4295 4295 5734 5734 5734 5832 5933 5933 5933 5933 5933 5933 5933 5832 5832 5832 5832 5734 5734 5734 5734 5734 5734 5734 5734 5734 5734 5734 5734 5734 5734 5734 5734 5734 5734 5734 5640 5640 5734 5832 5933 5933 5933 6038 6038 6038 5933 5933 5832 5832 5832 5832 5832 5832 5832 5832 5933 5933 5933 5933 5933 5933 6038 6038 6038 6038 6038 6038 6038 6038 6038 6038 6038 6038 6038 6038 6038 6038 6038 5933 5933 5933 0 0 0 0 0 0 0 0 0 0 0 0 0
0 0 0 0 0 0 0 0 0 0 0 0 0 0 0 0 0 0 0 0 0 0 0 0 0 0 0 0 0 0 0 0 0 2639 2639 2639 2659 2659 2680 2680 2701 2701 2701 2723 2723 2723 2723 2723 2744 2744 2744 2767 2767 2767 2767 2789 2789 2789 2789 2789 2789 2789 2812 2812 2812 3333 3333 3333 3300 3269 3269 3300 3300 3300 3333 3333 3365 3399 2835 2835 2883 2908 2908 2908 2908 2908 2933 2933 2933 2933 2933 2958 2958 2958 2958 2958 2958 2984 2984 2984 2984 2984 2984 2984 3010 3037 3037 3037 3037 3037 3037 3064 3064 3064 3092 3092 3092 3092 3092 3092 3120 3120 3120 3149 3149 3149 3178 3178 3178 3178 3178 3208 3208 3208 3208 3208 3208 0 0 0 0 0 0 3433 3365 3365 3365 3365 3365 3365 3399 3399 3399 3399 3399 3399 3399 3399 3399 3433 3433 3433 3433 3433 3433 3433 3468 3468 3468 3468 3503 3503 3503 3539 3539 3539 3539 3576 3576 3576 3576 3576 3614 3614 3614 3614 3653 3692 3692 3692 3692 3692 3692 3692 6375 6375 6375 6622 6622 6889 7030 7178 7492 5291 5291 5291 5291 5291 5374 5374 5374 5374 5291 5291 5374 5374 5374 5374 5374 5374 5374 5374 5374 5374 5374 5374 5374 5291 5291 5291 5291 5291 5291 5291 5291 5291 5291 5291 5210 5210 5291 5210 5210 5210 5210 5210 5210 5210 5210 5210 5210 5210 5210 5210 5210 5210 5210 5210 5132 5132 5132 5132 5132 5132 5132 5210 5210 5210 5132 5132 5132 5132 5132 5132 5132 5132 5132 5132 5132 5132 5056 5056 5056 5056 5056 5056 5056 5056 5132 5132 5132 5132 5132 5210 5210 5210 5210 5210 5210 5210 5291 5291 5291 5291 5291 5291 5291 5291 5291 5291 5291 5291 5291 5291 5291 5291 5291 5291 5374 5374 5374 5460 5548 5460 5460 5460 5548 5548 5548 5548 5548 5640 5640 5734 5832 5832 5933 5933 5933 5933 5933 5933 5933 5933 5933 5933 5933 5933 6038 6038 6038 6038 6038 6038 6038 6146 6146 6259 6259 6259 6259 6259 6259 6375 7178 7332 7332 7332 7492 7492 7492 7492 7492 7492 7332 7332 7332 7332 7332 7332 7492 7492 7492 7492 3365 3365 3365 3365 3365 3365 3365 3365 3365 3365 3365 3365 3365 3365 3365 3333 3333 3333 3333 3333 3333 3300 3300 3300 3300 3300 3300 3300 3269 3269 3269 3269 3269 3238 3238 3238 3238 3238 3238 3238 3238 3238 3238 3238 3208 3208 3208 3208 3208 3208 3208 3208 3208 3208 3178 3178 3178 3178 3178 3178 3178 3178 3178 3178 3178 3178 3178 3178 3178 3149 3149 3149 3149 3149 3149 3120 3120 3120 3120 3120 3120 3092 3092 3092 3092 3092 3092 3092 3092 3092 3092 3092 3092 3092 3092 3092 3092 3092 3092 3092 3092 3092 3092 3092 3092 3092 3092 3120 3149 3149 3178 3178 3178 3208 3208 3269 3269 3300 3300 3333 3365 3399 3433 3433 3433 3468 3539 3539 3539 3539 4190 4139 4139 4190 4190 4190 4190 4089 4089 4139 4139 4139 4139 4139 4139 4089 4089 4089 4089 4089 4089 4089 4089 4089 4089 4089 4139 4139 4190 4190 4190 4295 4295 5734 5734 5734 5832 5933 5933 5933 5933 5933 5933 5933 5832 5832 5832 5832 5734 5734 5734 5734 5734 5734 5734 5734 5734 5734 5734 5734 5734 5734 5734 5734 5734 5734 5734 5640 5640 5832 5933 5933 6038 6038 6038 6038 5933 5933 5832 5832 5734 5734 5734 5734 5832 5832 5832 5933 6038 6038 6038 6038 6038 6038 6038 6038 6038 6038 6038 6038 6038 6038 6038 6038 6038 6038 6038 6038 6038 6038 5933 5933 5933 0 0 0 0 0 0 0 0 0 0 0 0 0
0 0 0 0 0 0 0 0 0 0 0 0 0 0 0 0 0 0 0 0 0 0 0 0 0 0 0 0 0 0 0 0 0 2639 2639 2639 2659 2659 2680 2680 2701 2701 2701 2723 2723 2723 2723 2723 2744 2744 2744 2767 2767 2767 2767 2789 2789 2789 2789 2789 2789 2789 2812 2812 2812 3333 3333 3333 3300 3300 3300 3300 3333 3333 3333 3333 3333 3365 2835 2835 2883 2908 2908 2908 2908 2908 2933 2933 2933 2933 2933 2958 2958 2958 2958 2984 2984 2984 2984 2984 2984 2984 2984 2984 3010 3037 3037 3037 3037 3037 3037 3064 3064 3064 3092 3092 3092 3092 3092 3092 3120 3120 3120 3149 3149 3149 3178 3178 3178 3208 3208 3208 3208 3238 3238 3238 3269 0 0 0 0 0 0 3433 3365 3365 3399 3365 3365 3399 3399 3399 3399 3399 3399 3399 3399 3399 3399 3433 3433 3433 3433 3433 3433 3468 3468 3468 3468 3468 3503 3503 3503 3539 3539 3539 3539 3576 3576 3576 3576 3576 3614 3614 3653 3653 3653 3692 3692 3692 3692 3692 3732 3732 6375 6375 6375 6622 6622 6889 7030 7178 7178 5291 5291 5291 5291 5291 5291 5291 5291 5291 5291 5291 5291 5374 5374 5374 5374 5374 5374 5374 5374 5374 5374 5374 5291 5291 5291 5291 5291 5291 5291 5291 5291 5291 5291 5291 5210 5210 5291 5210 5210 5210 5210 5210 5210 5210 5210 5210 5210 5210 5210 5210 5210 5210 5210 5210 5210 5210 5132 5132 5132 5132 5132 5132 5132 5132 5132 5132 5132 5132 5132 5132 5132 5132 5132 5132 5132 5056 5056 5056 5056 5056 5056 5056 5056 5056 5132 5132 5132 5132 5132 5210 5210 5210 5210 5210 5210 5210 5291 5291 5291 5291 5291 5291 5291 5291 5291 5291 5291 5291 5291 5291 5291 5291 5291 5291 5374 5374 5374 5548 5548 5460 5460 5460 5548 5548 5548 5548 5548 5640 5640 5734 5832 5933 5933 5933 5933 5933 5933 5933 5933 5933 5933 5933 5933 5933 6038 6038 6038 6038 6038 6038 6038 6146 6146 6146 6146 6146 6259 6259 6259 6375 7332 7332 7332 7492 7492 7492 7492 7492 7492 7492 7492 7492 7332 7332 7332 7492 7492 7492 7492 7492 3365 3365 3365 3365 3365 3365 3365 3365 3365 3365 3365 3365 3365 3365 3365 3333 3333 3333 3333 3333 3333 3333 3333 3333 3333 3300 3300 3300 3269 3269 3269 3269 3269 3238 3238 3238 3238 3238 3238 3238 3238 3238 3238 3238 3208 3208 3208 3208 3208 3208 3208 3208 3208 3178 3178 3178 3178 3178 3178 3178 3178 3178 3178 3178 3178 3178 3178 3178 3178 3149 3149 3178 3178 3178 3149 3120 3120 3120 3120 3120 3092 3092 3092 3092 3092 3092 3092 3092 3092 3092 3092 3092 3092 3092 3092 3092 3092 3092 3092 3092 3092 3092 3092 3092 3092 3092 3092 3120 3149 3149 3178 3178 3208 3238 3238 3269 3300 3300 3333 3333 3365 3399 3433 3433 3433 3468 3539 3539 3539 4190 4190 4139 4139 4190 4190 4190 4190 4190 4139 4139 4139 4139 4139 4139 4139 4139 4089 4089 4089 4089 4089 4089 4089 4089 4089 4089 4139 4139 4190 4190 4190 4295 5933 5832 5832 5832 5832 5933 5933 5933 5933 5933 5933 5832 5832 5832 5832 5832 5734 5734 5734 5734 5734 5734 5734 5734 5734 5734 5734 5734 5734 5734 5734 5734 5734 5734 5734 5734 5734 5832 5933 5933 6038 6038 6038 6038 5933 5933 5832 5734 5734 5734 5734 5734 5832 5832 5832 5933 5933 6038 5933 5933 6038 6038 6038 6038 6038 6038 6038 6038 6038 6038 6038 6038 6038 6038 6038 6038 6038 6038 5933 5933 5933 0 0 0 0 0 0 0 0 0 0 0 0 0
0 0 0 0 0 0 0 0 0 0 0 0 0 0 0 0 0 0 0 0 0 0 0 0 0 0 0 0 0 0 0 0 0 2639 2639 2639 2659 2659 2659 2680 2680 2701 2701 2723 2723 2723 2723 2744 2744 2744 2744 2767 2767 2767 2767 2789 2789 2789 2789 2789 2789 2789 2812 2812 2812 3333 3333 3333 3300 3300 3300 3300 3333 3333 3333 3333 3333 3365 2835 2835 2883 2883 2908 2908 2908 2908 2933 2933 2933 2933 2933 2958 2958 2958 2958 2984 2984 2984 2984 2984 2984 3010 3010 3010 3037 3037 3037 3037 3037 3064 3064 3064 3064 3064 3092 3092 3092 3092 3092 3092 3120 3120 3120 3149 3149 3178 3178 3178 3178 3208 3208 3208 3238 3238 3238 3238 3238 0 0 0 0 0 0 3399 3365 3365 3399 3365 3365 3399 3399 3399 3399 3399 3399 3399 3399 3399 3399 3433 3433 3433 3433 3433 3433 3468 3468 3503 3503 3503 3503 3503 3503 3539 3539 3539 3539 3576 3576 3576 3576 3576 3614 3614 3614 3653 3653 3692 3732 3732 3732 3732 3732 3732 0 0 0 0 0 7030 7030 7332 0 5291 5291 5291 5291 5291 5291 5291 5291 5291 5291 5291 5291 5374 5374 5374 5374 5374 5374 5374 5374 5374 5374 5374 5291 5291 5374 5291 5291 5374 5374 5374 5291 5291 5291 5374 5291 5291 5291 5210 5210 5210 5210 5210 5210 5210 5210 5210 5210 5210 5210 5210 5210 5210 5210 5210 5210 5210 5132 5132 5132 5132 5132 5132 5132 5132 5132 5132 5132 5132 5132 5132 5132 5132 5132 5132 5132 5056 5056 5056 5056 5056 5056 5056 5056 5132 5132 5132 5132 5132 5132 5210 5210 5210 5210 5210 5210 5210 5291 5291 5291 5291 5291 5291 5291 5291 5291 5291 5291 5291 5291 5291 5291 5291 5291 5291 5374 5374 5374 5548 5548 5460 5460 5460 5548 5548 5548 5548 5640 5640 5640 5734 5832 5933 5933 5933 5933 5933 5933 5933 5933 5933 5933 5933 5933 5933 5933 5933 6038 6038 6038 6146 6146 6146 6146 6146 6146 6146 6259 6259 6259 6259 7178 7332 7332 7492 7492 7492 7492 7492 7492 7492 7492 7492 7332 7332 7492 7492 7492 7492 7492 7492 3333 3333 3365 3365 3399 3365 3365 3365 3365 3365 3365 3365 3365 3365 3365 3365 3365 3333 3333 3333 3333 3333 3333 3333 3333 3333 3333 3300 3269 3269 3269 3269 3269 3238 3238 3238 3238 3238 3238 3238 3238 3238 3238 3238 3208 3208 3208 3208 3208 3208 3208 3208 3178 3178 3178 3178 3178 3178 3178 3178 3178 3178 3178 3178 3149 3149 3178 3178 3178 3178 3178 3149 3149 3149 3149 3120 3120 3120 3120 3120 3092 3092 3092 3092 3092 3092 3092 3092 3092 3092 3092 3092 3092 3092 3092 3092 3092 3092 3092 3092 3092 3092 3092 3092 3092 3092 3120 3120 3149 3178 3178 3208 3208 3238 3238 3269 3300 3300 3333 3333 3365 3399 3433 3433 3468 3539 3539 3539 4241 4139 4139 4139 4139 4139 4190 4190 4190 4190 4190 4190 4190 4139 4139 4139 4139 4139 4089 4089 4089 4089 4089 4089 4089 4089 4089 4139 4139 4139 4190 4190 4190 5933 5933 5832 5832 5832 5832 5933 5933 5933 5933 5933 5933 5832 5832 5832 5832 5832 5832 5734 5734 5734 5734 5734 5734 5734 5734 5734 5734 5734 5734 5734 5734 5734 5734 5734 5734 5734 5734 5933 5933 6038 6038 6038 6038 6038 5933 5933 5832 5734 5734 5734 5734 5734 5832 5832 5832 5933 5933 5933 5933 5933 6038 6038 6038 6038 6038 6038 6038 6038 6038 6038 6038 6038 6038 6038 6038 6038 6038 5933 5933 5933 5933 0 0 0 0 0 0 0 0 0 0 0 0 0
