0 0 0 0 0 0 0 0 0 0 0 0 0 0 0 0 0 0 0 0 0 0 0 0 0 0 0 0 0 0 0 0 0 2170 2170 2170 2170 2170 2170 2170 2170 2170 2170 2170 2170 2170 2170 2170 2170 2170 2170 2170 2170 2170 2170 2170 2170 2170 2170 2170 2170 2184 2184 2184 2184 2184 2184 2170 2170 2170 2170 2170 2184 2184 2184 2184 2184 2184 2184 2184 2170 2170 2170 2184 2184 2184 2184 2184 2198 2184 2184 2184 2184 2184 2184 2184 2184 2184 2184 2170 2170 1594 1594 1594 1594 1594 1594 1594 1594 1594 1601 1601 1601 1601 1609 1609 1609 1609 1616 1624 1624 1616 1543 1543 1550 1543 1543 1550 1550 1550 1557 1557 1557 1557 1557 1564 1564 1564 1564 1564 1572 1572 1572 1579 1579 1579 1579 1579 1586 1586 1586 1586 1586 1586 1586 1572 1572 1579 1579 1579 1579 1579 1579 1579 1579 1586 1586 1586 1586 1579 1579 1579 1579 1579 1579 1579 1579 1579 1586 1586 1586 1594 1601 1601 1609 1609 1601 1601 1601 1594 1594 1601 1601 1601 1601 1601 1601 1601 1601 1601 1601 1601 1601 1586 1586 1609 1609 1616 1616 1624 1624 2256 1616 1616 1616 2256 2256 2256 2256 2256 2256 2256 2271 2271 1616 1609 1609 1609 1616 1616 1609 1609 1609 1616 1616 1616 1616 1616 1624 1624 1632 2016 2016 2016 2028 2028 2028 2028 2271 2271 2271 2241 2226 2129 2129 2129 2129 2129 2129 2129 2143 2156 2198 2226 2241 2271 2271 2286 2286 2286 2286 1981 1981 1981 1993 1993 1993 2005 2005 2005 2005 2016 2016 0 0 0 0 0 0 0 1579 1579 1579 1579 1572 1572 1572 1572 1572 1572 1579 1579 1586 1586 1594 1594 1601 1601 1601 1601 1601 1601 1601 1601 1601 1601 1601 1601 1601 1601 1601 1609 1609 1609 1609 1609 1609 1609 1609 1609 1609 1601 1601 1601 1601 1609 1609 1609 1609 1609 1609 1609 1609 1609 1609 1609 1609 1609 1616 1616 1616 1616 1616 1616 1616 1616 1616 1616 1616 1616 1624 1624 1624 1624 1624 1624 1624 1624 1624 1624 1624 1624 1624 1632 1632 1632 1632 1632 1632 1632 1639 1639 1639 1639 1639 1639 1639 1639 1632 1632 1632 1632 1632 1632 1632 1632 1632 1632 1632 1632 1632 2301 2301 2317 2317 2317 2317 2317 2333 2333 2333 2333 2333 2333 2317 2317 2317 2317 2317 2317 2317 2317 2317 2317 2317 2317 2317 2317 2317 2317 2317 2317 2317 2317 2317 2317 2317 2317 2317 2317 2317 2301 2301 2301 2286 2286 2286 1823 1823 1813 1804 1804 1794 1794 1794 1794 1794 1794 1794 1794 1804 1804 1804 1804 1804 1804 1804 1813 2317 2317 2317 2317 2317 2317 2317 2317 2333 2333 2333 2333 2317 2317 2317 2317 2317 2317 2317 2317 2317 2333 2333 2317 2317 2333 2333 2333 2333 2317 2317 2333 2333 2333 2317 2301 2301 2301 2301 2301 2317 2317 2317 2317 2317 2317 2301 2301 2301 2301 2301 2301 2301 2301 2301 2301 2317 2301 2301 2317 2317 2317 2317 2317 2317 2317 2317 2317 2317 2317 2317 2317 2317 2317 2317 2317 2317 2317 2317 2317 2317 2317 2317 2317 2317 2317 2317 2317 2317 2317 2317 2317 2317 2317 2317 2317 2317 2317 2317 2317 2333 2317 2317 2317 2317 2317 2317 2317 2317 2317 2317 2317 2317 2317 2317 2317 2317 2317 2301 2301 2317 2301 2301 2301 2301 2301 2301 2301 2301 2301 2301 2301 2301 2301 2301 2301 2301 2301 2301 2301 2301 2301 2301 2301 2301 2301 2301 2301 2301 2301 2301 2301 2301 2301 2301 2301 2286 2286 2286 2286 2286 2286 2301 0 0 0 0 0 0 0 0 0
0 0 0 0 0 0 0 0 0 0 0 0 0 0 0 0 0 0 0 0 0 0 0 0 0 0 0 0 0 0 0 0 0 2156 2156 2170 2170 2170 2170 2170 2156 2156 2156 2156 2156 2156 2156 2170 2170 2170 2170 2170 2170 2170 2170 2170 2170 2170 2170 2170 2170 2170 2170 2170 2170 2184 2170 2170 2156 2156 2156 2170 2170 2170 2170 2170 2170 2170 2170 2170 2170 2170 2170 2170 2170 2170 2170 2184 2184 2170 2170 2170 2170 2170 2170 2184 2184 2184 2170 2170 2170 2170 1594 1594 1594 1594 1594 1594 1601 1601 1601 1601 1601 1601 1609 1609 1609 1616 1616 1624 1624 1624 1609 1557 1550 1550 1550 1550 1550 1557 1557 1557 1557 1557 1557 1564 1564 1564 1564 1564 1572 1579 1579 1579 1579 1579 1579 1586 1586 1586 1586 1586 1586 1586 1586 1572 1572 1579 1579 1579 1579 1579 1579 1579 1586 1586 1586 1586 1579 1579 1579 1579 1579 1579 1579 1579 1579 1579 1586 1586 1586 1594 1609 1609 1609 1609 1609 1609 1601 1601 2212 2212 2226 2241 2241 2241 2241 2256 2256 2256 2256 2241 2241 1586 1586 2241 1616 1616 1624 2241 2256 2256 2256 2256 2256 2256 2256 2256 2256 2256 2256 2256 2256 2256 2256 1609 1609 1609 1609 1616 1609 1609 1616 1616 1616 1616 1616 1616 1624 1624 1639 2016 2016 2016 2028 2028 2028 2028 2256 2256 2256 2241 2212 2143 2143 2129 2129 2129 2129 2143 2143 2170 2184 2226 2241 2256 2256 2271 2271 2286 2286 1981 1981 1981 1993 1993 1993 2005 2005 2016 2016 2016 2016 0 0 0 0 0 0 1579 1579 1579 1579 1579 1579 1579 1572 1572 1572 1579 1579 1579 1586 1586 1594 1594 1601 1601 1601 1601 1601 1601 1601 1601 1601 1601 1601 1609 1609 1609 1609 1609 1609 1609 1609 1609 1609 1609 1609 1609 1609 1601 1601 1601 1601 1609 1609 1609 1609 1609 1609 1609 1609 1609 1609 1609 1609 1616 1616 1616 1616 1616 1616 1616 1609 1609 1609 1601 1601 1609 1616 1624 1624 1624 1616 1616 1624 1624 1624 1624 1624 1624 1624 1624 1624 1624 1624 1624 1624 1632 1639 1639 1639 1639 1647 1639 1639 1639 1632 1632 1632 1632 1632 1632 1632 1632 1632 1639 1639 1639 1639 2301 2301 2317 2317 2317 2317 2317 2317 2317 2317 2333 2333 2333 2317 2317 2317 2317 2317 2317 2317 2317 2317 2317 2317 2317 2317 2317 2317 2317 2317 2317 2317 2317 2317 2317 2301 2301 2317 2317 2317 2301 2301 2301 2286 2286 2286 1823 1823 1813 1804 1804 1804 1794 1794 1794 1794 1794 1804 1804 1804 1804 1804 1804 1804 1804 1804 2301 2301 2301 2301 2317 2317 2317 2317 2317 2317 2317 2317 2317 2317 2317 2317 2317 2317 2317 2317 2317 2317 2317 2317 2317 2317 2317 2317 2317 2317 2317 2317 2317 2317 2317 2301 2301 2301 2301 2301 2301 2301 2301 2301 2301 2301 2301 2301 2301 2301 2301 2301 2301 2301 2301 2301 2301 2301 2301 2301 2301 2301 2301 2317 2317 2317 2317 2317 2317 2317 2317 2317 2317 2317 2317 2317 2317 2317 2317 2317 2301 2301 2301 2301 2301 2301 2301 2301 2317 2317 2301 2301 2317 2317 2317 2317 2317 2317 2317 2317 2317 2317 2317 2317 2317 2317 2317 2317 2317 2317 2317 2317 2317 2317 2301 2301 2301 2301 2301 2301 2301 2301 2286 2286 2301 2301 2301 2301 2301 2301 2286 2286 2286 2286 2286 2286 2301 2301 2301 2301 2301 2301 2301 2286 2286 2286 2286 2286 2286 2301 2301 2301 2301 2301 2301 2286 2286 2286 2286 2286 2286 2286 2286 2286 0 0 0 0 0 0 0 0 0
0 0 0 0 0 0 0 0 0 0 0 0 0 0 0 0 0 0 0 0 0 0 0 0 0 0 0 0 0 0 0 0 0 2143 2143 2143 2143 2143 2143 2143 2143 2143 2156 2156 2156 2156 2156 2156 2156 2156 2156 2156 2156 2156 2156 2156 2156 2156 2156 2156 2156 2156 2156 2170 2170 2170 2156 2156 2156 2156 2156 2156 2156 2170 2170 2156 2156 2156 2156 2156 2156 2156 2156 2170 2170 2170 2170 2170 2170 2170 2170 2170 2170 2170 2170 2170 2170 2170 2170 2170 2156 2156 1601 1601 1594 1594 1594 1601 1601 1601 1601 1601 1601 1601 1609 1609 1609 1616 1616 1624 1624 1616 1609 1557 1557 1550 1550 1550 1550 1557 1557 1557 1557 1557 1564 1564 1564 1564 1564 1572 1579 1579 1579 1579 1579 1579 1579 1579 1579 1586 1586 1586 1594 1586 1586 1579 1579 1579 1572 1572 1579 1579 1579 1586 1586 1586 1586 2040 1579 1579 1579 1579 1579 1579 1579 1579 1579 1579 1586 1586 2198 2198 2198 1616 1616 2212 2212 2212 2212 2212 2226 2226 2226 2241 2241 2241 2241 2241 2241 2241 2241 2241 2241 2241 2241 2241 2241 2241 2241 2241 2241 2256 2256 2256 2256 2256 2241 2241 2241 2241 2241 2241 2241 2241 2241 2241 1609 1609 1609 1609 1609 1609 1616 1616 1616 1616 1624 1624 1624 1624 1639 1639 2005 2016 2028 2028 2028 2028 2256 2241 2241 2226 2212 2143 2143 2129 2129 2129 2129 2143 2156 2170 2184 2212 2226 2241 2256 2271 2271 2271 2286 1981 1981 1993 1993 1993 1993 2005 2005 2016 2016 2016 2016 0 0 0 0 0 0 1579 1579 1579 1579 1579 1579 1579 1579 1579 1579 1579 1579 1579 1586 1586 1594 1594 1601 1601 1601 1601 1601 1601 1601 1601 1601 1601 1601 1609 1609 1609 1609 1609 1609 1609 1609 1609 1609 1609 1609 1609 1609 1601 1601 1601 1609 1609 1609 1609 1609 1601 1601 1609 1609 1609 1616 1616 1616 1616 1616 1616 1616 1616 1616 1616 1601 1601 1609 1601 1601 1609 1616 1624 1624 1624 1616 1616 1616 1616 1616 1616 1616 1624 1624 1624 1624 1624 1624 1624 1624 1632 1639 1639 1647 1647 1647 1639 1639 1632 1632 1632 1632 1632 1632 1632 1632 1632 1639 1639 1639 1639 1647 2301 2301 2317 2317 2317 2317 2317 2317 2317 2317 2317 2317 2317 2301 2301 2301 2317 2317 2317 2317 2317 2317 2317 2317 2301 2301 2317 2317 2317 2317 2317 2317 2301 2301 2301 2301 2301 2301 2301 2317 2317 2301 2301 2286 2286 1823 1823 1823 1823 1813 1804 1804 1804 1804 1804 1804 1804 1804 1804 1804 1813 1813 1813 1813 1804 1804 2301 2301 2301 2301 2301 2301 2301 2301 2301 2301 2317 2317 2317 2317 2317 2317 2317 2317 2317 2317 2317 2317 2301 2301 2301 2301 2301 2301 2301 2317 2317 2317 2317 2317 2317 2301 2301 2301 2301 2301 2301 2301 2301 2301 2301 2286 2286 2286 2286 2301 2301 2301 2301 2301 2301 2301 2301 2301 2301 2301 2301 2301 2301 2301 2301 2301 2301 2301 2301 2301 2301 2301 2301 2317 2317 2317 2317 2317 2301 2301 2301 2301 2301 2301 2301 2301 2301 2301 2301 2301 2301 2301 2301 2301 2301 2301 2301 2301 2301 2301 2301 2301 2301 2317 2317 2317 2317 2317 2317 2317 2301 2301 2301 2301 2301 2301 2286 2286 2286 2286 2286 2301 2286 2286 2286 2286 2286 2301 2286 2286 2286 2286 2286 2286 2286 2286 2286 2286 2286 2286 2301 2286 2286 2286 2286 2286 2286 2286 2286 2286 2286 2286 2286 2286 2286 2286 2271 2271 2271 2286 2286 2286 2286 2286 0 0 0 0 0 0 0 0 0
0 0 0 0 0 0 0 0 0 0 0 0 0 0 0 0 0 0 0 0 0 0 0 0 0 0 0 0 0 0 0 0 0 2129 2129 2129 2143 2143 2143 2143 2143 2143 2143 2156 2156 2143 2143 2143 2143 2143 2143 2143 2143 2156 2156 2156 2156 2156 2156 2156 2156 2156 2156 2156 2156 2170 2156 2156 2156 2156 2156 2156 2156 2156 2156 2156 2156 2156 2143 2143 2143 2143 2143 2156 2156 2156 2156 2156 2156 2156 2156 2156 2156 2156 2156 2156 2156 2170 2170 2170 2156 2156 2156 1601 1601 1594 1594 1601 1601 1601 1601 1601 1601 1609 1609 1609 1616 1616 1616 1624 1624 1616 1609 1557 1557 1550 1550 1550 1550 1557 1557 1557 1557 1564 1564 1564 1564 1564 1564 1572 1579 1579 1579 1564 1564 1579 1579 1579 1579 1586 1594 1594 1594 1594 2212 2212 2226 2226 1572 1572 1579 1579 1586 1586 2040 2040 2040 2040 2040 2184 2184 2184 2198 2198 2198 2198 2198 2198 2198 2198 2198 2198 2198 2198 2198 2198 2198 2212 2212 2226 2226 2226 2226 2226 2226 2226 2226 2226 2226 2241 2241 2241 2241 2241 2241 2241 2241 2241 2241 2241 2241 2241 2241 2241 2241 2241 2241 2241 2241 2241 2241 2241 2241 2241 2241 2241 1609 1609 1609 1609 1609 1609 1616 1616 1616 1624 1624 1624 1624 1632 1639 1639 1993 2016 2028 2028 2028 2028 2241 2241 2226 2226 2212 2156 2143 2143 2129 2129 2143 2156 2156 2170 2184 2198 2226 2241 2241 2256 2256 2271 2286 1970 1970 1981 1981 1981 1993 2005 2005 2016 2016 2016 2016 0 0 0 0 0 1579 1579 1579 1579 1579 1579 1579 1579 1579 1579 1579 1579 1579 1579 1586 1594 1594 1594 1594 1601 1601 1601 1601 1601 1601 1601 1601 1601 1601 1609 1601 1601 1601 1601 1601 1601 1609 1609 1609 1609 1609 1609 1609 1609 1609 1609 1609 1609 1609 1609 1609 1601 1601 1609 1609 1616 1616 2256 2256 2271 2271 2256 2256 2271 2226 2226 1601 1601 2271 2271 2271 2271 2271 2241 2241 2256 1624 1616 1616 1616 1601 1601 1616 1624 1624 1624 1624 2016 2016 2016 0 0 0 0 0 0 0 1639 1639 1632 1632 1632 1632 1632 1632 1632 1632 1632 1639 1639 1639 1647 1647 2301 2301 2301 2301 2301 2301 2301 2301 2301 2301 2317 2317 2317 2301 2301 2301 2301 2301 2301 2301 2301 2301 2301 2301 2301 2301 2301 2301 2301 2301 2301 2301 2301 2301 2301 2286 2286 2301 2301 2301 2301 2301 2301 2301 2301 1823 1823 1823 1823 1813 1813 1804 1804 1804 1804 1804 1804 1813 1813 1813 1813 1813 1813 1813 1813 1813 2286 2286 2286 2286 2286 2286 2286 2286 2286 2301 2301 2301 2301 2301 2301 2301 2301 2301 2301 2301 2301 2301 2286 2286 2286 2286 2286 2286 2286 2286 2301 2301 2301 2301 2301 2286 2286 2271 2271 2271 2271 2271 2271 2271 2271 2271 2271 2286 2286 2286 2286 2301 2301 2301 2301 2301 2301 2301 2286 2286 2286 2286 2286 2286 2301 2301 2301 2301 2301 2301 2301 2301 2301 2301 2301 2301 2301 2301 2301 2301 2301 2301 2301 2301 2301 2301 2301 2301 2301 2301 2301 2301 2301 2301 2301 2301 2301 2301 2301 2301 2301 2301 2301 2301 2301 2301 2301 2301 2301 2301 2301 2301 2301 2301 2301 2286 2286 2286 2286 2286 2286 2286 2286 2286 2286 2286 2286 2286 2286 2286 2286 2286 2286 2286 2286 2286 2286 2286 2286 2286 2286 2286 2286 2286 2286 2271 2271 2271 2271 2286 2286 2286 2286 2286 2271 2271 2256 2256 2271 2271 2271 2271 2286 2286 0 0 0 0 0 0 0 0 0
0 0 0 0 0 0 0 0 0 0 0 0 0 0 0 0 0 0 0 0 0 0 0 0 0 0 0 0 0 0 0 0 0 2129 2129 2129 2129 2129 2129 2129 2129 2129 2143 2143 2143 2143 2129 2129 2129 2129 2129 2129 2129 2143 2156 2143 2143 2156 2156 2156 2156 2156 2156 2156 2156 2156 2143 2143 2143 2143 2143 2143 2143 2156 2156 2143 2143 2143 2143 2143 2143 2143 2143 2143 2143 2143 2143 2156 2156 2156 2156 2156 2156 2156 2156 2156 2156 2156 2156 2156 2156 2156 2156 1601 1594 1594 1594 1601 1601 1601 1601 1601 1609 1609 1609 1609 1616 1616 1616 1624 1624 1624 1616 1564 1557 1557 1557 1550 1550 1557 1557 1557 1557 1564 1564 1564 1564 1564 1564 1572 1579 1579 1564 1564 1564 1564 1564 1579 1579 1586 1594 1594 1594 2212 2212 2198 2198 2198 2040 1586 1586 1586 1586 2028 2040 2040 2040 2040 2053 2143 2184 2198 2198 2198 2198 2198 2198 2198 2198 2198 2198 2198 2198 2198 2198 2198 2198 2198 2198 2212 2212 2212 2226 2226 2226 2226 2226 2226 2226 2226 2226 2226 2226 2226 2226 2226 2226 2226 2226 2226 2241 2241 2241 2241 2241 2241 2241 2241 2241 2241 2241 2241 2241 2241 2241 2241 1609 1609 1609 1616 1616 1616 1616 1616 1624 1624 1624 1624 1624 1632 1639 1993 1993 2016 2028 2028 2028 2028 2241 2226 2226 2226 2212 2184 2143 2143 2143 2143 2143 2156 2156 2170 2184 2198 2226 2226 2241 2241 2241 2256 1970 1970 1970 1981 1981 1981 1993 2005 2005 2005 2005 2016 2016 0 0 0 0 0 1579 1579 1579 1579 1579 1579 1579 1579 1579 1579 1579 1579 1579 1586 1586 1594 1594 1594 1594 1601 1601 1601 1601 1601 1609 1601 1601 1601 1601 1609 1601 1601 1601 1601 1601 1601 1601 1609 1609 1609 1609 1609 1616 1609 1609 1609 1609 1609 1609 1609 1609 1609 1609 1609 1609 2256 2256 2256 2271 2271 2271 2271 2271 2271 2271 2271 2271 2271 2271 2271 2271 2271 2271 2256 2256 2256 2241 2241 2271 2053 1601 1601 2040 2028 2016 2016 2016 2016 2016 2016 0 0 0 0 0 0 0 1655 1639 1639 1632 1632 1632 1632 1632 1632 1632 1639 1639 1639 1639 1647 1647 2286 2286 2301 2301 2301 2301 2301 2301 2301 2301 2301 2301 2301 2286 2286 2286 2301 2286 2286 2286 2286 2286 2286 2286 2286 2286 2286 2286 2286 2286 2286 2286 2286 2286 2286 2286 2286 2286 2286 2301 2301 2286 2286 2301 2301 1823 1823 1823 1823 1823 1813 1813 1813 1804 1804 1804 1813 1813 1813 1813 1813 1823 1823 1813 1813 1813 1813 2286 2286 2286 2286 2286 2286 2286 2286 2286 2286 2286 2286 2286 2301 2286 2286 2286 2286 2286 2301 2286 2286 2286 2286 2286 2286 2286 2286 2286 2286 2286 2286 2286 2286 2271 2271 2271 2256 2256 2256 2256 2256 2256 2271 2271 2271 2271 2271 2271 2286 2286 2271 2271 2286 2286 2286 2286 2271 2271 2271 2271 2271 2271 2271 2286 2286 2301 2301 2301 2301 2301 2301 2301 2301 2301 2301 2301 2286 2286 2286 2286 2286 2286 2286 2286 2286 2286 2301 2301 2301 2301 2301 2301 2301 2301 2301 2301 2286 2286 2301 2301 2301 2301 2301 2301 2301 2301 2301 2301 2301 2301 2301 2301 2286 2286 2286 2286 2286 2286 2286 2286 2271 2271 2271 2271 2286 2286 2286 2271 2271 2271 2286 2271 2271 2271 2286 2286 2286 2286 2286 2271 2271 2271 2271 2256 2256 2256 2256 2271 2271 2271 2271 2271 2256 2256 2256 2256 2256 2256 2271 2271 2271 2271 0 0 0 0 0 0 0 0 0
0 0 0 0 0 0 0 0 0 0 0 0 0 0 0 0 0 0 0 0 0 0 0 0 0 0 0 0 0 0 0 0 0 2129 2116 2116 2129 2129 2129 2129 2129 2129 2129 2129 2129 2129 2129 2116 2116 2129 2129 2129 2129 2129 2143 2129 2129 2143 2143 2143 2143 2143 2143 2156 2156 2156 2143 2143 2143 2143 2143 2143 2143 2143 2143 2143 2143 2143 2143 2143 2143 2143 2143 2143 2143 2143 2143 2143 2143 2143 2143 2143 2156 2156 2156 2156 2156 2156 2156 2156 2143 2143 2143 1601 1594 1594 1594 1601 1601 1601 1601 1609 1609 1609 1609 1609 1616 1616 1616 1624 1624 1632 1632 1632 1557 1557 1557 1557 1557 1557 1557 1557 1557 1564 1564 1564 1564 1564 1564 1564 1572 1586 1564 1557 1557 1557 1564 1572 1586 1586 1594 1594 1601 2198 2198 2184 2184 2184 2040 2040 2040 2028 2028 2028 2040 2040 2040 2040 2053 2078 2170 2184 2198 2198 2198 2198 2198 2198 2198 2198 2198 2198 2198 2198 2198 2198 2198 2198 2198 2198 2212 2212 2212 2212 2212 2212 2212 2212 2212 2212 2212 2212 2212 2212 2226 2226 2226 2226 2226 2226 2226 2226 2226 2226 2241 2226 2226 2241 2241 2226 2226 2226 2226 2226 2226 2226 1609 1609 1609 1616 1616 1616 1616 1616 1624 1624 1624 1632 1632 1639 1647 1993 1993 2016 1993 1993 2028 2028 2226 2226 2226 2226 2212 2184 2143 2143 2143 2143 2143 2156 2170 2184 2184 2212 2226 2226 2241 2241 2241 2241 1970 1970 1970 1981 1981 1981 1993 2005 2005 1993 1981 1981 0 0 0 0 0 0 1579 1579 1579 1579 1579 1579 1579 1579 1579 1579 1579 1579 1586 1586 1586 1594 1594 1601 2212 2212 2212 2226 1601 1601 1609 1609 1609 1609 1609 1609 1601 1601 1601 1601 1601 1601 1601 1609 1609 2226 2226 2226 2226 2226 2226 1616 1616 1624 2226 1616 1616 2241 2241 2241 2256 2256 2271 2271 2271 2271 2271 2256 2256 2256 2256 2271 2271 2271 2271 2271 2271 2271 2271 2256 2256 2256 2256 2256 2271 2053 2053 2040 2040 2028 2016 2016 2016 2016 2016 2016 0 0 0 0 0 0 0 1655 1639 1639 1639 1639 1639 1632 1632 1632 1639 1639 1639 1639 1639 1647 1647 2286 2286 2286 2286 2286 2286 2286 2286 2286 2286 2301 2301 2286 2286 2286 2286 2286 2286 2286 2286 2286 2286 2286 2286 2271 2271 2271 2271 2286 2286 2286 2286 2286 2286 2271 2271 2271 2286 2286 2286 2286 2286 2286 2286 2286 1823 1823 1823 1823 1823 1813 1813 1813 1813 1813 1813 1813 1813 1813 1813 1813 1823 1813 1813 1813 1813 1813 2271 2271 2271 2271 2271 2271 2271 2286 2286 2286 2286 2286 2286 2286 2286 2286 2271 2271 2271 2286 2271 2271 2271 2271 2271 2271 2271 2271 2271 2271 2271 2271 2271 2271 2256 2256 2256 2256 2256 2256 2256 2256 2256 2256 2256 2256 2271 2271 2271 2271 2271 2271 2271 2271 2271 2271 2271 2271 2256 2256 2256 2256 2256 2271 2271 2271 2271 2271 2271 2271 2271 2271 2271 2271 2271 2271 2271 2271 2286 2286 2286 2286 2286 2286 2286 2286 2286 2286 2301 2301 2301 2301 2301 2301 2301 2286 2286 2286 2286 2286 2286 2286 2286 2286 2301 2301 2301 2286 2286 2301 2301 2286 2286 2286 2286 2286 2286 2286 2286 2286 2286 2271 2271 2271 2271 2271 2271 2271 2271 2271 2271 2271 2271 2271 2271 2271 2271 2271 2271 2271 2271 2271 2271 2256 2256 2256 2256 2256 2271 2256 2256 2271 2271 2256 2241 2241 2241 2256 2256 2256 2256 2256 2256 0 0 0 0 0 0 0 0 0
0 0 0 0 0 0 0 0 0 0 0 0 0 0 0 0 0 0 0 0 0 0 0 0 0 0 0 0 0 0 0 0 0 0 2116 2116 2129 2129 2129 2129 2129 2129 2129 2129 2129 2116 2116 2116 2116 2116 2116 2116 2116 2116 2129 2129 2129 2129 2129 2129 2129 2129 2129 2143 2143 2143 2129 2129 2129 2143 2143 2129 2129 2143 2143 2129 2129 2129 2129 2129 2129 2129 2129 2129 2143 2143 2143 2143 2143 2143 2143 2143 2143 2143 2143 2143 2143 2143 2143 2143 2143 2143 2143 2143 1601 1601 1601 1601 1609 1609 1609 1609 1609 1616 1616 1616 1616 1616 1616 1624 1624 1624 1632 1639 1557 1557 1557 1557 1557 1557 1557 1557 1564 1564 1564 1564 1564 1564 1564 1564 1572 1572 1557 1557 1557 1557 1564 1572 1586 1586 1594 1601 2198 2184 2184 2184 2184 2170 2040 2040 2040 2040 2040 2040 2040 2040 2040 2040 2053 2078 2143 2184 2184 2198 2198 2198 2198 2198 2198 2198 2198 2198 2198 2198 2198 2198 2198 2198 2198 2198 2198 2198 2198 2198 2198 2212 2198 2198 2198 2198 2198 2212 2212 2212 2212 2212 2212 2212 2212 2212 2212 2226 2226 2226 2226 2226 2226 2226 2226 2226 2226 2212 2212 2212 2226 2226 1609 1609 1609 1616 1616 1616 1616 1616 1624 1624 1624 1632 1632 1632 1639 1647 1981 2016 1993 1993 1993 2212 2212 2212 2212 2212 2198 2184 2143 2143 2143 2143 2156 2170 2170 2184 2184 2198 2212 2226 2226 2241 2241 2241 1970 1970 1970 1981 1993 1993 1993 1993 1993 1993 1981 1981 1981 0 0 0 0 0 1579 1579 1586 1579 1579 1579 1579 1579 1579 1586 1586 1586 1586 1586 1594 1594 1594 1601 2212 2212 2212 2226 2241 2241 2241 2241 2241 2241 2241 2241 2241 2241 2226 2226 2226 2226 2226 2226 2226 2226 2226 2226 2226 2226 2226 2241 2241 2226 2226 2241 2241 2241 2241 2241 2256 2256 2256 2256 2256 2256 2256 2256 2256 2256 2256 2256 2256 2256 2271 2271 2271 2271 2271 2256 2256 2256 2256 2256 2271 2065 2053 2040 2040 2028 2028 2016 2016 2016 2016 2005 2005 0 0 0 0 0 0 1663 1647 1639 1639 1639 1639 1632 1632 1632 1639 1639 1639 1647 1647 1655 1655 2286 2286 2286 2286 2286 2286 2286 2286 2286 2286 2286 2286 2286 2271 2271 2271 2271 2271 2271 2271 2271 2271 2271 2271 2271 2271 2271 2271 2271 2271 2271 2271 2271 2271 2271 2271 2271 2271 2271 2271 2271 2286 2286 2286 1823 1823 1823 1823 1823 1823 1823 1823 1813 1813 1813 1813 1813 1813 1813 1813 1813 1813 1813 1813 1813 1823 2271 2271 2271 2271 2271 2271 2271 2271 2271 2271 2271 2286 2271 2271 2271 2271 2271 2271 2271 2271 2271 2271 2271 2271 2271 2271 2271 2271 2271 2271 2271 2271 2271 2271 2271 2256 2256 2256 2256 2256 2256 2256 2256 2256 2256 2256 2256 2256 2256 2271 2271 2271 2256 2256 2271 2271 2256 2256 2256 2256 2256 2256 2256 2256 2256 2256 2271 2271 2271 2271 2271 2271 2271 2271 2271 2271 2271 2271 2271 2271 2271 2271 2286 2286 2271 2271 2271 2271 2271 2271 2271 2271 2271 2271 2271 2271 2271 2271 2271 2271 2286 2286 2286 2286 2286 2286 2301 2286 2286 2286 2286 2286 2286 2286 2286 2286 2271 2271 2271 2271 2271 2271 2271 2271 2271 2271 2271 2271 2271 2271 2271 2271 2271 2256 2256 2256 2271 2271 2271 2271 2271 2256 2256 2256 2256 2256 2256 2256 2256 2271 2256 2256 2256 2256 2241 2241 2241 2241 2241 2241 2241 2241 2241 2241 0 0 0 0 0 0 0 0 0
0 0 0 0 0 0 0 0 0 0 0 0 0 0 0 0 0 0 0 0 0 0 0 0 0 0 0 0 0 0 0 0 0 0 2116 2116 2116 2116 2116 2116 2116 2116 2116 2116 2116 2116 2116 2116 2116 2116 2116 2116 2116 2116 2129 2129 2116 2116 2129 2129 2129 2129 2129 2129 2129 2143 2129 2129 2129 2129 2143 2129 2129 2129 2129 2116 2116 2116 2129 2129 2129 2129 2129 2129 2129 2129 2129 2143 2143 2143 2143 2143 2143 2143 2143 2143 2143 2143 2143 2143 2143 2143 2129 2129 2129 1609 1609 1609 1609 1609 1616 1616 1616 1616 1616 1616 1616 1616 1616 1624 1624 1624 1632 1564 1557 1557 1557 1557 1557 1557 1557 1557 1564 1564 1564 1564 1564 1564 1564 1579 0 1579 1579 2198 0 2212 2212 2212 2212 2198 2198 2198 2198 2184 2184 2184 2184 2156 2143 2053 2040 2040 2040 2040 2040 2040 2040 2040 2053 2078 2143 2170 2184 2184 2198 2198 2198 2198 2198 2198 2198 2198 2198 2198 2198 2198 2198 2198 2198 2198 2198 2198 2198 2198 2198 2198 2198 2198 2198 2198 2198 2198 2198 2198 2198 2198 2198 2198 2198 2198 2212 2212 2212 2212 2226 2212 2212 2212 2212 2212 2212 2212 2198 2198 2198 2198 1616 1616 1616 1616 1616 1616 1616 1616 1624 1624 1624 1632 1632 1632 1639 1647 1981 1993 1993 1993 2143 2212 2212 2212 2212 2212 2198 2170 2170 2156 2156 2156 2156 2156 2170 2170 2184 2198 2212 2226 2226 2226 2226 2241 2241 1981 1981 1993 1993 1993 1993 1993 1993 1981 1981 1981 1981 0 0 0 0 0 1579 1579 1579 1579 1579 1579 1579 1579 1579 1586 1586 1586 1594 1594 1594 1594 1594 2212 2212 2212 2212 2226 2226 2241 2241 2241 2241 2241 2241 2241 2241 2241 2241 2241 2241 2241 2241 2241 2241 2241 2226 2226 2226 2241 2241 2241 2241 2241 2241 2241 2241 2241 2226 2226 2241 2241 2241 2241 2256 2256 2241 2241 2256 2256 2256 2256 2256 2256 2256 2271 2256 2256 2256 2256 2256 2256 2256 2256 2271 2065 2053 2053 2040 2028 2016 2016 2016 2005 2005 2005 2005 0 0 0 0 0 0 1647 1639 1632 1632 1632 1632 1632 1632 1639 1639 1639 1647 1647 1647 1655 1655 2271 2271 2271 2271 2271 2271 2271 2286 2286 2286 2286 2286 2286 2271 2271 2271 2256 2256 2256 2271 2271 2256 2256 2256 2256 2256 2256 2256 2256 2256 2271 2271 2271 2271 2271 2271 2271 2271 2271 2271 2271 2271 2286 1823 1823 1823 1823 1823 1823 1823 1823 1813 1813 1813 1813 1813 1813 1813 1813 1813 1813 1813 1813 1813 1813 1823 2256 2256 2256 2256 2256 2271 2271 2271 2271 2271 2271 2271 2271 2271 2271 2271 2271 2271 2256 2256 2271 2271 2256 2256 2271 2271 2271 2271 2271 2271 2271 2271 2271 2271 2271 2256 2256 2256 2256 2256 2256 2256 2256 2256 2256 2256 2256 2256 2256 2256 2256 2256 2256 2256 2256 2256 2256 2256 2256 2256 2256 2256 2256 2256 2256 2256 2256 2256 2256 2256 2256 2256 2256 2256 2256 2256 2256 2256 2271 2271 2271 2271 2271 2271 2256 2256 2256 2256 2256 2256 2256 2256 2271 2271 2271 2271 2271 2256 2256 2256 2256 2271 2256 2256 2256 2256 2271 2271 2256 2256 2271 2271 2256 2256 2271 2271 2271 2271 2271 2271 2271 2271 2256 2256 2256 2256 2271 2256 2256 2271 2271 2256 2256 2256 2256 2256 2256 2256 2256 2256 2256 2256 2256 2241 2241 2241 2241 2256 2256 2256 2256 2256 2241 2241 2241 2226 2226 2241 2241 2241 2241 2241 2241 2241 0 0 0 0 0 0 0 0 0
0 0 0 0 0 0 0 0 0 0 0 0 0 0 0 0 0 0 0 0 0 0 0 0 0 0 0 0 0 0 0 0 0 0 2116 2116 2116 2116 2116 2116 2116 2116 2116 2116 2116 2116 2116 2116 2116 2116 2116 2116 2116 2116 2116 2116 2116 2116 2116 2116 2116 2116 2116 2116 2116 2129 2116 2116 2116 2129 2129 2129 2116 2116 2116 2103 2103 2103 2103 2103 2103 2103 2103 2116 2116 2129 2129 2129 2129 2143 2143 2143 2143 2143 2143 2143 2143 2143 2143 2129 2129 2129 2116 2116 2116 1609 1609 1609 1609 1609 1616 1616 1616 1616 1616 1616 1616 1616 1624 1624 1624 1624 1632 1564 1564 1557 1557 1557 1557 1557 1557 1564 1564 1564 1564 1564 1564 1564 1572 1579 0 0 0 0 0 2198 2198 2198 2212 2198 2198 2198 2184 2170 2170 2170 2170 2143 2143 2103 2053 2040 2040 2040 2040 2040 2040 2040 2053 2078 2143 2170 2184 2184 2184 2184 2184 2184 2184 2184 2198 2198 2184 2184 2184 2184 2184 2184 2184 2184 2184 2184 2184 2184 2184 2198 2198 2198 2184 2184 2184 2198 2184 2184 2198 2198 2198 2198 2198 2198 2198 2198 2198 2212 2212 2212 2212 2198 2198 2212 2212 2198 2198 2198 2198 2198 1616 1616 1616 1616 1616 1616 1624 1624 1624 1624 1632 1632 1632 1632 1639 1647 1655 1993 1993 2116 2143 2143 2143 2170 2184 2184 2184 2170 2170 2156 2156 2156 2156 2156 2170 2170 2184 2198 2212 2212 2226 2226 2226 2226 2241 1981 1981 1993 1993 1993 1993 1981 1981 1981 1970 1970 1970 0 0 0 0 0 0 1579 1579 1579 1579 1579 1579 1579 1579 1586 1586 1594 1594 1601 1601 1601 1601 2198 2212 2212 2212 2226 2226 2241 2241 2241 2241 2241 2241 2241 2241 2241 2241 2241 2241 2241 2241 2241 2241 2241 2226 2226 2226 2226 2226 2226 2226 2226 2226 2226 2226 2226 2226 2226 2226 2226 2226 2226 2241 2241 2241 2241 2241 2241 2241 2241 2241 2241 2241 2256 2256 2256 2256 2241 2241 2241 2241 2241 2256 2078 2065 2053 2040 2028 2016 2016 2005 2005 2005 2005 2005 0 0 0 0 0 0 1647 1639 1632 1632 1632 1632 1632 1632 1639 1639 1639 1647 1647 1647 1655 1655 2271 2271 2271 2271 2271 2271 2271 2271 2271 2271 2271 2271 2271 2256 2256 2256 2256 2256 2256 2256 2256 2241 2241 2241 2256 2256 2256 2256 2256 2256 2256 2256 2271 2256 2256 2256 2256 2256 2271 2271 2271 2271 2271 1823 1823 1823 1823 1823 1823 1823 1823 1813 1813 1813 1813 1813 1813 1813 1823 1813 1813 1813 1813 1813 1823 1823 2256 2256 2256 2256 2256 2256 2256 2271 2271 2271 2271 2271 2256 2256 2256 2256 2256 2256 2256 2256 2256 2256 2256 2256 2256 2256 2256 2271 2271 2271 2271 2271 2271 2271 2271 2241 2241 2241 2241 2241 2241 2256 2241 2241 2241 2256 2256 2256 2256 2256 2256 2256 2256 2256 2256 2256 2256 2256 2256 2256 2256 2256 2256 2256 2256 2256 2256 2256 2256 2256 2256 2256 2256 2256 2256 2256 2256 2256 2256 2256 2256 2271 2271 2271 2256 2256 2256 2256 2256 2256 2256 2256 2256 2256 2271 2256 2256 2256 2256 2256 2256 2256 2256 2256 2256 2256 2256 2256 2256 2256 2256 2271 2256 2256 2256 2256 2256 2256 2256 2256 2256 2256 2241 2241 2241 2241 2241 2241 2241 2256 2256 2256 2241 2241 2241 2241 2256 2256 2256 2256 2256 2256 2256 2241 2241 2241 2241 2256 2256 2256 2241 2241 2241 2226 2226 2226 2226 2226 2226 2226 2226 2226 2241 2241 0 0 0 0 0 0 0 0 0
0 0 0 0 0 0 0 0 0 0 0 0 0 0 0 0 0 0 0 0 0 0 0 0 0 0 0 0 0 0 0 0 0 0 2103 2103 2103 2103 2103 2116 2116 2116 2116 2116 2116 2116 2116 2116 2103 2103 2116 2116 2116 2116 2116 2116 2116 2116 2116 2116 2116 2116 2116 2116 2116 2129 2116 2116 2116 2116 2116 2116 2103 2103 2103 2103 2103 2103 2103 2103 2103 2103 2103 2116 2116 2129 2129 2129 2129 2129 2129 2129 2129 2129 2129 2129 2129 2129 2129 2129 2129 2129 2116 2116 2116 1609 1609 1609 1609 1609 1616 1616 1616 1616 1616 1616 1616 1624 1624 1624 1632 1632 1639 1639 1564 1557 1557 1557 1564 1557 1557 1564 1564 1564 1564 1564 1564 1564 1579 1586 0 0 0 0 0 2198 2198 2198 2198 2198 2170 2170 2170 2156 2156 2170 2156 2143 2143 2065 2053 2040 2040 2040 2040 2040 2040 2040 2053 2078 2116 2170 2184 2184 2184 2184 2184 2184 2184 2184 2198 2198 2184 2184 2184 2184 2184 2184 2184 2184 2184 2184 2184 2184 2184 2184 2184 2184 2184 2184 2184 2184 2184 2184 2184 2184 2184 2184 2184 2198 2198 2198 2198 2198 2198 2198 2198 2198 2198 2198 2198 2198 2198 2198 2198 2198 1616 1616 1616 1616 1616 1624 1624 1624 1632 1632 1632 1632 1632 1632 1639 1647 1655 1655 2078 2116 2116 2116 2129 2170 2184 2184 2184 2170 2170 2170 2156 2156 2156 2156 2170 2170 2184 2184 2198 2212 2212 2212 2212 2212 2226 1981 1981 1993 1993 1993 1981 1981 1981 1970 1970 1970 1970 0 0 0 0 0 0 1579 1579 1579 1579 1579 1579 1579 1586 1586 1586 1594 1601 1601 1601 1601 2198 2198 2212 2212 2212 2226 2226 2241 2241 2241 2241 2241 2241 2241 2241 2241 2241 2241 2241 2241 2241 2241 2241 2241 2226 2226 2226 2226 2226 2226 2226 2226 2226 2226 2226 2226 2226 2226 2226 2226 2226 2226 2226 2226 2241 2241 2241 2241 2241 2241 2226 2226 2241 2241 2241 2241 2241 2241 2241 2241 2226 2226 2116 2090 2078 2053 2040 2028 2016 2016 2005 2005 1993 1993 1993 0 0 0 0 0 0 1647 1639 1632 1632 1632 1632 1639 1639 1639 1639 1639 1647 1647 1647 1655 1655 1663 2256 2271 2271 2271 2271 2256 2256 2271 2256 2256 2271 2271 2256 2256 2256 2241 2241 2241 2241 2256 2241 2241 2241 2241 2241 2241 2256 2256 2256 2256 2256 2256 2256 2256 2256 2256 2256 2256 2256 2256 2256 2271 1823 1823 1833 1833 1823 1823 1823 1823 1813 1813 1813 1813 1813 1823 1823 1823 1823 1823 1823 1823 1823 1823 1833 2241 2256 2256 2256 2256 2256 2256 2256 2256 2256 2256 2256 2256 2256 2256 2256 2256 2256 2256 2256 2256 2256 2256 2256 2256 2256 2256 2256 2256 2256 2256 2256 2256 2256 2256 2241 2241 2241 2241 2241 2241 2241 2241 2241 2241 2241 2241 2241 2241 2241 2241 2256 2256 2256 2256 2256 2256 2256 2256 2256 2241 2241 2241 2256 2256 2256 2256 2256 2256 2241 2241 2241 2241 2241 2241 2241 2256 2256 2256 2256 2256 2256 2256 2256 2256 2256 2256 2256 2256 2256 2256 2256 2256 2256 2256 2256 2256 2256 2256 2256 2256 2256 2256 2256 2256 2256 2256 2256 2256 2256 2256 2256 2256 2241 2241 2256 2256 2256 2256 2256 2256 2256 2241 2241 2241 2241 2241 2226 2226 2226 2226 2226 2226 2226 2226 2226 2241 2241 2241 2241 2241 2241 2241 2241 2241 2241 2241 2256 2256 2256 2241 2241 2241 2226 2226 2226 2226 2226 2226 2226 2226 2226 2226 2226 0 0 0 0 0 0 0 0 0
0 0 0 0 0 0 0 0 0 0 0 0 0 0 0 0 0 0 0 0 0 0 0 0 0 0 0 0 0 0 0 0 0 0 2103 2103 2103 2103 2103 2103 2103 2103 2103 2103 2103 2103 2103 2103 2103 2103 2103 2103 2103 2103 2116 2116 2116 2116 2116 2116 2116 2116 2116 2116 2116 2116 2103 2103 2103 2103 2103 2103 2103 2103 2103 2090 2090 2090 2090 2090 2103 2103 2103 2103 2116 2116 2116 2116 2116 2129 2116 2116 2116 2116 2129 2116 2116 2129 2129 2116 2116 2116 2116 2116 2116 1609 1609 1609 1609 1616 1616 1616 1616 1616 1616 1616 1616 1624 1624 1624 1632 1632 1639 1639 1564 1564 1557 1557 1564 1557 1557 1564 1564 1564 1564 1564 1564 1564 1586 1594 0 0 0 0 0 2198 2198 2184 2184 2184 2170 2156 2156 2143 2143 2156 2143 2129 2116 2065 2053 2040 2040 2040 2040 2040 2040 2040 2053 2078 2103 2143 2170 2170 2184 2184 2184 2184 2184 2184 2184 2184 2184 2184 2184 2184 2184 2170 2170 2184 2184 2184 2184 2184 2184 2184 2184 2184 2184 2184 2184 2184 2184 2184 2184 2184 2184 2184 2184 2184 2184 2184 2184 2198 2198 2198 2198 2198 2198 2198 2198 2198 2198 2198 2198 2198 1616 1616 1616 1616 1624 1624 1632 1632 1639 1639 1639 1639 1639 1639 1647 1647 1655 1671 2078 2078 2103 2116 2129 2170 2170 2184 2170 2170 2170 2170 2156 2156 2156 2156 2170 2170 2184 2184 2198 2198 2198 2198 2198 2212 2212 1981 1981 1993 1993 1993 1981 1970 1970 1970 1959 1959 1959 1959 0 0 0 0 0 1586 1579 1579 1579 1579 1579 1579 1586 1586 1594 1594 1601 1601 1601 1601 2198 2198 2198 2198 2212 2212 2226 2226 2226 2226 2226 2226 2226 2226 2226 2226 2226 2226 2226 2241 2241 2241 2241 2241 2226 2226 2226 2226 2226 2226 2226 2226 2226 2226 2226 2226 2226 2226 2226 2226 2226 2226 2226 2226 2226 2226 2226 2226 2226 2226 2226 2226 2226 2226 2226 2241 2226 2226 2226 2241 2226 2226 2116 2103 2090 2065 2065 2053 2028 2016 1993 1981 1981 1981 1959 1959 0 0 0 0 0 1647 1639 1632 1632 1632 1632 1639 1639 1639 1639 1647 1647 1647 1647 1655 1655 1663 2256 2256 2256 2256 2256 2256 2256 2256 2256 2256 2256 2256 2241 2241 2241 2241 2241 2241 2241 2241 2241 2241 2241 2241 2241 2241 2241 2241 2241 2256 2256 2256 2256 2256 2256 2256 2256 2256 2256 2256 2256 2256 1833 1833 1833 1833 1833 1823 1823 1823 1813 1813 1813 1813 1823 1823 1823 1823 1823 1823 1823 1823 1823 1823 1823 2241 2241 2256 2256 2256 2256 2256 2256 2256 2256 2256 2256 2256 2256 2256 2256 2256 2256 2241 2241 2256 2241 2241 2241 2256 2256 2256 2256 2256 2256 2256 2256 2256 2256 2256 2241 2241 2241 2241 2241 2241 2241 2241 2241 2241 2241 2226 2226 2226 2241 2241 2241 2241 2241 2241 2241 2241 2241 2241 2241 2241 2241 2241 2241 2241 2241 2256 2241 2241 2241 2241 2241 2241 2241 2241 2241 2241 2241 2256 2256 2256 2256 2256 2256 2256 2256 2256 2241 2241 2241 2241 2241 2241 2241 2241 2241 2241 2241 2241 2241 2241 2256 2256 2256 2256 2256 2256 2256 2256 2256 2256 2256 2241 2241 2241 2241 2241 2241 2241 2241 2241 2241 2226 2226 2226 2226 2241 2226 2226 2226 2226 2226 2226 2226 2226 2226 2226 2241 2241 2226 2226 2226 2226 2241 2241 2241 2241 2241 2241 2241 2226 2226 2226 2212 2212 2226 2226 2226 2226 2226 2226 2226 2226 2226 0 0 0 0 0 0 0 0 0
0 0 0 0 0 0 0 0 0 0 0 0 0 0 0 0 0 0 0 0 0 0 0 0 0 0 0 0 0 0 0 0 0 0 2103 2103 2103 2103 2103 2103 2103 2103 2103 2103 2103 2103 2103 2103 2103 2103 2103 2103 2103 2103 2103 2103 2103 2103 2103 2103 2103 2116 2103 2103 2103 2116 2103 2103 2103 2103 2103 2103 2103 2090 2090 2090 2090 2090 2090 2090 2090 2103 2103 2103 2103 2103 2116 2116 2116 2129 2116 2116 2116 2116 2116 2116 2116 2129 2129 2116 2116 2116 2116 2116 2116 1609 1609 1609 1616 1616 1616 1616 1616 1616 1616 1616 1616 1624 1624 1624 1632 1632 1632 1639 1564 1564 1564 1564 1564 1564 1564 1564 1564 1564 1564 1564 1564 1579 1586 1594 1601 0 0 0 0 2198 2198 2184 2170 2170 2156 2156 2156 2143 2143 2143 2129 2129 2103 2078 2065 2053 2040 2040 2040 2040 2040 2053 2065 2078 2103 2116 2143 2156 2170 2170 2170 2184 2184 2184 2184 2184 2184 2170 2170 2170 2170 2156 2156 2170 2170 2170 2170 2170 2170 2184 2184 2184 2184 2184 2184 2184 2184 2184 2184 2184 2184 2184 2184 2184 2184 2184 2184 2184 2184 2184 2184 2184 2184 2184 2184 2184 2184 2184 2184 2184 1616 1616 1616 1616 1624 1632 1632 1632 1639 1639 1639 1639 1639 1647 1647 1647 1655 1671 2078 2078 2103 2116 2143 2156 2170 2170 2170 2170 2170 2170 2156 2156 2156 2170 2170 2170 2170 2184 2184 2184 2198 2198 2198 2198 2198 2198 2198 2005 2005 1993 1981 1970 1970 1970 1959 1959 1959 1959 0 0 0 0 0 1586 1579 1579 1579 1586 1586 1586 1586 1594 1594 1601 1601 1601 1601 1594 1594 2184 2184 2198 2212 2212 2226 2226 2226 2226 2212 2212 2212 2212 2212 2226 2226 2226 2226 2226 2226 2226 2226 2226 2212 2212 2212 2212 2212 2212 2212 2212 2212 2226 2226 2226 2226 2226 2212 2212 2226 2226 2226 2226 2226 2226 2226 2226 2226 2226 2226 2226 2226 2226 2226 2226 2226 2226 2226 2226 2226 2226 2116 2103 2090 2078 2065 2053 2028 2005 1981 1981 1970 1970 1959 1959 0 0 0 0 0 1647 1639 1639 1639 1639 1639 1639 1639 1639 1647 1647 1647 1647 1655 1655 1663 2226 2226 2241 2241 2256 2241 2241 2241 2241 2241 2241 2241 2241 2226 2226 2226 2226 2226 2226 2226 2241 2226 2226 2226 2241 2241 2241 2241 2241 2241 2241 2241 2256 2256 2256 2241 2241 2241 2241 2256 2241 2241 2256 1843 1833 1833 1833 1833 1823 1823 1823 1813 1813 1813 1813 1823 1823 1823 1823 1823 1823 1823 1823 1823 1823 1823 2226 2241 2241 2241 2241 2256 2256 2241 2241 2241 2256 2256 2241 2241 2256 2256 2241 2241 2241 2241 2241 2241 2241 2241 2241 2241 2241 2241 2241 2241 2256 2241 2241 2241 2241 2241 2226 2226 2226 2226 2241 2241 2226 2226 2226 2226 2212 2212 2212 2226 2226 2241 2241 2241 2241 2241 2241 2241 2241 2241 2241 2241 2241 2241 2241 2241 2241 2241 2241 2241 2241 2241 2241 2241 2241 2241 2241 2241 2241 2241 2241 2256 2241 2241 2241 2241 2241 2241 2226 2226 2241 2241 2241 2241 2241 2241 2241 2241 2241 2241 2241 2241 2241 2241 2241 2241 2256 2256 2256 2256 2256 2241 2241 2241 2241 2241 2241 2241 2241 2241 2241 2241 2226 2226 2226 2226 2226 2226 2226 2226 2226 2226 2226 2226 2226 2226 2226 2226 2226 2226 2226 2226 2226 2226 2226 2226 2241 2241 2241 2241 2226 2226 2226 2212 2212 2212 2212 2212 2212 2212 2212 2212 2212 2212 0 0 0 0 0 0 0 0 0
0 0 0 0 0 0 0 0 0 0 0 0 0 0 0 0 0 0 0 0 0 0 0 0 0 0 0 0 0 0 0 0 0 0 2103 2103 2103 2103 2103 2103 2103 2103 2103 2103 2090 2090 2090 2090 2078 2078 2090 2103 2103 2103 2103 2103 2103 2103 2103 2103 2103 2103 2103 2103 2103 2103 2090 2090 2103 2090 2090 2103 2090 2090 2090 2090 2090 2090 2090 2090 2090 2090 2090 2103 2103 2103 2103 2103 2116 2116 2116 2116 2116 2116 2116 2116 2116 2116 2116 2103 2103 2103 2116 2116 2116 2116 1616 1616 1616 1616 1616 1616 1616 1616 1616 1616 1616 1624 1624 1624 1632 1632 1632 1639 1572 1564 1564 1564 1564 1564 1564 1564 1564 1564 1564 1564 1564 1579 1579 1586 1594 0 0 0 0 0 2198 2198 2156 2156 2156 2156 2156 2143 2143 2143 2129 2129 2103 2078 2078 2053 2053 2053 2040 2040 2053 2065 2078 2090 2103 2116 2143 2156 2156 2156 2156 2170 2170 2170 2170 2170 2170 2170 2156 2156 2156 2156 2156 2156 2156 2156 2156 2170 2170 2170 2170 2170 2170 2170 2170 2170 2170 2170 2170 2170 2170 2184 2184 2184 2184 2184 2184 2170 2170 2170 2170 2184 2184 2184 2184 2184 2184 2184 2184 2184 1616 1616 1616 1616 1624 1632 1632 1639 1639 1639 1639 1639 1647 1647 1647 1647 1647 2116 2103 2103 2116 2129 2143 2156 2170 2170 2170 2170 2170 2170 2156 2156 2156 2170 2170 2170 2170 2184 2184 2184 2184 2184 2184 2184 2184 2184 2198 2016 2005 1993 1981 1970 1959 1959 1959 1959 1959 1959 0 0 0 0 0 1586 1579 1579 1586 1586 1586 1586 1594 1594 1601 1601 1601 1601 1601 1594 1594 2184 2184 2184 2212 2212 2212 2226 2212 2212 2212 2212 2212 2212 2212 2212 2212 2212 2212 2212 2212 2212 2212 2212 2212 2212 2212 2212 2212 2212 2212 2212 2212 2212 2212 2212 2212 2212 2212 2212 2212 2212 2212 2212 2212 2212 2212 2212 2212 2212 2212 2212 2212 2212 2212 2212 2212 2212 2226 2226 2212 2198 2116 2103 2090 2090 2078 2078 2028 1688 1688 1970 1970 1970 1959 1959 0 1959 0 0 0 1647 1639 1632 1632 1632 1632 1639 1639 1639 1647 1647 1655 1655 1655 1655 1663 2226 2226 2226 2226 2241 2241 2226 2226 2241 2241 2241 2241 2241 2226 2226 2226 2226 2226 2226 2226 2226 2226 2226 2226 2226 2226 2226 2241 2241 2241 2241 2241 2241 2241 2241 2241 2241 2241 2241 2241 2241 2241 2241 1843 1843 1833 1833 1833 1823 1823 1823 1823 1813 1813 1823 1823 1823 1823 1823 1823 1823 1823 1823 1823 1833 2198 2212 2226 2226 2226 2241 2241 2241 2241 2241 2241 2241 2226 2226 2226 2241 2241 2241 2241 2241 2241 2241 2241 2226 2226 2241 2241 2241 2241 2226 2226 2241 2241 2226 2226 2226 2226 2226 2226 2226 2226 2226 2226 2226 2226 2226 2212 2212 2212 2212 2212 2226 2226 2241 2241 2241 2241 2241 2241 2241 2241 2241 2241 2241 2241 2241 2241 2241 2241 2241 2241 2226 2226 2241 2226 2226 2241 2241 2241 2241 2241 2241 2241 2241 2241 2241 2241 2226 2226 2226 2226 2226 2226 2226 2226 2226 2226 2226 2226 2226 2241 2241 2241 2241 2241 2241 2241 2241 2241 2241 2241 2241 2241 2226 2226 2226 2226 2226 2226 2226 2226 2226 2226 2212 2212 2226 2226 2226 2212 2212 2212 2212 2212 2212 2212 2212 2212 2212 2212 2212 2212 2212 2226 2226 2226 2226 2226 2226 2226 2226 2226 2226 2226 2212 2212 2212 2212 2212 2212 2212 2212 2212 2212 2212 2212 0 0 0 0 0 0 0 0 0
0 0 0 0 0 0 0 0 0 0 0 0 0 0 0 0 0 0 0 0 0 0 0 0 0 0 0 0 0 0 0 0 0 0 2090 2090 2090 2090 2090 2090 2090 2090 2090 2090 2090 2078 2078 2078 2078 2078 2090 2090 2090 2090 2103 2103 2103 2103 2103 2103 2103 2103 2103 2103 2103 2103 2090 2090 2090 2090 2090 2090 2090 2090 2090 2090 2090 2078 2078 2078 2090 2090 2090 2090 2090 2090 2103 2103 2103 2103 2103 2103 2103 2103 2103 2103 2103 2103 2103 2103 2103 2103 2103 2103 2103 2103 1616 1616 1616 1616 1616 1616 1616 1616 1616 1616 1616 1624 1624 1624 1632 1632 1632 1639 1572 1564 1564 1564 1564 1564 1564 1564 1564 1564 1564 1564 1564 1579 1579 1586 1594 0 0 0 0 0 0 2143 2143 2143 2143 2143 2156 2143 2143 2143 2129 2116 2103 2078 2078 2053 2053 2053 2053 2053 2065 2078 2090 2090 2103 2116 2129 2143 2143 2143 2143 2156 2156 2170 2156 2156 2156 2156 2156 2143 2143 2143 2143 2143 2156 2156 2156 2156 2156 2156 2156 2156 2156 2156 2170 2170 2170 2170 2170 2170 2170 2170 2170 2170 2170 2170 2170 2170 2170 2170 2170 2170 2170 2170 2170 2184 2184 2184 2184 2184 1616 1616 1616 1624 1624 1632 1639 1639 1639 1639 1639 1639 1647 1647 1647 1647 1647 2103 2103 2103 2116 2129 2143 2156 2170 2170 2170 2170 2170 2170 2156 2156 2156 2156 2156 2170 2170 2170 2170 2184 2184 2184 2184 2184 2184 2184 2184 2016 2005 1981 1981 1947 1947 1947 1947 1947 1947 1947 0 0 0 0 0 1586 1579 1579 1586 1586 1586 1586 1594 1594 1601 1601 1601 1601 1601 1594 1572 1572 1572 1572 2198 2212 2212 2212 2212 2198 2198 2198 2198 2198 2198 2198 2198 2198 2198 2198 2198 2198 2198 2212 2212 2212 2212 2212 2198 2198 2198 2198 2198 2198 2212 2212 2212 2212 2212 2212 2212 2212 2198 2198 2212 2212 2212 2212 2212 2212 2212 2212 2212 2212 2212 2212 2212 2212 2212 2212 2198 2170 2116 2103 2090 2090 2090 2090 1970 1688 1688 1959 1959 1959 1959 1959 1959 1959 1696 1696 0 1647 1639 1632 1632 1632 1632 1639 1639 1639 1647 1647 1655 1655 1655 1655 1663 2212 2212 2226 2226 2226 2226 2226 2226 2226 2226 2226 2226 2241 2226 2226 2226 2226 2226 2226 2226 2226 2226 2226 2226 2226 2226 2226 2226 2226 2226 2226 2226 2226 2226 2226 2226 2226 2226 2226 2226 2212 2212 1843 1843 1843 1833 1833 1833 1823 1823 1823 1823 1823 1823 1823 1823 1823 1823 1823 1823 1823 1823 1833 1833 1833 2198 2212 2212 2226 2226 2226 2226 2226 2226 2226 2226 2226 2226 2226 2226 2226 2241 2226 2226 2226 2226 2226 2226 2226 2226 2226 2226 2226 2226 2226 2226 2226 2226 2226 2226 2226 2212 2212 2212 2212 2212 2212 2212 2212 2212 2212 2212 2212 2212 2212 2212 2212 2226 2226 2226 2226 2226 2226 2241 2226 2226 2226 2226 2226 2226 2241 2241 2241 2241 2241 2241 2226 2226 2226 2226 2226 2226 2241 2241 2241 2241 2241 2241 2241 2241 2226 2226 2226 2212 2212 2212 2212 2226 2226 2226 2226 2226 2226 2226 2226 2226 2226 2226 2226 2226 2226 2241 2241 2241 2241 2241 2241 2241 2226 2226 2226 2226 2226 2226 2226 2226 2226 2226 2212 2212 2212 2212 2212 2212 2212 2212 2212 2212 2212 2212 2212 2212 2212 2212 2198 2198 2198 2212 2212 2212 2212 2212 2226 2226 2226 2226 2212 2212 2212 2198 2198 2198 2198 2198 2198 2198 2198 2212 2212 2212 0 0 0 0 0 0 0 0 0
0 0 0 0 0 0 0 0 0 0 0 0 0 0 0 0 0 0 0 0 0 0 0 0 0 0 0 0 0 0 0 0 0 0 2090 2090 2078 2078 2078 2078 2078 2078 2078 2078 2078 2078 2078 2078 2078 2078 2078 2090 2090 2090 2090 2090 2090 2090 2090 2090 2090 2090 2090 2090 2090 2103 2090 2090 2090 2090 2090 2090 2090 2090 2090 2090 2090 2078 2078 2078 2090 2090 2090 2090 2090 2090 2090 2090 2090 2090 2090 2090 2103 2103 2103 2090 2090 2090 2103 2103 2103 2103 2090 2090 2103 2103 1616 1616 1616 1616 1616 1616 1616 1624 1624 1624 1624 1624 1624 1624 1632 1632 1632 1632 1564 1564 1564 1564 1564 1564 1564 1564 1564 1564 1564 1564 1564 1579 1586 1594 1601 0 0 0 0 0 0 2129 2129 2143 2143 2143 2156 2143 2143 2129 2129 2116 2090 2078 2078 2065 2053 2053 2053 2053 2065 2078 2090 2090 2103 2103 2129 2129 2143 2143 2143 2143 2156 2156 2156 2156 2156 2143 2143 2143 2143 2143 2143 2143 2143 2143 2143 2156 2156 2156 2156 2156 2156 2156 2170 2170 2170 2170 2170 2156 2156 2170 2156 2156 2170 2156 2156 2156 2156 2156 2156 2170 2170 2170 2170 2170 2170 2170 2170 2170 1624 1624 1624 1632 1632 1639 1639 1639 1639 1639 1639 1647 1647 1647 1647 1647 1647 2090 2078 2078 2103 2116 2143 2156 2156 2170 2170 2170 2170 2170 2156 2156 2156 2156 2156 2170 2170 2170 2170 2170 2170 2170 2170 2170 2170 2170 2170 2028 2016 1981 1981 1936 1936 1947 1936 1936 1936 1936 0 0 0 0 0 1586 1586 1586 1586 1594 1594 1594 1594 1601 1601 1601 1601 1601 1601 1586 1572 1564 1564 1572 2198 2198 2198 2198 2198 2198 2198 2184 2184 2184 2184 2184 2184 2184 2184 2184 2184 2184 2198 2198 2198 2184 2184 2198 2198 2198 2198 2198 2198 2198 2198 2198 2198 2198 2198 2198 2198 2198 2198 2198 2198 2198 2198 2198 2198 2198 2212 2212 2212 2212 2212 2212 2212 2212 2212 2198 2198 2170 2116 2103 2090 2090 2090 2090 1970 1696 1696 1959 1959 1959 1947 1947 1959 1959 1696 1696 1696 1663 1639 1639 1639 1639 1639 1639 1639 1647 1647 1647 1655 1655 1655 1655 1663 2198 2212 2212 2212 2226 2226 2226 2226 2226 2226 2226 2226 2226 2212 2212 2212 2212 2212 2212 2212 2212 2212 2212 2212 2212 2226 2226 2226 2226 2226 2226 2226 2226 2226 2226 2226 2226 2226 2212 2212 2212 2198 1843 1843 1843 1833 1833 1833 1833 1823 1823 1823 1823 1823 1823 1823 1823 1823 1823 1823 1833 1833 1833 1833 2198 2212 2212 2212 2212 2212 2212 2212 2212 2212 2212 2212 2212 2212 2212 2212 2212 2226 2226 2226 2212 2212 2226 2212 2212 2212 2212 2212 2226 2226 2212 2212 2226 2212 2212 2212 2212 2212 2212 2212 2212 2212 2212 2212 2212 2212 2212 2198 2198 2198 2198 2212 2212 2212 2226 2226 2226 2226 2226 2226 2226 2226 2226 2226 2226 2226 2226 2226 2226 2226 2226 2226 2226 2226 2226 2226 2226 2226 2226 2241 2241 2241 2241 2241 2226 2226 2226 2226 2212 2212 2212 2212 2212 2212 2226 2226 2226 2226 2226 2226 2226 2226 2226 2212 2212 2212 2226 2226 2226 2226 2226 2226 2226 2226 2226 2226 2212 2212 2226 2226 2212 2212 2226 2226 2212 2212 2212 2212 2212 2212 2212 2198 2198 2212 2212 2212 2198 2198 2198 2198 2184 2184 2198 2198 2198 2198 2212 2212 2212 2212 2212 2212 2212 2198 2198 2198 2198 2198 2198 2184 2184 2184 2184 2198 2198 2198 0 0 0 0 0 0 0 0 0
0 0 0 0 0 0 0 0 0 0 0 0 0 0 0 0 0 0 0 0 0 0 0 0 0 0 0 0 0 0 0 0 0 0 2078 2078 2078 2078 2078 2065 2065 2065 2065 2065 2065 2078 2078 2078 2078 2078 2078 2078 2078 2078 2078 2078 2090 2078 2078 2078 2078 2090 2090 2090 2090 2090 2078 2078 2090 2078 2078 2090 2090 2078 2078 2078 2078 2078 2078 2090 2090 2078 2078 2090 2078 2078 2090 2090 2090 2090 2090 2090 2090 2090 2090 2090 2090 2090 2090 2103 2103 2090 2090 2090 2103 2103 1616 1616 1616 1616 1616 1616 1616 1624 1624 1624 1624 1624 1624 1624 1632 1632 1632 1632 1564 1564 1564 1564 1564 1564 1564 1564 1564 1564 1564 1564 1564 1579 1586 1586 1594 0 0 0 0 0 0 2053 2053 2129 2129 2143 2143 2129 2129 2129 2116 2103 2090 2078 2078 2065 2065 2065 2065 2065 2078 2078 2090 2090 2090 2090 2116 2129 2129 2129 2143 2143 2143 2143 2143 2143 2143 2143 2143 2143 2143 2143 2143 2143 2143 2143 2143 2156 2156 2156 2156 2156 2156 2156 2156 2156 2156 2156 2156 2156 2156 2156 2156 2156 2156 2156 2156 2156 2156 2156 2156 2170 2170 2170 2170 2170 2170 2170 2170 2170 1632 1632 1632 1632 1632 1639 1639 1639 1639 1647 1647 1647 1647 1647 1647 1647 1647 2078 2078 2078 2103 2116 2129 2143 2156 2170 2170 2170 2170 2156 2156 2156 2156 2156 2156 2170 2170 2170 2170 2170 2170 2170 2170 2170 2170 2170 2170 2028 2016 2005 1981 1936 1936 1936 1936 1936 1936 1936 1947 0 0 0 0 1586 1586 1586 1586 1594 1594 1594 1601 1601 1601 1609 1609 1601 1601 1586 1572 1564 1564 1572 2184 2198 2198 2184 2184 2184 2184 2184 2184 2184 2184 2184 2184 2184 2184 2184 2184 2184 2184 2198 2184 2184 2184 2184 2184 2184 2198 2198 2198 2198 2198 2198 2198 2198 2198 2198 2198 2198 2198 2198 2198 2198 2198 2198 2198 2198 2198 2198 2198 2198 2198 2212 2198 2198 2212 2198 2184 2156 2129 2116 2103 2103 2103 2103 2103 1959 1959 1959 1959 1959 1947 1947 1959 1959 1959 1688 1688 1663 1647 1647 1639 1639 1639 1639 1639 1647 1647 1647 1655 1655 1655 1655 2170 2198 2212 2212 2212 2212 2212 2212 2212 2212 2212 2212 2212 2212 2212 2212 2212 2212 2212 2212 2212 2212 2212 2212 2212 2212 2212 2212 2212 2212 2226 2226 2212 2212 2212 2212 2212 2212 2212 2212 2212 2198 2198 2184 1843 1843 1833 1833 1833 1833 1833 1823 1823 1823 1823 1823 1823 1823 1823 1833 1833 1833 1833 1833 1833 2198 2198 2198 2212 2212 2212 2212 2212 2212 2212 2212 2212 2212 2212 2212 2212 2212 2212 2212 2212 2212 2212 2212 2212 2212 2212 2212 2212 2212 2226 2212 2212 2212 2212 2212 2212 2212 2198 2198 2198 2198 2198 2212 2212 2212 2198 2198 2198 2198 2198 2198 2198 2198 2198 2212 2212 2212 2212 2212 2212 2212 2212 2212 2212 2212 2212 2212 2212 2212 2212 2212 2212 2212 2212 2212 2226 2226 2226 2226 2226 2226 2241 2241 2226 2226 2226 2226 2212 2212 2212 2198 2198 2212 2212 2212 2212 2212 2212 2212 2212 2212 2212 2212 2212 2198 2198 2212 2212 2226 2226 2226 2226 2226 2226 2212 2212 2212 2212 2212 2212 2212 2212 2212 2212 2198 2198 2198 2198 2198 2198 2198 2198 2198 2198 2198 2198 2198 2198 2184 2184 2184 2184 2184 2184 2198 2198 2198 2198 2212 2198 2198 2198 2198 2198 2198 2198 2184 2184 2184 2184 2184 2184 2184 2184 2184 2184 0 0 0 0 0 0 0 0 0
0 0 0 0 0 0 0 0 0 0 0 0 0 0 0 0 0 0 0 0 0 0 0 0 0 0 0 0 0 0 0 0 0 0 2078 2078 2078 2078 2065 2065 2065 2065 2065 2065 2065 2065 2065 2065 2065 2065 2078 2078 2078 2065 2065 2078 2078 2078 2078 2078 2078 2078 2078 2078 2078 2090 2078 2078 2078 2078 2078 2078 2078 2078 2078 2078 2078 2078 2078 2078 2078 2078 2078 2078 2078 2078 2078 2078 2078 2090 2090 2090 2090 2090 2090 2090 2090 2090 2090 2090 2090 2090 2090 2090 2103 2103 1616 1616 1616 1616 1616 1616 1616 1624 1624 1624 1624 1624 1624 1632 1632 1632 1632 1632 1572 1564 1564 1564 1564 1564 1564 1564 1564 1564 1564 1564 1564 1579 1579 1586 1594 0 0 0 0 0 0 2040 2040 2129 2129 2143 2143 2129 2129 2129 2116 2103 2078 2078 2078 2065 2065 2065 2065 2065 2078 2078 2090 2090 2090 2090 2103 2116 2129 2129 2129 2143 2143 2143 2143 2143 2143 2143 2143 2143 2143 2143 2143 2143 2143 2143 2143 2143 2143 2143 2143 2143 2143 2143 2143 2143 2143 2143 2143 2143 2143 2143 2156 2156 2156 2156 2156 2156 2156 2156 2156 2156 2156 2156 2170 2170 2170 2170 2170 2170 1639 1639 1639 1639 1639 1639 1639 1639 1639 1647 1647 1647 1647 1647 1647 1647 1647 2078 2078 2078 2103 2116 2129 2129 2143 2156 2156 2170 2170 2156 2156 2156 2156 2156 2156 2170 2170 2170 2170 2170 2170 2170 2170 2170 2156 2156 2156 2028 2016 2005 1993 1926 1926 1926 1926 1926 1926 1936 1936 1936 0 1594 0 1594 1586 1586 1594 1594 1601 1601 1601 1601 1601 1609 1609 1601 1601 1601 1601 2170 2170 2170 2170 2184 2184 2170 2170 2170 2184 2184 2184 2170 2170 2184 2184 2184 2184 2184 2184 2184 2184 2184 2170 2170 2170 2170 2184 2184 2184 2184 2184 2184 2198 2198 2184 2184 2184 2184 2184 2184 2184 2184 2184 2184 2184 2184 2184 2184 2184 2184 2184 2198 2198 2198 2198 2198 2198 2184 2170 2156 2116 2116 2103 2103 2103 2103 2103 1947 1947 1959 1959 1959 1959 1959 1959 1959 1688 1688 1688 1671 1647 1647 1647 1639 1639 1639 1639 1647 1655 1655 1655 1655 1663 1663 2170 2198 2212 2212 2212 2212 2212 2212 2212 2212 2212 2212 2212 2212 2212 2198 2198 2198 2198 2198 2198 2198 2198 2212 2212 2212 2212 2212 2212 2212 2212 2212 2212 2212 2212 2212 2212 2212 2212 2212 2198 2198 2198 2184 2184 1833 1833 1833 1833 1833 1833 1823 1823 1823 1823 1823 1823 1823 1823 1833 1833 1833 1833 1833 1833 2198 2198 2198 2198 2212 2212 2212 2212 2212 2212 2212 2212 2212 2212 2212 2212 2212 2212 2212 2212 2212 2212 2212 2212 2212 2212 2212 2212 2212 2212 2212 2212 2212 2212 2212 2212 2212 2198 2198 2198 2198 2198 2198 2198 2198 2198 2198 2198 2198 2198 2198 2198 2198 2198 2212 2212 2212 2198 2198 2198 2198 2198 2198 2198 2198 2198 2212 2212 2212 2212 2212 2212 2198 2198 2212 2212 2212 2226 2226 2226 2226 2226 2226 2212 2212 2212 2212 2212 2198 2198 2198 2198 2198 2198 2198 2198 2212 2212 2212 2212 2212 2212 2198 2198 2198 2198 2198 2212 2212 2212 2212 2212 2212 2212 2212 2212 2198 2198 2212 2212 2212 2198 2198 2198 2184 2184 2184 2184 2198 2198 2198 2198 2198 2198 2198 2198 2198 2198 2184 2184 2184 2184 2184 2184 2184 2184 2184 2184 2198 2184 2184 2184 2184 2184 2184 2184 2184 2184 2184 2184 2184 2184 2184 2184 2184 2184 0 0 0 0 0 0 0 0 0
0 0 0 0 0 0 0 0 0 0 0 0 0 0 0 0 0 0 0 0 0 0 0 0 0 0 0 0 0 0 0 0 0 0 2078 2078 2065 2065 2065 2065 2065 2065 2065 2065 2065 2065 2065 2065 2065 2065 2065 2065 2065 2065 2065 2065 2078 2078 2078 2078 2078 2078 2078 2078 2078 2078 2065 2065 2078 2065 2065 2065 2078 2065 2065 2065 2065 2078 2078 2078 2078 2065 2065 2065 2065 2065 2078 2078 2078 2078 2078 2078 2078 2078 2090 2090 2078 2078 2090 2090 2078 2078 2078 2078 2078 2078 1624 1624 1624 1624 1616 1616 1624 1624 1624 1624 1624 1624 1624 1632 1632 1632 1632 1624 1579 1564 1564 1564 1564 1564 1564 1564 1564 1564 1564 1564 1564 1579 1579 1579 1586 1586 0 0 0 0 0 2040 2040 2078 2116 2129 2129 2129 2129 2116 2116 2103 2078 2078 2078 2065 2065 2065 2065 2065 2078 2078 2090 2090 2090 2090 2103 2116 2129 2129 2129 2129 2129 2129 2129 2129 2129 2129 2129 2129 2129 2129 2129 2129 2129 2129 2143 2143 2143 2143 2143 2143 2143 2143 2143 2143 2143 2143 2143 2143 2143 2143 2143 2143 2143 2143 2143 2143 2143 2143 2143 2143 2156 2156 2156 2170 2170 2170 2170 2170 1639 1639 1639 1632 1632 1639 1639 1639 1639 1647 1647 1647 1647 1647 1647 2090 2090 2090 2090 2090 2103 2116 2116 2129 2143 2156 2156 2156 2156 2156 2156 2156 2156 2156 2156 2156 2156 2170 2170 2170 2156 2156 2156 2156 2156 2156 2143 2028 2016 2016 2005 1926 1926 1926 1926 1926 1926 1926 1936 1936 0 1594 1594 1594 1586 1586 1594 1601 1601 1601 1601 1601 1609 1609 1609 1609 1601 1601 1601 2170 2170 2170 2170 2170 2170 2170 2170 2170 2170 2170 2170 2170 2170 2170 2170 2170 2170 2170 2170 2170 2170 2184 2170 2170 2170 2170 2170 2170 2184 2184 2184 2184 2184 2184 2184 2170 2170 2170 2184 2170 2170 2170 2170 2170 2170 2170 2170 2170 2170 2184 2184 2184 2184 2184 2198 2198 2198 2170 2170 2156 2116 2116 2103 2103 2103 2116 2116 1947 1947 1947 1947 1947 1947 1947 1947 1947 1688 1688 1680 1671 1655 1655 1655 1647 1647 1647 1647 1655 1655 1655 1655 1655 1663 1663 2184 2198 2212 2212 2212 2212 2212 2212 2212 2212 2212 2212 2212 2212 2212 2198 2198 2198 2198 2198 2198 2198 2198 2212 2212 2212 2212 2212 2212 2212 2198 2198 2198 2198 2198 2198 2198 2212 2212 2198 2198 2198 2198 2184 2184 1833 1833 1833 1833 1833 1833 1823 1823 1823 1823 1823 1823 1833 1833 1833 1833 1833 1833 1833 1833 2184 2198 2198 2198 2198 2198 2198 2198 2198 2198 2198 2198 2198 2198 2198 2198 2212 2212 2212 2198 2198 2198 2198 2198 2198 2198 2198 2198 2198 2212 2198 2198 2198 2198 2198 2198 2198 2198 2198 2198 2198 2198 2198 2198 2198 2198 2198 2198 2198 2198 2198 2198 2198 2198 2198 2198 2198 2198 2198 2198 2198 2198 2198 2198 2198 2198 2198 2198 2198 2198 2198 2198 2198 2198 2198 2198 2212 2212 2212 2212 2226 2226 2226 2212 2212 2212 2212 2198 2198 2198 2198 2198 2198 2198 2198 2198 2212 2212 2212 2212 2212 2198 2198 2198 2198 2198 2198 2198 2212 2212 2212 2212 2212 2212 2212 2212 2198 2198 2212 2212 2212 2198 2198 2198 2184 2184 2184 2184 2198 2198 2198 2198 2198 2198 2198 2184 2184 2184 2184 2184 2170 2170 2184 2184 2184 2184 2184 2184 2184 2184 2184 2184 2184 2184 2184 2184 2184 2184 2184 2184 2184 2184 2184 2184 2184 2184 0 0 0 0 0 0 0 0 0
0 0 0 0 0 0 0 0 0 0 0 0 0 0 0 0 0 0 0 0 0 0 0 0 0 0 0 0 0 0 0 0 0 0 2065 2065 2065 2065 2065 2065 2053 2053 2065 2065 2065 2065 2065 2065 2065 2065 2065 2065 2065 2065 2065 2065 2065 2065 2065 2065 2065 2078 2078 2078 2078 2078 2065 2065 2065 2053 2053 2053 2065 2065 2065 2065 2065 2078 2078 2078 2065 2065 2065 2065 2065 2065 2065 2065 2065 2078 2078 2078 2078 2078 2078 2078 2078 2078 2078 2078 2078 2078 2078 2078 2078 2090 1624 1624 1624 1624 1624 1624 1624 1624 1624 1624 1624 1624 1632 1632 1632 1632 1632 1624 1579 1572 1572 1572 1564 1564 1564 1564 1564 1564 1564 1564 1572 1579 1579 1579 1586 1586 0 0 0 0 2016 2016 2040 2078 2103 2116 2116 2116 2116 2103 2103 2090 2090 2078 2078 2065 2065 2065 2065 2078 2078 2078 2090 2090 2090 2090 2103 2116 2116 2116 2116 2129 2129 2129 2129 2129 2129 2129 2129 2129 2129 2129 2129 2129 2129 2129 2129 2143 2129 2129 2129 2129 2129 2129 2129 2129 2143 2143 2143 2143 2143 2143 2143 2143 2143 2143 2143 2143 2143 2143 2143 2143 2143 2143 2143 2156 2156 2156 2156 2156 1639 1639 1639 1632 1632 1639 1639 1639 1639 1647 1647 1647 1647 1647 1647 2090 2090 2090 2090 2090 2103 2116 2116 2129 2129 2143 2143 2156 2156 2156 2143 2143 2143 2143 2143 2143 2143 2143 2143 2156 2156 2156 2156 2156 2143 2143 2116 2028 2016 2016 2005 1926 1926 1926 1926 1915 1915 1926 1926 1926 0 1594 1594 1594 1594 1594 1594 1594 1601 1601 1601 1601 1601 1609 1609 1609 1601 1601 1601 2156 2156 2170 2170 2170 2170 2170 2170 2170 2170 2170 2170 2170 2170 2170 2170 2170 2170 2170 2170 2170 2170 2170 2156 2156 2170 2170 2170 2170 2170 2170 2170 2170 2170 2170 2170 2170 2170 2170 2170 2170 2170 2170 2170 2170 2170 2170 2170 2170 2170 2170 2170 2170 2184 2184 2184 2184 2184 2170 2156 2143 2116 2116 2103 2103 2103 2116 2116 2170 1947 1947 1936 1936 1936 1936 1936 1947 1688 1688 1680 1671 1655 1655 1655 1655 1647 1647 1655 1655 1655 1655 1655 1655 1663 1663 2184 2184 2198 2198 2198 2198 2212 2198 2198 2198 2198 2198 2198 2212 2212 2198 2198 2198 2198 2198 2198 2198 2198 2198 2198 2198 2198 2198 2198 2198 2198 2198 2198 2198 2198 2198 2198 2198 2198 2198 2198 2184 2184 2184 1843 1843 1843 1833 1833 1833 1833 1823 1823 1833 1833 1833 1833 1833 1833 1833 1833 1833 1833 1823 1823 2184 2184 2198 2198 2198 2198 2198 2198 2198 2184 2184 2184 2184 2184 2184 2198 2198 2184 2184 2198 2198 2198 2198 2198 2198 2198 2198 2198 2198 2198 2198 2198 2198 2198 2198 2198 2198 2184 2184 2184 2184 2198 2198 2198 2198 2198 2198 2198 2198 2198 2198 2198 2198 2198 2198 2198 2198 2198 2198 2198 2198 2198 2198 2198 2198 2198 2198 2198 2198 2198 2198 2198 2198 2198 2198 2198 2198 2198 2212 2212 2212 2212 2212 2212 2198 2198 2198 2198 2198 2198 2198 2198 2198 2198 2198 2198 2198 2198 2198 2198 2198 2198 2198 2198 2198 2198 2198 2198 2198 2198 2198 2198 2198 2212 2212 2212 2212 2212 2198 2198 2198 2198 2198 2198 2184 2184 2184 2184 2184 2184 2184 2184 2184 2184 2184 2184 2184 2184 2184 2184 2170 2170 2184 2184 2184 2184 2184 2184 2184 2184 2184 2184 2184 2184 2184 2184 2184 2184 2184 2184 2170 2170 2170 2170 2170 2170 0 0 0 0 0 0 0 0 0
0 0 0 0 0 0 0 0 0 0 0 0 0 0 0 0 0 0 0 0 0 0 0 0 0 0 0 0 0 0 0 0 0 0 2053 2053 2053 2053 2053 2053 2053 2053 2053 2053 2053 2053 2065 2065 2065 2065 2065 2065 2065 2053 2053 2053 2065 2053 2053 2053 2053 2065 2065 2065 2065 2065 2053 2053 2053 2053 2053 2053 2053 2053 2053 2053 2065 2065 2065 2065 2053 2053 2053 2053 2053 2053 2065 2065 2065 2065 2065 2065 2065 2065 2078 2078 2078 2078 2078 2078 2078 2065 2065 2065 2065 2078 2078 1624 1624 1624 1624 1624 1624 1624 1624 1624 1632 1632 1632 1632 1632 1632 1632 1624 1572 1572 1572 1572 1572 1564 1564 1572 1572 1572 1572 1572 1579 1579 1579 1586 1586 0 0 0 0 0 2016 2016 2040 2040 2090 2103 2103 2103 2103 2103 2103 2090 2090 2078 2078 2078 2065 2065 2078 2078 2078 2078 2090 2090 2090 2103 2103 2116 2116 2116 2116 2116 2116 2116 2116 2116 2116 2116 2129 2116 2116 2116 2129 2129 2129 2129 2129 2129 2129 2129 2129 2129 2129 2129 2129 2129 2129 2129 2143 2143 2143 2143 2143 2143 2143 2143 2143 2143 2143 2143 2143 2143 2143 2143 2143 2143 2143 2143 2143 2143 1647 1647 1639 1639 1639 1639 1639 1639 1639 1647 1647 1647 1647 1647 2090 2078 2078 2090 2090 2090 2103 2116 2116 2129 2129 2129 2129 2143 2143 2143 2143 2143 2143 2143 2143 2143 2143 2143 2143 2143 2143 2143 2143 2143 2129 2129 2116 2040 2028 2016 2005 1926 1926 1915 1915 1915 1915 1915 1915 1915 1915 1594 1594 1594 1594 1594 1594 1594 1601 1601 1601 1601 1601 1609 1609 1609 1601 1601 1609 2143 2156 2170 2156 2156 2156 2156 2156 2170 2170 2156 2156 2156 2156 2156 2170 2170 2170 2170 2170 2170 2170 2170 2156 2156 2156 2156 2170 2170 2170 2170 2156 2156 2170 2170 2170 2170 2170 2170 2170 2170 2170 2170 2170 2170 2156 2156 2170 2170 2170 2170 2170 2170 2170 2170 2170 2170 2170 2156 2156 2129 2116 2116 2103 2103 2103 2116 2116 2170 1936 1936 1926 1926 1926 1936 1936 1936 1936 1688 1671 1663 1655 1655 1655 1655 1655 1655 1655 1655 1655 1655 1655 1655 1663 1663 1663 2184 2198 2198 2184 2184 2198 2198 2198 2198 2198 2198 2198 2198 2198 2184 2184 2184 2184 2184 2184 2184 2184 2198 2198 2198 2198 2198 2198 2198 2184 2184 2198 2184 2184 2198 2198 2198 2198 2198 2198 2184 2184 2184 1843 1843 1843 1833 1833 1833 1833 1833 1833 1833 1833 1833 1833 1833 1833 1833 1833 1833 1823 1823 1823 2184 2184 2184 2198 2198 2198 2198 2184 2184 2184 2170 2170 2170 2184 2184 2184 2184 2184 2184 2198 2198 2198 2198 2198 2198 2184 2184 2184 2184 2184 2184 2184 2184 2184 2198 2198 2198 2184 2184 2184 2184 2184 2184 2198 2198 2184 2184 2184 2184 2184 2198 2198 2198 2198 2198 2198 2184 2184 2184 2184 2184 2184 2184 2184 2184 2184 2184 2198 2198 2198 2198 2184 2184 2184 2198 2198 2198 2198 2198 2198 2212 2212 2198 2198 2198 2198 2198 2198 2198 2198 2198 2198 2198 2198 2198 2198 2198 2198 2198 2198 2198 2198 2198 2198 2198 2184 2184 2184 2198 2198 2198 2198 2198 2198 2198 2212 2212 2212 2198 2198 2198 2198 2184 2184 2184 2184 2184 2184 2184 2184 2184 2184 2184 2184 2184 2170 2170 2170 2170 2170 2170 2170 2170 2170 2170 2170 2170 2170 2170 2170 2184 2184 2184 2184 2170 2170 2170 2170 2170 2170 2170 2170 2170 2170 2170 2170 0 0 0 0 0 0 0 0 0
0 0 0 0 0 0 0 0 0 0 0 0 0 0 0 0 0 0 0 0 0 0 0 0 0 0 0 0 0 0 0 0 0 0 2053 2053 2053 2053 2053 2053 2053 2053 2053 2053 2053 2053 2053 2053 2053 2053 2053 2053 2053 2053 2053 2053 2053 2053 2053 2053 2053 2065 2065 2065 2065 2065 2053 2053 2053 2040 2040 2053 2053 2053 2053 2053 2053 2053 2053 2053 2040 2040 2053 2053 2053 2053 2053 2053 2053 2053 2053 2053 2053 2053 2065 2065 2065 2065 2065 2065 2065 2065 2065 2065 2065 2065 2065 1616 1616 1624 1624 1624 1624 1624 1632 1632 1632 1632 1632 1639 1639 1639 1632 1624 1572 1572 1572 1572 1572 1564 1564 1572 1572 1572 1572 1572 1579 1579 1586 1586 1586 0 0 0 0 0 2028 2028 2040 2040 2065 2090 2103 2103 2103 2103 2103 2090 2090 2090 2078 2078 2078 2078 2078 2078 2078 2078 2090 2090 2090 2090 2103 2103 2116 2116 2116 2116 2116 2116 2116 2116 2116 2116 2129 2116 2116 2116 2116 2116 2116 2116 2116 2129 2129 2129 2129 2129 2129 2129 2129 2129 2129 2129 2129 2129 2129 2129 2143 2143 2143 2143 2129 2129 2129 2129 2129 2129 2129 2129 2129 2143 2143 2143 2143 2143 2143 1647 1647 1639 1639 1639 1639 1639 1647 1647 1647 1647 1647 1647 1647 2078 2078 2090 2090 2090 2103 2116 2116 2129 2129 2129 2129 2143 2143 2143 2129 2129 2129 2129 2129 2129 2129 2129 2143 2143 2143 2143 2143 2143 2129 2129 2116 2040 2028 2028 2016 1926 1904 1904 1904 1904 1904 1904 1904 1904 1915 1915 1601 1601 1594 1594 1594 1601 1601 1601 1601 1609 1609 1609 1609 1609 1609 1609 1609 2129 2143 2156 2156 2156 2156 2156 2156 2156 2156 2156 2156 2156 2156 2156 2170 2170 2170 2170 2170 2170 2170 2170 2156 2156 2156 2156 2156 2156 2156 2156 2156 2156 2156 2156 2156 2156 2170 2170 2170 2170 2170 2156 2156 2156 2156 2156 2156 2156 2170 2170 2170 2170 2170 2170 2170 2170 2156 2156 2156 2129 2116 2116 2116 2103 2103 2116 2116 1926 1926 1926 1926 1926 1926 1926 1926 1926 1936 1696 1663 1663 1655 1655 1655 1655 1655 1655 1655 1655 1655 1655 1655 1655 1663 1663 1663 2184 2184 2184 2184 2184 2184 2184 2184 2184 2184 2184 2184 2198 2198 2184 2184 2184 2184 2184 2184 2184 2184 2184 2184 2184 2184 2184 2184 2184 2184 2184 2184 2184 2184 2184 2184 2184 2184 2184 2184 2184 2184 2184 1843 1843 1843 1833 1833 1833 1833 1833 1833 1833 1833 1833 1833 1833 1833 1833 1833 1823 1823 1823 1823 2170 2170 2184 2184 2184 2184 2184 2184 2184 2170 2170 2170 2170 2170 2170 2184 2170 2170 2170 2184 2184 2184 2184 2184 2198 2184 2170 2170 2170 2170 2170 2170 2170 2170 2184 2184 2184 2170 2170 2184 2184 2184 2184 2184 2184 2184 2184 2184 2184 2184 2184 2184 2184 2184 2184 2184 2184 2184 2184 2184 2184 2184 2184 2184 2184 2184 2184 2184 2184 2184 2184 2184 2184 2184 2184 2198 2198 2198 2198 2198 2198 2198 2198 2198 2184 2184 2184 2184 2184 2184 2184 2184 2184 2184 2184 2198 2184 2184 2198 2198 2198 2198 2184 2184 2184 2184 2184 2184 2184 2184 2198 2198 2198 2198 2198 2198 2198 2198 2198 2198 2198 2184 2184 2184 2170 2170 2184 2184 2184 2184 2184 2184 2184 2170 2170 2170 2170 2170 2170 2170 2170 2170 2170 2170 2170 2170 2170 2170 2170 2170 2170 2170 2170 2170 2170 2170 2170 2170 2170 2170 2170 2170 2170 2156 2156 2156 0 0 0 0 0 0 0 0 0
0 0 0 0 0 0 0 0 0 0 0 0 0 0 0 0 0 0 0 0 0 0 0 0 0 0 0 0 0 0 0 0 0 0 2040 2040 2040 2040 2040 2040 2053 2053 2053 2053 2053 2053 2040 2040 2053 2053 2053 2053 2053 2053 2053 2053 2053 2053 2053 2053 2053 2053 2053 2053 2053 2053 2053 2053 2040 2040 2040 2040 2053 2053 2053 2053 2040 2040 2053 2053 2040 2040 2040 2053 2053 2040 2040 2040 2040 2053 2053 2053 2053 2053 2053 2053 2053 2053 2053 2053 2053 2053 2053 2053 2053 2065 2065 1616 1616 1616 1624 1624 1624 1624 1632 1632 1632 1632 1639 1639 1639 1639 1639 1639 1639 1572 1572 1572 1572 1572 1572 1572 1572 1579 1579 1579 1586 1586 1586 1586 1594 0 0 0 0 0 2005 2005 2005 2005 2053 2078 2090 2090 2090 2090 2090 2090 2090 2090 2078 2078 2078 2078 2078 2078 2078 2078 2090 2090 2090 2090 2103 2103 2103 2103 2103 2103 2103 2103 2103 2103 2116 2116 2116 2116 2116 2116 2116 2116 2116 2116 2116 2116 2129 2129 2129 2129 2129 2129 2129 2129 2129 2129 2129 2129 2129 2129 2143 2129 2129 2129 2129 2129 2129 2129 2129 2129 2129 2129 2129 2129 2129 2129 2129 2143 2143 1647 1647 1639 1639 1639 1639 1639 1647 1647 1647 1647 1647 1647 1647 1655 2090 2090 2090 2090 2103 2103 2116 2116 2129 2129 2129 2129 2129 2129 2129 2129 2129 2129 2129 2129 2129 2129 2129 2129 2129 2129 2129 2143 2129 2129 2103 2040 2028 2028 2028 2028 1904 1904 1904 1904 1904 1904 1904 1904 1904 1904 1601 1601 1601 1601 1601 1601 1601 1601 1601 1609 1609 1609 1609 1609 1609 1609 1609 2129 2143 2156 2143 2143 2156 2143 2143 2156 2156 2143 2143 2143 2143 2156 2156 2156 2156 2156 2170 2170 2170 2170 2156 2156 2156 2156 2156 2156 2156 2156 2156 2156 2156 2156 2156 2156 2156 2156 2156 2156 2156 2156 2156 2156 2156 2156 2156 2156 2170 2170 2170 2170 2170 2170 2170 2170 2156 2156 2143 2116 2116 2116 2103 2103 2103 2116 2116 1926 1915 1915 1915 1915 1926 1926 1926 1926 1926 1926 1663 1663 1655 1655 1655 1655 1655 1655 1655 1655 1655 1655 1655 1655 1663 1663 1663 2170 2184 2184 2184 2184 2184 2184 2170 2170 2170 2184 2184 2184 2184 2170 2170 2184 2184 2184 2184 2170 2170 2184 2184 2170 2170 2170 2170 2170 2170 2170 2170 2170 2170 2170 2170 2170 2184 2170 2170 2170 2170 2184 1853 1853 1853 1843 1843 1833 1833 1833 1833 1833 1833 1833 1833 1833 1833 1833 1833 1823 1823 1823 2170 2170 2170 2170 2170 2170 2170 2170 2170 2170 2156 2156 2156 2156 2170 2170 2170 2170 2170 2170 2170 2184 2184 2184 2184 2184 2170 2170 2156 2156 2156 2156 2170 2156 2156 2170 2170 2184 2170 2170 2170 2170 2170 2170 2170 2170 2170 2170 2170 2184 2184 2184 2170 2170 2170 2170 2170 2170 2170 2170 2170 2170 2170 2156 2156 2170 2170 2170 2170 2170 2170 2184 2184 2184 2184 2184 2184 2184 2198 2198 2198 2198 2198 2184 2184 2184 2184 2184 2184 2184 2184 2184 2184 2184 2184 2184 2184 2184 2184 2184 2184 2184 2184 2184 2184 2184 2184 2184 2184 2184 2184 2184 2184 2184 2198 2198 2198 2198 2198 2198 2198 2198 2184 2184 2170 2170 2170 2170 2170 2184 2184 2184 2170 2170 2156 2156 2156 2143 2143 2156 2156 2156 2156 2170 2170 2170 2170 2170 2170 2170 2170 2170 2170 2170 2170 2170 2170 2170 2170 2170 2170 2156 2156 2156 2156 2156 2156 0 0 0 0 0 0 0 0 0
0 0 0 0 0 0 0 0 0 0 0 0 0 0 0 0 0 0 0 0 0 0 0 0 0 0 0 0 0 0 0 0 0 0 2040 2040 2028 2028 2028 2040 2040 2040 2040 2040 2040 2040 2040 2040 2040 2040 2053 2053 2053 2053 2053 2053 2040 2040 2040 2040 2040 2053 2053 2053 2053 2053 2040 2040 2040 2040 2040 2040 2040 2040 2040 2040 2040 2040 2040 2040 2040 2040 2040 2040 2040 2040 2040 2040 2040 2040 2040 2040 2040 2040 2053 2053 2053 2053 2053 2053 2053 2053 2053 2053 2053 2053 2053 1616 1616 1616 1624 1624 1624 1624 1632 1632 1632 1632 1639 1639 1639 1639 1639 1639 1639 1586 1579 1579 1579 1572 1572 1572 1579 1579 1579 1579 1586 1586 1586 1586 1594 0 0 0 0 0 2005 2005 2005 2005 2028 2040 2078 2078 2078 2078 2078 2090 2078 2078 2078 2078 2078 2078 2078 2078 2078 2078 2090 2090 2090 2090 2090 2090 2090 2103 2103 2090 2090 2090 2103 2103 2103 2103 2103 2103 2103 2103 2103 2103 2116 2116 2116 2116 2116 2116 2116 2116 2116 2116 2116 2116 2129 2129 2129 2129 2129 2129 2129 2129 2129 2129 2129 2129 2129 2129 2129 2129 2129 2129 2129 2129 2129 2129 2129 2129 2129 2129 1647 1639 1639 1639 1639 1639 1647 1647 1647 1647 1647 1647 1647 1655 2090 2090 2090 2090 2103 2103 2116 2116 2116 2129 2129 2129 2129 2129 2129 2129 2129 2129 2129 2129 2129 2129 2129 2129 2129 2129 2129 2129 2129 2116 2090 2040 2040 2028 2028 2028 1904 1904 1904 1904 1904 1904 1894 1894 1894 1894 1601 1601 1601 1601 1601 1601 1601 1601 1609 1609 1609 1609 1609 1609 1609 1609 1609 2116 2116 2129 2129 2129 2143 2143 2143 2143 2143 2143 2143 2143 2143 2143 2143 2143 2156 2156 2156 2170 2156 2156 2143 2143 2143 2143 2143 2143 2143 2143 2143 2143 2156 2156 2156 2143 2143 2156 2156 2156 2156 2156 2156 2156 2156 2156 2156 2156 2156 2170 2156 2156 2156 2156 2156 2156 2156 2143 2143 2116 2116 2116 2103 2103 2103 2116 2116 2143 1915 1915 1915 1915 1915 1926 1926 1926 1926 1926 1671 1663 1655 1655 1655 1655 1655 1655 1655 1655 1655 1655 1655 1655 1655 1663 1663 2170 2170 2170 2170 2170 2170 2170 2170 2170 2170 2170 2170 2184 2184 2170 2170 2170 2170 2170 2170 2170 2170 2170 2170 2156 2156 2156 2156 2156 2156 2156 2156 2156 2156 2156 2170 2170 2170 2170 2170 2170 2170 1853 1843 1843 1853 1853 1843 1843 1833 1833 1833 1833 1833 1833 1833 1833 1833 1833 1833 1823 1823 1823 2156 2156 2156 2156 2156 2156 2156 2170 2156 2156 2156 2156 2156 2156 2156 2156 2156 2156 2156 2156 2170 2170 2170 2170 2170 2170 2156 2156 2156 2156 2156 2156 2156 2156 2156 2170 2170 2170 2156 2156 2156 2156 2156 2156 2156 2156 2156 2156 2156 2156 2156 2156 2156 2156 2156 2170 2170 2170 2170 2170 2170 2156 2156 2156 2156 2156 2156 2170 2170 2170 2170 2170 2170 2184 2184 2184 2184 2184 2184 2184 2184 2170 2170 2170 2156 2156 2156 2170 2170 2170 2170 2170 2170 2170 2170 2170 2184 2184 2184 2184 2184 2184 2184 2184 2184 2184 2184 2184 2184 2184 2184 2184 2184 2184 2184 2184 2198 2198 2198 2198 2198 2184 2184 2170 2170 2170 2170 2170 2170 2170 2170 2170 2156 2143 2143 2143 2143 2143 2143 2143 2143 2143 2156 2156 2156 2156 2156 2156 2156 2156 2156 2156 2156 2156 2156 2156 2156 2156 2156 2156 2156 2156 2156 2156 2143 2143 2143 0 0 0 0 0 0 0 0 0
0 0 0 0 0 0 0 0 0 0 0 0 0 0 0 0 0 0 0 0 0 0 0 0 0 0 0 0 0 0 0 0 0 0 2028 2028 2028 2028 2028 2028 2040 2040 2040 2040 2040 2040 2040 2040 2040 2040 2040 2040 2040 2040 2053 2040 2040 2028 2028 2040 2040 2040 2040 2040 2040 2040 2040 2040 2028 2028 2028 2040 2040 2040 2040 2040 2040 2040 2040 2040 2040 2040 2040 2040 2040 2040 2040 2040 2040 2040 2040 2040 2040 2040 2040 2053 2053 2053 2053 2053 2053 2053 2053 2053 2053 2053 2053 2053 1616 1616 1624 1624 1624 1624 1632 1632 1632 1632 1639 1639 1639 1647 1647 1647 1647 1647 1586 1586 1579 1579 1579 1579 1579 1579 1586 1586 1586 1586 1594 1594 1594 0 0 0 0 0 2005 2005 2005 2005 2028 2040 2065 2078 2078 2078 2078 2078 2078 2078 2078 2078 2078 2078 2078 2078 2078 2078 2090 2090 2090 2090 2090 2090 2090 2090 2090 2090 2090 2090 2090 2090 2090 2090 2090 2090 2090 2090 2090 2090 2103 2103 2103 2103 2103 2103 2103 2103 2103 2103 2103 2103 2103 2103 2103 2116 2116 2116 2116 2116 2116 2116 2116 2116 2116 2116 2116 2116 2116 2116 2129 2129 2129 2116 2116 2116 2129 2129 1639 1639 1639 1639 1639 1639 1647 1647 1647 1647 1647 1647 1647 1647 2090 2090 2090 2103 2103 2116 2116 2116 2116 2116 2129 2129 2129 2129 2129 2129 2129 2129 2129 2129 2129 2129 2129 2129 2129 2129 2129 2129 2116 2103 2078 2053 2053 2040 2040 2040 1904 1894 1894 1894 1894 1894 1894 1894 1883 1883 1601 1594 1594 1601 1601 1601 1601 1601 1609 1609 1609 1609 1609 1609 1609 1609 1609 2116 2116 2129 2129 2129 2143 2143 2143 2143 2143 2143 2143 2129 2129 2143 2143 2143 2143 2156 2156 2156 2156 2156 2143 2129 2129 2129 2129 2129 2129 2129 2129 2129 2143 2143 2143 2143 2143 2143 2143 2143 2143 2143 2143 2143 2143 2143 2156 2156 2156 2156 2156 2156 2156 2156 2156 2156 2143 2143 2129 2116 2116 2116 2103 2103 2103 2116 2116 2116 1904 1904 1915 1915 1915 1915 1915 1915 1915 1915 1671 1663 1663 1655 1655 1655 1655 1655 1655 1655 1655 1655 1655 1655 1655 1663 1663 2170 2170 2170 2170 2170 2170 2170 2170 2170 2170 2170 2170 2170 2184 2170 2156 2156 2156 2156 2156 2156 2156 2156 2156 2156 2156 2156 2156 2156 2156 2156 2156 2156 2156 2156 2156 2156 2170 2156 2156 2170 2170 1853 1843 1843 1853 1853 1843 1843 1833 1833 1833 1833 1833 1833 1833 1833 1833 1833 1833 1823 1823 2156 2156 2156 2156 2156 2156 2156 2156 2156 2156 2156 2156 2156 2156 2156 2156 2156 2156 2156 2156 2156 2156 2156 2170 2156 2156 2156 2156 2156 2156 2156 2156 2156 2156 2156 2156 2156 2156 2156 2156 2156 2156 2156 2156 2156 2156 2156 2143 2143 2143 2143 2143 2143 2143 2143 2156 2156 2156 2156 2156 2156 2156 2156 2156 2143 2143 2143 2143 2156 2156 2156 2156 2156 2170 2170 2170 2170 2170 2170 2170 2170 2170 2156 2156 2156 2156 2156 2156 2156 2156 2156 2156 2156 2156 2156 2156 2156 2156 2156 2156 2156 2156 2156 2170 2170 2184 2184 2184 2184 2184 2170 2170 2170 2170 2170 2184 2184 2184 2184 2184 2184 2184 2184 2184 2170 2170 2156 2156 2156 2156 2156 2170 2156 2156 2143 2143 2143 2143 2129 2129 2129 2143 2143 2143 2143 2156 2156 2156 2156 2156 2156 2156 2156 2156 2156 2156 2156 2143 2143 2156 2156 2156 2156 2143 2143 2143 2143 2143 0 0 0 0 0 0 0 0 0
0 0 0 0 0 0 0 0 0 0 0 0 0 0 0 0 0 0 0 0 0 0 0 0 0 0 0 0 0 0 0 0 0 0 2028 2028 2016 2016 2016 2016 2028 2028 2028 2040 2040 2040 2016 2016 2016 2028 2040 2040 2040 2040 2040 2040 2028 2028 2028 2028 2028 2028 2028 2028 2028 2028 2028 2028 2028 2028 2028 2040 2040 2040 2040 2040 2028 2028 2028 2028 2028 2028 2028 2040 2040 2028 2028 2040 2040 2040 2040 2040 2040 2040 2040 2040 2040 2040 2040 2053 2053 2053 2053 2040 2040 2053 2053 2053 1616 1616 1624 1624 1624 1624 1632 1632 1639 1639 1639 1639 1639 1647 1647 1647 1647 1647 1594 1586 1579 1579 1579 1579 1579 1579 1586 1586 1586 1594 1594 1594 1601 0 0 0 0 0 2016 2005 2005 2005 2028 2040 2065 2065 2065 2078 2078 2078 2078 2078 2078 2078 2078 2078 2078 2078 2078 2078 2078 2090 2090 2090 2090 2090 2090 2090 2090 2090 2090 2090 2090 2090 2090 2090 2090 2090 2090 2090 2090 2090 2090 2090 2090 2103 2103 2103 2090 2090 2090 2090 2090 2090 2090 2090 2090 2103 2103 2103 2103 2103 2103 2103 2103 2103 2103 2103 2103 2103 2116 2116 2116 2116 2116 2103 2103 2103 2103 2116 2116 1639 1639 1639 1639 1639 1647 1647 1647 1647 1647 1647 1647 1647 2090 2090 2090 2103 2103 2103 2116 2116 2116 2116 2116 2116 2116 2116 2116 2116 2116 2116 2116 2116 2116 2116 2116 2116 2116 2116 2116 2116 2103 2090 2078 2065 2053 2040 2040 2040 2040 1883 1883 1883 1894 1894 1883 1883 1883 1883 1601 1594 1594 1601 1601 1601 1601 1609 1609 1609 1609 1609 1609 1609 1609 1616 1616 2116 2116 2129 2129 2129 2143 2129 2129 2143 2143 2143 2143 2129 2129 2129 2129 2129 2143 2143 2143 2143 2143 2143 2129 2129 2116 2116 2116 2116 2116 2116 2116 2116 2116 2129 2129 2129 2129 2129 2129 2129 2129 2129 2129 2129 2143 2143 2156 2156 2156 2156 2156 2156 2143 2143 2156 2156 2143 2129 2116 2116 2116 2116 2116 2103 2103 2116 2116 2116 1904 1904 1915 1915 1915 1915 1915 1915 1915 1915 1671 1663 1663 1655 1655 1655 1655 1655 1663 1663 1663 1663 1663 1663 1663 1663 1663 2156 2170 2170 2170 2156 2156 2156 2156 2156 2156 2156 2170 2170 2170 2156 2156 2156 2156 2156 2156 2156 2156 2156 2143 2143 2143 2143 2143 2143 2143 2143 2156 2156 2156 2156 2156 2156 2156 2156 2156 2156 2156 1853 1853 1853 1853 1853 1853 1843 1843 1843 1843 1843 1843 1843 1843 1843 1833 1833 1833 1833 2156 2156 2143 2143 2156 2156 2156 2156 2156 2156 2143 2143 2143 2143 2143 2156 2156 2156 2156 2156 2156 2156 2156 2156 2156 2156 2156 2156 2156 2156 2156 2156 2156 2156 2156 2156 2156 2156 2156 2156 2156 2156 2156 2156 2156 2143 2143 2143 2143 2143 2143 2143 2143 2143 2143 2143 2143 2143 2143 2143 2143 2143 2143 2143 2143 2143 2143 2143 2143 2143 2143 2143 2156 2156 2156 2156 2156 2170 2156 2156 2156 2170 2156 2156 2156 2156 2156 2156 2156 2143 2143 2143 2143 2156 2156 2156 2156 2156 2156 2156 2156 2156 2143 2143 2156 2156 2156 2156 2156 2170 2156 2156 2156 2156 2156 2156 2156 2156 2184 2184 2184 2184 2184 2170 2170 2156 2156 2143 2143 2143 2143 2143 2156 2143 2143 2143 2143 2143 2143 2129 2129 2129 2129 2143 2143 2143 2143 2143 2143 2143 2143 2156 2143 2143 2143 2143 2143 2143 2143 2143 2143 2143 2143 2143 2143 2143 2143 2143 2143 0 0 0 0 0 0 0 0 0
0 0 0 0 0 0 0 0 0 0 0 0 0 0 0 0 0 0 0 0 0 0 0 0 0 0 0 0 0 0 0 0 0 0 2016 2016 2016 2016 2016 2016 2028 2028 2028 2028 2005 2005 2016 2016 2016 2028 2040 2028 2028 2028 2028 2028 2028 2028 2028 2028 2028 2016 2016 2028 2028 2028 2016 2016 2028 2028 2028 2040 2040 2040 2040 2028 2028 2028 2028 2028 2028 2028 2028 2028 2028 2016 2016 2028 2028 2028 2028 2028 2028 2040 2040 2040 2040 2040 2040 2040 2040 2040 2040 2040 2040 2040 2040 2040 1624 1624 1624 1624 1624 1624 1632 1632 1639 1639 1639 1639 1639 1647 1647 1647 1647 1647 1594 1586 1579 1579 1579 1579 1579 1579 1586 1586 1586 1594 1594 1594 1594 1594 0 0 0 0 2016 2005 2005 2005 2028 2040 2040 2053 2053 2065 2065 2078 2078 2065 2065 2065 2078 2078 2078 2078 2078 2078 2078 2078 2078 2090 2090 2090 2090 2090 2090 2090 2090 2090 2090 2090 2090 2090 2090 2090 2090 2090 2090 2090 2090 2090 2090 2090 2090 2090 2090 2090 2090 2090 2090 2090 2090 2090 2090 2090 2090 2103 2103 2103 2103 2103 2103 2103 2103 2103 2103 2103 2103 2103 2103 2103 2103 2090 2090 2090 2103 2103 2103 1639 1639 1639 1647 1647 1647 1647 1647 1647 1647 1647 1647 1647 2078 2078 2090 2090 2090 2103 2103 2103 2116 2116 2116 2116 2116 2116 2116 2103 2103 2116 2116 2116 2116 2116 2116 2116 2116 2116 2116 2103 2103 2090 2078 2065 2065 2053 2053 2053 2053 1873 1873 1883 1883 1883 1883 1883 1883 1883 1883 1594 1594 1594 1601 1601 1601 1609 1609 1609 1609 1609 1616 1609 1609 1616 2116 2116 2116 2129 2129 2129 2129 2129 2129 2129 2129 2129 2129 2129 2129 2129 2129 2129 2129 2129 2129 2143 2143 2143 2129 2116 2116 2116 2116 2116 2116 2116 2116 2116 2116 2116 2116 2116 2116 2129 2129 2129 2129 2129 2129 2129 2129 2129 2143 2143 2156 2156 2156 2156 2143 2143 2143 2143 2143 2129 2116 2116 2116 2116 2116 2116 2116 2116 2116 2116 1904 1904 1904 1904 1915 1915 1915 1904 1904 1915 1915 1663 1655 1655 1655 1655 1655 1655 1663 1663 1663 1663 1663 1663 1663 1663 2156 2156 2156 2156 2156 2156 2156 2156 2156 2156 2156 2156 2156 2156 2170 2156 2156 2156 2143 2143 2143 2143 2143 2143 2143 2143 2143 2143 2143 2143 2143 2143 2156 2143 2143 2143 2143 2143 2143 2143 2143 2143 2143 1853 1853 1853 1863 1863 1853 1843 1843 1843 1843 1843 1843 1843 1843 1843 1833 1833 1833 1833 2156 2143 2143 2143 2143 2143 2143 2143 2143 2143 2143 2143 2143 2143 2143 2143 2143 2143 2156 2156 2156 2156 2156 2156 2156 2156 2156 2156 2143 2143 2143 2143 2143 2143 2143 2143 2143 2156 2156 2156 2143 2143 2143 2143 2143 2143 2143 2143 2129 2129 2143 2143 2143 2143 2143 2143 2143 2143 2143 2143 2143 2143 2143 2143 2143 2143 2143 2143 2143 2143 2143 2143 2143 2143 2143 2156 2156 2156 2156 2156 2156 2156 2156 2156 2143 2143 2143 2143 2143 2143 2143 2143 2143 2143 2143 2143 2143 2143 2143 2143 2143 2143 2143 2143 2143 2143 2143 2143 2143 2156 2143 2143 2143 2143 2143 2156 2156 2156 2156 2170 2170 2170 2170 2156 2156 2143 2143 2143 2129 2129 2129 2143 2143 2143 2143 2129 2129 2143 2143 2129 2129 2129 2129 2129 2129 2129 2129 2143 2143 2143 2143 2143 2143 2143 2143 2143 2143 2143 2143 2143 2143 2143 2143 2143 2143 2143 2129 2129 2129 0 0 0 0 0 0 0 0 0
0 0 0 0 0 0 0 0 0 0 0 0 0 0 0 0 0 0 0 0 0 0 0 0 0 0 0 0 0 0 0 0 0 0 2016 2016 2005 2005 2016 2016 2016 2016 2016 2016 2005 2005 2016 2016 2016 2016 2028 2028 2028 2028 2028 2016 2016 2016 2016 2016 2016 2016 2016 2016 2028 2016 2016 2016 2016 2028 2028 2028 2040 2028 2028 2028 2028 2028 2028 2028 2028 2016 2016 2028 2028 2016 2016 2028 2028 2028 2028 2028 2028 2028 2040 2040 2040 2040 2040 2040 2040 2040 2040 2040 2040 2040 2040 2040 2040 1632 1624 1624 1624 1624 1632 1639 1639 1639 1639 1639 1647 1647 1647 1647 1647 1647 1601 1594 1579 1579 1579 1579 1579 1579 1586 1586 1586 1594 1594 1594 1594 1594 0 0 0 0 2016 2005 2005 2016 2028 2040 2040 2053 2053 2053 2065 2065 2065 2065 2065 2065 2065 2065 2065 2065 2078 2078 2078 2078 2078 2078 2078 2078 2078 2078 2078 2078 2078 2078 2078 2078 2078 2090 2078 2078 2078 2078 2078 2090 2090 2090 2090 2090 2090 2090 2090 2090 2078 2078 2078 2078 2090 2090 2090 2090 2090 2090 2090 2090 2090 2090 2090 2090 2090 2090 2090 2090 2103 2090 2090 2090 2090 2090 2090 2090 2090 2090 2090 1639 1639 1647 1647 1647 1647 1647 1647 1647 1647 1647 1647 1647 1647 2078 2090 2090 2090 2090 2090 2103 2103 2103 2103 2103 2103 2103 2103 2103 2103 2103 2103 2103 2103 2103 2103 2103 2103 2103 2103 2103 2090 2078 2078 2065 2065 2053 2053 2053 2065 1853 1853 1873 1873 1873 1873 1873 1873 1873 1873 1594 1594 1594 1601 1601 1601 1609 1609 1609 1609 1609 1616 1616 1616 1624 2116 2116 2116 2116 2116 2129 2129 2129 2129 2129 2129 2129 2129 2129 2129 2116 2116 2116 2116 2129 2129 2129 2129 2129 2116 2116 2116 2116 2116 2116 2116 2116 2116 2116 2116 2116 2116 2116 2116 2116 2116 2116 2116 2116 2116 2116 2116 2116 2129 2129 2143 2143 2143 2143 2143 2143 2143 2143 2129 2129 2116 2116 2116 2116 2116 2116 2116 2116 2116 2116 1894 1894 1904 1904 1904 1904 1915 1904 1904 1904 1904 1655 1655 1655 1655 1655 1655 1655 1663 1663 1663 1663 1663 1663 1663 1663 2156 2156 2156 2156 2156 2156 2143 2143 2143 2143 2143 2156 2156 2156 2156 2143 2143 2143 2143 2143 2143 2143 2143 2143 2143 2143 2143 2143 2143 2143 2143 2143 2143 2143 2143 2143 2143 2143 2143 2143 2143 2143 2143 1853 1853 1853 1863 1863 1853 1853 1843 1843 1843 1843 1843 1843 1843 1843 1843 1843 1843 1843 2156 2143 2143 2143 2143 2143 2143 2143 2143 2143 2143 2143 2143 2143 2143 2143 2143 2143 2143 2143 2156 2156 2143 2143 2156 2143 2143 2143 2143 2143 2143 2143 2143 2143 2143 2143 2143 2143 2143 2143 2143 2143 2143 2143 2129 2129 2129 2129 2129 2129 2129 2143 2143 2143 2143 2143 2143 2143 2143 2143 2143 2143 2143 2143 2129 2129 2129 2143 2143 2143 2143 2143 2143 2143 2143 2143 2143 2156 2143 2143 2143 2143 2143 2143 2143 2143 2143 2143 2143 2143 2143 2143 2143 2143 2143 2143 2143 2143 2143 2143 2143 2143 2143 2143 2143 2143 2143 2143 2143 2143 2143 2143 2143 2143 2143 2143 2156 2156 2156 2156 2156 2156 2156 2143 2143 2143 2143 2129 2129 2129 2129 2129 2129 2129 2129 2129 2129 2129 2129 2129 2129 2129 2129 2129 2129 2129 2129 2143 2143 2143 2143 2143 2143 2143 2129 2129 2129 2129 2129 2129 2129 2129 2129 2129 2129 2129 2129 2129 2129 0 0 0 0 0 0 0 0 0
0 0 0 0 0 0 0 0 0 0 0 0 0 0 0 0 0 0 0 0 0 0 0 0 0 0 0 0 0 0 0 0 0 0 2005 2005 2005 2005 2005 2005 2016 2005 2005 2016 2016 2016 2016 2016 2016 2016 2016 2028 2028 2016 2016 2016 2016 2016 2016 2016 2016 2016 2016 2016 2016 2016 2016 2016 2016 2016 2016 2016 2028 2028 2028 2016 2016 2016 2016 2016 2016 2016 2016 2016 2016 2016 2016 2016 2016 2016 2016 2028 2028 2028 2040 2028 2028 2028 2028 2028 2028 2028 2028 2040 2040 2040 2040 2040 2040 2040 1632 1632 1632 1632 1632 1639 1639 1639 1639 1647 1647 1647 1647 1647 1647 1647 1639 1594 1579 1579 1579 1579 1579 1579 1586 1586 1586 1594 1594 1594 1594 1594 0 0 0 0 2028 2005 2005 2028 2028 2040 2040 2040 2040 2053 2065 2065 2065 2053 2053 2065 2065 2053 2053 2065 2065 2065 2065 2065 2065 2065 2065 2065 2078 2065 2065 2078 2078 2078 2078 2078 2078 2078 2078 2078 2078 2078 2078 2078 2078 2078 2078 2078 2078 2078 2078 2078 2078 2078 2078 2078 2078 2090 2090 2078 2078 2090 2090 2090 2078 2078 2090 2090 2090 2090 2090 2090 2090 2090 2090 2090 2090 2090 2090 2078 2078 2078 2078 1639 1639 1647 1647 1647 1647 1647 1647 1647 1647 1647 1647 1647 1647 2078 2078 2078 2078 2078 2090 2090 2090 2103 2103 2103 2103 2103 2090 2090 2090 2090 2090 2090 2090 2090 2103 2103 2103 2103 2090 2090 2090 2078 2078 2065 2065 2065 2053 2053 2065 1853 1853 1863 1863 1863 1863 1873 1873 1873 1873 1594 1594 1594 1601 1609 1609 1609 1609 1609 1609 1609 1616 1616 1616 1624 2103 2116 2116 2103 2103 2103 2116 2116 2116 2116 2116 2116 2116 2116 2116 2116 2116 2116 2116 2116 2116 2103 2103 2116 2116 2103 2103 2103 2116 2116 2116 2116 2116 2116 2116 2116 2116 2116 2116 2116 2116 2116 2116 2116 2116 2116 2116 2116 2129 2129 2129 2129 2129 2129 2116 2116 2116 2116 2129 2129 2129 2116 2116 2116 2116 2116 2116 2116 2116 2116 1883 1883 1894 1894 1904 1904 1904 1894 1894 1894 1894 1655 1655 1655 1655 1655 1655 1655 1663 1663 1663 1663 1663 1663 1663 1663 2143 2143 2156 2156 2156 2143 2143 2143 2143 2143 2143 2143 2143 2143 2143 2129 2129 2129 2129 2129 2129 2143 2143 2143 2143 2143 2143 2143 2143 2143 2143 2143 2143 2143 2143 2129 2129 2143 2129 2129 2129 2129 2143 1863 1863 1863 1863 1863 1863 1853 1853 1853 1843 1843 1843 1843 1843 1843 1843 1843 1843 1843 2143 2143 2143 2143 2143 2143 2143 2143 2143 2143 2129 2129 2129 2129 2129 2143 2143 2143 2143 2143 2143 2143 2143 2143 2143 2143 2143 2143 2143 2143 2143 2143 2143 2143 2143 2129 2129 2129 2129 2143 2129 2129 2129 2129 2129 2129 2129 2129 2129 2129 2129 2129 2143 2143 2129 2129 2143 2143 2143 2143 2143 2143 2129 2129 2129 2129 2129 2129 2129 2129 2129 2143 2143 2143 2143 2143 2143 2143 2143 2143 2143 2143 2143 2143 2143 2143 2143 2143 2143 2129 2129 2143 2143 2143 2143 2143 2143 2143 2143 2143 2143 2143 2129 2129 2129 2129 2143 2129 2129 2143 2143 2143 2143 2143 2143 2143 2143 2143 2143 2143 2143 2143 2143 2143 2143 2143 2143 2129 2129 2129 2129 2129 2129 2129 2129 2129 2129 2129 2129 2129 2129 2129 2129 2129 2129 2129 2129 2129 2129 2129 2129 2116 2116 2116 2116 2116 2116 2129 2129 2129 2129 2116 2116 2116 2116 2116 2116 2129 2129 0 0 0 0 0 0 0 0 0
0 0 0 0 0 0 0 0 0 0 0 0 0 0 0 0 0 0 0 0 0 0 0 0 0 0 0 0 0 0 0 0 0 0 2005 2005 2005 2005 2005 2005 2005 2005 2005 2005 2005 2005 2016 2016 2016 2016 2016 2016 2016 2016 2016 2016 2016 2016 2016 2016 2016 2016 2016 2016 2016 2016 2005 2005 2016 2016 2016 2016 2016 2016 2016 2016 2016 2016 2005 2005 2005 2005 2005 2005 2005 2005 2005 2016 2016 2005 2005 2016 2028 2028 2028 2028 2028 2028 2028 2028 2028 2028 2028 2040 2040 2040 2040 2040 2040 1647 1639 1639 1639 1639 1639 1639 1639 1639 1639 1647 1647 1647 1647 1647 1647 1647 1639 1586 1586 1579 1579 1579 1579 1579 1586 1586 1586 1594 1594 1594 1594 1594 0 0 0 0 2028 2016 2016 2028 2028 2040 2040 2040 2040 2040 2053 2053 2053 2040 2040 2053 2053 2053 2053 2053 2053 2053 2053 2053 2053 2053 2065 2065 2065 2065 2065 2065 2065 2065 2078 2078 2078 2078 2078 2078 2065 2065 2065 2065 2065 2065 2065 2065 2078 2078 2078 2078 2078 2078 2078 2078 2078 2078 2078 2078 2078 2078 2078 2078 2078 2078 2078 2078 2090 2090 2090 2090 2090 2090 2090 2090 2078 2078 2078 2078 2078 2078 1647 1647 1647 1647 1647 1647 1647 1647 1647 1655 1655 1655 1647 1647 1647 2078 2078 2078 2078 2078 2078 2078 2090 2090 2090 2090 2090 2090 2090 2078 2078 2090 2090 2090 2090 2090 2090 2090 2090 2090 2090 2090 2078 2078 2078 2065 2065 2065 2053 2053 2065 1853 1853 1863 1863 1863 1863 1863 1863 1863 1863 1863 1594 1594 1601 1609 1609 1609 1609 1609 1609 1609 1616 1624 1624 1632 1632 2103 2103 2103 2103 2103 2103 2103 2103 2116 2103 2103 2103 2103 2103 2103 2103 2103 2103 2103 2103 2103 2103 2103 2103 2103 2103 2103 2103 2103 2103 2103 2103 2103 2103 2103 2103 2103 2103 2103 2103 2103 2103 2103 2116 2116 2116 2116 2116 2116 2116 2116 2129 2116 2116 2116 2116 2116 2116 2116 2116 2116 2116 2116 2103 2103 2116 2116 2116 2116 1883 1883 1894 1894 1894 1894 1894 1883 1883 1883 1883 1655 1655 1655 1655 1655 1655 1663 1663 1663 1663 1663 1663 1663 1663 1663 2129 2129 2143 2143 2143 2143 2143 2143 2143 2143 2143 2143 2143 2143 2143 2129 2129 2129 2129 2129 2129 2129 2129 2129 2129 2129 2129 2143 2143 2129 2129 2129 2129 2129 2129 2129 2116 2116 2129 2129 2129 2129 2129 1863 1863 1863 1863 1863 1863 1853 1853 1853 1843 1843 1843 1843 1843 1853 1853 1853 1853 1863 2143 2143 2129 2129 2129 2129 2129 2129 2129 2129 2129 2129 2129 2129 2129 2129 2143 2143 2143 2143 2143 2143 2129 2129 2129 2129 2129 2129 2129 2129 2143 2143 2129 2129 2129 2129 2129 2129 2129 2129 2129 2129 2116 2116 2116 2116 2116 2116 2116 2129 2129 2129 2129 2129 2129 2129 2129 2129 2129 2129 2129 2129 2129 2129 2129 2129 2129 2129 2129 2129 2129 2129 2129 2129 2129 2129 2129 2129 2129 2129 2129 2129 2143 2143 2143 2143 2143 2143 2143 2129 2129 2129 2143 2143 2143 2143 2143 2143 2143 2129 2129 2129 2129 2129 2129 2129 2129 2129 2129 2129 2129 2129 2143 2143 2143 2143 2143 2143 2143 2143 2129 2129 2129 2129 2129 2129 2129 2129 2129 2129 2129 2129 2129 2129 2116 2116 2129 2129 2129 2116 2116 2116 2116 2116 2116 2116 2116 2116 2129 2116 2116 2116 2103 2103 2103 2103 2103 2103 2103 2103 2103 2103 2103 2103 2103 2103 2103 2103 2116 2116 0 0 0 0 0 0 0 0
0 0 0 0 0 0 0 0 0 0 0 0 0 0 0 0 0 0 0 0 0 0 0 0 0 0 0 0 0 0 0 0 0 0 2005 2005 2005 2005 2005 2005 2005 1993 1993 2005 2005 2005 2005 2005 2005 2005 2016 2016 2016 2016 2016 2016 2016 2005 2005 2005 2005 2016 2016 2016 2016 2016 2005 2005 2005 2005 2005 2005 2005 2005 2005 2005 2005 2005 2005 2005 2005 2005 2005 2005 2005 2005 2005 2005 2005 2005 2005 2005 2005 2016 2016 2016 2016 2016 2016 2016 2028 2028 2028 2028 2028 2040 2040 2040 2040 1647 1639 1639 1639 1639 1639 1639 1647 1647 1647 1647 1647 1647 1647 1647 1647 1647 1639 1586 1586 1579 1579 1579 1586 1586 1586 1586 1586 1594 1594 1594 1594 1594 1594 0 0 2028 2028 2016 2016 2028 2028 2040 2040 2040 2040 2040 2053 2040 2040 2040 2040 2040 2040 2040 2040 2040 2040 2040 2040 2040 2040 2040 2053 2053 2053 2053 2053 2053 2053 2053 2053 2065 2065 2065 2065 2065 2065 2053 2053 2053 2053 2065 2053 2053 2065 2065 2065 2065 2065 2065 2065 2065 2078 2078 2078 2078 2078 2078 2078 2078 2078 2078 2078 2078 2078 2078 2078 2078 2090 2090 2090 2078 2078 2078 2078 2078 2078 2078 1647 1647 1647 1647 1647 1647 1647 1647 1647 1655 1655 1655 1647 1647 1647 2078 2078 2078 2078 2078 2078 2078 2090 2078 2078 2090 2090 2090 2090 2078 2078 2078 2078 2078 2078 2078 2090 2090 2090 2090 2078 2078 2078 2078 2065 2065 2065 2065 2065 2065 2065 2065 1853 1853 1853 1853 1853 1863 1863 1863 1863 1863 1601 1601 1609 1609 1609 1609 1609 1609 1609 1609 1616 1624 1624 1632 1632 2103 2103 2090 2090 2090 2090 2090 2090 2103 2103 2103 2103 2103 2103 2103 2090 2090 2090 2103 2090 2090 2090 2103 2103 2103 2103 2103 2103 2103 2103 2103 2103 2103 2103 2103 2103 2103 2103 2103 2103 2103 2103 2103 2103 2103 2103 2103 2103 2103 2116 2116 2116 2103 2103 2103 2103 2103 2103 2103 2116 2116 2103 2103 2103 2103 2103 2103 2103 2103 2116 1873 1873 1883 1883 1883 1883 1883 1883 1883 1655 1655 1655 1655 1655 1663 1663 1663 1663 1663 1663 1663 1663 1671 1663 1655 1655 2129 2129 2129 2129 2129 2129 2129 2129 2129 2129 2129 2129 2129 2129 2116 2116 2116 2129 2129 2129 2129 2129 2129 2129 2129 2129 2129 2129 2116 2116 2129 2116 2116 2116 2116 2116 2116 2116 2116 2116 2116 2116 1863 1863 1863 1863 1863 1863 1853 1853 1853 1843 1843 1853 1853 1853 1853 1853 1853 1863 1863 2143 2129 2129 2129 2129 2129 2129 2129 2129 2129 2129 2129 2116 2116 2129 2129 2129 2129 2143 2143 2143 2129 2129 2129 2129 2129 2129 2129 2129 2129 2129 2129 2129 2129 2129 2116 2116 2116 2116 2116 2116 2116 2116 2116 2116 2116 2116 2116 2116 2116 2129 2129 2129 2129 2129 2129 2129 2129 2129 2129 2129 2129 2129 2129 2129 2129 2129 2129 2129 2129 2129 2129 2129 2129 2129 2129 2129 2129 2129 2129 2129 2129 2129 2129 2129 2129 2129 2129 2129 2129 2129 2129 2129 2129 2129 2129 2129 2129 2129 2129 2129 2129 2129 2129 2129 2129 2129 2129 2129 2129 2129 2129 2129 2129 2143 2143 2129 2129 2129 2129 2129 2129 2129 2129 2129 2129 2129 2129 2116 2116 2116 2116 2116 2116 2116 2116 2116 2116 2116 2116 2116 2116 2116 2116 2116 2116 2116 2116 2116 2116 2116 2103 2103 2103 2103 2103 2103 2103 2103 2103 2103 2103 2103 2103 2090 2090 2103 2103 2103 2116 0 0 0 0 0 0 0 0
0 0 0 0 0 0 0 0 0 0 0 0 0 0 0 0 0 0 0 0 0 0 0 0 0 0 0 0 0 0 0 0 0 0 2005 1993 1993 1993 1993 1993 1993 1993 1993 1993 2005 2005 2005 2005 2005 2005 2016 2016 2016 2016 2005 2005 2005 2005 2005 2005 2005 2005 2005 2005 2005 2005 2005 1993 1993 1993 1993 1993 2005 2005 2005 2005 2005 2005 2005 2005 2005 2005 2005 2005 2005 2005 2005 2005 1993 1993 1993 1993 2005 2005 2016 2016 2016 2016 2016 2016 2016 2016 2028 2028 2028 2028 2028 2028 2028 2028 1639 1639 1647 1647 1647 1647 1647 1647 1647 1647 1647 1647 1647 1647 1647 1639 1639 1594 1586 1586 1586 1586 1586 1586 1586 1586 1586 1594 1594 1594 1594 1594 1594 0 2040 2040 2040 2028 2028 2040 2040 2040 2053 2040 2040 2040 2040 2040 2040 2040 2040 2040 2040 2040 2040 2040 2040 2040 2040 2028 2028 2040 2040 2040 2040 2040 2040 2040 2040 2040 2040 2053 2053 2053 2053 2053 2053 2053 2053 2053 2053 2053 2053 2053 2053 2065 2065 2065 2065 2065 2065 2065 2065 2065 2065 2065 2065 2065 2065 2065 2065 2065 2065 2065 2078 2078 2078 2078 2078 2078 2078 2078 2078 2078 2065 2065 2065 2065 1647 1647 1647 1647 1647 1647 1647 1647 1655 1655 1655 1663 1663 1663 2078 2078 2078 2078 2078 2078 2078 2078 2078 2078 2078 2078 2078 2078 2078 2078 2078 2078 2078 2078 2078 2078 2078 2078 2078 2078 2078 2078 2078 2065 2065 2065 2065 2065 2065 2065 2065 2065 1853 1853 1853 1853 1853 1853 1853 1853 1853 1616 1609 1609 1609 1609 1609 1609 1609 1609 1609 1609 1616 1624 1624 1632 1632 1632 2090 2078 2078 2090 2090 2090 2090 2090 2090 2090 2090 2090 2090 2090 2090 2090 2090 2090 2090 2078 2078 2090 2078 2078 2078 2090 2090 2103 2103 2090 2090 2090 2090 2090 2090 2090 2090 2103 2103 2103 2103 2103 2103 2103 2103 2103 2103 2103 2103 2103 2103 2103 2103 2103 2103 2103 2103 2103 2103 2103 2103 2103 2103 2103 2103 2103 2103 2103 2116 1873 1873 1873 1873 1873 1873 1873 1873 1873 1655 1655 1655 1655 1655 1655 1663 1663 1663 1663 1663 1663 1663 1671 1671 1655 1655 2116 2116 2116 2116 2129 2116 2116 2116 2116 2129 2129 2129 2129 2129 2116 2116 2116 2116 2116 2116 2116 2116 2116 2116 2116 2116 2116 2116 2116 2116 2116 2103 2103 2103 2103 2103 2103 2103 2116 2116 2116 2116 1863 1863 1863 1863 1863 1863 1853 1853 1853 1843 1843 1853 1853 1853 1853 1863 1863 1863 1863 2129 2129 2116 2116 2116 2116 2116 2116 2116 2116 2116 2116 2116 2116 2116 2116 2116 2116 2129 2129 2129 2129 2129 2116 2116 2116 2116 2116 2116 2116 2129 2129 2129 2129 2116 2116 2116 2116 2116 2116 2116 2103 2103 2103 2103 2103 2103 2103 2103 2116 2116 2129 2129 2129 2129 2129 2129 2129 2116 2116 2116 2116 2116 2116 2116 2116 2116 2129 2129 2129 2129 2129 2116 2116 2116 2116 2116 2116 2116 2116 2116 2129 2129 2129 2129 2129 2129 2129 2129 2116 2116 2116 2116 2129 2129 2129 2129 2129 2129 2129 2129 2129 2129 2129 2129 2129 2116 2116 2116 2116 2116 2129 2129 2129 2129 2129 2129 2129 2129 2129 2129 2129 2129 2129 2129 2129 2129 2129 2116 2116 2116 2116 2116 2116 2116 2116 2116 2116 2116 2116 2116 2103 2103 2103 2103 2103 2103 2103 2103 2103 2103 2103 2090 2090 2090 2090 2090 2090 2090 2090 2090 2090 2090 2090 2090 2090 2090 2090 2090 2103 0 0 0 0 0 0 0 0
