0 0 0 0 0 0 0 0 0 0 0 0 0 0 0 0 0 0 0 0 0 0 0 0 0 0 0 0 0 0 0 0 0 2365 2365 2365 2365 2365 2381 2381 2381 2381 2381 2381 2381 2381 2381 2381 2381 2381 2381 2381 2365 2365 2365 2381 2381 2398 2398 2398 2398 2398 2398 2398 2398 2398 2398 2398 2398 2398 2398 2398 2398 2381 2381 2381 2381 2381 2398 2398 2398 2398 2398 2398 2398 2398 2381 2381 2381 2381 2398 2398 2398 2398 2398 2398 2398 2398 2415 2415 2415 2415 2415 2415 2415 2415 2415 2415 2415 2415 2415 2415 2415 2415 2432 2432 2432 2450 2450 2450 2450 2450 2450 2432 2432 2432 2432 2415 2415 2415 2432 2432 2432 2432 2450 2450 2450 2450 2450 2450 2450 2450 2450 2450 2450 2450 2450 2450 2450 2450 2467 2467 2467 2467 2467 2450 2450 2450 2450 2432 2432 2432 2432 2450 2450 2450 2450 2467 2467 2467 2467 1813 1813 1813 1813 1813 1813 1813 1813 1813 1823 1823 1823 1823 1823 1833 1833 1843 1863 1936 1936 2450 2450 2450 2450 2450 2467 2467 2467 2450 2450 2450 2467 2467 2467 2467 2485 2467 2467 2485 2485 2485 2485 2485 2485 2485 2485 2467 2467 2467 2467 2485 2485 2485 2503 2503 2503 2184 2184 2184 2198 2198 2198 2198 2198 2198 2198 2212 2226 2241 2241 2256 2256 1671 1671 1671 1680 1671 1671 1671 1671 1671 1671 1671 1671 1680 1680 1688 1688 1696 1696 1696 1705 1722 1722 2503 2503 2503 2503 2485 2485 2503 2503 2503 2503 2503 2503 2503 2503 2522 2503 2503 0 1523 1523 1523 1523 1523 1523 1523 1523 1523 1523 1523 1523 1523 1529 1529 1536 1536 1543 1550 1550 1557 1564 1564 1572 1572 1572 1572 1572 1572 1572 1579 1572 1572 1572 1572 1572 1572 1572 1564 1564 1572 1572 1572 1572 1572 1572 1579 1572 1572 1572 1572 1572 1572 1572 1572 1572 1572 1572 1572 1572 1572 1572 1579 1572 1572 1572 1572 1572 1572 1572 1572 1572 1572 1579 1579 1579 1579 1579 1579 1579 1572 1572 1579 1579 1579 1579 1579 1579 1579 1572 1572 1572 1579 1579 1579 1572 1572 1365 1365 1365 1365 1365 1365 1365 1365 1365 1365 1365 1365 1365 1365 1365 1365 1370 1370 1370 1370 1370 1572 1579 1579 1579 1579 1579 1579 1579 1579 1579 1579 1579 1579 1579 1572 1564 1564 1564 1564 1564 1564 1564 1564 1564 1564 1572 1572 1579 1579 1586 1594 1594 1594 1601 1609 1632 1655 1680 1688 1696 1696 1705 1705 1713 1713 1722 1722 1713 1713 1731 2541 2541 2541 2541 2541 2541 2541 2541 2541 2541 2560 2560 2560 2560 2541 2541 2560 2560 2560 2579 2579 2579 2579 2598 2598 1776 1776 1776 1776 1776 1776 1776 1785 1785 1785 1359 1359 1359 1359 1359 1354 1354 1354 1354 1354 1354 1354 1354 1354 1354 1354 1354 1349 1349 1349 1343 1343 1338 1338 1338 1338 1338 1338 1338 1338 1338 1338 1338 1333 1333 1333 1333 1328 1328 1328 1328 1993 1993 1993 1993 1993 1993 1993 1993 2541 2541 2560 2560 2560 2560 2560 2541 2541 2541 2541 2541 2541 2541 2541 2541 2541 2541 2560 2541 2541 2541 2541 2541 2541 2541 2541 2560 2560 2560 2560 2560 2560 2560 2541 2541 2541 2541 2541 2541 2541 2560 2560 2560 2560 2541 2541 2541 2541 2522 2522 2522 2522 2522 2522 2522 2522 2522 2522 2522 2522 2522 2522 2522 2522 2522 2522 2522 2522 2522 2522 2522 2522 2522 2522 2522 2522 2522 2522 2522 2503 2503 2503 2503 2503 2503 2522 2522 2503 2503 2522 2522 2522 2503 2503 0 0 0 0 0 0 0 0 0 0
0 0 0 0 0 0 0 0 0 0 0 0 0 0 0 0 0 0 0 0 0 0 0 0 0 0 0 0 0 0 0 0 0 2365 2365 2365 2365 2365 2365 2365 2365 2381 2381 2381 2381 2381 2381 2381 2381 2381 2365 2365 2365 2365 2365 2365 2365 2365 2365 2381 2398 2398 2398 2398 2398 2398 2398 2398 2398 2381 2381 2381 2381 2381 2381 2381 2381 2381 2381 2381 2381 2381 2381 2381 2381 2381 2381 2381 2381 2381 2381 2381 2381 2381 2381 2398 2398 2398 2398 2398 2398 2398 2398 2398 2398 2398 2398 2415 2415 2415 2415 2398 2398 2398 2415 2415 2432 2432 2432 2432 2432 2432 2432 2415 2415 2415 2415 2415 2415 2415 2415 2415 2432 2432 2432 2432 2432 2450 2450 2450 2450 2450 2450 2450 2450 2450 2450 2450 2450 2450 2450 2450 2450 2450 2450 2432 2432 2432 2432 2432 2432 2432 2432 2432 2432 2450 2450 2450 2450 2467 1813 1813 1813 1813 1813 1813 1813 1813 1813 1813 1823 1823 1823 1823 1833 1833 1833 1843 1863 1926 1936 2450 2450 2450 2450 2450 2450 2450 2450 2450 2450 2450 2450 2450 2467 2467 2467 2467 2467 2467 2467 2467 2467 2467 2467 2467 2467 2467 2467 2467 2467 2467 2485 2485 2503 2503 2184 2184 2184 2184 2184 2184 2198 2198 2198 2198 2198 2212 2226 2241 2241 2256 2256 1671 1671 1671 1680 1680 1680 1680 1671 1671 1671 1671 1671 1680 1680 1680 1688 1696 1696 1705 1713 1722 2503 2485 2485 2485 2485 2485 2485 2485 2485 2503 2485 2485 2503 2485 2485 2503 2503 2503 2503 1523 1523 1523 1523 1523 1523 1523 1523 1523 1523 1523 1523 1523 1529 1536 1536 1536 1543 1550 1550 1557 1557 1564 1564 1564 1564 1564 1564 1564 1564 1572 1572 1572 1564 1564 1564 1564 1564 1564 1564 1564 1572 1572 1572 1572 1572 1572 1564 1564 1564 1564 1564 1564 1564 1564 1564 1564 1564 1572 1572 1572 1572 1572 1572 1572 1564 1564 1564 1564 1564 1564 1564 1572 1572 1572 1572 1572 1572 1572 1572 1572 1572 1572 1572 1572 1572 1572 1572 1572 1572 1572 1572 1572 1572 1572 1564 1564 1365 1365 1365 1365 1365 1365 1365 1365 1365 1365 1365 1365 1365 1365 1365 1365 1370 1370 1370 1370 1370 1370 1572 1572 1572 1572 1572 1572 1572 1572 1572 1572 1572 1572 1572 1572 1564 1564 1564 1564 1564 1564 1564 1564 1564 1564 1564 1572 1572 1579 1586 1594 1594 1594 1601 1624 1655 1663 1688 1688 1696 1705 1713 1713 1713 1722 1722 1722 1713 1713 1731 2541 2541 2541 2541 2541 2541 2541 2541 2541 2541 2541 2541 2541 2541 2541 2541 2541 2560 2560 2560 2560 2560 2579 2579 2579 1776 1776 1776 1776 1776 1776 1776 1785 1785 1785 1359 1359 1359 1359 1354 1354 1354 1354 1354 1354 1354 1354 1354 1354 1354 1354 1354 1349 1349 1349 1343 1343 1338 1338 1338 1338 1338 1338 1338 1338 1338 1338 1338 1333 1333 1333 1333 1328 1328 1328 1328 1333 1993 1993 1993 1993 1993 1993 2522 2522 2541 2541 2541 2541 2541 2541 2541 2522 2522 2522 2522 2522 2522 2522 2522 2541 2541 2541 2541 2522 2522 2541 2541 2541 2541 2541 2541 2541 2560 2560 2560 2541 2541 2522 2522 2522 2522 2522 2522 2541 2541 2541 2541 2541 2541 2541 2541 2541 2522 2503 2503 2503 2522 2522 2522 2522 2522 2522 2522 2522 2503 2503 2503 2503 2522 2522 2503 2503 2503 2503 2503 2503 2503 2503 2503 2503 2503 2503 2503 2485 2485 2485 2503 2503 2503 2503 2503 2503 2503 2503 2503 2503 2503 2503 0 0 0 0 0 0 0 0 0 0
0 0 0 0 0 0 0 0 0 0 0 0 0 0 0 0 0 0 0 0 0 0 0 0 0 0 0 0 0 0 0 0 0 2365 2365 2365 2365 2365 2365 2365 2365 2365 2365 2365 2365 2365 2365 2365 2349 2349 2365 2365 2349 2349 2349 2349 2349 2349 2349 2365 2381 2381 2398 2398 2398 2398 2398 2398 2381 2349 2349 2349 2349 2365 2365 2365 2365 2381 2381 2381 2381 2381 2381 2381 2381 2381 2365 2365 2365 2381 2381 2381 2381 2381 2381 2398 2398 2398 2398 2398 2398 2398 2398 2398 2398 2398 2398 2398 2398 2398 2398 2398 2398 2398 2398 2415 2415 2415 2415 2432 2432 2432 2415 2415 2415 2415 2415 2415 2415 2415 2415 2415 2415 2415 2432 2432 2432 2432 2432 2432 2432 2432 2432 2432 2432 2432 2432 2432 2432 2432 2450 2432 2432 2432 2450 2432 2432 2432 2432 2432 2432 2432 2415 2415 2432 2432 2432 2450 2450 2450 1813 1813 1813 1813 1813 1813 1813 1813 1813 1813 1823 1823 1823 1833 1833 1833 1843 1853 1873 1926 1926 1926 2450 2450 2450 2450 2450 2450 2450 2450 2450 2450 2450 2450 2450 2450 2450 2450 2450 2450 2450 2450 2450 2467 2467 2467 2467 2450 2450 2467 2467 2467 2485 2485 2503 2156 2156 2170 2170 2184 2184 2184 2184 2198 2198 2198 2212 2226 2226 2241 2241 2256 2256 1680 1680 1680 1680 1688 1688 1680 1680 1680 1680 1671 1671 1680 1680 1680 1688 1696 1696 1705 1713 1722 2485 2485 2485 2485 2485 2485 2485 2485 2485 2485 2485 2485 2485 2485 2485 2485 2485 2485 2485 1523 1523 1523 1523 1523 1523 1523 1523 1523 1523 1523 1523 1523 1529 1536 1536 1536 1543 1543 1550 1550 1550 1550 1550 1550 1550 1550 1550 1557 1557 1564 1564 1564 1557 1557 1557 1557 1557 1557 1557 1557 1564 1564 1564 1564 1564 1564 1564 1557 1557 1557 1557 1557 1557 1557 1557 1557 1564 1564 1564 1564 1564 1564 1564 1564 1564 1564 1564 1564 1564 1564 1564 1564 1564 1564 1564 1564 1564 1564 1564 1564 1564 1564 1564 1564 1564 1564 1564 1564 1564 1564 1564 1564 1564 1564 1564 1557 1365 1365 1365 1365 1365 1365 1365 1365 1365 1365 1365 1365 1365 1365 1365 1365 1370 1370 1370 1370 1370 1370 1564 1564 1564 1572 1572 1572 1572 1572 1572 1572 1572 1572 1572 1572 1564 1557 1557 1557 1557 1557 1557 1557 1564 1564 1564 1564 1564 1572 1586 1594 1594 1601 1601 1647 1663 1671 1688 1696 1705 1705 1713 1713 1713 1722 1722 1722 1713 1713 2541 2541 2541 2541 2541 2541 2541 2541 2541 2541 2541 2541 2541 2541 2541 2541 2541 2541 2541 2541 2541 2560 2560 2560 2560 2560 1776 1776 1776 1776 1776 1776 1776 1785 1785 1785 1359 1359 1359 1359 1354 1354 1354 1354 1354 1354 1354 1354 1354 1354 1354 1354 1359 1349 1349 1349 1343 1343 1338 1338 1338 1338 1338 1338 1338 1338 1338 1338 1338 1338 1333 1333 1333 1328 1328 1328 1328 1328 1993 1993 1993 1993 1993 1993 2522 2522 2522 2522 2522 2522 2522 2522 2522 2522 2522 2522 2522 2522 2522 2522 2522 2522 2522 2522 2522 2522 2522 2522 2522 2522 2522 2522 2541 2541 2541 2541 2541 2522 2522 2522 2522 2522 2522 2522 2522 2522 2541 2541 2541 2541 2541 2541 2541 2541 2503 2503 2503 2503 2503 2522 2522 2503 2503 2503 2503 2503 2503 2503 2503 2503 2503 2503 2503 2503 2503 2503 2503 2503 2503 2503 2503 2485 2485 2485 2485 2485 2485 2485 2485 2485 2503 2503 2503 2503 2503 2503 2485 2485 2485 2485 0 0 0 0 0 0 0 0 0 0
0 0 0 0 0 0 0 0 0 0 0 0 0 0 0 0 0 0 0 0 0 0 0 0 0 0 0 0 0 0 0 0 0 2349 2349 2349 2349 2349 2349 2349 2349 2349 2349 2349 2349 2349 2349 2349 2349 2349 2349 2349 2349 2349 2349 2349 2349 2349 2349 2365 2365 2365 2381 2381 2381 2381 2381 2381 2365 2349 2349 2349 2349 2349 2349 2365 2365 2365 2381 2381 2381 2381 2365 2365 2365 2365 2365 2365 2365 2365 2365 2381 2381 2381 2381 2381 2381 2381 2381 2381 2381 2381 2381 2381 2381 2398 2398 2398 2398 2398 2398 2398 2398 2398 2398 2398 2398 2398 2398 2415 2415 2415 2415 2398 2398 2398 2398 2398 2398 2398 2398 2415 2415 2415 2415 2415 2415 2415 2415 2415 2415 2415 2415 2415 2415 2415 2432 2432 2432 2432 2432 2432 2432 2432 2432 2415 2415 2415 2415 2415 2415 2398 2398 2398 2398 2415 2415 2432 2432 2432 1823 1813 1813 1813 1813 1813 1813 1813 1813 1813 1823 1823 1823 1833 1833 1833 1843 1853 1873 1926 1926 1926 2432 2432 2432 2432 2450 2432 2432 2432 2432 2432 2432 2450 2450 2450 2450 2450 2450 2450 2450 2450 2450 2450 2450 2450 2450 2450 2450 2450 2450 2467 2467 2485 2156 2156 2156 2170 2170 2184 2184 2184 2184 2198 2198 2198 2212 2226 2226 2241 2241 2256 2256 1680 1680 1680 1680 1688 1688 1680 1680 1680 1680 1680 1680 1680 1680 1680 1688 1688 1696 1705 1705 2450 2467 2467 2467 2467 2467 2467 2467 2485 2485 2485 2485 2467 2467 2467 2467 2485 2485 2485 2485 1523 1523 1523 1523 1529 1523 1523 1523 1523 1523 1523 1523 1523 1529 1536 1536 1536 1543 1543 1543 1543 1543 1543 1550 1550 1550 1550 1550 1550 1550 1550 1550 1550 1550 1550 1550 1550 1550 1550 1550 1550 1550 1550 1557 1557 1550 1550 1550 1543 1543 1543 1543 1543 1550 1550 1550 1550 1557 1557 1557 1557 1557 1557 1557 1557 1557 1557 1557 1557 1557 1557 1557 1557 1557 1557 1557 1557 1557 1564 1557 1557 1564 1564 1564 1557 1557 1557 1557 1564 1564 1564 1564 1564 1564 1564 1564 1557 1557 1365 1365 1370 1370 1370 1370 1365 1365 1365 1365 1365 1365 1365 1370 1370 1370 1370 1370 1370 1370 1370 1564 1564 1564 1564 1564 1564 1564 1564 1564 1564 1564 1564 1564 1564 1557 1557 1557 1557 1557 1557 1557 1557 1557 1557 1564 1564 1564 1572 1586 1594 1594 1601 1616 1655 1671 1680 1696 1705 1713 1713 1713 1713 1713 1722 1722 1722 1713 1713 2522 2522 2522 2522 2522 2541 2522 2522 2522 2522 2522 2522 2522 2522 2522 2522 2522 2541 2541 2541 2541 2541 2541 2541 2560 2560 1776 1776 1776 1776 1776 1776 1785 1785 1785 1785 1365 1359 1359 1359 1359 1359 1354 1354 1354 1354 1359 1354 1354 1359 1359 1359 1359 1354 1354 1349 1343 1343 1338 1338 1338 1338 1338 1338 1338 1338 1338 1338 1338 1338 1333 1333 1333 1328 1328 1328 1328 1328 1993 1993 1993 1993 1993 1993 2522 2522 2522 2522 2522 2522 2522 2522 2522 2503 2503 2503 2503 2503 2522 2503 2503 2503 2522 2522 2522 2503 2503 2522 2522 2522 2522 2522 2522 2522 2522 2522 2522 2522 2503 2503 2503 2503 2503 2522 2522 2522 2522 2541 2541 2541 2522 2522 2522 2522 2503 2503 2503 2503 2503 2503 2503 2503 2503 2503 2503 2503 2503 2503 2503 2503 2503 2485 2485 2485 2485 2485 2485 2503 2503 2485 2485 2485 2485 2485 2485 2485 2485 2485 2485 2485 2503 2503 2503 2503 2485 2485 2485 2485 2485 2485 0 0 0 0 0 0 0 0 0 0
0 0 0 0 0 0 0 0 0 0 0 0 0 0 0 0 0 0 0 0 0 0 0 0 0 0 0 0 0 0 0 0 0 2349 2349 2349 2349 2349 2349 2349 2349 2349 2349 2349 2349 2349 2349 2349 2349 2349 2349 2333 2333 2333 2333 2333 2349 2349 2349 2349 2349 2349 2365 2365 2365 2365 2365 2349 2349 2333 2333 2333 2333 2333 2349 2349 2365 2365 2365 2365 2365 2365 2365 2365 2365 2365 2365 2365 2365 2365 2365 2365 2365 2381 2381 2381 2381 2381 2381 2381 2381 2381 2381 2381 2381 2381 2381 2381 2381 2381 2381 2381 2381 2381 2398 2398 2398 2398 2398 2398 2398 2398 2398 2398 2398 2398 2398 2398 2398 2398 2398 2398 2398 2415 2415 2415 2415 2415 2398 2398 2398 2398 2398 2398 2398 2398 2398 2415 2415 2415 2415 2415 2415 2415 2432 2415 2415 2415 2415 2398 2398 2398 2398 2398 2398 2415 2415 2432 2432 2432 1823 1823 1823 1813 1813 1813 1813 1813 1813 1813 1823 1823 1823 1833 1833 1833 1853 1863 1873 1926 1926 1926 2415 2432 2432 2432 2432 2432 2432 2432 2432 2432 2432 2432 2432 2432 2432 2432 2432 2432 2432 2432 2450 2450 2450 2450 2450 2450 2450 2450 2450 2467 2467 2156 2156 2156 2156 2156 2170 2184 2184 2184 2198 2198 2198 2212 2212 2226 2226 2241 2241 2241 1680 1680 1680 1680 1680 1688 1688 1688 1680 1680 1680 1680 1680 1680 1680 1680 1688 1688 1696 1705 1705 1713 2450 2467 2467 2467 2467 2467 2467 2467 2485 2485 2467 2450 2450 2467 2467 2467 2467 2485 2485 1529 1523 1523 1523 1529 1529 1529 1529 1529 1523 1523 1529 1529 1529 1536 1536 1536 1543 1543 1543 1543 1543 1543 1543 1543 1543 1543 1543 1543 1543 1543 1543 1543 1543 1543 1543 1543 1543 1543 1543 1550 1550 1550 1550 1550 1550 1550 1543 1543 1543 1543 1536 1536 1543 1543 1543 1543 1543 1543 1543 1543 1543 1543 1543 1543 1543 1543 1543 1543 1543 1543 1543 1543 1543 1543 1543 1543 1550 1550 1550 1550 1550 1550 1550 1557 1557 1557 1557 1557 1557 1557 1564 1564 1557 1557 1557 1550 1550 1365 1365 1370 1370 1370 1370 1370 1370 1365 1365 1365 1365 1365 1370 1370 1370 1370 1370 1370 1370 1370 1557 1557 1557 1557 1564 1564 1564 1564 1564 1564 1564 1564 1564 1557 1557 1550 1550 1557 1557 1557 1557 1557 1557 1557 1557 1564 1564 1572 1586 1594 1609 1616 1639 1655 1671 1680 1696 1705 1713 1713 1722 1722 1722 1722 1722 1722 1713 1713 2522 2522 2522 2522 2522 2522 2522 2522 2522 2522 2522 2522 2522 2522 2522 2522 2522 2522 2541 2541 2522 2522 2541 2541 2541 2541 1776 1776 1776 1776 1776 1776 1785 1785 1785 1365 1365 1359 1359 1359 1359 1359 1359 1354 1354 1359 1359 1354 1354 1359 1359 1359 1359 1354 1354 1349 1349 1343 1343 1343 1343 1343 1343 1338 1338 1338 1338 1338 1338 1338 1333 1333 1333 1328 1328 1328 1328 1993 1993 1993 1993 1993 1993 1993 2503 2522 2522 2503 2503 2503 2503 2503 2503 2503 2485 2485 2485 2503 2503 2503 2503 2503 2503 2503 2503 2503 2503 2503 2503 2503 2522 2522 2522 2522 2522 2522 2522 2503 2503 2503 2503 2503 2503 2503 2503 2522 2522 2522 2522 2522 2522 2522 2522 2522 2503 2485 2485 2485 2503 2503 2503 2503 2503 2503 2503 2503 2485 2485 2485 2485 2485 2485 2485 2485 2485 2485 2485 2485 2485 2485 2485 2485 2485 2467 2467 2467 2467 2485 2485 2485 2485 2485 2503 2485 2485 2485 2485 2467 2467 2467 0 0 0 0 0 0 0 0 0 0
0 0 0 0 0 0 0 0 0 0 0 0 0 0 0 0 0 0 0 0 0 0 0 0 0 0 0 0 0 0 0 0 0 2349 2349 2349 2349 2349 2349 2349 2349 2349 2333 2333 2349 2349 2349 2349 2333 2333 2349 2333 2333 2333 2333 2333 2333 2333 2333 2349 2349 2349 2349 2349 2349 2349 2349 2349 2349 2333 2333 2333 2333 2333 2333 2333 2349 2349 2349 2349 2349 2349 2349 2349 2349 2349 2349 2365 2365 2365 2365 2365 2365 2365 2381 2381 2381 2381 2381 2365 2365 2365 2365 2365 2381 2381 2381 2381 2381 2381 2381 2381 2381 2381 2381 2381 2381 2381 2381 2398 2398 2398 2398 2398 2398 2398 2398 2398 2398 2398 2398 2398 2398 2398 2398 2398 2398 2398 2398 2398 2398 2398 2398 2398 2398 2398 2398 2398 2415 2415 2415 2415 2415 2415 2415 2398 2398 2415 2398 2398 2398 2381 2381 2381 2398 2398 2398 2415 2415 2415 1823 1823 1823 1813 1813 1813 1813 1813 1813 1823 1823 1823 1823 1833 1833 1843 1843 1863 1873 1936 1936 1936 2398 2415 2415 2432 2432 2432 2432 2432 2432 2432 2432 2432 2432 2432 2432 2432 2432 2432 2432 2432 2432 2432 2450 2450 2450 2450 2450 2450 2450 2450 2143 2143 2143 2143 2143 2156 2170 2184 2184 2184 2198 2198 2212 2212 2212 2226 2241 2241 2256 2256 1688 1688 1688 1688 1688 1688 1688 1688 1688 1688 1688 1680 1680 1680 1680 1680 1688 1696 1696 1705 1705 1705 2432 2432 2450 2450 2450 2450 2450 2467 2467 2467 2450 2450 2450 2450 2450 2450 2450 2485 2485 1529 1529 1529 1529 1529 1529 1529 1529 1529 1529 1529 1529 1529 1529 1536 1536 1536 1543 1543 1543 1543 1543 1543 1543 1543 1543 1543 1543 1543 1543 1543 1543 1543 1543 1543 1543 1543 1543 1543 1543 1543 1543 1543 1543 1543 1543 1543 1536 1536 1536 1536 1536 1536 1536 1536 1536 1536 1536 1543 1543 1543 1543 1536 1536 1543 1536 1536 1536 1543 1536 1536 1543 1543 1543 1543 1543 1543 1543 1543 1543 1543 1550 1550 1550 1550 1543 1543 1550 1550 1550 1550 1550 1550 1550 1550 1550 1550 1550 1370 1370 1370 1370 1370 1370 1370 1370 1370 1370 1370 1370 1370 1370 1370 1376 1376 1381 1370 1370 1370 1550 1550 1557 1557 1557 1557 1557 1557 1557 1557 1557 1557 1557 1557 1550 1550 1550 1550 1550 1550 1550 1550 1550 1557 1557 1564 1564 1572 1594 1601 1616 1624 1639 1655 1671 1688 1705 1713 1713 1722 1722 1722 1722 1722 1722 1722 1722 1722 2503 2522 2522 2522 2522 2522 2522 2522 2522 2522 2522 2522 2522 2522 2522 2522 2522 2522 2522 2522 2522 2522 2522 2522 2541 2541 1776 1776 1776 1776 1776 1776 1785 1785 1785 1365 1365 1365 1365 1359 1359 1359 1359 1359 1359 1359 1359 1359 1359 1359 1359 1359 1359 1354 1354 1354 1349 1343 1343 1343 1343 1343 1343 1343 1338 1338 1338 1338 1338 1338 1338 1338 1338 1333 1328 1328 1328 1993 1993 1993 1993 1993 1993 2005 2503 2503 2503 2503 2503 2503 2503 2503 2503 2503 2485 2485 2485 2485 2485 2485 2485 2485 2503 2485 2485 2485 2485 2503 2503 2503 2503 2503 2503 2503 2503 2503 2503 2503 2485 2485 2485 2503 2503 2503 2503 2503 2522 2522 2522 2522 2522 2522 2522 2503 2485 2485 2485 2485 2485 2485 2485 2485 2485 2485 2485 2485 2485 2485 2485 2467 2467 2485 2485 2467 2467 2467 2467 2467 2485 2467 2467 2467 2467 2467 2467 2467 2467 2467 2467 2467 2485 2485 2485 2485 2485 2485 2467 2467 2467 2467 0 0 0 0 0 0 0 0 0 0
0 0 0 0 0 0 0 0 0 0 0 0 0 0 0 0 0 0 0 0 0 0 0 0 0 0 0 0 0 0 0 0 0 2333 2333 2333 2333 2349 2349 2349 2333 2333 2333 2333 2333 2333 2333 2333 2333 2333 2333 2333 2317 2317 2333 2333 2333 2333 2333 2333 2333 2333 2333 2333 2349 2333 2333 2349 2349 2333 2333 2333 2333 2333 2333 2333 2333 2333 2333 2349 2349 2349 2349 2349 2349 2349 2349 2349 2349 2349 2349 2365 2365 2365 2365 2365 2365 2365 2365 2365 2365 2365 2365 2365 2365 2365 2365 2365 2365 2365 2381 2381 2381 2381 2381 2381 2365 2365 2365 2381 2381 2381 2381 2381 2381 2398 2381 2381 2381 2381 2381 2381 2398 2398 2398 2398 2398 2398 2398 2381 2381 2381 2381 2381 2398 2398 2398 2398 2398 2398 2398 2398 2398 2398 2415 2398 2398 2398 2398 2381 2381 2381 2381 2381 2381 2398 2398 2415 2415 2415 1823 1823 1823 1823 1823 1823 1813 1813 1813 1823 1823 1823 1823 1823 1833 1843 1843 1863 1873 1936 1936 1936 2381 2398 2398 2415 2415 2415 2415 2415 2415 2415 2415 2415 2415 2432 2432 2432 2432 2432 2432 2432 2432 2432 2432 2450 2450 2450 2450 2450 2129 2129 2129 2143 2143 2143 2143 2156 2170 2170 2184 2198 2198 2198 2212 2212 2226 2226 2241 2241 2256 2256 1688 1688 1688 1688 1688 1688 1688 1688 1688 1688 1688 1680 1680 1680 1680 1680 1688 1696 1696 1705 1705 1705 2415 2432 2432 2450 2450 2450 2450 2450 2450 2450 2450 2432 2432 2450 2450 2450 2450 2450 2450 1529 1529 1529 1529 1529 1529 1529 1529 1529 1529 1529 1529 1529 1529 1536 1536 1536 1536 1536 1543 1536 1536 1536 1536 1536 1536 1536 1536 1543 1543 1543 1536 1536 1536 1536 1536 1536 1536 1536 1536 1536 1536 1536 1536 1536 1536 1536 1529 1529 1529 1529 1529 1529 1536 1536 1536 1536 1536 1536 1536 1536 1536 1536 1536 1536 1536 1536 1536 1536 1536 1536 1536 1536 1536 1536 1536 1536 1543 1543 1543 1543 1543 1543 1543 1543 1543 1543 1543 1543 1543 1543 1543 1543 1543 1543 1543 1543 1550 1550 1370 1370 1376 1376 1376 1370 1370 1370 1370 1370 1370 1370 1370 1376 1381 1381 1387 1387 1387 1543 1543 1543 1543 1543 1543 1543 1543 1543 1543 1543 1543 1543 1543 1543 1536 1536 1543 1543 1543 1543 1550 1550 1550 1550 1557 1557 1564 1572 1601 1609 1624 1639 1647 1655 1680 1696 1713 1713 1722 1722 1722 1722 1722 1722 1722 1722 1722 1722 2485 2503 2503 2503 2503 2503 2503 2503 2503 2503 2503 2503 2503 2503 2503 2503 2503 2503 2503 2503 2503 2485 2485 2522 2522 1776 1776 1776 1785 1785 1785 1785 1785 1785 1365 1365 1365 1365 1365 1365 1365 1359 1359 1359 1359 1359 1359 1359 1359 1359 1359 1359 1359 1354 1354 1354 1349 1349 1343 1343 1343 1343 1343 1343 1343 1338 1338 1338 1338 1338 1338 1338 1333 1333 1993 1993 1993 1993 1993 1993 1993 1993 1993 2005 2485 2503 2503 2503 2503 2503 2503 2485 2485 2485 2467 2467 2467 2467 2467 2467 2467 2467 2467 2485 2485 2485 2485 2485 2485 2485 2503 2503 2503 2503 2503 2503 2503 2503 2485 2485 2485 2485 2485 2485 2485 2485 2503 2503 2503 2503 2503 2503 2503 2503 2485 2485 2485 2485 2485 2485 2485 2485 2485 2467 2467 2467 2467 2467 2467 2467 2467 2467 2467 2467 2467 2467 2450 2450 2450 2450 2450 2450 2450 2450 2450 2450 2450 2467 2467 2467 2467 2467 2485 2485 2467 2467 2450 2450 2450 2450 0 0 0 0 0 0 0 0 0 0
0 0 0 0 0 0 0 0 0 0 0 0 0 0 0 0 0 0 0 0 0 0 0 0 0 0 0 0 0 0 0 0 0 2333 2333 2333 2333 2333 2333 2333 2333 2333 2333 2333 2333 2333 2333 2333 2333 2333 2333 2333 2317 2317 2333 2333 2333 2333 2333 2333 2333 2333 2333 2333 2333 2317 2317 2333 2333 2317 2317 2317 2317 2317 2333 2333 2333 2333 2333 2333 2333 2333 2333 2333 2333 2333 2333 2333 2333 2333 2333 2349 2349 2349 2349 2349 2349 2349 2349 2365 2349 2349 2349 2365 2365 2365 2365 2365 2365 2365 2365 2365 2365 2365 2365 2365 2365 2349 2349 2365 2365 2365 2365 2365 2381 2381 2381 2381 2381 2381 2381 2381 2381 2381 2381 2381 2381 2398 2381 2381 2381 2381 2381 2381 2381 2381 2381 2381 2398 2398 2398 2398 2398 2398 2398 2381 2381 2381 2381 2381 2381 2381 2381 2381 2381 2381 2398 2398 2398 2398 1823 1823 1823 1823 1823 1823 1813 1813 1823 1823 1823 1823 1823 1823 1833 1843 1853 1863 1894 1936 1936 1936 2381 2381 2381 2381 2398 2398 2415 2415 2415 2415 2415 2415 2415 2415 2432 2432 2432 2432 2432 2432 2432 2432 2432 2432 2450 2450 2450 2116 2116 2129 2129 2143 2143 2143 2143 2156 2170 2170 2184 2198 2198 2212 2212 2226 2226 2226 2241 2241 2256 2256 2256 1688 1688 1688 1688 1688 1688 1688 1688 1688 1688 1688 1680 1680 1688 1688 1696 1696 1705 1705 1705 1713 1722 2432 2432 2432 2432 2432 2432 2432 2432 2432 2432 2432 2432 2432 2432 2432 2450 2450 2432 1529 1529 1529 1529 1529 1529 1529 1529 1529 1529 1529 1529 1529 1529 1536 1529 1529 1536 1536 1536 1536 1529 1529 1529 1529 1529 1529 1536 1536 1536 1536 1536 1536 1536 1529 1529 1529 1529 1529 1529 1529 1529 1529 1529 1529 1529 1529 1523 1523 1529 1529 1529 1529 1529 1529 1529 1529 1529 1529 1529 1529 1529 1529 1529 1536 1529 1529 1529 1529 1529 1529 1529 1529 1536 1536 1536 1536 1536 1536 1536 1536 1536 1536 1536 1536 1536 1536 1536 1536 1536 1536 1536 1536 1536 1543 1543 1543 1543 1550 1376 1376 1376 1376 1376 1376 1376 1376 1376 1376 1376 1376 1376 1376 1381 1387 1387 1387 1387 1536 1536 1536 1536 1536 1543 1543 1543 1543 1543 1543 1543 1543 1543 1543 1536 1536 1536 1536 1536 1536 1543 1543 1550 1550 1557 1557 1564 1572 1609 1616 1632 1632 1639 1663 1713 1713 1713 1722 1722 1722 1722 1722 1722 1731 1731 1731 1722 1722 2485 2485 2485 2485 2503 2503 2503 2503 2503 2503 2503 2485 2485 2485 2485 2485 2485 2485 2485 2485 2485 2467 2467 2467 1776 1776 1776 1776 1785 1785 1785 1785 1785 1785 1365 1365 1365 1365 1365 1365 1365 1359 1359 1359 1359 1359 1359 1359 1359 1359 1359 1359 1359 1354 1354 1354 1349 1349 1349 1349 1343 1343 1343 1343 1343 1343 1343 1338 1338 1338 1338 1338 1333 1333 1993 1993 1993 1993 1993 1993 1993 1993 2005 2005 2485 2485 2485 2485 2485 2485 2485 2467 2467 2467 2467 2467 2467 2467 2467 2467 2467 2467 2467 2467 2467 2467 2467 2485 2485 2485 2503 2503 2503 2503 2503 2485 2485 2485 2467 2467 2467 2467 2485 2485 2485 2485 2485 2485 2485 2485 2485 2503 2503 2503 2485 2485 2485 2485 2485 2485 2485 2467 2467 2467 2467 2467 2467 2467 2467 2467 2467 2467 2467 2467 2467 2467 2450 2450 2450 2450 2450 2450 2450 2450 2450 2450 2450 2450 2450 2450 2467 2467 2467 2467 2450 2450 2432 2432 2432 2432 0 0 0 0 0 0 0 0 0 0
0 0 0 0 0 0 0 0 0 0 0 0 0 0 0 0 0 0 0 0 0 0 0 0 0 0 0 0 0 0 0 0 0 2317 2317 2333 2333 2333 2333 2333 2333 2333 2333 2333 2333 2333 2317 2317 2333 2333 2317 2317 2317 2317 2317 2317 2333 2333 2333 2333 2333 2333 2333 2333 2317 2317 2317 2333 2333 2317 2317 2317 2317 2317 2317 2317 2317 2317 2317 2317 2333 2317 2317 2317 2317 2333 2333 2333 2333 2317 2317 2333 2333 2333 2333 2333 2333 2333 2333 2349 2333 2333 2333 2349 2349 2349 2349 2349 2349 2349 2365 2365 2349 2349 2349 2349 2349 2349 2349 2349 2349 2365 2365 2365 2365 2381 2381 2381 2381 2365 2365 2381 2381 2381 2381 2381 2381 2381 2381 2381 2381 2381 2381 2381 2381 2381 2381 2381 2398 2398 2398 2398 2398 2398 2398 2381 2381 2381 2381 2381 2381 2381 2381 2381 2381 2381 2381 2381 2381 2398 2398 1823 1823 1823 1823 1823 1823 1823 1823 1823 1823 1823 1823 1823 1843 1843 1853 1863 1904 1936 1936 1936 2381 2381 2381 2381 2381 2398 2398 2398 2398 2398 2398 2398 2398 2415 2415 2415 2415 2415 2432 2432 2432 2432 2432 2432 2450 2450 2103 2103 2103 2129 2129 2129 2143 2143 2143 2156 2170 2184 2198 2198 2212 2226 2226 2226 2226 2241 2241 2241 2256 2256 2256 1688 1688 1688 1688 1688 1688 1688 1688 1688 1688 1688 1688 1688 1688 1688 1696 1696 1705 1705 1705 1713 1722 2415 2432 2432 2432 2432 2432 2432 2432 2432 2432 2432 2432 2432 2432 2432 2432 2432 2432 2432 1529 1529 1529 1529 1536 1536 1536 1529 1529 1536 1529 1529 1529 1536 1529 1529 1536 1536 1536 1536 1529 1529 1529 1529 1529 1529 1529 1529 1529 1529 1529 1529 1529 1523 1523 1523 1523 1523 1523 1523 1523 1523 1523 1523 1523 1523 1516 1516 1523 1523 1523 1523 1523 1523 1523 1523 1523 1523 1523 1523 1523 1523 1529 1529 1523 1523 1529 1529 1529 1529 1529 1529 1529 1529 1529 1529 1529 1536 1536 1536 1536 1536 1536 1536 1536 1536 1536 1536 1536 1529 1529 1529 1529 1536 1536 1536 1536 1543 1381 1381 1381 1381 1381 1376 1376 1376 1376 1376 1381 1381 1381 1387 1387 1387 1387 1387 1387 1387 1536 1536 1536 1536 1536 1536 1536 1536 1536 1536 1536 1536 1536 1536 1529 1529 1529 1529 1536 1536 1536 1536 1543 1550 1557 1564 1572 1624 1624 1624 1632 1632 1639 1663 1713 1713 1722 1722 1722 1731 1731 1731 1731 1731 1731 1731 1722 1722 2467 2467 2467 2467 2467 2467 2467 2467 2467 2467 2485 2467 2467 2467 2467 2485 2485 2467 2467 2485 2467 2467 2467 2467 2467 1785 1776 1776 1785 1785 1785 1785 1785 1785 1365 1365 1365 1365 1365 1365 1365 1365 1359 1359 1359 1359 1359 1359 1359 1359 1359 1359 1359 1354 1354 1354 1349 1349 1349 1349 1343 1343 1349 1343 1343 1343 1343 1343 1338 1338 1338 1338 1333 1333 1993 1993 1993 1993 1993 1993 1993 1993 2005 2005 2467 2467 2467 2467 2467 2467 2467 2450 2450 2450 2450 2450 2450 2450 2450 2450 2450 2450 2450 2450 2450 2450 2450 2467 2467 2467 2485 2485 2485 2485 2485 2485 2467 2467 2467 2467 2467 2467 2467 2467 2467 2467 2467 2467 2467 2467 2467 2485 2485 2485 2485 2485 2485 2485 2467 2467 2467 2467 2467 2450 2450 2450 2467 2467 2467 2467 2467 2467 2467 2467 2467 2450 2450 2450 2432 2432 2432 2450 2450 2450 2450 2450 2450 2432 2432 2432 2432 2432 2432 2432 2432 2432 2432 2432 2432 2432 0 0 0 0 0 0 0 0 0 0
0 0 0 0 0 0 0 0 0 0 0 0 0 0 0 0 0 0 0 0 0 0 0 0 0 0 0 0 0 0 0 0 0 2301 2301 2301 2301 2317 2317 2317 2317 2317 2317 2317 2301 2301 2301 2301 2317 2317 2317 2301 2301 2301 2317 2317 2317 2317 2317 2333 2333 2333 2333 2333 2317 2317 2317 2317 2317 2317 2317 2317 2317 2317 2317 2317 2317 2317 2317 2317 2317 2317 2317 2317 2317 2317 2317 2317 2317 2317 2317 2317 2333 2333 2333 2333 2333 2333 2333 2333 2333 2333 2333 2333 2333 2333 2333 2333 2333 2349 2349 2349 2349 2349 2349 2349 2333 2333 2333 2333 2349 2349 2349 2349 2365 2365 2365 2365 2365 2349 2349 2365 2365 2365 2365 2381 2381 2381 2381 2381 2381 2381 2381 2381 2365 2365 2381 2381 2381 2381 2381 2381 2381 2381 2381 2365 2365 2365 2365 2365 2365 2365 2365 2365 2365 2381 2381 2381 2381 2381 2381 1813 1813 1823 1823 1823 1823 1823 1823 1823 1823 1823 1823 1833 1843 1843 1853 1863 1904 1936 1936 1936 2365 2365 2365 2381 2381 2381 2381 2381 2381 2381 2381 2381 2398 2398 2398 2415 2415 2415 2432 2432 2432 2432 2432 2450 2090 2090 2090 2090 2103 2116 2129 2129 2143 2143 2143 2156 2170 2184 2198 2212 2212 2226 2226 2226 2226 2241 2241 2256 2256 2256 1688 1688 1688 1688 1688 1696 1696 1696 1696 1688 1688 1688 1688 1688 1696 1696 1696 1696 1705 1705 1705 1713 1722 2415 2415 2415 2415 2415 2432 2432 2432 2432 2415 2415 2415 2415 2432 2432 2432 2415 2415 2415 2415 1536 1536 1536 1536 1536 1536 1536 1536 1536 1536 1536 1536 1536 1536 1536 1536 1536 1536 1536 1529 1529 1529 1523 1523 1523 1523 1523 1523 1523 1523 1523 1523 1523 1523 1523 1523 1523 1523 1523 1523 1523 1523 1523 1523 1523 1516 1516 1516 1516 1516 1516 1516 1516 1516 1516 1516 1516 1523 1523 1523 1523 1523 1523 1523 1516 1516 1523 1523 1523 1523 1523 1523 1529 1523 1523 1529 1529 1529 1529 1529 1529 1529 1529 1529 1529 1529 1529 1529 1523 1523 1529 1529 1529 1529 1529 1536 1536 1381 1381 1381 1381 1381 1381 1376 1376 1376 1376 1381 1381 1381 1387 1387 1387 1387 1387 1387 1387 1536 1536 1536 1536 1536 1536 1536 1536 1536 1536 1536 1529 1529 1529 1529 1529 1529 1529 1529 1529 1536 1536 1543 1550 1564 1609 1624 1624 1624 1632 1632 1632 1647 1722 1722 1722 1731 1731 1731 1731 1731 1731 1731 1731 1739 1722 1722 1722 2450 2450 2450 2450 2450 2467 2467 2467 2467 2467 2467 2467 2467 2467 2467 2467 2467 2467 2467 2467 2450 2450 2467 2467 2467 1785 1785 1785 1785 1785 1785 1785 1785 1785 1365 1365 1365 1365 1365 1365 1365 1365 1359 1359 1359 1359 1359 1359 1359 1359 1359 1359 1359 1354 1354 1354 1354 1349 1349 1349 1343 1343 1349 1349 1343 1343 1343 1343 1343 1343 1338 1338 1338 1993 2005 2005 1993 1993 1993 2005 1993 1993 2005 2005 2450 2450 2450 2450 2450 2450 2450 2450 2450 2450 2450 2450 2450 2450 2450 2450 2450 2450 2450 2450 2450 2450 2450 2467 2467 2467 2485 2485 2485 2485 2467 2467 2467 2467 2467 2450 2450 2450 2467 2467 2467 2467 2467 2467 2450 2450 2467 2467 2467 2467 2467 2467 2467 2467 2467 2467 2467 2450 2450 2432 2432 2450 2450 2450 2467 2450 2450 2467 2467 2450 2450 2432 2432 2432 2432 2432 2432 2432 2432 2432 2432 2432 2432 2432 2432 2432 2432 2432 2432 2432 2432 2432 2432 2415 2415 2415 0 0 0 0 0 0 0 0 0 0
0 0 0 0 0 0 0 0 0 0 0 0 0 0 0 0 0 0 0 0 0 0 0 0 0 0 0 0 0 0 0 0 0 2286 2286 2286 2301 2301 2301 2301 2301 2301 2301 2301 2301 2301 2301 2301 2301 2301 2301 2301 2286 2286 2301 2301 2301 2301 2301 2301 2317 2317 2317 2301 2301 2286 2286 2286 2301 2301 2301 2301 2301 2301 2301 2301 2301 2301 2301 2301 2301 2301 2317 2317 2317 2317 2317 2317 2317 2317 2317 2317 2317 2317 2317 2317 2317 2317 2317 2317 2317 2317 2333 2333 2333 2333 2333 2333 2333 2333 2333 2333 2333 2333 2333 2333 2333 2333 2333 2333 2333 2349 2349 2349 2349 2349 2349 2349 2349 2349 2349 2349 2349 2349 2349 2365 2365 2365 2365 2381 2381 2365 2365 2365 2365 2365 2365 2365 2365 2365 2381 2381 2381 2381 2381 2365 2365 2365 2365 2365 2365 2365 2365 2365 2365 2381 2381 2381 2381 2381 2381 1813 1813 1823 1823 1823 1823 1823 1823 1823 1823 1823 1823 1833 1843 1853 1853 1883 1926 1936 1936 1936 2365 2365 2365 2381 2381 2381 2381 2381 2381 2381 2381 2381 2381 2381 2398 2398 2398 2398 2415 2415 2432 2432 2090 2078 2078 2090 2090 2090 2103 2116 2129 2129 2143 2143 2143 2156 2184 2184 2198 2212 2212 2226 2226 2226 2226 2241 2241 2256 2256 2256 1688 1688 1688 1688 1688 1696 1696 1696 1696 1696 1696 1696 1696 1696 1696 1696 1696 1705 1705 1705 1705 1713 1731 2398 2415 2415 2415 2415 2415 2415 2415 2415 2415 2415 2415 2415 2415 2415 2415 2415 2415 2415 1543 1543 1543 1543 1543 1543 1543 1536 1536 1536 1536 1536 1536 1536 1536 1536 1536 1536 1536 1536 1529 1529 1529 1523 1523 1523 1523 1523 1523 1523 1523 1523 1516 1516 1516 1516 1516 1516 1516 1516 1516 1516 1516 1516 1516 1516 1516 1516 1516 1516 1516 1516 1516 1516 1516 1516 1516 1516 1516 1516 1516 1516 1516 1516 1516 1516 1516 1516 1516 1516 1516 1516 1523 1523 1516 1516 1523 1523 1523 1523 1523 1523 1523 1523 1523 1529 1529 1523 1523 1516 1516 1523 1523 1523 1523 1523 1523 1523 1381 1381 1387 1387 1387 1381 1381 1381 1381 1381 1381 1381 1387 1387 1387 1387 1387 1387 1387 1387 1529 1529 1529 1529 1529 1529 1529 1529 1529 1523 1523 1523 1523 1529 1523 1523 1523 1523 1529 1529 1536 1536 1543 1550 1594 1609 1624 1624 1624 1624 1632 1632 1722 1731 1731 1731 1731 1731 1739 1739 1731 1731 1731 1739 1739 1722 1722 2450 2450 2450 2450 2450 2450 2450 2450 2450 2450 2450 2450 2450 2450 2450 2450 2450 2450 2467 2467 2450 2450 2450 2450 2450 2450 1785 1785 1785 1785 1785 1785 1785 1785 1785 1785 1365 1365 1365 1365 1365 1365 1365 1359 1359 1359 1359 1359 1359 1359 1359 1359 1359 1359 1354 1354 1354 1354 1354 1349 1349 1343 1343 1349 1349 1343 1343 1343 1343 1343 1343 1338 1338 1338 1993 2005 2005 1993 1993 2005 2005 2005 2005 2005 2432 2432 2432 2450 2450 2450 2432 2432 2450 2450 2450 2450 2450 2450 2450 2450 2450 2450 2450 2450 2450 2450 2450 2450 2450 2450 2450 2467 2467 2485 2467 2467 2467 2467 2467 2450 2450 2450 2450 2450 2450 2450 2450 2450 2450 2450 2450 2450 2450 2467 2467 2450 2450 2467 2467 2467 2450 2450 2432 2432 2432 2432 2432 2432 2432 2450 2450 2450 2450 2450 2450 2450 2432 2432 2432 2432 2432 2432 2432 2432 2432 2432 2432 2432 2415 2415 2432 2415 2415 2415 2415 2415 2415 2415 2415 2415 2415 0 0 0 0 0 0 0 0 0 0
0 0 0 0 0 0 0 0 0 0 0 0 0 0 0 0 0 0 0 0 0 0 0 0 0 0 0 0 0 0 0 0 0 2286 2286 2286 2286 2286 2286 2286 2286 2286 2286 2286 2286 2286 2286 2286 2286 2301 2301 2286 2286 2286 2286 2286 2301 2301 2301 2301 2301 2317 2301 2301 2301 2286 2286 2286 2286 2286 2286 2286 2286 2286 2301 2286 2286 2286 2286 2286 2286 2286 2286 2286 2301 2301 2301 2301 2301 2301 2301 2317 2317 2317 2317 2317 2317 2317 2301 2301 2301 2301 2317 2317 2317 2317 2317 2333 2333 2333 2333 2333 2333 2333 2333 2333 2333 2333 2333 2333 2333 2333 2333 2333 2333 2333 2333 2333 2333 2333 2333 2333 2333 2349 2349 2349 2349 2365 2365 2365 2365 2365 2365 2365 2349 2349 2349 2365 2365 2365 2365 2365 2381 2365 2365 2349 2349 2365 2365 2365 2365 2365 2365 2365 2365 2365 2365 2365 2365 2381 2381 1813 1813 1823 1823 1823 1823 1823 1823 1823 1823 1823 1823 1833 1843 1853 1853 1894 1926 1926 1936 1936 2365 2365 2365 2381 2381 2381 2381 2381 2381 2381 2381 2381 2381 2381 2381 2381 2381 2398 2398 2415 2415 2090 2078 2078 2078 2090 2090 2090 2103 2116 2129 2129 2143 2143 2143 2170 2184 2198 2212 2226 2226 2226 2226 2241 2241 2241 2241 2256 2256 2256 2256 1688 1688 1688 1688 1696 1696 1696 1696 1696 1696 1696 1696 1696 1696 1696 1705 1705 1705 1705 1705 1713 2381 2398 2398 2398 2398 2415 2415 2415 2415 2415 2398 2398 2415 2415 2415 2415 2415 2415 2415 2415 1543 1543 1543 1543 1543 1543 1543 1543 1543 1543 1543 1536 1536 1543 1536 1536 1536 1536 1536 1536 1529 1529 1529 1523 1523 1523 1523 1523 1523 1523 1523 1516 1516 1516 1516 1516 1516 1516 1516 1516 1516 1516 1516 1516 1516 1516 1509 1509 1509 1509 1509 1509 1509 1509 1509 1509 1509 1509 1509 1509 1509 1509 1509 1509 1509 1509 1509 1516 1516 1516 1516 1516 1516 1516 1516 1516 1516 1516 1516 1516 1516 1516 1516 1516 1516 1516 1516 1516 1516 1516 1516 1516 1516 1516 1516 1516 1509 1509 1387 1387 1387 1387 1387 1387 1381 1381 1381 1381 1381 1381 1387 1387 1387 1387 1387 1387 1387 1387 1523 1523 1523 1523 1523 1523 1523 1523 1523 1523 1523 1523 1523 1523 1516 1516 1523 1523 1529 1529 1536 1536 1543 1586 1594 1609 1616 1624 1624 1624 1632 1632 1731 1739 1739 1739 1739 1739 1739 1739 1739 1739 1739 1739 1739 1739 1739 2432 2432 2432 2432 2432 2432 2432 2432 2432 2450 2450 2450 2450 2450 2450 2450 2450 2450 2450 2450 2450 2450 2450 2450 2450 2450 1785 1785 1785 1785 1794 1794 1785 1785 1785 1785 1365 1365 1365 1365 1365 1365 1365 1359 1359 1359 1359 1359 1359 1359 1359 1359 1359 1359 1359 1354 1354 1354 1354 1354 1349 1349 1349 1349 1349 1349 1343 1343 1349 1349 1349 1343 1343 1359 2005 2005 2005 1993 1993 2005 2005 2005 2005 2432 2432 2432 2432 2432 2432 2432 2432 2432 2432 2432 2432 2432 2432 2432 2432 2432 2432 2432 2432 2432 2432 2432 2432 2432 2450 2450 2450 2467 2467 2467 2467 2467 2467 2450 2450 2450 2450 2450 2450 2450 2450 2432 2432 2432 2432 2432 2432 2450 2450 2450 2450 2450 2450 2450 2450 2450 2450 2450 2432 2432 2432 2432 2432 2432 2432 2432 2450 2450 2450 2432 2432 2432 2432 2432 2432 2415 2415 2432 2432 2432 2432 2432 2432 2415 2415 2415 2415 2415 2415 2415 2415 2415 2415 2415 2415 2415 2415 0 0 0 0 0 0 0 0 0 0
0 0 0 0 0 0 0 0 0 0 0 0 0 0 0 0 0 0 0 0 0 0 0 0 0 0 0 0 0 0 0 0 0 2271 2271 2271 2271 2271 2271 2271 2271 2271 2271 2271 2271 2286 2286 2286 2286 2286 2286 2286 2286 2286 2286 2286 2286 2286 2286 2286 2286 2286 2286 2286 2286 2286 2286 2286 2286 2286 2286 2286 2286 2286 2286 2286 2271 2271 2271 2271 2271 2271 2271 2286 2286 2286 2286 2286 2286 2286 2286 2301 2301 2317 2317 2317 2317 2317 2301 2286 2286 2286 2301 2301 2317 2317 2317 2317 2317 2317 2317 2317 2317 2317 2317 2317 2317 2317 2317 2317 2317 2333 2333 2317 2317 2317 2317 2317 2317 2317 2317 2333 2333 2333 2333 2333 2333 2349 2349 2349 2349 2349 2349 2349 2349 2349 2349 2349 2349 2349 2349 2349 2365 2365 2349 2333 2333 2349 2349 2349 2349 2349 2349 2365 2365 2365 2365 2365 2365 2365 2365 1813 1813 1823 1823 1823 1823 1823 1823 1823 1823 1823 1823 1833 1843 1853 1863 1894 1915 1926 1936 1936 2365 2365 2365 2365 2365 2365 2365 2365 2365 2365 2365 2365 2381 2381 2381 2381 2381 2381 2398 2398 2398 2078 2078 2078 2078 2090 2090 2090 2103 2103 2116 2129 2129 2129 2129 2170 2198 2212 2241 2241 2241 2241 2241 2241 2241 2241 2256 2256 2256 2256 2256 1696 1696 1696 1696 1696 1696 1696 1696 1696 1696 1696 1696 1696 1696 1705 1705 1713 1713 1713 1713 1722 2381 2381 2381 2398 2398 2398 2398 2398 2398 2398 2398 2398 2398 2398 2398 2398 2415 2415 2415 2415 1543 1543 1543 1543 1543 1543 1543 1543 1543 1543 1543 1536 1536 1543 1543 1543 1543 1543 1536 1536 1529 1529 1529 1529 1523 1523 1523 1523 1523 1523 1516 1516 1516 1509 1509 1516 1516 1509 1509 1509 1509 1509 1509 1509 1509 1509 1509 1509 1503 1503 1503 1503 1503 1503 1503 1503 1509 1509 1509 1509 1509 1509 1509 1509 1509 1509 1509 1509 1509 1509 1509 1509 1509 1509 1509 1509 1509 1509 1509 1509 1509 1509 1509 1509 1509 1509 1503 1503 1503 1509 1509 1509 1509 1509 1509 1509 1509 1509 1387 1387 1387 1387 1387 1387 1381 1381 1381 1381 1381 1381 1387 1387 1387 1387 1387 1387 1376 1376 1516 1516 1516 1516 1516 1516 1516 1516 1516 1516 1509 1509 1516 1516 1516 1516 1516 1516 1523 1529 1536 1543 1586 1594 1601 1609 1616 1624 1624 1624 1632 1739 1739 1739 1739 1739 1739 1739 1739 1739 1739 1739 1739 1739 1739 1739 1739 2432 2432 2432 2432 2432 2432 2432 2432 2432 2432 2432 2432 2432 2432 2450 2450 2450 2450 2450 2450 2450 2432 2432 2432 2432 2432 1794 1794 1794 1794 1794 1794 1794 1794 1794 1794 1370 1370 1370 1370 1365 1365 1365 1365 1365 1365 1365 1365 1365 1365 1365 1365 1359 1359 1359 1354 1354 1354 1354 1354 1354 1349 1349 1349 1349 1349 1349 1349 1349 1349 1349 1343 1343 1359 2005 2005 2005 2005 2005 2005 2005 2005 2005 2005 2415 2415 2415 2432 2415 2415 2415 2415 2415 2415 2415 2432 2432 2432 2432 2432 2432 2432 2432 2432 2432 2432 2432 2432 2450 2450 2450 2450 2450 2467 2450 2450 2450 2450 2450 2450 2450 2450 2450 2432 2432 2432 2432 2432 2432 2432 2432 2432 2450 2450 2450 2432 2432 2432 2432 2432 2432 2432 2415 2415 2415 2415 2432 2432 2432 2432 2432 2432 2432 2432 2415 2415 2415 2415 2415 2415 2415 2415 2415 2415 2415 2415 2415 2415 2415 2415 2415 2415 2415 2415 2415 2415 2415 2415 2415 2415 2415 0 0 0 0 0 0 0 0 0 0
0 0 0 0 0 0 0 0 0 0 0 0 0 0 0 0 0 0 0 0 0 0 0 0 0 0 0 0 0 0 0 0 0 2271 2271 2271 2271 2271 2271 2271 2271 2271 2271 2271 2271 2271 2271 2286 2286 2286 2286 2286 2286 2286 2286 2286 2286 2286 2286 2286 2286 2286 2286 2286 2286 2271 2271 2271 2286 2271 2271 2271 2271 2271 2271 2271 2271 2271 2271 2271 2271 2271 2271 2271 2286 2286 2286 2286 2286 2286 2286 2301 2301 2301 2301 2301 2301 2301 2286 2286 2286 2286 2286 2301 2301 2301 2301 2317 2317 2301 2301 2301 2301 2317 2317 2317 2317 2317 2317 2317 2317 2317 2317 2317 2317 2317 2317 2317 2317 2317 2317 2317 2317 2333 2333 2333 2333 2333 2333 2333 2333 2333 2333 2333 2333 2333 2333 2333 2333 2333 2333 2333 2349 2349 2349 2333 2333 2333 2333 2333 2333 2333 2333 2333 2333 2333 2333 2349 2349 2365 2365 2365 1823 1823 1823 1823 1823 1823 1823 1823 1823 1823 1833 1833 1853 1853 1863 1894 1915 1926 1936 1936 1936 2365 2365 2365 2365 2365 2365 2365 2365 2365 2365 2365 2365 2365 2381 2381 2381 2381 2398 2398 2065 2065 2065 2078 2078 2090 2090 2090 2090 2103 2116 2116 2129 2129 2129 2365 2256 2256 2241 2241 2241 2241 2241 2241 2241 2241 2256 2256 2256 2256 2256 1696 1696 1696 1696 1696 1696 1696 1696 1696 1696 1696 1696 1696 1705 1705 1713 1713 1713 1722 1722 1722 2365 2365 2381 2381 2381 2398 2398 2398 2398 2398 2381 2381 2398 2398 2398 2398 2415 2415 2415 0 1543 1543 1543 1543 1543 1543 1543 1543 1543 1543 1543 1543 1543 1543 1543 1543 1543 1543 1536 1536 1536 1529 1529 1529 1529 1523 1523 1523 1523 1516 1516 1516 1509 1509 1509 1509 1509 1509 1509 1509 1509 1503 1503 1503 1503 1509 1503 1503 1503 1496 1496 1496 1496 1496 1496 1496 1496 1503 1503 1503 1503 1503 1503 1503 1503 1503 1503 1503 1503 1509 1509 1509 1509 1509 1509 1509 1503 1503 1503 1509 1509 1503 1503 1503 1503 1496 1496 1496 1496 1496 1503 1503 1503 1503 1503 1503 1503 1387 1387 1387 1387 1387 1387 1387 1387 1381 1381 1381 1381 1387 1387 1387 1387 1387 1381 1381 1376 1376 1509 1509 1509 1516 1509 1509 1509 1509 1509 1509 1509 1509 1509 1509 1509 1509 1509 1516 1523 1529 1543 1586 1586 1594 1601 1609 1616 1624 1624 1624 1632 1748 1748 1748 1748 1739 1739 1739 1739 1739 1739 1739 1739 1739 1739 1739 1739 2415 2415 2415 2415 2415 2415 2415 2415 2415 2415 2415 2432 2432 2432 2432 2450 2450 2450 2432 2432 2415 2415 2415 2415 2415 2415 1794 1794 1794 1794 1794 1794 1794 1794 1794 1794 1370 1370 1370 1370 1370 1365 1365 1365 1365 1365 1365 1365 1365 1365 1365 1365 1359 1359 1359 1354 1354 1354 1354 1354 1354 1354 1354 1354 1354 1349 1349 1349 1349 1349 1349 1349 1349 1359 2005 2005 2005 2005 2005 2005 2005 2005 2005 2005 2398 2398 2398 2415 2415 2415 2415 2415 2415 2415 2415 2415 2415 2415 2415 2415 2415 2415 2432 2432 2432 2432 2432 2432 2415 2415 2415 2432 2432 2450 2450 2450 2450 2450 2450 2450 2450 2432 2432 2432 2432 2432 2432 2432 2432 2432 2432 2432 2432 2432 2432 2432 2432 2415 2415 2415 2415 2415 2415 2415 2415 2415 2415 2415 2415 2432 2432 2415 2415 2415 2415 2398 2398 2398 2398 2398 2415 2415 2415 2415 2415 2415 2415 2415 2415 2415 2415 2415 2398 2398 2398 2398 2398 2398 2398 2415 2415 0 0 0 0 0 0 0 0 0 0
0 0 0 0 0 0 0 0 0 0 0 0 0 0 0 0 0 0 0 0 0 0 0 0 0 0 0 0 0 0 0 0 0 2271 2256 2256 2256 2256 2256 2256 2256 2256 2256 2271 2271 2271 2271 2271 2271 2271 2271 2271 2271 2271 2271 2271 2286 2286 2286 2286 2286 2286 2271 2271 2271 2271 2271 2271 2271 2271 2271 2271 2271 2271 2271 2271 2271 2271 2271 2271 2271 2271 2271 2271 2271 2271 2286 2286 2286 2286 2286 2301 2301 2301 2301 2301 2301 2301 2286 2286 2286 2286 2286 2301 2301 2301 2301 2301 2301 2301 2301 2301 2301 2301 2301 2301 2301 2317 2317 2301 2301 2301 2317 2301 2301 2301 2301 2317 2317 2317 2317 2317 2317 2317 2317 2317 2317 2317 2333 2333 2333 2333 2333 2333 2333 2333 2333 2333 2333 2333 2333 2333 2333 2333 2333 2317 2317 2317 2333 2333 2317 2317 2333 2333 2333 2333 2333 2333 2333 2317 2317 2317 1823 1823 1823 1823 1823 1823 1823 1823 1823 1833 1833 1833 1843 1853 1863 1894 1915 1926 1936 1936 1936 2333 2333 2333 2333 2349 2349 2365 2365 2365 2365 2365 2365 2365 2365 2381 2381 2381 2398 2053 2053 2065 2065 2078 2078 2090 2090 2090 2090 2103 2116 2116 2129 2129 2349 2349 2349 2286 2256 2256 2241 2241 2241 2241 2241 2241 2256 2256 2256 2256 2256 1696 1696 1696 1696 1696 1696 1696 1696 1696 1696 1696 1696 1705 1705 1713 1713 1722 1722 1722 1731 1731 2365 2365 2365 2381 2381 2381 2381 2381 2381 2381 2381 2381 2381 2381 2398 2398 2398 2415 2415 2398 1550 1550 1550 1550 1550 1550 1550 1543 1543 1543 1543 1543 1543 1543 1543 1543 1543 1543 1543 1543 1536 1536 1529 1529 1529 1523 1523 1523 1523 1516 1516 1516 1509 1509 1509 1509 1509 1509 1509 1503 1503 1503 1503 1503 1503 1503 1503 1496 1496 1489 1489 1489 1489 1489 1489 1489 1496 1496 1496 1496 1496 1496 1503 1496 1496 1496 1496 1503 1503 1503 1503 1503 1503 1503 1503 1503 1496 1496 1496 1503 1503 1496 1496 1496 1496 1496 1496 1496 1496 1496 1496 1496 1496 1496 1503 1503 1503 1387 1387 1387 1387 1387 1387 1387 1387 1387 1381 1381 1381 1387 1387 1387 1387 1387 1381 1381 1387 1503 1503 1503 1503 1509 1509 1509 1509 1509 1509 1509 1509 1509 1509 1509 1509 1509 1509 1516 1523 1536 1586 1586 1594 1594 1601 1601 1609 1616 1624 1624 1748 1748 1748 1748 1748 1748 1739 1739 1739 1739 1731 1731 1739 1739 1739 1748 2398 2398 2398 2398 2398 2398 2398 2398 2398 2415 2415 2415 2415 2415 2415 2432 2432 2432 2432 2432 2415 2415 2415 2415 2415 2415 2415 1794 1794 1794 1794 1794 1794 1794 1794 1794 1370 1370 1370 1370 1370 1370 1370 1365 1365 1365 1365 1365 1365 1365 1365 1365 1365 1365 1365 1359 1359 1354 1354 1354 1354 1354 1354 1354 1354 1354 1354 1349 1349 1349 1349 1354 1354 1354 1365 2016 2016 2016 2016 2016 2005 2005 2005 2005 2005 2398 2398 2398 2415 2415 2398 2398 2398 2398 2398 2398 2398 2398 2398 2398 2398 2415 2415 2415 2415 2432 2415 2415 2415 2398 2398 2398 2398 2415 2415 2415 2415 2415 2432 2432 2450 2450 2432 2432 2432 2415 2415 2415 2415 2415 2415 2432 2432 2432 2432 2432 2415 2415 2415 2415 2415 2415 2415 2415 2415 2415 2415 2415 2415 2415 2415 2415 2415 2415 2398 2398 2398 2398 2398 2398 2398 2398 2398 2398 2398 2398 2398 2398 2398 2398 2398 2398 2398 2398 2398 2398 2398 2398 2398 2398 2398 2398 0 0 0 0 0 0 0 0 0 0
0 0 0 0 0 0 0 0 0 0 0 0 0 0 0 0 0 0 0 0 0 0 0 0 0 0 0 0 0 0 0 0 0 2256 2256 2256 2256 2241 2241 2256 2256 2256 2256 2256 2256 2256 2271 2271 2256 2256 2271 2271 2271 2271 2271 2271 2271 2286 2286 2286 2286 2286 2271 2271 2271 2271 2271 2271 2271 2271 2271 2271 2271 2271 2271 2271 2271 2256 2256 2256 2256 2256 2256 2271 2271 2271 2271 2271 2271 2286 2286 2286 2286 2286 2286 2286 2286 2286 2286 2271 2271 2286 2286 2286 2301 2301 2301 2301 2301 2301 2286 2286 2301 2301 2301 2301 2301 2301 2286 2286 2286 2286 2301 2286 2286 2301 2301 2301 2317 2317 2317 2317 2317 2317 2317 2317 2317 2317 2317 2317 2317 2317 2317 2317 2333 2333 2317 2317 2317 2333 2333 2333 2333 2333 2333 2317 2317 2317 2317 2317 2317 2317 2317 2317 2317 2317 2317 2317 2317 2317 2317 2317 1823 1823 1823 1823 1823 1823 1823 1823 1823 1823 1833 1833 1843 1853 1863 1894 1915 1926 1936 1936 1936 2333 2317 2317 2333 2333 2333 2349 2349 2349 2349 2349 2349 2349 2365 2365 2381 2040 2040 2053 2053 2065 2078 2078 2078 2090 2090 2090 2090 2103 2103 2116 2129 2333 2333 2349 2349 2349 2271 2256 2241 2241 2241 2241 2241 2241 2256 2256 2256 2256 2256 1696 1696 1696 1696 1696 1696 1696 1696 1696 1696 1696 1705 1705 1705 1713 1713 1722 1722 1722 1731 1731 2365 2365 2365 2365 2381 2381 2365 2365 2365 2365 2365 2365 2365 2365 2381 2381 2398 2398 2398 2398 1550 1550 1550 1550 1550 1550 1550 1550 1543 1543 1543 1543 1543 1543 1543 1543 1543 1543 1543 1543 1536 1536 1536 1536 1529 1529 1523 1523 1523 1523 1523 1516 1516 1516 1516 1509 1509 1509 1509 1503 1503 1503 1503 1503 1496 1496 1496 1496 1489 1489 1489 1489 1489 1489 1489 1489 1489 1489 1489 1489 1489 1496 1496 1496 1489 1489 1489 1489 1489 1489 1496 1496 1496 1496 1496 1496 1489 1489 1489 1496 1496 1496 1489 1489 1489 1489 1489 1489 1489 1489 1489 1489 1489 1496 1496 1496 1496 1503 1387 1387 1387 1387 1387 1387 1387 1387 1381 1381 1381 1387 1387 1387 1387 1387 1387 1387 1387 1496 1496 1496 1496 1503 1503 1503 1503 1503 1503 1503 1503 1503 1503 1509 1509 1509 1509 1516 1543 1586 1586 1586 1594 1594 1601 1601 1609 1616 1616 1624 1748 1748 1748 1748 1748 1748 1748 1739 1739 1739 1731 1731 1739 1739 1739 1748 2398 2398 2398 2398 2398 2398 2398 2398 2398 2398 2398 2398 2398 2415 2415 2415 2415 2415 2432 2415 2398 2398 2398 2398 2398 2415 2415 1794 1794 1794 1794 1794 1794 1794 1794 1794 1376 1376 1370 1370 1370 1370 1370 1370 1365 1365 1370 1370 1365 1365 1365 1365 1365 1365 1365 1359 1359 1354 1354 1354 1354 1354 1354 1354 1354 1354 1354 1349 1349 1349 1349 1354 1354 1354 1359 2016 2016 2016 2016 2016 2005 2005 2005 2005 2005 2398 2398 2398 2398 2398 2398 2398 2398 2398 2381 2381 2398 2398 2398 2398 2398 2398 2398 2415 2415 2415 2415 2398 2398 2398 2398 2398 2398 2398 2398 2415 2415 2415 2415 2432 2432 2432 2432 2432 2432 2415 2415 2415 2415 2415 2415 2415 2415 2415 2415 2415 2398 2398 2398 2398 2398 2398 2398 2398 2398 2398 2398 2398 2398 2415 2415 2398 2398 2398 2381 2381 2381 2381 2381 2381 2365 2365 2365 2365 2381 2381 2381 2381 2381 2398 2381 2381 2398 2398 2398 2398 2398 2398 2398 2381 2381 2381 0 0 0 0 0 0 0 0 0 0
0 0 0 0 0 0 0 0 0 0 0 0 0 0 0 0 0 0 0 0 0 0 0 0 0 0 0 0 0 0 0 0 0 2256 2256 2256 2256 2241 2241 2241 2256 2256 2256 2256 2256 2256 2256 2256 2256 2256 2271 2271 2271 2271 2271 2271 2271 2271 2271 2271 2271 2271 2271 2271 2256 2256 2256 2271 2271 2256 2256 2271 2256 2256 2256 2256 2256 2256 2256 2256 2256 2256 2256 2256 2256 2256 2271 2271 2271 2271 2271 2271 2271 2271 2271 2271 2271 2271 2271 2271 2271 2271 2271 2271 2271 2286 2286 2286 2286 2286 2286 2286 2286 2286 2286 2286 2286 2286 2286 2286 2286 2286 2286 2286 2286 2286 2286 2301 2301 2301 2301 2301 2301 2301 2301 2301 2301 2317 2317 2317 2317 2317 2317 2317 2317 2317 2317 2317 2317 2317 2317 2317 2317 2317 2317 2317 2317 2317 2317 2317 2317 2317 2317 2317 2317 2317 2317 2317 2317 2317 2317 2317 1843 1833 1833 1833 1823 1823 1823 1823 1823 1823 1833 1843 1853 1863 1863 1883 1915 1926 1947 1947 2317 2317 2317 2317 2317 2317 2333 2333 2333 2333 2349 2349 2349 2349 2349 2040 2040 2040 2040 2053 2053 2065 2065 2078 2078 2090 2090 2090 2090 2103 2103 2116 2333 2333 2333 2333 2333 2333 2301 2271 2256 2241 2241 2241 2241 2241 2256 2256 2256 2256 2256 1696 1696 1696 1696 1696 1696 1696 1696 1696 1696 1696 1705 1705 1705 1713 1713 1722 1722 1731 1731 1731 2349 2349 2365 2365 2365 2365 2365 2365 2365 2365 2365 2365 2365 2365 2365 2365 2381 2365 2365 2365 1550 1550 1550 1550 1550 1550 1550 1550 1550 1543 1543 1543 1543 1550 1543 1543 1543 1543 1543 1543 1543 1543 1543 1536 1536 1536 1529 1523 1523 1523 1523 1516 1516 1516 1516 1509 1509 1509 1509 1503 1503 1503 1503 1496 1496 1496 1489 1489 1489 1483 1483 1483 1489 1489 1489 1489 1489 1489 1489 1489 1489 1489 1489 1489 1489 1489 1489 1489 1489 1489 1489 1489 1489 1489 1489 1489 1489 1489 1489 1489 1489 1489 1489 1489 1489 1489 1489 1489 1489 1489 1489 1489 1489 1489 1489 1489 1489 1496 1392 1392 1392 1392 1387 1387 1387 1387 1387 1387 1387 1387 1387 1387 1387 1387 1387 1387 1489 1489 1489 1489 1489 1496 1496 1496 1496 1496 1496 1503 1503 1503 1503 1509 1509 1509 1509 1523 1579 1586 1586 1586 1594 1594 1594 1601 1609 1609 1616 1757 1748 1748 1748 1748 1748 1748 1748 1739 1739 1739 1739 1739 1739 1739 1748 1748 2398 2381 2381 2398 2398 2398 2398 2398 2398 2398 2398 2398 2398 2398 2415 2415 2415 2415 2415 2398 2398 2398 2398 2398 2398 2415 2415 1794 1794 1794 1794 1794 1794 1794 1794 1794 1376 1376 1376 1370 1370 1370 1370 1370 1370 1370 1370 1370 1365 1365 1365 1365 1365 1365 1365 1359 1359 1354 1354 1354 1354 1354 1354 1354 1354 1354 1354 1354 1354 1354 1354 1354 1354 1354 1359 2028 2016 2016 2016 2016 2016 2005 2005 2005 2381 2381 2381 2381 2381 2381 2381 2381 2381 2381 2381 2381 2381 2381 2381 2381 2381 2398 2398 2398 2398 2398 2398 2398 2398 2381 2381 2381 2381 2381 2381 2398 2398 2398 2398 2415 2415 2415 2415 2415 2415 2398 2398 2398 2398 2398 2398 2398 2398 2398 2415 2398 2381 2381 2381 2381 2381 2381 2381 2381 2381 2381 2381 2381 2381 2398 2381 2381 2381 2381 2381 2381 2365 2365 2365 2365 2365 2365 2365 2365 2381 2381 2381 2381 2381 2381 2381 2381 2381 2381 2381 2381 2381 2381 2381 2381 2365 2365 2365 0 0 0 0 0 0 0 0 0
0 0 0 0 0 0 0 0 0 0 0 0 0 0 0 0 0 0 0 0 0 0 0 0 0 0 0 0 0 0 0 0 0 2256 2241 2241 2241 2241 2241 2241 2241 2241 2241 2241 2241 2241 2241 2241 2241 2241 2256 2256 2256 2256 2256 2256 2271 2271 2271 2256 2256 2241 2241 2241 2241 2241 2256 2256 2271 2256 2256 2256 2256 2256 2256 2256 2256 2256 2256 2256 2256 2241 2241 2241 2256 2256 2256 2256 2256 2271 2271 2271 2271 2271 2271 2271 2271 2271 2256 2256 2256 2271 2271 2271 2271 2271 2271 2271 2271 2271 2271 2271 2286 2286 2271 2271 2286 2271 2271 2271 2271 2271 2271 2271 2271 2286 2286 2286 2286 2286 2286 2286 2301 2301 2301 2301 2301 2301 2301 2301 2301 2301 2317 2317 2317 2317 2317 2301 2301 2301 2301 2301 2301 2317 2317 2301 2301 2301 2317 2317 2317 2317 2317 2317 2301 2301 2301 2301 2301 2301 2301 2301 1843 1843 1833 1833 1823 1823 1823 1823 1823 1833 1833 1843 1853 1863 1863 1883 1915 1936 1947 1959 2317 2317 2317 2317 2317 2317 2317 2317 2317 2333 2333 2333 2349 2349 2349 2040 2040 2040 2040 2053 2053 2065 2065 2078 2078 2090 2090 2090 2090 2103 2317 2317 2317 2333 2333 2333 2333 2333 2301 2271 2256 2256 2241 2241 2241 2241 2256 2256 2256 2256 2256 1696 1696 1696 1696 1696 1696 1696 1696 1696 1696 1696 1705 1705 1713 1713 1722 1722 1722 1731 1731 1731 1739 2333 2349 2349 2349 2349 2349 2349 2349 2349 2349 2349 2349 2349 2349 2365 2365 2365 2365 2365 1550 1550 1550 1550 1550 1550 1550 1550 1550 1550 1550 1550 1550 1550 1550 1550 1550 1550 1543 1543 1543 1543 1543 1543 1536 1536 1536 1529 1523 1523 1523 1523 1516 1516 1516 1516 1516 1509 1509 1503 1503 1503 1503 1496 1496 1496 1489 1489 1483 1483 1483 1483 1483 1483 1483 1483 1483 1483 1483 1483 1483 1483 1483 1483 1483 1483 1483 1483 1483 1483 1483 1483 1477 1477 1483 1483 1483 1483 1483 1489 1489 1489 1489 1489 1489 1483 1483 1483 1483 1483 1483 1483 1483 1483 1483 1489 1489 1496 1392 1392 1392 1392 1392 1392 1392 1387 1387 1387 1387 1387 1387 1392 1392 1392 1392 1392 1483 1483 1483 1489 1489 1489 1489 1489 1489 1489 1496 1496 1496 1503 1503 1509 1509 1509 1516 1564 1579 1586 1586 1586 1594 1594 1594 1601 1609 1609 1616 1757 1748 1748 1748 1748 1748 1748 1748 1739 1739 1739 1739 1739 1739 1748 1748 1748 2381 2381 2381 2381 2381 2398 2381 2381 2381 2398 2398 2398 2398 2398 2398 2398 2398 2398 2398 2398 2398 2398 2398 2398 2398 2415 2415 1794 1794 1794 1794 1794 1794 1794 1794 1794 1376 1376 1376 1376 1376 1376 1376 1370 1370 1370 1370 1370 1370 1370 1365 1365 1365 1365 1365 1359 1359 1359 1359 1359 1359 1354 1354 1354 1354 1354 1354 1354 1354 1354 1354 1354 1354 1354 1354 2028 2028 2028 2016 2016 2016 2005 2005 2005 2381 2381 2381 2381 2381 2381 2381 2381 2381 2381 2381 2381 2381 2381 2381 2381 2381 2381 2381 2398 2398 2398 2398 2381 2381 2381 2381 2381 2381 2381 2381 2381 2381 2381 2381 2381 2398 2398 2398 2398 2398 2381 2381 2381 2398 2381 2381 2381 2381 2398 2398 2381 2365 2365 2365 2365 2365 2365 2365 2365 2365 2381 2381 2381 2365 2365 2365 2365 2365 2365 2365 2365 2365 2365 2365 2365 2349 2349 2349 2349 2349 2349 2365 2365 2365 2365 2365 2365 2365 2365 2365 2365 2365 2365 2365 2365 2365 2365 2365 0 0 0 0 0 0 0 0 0
0 0 0 0 0 0 0 0 0 0 0 0 0 0 0 0 0 0 0 0 0 0 0 0 0 0 0 0 0 0 0 0 0 2241 2241 2241 2241 2226 2226 2226 2226 2241 2226 2226 2226 2226 2226 2226 2226 2226 2241 2241 2241 2241 2241 2241 2256 2256 2256 2241 2241 2226 2226 2241 2241 2241 2256 2256 2256 2256 2256 2256 2256 2256 2256 2256 2256 2256 2241 2241 2241 2241 2241 2241 2256 2256 2256 2256 2256 2256 2271 2271 2271 2256 2256 2256 2256 2256 2256 2256 2256 2256 2256 2256 2256 2271 2271 2271 2271 2271 2271 2271 2271 2271 2271 2271 2271 2271 2271 2271 2271 2271 2271 2271 2271 2271 2271 2271 2286 2286 2286 2286 2286 2286 2286 2286 2286 2286 2301 2301 2301 2301 2301 2301 2301 2301 2301 2301 2301 2301 2301 2301 2301 2301 2317 2301 2301 2301 2301 2301 2301 2301 2301 2301 2301 2301 2301 2301 2301 2301 2301 2301 2301 1843 1843 1833 1833 1833 1833 1833 1833 1833 1843 1853 1853 1863 1873 1894 1926 1936 1947 1959 2317 2317 2317 2317 2317 2317 2317 2317 2317 2317 2333 2333 2333 2028 2028 2040 2040 2040 2053 2053 2065 2065 2065 2078 2078 2090 2090 2090 2090 2103 2317 2317 2317 2317 2317 2317 2317 2317 2301 2286 2271 2256 2256 2256 2256 2256 2256 2256 2256 2256 2256 1705 1705 1705 1696 1696 1696 1696 1696 1696 1696 1696 1705 1705 1713 1713 1722 1722 1731 1731 1731 1731 1731 2333 2333 2333 2333 2349 2333 2333 2333 2333 2333 2333 2349 2349 2349 2349 2365 2365 2365 2365 1550 1550 1550 1550 1550 1550 1550 1550 1550 1550 1550 1550 1550 1550 1550 1550 1550 1550 1543 1543 1543 1543 1543 1543 1536 1536 1536 1529 1529 1529 1523 1523 1523 1516 1516 1516 1516 1516 1516 1509 1503 1503 1503 1496 1496 1496 1489 1489 1483 1483 1483 1483 1483 1483 1483 1483 1483 1483 1483 1477 1477 1483 1483 1483 1483 1477 1477 1477 1477 1477 1477 1477 1470 1470 1483 1483 1483 1483 1483 1483 1483 1483 1483 1483 1483 1483 1483 1483 1483 1483 1483 1483 1483 1483 1483 1483 1489 1496 1392 1392 1392 1392 1392 1392 1392 1392 1392 1387 1387 1387 1387 1392 1392 1392 1398 1470 1477 1477 1483 1483 1483 1483 1483 1483 1489 1489 1489 1496 1496 1503 1503 1509 1516 1516 1550 1564 1579 1586 1586 1586 1594 1594 1594 1601 1601 1594 1594 1748 1748 1748 1748 1748 1748 1748 1748 1739 1739 1739 1739 1739 1739 1748 1748 2365 2381 2381 2381 2381 2381 2381 2381 2381 2381 2381 2381 2398 2398 2398 2398 2398 2398 2398 2398 2381 2381 2381 2381 2381 2398 2398 1804 1794 1794 1794 1794 1804 1804 1804 1804 1376 1376 1376 1376 1376 1376 1376 1376 1376 1376 1376 1376 1370 1370 1370 1370 1365 1365 1365 1365 1359 1359 1359 1359 1359 1359 1354 1354 1354 1354 1354 1354 1354 1354 1354 1354 1354 1354 1354 1354 2016 2016 2016 2016 2016 2016 2005 2005 2365 2365 2365 2365 2381 2381 2381 2381 2381 2381 2381 2365 2365 2365 2365 2365 2365 2365 2381 2381 2381 2381 2381 2381 2381 2381 2365 2365 2365 2365 2365 2365 2381 2381 2381 2381 2381 2381 2381 2381 2381 2381 2381 2381 2381 2381 2381 2381 2381 2381 2381 2381 2381 2365 2365 2365 2365 2365 2365 2365 2365 2365 2365 2365 2365 2365 2349 2349 2349 2349 2349 2349 2349 2349 2365 2349 2349 2349 2349 2349 2349 2349 2349 2365 2365 2365 2365 2365 2365 2365 2365 2365 2365 2365 2365 2349 2349 2349 2333 2333 0 0 0 0 0 0 0 0 0
0 0 0 0 0 0 0 0 0 0 0 0 0 0 0 0 0 0 0 0 0 0 0 0 0 0 0 0 0 0 0 0 0 2226 2226 2226 2226 2226 2226 2226 2226 2226 2226 2226 2226 2226 2226 2226 2212 2212 2226 2226 2226 2226 2226 2226 2241 2241 2241 2226 2226 2226 2226 2226 2226 2241 2241 2256 2256 2241 2241 2256 2256 2256 2256 2241 2241 2241 2241 2241 2241 2226 2226 2226 2241 2256 2256 2256 2256 2256 2256 2256 2256 2256 2256 2256 2256 2241 2241 2241 2256 2256 2256 2256 2256 2256 2256 2256 2256 2256 2256 2256 2271 2271 2256 2256 2256 2256 2256 2256 2256 2271 2271 2271 2271 2271 2271 2271 2271 2286 2286 2286 2286 2286 2286 2286 2286 2286 2286 2301 2286 2286 2301 2301 2301 2301 2286 2286 2286 2286 2286 2301 2301 2301 2301 2301 2301 2301 2301 2301 2301 2286 2286 2286 2286 2286 2286 2286 2301 2286 2286 2301 2301 1843 1843 1833 1833 1833 1833 1833 1833 1843 1843 1853 1853 1863 1873 1894 1926 1947 1959 1959 2301 2301 2301 2301 2301 2301 2301 2301 2301 2317 2317 2333 2333 2028 2028 2040 2040 2040 2053 2053 2065 2065 2065 2078 2078 2065 2065 2065 2090 2301 2301 2317 2317 2317 2317 2317 2317 2301 2286 2286 2271 2256 2256 2256 2256 2256 2256 2256 2256 2256 2256 1696 1696 1696 1705 1705 1705 1696 1696 1696 1696 1696 1705 1705 1713 1722 1722 1731 1731 1731 1731 1731 1731 2317 2333 2333 2333 2333 2333 2333 2333 2333 2333 2333 2333 2333 2349 2349 2349 2349 2349 2349 2349 1557 1557 1550 1550 1550 1550 1550 1550 1550 1550 1550 1550 1550 1550 1550 1550 1550 1543 1543 1543 1543 1543 1543 1536 1536 1536 1529 1529 1529 1523 1523 1523 1523 1523 1516 1516 1516 1516 1509 1509 1503 1503 1503 1496 1496 1489 1489 1483 1483 1483 1483 1483 1483 1483 1483 1483 1483 1477 1477 1477 1477 1477 1470 1470 1470 1470 1470 1470 1470 1470 1470 1470 1470 1477 1477 1470 1470 1470 1477 1477 1477 1477 1477 1483 1483 1483 1483 1477 1477 1477 1477 1477 1477 1477 1477 1483 1483 1392 1392 1392 1392 1392 1392 1392 1392 1392 1387 1387 1387 1387 1392 1392 1392 1398 1458 1470 1470 1470 1477 1477 1483 1483 1483 1483 1483 1489 1496 1496 1503 1503 1509 1523 1536 1564 1572 1579 1586 1586 1586 1594 1594 1594 1594 1594 1594 1594 1748 1748 1748 1748 1748 1748 1748 1748 1739 1739 1739 1739 1739 1748 1748 1748 2349 2365 2365 2365 2381 2381 2381 2381 2381 2381 2381 2381 2381 2381 2381 2381 2381 2381 2381 2381 2381 2381 2381 2381 2381 2381 2381 1804 1804 1794 1794 1804 1804 1804 1804 1804 1376 1376 1376 1376 1376 1376 1376 1376 1376 1376 1376 1376 1370 1370 1370 1370 1365 1365 1365 1365 1359 1359 1359 1359 1359 1359 1359 1359 1354 1354 1354 1354 1354 1354 1354 1354 1349 1349 1349 1354 2016 2016 2016 2016 2016 2016 2005 2005 2365 2365 2365 2365 2365 2365 2365 2365 2365 2381 2381 2365 2365 2365 2365 2365 2365 2365 2365 2365 2381 2381 2381 2365 2365 2365 2365 2365 2365 2365 2365 2365 2381 2381 2381 2381 2381 2381 2381 2381 2381 2381 2381 2381 2381 2381 2381 2381 2381 2381 2381 2381 2365 2349 2349 2349 2349 2349 2349 2349 2365 2365 2365 2365 2365 2349 2349 2349 2349 2349 2349 2349 2349 2349 2349 2349 2349 2349 2333 2333 2333 2333 2333 2349 2349 2349 2365 2349 2349 2349 2349 2365 2365 2365 2349 2349 2349 2349 2333 2333 0 0 0 0 0 0 0 0 0
0 0 0 0 0 0 0 0 0 0 0 0 0 0 0 0 0 0 0 0 0 0 0 0 0 0 0 0 0 0 0 0 0 2226 2226 2226 2226 2226 2226 2226 2226 2226 2226 2226 2226 2226 2212 2212 2212 2212 2212 2212 2212 2212 2226 2226 2226 2226 2226 2226 2226 2226 2226 2226 2226 2226 2241 2241 2241 2241 2241 2241 2241 2241 2241 2241 2241 2241 2226 2226 2226 2226 2226 2226 2241 2241 2256 2256 2256 2256 2256 2256 2256 2241 2241 2241 2241 2226 2226 2241 2241 2241 2256 2241 2241 2256 2256 2256 2256 2256 2256 2256 2256 2241 2241 2241 2241 2241 2256 2256 2256 2256 2271 2271 2271 2271 2271 2271 2271 2271 2271 2271 2271 2271 2271 2271 2271 2271 2286 2271 2271 2271 2286 2271 2271 2271 2271 2271 2271 2271 2271 2286 2286 2301 2301 2286 2286 2286 2301 2286 2286 2286 2286 2286 2286 2286 2286 2286 2286 2286 2286 2301 2301 1843 1843 1833 1833 1833 1833 1833 1843 1843 1843 1853 1853 1863 1863 1894 1936 1947 1959 1970 2301 2301 2301 2301 2301 2301 2301 2301 2301 2301 2317 2005 2005 2016 2028 2028 2040 2040 2040 2053 2053 2053 2065 2078 2078 2065 2065 2065 2301 2301 2301 2301 2301 2301 2301 2301 2301 2301 2286 2286 2271 2271 2256 2256 2256 2256 2256 2271 2256 2256 2256 1696 1696 1696 1705 1705 1705 1705 1696 1696 1696 1705 1705 1705 1713 1722 1722 1731 1731 1731 1731 1731 2301 2301 2317 2317 2317 2317 2317 2317 2317 2317 2317 2317 2317 2317 2333 2333 2333 2333 2333 2333 0 1557 1557 1550 1550 1550 1550 1550 1550 1550 1550 1550 1550 1550 1550 1550 1550 1550 1543 1543 1543 1550 1543 1543 1543 1543 1543 1536 1536 1536 1529 1529 1529 1523 1523 1523 1523 1516 1516 1516 1516 1509 1509 1503 1503 1496 1489 1489 1483 1483 1483 1483 1483 1483 1483 1483 1483 1483 1477 1477 1470 1470 1470 1464 1464 1464 1464 1464 1464 1464 1464 1464 1464 1464 1464 1464 1464 1464 1464 1464 1464 1464 1464 1470 1470 1477 1477 1477 1477 1477 1470 1470 1470 1470 1470 1470 1470 1470 1398 1398 1398 1398 1392 1392 1392 1392 1392 1392 1392 1392 1392 1392 1392 1398 1398 1458 1464 1464 1470 1470 1477 1477 1477 1477 1483 1483 1489 1496 1496 1503 1509 1516 1536 1550 1564 1572 1579 1579 1586 1586 1586 1586 1594 1594 1594 1594 1594 1739 1739 1748 1748 1748 1748 1748 1748 1739 1739 1748 1739 1739 1748 1748 1748 2349 2365 2365 2365 2365 2365 2365 2365 2365 2365 2365 2365 2365 2381 2381 2381 2381 2381 2381 2381 2381 2381 2381 2381 2365 2365 2365 1804 1804 1794 1794 1804 1804 1804 1804 1804 1381 1381 1381 1381 1381 1376 1376 1376 1376 1376 1376 1376 1376 1370 1370 1370 1370 1370 1365 1365 1359 1359 1359 1359 1359 1359 1359 1359 1359 1359 1354 1354 1354 1354 1354 1354 1349 1349 1349 1354 2028 2028 2028 2016 2016 2016 2016 2365 2365 2365 2365 2365 2349 2349 2365 2365 2365 2365 2365 2365 2365 2365 2365 2365 2365 2365 2365 2365 2365 2365 2365 2365 2365 2349 2349 2349 2349 2349 2365 2365 2365 2365 2365 2365 2365 2381 2381 2365 2365 2365 2365 2365 2365 2365 2365 2365 2365 2365 2365 2365 2365 2349 2349 2349 2349 2349 2349 2349 2349 2349 2349 2365 2349 2349 2349 2349 2333 2333 2333 2333 2349 2349 2349 2349 2333 2333 2333 2317 2317 2333 2333 2333 2333 2349 2349 2349 2349 2349 2349 2349 2349 2349 2349 2333 2333 2333 2317 2317 0 0 0 0 0 0 0 0 0
0 0 0 0 0 0 0 0 0 0 0 0 0 0 0 0 0 0 0 0 0 0 0 0 0 0 0 0 0 0 0 0 0 2212 2212 2212 2212 2212 2212 2226 2226 2226 2226 2226 2212 2212 2212 2212 2212 2212 2212 2212 2212 2212 2212 2212 2226 2226 2226 2226 2226 2226 2226 2226 2226 2226 2226 2226 2226 2226 2226 2226 2226 2226 2226 2226 2226 2226 2212 2212 2212 2212 2212 2212 2226 2241 2241 2241 2256 2256 2256 2241 2241 2241 2226 2226 2226 2226 2226 2241 2241 2241 2241 2241 2241 2241 2241 2241 2241 2241 2241 2241 2226 2226 2226 2226 2226 2241 2241 2256 2256 2256 2256 2256 2256 2271 2271 2271 2271 2271 2271 2271 2271 2271 2271 2271 2271 2271 2271 2271 2271 2271 2271 2271 2271 2271 2271 2271 2271 2271 2271 2271 2286 2286 2286 2286 2286 2286 2286 2286 2286 2271 2271 2271 2271 2271 2271 2271 2271 2286 2286 2286 2286 1843 1843 1833 1833 1833 1833 1843 1843 1843 1843 1853 1853 1863 1863 1894 1936 1947 1959 1970 2301 2301 2286 2286 2301 2301 2301 2301 2301 1993 1993 1993 1993 2005 2016 2028 2028 2028 2040 2040 2053 2053 2065 2078 2053 2053 2065 2301 2301 2301 2301 2301 2301 2301 2301 2301 2301 2286 2286 2271 2271 2256 2256 2256 2256 2256 2256 2271 2256 2256 2256 1705 1705 1705 1705 1705 1705 1705 1696 1696 1696 1705 1705 1705 1713 1722 1722 1731 1731 1731 1731 1731 2301 2301 2301 2317 2317 2317 2317 2317 2301 2301 2301 2301 2317 2317 2317 2317 2317 2333 2333 2333 0 1557 1557 1557 1550 1550 1550 1550 1550 1550 1550 1550 1550 1550 1550 1550 1550 1550 1543 1543 1543 1550 1543 1543 1543 1543 1543 1543 1536 1536 1536 1529 1529 1529 1523 1523 1523 1523 1523 1523 1516 1516 1516 1509 1509 1509 1496 1496 1489 1489 1489 1483 1483 1483 1483 1483 1483 1483 1477 1477 1470 1470 1470 1464 1464 1464 1464 1464 1464 1464 1464 1464 1464 1464 1464 1464 1464 1464 1464 1464 1464 1464 1464 1464 1464 1464 1464 1464 1464 1464 1464 1458 1458 1458 1458 1458 1452 1427 1404 1404 1398 1398 1392 1392 1392 1392 1392 1392 1392 1392 1392 1392 1392 1398 1398 1452 1458 1464 1464 1470 1470 1477 1477 1477 1477 1483 1489 1496 1496 1503 1509 1523 1550 1550 1564 1564 1579 1579 1579 1586 1586 1586 1594 2365 2381 2381 1739 1739 1739 1748 1748 1748 1748 1748 1748 1748 1748 1748 1748 1748 1748 1748 1748 2349 2349 2349 2365 2365 2365 2365 2365 2365 2365 2365 2365 2365 2365 2365 2365 2365 2365 2365 2365 2365 2365 2365 2365 2365 2365 2365 1794 1794 1794 1794 1804 1804 1804 1804 1804 1381 1381 1381 1381 1381 1381 1381 1376 1376 1381 1376 1376 1376 1370 1370 1370 1370 1370 1370 1370 1365 1359 1359 1359 1359 1359 1359 1359 1359 1359 1354 1354 1354 1354 1354 1349 1349 1343 1343 1349 2028 2028 2028 2028 2028 2016 2016 2365 2349 2349 2349 2349 2349 2349 2349 2349 2365 2365 2365 2365 2365 2349 2349 2349 2349 2365 2365 2365 2365 2365 2365 2349 2349 2349 2333 2333 2333 2349 2349 2349 2365 2365 2365 2365 2365 2365 2365 2365 2365 2365 2365 2365 2365 2365 2365 2365 2349 2349 2349 2349 2365 2349 2333 2333 2333 2333 2333 2333 2349 2349 2349 2349 2349 2349 2333 2333 2333 2333 2333 2333 2333 2333 2333 2333 2333 2317 2317 2317 2317 2317 2317 2333 2333 2333 2333 2333 2349 2333 2333 2349 2333 2333 2333 2317 2317 2317 2317 2317 0 0 0 0 0 0 0 0 0
0 0 0 0 0 0 0 0 0 0 0 0 0 0 0 0 0 0 0 0 0 0 0 0 0 0 0 0 0 0 0 0 0 2212 2212 2212 2212 2212 2212 2212 2212 2226 2212 2212 2212 2212 2212 2212 2212 2212 2212 2212 2212 2212 2212 2212 2226 2212 2212 2226 2226 2226 2226 2212 2212 2226 2226 2226 2226 2212 2212 2212 2212 2212 2212 2212 2212 2212 2212 2212 2212 2212 2212 2212 2226 2226 2241 2241 2241 2241 2241 2226 2226 2226 2226 2226 2226 2226 2226 2226 2226 2241 2241 2226 2226 2226 2226 2226 2226 2226 2226 2226 2226 2226 2226 2226 2226 2226 2241 2241 2241 2256 2256 2256 2256 2256 2256 2256 2256 2256 2256 2256 2256 2256 2256 2256 2256 2271 2271 2271 2271 2271 2271 2256 2256 2256 2256 2256 2256 2256 2271 2271 2271 2286 2286 2271 2271 2271 2271 2256 2256 2256 2256 2271 2256 2256 2256 2256 2271 2271 2271 2271 1833 1833 1843 1833 1833 1833 1843 1843 1843 1853 1853 1853 1863 1863 1863 1904 1936 1947 1959 1970 2286 2286 2286 2286 2286 2286 2286 2301 2301 1981 1981 1981 1993 2005 2016 2028 2028 2028 2040 2040 2040 2053 2065 2078 2053 2053 2301 2301 2301 2301 2301 2301 2301 2301 2301 2286 2286 2286 2271 2271 2256 2256 2256 2256 2256 2256 2256 2271 2256 2256 2256 1705 1705 1705 1705 1705 1705 1705 1696 1696 1696 1705 1705 1705 1713 1722 1731 1731 1731 1731 1731 1731 2286 2301 2301 2301 2301 2301 2301 2301 2301 2301 2301 2301 2301 2301 2301 2301 2317 2317 2317 2317 2301 1557 1557 1557 1550 1550 1557 1550 1550 1550 1550 1550 1550 1550 1550 1550 1550 1550 1550 1550 1550 1550 1543 1543 1543 1543 1543 1543 1536 1536 1536 1529 1529 1529 1523 1523 1523 1523 1523 1523 1516 1516 1516 1516 1509 1509 1503 1496 1496 1489 1489 1489 1489 1483 1483 1483 1483 1483 1477 1477 1470 1470 1470 1464 1464 1464 1464 1464 1464 1464 1464 1464 1464 1464 1464 1464 1464 1464 1458 1458 1458 1458 1458 1458 1464 1464 1464 1464 1458 1458 1458 1458 1458 1458 1458 1458 1445 1421 1415 1410 1404 1398 1398 1398 1398 1398 1392 1392 1392 1392 1392 1398 1398 1404 1415 1439 1452 1458 1458 1464 1464 1470 1470 1470 1470 1477 1483 1489 1496 1509 1523 1543 1557 1557 1564 1564 1572 1579 1579 1586 1586 1586 2349 2349 2365 2365 2365 1739 1739 1748 1748 1748 1748 1748 1748 1748 1748 1748 1748 1748 1748 1748 2333 2333 2333 2333 2349 2349 2349 2349 2349 2349 2349 2349 2349 2349 2349 2349 2349 2349 2365 2365 2365 2349 2349 2349 2365 2349 2349 2349 1794 1794 1794 1794 1804 1804 1804 1804 1804 1381 1381 1381 1381 1381 1381 1381 1381 1381 1381 1381 1381 1376 1376 1376 1376 1370 1370 1370 1370 1365 1365 1365 1359 1359 1359 1359 1359 1359 1359 1354 1354 1354 1354 1354 1349 1349 1343 1343 1349 2028 2028 2028 2028 2028 2028 2349 2349 2349 2349 2333 2333 2333 2349 2349 2349 2349 2349 2349 2349 2349 2349 2349 2349 2349 2349 2333 2333 2333 2333 2333 2333 2333 2333 2333 2333 2333 2333 2349 2349 2349 2365 2365 2365 2365 2365 2365 2365 2365 2365 2365 2365 2349 2349 2349 2349 2349 2349 2333 2333 2349 2333 2333 2317 2317 2317 2333 2333 2333 2333 2333 2349 2349 2333 2333 2317 2317 2317 2317 2317 2317 2317 2333 2317 2317 2317 2317 2317 2301 2301 2317 2317 2317 2317 2333 2333 2333 2333 2333 2333 2333 2333 2317 2317 2317 2317 2301 2301 0 0 0 0 0 0 0 0 0
0 0 0 0 0 0 0 0 0 0 0 0 0 0 0 0 0 0 0 0 0 0 0 0 0 0 0 0 0 0 0 0 0 2212 2212 2212 2212 2212 2212 2212 2212 2212 2212 2212 2212 2212 2212 2212 2198 2198 2198 2212 2198 2198 2198 2212 2212 2212 2212 2212 2212 2212 2212 2212 2212 2212 2212 2212 2212 2212 2212 2212 2212 2212 2212 2212 2212 2212 2212 2212 2212 2212 2212 2212 2226 2226 2226 2226 2226 2226 2226 2226 2226 2226 2212 2212 2226 2226 2226 2226 2226 2226 2226 2226 2226 2226 2226 2226 2226 2212 2212 2226 2212 2212 2212 2226 2226 2226 2241 2241 2241 2256 2256 2256 2256 2256 2256 2256 2256 2256 2256 2256 2256 2256 2256 2256 2256 2256 2256 2256 2256 2256 2256 2256 2256 2256 2256 2256 2256 2256 2256 2271 2271 2271 2271 2256 2256 2256 2256 2256 2256 2256 2256 2256 2256 2256 2256 2256 2256 2256 2256 2256 1833 1833 1833 1843 1843 1843 1843 1843 1853 1853 1853 1853 1863 1863 1863 1904 1936 1947 1959 1970 1970 2286 2271 2271 2271 2286 2286 2286 2301 1981 1981 1981 1993 2005 2016 2028 2028 2028 2040 2040 2040 2053 2065 2078 2271 2271 2286 2301 2286 2286 2301 2301 2301 2301 2286 2286 2286 2286 2271 2271 2256 2256 2256 2256 2256 2256 2256 2271 2271 2271 2271 1705 1705 1705 1705 1705 1705 1705 1705 1705 1705 1705 1705 1705 1722 1722 1731 1731 1731 1731 1731 1731 2286 2286 2301 2301 2301 2301 2301 2301 2301 2301 2301 2301 2301 2301 2301 2301 2301 2301 2301 2301 2301 1557 1557 1557 1557 1557 1557 1557 1550 1550 1550 1557 1557 1557 1557 1557 1557 1557 1550 1550 1550 1550 1543 1543 1543 1543 1543 1543 1543 1536 1536 1529 1529 1529 1523 1523 1523 1523 1523 1523 1516 1516 1516 1516 1516 1509 1503 1503 1503 1496 1496 1489 1489 1489 1483 1483 1483 1483 1477 1477 1470 1470 1470 1464 1464 1464 1464 1464 1464 1464 1464 1464 1464 1464 1464 1464 1464 1458 1458 1458 1458 1458 1458 1458 1458 1458 1458 1458 1458 1458 1452 1452 1452 1452 1458 1452 1439 1421 1421 1410 1410 1404 1404 1398 1398 1398 1398 1398 1398 1398 1398 1398 1404 1415 1433 1439 1445 1452 1458 1458 1464 1464 1464 1470 1470 1477 1483 1489 1496 1516 1536 1550 1557 1557 1564 1564 1572 1579 1579 1586 2317 2333 2333 2349 2349 2349 2349 1739 1739 1748 1748 1748 1748 1748 1748 1748 1748 1748 1748 1748 1748 1757 2333 2333 2333 2333 2333 2333 2333 2333 2333 2333 2333 2333 2333 2333 2349 2349 2333 2333 2349 2349 2349 2349 2349 2349 2349 2333 2333 1804 1794 1794 1804 1804 1804 1804 1804 1804 1804 1381 1381 1381 1381 1381 1381 1381 1381 1381 1381 1381 1381 1376 1376 1376 1376 1370 1370 1370 1370 1365 1365 1365 1359 1359 1359 1359 1359 1359 1359 1359 1354 1354 1354 1354 1354 1349 1343 1343 1349 2028 2028 2028 2028 2028 2028 2333 2349 2333 2333 2333 2333 2333 2333 2333 2333 2349 2349 2349 2349 2349 2333 2333 2333 2333 2333 2317 2317 2317 2317 2317 2317 2317 2317 2317 2317 2317 2317 2333 2333 2349 2349 2349 2349 2349 2365 2349 2349 2349 2349 2349 2349 2349 2333 2333 2333 2333 2333 2333 2333 2333 2333 2317 2317 2317 2317 2317 2317 2333 2333 2333 2333 2333 2333 2333 2317 2317 2317 2317 2317 2317 2317 2317 2317 2317 2301 2301 2301 2301 2301 2301 2301 2301 2317 2317 2317 2317 2317 2317 2317 2317 2301 2301 2301 2301 2301 2301 2301 0 0 0 0 0 0 0 0 0
0 0 0 0 0 0 0 0 0 0 0 0 0 0 0 0 0 0 0 0 0 0 0 0 0 0 0 0 0 0 0 0 0 2198 2198 2198 2198 2198 2198 2198 2212 2212 2198 2198 2198 2198 2212 2198 2198 2198 2198 2198 2198 2198 2198 2212 2212 2212 2212 2212 2212 2212 2212 2212 2212 2212 2212 2212 2212 2212 2212 2212 2212 2212 2212 2212 2212 2212 2198 2198 2198 2198 2198 2212 2212 2226 2226 2226 2226 2226 2212 2212 2212 2212 2212 2212 2212 2226 2226 2212 2212 2212 2212 2212 2212 2212 2212 2212 2212 2212 2212 2212 2212 2212 2212 2212 2212 2226 2226 2226 2241 2256 2256 2256 2256 2256 2256 2241 2241 2241 2241 2241 2241 2241 2241 2241 2241 2241 2256 2256 2256 2241 2241 2241 2241 2241 2241 2241 2256 2256 2256 2256 2271 2271 2271 2256 2256 2256 2256 2256 2256 2256 2256 2256 2256 2256 2256 2256 2256 2256 2256 2256 1833 1833 1833 1843 1843 1843 1843 1853 1853 1853 1853 1853 1863 1863 1873 1894 1936 1947 1959 1970 1970 2271 2271 2271 2271 2271 2271 2286 1981 1981 1981 1981 1993 1993 2005 2016 2028 2028 2040 2040 2040 2053 2256 2256 2271 2271 2271 2271 2286 2286 2286 2286 2286 2286 2286 2286 2286 2271 2271 2271 2256 2256 2256 2256 2256 2256 2271 2271 2271 2271 2271 1705 1705 1705 1705 1705 1705 1705 1705 1705 1705 1705 1705 1705 1722 1722 1731 1731 1731 1731 1731 1731 2286 2286 2286 2286 2286 2301 2301 2286 2286 2286 2286 2286 2286 2286 2286 2286 2286 2301 2286 2286 2286 1579 1557 1557 1557 1557 1557 1557 1550 1550 1550 1557 1557 1557 1557 1557 1557 1557 1557 1550 1550 1550 1543 1543 1543 1543 1543 1543 1543 1536 1536 1536 1536 1529 1529 1523 1523 1523 1523 1523 1516 1516 1516 1516 1516 1509 1503 1503 1503 1496 1496 1496 1489 1489 1489 1483 1483 1483 1483 1477 1477 1470 1470 1470 1470 1470 1464 1464 1464 1464 1464 1464 1464 1464 1464 1464 1464 1458 1458 1458 1458 1458 1452 1452 1452 1452 1452 1452 1452 1452 1452 1452 1452 1452 1452 1445 1439 1427 1421 1415 1410 1404 1404 1404 1398 1398 1398 1398 1398 1398 1398 1404 1410 1415 1433 1439 1439 1445 1452 1458 1458 1464 1464 1464 1470 1470 1489 1529 1543 1550 1557 1557 1557 1557 1564 1564 1572 1579 1579 1594 2317 2333 2333 2349 2349 2349 2349 1739 1739 1748 1748 1748 1748 1748 1748 1748 1748 1748 1757 1748 1748 1757 2317 2317 2317 2317 2333 2333 2333 2333 2333 2333 2333 2333 2333 2333 2333 2333 2333 2333 2333 2333 2349 2333 2333 2333 2333 2333 2333 1804 1804 1804 1804 1804 1804 1804 1804 1804 1804 1381 1381 1381 1381 1381 1381 1381 1381 1381 1381 1381 1381 1381 1376 1376 1376 1376 1370 1370 1370 1365 1365 1365 1365 1365 1365 1359 1359 1359 1359 1359 1359 1354 1354 1354 1354 1349 1343 1343 1354 2028 2028 2028 2028 2028 2028 2333 2333 2333 2333 2317 2317 2317 2317 2317 2333 2333 2333 2333 2349 2349 2333 2333 2333 2333 2317 2317 2317 2317 2317 2317 2317 2317 2317 2317 2317 2317 2317 2317 2333 2333 2333 2333 2333 2333 2349 2349 2349 2333 2333 2349 2349 2333 2333 2333 2333 2333 2333 2317 2317 2317 2317 2301 2301 2301 2301 2301 2301 2317 2317 2317 2317 2317 2317 2317 2317 2317 2317 2301 2301 2301 2301 2301 2301 2301 2301 2301 2301 2301 2301 2301 2301 2301 2301 2301 2317 2317 2317 2317 2317 2301 2301 2301 2301 2301 2301 2301 2301 0 0 0 0 0 0 0 0 0
0 0 0 0 0 0 0 0 0 0 0 0 0 0 0 0 0 0 0 0 0 0 0 0 0 0 0 0 0 0 0 0 0 2184 2184 2184 2184 2198 2198 2198 2198 2198 2198 2198 2198 2198 2198 2198 2198 2198 2198 2198 2198 2198 2198 2212 2212 2212 2212 2212 2212 2212 2212 2198 2198 2212 2212 2198 2198 2198 2198 2198 2198 2198 2198 2198 2198 2198 2198 2198 2198 2198 2198 2198 2212 2212 2212 2212 2212 2212 2212 2212 2212 2212 2212 2212 2212 2212 2212 2212 2212 2212 2212 2212 2212 2212 2212 2198 2198 2198 2212 2212 2212 2212 2212 2212 2212 2212 2212 2212 2226 2241 2241 2241 2241 2256 2241 2241 2226 2226 2226 2226 2226 2226 2226 2226 2226 2241 2241 2241 2241 2241 2241 2241 2241 2241 2241 2241 2241 2241 2256 2256 2256 2256 2256 2256 2256 2256 2241 2241 2241 2241 2241 2241 2241 2241 2241 2241 2241 2256 2256 2256 1833 1833 1833 1843 1843 1843 1843 1853 1853 1853 1853 1853 1863 1863 1863 1873 1936 1947 1959 1970 1970 2271 2256 2256 2256 2256 2271 2271 1981 1981 1981 1981 1993 1993 2005 2016 2016 2028 2040 2040 2040 2053 2256 2256 2271 2271 2271 2271 2286 2286 2286 2286 2286 2286 2271 2271 2271 2271 2271 2256 2256 2256 2256 2256 2256 2256 2271 2271 2271 2271 2271 1705 1705 1705 1705 1705 1705 1705 1705 1705 1705 1705 1705 1705 1722 1722 1731 1731 1731 1731 1731 1731 2286 2286 2286 2286 2286 2286 2286 2286 2286 2286 2286 2286 2286 2286 2286 2286 2286 2301 2286 2286 2286 1579 1579 1557 1557 1557 1557 1557 1557 1557 1557 1557 1557 1557 1557 1557 1564 1564 1564 1557 1550 1550 1543 1543 1543 1543 1543 1543 1543 1536 1536 1536 1536 1529 1529 1529 1523 1523 1523 1523 1523 1523 1516 1516 1516 1516 1503 1503 1503 1496 1496 1496 1489 1489 1489 1489 1483 1483 1483 1483 1477 1477 1470 1470 1470 1470 1470 1464 1464 1464 1464 1464 1464 1464 1464 1458 1458 1458 1458 1458 1452 1452 1452 1445 1445 1445 1445 1445 1445 1445 1445 1445 1445 1445 1445 1445 1439 1427 1421 1415 1410 1410 1404 1404 1404 1398 1398 1398 1398 1398 1404 1410 1415 1415 1433 1439 1439 1445 1452 1452 1458 1464 1464 1464 1470 1470 1536 1536 1550 1550 1550 1557 1557 1557 1557 1564 1572 1579 2317 2317 2317 2333 2333 2333 2333 2333 2333 1748 1748 1748 1757 1757 1748 1748 1748 1748 1748 1748 1748 1748 1748 1748 1748 2317 2317 2317 2317 2317 2317 2317 2317 2317 2317 2317 2317 2333 2333 2333 2333 2333 2333 2333 2333 2333 2333 2333 2333 2333 2333 1804 1804 1804 1804 1804 1804 1804 1804 1804 1387 1387 1381 1381 1381 1381 1381 1381 1381 1381 1381 1381 1381 1381 1376 1376 1376 1376 1370 1370 1370 1365 1365 1365 1365 1365 1365 1365 1359 1359 1359 1359 1359 1354 1354 1354 1354 1349 1349 1349 1354 2028 2028 2028 2028 2028 2028 2333 2333 2317 2317 2317 2317 2317 2317 2317 2317 2317 2333 2333 2333 2333 2333 2333 2317 2317 2317 2317 2317 2301 2301 2301 2301 2317 2317 2317 2317 2317 2317 2317 2317 2317 2333 2317 2317 2317 2333 2333 2333 2317 2317 2333 2333 2317 2317 2317 2317 2317 2317 2317 2317 2317 2301 2301 2301 2301 2301 2301 2301 2301 2301 2301 2301 2301 2317 2301 2301 2301 2301 2301 2301 2301 2301 2301 2301 2301 2301 2301 2301 2301 2301 2301 2301 2301 2301 2301 2301 2301 2301 2301 2301 2301 2301 2301 2301 2301 2301 2301 2301 0 0 0 0 0 0 0 0 0
0 0 0 0 0 0 0 0 0 0 0 0 0 0 0 0 0 0 0 0 0 0 0 0 0 0 0 0 0 0 0 0 0 2170 2170 2170 2170 2170 2170 2170 2170 2170 2170 2170 2184 2184 2184 2184 2184 2184 2184 2184 2184 2184 2184 2198 2198 2198 2198 2198 2198 2198 2184 2184 2198 2198 2198 2198 2198 2198 2184 2184 2198 2198 2198 2198 2198 2184 2184 2184 2184 2184 2184 2198 2198 2198 2198 2198 2198 2198 2198 2198 2198 2198 2198 2198 2212 2212 2212 2212 2198 2198 2198 2198 2198 2198 2198 2198 2198 2198 2198 2198 2212 2212 2212 2212 2212 2212 2212 2212 2226 2226 2241 2241 2241 2241 2241 2226 2226 2212 2212 2212 2212 2212 2226 2226 2226 2226 2226 2226 2226 2226 2226 2226 2226 2226 2241 2241 2241 2241 2256 2256 2256 2256 2256 2256 2241 2241 2241 2241 2241 2241 2241 2241 2241 2241 2241 2241 2241 2241 2241 2241 1833 1833 1833 1843 1843 1843 1853 1853 1853 1853 1853 1863 1863 1863 1863 1873 1926 1959 1970 1981 1981 2256 2241 2241 2256 2256 1981 1981 1981 1981 1981 1993 1993 1993 2005 2016 2016 2028 2028 2040 2053 2241 2256 2256 2271 2271 2271 2271 2271 2271 2271 2271 2271 2271 2271 2271 2271 2256 2256 2256 2256 2256 2256 2256 2256 2256 2256 2256 2256 2256 2256 1705 1705 1705 1705 1705 1705 1705 1705 1705 1705 1705 1705 1713 1722 1722 1731 1731 1731 1731 1731 2241 2271 2271 2271 2286 2286 2286 2286 2286 2286 2286 2286 2286 2286 2286 2286 2286 2286 2286 2286 2286 2286 1579 1579 1564 1557 1557 1557 1557 1557 1557 1557 1557 1557 1557 1564 1564 1564 1564 1564 1557 1550 1550 1543 1543 1543 1543 1543 1543 1543 1536 1536 1536 1536 1529 1529 1523 1523 1523 1523 1523 1523 1523 1523 1516 1516 1516 1503 1503 1503 1503 1496 1496 1496 1489 1489 1489 1489 1489 1483 1483 1483 1477 1477 1477 1477 1477 1470 1470 1464 1464 1464 1464 1464 1464 1464 1458 1458 1458 1458 1458 1452 1452 1445 1445 1445 1445 1445 1445 1445 1445 1445 1439 1439 1439 1445 1439 1433 1421 1421 1415 1410 1410 1404 1404 1404 1404 1398 1398 1398 1404 1404 1410 1415 1421 1433 1439 1439 1445 1452 1452 1458 1464 1464 1464 1470 1477 1536 1543 1550 1550 1550 1557 1550 1550 1557 1564 1572 2317 2317 2317 2317 2317 2317 2333 2333 2333 2333 1748 1748 1748 1757 1757 1757 1757 1748 1748 1748 1748 1748 1748 1748 1748 1748 2317 2317 2317 2317 2317 2317 2317 2317 2317 2317 2317 2317 2317 2333 2333 2333 2333 2333 2333 2333 2333 2317 2317 2333 2317 2317 1804 1804 1804 1804 1804 1813 1813 1813 1813 1387 1387 1381 1381 1381 1381 1381 1381 1381 1381 1381 1381 1381 1381 1381 1381 1376 1376 1370 1370 1370 1365 1365 1365 1365 1365 1365 1365 1365 1359 1359 1359 1359 1354 1354 1354 1354 1349 1338 1338 2028 2028 2028 2028 2028 2028 2333 2317 2317 2317 2317 2317 2317 2317 2317 2317 2317 2317 2317 2317 2317 2333 2333 2317 2317 2317 2317 2301 2301 2301 2301 2301 2301 2301 2301 2317 2317 2317 2317 2317 2317 2317 2317 2317 2317 2317 2317 2317 2317 2317 2317 2317 2317 2317 2317 2317 2317 2317 2317 2301 2301 2301 2286 2286 2286 2286 2286 2301 2301 2301 2301 2301 2301 2301 2301 2301 2301 2301 2301 2301 2286 2286 2301 2301 2301 2301 2301 2301 2301 2286 2286 2286 2286 2286 2286 2301 2301 2301 2301 2301 2286 2286 2286 2286 2286 2286 2286 2286 2286 0 0 0 0 0 0 0 0 0
0 0 0 0 0 0 0 0 0 0 0 0 0 0 0 0 0 0 0 0 0 0 0 0 0 0 0 0 0 0 0 0 0 2156 2156 2156 2156 2156 2170 2170 2170 2170 2170 2170 2170 2170 2170 2170 2170 2170 2170 2170 2170 2184 2184 2184 2184 2184 2184 2184 2184 2184 2184 2184 2184 2184 2184 2184 2184 2184 2170 2170 2184 2184 2184 2170 2170 2170 2170 2156 2156 2170 2170 2170 2170 2170 2170 2184 2184 2184 2184 2198 2198 2198 2198 2198 2198 2212 2212 2198 2198 2198 2198 2198 2198 2198 2198 2184 2184 2198 2198 2198 2198 2212 2212 2212 2212 2198 2198 2198 2212 2212 2212 2212 2226 2226 2226 2212 2212 2212 2212 2212 2212 2212 2212 2212 2212 2212 2226 2226 2226 2226 2226 2226 2226 2226 2226 2226 2241 2241 2241 2256 2241 2241 2256 2241 2241 2241 2241 2226 2226 2226 2226 2226 2226 2226 2226 2226 2241 2241 2241 2241 1833 1833 1833 1843 1843 1843 1853 1853 1853 1853 1853 1863 1863 1863 1863 1873 1873 1970 1970 1981 1981 1981 2241 2241 2256 1981 1981 1981 1981 1981 1981 1993 1993 1993 2005 2005 2005 2016 2028 2040 2241 2241 2256 2256 2256 2256 2256 2256 2256 2256 2256 2256 2256 2256 2256 2256 2256 2256 2256 2256 2256 2256 2256 2256 2256 2256 2256 2256 2256 2241 2241 2241 1705 1705 1705 1705 1705 1705 1705 1705 1705 1705 1713 1713 1722 1722 1731 1731 1731 1731 1731 2241 2256 2256 2271 2271 2271 2271 2286 2286 2286 2286 2286 2271 2271 2286 2286 2286 2286 2286 2286 2286 1572 1572 1572 1572 1564 1564 1564 1564 1557 1557 1557 1557 1557 1557 1564 1564 1572 1572 1572 1564 1557 1550 1550 1543 1543 1543 1543 1543 1543 1543 1543 1536 1536 1529 1529 1523 1523 1523 1523 1523 1523 1523 1523 1516 1516 1516 1509 1503 1503 1503 1496 1496 1496 1496 1489 1489 1489 1489 1489 1489 1483 1483 1483 1483 1483 1483 1477 1477 1470 1470 1470 1470 1470 1464 1464 1464 1464 1458 1458 1458 1452 1452 1445 1445 1445 1445 1445 1445 1445 1445 1445 1439 1439 1439 1439 1439 1433 1421 1421 1415 1410 1410 1404 1404 1404 1404 1404 1404 1404 1404 1410 1410 1415 1421 1433 1439 1439 1445 1452 1452 1458 1464 1464 1464 1470 1483 1536 1543 1543 1550 1550 1557 1550 1550 1557 2317 2317 2317 2317 2317 2317 2317 2317 2317 2317 2317 2317 1757 1757 1757 1757 1757 1757 1757 1757 1757 1748 1748 1748 1748 1748 1748 1748 2301 2301 2301 2317 2317 2317 2317 2317 2317 2317 2317 2317 2317 2317 2333 2317 2317 2317 2317 2317 2317 2317 2317 2317 2317 2317 1813 1813 1813 1813 1813 1813 1813 1813 1813 1813 1387 1381 1381 1381 1381 1381 1381 1381 1381 1381 1381 1381 1381 1381 1381 1381 1376 1376 1370 1370 1365 1365 1365 1365 1365 1365 1365 1365 1359 1359 1359 1359 1359 1354 1354 1354 1349 1338 1338 2028 2028 2028 2028 2028 2028 2317 2301 2301 2317 2317 2301 2301 2301 2301 2301 2317 2317 2317 2317 2317 2317 2317 2317 2301 2301 2301 2301 2301 2301 2301 2301 2301 2301 2301 2301 2301 2317 2317 2317 2317 2317 2317 2301 2301 2317 2317 2317 2301 2301 2317 2317 2317 2317 2317 2317 2301 2301 2301 2301 2301 2301 2286 2286 2286 2286 2286 2286 2286 2286 2286 2286 2286 2286 2286 2286 2301 2286 2286 2286 2286 2286 2286 2286 2286 2286 2286 2286 2286 2286 2286 2286 2286 2286 2286 2286 2286 2286 2286 2286 2286 2286 2286 2286 2286 2286 2286 2286 2286 0 0 0 0 0 0 0 0 0
0 0 0 0 0 0 0 0 0 0 0 0 0 0 0 0 0 0 0 0 0 0 0 0 0 0 0 0 0 0 0 0 0 2156 2156 2156 2156 2156 2156 2156 2170 2170 2170 2170 2170 2156 2156 2156 2156 2156 2156 2156 2170 2170 2170 2170 2170 2170 2170 2170 2170 2170 2170 2184 2184 2184 2184 2184 2184 2184 2170 2170 2170 2170 2170 2170 2170 2170 2156 2156 2156 2156 2156 2156 2156 2170 2170 2170 2170 2184 2184 2184 2184 2184 2184 2184 2184 2184 2198 2198 2184 2184 2184 2184 2184 2184 2184 2170 2170 2184 2184 2184 2184 2184 2184 2184 2198 2198 2198 2198 2198 2198 2198 2198 2212 2212 2212 2212 2212 2212 2212 2212 2212 2212 2212 2212 2212 2212 2212 2212 2212 2212 2212 2226 2212 2212 2226 2226 2226 2226 2241 2241 2241 2241 2241 2226 2226 2226 2226 2226 2226 2226 2226 2226 2226 2226 2226 2226 2226 2226 2226 2241 1833 1833 1833 1843 1843 1843 1853 1853 1853 1853 1853 1863 1863 1863 1863 1873 1873 1970 1981 1981 1981 1981 1970 1970 1970 1970 1981 1981 1981 1981 1981 1981 1981 1993 2005 2005 2005 2016 2028 2226 2241 2241 2241 2256 2256 2256 2256 2256 2256 2256 2256 2256 2256 2256 2256 2256 2256 2256 2256 2256 2256 2256 2256 2256 2256 2256 2256 2256 2256 2241 2241 2241 1705 1705 1705 1705 1705 1705 1705 1705 1705 1713 1713 1722 1731 1731 1731 1731 1731 1731 1731 2241 2256 2256 2256 2271 2271 2271 2271 2271 2271 2271 2271 2271 2271 2271 2271 2286 2286 2286 2286 2286 1572 1572 1572 1572 1572 1564 1564 1564 1564 1564 1564 1564 1564 1564 1564 1572 1572 1572 1572 1579 1572 1564 1564 2016 2028 1543 1543 1543 1543 1543 1543 1536 1536 1536 1529 1523 1523 1529 1523 1523 1523 1523 1523 1516 1516 1516 1509 1509 1503 1503 1503 1503 1503 1496 1496 1496 1489 1489 1489 1489 1483 1483 1483 1483 1483 1483 1483 1483 1477 1477 1470 1470 1470 1464 1464 1464 1464 1458 1458 1458 1452 1452 1452 1445 1445 1445 1445 1445 1445 1439 1439 1439 1439 1439 1439 1439 1427 1421 1421 1415 1410 1410 1410 1410 1410 1410 1404 1404 1404 1404 1410 1410 1415 1421 1433 1439 1439 1445 1452 1452 1458 1458 1464 1470 1529 1529 1536 1543 1543 1543 1550 1550 1550 1550 1557 2301 2301 2301 2317 2317 2301 2301 2301 2301 2286 2286 2286 1757 1757 1757 1757 1757 1757 1757 1757 1757 1757 1757 1757 1748 1748 1748 1748 2301 2301 2301 2301 2301 2301 2301 2301 2301 2301 2301 2301 2317 2317 2317 2317 2317 2317 2317 2317 2317 2301 2301 2301 2301 2301 1813 1813 1813 1813 1813 1823 1823 1823 1823 1823 1381 1381 1381 1381 1381 1387 1387 1381 1381 1381 1381 1381 1381 1381 1381 1381 1381 1376 1376 1376 1365 1365 1365 1365 1365 1365 1365 1365 1365 1359 1359 1359 1359 1354 1354 1349 1349 1338 1338 2028 2028 2028 2028 2028 2028 2286 2286 2286 2286 2301 2301 2301 2301 2301 2301 2301 2301 2301 2301 2301 2301 2301 2301 2301 2301 2301 2301 2301 2301 2286 2286 2301 2301 2301 2301 2301 2301 2301 2301 2301 2301 2301 2301 2301 2301 2301 2301 2301 2301 2301 2317 2301 2301 2301 2301 2301 2286 2286 2286 2286 2286 2271 2271 2271 2286 2286 2286 2286 2286 2286 2286 2286 2286 2286 2286 2286 2286 2271 2271 2271 2286 2286 2286 2286 2286 2286 2286 2286 2286 2271 2271 2271 2271 2286 2271 2271 2286 2286 2286 2271 2271 2271 2271 2271 2271 2271 2271 2271 0 0 0 0 0 0 0 0 0
0 0 0 0 0 0 0 0 0 0 0 0 0 0 0 0 0 0 0 0 0 0 0 0 0 0 0 0 0 0 0 0 0 2156 2156 2156 2156 2156 2156 2156 2156 2156 2156 2156 2156 2143 2143 2156 2156 2156 2156 2156 2156 2170 2170 2170 2170 2170 2170 2170 2170 2170 2170 2170 2170 2170 2170 2170 2170 2156 2156 2156 2156 2156 2170 2170 2156 2156 2156 2156 2156 2156 2156 2156 2156 2170 2170 2170 2170 2170 2170 2170 2170 2170 2170 2170 2170 2170 2170 2170 2170 2170 2170 2170 2170 2170 2170 2170 2170 2170 2170 2170 2170 2170 2170 2170 2184 2184 2184 2184 2184 2184 2198 2198 2198 2198 2198 2198 2198 2198 2198 2198 2198 2198 2198 2198 2198 2198 2198 2198 2198 2198 2198 2198 2198 2198 2198 2212 2212 2212 2212 2212 2212 2212 2212 2212 2198 2198 2198 2198 2198 2198 2212 2212 2212 2212 2212 2212 2226 2212 2212 2226 2226 1843 1843 1843 1843 1853 1853 1853 1853 1853 1863 1863 1863 1863 1873 1873 1873 1970 1970 1970 1970 1970 1959 1959 1959 1959 1970 1981 1981 1981 1981 1981 1981 1993 1993 2005 2005 2016 2226 2226 2241 2241 2241 2256 2256 2256 2256 2256 2256 2256 2256 2256 2256 2256 2256 2256 2256 2256 2256 2256 2256 2256 2256 2256 2256 2256 2256 2256 2256 2241 2241 2241 1705 1705 1705 1705 1705 1705 1705 1705 1705 1713 1713 1722 1731 1731 1731 1739 1739 1739 1739 2241 2256 2256 2256 2256 2256 2256 2256 2256 2256 2256 2256 2256 2256 2271 2271 2271 2271 2271 2271 2271 2271 1572 1572 1564 1564 1564 1564 1564 1564 1564 1564 1564 1564 1564 1572 1572 1572 1579 1579 1579 1579 1579 2016 2016 2028 2028 1543 1543 1543 1543 1543 1536 1536 1536 1536 1529 1529 1529 1529 1529 1523 1523 1523 1523 1516 1516 1509 1509 1509 1509 1503 1503 1503 1503 1496 1496 1496 1489 1489 1489 1483 1483 1483 1483 1483 1483 1483 1483 1477 1477 1477 1477 1470 1470 1464 1464 1464 1458 1458 1458 1452 1452 1452 1452 1445 1445 1445 1445 1445 1439 1439 1439 1439 1439 1439 1433 1427 1421 1421 1415 1410 1410 1410 1410 1410 1410 1404 1404 1404 1404 1410 1410 1415 1421 1433 1439 1439 1445 1452 1452 1458 1458 1464 1470 1523 1529 1536 1536 1543 1543 1550 1550 1550 1550 2301 2301 2301 2301 2301 2301 2301 2301 2301 2286 2286 2271 2271 1757 1757 1757 1757 1757 1757 1757 1757 1757 1757 1757 1757 1757 1757 1748 1748 2301 2301 2301 2301 2301 2286 2286 2301 2301 2301 2301 2301 2301 2317 2317 2317 2317 2317 2317 2301 2301 2301 2301 2286 2286 2301 1823 1813 1813 1823 1823 1823 1823 1833 1833 1387 1381 1381 1387 1387 1387 1387 1387 1387 1387 1387 1387 1381 1381 1381 1381 1381 1381 1381 1376 1376 1370 1370 1370 1370 1370 1370 1370 1370 1365 1365 1365 1359 1359 1359 1354 1349 1349 1349 2028 2028 2028 2028 2028 2028 2028 2286 2271 2271 2286 2286 2286 2286 2286 2286 2286 2286 2286 2286 2286 2286 2286 2286 2286 2286 2286 2301 2301 2286 2286 2286 2286 2286 2301 2301 2301 2301 2301 2301 2301 2301 2301 2301 2286 2286 2301 2301 2301 2286 2286 2301 2301 2301 2286 2286 2301 2286 2286 2286 2286 2286 2286 2271 2271 2271 2271 2271 2286 2271 2271 2271 2271 2271 2271 2271 2271 2286 2286 2271 2271 2271 2271 2271 2271 2271 2271 2271 2271 2271 2271 2271 2271 2271 2271 2271 2271 2271 2271 2271 2256 2256 2256 2256 2256 2271 2271 2271 2271 2271 0 0 0 0 0 0 0 0 0
0 0 0 0 0 0 0 0 0 0 0 0 0 0 0 0 0 0 0 0 0 0 0 0 0 0 0 0 0 0 0 0 0 2143 2143 2143 2143 2143 2143 2143 2156 2156 2156 2156 2156 2143 2143 2156 2143 2143 2156 2156 2156 2156 2156 2156 2156 2156 2156 2156 2156 2156 2156 2156 2156 2170 2170 2170 2170 2156 2156 2156 2156 2156 2156 2170 2156 2156 2156 2156 2156 2156 2156 2156 2156 2156 2156 2170 2170 2170 2156 2156 2156 2156 2156 2156 2156 2170 2170 2170 2170 2156 2156 2156 2170 2156 2156 2156 2170 2170 2156 2156 2170 2156 2156 2170 2170 2170 2170 2184 2184 2184 2184 2184 2184 2198 2198 2198 2198 2198 2198 2198 2198 2198 2198 2198 2198 2198 2198 2198 2198 2198 2198 2198 2198 2198 2198 2198 2198 2198 2212 2212 2212 2212 2212 2212 2198 2198 2198 2198 2198 2198 2198 2198 2198 2198 2198 2198 2198 2198 2198 2212 1843 1833 1833 1843 1843 1853 1853 1853 1853 1853 1863 1863 1863 1863 1873 1883 1926 1959 1959 1959 1970 1959 1959 1959 1959 1959 1959 1970 1981 1981 1981 1981 1981 1993 1993 1993 2226 2226 2226 2226 2226 2226 2241 2241 2256 2256 2256 2241 2241 2241 2241 2241 2241 2241 2241 2241 2241 2241 2241 2256 2256 2256 2241 2241 2241 2241 2256 2241 2241 2241 2241 2241 1705 1705 1705 1705 1705 1705 1705 1705 1705 1713 1713 1722 1731 1731 1739 1739 1739 1739 1739 2241 2241 2241 2241 2256 2256 2256 2256 2256 2241 2241 2256 2256 2256 2256 2256 2256 2271 2271 2256 2256 2256 1572 1572 1564 1564 1564 1572 1564 1564 1564 1564 1564 1564 1572 1572 1572 1572 1579 1579 1586 1594 2016 2016 2016 2028 2028 2040 1543 1543 1543 1536 1536 1536 1536 1529 1523 1523 1529 1529 1529 1523 1523 1523 1523 1523 1523 1509 1509 1509 1509 1509 1509 1509 1503 1503 1496 1496 1496 1489 1489 1489 1489 1483 1483 1489 1489 1483 1483 1483 1483 1477 1477 1477 1470 1470 1464 1464 1464 1458 1458 1458 1458 1458 1452 1452 1452 1445 1445 1445 1439 1439 1439 1439 1439 1433 1433 1427 1421 1421 1421 1415 1410 1410 1410 1410 1410 1410 1410 1410 1410 1410 1415 1415 1421 1433 1439 1445 1445 1452 1458 1458 1464 1470 1516 1516 1523 1529 1536 1536 1543 1543 1557 1557 2286 2286 2286 2286 2286 2286 2286 2286 2286 2286 2286 2286 2271 2271 1766 1766 1766 1766 1766 1766 1766 1757 1757 1757 1757 1757 1757 1757 1748 1748 2286 2286 2286 2301 2286 2286 2286 2286 2286 2286 2286 2286 2286 2301 2301 2301 2301 2301 2301 2301 2301 2286 2286 2286 2286 2286 1823 1813 1813 1823 1823 1823 1823 1833 1833 1387 1387 1387 1387 1387 1387 1387 1387 1387 1387 1387 1387 1387 1381 1381 1381 1381 1381 1381 1376 1376 1370 1370 1370 1370 1370 1370 1370 1370 1370 1370 1370 1365 1359 1359 1354 1354 1354 2040 2040 2040 2040 2040 2040 2040 2040 2271 2271 2271 2271 2271 2271 2271 2271 2286 2271 2271 2271 2271 2271 2271 2271 2271 2286 2286 2286 2286 2286 2286 2286 2271 2271 2271 2271 2271 2271 2286 2286 2286 2286 2286 2286 2286 2286 2286 2301 2301 2286 2286 2286 2286 2301 2286 2286 2286 2286 2286 2271 2271 2271 2271 2271 2256 2256 2256 2271 2271 2271 2271 2271 2271 2271 2271 2271 2271 2271 2271 2271 2256 2256 2271 2256 2256 2256 2256 2256 2256 2256 2256 2256 2256 2271 2271 2271 2271 2271 2271 2256 2256 2241 2241 2241 2241 2241 2256 2256 2256 2256 2256 0 0 0 0 0 0 0 0 0
