0 0 0 0 0 0 0 0 0 0 0 0 0 0 0 0 0 0 0 0 0 0 0 0 0 0 0 0 0 0 0 0 2883 2883 2883 2908 2908 2933 2908 2908 2933 2933 2958 2958 2984 2984 2984 3010 3010 3010 3010 3010 3037 3010 3010 3010 3010 3010 3010 3037 3037 3037 3064 3092 3092 3092 3092 3092 3064 3064 3092 3092 3092 3120 3120 3120 3120 3149 3149 3149 3149 3149 3178 3178 3178 3178 3178 3178 3208 3238 3269 3269 0 0 0 3468 0 0 3333 3333 3333 1509 1509 1509 1509 1509 1503 1503 1503 1503 1503 1509 1509 1509 1509 1509 1516 1523 3433 3433 3468 3468 3468 3468 3468 3468 3503 3503 3503 3503 3539 3539 3539 3576 3576 3576 3576 3614 3614 3614 3614 3653 3653 3653 3692 3692 3692 3732 3732 3732 3732 3732 3732 3692 3653 3653 3692 0 0 0 0 0 0 5210 5210 5210 5210 5210 5291 5291 5291 5291 5291 5374 5374 5374 5460 5460 5460 5548 5548 5640 5640 0 0 0 0 0 0 0 0 0 0 0 0 0 0 0 6146 6038 6038 6038 6038 6038 6038 6038 5933 5374 5291 5210 5210 5291 5291 5374 5374 5460 5548 5734 5734 5734 5734 5640 5548 5548 5460 5460 5460 0 0 0 0 0 0 0 0 0 5056 5056 4983 4983 4983 4983 4983 4983 5056 5056 5210 5291 5460 5460 5640 5734 5933 5933 5933 6038 6146 6259 6259 6259 5291 5210 5210 5210 5210 5210 5210 5210 5210 5210 5210 5210 5210 2333 2333 2333 2333 2333 2333 2333 2349 2349 2349 2349 2349 2349 2365 2365 2365 2365 3064 3064 3064 3149 3149 3178 3178 3178 3178 3178 3178 3178 3178 3178 3178 3178 3149 3149 3149 3149 3149 3149 3149 3149 3149 3149 3149 3149 3149 3149 3178 3178 3178 3178 3208 3178 3178 3178 3178 3178 3178 3178 3178 3178 3178 3208 3208 3208 2212 2212 2212 2226 2226 2226 2226 2241 2241 2241 2241 2256 2271 2271 3208 3208 3120 3120 3120 3120 3120 3120 3120 3149 3149 3178 3178 3208 3208 3208 3238 3238 3238 3238 3238 3178 3178 3178 3178 3178 3120 3120 3149 3149 3178 3149 3149 3149 3149 3178 3149 3149 3178 3178 3208 3208 3208 3208 3238 3269 3269 3238 3208 3208 3238 3238 3269 3269 2103 2103 2103 2103 2116 2116 2116 2103 2103 2103 2103 2103 2103 2103 2103 2103 2090 2090 2090 2090 2090 2090 2090 2090 2090 2090 2090 2078 2078 2078 2078 2078 2078 2078 2078 2078 2065 2065 2065 2078 2065 2065 2065 2065 2065 2053 2053 2053 2053 2053 2053 2040 2040 2040 2040 2040 2040 2040 2040 2040 2040 2040 2040 2040 2040 2028 2028 2028 2028 2028 2028 2016 2005 2005 2005 2005 2005 1993 1993 1993 1993 1993 1981 1981 1981 1981 1981 1981 1981 1970 1970 1959 1959 1959 1959 1959 5734 5734 5832 5734 5734 5734 5734 5734 5734 5640 5640 5640 5640 5640 5548 5548 5640 5548 5548 5548 5460 5460 5460 5460 5460 5548 5548 5548 5548 5734 6375 6497 6497 6497 6622 6497 6497 6622 6497 6497 6497 6497 6375 6259 5933 5832 5734 5640 5640 5640 5640 5640 5640 5548 5548 5548 5548 5548 5548 5548 5548 5548 5640 5640 5640 5640 5640 5640 5548 5548 5548 5460 5460 5460 5460 5460 5460 5460 5374 5291 5291 5291 5374 5374 5291 5291 5291 5291 5291 5291 5374 5374 6038 6038 6038 6038 6038 6038 6038 5933 5832 5374 5374 5291 5291 5291 5291 5291 5374 5374 5374 5374 5374 5460 0 4295 4295 4295 4295 4295 4241 4241 4241 4241 4241 4295 0 0 0 0 0 0 0 0 0 0 0 0
0 0 0 0 0 0 0 0 0 0 0 0 0 0 0 0 0 0 0 0 0 0 0 0 0 0 0 0 0 0 0 0 2883 2883 2883 2908 2908 2933 2908 2908 2933 2933 2958 2958 2984 2984 2984 3010 3010 3010 3010 3010 3010 3010 3010 3010 3010 3010 3010 3037 3037 3064 3092 3092 3092 3092 3092 3092 3064 3064 3092 3092 3092 3120 3120 3120 3120 3149 3149 3149 3149 3149 3178 3178 3178 3178 3178 3208 3208 3238 3238 3614 3614 3614 3468 3468 0 0 0 0 1509 1509 1509 1509 1509 1509 1503 1503 1503 1503 1503 1509 1509 1509 1509 1509 1516 1516 1516 3433 3468 3468 3399 3399 3433 3468 3503 3503 1433 1433 3539 3539 3539 3576 3576 3576 3576 3614 3614 3614 3614 3653 3653 3653 3692 3692 3732 3732 3732 3732 3732 3732 3732 3692 3653 3653 3692 0 0 0 0 0 0 5210 5210 5210 5291 5291 5291 5291 5291 5291 5291 5291 5374 5374 5460 5460 5460 5548 5548 5374 5374 0 0 0 0 0 0 0 0 0 0 0 0 0 0 0 6146 6038 6038 6038 6038 6038 6038 6038 6038 6038 5291 5210 5210 5291 5291 5374 5460 5548 5640 5734 5734 5734 5734 5640 5548 5548 5460 5460 5460 0 0 0 0 0 0 0 0 0 4983 4983 4983 4983 4983 4983 4983 4983 5056 5056 5210 5291 5460 5548 5640 5832 5933 6038 6038 6146 6146 6259 6259 6259 5291 5291 5210 5210 5210 5210 5210 5210 5210 5210 5291 5291 2333 2333 2333 2333 2333 2333 2333 2349 2349 2349 2349 2349 2349 2365 2365 2365 2365 3064 3120 3120 3120 3149 3178 3178 3178 3178 3178 3178 3178 3178 3178 3178 3178 3178 3149 3149 3149 3149 3149 3149 3149 3149 3149 3149 3149 3149 3149 3149 3178 3178 3178 3208 3208 3178 3178 3178 3178 3178 3178 3178 3178 3178 3178 3208 3208 3208 2212 2212 2212 2226 2226 2226 2226 2241 2241 2241 2241 2241 2271 2271 3208 3208 3064 3064 3064 3064 3064 3092 3092 3092 3092 3120 3120 3120 3149 3178 3178 3178 3178 3208 3010 3010 3010 3010 3037 3064 3092 3092 3092 3120 3120 3120 3120 3120 3120 3178 3149 3149 3178 3178 3208 3149 3149 3208 3178 3178 3238 3208 3178 3178 3208 3238 3269 3269 2103 2103 2103 2103 2116 2116 2116 2103 2103 2103 2103 2103 2103 2103 2103 2103 2103 2090 2090 2090 2090 2090 2090 2090 2090 2090 2078 2078 2078 2078 2078 2078 2078 2078 2078 2078 2065 2065 2065 2065 2065 2065 2065 2065 2065 2053 2053 2053 2053 2040 2040 2040 2040 2040 2040 2040 2040 2040 2040 2040 2040 2040 2040 2040 2040 2028 2028 2028 2028 2028 2028 2016 2016 2005 2005 2005 2005 2005 2005 2005 1993 1993 1993 1993 1981 1981 1981 1981 1981 1981 1981 1959 1959 1947 1947 1947 6497 5933 5933 5933 5832 5832 5734 5734 5734 5640 5640 5640 5640 5548 5548 5548 5640 5548 5548 5548 5460 5460 5460 5460 5460 5548 5548 5548 5640 5832 6375 6497 6497 6497 6622 6497 6497 6622 6497 6497 6497 6497 6375 6038 5933 5832 5734 5640 5640 5734 5734 5734 5734 5548 5548 5548 5548 5548 5548 5640 5640 5640 5640 5640 5640 5640 5640 5640 5548 5548 5548 5460 5460 5460 5460 5460 5460 5460 5374 5374 5374 5374 5374 5374 5291 5291 5291 5291 5291 5291 5374 5374 5832 6038 6038 6038 6038 6038 5933 5832 5460 5374 5291 5291 5291 5291 5291 5291 5374 5374 5374 5374 5460 5460 5460 4349 4349 4295 4295 4295 4241 4241 4295 4295 4295 4295 0 0 0 0 0 0 0 0 0 0 0 0
0 0 0 0 0 0 0 0 0 0 0 0 0 0 0 0 0 0 0 0 0 0 0 0 0 0 0 0 0 0 0 0 2883 2883 2908 2908 2908 2933 2908 2908 2933 2933 2958 2958 2984 2984 2984 3010 3010 3010 3010 3010 3010 3010 3010 3010 3010 3010 3037 3037 3064 3064 3092 3092 3092 3092 3092 3092 3092 3092 3092 3092 3120 3120 3120 3120 3120 3120 3120 3149 3149 3149 3178 3178 3178 3178 3178 3208 3208 3238 3614 3614 3614 3614 3468 3468 3468 3468 3468 0 0 1509 1509 1509 1509 1509 1503 1503 1503 1503 1509 1509 1509 1509 1509 1509 1516 1516 1509 1503 1503 1503 3399 1489 1489 1483 1483 1483 1433 1433 3503 3539 3539 3576 3576 3576 3576 3614 3614 3614 3614 3653 3653 3653 3692 3692 3732 3732 3774 3732 3732 3732 3732 3692 3692 3692 3692 0 0 0 0 0 0 5210 5210 5291 5291 5291 5291 5291 5291 5291 5291 5291 5374 5374 5460 5548 5548 5548 5640 5374 5374 6622 6497 6497 0 0 0 0 0 0 0 0 0 0 0 6146 6146 6146 6038 6038 6038 6038 6038 6038 6146 6038 6038 5291 5291 5291 5291 5374 5460 5548 5640 5734 5734 5640 5640 5548 5460 5460 5460 5460 5460 0 0 0 0 0 0 0 0 0 4983 4983 4983 4983 4983 4983 4983 4983 5056 5056 5291 5460 5548 5640 5734 5832 5933 6038 6038 6146 6146 6259 6259 6259 6375 6375 5210 5210 5210 5210 5210 5210 5291 5291 5291 5291 2349 2349 2349 2349 2349 2333 2333 2349 2349 2349 2349 2349 2349 2365 2365 2365 2365 3064 3064 3064 3092 3149 3178 3178 3178 3208 3208 3208 3208 3178 3178 3178 3178 3178 3178 3178 3178 3149 3149 3178 3149 3149 3149 3149 3149 3149 3178 3178 3178 3178 3178 3208 3208 3178 3178 3178 3178 3178 3178 3178 3178 3178 3208 3208 3208 3208 3208 2212 2212 2226 2226 2226 2226 2241 2241 2241 2241 2241 2271 2271 3064 3064 3064 3064 3064 3064 3064 3064 3064 3064 3092 3092 3092 3092 3092 3120 3010 3010 3010 3010 3010 3010 3010 3010 3037 3037 3064 3064 3092 3092 3092 3120 3120 3092 3092 3120 3120 3120 3092 3149 3149 3149 3120 3120 3149 3149 3208 3149 3149 3149 3208 3208 3269 3269 2103 2103 2116 2116 2116 2116 2116 2103 2103 2103 2103 2103 2103 2103 2103 2103 2103 2090 2090 2090 2090 2090 2090 2090 2090 2090 2078 2078 2078 2078 2078 2078 2078 2078 2078 2078 2065 2065 2065 2065 2065 2065 2065 2065 2065 2065 2053 2053 2053 2040 2040 2040 2040 2040 2040 2040 2040 2040 2040 2040 2040 2040 2040 2040 2040 2028 2028 2028 2016 2016 2016 2016 2016 2005 2005 2005 2005 1993 1993 2005 1993 1993 1993 1993 1993 1993 1981 1981 1981 1981 1981 1947 1947 1947 1947 1947 6497 6497 6375 6375 6375 5933 5933 5832 5832 5734 5734 5640 5640 5548 5548 5548 5640 5640 5548 5548 5548 5460 5460 5460 5460 5548 5548 5640 5640 6259 6497 6497 6622 6622 6622 6622 6622 6622 6497 6497 6497 6497 6259 6038 5832 5832 5734 5734 5734 5734 5734 5832 5832 5734 5734 5734 5734 5640 5640 5640 5640 5640 5734 5734 5734 5640 5640 5640 5640 5640 5548 5548 5460 5460 5460 5460 5460 5460 5460 5374 5374 5374 5374 5374 5374 5374 5291 5291 5291 5374 5374 5374 5640 5933 6038 6038 6038 6038 5933 5734 5460 5291 5291 5291 5291 5291 5291 5291 5291 5291 5291 5291 5374 5460 5460 4190 4190 4190 4190 4241 4241 4241 4241 4241 4241 4241 0 0 0 0 0 0 0 0 0 0 0 0
0 0 0 0 0 0 0 0 0 0 0 0 0 0 0 0 0 0 0 0 0 0 0 0 0 0 0 0 0 0 0 0 2908 2908 2908 2908 2908 2933 2933 2933 2933 2958 2958 2984 2984 2984 3010 3010 3010 3010 3010 3010 3010 3010 3010 3010 3010 3010 3037 3037 3064 3064 3092 3092 3092 3092 3092 3092 3092 3092 3092 3120 3120 3120 3120 3120 3120 3120 3120 3149 3149 3149 3178 3178 3178 3178 3178 3208 3208 3269 3614 3614 3614 3614 3468 3468 3468 3468 3468 0 0 1509 1509 1509 1509 1509 1503 1503 1503 1503 1509 1509 1509 1509 1509 1509 1516 1516 1509 1503 1503 1503 1496 1489 1489 1483 1483 1477 1445 1445 1477 1477 1477 1477 1477 1477 1483 1483 1483 1483 3614 3653 3653 3653 3692 3692 3732 3732 3774 3732 3732 3732 3732 3732 3732 1464 0 0 0 0 0 0 0 5210 5210 5210 5291 5291 5291 5291 5291 5291 5291 5291 5374 5374 5460 5548 5548 5640 5640 5640 5734 6622 6497 6497 0 0 0 0 0 0 0 0 0 0 0 6146 6146 6038 6038 6038 6038 6038 6038 6038 6146 6038 6038 5291 5291 5291 5374 5374 5460 5548 5640 5832 5734 5640 5640 5548 5460 5460 5460 5460 5460 0 0 0 0 0 0 0 0 0 0 5056 4983 4983 4983 4983 4983 4983 5056 5056 5210 5460 5640 5640 5832 5933 5933 6038 6038 6146 6146 6259 6259 6259 6375 6259 5933 5210 5210 5291 5291 5291 5291 5291 5291 2349 2349 2349 2349 2349 2349 2349 2349 2349 2349 2349 2349 2349 2349 2365 2365 2365 2365 3064 3064 3064 3092 3149 3178 3178 3208 3208 3208 3208 3208 3178 3178 3178 3178 3178 3178 3178 3178 3178 3178 3178 3149 3149 3178 3178 3149 3149 3178 3178 3178 3178 3178 3208 3208 3178 3178 3178 3178 3178 3178 3178 3178 3178 3208 3208 3208 3208 2212 2212 2212 2226 2226 2226 2226 2241 2241 2241 2241 2241 2256 3037 3037 3037 3037 3037 3037 3037 3064 3064 3064 3064 3064 3064 3064 3064 3010 3010 3010 3010 3010 3010 3010 3010 3037 3010 3010 3037 3037 3064 3092 3092 3092 3092 3092 3092 3092 3092 3092 3092 0 0 3092 3092 3092 3092 3092 3092 3120 3120 3120 3120 3149 3178 3178 2103 2103 2103 2116 2116 2116 2116 2116 2103 2103 2103 2103 2103 2103 2103 2103 2103 2103 2103 2103 2103 2090 2090 2090 2090 2078 2078 2078 2078 2078 2078 2078 2078 2078 2078 2078 2065 2065 2053 2053 2065 2065 2065 2065 2065 2065 2065 2053 2053 2053 2040 2040 2040 2040 2040 2040 2040 2040 2040 2040 2040 2028 2028 2040 2040 2028 2016 2016 2016 2016 2016 2016 2005 2005 2005 2005 2005 2005 1993 1993 2005 1993 1993 1993 1993 1993 1993 1981 1981 1981 1981 1981 1947 1947 1947 1947 6497 6497 6497 6497 6497 6375 6259 6146 5933 5933 5933 5933 6146 6753 5640 5548 5548 6375 6497 5640 5640 5548 5548 5640 5548 5548 5548 5640 5640 5734 6259 6497 6497 6622 6622 6622 6622 6622 6622 6622 6497 6497 6375 6146 6146 5832 5832 5832 5734 5734 5832 5832 5933 6259 6375 6375 6259 5933 5832 5734 5734 5734 5734 5734 5734 5734 5734 5734 5640 5640 5640 5640 5548 5460 5460 5460 5460 5460 5460 5460 5460 5460 5460 5460 5374 5374 5374 5291 5291 5291 5374 5374 5374 5640 5933 6038 6038 6038 6038 5933 5640 5374 5291 5291 5291 5210 5210 5210 5291 5291 5291 5291 5291 5374 5460 5460 0 4139 4139 4139 4241 4241 4241 4241 4190 4190 4241 0 0 0 0 0 0 0 0 0 0 0 0
0 0 0 0 0 0 0 0 0 0 0 0 0 0 0 0 0 0 0 0 0 0 0 0 0 0 0 0 0 0 0 0 2883 2883 2908 2908 2908 2933 2933 2933 2933 2958 2958 2984 2984 2984 3010 3010 3010 3010 3010 3010 3010 3010 3010 3010 3010 3010 3037 3037 3064 3064 3092 3092 3092 3092 3092 3092 3092 3092 3092 3120 3120 3120 3120 3120 3120 3120 3149 3149 3149 3149 3178 3178 3178 3178 3208 3208 3208 3269 3576 3614 3614 3614 3576 3576 3539 3539 0 0 0 0 1509 1509 1509 1509 1509 1509 1509 1509 1509 1509 1509 1509 1509 1509 1516 1516 1509 1509 1503 1503 1496 1496 1489 1489 1483 1477 1477 1477 1477 1477 1477 1477 1477 1477 1477 1483 1477 1477 1477 1477 3653 3653 3653 3653 3732 3732 3774 3732 3732 1464 1464 1464 1464 1464 1458 1458 1458 1458 1458 1458 0 5210 5210 5210 5291 5291 5291 5291 5291 5291 5291 5291 5291 5374 5460 5548 5548 5640 5640 5734 5734 6259 6375 6497 0 0 0 0 0 0 0 0 0 0 0 6146 6146 6038 6038 6038 6038 6038 6038 6146 6038 6038 5374 5210 5210 5291 5291 5374 5460 5548 5734 5734 5640 5640 5640 5548 5460 5460 5460 5460 5460 0 0 0 0 0 0 0 0 0 0 5056 5056 5056 4983 4983 4983 4983 4983 5056 5210 5548 5640 5734 5832 5933 5933 6038 6038 6146 6146 6259 6259 6259 6259 6259 5933 5291 5291 5291 5291 5291 5291 5291 5291 2349 2349 2349 2349 2349 2349 2349 2349 2349 2349 2349 2349 2349 2349 2365 2365 2365 2365 2365 3092 3092 3092 3149 3178 3178 3208 3208 3208 3208 3208 3178 3178 3178 3178 3178 3178 3178 3178 3178 3178 3178 3178 3178 3178 3178 3149 3149 3178 3178 3178 3178 3178 3208 3208 3178 3178 3208 3178 3178 3208 3208 3208 3208 3208 3208 3208 3208 2212 2212 2212 2226 2226 2226 2226 2241 2241 2241 2241 2241 2241 3037 3037 3037 3037 3037 3037 3037 3064 3064 3064 3064 3064 3064 3037 3037 3010 3010 3010 3010 3010 3010 3010 3010 3010 3010 3010 3010 3010 3037 3037 3064 3064 3092 3092 3064 3064 3064 3092 3092 3092 0 3092 3092 3092 3092 3092 3092 3092 3092 3092 3120 3120 3120 3120 2103 2103 2103 2116 2116 2116 2116 2116 2103 2103 2103 2103 2103 2103 2090 2090 2103 2103 2103 2103 2103 2103 2090 2090 2090 2078 2078 2078 2078 2078 2078 2078 2078 2078 2078 2078 2065 2065 2053 2053 2065 2065 2065 2065 2053 2053 2053 2053 2053 2053 2040 2040 2040 2040 2040 2040 2040 2040 2040 2040 2040 2028 2028 2028 2040 2028 2016 2016 2016 2016 2016 2016 2005 2005 2005 2005 2005 2005 2005 2005 2005 1993 1993 1993 1993 1993 1993 1993 1993 1981 1981 1981 1947 1936 1936 1936 6497 6497 6497 6497 6497 6497 6497 6375 6375 6375 6497 6497 6497 6753 6622 6497 6497 6497 6497 6497 6497 6497 5832 5734 5640 5640 5640 5640 5734 5832 6375 6497 6497 6622 6622 6622 6622 6622 6622 6622 6497 6375 6375 5933 5933 5832 5832 5832 5832 5832 5832 5933 6146 6375 6375 6375 6375 6146 6038 6038 5832 5832 5734 5734 5832 5832 5832 5832 5734 5734 5734 5734 5640 5548 5548 5548 5640 5640 5640 5548 5460 5460 5460 5460 5374 5374 5374 5374 5374 5374 5374 5460 5460 5640 5933 6038 6038 6038 6038 5933 5640 5374 5210 5210 5291 5210 5210 5210 5291 5291 5291 5291 5291 5460 5460 5460 4139 4139 4139 4139 4190 4190 4241 4241 4190 4190 4190 0 0 0 0 0 0 0 0 0 0 0 0
0 0 0 0 0 0 0 0 0 0 0 0 0 0 0 0 0 0 0 0 0 0 0 0 0 0 0 0 0 0 0 0 2883 2883 2908 2908 2908 2933 2933 2933 2933 2958 2958 2984 2984 2984 3010 3010 3010 3010 3010 3010 3010 3010 3010 3010 3010 3010 3037 3037 3064 3064 3092 3092 3092 3092 3092 3092 3092 3092 3092 3092 3120 3120 3120 3120 3120 3149 3149 3149 3149 3178 3178 3178 3178 3208 3208 3208 3238 3300 3576 3614 3614 3576 3539 3539 3503 3503 0 0 0 0 1509 1509 1509 1509 1509 1509 1509 1509 1509 1509 1509 1509 1509 1509 1516 1516 1509 1503 1503 1503 1496 1496 1489 1489 1489 1483 1477 1477 1477 1477 1477 1477 1477 1477 1477 1483 1477 1477 1477 1477 1477 1477 3653 1477 1477 1470 1470 1470 1464 1464 1458 1458 1458 1458 1458 1458 1458 1458 1452 1452 1452 5291 5210 5210 5291 5291 5291 5291 5210 5210 5291 5291 5291 5374 5460 5548 5548 5640 5734 5734 5832 6038 6259 6375 0 0 0 0 0 0 0 0 0 0 0 6038 6038 6038 6038 6038 6038 6038 6038 6146 6038 6038 5374 5210 5210 5291 5291 5374 5460 5548 5734 5734 5640 5640 5640 5460 5460 5460 5460 5460 0 0 0 0 0 0 0 0 0 0 5056 5056 5056 5056 4983 4983 4983 4983 4983 5056 5132 5548 5640 5832 5832 5933 5933 6038 6038 6146 6146 6146 6146 6146 6259 6146 5291 5291 5291 5291 5291 5291 5291 5291 5291 2349 2349 2349 2349 2349 2349 2349 2349 2349 2349 2349 2349 2349 2349 2365 2365 2365 2365 2365 3208 3149 3149 3149 3178 3208 3208 3208 3208 3208 3208 3178 3178 3178 3178 3178 3178 3178 3178 3178 3178 3178 3178 3178 3178 3178 3178 3178 3178 3178 3178 3178 3178 3208 3208 3178 3178 3208 3208 3208 3208 3208 3208 3208 3208 3208 3208 3208 2212 2212 2212 2226 2226 2226 2226 2241 2226 2226 2241 2226 2226 3037 3037 3037 3037 3037 3037 3037 3037 3037 3064 3037 3037 3037 3037 3037 3010 3010 3010 3010 3010 3010 3010 3010 3010 3010 3010 3010 3010 3037 3037 3064 3064 3064 3064 3064 3064 3064 3092 3092 3092 3037 3037 3037 3010 3010 3010 3010 3010 3037 3064 3064 3064 3092 3092 2103 2103 2103 2116 2116 2116 2116 2116 2103 2103 2103 2103 2103 2103 2090 2090 2103 2103 2103 2103 2103 2103 2090 2090 2090 2090 2090 2078 2078 2078 2078 2078 2078 2065 2065 2065 2065 2065 2065 2065 2065 2065 2053 2053 2053 2053 2053 2053 2053 2053 2040 2040 2040 2040 2040 2040 2040 2040 2040 2040 2040 2040 2028 2028 2040 2028 2016 2016 2016 2016 2016 2016 2016 2016 2005 2005 2005 2005 2005 2005 2005 2005 1993 1993 1993 1993 1993 1993 1993 1981 1981 1981 1947 1936 1936 1936 6497 6497 6497 6497 6622 6497 6497 6497 6497 6497 6622 6622 6622 6753 6753 6622 6622 6622 6622 6497 6497 6622 6375 5832 5640 5640 5640 5734 5734 5832 6375 6497 6497 6622 6622 6622 6622 6622 6622 6497 6497 6375 6146 5933 5832 5832 5832 5832 5832 5933 6038 6146 6375 6375 6497 6497 6497 6375 6259 6038 6038 6038 5832 5832 5832 5933 5832 5832 5832 5734 5734 5734 5734 5640 5640 5734 5734 5734 5734 5640 5640 5548 5548 5548 5460 5374 5374 5374 5374 5374 5374 5460 5548 5640 5933 6038 6146 6146 6038 5933 5640 5291 5210 5210 5291 5210 5210 5291 5291 5291 5374 5374 5374 5460 5460 5460 4139 4139 4139 4139 4190 4190 4190 4190 4190 4190 4190 0 0 0 0 0 0 0 0 0 0 0 0
0 0 0 0 0 0 0 0 0 0 0 0 0 0 0 0 0 0 0 0 0 0 0 0 0 0 0 0 0 0 0 0 2883 2883 2883 2908 2908 2908 2908 2933 2933 2958 2958 2984 2984 3010 3010 3010 3010 3010 3010 3010 3010 3010 3010 3010 3010 3010 3037 3037 3064 3064 3092 3092 3092 3092 3092 3092 3092 3092 3092 3092 3120 3120 3120 3120 3120 3149 3149 3149 3178 3178 3178 3178 3178 3208 3208 3208 3238 3269 3576 3576 3576 3539 3539 3503 3468 3468 0 0 0 0 1509 1509 1509 1509 1509 1509 1509 1509 1509 1509 1509 1509 1509 1509 1509 1509 1509 1503 1503 1496 1496 1496 1489 1489 1489 1489 1483 1483 1483 1477 1477 1477 1477 1477 1477 1483 1477 1477 1477 1477 1470 1470 1470 1470 1477 1470 1470 1470 1464 1458 1458 1458 1458 1458 1458 1452 1452 1452 1452 1445 1445 1445 1445 1445 1445 5291 5291 5291 5210 5210 5291 5291 5374 5374 5460 5548 5548 5640 5640 5734 5734 5832 6259 6375 0 0 0 0 0 0 0 0 0 0 0 0 6038 6038 6038 6038 6038 6038 6038 6146 6146 6146 6146 5374 5374 5460 5548 5548 5548 5640 5734 5734 5640 5548 5548 5460 5460 5460 5460 5460 0 0 0 0 0 0 0 0 0 0 4983 4983 5056 5056 4983 4983 4983 4983 4983 5056 5056 5548 5640 5832 5832 5933 5933 6038 6038 6146 6146 6146 6146 6146 6259 6146 5291 5291 5291 5291 5291 5291 5291 5291 5291 2349 2349 2349 2349 2349 2349 2349 2349 2349 2349 2349 2349 2349 2349 2349 2349 2349 2365 2365 3208 3208 3178 3178 3208 3238 3208 3208 3208 3208 3208 3208 3178 3178 3208 3208 3178 3178 3178 3178 3178 3178 3178 3178 3178 3178 3178 3178 3178 3178 3178 3178 3208 3208 3208 3208 3208 3208 3208 3208 3208 3208 3208 3208 3208 3208 3208 3208 2212 2212 2212 2226 2226 2226 2226 2241 2226 2226 2241 2226 2226 3010 3010 3010 3037 3037 3037 3037 3037 3037 3037 3037 3037 3037 3037 3010 3010 3010 3010 3010 3010 3010 3010 3010 3010 3010 3010 3010 3010 3010 3010 3037 3037 3037 3064 3092 3092 3092 3092 3064 3037 3037 2984 2984 2984 2984 2984 2984 2984 2984 2984 2933 2933 2984 2984 2116 2116 2116 2116 2116 2129 2129 2116 2116 2116 2103 2103 2103 2103 2090 2090 2103 2103 2103 2103 2103 2103 2103 2103 2090 2090 2090 2078 2078 2078 2065 2065 2065 2053 2053 2053 2053 2053 2053 2053 2053 2053 2053 2053 2053 2053 2053 2053 2053 2053 2053 2053 2040 2040 2040 2040 2040 2040 2040 2040 2040 2040 2040 2040 2040 2028 2016 2016 2016 2016 2016 2028 2016 2016 2005 2005 2005 2005 2005 2005 2005 2005 1993 1993 1993 1993 1993 1993 1993 1981 1981 1970 1959 1959 1959 1959 6622 6622 6622 6622 6622 6622 6622 6622 6622 6622 6622 6622 6622 6753 6753 6622 6622 6622 6622 6622 6497 6497 6375 5832 5734 5734 5734 5734 5832 6038 6375 6497 6497 6622 6622 6622 6622 6622 6622 6497 6497 6375 6146 5832 5832 5734 5734 5832 5832 6038 6146 6259 6375 6497 6497 6497 6497 6497 6497 6375 6375 6375 6375 6375 6259 6259 6146 6038 5933 5832 5832 5933 5933 5832 5832 5832 6038 6375 5832 5832 5832 5734 5640 5640 5548 5548 5374 5374 5374 5374 5460 5548 5548 5734 5933 6038 6146 6038 6038 5933 5933 5291 5210 5210 5291 5291 5291 5291 5291 5374 5374 5374 5374 5548 5548 5548 4190 4190 4190 4190 4190 4190 4190 4190 4190 4190 4190 0 0 0 0 0 0 0 0 0 0 0 0
0 0 0 0 0 0 0 0 0 0 0 0 0 0 0 0 0 0 0 0 0 0 0 0 0 0 0 0 0 0 0 0 2883 2883 2883 2908 2908 2908 2908 2933 2933 2958 2958 2984 2984 3010 3010 3010 3010 3010 3010 3010 3010 3010 3010 3010 3010 3037 3037 3064 3064 3092 3092 3092 3092 3092 3092 3092 3092 3092 3092 3092 3120 3120 3120 3120 3120 3149 3149 3149 3178 3178 3178 3178 3178 3208 3208 3208 3238 3269 3576 3576 3576 3539 3503 3468 3468 3468 0 0 0 0 1509 1509 1509 1509 1509 1509 1509 1509 1509 1509 1509 1509 1509 1509 1509 1509 1509 1503 1503 1496 1496 1496 1489 1489 1489 1489 1483 1483 1483 1483 1483 1477 1477 1477 1477 1477 1477 1477 1477 1477 1470 1470 1470 1470 1470 1464 1464 1464 1458 1458 1458 1458 1458 1458 1458 1452 1452 1452 1452 1445 1445 1445 1445 1445 1445 1445 1445 1452 5210 5210 5291 5291 5374 5374 5460 5548 5548 5640 5640 5734 5734 5734 5734 5734 0 0 0 0 0 1427 1427 1433 1433 1433 1433 1427 6038 6038 6038 6038 6038 6038 6038 6146 6146 6146 6146 6146 5460 5460 5548 5548 5548 5548 5640 5640 5548 5548 5460 5460 5460 5460 5460 5460 0 0 0 0 0 0 0 0 0 0 4983 4983 5056 5056 5056 4983 4983 5056 5056 5056 5056 5548 5640 5832 5832 5933 5933 6038 6038 6146 6146 6146 6146 6146 6146 6259 5291 5291 5291 5291 5291 5291 5291 5291 5291 2349 2349 2349 2349 2349 2349 2349 2349 2349 2349 2349 2349 2349 2349 2349 2349 2349 2349 2365 2349 2349 2349 2349 2349 3238 3238 3238 3238 3238 3208 3208 3208 3208 3208 3208 3178 3178 3178 3178 3178 3178 3178 3178 3178 3178 3178 3178 3208 3178 3178 3208 3208 3208 3238 3208 3208 3208 3208 3208 3208 3208 3208 3208 3208 3208 3208 3208 2226 2226 2226 2226 2226 2226 2226 2241 2226 2226 2241 2226 2226 2226 3010 3010 3037 3037 3037 3037 3037 3037 3037 3037 3037 3037 3037 3010 3010 3010 3010 3010 3010 3010 3010 3010 3010 3010 3010 3010 3010 3010 3010 3037 3037 3037 3064 3092 3092 3092 3092 3064 3010 2984 2984 2984 2984 2984 2958 2958 2958 2933 2933 2933 2933 2933 2933 2116 2116 2116 2116 2129 2129 2129 2129 2116 2116 2116 2116 2116 2116 2103 2103 2984 2984 3010 3037 3037 3092 3037 2103 2103 2103 2090 2078 2078 2078 2065 2065 2065 2040 2040 2040 2040 2040 2040 2040 2040 2040 2040 2040 2040 2040 2040 2040 2040 2040 2040 2053 2040 2040 2040 2040 2040 2040 2040 2040 2040 2040 2040 2028 2028 2028 2016 2016 2016 2028 2028 2028 2016 2016 2005 2005 2005 2005 2005 2005 2005 2005 1993 1993 1993 1993 1993 1993 1993 1981 1981 1959 1959 1970 1970 6622 6622 6622 6622 6622 6622 6622 6622 6622 6622 6622 6622 6622 6622 6753 6753 6622 6622 6622 6622 6497 6497 6497 5734 5734 5734 5734 5734 5734 5832 6146 6375 6497 6497 6622 6622 6622 6622 6622 6622 6497 6497 6375 6375 5832 5832 5734 5734 5832 5832 6038 6146 6259 6375 6497 6497 6497 6497 6497 6497 6497 6497 6497 6497 6497 6497 6497 6375 6375 6146 6038 6038 6146 6146 6146 6146 6146 6259 6375 6259 6038 5933 5832 5734 5734 5640 5640 5460 5460 5374 5374 5460 5548 5640 5832 5933 6146 6146 6038 6038 5933 5933 5291 5210 5210 5291 5291 5291 5291 5374 5548 5548 5548 5548 5548 4139 4139 4190 4190 4190 4190 4190 4190 4190 4190 4190 4190 4190 0 0 0 0 0 0 0 0 0 0 0 0
0 0 0 0 0 0 0 0 0 0 0 0 0 0 0 0 0 0 0 0 0 0 0 0 0 0 0 0 0 0 0 0 2883 2883 2908 2908 2933 2933 2933 2958 2958 2984 2984 2984 2984 3010 3010 3010 3010 3010 3010 3010 3010 3010 3010 3010 3037 3037 3064 3064 3092 3092 3092 3092 3092 3092 3092 3120 3092 3092 3092 3120 3120 3120 3120 3120 3149 3149 3149 3178 3178 3178 3178 3178 3208 3208 3208 3208 3238 3269 3539 3576 3576 3539 3433 3399 3365 3365 0 0 0 0 1503 1503 1509 1509 1509 1509 1509 1509 1509 1509 1509 1509 1509 1509 1509 1509 1509 1503 1503 1496 1496 1496 1496 1489 1489 1489 1483 1483 1483 1483 1483 1477 1477 1477 1477 1477 1477 1477 1477 1470 1470 1470 1470 1470 1470 1464 1464 1464 1458 1458 1458 1458 1458 1458 1458 1452 1452 1452 1452 1445 1445 1445 1445 1445 1445 1445 1445 1452 1452 5210 5210 5291 5374 5374 5460 5548 5548 5640 5640 5734 5734 5734 5734 0 0 0 0 0 1421 1421 1427 1427 1427 1427 1427 1427 1427 1427 1427 1427 6038 6038 6038 6146 6146 6146 6146 0 5548 5548 5548 5548 5548 5548 5640 5640 5548 5460 5374 5374 5374 5374 5374 5460 0 0 0 0 0 0 0 0 0 0 4911 4911 4983 4983 4983 4983 4983 4983 5056 5056 5291 5548 5734 5832 5832 5933 6038 6038 6038 6146 6259 6259 6259 6146 6146 6038 5291 5291 5291 5291 5210 5210 5210 5210 5210 2349 2349 2349 2349 2349 2349 2349 2349 2349 2349 2349 2349 2349 2349 2349 2349 2349 2349 2349 2349 2349 2349 2349 2349 2333 2333 2333 2349 2333 2333 2333 2333 2333 2333 2349 3208 3208 3178 3178 3178 3178 3178 3178 3178 3178 3178 3178 3208 3208 3208 3208 3208 3208 3238 3208 3208 3208 3208 3208 3208 3208 3208 3208 3208 3208 3208 3208 2226 2226 2226 2226 2226 2226 2226 2241 2226 2226 2241 2226 2226 2226 3037 3037 3037 3037 3037 3037 3037 3037 3064 3064 3064 3064 3064 3037 3037 3037 3010 3010 3010 3010 3010 3010 3010 3010 3010 3010 3010 3037 3037 3037 3064 3064 3092 3092 3092 3092 3092 3064 3010 2984 2984 2984 2958 2958 2958 2958 2933 2933 2933 2933 2933 2908 2908 2908 2116 2116 2129 2129 2129 2129 2129 2129 2116 2116 2116 2116 2116 2103 2103 2908 2908 2958 2984 2984 2958 2958 2958 2958 2908 2908 2908 2908 2908 2908 2908 2090 2040 2040 2040 2040 2040 2040 2040 2040 2040 2040 2040 2040 2040 2040 2040 2040 2040 2040 2053 2040 2040 2040 2040 2040 2040 2053 2053 2053 2040 2040 2028 2028 2028 2016 2016 2016 2016 2016 2028 2016 2005 2005 2005 2005 2005 2005 2005 2005 2005 1993 1993 1993 1993 1993 1993 1993 1981 1970 1959 1959 1959 1959 6622 6622 6622 6622 6622 6622 6622 6622 6622 6622 6622 6622 6622 6622 6753 6753 6753 6622 6622 6497 6497 6497 6497 5734 5734 5734 5734 5734 5734 5832 6146 6375 6497 6497 6622 6622 6622 6622 6622 6497 6497 6497 6375 5933 5832 5832 5734 5734 5832 5933 6038 6146 6259 6375 6497 6497 6497 6622 6497 6497 6497 6497 6497 6497 6497 6497 6497 6497 6375 6375 6259 6259 6375 6375 6375 6375 6375 6375 6375 6375 6146 6038 6038 5933 5933 5832 5734 5548 5460 5460 5460 5548 5640 5832 5933 6038 6146 6146 6038 6038 5933 5933 5291 5210 5210 5291 5291 5374 5460 5640 5832 5832 5832 6259 6259 4139 4139 4139 4139 4139 4139 4190 4139 4139 4190 4139 4139 4139 0 0 0 0 0 0 0 0 0 0 0 0
0 0 0 0 0 0 0 0 0 0 0 0 0 0 0 0 0 0 0 0 0 0 0 0 0 0 0 0 0 0 0 0 2908 2908 2908 2908 2933 2933 2933 2958 2958 2984 2984 2984 2984 2984 2984 2984 3010 3010 3010 3010 3010 3010 3010 3037 3037 3037 3064 3064 3092 3092 3092 3092 3092 3092 3092 3120 3092 3092 3092 3120 3120 3120 3120 3120 3149 3149 3178 3178 3178 3178 3178 3178 3208 3208 3208 3208 3238 3269 3399 3539 3539 3433 3365 3333 3333 3333 3333 0 0 0 1503 1503 1509 1509 1509 1509 1509 1509 1509 1509 1509 1509 1509 1509 1509 1509 1509 1503 1503 1496 1496 1496 1496 1496 1489 1489 1489 1483 1483 1483 1483 1483 1477 1477 1477 1477 1477 1477 1477 1470 1470 1470 1470 1470 1470 1464 1464 1464 1458 1458 1458 1458 1458 1458 1458 1458 1458 1458 1445 1445 1445 1445 1445 1445 1445 1445 1445 1452 1452 1445 1445 5291 5291 5374 5374 5460 5548 5640 5640 5734 5832 5832 5832 1427 0 0 1421 1421 1421 1421 1421 1421 1421 1427 1427 1427 1427 1427 1427 1427 1427 1427 6038 6146 6146 6146 0 0 0 5548 5548 5548 5548 5548 5548 5548 5548 5460 5374 5374 5374 5374 5374 5460 0 0 0 0 0 0 0 0 0 0 4911 4911 4983 4983 4983 4983 4983 4983 5056 5056 5291 5640 5734 5734 5832 5933 6038 6038 6146 6259 6259 6259 6259 6146 6038 5374 5374 5291 5291 5291 5210 5210 5210 5210 5210 2349 2349 2349 2349 2349 2349 2349 2349 2349 2349 2349 2349 2349 2349 2349 2349 2349 2349 2349 2333 2333 2349 2349 2333 2333 2333 2333 2333 2333 2333 2333 2333 2333 2333 2333 2333 2349 3208 3208 3208 3208 3208 3178 3178 3178 2317 2317 2317 3208 3208 3208 3208 3208 3208 3178 3178 3178 3208 3208 3208 3208 3208 3208 3208 3208 3208 3208 2241 2226 2226 2226 2226 2226 2226 2241 2226 2226 2226 2226 2226 3037 3037 3037 3037 3037 3037 3064 3037 3037 3064 3064 3064 3064 3064 3037 3037 3037 3010 3010 3010 3010 3010 3010 3010 3010 3010 3037 3037 3037 3037 3064 3064 3064 3092 3092 3092 3092 3092 3092 3037 3010 2984 2984 2958 2958 2958 2958 2933 2933 2933 2933 2933 2908 2908 2908 2129 2116 2116 2129 2116 2116 2116 2129 2116 2116 2116 2116 2116 2116 2859 2859 2883 2908 2908 2908 2908 2908 2908 2908 2908 2908 2908 2908 2908 2908 2908 2883 2883 2883 2883 2883 2040 2028 2028 2028 2016 2016 2028 2040 2040 2040 2040 2040 2053 2053 2053 2053 2040 2040 2040 2040 2040 2053 2053 2053 2040 2040 2040 2028 2028 2016 2016 2016 2016 2016 2028 2016 2005 2005 2005 1993 1993 2005 2005 1993 1993 1993 1993 1993 1993 1993 1993 1981 1981 1959 1959 1959 1959 0 6622 6622 6622 6622 6622 6622 6622 6622 6622 6622 6622 6622 6622 6622 6753 6753 6622 6622 6622 6497 6497 6497 6497 5832 5734 5734 5734 5734 5734 5734 6038 6375 6497 6497 6622 6622 6622 6622 6622 6497 6497 6497 6259 5933 5933 5832 5832 5832 5933 5933 6146 6146 6375 6375 6497 6497 6497 6622 6497 6497 6497 6497 6497 6497 6497 6497 6497 6497 6497 6375 6375 6375 6375 6375 6375 6375 6375 6375 6497 6375 6259 6038 6038 6038 5933 5832 5832 5640 5548 5548 5548 5640 5734 5933 6038 6146 6146 6146 6038 6038 5933 5933 5832 5291 5291 5374 5374 5640 5832 5933 6038 5933 5933 4139 4139 4139 4139 4139 4139 4139 4139 4190 4139 4139 4190 4089 4089 4089 0 0 0 0 0 0 0 0 0 0 0 0
0 0 0 0 0 0 0 0 0 0 0 0 0 0 0 0 0 0 0 0 0 0 0 0 0 0 0 0 0 0 0 0 2908 2908 2908 2908 2908 2908 2933 2958 2958 2984 2984 2984 2984 2984 2984 2984 3010 3010 3010 3010 3010 3010 3010 3064 3064 3064 3092 3092 3092 3092 3092 3092 3092 3092 3120 3120 3092 3092 3092 3120 3120 3120 3149 3149 3149 3178 3178 3178 3178 3178 3178 3208 3208 3208 3208 3238 3238 3269 3365 3365 3468 3365 3365 3333 3333 3333 0 0 0 1503 1503 1503 1509 1509 1509 1509 1509 1509 1509 1509 1509 1509 1509 1509 1509 1509 1509 1503 1503 1503 1496 1496 1496 1496 1496 1496 1489 1489 1483 1483 1483 1483 1483 1477 1477 1477 1477 1477 1477 1470 1470 1470 1470 1470 1464 1464 1464 1464 1464 1458 1458 1458 1458 1458 1458 1458 1458 1458 1445 1445 1445 1445 1445 1445 1445 1445 1445 1445 1445 1445 1445 1439 1439 1439 1439 5460 1439 1439 5640 5640 1445 1445 1452 1427 1427 1421 1421 1421 1421 1421 1421 1421 1421 1421 1421 1421 1421 1421 1421 1421 1427 1427 1427 6146 6146 0 0 0 0 0 5548 5548 5548 5640 5548 5548 5460 5460 5374 5374 5374 5374 5374 5460 0 0 0 0 0 0 0 0 0 0 0 4983 4983 4983 4983 4983 4983 5056 5056 5056 5291 5548 5640 5734 5832 5933 6038 6146 6146 6259 6259 6259 6259 6146 6038 5374 5374 5374 5374 5291 5291 5291 5210 5210 5210 2349 2349 2349 2349 2349 2349 2349 2349 2349 2349 2349 2349 2349 2349 2349 2349 2349 2333 2333 2333 2333 2333 2333 2333 2333 2333 2333 2333 2333 2333 2317 2317 2333 2333 2333 2333 2349 2349 2349 2317 2317 2317 3238 2317 2317 2317 2317 2301 2301 2301 2286 2286 3178 3178 3178 3178 3178 3178 3208 3208 3208 3208 3208 3208 3208 3208 3208 2226 2226 2226 2226 2226 2226 2226 2226 2226 2226 2226 2226 2226 3037 3037 3037 3037 3037 3037 3037 3037 3037 3037 3037 3037 3037 3037 3037 3037 3037 3010 3010 3010 3010 3010 3010 3010 3010 3010 3037 3037 3037 3037 3064 3064 3064 3092 3092 3092 3092 3092 3092 3037 3010 2984 2984 2958 2958 2958 2958 2933 2933 2933 2933 2933 2908 2908 2933 2129 2116 2116 2129 2116 2116 2116 2129 2129 2116 2116 2116 2129 2835 2859 2859 2883 2908 2908 2908 2908 2908 2908 2908 2908 2908 2908 2908 2908 2908 2908 2883 2883 2883 2883 2883 2883 2028 2028 2028 2016 2016 2028 3333 3365 3365 2040 2040 2053 2053 2053 2053 2053 2053 2053 2053 2053 2040 2040 2040 2040 2040 2040 2040 2040 2028 2028 2028 2028 2028 2040 2028 2016 2005 1993 1993 1993 2005 2005 1993 1993 1993 1993 1993 1993 1993 1993 1981 1981 1959 1959 1959 0 0 6889 6889 6753 6753 6753 6753 6753 6753 6753 6753 6753 6753 6753 6753 6753 6753 6622 6622 6622 6497 6497 6497 6497 5734 5734 5734 5734 5734 5734 5734 6038 6375 6497 6622 6622 6622 6622 6622 6622 6497 6497 6497 6259 6038 5933 5832 5832 5832 5933 6038 6146 6259 6375 6497 6497 6497 6622 6622 6497 6497 6622 6622 6622 6622 6622 6622 6622 6497 6497 6497 6375 6375 6375 6375 6497 6375 6375 6497 6497 6375 6259 6146 6038 6038 6038 5933 5832 5734 5640 5640 5640 5734 5734 5933 6038 6146 6146 6146 6038 6038 5933 5832 5832 5374 5374 5548 5548 5832 5933 6038 6146 6146 6146 4139 4139 4139 4139 4190 4190 4139 4139 4190 4139 4139 4139 4089 4041 4041 0 0 0 0 0 0 0 0 0 0 0 0
0 0 0 0 0 0 0 0 0 0 0 0 0 0 0 0 0 0 0 0 0 0 0 0 0 0 0 0 0 0 0 0 2908 2908 2908 2908 2908 2908 2933 2958 2958 2984 2984 2984 2984 2984 2984 3010 3010 3010 3010 3010 3010 3037 3037 3064 3064 3092 3092 3092 3092 3092 3092 3092 3092 3120 3120 3120 3092 3092 3120 3120 3120 3120 3149 3149 3149 3178 3178 3178 3178 3178 3208 3208 3208 3208 3238 3238 3269 3269 3365 3365 3365 3365 3333 3333 3333 3333 3333 0 0 1503 1503 1503 1509 1509 1509 1509 1509 1509 1509 1509 1509 1509 1509 1509 1509 1509 1509 1503 1503 1503 1503 1503 1496 1496 1496 1496 1496 1489 1489 1483 1483 1483 1483 1477 1477 1477 1477 1477 1477 1470 1470 1470 1470 1470 1464 1464 1464 1464 1464 1458 1458 1458 1458 1458 1458 1458 1458 1452 1445 1445 1445 1445 1445 1445 1445 1445 1445 1445 1445 1445 1445 1439 1439 1439 1439 1439 1439 1439 1439 1439 1445 1445 1452 1458 1427 1421 1421 1421 1421 1415 1415 1415 1415 1415 1415 1415 1415 1415 1421 1421 1421 1427 1427 1427 6146 0 0 0 0 0 0 0 0 0 0 5548 5460 5460 5374 5374 5374 5374 5374 5460 0 0 0 0 0 0 0 0 0 0 0 4983 4983 4983 4983 4983 4983 5056 5056 5132 5291 5460 5640 5640 5734 5832 5933 6038 6146 6146 6146 6146 6146 6146 6146 6038 5374 5374 5374 5291 5291 5291 5291 5291 5291 2349 2349 2349 2349 2349 2349 2349 2349 2349 2349 2349 2349 2349 2349 2349 2349 2349 2333 2333 2333 2333 2333 2333 2333 2333 2333 2333 2333 2333 2317 2317 2317 2317 2333 2333 2333 2333 2333 2333 2317 2317 2301 2301 2301 2301 2301 2301 2301 2301 2301 2286 2286 2286 2286 2286 2286 3178 3178 3178 3178 3208 3208 3208 3208 3208 3208 3208 2226 2226 2226 2226 2226 2226 2226 2226 2226 2226 2226 2226 2226 3064 3037 3037 3037 3037 3037 3037 3037 3037 3037 3037 3037 3037 3037 3037 3037 3037 3010 3010 3010 3010 3010 3010 3037 3037 3037 3037 3037 3037 3064 3064 3064 3064 3092 3092 3092 3092 3092 3092 3037 3010 2984 2984 2958 2958 2958 2958 2933 2933 2933 2933 2908 2908 2908 2933 2933 2116 2116 2129 2129 2129 2143 2129 2129 2116 2116 2129 2129 2835 2859 2859 2883 2883 2883 2883 2883 2859 2859 2859 2859 2883 2883 2883 2883 2883 2883 2883 2908 2883 2883 2883 2883 2859 2028 2028 2040 2040 2040 3333 3365 3399 3399 2053 2053 2053 2053 2053 2053 2053 3576 3653 3732 2040 2040 2040 2040 2040 2040 2040 2040 2040 2028 2028 4349 4349 4349 4349 2005 2005 1993 1981 1981 1993 1993 1993 1993 1993 1993 1993 1993 1993 1993 1981 1981 1993 1993 0 0 0 6889 6889 6889 6753 6753 6753 6753 6753 6753 6753 6753 6753 6753 6753 6753 6753 6622 6622 6622 6497 6497 6497 6497 5734 5734 5734 5734 5734 5734 5734 6038 6497 6622 6622 6622 6622 6622 6622 6622 6497 6497 6375 6146 5933 5933 5832 5832 5832 5933 6038 6146 6375 6375 6497 6497 6497 6622 6622 6497 6497 6622 6622 6622 6622 6622 6622 6622 6497 6497 6497 6375 6375 6375 6375 6497 6375 6375 6497 6497 6375 6259 6146 6146 6038 6038 5933 5832 5734 5734 5734 5734 5734 5734 5933 6038 6146 6146 6146 6038 5933 5734 5734 5734 5640 5640 5734 5734 5832 6038 6146 6146 6259 6259 4139 4139 4139 4139 4190 4190 4190 4190 4190 4089 4089 4041 4041 4041 4041 0 0 0 0 0 0 0 0 0 0 0 0
0 0 0 0 0 0 0 0 0 0 0 0 0 0 0 0 0 0 0 0 0 0 0 0 0 0 0 0 0 0 0 0 2908 2908 2908 2908 2933 2933 2933 2958 2958 2984 2984 2984 2984 2984 3010 3010 3010 3010 3037 3037 3037 3064 3064 3092 3092 3092 3092 3092 3092 3092 3092 3092 3120 3120 3120 3120 3120 3120 3120 3120 3149 3149 3149 3149 3178 3178 3178 3178 3178 3178 3208 3208 3208 3208 3238 3238 3269 3300 3333 3333 3365 3333 3333 3333 3333 3333 0 3300 0 0 1503 1503 1503 1509 1509 1509 1509 1509 1509 1509 1509 1509 1509 1509 1509 1509 1509 1503 1503 1503 1503 1503 1503 1503 1503 1503 1496 1496 1489 1489 1483 1483 1483 1477 1477 1477 1477 1477 1477 1477 1470 1470 1470 1470 1470 1464 1464 1464 1464 1458 1458 1458 1458 1458 1458 1458 1458 1452 1445 1445 1445 1445 1445 1445 1445 1445 1445 1445 1445 1445 1445 1445 1445 1445 1439 1439 1439 1439 1439 1439 1439 1439 1445 1433 1427 1421 1421 1421 1415 1415 1415 1415 1415 1415 1415 1415 1415 1415 1421 1421 1421 1427 1427 1427 6146 0 0 0 0 0 0 0 0 0 0 0 5460 5460 5374 5374 5374 5374 5460 5460 0 0 0 0 0 0 0 0 0 0 0 0 4983 4983 4983 4983 4983 4983 5056 5132 5291 5374 5640 5640 5734 5832 5933 6038 6038 6146 6146 6146 6146 6146 6146 6038 5933 5460 5374 2271 2271 5291 5291 5291 5291 2333 2333 2349 2349 2349 2349 2349 2349 2349 2349 2349 2349 2349 2349 2349 2349 2349 2333 2333 2333 2333 2333 2333 2333 2333 2333 2333 2333 2333 2317 2317 2317 2317 2317 2317 2317 2317 2317 2333 2317 2317 2301 2301 2301 2301 2301 2301 2301 2301 2301 2286 2286 2286 2286 2286 2286 2286 2271 2271 3178 3178 3178 3208 3208 3208 3208 3208 2226 2226 2226 2226 2226 2226 2226 2241 2226 2226 2226 2226 2226 3064 3037 3037 3064 3064 3064 3064 3037 3037 3037 3037 3037 3037 3037 3037 3037 3037 3037 3037 3037 3037 3037 3037 3064 3064 3064 3064 3064 3064 3064 3064 3092 3092 3092 3092 3092 3092 3092 3064 3037 3010 3010 2984 2984 2984 2958 2958 2933 2933 2933 2933 2908 2908 2908 2908 2129 2116 2116 2129 2129 2129 2143 2129 2129 2129 2129 2129 2143 2859 2859 2859 2883 2883 2883 2883 2859 2859 2859 2859 2859 2859 2859 2883 2883 2883 2883 2883 2908 2883 2883 2883 2883 2859 2859 3333 3333 3333 3333 3333 3365 3399 3399 3433 3468 3468 3468 3539 3539 3576 3576 3653 3732 3774 4295 4295 4241 4241 2053 2040 2040 4349 4349 4349 4349 4349 4349 4349 4349 1993 1993 1981 1981 1993 1993 1993 1993 1993 1993 1993 1993 1993 1993 1981 1981 1993 2005 0 0 0 6889 6889 6753 6753 6753 6753 6753 6753 6753 6753 6753 6753 6753 6753 6753 6753 6753 6622 6622 6497 6497 6497 6497 5832 5734 5734 5734 5734 5734 5832 6259 6497 6622 6622 6622 6622 6622 6622 6622 6497 6497 6375 6038 5933 5832 5832 5832 5832 5832 6038 6259 6375 6375 6497 6497 6497 6497 6622 6497 6497 6622 6497 6497 6497 6497 6497 6497 6497 6497 6497 6375 6375 6497 6497 6497 6497 6497 6497 6375 6375 6146 6146 6146 6038 6038 5933 5832 5734 5640 5640 5640 5640 5734 5933 6038 6146 6146 6038 6038 5933 5734 5734 5734 5640 5640 5832 5832 5933 6038 6146 6146 6146 6146 4190 4190 4190 4190 4190 4190 4190 4190 4190 4089 4089 4041 4041 4041 4041 0 0 0 0 0 0 0 0 0 0 0 0
0 0 0 0 0 0 0 0 0 0 0 0 0 0 0 0 0 0 0 0 0 0 0 0 0 0 0 0 0 0 0 0 2908 2908 2908 2933 2933 2933 2958 2958 2984 2984 2984 2984 2984 3010 3010 3010 3010 3010 3037 3037 3064 3064 3064 3092 3092 3092 3092 3092 3092 3092 3092 3120 3120 3120 3120 3149 3120 3120 3120 3120 3149 3149 3149 3149 3178 3178 3178 3178 3178 3208 3208 3208 3208 3208 3238 3238 3269 3300 3333 3333 3333 3333 3333 3333 3333 3300 3300 0 0 0 1503 1503 1503 1509 1509 1509 1509 1509 1509 1509 1509 1509 1509 1509 1509 1509 1509 1503 1503 1503 1503 1503 1503 1503 1503 1503 1496 1496 1496 1489 1489 1483 1483 1483 1483 1483 1477 1477 1477 1477 1477 1470 1470 1470 1470 1470 1470 1464 1464 1464 1464 1458 1458 1458 1458 1458 1458 1452 1445 1445 1445 1445 1445 1445 1445 1445 1445 1445 1445 1445 1445 1445 1445 1445 1439 1439 1439 1439 1439 1439 1439 1439 1439 1433 1433 1427 1421 1415 1415 1415 1415 1410 1410 1410 1410 1415 1415 1415 1421 1421 1421 1427 1427 1427 1427 0 0 0 0 0 0 0 0 0 0 0 5460 5460 5460 5374 5374 5460 5460 5460 5640 0 0 0 0 0 0 0 0 0 0 0 2286 2286 2286 2286 2271 2241 2241 2226 2226 2241 2241 2241 2241 2241 2241 5933 5933 6259 6146 6146 6038 6038 6038 6146 5933 5933 5374 2271 2271 2271 2256 2256 2286 2286 2301 2333 2349 2349 2349 2349 2349 2349 2349 2349 2349 2349 2349 2349 2349 2349 2333 2333 2333 2333 2333 2333 2333 2333 2333 2333 2333 2333 2317 2317 2317 2317 2317 2317 2317 2317 2317 2317 2317 2301 2301 2301 2301 2301 2301 2301 2301 2301 2301 2286 2286 2286 2286 2286 2286 2271 2271 2271 2271 2271 2286 2286 2286 3208 3208 2256 2226 2226 2226 2226 2226 2241 2241 2241 2241 2241 2241 2241 2256 3064 3037 3037 3064 3064 3064 3064 3037 3037 3064 3037 3037 3037 3037 3037 3037 3037 3037 3037 3037 3037 3037 3064 3092 3092 3092 3092 3092 3092 3092 3092 3092 3092 3092 3092 3092 3092 3064 3064 3037 3010 3010 2984 2984 2984 2984 2958 2933 2933 2933 2908 2908 2908 2908 2908 2129 2129 2129 2129 2129 2129 2143 2129 2129 2129 2129 2143 2859 2859 2859 2859 2883 2883 2883 2883 2859 2859 2859 2859 2859 2859 2859 2883 2883 2883 2883 2883 2908 2908 2908 2883 2883 2883 2883 3333 3333 3333 3333 3365 3433 3433 3433 3433 3468 3468 3503 3539 3576 3576 3614 3653 3732 3774 4241 4295 4295 4295 4349 4349 4349 4349 4295 4295 4349 4349 4349 4349 4405 4405 1993 1993 1993 1981 1981 1993 1993 1993 1993 1993 1993 1993 1993 1993 1993 1993 0 0 0 0 6889 6889 6753 6753 6889 6753 6753 6753 6753 6753 6753 6753 6753 6753 6753 6753 6753 6753 6753 6622 6497 6497 6497 5832 5734 5734 5734 5734 5734 5832 6259 6497 6622 6622 6622 6622 6622 6622 6622 6622 6622 6375 6038 5933 5832 5734 5734 5832 5832 6038 6259 6375 6497 6497 6497 6497 6497 6622 6497 6497 6622 6497 6497 6497 6497 6497 6497 6497 6497 6497 6497 6497 6497 6497 6497 6497 6497 6497 6375 6375 6146 6146 6146 6038 6038 5933 5832 5734 5640 5640 5640 5640 5734 5933 6038 6146 6146 6038 6038 5933 5832 5734 5734 5832 5832 5933 5933 6038 6038 6146 6146 6146 6146 4190 4190 4190 4190 4190 4190 4190 4190 4190 4089 4089 4041 4041 4041 4041 0 0 0 0 0 0 0 0 0 0 0 0
0 0 0 0 0 0 0 0 0 0 0 0 0 0 0 0 0 0 0 0 0 0 0 0 0 0 0 0 0 0 0 0 2908 2908 2933 2933 2933 2933 2958 2958 2958 2984 2984 2984 2984 3010 3010 3010 3010 3010 3037 3037 3064 3064 3064 3092 3092 3092 3092 3092 3092 3092 3092 3120 3120 3120 3120 3120 3120 3120 3120 3120 3120 3149 3149 3149 3178 3178 3178 3178 3178 3208 3208 3208 3208 3238 3238 3269 3300 3300 3333 3365 3333 3333 3333 3333 3333 3300 3300 3333 0 0 0 1503 1503 1509 1516 1516 1523 1523 1516 1516 1516 1516 1516 1516 1516 1516 1509 1509 1509 1509 1509 1503 1503 1503 1503 1503 1503 1496 1496 1496 1489 1489 1483 1483 1483 1483 1483 1477 1477 1477 1477 1477 1470 1470 1470 1470 1470 1464 1464 1464 1464 1464 1464 1458 1458 1458 1458 1458 1445 1445 1445 1445 1445 1445 1445 1445 1445 1445 1445 1445 1445 1445 1445 1445 1445 1439 1439 1439 1439 1439 1439 1439 1439 1433 1433 1427 1421 1415 1415 1415 1415 1410 1410 1410 1410 1410 1415 1415 1421 1421 1421 1427 1427 1427 1427 0 0 0 0 0 0 0 0 0 0 0 0 5460 5460 5460 5460 5460 5460 5548 5640 0 0 0 0 0 0 0 0 0 2271 2271 2286 2271 2271 2271 2241 2241 2241 2226 2226 2241 2241 2241 2241 2241 2226 2226 2226 2226 2226 6146 6038 6038 6038 6146 6146 2256 2256 2256 2271 2271 2256 2241 2241 2271 2286 2333 2333 2349 2349 2349 2349 2349 2349 2349 2349 2349 2349 2349 2349 2349 2333 2333 2333 2333 2333 2333 2333 2333 2333 2317 2317 2317 2317 2317 2317 2301 2301 2317 2317 2301 2301 2317 2317 2301 2301 2301 2301 2301 2301 2301 2301 2301 2301 2301 2301 2286 2286 2301 2301 2271 2271 2271 2271 2271 2286 2286 2286 2271 2271 2256 2241 2226 2226 2226 2226 2241 2241 2241 2241 2241 2241 2241 3064 3064 3064 3064 3064 3064 3064 3064 3037 3037 3064 3037 3037 3064 3037 3037 3037 3037 3037 3037 3037 3037 3064 3064 3092 3092 3092 3092 3092 3092 3092 3092 3092 3092 3092 3092 3092 3092 3064 3037 3010 3010 3010 2984 2984 2984 2984 2958 2933 2933 2933 2908 2908 2883 2883 2908 2156 2143 2129 2129 2129 2129 2143 2129 2129 2129 2143 2883 2883 2883 2883 2883 2883 2883 2883 2883 2883 2883 2883 2859 2859 2859 2883 2883 2883 2883 2883 2883 2908 2908 2908 2908 2883 2859 2859 3333 3333 3333 3365 3365 3433 3433 3433 3433 3468 3468 3503 3539 3576 3614 3614 3653 3732 3732 3774 4295 4295 4295 4349 4349 4349 4349 4295 4295 4349 4349 4349 4349 4405 4405 4405 1981 1981 1981 1981 1993 1993 1993 1993 1993 1993 1993 1993 1993 1993 1993 0 0 0 0 0 0 6753 6753 6889 6889 6889 6889 6889 6889 6889 6889 6889 6889 6753 6753 6753 6753 6753 6622 6622 6622 6622 5832 5832 5832 5832 5832 5832 5832 6259 6497 6497 6622 6622 6622 6622 6622 6622 6622 6622 6497 6146 5933 5933 5734 5734 5832 5832 6146 6259 6375 6497 6497 6497 6497 6497 6497 6497 6497 6497 6497 6497 6497 6497 6497 6497 6497 6497 6497 6497 6497 6622 6622 6497 6497 6497 6497 6375 6375 6146 6146 6038 6038 5933 5933 5933 5460 5460 5548 5640 5832 5832 5933 6038 6038 6038 6038 6038 5933 5832 5832 5832 5933 5933 5933 6038 6038 6038 6146 6146 6146 6038 4190 4190 4190 4190 4190 4190 4190 4190 4190 4139 4089 4041 4041 4041 4041 0 0 0 0 0 0 0 0 0 0 0 0
0 0 0 0 0 0 0 0 0 0 0 0 0 0 0 0 0 0 0 0 0 0 0 0 0 0 0 0 0 0 0 0 2908 2908 2933 2933 2933 2933 2958 2958 2958 2984 2984 2984 2984 3010 3010 3010 3010 3010 3037 3037 3064 3064 3064 3092 3092 3092 3092 3092 3092 3092 3092 3120 3120 3120 3120 3120 3120 3120 3120 3120 3120 3149 3149 3149 3178 3178 3178 3178 3178 3208 3208 3208 3238 3238 3269 3269 3300 3300 3333 3333 3333 3333 3333 3333 3333 3333 3333 3333 3333 0 0 0 1516 1516 1516 1523 1523 1523 1523 1523 1529 1529 1529 1523 1523 1523 1516 1509 1509 1509 1509 1503 1503 1503 1503 1503 1503 1496 1496 1496 1489 1489 1483 1483 1483 1483 1483 1483 1483 1477 1477 1477 1477 1477 1477 1470 1470 1470 1464 1464 1464 1464 1464 1464 1458 1458 1458 1458 1445 1445 1445 1445 1445 1445 1445 1445 1445 1445 1445 1445 1445 1445 1445 1445 1445 1445 1445 1439 1439 1439 1439 1439 1439 1433 1433 1427 1421 1415 1415 1415 1415 1410 1410 1410 1410 1410 1415 1415 1415 1421 1427 1427 1427 1433 1439 1439 0 0 0 0 0 0 0 0 0 0 0 0 5460 5460 5460 5460 5460 5548 5548 0 0 0 0 0 0 0 0 0 2256 2256 2256 2271 2256 2256 2241 2241 2241 2226 2226 2241 2241 2241 2241 2241 2226 2226 2226 2226 2226 2226 2226 2226 2226 2256 2256 2256 2241 2241 2256 2241 2241 2241 2241 2256 2271 2301 2317 2333 2349 2349 2349 2349 2349 2349 2349 2349 2349 2349 2349 2333 2333 2333 2333 2333 2333 2333 2333 2333 2333 2317 2317 2317 2317 2317 2317 2301 2301 2317 2317 2301 2301 2317 2317 2301 2301 2301 2301 2301 2301 2301 2301 2301 2301 2301 2301 2286 2286 2286 2301 2271 2271 2271 2271 2271 2286 2286 2271 2271 2271 2256 2241 2226 2226 2226 2226 2241 2241 2241 2241 2241 2241 2241 3064 3064 3064 3064 3064 3064 3064 3064 3064 3064 3037 3037 3037 3064 3037 3037 3037 3037 3037 3037 3037 3037 3064 3064 3092 3092 3092 3092 3092 3092 3092 3092 3092 3092 3092 3092 3092 3092 3064 3037 3010 3010 3010 2984 2984 2984 2958 2958 2984 2933 2933 2908 2908 2883 2883 2883 2156 2143 2129 2129 2129 2129 2143 2143 2129 2129 2143 2883 2883 2859 2859 2859 2883 2883 2883 2883 2883 2883 2883 2859 2859 2883 2883 2883 2883 2883 2883 2883 2908 2908 2908 2908 2883 2859 2859 3365 3365 3365 3399 3399 3433 3433 3433 3468 3468 3468 3503 3576 3576 3614 3653 3653 3692 3692 3732 4349 4349 4349 4349 4349 4349 4349 4349 4349 4349 4349 4349 4349 4349 4349 0 0 1970 1970 1970 1993 1993 1993 1993 1993 1993 1993 1993 1993 2005 2005 0 0 0 0 0 0 6753 6753 6753 6753 6889 6889 6889 7030 7030 6889 6889 6889 6753 6753 6753 6753 6753 6622 6622 6622 6497 6497 5933 5933 5832 5832 5832 5832 6259 6497 6497 6622 6622 6622 6622 6622 6622 6622 6622 6497 6259 6146 6146 5832 5832 5832 5933 6146 6259 6375 6497 6497 6497 6497 6497 6497 6497 6497 6497 6497 6497 6497 6497 6497 6497 6497 6497 6497 6497 6497 6497 6497 6497 6497 6497 6497 6375 6375 6146 6146 6038 5933 5832 5832 5832 5374 5374 5374 5548 5832 5832 5933 6038 6038 6038 6038 6038 5933 5832 5832 5832 5933 5933 6038 6038 6038 6146 6146 6146 6038 6038 6038 4190 4190 4190 4190 4190 4190 4190 4190 4139 4089 4041 4041 3994 3994 0 0 0 0 0 0 0 0 0 0 0 0
0 0 0 0 0 0 0 0 0 0 0 0 0 0 0 0 0 0 0 0 0 0 0 0 0 0 0 0 0 0 0 0 2908 2908 2933 2933 2933 2933 2958 2958 2958 2984 2984 2984 2984 3010 3010 3010 3010 3037 3037 3064 3064 3064 3092 3092 3092 3092 3092 3092 3092 3092 3092 3120 3120 3120 3120 3149 3120 3120 3120 3149 3149 3149 3178 3178 3178 3178 3178 3178 3178 3178 3208 3208 3238 3238 3269 3269 3300 3300 3333 3333 3333 3333 3333 3333 3333 3333 3333 3333 3333 0 0 1523 0 1523 1523 1523 1529 1529 1529 1529 1529 1529 1529 1529 1523 1523 1523 1516 1509 1509 1509 1509 1509 1509 1503 1503 1503 1503 1503 1503 1496 1496 1496 1496 1483 1483 1483 1483 1483 1477 1477 1477 1477 1477 1477 1477 1477 1470 1470 1464 1464 1464 1464 1464 1464 1458 1458 1458 1452 1452 1445 1445 1445 1445 1445 1445 1445 1445 1445 1445 1445 1445 1445 1445 1445 1445 1445 1439 1439 1439 1439 1439 1445 1439 1433 1427 1421 1415 1415 1415 1415 1410 1410 1410 1410 1410 1415 1415 1415 1421 1427 1427 1427 1433 1439 1439 0 0 0 0 0 0 0 0 0 0 0 2212 2212 2212 2198 2198 5548 2198 2198 0 0 0 0 0 0 0 0 0 2226 2226 2241 2256 2241 2241 2241 2241 2241 2226 2226 2226 2226 2226 2226 2226 2226 2226 2226 2226 2226 2226 2226 2226 2226 2256 2256 2256 2241 2241 2256 2226 2226 2226 2226 2241 2256 2256 2256 2333 2349 2349 2349 2349 2349 2349 2333 2333 2333 2349 2349 2333 2333 2333 2333 2333 2333 2333 2333 2333 2333 2333 2317 2317 2317 2317 2317 2301 2301 2317 2317 2301 2301 2317 2317 2301 2301 2301 2301 2301 2301 2301 2301 2301 2301 2301 2301 2286 2286 2286 2286 2271 2271 2271 2271 2271 2271 2271 2271 2271 2271 2256 2241 2226 2226 2226 2226 2241 2241 2241 2241 2241 2241 2241 3064 3064 3064 3064 3064 3064 3064 3064 3064 3064 3037 3037 3064 3064 3037 3037 3037 3037 3064 3064 3064 3064 3064 3064 3092 3092 3092 3092 3092 3092 3092 3092 3092 3092 3092 3120 3092 3092 3064 3037 3010 3010 3010 2984 2984 2984 2958 2958 2958 2933 2933 2908 2908 2883 2883 2883 2156 2143 2143 2129 2129 2143 2143 2129 2129 2129 2143 2859 2859 2859 2859 2859 2883 2883 2883 2883 2883 2883 2883 2883 2883 2883 2883 2883 2908 2908 2908 2908 2908 2908 2908 2908 2883 2859 2859 2859 3399 3399 3399 3433 3433 3433 3468 3468 3468 3503 3503 3576 3614 3614 3653 3692 3692 3692 3732 4349 4349 4349 4349 4349 4349 4349 4349 4349 4349 4349 4349 4349 4349 4349 1993 1993 1970 1970 1970 1993 1993 1993 1993 1993 1993 1993 1993 1993 2005 2005 0 0 0 0 0 0 6622 6622 6753 6753 6753 6753 6753 7030 6889 6889 6753 6753 6753 6753 6753 6753 6753 6753 6622 6497 6497 6146 5933 5832 5832 5832 5832 6146 6375 6497 6497 6622 6622 6622 6622 6622 6622 6622 6622 6497 6375 6259 5832 5832 5832 5933 6038 6146 6259 6375 6497 6497 6497 6497 6497 6497 6497 6497 6497 6497 6497 6497 6497 6497 6497 6497 6497 6622 6497 6497 6497 6497 6497 6497 6497 6497 6375 6375 6146 6146 6038 5933 5734 5734 5291 5291 5374 5374 5548 5832 5832 6038 6038 6146 6038 6038 6038 5933 5933 5832 5832 5933 5933 6038 6038 6038 6146 6146 6038 6038 6038 6038 6038 4190 4190 4190 4190 4190 4190 4190 4139 4089 4041 4041 3994 3994 0 0 0 0 0 0 0 0 0 0 0 0
0 0 0 0 0 0 0 0 0 0 0 0 0 0 0 0 0 0 0 0 0 0 0 0 0 0 0 0 0 0 0 0 2908 2908 2933 2933 2933 2933 2958 2958 2958 2984 2984 2984 2984 3010 3010 3010 3037 3037 3064 3064 3064 3064 3064 3092 3092 3092 3092 3092 3092 3092 3092 3120 3120 3120 3120 3149 3120 3120 3149 3149 3178 3178 3178 3178 3178 3178 3178 3178 3178 3178 3208 3208 3208 3238 3269 3269 3300 3300 3333 3333 3333 3333 3333 3333 3333 3333 3333 3365 3365 3365 0 0 1523 1523 1523 1529 1529 1529 1529 1529 1529 1529 1529 1529 1529 1523 1523 1516 1516 1509 1509 1509 1509 1509 1509 1503 1503 1503 1503 1503 1496 1496 1496 1496 1489 1489 1489 1483 1483 1483 1483 1483 1477 1477 1477 1477 1477 1477 1470 1470 1470 1464 1464 1464 1464 1458 1458 1458 1452 1452 1445 1445 1445 1445 1445 1445 1445 1445 1445 1445 1445 1445 1445 1445 1445 1445 1445 1445 1445 1445 1445 1445 1445 1439 1433 1427 1421 1421 1415 1415 1415 1415 1410 1410 1410 1415 1415 1415 1421 1421 1427 1427 1427 1427 1439 1433 1433 0 0 0 0 0 0 0 0 0 0 2198 2198 2198 2184 2184 2184 2198 2198 2198 2198 2198 2198 2198 2198 2198 0 0 2226 2226 2241 2256 2241 2241 2241 2241 2241 2226 2226 2226 2226 2226 2226 2226 2212 2212 2226 2226 2212 2212 2212 2212 2226 2241 2241 2241 2241 2241 2256 2226 2226 2226 2226 2241 2256 2256 2256 2317 2333 2333 2333 2333 2333 2333 2317 2317 2317 2333 2333 2333 2333 2333 2333 2333 2333 2317 2317 2333 2333 2317 2317 2317 2317 2317 2317 2317 2317 2317 2317 2317 2317 2317 2317 2301 2301 2301 2301 2301 2301 2301 2301 2301 2301 2301 2301 2286 2286 2286 2286 2271 2271 2271 2271 2271 2271 2271 2271 2271 2271 2256 2241 2226 2226 2226 2226 2241 2241 2241 2241 2241 2241 2241 2286 3092 3092 3092 3092 3092 3064 3064 3064 3064 3037 3037 3064 3064 3037 3037 3037 3037 3064 3064 3064 3064 3064 3092 3092 3092 3092 3092 3092 3092 3092 3092 3092 3092 3092 3092 3092 3064 3064 3010 3010 3010 2984 2984 2958 2958 2958 2958 2958 2933 2933 2908 2908 2883 2883 2883 2156 2143 2143 2129 2129 2129 2129 2129 2129 2129 2129 2859 2859 2859 2859 2859 2883 2883 2883 2883 2883 2883 2883 2908 2908 2883 2883 2908 2908 2908 2908 2908 2908 2908 2908 2908 2908 2883 2859 2859 3399 3399 3399 3433 3433 3433 3468 3468 3468 3503 3539 3576 3614 3614 3653 3692 3692 3692 4349 4349 4349 4349 4349 4349 4349 4349 4349 4349 4349 4349 4349 4349 4405 4405 1993 1993 1993 1981 1981 1993 1993 1993 1993 1993 1993 1993 2005 2005 2005 2005 0 0 0 0 0 0 6622 6622 6622 6622 6622 6622 6753 6753 6889 6889 6753 6622 6622 6622 6753 6753 6753 6622 6622 6497 6375 5832 5832 5832 5832 5832 5832 6146 6375 6497 6497 6497 6622 6622 6622 6622 6622 6622 6622 6622 6497 6497 5734 5734 5734 5734 5933 6038 6146 6375 6375 6497 6497 6497 6497 6497 6497 6497 6497 6497 6497 6497 6497 6497 6497 6497 6497 6497 6622 6497 6497 6497 6497 6497 6497 6375 6375 6375 6146 6146 6038 5832 5734 5734 5291 5291 5374 5374 5548 5832 5933 6038 6038 6146 6038 6038 6038 5933 5832 5832 5832 5933 5933 6038 6038 6038 6038 6146 6038 6038 6038 4241 4241 4190 4190 4190 4190 4190 4190 4190 4139 4089 4041 4041 3994 3994 0 0 0 0 0 0 0 0 0 0 0 0
0 0 0 0 0 0 0 0 0 0 0 0 0 0 0 0 0 0 0 0 0 0 0 0 0 0 0 0 0 0 0 0 2908 2908 2933 2933 2933 2933 2958 2958 2958 2984 2984 2984 2984 3010 3010 3010 3037 3037 3037 3037 3064 3064 3064 3092 3092 3092 3092 3092 3092 3092 3092 3120 3120 3120 3120 3149 3120 3120 3149 3149 3149 3178 3178 3178 3178 3178 3178 3178 3178 3178 3208 3208 3208 3238 3269 3269 3300 3300 3333 3300 3300 3300 3333 3333 3333 3333 3333 3365 3365 0 0 0 0 1523 1523 1529 1529 1529 1529 1529 1529 1529 1529 1529 1529 1529 1523 1516 1516 1516 1516 1509 1509 1509 1509 1503 1503 1503 1503 1503 1496 1496 1496 1496 1496 1496 1489 1489 1489 1483 1483 1483 1477 1477 1477 1477 1477 1477 1477 1470 1470 1470 1470 1470 1464 1464 1464 1458 1452 1452 1452 1452 1452 1452 1445 1445 1445 1445 1445 1445 1445 1445 1445 1445 1445 1445 1445 1445 1445 1445 1445 1445 1439 1439 1433 1427 1427 1421 1421 1415 1415 1415 1415 1415 1415 1415 1415 1421 1421 1421 1427 1427 1427 1427 1433 1433 1433 0 0 0 0 0 0 0 2184 2184 2198 2184 2184 2184 2184 2184 2184 2184 2184 2184 2184 2184 2198 2198 2198 2198 0 0 2198 2256 2256 2256 2241 2241 2226 2226 2241 2226 2226 2226 2226 2226 2226 2226 2212 2212 2212 2198 2198 2198 2198 2198 2198 2212 2226 2226 2226 2226 2241 2226 2226 2226 2226 2241 2241 2241 2241 2256 2271 2333 2333 2317 2317 2317 2317 2317 2317 2317 2317 2333 2333 2333 2333 2333 2333 2301 2301 2333 2333 2317 2317 2301 2301 2301 2301 2301 2301 2301 2301 2301 2301 2301 2301 2301 2301 2301 2301 2301 2301 2301 2301 2301 2301 2301 2301 2301 2286 2286 2286 2271 2271 2271 2271 2271 2271 2271 2271 2271 2271 2256 2256 2241 2241 2241 2241 2241 2241 2241 2241 2241 2241 2241 2286 3092 3092 3092 3064 3064 3064 3064 3064 3064 3037 3037 3064 3064 3064 3064 3064 3064 3064 3064 3064 3064 3064 3092 3092 3092 3092 3092 3092 3092 3092 3092 3092 3092 3092 3092 3092 3064 3037 3010 3010 3010 2984 2984 2958 2958 2958 2958 2933 2933 2933 2933 2883 2883 2883 2883 2156 2143 2143 2129 2129 2129 2129 2129 2129 2129 2129 2859 2859 2859 2883 2883 2883 2883 2883 2883 2883 2883 2883 2908 2908 2908 2908 2908 2908 2908 2908 2908 2908 2908 2908 2883 2883 2883 2883 3399 3399 3399 3433 3433 3433 3433 3468 3468 3468 3503 3539 3576 3614 3614 3653 3653 3692 3653 3653 4349 4349 4349 4349 4349 4349 4349 4349 4349 4349 4349 4349 4349 4349 4349 0 1993 1993 1993 1993 1993 1993 1993 1993 2005 1993 1993 1993 1993 1993 1993 0 0 0 0 0 0 6497 6497 6497 6497 6497 6622 6622 6622 6753 6753 6753 6622 6622 6622 6622 6622 6753 6622 6497 6497 6375 5832 5832 5832 5832 5832 5832 6038 6375 6375 6375 6497 6497 6622 6622 6622 6622 6622 6622 6497 6497 6497 5734 5734 5734 5734 5933 6038 6146 6375 6375 6497 6497 6497 6622 6622 6622 6622 6497 6497 6622 6497 6497 6622 6497 6497 6497 6497 6497 6497 6497 6497 6497 6497 6497 6375 6375 6259 6038 6038 5933 5832 5640 5291 5291 5374 5374 5374 5374 5933 6038 6146 6146 6146 6038 5933 5933 5832 5832 5832 5832 5933 5933 6038 6038 6038 6038 6038 6038 6038 6038 4241 4190 4190 4241 4190 4190 4190 4190 4190 4190 4139 4089 4041 4041 4041 0 0 0 0 0 0 0 0 0 0 0 0
0 0 0 0 0 0 0 0 0 0 0 0 0 0 0 0 0 0 0 0 0 0 0 0 0 0 0 0 0 0 0 0 2908 2908 2933 2933 2933 2933 2958 2958 2958 2984 2984 2984 2984 3010 3010 3010 3010 3010 3010 3037 3037 3064 3064 3064 3092 3092 3092 3092 3092 3092 3120 3120 3120 3120 3120 3149 3120 3120 3149 3149 3149 3178 3178 3178 3178 3178 3178 3178 3208 3208 3208 3208 3238 3238 3269 3269 3300 3300 3300 3300 3300 3300 3333 3333 3333 3333 3333 3365 3365 0 0 0 1529 1529 1529 1529 1529 1529 1536 1536 1536 1529 1529 1529 1529 1529 1529 1523 1523 1523 1516 1516 1516 1509 1509 1503 1503 1503 1503 1503 1496 1496 1496 1496 1496 1496 1496 1489 1489 1489 1483 1483 1483 1483 1477 1477 1477 1477 1477 1477 1477 1470 1470 1470 1470 1464 1464 1458 1458 1458 1452 1452 1452 1452 1452 1452 1452 1452 1452 1452 1452 1445 1445 1445 1445 1445 1445 1445 1445 1445 1445 1445 1439 1439 1433 1433 1427 1421 1421 1421 1421 1415 1415 1415 1415 1415 1421 1421 1421 1427 1427 1427 1427 1439 1433 1433 0 0 0 0 0 0 0 2156 2156 2156 2170 2170 2170 2184 2184 2170 2170 2184 2184 2184 2184 2184 2184 2184 2198 2198 2198 0 0 0 1317 1328 1328 1328 1328 1328 1328 2226 2226 2226 2226 2226 2226 2226 2212 2198 2198 2198 2184 2184 2184 2184 2184 2198 2198 2198 2198 2198 2198 2198 2198 2212 2212 2198 2198 2198 2226 2226 2226 2301 2301 2241 2241 2241 2301 2241 2241 2301 2317 2349 2349 2349 2333 2333 2333 2271 2271 2286 2286 2301 2301 2301 2301 2301 2301 2286 2286 2301 2301 2301 2301 2301 2301 2301 2301 2301 2301 2301 2301 2301 2301 2301 2301 2301 2301 2301 2286 2286 2286 2271 2271 2271 2271 2271 2271 2271 2271 2271 2271 2271 2256 2241 2241 2241 2241 2256 2256 2241 2241 2241 2241 2241 2286 3092 3092 3092 3064 3064 3064 3064 3064 3064 3064 3064 3064 3064 3064 3064 3064 3064 3064 3064 3064 3064 3064 3092 3092 3092 3092 3092 3092 3092 3092 3092 3092 3092 3092 3092 3092 3064 3037 3010 3010 2984 2984 2958 2958 2958 2958 2958 2933 2933 2933 2933 2883 2883 2883 2883 2156 2143 2143 2143 2129 2129 2129 2129 2129 2129 2129 2859 2859 2883 2883 2883 2883 2883 2883 2883 2883 2883 2883 2883 2908 2908 2908 2908 2908 2908 2908 2908 2908 2908 2908 2883 2883 2883 3365 3365 3399 3399 3433 3433 3433 3468 3468 3468 3503 3503 3539 3614 3614 3614 3653 3653 3692 3653 3653 4349 4349 4349 4349 4349 4349 4349 4349 4349 4349 4349 4349 4349 4349 0 2005 2005 1993 1993 1993 1993 1993 1993 1993 2005 1993 1993 1993 1993 1993 1993 0 0 0 0 0 6146 6146 6375 6375 6375 6497 6497 6375 6375 0 6622 6622 6622 6622 6622 6622 6622 6622 6497 6497 6497 5734 5734 5734 5734 5734 5832 5832 6038 6375 6375 6375 6497 6497 6622 6497 6497 6497 6497 6622 6497 6497 6497 5734 5734 5734 5832 5832 6038 6146 6259 6375 6497 6497 6497 6622 6622 6622 6622 6497 6497 6622 6497 6497 6622 6497 6497 6497 6497 6497 6497 6497 6497 6497 6497 6497 6375 6259 6259 6038 6038 5933 5734 5548 5291 5291 5291 5291 5291 5374 5933 6038 6146 6146 6146 6038 5933 5933 5832 5832 5832 5832 5933 5933 6038 6038 6038 6038 6038 6038 6038 6038 6146 4190 4190 4241 4241 4241 4190 4190 4190 4190 4139 4089 4041 4041 4041 0 0 0 0 0 0 0 0 0 0 0 0
0 0 0 0 0 0 0 0 0 0 0 0 0 0 0 0 0 0 0 0 0 0 0 0 0 0 0 0 0 0 0 0 2908 2908 2933 2933 2933 2933 2958 2958 2958 2984 2984 2984 2984 3010 3010 3010 3010 3010 3010 3037 3037 3064 3064 3064 3092 3092 3092 3092 3092 3092 3092 3120 3120 3120 3149 3149 3149 3149 3149 3178 3178 3178 3178 3178 3178 3178 3178 3208 3208 3208 3208 3208 3208 3238 3238 3269 3269 3300 3300 3300 3300 3300 3333 3333 3333 3333 3365 3365 3365 0 0 0 0 1529 1529 1529 1529 1529 1536 1536 1536 1529 1529 1529 1529 1529 1529 1529 1529 1523 1523 1516 1516 1516 1509 1509 1503 1503 1503 1503 1496 1496 1496 1496 1496 1496 1496 1496 1489 1489 1483 1483 1483 1483 1483 1483 1477 1477 1477 1477 1477 1470 1470 1470 1470 1470 1470 1458 1458 1458 1458 1458 1458 1458 1458 1458 1452 1452 1452 1452 1452 1452 1452 1452 1452 1445 1445 1445 1445 1445 1445 1445 1445 1439 1439 1433 1427 1427 1427 1427 1421 1421 1421 1421 1421 1421 1421 1421 1421 1427 1427 1427 1433 1439 1433 1433 0 0 2090 2090 2103 2116 2116 2129 2129 2143 2143 2156 2156 2156 2156 2156 2156 2170 2170 2184 2184 2184 2184 2184 2198 2198 0 1307 1307 1307 1317 1317 1317 1317 1317 1322 1317 1317 1312 1312 2226 2226 2226 2212 2198 2198 2184 2184 2184 2184 2184 2184 2184 2184 2184 2184 2184 2184 2184 2184 2184 2184 2184 2184 2184 2184 2198 2198 2198 2198 2184 2184 2198 2198 2184 2184 2184 2184 2170 2170 2170 2184 2184 2184 2198 2198 2241 2241 2256 2271 2301 2286 2286 2301 2286 2286 2286 2286 2286 2286 2286 2286 2286 2286 2286 2286 2286 2301 2286 2286 2301 2301 2301 2301 2301 2301 2301 2301 2301 2286 2271 2271 2271 2271 2271 2271 2271 2271 2271 2271 2256 2256 2256 2256 2256 2256 2256 2256 2241 2241 2256 2256 2286 3092 3092 3092 3092 3092 3092 3064 3064 3064 3064 3064 3064 3064 3064 3064 3064 3064 3064 3064 3064 3064 3064 3092 3092 3092 3092 3092 3092 3092 3092 3092 3092 3092 3092 3120 3092 3064 3037 3010 3010 2984 2984 2958 2958 2958 2958 2958 2933 2933 2933 2933 2908 2883 2883 2883 2156 2156 2143 2143 2129 2129 2129 2116 2116 2116 2116 2859 2859 2883 2883 2883 2883 2883 2883 2883 2883 2883 2883 2883 2908 2908 2908 2908 2908 2933 2933 2933 2933 2933 2933 2933 2933 3365 3365 3365 3399 3399 3433 3433 3433 3468 3468 3468 3503 3503 3539 3614 3653 3653 3653 3653 3653 3614 3614 3614 4349 4349 4405 4349 4349 4349 4349 4349 4349 4349 4349 4349 4349 0 1993 1993 1993 1993 1993 1993 1993 1993 2005 2005 2005 2005 1993 1993 1993 1993 0 0 0 0 6259 6146 6146 6375 6375 6375 6375 6375 6375 6375 6146 6622 6622 6497 6497 6622 6622 6622 6497 6497 5832 5734 5734 5734 5734 5734 5734 5832 5832 6146 6375 6375 6375 6497 6497 6622 6497 6497 6497 6497 6622 6622 6622 5734 5734 5734 5734 5832 5832 6038 6146 6259 6375 6375 6497 6497 6497 6622 6622 6622 6497 6497 6622 6497 6497 6497 6497 6375 6375 6375 6375 6375 6375 6375 6497 6497 6375 6375 6259 6259 6038 6038 5933 5734 5548 5374 5291 5291 5291 5291 5374 5933 6038 6146 6146 6146 6038 5933 5933 5832 5832 5832 5832 5933 5933 6038 6038 6038 6038 6038 6038 6038 6038 6146 4241 4241 4241 4241 4241 4190 4190 4190 4190 4190 4139 4089 4041 4041 0 0 0 0 0 0 0 0 0 0 0 0
0 0 0 0 0 0 0 0 0 0 0 0 0 0 0 0 0 0 0 0 0 0 0 0 0 0 0 0 0 0 0 0 2908 2908 2933 2933 2933 2958 2958 2984 2984 2984 2984 2984 2984 3010 3010 3010 3010 3010 3010 3037 3037 3064 3064 3064 3092 3092 3092 3092 3092 3092 3092 3120 3120 3120 3120 3149 3149 3149 3149 3178 3178 3178 3178 3178 3178 3178 3208 3208 3208 3208 3208 3208 3208 3208 3208 3238 3269 3269 3269 3300 3300 3300 3333 3333 3333 3333 3365 3399 3399 0 0 0 0 1536 1536 1536 1529 1529 1536 1536 1536 1529 1529 1529 1529 1529 1529 1529 1529 1529 1529 1523 1523 1516 1516 1509 1509 1503 1503 1503 1503 1503 1496 1496 1496 1496 1496 1496 1489 1489 1489 1489 1483 1483 1483 1483 1483 1483 1477 1477 1477 1477 1477 1477 1477 1470 1470 1464 1464 1464 1458 1458 1458 1458 1458 1458 1458 1458 1458 1452 1452 1452 1452 1452 1452 1452 1452 1452 1452 1452 1445 1445 1445 1439 1439 1433 1433 1427 1427 1427 1427 1421 1421 1421 1421 1421 1421 1421 1427 1427 1427 1433 1433 1439 1439 1439 1439 2090 2090 2090 2103 2103 2103 2116 2129 2129 2129 2129 2143 2143 2143 2143 2143 2143 2143 2143 2143 2143 2156 2170 2184 2184 1302 1307 1307 1307 1307 1307 1312 1312 1312 1312 1312 1312 1307 1307 1312 1312 2212 2198 2184 2184 2170 2170 2184 2184 2170 2170 2184 2184 2184 2184 2170 2170 2170 2170 2170 2184 2184 2170 2170 2184 2170 2170 2170 2170 2184 2184 2184 2184 2184 2184 2184 2184 2170 2170 2170 2170 2170 2170 2184 2184 2198 2212 2212 2241 2271 2271 2286 2286 2286 2286 2286 2286 2286 2286 2286 2286 2286 2286 2271 2271 2286 2286 2286 2286 2286 2286 2301 2301 2286 2286 2301 2286 2286 2271 2271 2271 2271 2271 2271 2271 2271 2271 2271 2271 2256 2256 2256 2256 2256 2256 2256 2256 2256 2256 2256 2256 2286 3092 3092 3092 3092 3092 3092 3064 3064 3064 3064 3064 3064 3064 3064 3064 3064 3064 3064 3064 3092 3092 3092 3092 3092 3092 3092 3092 3092 3092 3092 3092 3092 3092 3120 3120 3092 3064 3037 3010 3010 2984 2984 2958 2958 2958 2958 2958 2958 2933 2933 2958 2908 2908 2908 2908 2156 2156 2143 2129 2129 2129 2129 2116 2116 2116 2116 2859 2883 2883 2883 2883 2883 2883 2883 2883 2883 2883 2883 2883 2908 2908 2908 2933 2933 2933 2933 2908 2908 2933 2933 2933 2933 3399 3399 3399 3399 3399 3433 3433 3468 3468 3468 3468 3503 3539 3576 3653 3653 3692 3692 3653 3653 3614 3614 3614 4349 4349 4405 4405 4349 4349 4349 4349 4349 4349 4349 4349 4349 0 1993 1993 1993 1993 1993 1993 1993 1993 2005 2005 2005 2005 1993 1993 1993 0 0 0 0 6146 6146 6259 6259 6375 6375 6375 6375 6259 6259 6375 6146 6146 6375 6497 6497 6497 6497 6497 6497 6375 5734 5734 5734 5734 5734 5734 5734 5832 5832 6146 6375 6375 6375 6497 6497 6497 6622 6622 6497 6497 6497 6622 6622 5832 5734 5734 5734 5734 6259 6259 6259 6259 6375 6375 6375 6497 6497 6622 6622 6622 6497 6497 6497 6497 6497 6497 6375 6259 6259 6259 6259 6259 6259 6375 6375 6375 6375 6375 6259 6146 6038 6038 5832 5640 5548 5374 5374 5291 5291 5291 5933 6038 6146 6259 6146 6146 6038 6038 5832 5832 5832 5832 5832 6038 6038 6038 6038 6038 6038 6146 6146 6146 6146 6146 4241 4241 4241 4241 4241 4190 4190 4190 4190 4190 4190 4190 4190 0 0 0 0 0 0 0 0 0 0 0 0 0
0 0 0 0 0 0 0 0 0 0 0 0 0 0 0 0 0 0 0 0 0 0 0 0 0 0 0 0 0 0 0 0 2908 2908 2933 2933 2933 2958 2958 2984 2984 2984 2984 2984 2984 3010 3010 3010 3010 3010 3010 3037 3037 3064 3064 3064 3092 3092 3092 3092 3092 3120 3120 3120 3120 3120 3120 3149 3149 3149 3149 3178 3178 3178 3178 3178 3208 3208 3208 3208 3208 3208 3208 3208 3208 3208 3208 3208 3269 3269 3269 3300 3300 3300 3333 3333 3365 3365 3365 3399 3433 0 0 0 0 0 1536 1536 1529 1529 1536 1536 1536 1529 1529 1529 1529 1529 1529 1536 1529 1529 1529 1529 1529 1523 1523 1516 1509 1509 1509 1503 1503 1503 1503 1503 1496 1496 1496 1496 1489 1489 1489 1489 1489 1489 1483 1483 1483 1483 1483 1477 1477 1477 1477 1477 1477 1477 1477 1464 1464 1464 1464 1464 1458 1458 1458 1458 1458 1458 1458 1452 1452 1452 1452 1452 1452 1452 1452 1452 1452 1452 1445 1445 1445 1439 1439 1433 1433 1427 1427 1427 1427 1427 1427 1421 1421 1421 1421 1421 1421 1427 1427 1433 1433 1433 1439 1439 1439 1445 2090 2090 2090 2090 2103 2103 2116 2116 2116 2116 2116 2116 2129 2129 2129 2129 2129 2129 2129 2129 2143 2156 2184 2184 0 1302 1302 1307 1302 1302 1307 1307 1307 1307 1307 1312 1307 1307 1307 1307 1307 2198 2184 2170 2170 2170 2170 2170 2170 2156 2156 2156 2156 2143 2129 2129 2143 2143 2143 2170 2170 2170 2170 2156 2156 2156 2156 2156 2156 2170 2184 2184 2184 2184 2184 2170 2170 2170 2170 2156 2156 2170 2170 2170 2184 2184 2184 2212 2241 2241 2286 2286 2286 2286 2271 2184 2184 2198 2271 2271 2286 2271 2256 2256 2271 2271 2271 2271 2271 2286 2286 2301 2286 2286 2286 2286 2286 2271 2256 2256 2256 2256 2256 2271 2271 2271 2271 2271 2271 2256 2256 2256 2256 2271 2271 2271 2256 2256 2256 2256 3092 3092 3092 3092 3092 3092 3092 3064 3064 3064 3064 3064 3064 3064 3064 3064 3064 3064 3092 3092 3092 3092 3092 3092 3092 3092 3092 3092 3092 3092 3092 3092 3092 3120 3120 3120 3092 3064 3037 3010 3010 2984 2984 2958 2958 2958 2958 2958 2958 2958 2933 2933 2933 2908 2908 2156 2156 2156 2143 2129 2129 2129 2129 2116 2116 2116 2116 2859 2859 2883 2883 2883 2883 2883 2883 2883 2883 2883 2883 2883 2908 2908 2908 2933 2933 2933 2933 2908 2908 2933 2933 2933 2933 3399 3399 3399 3399 3433 3433 3468 3468 3468 3468 3503 3539 3576 3576 3653 3692 3692 3692 3692 3653 3614 3576 3576 4349 4405 4405 4405 4405 4405 4349 4349 4349 4349 4349 4349 0 2005 2005 2005 1993 1993 1993 1993 1993 1993 2005 2005 2005 2005 1993 1981 1981 0 0 0 0 6146 6146 6146 6259 6375 6375 6375 6375 6259 6259 6146 6146 6146 6375 6497 6497 6497 6497 6497 6375 6375 5734 5734 5734 5734 5734 5734 5734 5832 5832 6259 6375 6375 6375 6497 6497 6497 6497 6497 6497 6375 6259 5933 5832 5734 5734 5734 5734 5734 6146 6146 6259 6259 6375 6375 6375 6497 6497 6622 6622 6622 6497 6497 6497 6497 6497 6497 6375 6259 6259 6259 6259 6259 6259 6375 6375 6375 6375 6375 6259 6146 6038 6038 5832 5640 5548 5374 5374 5374 5291 5291 5933 6038 6146 6259 6146 6146 6038 6038 5832 5832 5832 5832 5832 6038 6038 6038 6038 6038 6038 6146 6146 6146 6146 6146 4190 4190 4241 4241 4241 4190 4190 4190 4190 4190 4241 4190 4190 0 0 0 0 0 0 0 0 0 0 0 0 0
0 0 0 0 0 0 0 0 0 0 0 0 0 0 0 0 0 0 0 0 0 0 0 0 0 0 0 0 0 0 0 0 2908 2908 2933 2958 2958 2984 2984 2984 2984 2984 3010 3010 3010 3010 3010 3010 3010 3010 3010 3037 3037 3037 3064 3064 3092 3092 3092 3092 3092 3120 3120 3120 3120 3120 3149 3149 3149 3149 3149 3178 3178 3178 3178 3178 3208 3208 3208 3208 3208 3208 3208 3208 3178 3178 3208 3208 0 0 0 0 0 0 3333 3333 3333 3365 3365 3399 3468 0 0 0 0 1557 1536 1536 1529 1529 1536 1536 1536 1529 1529 1529 1529 1529 1529 1536 1536 1529 1529 1529 1529 1523 1523 1516 1516 1516 1509 1509 1503 1503 1503 1503 1503 1503 1503 1503 1496 1496 1496 1496 1489 1489 1483 1483 1483 1483 1483 1483 1483 1483 1483 1483 1483 1477 1477 1470 1470 1464 1464 1464 1464 1464 1464 1458 1458 1458 1458 1458 1458 1452 1452 1452 1452 1452 1452 1452 1452 1452 1452 1445 1445 1445 1439 1439 1433 1427 1427 1427 1427 1427 1427 1421 1421 1421 1421 1421 1421 1427 1427 1433 1433 1433 1439 1445 1445 1445 2078 2078 2078 2078 2090 2103 2103 2103 2090 2090 2103 2103 2103 2103 2103 2103 2103 2103 2116 2116 2129 2156 2156 1302 1302 1302 1302 1307 1302 1302 1302 1302 1307 1307 1307 1307 1302 1302 1307 1307 1307 2198 2184 2170 2156 2156 2156 2156 2170 2143 2143 2129 2129 2129 2129 2129 2129 2129 2143 2143 2143 2143 2143 2143 2129 2129 2143 2143 2143 2143 2143 2156 2156 2156 2156 2156 2156 2156 2156 2156 2143 2143 2143 2156 2170 2170 2184 2184 2184 2198 2286 2286 2286 2286 2170 2170 2170 2184 2184 2184 2184 2184 2184 2241 2241 2241 2241 2271 2271 2271 2286 2286 2286 2286 2286 2271 2271 2256 2241 2241 2241 2241 2241 2256 2256 2271 2271 2271 2256 2256 2256 2256 2256 2256 2256 2256 2256 2256 2256 2256 3092 3092 3092 3092 3092 3092 3092 3064 3064 3064 3064 3064 3064 3064 3064 3064 3064 3092 3092 3092 3092 3092 3092 3092 3092 3092 3092 3092 3092 3092 3092 3092 3120 3120 3120 3120 3092 3064 3037 3010 3010 2984 2984 2984 2958 2958 2958 2958 2958 2958 2933 2933 2933 2908 2908 2156 2156 2156 2156 2143 2143 2129 2129 2116 2116 2116 2116 2116 2116 2859 2859 2859 2859 2859 2883 2883 2883 2883 2883 2908 2908 2908 2933 2933 2933 2933 2933 2933 2933 2958 2958 2958 2958 3399 3399 3399 3399 3433 3433 3468 3468 3468 3468 3503 3539 3539 3576 3653 3692 3692 3692 3732 3692 3614 3576 3576 4349 4405 4405 4405 4405 4405 4349 4349 4349 4349 4349 4349 0 2005 2005 2005 2005 2005 1993 1993 1993 1993 2005 2005 2005 2005 1993 1981 1981 0 0 0 0 6146 6146 6146 6259 6259 6375 6259 6259 6259 6259 6146 6146 6146 6259 6375 6375 6375 6497 6375 6375 6146 5734 5734 5734 5734 5734 5734 5734 5832 6146 6259 6375 6375 6375 6375 6375 6375 6375 6375 6375 6146 6038 5832 5832 5734 5734 5832 5832 5832 6038 6038 6259 6259 6375 6497 6497 6497 6622 6622 6622 6622 6622 6622 6497 6497 6497 6375 6375 6259 6146 6146 6146 6146 6146 6259 6375 6375 6375 6375 6259 6146 6038 5933 5734 5640 5640 5460 5460 5374 5374 5548 6038 6146 6259 6259 6259 6259 6259 6259 5548 5548 5548 5734 5832 6038 6038 6038 6146 6146 6146 6146 6146 6146 6259 6259 4190 4190 4241 4241 4241 4190 4190 4190 4190 4190 4190 4190 4190 0 0 0 0 0 0 0 0 0 0 0 0 0
0 0 0 0 0 0 0 0 0 0 0 0 0 0 0 0 0 0 0 0 0 0 0 0 0 0 0 0 0 0 0 0 2908 2908 2933 2958 2958 2984 2984 2984 3010 3010 3010 3010 3010 3010 3010 3010 3010 3010 3010 3037 3037 3037 3064 3064 3092 3092 3092 3092 3120 3120 3120 3120 3120 3149 3149 3149 3149 3149 3149 3178 3178 3178 3178 3178 3208 3208 3208 3208 3238 3238 3208 3208 3178 3178 0 0 0 0 0 0 0 0 3333 3333 3333 3365 3365 3399 0 0 0 0 0 1557 1536 1536 1529 1529 1536 1536 1536 1536 1536 1536 1529 1529 1536 1536 1536 1536 1536 1536 1536 1529 1523 1516 1516 1523 1516 1509 1509 1509 1503 1503 1503 1503 1503 1503 1496 1496 1496 1496 1489 1489 1483 1483 1483 1483 1483 1483 1483 1483 1483 1483 1483 1477 1477 1470 1470 1470 1464 1464 1464 1464 1464 1464 1464 1464 1464 1458 1458 1458 1452 1452 1452 1452 1452 1452 1452 1452 1452 1452 1445 1445 1445 1439 1439 1433 1433 1433 1427 1427 1427 1421 1421 1421 1421 1421 1421 1427 1427 1433 1439 1439 1439 1445 1445 1445 2053 2053 2053 2078 2090 2090 2090 2078 2078 2078 2078 2078 2078 2090 2078 2078 2090 2090 2103 2103 2116 2116 0 1302 1302 1302 1302 1307 1302 1302 1302 1302 1302 1302 1302 1302 1302 1302 1307 1307 1307 1307 1307 2156 2156 2156 2116 2116 2129 2129 2129 2129 2129 2129 2129 2116 2116 2129 2129 2129 2129 2129 2143 2129 2129 2129 2129 2129 2129 2129 2129 2143 2143 2143 2143 2143 2143 2143 2143 2143 2143 2143 2129 2129 2129 2143 2143 2143 2129 2129 2129 2129 2129 2129 2129 2129 2143 2156 2143 2143 2156 2156 2170 2184 2170 2143 2143 2129 2116 2116 2184 2241 2256 2256 2256 2241 2241 2212 2212 2212 2212 2226 2226 2241 2256 2271 2271 2256 2256 2241 2241 2241 2241 2241 2241 2256 2256 2256 2271 3092 3092 3092 3092 3092 3092 3092 3092 3064 3064 3064 3064 3064 3064 3064 3064 3064 3064 3092 3092 3092 3092 3092 3092 3092 3092 3092 3092 3092 3092 3092 3092 3120 3120 3120 3120 3120 3092 3092 3037 3010 3010 2984 2984 2984 2984 2984 2984 2984 2958 2958 2958 2958 2958 2908 2908 2156 2156 2156 2156 2143 2143 2129 2129 2116 2116 2116 2116 2116 2103 2103 2103 2859 2859 2859 2883 2883 2883 2883 2883 2908 2908 2103 2103 2933 2958 2933 2090 2090 2078 2078 2078 2078 2078 2078 3399 3399 3399 3433 3433 3468 3468 3468 3468 3468 3503 3539 3576 3692 3692 3692 3732 3732 3732 3903 4349 4349 4349 4349 4405 4405 4349 4349 4349 4349 4349 4349 4349 4349 0 2005 2005 2005 2005 2005 1993 1993 1993 1993 2005 2005 2005 2005 2005 2005 0 0 0 0 0 6146 6146 6146 6259 6259 6375 6259 6259 6259 6259 6146 6146 6146 6259 6375 6375 6375 6497 6375 6375 6146 5832 5734 5734 5734 5734 5734 5734 5832 5832 6259 6259 6146 6146 6375 6259 6146 6146 6375 6259 6146 6038 5832 5832 5734 5734 5832 5832 5832 6038 6038 6259 6375 6375 0 0 0 0 0 0 6622 6622 6622 6497 6497 6375 6375 6259 6146 6146 6146 6146 6146 6146 6259 6375 6375 6375 6259 6146 6146 5933 5832 5734 5640 5640 5640 5640 5640 5734 5832 6038 6259 6259 6259 6259 6146 6146 6146 5548 5548 5548 5734 5832 5933 5933 6038 6038 6146 6146 6146 6146 6259 4190 4190 4190 4190 4241 4241 4190 4190 4139 4139 4190 4190 4139 4139 4089 4089 0 0 0 0 0 0 0 0 0 0 0 0
0 0 0 0 0 0 0 0 0 0 0 0 0 0 0 0 0 0 0 0 0 0 0 0 0 0 0 0 0 0 0 0 2933 2933 2958 2984 2984 2984 2984 2984 2984 2984 2984 3010 3010 3010 3010 3010 3010 3010 3010 3037 3037 3037 3064 3064 3092 3092 3092 3092 3120 3120 3120 3120 3120 3149 3149 3149 3149 3149 3149 3178 3178 3178 3178 3178 3208 3208 3208 3238 3269 3238 3238 3238 0 0 0 0 0 0 0 0 0 0 0 0 3365 3365 3365 0 0 0 0 0 0 0 1543 1536 1536 1536 1536 1536 1536 1536 1536 1536 1536 1536 1536 1536 1536 1543 1536 1536 1536 1536 1529 1523 1523 1523 1516 1509 1509 1509 1509 1503 1503 1503 1503 1503 1496 1496 1496 1496 1489 1489 1483 1483 1483 1483 1489 1483 1483 1483 1483 1483 1483 1477 1477 1470 1470 1470 1470 1464 1464 1464 1464 1464 1464 1464 1464 1464 1458 1458 1458 1458 1452 1452 1452 1452 1452 1452 1452 1452 1445 1445 1445 1445 1445 1439 1439 1439 1433 1427 1427 1427 1427 1421 1421 1421 1427 1427 1433 1439 1445 1445 1445 1445 1445 1445 2040 2040 2040 2040 2040 2040 2053 2053 2053 2053 2053 2053 2053 2065 2065 2065 2065 2078 2078 2090 2116 2116 1302 1302 1302 1302 1302 1302 1302 1302 1302 1302 1302 1302 1302 1302 1302 1302 1302 1307 1307 1307 1307 1307 2090 2090 2090 2090 2116 2116 2116 2129 2129 2116 1283 1283 1283 1288 2103 2129 2129 2129 2129 2129 2129 2129 2129 2129 2129 2129 2129 2129 2129 2129 2129 2129 2129 2129 2129 2129 2129 2129 2116 2116 2116 2116 2116 2116 2116 2116 2116 2129 2116 2116 2116 2129 2129 2129 2129 2129 2129 2129 2129 2129 2129 2129 2116 2116 2116 2116 2116 2116 2116 2129 2116 2116 2129 2129 2129 2129 2129 2116 2116 2226 2103 2103 2103 2103 2116 2143 2143 2156 2156 2170 2156 2143 2143 2156 3092 3092 3092 3092 3092 3092 3092 3092 3092 3064 3064 3092 3064 3064 3064 3092 3092 3092 3092 3092 3092 3092 3092 3092 3092 3092 3092 3092 3092 3092 3092 3092 3092 3120 3120 3120 3120 3120 3092 3064 3064 3037 3037 3010 3010 2984 2984 2984 2984 2984 2958 2958 2958 2958 2933 2933 2933 2156 2156 2156 2156 2156 2156 2143 2143 2116 2116 2116 2103 2103 2103 2103 2103 2103 2103 2103 2859 2883 2103 2103 2103 2103 2103 2103 2103 2103 2090 2090 2090 2090 2078 2078 2078 2078 2078 2078 2078 3365 3365 3399 3433 3433 3433 3468 3468 3468 3503 3539 3576 3692 3692 3732 3732 3732 3774 3903 4349 4349 4349 4349 4405 4405 4349 4349 4349 4349 4349 4349 4295 4295 4295 2005 2005 2005 2005 2005 2005 2005 2005 2005 2005 2005 2005 1993 1993 1993 0 0 0 0 0 6146 6146 6146 6259 6259 6259 6259 6259 6259 6259 6259 6259 6259 6259 6375 6497 6497 6375 6375 6259 6038 5832 5734 5734 5734 5734 5734 5734 5832 5832 6146 6146 6146 6146 6146 6146 6146 6146 6146 6146 6038 5933 5832 5832 5734 5734 5832 5832 5832 6038 6259 6259 6375 6375 0 0 0 0 0 0 0 0 0 6497 6497 6259 6259 6146 6146 6146 6146 6146 6146 6146 6259 6375 6375 6146 6146 6038 6038 5832 5734 5640 5640 5548 5548 5548 5640 5640 5832 6146 6259 6375 6375 6259 6146 6146 6146 5548 5548 5548 5734 5832 5933 5933 6038 6038 6146 6146 6146 6146 6259 4139 4139 4190 4190 4190 4190 4190 4139 4139 4139 4089 4089 4089 4139 4089 4089 0 0 0 0 0 0 0 0 0 0 0 0
0 0 0 0 0 0 0 0 0 0 0 0 0 0 0 0 0 0 0 0 0 0 0 0 0 0 0 0 0 0 0 0 2933 2933 2958 2984 2984 2984 2984 2984 2984 2984 2984 3010 3010 3010 3010 3010 3037 3037 3037 3037 3037 3064 3064 3064 3092 3092 3092 3120 3120 3120 3120 3120 3149 3149 3149 3149 3149 3149 3149 3149 3178 3178 3178 3208 3208 3208 3208 3238 3238 3238 0 0 0 0 0 0 0 0 0 0 0 0 0 0 0 0 0 0 0 0 0 0 0 0 1543 1536 1536 1536 1536 1536 1536 1536 1536 1536 1536 1536 1536 1536 1543 1543 1543 1543 1543 1543 1536 1529 1523 1523 1523 1516 1509 1509 1509 1509 1503 1503 1503 1503 1503 1496 1496 1496 1496 1489 1489 1483 1483 1489 1489 1489 1489 1483 1483 1483 1483 1483 1483 1470 1470 1470 1470 1470 1470 1464 1464 1464 1464 1464 1464 1464 1464 1458 1458 1458 1452 1452 1458 1458 1458 1458 1452 1452 1452 1452 1445 1445 1445 1439 1439 1439 1433 1433 1433 1427 1427 1427 1427 1427 1427 1433 1433 1439 1445 1445 1445 1445 1445 1445 2028 2028 2028 2016 2016 2028 2028 2028 2028 2028 2028 2040 2040 2040 2053 2053 2053 2065 2078 2078 2078 2078 1302 1302 1302 1302 1307 1302 1302 1302 1302 1302 1302 1297 1297 1302 1302 1302 1302 1307 1307 1307 1307 1307 1302 2090 2090 2090 2116 2116 2116 2116 1283 1283 1278 1278 1283 1288 1288 1288 2116 2116 2103 2103 2116 2116 2129 2129 2116 2103 1250 1250 1250 1255 2103 2116 2116 2116 2116 2116 2116 2116 2116 2103 2103 2103 2103 2090 2090 2090 2103 2116 2103 2103 2103 2116 2116 2116 2116 2116 2116 2116 2129 2129 2129 2116 2116 2116 2116 2103 2103 2103 2116 2116 2116 2116 2116 2129 2116 2116 2116 2103 2103 2090 2090 2090 2090 2090 2103 2116 2116 2129 2129 2143 2143 2129 2129 2116 2116 2116 2116 2116 2116 2116 2103 2103 2116 2116 3092 3092 3092 3092 3064 3064 3092 3092 3092 3092 3092 3092 3092 3092 3092 3092 3092 3092 3092 3092 3092 3092 3120 3120 3120 3120 3120 3120 3092 3064 3064 3064 3010 3010 3010 3010 2984 2984 2984 2984 2958 2958 2958 2958 2933 2933 2933 2156 2156 2156 2156 2156 2156 2143 2143 2116 2116 2116 2103 2103 2103 2103 2103 2103 2103 2103 2103 2116 2103 2103 2103 2103 2103 2103 2103 2103 2090 2090 2090 2090 2090 2078 2078 2078 2078 2078 2078 2078 2090 2090 2090 2090 2065 2065 2053 2053 2040 2040 2040 2040 2040 3692 3692 3732 3774 3903 3903 4349 4349 4405 4405 4405 4349 4349 4349 4349 4349 4349 4295 4295 4295 4295 2005 2005 2005 2005 2005 2005 2005 2005 2005 2005 2005 1993 1993 1993 0 0 0 0 0 6038 6038 6146 6146 6259 6259 6259 6259 6259 6259 6375 6375 6375 6375 6375 6375 6375 6375 6375 6146 6038 5832 5734 5734 5734 5734 5734 5734 5832 5832 6146 6146 6146 6146 6146 6146 6146 6146 6146 6146 6038 5933 5933 5832 5832 5832 5832 5832 6038 6146 6146 6259 6259 6259 0 0 0 0 0 0 0 0 0 0 0 6259 6259 6146 6146 6146 6146 6146 6146 6146 6259 6375 6259 6146 6038 5933 5933 5734 5640 5548 5548 5548 5548 5548 5640 5640 5640 6259 6259 6375 6375 6375 0 0 5374 5374 5374 5832 5832 5832 5933 5933 6038 6038 6146 6146 6146 4139 4139 4139 4139 4190 4190 4190 4190 4139 4139 4139 4139 4089 4089 4089 4089 4041 4041 0 0 0 0 0 0 0 0 0 0 0 0
0 0 0 0 0 0 0 0 0 0 0 0 0 0 0 0 0 0 0 0 0 0 0 0 0 0 0 0 0 0 0 0 2958 2958 2958 2984 2984 2984 2984 3010 3010 2984 2984 3010 3010 3010 3037 3037 3037 3037 3037 3037 3064 3064 3064 3092 3092 3092 3120 3120 3120 3120 3120 3149 3149 3149 3149 3149 3178 3149 3149 3149 3178 3178 3178 3208 3208 3208 3208 3238 3238 3238 3238 0 0 0 0 0 0 0 0 0 0 0 0 0 0 0 0 0 0 0 0 0 0 0 0 0 1536 1536 1536 1543 1536 1536 1536 1536 1536 1536 1536 1543 1550 1550 1550 1550 1550 1543 1536 1536 1529 1529 1529 1523 1509 1509 1509 1509 1509 1503 1503 1503 1496 1489 1489 1489 1489 1489 1483 1483 1483 1489 1489 1483 1483 1483 1483 1483 1483 1483 1483 1470 1470 1470 1470 1470 1470 1470 1464 1464 1464 1464 1464 1464 1464 1464 1458 1458 1458 1458 1458 1458 1458 1458 1458 1452 1452 1452 1452 1445 1445 1445 1445 1439 1439 1439 1433 1427 1427 1427 1427 1427 1427 1433 1439 1439 1445 1445 1445 1452 1452 1452 2005 2005 2005 2005 2005 2016 2016 2016 2016 2016 2016 2028 2028 2028 2040 2040 2053 2065 2078 2078 2078 0 1302 1302 1302 1302 1302 1302 1302 1302 1302 1297 1297 1297 1297 1302 1302 1302 1302 1307 1307 1307 1302 1302 1302 1302 1292 1292 1288 1283 1283 1278 1278 1278 1278 1278 1283 1283 1283 1278 1273 1273 1273 2103 2116 2116 1250 1250 1250 1245 1245 1250 1250 1255 1255 2090 2090 2103 2103 2103 2103 2103 2090 2090 2078 2078 2090 2078 2078 2078 2090 2103 2103 2103 2103 2103 2103 2090 2090 2090 2090 2103 2116 2116 2116 2116 2103 2103 2103 2090 2090 2090 2103 2103 2116 2116 2116 2129 2116 2116 2116 2103 2103 2090 2090 2090 2090 2090 2103 2116 2116 2116 2116 2129 2129 2129 2116 2116 2103 2103 2103 2103 2103 2103 2103 2103 2103 2116 2103 2103 3064 3064 3064 3064 3064 3064 3092 3092 3092 3092 3092 3092 3092 3092 3092 3092 3092 3092 3092 3092 3120 3120 3120 3120 3120 3120 3120 3092 3064 3064 3010 3010 3010 3010 2984 2984 2984 2984 2958 2958 2958 2933 2908 2908 2908 2156 2156 2156 2156 2156 2156 2143 2143 2116 2116 2116 2116 2116 2103 2103 2103 2103 2103 2103 2103 2116 2103 2103 2103 2103 2103 2103 2103 2103 2090 2090 2090 2090 2090 2078 2078 2078 2078 2078 2078 2078 2090 2090 2090 2090 2065 2053 2053 2053 2040 2040 2040 2040 2040 2053 3653 3692 3732 3903 3903 4349 4349 4405 4405 4405 4405 4405 4405 4405 4349 4349 4349 4349 4349 0 2005 2005 2005 2005 2005 2005 2005 2005 2005 2005 2005 1993 1993 0 0 0 0 0 0 6038 6038 6146 6146 6146 6259 6259 6259 6259 6259 6375 6375 6375 6375 6375 6375 6375 6375 6259 6038 5832 5832 5734 5734 5734 5734 5734 5832 5832 6146 6259 6146 6146 6146 6146 6146 6146 6146 6146 6146 6038 5933 5933 5832 5832 5832 5933 5933 6038 6146 6146 6259 6259 6259 6259 0 0 0 0 0 0 0 0 0 6259 6259 6259 6146 6146 6146 6146 6146 6146 6146 6259 6375 6259 6038 6038 5933 5933 5640 5640 5548 5548 5548 5548 5548 5640 5640 5832 6038 6259 6375 6375 6375 0 0 5374 5374 5374 5460 5460 5933 5933 5933 6038 6038 6146 6146 6259 4139 4139 4139 4190 4190 4190 4190 4139 4139 4089 4089 4089 4041 4041 4041 4089 4041 4041 0 0 0 0 0 0 0 0 0 0 0 0
0 0 0 0 0 0 0 0 0 0 0 0 0 0 0 0 0 0 0 0 0 0 0 0 0 0 0 0 0 0 0 0 2958 2958 2958 2984 2984 2984 2984 3010 3010 3010 3010 3010 3010 3010 3010 3037 3037 3037 3037 3037 3064 3064 3064 3092 3092 3092 3120 3120 3120 3120 3120 3149 3149 3178 3178 3208 3208 3178 3178 0 0 0 0 3208 3208 3208 3208 3238 3238 3238 3269 0 0 0 0 0 0 0 0 0 0 0 0 0 0 0 0 0 0 0 0 0 0 0 0 0 0 1543 1543 1543 1543 1536 1536 1536 1536 1536 1543 1543 1550 1557 1557 1557 1557 1550 1543 1536 1529 1529 1536 1536 1516 1516 1516 0 0 1503 1503 1503 1496 1489 1489 1489 1489 1489 1483 1483 1483 1496 1496 1483 1483 1483 1483 1483 1483 1483 1483 1470 1470 1470 1470 1470 1470 1470 1470 1470 1470 1470 1470 1470 1470 1470 1464 1464 1464 1464 1464 1458 1458 1452 1452 1452 1452 1452 1452 1445 1445 1445 1445 1445 1439 1439 1433 1433 1433 1427 1427 1427 1433 1433 1439 1439 1445 1445 1445 1452 1452 1452 1993 1993 1993 1993 1993 2005 2005 2005 2005 2016 2016 2016 2028 2028 2028 2028 2040 2053 2078 2078 2078 0 1302 1302 1302 1302 1302 1302 1302 1302 1302 1297 1297 1297 1297 1302 1302 1302 1302 1307 1307 1302 1302 1302 1302 1302 1292 1292 1288 1288 1283 1278 1278 1278 1278 1278 1278 1278 1278 1273 1273 1273 1264 1264 1259 1255 1250 1250 1250 1245 1245 1250 1250 1255 1255 1259 2078 2090 2078 2078 2065 2065 2065 2065 2065 2065 2065 2078 2078 2078 2078 2090 2090 2090 2103 2103 2090 2078 2065 2065 2065 2065 2065 2065 2065 2065 2078 2078 2078 2078 2078 2078 2090 2090 2090 2103 2103 2116 2103 2103 2103 2090 2090 2090 2090 2090 2090 2090 2090 2116 2116 2116 2116 2116 2116 2116 2103 2103 2103 2090 2090 2090 2078 2078 2090 2090 2103 2103 2103 2103 2103 2103 2103 2090 2090 2090 2090 2090 2103 2103 2103 2103 2116 2116 2116 2116 3092 3120 3092 3092 3120 3120 3120 3120 3120 3120 3120 3037 3037 3037 3037 3010 3010 3010 2984 2984 2984 2984 2958 2958 2958 2933 2908 2908 2908 2156 2156 2156 2156 2156 2156 2143 2143 2129 2129 2116 2116 2116 2103 2103 2103 2103 2103 2103 2116 2116 2103 2103 2103 2103 2103 2103 2103 2103 2090 2090 2090 2090 2090 2090 2078 2078 2078 2078 2078 2090 2090 2090 2090 2090 2065 2053 2053 2053 2053 2053 2053 2053 2053 2053 2053 2065 2053 2053 2053 2040 2040 4405 4405 4349 4349 4349 4405 4405 4405 4349 4349 4349 4349 2016 2005 2005 2005 2005 2005 2005 2005 2005 2005 2005 2005 1993 1993 0 0 0 0 0 0 0 6038 6038 6146 6146 6146 6146 6146 6146 6259 6259 6375 6259 6259 6259 6038 6038 6038 6038 6038 5832 5832 5734 5734 5734 5734 5734 5832 5832 5832 6146 6146 6146 6146 6146 6146 6038 6038 6038 6038 6038 5933 5933 5933 5933 5933 6038 6038 6038 6146 6259 6259 6259 6375 6375 0 0 0 0 0 0 0 0 0 6259 6259 6259 6146 6146 6146 6146 6146 6146 6146 6259 6259 6146 6038 6038 5933 5933 5640 5640 5548 5548 5460 5460 5460 5548 5548 5548 5734 6259 6375 6375 0 0 0 5291 5291 5374 5460 5640 5734 5832 5832 6038 6038 4139 4139 4139 4139 4139 4139 4139 4139 4139 4139 4139 4089 4089 4089 4089 4041 4041 4041 4089 4041 4041 0 0 0 0 0 0 0 0 0 0 0 0
0 0 0 0 0 0 0 0 0 0 0 0 0 0 0 0 0 0 0 0 0 0 0 0 0 0 0 0 0 0 0 0 2958 2958 2958 2984 2984 2984 2984 2984 2984 3010 3010 3010 3010 3010 3010 3010 3010 3037 3037 3037 3037 3064 3064 3064 3092 3092 3120 3120 3120 3120 3149 3178 3178 3208 3208 3208 3208 3208 0 0 0 0 0 3208 3208 3208 3238 3238 3269 3269 3269 0 0 0 0 0 0 0 0 0 0 0 0 0 0 0 0 0 0 0 0 0 0 0 0 0 0 1543 1543 1543 1543 1543 1536 1536 1543 1543 1543 1543 1550 1557 1557 1564 1564 1564 1557 1557 0 0 0 0 0 0 0 0 0 0 0 0 0 1489 1489 1483 1483 1483 1483 1483 1483 1496 1496 1496 1489 1489 1483 1483 1483 1477 1477 1470 1470 1470 1477 1477 1470 1470 1470 1470 1470 1470 1470 1470 1470 1470 1464 1464 1464 1464 1464 1458 1458 1452 1452 1452 1452 1452 1452 1452 1452 1445 1445 1445 1445 1445 1439 1433 1433 1433 1433 1433 1433 1433 1439 1439 1445 1445 1452 1452 1452 1452 1993 1993 1993 1993 1993 1993 1993 1993 1993 2005 2005 2016 2016 2016 2016 2016 2028 2040 2078 2078 2078 1302 1302 1302 1302 1307 1307 1302 1302 1302 1302 1302 1297 1297 1297 1302 1302 1302 1302 1302 1302 1302 1302 1302 1297 1297 1292 1292 1288 1288 1283 1278 1278 1278 1278 1278 1273 1273 1273 1273 1268 1268 1264 1259 1259 1255 1255 1255 1255 1250 1250 1255 1255 1255 1255 1259 2078 2090 2078 2078 2028 2028 1245 1245 1245 1245 2053 2065 2065 2078 2078 2078 2078 2078 2090 2078 2065 2065 2053 2053 2053 2053 2053 2053 2065 2065 2065 2078 2078 2078 2078 2078 2090 2090 2090 2090 2103 2103 2090 2090 2090 2078 2078 2078 2078 2078 2078 2078 2090 2103 2103 2103 2103 2103 2116 2103 2090 2090 2103 2090 2090 2078 2078 2078 2078 2090 2090 2090 2090 2090 2090 2090 2090 2078 2078 2078 2078 2078 2090 2090 2090 2090 2103 2103 2103 2103 3092 3120 3120 3092 3092 3120 3120 3120 3120 3120 3120 3010 3010 3037 3010 3010 3010 3010 3010 3010 2984 2984 2984 2958 2958 2958 2933 2933 2156 2156 2156 2156 2156 2156 2156 2143 2143 2129 2129 2129 2116 2116 2116 2116 2116 2116 2116 2116 2116 2116 2116 2116 2116 2103 2103 2103 2103 2103 2103 2090 2090 2090 2090 2090 2090 2090 2090 2090 2090 2090 2090 2090 2090 2090 2078 2078 2065 2065 2065 2065 2053 2053 2053 2053 2053 2065 2053 2053 2053 2040 2040 2053 4349 4349 4349 4349 4405 4405 4405 4405 4349 4349 4349 2016 2016 2005 2005 2005 2005 2005 2005 2005 2005 2005 2005 2005 2005 0 0 0 0 0 0 0 6038 6038 6146 6146 6146 6038 6038 6038 6146 6146 6146 6038 6038 5933 5832 5832 5933 5933 5933 5832 5832 5734 5734 5734 5734 5734 5734 5734 5734 6146 6259 6259 6259 0 6038 6038 6038 5832 5832 6038 5933 5933 5933 6038 6038 6038 6038 6146 6146 6259 6259 6259 6375 6375 0 0 0 0 0 0 0 0 0 0 6146 6146 6146 6146 6146 6146 6146 6146 6146 6259 6259 6146 6038 6038 5933 5933 5640 5548 5548 5548 5460 5460 5460 5548 5548 5548 5734 0 0 0 0 0 0 5291 5291 5374 5460 5640 5734 5832 5832 6038 6038 4139 4139 4139 4139 4190 4139 4139 4139 4139 4139 4089 4089 4089 4089 4089 4041 4041 4041 4041 4041 4041 0 0 0 0 0 0 0 0 0 0 0 0
0 0 0 0 0 0 0 0 0 0 0 0 0 0 0 0 0 0 0 0 0 0 0 0 0 0 0 0 0 0 0 0 2958 2958 2958 2984 2984 2984 2984 2984 2984 3010 3010 3010 3010 3010 3010 3010 3010 3010 3010 3010 3010 3010 3064 3064 3064 3092 3120 3120 3120 3149 3178 3208 3208 3208 3238 3238 0 0 0 0 0 0 0 3208 3208 3208 3208 3238 3238 3238 3238 0 0 0 0 0 0 0 0 0 0 0 0 0 0 0 0 0 0 0 0 0 0 0 0 0 0 1543 1543 1543 1543 1543 1536 1536 1543 1543 1543 1543 1557 1557 1564 1564 1572 1572 1579 1579 0 0 0 0 0 0 0 0 0 0 0 0 0 0 1489 1483 1483 1483 1477 1470 1470 1477 1496 1503 1489 1489 1483 1483 1477 1477 1477 1470 1470 1470 1477 1477 1470 1470 1470 1470 1470 1470 1470 1470 1470 1470 1464 1464 1464 1464 1464 1458 1458 1458 1458 1452 1452 1452 1452 1452 1452 1452 1445 1445 1445 1445 1439 1439 1439 1439 1433 1433 1439 1439 1439 1445 1445 1452 1452 1452 1452 1470 1981 1981 1981 1981 1993 1993 1993 1993 1993 1993 1993 2005 2005 1993 1993 1993 2028 2040 2040 2040 1302 1302 1302 1302 1307 1307 1307 1307 1307 1307 1307 1302 1302 1302 1302 1302 1302 1302 1302 1302 1302 1302 1297 1297 1292 1292 1288 1288 1283 1283 1283 1278 1278 1278 1278 1278 1273 1273 1273 1268 1268 1268 1264 1259 1259 1255 1255 1255 1255 1250 1250 1255 1255 1255 1255 1255 1255 1250 1250 1241 1236 1236 1236 1236 1236 1241 2053 2065 2065 2078 2078 2078 2078 2078 2078 2065 2065 2053 2053 2053 2053 2053 2053 2053 2065 2065 2065 2078 2078 2078 2065 2065 2065 2065 2065 2065 2065 2065 2053 2053 2053 2053 2053 2053 2065 2065 2065 2065 2078 2090 2090 2090 2090 2090 2103 2103 2078 2078 2065 2065 2078 2078 2065 2065 2078 2078 2078 2078 2078 2078 2078 2078 2078 2078 2078 2065 2065 2078 2078 2078 2090 2090 2090 2090 2090 2090 2090 2090 2090 3092 3092 3120 3120 3120 3149 2065 2065 2065 2065 2065 3010 3010 3010 3010 3010 2984 2984 2984 2958 2958 2933 2933 2958 2958 2156 2156 2156 2156 2156 2156 2156 2143 2143 2129 2129 2129 2129 2129 2129 2129 2129 2116 2116 2116 2116 2116 2103 2103 2116 2103 2103 2103 2103 2103 2103 2103 2103 2103 2090 2090 2090 2090 2090 2090 2090 2090 2090 2090 2090 2090 2078 2078 2078 2078 2078 2065 2065 2065 2065 2053 2053 2065 2065 2065 2065 2053 2053 2053 2040 2040 2040 2040 4405 4463 4405 4405 4405 4405 2028 2028 2016 2016 2016 2016 2016 2005 2005 2005 2005 2005 2005 2005 2005 0 0 0 0 0 0 0 0 0 0 6038 6038 6038 6038 6038 6038 6146 6146 6038 6038 5933 5832 5832 5933 5933 5933 5832 5734 5734 5734 5734 5734 5734 5734 5734 5734 0 0 0 0 0 0 5832 5734 5734 5734 5734 5734 5832 5832 5832 5933 6038 6146 6146 6259 6259 6259 6259 6259 6146 6146 6146 6146 0 0 0 5933 5933 5933 0 6146 6146 6146 6038 6038 6038 6259 6259 6259 6259 6259 6146 6038 6038 5832 5734 5548 5548 5460 5460 5460 5460 5460 5460 5460 5374 5374 0 0 0 0 0 0 0 0 0 0 5832 5832 5933 5933 0 4139 4139 4139 4139 4139 4190 4139 4139 4139 4139 4139 4089 4089 4089 4089 4089 4041 4041 4041 4041 4041 4041 0 0 0 0 0 0 0 0 0 0 0 0
0 0 0 0 0 0 0 0 0 0 0 0 0 0 0 0 0 0 0 0 0 0 0 0 0 0 0 0 0 0 0 0 2958 2958 2958 2984 2984 3010 3010 3010 3010 3010 3010 3010 3010 3010 3010 3010 3010 3010 3010 3010 3010 3010 3064 3064 3064 3092 0 0 0 0 0 0 0 0 0 0 0 0 0 0 0 0 0 3178 3178 3178 3208 3208 3238 3208 3208 0 0 0 4645 4645 4645 4708 4708 4708 0 0 0 0 0 0 0 0 0 0 0 0 0 0 0 0 0 1550 1550 1550 1550 1550 1543 1543 1550 1550 1550 1550 1557 1557 1564 1564 1572 1579 1579 1586 0 0 0 0 0 0 0 0 0 0 0 0 0 0 0 0 0 1483 1477 1470 1470 1477 1477 1503 1503 1503 1483 1483 1477 1477 1477 1470 1470 1477 1477 1477 1477 1477 1470 1470 1470 1470 1470 1470 1470 1470 1464 1464 1464 1464 1464 1458 1458 1458 1458 1452 1452 1452 1452 1452 1452 1452 1445 1445 1445 1445 1439 1439 1439 1439 1439 1439 1439 1439 1445 1445 1445 1452 1452 1452 1452 1470 1981 1981 1981 1981 1981 1981 1981 1981 1993 1993 1993 1981 1970 1959 1947 1947 1947 1959 1959 1947 0 1307 1307 1307 1307 1307 1307 1307 1307 1307 1307 1307 1302 1302 1302 1302 1302 1302 1302 1302 1302 1297 1297 1297 1292 1292 1288 1283 1283 1283 1283 1278 1278 1278 1278 1273 1273 1273 1273 1268 1268 1268 1264 1259 1259 1255 1255 1255 1255 1250 1250 1250 1250 1255 1255 1255 1250 1250 1245 1241 1236 1236 1236 1236 1236 1241 1241 1241 1241 1236 1236 1236 1232 1232 1232 1227 1227 1227 1232 1232 2053 2053 2053 2053 2065 2065 2065 2078 2078 2078 2065 2065 2065 2053 2053 2040 2040 2028 2028 2028 2040 2040 2040 2040 2040 2040 2053 2053 2065 2078 2078 2078 2078 2078 2078 2078 2053 2053 2053 2053 2065 2065 2065 2065 2065 2065 2078 2065 2065 2065 2065 2065 2065 2065 2078 2065 2065 2078 2078 2078 2078 2078 2078 2078 2078 2090 2090 2090 2090 2103 2103 2103 2065 2065 2053 2053 2053 2053 2053 2065 3010 3010 3010 3010 2984 2984 2984 2958 2958 2933 2933 2933 2933 2933 2156 2143 2143 2156 2156 2156 2156 2156 2156 2143 2143 2143 2129 2129 2129 2129 2129 2129 2129 2129 2129 2129 2103 2103 2116 2116 2116 2103 2103 2103 2103 2103 2103 2103 2103 2103 2090 2090 2090 2090 2090 2090 2090 2090 2090 2090 2078 2078 2078 2078 2078 2078 2078 2065 2065 2065 2065 2053 2053 2053 2053 2053 2053 2053 2040 2040 2040 2040 2028 2028 2040 2028 2028 2040 2028 2028 2028 2028 2028 2016 2016 2016 2016 2005 2005 2005 2005 2016 0 0 0 0 0 0 0 0 0 0 0 6038 6038 5933 5933 6038 6038 6038 6146 6038 6038 5933 5933 5933 5933 5933 5832 5832 5734 5734 5734 5734 5734 5734 5734 5734 5832 0 0 0 0 0 5832 5832 5734 5640 5640 5734 5734 5734 5734 5734 5832 6038 6146 6146 6146 6259 6259 6259 6259 6146 6146 6146 6146 0 0 5933 5933 5933 6146 6146 6146 6146 6146 6038 6038 6038 6038 6038 6259 6259 6146 6038 6038 5832 5832 5734 5548 5548 5460 5460 5460 5460 5460 5460 5460 5374 5374 0 0 0 0 0 0 0 0 0 0 0 0 0 0 0 4190 4190 4190 4139 4139 4190 4139 4139 4139 4139 4139 4139 4089 4089 4089 4089 4089 4089 4089 4089 4041 4041 0 0 0 0 0 0 0 0 0 0 0 0
