0 0 0 0 0 0 0 0 0 0 0 0 0 0 0 0 0 0 0 0 0 0 0 0 0 0 0 0 0 0 5460 4241 4190 4190 4190 4190 4190 4190 4190 4190 4190 4190 4241 4190 4139 4139 4139 3816 3816 3948 4041 4089 4295 4349 4349 4295 4241 4241 4190 4190 4190 4190 4190 4139 4139 4139 4139 4139 4139 4190 4190 4190 4190 4190 4190 4190 4190 4190 4241 4241 4295 4349 4349 5132 5132 5132 5132 4522 4463 4405 4405 4405 4405 4405 4405 4405 4405 4405 4405 4405 4405 4463 4463 4463 4522 4522 4522 4582 4582 4645 4645 4708 4708 4708 4708 4774 4774 4774 4842 4983 5056 5132 5132 5210 5210 5210 5210 5210 5210 5210 5291 5291 5291 5291 5291 5374 5374 5374 5374 5374 5374 5460 5460 5548 5548 5734 5734 5832 5832 6038 6146 6375 6497 6497 6497 6497 6497 6497 6497 6497 6497 6497 6622 6622 6622 6622 6622 6622 6622 6622 6622 6622 6622 6622 6622 6622 6622 6753 6753 6753 6753 6753 6622 6622 6622 6622 6622 6753 6753 6753 6753 6753 6889 6889 6889 7030 7030 7178 7178 7178 7332 7332 7332 7332 7492 7660 7660 7660 7332 7332 7332 7492 7492 7492 3208 3208 3208 3208 3208 3208 3208 3238 3238 3238 3238 3238 3238 3269 3269 3269 3269 3269 3269 3269 3269 3269 3269 3269 3269 3238 3238 3238 3238 3238 3238 3238 3238 3238 3238 3238 3238 3238 3238 3238 3238 3238 3238 3238 3238 3238 3238 3238 3238 3238 3238 3238 3238 3238 3238 3238 3238 3238 3238 3238 3238 3238 3238 3238 3238 3238 3238 3238 3238 3238 3208 3208 3208 3208 3208 3208 3238 3238 3238 3238 3238 3238 3238 3238 3238 3238 3238 3238 3238 3238 3238 3238 3238 3238 3238 3238 3238 3238 3238 3238 3238 3269 3269 3269 3269 3269 3269 3269 3269 4645 4522 4463 4463 4463 4463 4463 4463 4463 4522 4522 4522 4582 4582 4522 4522 4522 4463 4463 6038 6038 6038 6038 6259 6259 6259 6259 6259 6259 6375 6375 6375 6497 6753 7332 7332 7492 7492 7492 7492 7492 7492 7492 7332 7332 7332 7332 6375 6497 6497 6497 6497 6375 6375 6375 6259 6259 6259 6259 6259 6259 6259 6375 6375 6375 6497 6375 6375 6375 6375 6497 6497 6375 6375 6375 6753 6753 6753 6753 6753 6889 7030 7030 7178 7332 7332 7332 7332 7332 7332 7332 7332 7835 7835 8019 8019 6889 6889 6889 6889 6889 7178 7332 7332 7332 7332 7332 0 0 7332 7332 7332 7332 7332 4774 4774 4842 4911 4911 4983 4983 4983 4983 4911 4911 4911 4842 4842 4842 4842 4842 4774 4774 4774 4774 4774 4774 4774 4774 4774 4774 4708 4708 4645 4645 4645 4645 4645 4645 4645 4645 4582 4582 4582 4582 4582 4582 4522 4522 4522 4522 4522 4522 4522 4522 4463 4463 4405 4405 3269 3269 3269 3269 3208 3208 3178 3178 3149 3149 3120 3120 0 0 0 0 0 0 0 0 0 0 0 0 6375 6375 6259 6259 6259 6259 6259 6146 6146 6146 6146 6146 6146 6146 6146 6038 6038 6038 3732 3732 3732 3732 3732 3732 3732 3732 3732 3732 3732 3732 3732 3732 3732 3732 3732 3774 3774 3816 3774 3774 3774 3774 3732 3732 3732 3732 3732 3692 3692 3732 3732 3732 3732 3732 3732 3774 3774 3774 3774 3774 3774 3732 3732 3732 3732 3732 3732 3732 3732 3692 3692 3692 4774 4708 4645 4645 4645 4582 4522 4522 4522 4522 4463 4463 4463 4405 4405 4405 4405 4349 4295 4295 4241 4190 4190 4190 4190 4190 4190 4190 4190 4190 4190 4139 4139 4139 4139 4139 4089 4089 4089 4089 0 0 0 0 0 0 0 0 0 0 0 0
0 0 0 0 0 0 0 0 0 0 0 0 0 0 0 0 0 0 0 0 0 0 0 0 0 0 0 0 0 0 5132 5132 5132 4190 4190 4190 4190 4139 4139 4190 4190 4190 5056 5056 4983 4983 5056 3816 3816 4983 4983 4911 4582 4463 4463 4295 4241 4241 4190 4139 4139 4190 4190 4139 4139 4139 4139 4139 4139 4190 4190 4190 4190 4190 4241 4190 4190 4983 4983 4983 5056 5056 5132 5132 5132 5132 5132 5132 4463 4405 4405 4405 4405 4405 4405 4405 4405 4405 4405 4405 4405 4463 4463 4463 4522 4522 4582 4582 4582 4582 4645 4708 4708 4708 4774 4774 4774 4842 4842 4983 5056 5056 5132 5210 5210 5210 5210 5210 5291 5291 5291 5291 5291 5291 5291 5374 5374 5374 5374 5374 5374 5460 5460 5548 5640 5734 5734 5832 5832 6038 6146 6375 6497 6497 6497 6497 6622 6497 6497 6497 6497 6497 6622 6622 6622 6622 6622 6622 6622 6622 6622 6622 6622 6622 6622 6753 6753 6753 6753 6753 6753 6753 6622 6622 6622 6622 6622 6753 6753 6753 6753 6889 7030 7178 7178 7178 7178 7178 7178 7178 7332 7332 7332 7332 7492 7660 7660 7660 7492 7492 7492 7492 7660 7660 3208 3208 3208 3208 3208 3208 3208 3238 3238 3238 3238 3238 3269 3269 3269 3269 3269 3269 3269 3269 3269 3269 3269 3269 3269 3238 3238 3238 3238 3238 3238 3238 3238 3238 3238 3238 3238 3238 3238 3238 3238 3238 3238 3238 3238 3238 3238 3238 3238 3238 3238 3238 3238 3238 3238 3238 3238 3238 3238 3238 3238 3238 3238 3238 3238 3238 3238 3238 3238 3238 3208 3208 3208 3208 3238 3238 3238 3238 3238 3238 3238 3238 3238 3238 3238 3238 3238 3238 3238 3238 3238 3238 3238 3238 3238 3238 3238 3238 3238 3238 3238 3269 3269 3269 3269 3269 3269 3269 3269 4522 4522 4463 4463 4463 4463 4463 4463 4463 4522 4522 4522 4582 4582 4582 4582 4522 4522 4522 6038 6038 6038 6038 6259 6259 6259 6259 6259 6259 6375 6375 6375 6375 6753 7332 7332 7492 7492 7492 7492 7492 7492 7332 7332 7332 7332 6375 6375 6375 6375 6375 6375 6375 6375 6375 6259 6259 6259 6259 6259 6259 6259 6375 6375 6375 6375 6375 6375 6375 6375 6375 6375 6375 6375 6375 6375 6497 6497 6622 6622 6622 6753 6753 7178 7332 7332 7332 7332 7332 7332 7332 7332 7332 6259 6259 6259 6259 6889 6375 6375 6375 7178 7332 7332 0 0 0 0 0 7332 7332 7332 7492 7492 4774 4774 4842 4911 4911 4983 4983 4983 4983 4911 4911 4911 4911 4842 4842 4842 4842 4774 4774 4774 4774 4774 4774 4774 4774 4774 4774 4708 4708 4645 4645 4645 4645 4645 4645 4645 4645 4645 4645 4582 4582 4582 4582 4582 4522 4522 4522 4522 4522 4522 4463 4405 4405 4405 4405 3300 3300 3269 3269 3208 3208 3208 3208 3178 3149 3149 0 0 0 0 0 0 0 0 0 0 0 0 0 0 6375 6259 6259 6259 6259 6259 6146 6146 6146 6146 6146 6146 6146 6146 6038 6038 5933 3774 3774 3732 3732 3732 3732 3732 3732 3732 3732 3732 3732 3732 3774 3774 3732 3732 3774 3816 3816 3816 3816 3816 3816 3774 3774 3732 3692 3692 3692 3692 3732 3692 3692 3732 3732 3732 3774 3774 3774 3774 3774 3774 3732 3732 3732 3732 3732 3732 3692 3692 3692 3692 3692 4774 4708 4645 4645 4645 4582 4522 4522 4522 4522 4463 4463 4463 4405 4405 4405 4405 4349 4295 4241 4241 4190 4190 4190 4190 4190 4190 4190 4190 4190 4190 4139 4139 4139 4139 4139 4139 4139 4089 4089 0 0 0 0 0 0 0 0 0 0 0 0
0 0 0 0 0 0 0 0 0 0 0 0 0 0 0 0 0 0 0 0 0 0 0 0 0 0 0 0 0 0 5132 5132 5132 5210 4190 4190 4190 4139 4139 5132 5132 5056 5056 5056 5056 5056 5056 4983 4983 5056 5056 4983 4983 4911 4911 5056 4241 4241 4190 4139 4139 4190 4190 4139 4139 4139 4139 4139 4139 4190 4190 4190 4190 4190 4190 4241 4911 4983 4983 5056 5056 5132 5132 5132 5132 5132 5132 5132 5056 4405 4405 4463 4405 4405 4405 4405 4405 4405 4405 4405 4405 4463 4463 4463 4522 4522 4582 4582 4582 4582 4645 4708 4708 4708 4774 4774 4774 4842 4842 4983 5056 5056 5132 5210 5210 5210 5210 5210 5291 5291 5291 5291 5291 5291 5291 5374 5374 5374 5374 5374 5460 5460 5460 5548 5640 5734 5832 5832 5933 6038 6146 6375 6497 6622 6622 6622 6622 6497 6497 6497 6497 6497 6622 6622 6622 6622 6622 6622 6622 6622 6622 6622 6622 6622 6622 6753 6753 6753 6753 6753 6622 6622 6622 6622 6622 6622 6622 6753 6753 6753 6753 6889 7030 7178 7178 7178 7178 7178 7178 7178 7332 7332 7332 7332 7492 7660 7660 7660 7492 7492 7660 7660 7660 7660 3208 3208 3208 3208 3208 3208 3208 3238 3238 3238 3269 3269 3269 3269 3269 3269 3269 3269 3269 3269 3269 3269 3269 3269 3269 3238 3238 3238 3238 3238 3238 3238 3238 3238 3238 3238 3238 3238 3238 3238 3238 3238 3238 3238 3238 3238 3238 3238 3238 3238 3238 3238 3238 3238 3238 3238 3238 3238 3238 3238 3238 3238 3238 3238 3238 3238 3238 3238 3238 3238 3238 3238 3238 3238 3238 3238 3238 3238 3238 3238 3238 3238 3238 3238 3238 3238 3238 3238 3238 3238 3238 3238 3238 3238 3238 3238 3238 3238 3238 3238 3238 3269 3269 3269 3269 3269 3269 3269 3269 4645 4522 4522 4522 4463 4463 4463 4463 4463 4522 4522 4582 4582 4582 4582 4582 4522 4522 4522 6038 6038 6038 6038 6146 6259 6259 6259 6259 6259 6375 6375 6375 6375 6622 7492 7492 7492 7492 7492 7492 7492 7492 7332 7178 7178 6375 6259 6259 6375 6375 6375 6375 6375 6375 6375 6375 6259 6259 6259 6259 6259 6259 6375 6375 6375 6375 6375 6375 6375 6375 6375 6375 6375 6375 6375 6375 6375 6497 6497 6622 6622 6622 6753 7178 7178 7332 7332 7332 7332 7332 7492 7492 6146 6146 6146 6259 6259 6375 6259 6259 6259 0 0 0 0 0 0 0 0 0 0 0 0 5056 4842 4842 4842 4983 4983 4983 4983 4911 4911 4911 4911 4911 4911 4842 4842 4842 4842 4774 4774 4774 4774 4774 4774 4774 4774 4774 4774 4708 4708 4645 4645 4645 4645 4645 4645 4645 4645 4645 4645 4582 4582 4582 4582 4582 4522 4522 4522 4522 4522 4522 4463 4405 4405 4405 4405 4405 3269 3269 3269 3269 3238 3238 3208 3178 3149 3092 3092 0 0 0 0 0 0 0 0 0 0 0 0 0 0 6259 6259 6259 6259 6259 6146 6146 6146 6146 6146 6146 6146 6146 6038 6038 5933 5933 3774 3774 3732 3732 3732 3732 3732 3732 3732 3732 3732 3732 3774 3774 3732 3732 3774 3816 3816 3816 3816 3816 3816 3774 3774 3732 3692 3692 3692 3692 3732 3692 3692 3692 3732 3732 3774 3774 3774 3774 3774 3774 3732 3732 3732 3732 3732 3732 3692 3692 3692 3692 4774 4708 4645 4645 4645 4645 4582 4522 4522 4522 4522 4463 4463 4463 4405 4405 4405 4349 4349 4295 4241 4241 4190 4190 4190 4190 4190 4190 4190 4190 4190 4190 4139 4139 4139 4139 4139 4139 4139 4089 4089 0 0 0 0 0 0 0 0 0 0 0 0
0 0 0 0 0 0 0 0 0 0 0 0 0 0 0 0 0 0 0 0 0 0 0 0 0 0 0 0 0 0 5056 5056 5056 5056 5056 5056 4190 4190 5056 5056 5056 5056 5056 5056 5056 5056 5056 5056 5056 5056 5056 4983 4983 5056 5056 5056 5056 5056 4983 4190 4190 4190 4190 4139 4139 4139 4139 4139 4139 4139 4139 4139 4190 4139 4139 4241 4911 4983 5056 5056 5056 5056 5056 5132 5132 5132 5132 5056 5056 4463 4463 4463 4405 4405 4405 4405 4405 4405 4405 4405 4463 4463 4463 4463 4522 4522 4582 4582 4582 4582 4645 4708 4708 4708 4774 4774 4774 4842 4842 4911 5056 5056 5132 5210 5210 5210 5210 5210 5291 5291 5291 5291 5291 5374 5374 5374 5374 5374 5374 5374 5460 5460 5460 5548 5640 5734 5832 5832 5933 6038 6146 6375 6497 6622 6622 6622 6622 6622 6497 6497 6497 6622 6622 6622 6622 6622 6622 6622 6622 6622 6622 6622 6622 6622 6622 6753 6753 6753 6753 6753 6622 6622 6622 6622 6622 6622 6622 6753 6753 6753 6753 6889 7178 7178 7178 7178 7178 7178 7178 7332 7332 7332 7332 7332 7332 7332 7332 7332 7332 7332 7660 7660 7660 3208 3208 3208 3208 3208 3208 3208 3208 3238 3238 3238 3269 3269 3269 3269 3269 3269 3269 3269 3269 3269 3269 3269 3269 3269 3269 3238 3238 3238 3238 3238 3238 3238 3238 3238 3238 3238 3238 3238 3238 3238 3238 3238 3238 3238 3238 3238 3238 3238 3238 3238 3238 3238 3238 3238 3238 3238 3238 3238 3238 3238 3238 3238 3238 3238 3238 3238 3238 3238 3238 3238 3238 3238 3238 3238 3238 3238 3238 3238 3238 3238 3238 3238 3238 3238 3238 3238 3238 3238 3238 3238 3238 3238 3238 3238 3238 3238 3238 3238 3238 3238 3238 3269 3238 3238 3269 3269 3269 3269 3365 4645 4582 4522 4522 4463 4463 4463 4463 4522 4522 4582 4582 4582 4582 4522 4522 4522 4522 6146 6146 6146 6146 6146 6146 6259 6259 6259 6259 6259 6375 6375 6375 6375 6622 7332 7492 7492 7492 7492 7492 7492 7492 7332 7178 6375 6375 6259 6259 6259 6375 6375 6375 6375 6375 6375 6375 6375 6375 6259 6259 6259 6259 6375 6375 6375 6375 6375 6375 6375 6375 6375 6375 6375 6375 6375 6375 6375 6497 6497 6497 6497 6622 6753 7030 7178 7332 7332 7332 7332 7332 7492 7492 6146 6146 6146 6259 6259 6259 6259 6259 6259 6259 0 0 0 0 0 0 0 0 0 0 5056 5056 4842 4842 4983 4983 4983 4983 4983 4911 4911 4911 4911 4842 4842 4842 4842 4842 4842 4774 4774 4774 4774 4774 4774 4774 4774 4774 4774 4708 4708 4708 4708 4708 4645 4645 4645 4645 4645 4645 4645 4645 4645 4645 4582 4582 4582 4582 4582 4582 4582 4522 4522 4463 4463 4405 4405 4405 3269 3269 3269 3238 3238 3208 3208 3178 3120 3064 3064 3064 0 0 0 0 0 0 0 0 0 0 0 0 0 0 6259 6259 6259 6259 6146 6146 6259 6259 6146 6146 6146 6038 6038 6038 5832 5832 3774 3774 3732 3732 3732 3732 3732 3732 3732 3732 3732 3774 3774 3774 3774 3774 3816 3859 3859 3859 3859 3903 3816 3816 3816 3816 3816 3859 3692 3692 3732 3692 3692 3692 3732 3732 3774 3774 3774 3774 3774 3774 3732 3732 3732 3732 3732 3732 3732 3732 3692 3692 4774 4708 4645 4645 4645 4645 4582 4522 4522 4522 4522 4463 4463 4463 4405 4405 4405 4349 4349 4295 4241 4241 4190 4190 4190 4190 4190 4190 4190 4190 4190 4190 4190 4190 4139 4139 4139 4139 4139 4089 4089 0 0 0 0 0 0 0 0 0 0 0 0
0 0 0 0 0 0 0 0 0 0 0 0 0 0 0 0 0 0 0 0 0 0 0 0 0 0 0 0 0 0 5056 4983 4983 4911 4911 4911 4983 5056 5056 5056 5056 5056 5056 5056 5056 5056 5056 5056 5056 5056 5056 4983 4983 4983 5056 5056 5056 5056 5056 5056 4190 4190 4190 4139 4139 4139 4139 4139 4139 4139 4139 4139 4139 4139 4139 4911 4911 4983 5056 5056 5056 5056 5056 5056 5056 5132 5056 5056 5056 4522 4522 4463 4463 4463 4405 4405 4463 4463 4463 4463 4463 4463 4522 4522 4522 4582 4582 4582 4582 4582 4645 4708 4774 4774 4774 4774 4842 4842 4842 4911 4983 5056 5132 5210 5210 5210 5210 5210 5291 5291 5291 5291 5291 5374 5374 5374 5374 5374 5374 5374 5460 5460 5460 5640 5734 5734 5832 5832 5933 6146 6146 6375 6497 6497 6622 6622 6622 6622 6497 6497 6622 6622 6622 6622 6622 6622 6622 6622 6622 6622 6622 6622 6622 6622 6622 6753 6753 6753 6753 6753 6753 6753 6622 6622 6622 6622 6622 6753 6753 6753 6753 6889 7178 7178 7178 7178 7178 7178 7178 7332 7332 7332 7332 7332 7332 7332 7332 7332 7332 7332 7492 7492 7492 3208 3208 3178 3178 3208 3208 3238 3238 3238 3238 3238 3269 3269 3269 3269 3269 3269 3269 3269 3269 3269 3269 3269 3269 3269 3269 3238 3238 3238 3238 3238 3238 3238 3238 3238 3238 3238 3238 3238 3238 3238 3238 3238 3238 3238 3238 3238 3238 3238 3238 3238 3238 3238 3238 3238 3238 3238 3238 3238 3238 3238 3238 3238 3238 3238 3238 3238 3238 3238 3238 3238 3238 3238 3238 3238 3238 3238 3238 3238 3238 3238 3238 3238 3238 3238 3238 3238 3238 3238 3238 3238 3238 3238 3238 3238 3238 3238 3238 3238 3238 3238 3238 3269 3238 3238 3269 3269 3269 3333 3365 3365 4582 4522 4522 4463 4463 4463 4463 4522 4582 4582 4582 4582 4582 4522 4522 4522 4522 6146 6146 6146 6146 6146 6146 6259 6259 6259 6259 6259 6259 6375 6375 6375 6622 6753 7492 7492 7492 7492 7492 7492 7492 7332 7178 6375 6375 6259 6259 6259 6375 6375 6497 6497 6497 6497 6375 6375 6375 6375 6375 6375 6375 6375 6375 6375 6375 6375 6375 6375 6375 6375 6375 6375 6375 6497 6497 6497 6497 6497 6497 6497 6622 6753 6889 7030 7178 7332 7332 7332 7332 7492 7492 7492 6146 6146 6146 6146 6259 6259 6259 6259 6259 0 0 0 0 0 0 0 0 0 0 4983 4983 4842 4842 4983 4983 4983 4983 4983 4911 4911 4911 4911 4842 4842 4842 4842 4842 4842 4774 4774 4774 4774 4774 4774 4774 4774 4774 4774 4708 4708 4708 4708 4708 4645 4645 4645 4645 4645 4645 4645 4645 4645 4645 4582 4582 4582 4582 4582 4522 4522 4522 4522 4522 4522 4522 4522 4522 3269 3269 3269 3238 3238 3208 3208 3178 3120 3064 3064 3064 0 0 0 0 0 0 0 0 0 0 0 0 0 0 0 6375 6259 6259 6146 6146 6259 6146 6146 6146 6146 6038 6038 6038 5832 5832 3774 3732 3732 3732 3732 3732 3732 3732 3732 3774 3774 3774 3774 3816 3816 3816 3816 3859 3859 3859 3859 3903 3903 3859 3859 3859 3859 3859 3816 3816 3816 3816 3732 3732 3732 3732 3774 3774 3774 3774 3774 3732 3732 3732 3732 3732 3732 3732 3732 3732 3692 3692 4774 4708 4708 4645 4645 4645 4645 4522 4522 4522 4522 4463 4463 4463 4463 4405 4405 4405 4405 4349 4295 4241 4241 4190 4190 4190 4190 4190 4190 4190 4190 4190 4139 4139 4139 4139 4139 4139 4139 4139 4139 0 0 0 0 0 0 0 0 0 0 0 0
0 0 0 0 0 0 0 0 0 0 0 0 0 0 0 0 0 0 0 0 0 0 0 0 0 0 0 0 0 0 4774 4774 4842 4842 4842 4911 4911 4911 4911 4983 5056 4983 4983 5056 4983 4983 4983 4983 4983 4983 4983 4911 4911 4983 4983 5056 5056 5056 5056 5056 5056 4190 4190 4139 4139 4139 4139 4139 4139 4139 4139 4139 4139 4139 4139 4349 4842 4983 4983 4983 4983 4983 4983 5056 5056 5056 5056 4983 4983 4582 4522 4463 4463 4463 4463 4463 4463 4463 4463 4463 4463 4463 4522 4522 4522 4582 4582 4582 4582 4645 4645 4708 4774 4774 4774 4774 4842 4842 4842 4911 4983 5056 5132 5210 5210 5210 5291 5291 5291 5291 5291 5291 5291 5374 5374 5374 5374 5374 5374 5460 5460 5460 5548 5640 5734 5734 5832 5832 5933 6259 6259 6375 6497 6497 6622 6622 6622 6622 6622 6622 6622 6622 6622 6622 6622 6622 6622 6622 6622 6622 6622 6622 6622 6622 6622 6622 6753 6753 6753 6753 6622 6622 6622 6622 6622 6622 6622 6753 6753 6753 6889 7030 7178 7178 7178 7178 7178 7178 7178 7178 7332 7332 7332 7332 7492 7332 7332 7332 7332 7492 7492 7492 7492 3208 3208 3178 3178 3238 3238 3238 3238 3238 3269 3269 3269 3269 3269 3269 3269 3269 3269 3269 3269 3269 3269 3269 3269 3269 3269 3238 3238 3238 3238 3238 3238 3238 3238 3238 3238 3238 3238 3238 3238 3238 3238 3238 3238 3238 3238 3238 3238 3238 3238 3238 3238 3238 3238 3238 3238 3238 3238 3238 3238 3238 3238 3238 3238 3238 3238 3238 3238 3238 3238 3238 3238 3238 3238 3238 3238 3238 3238 3238 3238 3238 3238 3238 3238 3238 3238 3238 3238 3238 3238 3238 3238 3238 3238 3238 3238 3238 3238 3238 3238 3238 3238 3269 3269 3269 3269 3269 3300 3333 3365 3365 4645 4582 4582 4522 4522 4522 4522 4522 4522 4582 4582 4582 4582 4522 4522 4522 6259 6146 6146 6146 6146 6146 6146 6259 6259 6259 6259 6259 6259 6259 6375 6375 6622 6753 7492 7492 7492 7492 7492 7492 7492 7332 6497 6497 6375 6375 6375 6375 6375 6375 6497 6497 6497 6497 6497 6375 6375 6375 6375 6375 6375 6375 6375 6375 6375 6375 6375 6375 6375 6375 6375 6375 6375 6497 6497 6497 6497 6497 6497 6497 6497 6622 6889 7030 7178 7332 7332 7332 7332 7492 7492 7178 6146 6146 6146 6146 6259 6259 6259 6259 6259 0 0 0 0 0 0 0 0 0 0 4983 4983 4983 4983 4983 4983 4983 4983 4983 4911 4911 4911 4911 4842 4842 4842 4842 4842 4842 4774 4774 4774 4774 4774 4774 4774 4774 4774 4774 4774 4708 4708 4708 4708 4645 4645 4645 4645 4645 4645 4645 4645 4645 4645 4582 4582 4582 4582 4582 4522 4522 4522 4522 4522 4522 4522 4522 4522 3300 3300 3300 3269 3238 3238 3238 3178 3149 3149 0 0 0 0 0 0 0 0 0 0 0 0 0 0 0 0 0 0 0 6259 6146 6146 6146 6146 6146 6146 6146 6038 6038 6038 5933 5933 3732 3732 3732 3732 3732 3732 3732 3732 3732 3732 3732 3732 3732 3774 3774 3774 3774 3816 3859 3903 3903 3903 3903 3859 3859 3859 3732 3732 3732 3732 3732 3732 3732 3732 3732 3732 3732 3774 3774 3774 3774 3732 3732 3732 3774 3732 3732 3732 3732 3774 3774 3774 4708 4708 4645 4645 4645 4645 4645 4522 4522 4522 4522 4463 4463 4463 4463 4405 4405 4405 4405 4349 4349 4241 4241 4241 4190 4190 4190 4190 4190 4190 4190 4190 4139 4139 4139 4139 4139 4139 4139 4139 4139 0 0 0 0 0 0 0 0 0 0 0 0
0 0 0 0 0 0 0 0 0 0 0 0 0 0 0 0 0 0 0 0 0 0 0 0 0 0 0 0 0 0 4708 4708 4708 4842 4842 4842 4842 4911 4911 4911 4983 4911 4911 4911 4911 4911 4911 4911 4842 4842 4842 4842 4911 4911 4983 5056 5056 5056 5056 5056 4983 4983 4190 4139 4139 4139 4139 4139 4139 4139 4139 4139 4139 4139 4190 4295 4463 4708 4774 4774 4774 4911 4911 4983 4983 5056 4983 4911 4582 4522 4522 4463 4463 4463 4463 4463 4463 4522 4522 4522 4522 4522 4522 4522 4522 4582 4582 4582 4645 4645 4708 4708 4774 4774 4774 4842 4842 4842 4842 4911 4983 5056 5132 5210 5210 5210 5291 5291 5291 5291 5291 5291 5291 5374 5374 5374 5374 5374 5374 5374 5460 5460 5548 5640 5734 5734 5734 5832 5832 6259 6375 6497 6622 6622 6622 6622 6622 6622 6622 6622 6622 6622 6622 6622 6622 6622 6622 6622 6622 6622 6622 6622 6622 6622 6622 6622 6753 6753 6753 6753 6622 6622 6622 6622 6622 6622 6753 6753 6889 6889 7030 7030 7178 7178 7178 7178 7178 7178 7178 7178 7332 7332 7492 7492 7492 7492 7492 7492 7492 7492 7660 7660 7660 3238 3238 3208 3208 3238 3238 3238 3238 3238 3269 3269 3269 3269 3269 3269 3269 3269 3269 3269 3269 3269 3269 3269 3269 3269 3269 3238 3238 3238 3238 3238 3238 3238 3238 3238 3238 3238 3238 3238 3269 3269 3238 3238 3238 3238 3238 3269 3269 3238 3238 3238 3238 3238 3238 3238 3238 3238 3238 3238 3238 3238 3238 3238 3238 3238 3238 3238 3238 3238 3238 3238 3238 3238 3238 3238 3238 3238 3238 3238 3238 3238 3238 3238 3238 3238 3238 3238 3238 3238 3238 3238 3238 3238 3238 3238 3238 3238 3238 3238 3238 3238 3269 3269 3269 3269 3269 3333 3333 3365 3365 4645 4645 4582 4582 4522 4522 4522 4522 4522 4522 4582 4582 4582 4582 4582 4582 4582 4582 6146 6146 6146 6146 6259 6259 6259 6259 6259 6259 6259 6259 6259 6375 6375 6622 6753 7492 7492 7492 7492 7492 7492 7492 7332 6497 6497 6375 6375 6375 6375 6375 6375 6497 6497 6497 6497 6622 6375 6375 6375 6375 6375 6497 6375 6375 6375 6375 6375 6375 6375 6375 6375 6375 6497 6497 6622 6622 6622 6622 6497 6497 6497 6497 6622 6889 7178 7332 7492 7332 7332 7332 7332 7178 7178 7178 6259 6146 6146 6259 6259 6259 6259 0 0 0 0 0 0 0 0 0 0 0 5056 5056 5056 5056 5056 5056 4983 4983 4983 4911 4911 4911 4911 4911 4911 4842 4842 4842 4842 4774 4774 4774 4774 4774 4774 4774 4774 4774 4774 4774 4708 4708 4708 4708 4645 4645 4645 4645 4645 4645 4645 4645 4645 4582 4582 4582 4582 4582 4582 4522 4522 4582 4582 4582 4582 4522 4522 4522 3300 3300 3300 3269 3269 3269 3238 3208 3208 0 0 0 0 0 0 0 0 0 0 0 0 0 0 0 0 0 0 0 0 6259 6146 6146 6146 6146 6146 6146 6146 6146 6038 6038 6038 6038 3732 3732 3732 3732 3732 3732 3732 3732 3732 3732 3732 3732 3732 3774 3774 3774 3774 3816 3859 3903 3859 3859 3859 3859 3859 3732 3732 3692 3692 3732 3732 3732 3732 3732 3732 3732 3732 3774 3774 3774 3732 3732 3732 3732 3732 3732 3732 3732 3732 3774 3692 3692 4708 4708 4645 4645 4645 4645 4645 4582 4582 4522 4522 4463 4463 4463 4463 4405 4405 4405 4405 4349 4349 4295 4241 4241 4190 4190 4190 4190 4190 4190 4190 4190 4139 4139 4089 4089 4089 4089 4089 4089 4089 0 0 0 0 0 0 0 0 0 0 0 0
0 0 0 0 0 0 0 0 0 0 0 0 0 0 0 0 0 0 0 0 0 0 0 0 0 0 0 0 0 0 4645 4645 4708 4774 4774 4774 4774 4842 4842 4842 4842 4842 4842 4842 4842 4842 4842 4774 4774 4774 4774 4774 4842 4842 4842 4911 4983 4983 4983 4983 4983 4983 4190 4139 4139 4139 4139 4139 4139 4139 4139 4139 4139 4139 4190 4295 4463 4582 4645 4645 4645 4645 4645 4645 4708 4708 4645 4582 4582 4522 4463 4463 4463 4463 4463 4463 4522 4522 4522 4522 4522 4522 4522 4522 4522 4582 4582 4582 4645 4645 4708 4708 4774 4774 4774 4842 4842 4842 4842 4911 4983 5056 5132 5210 5210 5210 5291 5291 5291 5291 5291 5374 5374 5374 5374 5374 5374 5374 5374 5374 5460 5460 5548 5640 5734 5734 5734 5832 5832 6259 6375 6622 6622 6622 6622 6622 6622 6622 6622 6622 6622 6622 6622 6622 6622 6622 6622 6622 6622 6622 6622 6622 6622 6753 6753 6753 6889 6889 6889 6753 6753 6753 6753 6753 6753 6753 6753 6889 6889 6889 7030 7030 7178 7178 7178 7178 7178 7178 7332 7332 7332 7332 7492 7492 7492 7492 7492 7492 7492 7492 7492 7660 7660 3269 3269 3238 3238 3269 3238 3238 3238 3238 3269 3269 3269 3238 3238 3238 3269 3269 3269 3269 3269 3269 3269 3269 3269 3269 3269 3238 3238 3238 3238 3238 3238 3238 3238 3238 3238 3238 3238 3238 3269 3238 3238 3238 3238 3238 3238 3238 3269 3238 3238 3238 3238 3238 3238 3238 3238 3238 3238 3238 3238 3238 3238 3238 3238 3269 3238 3238 3238 3238 3238 3238 3238 3238 3238 3238 3238 3238 3238 3238 3238 3238 3238 3238 3238 3238 3238 3238 3238 3238 3238 3238 3238 3238 3238 3238 3238 3238 3238 3238 3238 3238 3269 3269 3269 3269 3300 3300 3300 3365 3365 4645 4645 4582 4582 4582 4522 4522 4522 4522 4522 4522 4582 4582 4582 4582 4582 4582 4582 6146 6146 6146 6146 6259 6259 6259 6259 6259 6259 6259 6259 6259 6375 6375 6753 7030 7332 7492 7492 7660 7492 7492 7492 7332 7178 7030 7030 6889 6889 6753 6753 6889 6889 6889 6753 6753 6889 7030 7030 6889 6889 7030 7178 7178 7178 7178 7178 7178 7178 6497 6497 6375 6375 6622 6622 6753 6753 6753 6622 6622 6622 6622 6622 6753 7030 7178 7332 7492 7332 7332 7332 7332 7178 7178 7178 7332 7178 7178 7332 7332 7332 7332 7332 7332 7332 7332 7332 7332 7332 7332 0 0 0 5056 5056 5056 5056 5056 5056 4983 4983 4983 4911 4911 4842 4842 4842 4842 4842 4842 4842 4774 4774 4774 4774 4774 4774 4774 4774 4774 4774 4708 4708 4708 4708 4708 4708 4645 4645 4582 4582 4582 4582 4582 4582 4582 4582 4582 4582 4582 4582 4582 4582 4582 4582 4582 4582 4582 4522 4522 3433 3300 3300 3300 3269 3269 3269 3238 3208 3208 0 0 0 0 0 0 0 0 0 0 0 0 0 0 0 0 0 0 0 0 6259 6259 6259 6259 6259 6146 6146 6146 6146 6038 6038 6038 3692 3692 3692 3732 3732 3732 3732 3732 3732 3732 3732 3732 3732 3732 3816 3816 3774 3774 3816 3859 3859 3859 3859 3859 3859 3859 3732 3732 3692 3692 3732 3732 3732 3732 3732 3774 3732 3732 3732 3732 3774 3732 3732 3732 3732 3732 3732 3732 3732 3732 3774 3692 3692 4708 4708 4645 4645 4645 4645 4645 4582 4582 4522 4522 4522 4463 4463 4463 4405 4405 4405 4405 4349 4349 4295 4241 4241 4241 4241 4241 4190 4190 4190 4190 4190 4139 4139 4089 4089 4089 4089 4089 4089 4089 0 0 0 0 0 0 0 0 0 0 0 0
0 0 0 0 0 0 0 0 0 0 0 0 0 0 0 0 0 0 0 0 0 0 0 0 0 0 0 0 0 0 4645 4645 4708 4708 4708 4708 4774 4774 4774 4708 4708 4708 4708 4708 4708 4708 4708 4708 4708 4708 4708 4774 4774 4774 4774 4774 4842 4842 4911 4911 4911 4983 4190 4139 4139 4139 4139 4139 4139 4139 4139 4139 4190 4190 4190 4295 4405 4522 4582 4582 4582 4582 4582 4645 4645 4645 4582 4582 4522 4522 4463 4463 4463 4463 4463 4463 4522 4522 4522 4522 4522 4522 4582 4522 4522 4582 4582 4582 4582 4645 4708 4708 4774 4774 4774 4842 4842 4842 4842 4911 4983 5056 5132 5210 5210 5210 5210 5291 5291 5291 5291 5291 5291 5374 5374 5374 5374 5374 5374 5374 5460 5460 5548 5640 5734 5734 5734 5832 5832 6259 6375 6622 6622 6622 6753 6753 6753 6753 6753 6753 6753 6753 6753 6753 6753 6753 6753 6753 6753 6622 6622 6622 6622 6889 6889 6889 6889 6889 6889 6753 6753 6753 6753 6753 6889 6889 6889 6889 6889 6889 7030 7030 7178 7178 7178 7178 7178 7332 7332 7492 7332 7332 7492 7492 7492 7492 7492 7492 7492 7492 7492 7660 7660 3269 3269 3269 3269 3269 3269 3238 3238 3238 3269 3269 3269 3238 3238 3238 3238 3238 3238 3238 3238 3269 3269 3269 3269 3269 3269 3238 3238 3238 3238 3238 3238 3238 3238 3238 3238 3238 3238 3238 3238 3238 3238 3238 3238 3238 3238 3238 3269 3238 3238 3238 3238 3238 3238 3238 3238 3238 3238 3238 3238 3238 3238 3238 3238 3238 3238 3238 3238 3238 3238 3238 3238 3238 3238 3238 3238 3238 3238 3238 3238 3238 3238 3238 3238 3238 3238 3238 3238 3238 3238 3238 3238 3238 3238 3238 3238 3238 3238 3238 3238 3269 3269 3269 3269 3269 3269 3300 3300 3365 4708 4645 4645 4582 4582 4582 4582 4582 4522 4522 4522 4522 4582 4582 4582 4582 4582 4582 4582 6259 6259 6259 6259 6259 6259 6259 6259 6259 6259 6259 6375 6375 6497 6497 6889 7178 7332 7492 7492 7660 7492 7492 7492 7332 7178 7030 7030 7030 7030 6889 6889 7178 7332 7030 7030 7030 7030 7332 7332 7178 7178 7178 7332 7332 7178 7178 7332 7332 7332 7332 7332 7332 7030 7030 7030 7030 7030 7030 6889 6753 6753 6889 7030 7030 7332 7332 7332 7492 7492 7492 7492 7332 7332 7332 7332 7332 7178 7178 7332 7332 7332 7332 7332 7332 7332 7332 7332 7332 7332 7332 7332 7332 7492 5132 5056 4983 4983 4983 4983 4983 4983 4911 4911 4842 4842 4842 4842 4842 4842 4842 4842 4774 4774 4774 4774 4774 4774 4708 4708 4774 4708 4708 4708 4708 4708 4708 4645 4645 4645 4582 4582 4582 4582 4582 4582 4582 4582 4582 4582 4582 4582 4582 4582 4582 4582 4582 4582 4582 4645 4645 3433 3300 3300 3300 3300 3300 3269 3238 3208 3208 0 0 0 0 0 0 0 0 0 0 0 0 0 0 0 0 0 0 0 0 6497 6259 6259 6259 6259 6146 6146 6146 6146 6146 6146 3692 3692 3692 3692 3692 3732 3732 3732 3732 3732 3732 3774 3732 3732 3732 3774 3774 3732 3732 3774 3816 3859 3859 3859 3859 3859 3859 3859 0 3692 3692 3732 3732 3732 3732 3732 3732 3732 3732 3732 3732 3732 3732 3732 3732 3732 3732 3732 3732 3732 3774 3774 3692 3692 3653 3653 4645 4645 4645 4645 4645 4582 4582 4582 4522 4522 4463 4463 4463 4405 4405 4405 4405 4405 4349 4295 4241 4241 4241 4241 4190 4190 4190 4190 4190 4139 4139 4089 4089 4089 4089 4089 4089 4089 4139 0 0 0 0 0 0 0 0 0 0 0 0
0 0 0 0 0 0 0 0 0 0 0 0 0 0 0 0 0 0 0 0 0 0 0 0 0 0 0 0 0 0 4645 4645 4645 4708 4708 4708 4708 4708 4645 4645 4645 4645 4645 4645 4645 4645 4645 4645 4645 4645 4645 4645 4645 4645 4645 4645 4708 4708 4774 4774 4842 4405 4190 4139 4139 4139 4139 4139 4139 4139 4139 4190 4190 4190 4190 4295 4405 4522 4582 4582 4582 4582 4582 4582 4582 4582 4582 4582 4522 4522 4463 4463 4463 4463 4463 4463 4522 4522 4522 4582 4522 4522 4582 4582 4582 4582 4582 4582 4582 4645 4708 4708 4774 4774 4774 4842 4842 4842 4911 4983 5056 5132 5132 5210 5210 5210 5210 5291 5291 5291 5291 5291 5291 5374 5374 5374 5374 5374 5374 5460 5460 5548 5548 5640 5734 5734 5734 5832 5933 6259 6497 6622 6753 6753 6753 6889 6889 6889 6889 6889 6889 6889 6753 6753 6753 6753 6753 6889 6753 6753 6622 6622 6622 6889 6889 6889 7030 7030 7030 6889 6889 6889 6889 6889 6889 7030 7030 7030 7030 7030 7030 7030 7178 7178 7178 7178 7178 7332 7332 7492 7332 7332 7492 7492 7492 7492 7332 7332 7332 7332 7332 7332 7332 3269 3269 3269 3269 3269 3269 3238 3238 3269 3269 3269 3269 3238 3238 3238 3238 3238 3238 3238 3238 3269 3269 3269 3269 3269 3269 3238 3238 3238 3238 3238 3238 3238 3238 3238 3238 3238 3238 3238 3238 3238 3238 3238 3238 3238 3238 3238 3269 3238 3238 3238 3238 3238 3238 3238 3238 3238 3238 3238 3238 3238 3238 3238 3238 3238 3238 3238 3238 3238 3238 3238 3238 3238 3238 3238 3238 3238 3238 3238 3238 3238 3238 3238 3238 3238 3238 3238 3238 3238 3238 3238 3238 3238 3238 3238 3238 3238 3238 3238 3238 3269 3269 3269 3269 3269 3269 3333 3333 3365 4645 4645 4645 4582 4582 4582 4582 4582 4582 4522 4522 4522 4582 4582 4582 4582 4582 4582 4582 6259 6259 6375 6375 6375 6375 6375 6375 6375 6375 6375 6375 6375 6497 6497 6889 7178 7332 7492 7492 7492 7660 7660 7492 7492 7332 7178 7178 7030 7030 7030 7030 7178 7332 7332 7332 7332 7332 7332 7332 7332 7332 7332 7332 7332 7332 7332 7492 7492 7492 7332 7332 7332 7332 7178 7178 7178 7178 7178 7030 6889 6889 7030 7178 7332 7332 7332 7332 7492 7492 7492 7492 7492 7492 7492 7332 7332 7332 7332 7332 7492 7492 7492 7332 7332 7492 7492 7332 7332 7332 7332 7332 7332 7332 7492 7492 4983 4983 4983 4983 4983 4911 4911 4911 4842 4842 4842 4842 4842 4842 4842 4842 4774 4774 4774 4774 4774 4774 4708 4708 4774 4708 4708 4708 4708 4645 4645 4645 4582 4582 4582 4582 4582 4582 4582 4582 4582 4582 4582 4582 4582 4582 4582 4582 4582 4582 4582 4582 4582 4645 4645 3333 3333 3333 3333 3300 3300 3300 3300 0 0 0 0 0 0 0 0 0 0 0 0 0 0 0 0 0 0 0 0 0 0 0 6375 6259 6259 6259 6146 6146 6146 6146 6146 6146 3692 3653 3653 3653 3692 3732 3692 3692 3692 3732 3732 3774 3732 3732 3732 3774 3732 3732 3732 3732 3774 3816 3816 3859 3859 3859 3859 3859 0 3692 3692 3692 3732 3732 3692 3692 3732 3732 3732 3732 3732 3732 3692 3692 3732 3732 3732 3732 3732 3732 3774 3774 3692 3692 3653 3653 4645 4645 4645 4645 4645 4645 4645 4582 4582 4522 4463 4463 4463 4405 4405 4405 4405 4405 4349 4349 4295 4241 4241 4241 4190 4190 4190 4190 4190 4139 4139 4089 4089 4089 4089 4089 4089 4089 4139 0 0 0 0 0 0 0 0 0 0 0 0
0 0 0 0 0 0 0 0 0 0 0 0 0 0 0 0 0 0 0 0 0 0 0 0 0 0 0 0 0 0 4582 4582 4645 4645 4645 4645 4645 4645 4582 4582 4582 4582 4582 4582 4645 4582 4582 4645 4582 4582 4582 4582 4582 4582 4582 4582 4582 4645 4645 4645 4582 4405 4190 4139 4139 4139 4139 4139 4139 4139 4139 4190 4190 4190 4190 4349 4405 4522 4522 4522 4582 4582 4582 4582 4582 4582 4522 4522 4522 4522 4463 4463 4463 4463 4522 4522 4522 4522 4522 4522 4582 4582 4582 4582 4582 4582 4582 4582 4645 4645 4645 4708 4774 4774 4774 4842 4842 4911 4911 5056 5056 5132 5132 5210 5210 5210 5291 5210 5210 5210 5291 5291 5291 5291 5374 5374 5374 5374 5374 5460 5460 5548 5640 5734 5734 5734 5734 5832 5933 6146 6622 6753 6753 6889 6889 7030 7030 7030 7030 7030 7030 7030 6889 6889 6889 6889 6889 6889 6889 6753 6622 6622 6753 6889 6889 6889 7030 7030 7030 6889 6889 7030 7030 7030 7030 7030 7030 7030 7030 7030 7030 7030 7178 7178 7178 7178 7178 7178 7178 7332 7332 7332 7492 7492 7332 7332 7332 7332 7332 7332 7332 7332 7332 3269 3269 3269 3269 3269 3269 3269 3269 3269 3269 3269 3269 3238 3238 3238 3269 3238 3238 3238 3238 3269 3269 3269 3269 3269 3269 3238 3238 3238 3238 3238 3238 3238 3238 3238 3238 3238 3238 3238 3238 3238 3238 3238 3238 3238 3238 3238 3269 3238 3238 3238 3238 3238 3238 3238 3238 3238 3238 3238 3238 3238 3238 3238 3238 3238 3238 3238 3238 3238 3238 3238 3238 3238 3238 3238 3238 3238 3238 3238 3238 3238 3238 3238 3238 3238 3238 3238 3238 3238 3238 3238 3238 3238 3238 3238 3238 3238 3238 3238 3238 3269 3269 3269 3269 3269 3269 3269 3300 3333 4645 4645 4645 4582 4582 4582 4582 4582 4582 4522 4522 4582 4582 4582 4582 4582 4582 4582 4582 6375 6375 6375 6375 6497 6497 6497 6375 6375 6375 6375 6375 6375 6497 6497 6753 7178 7332 7492 7492 7492 7492 7492 7492 7332 7178 7030 7030 7030 7030 7178 7178 7332 7492 7492 7492 7492 7492 7492 7492 7492 7332 7332 7492 7492 7492 7492 7492 7492 7492 7492 7332 7332 7332 7332 7178 7178 7178 7178 7178 7178 7178 7178 7332 7332 7492 7492 7492 7492 7492 7492 7332 7332 7332 7332 7332 7332 7332 7492 7492 7492 7492 7492 7492 7492 7492 7492 7332 7332 7332 7332 7332 7332 7332 7492 7492 4983 4983 4983 4983 4983 4911 4911 4911 4842 4842 4842 4842 4842 4842 4842 4842 4774 4774 4774 4774 4774 4774 4774 4774 4774 4708 4708 4708 4708 4645 4645 4645 4582 4582 4582 4582 4582 4582 4582 4582 4582 4582 4582 4582 4582 4522 4522 4582 4522 4522 4582 4582 4582 4645 4645 4645 3333 3333 3333 3333 3300 3300 3300 0 0 0 0 0 0 0 0 0 0 0 0 0 0 0 0 0 0 0 0 0 0 0 0 6259 6259 6146 6146 6146 6146 6146 6146 6146 6146 3653 3653 3653 3692 3692 3692 3692 3692 3732 3732 3732 3732 3732 3732 3732 3732 3692 3692 3732 3732 3732 3732 3859 0 0 0 3692 0 0 3692 3692 3692 3692 3692 3692 3732 3692 3692 3692 3692 3692 3692 3692 3692 3692 3692 3692 3692 3692 3732 3732 3732 3692 3692 3692 4708 4645 4645 4645 4645 4645 4645 4582 4582 4522 4463 4463 4463 4463 4405 4405 4405 4405 4405 4349 4295 4241 4241 4241 4241 4241 4190 4190 4190 4139 4139 4089 4089 4089 4041 4041 4089 4089 4089 0 0 0 0 0 0 0 0 0 0 0 0
0 0 0 0 0 0 0 0 0 0 0 0 0 0 0 0 0 0 0 0 0 0 0 0 0 0 0 0 0 0 4582 4582 4582 4582 4582 4582 4582 4582 4582 4582 4582 4582 4582 4582 4582 4582 4582 4582 4582 4582 4582 4582 4582 4522 4522 4522 4582 4582 4582 4522 4463 4463 4405 4190 4190 4190 4139 4139 4139 4139 4139 4190 4190 4190 4241 4295 4349 4463 4522 4522 4522 4522 4582 4582 4522 4522 4522 4522 4522 4463 4463 4463 4463 4463 4463 4463 4522 4522 4522 4522 4582 4582 4582 4582 4582 4582 4582 4582 4645 4645 4645 4708 4774 4774 4774 4842 4842 4911 4911 5056 5056 5056 5132 5132 5132 5210 5210 5210 5210 5210 5291 5291 5291 5291 5374 5374 5374 5374 5374 5460 5548 5548 5640 5734 5734 5734 5734 5832 5832 5933 6622 6889 6889 6889 7030 7030 7030 7030 7030 7030 7030 7030 7030 7030 7030 7030 7030 7030 7030 6889 6753 6753 7030 6889 6889 7030 7030 7030 7030 7030 7030 7030 7030 7030 7030 7030 7030 7030 7030 7030 7030 7030 7178 7178 7178 7178 7178 7178 7178 7332 7332 7332 7492 7492 7332 7332 7332 7332 7332 7332 7332 7332 7332 3269 3269 3269 3269 3269 3269 3269 3269 3269 3269 3269 3269 3238 3238 3269 3269 3269 3269 3269 3269 3269 3269 3269 3269 3269 3269 3238 3238 3238 3238 3238 3238 3238 3238 3238 3238 3238 3238 3269 3269 3238 3238 3238 3238 3238 3269 3269 3269 3238 3238 3238 3238 3238 3238 3238 3238 3238 3238 3238 3238 3238 3238 3238 3238 3238 3238 3238 3238 3238 3238 3238 3238 3238 3238 3238 3238 3238 3238 3238 3238 3238 3238 3238 3238 3238 3238 3238 3238 3238 3238 3238 3238 3238 3238 3238 3238 3238 3238 3238 3269 3269 3269 3269 3269 3269 3269 3269 3300 3333 4645 4645 4645 4582 4582 4582 4582 4582 4522 4522 4522 4582 4582 4582 4582 4582 4582 4582 4582 7332 7332 7178 7178 6889 6753 6497 6497 6375 6375 6375 6375 6375 6497 6497 6753 7178 7332 7492 7492 7492 7492 7492 7332 7332 7178 7030 7030 7178 7178 7332 7492 7492 7492 7492 7492 7492 7492 7492 7492 7492 7492 7492 7492 7492 7492 7492 7492 7492 7492 7492 7492 7492 7332 7332 7332 7332 7332 7332 7332 7332 7332 7332 7332 7332 7492 7492 7492 7492 7492 7492 7332 7332 7332 7332 7332 7332 7332 7332 7332 7492 7492 7492 7492 7492 7492 7492 7332 7332 7332 7332 7332 7332 7492 7492 7492 7492 4911 4911 4911 4911 4911 4911 4911 4842 4842 4842 4842 4842 4842 4842 4842 4842 4774 4774 4774 4774 4774 4774 4774 4708 4708 4708 4708 4645 4645 4645 4645 4645 4582 4582 4582 4582 4582 4582 4582 4582 4582 4582 4582 4582 4522 4522 4582 4522 4522 4582 4582 4582 4582 4582 4582 3365 3365 3333 3333 3300 3269 3269 0 0 0 0 0 0 0 0 0 0 0 0 0 0 0 0 0 0 0 0 0 0 0 0 6259 6259 6146 6146 6146 6146 6146 6146 6146 3653 3653 3653 3653 3692 3692 3692 3692 3692 3732 3732 3732 3692 3692 3692 3732 3692 3692 3653 3653 3692 3692 3692 3692 0 0 0 0 0 0 3692 3692 3692 3653 3653 3653 3692 3692 3692 3692 3692 3692 3653 3653 3653 3653 3614 3614 3653 3653 3692 3692 3692 3692 3653 3653 3653 3653 4645 4645 4645 4645 4645 4582 4582 4582 4463 4463 4463 4463 4405 4405 4405 4405 4405 4349 4295 4241 4241 4241 4241 4241 4190 4190 4190 4190 4139 4089 4089 4089 4041 4041 4089 4089 4089 0 0 0 0 0 0 0 0 0 0 0 0
0 0 0 0 0 0 0 0 0 0 0 0 0 0 0 0 0 0 0 0 0 0 0 0 0 0 0 0 0 0 4582 4582 4582 4582 4582 4582 4582 4582 4582 4582 4582 4582 4582 4582 4582 4582 4582 4582 4522 4522 4522 4522 4522 4522 4522 4522 4522 4582 4522 4463 4463 4405 4349 4241 4190 4190 4139 4139 4139 4139 4139 4190 4190 4190 4241 4295 4349 4405 4463 4522 4522 4522 4522 4522 4522 4522 4522 4522 4522 4463 4463 4463 4463 4463 4463 4463 4522 4522 4522 4522 4522 4582 4582 4582 4582 4582 4582 4582 4645 4645 4645 4708 4774 4774 4774 4842 4842 4911 4983 5056 5056 5056 5132 5132 5132 5210 5210 5210 5210 5291 5291 5291 5291 5291 5291 5374 5374 5374 5374 5460 5548 5548 5640 5734 5734 5734 5734 5832 5832 5933 6889 7030 7030 7030 7030 7030 7030 7030 7030 7030 7030 7030 7030 7030 7178 7178 7030 7030 7178 7030 7030 7030 7030 7030 7030 7030 7030 7178 7178 7178 7178 7178 7178 7178 7178 7178 7178 7178 7178 7178 7178 7178 7178 7178 7178 7178 7178 7178 7178 7332 7332 7332 7332 7492 7332 7332 7332 7332 7332 7332 7332 7332 7332 3269 3269 3269 3269 3269 3269 3269 3269 3269 3269 3269 3269 3269 3269 3269 3269 3269 3269 3269 3269 3269 3269 3269 3269 3269 3269 3238 3238 3238 3238 3238 3238 3238 3238 3238 3238 3238 3238 3238 3238 3238 3238 3238 3238 3238 3269 3269 3269 3238 3238 3238 3238 3238 3238 3238 3238 3238 3238 3238 3238 3238 3238 3238 3238 3238 3238 3269 3238 3238 3238 3238 3238 3238 3238 3238 3238 3238 3238 3238 3238 3238 3238 3238 3238 3238 3238 3238 3238 3238 3238 3238 3238 3238 3238 3238 3238 3238 3238 3238 3269 3269 3269 3269 3269 3269 3269 3269 3300 3300 3300 4645 4645 4582 4582 4582 4582 4582 4522 4522 4522 4582 4582 4582 4582 4582 4582 4582 4645 4645 7332 7178 7178 7030 6889 6753 6622 6497 6375 6375 6497 6497 6497 6622 6889 7178 7492 7492 7492 7492 7492 7492 7332 7178 7178 7030 7030 7178 7178 7332 7492 7492 7492 7492 7492 7492 7492 7492 7492 7492 7492 7492 7492 7492 7492 7492 7492 7492 7492 7492 7492 7492 7492 7332 7332 7332 7332 7332 7332 7332 7332 7332 7332 7332 7332 7332 7332 7492 7332 7332 7332 7332 7332 7332 7332 7332 7332 7332 7332 7332 7492 7492 7492 7492 7492 7492 7492 7332 7332 7332 7332 7492 7492 7492 7492 4911 4911 4911 4911 4911 4911 4842 4842 4842 4842 4842 4842 4842 4842 4842 4842 4842 4774 4774 4774 4774 4774 4774 4774 4708 4708 4645 4645 4645 4645 4645 4645 4645 4582 4582 4582 4582 4582 4582 4582 4582 4582 4522 4522 4582 4522 4522 4582 4522 4522 4582 4582 4582 4582 4582 4582 4582 3333 3333 3333 3300 3269 3269 0 0 0 0 0 0 0 0 0 0 0 0 0 0 0 0 0 0 0 0 0 0 0 0 0 6259 6259 6259 3503 3503 3539 3539 3539 3614 3614 3614 3614 3653 3653 3692 3692 3692 3732 3774 3732 3692 3692 3692 3692 3653 3614 3614 3614 3653 3653 3653 3692 0 0 0 0 0 0 0 3614 3576 3576 3614 3614 3653 3653 3653 3653 3653 3653 3653 3653 3614 3576 3539 3539 3539 3576 3576 3614 3614 3692 3653 3653 3653 0 3653 4645 4645 4645 4645 4582 4582 4582 4522 4463 4463 4463 4405 4405 4405 4405 4405 4405 4295 4241 4241 4241 4241 4241 4190 4190 4190 4190 4190 4089 4089 4089 4089 4089 4139 4139 4139 0 0 0 0 0 0 0 0 0 0 0 0
0 0 0 0 0 0 0 0 0 0 0 0 0 0 0 0 0 0 0 0 0 0 0 0 0 0 0 0 0 0 4582 4582 4582 4582 4522 4522 4522 4522 4522 4522 4522 4522 4522 4522 4522 4522 4522 4522 4522 4522 4463 4463 4463 4463 4463 4463 4522 4522 4463 4463 4463 4405 4349 4241 4190 4190 4190 4139 4139 4139 4139 4190 4190 4190 4241 4295 4349 4405 4463 4463 4522 4522 4522 4522 4522 4522 4522 4522 4463 4463 4463 4463 4463 4463 4463 4463 4522 4522 4522 4522 4522 4522 4582 4582 4582 4582 4582 4582 4645 4645 4645 4708 4774 4774 4774 4842 4842 4983 4983 5056 5056 5056 5132 5132 5132 5210 5210 5210 5210 5291 5291 5291 5291 5291 5291 5374 5374 5460 5460 5548 5640 5640 5640 5734 5734 5734 5734 5832 5832 5933 6889 6889 7030 7030 7030 7030 7030 7030 7030 7030 7178 7178 7178 7178 7178 7178 7178 7178 7178 7178 7030 7030 7030 7030 7030 7178 7178 7178 7178 7178 7178 7178 7178 7178 7178 7178 7178 7178 7178 7178 7178 7178 7178 7178 7178 7178 7178 7178 7178 7332 7332 7332 7332 7492 7492 7492 7492 7332 7332 7332 7332 7332 7332 3269 3269 3269 3269 3269 3269 3269 3269 3269 3269 3269 3269 3269 3269 3269 3269 3269 3269 3269 3269 3269 3269 3269 3269 3269 3269 3269 3238 3238 3238 3238 3238 3238 3238 3238 3238 3238 3238 3238 3238 3238 3238 3238 3238 3238 3269 3238 3238 3238 3238 3238 3238 3238 3238 3238 3238 3238 3238 3238 3238 3238 3269 3238 3238 3238 3269 3269 3269 3238 3238 3238 3238 3238 3238 3238 3238 3238 3238 3238 3238 3238 3238 3238 3238 3238 3238 3238 3238 3238 3238 3238 3238 3238 3238 3238 3238 3238 3238 3238 3238 3238 3269 3269 3269 3269 3269 3269 3269 3269 3269 4645 4645 4582 4582 4582 4582 4582 4522 4522 4522 4582 4582 4582 4582 4582 4645 4645 4645 4645 7492 7332 7332 7332 7178 7178 6889 6622 6497 6497 6497 6622 6622 6889 7178 7492 7492 7492 7492 7492 7492 7492 7332 7178 7178 7030 7030 7332 7332 7492 7492 7492 7492 7492 7492 7492 7492 7492 7492 7492 7492 7492 7492 7492 7492 7492 7492 7492 7492 7492 7492 7492 7492 7492 7492 7332 7332 7332 7332 7332 7332 7332 7332 7332 7332 7332 7332 7492 7332 7332 7332 7332 7332 7332 7178 7178 7178 7178 7332 7332 7332 7492 7492 7492 7492 7492 7492 7492 7492 7492 7492 7492 7492 7492 7492 4911 4911 4911 4911 4911 4842 4842 4842 4842 4842 4842 4842 4842 4842 4842 4842 4774 4774 4774 4774 4774 4774 4774 4774 4708 4708 4645 4645 4645 4645 4645 4645 4645 4582 4582 4582 4582 4582 4582 4582 4582 4522 4522 4522 4582 4582 4582 4582 4522 4522 4582 4582 4582 4582 4582 4582 3333 3333 3333 3300 3300 3269 3269 3269 0 0 0 0 0 0 0 0 0 0 0 0 0 0 0 0 0 0 0 0 0 0 0 0 6259 6259 6259 3503 3503 3503 3539 3539 3576 3576 3614 3614 3653 3653 3692 3692 3692 3468 3468 3468 3692 3692 3692 3692 3539 3539 3576 3576 3576 3614 3576 3576 0 0 0 0 0 0 0 3576 3539 3539 3539 3576 3653 3653 3653 3653 3653 3653 3653 3653 3539 3539 3468 3468 3503 3503 3503 3503 3503 3503 3539 3539 3433 0 0 0 0 4645 4645 4645 4645 4645 4582 4522 4522 4463 4405 4405 4405 4405 4405 4405 0 0 0 0 4241 4241 4241 4241 4190 4190 4190 4089 4089 4089 4089 4089 4139 4190 4190 0 0 0 0 0 0 0 0 0 0 0 0
0 0 0 0 0 0 0 0 0 0 0 0 0 0 0 0 0 0 0 0 0 0 0 0 0 0 0 0 0 0 4582 4522 4522 4522 4522 4463 4463 4463 4463 4463 4463 4463 4463 4463 4463 4463 4463 4463 4463 4463 4463 4463 4463 4463 4463 4463 4522 4522 4463 4463 4463 4405 4349 4241 4190 4190 4190 4190 4139 4139 4139 4190 4190 4190 4295 4295 4349 4405 4463 4463 4463 4522 4522 4522 4522 4522 4522 4522 4463 4463 4463 4463 4463 4463 4463 4463 4463 4463 4522 4522 4522 4522 4522 4582 4582 4582 4582 4645 4645 4645 4645 4708 4774 4774 4774 4842 4842 4911 5056 5056 5056 5056 5056 5056 5132 5210 5210 5210 5210 5210 5291 5291 5291 5291 5291 5374 5374 5460 5548 5640 5734 5734 5734 5734 5734 5734 5832 5832 5832 5933 6889 6889 7030 7030 7030 7030 7030 7030 7030 7030 7030 7030 7178 7178 7178 7178 7178 7178 7178 7030 7030 7030 7030 7030 7030 7030 7178 7178 7178 7332 7332 7332 7178 7178 7178 7178 7178 7030 7030 7030 7030 7178 7178 7178 7178 7178 7178 7178 7332 7332 7332 7332 7332 7332 7492 7492 7492 7332 7332 7332 7332 7332 7332 3269 3269 3269 3269 3269 3269 3269 3269 3269 3269 3269 3269 3269 3269 3269 3269 3269 3269 3269 3269 3269 3269 3269 3269 3269 3269 3269 3238 3238 3238 3238 3238 3238 3238 3238 3238 3238 3238 3238 3238 3238 3238 3238 3238 3238 3238 3238 3238 3238 3238 3238 3238 3238 3238 3238 3238 3238 3238 3238 3238 3238 3269 3269 3269 3269 3269 3269 3269 3269 3238 3238 3238 3238 3238 3238 3238 3238 3238 3238 3238 3238 3238 3238 3238 3238 3238 3238 3238 3238 3238 3238 3238 3238 3238 3238 3238 3238 3238 3238 3238 3238 3269 3269 3269 3269 3269 3269 3269 3269 3269 4645 4645 4582 4582 4582 4582 4582 4522 4522 4522 4582 4582 4582 4582 4582 4645 4645 4645 7492 7492 7492 7492 7332 7332 7178 7178 6753 6497 6497 6497 6622 6622 7030 7178 7492 7492 7492 7492 7492 7492 7492 7492 7332 7178 7178 7178 7332 7332 7492 7492 7492 7492 7492 7492 7492 7492 7492 7492 7492 7492 7492 7492 7492 7492 7492 7492 7492 7492 7492 7492 7492 7492 7492 7492 7332 7332 7332 7332 7332 7178 7178 7332 7332 7332 7492 7492 7492 7332 7332 7332 7332 7332 7332 7178 7178 7178 7178 7332 7332 7332 7332 7492 7492 7492 7492 7332 7332 7332 7492 7492 7492 7492 7492 7492 4911 4911 4911 4911 4911 4842 4842 4842 4842 4842 4842 4842 4842 4842 4842 4842 4774 4774 4774 4774 4774 4774 4774 4774 4708 4708 4645 4645 4645 4645 4645 4645 4582 4582 4582 4582 4582 4582 4582 4582 4582 4522 4522 4522 4582 4582 4582 4582 4522 4522 4582 4582 4582 4522 4522 4522 3333 3333 3333 3300 3269 3269 3269 3238 3238 0 0 0 0 0 0 0 0 0 0 0 0 0 0 0 0 0 0 0 0 0 0 0 0 0 3399 3399 3468 3503 3503 3503 3539 3576 3576 3576 3614 3614 3433 3433 3433 3468 3468 3468 3503 3503 3503 3539 3539 3539 3539 3539 3576 3614 3576 3576 0 0 0 0 0 0 0 3539 3433 3433 3539 3576 0 0 0 3653 3576 3539 3539 3468 3433 3433 3433 3433 3468 3468 3468 3468 3468 3468 3433 3433 3433 3399 3399 0 0 3365 3365 3365 3468 3468 3468 3468 3503 3503 3365 3365 3365 3365 3365 3365 3365 0 0 0 0 0 0 0 0 0 0 0 0 0 4190 4190 4190 4241 0 0 0 0 0 0 0 0 0 0 0 0 0
0 0 0 0 0 0 0 0 0 0 0 0 0 0 0 0 0 0 0 0 0 0 0 0 0 0 0 0 0 0 0 4522 4522 4522 4522 4463 4463 4463 4463 4405 4405 4405 4405 4463 4463 4405 4405 4405 4463 4463 4463 4463 4463 4405 4405 4463 4463 4463 4463 4463 4405 4405 4349 4241 4241 4241 4190 4190 4190 4190 4190 4190 4241 4241 4295 4295 4349 4349 4405 4463 4463 4463 4463 4463 4463 4522 4463 4463 4463 4463 4463 4522 4463 4463 4463 4463 4463 4463 4522 4522 4522 4522 4522 4582 4582 4582 4582 4645 4645 4708 4708 4708 4774 4774 4774 4842 4842 4842 4983 5056 5056 5056 5056 5056 5056 5132 5132 5210 5210 5210 5291 5291 5291 5291 5291 5374 5374 5460 5548 5640 5734 5734 5734 5734 5734 5734 5832 5832 5832 5933 6259 6259 6889 6889 6889 6889 7030 7030 7030 7030 7030 7030 7178 7178 7178 7178 7178 7178 7178 7030 7030 7030 7030 7030 7030 7030 7178 7332 7332 7332 7178 7178 7332 7178 7178 7178 7178 7030 7030 7030 7030 7030 7030 7030 7030 7030 7030 7178 7178 7178 7178 7332 7332 7332 7332 7332 7332 7332 7332 7332 7332 7332 7332 3269 3269 3269 3269 3269 3269 3269 3269 3300 3269 3269 3269 3269 3269 3269 3269 3269 3269 3269 3269 3269 3269 3269 3269 3269 3269 3269 3238 3238 3238 3238 3238 3238 3238 3238 3238 3238 3238 3238 3238 3238 3238 3238 3238 3238 3238 3238 3238 3238 3238 3238 3238 3238 3238 3238 3238 3238 3238 3238 3238 3238 3269 3269 3269 3269 3269 3269 3269 3269 3238 3238 3238 3238 3238 3238 3238 3238 3238 3238 3238 3238 3238 3238 3238 3238 3238 3238 3238 3238 3238 3238 3238 3238 3238 3238 3238 3238 3238 3238 3238 3238 3269 3269 3269 3269 3269 3269 3269 3269 3269 4645 4645 4582 4582 4582 4582 4582 4582 4582 4582 4582 4582 4582 4582 4582 4645 4645 4708 7492 7492 7492 7492 7332 7332 7332 7178 6889 6753 6622 6622 6622 6622 6889 7030 7492 7492 7492 7492 7492 7492 7492 7332 7332 7332 7332 7332 7332 7492 7492 7492 7492 7492 7492 7660 7660 7660 7492 7492 7492 7492 7492 7492 7492 7492 7492 7660 7660 7492 7492 7492 7492 7492 7492 7492 7492 7332 7332 7332 7332 7178 7178 7332 7332 7332 7492 7492 7492 7492 7332 7332 7332 7332 7332 7332 7332 7332 7332 7332 7332 7332 7332 7492 7492 7492 7492 7332 7332 7332 7492 7492 7492 7492 7492 4983 4911 4911 4911 4911 4911 4842 4842 4842 4842 4842 4842 4842 4842 4842 4842 4842 4774 4774 4774 4774 4774 4774 4774 4774 4708 4708 4645 4645 4645 4645 4645 4645 4582 4582 4582 4582 4582 4582 4582 4582 4582 4522 4522 4522 4522 4582 4522 4522 4522 4522 4522 4522 4522 4463 4349 4349 3333 3333 3300 3300 3269 3269 3269 3238 3238 3269 0 0 0 0 0 0 0 0 0 0 0 0 0 0 0 0 0 0 0 0 0 0 0 0 3399 3399 3468 3468 3468 3468 3539 3576 3576 3576 3614 3614 3433 3433 3433 3468 3468 3468 3503 3503 3503 3503 3468 3468 3539 3539 3539 3433 3433 0 0 0 0 0 0 0 0 3503 3433 3433 3433 0 0 0 0 0 3539 3503 3503 3433 3433 3399 3399 3433 3433 3433 3433 3433 3433 3433 3399 3399 3399 3399 3399 3433 3365 3365 3365 3365 3468 3468 3468 3468 3503 3503 3365 3365 3365 3365 3365 3365 3365 0 0 0 0 0 0 0 0 0 0 0 0 0 0 0 0 0 0 0 0 0 0 0 0 0 0 0 0 0 0
0 0 0 0 0 0 0 0 0 0 0 0 0 0 0 0 0 0 0 0 0 0 0 0 0 0 0 0 0 0 0 4463 4463 4522 4522 4463 4405 4405 4405 4405 4405 4405 4405 4405 4405 4405 4405 4405 4405 4405 4405 4405 4405 4405 4405 4405 4405 4405 4463 4463 4405 4405 4349 4295 4241 4241 4190 4190 4190 4190 4190 4190 4241 4295 4295 4295 4295 4349 4349 4405 4405 4405 4463 4463 4463 4463 4463 4463 4463 4463 4463 4522 4522 4522 4463 4463 4522 4522 4522 4522 4522 4522 4522 4582 4582 4582 4582 4645 4645 4708 4708 4708 4774 4774 4774 4774 4774 4842 4983 4983 5056 5056 5056 5056 5056 5132 5132 5210 5210 5210 5291 5291 5291 5291 5291 5374 5374 5460 5548 5640 5734 5734 5734 5832 5832 5832 5832 5832 5832 5832 5832 6146 6889 6889 6889 6889 6889 6889 7030 7030 7030 7030 7178 7178 7178 7178 7178 7178 7178 7030 7030 7030 7030 7030 7030 7030 7178 7332 7332 7332 7178 7178 7332 7178 7178 7178 7030 7030 7030 7030 7030 7030 7030 7030 7030 7030 7030 7030 7178 7178 7178 7178 7178 7332 7178 7178 7332 7332 7332 7332 7332 7332 7332 3269 3269 3269 3269 3269 3269 3269 3269 3300 3269 3269 3269 3269 3269 3269 3269 3269 3269 3269 3269 3269 3269 3269 3269 3269 3269 3238 3238 3238 3238 3238 3238 3238 3238 3238 3238 3238 3238 3238 3238 3238 3238 3238 3238 3238 3238 3238 3238 3238 3238 3238 3238 3238 3238 3238 3238 3238 3238 3238 3238 3238 3269 3269 3269 3269 3269 3269 3269 3269 3238 3238 3238 3238 3238 3238 3238 3238 3238 3238 3269 3269 3269 3269 3238 3238 3269 3269 3238 3238 3238 3238 3238 3238 3238 3238 3238 3238 3238 3238 3238 3238 3269 3269 3269 3269 3269 3269 3269 3269 3269 4645 4645 4582 4582 4582 4582 4582 4582 4582 4582 4582 4582 4582 4582 4582 4645 4645 7492 7492 7492 7492 7492 7492 7332 7332 7178 6889 6622 6497 6497 6622 6622 6889 7030 7332 7492 7492 7492 7492 7492 7492 7332 7178 7178 7332 7332 7332 7492 7492 7492 7492 7492 7492 7660 7660 7660 7660 7660 7492 7492 7492 7492 7492 7660 7660 7660 7660 7660 7660 7492 7492 7492 7492 7492 7492 7492 7332 7332 7332 7178 7178 7332 7332 7332 7492 7492 7492 7332 7332 7332 7332 7178 7178 7332 7332 7332 7332 7332 7332 7492 7492 7492 7492 7492 7332 7332 7332 7332 7332 7332 7332 7332 7332 4983 4983 4911 4911 4911 4911 4911 4842 4842 4842 4842 4842 4842 4842 4842 4842 4842 4774 4774 4774 4774 4774 4774 4774 4774 4708 4708 4708 4708 4645 4645 4645 4645 4582 4582 4582 4582 4582 4582 4582 4582 4582 4522 4522 4522 4522 4582 4522 4522 4522 4522 4522 4522 4522 4463 4349 4349 3333 3333 3300 3300 3300 3300 3300 3269 3269 3269 0 0 0 0 0 0 0 0 0 0 0 0 0 0 0 0 0 0 0 0 0 0 0 0 3333 3333 3399 3433 3433 3399 3399 3503 3539 3539 3539 3539 3399 3399 3399 3433 3433 3468 3468 3503 3503 3468 3468 3468 3503 3503 3433 3433 3433 0 0 0 0 0 0 0 0 3503 3433 3433 3433 0 0 0 0 0 3539 3503 3503 3399 3399 3399 3399 3399 3399 3399 3433 3433 3433 3433 3399 3399 3399 3399 3433 3433 3300 3300 3300 3365 3365 3468 3468 3468 3503 3503 3468 3433 3365 3365 3365 3365 3365 0 0 0 0 0 0 0 0 0 0 0 0 0 0 0 0 0 0 0 0 0 0 0 0 0 0 0 0 0 0
0 0 0 0 0 0 0 0 0 0 0 0 0 0 0 0 0 0 0 0 0 0 0 0 0 0 0 0 0 0 0 4405 4405 4463 4463 4463 4405 4405 4405 4405 4405 4405 4405 4405 4405 4405 4405 4405 4405 4405 4405 4405 4405 4405 4405 4405 4405 4405 4405 4463 4463 4405 4405 4295 4295 4241 4241 4241 4190 4190 4190 4190 4241 4241 4295 4295 4295 4349 4349 4349 4405 4405 4405 4463 4463 4463 4463 4463 4463 4463 4522 4522 4522 4522 4522 4522 4522 4522 4522 4522 4522 4522 4522 4582 4582 4582 4582 4645 4645 4708 4708 4708 4774 4774 4774 4774 4774 4842 4983 4983 5056 5056 5056 5056 5056 5132 5132 5291 5291 5291 5291 5291 5291 5291 5291 5374 5374 5460 5548 5734 5734 5734 5734 5832 5832 5832 5832 5832 5832 5832 5832 6146 6889 6889 6889 6889 6889 6889 7030 7030 7030 7030 7178 7178 7178 7178 7178 7178 7178 7030 7030 7030 7178 7178 7178 7178 7178 7332 7332 7332 7332 7332 7332 7178 7178 7178 7030 7030 7030 7178 7030 7030 7030 7030 7030 7030 7030 7030 7178 7178 7178 7178 7178 7332 7178 7178 7332 7492 7492 7332 7332 7332 7332 3208 3208 3238 3269 3269 3269 3269 3269 3300 3300 3300 3300 3269 3269 3269 3300 3300 3269 3269 3269 3269 3269 3269 3269 3269 3269 3238 3238 3238 3238 3238 3238 3238 3238 3238 3238 3238 3238 3238 3238 3238 3238 3238 3238 3238 3238 3238 3238 3238 3269 3269 3269 3238 3238 3238 3238 3238 3238 3269 3238 3238 3269 3269 3269 3269 3269 3269 3269 3269 3238 3238 3238 3238 3238 3238 3238 3238 3238 3238 3269 3269 3269 3269 3269 3269 3269 3269 3269 3269 3238 3238 3238 3238 3238 3238 3238 3238 3238 3238 3269 3269 3269 3269 3269 3269 3269 3269 3269 3269 3269 4645 4645 4582 4582 4582 4582 4582 4582 4582 4582 4582 4582 4582 4582 4582 4645 4645 4774 7492 7492 7492 7492 7492 7332 7332 7178 6889 6622 6497 6497 6497 6497 6889 7030 7332 7492 7492 7492 7492 7492 7492 7332 7178 7178 7332 7332 7332 7492 7492 7492 7492 7660 7660 7660 7660 7660 7660 7660 7660 7660 7660 7660 7660 7660 7660 7660 7660 7660 7660 7660 7660 7492 7492 7492 7492 7492 7492 7332 7332 7178 7178 7332 7332 7332 7492 7492 7492 7332 7332 7332 7332 7178 7178 7332 7332 7332 7332 7332 7332 7492 7492 7492 7492 7492 7332 7332 7332 7332 7332 7332 7332 7332 7332 5056 4983 4983 4983 4911 4911 4911 4911 4842 4842 4842 4842 4842 4842 4842 4842 4842 4774 4774 4774 4774 4774 4708 4708 4774 4708 4708 4645 4645 4645 4645 4645 4645 4582 4582 4582 4582 4582 4582 4582 4582 4582 4582 4582 4582 4582 4582 4582 4522 4522 4522 4522 4522 4522 4463 4349 4349 3333 3333 3333 3333 3300 3300 3300 3269 3269 3269 0 0 0 0 0 3300 3300 3269 3269 0 0 0 0 0 0 0 0 0 0 0 0 0 0 0 3300 3300 3300 3300 3333 3333 3300 3300 3539 3539 3539 3365 3365 3365 3365 3399 3399 3433 3433 3468 3468 3433 3433 3468 3468 3433 3399 3333 3333 3300 3300 0 0 0 0 0 0 0 0 0 0 0 0 0 0 0 0 0 3399 3399 3399 3399 3399 3399 3399 3399 3399 3399 3399 3433 3399 3399 3399 3399 3433 3433 3269 3269 3269 3269 3269 3468 3468 3468 3503 3503 3468 3433 3365 3365 3365 3365 0 0 0 0 0 0 0 0 0 0 0 0 0 0 0 0 0 0 0 0 0 0 0 0 0 0 0 0 0 0 0
0 0 0 0 0 0 0 0 0 0 0 0 0 0 0 0 0 0 0 0 0 0 0 0 0 0 0 0 0 0 0 4405 4405 4463 4463 4463 4405 4405 4405 4405 4405 4405 4405 4405 4405 4405 4405 4405 4405 4405 4405 4405 4405 4405 4405 4405 4405 4405 4405 4405 4405 4405 4405 4295 4295 4241 4241 4241 4190 4190 4190 4190 4241 4241 4295 4295 4295 4295 4349 4349 4349 4349 4405 4405 4405 4405 4463 4463 4463 4522 4522 4522 4522 4522 4522 4522 4522 4522 4522 4522 4522 4522 4522 4582 4582 4582 4645 4645 4645 4708 4708 4708 4774 4774 4774 4774 4842 4842 4983 4983 4983 5056 5056 5056 5056 5132 5210 5210 5291 5291 5291 5291 5291 5291 5291 5374 5374 5460 5640 5734 5734 5832 5832 5832 5832 5832 5832 5832 5832 5734 5734 7030 7030 6753 6753 6753 6889 6889 6889 6889 7030 7030 7030 7178 7178 7178 7178 7178 7178 7030 7030 7030 7178 7178 7178 7178 7178 7332 7332 7332 7332 7332 7332 7178 7178 7030 7030 7030 7030 7030 6889 6889 6889 6889 7030 7030 7030 7030 7178 7178 7178 7178 7332 7332 7332 7332 7332 7492 7492 7332 7332 3149 3149 3178 3208 3238 3238 3238 3269 3269 3269 3300 3269 3269 3300 3269 3269 3269 3300 3300 3300 3300 3300 3300 3269 3269 3269 3269 3269 3238 3238 3238 3238 3238 3238 3238 3238 3238 3238 3238 3238 3238 3238 3238 3238 3238 3238 3238 3238 3238 3269 3269 3269 3269 3269 3269 3269 3269 3269 3238 3238 3269 3269 3269 3269 3238 3238 3238 3238 3238 3238 3238 3238 3238 3238 3238 3238 3238 3238 3238 3238 3238 3269 3269 3269 3269 3269 3269 3269 3269 3269 3269 3269 3238 3238 3238 3238 3238 3269 3269 3269 3269 3269 3269 3269 3269 3269 3269 3269 3269 3269 3269 4708 4645 4645 4582 4582 4582 4582 4582 4582 4582 4582 4582 4582 4582 4582 4582 4645 4645 4774 7492 7492 7492 7492 7492 7332 7332 7030 6753 6497 6497 6497 6497 6497 6889 7030 7332 7492 7492 7492 7492 7492 7492 7332 7332 7332 7332 7332 7332 7492 7492 7492 7660 7660 7660 7660 7660 7660 7835 7660 7660 7660 7660 7660 7660 7660 7660 7660 7660 7660 7660 7492 7492 7492 7492 7492 7492 7492 7492 7332 7332 7178 7178 7178 7178 7332 7492 7492 7492 7332 7332 7332 7332 7332 7332 7332 7332 7332 7332 7332 7332 7492 7492 7492 7492 7492 7492 7332 7332 7332 7332 7332 7332 7332 7332 5056 4983 4983 4983 4911 4911 4911 4911 4911 4911 4842 4842 4842 4842 4842 4842 4842 4774 4774 4774 4774 4774 4708 4708 4774 4708 4708 4645 4645 4645 4645 4582 4582 4582 4582 4582 4582 4582 4582 4582 4582 4582 4582 4582 4582 4582 4582 4582 4522 4522 4522 4582 4582 4522 4463 4405 4405 3333 3333 3333 3333 3333 3333 3300 3269 3269 3269 0 0 0 0 0 3300 3269 3269 3269 3238 3238 0 0 0 0 0 0 0 0 0 0 0 0 0 3300 3300 3269 3269 3300 3333 3300 3300 3300 3300 3333 3365 3333 3333 3333 3399 3399 3399 3433 3433 3433 3433 3433 3433 3433 3399 3333 3300 3300 3238 3238 3269 0 0 0 0 3399 3399 3399 0 0 0 0 0 0 0 0 0 3269 3269 3300 3333 3365 3365 3365 3365 3365 3365 3399 3399 3365 3365 3365 3365 3365 3238 3238 3238 3238 3238 3238 3365 3365 3365 3365 3399 3365 3365 3365 3365 3365 3269 3238 3238 3238 0 0 0 0 0 0 0 0 0 0 0 0 0 0 0 0 0 0 0 0 0 0 0 0 0 0 0 0
0 0 0 0 0 0 0 0 0 0 0 0 0 0 0 0 0 0 0 0 0 0 0 0 0 0 0 0 0 0 0 4405 4405 4463 4463 4463 4405 4405 4405 4405 4405 4405 4405 4405 4405 4405 4405 4405 4405 4405 4405 4405 4405 4405 4405 4405 4405 4405 4405 4405 4405 4405 4405 4295 4295 4241 4241 4241 4241 4241 4241 4241 4241 4295 4295 4295 4295 4295 4349 4349 4349 4349 4405 4405 4405 4405 4463 4463 4463 4463 4522 4522 4522 4522 4522 4522 4522 4522 4522 4522 4522 4522 4522 4522 4582 4582 4645 4645 4708 4708 4708 4774 4774 4774 4842 4842 4842 4842 4911 4911 4983 4983 5056 5056 5132 5132 5210 5210 5291 5291 5291 5291 5291 5291 5291 5374 5374 5460 5640 5640 5734 5734 5832 5832 5832 5832 5832 5832 5832 5734 5734 5832 6622 6622 6622 6622 6622 6753 6753 6889 6889 6889 7030 7030 7178 7178 7030 7030 7030 7030 7030 7178 7178 7332 0 0 0 7492 7332 7332 7332 7178 7178 7030 7030 7030 7030 6889 6889 7030 6889 6889 6889 6889 7030 7030 7030 7030 7030 7030 7178 7492 7332 7332 7332 7332 7332 2143 2143 2143 2129 2129 2143 2143 2143 3238 3238 3238 3269 3269 3269 3269 3269 3269 3269 3269 3269 3269 3269 3300 3300 3300 3300 3300 3269 3269 3269 3269 3269 3238 3238 3238 3238 3238 3238 3238 3238 3238 3238 3238 3238 3269 3269 3238 3238 3238 3238 3269 3269 3269 3269 3269 3269 3269 3269 3269 3269 3269 3269 3269 3269 3269 3269 3269 3269 3238 3238 3238 3238 3238 3238 3238 3238 3269 3238 3238 3238 3238 3238 3238 3238 3238 3269 3269 3269 3269 3269 3269 3269 3269 3269 3269 3269 3238 3238 3238 3238 3238 3269 3269 3269 3269 3269 3269 3269 3269 3269 3269 3269 3269 3269 3269 4708 4708 4645 4582 4582 4582 4582 4582 4582 4582 4582 4582 4582 4582 4582 4582 4645 4645 4774 7492 7492 7492 7492 7492 7332 7178 6889 6622 6375 6375 6375 6375 6497 6753 7030 7178 7492 7492 7492 7492 7492 7492 7332 7332 7332 7332 7332 7332 7492 7492 7492 7660 7660 7660 7660 7660 7660 7660 7660 7660 7660 7660 7492 7492 7660 7660 7660 7660 7660 7492 7492 7492 7492 7492 7492 7492 7492 7492 7332 7332 7178 7178 7178 7178 7332 7492 7492 7492 7332 7332 7332 7332 7332 7332 7332 7332 7332 7332 7492 7492 7492 7492 7492 7492 7492 7492 7332 7332 7332 7332 7332 7332 7332 7332 5056 5056 4983 4983 4983 4911 4911 4911 4911 4911 4842 4842 4842 4842 4842 4842 4842 4774 4774 4774 4774 4774 4708 4708 4708 4708 4708 4645 4645 4645 4645 4582 4582 4582 4582 4582 4582 4582 4582 4582 4582 4582 4582 4582 4582 4582 4582 4582 4522 4522 4582 4582 4582 4522 4522 4463 4463 3333 3333 3333 3333 3333 3333 3300 3269 3269 0 0 0 0 3269 3269 3269 3269 3269 3269 3238 3238 0 0 0 0 0 0 0 0 0 0 0 0 0 0 3238 3238 3238 3300 3300 3300 3300 3300 3300 3333 3333 3333 3300 3300 3399 3365 3365 3399 3433 3433 3399 3399 3399 3365 3333 3300 3269 3269 3238 3238 3238 0 0 0 0 3399 3365 3365 3399 0 0 0 0 0 0 3208 3208 3238 3269 3300 3300 3300 3333 3333 3333 3333 3365 3365 3399 3365 3365 3365 3365 3149 3149 3208 3238 3208 3208 3208 3208 3238 3238 3365 3333 3300 3269 3269 3269 3238 3238 3208 3208 3149 3149 3149 3149 3178 0 0 0 0 0 0 0 0 0 0 0 0 0 0 0 0 0 0 0 0 0 0 0 0
0 0 0 0 0 0 0 0 0 0 0 0 0 0 0 0 0 0 0 0 0 0 0 0 0 0 0 0 0 0 0 4405 4405 4463 4463 4463 4405 4405 4405 4349 4349 4349 4349 4405 4405 4405 4405 4405 4405 4405 4405 4405 4405 4405 4405 4405 4405 4405 4405 4405 4405 4405 4349 4295 4295 4241 4190 4190 4190 4241 4241 4241 4241 4295 4295 4295 4295 4349 4349 4349 4405 4405 4405 4405 4405 4405 4463 4463 4463 4463 4522 4522 4522 4522 4522 4522 4522 4522 4522 4522 4522 4522 4522 4522 4582 4582 4645 4645 4708 4708 4708 4774 4774 4774 4774 4774 4842 4842 4842 4911 4911 4911 4983 4983 4983 5291 5291 5291 5291 5291 5291 5291 5291 5291 5291 5374 5374 5460 5548 5640 5734 5734 5832 5832 5832 5832 5832 5832 5832 5734 5734 5832 6038 6497 6497 6622 6622 6622 6622 6753 6753 6753 6889 7030 7178 7030 7030 7030 7030 7030 7030 0 0 0 0 0 0 0 7332 7332 7332 7178 7178 7030 7030 7030 7030 6889 6889 6622 2156 2143 2143 2156 6889 6889 7030 7030 7030 7030 7178 7332 7492 7492 2129 2129 2129 2129 2129 2129 2129 2129 2143 2143 2143 2143 2143 2156 2156 3269 3269 3269 2184 2184 2184 3269 3269 3269 3269 3300 3300 3300 3300 3300 3300 3300 3300 3300 3269 3238 3238 3238 3238 3238 3238 3238 3238 3238 3238 3238 3269 3269 3269 3238 3238 3238 3238 3269 3269 3269 3269 3269 3269 3269 3269 3269 3269 3269 3269 3269 3269 3269 3269 3269 3269 3238 3238 3238 3238 3238 3238 3238 3238 3238 3238 3238 3238 3238 3238 3238 3238 3238 3269 3269 3269 3269 3269 3269 3269 3269 3269 3269 3269 3238 3238 3238 3238 3269 3269 3269 3269 3269 3269 3269 3269 3269 3269 3269 3269 3269 3269 3269 4645 4645 4645 4582 4582 4582 4582 4582 4582 4582 4582 4582 4582 4582 4582 4582 4582 4645 4708 7492 7492 7492 7492 7332 7332 6889 6622 6497 6375 6375 6375 6375 6375 6622 6889 7178 7492 7492 7492 7492 7492 7332 7332 7332 7332 7332 7332 7332 7332 7492 7492 7492 7492 7492 7660 7660 7660 7660 7660 7660 7660 7492 7492 7492 7660 7660 7660 7660 7660 7492 7492 7492 7492 7492 7492 7492 7492 7492 7332 7332 7332 7332 7332 7332 7332 7492 7492 7492 7332 7332 7332 7332 7332 7332 7332 7492 7492 7492 7492 7492 7492 7492 7492 7492 7492 7492 7492 7332 7332 7332 7332 7332 7332 7332 5056 5056 5056 4983 4983 4983 4911 4911 4911 4911 4842 4842 4842 4842 4842 4842 4842 4774 4774 4774 4774 4774 4708 4708 4708 4708 4708 4645 4645 4645 4645 4582 4582 4582 4582 4582 4582 4582 4582 4582 4582 4582 4582 4582 4582 4582 4582 4582 4522 4522 4582 4582 4582 4522 4522 4522 4522 3333 3333 3333 3333 3333 3333 3333 3269 3269 0 0 0 3269 3238 3238 3269 3269 3269 3269 3269 3269 3269 0 0 0 0 0 0 0 0 0 0 0 0 0 3208 3208 3208 3208 3269 3269 3269 3269 3300 3300 3300 3300 3269 3269 3269 3365 3365 3399 3433 3433 3365 3365 3365 3365 3333 3269 3269 3208 3208 3208 3178 3178 3178 3178 3178 3208 3269 3333 3399 0 0 0 0 0 0 3208 3208 3238 3269 3300 3300 3300 3300 3300 3300 3300 3300 3333 3365 3149 3149 3120 3120 3149 3149 3208 3208 3178 3178 3178 3178 3208 3208 3238 3333 3238 3238 3238 3208 3178 3178 3149 3149 3120 3120 3120 3149 3149 3149 0 0 0 0 0 0 0 0 0 0 0 0 0 0 0 0 0 0 0 0 0 0 0
0 0 0 0 0 0 0 0 0 0 0 0 0 0 0 0 0 0 0 0 0 0 0 0 0 0 0 0 0 0 0 4405 4405 4463 4463 4463 4463 4405 4405 4349 4349 4349 4349 4349 4349 4349 4405 4405 4349 4349 4405 4405 4405 4405 4405 4405 4405 4405 4405 4405 4405 4405 4349 4295 4295 4241 4190 4190 4190 4241 4241 4241 4241 4295 4295 4295 4295 4349 4349 4405 4405 4405 4405 4405 4405 4405 4405 4405 4463 4522 4522 4522 4522 4522 4522 4522 4522 4522 4522 4522 4522 4522 4522 4522 4582 4582 4645 4645 4645 4708 4708 4774 4774 4774 4774 4774 4842 4842 4842 4842 4842 4842 4911 4911 0 5291 5291 5291 5291 5291 5291 5291 5291 5291 5374 5374 5374 5460 5548 5640 5734 5734 5832 5832 5832 5832 5832 5832 5832 5734 5734 5832 6038 6146 6375 6497 6622 6622 6622 6622 6622 6622 6889 0 7030 7030 7030 7030 7030 0 0 0 0 0 0 0 0 0 0 0 0 0 0 3178 3178 2129 7030 7030 7030 2129 2129 2129 2143 2143 2143 2156 7030 7030 7178 7178 7178 7332 7332 2156 2129 2129 2129 2129 2129 2129 2143 2143 2143 2143 2143 2143 2143 2156 2156 2156 2156 2156 2170 2170 2184 2184 2184 2184 2184 2184 2184 3300 3300 3300 3300 3300 3300 2156 2156 2156 3238 3238 3238 3238 3238 3238 3238 3238 3238 3238 3269 3269 3269 3238 3238 3269 3269 3269 3269 3269 3269 3269 3269 3269 2129 2129 2129 2129 2129 2143 3269 3269 3269 3269 3269 3238 3238 3238 3238 3238 3238 3238 3238 3238 3238 3238 3238 3238 3238 3238 3238 3238 3269 3269 3269 3269 3269 3269 3269 3269 3269 3269 3269 3238 3238 3269 3269 3269 3269 3269 3269 3269 3269 3269 3269 3269 3269 3300 3300 3300 3300 0 4708 4645 4645 4582 4582 4582 4582 4582 4582 4582 4582 4582 4582 4582 4582 4582 4582 4582 4708 7492 7492 7492 7492 7332 7178 6889 6622 6497 6375 6375 6375 6375 6375 6622 6889 7178 7492 7492 7492 7332 7332 7178 7178 7178 7178 7178 7178 7030 7030 7178 7332 7492 7492 7492 7660 7660 7660 7835 7660 7660 7492 7492 7492 7492 7660 7492 7492 7492 7660 7492 7492 7332 7332 7332 7492 7492 7492 7492 7492 7332 7332 7332 7332 7332 7492 7492 7492 7492 7492 7492 7332 7332 7332 7492 7492 7660 7492 7492 7492 7492 7492 7492 7492 7492 7492 7492 7492 7332 7332 7332 7332 7332 7332 7332 5056 5056 5056 5056 4983 4983 4983 4911 4911 4911 4911 4842 4842 4842 4842 4842 4842 4774 4774 4774 4774 4774 4708 4708 4708 4708 4708 4708 4645 4645 4645 4582 4582 4582 4582 4582 4582 4582 4582 4582 4582 4582 4582 4582 4582 4582 4582 4522 4522 4522 4522 4582 4582 4582 4522 4522 4522 4522 3333 3333 3333 3333 3333 3333 3269 3269 0 0 0 3269 3238 3238 3269 3269 3269 3269 3269 3269 3269 3269 0 0 0 0 0 0 0 0 0 0 3149 3149 3149 3149 3178 3178 3208 3238 3238 3269 3300 3300 3300 3300 3269 3269 3269 3120 3149 3178 3269 3269 3269 3269 3269 3269 3269 3238 3238 3208 3208 3208 3149 3149 3149 3149 3178 3208 3238 3300 0 0 0 0 0 0 0 3208 3208 3238 3238 3269 3269 3269 3269 3300 3238 3238 3238 3238 3178 3120 3120 3120 3120 3120 3149 3149 3178 3178 3149 3149 3149 3178 3149 3149 3149 3238 3208 3208 3178 3149 3149 3149 3120 3120 3120 3120 3120 3149 3149 3149 3149 3178 0 0 0 0 0 0 0 0 0 0 0 0 0 0 0 0 0 0 0 0
0 0 0 0 0 0 0 0 0 0 0 0 0 0 0 0 0 0 0 0 0 0 0 0 0 0 0 0 0 0 0 4405 4405 4463 4463 4463 4463 4405 4405 4405 4405 4349 4349 4349 4349 4349 4405 4405 4349 4349 4405 4405 4405 4405 4405 4405 4405 4405 4405 4405 4405 4405 4349 4295 4295 4241 4241 4241 4241 4241 4241 4241 4241 4295 4295 4295 4295 4349 4349 4405 4405 4405 4405 4405 4405 4405 4405 4405 4463 4522 4522 4522 4522 4522 4522 4522 4522 4522 4522 4522 4522 4522 4522 4522 4582 4582 4645 4645 4645 4708 4708 4774 4774 4774 4774 4774 4842 4842 4842 4842 4842 4842 4842 4842 0 5374 5374 5291 5291 5291 5291 5291 5291 5291 5374 5374 5460 5460 5548 5640 5734 5734 5832 5832 5832 5832 5832 5832 5832 5734 5734 5832 6038 6146 6146 6497 6497 6622 6622 6622 6622 6622 0 0 0 7030 7030 7030 0 0 0 0 0 0 0 0 0 0 0 0 0 0 0 0 0 0 2129 2129 2129 2129 2129 2129 2143 2143 2143 2156 2143 2143 2156 2156 2184 2170 2156 2156 2143 2129 2129 2129 2143 2143 2143 2143 2156 2156 2156 2156 2156 2156 2156 2156 2156 2156 2170 2170 2184 2184 2184 2156 2156 2156 2156 2156 2156 2156 2184 3333 3333 2156 2156 2156 2156 3269 2170 2170 2170 2170 2170 2170 2170 3238 3269 3269 3269 3269 3269 3269 3269 3269 3269 3269 3269 3269 3269 2116 2116 2129 2129 2129 2129 2143 2156 2170 3269 3269 3269 3238 3238 3238 3238 3238 3238 3238 3238 3238 3238 3238 3238 3238 3238 3238 3238 3238 3269 3269 3269 3269 3269 3269 3269 3238 3238 3269 3238 3238 3238 3238 3238 3269 3269 3269 3269 3269 3269 3269 3269 3269 3269 3269 3300 3300 3365 0 4708 4708 4708 4582 4582 4582 4582 4582 4582 4582 4582 4582 4582 4582 4582 4582 4582 4582 4708 7492 7492 7492 7332 7332 7178 6889 6497 6497 6375 6375 6375 6375 6375 7332 7332 7492 7492 7492 2170 2170 2170 7178 7178 7178 7178 7178 2170 2170 2170 7178 2212 2212 2226 2226 7660 7660 7835 7835 7492 7492 7492 7492 2129 2129 7492 7332 7332 7492 7660 7492 7492 7332 7332 7332 7492 7492 7492 7492 7492 7492 7332 7332 7332 7332 7492 7660 7660 7660 7492 7492 7332 7332 7492 7492 7492 7660 7492 7492 7492 7492 7492 7492 7492 7492 7492 7492 7492 7332 7332 7332 7332 7332 7332 5132 5056 5056 5056 5056 4983 4983 4983 4983 4911 4911 4911 4842 4842 4842 4842 4842 4842 4774 4774 4774 4774 4774 4708 4708 4708 4708 4708 4708 4645 4645 4645 4582 4582 4582 4582 4582 4582 4582 4582 4582 4582 4582 4582 4582 4582 4582 4582 4522 4522 4522 4522 4582 4582 4582 4582 4582 4582 4582 3365 3333 3333 3365 3365 3365 3300 3300 0 0 0 3269 3238 3238 3238 3238 3269 3269 3269 3269 3208 3208 3178 3178 3149 3149 3149 3149 3149 3149 3149 3149 3149 3120 3120 3149 3149 3178 3178 3238 3238 3269 3269 3269 3269 3269 3064 3064 3120 3120 3149 3178 3149 3149 3208 3178 3178 3269 3269 3238 3208 3178 3178 3178 3149 3149 3149 3149 3149 3178 3208 3238 0 0 0 0 0 0 3238 3208 3208 3238 3238 3269 3269 3208 3208 3269 3238 3208 3178 3178 3149 3120 3120 3120 3092 3092 3092 3092 3149 3120 3120 3120 3120 3149 3120 3120 3120 3120 3120 3149 3120 3120 3120 3120 3120 3092 3092 3092 3092 3120 3120 3149 3149 3178 3178 0 0 0 0 0 0 0 0 0 0 0 0 0 0 0 0 0 0 0
0 0 0 0 0 0 0 0 0 0 0 0 0 0 0 0 0 0 0 0 0 0 0 0 0 0 0 0 0 0 0 4405 4405 4405 4463 4463 4463 4405 4405 4405 4405 4349 4349 4349 4349 4349 4405 4405 4349 4349 4405 4405 4405 4405 4405 4405 4405 4405 4405 4405 4405 4405 4405 4295 4295 4295 4241 4241 4241 4241 4241 4241 4295 4295 4295 4295 4349 4349 4349 4405 4405 4405 4405 4405 4405 4405 4405 4405 4463 4463 4463 4522 4522 4522 4522 4522 4463 4463 4522 4522 4522 4522 4522 4522 4582 4582 4645 4645 4645 4708 4708 4774 4774 4774 4842 4842 4842 4842 4842 4842 4842 4842 4842 4842 0 5374 5374 5374 5291 5291 5291 5291 5374 5374 5374 5374 5460 5460 5548 5640 5734 5734 5832 5832 5832 5832 5832 5832 5832 5734 5734 5734 6038 6146 6146 6497 6497 6622 6622 6497 6497 6622 0 0 0 0 0 0 0 0 0 0 0 0 0 0 0 0 0 0 0 0 0 3178 3178 3178 2129 2129 2129 2129 2129 2143 2143 2143 2143 2143 2143 2143 2143 2143 2156 2156 2143 2143 2143 2143 2129 2129 2143 2143 2143 2143 2156 2156 2156 2156 2156 2156 2156 2156 2156 2156 2156 2170 2170 2170 2156 2156 2156 2156 2156 2156 2156 2156 2170 2170 2170 2156 2156 2156 2156 2156 2156 2170 2170 2170 2170 2170 2170 2170 2170 2170 2170 3269 3269 3269 3269 3269 3300 3300 3333 3333 2143 2116 2116 2129 2129 2129 2143 2143 2156 2170 3269 3269 3269 3238 3238 3238 3238 3238 3238 3238 3238 3238 3238 3238 3238 3238 3269 3238 3238 3238 3238 3238 3238 3238 3238 3238 3269 3238 3238 3238 3238 3238 3238 3238 3238 3269 3238 3238 3269 3269 3269 3269 3269 3269 3269 3269 3300 3300 3365 3365 4708 4708 4708 4582 4582 4582 4582 4582 4582 4645 4582 4582 4582 4582 4582 4582 4582 4582 4582 2156 2156 2156 2156 2156 2156 2156 6497 6497 6375 6375 6375 6375 6375 6375 7492 7492 2170 2170 2170 2170 2170 2156 2156 2156 2156 2156 2156 2170 2170 2184 2184 2184 2198 2198 2198 2170 2156 2156 2156 2143 2143 2129 2129 2129 7178 7332 7332 7492 7660 7332 7332 7332 7332 7332 7492 7492 7492 7492 7492 7492 7332 7178 7178 7332 7492 7660 7660 7660 7492 7492 7492 7492 7492 7660 7660 7660 7492 7492 7492 7332 7332 7492 7492 7492 7492 7492 7492 7492 7332 7332 7332 7332 5210 5132 5056 5056 5056 5056 5056 4983 4983 4983 4983 4983 4911 4842 4842 4842 4842 4842 4842 4842 4774 4774 4774 4774 4708 4708 4708 4708 4708 4708 4708 4645 4645 4645 4645 4582 4582 4582 4582 4582 4582 4582 4582 4582 4582 4582 4582 4582 4582 4522 4522 4522 4522 4522 4582 4582 4582 4582 4582 4708 4708 3365 3365 3365 3365 3365 3365 0 0 0 0 0 0 3238 3238 3238 3269 3269 3269 3269 3208 3208 3178 3178 3149 3149 3149 3149 3149 3149 3149 3149 3149 3120 3120 3149 3149 3149 3149 3178 3238 3269 3238 3238 3238 3064 3064 3064 3064 3064 3120 3120 3120 3149 3149 3149 3120 3120 3178 3178 3178 3178 3178 3178 3149 3120 3120 3120 3149 3178 3208 3238 0 0 0 0 0 0 3208 3208 3208 3208 3208 3208 3208 3178 3178 3120 3120 3149 3149 3120 3120 3120 3120 3120 3092 3092 3092 3092 3120 3092 3092 3092 3092 3120 3120 3092 3092 3092 3092 3092 3092 3092 3092 3092 3092 3064 3064 3092 3092 3120 3120 3149 3149 3149 3178 0 0 0 0 0 0 0 0 0 0 0 0 0 0 0 0 0 0 0
0 0 0 0 0 0 0 0 0 0 0 0 0 0 0 0 0 0 0 0 0 0 0 0 0 0 0 0 0 0 0 4405 4405 4405 4405 4405 4463 4405 4405 4405 4405 4349 4349 4349 4349 4349 4349 4405 4349 4349 4405 4405 4405 4405 4405 4405 4405 4405 4405 4405 4405 4405 4405 4295 4295 4295 4241 4241 4241 4241 4241 4241 4241 4295 4295 4295 4349 4349 4349 4405 4405 4405 4405 4405 4405 4405 4405 4405 4405 4463 4463 4463 4463 4463 4463 4463 4463 4463 4463 4522 4522 4522 4522 4522 4582 4582 4645 4645 4645 4708 4708 4774 4774 4842 4842 4842 4842 4842 4842 4842 4842 4842 4842 0 0 0 5374 5374 5374 5291 5291 5291 5291 5374 5374 5374 5460 5460 5548 5640 5640 5734 5832 5832 5832 5832 5832 5832 5832 5734 5734 5734 6038 6146 6146 6497 6497 6622 6497 6497 6497 0 0 0 0 0 0 0 0 0 0 0 0 0 0 0 0 0 0 3178 3178 3149 3149 3178 3178 3178 2129 2129 2129 2129 2129 2143 2143 2143 2143 2143 2143 2143 2143 2143 2143 2143 2143 2143 2143 2143 2129 2129 2143 2143 2143 2143 2156 2156 2156 2156 2156 2170 2156 2156 2156 2156 2156 2170 2170 2156 2156 2156 2156 2156 2170 2170 2170 2170 2170 2170 2170 2156 2156 2156 2156 2156 2156 2156 2156 2170 2170 2170 2170 2170 2170 2170 2156 2156 3269 3269 3269 2170 2170 2170 2170 2170 2143 2143 2143 2143 2143 2143 2156 2156 2156 2156 3269 3269 3269 3269 3269 3269 3269 3269 3238 3238 3238 3238 3238 3238 3238 3238 3238 3238 3238 3238 3238 3238 3238 3238 3238 3238 3269 3238 3238 3238 3238 3238 3238 3238 3238 3238 3238 3238 3238 3269 3269 3269 3269 3269 3269 3300 3300 3333 3365 3365 3365 4708 4708 4582 4582 4582 4582 4582 4582 4645 4645 4645 4582 4582 4582 4582 4582 2129 2129 2143 2143 2156 2156 2156 2156 2156 2156 2156 2156 2156 2156 2156 2156 2170 2170 2170 2170 2170 2170 2170 2170 2156 2156 2156 2156 2156 2156 2170 2170 2170 2170 2170 2170 2184 2170 2170 2156 2156 2156 2143 2143 2129 2129 2143 2156 2156 2156 2156 2156 7332 7332 7332 7332 7332 7332 7332 7332 7332 7332 7332 7492 7178 7178 7332 7332 7332 2156 2184 2184 2170 2156 2156 2156 2143 2143 7492 7492 7492 7492 7332 7332 7492 7492 7492 7492 7492 7492 7492 7332 7332 5460 5056 5056 5056 5056 5056 5056 5056 5056 4983 4983 4983 4983 4983 4983 4911 4911 4842 4842 4842 4842 4842 4774 4774 4774 4774 4708 4708 4708 4708 4774 4708 4708 4645 4645 4645 4645 4582 4582 4582 4582 4582 4582 4582 4582 4582 4582 4582 4582 4582 4582 4522 4522 4522 4522 4522 4582 4582 4582 4582 4645 4708 4708 3365 3333 3333 3365 3365 3365 0 0 0 0 0 0 0 0 0 3365 3269 3269 3269 3238 3208 3208 3178 3178 3178 3178 3178 3149 3149 3149 3120 3120 3120 3120 3092 3092 3064 3064 3064 3064 3064 3064 3064 3064 3064 3064 3064 3064 3064 3092 3092 3092 3092 3092 3120 3120 3120 3120 3149 3149 3149 3149 3120 3092 3092 3092 3092 3120 3178 3178 3178 3238 0 3092 2984 0 0 3208 3178 3178 3178 3178 3092 3092 3092 3092 3064 3064 3064 3064 3064 3064 3092 3092 3064 3064 3064 3064 3064 3064 3064 3064 3064 3092 3092 3120 3092 3092 3092 3092 3092 3064 3064 3064 3037 3037 3037 3037 3037 3064 3064 3064 3092 3092 3092 3092 3092 3064 3037 3037 3037 3037 3037 3037 0 0 0 0 0 0 0 0 0 0 0
0 0 0 0 0 0 0 0 0 0 0 0 0 0 0 0 0 0 0 0 0 0 0 0 0 0 0 0 0 0 0 4405 4405 4405 4405 4405 4405 4405 4405 4405 4405 4405 4405 4349 4349 4349 4349 4405 4405 4405 4349 4349 4405 4405 4405 4405 4405 4405 4405 4405 4405 4405 4405 4295 4295 4295 4241 4241 4241 4241 4241 4241 4241 4295 4295 4295 4349 4349 4405 4463 4405 4405 4405 4405 4405 4405 4405 4405 4405 4463 4463 4463 4463 4463 4463 4463 4463 4463 4463 4522 4522 4522 4522 4522 4582 4582 4645 4645 4645 4708 4708 4774 4774 4842 4842 4842 4842 4842 4842 4842 4842 4842 4842 4842 0 5374 5374 5374 5374 5291 5291 5291 5291 5374 5374 5374 5460 5460 5548 5640 5640 5734 5832 5832 5832 5832 5832 5832 5832 5734 5734 5734 6038 6038 6038 6146 6497 6375 6375 6375 6375 0 0 0 0 0 0 0 0 0 0 0 0 0 0 0 0 0 3178 3149 3149 3149 3149 3149 3178 3178 3178 2129 2129 2129 2129 2143 2143 2143 2143 2129 2129 2143 2143 2143 2143 2143 2143 2143 2143 2143 2143 2143 2143 2143 2143 2143 2143 2143 2156 2156 2156 2170 2156 2156 2170 2156 2156 2170 2170 2156 2156 2156 2156 2156 2170 2170 2170 2170 2184 2170 2170 2156 2156 2156 2156 2143 2143 2156 2156 2170 2170 2170 2170 2156 2156 2156 2156 2156 2156 2156 2156 2156 2156 2170 2170 2170 2156 2156 2156 2156 2156 2156 2156 2156 2156 2156 2156 3269 3269 3269 3269 3269 3269 3269 3238 3238 3238 3238 3238 3238 3208 3208 3238 3238 3238 3238 3238 3238 3238 3238 3238 3238 3238 3238 3238 3238 3238 3238 3208 3208 3238 3238 3238 3238 3238 3238 3238 3238 3238 3238 3269 3269 3269 3300 3365 0 0 4708 4708 4645 4582 4582 4582 4582 4582 4645 4645 4645 4645 4645 4645 2143 2143 2129 2129 2143 2143 2156 2156 2156 2156 2156 2156 2156 2156 2156 2156 2156 2156 2170 2170 2170 2170 2170 2170 2170 2170 2156 2156 2156 2156 2156 2156 2170 2170 2170 2170 2170 2170 2170 2170 2170 2170 2156 2156 2143 2143 2143 2143 2156 2156 2156 2156 2156 2156 2156 2156 2156 7332 7332 7332 7332 7332 2156 2156 2156 2156 2143 2143 2156 2156 2156 0 2184 2184 2170 2156 2156 2156 2143 2143 2143 0 0 0 0 0 0 0 0 0 0 7492 7492 7492 7332 5210 5056 5056 5056 5056 5056 5056 5056 5056 4983 4983 4983 4983 4911 4911 4911 4911 4911 4842 4842 4842 4774 4774 4774 4774 4774 4774 4774 4774 4774 4774 4774 4708 4708 4708 4708 4708 4645 4645 4645 4582 4582 4582 4582 4582 4582 4582 4582 4582 4582 4582 4522 4522 4522 4522 4522 4582 4582 4582 4645 4645 4774 4774 3365 3333 3333 3365 3365 3300 3300 0 0 0 0 0 0 0 0 3365 3365 3333 3300 3269 3238 3208 3208 3178 3178 3178 3178 3149 3149 3149 3120 3120 3120 3092 3092 3064 3064 3037 3037 3037 3037 3037 3037 3064 3037 3037 3037 3037 3037 3064 3064 3064 3064 3092 3092 3092 3064 3064 3092 3064 3064 3149 3120 3092 3092 3092 3092 3092 3120 3120 3120 3092 3092 0 2984 2984 2984 2958 2958 2984 3064 3064 3064 3064 3064 3064 3064 3064 3064 3064 3064 3064 3064 3064 3064 3064 3064 3064 3064 3064 3064 3037 3037 3064 3092 3092 3092 3092 3092 3092 3064 3037 3037 3037 3010 3010 3010 3010 3010 3037 3037 3064 3064 3064 3064 3064 3064 3037 3037 3037 3037 3010 3010 3010 0 0 0 0 0 0 0 0 0 0 0
0 0 0 0 0 0 0 0 0 0 0 0 0 0 0 0 0 0 0 0 0 0 0 0 0 0 0 0 0 0 0 4405 4405 4405 4405 4405 4405 4405 4405 4405 4405 4405 4405 4405 4405 4405 4405 4405 4405 4405 4349 4349 4349 4349 4349 4405 4405 4405 4405 4405 4405 4405 4405 4295 4295 4295 4295 4241 4241 4241 4241 4241 4241 4295 4295 4295 4349 4405 4405 4405 4405 4463 4463 4405 4405 4405 4405 4405 4405 4463 4463 4463 4522 4522 4522 4522 4522 4522 4522 4522 4522 4522 4522 4522 4582 4582 4645 4645 4645 4708 4774 4774 4774 4842 4842 4842 4842 4911 4911 4911 4842 4842 4842 0 0 5374 5374 5374 5291 5291 5291 5374 5374 5374 5374 5374 5374 5460 5548 5640 5640 5734 5832 5832 5832 5832 5832 5832 5832 5734 5734 5734 5933 6038 6038 6146 6497 6375 6375 6375 6375 0 0 0 0 0 0 0 0 0 0 0 0 0 0 0 3120 3120 3149 3149 3149 3149 3149 3149 3149 3178 3178 2129 2129 2129 2129 2129 2143 2143 2143 2129 2129 2143 2143 2143 2143 2143 2143 2143 2143 2143 2143 2143 2143 2143 2143 2156 2143 2143 2156 2170 2156 2156 2170 2170 2170 2156 2156 2170 2170 2170 2156 2156 2156 2156 2170 2170 2170 2170 2184 2170 2170 2156 2156 2156 2156 2143 2143 2156 2156 2156 2170 2170 2170 2156 2156 2156 2156 2156 2156 2156 2156 2156 2156 2170 2170 2156 2156 2156 2156 2156 2156 2156 2156 2170 2170 2156 2156 3269 3269 3269 3269 3269 3269 3269 3269 3269 3238 3238 3208 3208 3208 3208 3208 3238 3238 3238 3238 3238 3238 3238 3238 3238 3238 3208 3208 3208 3208 3208 3208 3208 3238 3238 3238 3238 3238 3238 3238 3238 3238 3238 3238 3269 3269 3269 3269 3269 0 4708 4708 4645 4582 4582 4582 4582 4645 4708 4708 4645 4645 4645 2143 2143 2143 2143 2143 2143 2143 2143 2143 2156 2156 2156 2156 2156 2156 2156 2156 2156 2156 2156 2156 2156 2156 2156 2156 2156 2156 2156 2156 2156 2156 2156 2156 2170 2170 2170 2170 2170 2170 2170 2170 2170 2170 2156 2156 2156 2156 2156 2156 2156 2156 2156 2156 2156 2156 2156 2156 2143 2143 2156 2156 2156 2156 2156 2156 2143 2143 2143 2143 2156 2156 2156 2170 2184 2184 2170 2170 2156 2156 2143 2143 2143 2143 0 0 0 0 0 0 0 0 0 0 0 0 0 5056 5056 5056 5056 5056 5056 5056 5056 5056 4983 4983 4983 4983 4911 4911 4911 4911 4911 4842 4842 4842 4774 4774 4774 4774 4774 4774 4774 4774 4774 4774 4774 4774 4708 4708 4708 4708 4645 4645 4645 4582 4582 4582 4582 4582 4582 4582 4582 4582 4582 4582 4522 4522 4522 4582 4582 4582 4645 4645 4645 4708 4708 4708 3365 3365 3365 3365 3365 3300 3300 0 0 0 0 0 0 0 0 3399 3365 3333 3300 3269 3238 3208 3208 3178 3178 3178 3178 3178 3149 3149 3120 3120 3120 3092 3064 3064 3064 3037 3037 3037 3037 3037 3037 3037 3037 3037 3010 3010 3010 3037 3037 3037 3064 3064 3064 3064 3010 3010 2984 2984 2984 2984 2984 3064 3064 3064 3064 3064 3064 3064 3064 3037 2984 2984 2984 2958 2958 2958 2958 2958 2984 3010 3037 3064 3064 3064 3064 3064 3064 3037 3037 3037 3064 3064 3064 3037 3037 3037 3037 3037 3037 3037 3037 3037 3064 3064 3064 3064 3064 3064 3037 3037 3010 2984 2958 2958 2958 2958 2984 2984 2984 3010 3010 3037 3037 3037 3010 3010 3010 3010 3010 2984 2984 2984 0 0 0 0 0 0 0 0 0 0 0
0 0 0 0 0 0 0 0 0 0 0 0 0 0 0 0 0 0 0 0 0 0 0 0 0 0 0 0 0 0 0 4405 4405 4405 4405 4405 4405 4405 4405 4405 4405 4405 4405 4405 4405 4405 4405 4405 4405 4405 4405 4405 4349 4349 4349 4405 4405 4405 4405 4405 4405 4405 4405 4349 4295 4295 4295 4295 4241 4241 4241 4241 4295 4295 4295 4295 4349 4349 4405 4405 4405 4405 4405 4405 4349 4349 4349 4405 4405 4463 4463 4463 4522 4522 4522 4522 4522 4522 4522 4522 4522 4522 4582 4582 4582 4645 4645 4708 4774 4774 4774 4842 4842 4842 4842 4842 4842 4911 4911 4911 4842 4842 4842 4983 0 5460 5460 5374 5291 5291 5291 5374 5374 5374 5374 5374 5374 5460 5548 5640 5640 5734 5832 5832 5832 5832 5832 5832 5832 5734 5734 5734 5832 5933 6038 6146 6259 6259 6259 6259 0 0 0 0 0 0 0 0 0 0 0 0 0 0 0 3064 3064 3092 3149 3149 3149 3120 3120 3149 3149 3149 3178 2129 2129 2129 2129 2129 2143 2143 2143 2143 2143 2143 2143 2143 2143 2143 2143 2143 2143 2143 2143 2156 2156 2156 2156 2156 2156 2156 2156 2170 2156 2156 2170 2170 2170 2170 2170 2170 2170 2170 2170 2170 2170 2170 2170 2170 2170 2170 2184 2184 2170 2170 2170 2170 2170 2156 2156 2156 2156 2156 2156 2156 2156 2156 2156 2156 2156 2156 2156 2156 2156 2156 2156 2156 2156 2156 2156 2156 2156 2156 2156 2156 2156 2170 2170 2170 2170 2170 3238 3238 3269 3269 3269 3269 3238 3238 3178 3178 3178 3208 3208 3208 3208 3208 3238 3238 3238 3238 3238 3238 3238 3238 3208 3208 3208 3208 3208 3208 3208 3208 3208 3238 3238 3238 3238 3238 3238 3238 3208 3208 3238 3238 3238 3238 3269 0 0 4522 4522 4522 4522 4582 4645 4645 4645 4708 4708 4708 2129 2143 2143 2143 2143 2143 2143 2143 2143 2143 2143 2156 2156 2156 2156 2156 2156 2156 2156 2156 2156 2156 2156 2156 2156 2156 2156 2156 2156 2156 2156 2156 2156 2156 2156 2170 2170 2170 2170 2170 2170 2170 2170 2170 2170 2156 2156 2156 2156 2156 2156 2156 2170 2156 2156 2156 2156 2156 2156 2143 2143 2156 2156 2156 2156 2156 2156 2143 2143 2143 2143 2156 2156 2156 2170 2170 2170 2170 2170 2156 2156 2143 2143 2143 2143 0 0 0 0 0 0 0 0 0 0 0 0 0 4983 4983 5056 5056 5056 5056 5056 5056 5056 4983 4983 4983 4911 4911 4911 4911 4911 4911 4842 4842 4842 4774 4774 4774 4774 4774 4774 4774 4774 4774 4774 4774 4774 4708 4708 4708 4708 4645 4645 4645 4645 4645 4582 4582 4582 4582 4582 4582 4582 4582 4582 4582 4582 4582 4582 4582 4582 4645 4645 4645 4645 4645 4645 3365 3365 3365 3365 3399 3300 3269 3269 0 0 0 0 0 0 0 0 3365 3333 3333 3300 3238 3208 3208 3178 3178 3178 3178 3178 3149 3149 3120 3120 3092 3064 3064 3064 3064 3064 3037 3037 3037 3037 3037 3037 3037 3037 3010 3010 3010 3037 3010 3010 3037 3037 3010 3010 2984 2984 2984 2958 2958 2958 2958 2958 3064 3010 3010 3064 3064 3037 3010 2984 2984 2958 2958 2958 2958 2958 2958 2958 2958 2984 3010 3037 3037 3037 3037 3037 3037 3037 3037 3037 3037 3037 3037 3037 3037 3037 3037 3037 3010 3010 3010 3037 3037 3037 3037 3037 3037 3037 3010 3010 3010 2984 2958 2958 2958 2958 2984 2984 2958 2958 2984 3010 3010 2984 2984 2984 3010 2984 2984 2984 2984 2984 0 0 0 0 0 0 0 0 0 0 0
0 0 0 0 0 0 0 0 0 0 0 0 0 0 0 0 0 0 0 0 0 0 0 0 0 0 0 0 0 0 0 4405 4405 4405 4405 4405 4405 4405 4405 4405 4405 4405 4405 4405 4405 4405 4405 4405 4405 4405 4349 4349 4349 4349 4349 4405 4405 4405 4405 4463 4463 4463 4463 4349 4349 4295 4295 4241 4241 4241 4241 4241 4241 4295 4295 4295 4349 4349 4405 4405 4405 4405 4405 4349 4349 4349 4349 4349 4405 4463 4463 4463 4522 4522 4522 4522 4522 4522 4522 4522 4522 4522 4522 4582 4582 4645 4645 4774 4842 4842 4842 4842 4842 4842 4911 4911 4911 4911 4911 4911 4983 4983 4983 4983 6497 5460 5460 5460 5460 5374 5374 5374 5374 5374 5374 5374 5374 5460 5548 5640 5734 5832 5832 5832 5832 5832 5832 5832 5832 5734 5734 5734 5734 5832 5933 6146 6259 6259 6259 6259 0 0 0 0 0 0 0 0 2958 2958 2958 2958 2984 0 0 3064 3064 3092 3120 3120 3149 3120 3120 3149 3149 3149 3149 3149 2129 2129 2129 2129 2143 2143 2143 2143 2143 2143 2143 2156 2156 2143 2143 2143 2143 2143 2156 2156 2156 2156 2156 2156 2156 2170 2156 2156 2156 2156 2170 2170 2170 2170 2170 2170 2184 2170 2170 2170 2170 2170 2170 2170 2170 2184 2184 2184 2184 2170 2170 2170 2170 2156 2156 2156 2156 2156 2156 2156 2156 2156 2156 2156 2156 2156 2156 2156 2156 2156 2156 2156 2156 2156 2156 2156 2156 2156 2156 2156 2170 2170 2170 2170 2170 2170 3238 3238 3269 3269 3269 3238 3238 3238 3178 3178 3178 3178 3208 3208 3208 3208 3238 3238 3238 3208 3178 3178 3178 3208 3208 3178 3178 3178 3178 3178 3178 3178 3208 3208 3208 3208 3238 3238 3238 3178 3178 3149 3149 3178 3208 3208 3238 0 0 0 4522 4522 4522 4582 4582 4582 4645 4645 4708 4708 2129 2129 2129 2143 2143 2143 2143 2143 2143 2156 2156 2156 2156 2156 2156 2156 2156 2156 2156 2156 2156 2156 2156 2156 2156 2156 2156 2156 2156 2156 2156 2156 2156 2156 2170 2170 2170 2170 2170 2170 2170 2170 2170 2170 2170 2156 2156 2170 2170 2170 2170 2170 2170 2170 2170 2170 2170 2156 2156 2156 2156 2156 2156 2156 2156 2156 2156 2156 2156 2156 2156 2156 2156 2170 2170 2156 2156 2156 2156 2156 2156 2143 2143 2143 2143 2143 0 0 0 0 0 0 0 0 0 0 0 0 4983 4983 5056 5056 5056 5056 5056 5056 4983 4983 4983 4983 4911 4911 4911 4911 4911 4911 4842 4842 4842 4774 4774 4774 4774 4774 4774 4774 4774 4774 4774 4774 4708 4708 4708 4708 4708 4645 4645 4645 4645 4645 4582 4582 4582 4582 4582 4582 4582 4582 4582 4582 4582 4582 4582 4582 4582 4645 4645 4645 4645 4645 3399 3365 3365 3365 3365 3365 3300 3269 3269 3269 0 0 0 0 0 0 0 3399 3300 3300 3269 3238 3208 3208 3178 3178 3178 3178 3178 3149 3149 3120 3120 3092 3064 3064 3064 3064 3064 3037 3037 3037 3037 3037 3037 3010 3010 3010 3010 3010 3010 2984 2984 3010 3010 2984 2984 2958 2958 2958 2958 2958 2958 2958 2958 2958 2984 2958 2958 2984 3010 3010 2984 2984 2958 2958 2958 2958 2958 2933 2933 2958 2958 2958 3010 3010 3010 3010 3010 3010 3010 3010 3010 3010 3010 3010 3010 3010 3010 3010 3010 3010 3010 3010 3010 3010 3010 3010 3010 3010 3010 2984 2984 2984 2984 2958 2958 2958 2958 2958 2933 2933 2933 2958 2984 2984 2958 2958 2958 2984 2984 2933 2933 2933 2933 0 0 0 0 0 0 0 0 0 0 0
0 0 0 0 0 0 0 0 0 0 0 0 0 0 0 0 0 0 0 0 0 0 0 0 0 0 0 0 0 0 0 4405 4405 4405 4405 4405 4405 4405 4405 4405 4405 4405 4405 4405 4405 4405 4405 4405 4405 4349 4349 4349 4349 4349 4349 4405 4405 4463 4463 4522 4522 4522 4463 4405 4349 4295 4295 4241 4241 4241 4241 4241 4241 4241 4295 4295 4349 4405 4463 4405 4405 4405 4405 4295 4295 4295 4295 4295 4349 4405 4463 4463 4463 4522 4522 4522 4522 4522 4522 4522 4522 4522 4522 4582 4582 4645 4708 5734 5734 5734 4842 4842 4842 4911 4911 4911 4911 4911 4911 4911 4983 4983 4983 4983 6497 6497 6146 5548 5548 5460 5374 5374 5374 5374 5374 5374 5374 5460 5460 5734 5734 5832 5832 5832 5832 5832 5832 5832 5832 5734 5734 5734 5734 5832 5832 5832 6146 6259 6259 6259 0 0 0 0 0 0 0 0 2958 2958 2958 2958 2958 2958 2958 2958 2984 2984 3092 3092 3092 3120 3092 3092 3092 3092 3092 3092 2129 2129 2129 2129 2143 2143 2143 2143 2143 2143 2143 2156 2156 2143 2143 2143 2143 2156 2156 2156 2156 2156 2156 2156 2156 2170 2156 2156 2156 2156 2170 2170 2170 2170 2170 2170 2184 2184 2170 2170 2170 2170 2170 2170 2184 2184 2184 2184 2170 2170 2170 2170 2170 2156 2143 2143 2143 2156 2156 2156 2156 2156 2156 2156 2156 2156 2156 2156 2156 2156 2156 2156 2156 2156 2156 2156 2156 2156 2156 2156 2156 2170 2170 2170 2170 2170 2170 3269 3269 3269 3269 3238 3238 3149 3149 3149 3149 3178 3178 3178 3208 3208 3208 3238 3208 3178 3178 3178 3178 3149 3149 3178 3178 3178 3178 3178 3178 3178 3178 3178 3208 3208 3208 3149 3149 3149 3149 3149 3149 3149 3149 3178 3208 0 3178 0 4582 0 4582 4582 4582 4582 4645 4645 4645 2129 2129 2129 2129 2143 2143 2143 2143 2143 2156 2156 2156 2156 2156 2156 2156 2156 2156 2156 2156 2156 2156 2156 2156 2156 2156 2156 2156 2156 2156 2156 2156 2156 2156 2156 2170 2170 2170 2170 2170 2170 2170 2170 2170 2170 2170 2156 2156 2170 2170 2170 2170 2170 2170 2170 2170 2170 2170 2156 2156 2156 2156 2156 2156 2156 2156 2156 2156 2156 2156 2156 2156 2156 2156 2156 2156 2156 2156 2156 2156 2156 2156 2143 2143 2143 2143 2143 0 0 0 0 0 0 0 0 0 0 0 0 4983 4983 5056 5056 5056 5056 5056 5056 4983 4983 4983 4983 4911 4911 4911 4911 4911 4911 4842 4842 4842 4774 4774 4774 4774 4774 4774 4774 4774 4774 4774 4774 4708 4708 4708 4708 4708 4708 4708 4645 4645 4645 4645 4582 4582 4582 4582 4582 4582 4582 4582 4582 4582 4582 4582 4582 4582 4645 4645 4645 4645 4645 3399 3365 3365 3365 3365 3365 3300 3300 3269 3269 0 0 0 0 0 0 0 0 3300 3300 3269 3238 3208 3208 3178 3178 3178 3178 3178 3149 3149 3120 3120 3092 3064 3064 3064 3064 3064 3064 3064 3037 3037 3037 3037 3010 3010 3010 3010 3010 2984 2984 2984 2984 2984 2984 2958 2958 2958 2933 2933 2933 2933 2933 2933 2933 2958 2958 2958 2958 2984 2958 2958 2958 2958 2958 2933 2933 2933 2933 2933 2933 2933 2933 2984 3010 3010 3010 3010 3010 3010 3010 2984 2984 2984 3010 2984 2984 3010 3010 3010 3010 3010 3010 3010 3010 3010 3010 3010 2958 2958 2984 2933 2933 2933 2908 2908 2933 2933 2908 2883 2883 2883 2908 2908 2933 2908 2908 2933 2933 2958 2933 2933 2933 2933 0 0 0 0 0 0 0 0 0 0 0
0 0 0 0 0 0 0 0 0 0 0 0 0 0 0 0 0 0 0 0 0 0 0 0 0 0 0 0 0 0 0 4405 4405 4405 4405 4405 4405 4405 4463 4405 4405 4405 4405 4463 4405 4405 4405 4405 4405 4349 4349 4349 4349 4349 4405 4405 4405 4463 4522 4582 4582 4582 4522 4405 4349 4295 4295 4241 4241 4241 4190 4190 4190 4241 4241 4295 4295 4349 4463 4405 4405 4405 4405 4295 4295 4295 4190 4190 4349 4405 4463 4463 4463 4522 4522 4522 4522 4522 4522 4522 4522 4522 4582 4582 4582 4645 5460 5460 5734 5734 4842 4842 4842 4911 4911 4911 4911 4911 4911 4983 4983 4983 4911 4911 4911 6259 6146 5832 5640 5460 5374 5374 5374 5374 5374 5374 5374 5460 5460 5548 5734 5832 5832 5832 5832 5832 5832 5832 5832 5734 5734 5734 5734 5832 5832 5832 6146 6259 6259 6259 0 0 0 0 0 0 0 0 2958 2958 2958 2958 2958 2958 2958 2958 2958 2958 2958 2958 2958 2958 2958 2984 2984 2984 3010 3010 2129 2129 2129 2129 2143 2143 2143 2143 2143 2143 2143 2156 2156 2156 2156 2156 2156 2156 2156 2156 2156 2156 2156 2156 2156 2170 2156 2156 2156 2156 2170 2170 2170 2170 2170 2170 2184 2184 2170 2170 2170 2170 2184 2184 2184 2184 2184 2184 2170 2170 2170 2170 2170 2156 2143 2143 2143 2156 2156 2156 2170 2170 2156 2156 2156 2156 2156 2156 2156 2156 2156 2156 2156 2156 2156 2156 2156 2156 2156 2156 2156 2170 2170 2170 2170 2170 2170 3269 3269 3269 3269 3178 3092 3092 3149 3149 3149 3149 3149 3178 3178 3178 3208 3178 3178 3149 3149 3120 3120 3149 3149 3149 3149 3149 3149 3178 3178 3178 3178 3178 3149 3149 3149 3120 3120 3120 3120 3120 3120 3149 3149 3149 3178 3178 3178 3120 0 0 4582 4582 4582 4582 4645 4645 4645 2129 2129 2129 2143 2156 2143 2143 2143 2156 2156 2156 2156 2156 2156 2156 2156 2156 2156 2156 2156 2156 2156 2156 2156 2156 2156 2156 2156 2156 2156 2156 2156 2156 2156 2156 2170 2170 2170 2170 2170 2170 2156 2156 2156 2156 2170 2170 2170 2170 2170 2170 2170 2170 2170 2170 2170 2156 2156 2156 2156 2156 2156 2156 2156 2156 2156 2156 2156 2156 2156 2156 2156 2156 2156 2156 2156 2156 2156 2156 2156 2156 2156 2143 2143 2143 2143 2143 2143 0 0 0 0 0 0 0 0 0 0 0 5056 5056 5056 5056 5056 5056 5056 4983 4983 4983 4983 4911 4911 4911 4842 4842 4842 4842 4842 4842 4842 4774 4774 4774 4774 4774 4774 4774 4774 4774 4774 4708 4708 4708 4708 4708 4708 4708 4708 4645 4645 4645 4645 4645 4645 4645 4582 4582 4582 4582 4582 4582 4582 4582 4582 4582 4582 4645 4645 4645 4645 4645 3433 3433 3399 3399 3399 3365 3300 3269 3269 3269 0 0 0 0 0 0 0 0 3269 3269 3300 3269 3208 3208 3208 3178 3178 3178 3178 3149 3149 3120 3092 3064 3064 3064 3064 3064 3064 3064 3064 3064 3037 3037 3010 3010 3010 2984 2984 2984 2984 2984 2984 2984 2984 2958 2958 2958 2933 2933 2933 2933 2933 2933 2933 2933 2933 2933 2933 2933 2933 2933 2933 2933 2933 2933 2933 2933 2908 2908 2908 2908 2908 2908 2933 2933 2958 2958 2984 2984 3010 2984 2984 2984 2984 2984 2958 2958 2984 2984 2984 2984 2984 2984 2984 2958 2958 2958 2958 2908 2908 2908 2883 2883 2883 2883 2883 2883 2859 2859 2835 2835 2835 2859 2883 2883 2908 2908 2908 2933 2908 2908 2883 2883 2908 0 0 0 0 0 0 0 0 0 0 0
0 0 0 0 0 0 0 0 0 0 0 0 0 0 0 0 0 0 0 0 0 0 0 0 0 0 0 0 0 0 0 4463 4405 4405 4405 4405 4405 4405 4463 4405 4405 4405 4405 4463 4405 4405 4463 4463 4405 4405 4405 4349 4349 4349 4405 4405 4522 4582 4582 4645 4645 4645 4582 4463 4349 4349 4295 4241 4241 4241 4190 4190 4190 4241 4241 4295 4295 4349 4405 4463 4463 4522 4582 5132 5132 5132 4190 4190 5210 4463 4463 4463 4522 4522 4522 4522 4522 4522 4522 4522 4582 4582 4582 4645 4645 5460 5460 5460 5640 5640 5640 4842 4842 4911 4911 4911 4911 4911 4911 4911 4911 4911 4911 4911 6259 6259 6259 6146 6038 5548 5548 5460 5460 5460 5460 5460 5460 5460 5548 5548 5734 5832 5832 5832 5832 5832 5832 5832 5832 5734 5640 5640 5734 5832 5832 5832 6038 6146 6146 6259 0 0 0 0 0 0 0 0 2958 2958 2933 2933 2958 2958 2958 2958 2958 2958 2958 2958 2958 2958 2958 2958 2958 2958 2984 2984 2143 2143 2143 2143 2143 2143 2143 2143 2143 2143 2143 2156 2156 2156 2156 2170 2170 2156 2156 2156 2156 2156 2156 2156 2170 2170 2156 2156 2156 2156 2170 2170 2170 2170 2170 2170 2184 2184 2184 2184 2184 2184 2184 2184 2184 2184 2184 2184 2184 2170 2170 2170 2170 2156 2156 2156 2156 2156 2156 2156 2156 2170 2170 2170 2170 2170 2170 2156 2156 2156 2156 2156 2156 2156 2156 2156 2156 2156 2156 2156 2156 2156 2170 2170 2170 2184 2184 2184 2184 3178 3178 3178 3092 3092 3120 3120 3149 3149 3149 3149 3149 3149 3178 3178 3178 3149 3149 3120 3120 3149 3149 3149 3149 3149 3149 3178 3178 3178 3178 3178 3149 3149 3120 3092 3092 3092 3092 3092 3092 3120 3120 3149 3120 3120 3120 3120 0 4645 4645 4645 4645 4645 4708 4708 0 2129 2129 2129 2143 2156 2143 2143 2143 2156 2156 2156 2156 2156 2156 2156 2156 2156 2156 2156 2156 2156 2156 2156 2156 2156 2156 2156 2156 2156 2156 2156 2156 2156 2156 2156 2170 2170 2170 2170 2170 2156 2156 2156 2156 2156 2170 2170 2170 2170 2170 2156 2156 2170 2170 2170 2170 2156 2156 2156 2156 2156 2156 2156 2156 2156 2156 2156 2156 2156 2156 2156 2156 2156 2156 2156 2156 2156 2156 2156 2156 2156 2156 2143 2143 2143 2143 2143 2143 0 0 0 0 0 0 0 0 0 0 0 5056 5056 5056 5056 5056 5056 5056 4983 4983 4911 4911 4911 4911 4842 4842 4842 4842 4842 4842 4842 4842 4774 4774 4774 4774 4774 4774 4774 4774 4774 4774 4708 4708 4708 4708 4774 4708 4708 4708 4708 4645 4645 4645 4645 4645 4645 4582 4582 4582 4582 4582 4582 4582 4582 4582 4582 4582 4645 4645 4645 4645 4708 3433 3433 3399 3399 3399 3365 3300 3269 3269 3269 0 0 0 0 0 0 0 0 3269 3269 3269 3238 3238 3208 3208 3208 3208 3208 3178 3178 3149 3149 3092 3064 3037 3037 3064 3064 3064 3064 3064 3064 3037 3037 3010 3010 3010 2984 2984 2984 2984 2984 2984 2984 2958 2958 2958 2958 2933 2933 2933 2933 2933 2933 2933 2933 2933 2908 2908 2908 2908 2908 2908 2908 2908 2908 2883 2883 2883 2883 2883 2883 2883 2883 2883 2883 2908 2933 2933 2933 2958 2958 2958 2958 2958 2958 2908 2908 2908 2933 2958 2933 2933 2984 2984 2908 2883 2883 2859 2835 2835 2835 2835 2835 2859 2835 2835 2835 2835 2812 2812 2812 2812 2835 2835 2859 2883 2883 2859 2859 2859 2859 2859 2859 2859 0 0 0 0 0 0 0 0 0 0 0
