0 0 0 0 0 0 0 0 0 0 0 0 0 0 0 0 0 0 0 0 0 0 0 0 0 0 0 0 0 0 4708 4708 4708 4774 4774 4842 4842 4842 4842 4842 4842 4842 4911 4911 4911 4911 4911 4983 4983 5056 5056 5056 5132 5132 5210 5210 5291 5933 5933 6038 6038 6038 5933 5933 5933 5933 5933 5933 5933 6038 6038 6038 6038 6038 6038 6038 6038 6038 6038 6146 6038 6038 6038 6038 6146 6038 6038 6038 6038 6038 5933 5933 6038 5933 5933 6038 6038 6038 6038 6146 6146 6146 6259 6259 6375 6497 6497 6497 6497 6497 6497 6497 6497 6497 6497 6497 6497 6497 6497 6622 6622 6622 6622 6622 6622 6622 6622 6622 6622 6622 6622 6622 6622 6622 6622 6753 6753 6753 6753 6889 6889 3092 3092 3092 3064 3064 3092 3064 3064 3092 3092 3064 3064 3064 3064 3064 3064 3064 3064 3064 3064 3064 3064 3064 3064 3064 3064 3064 3064 3064 3092 3092 3092 3092 3092 3120 3120 3120 3120 3120 3149 3149 3149 3149 3149 3149 3149 3149 3149 3149 3149 3149 3149 3149 3120 3120 3149 3149 3149 3149 3149 3149 3149 3149 3149 3149 3149 3149 3149 3149 3149 3149 3178 3178 3178 3178 3178 3178 3178 3178 3178 3178 3178 3178 3178 3178 3178 3178 3178 3178 3178 3178 3178 3208 3208 3208 3208 3208 3208 3178 3178 3178 3178 3208 3208 3208 3208 3208 3208 3208 3208 3238 3238 3238 3269 4522 4522 4522 4522 4463 4463 4463 4463 4463 4463 4463 4463 4463 6622 6622 6753 6753 6889 6889 6889 7030 7030 7030 7030 7030 7030 7030 7030 7030 6889 6889 6889 6889 6889 6889 7030 7030 7030 7178 7178 7178 7178 7178 7178 7178 7178 7178 7178 7332 7332 7332 7332 7178 7178 7178 7178 7030 7030 6889 6889 6889 6889 6889 6889 7030 7030 7178 7178 7178 7178 7178 7178 7178 7178 7178 7178 7178 7178 7178 7178 7178 7178 7030 7030 7030 7030 7030 7030 7030 7030 7030 7030 7030 7030 7030 7030 7178 7178 7178 7178 7178 7178 7178 7178 5132 5132 5210 5210 5132 5132 5132 5132 5132 5132 5132 5056 4983 4983 4983 4983 4983 4983 4983 4983 4983 4983 4983 4983 4983 4983 4911 4911 4911 4911 4911 4911 4911 4911 4911 4911 4842 4842 4911 4842 4842 4842 4842 4842 4842 4774 4774 4774 4774 4708 4708 4774 4708 4708 4708 4708 4708 4774 4774 4774 4774 4774 4774 4774 4774 4842 4842 4911 0 0 0 0 0 0 0 6889 6889 6889 6889 6753 6753 6753 6622 6622 6497 6497 6497 6375 6375 6375 6375 6375 6375 6375 4089 4041 4041 3948 3948 3948 3948 3994 3994 3994 3994 4041 4041 4041 4041 4041 4041 4041 4041 4041 4089 4089 4089 4089 4089 4089 4089 4089 4089 4089 4089 4089 4089 4089 4089 4089 4089 4089 4089 4089 4089 4089 4089 4089 4089 4089 4041 4041 4041 4041 4041 4041 4983 4983 4911 4911 4911 4911 4842 4842 4774 4774 4774 4774 4708 4708 4708 4708 4645 4645 4645 4645 4645 4582 4582 4645 4645 4645 4645 4645 4645 4645 4645 4645 4645 4582 4582 4582 4522 4522 4522 4522 4522 4522 4522 4522 4522 4522 4522 4522 4582 4582 4582 4582 4582 4582 4582 4582 4582 4522 4522 4522 4522 4522 4522 4522 4522 4522 4522 4522 4582 4582 4582 4582 4522 4522 4522 4522 4522 4522 4522 4522 4522 4463 4463 4463 4463 4463 4463 4463 4463 4463 4522 4522 4522 4522 4522 4522 4522 4522 4522 4522 4522 4522 4522 4522 4522 4522 4522 4522 4522 4463 4463 4463 4463 4522 4522 4522 4522 4522 4582 4582 4582 4582 4645 0 0 0 0 0 0 0 0 0 0 0 0
0 0 0 0 0 0 0 0 0 0 0 0 0 0 0 0 0 0 0 0 0 0 0 0 0 0 0 0 0 0 4645 4645 4708 4708 4774 4842 4842 4842 4842 4842 4842 4842 4842 4911 4911 4911 4911 4983 4983 5056 5056 5056 5132 5132 5210 5291 5291 5933 5933 6038 6038 6038 5933 5933 5933 5933 5933 5933 5933 6038 6038 6038 6038 6038 6038 6038 6038 6038 6038 6038 6038 6038 6038 6038 6038 6038 6038 6038 5933 5933 5933 5933 6038 5933 5933 6038 6038 6038 6038 6146 6146 6146 6259 6259 6259 6259 6375 6497 6497 6497 6497 6622 6497 6497 6497 6497 6497 6497 6497 6622 6622 6622 6622 6622 6622 6622 6622 6622 6622 6622 6622 6622 6622 6622 6622 6753 6753 6753 6753 6753 6753 3092 3092 3092 3092 3092 3092 3092 3092 3092 3092 3064 3064 3064 3064 3064 3064 3064 3064 3064 3064 3064 3064 3064 3064 3092 3092 3092 3092 3092 3092 3092 3092 3092 3120 3120 3120 3120 3120 3120 3149 3149 3149 3149 3149 3149 3149 3149 3149 3149 3149 3149 3149 3149 3149 3149 3149 3149 3149 3149 3149 3149 3149 3149 3149 3149 3149 3149 3149 3149 3149 3149 3178 3178 3178 3178 3178 3178 3178 3178 3178 3178 3178 3178 3178 3178 3178 3178 3178 3178 3178 3208 3208 3208 3208 3208 3208 3208 3208 3178 3178 3178 3208 3208 3208 3208 3208 3208 3208 3208 3208 3238 3238 3238 3269 4522 4522 4522 4522 4463 4463 4463 4463 4463 4463 4463 4463 4463 6622 6622 6753 6889 6889 6889 7030 7178 7030 7030 7178 7178 7178 7178 7030 7030 6889 6889 6889 6889 7030 7030 7030 7030 7178 7178 7178 7178 7178 7178 7178 7178 7178 7178 7332 7332 7332 7332 7332 7332 7332 7332 7332 7030 7030 6889 6889 6889 6889 6889 6889 7030 7178 7178 7332 7332 7332 7332 7332 7178 7178 7178 7178 7178 7178 7178 7178 7178 7332 7178 7178 7030 7030 7030 7178 7030 7030 7030 7030 7178 7178 7178 7178 7178 7332 7332 7332 7332 7332 7178 7178 5210 5210 5210 5132 5132 5132 5132 5132 5132 5132 5132 5056 4983 4983 4983 4983 4983 4983 4983 4983 4983 4983 4911 4911 4911 4911 4911 4911 4911 4911 4911 4911 4911 4911 4911 4911 4842 4842 4911 4842 4842 4842 4842 4842 4842 4842 4774 4774 4774 4774 4774 4774 4708 4708 4708 4708 4708 4774 4774 4774 4774 4842 0 4774 4774 0 0 0 0 0 0 0 0 0 0 6889 6889 6889 6889 6753 6753 6753 6622 6622 6497 6497 6497 6375 6375 6375 6375 6375 6375 6375 6375 4041 3994 3948 3948 3994 3994 3994 3994 3994 3994 4041 4041 4041 4041 4041 4041 4041 4041 4041 4089 4089 4089 4089 4089 4089 4089 4089 4089 4089 4089 4089 4089 4089 4089 4089 4089 4089 4089 4089 4089 4089 4089 4089 4089 4089 4041 4041 3994 3994 3994 3994 4983 4983 4911 4911 4911 4842 4842 4842 4774 4774 4774 4708 4708 4708 4708 4645 4645 4645 4645 4645 4582 4582 4582 4582 4582 4582 4582 4582 4645 4645 4645 4645 4645 4645 4645 4582 4582 4582 4522 4522 4522 4522 4522 4522 4522 4522 4522 4522 4582 4582 4582 4582 4645 4645 4582 4582 4582 4522 4522 4522 4522 4522 4522 4522 4522 4522 4522 4522 4582 4582 4582 4582 4522 4522 4522 4522 4522 4522 4522 4522 4522 4463 4463 4463 4463 4463 4463 4463 4463 4463 4522 4522 4522 4522 4522 4522 4522 4522 4522 4522 4522 4522 4522 4522 4522 4522 4522 4522 4522 4463 4463 4463 4463 4522 4522 4522 4522 4522 4582 4582 4582 4582 4582 0 0 0 0 0 0 0 0 0 0 0 0
0 0 0 0 0 0 0 0 0 0 0 0 0 0 0 0 0 0 0 0 0 0 0 0 0 0 0 0 0 0 4645 4645 4645 4708 4774 4774 4842 4842 4842 4842 4842 4842 4842 4842 4911 4911 4911 4911 4983 5056 5056 5056 5132 5132 5210 5291 5374 5933 6038 6038 6038 6038 5933 5933 5933 5933 6038 6038 6038 6038 6038 5933 5933 5933 5933 6038 6038 6038 6038 6038 6038 6038 6038 6038 6038 5933 5933 6038 5933 5933 5933 5933 6038 5933 5933 6038 6038 6038 6038 6146 6146 6259 6259 6146 6146 6259 6259 6497 6497 6497 6497 6622 6497 6497 6497 6497 6497 6497 6497 6622 6622 6622 6622 6497 6497 6622 6622 6622 6622 6622 6622 6622 6622 6622 6622 6622 6753 6753 6753 6753 6753 3092 3092 3092 3092 3092 3092 3092 3092 3092 3092 3064 3064 3064 3064 3064 3064 3064 3064 3064 3064 3064 3092 3092 3092 3092 3092 3092 3092 3092 3092 3092 3092 3092 3120 3120 3120 3120 3120 3120 3149 3149 3149 3149 3149 3149 3149 3149 3149 3149 3149 3149 3149 3149 3149 3149 3149 3149 3149 3149 3149 3149 3149 3149 3149 3149 3149 3178 3178 3178 3178 3178 3178 3178 3178 3178 3178 3178 3178 3178 3178 3178 3178 3178 3178 3178 3178 3178 3178 3178 3208 3208 3208 3208 3208 3208 3208 3208 3208 3208 3208 3208 3208 3208 3208 3208 3208 3208 3208 3208 3208 3238 3238 3238 3300 3399 4522 4522 4522 4463 4463 4463 4522 4463 4463 4463 4463 6497 6622 6622 6753 6889 7030 7030 7178 7178 7178 7178 7178 7178 7178 7178 7178 7178 7030 7030 7030 7030 7030 7178 7178 7178 7178 7332 7332 7178 7178 7332 7332 7332 7332 7332 7332 7332 7332 7332 7332 7332 7332 7332 7332 7178 7030 7030 6889 6889 6889 6889 6889 7030 7332 7332 7492 7332 7332 7332 7332 7178 7178 7178 7178 7178 7178 7178 7178 7178 7332 7332 7332 7178 7178 7178 7178 7178 7178 7178 7178 7178 7178 7178 7178 7332 7332 7332 7332 7332 7332 7332 7492 5210 5210 5210 5132 5132 5132 5132 5132 5132 5132 5132 5056 5056 4983 4983 4983 4983 4983 4983 4911 4911 4911 4911 4911 4911 4911 4911 4911 4911 4911 4911 4911 4911 4911 4842 4842 4842 4911 4842 4842 4842 4842 4842 4842 4842 4842 4842 4842 4774 4774 4774 4774 4708 4708 4708 4708 4774 4774 4842 0 0 0 0 0 0 0 0 0 0 0 0 0 0 0 0 0 7030 6889 6889 6753 6753 6753 6622 6622 6497 6497 6497 6375 6375 6375 6375 6375 6375 6375 6375 3948 3948 3948 3948 3994 3994 3994 3994 3994 3994 4041 4041 4041 4041 4041 4041 4041 4041 4041 4041 4089 4089 4089 4089 4089 4089 4089 4089 4089 4089 4089 4089 4089 4089 4089 4089 4089 4089 4089 4089 4089 4089 4089 4089 4089 4041 4041 3994 3994 3994 3994 4983 4911 4911 4842 4842 4842 4842 4842 4774 4774 4774 4708 4708 4708 4708 4645 4645 4645 4645 4582 4582 4582 4582 4582 4582 4582 4582 4582 4582 4582 4582 4645 4582 4582 4645 4582 4582 4582 4582 4522 4522 4522 4522 4522 4522 4522 4522 4582 4582 4582 4582 4582 4645 4645 4582 4582 4582 4522 4522 4522 4522 4522 4522 4522 4522 4522 4582 4582 4582 4582 4582 4582 4582 4582 4582 4582 4582 4582 4522 4522 4522 4463 4463 4463 4463 4463 4463 4463 4522 4463 4463 4522 4522 4522 4522 4522 4522 4522 4522 4522 4522 4522 4522 4522 4522 4522 4522 4522 4522 4463 4463 4463 4463 4522 4522 4522 4522 4522 4582 4582 4582 4582 4582 0 0 0 0 0 0 0 0 0 0 0 0
0 0 0 0 0 0 0 0 0 0 0 0 0 0 0 0 0 0 0 0 0 0 0 0 0 0 0 0 0 0 4645 4645 4645 4708 4774 4774 4842 4842 4842 4842 4842 4842 4842 4842 4911 4911 4911 4911 4983 5056 5056 5056 5132 5132 5210 5291 5460 5832 5933 6038 6038 6038 5933 5933 6038 6038 6038 6038 6038 6038 6038 5933 5933 5933 5933 5933 5933 5933 6038 6038 6038 6038 6038 6038 6038 5933 5933 5933 5933 5933 5933 5933 5933 5933 5933 6038 6038 6038 6038 6146 6146 6259 6259 6146 6146 6259 6259 6497 6497 6497 6497 6497 6497 6497 6497 6497 6497 6497 6497 6622 6622 6622 6622 6497 6497 6622 6622 6622 6622 6622 6622 6622 6622 6622 6622 6622 6753 6753 6753 6753 6753 3092 3092 3092 3092 3092 3092 3092 3092 3092 3092 3064 3064 3064 3064 3064 3064 3064 3064 3064 3064 3064 3092 3092 3092 3092 3092 3120 3092 3092 3092 3092 3092 3092 3120 3120 3120 3120 3120 3120 3149 3149 3149 3149 3149 3149 3149 3149 3149 3149 3149 3149 3149 3149 3149 3149 3149 3149 3149 3149 3149 3149 3178 3149 3149 3149 3149 3178 3178 3178 3178 3178 3178 3178 3178 3178 3178 3178 3178 3178 3178 3178 3178 3178 3178 3178 3178 3178 3208 3208 3208 3238 3238 3238 3208 3208 3208 3208 3208 3178 3178 3208 3208 3208 3208 3208 3208 3208 3208 3208 3238 3238 3238 3238 3269 3399 4522 4463 4463 4463 4463 4463 4522 4522 4522 4522 4522 6497 6497 6497 6622 6889 7030 7030 7178 7178 7178 7178 7178 7332 7332 7332 7332 7178 7178 7178 7178 7178 7178 7178 7178 7332 7332 7492 7332 7332 7332 7332 7332 7332 7332 7332 7332 7492 7492 7492 7492 7492 7492 7492 7492 7332 7178 7178 7030 7030 7030 7030 7030 7178 7492 7492 7492 7332 7332 7332 7332 7332 7178 7178 7332 7332 7332 7332 7332 7332 7492 7492 7332 7332 7332 7332 7332 7332 7332 7332 7332 7332 7332 7332 7332 7332 7332 7492 7492 7492 7492 7492 7492 5210 5210 5210 5132 5132 5132 5132 5132 5132 5132 5132 5056 5056 4983 4983 4983 4983 4983 4983 4911 4911 4911 4911 4911 4911 4911 4911 4911 4911 4911 4911 4911 4911 4911 4842 4842 4842 4842 4842 4842 4842 4842 4842 4842 4842 4842 4842 4842 4774 4774 4774 4842 4708 4708 4774 4774 4774 4842 4842 0 0 0 0 0 0 0 0 0 0 0 0 0 0 0 0 7332 7178 7178 7030 6753 6753 6753 6622 6622 6497 6497 6497 6375 6375 6375 6375 6375 6375 6375 3948 3948 3948 3948 3948 3948 3994 3994 3994 3994 3994 4041 4041 4041 4041 4041 4041 3994 3994 4041 4041 4089 4089 4089 4089 4089 4089 4089 4089 4089 4089 4089 4089 4089 4089 4089 4089 4089 4089 4089 4089 4089 4089 4089 4089 4089 4041 4041 3994 3994 3994 4983 4983 4911 4911 4842 4842 4842 4842 4842 4774 4774 4774 4774 4708 4708 4708 4645 4645 4645 4645 4582 4582 4582 4582 4582 4582 4522 4522 4522 4582 4582 4582 4582 4582 4582 4582 4582 4582 4582 4582 4582 4522 4522 4522 4522 4522 4522 4522 4582 4582 4582 4582 4582 4645 4582 4582 4582 4582 4522 4522 4522 4522 4522 4522 4582 4582 4582 4582 4582 4582 4582 4582 4582 4522 4522 4582 4582 4522 4522 4582 4582 4582 4522 4463 4463 4463 4463 4522 4522 4522 4463 4463 4522 4522 4522 4522 4522 4522 4522 4522 4522 4522 4522 4522 4522 4522 4522 4522 4522 4522 4463 4463 4522 4522 4522 4522 4522 4522 4582 4582 4582 4582 4582 4582 0 0 0 0 0 0 0 0 0 0 0 0
0 0 0 0 0 0 0 0 0 0 0 0 0 0 0 0 0 0 0 0 0 0 0 0 0 0 0 0 0 0 4645 4645 4645 4708 4774 4774 4774 4842 4842 4842 4842 4842 4842 4842 4842 4842 4911 4983 4983 4983 5056 5056 5132 5132 5210 5291 5460 5640 5832 6038 6038 6038 6038 6038 6038 6038 6038 6038 6038 6038 6038 6038 6038 5933 5933 5933 5933 5933 6038 6038 5933 5933 5933 5933 6038 5933 5933 5933 5933 5933 5933 5933 5933 5933 5933 6038 6038 6038 6038 6038 6038 6146 6146 6146 6146 6259 6375 6497 6497 6497 6497 6497 6497 6497 6497 6497 6497 6622 6622 6622 6622 6622 6622 6497 6497 6622 6622 6622 6622 6622 6622 6622 6622 6622 6622 6622 6753 6753 6753 6753 6753 3092 3092 3092 3092 3092 3092 3092 3092 3092 3092 3064 3064 3064 3064 3064 3064 3064 3064 3064 3064 3064 3092 3092 3092 3092 3120 3120 3092 3092 3092 3092 3092 3092 3092 3120 3120 3120 3120 3149 3149 3149 3149 3149 3149 3149 3149 3149 3149 3149 3149 3149 3149 3149 3149 3149 3149 3149 3149 3149 3149 3149 3178 3149 3149 3149 3149 3178 3178 3178 3178 3178 3178 3178 3178 3178 3178 3178 3178 3178 3178 3208 3208 3208 3208 3208 3208 3208 3208 3238 3238 3238 3238 3238 3238 3238 3238 3208 3208 3178 3178 3208 3208 3208 3208 3208 3208 3238 3238 3238 3238 3238 3238 3238 3269 4522 4522 4463 4463 4463 4463 4463 4522 4522 4522 4522 4582 6375 6375 6375 6497 6753 7030 7178 7332 7332 7332 7332 7332 7332 7332 7332 7332 7332 7178 7178 7030 7030 7030 7030 7178 7178 7332 7492 7332 7332 7332 7332 7492 7492 7492 7492 7492 7492 7492 7492 7492 7492 7492 7492 7492 7492 7492 7492 7178 7178 7178 7178 7332 7492 7660 7660 7492 7492 7492 7332 7332 7332 7332 7332 7332 7332 7332 7332 7332 7332 7492 7492 7492 7492 7492 7492 7332 7332 7332 7332 7332 7332 7332 7332 7332 7492 7492 7492 7492 7492 7492 7492 5291 5210 5210 5210 5132 5132 5132 5132 5132 5132 5132 5132 5132 5056 4983 4983 5056 4983 4983 4983 4911 4911 4911 4911 4911 4911 4911 4911 4911 4911 4911 4911 4911 4911 4911 4842 4842 4842 4842 4842 4842 4842 4842 4842 4842 4842 4842 4842 4842 4842 4842 4842 4842 4708 4708 4774 4774 0 0 0 0 0 0 0 0 0 0 0 0 0 0 0 0 0 0 0 7332 7332 7332 7030 6753 6753 6753 6622 6622 6622 6497 6497 6375 6375 6375 6375 6375 6375 6375 3948 3948 3948 3948 3948 3948 3994 3994 3994 3994 4041 4041 4041 4041 4041 4041 4041 3994 3994 4041 4041 4089 4089 4089 4089 4089 4089 4089 4089 4089 4089 4089 4089 4089 4089 4089 4089 4089 4089 4089 4089 4089 4089 4089 4089 4089 4041 3994 3994 3994 3994 4983 4983 4911 4911 4842 4842 4842 4842 4842 4774 4774 4774 4774 4708 4708 4708 4708 4645 4645 4645 4645 4582 4582 4582 4582 4522 4522 4522 4522 4582 4582 4582 4582 4582 4582 4582 4582 4582 4582 4582 4582 4582 4582 4522 4522 4522 4522 4522 4582 4582 4582 4582 4582 4645 4582 4582 4582 4582 4522 4522 4522 4522 4522 4522 4522 4582 4522 4522 4522 4582 4582 4582 4582 4522 4522 4522 4522 4522 4522 4582 4582 4582 4522 4522 4522 4522 4522 4522 4522 4522 4463 4463 4463 4463 4463 4463 4463 4463 4463 4522 4522 4522 4522 4522 4522 4522 4522 4522 4522 4522 4522 4522 4522 4522 4522 4522 4522 4522 4582 4582 4582 4582 4582 4582 0 0 0 0 0 0 0 0 0 0 0 0
0 0 0 0 0 0 0 0 0 0 0 0 0 0 0 0 0 0 0 0 0 0 0 0 0 0 0 0 0 0 4645 4645 4645 4708 4708 4708 4774 4842 4842 4842 4842 4842 4842 4842 4842 4842 4911 4983 4983 4983 5056 5056 5132 5132 5210 5291 5460 5640 5832 5933 6038 6038 6038 6038 6038 6038 6038 6038 6038 6038 6038 5933 5933 5933 5933 6038 6038 6038 6038 6038 5933 5933 5933 5933 5933 5933 5933 5933 5933 5933 6038 6038 6038 5933 5933 6038 6038 6038 6038 6038 6038 6146 6038 6038 6146 6259 6375 6497 6497 6497 6622 6622 6622 6622 6622 6622 6497 6497 6497 6497 6622 6622 6622 6622 6622 6622 6622 6622 6622 6622 6622 6622 6622 6622 6622 6622 6753 6753 6753 6753 6753 3092 3092 3092 3092 3092 3092 3092 3092 3092 3092 3064 3064 3064 3064 3064 3064 3064 3064 3064 3064 3064 3092 3092 3092 3092 3120 3120 3120 3120 3120 3092 3092 3092 3092 3120 3120 3120 3120 3149 3149 3149 3149 3149 3149 3149 3149 3149 3149 3149 3149 3149 3149 3149 3149 3149 3149 3149 3149 3149 3178 3178 3178 3149 3149 3149 3149 3178 3178 3178 3178 3178 3178 3178 3178 3178 3178 3178 3178 3208 3208 3208 3208 3208 3208 3208 3208 3208 3238 3238 3238 3238 3238 3238 3238 3238 3238 3208 3208 3178 3178 3178 3208 3208 3208 3208 3208 3208 3238 3238 3238 3238 3238 3238 3269 4522 4522 4463 4463 4463 4463 4463 4522 4522 4522 4582 4582 6375 6375 6375 6497 6622 6889 7030 7332 7332 7332 7332 7332 7332 7332 7332 7332 7332 7178 7178 7030 7030 7030 7030 7030 7178 7178 7332 7332 7492 7492 7332 7030 7030 7178 7178 7332 7332 7332 7332 7332 7492 7492 7492 7492 7492 7492 7332 7332 7332 7332 7332 7492 7492 7492 7492 7492 7492 7492 7492 7492 7492 7332 7332 7332 7332 7332 7332 7332 7332 7492 7492 7492 7492 7492 7492 7492 7492 7332 7332 7332 7332 7332 7492 7492 7492 7492 7492 7492 7660 7660 7660 5291 5210 5210 5210 5132 5132 5132 5132 5132 5132 5132 5132 5132 5056 5056 5056 5056 5056 4983 4983 4911 4911 4911 4911 4911 4911 4911 4911 4911 4911 4911 4911 4911 4911 4911 4842 4842 4842 4842 4842 4842 4842 4842 4842 4842 4842 4842 4842 4842 4842 4842 4842 4842 4774 4774 4774 4842 0 0 0 0 0 0 0 0 0 0 0 0 0 0 0 0 0 0 0 0 0 7332 7178 6753 6753 6753 6622 6622 6622 6497 6497 6375 6375 6375 6375 6375 6375 6259 3948 3948 3948 3948 3994 3994 3994 3994 3994 3994 4041 4041 4041 4041 4089 4041 4041 4041 4041 4041 4041 4089 4089 4089 4089 4089 4089 4089 4089 4089 4089 4089 4089 4089 4089 4089 4089 4089 4089 4089 4089 4089 4089 4089 4089 4089 4041 3994 3994 3994 4983 4983 4983 4911 4911 4842 4842 4842 4774 4774 4774 4774 4708 4708 4708 4708 4708 4708 4645 4645 4645 4645 4582 4582 4582 4582 4522 4522 4522 4522 4582 4582 4582 4582 4582 4582 4582 4582 4582 4582 4582 4582 4522 4522 4522 4522 4522 4522 4522 4582 4582 4582 4582 4582 4645 4582 4582 4582 4582 4582 4582 4522 4522 4522 4522 4522 4522 4522 4522 4522 4522 4522 4522 4522 4522 4522 4522 4522 4522 4522 4582 4522 4522 4522 4522 4522 4522 4522 4522 4522 4522 4463 4463 4463 4463 4463 4463 4463 4463 4463 4522 4522 4522 4522 4522 4522 4522 4522 4522 4582 4582 4522 4522 4522 4522 4522 4582 4582 4582 4582 4582 4582 4582 4582 4582 0 0 0 0 0 0 0 0 0 0 0 0
0 0 0 0 0 0 0 0 0 0 0 0 0 0 0 0 0 0 0 0 0 0 0 0 0 0 0 0 0 0 4645 4645 4645 4708 4708 4708 4708 4774 4842 4842 4842 4842 4842 4842 4842 4842 4911 4983 4983 5056 5056 5132 5132 5132 5210 5291 5460 5640 5832 5933 6038 6038 6038 6038 6038 6038 6038 6038 6038 6038 6038 5933 5933 5933 5933 5933 5933 5933 5933 5933 5933 5933 5933 5933 5933 5933 5933 5933 5933 5933 6038 6038 6038 6038 6038 6038 6146 6038 6038 6038 6038 6038 6038 6038 6146 6259 6375 6497 6497 6497 6622 6622 6622 6622 6622 6622 6497 6497 6497 6497 6622 6622 6622 6622 6622 6622 6622 6622 6622 6622 6622 6622 6622 6622 6622 6622 6753 6753 6753 6753 6753 3092 3092 3092 3092 3092 3092 3092 3092 3092 3092 3064 3064 3064 3064 3064 3064 3064 3064 3064 3064 3064 3092 3092 3120 3120 3120 3120 3120 3120 3120 3120 3120 3120 3120 3120 3120 3120 3120 3149 3149 3149 3149 3149 3149 3149 3149 3149 3149 3149 3149 3149 3149 3149 3149 3149 3149 3149 3149 3149 3178 3178 3178 3178 3178 3178 3178 3178 3178 3178 3178 3178 3178 3178 3178 3178 3178 3178 3208 3208 3208 3208 3208 3208 3208 3208 3208 3208 3238 3238 3238 3238 3238 3238 3238 3238 3238 3208 3208 3178 3178 3178 3208 3208 3208 3208 3208 3208 3238 3238 3238 3238 3238 3269 3300 4522 4522 4463 4463 4463 4463 4522 4522 4522 4522 4582 6259 6259 6259 6259 6375 6375 6622 6753 7030 7332 7332 7332 7332 7332 7332 7332 7332 7332 7178 6889 6753 6753 6753 6622 6622 6622 6622 6497 6497 6497 6497 6497 6753 6753 6753 7030 7178 7332 7332 7178 7178 7332 7492 7492 7492 7660 7660 7332 7332 7332 7030 7030 7492 7332 7332 7492 7492 7492 7492 7492 7492 7332 7332 7332 7332 7332 7332 7332 7332 7332 7492 7492 7492 7492 7492 7492 7492 7492 7332 7332 7332 7332 7332 7492 7492 7492 7492 7492 7492 7660 5210 5210 5210 5210 5210 5210 5210 5132 5132 5132 5132 5132 5132 5132 5132 5056 5056 5056 5056 5056 5056 4983 4983 4983 4983 4911 4911 4911 4911 4911 4911 4911 4911 4911 4911 4911 4911 4842 4842 4842 4911 4911 4911 4842 4842 4842 4842 4842 4842 4842 4842 4842 4842 4842 4842 4774 4774 4774 4842 0 0 0 0 0 0 0 0 0 0 0 0 0 0 0 0 0 0 0 0 0 7332 7178 6753 6622 6622 6622 6622 6622 6497 6497 6375 6375 6375 6375 6375 6375 6259 6259 3948 3948 3948 3994 3994 3994 3994 3994 3994 3994 4041 4041 4041 4089 4089 4089 4041 4041 4041 4041 4041 4089 4089 4089 4139 4139 4089 4089 4089 4089 4089 4089 4089 4089 4089 4089 4089 4089 4089 4089 4089 4089 4089 4089 4089 4041 4041 4041 4983 4983 4983 4983 4911 4911 4842 4842 4842 4774 4774 4774 4774 4708 4708 4708 4708 4708 4708 4645 4645 4645 4645 4582 4582 4582 4582 4522 4522 4522 4522 4522 4522 4522 4522 4522 4522 4522 4522 4582 4582 4582 4582 4522 4522 4522 4522 4522 4522 4582 4582 4582 4582 4582 4582 4582 4582 4582 4522 4522 4582 4582 4522 4522 4522 4522 4522 4522 4522 4522 4522 4522 4522 4522 4522 4522 4522 4522 4522 4522 4522 4522 4522 4522 4522 4522 4522 4522 4522 4522 4522 4522 4463 4463 4463 4463 4463 4463 4463 4522 4522 4522 4522 4522 4522 4522 4522 4522 4522 4522 4582 4582 4522 4522 4522 4522 4522 4522 4522 4522 4522 4522 4582 4582 4582 4582 0 0 0 0 0 0 0 0 0 0 0 0
0 0 0 0 0 0 0 0 0 0 0 0 0 0 0 0 0 0 0 0 0 0 0 0 0 0 0 0 0 0 4645 4645 4645 4708 4708 4708 4708 4774 4774 4842 4842 4842 4842 4842 4842 4842 4911 4983 4983 5056 5132 5132 5132 5132 5210 5210 5460 5832 6038 6038 6038 6038 6038 6038 6038 6038 6038 6038 6038 6038 6038 5933 5933 5933 5933 5933 5933 5933 5933 5933 5933 5933 5933 5933 5933 5933 5933 6038 6038 6038 6038 6038 6038 6038 6038 6038 6146 6038 5933 5933 5933 5933 5933 5933 6259 6259 6259 6375 6497 6497 6622 6622 6622 6622 6622 6622 6622 6497 6497 6622 6622 6622 6622 6622 6622 6622 6622 6622 6622 6622 6622 6622 6622 6622 6622 6622 6753 6753 6753 6753 6753 3092 3092 3092 3092 3092 3092 3092 3092 3092 3092 3064 3064 3064 3064 3064 3064 3064 3064 3064 3064 3092 3092 3092 3120 3120 3120 3120 3120 3120 3120 3120 3092 3092 3120 3120 3120 3120 3120 3149 3149 3149 3149 3149 3149 3149 3149 3149 3149 3149 3149 3149 3149 3149 3149 3149 3149 3149 3149 3149 3178 3178 3178 3178 3178 3178 3178 3178 3178 3178 3178 3178 3178 3178 3178 3178 3178 3178 3208 3208 3208 3208 3208 3208 3208 3208 3208 3208 3238 3238 3238 3238 3238 3238 3238 3238 3238 3238 3238 3208 3208 3208 3208 3208 3208 3238 3208 3208 3238 3238 3238 3238 3238 3269 3300 4463 4463 4463 4463 4463 4463 4522 4522 4522 4522 4582 6146 6146 6146 6259 6259 6259 6375 6497 6753 7178 7332 7332 7332 7332 7332 7332 7332 7178 7030 6889 6753 6622 6622 6497 6497 6497 6497 6375 6375 6497 6497 6497 6497 6497 6497 6753 6497 6497 6497 6497 6497 6497 6497 7492 7492 7492 6622 6622 6622 6497 6497 6497 6497 6622 6622 6622 6889 7332 7332 7332 7332 7332 7332 7332 7332 7332 7332 7332 7332 7332 7492 7492 7660 7660 7492 7492 7492 7492 7492 7492 7178 7178 7332 7492 7660 7492 7492 7492 7492 7660 5210 5210 5210 5210 5210 5210 5210 5132 5132 5132 5132 5132 5132 5132 5132 5056 5056 5056 5056 5056 5056 4983 4983 4983 4983 4911 4911 4911 4911 4911 4911 4911 4911 4911 4911 4911 4911 4911 4842 4842 4842 4842 4911 4842 4842 4842 4842 4774 4774 4774 4774 4774 4774 4842 4842 4774 4774 4774 4842 0 0 0 0 0 0 0 0 0 0 0 0 0 0 0 0 0 0 0 0 0 0 7178 6753 6622 6622 6622 6622 6622 6622 6497 6375 6375 6375 6375 6375 6375 6259 6259 3948 3948 3994 3994 3994 3994 3994 3994 3994 3994 3994 4041 4041 4089 4089 4089 4041 4041 3994 3994 4041 4089 4089 4139 4139 4139 4089 4089 4089 4089 4089 4089 4089 4089 4089 4089 4089 4089 4089 4089 4089 4089 4089 4089 4089 3994 3994 4041 4983 4983 4983 4983 4911 4911 4842 4842 4842 4774 4774 4774 4708 4708 4708 4708 4708 4708 4708 4645 4645 4645 4645 4582 4582 4582 4582 4522 4522 4522 4522 4522 4522 4522 4522 4522 4522 4522 4522 4582 4582 4582 4582 4582 4522 4522 4522 4522 4582 4582 4582 4582 4582 4582 4582 4582 4582 4582 4522 4522 4582 4582 4522 4522 4522 4522 4522 4522 4522 4522 4522 4522 4522 4522 4522 4522 4522 4522 4522 4522 4522 4522 4522 4522 4463 4463 4463 4463 4463 4463 4463 4463 4463 4463 4463 4463 4463 4463 4522 4522 4522 4522 4522 4522 4522 4522 4522 4522 4522 4522 4582 4582 4582 4522 4522 4522 4522 4522 4522 4522 4522 4522 4582 4582 4582 4582 0 0 0 0 0 0 0 0 0 0 0 0
0 0 0 0 0 0 0 0 0 0 0 0 0 0 0 0 0 0 0 0 0 0 0 0 0 0 0 0 0 0 4708 4708 4708 4708 4708 4708 4708 4774 4774 4842 4842 4842 4842 4842 4842 4842 4911 4983 4983 5056 5132 5132 5132 5132 5210 5210 5460 5832 5933 5933 6038 6038 6038 5933 5933 6038 6038 6038 6038 5933 5933 5933 5933 5933 5933 5933 5933 5933 5933 5933 5933 5933 5933 5933 5933 5933 5933 6038 6038 6038 6038 6038 6038 6038 6038 6038 6146 6038 5933 5933 5933 5933 5933 5933 5933 6259 6259 6375 6375 6497 6622 6622 6622 6622 6622 6622 6622 6497 6497 6622 6622 6622 6622 6622 6622 6622 6622 6622 6622 6622 6622 6622 6622 6622 6622 6622 6753 6753 6753 6753 6753 3092 3092 3092 3092 3092 3092 3092 3092 3092 3092 3064 3064 3064 3064 3064 3064 3064 3064 3092 3092 3092 3092 3092 3120 3120 3120 3120 3120 3120 3120 3120 3092 3092 3120 3120 3120 3120 3120 3149 3149 3149 3149 3149 3149 3149 3149 3149 3149 3149 3149 3149 3149 3149 3149 3178 3178 3178 3178 3178 3178 3178 3178 3178 3178 3178 3178 3178 3178 3178 3178 3178 3178 3178 3178 3178 3178 3208 3208 3208 3208 3208 3208 3208 3208 3208 3208 3208 3238 3238 3238 3238 3238 3238 3238 3238 3238 3238 3238 3208 3208 3208 3208 3208 3208 3238 3208 3208 3238 3238 3238 3238 3269 3269 3300 4463 4463 4463 4463 4522 4522 4522 4522 4522 4522 4522 6146 6146 6146 6146 6146 6146 6146 6259 6375 6753 7030 7178 7178 7332 7332 7332 7332 7178 7030 6889 6753 6622 6497 6375 6375 6375 6375 6375 6375 6375 6375 6375 6375 6375 6375 6375 6375 6375 6375 6375 6375 6375 6497 6497 6497 6497 6622 6622 6622 6497 6497 6497 6497 6622 6622 6622 6622 7030 7332 7332 7332 7332 7332 7332 7332 7332 7332 0 0 0 0 0 0 0 0 7660 7492 7492 7492 7492 7178 6889 6889 6889 6889 6889 6889 6889 0 5210 5210 5210 5210 5210 5210 5210 5210 5132 5132 5132 5132 5132 5132 5132 5132 5132 5132 5132 5132 5056 5056 5056 4983 4983 4983 4983 4983 4983 4911 4911 4911 4911 4911 4911 4911 4911 4911 4911 4911 4842 4842 4842 4911 4842 4842 4842 4842 4774 4774 4774 4774 4774 4774 4774 4842 4774 4774 4774 4774 0 0 0 0 0 0 0 0 0 0 0 0 0 0 0 0 0 0 0 0 0 0 0 6889 6753 6622 6497 6497 6497 6497 6497 6375 6375 6375 6375 6375 6375 6259 6259 3948 3948 3994 3994 3994 3994 3994 3994 3994 3994 3994 4089 4089 4089 4089 4089 4089 3994 3994 3994 4041 4089 4089 4139 4139 4190 4089 4089 4089 4089 4089 4089 4089 4089 4089 4089 4089 4089 4089 4089 4089 4089 4089 4089 4089 3994 3994 4983 4983 4983 4983 4983 4911 4911 4911 4842 4842 4774 4774 4774 4708 4708 4708 4708 4708 4708 4708 4645 4645 4708 4645 4582 4582 4582 4582 4582 4522 4522 4522 4522 4522 4522 4522 4522 4522 4522 4522 4582 4582 4582 4582 4582 4522 4522 4582 4582 4582 4582 4582 4582 4582 4582 4582 4582 4582 4582 4582 4582 4582 4582 4522 4522 4522 4522 4522 4522 4522 4522 4522 4522 4522 4522 4522 4522 4522 4522 4522 4522 4522 4522 4522 4522 4463 4463 4463 4463 4463 4463 4463 4463 4463 4463 4463 4463 4463 4463 4522 4522 4522 4522 4522 4522 4522 4522 4522 4522 4522 4522 4582 4582 4582 4582 4582 4582 4582 4582 4582 4582 4582 4582 4582 4582 4645 4645 0 0 0 0 0 0 0 0 0 0 0 0
0 0 0 0 0 0 0 0 0 0 0 0 0 0 0 0 0 0 0 0 0 0 0 0 0 0 0 0 0 0 4708 4708 4708 4708 4708 4708 4708 4774 4774 4842 4842 4842 4842 4842 4842 4911 4983 5056 5056 5056 5132 5132 5132 5132 5210 5291 5460 5832 5933 5933 6038 6038 5933 5933 5933 5933 5933 5933 5933 5933 5933 5933 5933 5933 5933 5933 5933 5933 5933 5933 5933 5933 6038 6038 6038 6038 6038 6038 6038 6038 6038 6038 6038 6038 6038 6038 6038 6038 6038 5933 5933 6038 5933 5933 6038 6259 6259 6375 6375 6497 6622 6622 6622 6622 6622 6622 6622 6497 6497 6622 6622 6622 6622 6622 6622 6622 6622 6622 6622 6622 6622 6622 6622 6622 6622 6622 6622 6753 6753 6753 6753 3092 3092 3092 3092 3092 3092 3092 3092 3092 3092 3064 3064 3064 3064 3064 3064 3064 3092 3092 3092 3092 3092 3092 3092 3120 3120 3120 3120 3120 3120 3120 3092 3092 3120 3120 3120 3120 3120 3149 3149 3149 3149 3149 3149 3149 3149 3149 3149 3149 3149 3149 3149 3149 3149 3178 3178 3178 3178 3178 3178 3178 3178 3178 3178 3178 3178 3178 3178 3178 3178 3178 3178 3178 3178 3178 3178 3178 3208 3208 3208 3208 3208 3208 3208 3208 3208 3208 3238 3238 3238 3238 3238 3238 3238 3238 3238 3238 3238 3208 3208 3208 3208 3208 3208 3238 3238 3238 3238 3238 3238 3238 3269 3269 3269 4463 4463 4463 4463 4522 4522 4522 4522 4463 4463 4463 6146 6146 6146 6146 6146 6146 6146 6259 6375 6497 6753 7178 7178 7332 7332 7332 7332 7332 7178 7030 6622 6497 6375 6375 6375 6375 6375 6375 6375 6375 6375 6259 6259 6259 6259 6375 6375 6375 6375 6375 6375 6375 6375 6497 6497 6497 6497 6622 6497 6497 6497 6497 6497 6497 6497 6497 6497 6753 7030 7178 7332 7332 7332 7332 7332 7332 0 0 0 0 0 0 0 0 0 0 0 0 6889 6889 6889 6889 6753 6753 6753 6889 6889 6889 6889 0 5210 5210 5210 5210 5210 5210 5210 5132 5132 5132 5132 5132 5132 5132 5132 5132 5132 5132 5132 5132 5132 5132 5056 5056 5056 4983 4983 4983 4911 4911 4911 4911 4911 4911 4911 4911 4911 4911 4911 4842 4842 4842 4842 4842 4842 4842 4842 4842 4774 4774 4774 4774 4774 4774 4774 4708 4645 4645 4708 0 0 0 0 0 0 0 0 0 0 0 0 0 0 0 0 0 0 0 0 0 0 0 0 6753 6622 6497 6375 6375 6497 6375 6375 6375 6375 6375 6375 6375 6259 6259 3948 3948 3994 3994 3994 3994 3994 3994 3994 4041 4041 4089 4089 4089 4089 4089 4089 3994 3994 3994 4041 6375 6375 6375 6375 4190 4089 4089 4089 4089 4089 4089 4089 4089 4089 4089 4089 4089 4089 4089 4089 4089 4089 4089 4089 4041 4041 4983 4983 4983 4983 4983 4911 4911 4911 4842 4842 4842 4774 4774 4774 4708 4708 4708 4708 4708 4708 4645 4645 4708 4708 4645 4582 4582 4582 4582 4522 4522 4522 4522 4522 4522 4522 4522 4522 4522 4522 4522 4582 4582 4582 4582 4645 4582 4582 4582 4582 4582 4582 4582 4582 4582 4582 4582 4582 4582 4582 4582 4582 4582 4522 4522 4522 4522 4522 4522 4522 4522 4522 4522 4522 4522 4522 4522 4522 4522 4522 4522 4522 4582 4582 4522 4463 4463 4463 4463 4463 4463 4463 4463 4463 4463 4463 4463 4463 4463 4463 4463 4463 4522 4522 4522 4522 4522 4522 4522 4522 4522 4582 4582 4582 4582 4582 4582 4582 4582 4582 4582 4582 4582 4582 4582 4582 4582 0 0 0 0 0 0 0 0 0 0 0 0
0 0 0 0 0 0 0 0 0 0 0 0 0 0 0 0 0 0 0 0 0 0 0 0 0 0 0 0 0 0 4708 4708 4708 4708 4708 4708 4708 4774 4774 4842 4842 4842 4842 4842 4911 4983 4983 5056 5056 5056 5132 5132 5132 5132 5132 5374 5460 5640 5933 5933 6038 6038 5933 5933 5933 5933 5933 5933 5933 5933 5832 5832 5832 5832 5832 5933 5933 5933 5933 5933 5933 5933 6038 6038 6038 6038 6038 6038 6038 6038 6038 6038 5933 5933 5933 5933 6038 5933 5933 5933 5933 5933 5933 6038 6038 6146 6146 6259 6375 6497 6497 6497 6497 6622 6622 6622 6622 6497 6497 6622 6622 6622 6622 6622 6622 6622 6622 6622 6622 6622 6622 6622 6622 6622 6622 6622 6622 6753 6753 6753 6753 3092 3092 3092 3092 3092 3092 3092 3092 3092 3092 3064 3064 3064 3064 3092 3064 3064 3092 3092 3092 3092 3092 3092 3092 3120 3120 3149 3149 3149 3149 3120 3120 3120 3120 3120 3120 3120 3120 3149 3149 3149 3149 3149 3149 3149 3149 3149 3149 3149 3149 3149 3149 3149 3149 3178 3178 3178 3178 3178 3178 3178 3178 3178 3178 3178 3178 3178 3178 3178 3178 3178 3178 3178 3178 3178 3178 3178 3208 3208 3208 3208 3208 3208 3208 3238 3208 3208 3238 3238 3238 3238 3238 3238 3238 3238 3238 3238 3238 3208 3208 3208 3208 3208 3208 3238 3238 3238 3238 3238 3238 3238 3269 3269 3269 4463 4463 4463 4463 4522 4522 4522 4522 4463 4463 4463 6146 6146 6146 6146 6146 6146 6146 6259 6259 6375 6622 7178 7332 7332 7332 7332 7332 7332 7332 7030 6622 6497 6375 6375 6375 6375 6375 6375 6375 6375 6375 6259 6259 6259 6259 6259 6259 6375 6375 6375 6375 6375 6375 6497 6497 6497 6497 6497 6497 6497 6497 6497 6497 6497 6497 6497 6497 6622 6889 7178 7178 7332 7332 7332 7332 7332 0 0 0 0 0 0 0 0 0 0 0 0 0 0 6622 6622 6622 6622 6622 6889 6889 6889 6889 0 5210 5210 5210 5210 5210 5210 5210 5132 5132 5132 5132 5132 5132 5132 5132 5132 5132 5132 5132 5132 5132 5132 5056 5056 5056 4983 4983 4983 4983 4911 4911 4911 4911 4911 4911 4911 4911 4911 4911 4911 4842 4842 4842 4842 4842 4842 4842 4842 4774 4774 4774 4774 4774 4774 4774 4708 4645 4645 4645 4645 4708 0 0 0 0 0 0 0 0 0 0 0 0 0 0 0 0 0 0 0 0 0 0 0 0 0 6259 6259 6375 6375 6375 6375 6375 6375 6375 6375 6259 6259 3994 3994 3994 3994 3994 4041 4041 3994 3994 4041 4041 4089 4089 4089 4089 6375 6375 6375 6375 6375 6375 6375 6375 6375 6375 6259 4089 4089 4041 4041 4089 4089 4089 4089 4089 4089 4089 4089 4089 4089 4089 4089 4089 4089 4089 4139 4983 4983 4983 4983 4983 4983 4983 4911 4911 4911 4911 4842 4774 4774 4774 4708 4708 4708 4708 4708 4708 4645 4645 4708 4645 4645 4582 4582 4582 4582 4522 4522 4522 4522 4522 4522 4522 4522 4522 4522 4522 4522 4582 4582 4582 4582 4582 4582 4582 4582 4582 4582 4582 4582 4582 4582 4582 4582 4582 4582 4582 4582 4582 4582 4582 4522 4522 4522 4522 4522 4522 4522 4522 4522 4522 4582 4522 4522 4522 4522 4522 4522 4522 4582 4582 4582 4522 4522 4522 4463 4463 4463 4463 4463 4463 4463 4463 4463 4463 4463 4463 4463 4463 4522 4522 4522 4522 4522 4522 4522 4522 4522 4522 4522 4522 4582 4582 4582 4582 4582 4582 4522 4522 4522 4522 4582 4582 4582 0 0 0 0 0 0 0 0 0 0 0 0
0 0 0 0 0 0 0 0 0 0 0 0 0 0 0 0 0 0 0 0 0 0 0 0 0 0 0 0 0 0 4708 4708 4708 4708 4708 4708 4708 4774 4774 4774 4774 4842 4842 4842 4911 4983 4983 5056 5056 5056 5132 5132 5132 5132 5132 5291 5460 5640 5933 5933 6038 6038 5832 5832 5832 5832 5832 5832 5933 5933 5832 5832 5832 5832 5832 5933 5933 5933 6038 6038 6038 6038 6038 6038 6038 6038 6038 6038 6038 6038 6038 6038 5933 5933 5933 5933 6038 5933 5933 5933 5933 5933 5933 5933 6146 6146 6146 6259 6375 6497 6497 6497 6497 6622 6622 6622 6622 6497 6497 6622 6622 6622 6622 6622 6622 6622 6622 6622 6622 6622 6753 6622 6622 6622 6622 6753 6753 6753 6753 6889 6889 6889 3092 3092 3092 3092 3092 3092 3092 3092 3092 3064 3064 3064 3064 3092 3092 3092 3092 3092 3092 3092 3092 3092 3092 3120 3120 3120 3120 3149 3120 3120 3120 3120 3120 3120 3149 3149 3149 3149 3149 3149 3149 3149 3149 3149 3149 3149 3149 3149 3178 3178 3178 3178 3178 3178 3178 3178 3178 3178 3178 3178 3178 3178 3178 3178 3178 3178 3178 3178 3178 3178 3178 3178 3178 3178 3178 3178 3208 3208 3238 3208 3208 3238 3238 3238 3238 3238 3238 3238 3238 3238 3238 3238 3238 3238 3238 3238 3238 3208 3208 3208 3208 3208 3208 3238 3238 3238 3238 3238 3238 3238 3269 3269 3269 4463 4463 4463 4522 4522 4522 4522 4522 4522 4463 4463 6146 6146 6146 6146 6146 6146 6146 6259 6259 6375 6497 6889 7030 7332 7332 7332 7492 7332 7332 7030 6497 6375 6375 6375 6375 6375 6375 6375 6375 6375 6375 6259 6259 6259 6259 6259 6259 6375 6375 6375 6375 6375 6375 6497 6497 6497 6497 6497 6497 6497 6497 6497 6497 6497 6497 6497 6497 6497 6753 6753 7030 7178 7332 7332 7332 7332 0 0 0 0 0 0 0 0 0 0 0 0 6889 6889 6889 6622 6622 6622 6622 6889 6753 6753 6753 0 5132 5132 5132 5210 5210 5210 5210 5210 5132 5132 5132 5132 5132 5132 5132 5132 5132 5132 5132 5132 5132 5132 5056 5056 5056 4983 4983 4983 4983 4983 4983 4911 4911 4911 4911 4911 4911 4911 4911 4911 4842 4842 4842 4842 4842 4842 4842 4842 4774 4774 4774 4774 4774 4708 4708 4645 4645 4645 4645 4645 4708 0 0 0 0 0 0 0 0 0 0 0 0 0 0 0 0 0 0 0 0 0 0 0 0 0 6259 6259 6375 6375 6375 6375 6375 6375 6375 6375 6375 6375 3994 3994 3994 4041 4041 4041 4041 3994 3994 4089 4089 4089 4089 4089 6375 6375 6375 6375 6375 6375 6375 6375 6375 6375 6259 6259 6259 4089 4041 4041 4089 4089 4089 4089 4089 4089 4089 4089 4089 4089 4089 4089 4089 4089 4139 4190 4983 4983 4983 4983 4983 4983 4983 4911 4911 4911 4911 4842 4774 4774 4774 4708 4708 4708 4708 4708 4708 4645 4645 4708 4645 4645 4582 4582 4582 4582 4582 4582 4582 4522 4522 4522 4522 4522 4522 4522 4522 4522 4582 4582 4582 4582 4582 4582 4582 4582 4582 4582 4582 4582 4582 4582 4582 4582 4582 4582 4645 4645 4645 4582 4582 4582 4522 4522 4522 4522 4522 4522 4522 4522 4522 4522 4522 4522 4522 4522 4522 4582 4582 4582 4582 4582 4522 4463 4463 4463 4463 4463 4463 4463 4463 4463 4463 4463 4463 4463 4463 4522 4522 4522 4522 4522 4522 4522 4522 4522 4522 4522 4522 4522 4522 4582 4582 4582 4522 4522 4522 4522 4522 4522 4522 4522 4582 4582 0 0 0 0 0 0 0 0 0 0 0 0
0 0 0 0 0 0 0 0 0 0 0 0 0 0 0 0 0 0 0 0 0 0 0 0 0 0 0 0 0 0 4708 4708 4708 4708 4708 4708 4708 4774 4774 4774 4774 4842 4842 4842 4911 4983 4983 5056 5056 5056 5132 5132 5132 5132 5132 5291 5460 6038 5933 5933 5933 5933 5832 5832 5832 5832 5832 5832 5933 5933 5832 5832 5832 5832 5832 5933 5933 5933 6038 6038 6038 6038 6038 6038 6038 6038 5933 5933 5933 5933 5933 5933 5933 5933 5933 6038 6038 6038 6038 5933 5933 5933 5933 6038 6038 6146 6146 6146 6259 6375 6497 6497 6497 6622 6622 6622 6622 6497 6497 6622 6622 6622 6622 6622 6622 6622 6622 6622 6622 6622 6622 6622 6622 6622 6622 6753 6753 6753 6753 6753 6889 6889 6889 3092 3064 3064 3064 3064 3092 3092 3092 3064 3064 3064 3092 3092 3092 3092 3092 3120 3092 3092 3092 3092 3120 3120 3120 3120 3120 3120 3120 3120 3120 3120 3120 3120 3149 3149 3149 3149 3149 3149 3149 3149 3149 3149 3149 3149 3149 3149 3178 3178 3178 3178 3178 3178 3149 3149 3178 3178 3178 3178 3178 3178 3178 3178 3178 3178 3178 3178 3178 3178 3178 3178 3178 3178 3178 3208 3208 3208 3238 3208 3208 3238 3238 3238 3238 3238 3238 3238 3238 3238 3238 3238 3238 3238 3238 3238 3238 3208 3208 3208 3208 3208 3208 3238 3238 3238 3238 3238 3238 3269 3269 3269 3269 4463 4463 4463 4522 4522 4522 4522 4522 4522 4463 4463 6146 6146 6146 6146 6146 6146 6146 6259 6259 6259 6375 6622 7030 7332 7332 7332 7492 7492 7332 6889 6497 6375 6375 6375 6375 6375 6375 6375 6375 6375 6375 6375 6375 6375 6375 6375 6375 6375 6375 6375 6375 6497 6497 6497 6497 6497 6497 6497 6497 6497 6497 6497 6497 6497 6497 6497 6497 6497 6622 6753 6889 7178 7332 7332 7332 7332 0 0 0 0 0 0 0 0 0 0 0 0 6889 6889 6889 7178 6753 6753 7178 6889 6753 6753 6753 0 0 5132 5132 5132 5210 5210 5210 5132 5132 5132 5132 5132 5132 5132 5132 5132 5132 5056 5056 5056 5132 5132 5056 5056 5056 4983 4983 4983 4911 4911 4911 4911 4911 4911 4911 4911 4911 4911 4911 4911 4911 4842 4842 4842 4842 4842 4842 4842 4774 4774 4774 4774 4774 4708 4708 4645 4645 4645 4645 0 0 0 0 0 0 0 0 0 0 0 0 0 0 0 0 0 0 0 0 0 0 0 0 0 0 0 6375 6375 6375 6375 6375 6375 6375 6375 6375 6375 6375 6375 3994 3994 4041 4041 4041 4041 4041 4089 4089 4089 4089 4139 4089 4089 6375 6375 6375 6375 6375 6375 6375 6375 6375 6259 6259 6259 6259 4089 4089 4089 4089 4089 4089 4089 4089 4089 4089 4089 4089 4089 4089 4089 4089 4089 4139 4983 4983 4983 4983 4983 4983 4983 4983 4911 4911 4911 4911 4842 4774 4774 4774 4774 4708 4708 4708 4708 4708 4645 4645 4708 4645 4645 4582 4582 4582 4582 4582 4582 4582 4522 4522 4522 4522 4522 4522 4522 4522 4522 4522 4522 4522 4522 4522 4582 4582 4582 4582 4582 4582 4582 4582 4582 4582 4582 4582 4582 4645 4645 4645 4582 4582 4582 4582 4522 4522 4522 4522 4522 4522 4522 4522 4522 4522 4522 4522 4522 4522 4522 4582 4582 4582 4582 4463 4463 4463 4463 4463 4463 4463 4463 4463 4463 4463 4463 4463 4463 4522 4522 4522 4522 4522 4522 4522 4522 4522 4522 4522 4522 4582 4522 4522 4582 4582 4582 4522 4522 4522 4522 4522 4522 4522 4522 4582 4582 0 0 0 0 0 0 0 0 0 0 0 0
0 0 0 0 0 0 0 0 0 0 0 0 0 0 0 0 0 0 0 0 0 0 0 0 0 0 0 0 0 0 4708 4708 4774 4774 4774 4774 4774 4774 4774 4774 4774 4842 4842 4842 4911 4983 4983 4983 5056 5056 5132 5132 5132 5132 5132 5291 5460 6038 5933 5933 5933 5933 5832 5832 5832 5832 5832 5832 5933 5933 5933 5933 5933 5933 5933 5933 5933 5933 6038 6038 6038 6038 6038 6038 6038 6038 5933 5933 5933 5832 5832 5832 5933 5933 5933 5933 6038 6038 6038 6038 6038 6038 6038 6038 6146 6146 6146 6146 6259 6375 6497 6497 6497 6622 6622 6622 6622 6622 6622 6622 6622 6622 6622 6622 6622 6622 6622 6622 6622 6622 6622 6622 6622 6622 6753 6753 6753 6753 6753 6753 6889 6889 6889 6889 3064 3064 3064 3064 3092 3092 3092 3064 3064 3064 3092 3092 3092 3092 3092 3120 3120 3120 3120 3120 3120 3120 3120 3120 3120 3120 3120 3120 3120 3120 3120 3120 3149 3149 3149 3149 3149 3149 3149 3149 3149 3149 3149 3149 3149 3149 3178 3178 3178 3178 3178 3178 3149 3149 3178 3178 3178 3178 3178 3178 3178 3178 3178 3178 3178 3178 3178 3178 3178 3178 3178 3178 3178 3208 3238 3238 3238 3208 3208 3238 3238 3238 3238 3238 3238 3238 3238 3238 3238 3238 3238 3238 3238 3238 3238 3208 3208 3208 3208 3208 3208 3238 3238 3238 3238 3238 3238 3269 3269 3269 3269 4463 4463 4463 4463 4463 4463 4522 4522 4522 4463 4463 6146 6146 6146 6146 6146 6146 6146 6146 6146 6259 6375 6497 7178 7332 7332 7332 7332 7332 7332 6889 6622 6497 6375 6375 6375 6375 6375 6375 6497 6375 6375 6375 6375 6497 6497 6497 6497 6497 6497 6497 6497 6497 6497 6497 6497 6497 6497 6622 6497 6497 6497 6497 6497 6497 6497 6497 6497 6497 6622 6622 6889 7178 7332 7332 7332 7332 0 0 0 0 0 0 0 0 0 0 6889 6889 7030 6889 6889 7178 7178 7178 7178 7178 7178 7178 7178 7332 5132 5132 5132 5132 5132 5132 5132 5132 5132 5132 5132 5132 5132 5132 5132 5132 5132 5056 5056 5056 5132 5132 5056 5056 5056 4983 4983 4983 4911 4911 4911 4911 4911 4911 4911 4911 4911 4911 4911 4842 4842 4842 4842 4842 4842 4842 4842 4842 4774 4774 4774 4774 4774 4774 4774 4708 4645 4645 4645 0 0 0 0 0 0 0 0 0 0 0 0 0 0 0 0 0 0 0 0 0 0 0 0 0 0 0 0 6375 6375 6375 6375 6259 6259 6259 6375 6259 6259 3994 3994 3994 3994 3994 3994 3994 4041 4041 4089 4089 4089 4089 4089 4089 6259 6259 6375 6259 6259 6259 6375 6375 6375 6259 6259 6259 4089 4089 4089 4089 4089 4089 4089 4089 4089 4089 4089 4089 4089 4089 4089 4089 4089 4089 4139 5056 4983 4983 4983 4983 4983 4983 4983 4911 4911 4911 4911 4842 4842 4774 4774 4774 4774 4708 4708 4708 4708 4708 4708 4708 4645 4645 4582 4582 4582 4582 4582 4582 4582 4582 4582 4522 4522 4522 4522 4522 4522 4522 4522 4522 4522 4522 4522 4582 4582 4582 4582 4582 4582 4582 4582 4582 4582 4582 4582 4582 4645 4645 4645 4645 4582 4582 4582 4522 4522 4522 4522 4522 4522 4522 4522 4522 4522 4522 4522 4522 4522 4522 4582 4582 4582 4582 4463 4463 4463 4463 4463 4463 4463 4463 4463 4463 4463 4463 4463 4463 4522 4522 4522 4522 4522 4522 4522 4522 4522 4522 4522 4522 4582 4522 4522 4582 4582 4582 4522 4522 4582 4522 4522 4522 4582 4645 4582 4582 0 0 0 0 0 0 0 0 0 0 0 0
0 0 0 0 0 0 0 0 0 0 0 0 0 0 0 0 0 0 0 0 0 0 0 0 0 0 0 0 0 0 4708 4708 4774 4774 4774 4774 4774 4774 4774 4774 4774 4842 4842 4842 4911 4983 4983 4983 5056 5056 5056 5132 5132 5132 5132 5291 5460 5933 5933 5933 5933 5933 5832 5832 5832 5832 5832 5832 5933 5933 5933 5933 5933 5933 5933 5933 5933 5933 6038 6038 6038 6038 6038 6038 6038 5933 5933 5832 5832 5832 5832 5832 5832 5832 5933 5933 5933 5933 5933 5933 6038 6038 6038 6146 6146 6146 6259 6259 6375 6497 6497 6497 6497 6622 6622 6622 6622 6622 6622 6622 6622 6622 6622 6622 6622 6622 6622 6622 6622 6622 6622 6622 6622 6622 6753 6753 6753 6753 6753 6753 6889 6889 6889 6889 3092 3092 3064 3064 3092 3092 3092 3064 3064 3064 3092 3092 3092 3120 3120 3120 3120 3120 3120 3120 3120 3120 3149 3149 3149 3149 3120 3120 3120 3120 3120 3120 3149 3149 3149 3149 3149 3149 3149 3149 3149 3149 3149 3149 3149 3149 3178 3149 3149 3178 3178 3178 3178 3178 3178 3178 3178 3178 3178 3178 3178 3178 3178 3178 3178 3178 3178 3178 3178 3178 3178 3178 3208 3208 3238 3208 3208 3208 3208 3238 3238 3238 3238 3238 3238 3238 3238 3238 3238 3238 3238 3238 3238 3238 3238 3208 3208 3208 3208 3208 3208 3238 3238 3238 3238 3238 3269 3269 3269 3269 3269 4405 4463 4463 4463 4463 4463 4522 4522 4522 4522 6146 6146 6146 6146 6146 6146 6146 6038 6038 6146 6146 6375 6497 7332 7332 7332 7332 7332 7332 7332 6889 6622 6497 6375 6375 6375 6375 6497 6497 6497 6497 6497 6497 6622 6497 6497 6622 6622 6622 6622 6497 6497 6497 6622 6622 6497 6497 6622 6622 6497 6497 6497 6497 6497 6497 6497 6497 6497 6497 6622 6622 6889 7178 7178 7178 7178 7332 0 0 0 0 0 0 0 0 0 0 6889 6889 7030 6889 6889 7178 7178 7178 7178 7178 7178 7178 7332 7332 5132 5132 5132 5132 5132 5132 5132 5132 5132 5132 5132 5132 5132 5132 5132 5132 5132 5132 5056 5056 5056 5056 5056 4983 4983 4983 4983 4911 4911 4911 4911 4911 4911 4911 4911 4911 4911 4911 4911 4842 4842 4842 4842 4842 4842 4842 4842 4842 4774 4774 4774 4774 4774 4774 4774 4708 4645 4645 4708 0 0 0 0 0 0 0 0 0 0 0 0 0 0 0 0 0 0 0 0 0 0 0 0 0 0 0 0 0 6375 6375 6375 6259 6259 6259 6375 6259 6259 3948 3948 3994 3994 3994 3994 3994 4041 3948 3948 4041 4041 4041 4041 4041 4041 6259 6259 6259 6259 6259 6375 6375 6375 6375 6375 4089 4089 4089 4089 4089 4089 4089 4089 4089 4139 4139 4139 4139 4139 4089 4089 4089 4089 4089 4139 4983 4983 4983 4983 4983 4983 4983 4983 4983 4983 4911 4911 4842 4842 4842 4774 4774 4774 4774 4708 4708 4708 4708 4708 4708 4708 4645 4582 4582 4582 4582 4582 4582 4582 4582 4582 4522 4522 4522 4522 4522 4522 4582 4582 4582 4582 4582 4582 4582 4582 4582 4582 4582 4582 4645 4582 4582 4582 4582 4582 4582 4645 4645 4645 4645 4582 4582 4582 4522 4522 4522 4522 4522 4522 4522 4522 4522 4522 4522 4522 4522 4522 4582 4582 4582 4582 4582 4522 4522 4463 4463 4463 4463 4463 4463 4463 4463 4463 4463 4463 4463 4463 4463 4463 4463 4522 4522 4522 4522 4522 4522 4522 4522 4582 4582 4582 4582 4582 4582 4582 4522 4522 4522 4522 4522 4582 4582 4582 4582 0 0 0 0 0 0 0 0 0 0 0 0
0 0 0 0 0 0 0 0 0 0 0 0 0 0 0 0 0 0 0 0 0 0 0 0 0 0 0 0 0 0 4708 4708 4774 4774 4774 4774 4774 4774 4774 4774 4774 4842 4842 4842 4911 4983 4983 4983 5056 5056 5056 5132 5132 5132 5210 5210 5548 5832 5933 5933 5933 5933 5832 5832 5832 5832 5832 5933 5933 5933 5933 5933 5933 5933 5933 5933 5933 5933 6038 6038 6038 6146 6038 6038 6038 5933 5933 5832 5832 5832 5832 5832 5832 5832 5933 5933 5933 5933 5933 5933 6038 6038 6146 6146 6259 6259 6375 6497 6497 6497 6497 6497 6497 6497 6497 6622 6622 6622 6622 6622 6622 6622 6622 6622 6622 6622 6622 6622 6622 6622 6622 6622 6622 6753 6753 6753 6753 6753 6753 6753 6753 6753 6753 6753 3092 3092 3092 3092 3092 3092 3092 3064 3064 3092 3092 3120 3120 3120 3120 3120 3120 3120 3120 3120 3149 3149 3149 3149 3149 3149 3149 3149 3149 3120 3120 3149 3149 3149 3149 3149 3149 3149 3149 3149 3149 3149 3149 3149 3149 3149 3149 3149 3149 3178 3178 3178 3178 3178 3178 3178 3178 3178 3178 3178 3178 3178 3178 3178 3178 3178 3178 3178 3178 3178 3178 3178 3208 3208 3208 3208 3208 3238 3238 3238 3238 3238 3238 3238 3238 3238 3238 3238 3238 3238 3269 3269 3269 3238 3238 3208 3208 3208 3208 3208 3208 3238 3238 3238 3238 3238 3269 3269 3269 3269 3269 4405 4463 4463 4522 4522 4522 4522 4582 4582 4582 6146 6146 6146 6146 6146 6146 6038 6038 6038 6146 6146 6146 6889 7332 7332 7332 7492 7492 7492 7332 7030 6753 6497 6497 6375 6375 6497 6497 6622 6622 6622 6622 6622 6622 6622 6753 6753 6889 7030 6889 6622 6622 6622 6622 6622 6622 6622 6622 6622 6622 6622 6622 6622 6622 6622 6497 6497 6497 6622 6622 6622 6889 7178 7178 7178 7178 7332 0 0 0 0 0 0 0 0 7332 7332 7178 7178 7178 7178 7178 7332 7178 7178 7178 7178 7332 7332 7332 7332 7492 5132 5132 5132 5132 5132 5132 5132 5132 5132 5132 5132 5132 5132 5132 5132 5132 5056 5056 5056 5056 5056 5056 4983 4983 4983 4983 4911 4911 4911 4911 4911 4911 4911 4911 4911 4911 4911 4911 4911 4842 4842 4842 4842 4842 4842 4842 4842 4842 4842 4842 4842 4842 4842 4842 4708 4708 4708 4708 0 0 0 0 0 0 0 0 0 0 0 0 0 0 0 0 0 0 0 0 0 0 0 0 0 0 0 0 0 0 6375 6375 6259 6259 6259 6259 6259 3948 3948 3948 3994 3994 4041 4041 3994 3994 3948 3948 3994 4041 3994 3994 3994 4041 6259 6259 6259 6259 6259 6259 6375 6375 6375 4139 4089 4089 4089 4089 4041 4041 4089 4089 4089 4139 4139 4089 4089 4089 4089 4089 4089 4089 4089 4089 4983 4983 4983 4983 4983 4983 4983 4983 4983 4983 4911 4911 4842 4842 4842 4842 4774 4774 4774 4708 4708 4708 4708 4708 4708 4645 4645 4645 4645 4582 4582 4582 4582 4582 4522 4522 4522 4522 4522 4522 4522 4522 4582 4582 4582 4582 4582 4582 4645 4645 4645 4645 4645 4645 4645 4582 4582 4582 4582 4582 4582 4645 4645 4645 4645 4582 4582 4582 4522 4522 4522 4522 4522 4522 4522 4522 4522 4522 4522 4522 4522 4522 4582 4582 4582 4582 4582 4522 4522 4522 4463 4463 4463 4463 4463 4463 4463 4463 4463 4463 4463 4463 4463 4463 4463 4522 4522 4522 4522 4522 4522 4582 4582 4582 4582 4582 4582 4582 4582 4582 4522 4522 4522 4522 4522 4582 4582 4582 4582 0 0 0 0 0 0 0 0 0 0 0 0
0 0 0 0 0 0 0 0 0 0 0 0 0 0 0 0 0 0 0 0 0 0 0 0 0 0 0 0 0 0 4708 4708 4774 4774 4774 4842 4842 4842 4842 4842 4842 4911 4911 4911 4911 4983 4983 4983 5056 5132 5132 5132 5132 5132 5210 5210 5210 5832 5933 5933 5933 5933 5832 5832 5832 5832 5832 5933 5933 5933 5933 5933 5933 5933 5933 5933 5933 5933 6038 6038 6146 6146 6038 6038 6038 6038 5933 5832 5832 5832 5832 5933 5933 5933 5933 5933 5933 5933 5933 5933 6038 6146 6146 6146 6259 6375 6497 6497 6497 6497 6497 6497 6497 6497 6497 6497 6497 6622 6622 6622 6622 6622 6622 6622 6622 6622 6622 6622 6622 6753 6753 6753 6753 6753 6753 6753 6753 6753 6753 6753 6753 6753 6753 6753 6753 3092 3092 3092 3092 3092 3092 3064 3064 3092 3120 3120 3120 3120 3120 3120 3120 3120 3120 3120 3149 3149 3149 3149 3149 3149 3149 3149 3149 3149 3149 3149 3149 3149 3149 3149 3149 3149 3149 3149 3149 3149 3149 3149 3149 3149 3149 3149 3149 3178 3178 3178 3178 3178 3178 3178 3178 3178 3178 3178 3178 3178 3178 3178 3178 3178 3178 3178 3178 3178 3178 3178 3208 3208 3208 3208 3208 3238 3238 3238 3238 3238 3238 3238 3238 3238 3238 3238 3238 3238 3269 3269 3269 3269 3238 3208 3208 3208 3208 3208 3238 3238 3238 3238 3238 3238 3269 3269 3269 3269 3269 4463 4463 4463 4522 4522 4522 4522 4582 4582 4582 6146 6146 6146 6146 6146 6146 6038 6038 6038 6146 6146 6146 7030 7332 7492 7492 7492 7492 7492 7332 6889 6622 6497 6497 6497 6497 6497 6622 6753 6889 6889 6889 6889 7030 6889 6889 7030 7332 7332 7332 7492 7178 7178 7178 7030 6622 6622 6753 6753 6753 6753 6753 6622 6622 6622 6622 6497 6497 6622 6622 6622 6753 7178 7332 7178 7178 7332 0 0 0 0 0 7178 7178 7178 7332 7332 7332 7332 7332 7332 7332 7332 7332 7332 7332 7332 7332 7332 7332 7492 7492 5132 5132 5132 5132 5132 5132 5132 5132 5132 5132 5132 5132 5132 5132 5132 5056 4983 4983 5056 5056 5056 5056 4983 4983 4983 4983 4983 4983 4911 4911 4911 4911 4911 4911 4911 4911 4911 4911 4911 4842 4842 4842 4842 4842 4842 4842 4842 4842 4842 4842 4842 4842 4842 4842 4708 4708 4708 4774 0 0 0 0 0 0 0 0 0 0 0 0 0 0 0 0 0 0 0 0 0 0 0 0 0 0 0 0 0 0 0 6375 6375 6375 6375 3903 3903 3903 3948 3948 3948 3994 4041 3994 3994 3994 3948 3948 3994 3994 3994 3994 3994 4041 4041 6259 6259 6259 6259 6259 6259 6259 6259 4089 4089 4089 4089 4041 4041 4041 4089 4089 4089 4089 4139 4089 4089 4089 4089 4089 4089 4041 4041 4089 4139 4983 4983 4983 4983 4983 4983 4983 4983 4983 4911 4911 4842 4842 4842 4842 4774 4774 4774 4774 4708 4708 4708 4708 4708 4645 4645 4645 4645 4582 4582 4582 4582 4582 4522 4522 4522 4522 4522 4522 4522 4522 4522 4582 4582 4582 4582 4582 4645 4645 4645 4645 4645 4645 4582 4582 4582 4582 4582 4582 4582 4582 4645 4645 4645 4645 4582 4582 4582 4582 4522 4522 4522 4522 4522 4522 4522 4522 4582 4582 4522 4522 4582 4582 4582 4582 4582 4522 4522 4522 4522 4522 4463 4463 4463 4463 4463 4463 4463 4463 4463 4522 4522 4463 4463 4522 4522 4582 4522 4522 4582 4582 4582 4582 4582 4582 4582 4582 4582 4522 4522 4522 4582 4582 4582 4582 4582 4582 4582 0 0 0 0 0 0 0 0 0 0 0 0
0 0 0 0 0 0 0 0 0 0 0 0 0 0 0 0 0 0 0 0 0 0 0 0 0 0 0 0 0 0 4708 4708 4774 4774 4842 4842 4842 4842 4842 4842 4842 4911 4842 4842 4911 4983 4983 4983 5056 5132 5132 5132 5132 5132 5210 5210 5210 5210 5933 5933 5933 5933 5832 5832 5832 5832 5832 5933 5933 6038 6038 6038 6038 5933 5933 6038 6038 6038 6146 6146 6259 6259 6146 6146 6146 6038 5933 5933 5933 5933 5933 5933 5933 5933 5933 5933 5933 5933 6038 6038 6038 6146 6259 6259 6375 6375 6497 6497 6497 6497 6497 6497 6497 6497 6497 6497 6497 6622 6622 6622 6622 6622 6622 6622 6622 6622 6622 6622 6622 6753 6753 6753 6753 6753 6753 6753 6753 6753 6753 6753 6889 6889 6753 6753 6753 3092 3092 3092 3092 3092 3092 3092 3092 3092 3120 3120 3120 3120 3149 3149 3149 3149 3149 3149 3149 3149 3149 3149 3149 3149 3149 3149 3149 3149 3149 3149 3149 3149 3149 3149 3149 3149 3149 3149 3149 3149 3149 3149 3149 3178 3178 3178 3178 3178 3178 3178 3178 3178 3178 3178 3178 3178 3178 3178 3178 3178 3178 3178 3178 3178 3178 3178 3178 3178 3178 3178 3208 3208 3208 3208 3208 3238 3238 3238 3238 3238 3238 3238 3238 3238 3238 3238 3238 3238 3269 3269 3269 3269 3238 3208 3208 3208 3208 3208 3208 3238 3238 3238 3238 3238 3269 3269 3269 3269 3269 4463 4463 4463 4522 4522 4522 4522 4582 4582 4582 6146 6146 6146 6146 6146 6146 6038 6038 6146 6146 6146 6146 7332 7492 7492 7492 7492 7492 7332 7178 6622 6622 6497 6497 6497 6497 6622 6622 6889 7030 7030 7178 7178 7178 7178 7178 7332 7492 7492 7492 7492 7332 7332 7332 7332 7030 7030 7030 7030 7030 6889 6889 6889 6889 6753 6622 6497 6497 6622 6497 6497 6622 6889 7332 7332 7332 7332 0 0 6889 6889 7030 7178 7178 7178 7332 7332 7492 7492 7492 7492 7492 7492 7332 7332 7332 7492 7492 7492 7492 7492 7492 7492 5132 5132 5132 5132 5132 5132 5132 5132 5132 5132 5132 5132 5056 5056 4983 4983 4983 4983 4983 4983 4983 4983 4983 4983 4911 4911 4911 4911 4911 4911 4911 4911 4911 4911 4911 4911 4911 4911 4842 4842 4842 4842 4842 4842 4842 4842 4842 4842 4842 4842 4842 4842 4842 4708 4708 4774 0 0 0 0 0 0 0 0 0 0 0 0 0 0 0 0 0 0 0 0 0 0 0 0 0 0 0 0 0 0 0 0 0 0 3859 3859 3903 3903 3903 3948 3948 3948 3994 3994 3994 3948 3948 3948 3948 3948 3994 3948 3948 3994 3994 3948 3903 3903 6146 6146 6259 6259 6259 4041 4041 4089 4089 4089 4041 4041 4041 4041 4041 4041 4089 4089 4089 4089 4089 4089 4089 4089 4041 4041 4089 4089 4089 5056 5056 5056 5056 5056 5056 4983 4983 4911 4911 4842 4842 4842 4842 4842 4774 4774 4774 4774 4708 4708 4708 4708 4645 4645 4645 4645 4645 4582 4582 4582 4582 4522 4522 4522 4522 4522 4522 4522 4522 4522 4582 4582 4582 4582 4582 4645 4645 4645 4645 4645 4645 4582 4582 4582 4582 4582 4582 4582 4582 4645 4645 4645 4645 4582 4582 4582 4582 4582 4582 4582 4582 4582 4582 4522 4522 4582 4582 4522 4522 4582 4582 4582 4582 4582 4522 4522 4522 4522 4522 4463 4463 4463 4463 4463 4463 4463 4463 4522 4522 4522 4522 4522 4522 4522 4582 4582 4582 4582 4582 4582 4582 4582 4582 4582 4582 4522 4522 4522 4522 4582 4582 4582 4582 4582 4582 4582 0 0 0 0 0 0 0 0 0 0 0 0
0 0 0 0 0 0 0 0 0 0 0 0 0 0 0 0 0 0 0 0 0 0 0 0 0 0 0 0 0 0 4708 4708 4774 4842 4842 4842 4842 4842 4842 4842 4842 4842 4842 4842 4911 4911 4911 4983 4983 5132 5132 5132 5132 5132 5210 5210 5210 5210 5933 5933 5933 5933 5832 5832 5832 5933 5933 6146 6146 6146 6146 6146 6146 6038 6038 6146 6146 6146 6259 6259 6259 6259 6259 6259 6259 6146 6038 6038 6038 6038 6038 6038 5933 5933 5933 6038 6038 6038 6038 6038 6146 6146 6259 6259 6259 6375 6497 6497 6497 6497 6497 6497 6497 6497 6497 6497 6497 6622 6622 6622 6622 6622 6622 6622 6622 6622 6622 6622 6753 6753 6753 6753 6753 6753 6753 6753 6753 6753 6753 6753 6889 6889 6753 6753 6753 3120 3092 3092 3092 3092 3092 3064 3064 3092 3120 3120 3120 3120 3149 3149 3149 3149 3149 3149 3149 3149 3149 3149 3149 3149 3149 3149 3149 3149 3149 3149 3149 3149 3149 3149 3149 3149 3149 3149 3149 3149 3149 3149 3149 3178 3178 3178 3178 3178 3178 3178 3178 3178 3178 3178 3178 3178 3178 3178 3178 3178 3178 3178 3178 3178 3178 3208 3208 3208 3208 3208 3208 3238 3208 3208 3238 3238 3238 3238 3238 3238 3238 3238 3238 3238 3238 3238 3238 3238 3238 3269 3269 3269 3238 3208 3208 3208 3208 3208 3208 3208 3238 3238 3238 3238 3238 3269 3269 3238 3238 4522 4522 4522 4522 4522 4522 4522 4522 4522 4582 6375 6259 6259 6259 6259 6259 6259 6259 6375 6375 6497 6753 7332 7492 7492 7492 7492 7332 7332 6889 6622 6622 6497 6497 6497 6497 6622 6753 7178 7332 7332 7332 7332 7332 7332 7332 7492 7492 7492 7492 7492 7492 7492 7492 7492 7332 7332 7178 7178 7178 7178 7178 7178 7178 7030 6889 6622 6622 6622 6497 6497 6622 6889 7332 7332 7332 7332 0 0 6889 6889 7030 7332 7332 7332 7492 7492 7492 7492 7492 7492 7492 7492 7492 7492 7492 7492 7492 7492 7492 7492 7492 7492 5056 5056 5132 5132 5132 5132 5132 5132 5132 5132 5132 5056 5056 4983 4983 4983 4983 4983 4983 4983 4983 4911 4911 4911 4911 4911 4911 4911 4911 4911 4911 4911 4911 4911 4911 4911 4911 4911 4842 4842 4842 4842 4842 4842 4842 4842 4842 4842 4842 4842 4842 4842 4842 4774 4774 4774 0 0 0 0 0 0 0 0 0 0 0 0 0 0 0 0 0 0 0 0 0 0 0 0 0 0 0 0 0 0 0 0 0 0 3859 3859 3903 3903 3903 3948 3948 3948 3948 3994 3994 3948 3948 3948 3948 3948 3994 3948 3948 3994 3994 3948 3903 3903 3903 6146 6146 6259 6259 4041 4041 4089 4089 4089 4041 4041 4041 4041 4041 4041 4089 4089 4089 4089 4089 4089 4089 4041 3994 3994 3994 3994 3994 3994 4089 5056 5056 5056 5056 4983 4983 4911 3692 3692 3692 3692 3692 4842 4842 4774 4774 4774 4774 4774 4774 4708 4708 4708 4645 4645 4645 4582 4582 4582 4582 4582 4522 4522 4522 4522 4522 4522 4582 4582 4582 4582 4582 4582 4645 4645 4645 4645 4645 4645 4645 4645 4582 4582 4582 4582 4582 4582 4582 4645 4645 4645 4645 4645 4582 4582 4582 4582 4582 4582 4582 4582 4582 4522 4522 4522 4522 4582 4582 4582 4582 4582 4582 4582 4522 4463 4463 4463 4463 4463 4463 4463 4522 4522 4522 4522 4522 4522 4522 4522 4522 4522 4522 4522 4582 4582 4582 4582 4645 4645 4582 4582 4582 4522 4522 4522 4522 4522 4522 4582 4582 4582 4645 4645 4582 4582 0 0 0 0 0 0 0 0 0 0 0 0
0 0 0 0 0 0 0 0 0 0 0 0 0 0 0 0 0 0 0 0 0 0 0 0 0 0 0 0 0 0 4708 4708 4774 4842 4842 4842 4842 4842 4842 4842 4842 4842 4842 4842 4911 4911 4911 4983 4983 5056 5056 5056 5132 5210 5210 5210 5210 5291 5933 5933 6038 6038 5933 5832 5832 5933 6038 6146 6259 6259 6146 6146 6146 6146 6146 6146 6146 6259 6259 6259 6375 6375 6375 6375 6259 6259 6146 6146 6146 6146 6146 6146 6038 6038 6038 6038 6038 5933 5933 6038 6038 6146 6146 6259 6259 6375 6497 6375 6375 6375 6375 6497 6497 6497 6497 6497 6622 6622 6622 6622 6622 6622 6622 6622 6622 6622 6622 6622 6622 6622 6622 6622 6622 6622 6622 6753 6753 6753 6753 6753 6753 6889 6753 6753 6753 3120 3120 3092 3092 3092 3092 3064 3064 3092 3092 3120 3120 3120 3149 3149 3149 3149 3149 3149 3149 3149 3149 3149 3149 3149 3149 3149 3149 3149 3149 3149 3149 3149 3149 3149 3149 3149 3149 3149 3149 3149 3149 3178 3178 3178 3178 3178 3178 3178 3178 3178 3178 3178 3178 3178 3178 3178 3178 3178 3178 3178 3178 3178 3178 3208 3208 3208 3238 3238 3238 3238 3238 3238 3238 3238 3238 3238 3238 3238 3238 3238 3238 3238 3238 3238 3238 3238 3238 3238 3238 3269 3269 3269 3269 3208 3208 3208 3208 3208 3208 3208 3238 3238 3238 3238 3238 3238 3238 3238 3238 3238 4522 4522 4522 4522 4522 4522 4522 4522 4522 4522 6375 6375 6375 6259 6259 6375 6375 6375 6497 6753 7178 7332 7492 7492 7492 7492 7332 7178 6622 6622 6622 6497 6497 6622 6622 6889 7030 7332 7332 7492 7492 7492 7492 7492 7492 7492 7492 7492 7492 7492 7492 7492 7492 7492 7492 7332 7332 7332 7332 7332 7332 7332 7332 7332 7178 6889 6753 6753 6622 6622 6622 7178 7332 7332 7492 7492 7492 7492 7332 7332 7332 7332 7332 7332 7492 7492 7492 7492 7492 7492 7492 7492 7492 7492 7492 7492 7492 7492 7492 7492 7492 7492 5056 5056 5132 5132 5132 5132 5132 5132 5132 5132 5056 5056 5056 4983 4983 4983 4983 4983 4983 4983 4983 4911 4911 4911 4911 4911 4911 4911 4911 4911 4911 4911 4911 4911 4911 4911 4911 4842 4842 4842 4842 4842 4842 4842 4842 4842 4842 4842 4842 4842 4842 4842 4842 4774 4774 4842 4842 0 0 0 0 0 0 0 0 0 0 0 0 0 0 0 0 0 0 0 0 0 0 0 0 0 0 0 0 0 0 0 0 0 3859 3859 3859 3859 3903 3903 3903 3948 3948 3994 3994 3948 3948 3948 3948 3948 3948 3948 3948 3994 3994 3948 3948 3903 3903 3903 3948 3994 3994 3994 4041 4089 4041 4041 4041 3994 3994 3948 3903 3903 3903 3948 3994 3994 3994 3994 3994 3994 3948 3948 3994 3994 3903 3903 3948 3859 3859 3859 3774 3732 3692 3692 3692 3692 3692 3692 3692 3692 3692 4774 4774 4774 4774 4774 4774 4708 4708 4708 4708 4708 4645 4582 4582 4582 4582 4582 4582 4522 4522 4582 4522 4522 4582 4582 4582 4582 4582 4645 4645 4645 4645 4645 4645 4645 4645 4582 4582 4582 4522 4522 4522 4582 4582 4582 4582 4582 4645 4645 4582 4582 4582 4522 4522 4582 4582 4582 4582 4522 4522 4522 4522 4582 4582 4582 4582 4582 4582 4582 4463 4463 4463 4463 4463 4463 4463 4522 4522 4522 4522 4522 4522 4522 4522 4522 4522 4522 4522 4522 4522 4582 4582 4582 4582 4582 4582 4582 4582 4522 4522 4522 4522 4522 4522 4582 4645 4645 4645 4582 4582 4582 0 0 0 0 0 0 0 0 0 0 0 0
0 0 0 0 0 0 0 0 0 0 0 0 0 0 0 0 0 0 0 0 0 0 0 0 0 0 0 0 0 0 4708 4708 4774 4842 4842 4842 4842 4842 4842 4842 4842 4911 4911 4911 4911 4911 4911 4983 4983 5056 5056 5056 5132 5132 5210 5210 5210 5291 5933 5933 6038 6038 6038 5933 5933 6038 6038 6259 6259 6259 6259 6259 6259 6259 6259 6259 6259 6375 6375 6375 6497 6497 6497 6375 6375 6375 6259 6146 6146 6259 6259 6259 6146 6146 6146 6038 6038 5933 5933 6038 6038 6146 6146 6259 6259 6375 6497 6375 6375 6375 6375 6497 6497 6497 6497 6497 6622 6622 6622 6622 6622 6622 6622 6622 6622 6622 6622 6622 6622 6622 6622 6622 6622 6622 6622 6753 6753 6753 6753 6753 6753 6889 6889 6889 3149 3120 3120 3120 3120 3120 3092 3092 3092 3092 3092 3120 3120 3120 3149 3149 3149 3149 3149 3149 3149 3149 3149 3149 3149 3149 3149 3149 3149 3149 3149 3149 3149 3149 3149 3149 3149 3149 3149 3149 3149 3149 3149 3149 3178 3178 3178 3178 3178 3178 3178 3178 3178 3178 3178 3178 3178 3178 3178 3178 3178 3178 3178 3178 3178 3208 3208 3238 3238 3238 3238 3238 3238 3238 3238 3238 3238 3238 3238 3238 3238 3238 3238 3238 3238 3238 3238 3238 3238 3238 3238 3269 3269 3269 3269 3238 3238 3238 3208 3208 3208 3208 3238 3238 3238 3238 3238 3238 3238 3238 3238 3238 4582 4582 4582 4522 4522 4522 4582 4582 4522 4522 6497 6497 6375 6375 6375 6375 6497 6497 6622 6889 7030 7332 7492 7492 7492 7332 7332 7030 6622 6497 6497 6497 6497 6622 6753 7030 7178 7492 7492 7492 7492 7492 7492 7492 7492 7492 7492 7492 7492 7492 7492 7492 7492 7492 7492 7492 7332 7332 7332 7332 7332 7332 7332 7332 7332 7332 7030 7030 6889 6889 6889 7178 7332 7492 7492 7492 7492 0 7492 7492 7492 7492 7492 7492 7492 7492 7492 7492 7492 7492 7492 7492 7492 7492 7492 7492 7492 7492 7660 7660 7660 7660 5056 5056 5132 5132 5132 5132 5132 5132 5132 5132 5056 5056 5056 4983 4983 4911 4911 4983 4911 4911 4911 4911 4911 4911 4911 4911 4911 4842 4842 4911 4911 4911 4911 4911 4911 4911 4911 4842 4842 4842 4842 4842 4842 4842 4842 4842 4842 4842 4842 4842 4842 4842 4842 4774 4774 4774 4774 4774 4842 4842 0 0 0 0 0 0 0 0 0 0 0 0 0 0 0 0 0 0 0 0 0 0 0 0 0 0 0 0 0 0 3774 3774 3859 3859 3859 3859 3859 3903 3903 3948 3994 3948 3903 3903 3903 3903 3903 3903 3903 3903 3994 3948 3948 3903 3903 3903 3903 3903 3903 3903 3948 3948 3948 3948 3948 3948 3859 3816 3816 3816 3816 3859 3903 3903 3903 3903 3948 3948 3903 3903 3903 3948 3903 3903 3859 3859 3859 3859 3774 3732 3692 3692 3692 3732 3692 3692 3692 3692 3732 3732 4774 4774 4774 4774 4774 4708 4708 4708 4708 4708 4645 4645 4645 4645 4645 4582 4582 4582 4582 4582 4582 4582 4582 4645 4645 4645 4645 4645 4645 4645 4645 4645 4645 4582 4582 4582 2744 2744 2767 2767 2767 2767 2789 2835 4582 4582 4645 4645 4582 4582 4582 4522 4522 4582 4582 4522 4522 4522 4522 4522 4522 4582 4582 4582 4582 4582 4582 4582 4463 4463 4463 4463 4463 4522 4522 4522 4522 4522 4522 4582 4522 4522 4522 4522 4522 4522 4522 4522 4522 4582 4582 4582 4582 4582 4582 4522 4522 4522 4522 4582 4582 4582 4582 4582 4645 4645 4645 4582 4582 4582 0 0 0 0 0 0 0 0 0 0 0 0
0 0 0 0 0 0 0 0 0 0 0 0 0 0 0 0 0 0 0 0 0 0 0 0 0 0 0 0 0 0 4774 4774 4774 4842 4842 4842 4842 4842 4842 4911 4911 4911 4911 4911 4983 4983 4983 4983 4983 5056 5056 5056 5132 5132 5210 5210 5210 5291 5291 6038 6146 6146 6146 6146 6146 6146 6146 6259 6375 6375 6375 6375 6259 6259 6375 6375 6375 6375 6375 6375 6497 6497 6497 6497 6497 6497 6375 6259 6259 6375 6375 6375 6375 6375 6259 6259 6146 6146 6146 6146 6146 6259 6259 6259 6259 6375 6497 6497 6497 6497 6497 6497 6497 6497 6497 6497 6497 6497 6497 6622 6622 6622 6622 6622 6622 6622 6622 6622 6622 6753 6753 6753 6622 6622 6753 6753 6753 6753 6753 6753 6753 6753 6889 6889 3149 3120 3120 3120 3120 3120 3120 3092 3092 3092 3092 3120 3120 3120 3120 3149 3149 3149 3149 3149 3149 3149 3149 3149 3149 3149 3149 3149 3149 3149 3149 3149 3149 3149 3149 3149 3149 3149 3149 3149 3149 3149 3149 3149 3178 3178 3178 3178 3178 3178 3178 3178 3178 3178 3178 3178 3178 3178 3178 3178 3178 3178 3178 3178 3208 3208 3208 3238 3238 3238 3238 3238 3238 3238 3238 3238 3238 3238 3238 3238 3238 3238 3238 3238 3238 3238 3238 3238 3238 3238 3238 3269 3269 3269 3269 3238 3238 3238 3238 3208 3208 3208 3238 3238 3238 3238 3238 3269 3238 3238 3238 3238 4645 4645 4645 4582 4582 4582 4582 4582 4582 4582 4645 6622 6497 6375 6375 6375 6497 6497 6753 6889 7030 7332 7492 7492 7492 7332 7332 7030 6622 6497 6497 6622 6622 6622 6753 7030 7178 7492 7492 7492 7492 7492 7492 7492 7492 7492 7492 7492 7492 7492 7492 7492 7492 7492 7492 7492 7332 7332 7332 7332 7332 7332 7332 7332 7332 7332 7178 7178 7178 7178 7178 7178 7492 7492 7492 7492 6375 6375 7492 7492 7492 7492 7492 7492 7492 7492 7492 7492 7492 7492 7492 7492 7492 7492 7492 7492 7492 7492 7660 7660 7660 7660 5056 5056 5056 5132 5132 5132 5132 5132 5132 5132 5056 5056 4983 4983 4983 4911 4911 4911 4911 4911 4911 4911 4911 4911 4911 4911 4911 4842 4842 4911 4911 4911 4911 4842 4842 4911 4911 4842 4842 4842 4842 4842 4842 4842 4842 4842 4842 4842 4842 4842 4842 4842 4842 4774 4774 4774 4774 4774 4842 4842 0 0 0 0 0 0 0 0 0 0 0 0 0 0 0 0 0 0 0 0 0 0 0 0 0 0 0 0 0 0 3774 3774 3859 3859 3859 3859 3859 3903 3903 3948 3948 3903 3903 3903 3903 3903 3859 3859 3859 3859 3903 3903 3903 3859 3859 3903 3903 3859 3859 3816 3816 3903 3903 3903 3859 3816 3816 3816 3816 3774 3774 3816 3859 3859 3903 3903 3903 3903 3903 3903 3903 3903 3903 3859 3816 3816 3816 3816 3774 3732 3732 3732 3732 3774 3732 3732 3732 3732 3732 3732 3732 4774 4774 4774 4774 4708 4708 4708 4708 4708 4645 4645 4645 4645 4645 4582 4582 4582 4582 4582 4582 4645 4645 4645 4708 4645 4645 4645 4645 4645 4645 4645 4582 4582 4582 2744 2744 2744 2744 2767 2767 2767 2767 2789 2744 2744 2744 2744 4645 4645 4582 4582 4582 4582 4582 4522 4522 4522 4522 4522 4522 4522 4522 4522 4522 4582 4582 4582 4463 4463 4463 4463 4463 4522 4522 4522 4522 4582 4582 4582 4582 4582 4582 4522 4522 4522 4522 4522 4582 4582 4582 4582 4582 4582 4582 4522 4522 4522 4522 4582 4582 4582 4582 4582 4645 4645 4645 4582 4522 4522 0 0 0 0 0 0 0 0 0 0 0 0
0 0 0 0 0 0 0 0 0 0 0 0 0 0 0 0 0 0 0 0 0 0 0 0 0 0 0 0 0 0 4774 4774 4774 4842 4842 4842 4842 4842 4842 4911 4911 4911 4911 4911 4911 4983 4983 5056 5056 5132 5132 5132 5132 5210 5210 5210 5210 5291 5291 6038 6146 6146 6146 6146 6259 6259 6259 6259 6375 6375 6375 6375 6375 6375 6375 6375 6497 6497 6497 6497 6497 6622 6497 6497 6497 6497 6497 6375 6375 6497 6497 6497 6497 6497 6497 6497 6259 6259 6259 6146 6146 6259 6259 6259 6375 6375 6497 6497 6497 6497 6497 6497 6497 6497 6497 6497 6497 6497 6497 6497 6622 6622 6622 6622 6622 6622 6622 6622 6622 6622 6622 6753 6753 6753 6753 6753 6753 6753 6753 6753 6753 6753 6889 6889 3120 3120 3120 3120 3120 3120 3120 3092 3092 3092 3092 3120 3120 3120 3120 3149 3149 3149 3149 3149 3149 3149 3149 3149 3149 3149 3149 3149 3149 3149 3149 3149 3149 3149 3149 3149 3149 3149 3149 3149 3149 3149 3149 3178 3178 3178 3178 3178 3178 3178 3178 3178 3178 3178 3178 3178 3178 3178 3178 3178 3178 3178 3178 3178 3208 3208 3208 3238 3238 3238 3238 3238 3238 3238 3238 3238 3238 3238 3238 3238 3238 3238 3238 3238 3238 3238 3238 3238 3238 3238 3238 3269 3269 3269 3269 3238 3238 3238 3238 3208 3208 3238 3238 3238 3238 3238 3238 3269 3238 3238 3238 3238 4708 4645 4645 4645 4645 4645 4582 4582 4582 4582 4645 6889 6753 6622 6622 6622 6622 6622 6889 7030 7178 7492 7492 7492 7492 7492 7332 7332 7332 6622 6622 6622 6622 6753 6889 7178 7332 7492 7492 7492 7492 7492 7492 7492 7492 7492 7492 7492 7492 7492 7492 7492 7492 7492 7492 7492 7332 7332 7332 7332 7332 7332 7332 7332 7332 7332 7030 7030 7178 7178 7030 7030 7332 7332 7492 7492 6375 6375 6375 6375 7332 7332 7492 7492 7492 7492 7492 7492 7492 7492 7492 7492 7492 7492 7492 7492 7660 7660 7660 7660 7660 7660 5056 5056 5056 5132 5132 5132 5132 5132 5132 5132 5056 5056 4983 4983 4983 4911 4911 4911 4911 4911 4911 4911 4911 4911 4911 4911 4911 4842 4842 4911 4842 4842 4911 4842 4842 4911 4911 4842 4842 4842 4842 4842 4842 4842 4842 4842 4842 4842 4842 4842 4842 4842 4842 4774 4774 4774 4774 4774 0 0 0 0 0 0 0 0 0 0 0 0 0 0 0 0 0 0 0 0 0 0 0 0 0 0 0 0 0 0 0 0 3816 3816 3859 3859 3859 3859 3859 3903 3903 3948 3948 3903 3903 3903 3903 3903 3816 3774 3774 3774 3816 3816 3816 3774 3774 3774 3816 3774 3774 3774 3774 3816 3859 3859 3816 3774 3774 3774 3774 3774 3774 3816 3816 3816 3859 3859 3859 3859 3859 3859 3859 3903 3859 3816 3774 3774 3774 3774 3732 3732 3732 3732 3774 3774 3816 3732 3732 3732 0 3732 0 0 3732 0 4708 4708 4708 4708 4708 4708 3732 0 0 0 0 0 0 0 4708 4645 4645 4708 4708 4708 4708 4645 4645 4645 4645 4582 4582 4645 4582 2723 2723 2744 2744 2744 2744 2744 2767 2767 2767 2767 2744 2744 2744 2744 2701 2701 2701 2723 2723 2723 2723 2723 4522 4522 4522 4522 4522 4522 4522 4522 4522 4522 4522 4522 4463 4463 4463 4463 4463 4522 4522 4522 4522 4582 4582 4582 4582 4582 4582 4522 4522 4522 4522 4522 4582 4582 4582 4582 4582 4582 4582 4522 4463 4463 4522 4522 4522 4522 4522 4582 4645 4645 4645 4582 4522 4522 0 0 0 0 0 0 0 0 0 0 0 0
0 0 0 0 0 0 0 0 0 0 0 0 0 0 0 0 0 0 0 0 0 0 0 0 0 0 0 0 0 0 4774 4774 4842 4842 4842 4842 4842 4842 4842 4911 4911 4911 4911 4911 4911 4911 4983 5056 5056 5132 5132 5132 5210 5210 5210 5210 5210 5291 6038 6038 6146 6259 6375 6375 6497 6375 6375 6375 6497 6375 6375 6375 6375 6375 6375 6375 6497 6497 6497 6497 6497 6497 6497 6497 6497 6497 6497 6497 6497 6497 6497 6497 6622 6622 6497 6497 6375 6375 6259 6259 6259 6259 6259 6259 6259 6497 6497 6497 6497 6497 6497 6497 6497 6497 6497 6497 6497 6497 6497 6497 6622 6622 6622 6622 6622 6622 6622 6622 6622 6622 6622 6753 6622 6622 6753 6753 6753 6753 6753 6889 6889 6889 6889 6889 3120 3120 3120 3092 3092 3120 3120 3092 3092 3092 3092 3120 3120 3120 3120 3149 3149 3149 3149 3149 3149 3149 3149 3149 3149 3149 3149 3149 3149 3149 3149 3149 3149 3149 3149 3149 3149 3149 3178 3149 3149 3178 3178 3178 3178 3178 3178 3178 3178 3178 3178 3178 3178 3178 3178 3178 3178 3178 3178 3178 3178 3178 3178 3178 3208 3208 3208 3208 3238 3238 3238 3238 3238 3238 3238 3238 3238 3238 3238 3238 3238 3238 3238 3238 3238 3238 3238 3269 3238 3238 3269 3269 3269 3269 3269 3238 3238 3238 3238 3208 3208 3238 3238 3238 3238 3238 3238 3269 3238 3238 3238 3238 4708 4708 4645 4645 4645 4645 4582 4582 4582 4582 4645 6889 6889 6622 6622 6622 6622 6622 6889 7030 7178 7492 7492 7492 7492 7492 7492 7332 7332 6622 6622 6622 6622 6889 6889 7178 7332 7492 7492 7492 7492 7492 7492 7492 7492 7492 7492 7492 7492 7492 7492 7492 7660 7660 7492 7492 7492 7492 7492 7492 7332 7332 7332 7492 7492 7332 7030 7030 7178 7178 7030 7030 7332 7332 6753 6753 6753 6375 6375 6497 6889 7178 7492 7492 7492 7492 7492 7492 7492 7492 7492 7492 7492 7492 7492 7660 7660 7660 7660 7660 7660 7660 5056 5056 5132 5132 5132 5132 5132 5132 5132 5132 5056 5056 4983 4983 4983 4911 4911 4911 4911 4911 4911 4911 4911 4911 4911 4911 4842 4842 4842 4911 4842 4842 4911 4842 4842 4911 4911 4842 4842 4842 4842 4842 4842 4842 4842 4842 4842 4842 4842 4842 4842 4842 4842 4774 4774 4774 4774 4774 4842 0 0 0 0 0 0 0 0 0 0 0 0 0 0 0 0 0 0 0 0 0 0 0 0 0 0 0 0 0 0 0 0 0 0 3816 3816 3859 3859 3948 3948 3948 3948 3903 3859 3859 3859 3859 3732 3732 3732 3732 3732 3774 3774 3774 3732 3732 3732 3732 3732 3732 3732 3732 3774 3774 3732 3732 3732 3774 3774 3774 3774 3774 3774 3774 3774 3774 3774 3774 3774 3774 3774 3816 3774 3732 3692 3692 3692 3692 3732 3732 3732 3732 3774 3774 3816 3732 3732 0 0 0 0 0 0 3732 3732 3732 3732 3732 3774 3732 0 0 0 0 0 0 0 0 0 4842 0 4842 4774 4774 4708 4708 4645 4645 4645 4582 4582 4645 2723 2723 2723 2744 2744 2744 2744 2744 2744 2767 2767 2744 2744 2744 2744 2744 2701 2701 2701 2723 2723 2723 2723 2723 2744 2744 2744 2744 2744 2744 2744 4522 4522 4522 4522 4522 4463 4463 4463 4463 4463 4522 4522 4522 4582 4582 4582 4582 4582 4582 4582 4522 4522 4522 4522 4522 4582 4582 4582 4582 4582 4582 4582 4522 4463 4463 4522 4522 4522 4522 4522 4582 4645 4645 4645 2723 2723 2744 2744 0 0 0 0 0 0 0 0 0 0 0
0 0 0 0 0 0 0 0 0 0 0 0 0 0 0 0 0 0 0 0 0 0 0 0 0 0 0 0 0 0 4774 4774 4774 4774 4774 4842 4842 4842 4842 4911 4911 4911 4911 4911 4911 4911 4983 5056 5132 5132 5132 5132 5210 5210 5210 5210 5210 5291 5291 6259 6259 6375 6497 6497 6497 6497 6497 6497 6497 6375 6375 6375 6375 6375 6497 6497 6497 6497 6497 6497 6497 6497 6497 6497 6497 6497 6497 6497 6497 6497 6497 6622 6622 6622 6622 6622 6497 6375 6259 6146 6146 6146 6146 6259 6259 6375 6497 6497 6497 6497 6497 6622 6497 6497 6497 6497 6497 6497 6497 6497 6622 6622 6622 6622 6622 6622 6622 6622 6622 6622 6622 6622 6622 6622 6753 6753 6753 6753 6753 6889 6889 6889 6889 6889 3120 3120 3120 3092 3092 3120 3120 3092 3092 3092 3092 3120 3120 3120 3120 3149 3149 3149 3149 3149 3149 3149 3149 3149 3149 3149 3149 3149 3149 3149 3149 3149 3149 3149 3149 3149 3149 3149 3178 3149 3149 3178 3178 3178 3178 3178 3178 3178 3178 3178 3178 3178 3178 3178 3178 3178 3178 3178 3178 3178 3178 3178 3178 3178 3208 3208 3208 3208 3208 3208 3238 3238 3238 3238 3238 3238 3238 3238 3238 3238 3238 3269 3269 3269 3269 3238 3238 3269 3238 3238 3269 3269 3269 3269 3269 3238 3238 3238 3238 3208 3208 3238 3238 3238 3238 3238 3238 3269 3238 3238 3238 3238 4708 4645 4645 4645 4645 4645 4582 4582 4582 4582 4645 7030 6889 6753 6622 6622 6622 6622 6889 7030 7178 7492 7492 7492 7492 7492 7492 7492 7332 6889 6889 7030 7030 7030 7030 7178 7332 7492 7492 7492 7492 7492 7492 7492 7492 7492 7492 7492 7492 7492 7492 7492 7660 7660 7660 7492 7492 7492 7492 7492 7332 7332 7492 7492 7492 7332 7178 7178 7178 7178 7030 7030 7332 7332 6753 6622 6622 6375 6375 6497 6889 7178 7492 7492 7660 7660 7660 7660 7492 7492 7660 7492 7492 7492 7660 7660 7660 7660 7660 7660 7660 7660 5056 5056 5132 5132 5132 5132 5132 5132 5132 5132 5056 5056 4983 4983 4983 4911 4911 4911 4911 4911 4911 4911 4911 4911 4911 4911 4842 4842 4842 4911 4911 4911 4911 4842 4842 4911 4911 4842 4842 4842 4842 4842 4842 4842 4842 4842 4842 4842 4842 4842 4842 4842 4842 4774 4774 4774 4774 4842 4842 0 0 0 0 0 0 0 0 0 0 0 0 0 0 0 0 0 0 0 0 0 0 0 0 0 0 0 0 0 0 0 0 0 0 3816 3816 3816 3816 3539 3539 3576 3614 3614 3614 3614 3614 3614 3614 3653 3653 3653 3653 3653 3732 3732 3732 3732 3732 3732 3732 3732 3692 3692 3774 3774 3732 3732 3732 3732 3774 3774 3774 3774 3774 3774 3774 3732 3732 3732 3732 3732 3732 3732 3692 3692 3653 3653 3653 3653 3653 3692 3692 3732 3774 3774 0 0 0 0 0 0 3614 3614 3732 3732 3732 3732 3732 3732 3774 3732 3732 0 0 0 0 0 0 0 0 0 0 0 4842 4774 4774 4708 4708 4708 4645 2744 2744 2744 2723 2723 2744 2744 2744 2744 2744 2744 2744 2744 2744 2744 2744 2744 2744 2744 2723 2723 2723 2723 2723 2723 2723 2744 2744 2744 2744 2744 2723 2701 2701 2680 2680 2680 2680 2680 2701 4463 4463 4463 4463 4463 4522 4582 4582 4582 4582 4582 4582 4582 4582 2618 2618 2639 2639 4522 2659 2659 2680 2680 2701 2701 2701 2723 2723 2723 2723 2701 2701 4522 2680 2680 2680 2701 2701 2723 2723 2723 2723 2744 0 0 0 0 0 0 0 0 0 0
0 0 0 0 0 0 0 0 0 0 0 0 0 0 0 0 0 0 0 0 0 0 0 0 0 0 0 0 0 0 4774 4774 4774 4774 4774 4842 4842 4842 4842 4842 4911 4911 4911 4911 4911 4983 4983 5132 5132 5132 5132 5132 5210 5210 5210 5210 5210 5291 5291 6259 6259 6375 6497 6497 6497 6497 6497 6497 6497 6375 6375 6375 6375 6375 6497 6497 6497 6497 6497 6497 6497 6497 6497 6497 6497 6497 6497 6497 6497 6497 6497 6622 6622 6622 6622 6622 6497 6375 6259 6146 6146 6146 6146 6146 6259 6375 6497 6497 6497 6497 6497 6622 6497 6497 6497 6497 6497 6497 6497 6497 6622 6622 6622 6622 6622 6622 6622 6622 6622 6622 6622 6622 6622 6622 6753 6753 6753 6753 6753 6889 6889 6889 6889 6889 3120 3120 3120 3120 3120 3120 3120 3092 3092 3092 3092 3120 3120 3120 3149 3149 3149 3149 3149 3149 3149 3149 3149 3149 3149 3149 3149 3149 3149 3149 3149 3149 3149 3149 3149 3149 3149 3149 3178 3178 3178 3178 3178 3178 3178 3178 3178 3178 3178 3178 3178 3178 3178 3178 3178 3178 3178 3178 3178 3178 3178 3178 3208 3208 3208 3208 3208 3208 3208 3208 3208 3208 3238 3238 3238 3238 3238 3238 3238 3269 3269 3269 3269 3269 3269 3269 3269 3269 3269 3269 3269 3269 3269 3269 3269 3238 3238 3238 3238 3238 3238 3238 3238 3238 3238 3269 3269 3269 3238 3238 3238 3238 4708 4645 4645 4645 4645 4645 4645 4582 4582 4582 7030 7030 6889 6622 6622 6497 6497 6622 6753 6889 7030 7492 7492 7492 7492 7492 7492 7492 7492 7030 7030 7178 7030 7030 7030 7332 7332 7492 7492 7492 7492 7660 7492 7492 7660 7660 7492 7492 7660 7660 7660 7660 7492 7492 7660 7492 7492 7492 7492 7492 7492 7492 7492 7492 7492 7332 7030 7030 7030 7178 7178 7178 7178 7332 6753 6622 6622 6497 6497 6622 6889 7178 7492 7660 7660 7660 7660 7660 7492 7492 7660 7492 7492 7492 7660 7660 7660 7660 7660 7660 7492 7492 5210 5132 5132 5132 5132 5132 5132 5132 5132 5132 5056 5056 5056 4983 4983 4911 4911 4983 4983 4983 4911 4911 4911 4911 4911 4911 4911 4842 4842 4911 4911 4911 4842 4842 4842 4842 4911 4842 4842 4842 4842 4842 4842 4842 4842 4842 4842 4842 4842 4842 4842 4842 4842 4842 4842 4842 4842 0 0 0 0 0 0 0 0 0 0 0 0 0 0 0 0 0 0 0 0 0 0 0 0 0 0 0 0 0 0 0 0 0 0 0 0 0 0 3503 3503 3539 3539 3576 3576 3576 3576 3576 3576 3576 3576 3614 3614 3614 3614 3653 3653 3732 3732 3732 3732 3576 3614 3614 3614 3614 3614 3774 3576 3576 3576 3576 3614 3614 3653 3653 3653 3653 3692 3692 3692 3692 3692 3692 3692 3653 3614 3576 3576 3576 3576 3576 3576 3576 3653 3732 3774 3816 0 0 0 0 0 3614 3614 3614 3614 3692 3692 3692 3692 3692 3732 3692 3692 3692 0 0 0 0 0 0 0 0 3576 0 0 0 0 0 0 0 0 2744 2744 2744 2723 2723 2744 2744 2744 2744 2744 2744 2744 2744 2744 2744 2744 2744 2744 2744 2723 2723 2723 2723 2723 2723 2723 2744 2744 2723 2723 2723 2723 2701 2701 2680 2680 2680 2680 2680 2680 2680 2680 2680 2680 2680 2701 2659 2659 2639 2639 4582 4582 2639 2639 2618 2618 2639 2639 2659 2659 2659 2680 2680 2680 2701 2701 2701 2701 2701 2701 2701 2701 2701 2680 2680 2680 2701 2701 2723 2723 2723 2723 2723 0 0 0 0 0 0 0 0 0 0
0 0 0 0 0 0 0 0 0 0 0 0 0 0 0 0 0 0 0 0 0 0 0 0 0 0 0 0 0 0 4774 4774 4774 4774 4774 4842 4842 4842 4842 4842 4842 4911 4911 4842 4842 4983 5056 5132 5132 5210 5210 5210 5210 5210 5210 5210 5210 5210 5291 6259 6259 6497 6622 6622 6622 6497 6497 6497 6375 6375 6375 6259 6259 6375 6375 6375 6497 6497 6497 6497 6497 6375 6375 6497 6497 6497 6497 6497 6497 6622 6622 6622 6622 6622 6622 6622 6497 6375 6259 6146 6146 6146 6146 6146 6259 6375 6497 6497 6497 6497 6497 6622 6497 6497 6497 6497 6497 6497 6497 6497 6622 6622 6622 6622 6622 6622 6497 6497 6497 6497 6497 6622 6622 6622 6753 6753 6753 6753 6753 6889 6889 6889 6889 6889 3120 3120 3120 3120 3120 3120 3120 3092 3092 3120 3120 3120 3120 3149 3149 3149 3149 3149 3149 3149 3149 3149 3149 3149 3149 3149 3149 3149 3149 3149 3149 3149 3149 3149 3149 3178 3178 3178 3178 3178 3178 3178 3178 3178 3178 3178 3178 3178 3178 3178 3178 3178 3178 3178 3178 3178 3178 3178 3178 3178 3178 3178 3208 3208 3208 3208 3208 3208 3208 3208 3208 3208 3238 3238 3238 3238 3238 3238 3238 3269 3269 3269 3269 3269 3269 3269 3269 3269 3269 3269 3269 3269 3269 3269 3269 3238 3238 3238 3238 3238 3238 3238 3238 3238 3238 3269 3269 3269 3269 3269 3269 4645 4645 4645 4645 4645 4645 4645 4645 4582 4582 4582 7178 7030 6889 6622 6622 6497 6497 6622 6753 6889 7030 7492 7492 7492 7492 7492 7492 7492 7492 7332 7332 7332 7332 7030 7030 7332 7492 7492 7492 7492 7492 7660 7492 7492 7492 7492 7492 7492 7660 7660 7660 7660 7492 7492 7660 7492 7492 7492 7492 7492 7492 7492 7492 7492 7492 7332 7030 7030 7030 7178 7178 7178 7030 7030 6753 6753 6889 6622 6622 6753 7030 7332 7492 7660 7660 7660 7660 7660 7660 7660 7660 7492 7492 7492 7660 7660 7660 7660 7660 7660 7492 7492 5210 5132 5132 5210 5132 5132 5132 5132 5132 5132 5132 5056 5056 5056 4983 4983 4983 4983 4983 4983 4983 4983 4911 4911 4911 4911 4911 4911 4911 4911 4911 4911 4842 4842 4842 4842 4911 4842 4842 4842 4911 4911 4911 4911 4842 4842 4842 4842 4842 4842 4911 4911 4911 4842 4842 4842 4842 0 0 0 0 0 0 0 0 0 0 0 0 0 0 0 0 0 0 0 0 0 0 0 0 0 0 0 0 0 0 0 0 0 0 0 3468 3468 3468 3503 3503 3539 3539 3576 3576 3539 3539 3539 3539 3539 3576 3576 3576 3576 3614 3614 3653 3653 3539 3539 3503 3576 3576 3576 3576 3576 3539 3539 3576 3576 3576 3576 3576 3576 3576 3576 3614 3614 3614 3614 3614 3614 3653 3653 3614 3614 3576 3576 3576 3539 3539 3539 3539 3539 3653 3732 0 3732 0 0 0 0 0 3576 3576 3576 3614 3653 3653 3692 3692 3692 3692 3692 3653 3614 3614 0 0 0 0 0 3614 3614 3576 3576 3576 3576 0 0 0 0 0 0 2767 2767 2744 2744 2744 2744 2744 2744 2744 2744 2744 2744 2744 2744 2744 2744 2744 2744 2723 2723 2723 2723 2723 2723 2723 2744 2723 2723 2723 2723 2723 2701 2701 2680 2680 2680 2680 2680 2680 2680 2659 2659 2659 2680 2680 2659 2659 2639 2639 2639 2639 2639 2639 2639 2639 2659 2659 2659 2680 2680 2680 2680 2680 2701 2701 2701 2701 2701 2701 2701 2701 2701 2680 2680 2680 2680 2701 2701 2723 2723 2723 2723 0 0 0 0 0 0 0 0 0 0
0 0 0 0 0 0 0 0 0 0 0 0 0 0 0 0 0 0 0 0 0 0 0 0 0 0 0 0 0 0 4774 4774 4708 4708 4708 4774 4774 4774 4842 4842 4842 4911 4911 4842 4842 4983 5056 5132 5132 5210 5210 5210 5210 5210 5210 5210 5210 5210 5291 5291 6146 6375 6622 6622 6497 6497 6497 6497 6375 6259 6259 6259 6259 6259 6375 6375 6375 6375 6375 6375 6375 6259 6259 6375 6497 6497 6497 6622 6622 6622 6622 6622 6622 6622 6622 6622 6375 6375 6259 6146 6146 6146 6146 6146 6146 6375 6375 6375 6375 6497 6497 6622 6497 6497 6622 6622 6622 6497 6497 6497 6622 6622 6622 6622 6497 6497 6375 6375 6375 6497 6497 6622 6622 6622 6753 6753 6753 6753 6753 6889 6889 6889 6889 6889 3120 3120 3120 3120 3149 3149 3149 3120 3120 3120 3120 3120 3120 3149 3149 3149 3149 3149 3149 3149 3149 3149 3149 3149 3149 3149 3149 3149 3149 3149 3149 3149 3149 3149 3149 3178 3178 3178 3178 3178 3178 3178 3178 3178 3178 3178 3178 3178 3178 3208 3178 3178 3178 3178 3178 3178 3178 3178 3178 3178 3178 3208 3208 3208 3208 3208 3208 3208 3208 3208 3208 3208 3238 3238 3238 3238 3238 3238 3238 3269 3269 3269 3269 3269 3269 3269 3269 3269 3269 3269 3269 3269 3269 3269 3300 3238 3238 3238 3238 3238 3238 3238 3238 3269 3269 3269 3269 3269 3269 3269 3269 4582 4582 4582 4582 4582 4582 4582 4582 4582 4582 4582 7030 6889 6889 6622 6622 6497 6497 6497 6622 6622 7178 7332 7492 7492 7492 7492 7492 7660 7492 7030 7030 7030 7030 7030 7030 7332 7492 7660 7660 7492 7492 7660 7492 7492 7492 7492 7492 7492 7492 7492 7492 7492 7492 7492 7660 7492 7492 7492 7492 7492 7492 7492 7492 7492 7492 7332 7178 7030 7030 7030 6889 6889 7030 7030 6889 6889 6889 6889 6889 6889 7030 7332 7492 7660 7660 7835 7835 7835 7660 7660 7660 7492 7492 7492 7660 7660 7660 7660 7660 7660 7660 5291 5210 5210 5210 5210 5210 5132 5132 5132 5132 5132 5132 5056 5056 4983 4983 4983 4983 4983 4983 4983 5056 5056 4983 4983 4911 4911 4911 4911 4911 4911 4911 4911 4842 4842 4842 4842 4911 4842 4842 4842 4842 4911 4911 4911 4842 4842 4842 4842 4842 4842 4842 4842 4911 4842 4842 4842 4842 0 0 0 0 0 0 0 0 0 0 0 0 0 0 0 0 0 0 0 0 0 0 0 0 0 0 0 0 0 0 0 0 0 0 0 0 3433 3433 3433 3433 3468 3503 3539 3576 3503 3503 3503 3503 3503 3503 3503 3539 3539 3539 3576 3653 3653 3539 3539 3503 3503 3468 3468 3503 3468 3468 3468 3503 3539 3539 3539 3539 3539 3539 3539 3576 3576 3576 3576 3576 3576 3576 3614 3576 3576 3576 3576 3576 3539 3503 3503 3539 3468 3468 3468 3468 0 0 0 3539 0 0 3576 3576 3576 3576 3653 3653 3692 3692 3692 3692 3692 3653 3614 3614 0 0 0 0 3614 3614 3576 3576 3539 3539 3539 0 0 0 0 0 0 2767 2767 2744 2744 2744 2744 2744 2744 2744 2744 2744 2744 2744 2744 2744 2744 2744 2744 2744 2744 2723 2723 2723 2723 2723 2723 2723 2723 2723 2723 2723 2701 2701 2701 2701 2680 2680 2680 2680 2680 2659 2659 2659 2659 2659 2659 2659 2639 2639 2639 2639 2639 2639 2639 2639 2659 2659 2680 2680 2680 2701 2701 2701 2701 2701 2701 2701 2701 2701 2701 2701 2701 2680 2680 2680 2680 2701 2701 2723 2723 2723 2723 0 0 0 0 0 0 0 0 0 0
0 0 0 0 0 0 0 0 0 0 0 0 0 0 0 0 0 0 0 0 0 0 0 0 0 0 0 0 0 0 4842 4774 4708 4708 4708 4774 4774 4774 4842 4842 4842 4911 4842 4842 4842 4983 5132 5210 5291 5291 5291 5291 5291 5291 5210 5210 5210 5210 5291 5291 6146 6375 6622 6622 6497 6497 6497 6497 6375 6259 6259 6259 6259 6259 6375 6375 6375 6375 6375 6375 6375 6259 6259 6259 6375 6375 6497 6497 6622 6622 6497 6497 6497 6497 6497 6497 6375 6259 6146 6146 6146 6146 6146 6146 6146 6259 6375 6375 6375 6375 6375 6497 6497 6497 6622 6622 6622 6497 6497 6497 6622 6622 6622 6497 6497 6497 6375 6375 6375 6375 6375 6375 6622 6622 6753 6753 6753 6753 6753 6753 6753 6753 6889 6889 3120 3120 3120 3120 3149 3149 3149 3120 3120 3120 3120 3120 3149 3149 3149 3149 3149 3149 3149 3149 3149 3149 3149 3149 3149 3149 3149 3149 3149 3149 3149 3149 3149 3178 3178 3178 3178 3178 3178 3178 3178 3178 3178 3178 3178 3178 3178 3178 3208 3208 3208 3208 3208 3208 3208 3178 3178 3178 3178 3178 3208 3208 3208 3208 3208 3208 3208 3208 3208 3208 3238 3238 3238 3238 3238 3238 3238 3238 3238 3269 3269 3269 3269 3269 3269 3269 3269 3269 3269 3269 3269 3269 3269 3269 3300 3269 3269 3238 3238 3238 3238 3238 3269 3269 3269 3269 3269 3269 3300 3300 3300 4522 4522 4582 4582 4582 4582 4582 4582 4582 4582 4582 4522 4522 6889 6622 6497 6497 6497 6497 6497 6497 6753 7332 7492 7492 7492 7492 7492 7660 7492 6889 6889 6889 6889 6889 7030 7332 7492 7660 7492 7492 7492 7492 7492 7492 7492 7492 7492 7492 7492 7492 7492 7492 7492 7492 7492 7492 7492 7492 7492 7492 7492 7492 7492 7492 7492 7332 7030 7030 6889 6889 6889 6889 7030 7178 6889 6889 7030 6889 6889 7178 7332 7332 7492 7835 7835 7835 7835 7835 7660 7660 7660 7660 7492 7492 7660 7492 7492 7660 7660 7660 7660 5291 5291 5210 5210 5210 5210 5132 5132 5132 5132 5132 5132 5056 5056 4983 4983 4983 4983 4983 4983 4983 5056 5056 4983 4911 4911 4911 4911 4911 4911 4911 4911 4911 4842 4842 4842 4842 4911 4842 4842 4842 4842 4911 4911 4842 4842 4842 4842 4842 4842 4842 4842 4842 4911 4842 4842 4842 4842 0 0 0 0 0 0 0 0 0 0 0 0 0 0 0 0 0 0 0 0 0 0 0 0 0 0 0 0 0 0 3333 3333 3333 0 0 3399 3399 3399 3399 3399 3468 3468 3468 3468 3468 3468 3468 3468 3468 3468 3503 3503 3503 3503 3468 3468 3468 3468 3468 3468 3433 3399 3399 3468 3433 3433 3468 3468 3539 3503 3503 3503 3503 3503 3503 3539 3539 3539 3539 3539 3539 3576 3576 3576 3576 3576 3576 3576 3576 3503 3433 3433 3433 3433 3468 0 3433 0 0 0 3539 3539 3503 3503 3468 3468 3503 3576 3653 3653 3653 3614 3614 3614 3576 3576 0 0 0 0 3614 3576 3576 3576 3539 3539 3539 0 0 0 0 0 0 2744 2744 2744 2744 2744 2744 2744 2744 2744 2744 2744 2744 2744 2744 2744 2744 2744 2744 2744 2744 2723 2723 2723 2723 2723 2723 2723 2701 2701 2723 2723 2701 2701 2701 2701 2680 2680 2680 2680 2680 2659 2659 2659 2659 2659 2659 2659 2659 2659 2659 2639 2639 2659 2659 2659 2659 2680 2680 2701 2701 2701 2701 2701 2701 2701 2701 2701 2701 2701 2701 2701 2701 2701 2701 2701 2701 2701 2723 2723 2723 2723 2744 0 0 0 0 0 0 0 0 0 0
0 0 0 0 0 0 0 0 0 0 0 0 0 0 0 0 0 0 0 0 0 0 0 0 0 0 0 0 0 0 4842 4842 4774 4774 4774 4842 4774 4774 4842 4842 4842 4911 4842 4842 4842 5056 5132 5210 5291 5374 5374 5291 5291 5291 5210 5210 5210 5291 5291 5291 5291 6622 6497 6497 6497 6497 6497 6497 6259 6259 6259 6146 6146 6146 6375 6375 6375 6375 6497 6497 6259 6146 6146 6146 6146 6259 6259 6259 6375 6622 6497 6497 6497 6497 6497 6497 6259 6259 6146 6146 6146 6038 6038 6038 6146 6259 6259 6259 6259 6375 6375 6497 6375 6375 6622 6622 6622 6497 6497 6497 6622 6622 6622 6497 6497 0 6375 6375 6375 6375 6259 6259 6497 6497 6622 6753 6753 6753 6753 6753 6753 6753 6889 6889 3120 3120 3120 3149 3149 3149 3149 3120 3120 3120 3120 3149 3149 3149 3149 3149 3149 3149 3149 3149 3149 3149 3149 3149 3149 3149 3149 3149 3149 3149 3149 3149 3149 3178 3178 3178 3178 3178 3178 3178 3178 3178 3178 3178 3178 3178 3208 3208 3208 3208 3208 3208 3208 3208 3208 3178 3178 3178 3208 3208 3208 3208 3208 3208 3208 3208 3208 3208 3208 3208 3208 3238 3238 3238 3238 3238 3238 3269 3269 3269 3269 3269 3269 3269 3269 3269 3269 3269 3269 3269 3269 3269 3269 3269 3300 3269 3269 3238 3238 3238 3238 3238 3269 3269 3269 3269 3269 3300 3300 3300 3300 4522 4522 4582 4582 4582 4582 4582 4582 4582 4582 4582 4522 4522 6753 6622 6497 6497 6497 6497 6497 6497 6753 7332 7492 7492 7492 7492 7492 7492 7332 6889 6753 6753 6622 6622 7030 7332 7492 7492 7492 7492 7492 7492 7492 7492 7492 7332 7332 7332 7492 7492 7492 7492 7492 7492 7492 7492 7492 7492 7492 7492 7332 7178 7178 7332 7332 7030 6889 6889 6889 6889 6889 6889 7030 7178 7030 7030 7030 7030 7030 7178 7332 7332 7492 7835 7835 7835 7660 7660 7660 7660 7660 7660 7492 7492 7660 7492 7492 7492 7492 7660 7660 5291 5291 5210 5210 5291 5210 5210 5132 5132 5132 5132 5132 5132 5056 5056 4983 4983 4983 4983 4983 4983 5056 5056 4983 4911 4911 4911 4911 4911 4911 4911 4911 4842 4842 4842 4842 4842 4911 4911 4911 4911 4842 4842 4842 4842 4842 4842 4842 4842 4842 4842 4911 4911 4911 4842 4842 4911 4911 4983 0 0 0 0 0 0 0 0 0 0 0 0 0 0 0 0 0 0 0 0 0 0 0 0 0 0 0 0 0 3333 3333 3333 3333 3365 3365 3365 3399 3399 3399 3399 3433 3433 3433 3433 3433 3468 3468 3468 3433 3433 3468 3468 3433 3399 3365 3365 3433 3399 3399 3433 3399 3399 3433 3433 3433 3468 3468 3503 3503 3503 3503 3503 3503 3503 3539 3539 3503 3503 3503 3539 3539 3576 3539 3539 3576 3576 3576 3399 3399 3399 3399 3399 3433 3433 3433 3433 3433 0 0 3503 3503 3468 3468 3433 3433 3468 3503 3576 3576 3576 3539 3539 3576 3576 3576 3576 0 3433 3614 3614 3576 3576 3576 3539 3539 0 0 0 0 0 0 0 2744 2744 2744 2744 2744 2744 2744 2744 2744 2744 2744 2744 2744 2744 2744 2744 2744 2744 2744 2744 2723 2723 2723 2723 2723 2723 2723 2701 2701 2723 2723 2701 2701 2701 2701 2680 2680 2680 2680 2680 2659 2659 2659 2659 2659 2659 2659 2659 2659 2659 2659 2659 2659 2659 2659 2659 2680 2680 2701 2701 2701 2701 2701 2701 2701 2701 2701 2701 2701 2701 2701 2701 2701 2701 2701 2701 2701 2723 2723 2723 2723 2723 0 0 0 0 0 0 0 0 0 0
0 0 0 0 0 0 0 0 0 0 0 0 0 0 0 0 0 0 0 0 0 0 0 0 0 0 0 0 0 0 0 0 0 0 4842 4842 4774 4774 4842 4842 4842 4911 4911 4911 4983 5056 5210 5291 5374 5460 5374 5374 5374 5291 5210 5210 5210 5291 5291 5291 5291 6497 6497 6497 6497 6497 6497 6497 6259 6259 6259 6146 6146 6146 0 0 0 0 0 0 6259 6146 6038 6038 6146 6146 6146 6259 6375 0 0 0 6497 6497 6497 6497 6259 6259 6146 6146 6146 6038 6038 6038 6038 6146 6259 6259 6259 6259 6259 6497 6375 6375 6622 6753 6622 6622 6622 6753 6753 6622 6622 0 0 0 6375 6375 6375 6375 6259 6259 6497 6497 6622 6889 6753 6753 6753 6753 6753 6753 6889 6889 3149 3149 3149 3149 3149 3149 3149 3149 3149 3120 3120 3149 3149 3149 3149 3149 3149 3149 3149 3149 3149 3149 3149 3149 3149 3149 3149 3149 3149 3149 3149 3149 3149 3178 3178 3178 3178 3178 3178 3178 3178 3178 3178 3178 3208 3208 3208 3208 3238 3238 3208 3208 3208 3208 3208 3208 3208 3208 3208 3208 3208 3208 3208 3238 3208 3208 3208 3208 3208 3208 3208 3238 3238 3238 3238 3238 3238 3269 3269 3269 3269 3269 3269 3269 3269 3269 3269 3269 3269 3269 3269 3269 3269 3269 3300 3269 3269 3269 3269 3238 3238 3269 3269 3269 3269 3269 3269 3300 3300 3365 3399 4522 4522 4582 4582 4582 4582 4582 4582 4645 4582 4582 4582 6889 6753 6622 6497 6497 6497 6497 6375 6375 6497 6889 7178 7332 7332 7492 7492 7492 7332 6889 6753 6753 6622 6622 7030 7332 7492 7492 7492 7332 7332 7332 7332 7332 7492 7332 7332 7332 7492 7492 7492 7492 7492 7492 7492 7492 7492 7332 7332 7332 7030 7030 7030 7030 7030 7030 6889 6889 7030 7030 6889 6889 7178 7178 7178 7030 7030 7030 7030 7178 7332 7332 7492 7660 7660 7660 7660 7660 7660 7660 7660 7660 7492 7492 7492 7492 7492 7492 7492 7660 7835 5291 5291 5210 5210 5210 5210 5210 5132 5132 5132 5132 5132 5132 5056 5056 4983 4983 4983 4983 4983 4983 4983 4983 4983 4983 4911 4911 4911 4911 4911 4911 4911 4842 4842 4842 4842 4842 4911 4911 4911 4911 4842 4842 4842 4842 4842 4842 4842 4842 4842 4842 4911 4911 4911 4911 4911 4911 4983 4983 4983 0 0 0 0 0 0 0 0 0 0 0 0 0 0 0 0 0 0 3503 3503 3539 3468 3468 3468 3433 3433 0 0 3333 3333 3333 3333 3333 3333 3365 3365 3365 3365 3365 3399 3365 3365 3399 3399 3433 3433 3433 3433 3433 3433 3399 3399 3399 3365 3365 3365 3399 3399 3399 3365 3365 3399 3399 3399 3433 3433 3468 3468 3468 3468 3468 3468 3468 3468 3468 3503 3503 3503 3539 3539 3576 3539 3539 3539 3300 3300 3300 3399 3399 3399 3399 3399 3399 3399 3433 0 3399 0 3468 3468 3468 3468 3433 3433 3433 3433 3539 3539 3539 3503 3503 3539 3576 3576 3433 3433 3433 3433 3539 3539 3539 3539 3539 3539 0 0 0 0 0 0 0 2767 2767 2744 2744 2744 2744 2744 2744 2744 2744 2744 2744 2744 2744 2744 2744 2744 2744 2744 2744 2723 2723 2744 2723 2723 2723 2723 2723 2723 2723 2723 2701 2701 2701 2701 2680 2680 2680 2680 2680 2659 2659 2659 2659 2659 2659 2659 2659 2659 2659 2659 2659 2659 2659 2659 2659 2680 2680 2701 2701 2701 2701 2701 2701 2701 2701 2701 2701 2701 2701 2701 2723 2701 2701 2701 2701 2701 2723 2723 2723 2723 2723 0 0 0 0 0 0 0 0 0 0
0 0 0 0 0 0 0 0 0 0 0 0 0 0 0 0 0 0 0 0 0 0 0 0 0 0 0 0 0 0 0 0 0 0 0 4842 4774 4774 4842 4842 4842 4842 4911 4911 5056 5132 5291 5291 5374 5374 5374 5291 5291 5210 5210 5210 5291 5291 5291 5291 5291 5291 6622 6622 6497 6375 6375 6375 6259 6259 6146 6146 6146 0 0 0 0 0 0 0 6146 6146 6038 6038 6038 6146 6146 6259 6375 0 0 0 0 0 6497 6497 6259 6146 6146 6146 6146 6146 6146 6038 6038 6146 6259 6259 6259 6259 6259 6375 6259 6259 0 0 0 0 0 0 0 0 0 0 0 0 0 0 0 0 0 0 0 6889 6889 6889 6753 6753 6622 6622 2103 2103 2103 3149 3149 3149 3149 3149 3149 3149 3178 3149 3149 3149 3149 3149 3149 3149 3149 3149 3149 3149 3149 3149 3149 3149 3149 3149 3149 3149 3149 3149 3149 3149 3149 3178 3178 3178 3178 3178 3178 3178 3178 3178 3178 3178 3178 3208 3208 3208 3208 3238 3238 3238 3208 3208 3208 3208 3208 3208 3208 3208 3208 3208 3208 3208 3238 3238 3238 3238 3238 3238 3208 3208 3238 3238 3238 3238 3238 3238 3238 3238 3269 3238 3238 3238 3269 3269 3269 3269 3269 3269 3269 3269 3269 3269 3269 3269 3300 3269 3269 3269 3269 3238 3238 3269 3269 3269 3269 3269 3269 3300 3333 3365 3399 4522 4522 4582 4582 4582 4582 4582 4582 4645 4645 4645 4645 6889 6753 6622 6497 6497 6375 6375 6375 6375 6497 6889 7030 7178 7332 7492 7492 7492 7332 7030 7030 7030 6889 6889 7030 7332 7332 7492 7492 7332 7332 7332 7332 7332 7492 7030 7030 7178 7332 7332 7332 7492 7492 7492 7492 7492 7492 7332 7178 6889 6753 6753 6889 7030 6753 6753 6753 6753 7030 7030 6889 6889 6889 6889 7030 7030 7030 7030 7332 7332 7332 7332 7492 7660 7660 7660 7492 7492 7492 7492 7660 7660 7492 7492 7492 7492 7492 7660 7660 7660 7835 5291 5291 5210 5210 5210 5210 5210 5132 5132 5132 5132 5132 5132 5056 5056 5056 4983 4983 4983 4983 4983 4983 4983 4983 4983 4983 4911 4911 4911 4911 4911 4911 4842 4842 4842 4842 4842 4911 4911 4911 4911 4911 4842 4842 4842 4842 4842 4842 4842 4842 4842 4911 4911 4911 4911 4911 4983 4983 4983 4983 0 0 0 0 0 0 0 0 0 0 0 0 0 0 0 0 0 3576 3503 3503 3539 3468 3468 3468 3433 3365 3300 3300 3333 3333 3333 3333 3333 3333 3333 3333 3333 3333 3333 3365 3333 3333 3365 3365 3399 3399 3399 3399 3399 3365 3333 3333 3333 3333 3333 3365 3399 3399 3399 3365 3365 3399 3399 3399 3433 3433 3433 3468 3468 3468 3468 3433 3433 3433 3468 3503 3503 3503 3333 3333 3333 3333 3333 3300 3300 3300 3300 3333 3333 3365 3365 3399 3399 3399 3399 3399 3399 3399 3399 3399 3433 3433 3433 3433 3433 3433 3433 3503 3503 3468 3433 3399 3399 3399 3399 3399 3399 3433 3503 3539 3539 3539 3539 3539 0 0 0 0 0 0 0 0 2744 2744 2744 2744 2767 2744 2744 2744 2744 2744 2744 2744 2744 2744 2744 2744 2744 2744 2744 2723 2723 2744 2723 2723 2723 2723 2723 2723 2723 2723 2723 2723 2701 2701 2701 2701 2680 2680 2680 2659 2659 2659 2659 2659 2659 2659 2659 2659 2659 2659 2659 2659 2659 2659 2659 2680 2680 2701 2701 2701 2701 2701 2701 2701 2701 2701 2701 2701 2723 2723 2723 2701 2701 2701 2701 2701 2723 2723 2723 2723 2744 0 0 0 0 0 0 0 0 0 0
