0 0 0 0 0 0 0 0 0 0 0 0 0 0 0 0 0 0 0 0 0 0 0 0 0 0 0 0 0 0 0 0 0 0 0 0 0 0 0 0 0 0 0 0 3208 3208 3208 3208 3208 3238 3208 3037 3037 4405 4349 4349 4349 4349 4349 4295 4295 4295 4190 4190 0 0 0 0 1509 1503 1503 1509 1509 1503 1503 1503 1503 1503 1503 1503 1503 1509 1509 1509 1509 1509 1509 1503 1503 1496 1489 1483 1483 1477 1477 1477 1477 1470 1470 1470 1470 1464 1464 1464 1464 1464 1464 1464 1464 1464 1458 1458 1458 1458 1452 1452 1452 1452 1452 1452 1452 1452 1445 1445 1445 1445 1445 1439 1439 1439 1445 1445 1445 1445 1439 1439 1439 1439 1439 1433 1433 1433 1433 1433 1433 1427 1427 1427 1427 1427 1427 1427 1427 1427 1427 1427 1421 1421 1421 1415 1404 1404 1398 1398 1398 1398 1404 1404 1410 1410 1415 1421 1421 1427 1433 1433 1445 1445 1904 1904 1883 1883 1873 1873 1873 1873 1873 1873 1873 1883 1883 1883 1883 1883 1883 1894 1894 1894 1273 1273 1273 1273 1278 1278 1278 1278 1278 1278 1278 1278 1278 1278 1283 1283 1283 1283 1283 1283 1283 1278 1278 1278 1278 1278 1273 1273 1268 1268 1264 1264 1259 1259 1259 1255 1255 1250 1250 1245 1245 1250 1250 1245 1245 1245 1245 1245 1245 1241 1236 1236 1236 1236 1236 1232 1232 1232 1232 1232 1227 1227 1223 1223 1219 1219 1219 1223 1219 1219 1219 1219 1936 1219 1219 1219 1219 1936 1936 1936 1936 1936 1936 1936 1936 1936 1936 1936 1936 1936 1926 1926 1926 1926 1926 1926 1915 1915 1915 1915 1915 1926 1926 1915 1915 1915 1926 1926 1915 1915 1915 1915 1926 1926 1926 1926 1926 1926 1936 1936 1936 1936 1936 1936 1936 1936 1947 1959 1959 1959 1947 1936 1936 1936 1926 1926 1926 1926 1926 1936 1936 1936 1936 1936 1936 1936 1947 1947 1947 1947 1959 1959 1959 1959 1959 1959 1959 1959 1947 1947 1947 1936 1936 1947 1936 1936 1936 1947 1959 1959 1959 1959 1970 1959 1959 1959 1959 1959 1959 1959 1959 1959 1959 1959 1959 1959 1970 1970 1970 1959 1959 1959 1959 1959 1959 1959 1970 1970 1970 1970 1970 1970 1970 1970 1959 1959 1959 1959 1959 1959 1947 1947 1947 1947 1959 1959 2103 2090 2090 2103 2103 2103 2090 2090 2103 2090 2090 2090 2090 1959 1959 1959 1959 2090 2090 2078 2078 2078 2078 2078 2078 2078 2078 2078 2078 2078 2065 2053 2053 2053 2053 2053 2040 2040 2040 2040 2040 2040 1947 1947 1947 1947 1947 1947 1947 1947 1926 1926 1904 1904 1904 1915 1915 1915 1926 1936 1936 1936 1936 1936 1936 5210 5132 5132 5210 5210 5291 5291 5291 5291 5291 5374 5374 5374 5374 0 0 5210 5210 5210 5210 5210 5132 5132 5132 5132 5132 5132 5132 5210 5210 5210 5210 5210 5132 5056 5056 5056 4983 4983 5056 5056 5056 5056 5056 0 0 0 0 0 0 0 4983 4983 5056 5056 5291 5210 5210 5291 5374 5210 5210 5210 5056 5056 5056 5056 5056 5056 5056 5056 5132 5132 5132 5132 5210 5210 5210 5132 5132 5132 5132 5132 5132 5056 5056 4405 4405 4522 4522 4522 4522 4463 4463 4463 4405 4349 4349 4295 4295 4295 4241 4241 4241 4190 4190 4190 4190 4190 4190 4139 4139 4089 4089 4041 4041 4041 3994 3994 3994 3994 3994 3994 3994 3994 3994 3994 3994 3994 3994 3994 3994 3994 3994 3994 3994 4041 0 0 0 0 0 0 0 0 0 0 0 0 0 0 0 0 0 0 0 0 0 0 0 0
0 0 0 0 0 0 0 0 0 0 0 0 0 0 0 0 0 0 0 0 0 0 0 0 0 0 0 0 0 0 0 0 0 0 0 0 0 0 0 0 0 0 0 3208 3178 3178 3178 3178 3178 3208 3208 3208 3238 4349 4349 4295 4295 4295 4241 4241 4241 4241 4190 4190 4241 0 0 0 0 1503 1503 1509 1509 1503 1503 1503 1503 1503 1509 1509 1509 1509 1509 1509 1516 1516 1516 1516 1516 1509 1509 1489 1483 1477 1477 1477 1477 1470 1470 1464 1464 1464 1464 1464 1464 1464 1464 1464 1464 1464 1464 1458 1458 1458 1452 1452 1452 1452 1452 1452 1452 1452 1445 1445 1445 1445 1445 1439 1439 1439 1445 1445 1445 1445 1439 1439 1439 1439 1439 1433 1433 1433 1433 1433 1433 1433 1427 1427 1427 1427 1427 1427 1427 1427 1427 1427 1421 1421 1421 1415 1404 1404 1404 1404 1404 1404 1404 1404 1410 1410 1415 1421 1421 1427 1427 1433 1445 1445 1883 1883 1863 1863 1863 1853 1853 1863 1863 1863 1873 1873 1873 1873 1873 1873 1873 1883 1883 1883 1273 1273 1273 1278 1278 1278 1278 1278 1278 1278 1278 1278 1278 1283 1283 1283 1283 1283 1283 1283 1283 1278 1278 1278 1278 1273 1273 1268 1268 1264 1264 1259 1259 1259 1259 1255 1255 1255 1250 1250 1250 1250 1245 1245 1245 1245 1245 1245 1241 1236 1236 1236 1232 1232 1232 1232 1232 1232 1232 1232 1227 1227 1223 1223 1219 1219 1219 1223 1219 1219 1219 1219 1219 1219 1219 1219 1219 1219 1219 1210 1210 1214 1936 1936 1926 1926 1926 1926 1926 1926 1926 1926 1926 1926 1926 1915 1915 1904 1904 1904 1904 1904 1904 1904 1904 1904 1904 1904 1904 1904 1915 1915 1915 1915 1915 1926 1926 1926 1926 1926 1926 1926 1926 1926 1926 1926 1936 1936 1936 1947 1936 1936 1926 1926 1926 1926 1915 1915 1915 1915 1926 1915 1915 1926 1926 1926 1936 1936 1936 1936 1947 1947 1947 1947 1947 1947 1947 1947 1936 1936 1936 1936 1926 1926 1926 1926 1936 1936 1936 1947 1947 1947 1947 1947 1936 1936 1936 1936 1936 1936 1936 1936 1947 1947 1947 1947 1959 1959 1959 1947 1947 1959 1959 1959 1959 1959 1959 1970 1970 1970 1959 1959 1959 1959 1947 1947 1947 1947 1947 1936 1936 1936 1936 1936 1947 1947 1936 1926 1926 1926 1915 1915 1915 1915 1915 1915 1936 1936 1947 1947 1947 1947 1947 1936 1936 1936 1947 1947 2078 2078 2078 2065 2065 2065 2065 2053 2053 2053 2040 2040 2040 2040 2040 2028 1959 1959 2028 1936 1936 1936 1947 1947 1947 1947 1947 1947 1926 1926 1926 1915 1915 1915 1915 1926 1926 1926 1926 1936 1936 1936 1936 1926 1926 5210 5210 5210 5291 5291 5291 5291 5291 5374 5374 5374 5374 0 0 0 5056 5056 5132 5132 5132 5056 5056 5056 5056 5132 5132 5132 5132 5132 5132 5132 5056 5056 5056 5056 4983 4983 4983 4983 4983 4983 4983 0 0 0 0 0 0 0 4983 4983 5056 5056 5056 5056 5056 5210 5210 5210 5056 5056 5056 5056 5056 5056 5056 5056 5056 5056 5056 5056 5056 5056 5132 5132 5132 5132 5132 5132 5132 5132 5132 5056 5056 4405 4405 4522 4522 4522 4522 4522 4463 4463 4405 4349 4295 4295 4295 4295 4241 4241 4190 4190 4190 4190 4190 4190 4190 4139 4139 4089 4089 4041 4041 4041 3994 3994 3994 3994 3994 3994 3994 3994 3994 3994 3994 3994 3994 3994 3994 3994 3994 3994 3994 4041 0 0 0 0 0 0 0 0 0 0 0 0 0 0 0 0 0 0 0 0 0 0 0 0
0 0 0 0 0 0 0 0 0 0 0 0 0 0 0 0 0 0 0 0 0 0 0 0 0 0 0 0 0 0 0 0 0 0 0 0 0 0 0 0 0 0 0 3208 3178 3178 3178 3178 3178 3208 3208 3208 3208 4241 4190 4190 4190 4190 4190 4190 4190 4190 4139 4139 4139 0 0 0 0 0 1509 1509 1509 1503 1503 1503 1503 1503 1509 1509 1509 1509 1509 1509 1516 1516 1523 1523 1523 1523 1523 1516 1489 1483 1477 1477 1477 1470 1464 1464 1464 1464 1458 1458 1464 1464 1464 1464 1464 1464 1464 1458 1458 1458 1452 1452 1452 1452 1452 1452 1452 1452 1452 1452 1445 1445 1445 1445 1439 1439 1445 1445 1445 1445 1439 1439 1445 1439 1439 1433 1433 1433 1433 1433 1433 1433 1427 1427 1427 1427 1427 1427 1427 1427 1427 1427 1427 1421 1415 1415 1404 1404 1404 1404 1404 1404 1404 1404 1410 1415 1415 1421 1421 1427 1427 1427 1445 1873 1863 1863 1853 1853 1853 1843 1843 1853 1863 1863 1863 1863 1863 1863 1863 1863 1873 1873 1883 1883 1273 1273 1273 1278 1278 1278 1278 1278 1278 1278 1278 1278 1278 1283 1283 1283 1283 1283 1283 1283 1278 1278 1278 1278 1273 1273 1268 1268 1264 1264 1264 1259 1259 1259 1259 1255 1255 1255 1250 1250 1250 1250 1245 1245 1245 1241 1241 1241 1241 1236 1236 1236 1232 1232 1232 1232 1232 1232 1227 1227 1227 1223 1223 1223 1223 1219 1219 1223 1219 1219 1219 1219 1219 1219 1219 1219 1219 1219 1214 1210 1210 1214 1214 1210 1210 1926 1926 1926 1926 1926 1926 1926 1926 1915 1915 1904 1894 1894 1894 1894 1894 1894 1894 1894 1894 1894 1894 1894 1894 1894 1894 1894 1904 1904 1915 1915 1926 1926 1926 1926 1926 1926 1926 1926 1926 1926 1936 1185 1185 1185 1185 1185 1189 1189 1915 1915 1915 1915 1915 1915 1904 1904 1904 1915 1915 1915 1915 1915 1926 1915 1915 1894 1894 1915 1915 1915 1926 1926 1926 1926 1915 1915 1915 1915 1926 1926 1926 1926 1926 1936 1936 1936 1936 1936 1936 1926 1926 1936 1936 1936 1936 1936 1936 1936 1936 1936 1936 1947 1947 1947 1947 1947 1947 1947 1947 1959 1959 1959 1959 1959 1947 1947 1947 1947 1936 1936 1936 1936 1936 1936 1936 1936 1936 1936 1936 1936 1926 1926 1926 1915 1915 1915 1904 1904 1915 1915 1926 1926 1936 1936 1936 1936 1936 1936 1926 1926 1926 1926 1926 1926 1936 1926 1926 1926 2040 2053 2053 2040 2040 2040 2028 1959 1947 1947 1947 1947 1926 1926 1926 1926 1936 1936 1936 1936 1936 1936 1926 1926 1926 1915 1915 1915 1915 1915 1915 1926 1926 1926 1926 1926 1915 1915 1915 1915 1915 1915 1915 1915 5210 5210 5210 5291 5291 5374 0 0 0 0 5056 5056 5056 5132 5132 5056 5056 5056 5056 5056 5132 5132 5132 5132 5132 5132 4983 4983 4983 4983 4983 4983 4983 4983 4983 4983 0 0 0 0 0 4842 4842 4911 4983 4983 4983 5056 5056 5056 5056 5210 5210 5210 5056 5056 5056 5056 5056 5056 4983 4983 4983 4983 5056 5056 4983 4983 5056 5056 5056 5056 5056 5056 5056 5056 5056 4983 4983 4405 4405 4522 4522 4522 4522 4522 4463 4463 4405 4349 4295 4295 4295 4295 4241 4190 4190 4190 4190 4190 4190 4190 4190 4139 4139 4089 4089 4041 4041 4041 3994 3994 3994 3994 3994 3994 3994 3994 3994 3994 3994 3994 3994 3994 3994 3994 3994 3994 3994 4041 0 0 0 0 0 0 0 0 0 0 0 0 0 0 0 0 0 0 0 0 0 0 0 0
0 0 0 0 0 0 0 0 0 0 0 0 0 0 0 0 0 0 0 0 0 0 0 0 0 0 0 0 0 0 0 0 0 0 0 0 0 0 0 0 0 0 0 3208 3208 3178 3178 3178 3208 3208 3208 3178 3178 4190 4190 4190 4190 4190 4190 4190 4190 4190 4139 4139 4139 0 0 0 0 0 1509 1509 1509 1503 1503 1503 1509 1509 1509 1509 1509 1509 1516 1516 1516 1523 1523 1529 1529 1529 1529 1529 1516 1483 1477 1477 1477 1470 1464 1464 1464 1458 1458 1458 1464 1464 1464 1464 1464 1464 1464 1458 1458 1458 1452 1452 1452 1452 1452 1452 1452 1452 1452 1452 1445 1445 1445 1445 1439 1439 1445 1445 1445 1445 1445 1445 1445 1439 1439 1433 1433 1433 1433 1433 1433 1433 1433 1433 1427 1427 1427 1427 1427 1427 1427 1427 1427 1421 1415 1415 1404 1404 1404 1404 1404 1404 1404 1410 1410 1415 1415 1421 1421 1427 1427 1427 1445 1863 1863 1853 1853 1843 1843 1843 1843 1843 1853 1853 1853 1853 1853 1853 1863 1863 1863 1873 1883 1883 1278 1278 1278 1283 1283 1283 1283 1278 1278 1278 1278 1278 1278 1283 1283 1283 1283 1283 1283 1283 1278 1278 1278 1273 1273 1273 1268 1268 1264 1264 1264 1259 1259 1259 1259 1255 1255 1255 1255 1250 1250 1250 1245 1245 1245 1241 1241 1241 1241 1236 1236 1236 1232 1232 1232 1232 1232 1232 1227 1227 1227 1223 1223 1223 1223 1223 1223 1223 1219 1219 1219 1219 1219 1219 1219 1219 1219 1219 1214 1214 1214 1214 1214 1210 1206 1206 1210 1210 1206 1202 1202 1202 1206 1904 1904 1894 1894 1894 1894 1894 1894 1894 1894 1894 1894 1894 1894 1894 1894 1894 1894 1894 1894 1894 1904 1915 1915 1915 1926 1926 1926 1926 1185 1185 1185 1185 1185 1185 1185 1185 1185 1185 1189 1189 1915 1915 1904 1904 1894 1894 1894 1894 1894 1894 1904 1904 1904 1904 1904 1894 1894 1894 1894 1894 1894 1894 1894 1894 1894 1904 1904 1904 1904 1904 1915 1915 1915 1915 1926 1926 1926 1926 1926 1926 1926 1926 1926 1926 1926 1926 1926 1926 1926 1926 1926 1926 1936 1936 1936 1936 1936 1936 1936 1936 1936 1947 1947 1947 1947 1947 1947 1947 1936 1936 1936 1936 1926 1926 1926 1926 1926 1926 1926 1926 1926 1926 1915 1915 1915 1915 1915 1915 1904 1904 1915 1915 1915 1915 1926 1926 1926 1926 1926 1926 1926 1926 1926 1926 1926 1926 1926 1926 1926 1926 1926 1926 2053 2040 1915 1915 1959 1936 1936 1936 1936 1936 1926 1926 1926 1926 1926 1926 1926 1926 1926 1926 1926 1926 1915 1915 1915 1915 1915 1915 1915 1926 1926 1926 1926 1926 1915 1915 1915 1915 1915 1915 1915 1904 1904 1904 1904 1904 5291 5374 0 0 0 0 5056 5056 5056 5056 5056 5056 4983 4983 5056 5056 5056 5056 5056 4983 4983 4983 4983 4983 4983 4983 4983 4983 4983 4983 4983 4983 4983 0 4911 0 4911 4842 4842 4911 4911 4911 4983 5056 5056 5056 5056 5056 5132 5132 5056 5056 4983 4983 5056 5056 4983 4983 4983 4983 4983 4983 4983 4983 4983 4983 4983 4983 4983 5056 5056 4983 4983 4983 4842 4522 4522 4522 4522 4522 4522 4522 4463 4463 4405 4349 4349 4295 4295 4295 4241 4190 4190 4190 4190 4190 4190 4190 4190 4139 4139 4089 4089 4041 4041 4041 3994 3994 3994 3994 3994 3994 3994 3994 3994 3994 3994 3994 3994 3994 3994 3994 3994 3994 3994 4041 0 0 0 0 0 0 0 0 0 0 0 0 0 0 0 0 0 0 0 0 0 0 0 0
0 0 0 0 0 0 0 0 0 0 0 0 0 0 0 0 0 0 0 0 0 0 0 0 0 0 0 0 0 0 0 0 0 0 0 0 0 0 0 0 0 0 0 3208 3178 3178 3178 3178 3208 3208 3208 3178 3178 4190 4190 4190 4139 4139 4139 4139 4139 4139 4089 4089 4089 0 0 0 0 0 1516 1516 1509 1509 1509 1509 1509 1509 1509 1509 1509 1509 1516 1516 1523 1523 1529 1529 1529 1529 1529 1529 1516 1489 1483 1477 1477 1470 1464 1464 1464 1458 1458 1458 1464 1464 1470 1470 1470 1464 1464 1458 1458 1458 1458 1458 1458 1458 1458 1458 1458 1458 1452 1452 1445 1445 1445 1445 1445 1445 1445 1452 1452 1445 1445 1445 1445 1439 1439 1433 1433 1433 1433 1433 1433 1433 1433 1433 1427 1427 1427 1427 1427 1427 1427 1427 1421 1421 1421 1415 1404 1404 1404 1404 1404 1404 1404 1410 1410 1415 1415 1421 1421 1427 1427 1427 1445 1853 1853 1843 1843 1833 1833 1833 1833 1843 1843 1843 1843 1843 1843 1843 1843 1853 1853 1863 1863 1292 1288 1288 1288 1288 1283 1283 1283 1283 1283 1278 1278 1278 1278 1283 1283 1283 1283 1283 1278 1278 1278 1278 1278 1273 1273 1273 1268 1268 1264 1264 1264 1259 1259 1259 1259 1255 1255 1255 1255 1250 1250 1250 1250 1245 1245 1241 1241 1241 1241 1236 1232 1232 1232 1232 1232 1232 1232 1232 1227 1227 1227 1223 1223 1223 1223 1219 1219 1219 1219 1219 1219 1219 1219 1219 1219 1214 1214 1214 1214 1214 1210 1210 1210 1210 1206 1206 1206 1206 1206 1202 1202 1202 1202 1202 1202 1202 1210 1210 1210 1883 1894 1894 1894 1894 1883 1883 1894 1883 1883 1883 1883 1883 1883 1883 1894 1894 1904 1915 1915 1181 1185 1185 1185 1185 1185 1185 1185 1185 1185 1185 1185 1185 1185 1189 1189 1904 1894 1894 1883 1883 1883 1883 1883 1883 1883 1883 1883 1883 1883 1883 1883 1883 1883 1883 1883 1883 1883 1883 1883 1894 1894 1894 1894 1894 1904 1904 1904 1904 1915 1915 1915 1915 1915 1915 1915 1915 1915 1915 1915 1915 1926 1926 1926 1926 1915 1915 1926 1926 1926 1915 1915 1915 1926 1926 1926 1926 1926 1936 1926 1926 1926 1926 1926 1926 1926 1926 1926 1915 1915 1915 1915 1915 1926 1926 1926 1926 1915 1904 1904 1904 1904 1904 1904 1904 1904 1915 1915 1915 1926 1926 1926 1915 1915 1915 1915 1915 1915 1915 1915 1915 1926 1915 1915 1915 1915 1915 1915 1915 1915 1915 1926 1926 1926 1926 1926 1926 1915 1915 1915 1915 1915 1915 1915 1915 1915 1915 1915 1915 1915 1915 1915 1915 1915 1915 1915 1915 1915 1915 1915 1915 1904 1904 1904 1904 1904 1904 1904 1904 1904 1904 1894 1894 0 0 0 0 0 0 0 5210 5132 5056 5056 4983 4983 4983 4983 4983 4983 4983 4983 4983 4911 4911 4842 4842 4842 4842 4983 4983 4983 4983 4983 4983 4983 4911 4911 4911 4911 4911 4911 4911 4911 4911 4911 4983 4911 4911 4911 4911 4983 5056 4983 4983 4983 4983 4983 4983 4983 4983 4983 4983 4983 4983 4983 4983 4983 4983 4983 4983 4983 4983 4983 4983 4983 4911 4708 4522 4522 4522 4522 4522 4522 4522 4463 4463 4405 4405 4349 4349 4295 4295 4241 4190 4190 4190 4190 4190 4190 4190 4190 4139 4139 4089 4089 4041 4041 4041 3994 3994 3994 3994 3994 3994 3994 3994 3994 3994 3994 3994 3994 3994 3994 3994 3994 3994 3994 4041 4041 0 0 0 0 0 0 0 0 0 0 0 0 0 0 0 0 0 0 0 0 0 0 0
0 0 0 0 0 0 0 0 0 0 0 0 0 0 0 0 0 0 0 0 0 0 0 0 0 0 0 0 0 0 0 0 0 0 0 0 0 0 0 0 4041 4041 4041 3208 3178 3178 3178 3178 3208 3208 3208 3178 3178 4190 4190 4190 4139 4139 4139 4139 4139 4139 4089 4089 4089 0 0 0 0 0 1516 1516 1516 1509 1509 1509 1509 1509 1509 1509 1509 1509 1516 1516 1523 1523 1529 1529 1529 1536 1536 1529 1529 1509 1509 1509 1477 1477 1464 1464 1464 1458 1458 1458 1464 1470 1470 1470 1470 1464 1464 1458 1458 1458 1458 1458 1458 1458 1458 1458 1458 1458 1458 1452 1452 1445 1445 1445 1445 1445 1445 1445 1445 1445 1439 1439 1445 1439 1439 1433 1433 1433 1433 1433 1433 1433 1433 1433 1433 1433 1433 1427 1427 1427 1427 1427 1421 1421 1415 1415 1410 1404 1404 1404 1404 1404 1410 1410 1415 1415 1421 1421 1427 1427 1433 1433 1445 1853 1843 1843 1833 1833 1823 1823 1823 1823 1823 1823 1823 1823 1823 1823 1833 1843 1853 1853 1853 1292 1292 1292 1292 1288 1288 1288 1288 1283 1283 1278 1278 1278 1278 1283 1283 1283 1283 1283 1278 1278 1278 1278 1278 1273 1273 1273 1268 1268 1264 1264 1264 1264 1259 1259 1259 1255 1255 1255 1255 1250 1250 1250 1250 1245 1245 1241 1241 1241 1241 1236 1232 1232 1232 1232 1232 1232 1232 1227 1227 1227 1223 1223 1223 1223 1223 1219 1219 1219 1219 1219 1219 1219 1214 1214 1214 1214 1214 1214 1210 1210 1210 1210 1210 1206 1206 1206 1206 1206 1206 1202 1202 1202 1202 1202 1202 1202 1202 1210 1210 1206 1206 1206 1206 1206 1202 1202 1202 1202 1202 1873 1873 1873 1873 1873 1873 1873 1904 1904 1185 1181 1181 1181 1181 1181 1185 1185 1185 1185 1185 1185 1185 1185 1185 1185 1185 1894 1894 1883 1883 1883 1883 1873 1873 1873 1873 1873 1883 1873 1873 1873 1873 1873 1873 1873 1873 1873 1873 1873 1883 1883 1883 1883 1883 1883 1883 1883 1883 1894 1894 1904 1904 1894 1894 1894 1894 1904 1904 1904 1915 1915 1915 1915 1915 1915 1915 1915 1915 1915 1915 1904 1904 1904 1915 1915 1915 1904 1904 1915 1904 1904 1904 1904 1904 1904 1915 1915 1915 1915 1915 1915 1915 1915 1915 1915 1915 1915 1894 1894 1894 1904 1894 1894 1894 1894 1904 1904 1904 1904 1904 1904 1904 1904 1904 1894 1894 1904 1904 1904 1904 1915 1915 1915 1915 1915 1915 1904 1904 1904 1904 1904 1904 1904 1904 1915 1915 1915 1904 1904 1904 1894 1894 1894 1904 1904 1904 1904 1904 1904 1904 1904 1904 1904 1904 1904 1904 1904 1904 1915 1904 1904 1904 1904 1904 1904 1894 1894 1904 1894 1894 1894 1894 1894 0 0 0 0 0 0 0 0 0 0 4774 4774 4774 4911 4983 4911 4911 4911 4911 4911 4842 4774 4774 4774 4774 4842 4842 4911 4983 4983 4983 4983 4983 4911 4911 4842 4842 4911 4911 4842 4842 4842 4842 4911 4911 4774 4774 4842 4911 4983 4911 4911 4911 4911 4983 4983 4983 4983 4983 4983 4983 4983 4983 4983 4911 4911 4911 4911 4983 4983 4983 4911 4911 4774 4645 4522 4522 4522 4522 4522 4522 4522 4522 4463 4463 4405 4405 4349 4349 4295 4295 4241 4190 4190 4190 4190 4190 4190 4190 4139 4139 4089 4089 4041 4041 4041 4041 3994 3994 3994 3994 3994 3994 3994 3994 3994 3994 3994 3994 3994 3994 3994 3994 3994 3994 3994 4041 0 0 0 0 0 0 0 0 0 0 0 0 0 0 0 0 0 0 0 0 0 0 0
0 0 0 0 0 0 0 0 0 0 0 0 0 0 0 0 0 0 0 0 0 0 0 0 0 0 0 0 0 0 0 0 0 0 0 0 0 0 0 4041 4041 4041 4041 4041 3149 3149 3149 3178 3208 3208 3178 3178 3178 4139 4139 4139 4139 4139 4139 4139 4139 4089 4089 4041 4041 4041 0 0 0 0 1523 1516 1516 1509 1509 1509 1509 1509 1509 1509 1509 1509 1516 1516 1523 1523 1529 1529 1529 1536 1536 1536 1536 1536 1536 1705 1705 1705 1705 1713 1713 1713 1713 1713 1713 1722 1477 1477 1470 1464 1464 1458 1458 1458 1458 1458 1458 1458 1458 1458 1458 1458 1766 1452 1452 1452 1445 1445 1445 1445 1445 1439 1439 1445 1439 1439 1445 1439 1439 1433 1433 1433 1433 1433 1433 1433 1433 1433 1433 1433 1433 1433 1433 1427 1427 1427 1421 1421 1415 1415 1410 1410 1404 1404 1404 1404 1410 1410 1415 1415 1421 1421 1427 1433 1433 1439 1445 1833 1833 1823 1823 1813 1813 1813 1813 1813 1813 1813 1804 1804 1794 1794 1794 1813 1833 1853 1853 1292 1292 1292 1292 1292 1292 1292 1288 1288 1283 1283 1283 1283 1283 1283 1283 1283 1283 1283 1283 1283 1278 1278 1278 1273 1273 1273 1273 1273 1268 1268 1268 1264 1264 1259 1259 1255 1255 1255 1255 1250 1250 1250 1250 1245 1245 1245 1241 1241 1241 1236 1232 1232 1232 1232 1232 1232 1227 1227 1223 1223 1223 1223 1223 1223 1223 1219 1219 1219 1219 1219 1219 1219 1214 1214 1214 1214 1214 1214 1210 1210 1210 1210 1206 1206 1206 1206 1206 1206 1202 1202 1202 1202 1202 1202 1202 1202 1202 1206 1210 1206 1206 1206 1206 1206 1202 1202 1202 1202 1202 1202 1202 1202 1863 1863 1873 1873 1873 1185 1185 1181 1181 1181 1181 1181 1181 1185 1185 1181 1181 1181 1185 1185 1185 1185 1185 1181 1181 1883 1883 1883 1873 1863 1863 1853 1853 1853 1853 1863 1863 1863 1863 1863 1863 1863 1863 1863 1873 1873 1873 1873 1873 1873 1873 1873 1873 1873 1873 1873 1883 1873 1873 1863 1863 1873 1883 1883 1883 1894 1894 1894 1894 1904 1894 1894 1894 1894 1904 1904 1894 1894 1894 1894 1894 1904 1894 1883 1883 1883 1883 1883 1883 1883 1883 1894 1904 1904 1904 1904 1904 1904 1904 1904 1904 1904 1904 1904 1883 1883 1894 1894 1894 1894 1894 1894 1894 1894 1894 1883 1883 1883 1883 1883 1883 1883 1883 1894 1894 1904 1904 1904 1904 1904 1904 1904 1904 1904 1904 1894 1894 1894 1894 1894 1894 1904 1904 1904 1894 1894 1894 1883 1883 1883 1894 1894 1894 1894 1894 1904 1904 1894 1894 1894 1894 1894 1894 1894 1904 1904 1904 1904 1894 1894 1894 1894 1894 1894 1894 1894 1894 1883 1883 1883 0 0 0 0 0 0 0 0 0 0 0 4774 4774 4842 4911 4911 4842 4842 4842 4842 4774 4774 4774 4774 4774 4774 4842 4842 4911 4911 4911 4911 4911 4911 4842 4842 4842 4911 4842 4842 4774 4774 4774 4842 4774 4774 4774 4842 4842 4911 4911 4911 4911 4911 4911 4983 4983 4983 4983 4983 4983 4911 4911 4911 4842 4842 4911 4911 4911 4911 4911 4842 4842 4774 4645 4522 4522 4522 4522 4522 4522 4522 4463 4463 4463 4405 4405 4405 4349 4295 4295 4241 4190 4190 4190 4190 4190 4190 4190 4139 4139 4089 4089 4041 4041 4041 4041 3994 3994 3994 3994 3994 3994 3994 3994 3994 3994 3994 3994 3994 3994 3994 3994 3994 3994 3994 0 0 0 0 0 0 0 0 0 0 0 0 0 0 0 0 0 0 0 0 0 0 0 0
0 0 0 0 0 0 0 0 0 0 0 0 0 0 0 0 0 0 0 0 0 0 0 0 0 0 0 0 0 0 0 0 0 0 0 0 0 0 0 4041 4041 4041 4041 4041 4041 3149 3149 3178 3208 3178 3178 3149 3149 4139 4139 4139 4139 4089 4089 4139 4089 4089 4041 4041 3994 3994 0 0 0 0 0 1523 1523 1516 1516 1516 1516 1509 1509 1509 1509 1516 1516 1516 1523 1523 1529 1529 1536 1536 1536 1543 1543 1543 1543 1696 1696 1696 1705 1713 1713 1713 1713 1713 1713 1722 1722 1722 1722 1731 1739 1748 1748 1748 1748 1748 1757 1757 1757 1757 1757 1757 1757 1757 1748 1748 1748 1748 1757 1757 1757 1439 1439 1757 1748 1748 1748 1439 1439 1433 1433 1433 1433 1433 1433 1433 1433 1433 1433 1433 1433 1433 1427 1427 1427 1421 1421 1421 1415 1415 1410 1410 1410 1410 1410 1410 1410 1410 1415 1415 1421 1421 1427 1433 1439 1439 1445 1452 1804 1804 1794 1794 1804 1804 1804 1804 1804 1794 1785 1785 1785 1785 1785 1785 1785 1785 1748 1292 1292 1292 1292 1292 1292 1292 1288 1288 1283 1283 1283 1283 1283 1283 1283 1283 1288 1283 1283 1283 1283 1278 1278 1278 1273 1273 1273 1273 1268 1268 1264 1264 1264 1259 1259 1259 1255 1255 1255 1255 1255 1250 1250 1250 1250 1245 1245 1241 1241 1236 1232 1232 1232 1232 1232 1232 1227 1227 1223 1223 1223 1223 1223 1223 1223 1219 1219 1219 1219 1219 1214 1214 1214 1214 1214 1214 1214 1214 1210 1210 1210 1210 1206 1206 1206 1206 1206 1202 1202 1202 1202 1202 1202 1202 1202 1202 1202 1206 1206 1206 1206 1206 1206 1206 1202 1202 1202 1202 1202 1202 1202 1202 1202 1202 1202 1197 1185 1185 1181 1181 1181 1181 1181 1181 1181 1181 1181 1181 1181 1181 1181 1181 1185 1185 1185 1181 1181 1883 1873 1873 1863 1853 1843 1843 1843 1843 1843 1843 1843 1853 1853 1853 1863 1863 1863 1863 1863 1863 1873 1863 1863 1863 1863 1863 1863 1863 1863 1863 1853 1853 1853 1853 1853 1853 1853 1853 1853 1853 1853 1863 1863 1863 1853 1853 1863 1873 1873 1873 1873 1873 1873 1873 1883 1873 1873 1873 1863 1863 1863 1863 1863 1863 1873 1873 1883 1883 1883 1883 1883 1883 1894 1894 1894 1894 1894 1883 1873 1873 1873 1873 1873 1883 1883 1883 1883 1883 1883 1873 1873 1873 1873 1873 1873 1873 1873 1883 1883 1894 1894 1904 1904 1904 1904 1904 1904 1894 1894 1894 1883 1883 1873 1873 1873 1883 1883 1873 1873 1873 1883 1873 1873 1873 1873 1873 1883 1883 1883 1883 1894 1894 1894 1883 1883 1883 1883 1883 1883 1883 1883 1883 1883 1883 1883 1883 1883 1883 1883 1883 1883 1873 1873 1873 0 0 0 0 0 0 0 0 0 0 4774 4774 4774 4842 4911 4842 4842 4842 4842 4842 4774 4774 4774 4774 4774 4774 4842 4842 4911 4911 4911 4842 4842 4842 4842 4774 4774 4842 4842 4842 4774 4774 4774 4774 4774 4774 4774 4842 4842 4911 4842 4842 4842 4842 4842 4911 4842 4842 4911 4983 4911 4911 4842 4842 4842 4842 4842 4911 4911 4911 4842 4842 4842 4774 4645 4582 4522 4522 4522 4522 4522 4522 4463 4463 4463 4463 4463 4405 4405 4349 4295 4241 4241 4241 4190 4190 4190 4190 4190 4190 4190 4089 4089 4041 4041 4041 4041 3994 3994 3994 3994 3994 3994 3994 3994 3994 3994 3994 3948 3948 3948 3948 3948 3948 3948 3994 0 0 0 0 0 0 0 0 0 0 0 0 0 0 0 0 0 0 0 0 0 0 0 0
0 0 0 0 0 0 0 0 0 0 0 0 0 0 0 0 0 0 0 0 0 0 0 0 0 0 0 0 0 0 0 0 0 0 0 0 0 0 0 3994 3994 3994 3994 4041 3994 3149 3149 3178 3178 3178 3178 3149 3149 4139 4139 4139 4139 4089 4089 4139 4089 4089 4041 4041 3994 3994 3994 0 0 0 0 1523 1523 1516 1516 1516 1516 1509 1509 1509 1509 1516 1523 1523 1523 1529 1529 1529 1536 1536 1543 1543 1550 1550 1550 1705 1696 1696 1705 1713 1713 1713 1713 1713 1713 1713 1713 1713 1722 1722 1731 1731 1731 1739 1739 1739 1748 1748 1748 1748 1748 1748 1748 1739 1739 1739 1739 1739 1748 1748 1748 1748 1748 1748 1748 1748 1739 1739 1739 1739 1739 1748 1748 1439 1439 1433 1433 1433 1433 1433 1433 1433 1427 1427 1427 1421 1421 1421 1415 1415 1410 1410 1410 1410 1410 1410 1410 1410 1415 1415 1421 1427 1427 1433 1439 1445 1445 1445 1785 1785 1776 1766 1766 1757 1757 1757 1766 1757 1757 1757 1757 1766 1757 1757 1748 1748 1748 1748 1292 1292 1292 1292 1292 1292 1292 1288 1288 1288 1283 1283 1283 1283 1283 1288 1288 1288 1288 1283 1283 1278 1278 1278 1273 1273 1273 1273 1268 1268 1264 1264 1264 1259 1259 1259 1255 1255 1255 1255 1255 1250 1250 1250 1250 1245 1245 1241 1241 1236 1236 1236 1232 1232 1232 1232 1232 1227 1227 1223 1223 1223 1223 1223 1223 1219 1219 1219 1219 1219 1214 1214 1214 1214 1214 1214 1214 1210 1210 1210 1210 1210 1210 1206 1206 1206 1206 1202 1202 1202 1202 1202 1202 1202 1202 1202 1202 1202 1202 1202 1202 1202 1202 1202 1202 1202 1202 1202 1202 1197 1197 1197 1202 1202 1202 1197 1189 1185 1181 1181 1181 1181 1181 1181 1181 1181 1181 1181 1181 1181 1181 1181 1185 1185 1185 1181 1181 1181 1863 1863 1853 1843 1833 1833 1833 1823 1823 1823 1833 1833 1843 1843 1843 1843 1843 1853 1853 1853 1863 1853 1853 1853 1853 1853 1843 1843 1843 1843 1843 1843 1843 1843 1843 1843 1843 1843 1843 1843 1843 1843 1843 1843 1843 1843 1853 1853 1853 1853 1853 1853 1853 1863 1863 1863 1853 1853 1853 1853 1853 1853 1853 1853 1863 1863 1863 1873 1863 1863 1873 1873 1873 1873 1873 1873 1873 1873 1863 1863 1863 1863 1863 1863 1873 1873 1873 1863 1863 1863 1863 1863 1863 1863 1863 1863 1863 1873 1873 1883 1883 1894 1894 1894 1894 1894 1894 1883 1883 1873 1863 1863 1863 1863 1863 1863 1863 1863 1863 1863 1863 1863 1863 1863 1873 1873 1873 1873 1873 1873 1883 1883 1883 1873 1873 1863 1863 1863 1863 1863 1863 1863 1863 1863 1873 1873 1873 1873 1873 1873 1873 1873 1873 1873 0 0 0 0 0 0 0 0 0 4774 4774 4774 4774 4774 4842 4842 4842 4842 4842 4774 4774 4774 4774 4774 4774 4774 4774 4774 4842 4842 4842 4842 4842 4842 4842 4774 4774 4774 4774 4774 4708 4708 4708 4708 4708 4708 4708 4774 4842 4842 4842 4774 4774 4774 4774 4774 4774 4774 4774 4774 4774 4774 4708 4708 4708 4774 4774 4774 4842 4842 4774 4774 4774 4708 4708 4645 4582 4522 4522 4522 4522 4522 4522 4463 4463 4463 4463 4405 4405 4349 4349 4241 4241 4241 4241 4241 4241 4241 4190 4190 4190 4139 4089 4089 4089 4041 4041 3994 3994 3994 3994 3994 3994 3994 3994 3994 3994 3994 3948 3948 3948 3948 3948 3948 3948 3994 0 0 0 0 0 0 0 0 0 0 0 0 0 0 0 0 0 0 0 0 0 0 0 0
0 0 0 0 0 0 0 0 0 0 0 0 0 0 0 0 0 0 0 0 0 0 0 0 0 0 0 0 0 0 0 0 0 0 0 0 0 0 3948 3948 3948 3994 3994 3994 3994 3994 3994 3178 3178 3178 3178 3149 3149 3178 4139 4139 4089 4089 4089 4089 4089 4041 4041 4041 3994 3994 3994 0 0 0 0 0 1516 1509 1509 1516 1516 1516 1516 1516 1516 1516 1523 1523 1523 1529 1529 1536 1536 1536 1543 1550 1550 1557 1557 1705 1705 1705 1705 1705 1705 1705 1705 1705 1705 1705 1713 1713 1713 1713 1713 1722 1722 1722 1722 1731 1731 1731 1731 1731 1731 1731 1731 1731 1731 1731 1731 1731 1731 1739 1739 1739 1748 1748 1739 1739 1739 1731 1731 1739 1739 1739 1739 1739 1445 1445 1445 1439 1433 1433 1433 1433 1427 1427 1427 1421 1421 1421 1415 1415 1410 1410 1410 1410 1410 1410 1415 1415 1415 1421 1421 1427 1433 1439 1445 1445 1445 1445 1445 1757 1757 1757 1748 1731 1731 1739 1748 1748 1748 1748 1748 1748 1748 1748 1739 1739 1739 1739 1292 1292 1292 1292 1292 1292 1292 1292 1288 1288 1288 1283 1283 1283 1283 1288 1288 1288 1288 1283 1283 1278 1278 1278 1278 1273 1273 1273 1268 1268 1268 1264 1264 1259 1259 1259 1255 1255 1255 1255 1255 1255 1255 1250 1250 1250 1245 1245 1241 1236 1236 1236 1232 1232 1232 1232 1227 1227 1227 1223 1223 1223 1223 1223 1223 1219 1219 1219 1219 1219 1219 1214 1214 1214 1214 1214 1214 1210 1210 1210 1210 1210 1210 1206 1206 1206 1206 1206 1202 1202 1202 1202 1202 1202 1202 1202 1202 1202 1202 1202 1202 1202 1202 1202 1202 1202 1202 1202 1202 1197 1197 1197 1202 1202 1197 1197 1189 1185 1181 1181 1177 1177 1177 1177 1177 1177 1177 1177 1177 1177 1181 1181 1181 1181 1185 1181 1181 1181 1863 1863 1843 1833 1823 1823 1823 1813 1813 1813 1813 1823 1823 1823 1833 1833 1833 1833 1833 1833 1843 1843 1833 1833 1843 1843 1833 1833 1833 1833 1833 1833 1833 1833 1833 1833 1833 1833 1833 1833 1833 1833 1833 1833 1833 1833 1843 1843 1833 1833 1843 1843 1843 1843 1843 1843 1843 1843 1843 1843 1843 1843 1843 1843 1843 1843 1843 1843 1843 1853 1853 1853 1853 1853 1853 1853 1843 1843 1853 1843 1843 1843 1843 1853 1853 1853 1853 1853 1853 1853 1853 1853 1853 1853 1853 1853 1863 1863 1863 1863 1873 1873 1873 1883 1873 1833 1833 1833 1833 1833 1833 1843 1843 1843 1853 1853 1853 1853 1853 1853 1853 1853 1853 1853 1863 1863 1863 1863 1863 1873 1873 1863 1863 1863 1863 1853 1843 1843 1853 1853 1853 1853 1853 1853 1853 1853 1863 1863 1863 1863 1863 1863 1863 1863 1863 0 0 0 0 0 0 0 0 4774 4774 4774 4774 4774 4774 4774 4774 4774 4774 4774 4774 4774 4708 4708 4708 4708 4774 4774 4774 4774 4774 4842 4842 4842 4774 4774 4774 4774 4708 4708 4708 4708 4708 4708 4708 4708 4708 4708 4774 4774 4774 4774 4708 4708 4708 4708 4708 4708 4774 4774 4774 4645 4582 4582 4645 4708 4708 4708 4774 4774 4774 4774 4774 4708 4708 4645 4582 4582 4582 4522 4522 4522 4522 4522 4463 4463 4463 4463 4463 4405 4349 4295 4295 4241 4241 4241 4241 4241 4190 4190 4190 4139 4089 4089 4089 4041 4041 3994 3994 3994 3994 3994 3994 3994 3994 3994 3994 3994 3948 3948 3948 3948 3948 3948 3948 0 0 0 0 0 0 0 0 0 0 0 0 0 0 0 0 0 0 0 0 0 0 0 0 0
0 0 0 0 0 0 0 0 0 0 0 0 0 0 0 0 0 0 0 0 0 0 0 0 0 0 0 0 0 0 0 0 0 0 0 0 0 3948 3948 3948 3948 3994 3994 3994 3994 3994 3948 3208 3178 3178 3178 3178 3178 3178 4139 4139 4089 4089 4089 4041 4041 4041 4041 4041 3994 3994 3994 0 0 0 0 0 1516 1509 1509 1516 1516 1516 1516 1516 1516 1523 1523 1523 1523 1529 1529 1536 1536 1543 1543 1550 1550 1550 1550 1705 1688 1688 1696 1696 1696 1696 1696 1696 1705 1705 1705 1705 1705 1713 1713 1713 1713 1713 1713 1713 1713 1713 1713 1713 1722 1722 1722 1722 1722 1722 1722 1731 1731 1731 1731 1731 1731 1731 1731 1731 1731 1731 1731 1731 1731 1731 1731 1731 1731 1731 1731 1731 1731 1731 1731 1731 1739 1427 1427 1415 1415 1415 1415 1415 1415 1410 1410 1410 1415 1415 1415 1415 1415 1421 1421 1427 1433 1439 1445 1445 1445 1445 1445 1739 1739 1739 1722 1722 1722 1722 1731 1722 1722 1731 1731 1739 1739 1731 1731 1731 1722 1722 1722 1292 1292 1292 1292 1292 1292 1292 1292 1292 1292 1288 1288 1288 1288 1288 1288 1288 1288 1283 1283 1278 1278 1278 1278 1278 1273 1273 1273 1273 1268 1264 1264 1259 1259 1259 1255 1255 1255 1255 1255 1255 1255 1255 1250 1250 1245 1245 1241 1236 1236 1236 1232 1232 1232 1232 1227 1227 1227 1223 1223 1223 1223 1223 1223 1219 1219 1219 1219 1219 1219 1214 1214 1214 1214 1214 1214 1214 1210 1210 1210 1210 1210 1206 1206 1206 1206 1206 1202 1202 1202 1202 1202 1202 1202 1202 1202 1202 1202 1202 1197 1197 1197 1197 1197 1197 1197 1197 1197 1197 1197 1197 1197 1197 1193 1189 1185 1185 1181 1181 1177 1177 1177 1177 1177 1177 1177 1177 1177 1177 1181 1181 1181 1181 1185 1181 1181 1863 1863 1853 1833 1823 1813 1813 1804 1804 1804 1804 1804 1804 1804 1804 1813 1813 1813 1823 1813 1813 1813 1813 1813 1813 1823 1823 1823 1823 1823 1823 1823 1823 1823 1823 1823 1823 1823 1823 1823 1823 1823 1823 1833 1833 1833 1833 1833 1833 1823 1823 1833 1833 1833 1833 1833 1833 1833 1833 1833 1833 1833 1823 1823 1833 1833 1833 1833 1833 1833 1833 1843 1833 1833 1833 1833 1833 1823 1823 1823 1823 1823 1823 1833 1833 1843 1843 1843 1843 1843 1843 1843 1843 1843 1843 1843 1843 1853 1843 1843 1853 1843 1843 1843 1843 1833 1823 1823 1813 1813 1823 1823 1823 1823 1833 1833 1833 1843 1843 1843 1843 1853 1843 1843 1853 1853 1853 1853 1853 1853 1863 1853 1853 1853 1853 1843 1843 1843 1843 1843 1843 1843 1833 1833 1843 1843 1843 1853 1853 1853 1853 1853 1853 1863 1853 1853 0 0 0 0 0 0 0 4708 4708 4708 4708 4708 4708 4774 4774 4774 4774 4708 4708 4708 4708 4708 4708 4708 4708 4708 4708 4774 4774 4774 4774 4774 4774 4774 4708 4708 4708 4708 4708 4708 4645 4645 4645 4645 4645 4645 4645 4708 4708 4708 4708 4708 4708 4708 4645 4645 4582 4582 4582 4582 4582 4582 4582 4582 4645 4645 4645 4708 4708 4774 4774 4708 4708 4708 4645 4582 4582 4582 4522 4522 4522 4522 4522 4463 4463 4463 4463 4463 4405 4405 4295 4295 4295 4295 4295 4241 4241 4241 4190 4190 4139 4089 4089 4089 4041 4041 3994 3994 3994 3994 3994 3994 3994 3994 3994 3994 3994 3948 3948 3994 3948 3948 3948 3948 0 0 0 0 0 0 0 0 0 0 0 0 0 0 0 0 0 0 0 0 0 0 0 0 0
0 0 0 0 0 0 0 0 0 0 0 0 0 0 0 0 0 0 0 0 0 0 0 0 0 0 0 0 0 0 0 0 0 0 0 0 3903 3903 3948 3948 3948 3948 3994 3994 3994 3994 3948 3948 3178 3149 3149 3149 3149 3208 4089 4089 4041 4041 4041 4041 4041 3994 3994 3994 3994 3994 3994 0 0 0 0 0 1516 1509 1509 1509 1516 1516 1516 1516 1516 1523 1523 1523 1523 1529 1529 1536 1536 1543 1543 1550 1550 1550 1557 1680 1671 1671 1680 1680 1688 1688 1688 1688 1696 1696 1696 1705 1705 1705 1705 1705 1705 1705 1705 1705 1705 1696 1696 1705 1705 1713 1713 1713 1722 1722 1722 1722 1722 1722 1722 1722 1722 1722 1722 1722 1722 1713 1713 1722 1722 1713 1713 1713 1713 1722 1722 1722 1722 1722 1722 1722 1722 1731 1731 1415 1415 1415 1415 1415 1415 1415 1415 1415 1415 1415 1421 1421 1421 1421 1427 1427 1433 1439 1445 1445 1445 1445 1439 1439 1731 1722 1713 1713 1713 1713 1722 1713 1713 1713 1722 1722 1722 1722 1722 1722 1722 1722 1722 1292 1292 1292 1292 1292 1292 1292 1292 1292 1292 1292 1292 1292 1292 1292 1292 1288 1288 1288 1283 1283 1283 1283 1278 1278 1278 1278 1273 1273 1268 1268 1268 1264 1259 1259 1255 1255 1255 1255 1255 1255 1255 1255 1255 1250 1250 1245 1245 1236 1236 1236 1232 1232 1232 1232 1232 1227 1227 1227 1223 1223 1223 1223 1223 1223 1219 1219 1219 1219 1219 1214 1214 1214 1214 1214 1214 1214 1210 1210 1210 1210 1210 1206 1206 1206 1206 1206 1202 1202 1202 1202 1202 1202 1197 1197 1197 1197 1197 1197 1197 1197 1197 1197 1197 1197 1197 1197 1197 1197 1197 1193 1193 1189 1189 1189 1185 1181 1181 1177 1173 1173 1173 1173 1173 1173 1173 1173 1173 1177 1181 1181 1181 1181 1185 1181 1181 1863 1853 1833 1813 1804 1804 1804 1794 1794 1794 1794 1794 1794 1794 1794 1785 1785 1794 1794 1794 1794 1794 1794 1794 1804 1804 1804 1804 1804 1813 1813 1813 1813 1813 1813 1813 1813 1813 1813 1813 1813 1813 1813 1823 1823 1823 1823 1823 1823 1823 1823 1823 1823 1823 1833 1833 1823 1823 1823 1833 1823 1823 1823 1823 1823 1833 1823 1823 1823 1833 1833 1823 1823 1813 1813 1813 1813 1813 1813 1804 1804 1804 1804 1813 1813 1813 1823 1823 1823 1833 1833 1833 1833 1833 1833 1843 1833 1833 1833 1833 1833 1833 1823 1823 1823 1813 1813 1813 1813 1813 1813 1813 1813 1823 1823 1833 1833 1833 1833 1833 1833 1833 1833 1833 1843 1843 1843 1843 1853 1853 1853 1843 1843 1843 1843 1833 1833 1833 1833 1833 1833 1833 1833 1833 1833 1833 1833 1833 1833 1833 1843 1843 1843 1853 1843 1843 0 0 0 0 0 0 4582 4582 4645 4645 4645 4645 4708 4708 4774 4774 4708 4708 4708 4708 4708 4708 4708 4645 4645 4708 4708 4708 4708 4708 4708 4708 4708 4708 4708 4645 4645 4645 4645 4645 4645 4645 4582 4582 4582 4582 4582 4645 4645 4645 4645 4645 4645 4645 4645 4645 4582 4582 4522 4522 4522 4522 4522 4522 4645 4645 4645 4708 4708 4708 4708 4708 4708 4708 4645 4582 4582 4522 4522 4522 4522 4522 4522 4463 4463 4463 4463 4463 4405 4405 4349 4295 4295 4295 4295 4241 4241 4241 4190 4190 4139 4139 4139 4089 4041 4041 4041 3994 3994 3994 3994 3994 3994 3994 3994 3994 3994 3994 3994 3994 3994 3994 3948 3948 0 0 0 0 0 0 0 0 0 0 0 0 0 0 0 0 0 0 0 0 0 0 0 0 0
0 0 0 0 0 0 0 0 0 0 0 0 0 0 0 0 0 0 0 0 0 0 0 0 0 0 0 0 0 0 0 0 0 0 0 0 3859 3859 3903 3948 3948 3948 3948 3948 3948 3948 3948 3948 3948 3120 3120 3149 3149 4089 4041 4041 4041 4041 4041 4041 4041 3994 3994 3994 3994 3994 3994 3994 0 0 0 0 1516 1509 1509 1509 1516 1516 1516 1516 1516 1523 1523 1523 1529 1529 1529 1536 1536 1543 1543 1550 1557 1557 1557 1671 1663 1663 1663 1671 1671 1680 1680 1680 1680 1688 1688 1688 1688 1688 1688 1696 1696 1688 1688 1688 1688 1688 1688 1688 1696 1696 1696 1705 1713 1713 1705 1705 1705 1705 1705 1705 1705 1713 1713 1713 1705 1705 1705 1705 1705 1705 1705 1705 1705 1713 1713 1713 1713 1713 1713 1713 1713 1713 1713 1410 1410 1410 1415 1415 1415 1415 1415 1415 1421 1421 1421 1421 1421 1421 1427 1427 1433 1439 1439 1445 1452 1445 1439 1439 1722 1713 1713 1705 1705 1705 1705 1705 1705 1705 1713 1713 1713 1713 1713 1713 1713 1713 1713 1292 1292 1292 1292 1292 1292 1292 1292 1292 1292 1292 1292 1292 1292 1292 1292 1288 1288 1288 1283 1283 1283 1283 1283 1283 1278 1278 1273 1273 1268 1268 1268 1264 1259 1259 1259 1259 1259 1259 1255 1255 1255 1255 1255 1250 1250 1245 1245 1236 1236 1236 1236 1236 1232 1232 1232 1227 1227 1227 1227 1223 1223 1223 1223 1223 1219 1219 1219 1219 1219 1214 1214 1214 1214 1214 1214 1214 1214 1210 1210 1210 1210 1210 1210 1206 1206 1206 1206 1202 1202 1202 1202 1202 1197 1197 1197 1197 1197 1197 1197 1197 1197 1193 1193 1193 1193 1193 1193 1193 1193 1189 1189 1185 1185 1185 1181 1181 1177 1177 1173 1173 1173 1173 1173 1173 1173 1173 1173 1177 1181 1181 1185 1185 1185 1185 1185 1863 1833 1804 1804 1794 1794 1794 1785 1785 1785 1785 1785 1785 1776 1776 1776 1776 1776 1776 1776 1776 1776 1776 1776 1794 1794 1794 1794 1794 1794 1794 1804 1804 1804 1804 1804 1804 1804 1804 1804 1804 1804 1804 1804 1804 1804 1804 1804 1804 1804 1804 1804 1813 1813 1813 1813 1813 1813 1813 1813 1813 1813 1813 1813 1813 1823 1813 1813 1813 1813 1813 1813 1813 1804 1804 1804 1804 1804 1804 1794 1794 1804 1804 1804 1804 1804 1813 1813 1813 1823 1823 1823 1823 1823 1823 1823 1823 1823 1813 1813 1813 1813 1813 1813 1813 1813 1813 1804 1804 1804 1804 1804 1813 1813 1813 1823 1823 1823 1823 1823 1823 1823 1823 1823 1833 1833 1833 1833 1833 1833 1804 1804 1813 1813 1813 1823 1823 1823 1823 1823 1823 1823 1813 1813 1813 1813 1823 1823 1823 1823 1823 1833 1833 1843 1843 1843 0 0 0 0 0 4582 4522 4522 4582 4582 4582 4582 4708 4708 4774 4774 4708 4708 4708 4708 4708 4708 4708 4645 4645 4645 4708 4645 4645 4645 4645 4645 4645 4645 4645 4645 4582 4582 4582 4582 4582 4582 4582 4582 4582 4582 4582 4582 4582 4645 4582 4582 4645 4645 4582 4582 4582 4582 4522 4522 4522 4522 4522 4522 4645 4645 4645 4708 4708 4708 4708 4708 4645 4645 4645 4582 4582 4522 4522 4522 4522 4522 4522 4463 4463 4463 4463 4463 4405 4405 4349 4295 4295 4295 4295 4241 4241 4241 4241 4190 4190 4139 4139 4139 4089 4089 4041 4041 3994 3994 3994 3994 3994 3994 3994 3994 3994 3994 3994 3994 3994 3994 3994 0 0 0 0 0 0 0 0 0 0 0 0 0 0 0 0 0 0 0 0 0 0 0 0 0 0
0 0 0 0 0 0 0 0 0 0 0 0 0 0 0 0 0 0 0 0 0 0 0 0 0 0 0 0 0 0 0 3903 3903 0 0 3859 3859 3859 3903 3903 3903 3903 3903 3903 3948 3948 3948 3948 3948 3120 3120 4041 4041 4089 4041 4041 4041 3994 3994 3994 3994 3994 3994 3994 3994 3994 3994 3994 0 0 0 0 0 1509 1509 1509 1516 1516 1516 1523 1523 1523 1523 1523 1529 1529 1529 1536 1536 1543 1543 1550 1550 1550 1557 1663 1663 1663 1663 1663 1663 1663 1663 1671 1671 1680 1680 1680 1680 1680 1680 1680 1680 1680 1680 1680 1680 1680 1680 1680 1688 1688 1688 1688 1705 1705 1696 1688 1688 1696 1696 1696 1696 1696 1696 1705 1696 1688 1688 1688 1688 1688 1688 1696 1696 1705 1705 1705 1705 1705 1705 1705 1696 1696 1696 1410 1410 1410 1410 1415 1415 1415 1415 1421 1421 1421 1421 1421 1421 1421 1427 1427 1433 1439 1439 1445 1452 1452 1445 1445 1713 1705 1705 1696 1696 1696 1696 1696 1696 1696 1705 1705 1705 1705 1705 1713 1705 1705 1705 1292 1292 1292 1292 1292 1292 1292 1292 1292 1292 1292 1292 1292 1292 1292 1292 1288 1288 1288 1288 1288 1288 1283 1283 1283 1278 1278 1278 1273 1268 1268 1268 1264 1259 1259 1259 1259 1259 1259 1259 1255 1255 1255 1255 1250 1250 1245 1245 1241 1236 1236 1236 1236 1236 1232 1232 1232 1227 1227 1227 1227 1223 1223 1223 1223 1223 1219 1219 1219 1219 1219 1219 1219 1219 1214 1214 1214 1214 1214 1214 1210 1210 1210 1210 1210 1210 1206 1206 1206 1202 1202 1202 1202 1202 1202 1197 1197 1197 1197 1197 1197 1193 1193 1193 1189 1189 1189 1189 1189 1189 1189 1185 1185 1185 1185 1181 1177 1177 1173 1173 1169 1169 1173 1169 1169 1173 1173 1173 1177 1181 1181 1185 1185 1185 1189 1189 1189 1833 1794 1785 1766 1766 1766 1766 1776 1776 1776 1776 1776 1776 1776 1766 1766 1766 1766 1766 1766 1766 1766 1766 1776 1776 1776 1776 1776 1776 1776 1785 1785 1785 1794 1794 1794 1794 1794 1785 1785 1794 1794 1794 1794 1794 1794 1794 1794 1794 1794 1794 1794 1794 1804 1804 1804 1804 1804 1804 1804 1804 1804 1804 1804 1813 1804 1804 1804 1804 1804 1804 1804 1804 1804 1804 1804 1804 1804 1785 1785 1794 1794 1794 1794 1794 1794 1804 1804 1813 1813 1813 1813 1804 1804 1804 1804 1804 1804 1804 1804 1804 1794 1794 1794 1794 1794 1794 1794 1794 1794 1794 1804 1804 1804 1804 1804 1813 1813 1813 1804 1804 1813 1813 1813 1813 1813 1823 1804 1804 1794 1794 1804 1794 1794 1804 1804 1804 1804 1804 1813 1813 1804 1804 1804 1804 1813 1813 1813 1813 1813 1823 1823 1823 1823 1833 0 0 0 0 4582 4582 4522 4522 4582 4582 4582 4582 4645 4708 4708 4708 4708 4708 4708 4645 4645 4645 4645 4582 4582 4645 4645 4582 4582 4645 4645 4645 4582 4582 4582 4582 4582 4582 4582 4582 4582 4582 4582 4582 4582 4582 4582 4582 4582 4645 4582 4582 4582 4645 4582 4582 4582 4582 4522 4522 4522 4522 4522 4522 4582 4582 4582 4645 4645 4708 4645 4645 4645 4645 4582 4582 4582 4522 4522 4522 4522 4522 4522 4463 4463 4463 4463 4463 4405 4405 4349 4295 4295 4295 4295 4295 4241 4241 4241 4241 4190 4190 4190 4190 4139 4139 4089 4041 3994 3994 3994 3994 3994 3994 3994 3994 3994 3994 3994 3994 3994 3994 3994 0 0 0 0 0 0 0 0 0 0 0 0 0 0 0 0 0 0 0 0 0 0 0 0 0 0
0 0 0 0 0 0 0 0 0 0 0 0 0 0 0 0 0 0 0 0 0 0 0 0 0 0 0 0 0 0 0 3903 3903 3948 3948 3859 3859 3859 3903 3903 3859 3859 3903 3903 3903 3903 3903 3948 3948 3948 3994 4041 4041 4089 4041 4041 3994 3994 3994 3994 3994 3994 3994 3994 3994 3994 3994 3994 0 0 0 0 0 1503 1503 1509 1509 1516 1516 1523 1523 1523 1523 1529 1529 1529 1536 1536 1536 1536 1543 1543 1543 1550 1550 1655 1655 1655 1655 1655 1663 1663 1663 1663 1671 1671 1671 1671 1671 1663 1663 1663 1663 1671 1671 1671 1671 1671 1671 1671 1671 1671 1671 1671 1680 1680 1680 1680 1680 1688 1680 1680 1680 1688 1688 1688 1688 1680 1680 1680 1680 1688 1688 1688 1688 1696 1696 1696 1688 1688 1696 1696 1688 1680 1680 1680 1410 1410 1410 1415 1415 1415 1415 1421 1421 1421 1421 1421 1421 1421 1427 1427 1433 1433 1439 1445 1452 1452 1445 1445 1696 1696 1696 1688 1688 1688 1688 1688 1688 1696 1696 1696 1696 1696 1696 1696 1696 1696 1696 1696 1292 1292 1292 1292 1297 1297 1297 1297 1297 1297 1292 1292 1292 1292 1292 1288 1288 1292 1288 1288 1288 1283 1283 1283 1278 1278 1278 1273 1273 1268 1268 1268 1264 1264 1259 1259 1259 1259 1259 1255 1255 1255 1255 1250 1250 1250 1245 1241 1236 1236 1236 1236 1236 1236 1232 1232 1232 1232 1227 1227 1227 1227 1223 1223 1223 1223 1223 1219 1219 1219 1219 1219 1219 1214 1214 1214 1214 1214 1214 1210 1210 1210 1210 1210 1210 1210 1206 1206 1202 1202 1202 1202 1202 1202 1197 1197 1197 1197 1197 1197 1193 1193 1193 1189 1189 1189 1189 1189 1189 1189 1185 1185 1185 1185 1181 1177 1173 1173 1173 1169 1169 1173 1169 1169 1169 1173 1173 1177 1181 1181 1185 1185 1189 1197 1197 1197 1748 1748 1748 1748 1748 1748 1748 1748 1748 1748 1748 1748 1748 1748 1757 1757 1748 1748 1748 1748 1748 1757 1757 1757 1757 1757 1757 1757 1757 1757 1766 1766 1766 1757 1757 1766 1776 1776 1776 1776 1776 1776 1776 1776 1776 1785 1785 1785 1794 1794 1794 1785 1785 1785 1794 1794 1794 1794 1794 1794 1794 1794 1794 1794 1804 1804 1794 1794 1804 1804 1804 1794 1794 1794 1794 1794 1794 1794 1785 1785 1785 1785 1785 1785 1785 1785 1785 1785 1794 1794 1794 1794 1785 1785 1785 1785 1794 1794 1794 1794 1785 1785 1785 1785 1785 1785 1785 1785 1785 1785 1785 1794 1794 1785 1785 1785 1794 1794 1785 1785 1785 1794 1794 1804 1794 1794 1804 1785 1785 1785 1785 1794 1785 1785 1785 1794 1794 1794 1794 1794 1794 1794 1794 1794 1794 1804 1804 1804 1804 1804 1813 1813 1813 1813 1823 0 0 0 4774 4582 4582 4582 4582 4582 4582 4582 4582 4582 4645 4645 4645 4645 4645 4645 4645 4645 4645 4582 4582 4582 4582 4645 4582 4522 4522 4582 4522 4522 4522 4522 4522 4522 4522 4582 4582 4582 4582 4582 4582 4582 4582 4582 4582 4582 4645 4582 4582 4582 4582 4582 4522 4522 4522 4522 4582 4582 4522 4522 4522 4582 4582 4582 4582 4582 4645 4582 4582 4582 4582 4582 4522 4522 4522 4522 4522 4522 4522 4522 4463 4463 4463 4463 4463 4463 4405 4349 4349 4295 4295 4241 4241 4241 4241 4241 4241 4190 4190 4190 4190 4139 4139 4139 4089 4041 4041 3994 3994 3994 3994 3994 3994 3994 3994 3994 3994 3994 3994 0 0 0 0 0 0 0 0 0 0 0 0 0 0 0 0 0 0 0 0 0 0 0 0 0 0 0
0 0 0 0 0 0 0 0 0 0 0 0 0 0 0 0 0 0 0 0 0 0 0 0 0 0 0 0 0 0 0 3859 3859 3859 3859 3859 3859 3859 3859 3859 3859 3859 3859 3859 3903 3859 3859 3903 3903 3903 3948 3994 4041 4041 4041 3994 3994 3994 3994 3994 3948 3948 3994 3948 3948 3994 3994 3994 0 0 0 0 0 1503 1503 1509 1509 1516 1516 1523 1523 1529 1529 1529 1529 1529 1536 1536 1536 1536 1543 1543 1543 1543 1543 1655 1655 1655 1655 1655 1655 1655 1655 1655 1663 1663 1671 1663 1663 1663 1663 1663 1663 1663 1663 1663 1663 1663 1663 1663 1663 1663 1663 1655 1655 1655 1663 1663 1663 1671 1671 1671 1671 1671 1680 1671 1671 1671 1680 1680 1680 1680 1680 1680 1680 1688 1688 1688 1680 1680 1680 1680 1680 1671 1671 1671 1680 1410 1410 1415 1415 1415 1421 1421 1421 1421 1421 1421 1421 1427 1427 1427 1433 1433 1439 1445 1452 1452 1452 1452 1688 1688 1688 1680 1680 1688 1680 1680 1680 1688 1688 1688 1688 1688 1688 1688 1688 1688 1688 1688 1292 1292 1292 1292 1297 1297 1297 1297 1297 1297 1297 1292 1292 1292 1292 1288 1288 1292 1288 1288 1288 1288 1283 1283 1283 1278 1278 1273 1273 1268 1268 1268 1264 1264 1264 1264 1264 1259 1259 1255 1255 1255 1255 1250 1250 1250 1245 1241 1241 1241 1236 1236 1236 1236 1232 1232 1232 1232 1232 1227 1227 1227 1227 1227 1223 1223 1223 1219 1219 1219 1219 1219 1219 1214 1214 1214 1214 1214 1214 1214 1214 1210 1210 1210 1210 1210 1206 1206 1202 1202 1202 1202 1202 1202 1202 1202 1197 1197 1197 1197 1193 1193 1193 1189 1189 1189 1189 1189 1189 1189 1185 1185 1185 1185 1181 1177 1173 1173 1173 1169 1169 1169 1169 1169 1169 1173 1173 1177 1181 1181 1185 1189 1189 1197 1197 1197 1731 1731 1731 1731 1731 1731 1731 1731 1731 1739 1731 1731 1739 1739 1748 1748 1739 1739 1739 1739 1739 1748 1748 1748 1748 1748 1748 1748 1748 1748 1757 1757 1748 1748 1748 1739 1739 1739 1748 1748 1757 1757 1757 1757 1757 1766 1766 1766 1766 1766 1766 1766 1766 1766 1766 1757 1757 1766 1766 1766 1766 1766 1766 1766 1766 1766 1785 1785 1794 1794 1785 1785 1785 1785 1785 1785 1785 1785 1776 1776 1776 1776 1776 1766 1766 1766 1766 1766 1766 1766 1766 1766 1766 1766 1766 1766 1776 1785 1776 1776 1776 1776 1776 1776 1766 1766 1776 1776 1776 1776 1785 1785 1766 1766 1766 1766 1766 1766 1766 1766 1776 1785 1785 1785 1785 1785 1785 1766 1766 1766 1766 1776 1776 1776 1776 1785 1785 1785 1785 1785 1785 1785 1785 1794 1794 1794 1794 1794 1794 1794 1804 1804 1804 1813 1823 0 0 0 4774 4582 4522 4522 4522 4522 4522 4522 4522 4522 4522 4522 4522 4582 4582 4582 4582 4582 4582 4582 4522 4522 4582 4582 4582 4522 4522 4522 4522 4522 4463 4463 4463 4463 4463 4522 4522 4522 4522 4522 4522 4522 4522 4522 4522 4522 4522 4522 4522 4522 4522 4522 4522 4522 4522 4522 4522 4522 4522 4522 4522 4522 4522 4522 4522 4582 4582 4582 4582 4582 4582 4522 4522 4522 4522 4522 4522 4463 4463 4463 4463 4463 4522 4463 4463 4463 4405 4295 4295 4241 4241 4241 4241 4241 4241 4241 4241 4241 4190 4190 4190 4190 4190 4139 4089 4041 4041 3994 3994 3994 3994 3994 3994 3994 3994 3994 4041 4041 4041 0 0 0 0 0 0 0 0 0 0 0 0 0 0 0 0 0 0 0 0 0 0 0 0 0 0 0
0 0 0 0 0 0 0 0 0 0 0 0 0 0 0 0 0 0 0 0 0 0 0 0 0 0 0 0 0 0 0 3816 3816 3816 3816 3816 3859 3859 3859 3859 3816 3816 3816 3816 3859 3816 3816 3859 3859 3859 3903 3994 3994 3994 3994 3994 3994 3948 3948 3948 3948 3948 3948 3948 3948 3948 3948 3948 3948 0 0 0 0 1503 1503 1509 1509 1516 1516 1523 1523 1529 1529 1529 1529 1529 1536 1536 1536 1536 1536 1543 1543 1543 1543 1655 1655 1655 1655 1655 1655 1655 1655 1655 1663 1663 1663 1663 1663 1655 1655 1655 1655 1655 1655 1655 1655 1655 1655 1655 1655 1655 1655 1655 1647 1647 1655 1655 1655 1655 1655 1655 1663 1663 1663 1655 1655 1663 1663 1663 1663 1671 1671 1671 1671 1671 1671 1671 1663 1663 1671 1671 1671 1671 1671 1671 1663 1663 1415 1415 1415 1415 1421 1421 1421 1421 1427 1421 1421 1427 1427 1427 1433 1433 1439 1452 1452 1452 1458 1458 1470 1680 1680 1680 1680 1680 1680 1680 1680 1680 1680 1680 1680 1680 1680 1680 1680 1680 1688 1688 1292 1292 1292 1292 1297 1297 1297 1297 1297 1297 1297 1297 1292 1292 1292 1292 1292 1292 1292 1292 1288 1288 1288 1283 1283 1278 1278 1278 1273 1273 1268 1268 1268 1264 1264 1264 1264 1259 1259 1259 1255 1255 1255 1255 1250 1250 1245 1241 1241 1241 1241 1236 1236 1236 1232 1232 1232 1232 1232 1232 1232 1232 1227 1227 1227 1223 1223 1223 1223 1219 1219 1219 1219 1219 1214 1214 1214 1214 1214 1214 1214 1210 1210 1210 1210 1210 1206 1206 1206 1202 1202 1202 1202 1202 1202 1202 1197 1197 1197 1197 1193 1193 1193 1193 1189 1189 1189 1189 1189 1185 1185 1185 1185 1185 1181 1181 1177 1177 1173 1169 1169 1169 1169 1169 1169 1173 1173 1177 1181 1181 1185 1189 1189 1197 1202 1202 1705 1705 1705 1722 1722 1722 1722 1722 1722 1722 1722 1722 1722 1731 1731 1731 1731 1731 1731 1731 1731 1731 1731 1739 1739 1739 1739 1739 1739 1739 1739 1739 1739 1739 1731 1731 1731 1731 1739 1739 1748 1748 1748 1748 1757 1757 1757 1757 1757 1757 1757 1748 1748 1757 1748 1748 1748 1748 1748 1739 1739 1739 1739 1748 1748 1748 1748 1757 1766 1757 1757 1766 1766 1766 1766 1766 1766 1766 1757 1757 1748 1748 1748 1739 1739 1739 1739 1739 1739 1739 1739 1739 1739 1739 1739 1748 1766 1766 1766 1766 1776 1776 1766 1766 1757 1757 1766 1766 1766 1766 1766 1766 1757 1757 1757 1748 1748 1757 1757 1757 1757 1766 1766 1766 1766 1766 1766 1757 1757 1757 1757 1766 1766 1766 1766 1766 1766 1766 1766 1766 1766 1766 1776 1776 1776 1776 1776 1785 1785 1785 1794 1794 1794 1853 1853 0 0 4645 4645 4522 4522 4522 4522 4522 4522 4463 4463 4463 4463 4463 4463 4522 4522 4522 4522 4522 4522 4522 4522 4522 4522 4522 4522 4522 4522 4522 4522 4463 4463 4463 4463 4463 4463 4522 4522 4522 4522 4522 4522 4522 4522 4522 4522 4463 4463 4463 4463 4522 4522 4522 4522 4522 4522 4522 4522 4522 4522 4522 4522 4522 4522 4522 4522 4522 4582 4582 4582 4582 4522 4522 4522 4522 4522 4522 4522 4463 4463 4463 4463 4463 4463 4463 4463 4463 4405 4295 4295 4241 4241 4241 4241 4241 4241 4241 4241 4190 4190 4190 4190 4190 4190 4139 4089 4041 4041 4041 3994 3994 3994 3994 3994 3994 3994 3994 4041 4041 4041 0 0 0 0 0 0 0 0 0 0 0 0 0 0 0 0 0 0 0 0 0 0 0 0 0 0 0
0 0 0 0 0 0 0 0 0 0 0 0 0 0 0 0 0 0 0 0 0 0 0 0 0 0 0 0 0 0 0 3774 3774 3774 3816 3816 3816 3816 3816 3816 3816 3816 3816 3816 3816 3816 3816 3816 3816 3859 3859 3948 3948 3994 3994 3994 3948 3948 3948 3948 3948 3948 3948 3948 3948 3948 3948 3903 3903 0 0 0 0 0 1509 1509 1516 1516 1523 1523 1523 1529 1529 1529 1529 1529 1536 1536 1536 1536 1536 1536 1536 1536 1536 1647 1647 1655 1655 1655 1647 1647 1655 1655 1655 1655 1655 1655 1655 1655 1655 1655 1655 1655 1655 1655 1655 1655 1655 1655 1655 1647 1647 1647 1639 1639 1647 1647 1647 1647 1647 1647 1647 1647 1647 1647 1647 1647 1655 1655 1655 1663 1663 1663 1663 1663 1663 1663 1663 1663 1663 1671 1671 1671 1671 1671 1663 1427 1421 1421 1421 1421 1421 1427 1427 1427 1427 1427 1427 1427 1427 1427 1433 1433 1439 1445 1452 1452 1458 1458 1470 1680 1680 1671 1671 1671 1671 1671 1671 1671 1671 1671 1663 1663 1663 1671 1671 1671 1680 1680 1292 1292 1292 1292 1297 1297 1297 1297 1297 1297 1297 1297 1297 1292 1292 1292 1292 1292 1292 1292 1288 1288 1288 1288 1283 1283 1278 1278 1273 1273 1268 1268 1268 1268 1268 1268 1264 1264 1259 1259 1259 1255 1255 1255 1255 1255 1250 1245 1245 1245 1241 1241 1236 1236 1236 1232 1232 1232 1232 1232 1232 1232 1232 1232 1227 1227 1227 1223 1223 1219 1219 1219 1219 1219 1219 1214 1214 1214 1214 1214 1214 1214 1214 1214 1210 1210 1210 1210 1206 1206 1202 1202 1202 1202 1202 1202 1197 1197 1197 1197 1193 1193 1193 1193 1189 1189 1189 1189 1189 1185 1185 1185 1185 1185 1181 1181 1177 1177 1173 1173 1173 1173 1169 1169 1173 1173 1173 1177 1181 1185 1189 1189 1193 1197 1197 1197 1705 1705 1705 1713 1713 1713 1713 1713 1713 1713 1713 1713 1713 1713 1713 1713 1713 1722 1722 1722 1722 1731 1731 1731 1731 1731 1731 1731 1731 1722 1722 1722 1722 1722 1722 1722 1722 1722 1731 1731 1739 1739 1739 1748 1748 1748 1748 1748 1748 1748 1748 1739 1739 1739 1739 1739 1739 1739 1731 1731 1731 1731 1731 1731 1731 1731 1739 1739 1739 1739 1739 1748 1748 1748 1748 1748 1748 1748 1748 1739 1739 1731 1731 1731 1731 1731 1731 1722 1722 1731 1731 1731 1731 1731 1731 1739 1739 1748 1748 1757 1748 1748 1748 1739 1739 1739 1739 1739 1739 1739 1731 1731 1731 1731 1739 1731 1731 1739 1739 1739 1739 1739 1739 1739 1739 1757 1748 1748 1748 1748 1748 1748 1748 1748 1757 1757 1748 1748 1757 1757 1748 1748 1757 1766 1766 1766 1766 1776 1776 1776 1785 1785 1794 1794 0 0 4522 0 4582 4522 4463 4463 4522 4463 4463 4463 4463 4463 4463 4463 4463 4463 4463 4522 4522 4522 4522 4522 4522 4463 4463 4463 4463 4463 4463 4463 4463 4463 4463 4405 4405 4405 4405 4463 4463 4463 4463 4463 4463 4522 4463 4463 4463 4463 4463 4463 4463 4522 4522 4522 4522 4522 4522 4522 4522 4522 4522 4522 4522 4522 4522 4522 4522 4522 4522 4522 4522 4522 4522 4522 4522 4522 4522 4522 4522 4463 4463 4463 4463 4463 4463 4463 4463 4463 4405 4295 4295 4241 4241 4241 4241 4241 4241 4241 4241 4190 4190 4190 4190 4190 4190 4139 4139 4089 4041 4041 4041 3994 3994 3994 3994 3994 3994 3994 4041 4089 0 0 0 0 0 0 0 0 0 0 0 0 0 0 0 0 0 0 0 0 0 0 0 0 0 0 0 0
0 0 0 0 0 0 0 0 0 0 0 0 0 0 0 0 0 0 0 0 0 0 0 0 0 0 0 0 0 0 0 3774 3774 3774 3816 3816 3816 3816 3816 3816 3774 3774 3774 3774 3816 3816 3816 3816 3816 3816 3816 3816 3816 3903 3948 3948 3948 3948 3903 3903 3903 3859 3859 3859 3859 3859 3859 3859 3859 0 0 0 0 0 1516 1516 1516 1523 1523 1529 1529 1529 1529 1529 1529 1529 1536 1536 1536 1536 1536 1536 1536 1536 1536 1536 1647 1655 1655 1655 1647 1647 1655 1655 1655 1655 1655 1655 1655 1655 1647 1647 1647 1503 1503 1647 1647 1647 1647 1647 1647 1647 1647 1639 1639 1639 1647 1647 1647 1647 1647 1647 1639 1639 1632 1632 1639 1639 1639 1639 1647 1647 1647 1647 1647 1647 1647 1647 1647 1647 1655 1663 1671 1663 1663 1671 1671 1427 1427 1421 1421 1421 1427 1427 1427 1427 1427 1427 1427 1427 1427 1427 1433 1433 1439 1445 1452 1452 1458 1458 1680 1671 1671 1671 1671 1671 1663 1663 1671 1663 1663 1655 1655 1655 1655 1655 1655 1655 1655 1655 1292 1292 1292 1297 1297 1297 1297 1297 1297 1297 1297 1297 1297 1297 1297 1292 1292 1292 1292 1292 1292 1288 1288 1288 1283 1283 1278 1278 1273 1273 1268 1268 1268 1268 1268 1268 1264 1264 1259 1259 1259 1259 1255 1255 1255 1255 1250 1245 1245 1245 1241 1241 1236 1236 1236 1232 1232 1232 1232 1232 1232 1232 1232 1232 1232 1227 1227 1227 1223 1219 1219 1219 1219 1219 1219 1214 1214 1214 1214 1214 1214 1214 1214 1214 1214 1210 1210 1210 1210 1206 1206 1202 1202 1202 1202 1202 1197 1197 1197 1197 1197 1197 1193 1193 1193 1193 1193 1193 1193 1189 1189 1185 1185 1185 1181 1181 1177 1177 1173 1173 1173 1173 1169 1169 1173 1173 1173 1177 1181 1185 1189 1189 1193 1197 1197 1696 1696 1696 1696 1696 1705 1705 1705 1705 1696 1696 1696 1705 1705 1705 1705 1705 1705 1713 1705 1705 1713 1713 1713 1713 1713 1713 1713 1713 1713 1705 1705 1705 1705 1705 1713 1713 1713 1722 1722 1722 1731 1722 1722 1731 1731 1731 1731 1739 1739 1739 1739 1739 1739 1731 1731 1722 1722 1722 1722 1722 1722 1722 1722 1731 1731 1722 1722 1722 1713 1713 1713 1722 1722 1731 1731 1731 1739 1739 1739 1731 1731 1722 1722 1722 1722 1722 1722 1713 1713 1713 1722 1722 1722 1722 1722 1731 1731 1739 1739 1739 1739 1739 1739 1739 1739 1739 1731 1731 1722 1722 1722 1722 1722 1722 1731 1731 1731 1731 1731 1731 1731 1731 1731 1731 1731 1731 1722 1722 1722 1731 1731 1731 1731 1731 1731 1731 1731 1731 1722 1722 1722 1722 1731 1731 1731 1731 1731 1748 1748 1757 1776 1785 1794 1794 0 0 4522 4522 4522 4463 4463 4463 4463 4463 4463 4405 4405 4405 4405 4405 4405 4405 4463 4463 4463 4522 4522 4522 4463 4463 4463 4463 4463 4463 4463 4463 4463 4463 4405 4405 4405 4405 4405 4463 4463 4463 4463 4463 4463 4463 4463 4463 4405 4405 4405 4463 4463 4463 4522 4522 4522 4522 4522 4522 4522 4522 4522 4522 4522 4522 4463 4463 4463 4522 4522 4522 4522 4522 4522 4522 4522 4522 4522 4463 4463 4463 4463 4463 4463 4463 4463 4463 4463 4405 4349 4295 4295 4241 4241 4241 4241 4241 4241 4241 4241 4241 4190 4190 4190 4190 4190 4190 4139 4089 4089 4041 4041 3994 3994 3994 3994 3994 3994 3994 4041 4089 0 0 0 0 0 0 0 0 0 0 0 0 0 0 0 0 0 0 0 0 0 0 0 0 0 0 0 0
0 0 0 0 0 0 0 0 0 0 0 0 0 0 0 0 0 0 0 0 0 0 0 0 0 0 0 0 0 0 0 3732 3732 3774 3774 3774 3816 3816 3816 3816 3774 3774 3774 3774 3774 3774 3774 3774 3816 3774 3774 3774 3816 3859 3948 3948 3948 3903 3903 3859 3859 3859 3859 3859 3859 3859 3859 3816 3816 0 0 0 0 1529 1523 1523 1523 1523 1529 1529 1529 1529 1529 1536 1536 1536 1536 1536 1536 1536 1536 1536 1536 1536 1536 1536 1536 1647 1647 1647 1647 1647 1647 1655 1655 1655 1655 1655 1509 1509 1509 1503 1503 1496 1496 1647 1647 1503 1503 1496 1489 1489 1647 1639 1639 1639 1647 1647 1647 1647 1647 1639 1639 1632 1632 1632 1632 1632 1632 1632 1639 1639 1632 1632 1632 1632 1639 1632 1632 1639 1639 1647 1639 1639 1647 1671 1427 1427 1427 1421 1421 1427 1427 1427 1427 1427 1427 1427 1427 1433 1433 1433 1433 1439 1439 1445 1452 1452 1458 1464 1671 1663 1663 1663 1663 1663 1655 1655 1655 1647 1647 1647 1647 1647 1647 1647 1647 1647 1647 1647 1292 1292 1292 1297 1297 1297 1297 1297 1297 1297 1297 1297 1297 1297 1297 1297 1297 1297 1297 1292 1292 1288 1288 1288 1288 1283 1283 1278 1273 1273 1273 1273 1268 1268 1268 1268 1264 1264 1264 1259 1259 1259 1255 1255 1255 1255 1255 1250 1245 1245 1245 1241 1241 1241 1236 1236 1236 1236 1236 1232 1232 1232 1232 1232 1232 1232 1232 1227 1223 1223 1223 1223 1219 1219 1219 1219 1219 1214 1214 1214 1214 1214 1214 1214 1214 1214 1210 1210 1210 1206 1206 1206 1202 1202 1202 1202 1202 1202 1202 1197 1197 1197 1197 1193 1193 1193 1193 1193 1193 1189 1189 1189 1185 1185 1185 1181 1181 1181 1177 1173 1173 1173 1173 1173 1173 1173 1173 1181 1181 1185 1189 1189 1193 1197 1197 1696 1696 1688 1688 1696 1696 1696 1696 1696 1696 1696 1696 1696 1696 1696 1696 1696 1696 1696 1696 1696 1696 1696 1696 1696 1696 1696 1696 1696 1696 1696 1696 1696 1696 1705 1705 1713 1713 1713 1713 1722 1722 1713 1713 1713 1713 1713 1713 1713 1713 1713 1713 1722 1722 1722 1722 1722 1722 1713 1713 1722 1713 1713 1713 1713 1713 1713 1705 1705 1705 1705 1705 1713 1705 1705 1713 1713 1713 1705 1705 1705 1713 1713 1713 1713 1713 1713 1705 1705 1705 1705 1713 1713 1713 1713 1722 1722 1722 1722 1722 1731 1731 1731 1731 1722 1722 1722 1722 1722 1713 1713 1713 1713 1713 1713 1713 1713 1713 1713 1713 1713 1722 1722 1722 1722 1722 1722 1722 1722 1722 1722 1722 1722 1722 1722 1722 1722 1722 1713 1713 1705 1705 1713 1705 1705 1705 1713 1722 1731 1731 1739 1776 1785 0 0 0 0 4405 4405 4405 4349 4349 4349 4405 4349 4349 4295 4295 4295 4295 4295 4295 4349 4349 4405 4405 4463 4463 4463 4463 4463 4463 4463 4463 4405 4405 4405 4405 4405 4349 4349 4349 4349 4349 4405 4405 4349 4349 4405 4405 4463 4463 4463 4405 4405 4405 4463 4463 4463 4463 4463 4463 4463 4522 4463 4463 4463 4463 4463 4463 4463 4463 4463 4463 4463 4463 4463 4522 4522 4522 4522 4522 4522 4522 4463 4463 4463 4463 4463 4463 4463 4463 4463 4405 4405 4349 4295 4295 4241 4241 4241 4241 4241 4241 4241 4241 4241 4190 4190 4190 4190 4190 4190 4139 4089 4089 4041 4041 3994 3994 3994 3994 3994 3994 4041 4041 4089 0 0 0 0 0 0 0 0 0 0 0 0 0 0 0 0 0 0 0 0 0 0 0 0 0 0 0 0
0 0 0 0 0 0 0 0 0 0 0 0 0 0 0 0 0 0 0 0 0 0 0 0 0 0 0 0 0 0 0 3732 3732 3732 3774 3774 3816 3816 3816 3816 3774 3774 3774 3774 3774 3774 3774 3774 3774 3732 3732 3774 3774 3816 3859 3903 3903 3903 3859 3816 3816 3816 3816 3816 3816 3816 3816 3774 3732 3732 0 0 0 1529 1529 1529 1529 1529 1529 1529 1529 1529 1536 1536 1536 1536 1536 1536 1536 1536 1536 1536 1536 1536 1529 1529 1529 1529 1529 1529 1529 1523 1523 1516 1516 1516 1516 1509 1509 1509 1509 1503 1503 1496 1496 1496 1496 1503 1503 1496 1489 1489 1489 1489 1496 1496 1496 1647 1647 1647 1639 1632 1632 1632 1624 1624 1624 1624 1624 1624 1624 1624 1624 1632 1632 1632 1632 1632 1632 1632 1632 1624 1624 1624 1601 1601 1427 1427 1427 1427 1427 1427 1427 1427 1427 1427 1427 1427 1427 1433 1433 1433 1439 1439 1439 1445 1452 1452 1452 1458 1647 1647 1624 1616 1616 1616 1624 1639 1639 1639 1639 1639 1639 1639 1639 1639 1639 1639 1632 1632 1292 1292 1297 1297 1297 1297 1297 1302 1297 1297 1297 1297 1297 1297 1297 1297 1297 1297 1297 1297 1292 1292 1292 1288 1288 1283 1283 1278 1273 1273 1273 1273 1273 1273 1268 1268 1268 1264 1264 1259 1259 1259 1259 1255 1255 1255 1255 1250 1245 1245 1245 1245 1241 1241 1241 1236 1236 1236 1236 1236 1236 1232 1232 1232 1232 1232 1232 1232 1223 1223 1223 1223 1219 1219 1219 1219 1219 1219 1214 1214 1214 1214 1214 1214 1214 1214 1214 1214 1210 1210 1206 1206 1202 1202 1202 1202 1202 1202 1202 1197 1197 1197 1197 1197 1193 1193 1193 1193 1193 1193 1189 1189 1189 1189 1185 1185 1181 1181 1177 1177 1177 1173 1173 1173 1173 1173 1177 1181 1181 1185 1189 1193 1197 1197 1197 1688 1688 1688 1688 1688 1688 1680 1680 1688 1688 1680 1680 1680 1688 1680 1680 1680 1680 1680 1680 1688 1688 1688 1680 1680 1688 1688 1680 1680 1680 1688 1688 1688 1688 1696 1696 1696 1705 1705 1705 1705 1705 1705 1705 1696 1696 1696 1696 1688 1688 1688 1696 1696 1696 1705 1713 1713 1713 1705 1705 1705 1705 1705 1705 1696 1696 1696 1696 1696 1696 1696 1696 1705 1696 1696 1705 1705 1696 1696 1696 1696 1696 1696 1696 1705 1705 1705 1705 1705 1705 1705 1705 1705 1705 1713 1713 1713 1713 1705 1705 1713 1713 1713 1705 1705 1713 1713 1705 1705 1705 1705 1705 1705 1705 1705 1705 1705 1705 1705 1705 1713 1713 1713 1713 1713 1713 1713 1713 1713 1713 1713 1713 1713 1713 1713 1713 1713 1705 1705 1696 1696 1696 1705 1696 1696 1696 1705 1713 1722 1722 1731 0 0 0 0 0 4405 4349 4349 4349 4295 4295 4349 4349 4295 4295 4295 4295 4295 4295 4295 4295 4349 4349 4405 4405 4405 4463 4405 4405 4405 4405 4405 4405 4349 4349 4349 4295 4295 4349 4349 4349 4349 4349 4349 4349 4295 4295 4349 4349 4349 4349 4349 4349 4349 4405 4463 4463 4463 4463 4463 4463 4463 4463 4463 4463 4463 4463 4463 4463 4463 4463 4405 4405 4463 4463 4463 4522 4522 4522 4522 4522 4522 4522 4463 4463 4463 4463 4463 4463 4463 4463 4463 4405 4405 4349 4295 4295 4241 4241 4241 4241 4241 4241 4241 4241 4190 4190 4190 4190 4190 4190 4139 4139 4089 4089 4041 4041 3994 3994 3994 3994 3994 3994 4041 4041 4041 0 0 0 0 0 0 0 0 0 0 0 0 0 0 0 0 0 0 0 0 0 0 0 0 0 0 0 0
0 0 0 0 0 0 0 0 0 0 0 0 0 0 0 0 0 0 0 0 0 0 0 0 0 0 0 0 0 0 0 3732 3732 3732 3774 3774 3774 3774 3816 3774 3774 3774 3774 3774 3774 3774 3774 3774 3774 3732 3732 3732 3732 3774 3816 3859 3903 3903 3859 3816 3816 3816 3816 3816 3816 3816 3816 3732 3732 3732 0 0 0 1536 1536 1529 1529 1529 1529 1529 1529 1529 1536 1536 1536 1536 1536 1536 1536 1536 1536 1536 1536 1536 1529 1529 1529 1529 1529 1529 1529 1523 1523 1516 1516 1516 1516 1509 1509 1509 1509 1503 1503 1503 1503 1496 1496 1503 1503 1496 1496 1489 1489 1489 1496 1496 1489 1483 1483 1483 1483 1477 1477 1477 1477 1616 1616 1616 1616 1616 1616 1616 1616 1624 1624 1624 1624 1624 1624 1624 1624 1609 1609 1601 1594 1594 1594 1427 1427 1427 1427 1427 1427 1427 1427 1427 1427 1427 1427 1433 1433 1433 1439 1439 1439 1445 1452 1452 1452 1458 1624 1639 1616 1616 1616 1616 1616 1624 1624 1624 1624 1624 1632 1632 1632 1632 1632 1624 1616 1616 1616 1297 1297 1297 1297 1297 1297 1302 1302 1302 1297 1297 1297 1297 1297 1297 1297 1297 1297 1297 1297 1292 1292 1292 1288 1288 1283 1278 1278 1273 1273 1273 1273 1273 1273 1273 1268 1264 1264 1259 1259 1259 1259 1259 1259 1259 1255 1250 1250 1250 1245 1245 1241 1241 1241 1236 1236 1236 1236 1236 1236 1236 1236 1236 1232 1232 1232 1232 1227 1223 1223 1223 1223 1223 1219 1219 1219 1219 1219 1219 1219 1214 1214 1214 1214 1214 1214 1214 1210 1210 1206 1206 1206 1206 1202 1202 1202 1202 1202 1202 1197 1197 1197 1197 1197 1193 1193 1193 1193 1193 1189 1189 1189 1189 1185 1185 1181 1181 1181 1177 1177 1173 1173 1173 1173 1173 1177 1181 1181 1185 1189 1193 1197 1202 1202 1688 1688 1671 1671 1671 1671 1671 1671 1671 1671 1671 1671 1671 1671 1671 1671 1671 1671 1671 1671 1680 1680 1680 1671 1671 1680 1671 1671 1671 1671 1671 1680 1680 1680 1680 1688 1688 1688 1688 1688 1688 1688 1688 1688 1680 1680 1688 1680 1680 1680 1680 1680 1688 1688 1688 1705 1696 1696 1696 1696 1696 1696 1696 1696 1688 1688 1696 1696 1696 1688 1688 1696 1696 1696 1696 1696 1696 1696 1688 1688 1680 1680 1688 1688 1696 1696 1696 1696 1696 1696 1696 1696 1696 1696 1696 1696 1705 1696 1696 1696 1696 1696 1696 1688 1688 1696 1688 1688 1688 1688 1688 1688 1688 1688 1696 1696 1696 1696 1696 1696 1696 1696 1705 1705 1705 1705 1705 1705 1705 1713 1705 1705 1705 1705 1705 1705 1705 1705 1696 1688 1688 1688 1688 1688 1688 1688 1688 1705 1713 1713 1731 0 0 0 0 0 4349 4349 4349 4349 4295 4295 4295 4295 4295 4295 4295 4295 4295 4295 4295 4295 4295 4295 4295 4295 4349 4349 4349 4349 4349 4349 4349 4349 4295 4295 4295 4295 4295 4295 4295 4349 4349 4349 4349 4349 4295 4295 4295 4295 4295 4295 4295 4295 4295 4349 4349 4349 4405 4405 4463 4405 4405 4405 4349 4349 4349 4349 4349 4349 4349 4349 4349 4349 4405 4405 4405 4463 4463 4522 4522 4522 4463 4463 4463 4463 4463 4463 4463 4405 4405 4405 4405 4405 4349 4349 4241 4241 4241 4241 4241 4241 4241 4241 4241 4190 4190 4190 4190 4190 4190 4190 4139 4139 4089 4089 4041 4041 4041 4041 3994 3994 3994 3994 3994 3994 3994 3994 0 0 0 0 0 0 0 0 0 0 0 0 0 0 0 0 0 0 0 0 0 0 0 0 0 0 0
0 0 0 0 0 0 0 0 0 0 0 0 0 0 0 0 0 0 0 0 0 0 0 0 0 0 0 0 0 0 0 3692 3692 3732 3774 3774 3774 3774 3774 3774 3774 3774 3774 3774 3774 3774 3774 3732 3732 3692 3692 3692 3692 3732 3732 3774 3816 3816 3816 3816 3816 3816 3816 3816 3816 3774 3774 3732 3692 3692 3692 0 0 1536 1536 1529 1529 1529 1529 1529 1529 1529 1536 1536 1536 1536 1536 1536 1536 1536 1536 1536 1536 1536 1529 1529 1529 1529 1529 1529 1529 1529 1523 1516 1516 1516 1516 1509 1509 1509 1509 1509 1509 1509 1503 1503 1503 1503 1503 1503 1496 1496 1496 1496 1496 1496 1489 1483 1483 1483 1483 1477 1477 1477 1477 1477 1483 1483 1483 1609 1609 1609 1609 1616 1616 1616 1616 1616 1616 1609 1601 1594 1594 1594 1586 1586 1586 1586 1433 1427 1427 1427 1433 1433 1427 1427 1427 1427 1427 1433 1433 1439 1439 1439 1445 1445 1452 1452 1452 1458 1624 1616 1609 1609 1609 1609 1609 1609 1609 1616 1616 1616 1624 1624 1624 1624 1609 1601 1601 1601 1609 1609 1302 1297 1297 1297 1297 1302 1302 1302 1302 1302 1302 1302 1302 1297 1297 1297 1297 1297 1297 1292 1292 1292 1288 1288 1283 1283 1278 1273 1273 1273 1273 1273 1273 1273 1268 1264 1264 1259 1259 1259 1259 1259 1259 1259 1259 1250 1250 1250 1245 1245 1245 1245 1241 1241 1236 1236 1236 1236 1236 1236 1236 1236 1232 1232 1232 1232 1227 1223 1223 1223 1223 1223 1223 1223 1223 1219 1219 1219 1219 1219 1214 1214 1214 1214 1214 1214 1214 1210 1210 1210 1206 1206 1206 1202 1202 1202 1202 1202 1202 1202 1202 1197 1197 1197 1197 1193 1193 1193 1193 1193 1193 1189 1189 1185 1185 1181 1181 1181 1177 1177 1177 1177 1177 1177 1177 1181 1185 1185 1189 1193 1197 1202 1202 1663 1663 1663 1663 1663 1663 1663 1663 1663 1663 1663 1663 1663 1663 1663 1663 1663 1663 1663 1663 1671 1663 1663 1663 1663 1663 1663 1663 1663 1663 1671 1671 1680 1680 1680 1680 1680 1680 1671 1671 1671 1671 1671 1671 1671 1671 1671 1671 1671 1671 1671 1671 1680 1680 1680 1688 1688 1688 1688 1688 1688 1688 1688 1688 1688 1688 1688 1688 1688 1688 1688 1688 1688 1688 1688 1688 1688 1688 1680 1680 1671 1671 1680 1688 1688 1688 1688 1688 1688 1680 1680 1680 1680 1680 1680 1680 1688 1688 1688 1688 1688 1688 1688 1688 1688 1688 1680 1680 1671 1671 1671 1671 1680 1680 1688 1688 1688 1688 1688 1688 1688 1688 1696 1696 1696 1696 1696 1696 1705 1705 1696 1696 1696 1688 1688 1688 1688 1688 1688 1688 1680 1680 1688 1680 1680 1680 1688 1696 1696 1696 1696 0 0 0 0 0 4349 4349 4349 4349 4295 4295 4295 4295 4295 4295 4241 4241 4295 4295 4295 4295 4295 4295 4295 4295 4295 4349 4349 4349 4349 4349 4349 4349 4295 4295 4295 4295 4295 4295 4295 4349 4349 4349 4295 4295 4295 4295 4295 4295 4295 4241 4241 4295 4295 4295 4295 4295 4349 4349 4349 4349 4349 4349 4349 4349 4349 4349 4349 4349 4349 4349 4349 4349 4349 4405 4349 4349 4405 4405 4405 4405 4349 4349 4349 4349 4349 4349 4349 4349 4349 4349 4295 4295 4295 4295 4241 4241 4241 4241 4241 4241 4241 4241 4190 4190 4190 4190 4190 4190 4190 4190 4139 4139 4089 4089 4041 4041 4041 4041 3994 3994 3994 3994 3994 3994 3948 3948 0 0 0 0 0 0 0 0 0 0 0 0 0 0 0 0 0 0 0 0 0 0 0 0 0 0 0
0 0 0 0 0 0 0 0 0 0 0 0 0 0 0 0 0 0 0 0 0 0 0 0 0 0 0 0 0 0 0 3653 3653 3692 3692 3732 3774 3774 3774 3774 3774 3774 3774 3732 3732 3732 3732 3732 3692 3692 3653 3653 3653 3692 3692 3692 3774 3816 3816 3816 3774 3774 3774 3774 3774 3774 3774 3732 3692 3692 3692 3692 0 1529 1529 1529 1529 1529 1529 1529 1529 1536 1536 1536 1536 1536 1536 1536 1536 1536 1536 1536 1536 1536 1529 1529 1529 1529 1529 1529 1529 1529 1523 1516 1516 1516 1516 1509 1509 1509 1509 1509 1509 1503 1503 1503 1503 1503 1503 1503 1496 1496 1496 1496 1496 1496 1489 1489 1489 1483 1483 1477 1477 1477 1477 1477 1483 1483 1483 1483 1477 1477 1477 1477 1477 1609 1601 1601 1601 1601 1594 1594 1586 1586 1586 1586 1586 1579 1433 1427 1427 1427 1433 1433 1433 1433 1427 1427 1433 1433 1433 1439 1439 1445 1445 1445 1452 1452 1452 1452 1601 1594 1586 1586 1586 1586 1586 1586 1594 1594 1609 1609 1609 1616 1616 1609 1601 1601 1601 1601 1594 1594 1302 1302 1302 1302 1302 1302 1302 1302 1302 1302 1302 1302 1302 1302 1302 1302 1302 1297 1297 1297 1292 1292 1288 1288 1283 1283 1278 1278 1273 1273 1273 1273 1273 1273 1268 1264 1264 1259 1259 1259 1259 1259 1259 1259 1259 1250 1250 1250 1250 1245 1245 1245 1241 1241 1241 1236 1236 1236 1236 1236 1236 1236 1236 1232 1232 1232 1227 1227 1227 1227 1227 1223 1223 1223 1223 1223 1219 1219 1219 1219 1219 1214 1214 1214 1214 1214 1214 1214 1210 1210 1206 1206 1206 1206 1202 1202 1202 1202 1202 1202 1202 1202 1197 1197 1197 1197 1197 1193 1193 1193 1193 1193 1189 1189 1185 1185 1181 1181 1181 1177 1177 1177 1177 1177 1181 1181 1185 1189 1193 1197 1197 1202 1202 1202 1655 1655 1655 1655 1655 1655 1655 1655 1655 1647 1647 1655 1655 1655 1655 1655 1655 1655 1663 1655 1655 1655 1655 1655 1655 1655 1655 1663 1663 1663 1663 1663 1663 1671 1663 1663 1663 1655 1655 1655 1655 1655 1663 1663 1663 1663 1663 1663 1663 1663 1663 1671 1671 1671 1671 1680 1680 1680 1680 1680 1680 1680 1680 1680 1671 1671 1680 1680 1671 1671 1680 1680 1680 1680 1680 1680 1680 1680 1671 1671 1671 1671 1680 1680 1680 1680 1680 1680 1671 1671 1671 1671 1671 1671 1671 1671 1671 1680 1680 1680 1680 1680 1680 1680 1680 1680 1671 1663 1663 1663 1663 1663 1671 1680 1680 1680 1680 1680 1680 1680 1680 1680 1688 1688 1688 1688 1688 1688 1688 1688 1688 1688 1671 1671 1671 1671 1671 1671 1671 1671 1671 1680 1671 1671 1671 1680 1680 1680 1680 1696 0 0 0 0 0 4349 4349 4349 4349 4295 4295 4295 4295 4295 4241 4241 4241 4241 4241 4241 4241 4241 4241 4241 4241 4295 4295 4295 4295 4295 4295 4295 4295 4295 4295 4295 4295 4295 4295 4295 4295 4295 4295 4295 4295 4295 4295 4295 4241 4241 4241 4241 4241 4241 4241 4295 4295 4295 4295 4295 4295 4295 4295 4295 4295 4295 4295 4295 4295 4295 4295 4295 4295 4349 4349 4349 4349 4405 4349 4349 4349 4295 4295 4295 4295 4295 4349 4295 4295 4295 4295 4295 4295 4295 4295 4241 4241 4241 4241 4241 4241 4241 4190 4190 4190 4190 4190 4190 4190 4190 4190 4139 4089 4089 4089 4089 4041 4041 4041 4041 4041 3994 3994 3994 3994 3948 3948 0 0 0 0 0 0 0 0 0 0 0 0 0 0 0 0 0 0 0 0 0 0 0 0 0 0 0
0 0 0 0 0 0 0 0 0 0 0 0 0 0 0 0 0 0 0 0 0 0 0 0 0 0 0 0 0 0 0 3653 3653 3653 3653 3653 3732 3732 3774 3774 3774 3774 3774 3732 3732 3732 3692 3692 3653 3653 3653 3653 3653 3653 3653 3653 3653 3774 3816 3774 3774 3774 3774 3774 3774 3774 3774 3732 3692 3692 3692 3692 3692 0 0 1529 1529 1529 1529 1529 1529 1536 1536 1536 1536 1536 1536 1536 1536 1536 1536 1536 1536 1536 1529 1529 1529 1529 1529 1529 1529 1523 1523 1516 1516 1516 1509 1509 1509 1509 1509 1509 1509 1503 1503 1503 1503 1503 1503 1503 1503 1496 1496 1496 1496 1496 1489 1489 1489 1483 1483 1483 1483 1483 1483 1483 1483 1483 1483 1483 1477 1477 1477 1477 1477 1477 1477 1477 1477 1594 1594 1594 1586 1586 1586 1586 1586 1579 1579 1433 1433 1433 1433 1433 1433 1433 1427 1427 1427 1433 1433 1439 1439 1445 1445 1445 1452 1452 1452 1452 1586 1579 1572 1572 1572 1572 1572 1579 1586 1586 1586 1586 1594 1594 1594 1594 1586 1586 1594 1586 1579 1579 1579 1302 1302 1302 1302 1307 1307 1302 1302 1302 1302 1302 1302 1302 1302 1302 1302 1302 1297 1297 1297 1292 1292 1288 1283 1283 1278 1278 1273 1273 1273 1273 1273 1273 1268 1264 1264 1259 1259 1259 1259 1259 1259 1259 1259 1250 1250 1250 1250 1250 1245 1245 1245 1245 1241 1241 1236 1236 1236 1236 1236 1236 1236 1232 1232 1232 1227 1227 1227 1227 1227 1227 1223 1223 1223 1223 1223 1219 1219 1219 1219 1219 1214 1214 1214 1214 1214 1214 1214 1210 1210 1210 1210 1206 1206 1202 1202 1202 1202 1202 1202 1202 1202 1197 1197 1197 1197 1197 1197 1193 1193 1193 1189 1189 1185 1185 1185 1181 1181 1181 1181 1181 1181 1181 1181 1181 1185 1189 1193 1197 1197 1197 1197 1655 1647 1647 1647 1647 1647 1647 1647 1647 1639 1639 1639 1647 1647 1647 1647 1647 1647 1655 1655 1647 1647 1655 1647 1647 1647 1639 1639 1647 1655 1647 1647 1655 1655 1655 1655 1647 1647 1647 1647 1647 1647 1647 1655 1655 1655 1655 1655 1655 1655 1655 1655 1655 1655 1655 1655 1663 1671 1671 1663 1663 1671 1671 1671 1663 1663 1663 1663 1671 1663 1663 1671 1671 1671 1671 1671 1671 1671 1663 1663 1655 1655 1663 1671 1663 1663 1663 1671 1671 1663 1663 1663 1663 1663 1663 1663 1663 1663 1663 1671 1671 1671 1671 1671 1671 1663 1663 1663 1655 1655 1655 1655 1655 1663 1663 1663 1663 1671 1671 1671 1671 1671 1671 1680 1680 1680 1680 1671 1671 1680 1671 1671 1663 1655 1655 1655 1655 1655 1663 1663 1663 1663 1663 1663 1663 1663 1671 1671 1671 1680 0 0 0 0 0 4349 4349 4349 4349 4349 4241 4241 4241 4241 4241 4241 4241 4241 4241 4241 4241 4241 4241 4241 4241 4241 4241 4295 4295 4295 4295 4295 4295 4295 4295 4295 4295 4295 4295 4295 4295 4295 4295 4295 4295 4241 4241 4295 4241 4241 4190 4190 4190 4190 4190 4190 4241 4241 4241 4295 4295 4295 4295 4295 4295 4295 4295 4295 4295 4295 4295 4295 4295 4295 4295 4295 4295 4295 4295 4295 4295 4295 4241 4241 4241 4295 4295 4295 4295 4295 4295 4295 4241 4241 4295 4241 4190 4190 4190 4190 4190 4190 4190 4190 4190 4190 4190 4190 4190 4190 4190 4190 4139 4089 4089 4089 4089 4041 4041 4041 4041 4041 3994 3994 3994 3994 3948 3948 3948 0 0 0 0 0 0 0 0 0 0 0 0 0 0 0 0 0 0 0 0 0 0 0 0 0 0
0 0 0 0 0 0 0 0 0 0 0 0 0 0 0 0 0 0 0 0 0 0 0 0 0 0 0 0 0 0 0 3614 3614 3614 3653 3653 3692 3732 3732 3732 3732 3732 3732 3732 3692 3692 3692 3653 3653 3653 3653 3653 3653 3653 3614 3614 3614 3732 3774 3774 3774 3774 3774 3732 3732 3732 3732 3692 3692 3692 3692 3692 3692 3732 0 1529 1529 1529 1529 1529 1529 1529 1536 1536 1536 1536 1536 1536 1536 1536 1536 1536 1536 1536 1529 1529 1529 1529 1529 1529 1529 1523 1523 1516 1516 1516 1509 1509 1509 1509 1509 1509 1509 1503 1503 1503 1503 1503 1503 1503 1503 1503 1496 1496 1496 1496 1496 1489 1489 1489 1483 1483 1483 1483 1483 1483 1483 1483 1483 1483 1483 1477 1477 1477 1477 1477 1477 1477 1477 1483 1477 1477 1477 1477 1586 1586 1579 1579 1579 1579 1433 1433 1433 1433 1433 1433 1433 1427 1427 1433 1433 1439 1439 1445 1445 1452 1452 1452 1452 1452 1564 1564 1564 1564 1564 1564 1564 1564 1572 1572 1572 1572 1579 1579 1579 1572 1572 1579 1579 1572 1564 1557 1557 1307 1307 1307 1307 1307 1307 1307 1307 1307 1307 1307 1307 1307 1307 1307 1307 1307 1302 1302 1297 1292 1292 1288 1283 1283 1278 1278 1273 1273 1273 1273 1273 1268 1268 1264 1264 1259 1259 1259 1259 1259 1259 1259 1259 1255 1250 1250 1250 1250 1250 1250 1250 1245 1245 1241 1241 1241 1236 1236 1236 1236 1236 1232 1232 1232 1232 1227 1227 1227 1227 1227 1227 1227 1227 1223 1223 1219 1219 1219 1219 1219 1219 1219 1214 1214 1214 1214 1214 1214 1210 1210 1210 1206 1206 1206 1202 1202 1202 1202 1202 1202 1202 1197 1197 1197 1197 1197 1197 1197 1193 1193 1193 1189 1185 1185 1185 1181 1181 1181 1181 1181 1181 1181 1181 1181 1185 1189 1193 1197 1202 1197 1197 1655 1647 1647 1639 1632 1632 1632 1632 1632 1632 1632 1632 1639 1639 1639 1639 1639 1647 1647 1647 1639 1639 1647 1647 1632 1632 1632 1632 1639 1639 1639 1639 1639 1639 1639 1639 1632 1632 1632 1632 1632 1639 1639 1639 1639 1647 1647 1647 1647 1647 1647 1647 1647 1647 1647 1647 1647 1663 1663 1663 1663 1663 1663 1655 1655 1655 1655 1655 1655 1663 1663 1663 1663 1663 1663 1663 1663 1663 1655 1655 1647 1647 1655 1655 1647 1647 1655 1655 1655 1655 1655 1655 1655 1655 1655 1647 1647 1647 1655 1655 1655 1663 1663 1663 1655 1655 1655 1655 1655 1647 1647 1647 1655 1655 1655 1655 1655 1663 1655 1655 1655 1655 1655 1655 1655 1655 1655 1655 1655 1655 1663 1655 1655 1647 1647 1655 1647 1647 1647 1655 1655 1655 1655 1655 1655 1655 1663 1663 1663 0 0 0 0 0 0 4349 4349 4295 4295 4295 4241 4241 4241 4241 4241 4241 4241 4241 4241 4190 4190 4190 4241 4241 4241 4241 4241 4295 4295 4295 4295 4295 4241 4241 4241 4241 4241 4241 4241 4241 4241 4295 4295 4295 4241 4241 4241 4241 4241 4241 4190 4190 4190 4190 4190 4190 4241 4241 4241 4241 4241 4241 4241 4241 4241 4241 4295 4295 4295 4295 4295 4295 4295 4295 4295 4295 4295 4295 4241 4241 4241 4241 4241 4241 4241 4241 4241 4241 4241 4241 4241 4241 4241 4241 4241 4241 4190 4139 4139 4190 4190 4190 4190 4190 4190 4190 4190 4190 4139 4139 4139 4139 4139 4089 4089 4089 4089 4041 4041 4041 4041 4041 3994 3994 3948 3948 3948 3948 3948 0 0 0 0 0 0 0 0 0 0 0 0 0 0 0 0 0 0 0 0 0 0 0 0 0 0
0 0 0 0 0 0 0 0 0 0 0 0 0 0 0 0 0 0 0 0 0 0 0 0 0 0 0 0 0 0 0 3614 3614 3614 3614 3614 3653 3692 3732 3692 3692 3732 3692 3692 3653 3653 3653 3653 3614 3614 3614 3614 3614 3614 3576 3576 3614 3653 3732 3732 3732 3732 3732 3692 3692 3692 3692 3653 3653 3653 3653 3692 3692 3732 0 0 1529 1529 1529 1529 1529 1529 1536 1536 1536 1536 1536 1536 1536 1536 1536 1536 1536 1536 1536 1529 1529 1529 1529 1529 1529 1529 1529 1523 1516 1516 1516 1516 1509 1509 1503 1503 1503 1503 1503 1503 1503 1503 1503 1503 1503 1503 1496 1496 1496 1496 1496 1489 1489 1489 1489 1483 1483 1483 1483 1483 1483 1483 1483 1483 1483 1483 1483 1483 1477 1477 1477 1477 1483 1483 1477 1477 1477 1477 1586 1579 1572 1572 1572 1452 1433 1433 1433 1439 1439 1433 1433 1433 1433 1433 1433 1439 1439 1445 1445 1452 1452 1452 1458 1458 1458 1557 1557 1557 1557 1557 1557 1557 1557 1557 1557 1557 1557 1557 1564 1564 1564 1564 1572 1564 1557 1557 1557 1557 1307 1307 1307 1307 1307 1307 1307 1307 1307 1307 1307 1307 1312 1312 1312 1307 1307 1307 1302 1297 1292 1292 1288 1283 1278 1278 1273 1273 1273 1273 1273 1268 1268 1264 1264 1259 1259 1259 1259 1259 1259 1259 1259 1255 1250 1250 1250 1250 1250 1250 1250 1245 1245 1241 1241 1241 1236 1236 1236 1236 1236 1236 1232 1232 1232 1227 1227 1227 1227 1227 1227 1227 1227 1223 1223 1223 1219 1219 1219 1219 1219 1219 1219 1214 1214 1214 1214 1214 1214 1214 1210 1210 1206 1206 1206 1206 1206 1202 1202 1202 1202 1202 1202 1197 1197 1197 1197 1197 1193 1193 1193 1193 1189 1185 1185 1185 1181 1181 1181 1181 1181 1181 1181 1185 1185 1189 1197 1202 1202 1197 1197 1197 1632 1624 1616 1616 1616 1616 1616 1616 1616 1616 1624 1632 1632 1632 1632 1632 1639 1639 1632 1624 1624 1624 1616 1616 1609 1609 1616 1624 1624 1624 1624 1624 1624 1624 1632 1624 1624 1624 1632 1632 1632 1632 1632 1632 1639 1639 1639 1639 1639 1639 1639 1639 1639 1639 1639 1639 1647 1647 1655 1655 1655 1655 1639 1639 1647 1639 1639 1647 1647 1647 1655 1655 1655 1655 1655 1655 1647 1647 1655 1647 1647 1647 1639 1639 1639 1639 1639 1647 1647 1647 1647 1647 1639 1639 1639 1632 1632 1632 1632 1639 1647 1647 1655 1655 1655 1647 1647 1647 1647 1647 1647 1647 1647 1647 1647 1647 1655 1655 1655 1655 1647 1647 1647 1647 1647 1632 1632 1632 1647 1639 1639 1632 1632 1632 1632 1632 1632 1639 1639 1647 1647 1647 1647 1647 1655 1655 1655 1663 0 0 0 0 0 0 4295 4295 4241 4241 4295 4241 4241 4190 4190 4241 4241 4190 4190 4190 4139 4139 4190 4241 4241 4190 4190 4241 4241 4241 4241 4241 4241 4241 4241 4190 4190 4190 4190 4190 4190 4190 4241 4241 4241 4241 4241 4241 4241 4241 4241 4190 4190 4190 4190 4190 4190 4190 4241 4241 4241 4241 4241 4241 4241 4241 4241 4241 4295 4295 4295 4241 4241 4241 4241 4241 4241 4241 4241 4241 4190 4190 4241 4241 4241 4190 4190 4190 4190 4190 4190 4190 4190 4190 4190 4190 4190 4139 4089 4089 4139 4139 4190 4190 4139 4139 4139 4139 4139 4139 4139 4139 4139 4139 4089 4089 4089 4089 4041 4041 4041 4041 4041 3994 3994 3948 3948 3948 3948 3948 0 0 0 0 0 0 0 0 0 0 0 0 0 0 0 0 0 0 0 0 0 0 0 0 0 0
0 0 0 0 0 0 0 0 0 0 0 0 0 0 0 0 0 0 0 0 0 0 0 0 0 0 0 0 0 0 0 3614 3614 3614 3614 3614 3653 3692 3692 3692 3653 3653 3653 3653 3653 3653 3653 3653 3614 3614 3614 3614 3614 3576 3539 3539 3539 3614 3653 3692 3692 3692 3692 3653 3653 3653 3653 3614 3614 3614 3653 3653 3692 3732 0 0 1529 1529 1529 1529 1536 1536 1536 1536 1536 1536 1536 1536 1536 1536 1536 1536 1536 1536 1536 1529 1529 1529 1529 1529 1529 1529 1529 1523 1523 1523 1516 1516 1509 1509 1503 1503 1503 1503 1503 1503 1503 1503 1503 1503 1503 1503 1496 1496 1496 1496 1496 1489 1489 1489 1489 1489 1483 1483 1483 1483 1483 1483 1483 1483 1483 1483 1477 1477 1477 1477 1477 1477 1483 1483 1477 1477 1477 1477 1477 1477 1477 1470 1458 1452 1445 1445 1445 1445 1439 1439 1433 1433 1433 1433 1433 1439 1439 1445 1445 1452 1452 1452 1458 1458 1458 1550 1550 1557 1550 1550 1550 1550 1550 1550 1550 1550 1550 1550 1550 1557 1557 1557 1557 1557 1557 1557 1557 1557 1307 1307 1307 1312 1312 1307 1307 1307 1307 1312 1312 1312 1312 1312 1317 1317 1317 1317 1317 1302 1297 1297 1292 1292 1278 1278 1278 1273 1273 1273 1273 1273 1268 1268 1264 1264 1264 1264 1259 1259 1259 1259 1255 1250 1250 1250 1250 1250 1250 1250 1250 1245 1245 1241 1241 1241 1236 1236 1236 1236 1236 1236 1232 1232 1232 1227 1227 1227 1227 1227 1227 1227 1227 1227 1223 1223 1223 1223 1219 1219 1219 1219 1219 1219 1214 1214 1214 1214 1214 1214 1210 1210 1210 1206 1206 1206 1206 1206 1206 1202 1202 1202 1202 1202 1202 1197 1197 1197 1197 1197 1193 1193 1189 1189 1185 1185 1185 1181 1181 1181 1181 1181 1181 1185 1185 1193 1197 1202 1202 1206 1206 1647 1632 1616 1616 1616 1616 1616 1609 1609 1609 1609 1616 1624 1624 1624 1624 1624 1624 1624 1609 1609 1609 1609 1601 1601 1601 1601 1609 1609 1616 1616 1616 1616 1616 1616 1624 1616 1616 1624 1624 1624 1624 1624 1624 1632 1632 1632 1632 1632 1624 1624 1632 1632 1632 1632 1632 1632 1639 1639 1639 1639 1639 1639 1632 1632 1639 1639 1639 1639 1639 1639 1639 1639 1639 1639 1639 1639 1639 1639 1647 1639 1639 1632 1632 1632 1632 1632 1632 1632 1632 1632 1632 1632 1632 1624 1624 1624 1624 1624 1624 1632 1632 1632 1639 1639 1639 1639 1639 1639 1639 1639 1639 1639 1639 1639 1639 1639 1639 1639 1639 1639 1632 1632 1632 1632 1632 1624 1624 1624 1632 1632 1624 1624 1624 1624 1624 1632 1632 1632 1632 1639 1639 1632 1632 1639 1639 1639 1639 0 0 0 0 0 0 0 4295 4295 4241 4241 4295 4190 4190 4190 4190 4241 4241 4190 4190 4190 4139 4139 4190 4190 4190 4190 4190 4241 4241 4241 4190 4190 4190 4190 4190 4190 4139 4139 4139 4190 4190 4190 4190 4241 4241 4241 4190 4190 4241 4190 4190 4190 4190 4190 4190 4190 4190 4190 4241 4241 4241 4241 4241 4241 4241 4241 4241 4241 4241 4241 4295 4241 4241 4241 4241 4241 4241 4241 4241 4241 4190 4190 4190 4190 4190 4190 4190 4190 4139 4139 4190 4190 4190 4190 4190 4139 4139 4041 4041 4041 4089 4089 4139 4139 4139 4139 4139 4139 4139 4139 4139 4139 4139 4139 4089 4089 4089 4041 4041 4041 4041 3994 3994 3994 3994 3948 3948 3948 3816 3816 0 0 0 0 0 0 0 0 0 0 0 0 0 0 0 0 0 0 0 0 0 0 0 0 0 0
0 0 0 0 0 0 0 0 0 0 0 0 0 0 0 0 0 0 0 0 0 0 0 0 0 0 0 0 0 0 0 3614 3576 3576 3614 3614 3653 3653 3653 3653 3653 3653 3653 3614 3614 3614 3614 3614 3614 3614 3614 3614 3576 3576 3503 3503 3539 3614 3614 3692 3692 3692 3653 3653 3653 3653 3653 3614 3614 3614 3614 3653 3692 3732 3732 0 0 1536 0 1536 1536 1536 1536 1536 1536 1536 1536 1536 1536 1536 1536 1536 1536 1536 1536 1536 1529 1529 1529 1529 1529 1529 1523 1523 1523 1523 1516 1516 1509 1509 1509 1509 1509 1503 1503 1503 1503 1503 1503 1503 1503 1503 1503 1496 1496 1496 1496 1489 1489 1489 1489 1489 1489 1489 1483 1483 1483 1483 1483 1483 1483 1483 1477 1477 1483 1483 1477 1477 1483 1483 1477 1477 1477 1477 1477 1477 1477 1470 1458 1452 1452 1445 1445 1445 1445 1445 1439 1439 1439 1439 1439 1439 1439 1445 1445 1452 1452 1452 1458 1464 1477 1550 1550 1550 1550 1550 1550 1550 1550 1550 1550 1550 1550 1550 1550 1550 1550 1550 1550 1550 1543 1543 1550 1550 1307 1307 1307 1312 1312 1312 1307 1307 1312 1312 1312 1312 1312 1312 1317 1317 1317 1317 1317 1317 1302 1302 1557 1557 1557 1557 1557 1557 1557 1557 1557 1273 1273 1268 1268 1264 1264 1264 1259 1259 1259 1259 1255 1250 1250 1250 1250 1250 1250 1250 1250 1245 1245 1245 1245 1241 1241 1241 1236 1236 1236 1236 1236 1236 1232 1232 1232 1232 1232 1232 1232 1227 1227 1227 1227 1223 1223 1223 1223 1219 1219 1219 1219 1219 1214 1214 1214 1214 1214 1214 1214 1210 1210 1210 1206 1206 1206 1206 1206 1206 1202 1202 1202 1202 1202 1197 1197 1197 1197 1197 1197 1193 1193 1189 1185 1185 1185 1185 1181 1181 1181 1181 1185 1185 1185 1193 1197 1202 1202 1206 1206 1647 1624 1609 1609 1609 1609 1609 1601 1601 1601 1601 1609 1609 1609 1609 1609 1609 1616 1609 1601 1601 1601 1601 1601 1601 1601 1601 1601 1601 1609 1601 1601 1609 1609 1609 1609 1609 1609 1609 1616 1616 1616 1616 1616 1616 1616 1616 1616 1616 1609 1609 1616 1616 1624 1624 1624 1632 1632 1632 1632 1632 1632 1624 1624 1624 1632 1632 1624 1624 1624 1624 1624 1624 1624 1624 1632 1624 1624 1624 1624 1616 1616 1616 1616 1616 1624 1624 1624 1624 1624 1624 1616 1616 1609 1609 1616 1616 1616 1616 1616 1624 1624 1624 1632 1632 1632 1632 1632 1632 1632 1632 1632 1632 1632 1632 1632 1632 1632 1632 1632 1632 1624 1624 1624 1624 1624 1624 1616 1616 1624 1624 1616 1616 1616 1616 1624 1624 1624 1624 1624 1624 1624 1624 1624 1624 1624 1624 1639 0 0 0 0 0 0 0 4241 4241 4241 4190 4190 4190 4190 4190 4190 4190 4190 4139 4139 4089 4089 4089 4139 4139 4190 4139 4139 4190 4190 4190 4139 4139 4139 4139 4139 4139 4089 4089 4139 4139 4190 4190 4190 4190 4241 4190 4190 4190 4241 4190 4190 4190 4139 4139 4139 4139 4139 4139 4190 4190 4190 4190 4190 4241 4241 4241 4241 4241 4241 4241 4241 4241 4241 4241 4241 4190 4190 4241 4241 4190 4190 4190 4190 4190 4139 4139 4139 4139 4139 4139 4139 4139 4139 4139 4139 4139 4139 4041 4041 4041 4089 4089 4139 4139 4089 4089 4139 4139 4139 4139 4139 4089 4089 4139 4089 4089 4041 4041 4041 4041 4041 3994 3994 3994 3994 3948 3948 3948 3816 3816 0 0 0 0 0 0 0 0 0 0 0 0 0 0 0 0 0 0 0 0 0 0 0 0 0 0
0 0 0 0 0 0 0 0 0 0 0 0 0 0 0 0 0 0 0 0 0 0 0 0 0 0 0 0 0 0 0 3576 3576 3576 3576 3614 3614 3653 3653 3653 3653 3653 3653 3614 3614 3614 3614 3614 3614 3576 3576 3576 3539 3503 3503 3503 3503 3576 3576 3653 3653 3653 3653 3653 3653 3653 3653 3614 3614 3614 3614 3614 3653 3653 0 0 0 1536 0 1536 1536 1536 1536 1536 1536 1536 1536 1536 1536 1536 1536 1536 1536 1536 1536 1536 1536 1536 1536 1529 1529 1529 1523 1523 1523 1523 1516 1516 1509 1509 1509 1509 1509 1503 1503 1503 1503 1503 1503 1503 1503 1503 1503 1496 1496 1496 1496 1489 1489 1489 1489 1489 1489 1489 1489 1489 1483 1483 1483 1483 1483 1483 1483 1483 1483 1483 1483 1483 1483 1483 1477 1477 1477 1477 1477 1477 1477 1477 1464 1458 1452 1452 1445 1445 1445 1445 1445 1439 1439 1439 1439 1445 1445 1445 1445 1452 1452 1458 1464 1470 1550 1550 1550 1550 1550 1550 1550 1550 1550 1550 1550 1550 1550 1543 1543 1550 1550 1543 1543 1543 1536 1536 1543 1543 1543 1312 1312 1312 1312 1312 1312 1312 1312 1312 1312 1312 1312 1317 1317 1317 1317 1322 1322 1322 1322 1333 1550 1557 1557 1557 1557 1557 1550 1550 1550 1550 1550 1550 1550 1550 1550 1264 1259 1259 1259 1255 1255 1250 1250 1250 1250 1250 1250 1250 1250 1250 1250 1245 1245 1241 1241 1241 1241 1236 1236 1236 1236 1236 1232 1232 1232 1232 1232 1232 1232 1227 1227 1227 1227 1223 1223 1223 1223 1223 1219 1219 1219 1219 1219 1214 1214 1214 1214 1214 1214 1214 1214 1214 1214 1210 1210 1206 1206 1206 1202 1202 1202 1202 1202 1202 1197 1197 1197 1197 1197 1197 1193 1193 1189 1185 1185 1185 1185 1185 1185 1185 1185 1185 1189 1193 1197 1202 1202 1197 1181 1177 1177 1586 1586 1586 1586 1586 1586 1586 1586 1586 1586 1586 1586 1586 1586 1586 1579 1579 1586 1586 1586 1586 1586 1594 1594 1594 1594 1594 1594 1594 1594 1601 1601 1601 1601 1601 1601 1601 1601 1601 1601 1609 1609 1609 1609 1601 1601 1601 1601 1601 1601 1609 1616 1616 1616 1624 1616 1616 1616 1616 1616 1616 1616 1616 1624 1624 1624 1616 1616 1616 1616 1616 1616 1616 1616 1616 1616 1609 1609 1609 1601 1601 1601 1609 1609 1609 1609 1601 1601 1601 1601 1601 1601 1601 1601 1609 1609 1616 1616 1616 1624 1624 1624 1624 1624 1624 1624 1624 1624 1624 1624 1624 1624 1624 1624 1624 1624 1624 1624 1624 1624 1616 1616 1616 1616 1616 1616 1616 1616 1616 1616 1616 1616 1616 1616 1616 1616 1616 1616 1616 1616 1616 1609 1601 1601 1601 0 0 0 0 0 0 0 0 4241 4241 4241 4190 4190 4139 4139 4139 4139 4139 4139 4089 4089 4089 4089 4089 4089 4089 4089 4139 4139 4139 4139 4139 4089 4089 4089 4089 4089 4089 4089 4089 4089 4139 4139 4139 4139 4190 4190 4190 4190 4190 4190 4190 4190 4139 4139 4139 4139 4139 4139 4139 4139 4139 4190 4190 4190 4190 4241 4241 4190 4190 4190 4190 4241 4190 4190 4190 4190 4190 4190 4190 4139 4139 4089 4089 4139 4139 4139 4089 4089 4089 4139 4139 4139 4139 4139 4139 4139 4139 4139 4041 4041 4041 4041 4041 4089 4089 4089 4089 4089 4089 4139 4139 4139 4089 4089 4139 4089 4089 4041 4041 4041 4041 3994 3994 3994 3994 3994 3948 3948 3948 3903 3903 0 0 0 0 0 0 0 0 0 0 0 0 0 0 0 0 0 0 0 0 0 0 0 0 0 0
0 0 0 0 0 0 0 0 0 0 0 0 0 0 0 0 0 0 0 0 0 0 0 0 0 0 0 0 0 0 0 3539 3539 3539 3539 3576 3614 3614 3614 3614 3614 3614 3614 3539 3539 3576 3576 3576 3539 3539 3539 3539 3503 3503 3468 3468 3503 3503 3539 3614 3653 3653 3653 3614 3614 3614 3614 3576 3576 3576 3576 3576 3614 3614 3614 0 0 1536 1536 1536 1536 1536 1536 1536 1536 1536 1536 1536 1536 1536 1536 1536 1536 1536 1536 1536 1536 1536 1536 1536 1529 1529 1529 1523 1523 1523 1516 1516 1516 1509 1509 1509 1509 1509 1509 1509 1509 1503 1503 1503 1503 1503 1503 1503 1503 1503 1503 1496 1496 1496 1489 1489 1489 1489 1489 1489 1483 1483 1483 1483 1483 1483 1483 1483 1483 1483 1483 1483 1483 1483 1477 1477 1477 1477 1477 1477 1477 1477 1470 1464 1452 1452 1445 1445 1445 1445 1445 1439 1439 1445 1445 1445 1445 1445 1445 1452 1452 1458 1464 1470 1550 1550 1550 1550 1550 1550 1550 1550 1550 1550 1550 1543 1543 1543 1543 1543 1543 1536 1536 1536 1536 1536 1536 1536 1536 1312 1312 1312 1312 1312 1312 1312 1312 1312 1312 1312 1312 1317 1317 1317 1322 1322 1328 1328 1333 1333 1550 1550 1550 1557 1557 1557 1550 1550 1550 1543 1543 1543 1543 1543 1543 1543 1543 1550 1550 1255 1255 1250 1250 1250 1250 1250 1250 1250 1245 1245 1245 1250 1245 1245 1241 1241 1241 1236 1236 1236 1236 1236 1236 1232 1232 1232 1232 1232 1232 1227 1227 1227 1227 1223 1223 1223 1223 1223 1219 1219 1219 1219 1219 1219 1214 1214 1219 1214 1214 1214 1214 1214 1214 1210 1210 1210 1206 1206 1206 1206 1206 1202 1202 1202 1202 1202 1202 1197 1197 1197 1193 1193 1189 1189 1189 1185 1185 1185 1185 1185 1185 1189 1193 1197 1202 1202 1202 1197 1181 1177 1177 1564 1564 1579 1572 1572 1572 1579 1579 1579 1579 1579 1579 1579 1579 1579 1572 1572 1572 1572 1579 1572 1572 1579 1579 1579 1579 1579 1579 1579 1579 1579 1579 1586 1586 1586 1586 1586 1594 1594 1594 1594 1594 1594 1594 1586 1586 1586 1586 1594 1594 1601 1609 1609 1616 1609 1609 1609 1609 1609 1609 1609 1609 1616 1616 1616 1616 1609 1609 1609 1609 1601 1601 1601 1601 1601 1601 1601 1601 1594 1594 1594 1594 1594 1601 1601 1601 1594 1594 1594 1594 1594 1594 1594 1601 1609 1609 1609 1609 1616 1616 1616 1616 1616 1624 1624 1624 1624 1616 1616 1616 1616 1616 1616 1616 1616 1616 1616 1616 1616 1616 1616 1616 1616 1616 1609 1609 1609 1609 1609 1601 1601 1601 1609 1609 1609 1609 1609 1609 1609 1616 1609 1609 1601 1601 1601 0 0 0 0 0 0 0 0 4241 4241 4190 4139 4139 4089 4089 4089 4089 4089 4089 4041 4041 4041 4041 4041 4089 4089 4089 4089 4089 4089 4089 4089 4089 4089 4089 4089 4089 4089 4089 4089 4089 4089 4089 4089 4139 4139 4190 4190 4190 4190 4139 4139 4139 4139 4089 4089 4089 4089 4089 4089 4139 4139 4139 4190 4190 4190 4190 4190 4190 4190 4190 4190 4190 4190 4190 4190 4190 4139 4139 4190 4139 4089 4089 4089 4089 4139 4089 4089 4089 4089 4139 4139 4139 4139 4139 4139 4139 4089 4089 3994 3994 3994 4041 4041 4041 4089 4089 4089 4089 4089 4139 4089 4089 4089 4089 4089 4041 4041 4041 4041 4041 3994 3994 3994 3994 3994 3948 3948 3948 3948 3948 0 0 0 0 0 0 0 0 0 0 0 0 0 0 0 0 0 0 0 0 0 0 0 0 0 0 0
