0 0 0 0 0 0 0 0 0 0 0 0 0 0 0 0 0 0 0 0 0 0 0 0 0 0 0 0 0 0 0 0 0 2485 2467 2467 2467 2467 2485 2467 2467 2467 2467 2467 2467 2467 2467 2467 2467 2467 2467 2467 2467 2467 2467 2467 2485 2485 2485 2485 2485 2485 2485 2485 2485 2467 2467 2467 2467 2467 2467 2467 2467 2467 2467 2467 2467 2467 2467 2467 2467 2485 2485 2485 2485 2485 2485 2485 2503 2503 2503 2503 2485 2485 2485 2485 2485 2485 2485 2503 2503 2503 2503 2503 2503 2503 2485 2485 2485 2485 2503 1470 1470 1470 1477 1477 1477 1477 1477 1483 1483 1483 1483 1483 1483 1483 1483 1489 1489 1496 1496 1496 1509 1523 1410 1410 1410 1410 1410 1410 1410 1410 1410 1410 1410 1415 1421 1421 1421 1421 1427 1421 1421 1421 1421 1415 1415 1421 1421 1427 1427 1427 1427 1427 1433 1433 1433 1427 1427 1433 1427 1427 1427 1427 1427 1427 1427 1427 1427 1427 1427 1427 1433 1433 1439 1439 1445 1439 1439 1445 1439 1439 1439 1439 1445 1445 1445 1445 1445 1445 1452 1452 1452 1452 1452 1452 1452 1445 1445 1452 1452 1452 1452 1452 1680 1680 1680 1680 1680 1680 1680 1680 1680 1680 1680 1680 1680 1688 1688 1688 1688 1696 1696 1696 1696 1688 1688 1696 1696 1696 1696 1696 1696 1688 1688 1688 1688 1696 1477 1477 1470 1470 1477 1477 1477 1477 1477 1483 1483 1489 1489 1489 1489 1489 2005 2005 1993 1993 1993 2005 2005 2005 2005 2005 2005 2005 2005 2618 2618 2618 2618 2618 2618 2618 2639 2639 1873 1873 1873 1873 1873 1883 1883 1883 1883 1883 1705 1705 1705 1705 1705 1713 1705 1705 1705 1705 1705 1705 1705 1713 1713 1713 1713 1722 1722 1722 1722 1458 1452 1452 1452 1452 1452 1452 1458 1458 1458 1458 1458 1458 1458 1464 1722 1722 1722 1722 1713 1713 1722 1722 1722 1722 1722 1722 1722 1722 1722 1722 1722 1722 1722 1722 1722 1722 1731 1731 1731 1731 1731 1731 1731 1731 1731 1731 1731 1722 1722 1731 1731 1731 1731 1731 1731 1739 1739 1739 1739 1739 1739 1748 1739 1739 1739 1739 1739 1739 1739 1739 1748 1748 1748 1748 1748 1748 1748 1757 1757 1757 1757 1757 1757 1757 1757 1757 1757 1757 1757 1757 1757 1757 1748 1748 1748 1748 1550 1550 1550 1536 1536 1529 1529 1523 1516 1516 1509 1509 1509 1509 1509 1509 1509 1516 1516 1523 1516 1516 1516 2680 2680 2680 2680 2680 2680 2701 2680 2680 2680 2680 2680 2680 2680 2680 2701 2701 2701 2701 2701 2701 2701 2701 2701 2701 2701 2701 2701 2701 2701 2701 2701 2701 2723 2723 1722 1722 1722 1722 1713 1713 1713 1705 1705 1705 1713 1713 1713 1713 1713 1722 1722 1722 1722 1722 1722 1722 1731 1731 1748 1748 2701 2701 2701 2680 2680 2659 2659 2659 2659 2659 2659 2659 2680 2680 2680 2680 2680 2680 2680 2680 2680 2680 2680 2680 2680 2680 2680 2680 2680 2680 2680 2680 2680 2680 2680 2680 2680 2680 2680 2680 2680 2680 2680 2701 2701 2701 2701 2701 2701 2701 2701 2701 2701 2701 2701 2701 2701 2701 2701 2701 2701 2701 2680 2680 2680 2680 2701 2701 2701 2701 2701 2701 2701 2701 2701 2701 2701 2701 2701 2701 2701 2701 2680 2680 2701 2701 2701 2701 2701 2723 2701 2701 2680 2680 2680 2680 2680 2680 2680 2680 2680 2659 2659 2659 2659 2659 2659 2659 2659 2659 2659 2659 2659 2659 2659 2659 2659 2659 2659 2659 2659 2659 2659 2659 2659 2659 2659 2659 2659 2659 2659 2659 0 0 0 0 0 0 0 0 0 0
0 0 0 0 0 0 0 0 0 0 0 0 0 0 0 0 0 0 0 0 0 0 0 0 0 0 0 0 0 0 0 0 0 2467 2467 2467 2467 2467 2467 2467 2450 2450 2450 2467 2467 2467 2467 2450 2450 2450 2450 2450 2450 2467 2467 2467 2467 2467 2467 2485 2467 2467 2485 2485 2485 2450 2450 2467 2467 2467 2467 2467 2450 2450 2467 2467 2467 2467 2467 2467 2467 2485 2467 2467 2467 2485 2485 2485 2485 2485 2485 2485 2485 2485 2485 2467 2467 2467 2485 2485 2485 2485 2503 2503 2503 2485 2485 2485 2485 2503 2503 1477 1477 1477 1477 1477 1477 1477 1477 1483 1483 1483 1483 1483 1483 1483 1489 1489 1496 1496 1503 1503 1516 1529 1410 1410 1410 1410 1410 1410 1410 1410 1415 1415 1415 1415 1421 1421 1427 1427 1427 1427 1421 1421 1663 1663 1663 1655 1655 1655 1655 1647 1647 1433 1433 1433 1433 1427 1427 1433 1427 1427 1427 1427 1427 1427 1427 1427 1427 1427 1427 1427 1433 1439 1445 1445 1445 1445 1445 1445 1439 1439 1439 1439 1445 1445 1445 1445 1445 1445 1452 1452 1452 1458 1671 1671 1452 1445 1445 1680 1680 1680 1680 1680 1680 1680 1680 1680 1680 1680 1680 1680 1680 1680 1680 1680 1680 1680 1680 1688 1688 1696 1696 1688 1688 1688 1688 1688 1688 1688 1688 1688 1696 1688 1688 1688 1688 1696 1483 1477 1470 1470 1477 1477 1477 1483 1483 1483 1489 1489 1489 1489 1489 1489 2005 2005 2005 2005 2005 2005 2005 2016 2016 2016 2016 2016 2618 2598 2598 2618 2618 2618 2618 2618 2618 2618 1873 1873 1883 1883 1883 1883 1883 1883 1883 1883 1705 1705 1705 1705 1705 1705 1705 1705 1705 1705 1705 1705 1705 1705 1705 1705 1705 1713 1722 1722 1722 1458 1452 1452 1458 1458 1458 1464 1464 1464 1458 1458 1458 1464 1464 1464 1713 1713 1713 1713 1713 1713 1713 1713 1713 1722 1722 1722 1722 1722 1722 1713 1713 1713 1722 1722 1722 1722 1722 1722 1722 1722 1722 1722 1722 1722 1722 1722 1722 1722 1722 1722 1722 1722 1731 1731 1731 1731 1731 1731 1731 1731 1739 1739 1731 1731 1739 1739 1739 1739 1739 1739 1739 1739 1739 1739 1748 1748 1748 1748 1748 1748 1748 1748 1748 1748 1748 1748 1748 1757 1757 1757 1748 1748 1739 1739 1739 1739 1557 1550 1550 1536 1536 1529 1529 1523 1516 1516 1516 1509 1509 1516 1516 1516 1516 1516 1523 1523 1529 1529 2680 2680 2680 2680 2680 2680 2680 2680 2680 2680 2680 2680 2680 2680 2680 2680 2680 2680 2701 2701 2701 2701 2701 2701 2701 2701 2680 2680 2701 2701 2701 2680 2680 2701 2701 2701 1731 1731 1722 1722 1722 1713 1713 1713 1713 1713 1713 1713 1713 1722 1722 1722 1722 1722 1722 1722 1722 1722 1731 1739 1748 1748 2680 2680 2680 2659 2659 2659 2659 2659 2659 2659 2659 2659 2659 2659 2659 2659 2659 2659 2659 2659 2659 2680 2659 2659 2659 2659 2659 2659 2659 2659 2659 2659 2680 2659 2659 2659 2659 2659 2659 2680 2680 2680 2680 2680 2680 2680 2680 2680 2680 2680 2680 2680 2680 2701 2701 2701 2680 2680 2680 2680 2680 2680 2680 2680 2680 2680 2680 2680 2680 2680 2701 2701 2701 2701 2701 2680 2680 2701 2701 2680 2680 2680 2680 2680 2680 2680 2701 2701 2701 2701 2680 2680 2680 2659 2659 2659 2659 2680 2680 2680 2659 2659 2659 2659 2659 2659 2659 2659 2659 2659 2659 2659 2659 2659 2659 2659 2659 2659 2659 2659 2659 2659 2659 2659 2659 2659 2659 2659 2659 2659 2659 2659 0 0 0 0 0 0 0 0 0 0
0 0 0 0 0 0 0 0 0 0 0 0 0 0 0 0 0 0 0 0 0 0 0 0 0 0 0 0 0 0 0 0 0 2467 2450 2450 2450 2450 2432 2432 2432 2432 2450 2450 2450 2450 2450 2450 2450 2450 2432 2432 2450 2450 2450 2450 2467 2467 2467 2467 2467 2467 2467 2467 2467 2450 2450 2467 2450 2450 2450 2450 2450 2450 2450 2450 2467 2467 2467 2467 2467 2467 2467 2467 2467 2467 2485 2485 2467 2467 2467 2485 2467 2467 2467 2467 2467 2467 2485 2485 2485 2485 2485 2485 2485 2485 2467 2467 2467 2485 2485 2485 1477 1477 1477 1477 1477 1477 1477 1483 1483 1483 1483 1483 1483 1483 1489 1489 1496 1503 1503 1503 1516 1536 1410 1410 1410 1410 1410 1410 1410 1415 1415 1415 1415 1421 1421 1427 1427 1427 1433 1433 1433 1663 1663 1655 1655 1655 1655 1647 1647 1647 1647 1647 1647 1647 1647 1647 1655 1655 1655 1655 1663 1663 1663 1427 1427 1671 1671 1427 1427 1427 1439 1439 1445 1445 1445 1445 1445 1445 1439 1439 1445 1445 1445 1445 1445 1445 1445 1671 1671 1671 1671 1671 1671 1671 1671 1680 1680 1680 1680 1680 1680 1680 1680 1680 1680 1680 1680 1680 1680 1680 1680 1671 1671 1680 1680 1680 1680 1680 1688 1688 1688 1680 1680 1680 1680 1680 1688 1688 1688 1688 1688 1680 1680 1680 1680 1680 1483 1483 1477 1477 1477 1483 1483 1483 1483 1483 1489 1489 1489 1489 1489 1496 2005 2005 2005 2005 2005 2005 2016 2016 2016 2016 2016 2016 2598 2598 2598 2598 2598 2598 2598 2598 2618 2618 1873 1873 1883 1883 1883 1883 1883 1883 1894 1894 1705 1705 1705 1705 1705 1705 1705 1705 1705 1696 1696 1696 1696 1696 1705 1705 1705 1705 1713 1713 1713 1458 1458 1458 1458 1464 1464 1464 1464 1464 1464 1464 1464 1464 1470 1470 1705 1705 1705 1705 1705 1705 1705 1705 1713 1713 1713 1713 1713 1713 1713 1705 1705 1705 1713 1713 1713 1713 1713 1722 1722 1722 1722 1722 1722 1722 1713 1713 1713 1713 1713 1713 1722 1722 1722 1722 1722 1722 1722 1722 1731 1731 1731 1731 1731 1731 1731 1731 1731 1731 1731 1731 1731 1731 1731 1731 1731 1731 1731 1731 1731 1739 1739 1739 1739 1739 1739 1739 1739 1739 1739 1739 1739 1739 1739 1739 1739 1739 1739 1550 1550 1536 1536 1529 1529 1523 1516 1516 1516 1509 1509 1516 1516 1516 1516 1523 1523 1529 1529 1529 2659 2659 2659 2659 2659 2659 2680 2680 2680 2680 2680 2680 2680 2680 2680 2680 2680 2680 2680 2680 2680 2680 2680 2680 2680 2680 2680 2680 2680 2680 2680 2680 2680 2680 2680 2680 1739 1739 1731 1731 1722 1713 1713 1713 1713 1713 1713 1713 1713 1722 1722 1722 1722 1722 1722 1722 1731 1731 1731 1739 1739 2659 2659 2659 2680 2659 2659 2659 2659 2659 2659 2659 2659 2659 2659 2659 2659 2659 2659 2659 2659 2659 2659 2659 2659 2659 2659 2659 2659 2659 2659 2659 2659 2659 2659 2659 2659 2659 2659 2659 2659 2659 2659 2659 2659 2680 2680 2680 2680 2680 2680 2680 2680 2680 2680 2680 2680 2680 2680 2680 2680 2680 2680 2659 2659 2659 2680 2680 2680 2680 2680 2680 2680 2680 2680 2680 2680 2680 2680 2680 2680 2680 2680 2680 2680 2680 2680 2680 2680 2701 2680 2680 2659 2659 2659 2639 2639 2659 2659 2659 2659 2659 2659 2659 2659 2659 2639 2639 2659 2659 2659 2659 2659 2659 2659 2659 2659 2659 2659 2659 2659 2659 2659 2639 2639 2639 2639 2639 2639 2639 2639 2659 2659 2659 0 0 0 0 0 0 0 0 0 0
0 0 0 0 0 0 0 0 0 0 0 0 0 0 0 0 0 0 0 0 0 0 0 0 0 0 0 0 0 0 0 0 0 2450 2432 2432 2432 2432 2432 2432 2432 2432 2450 2450 2450 2450 2450 2432 2432 2432 2432 2432 2432 2450 2450 2450 2450 2450 2467 2467 2467 2467 2467 2467 2467 2450 2450 2450 2450 2450 2450 2450 2450 2450 2450 2450 2450 2467 2467 2467 2467 2467 2467 2467 2467 2467 2467 2467 2467 2467 2467 2467 2467 2467 2467 2467 2467 2467 2467 2485 2485 2485 2485 2485 2485 2467 2467 2467 2467 2485 2485 2467 1477 1477 1477 1477 1483 1483 1483 1483 1483 1483 1483 1483 1483 1483 1489 1489 1496 1503 1503 1503 1516 1536 1415 1410 1410 1410 1410 1410 1410 1415 1415 1415 1415 1421 1427 1427 1433 1433 1433 1439 1655 1655 1655 1647 1647 1647 1647 1647 1647 1647 1647 1647 1647 1647 1647 1647 1655 1655 1655 1655 1655 1655 1655 1655 1663 1663 1663 1655 1655 1655 1655 1647 1452 1452 1445 1445 1445 1445 1439 1439 1663 1663 1663 1655 1655 1663 1663 1663 1663 1663 1671 1671 1671 1671 1671 1671 1671 1671 1671 1671 1671 1671 1671 1680 1680 1671 1671 1671 1671 1671 1671 1671 1671 1671 1671 1680 1680 1680 1680 1680 1680 1680 1680 1680 1680 1680 1680 1680 1680 1680 1680 1671 1671 1671 1671 1671 1483 1483 1477 1477 1483 1483 1483 1483 1489 1489 1489 1489 1489 1489 1489 1496 1993 2005 2005 2005 2005 2016 2016 2016 2016 2016 2016 2028 2598 2579 2579 2598 2598 2598 2598 2598 2598 2598 1883 1883 1883 1883 1883 1883 1883 1883 1894 1894 1705 1705 1705 1696 1696 1696 1696 1696 1696 1696 1696 1696 1696 1696 1696 1696 1696 1705 1705 1705 1464 1464 1464 1464 1464 1464 1464 1464 1464 1464 1470 1470 1470 1470 1470 1470 1705 1696 1696 1696 1696 1705 1705 1705 1705 1705 1705 1705 1705 1705 1705 1705 1705 1705 1705 1705 1705 1705 1705 1705 1713 1713 1713 1713 1713 1713 1713 1713 1713 1713 1713 1713 1713 1713 1713 1713 1722 1722 1722 1722 1722 1722 1731 1731 1731 1731 1731 1722 1722 1722 1722 1722 1722 1722 1722 1722 1731 1731 1731 1731 1731 1731 1731 1731 1731 1731 1731 1731 1731 1731 1731 1731 1731 1731 1731 1731 1731 1731 1731 1550 1550 1543 1536 1529 1529 1529 1523 1523 1523 1516 1516 1523 1523 1523 1523 1523 1523 1523 1529 2659 2659 2659 2659 2659 2659 2659 2659 2659 2659 2659 2659 2659 2659 2659 2659 2659 2659 2680 2680 2680 2680 2680 2680 2680 2680 2680 2680 2680 2680 2680 2680 2680 2680 2680 2680 2680 1748 1748 1739 1731 1722 1713 1713 1713 1713 1713 1713 1713 1713 1722 1722 1722 1722 1722 1731 1731 1731 1731 1739 1739 1739 2659 2659 2659 2659 2639 2639 2639 2639 2639 2639 2639 2639 2639 2639 2639 2659 2659 2659 2659 2659 2659 2659 2659 2659 2659 2659 2659 2659 2659 2659 2659 2659 2659 2659 2659 2659 2659 2659 2659 2659 2659 2659 2659 2659 2659 2659 2659 2659 2680 2680 2659 2659 2659 2659 2659 2659 2680 2680 2680 2659 2659 2659 2659 2659 2659 2659 2659 2659 2680 2680 2680 2680 2680 2680 2680 2680 2680 2680 2680 2680 2680 2659 2659 2680 2680 2659 2659 2680 2680 2680 2680 2639 2639 2639 2639 2639 2639 2639 2639 2659 2659 2659 2639 2639 2639 2639 2639 2639 2639 2639 2639 2639 2639 2639 2639 2639 2639 2639 2639 2639 2639 2639 2639 2639 2639 2639 2639 2639 2639 2639 2639 2639 2639 0 0 0 0 0 0 0 0 0 0
0 0 0 0 0 0 0 0 0 0 0 0 0 0 0 0 0 0 0 0 0 0 0 0 0 0 0 0 0 0 0 0 0 2432 2415 2415 2432 2432 2432 2432 2432 2432 2432 2450 2450 2450 2432 2432 2432 2432 2432 2432 2432 2432 2432 2450 2450 2450 2450 2450 2450 2450 2450 2450 2467 2450 2450 2450 2450 2450 2450 2450 2450 2450 2450 2450 2450 2450 2450 2450 2450 2467 2467 2467 2467 2467 2467 2467 2467 2467 2467 2467 2467 2467 2467 2467 2467 2467 2467 2467 2467 2467 2467 2467 2467 2467 2467 2467 2467 2467 2467 2467 1477 1477 1477 1483 1483 1483 1483 1483 1483 1483 1483 1483 1483 1489 1496 1496 1503 1503 1503 1509 1516 1415 1415 1415 1410 1410 1415 1415 1415 1415 1415 1415 1415 1421 1427 1427 1433 1433 1439 1647 1655 1655 1655 1647 1647 1647 1647 1647 1647 1647 1647 1647 1647 1647 1647 1647 1647 1655 1655 1655 1655 1655 1655 1655 1655 1655 1655 1655 1655 1647 1647 1647 1647 1647 1647 1655 1655 1655 1655 1663 1655 1655 1655 1655 1655 1655 1655 1655 1663 1663 1663 1663 1671 1671 1671 1671 1671 1671 1671 1671 1671 1671 1671 1671 1671 1671 1671 1671 1671 1671 1671 1671 1671 1671 1671 1671 1671 1680 1680 1680 1680 1680 1680 1680 1680 1680 1680 1680 1680 1680 1680 1671 1671 1671 1671 1671 1489 1489 1483 1483 1483 1483 1489 1489 1489 1489 1489 1489 1489 1489 1489 1993 1993 2005 2005 2005 2005 2016 2016 2016 2016 2016 2016 2028 2598 2579 2579 2579 2598 2598 2598 2598 2598 2598 1894 1894 1894 1894 1894 1894 1894 1894 1894 1894 1705 1705 1705 1696 1696 1696 1696 1688 1688 1688 1688 1688 1688 1688 1696 1696 1696 1696 1696 1696 1464 1464 1464 1464 1464 1464 1464 1464 1464 1470 1470 1470 1470 1470 1470 1470 1696 1696 1696 1696 1696 1696 1696 1696 1696 1696 1696 1705 1705 1696 1696 1696 1696 1696 1696 1696 1696 1705 1705 1705 1705 1705 1705 1705 1705 1705 1705 1705 1705 1705 1705 1713 1713 1713 1713 1713 1713 1713 1713 1722 1722 1722 1722 1722 1722 1722 1722 1722 1722 1722 1722 1722 1722 1722 1722 1722 1722 1722 1722 1722 1722 1722 1722 1722 1722 1722 1722 1722 1722 1722 1722 1731 1731 1731 1731 1731 1731 1731 1731 1731 1550 1543 1536 1529 1529 1529 1523 1523 1523 1523 1523 1523 1529 1523 1523 1523 1523 1523 1529 1536 2639 2639 2639 2639 2639 2639 2639 2639 2639 2639 2639 2639 2639 2639 2639 2639 2639 2639 2659 2659 2659 2659 2639 2639 2659 2659 2659 2659 2659 2659 2659 2659 2659 2659 2680 2680 1757 1739 1731 1731 1722 1713 1713 1713 1713 1713 1713 1713 1713 1722 1722 1722 1722 1731 1731 1731 1731 1739 1739 1748 2618 2618 2639 2639 2639 2639 2639 2639 2639 2639 2639 2639 2639 2639 2639 2639 2639 2639 2639 2639 2659 2659 2659 2659 2639 2639 2639 2639 2639 2639 2639 2639 2639 2639 2639 2639 2639 2639 2639 2639 2659 2639 2639 2639 2639 2659 2659 2659 2659 2659 2659 2659 2659 2659 2659 2659 2659 2659 2680 2659 2659 2659 2659 2659 2659 2659 2659 2659 2659 2659 2680 2680 2680 2680 2680 2680 2680 2680 2680 2680 2659 2659 2659 2659 2659 2659 2659 2659 2680 2680 2680 2659 2639 2639 2639 2639 2639 2639 2639 2639 2639 2639 2639 2639 2639 2639 2639 2639 2639 2639 2639 2639 2639 2639 2639 2639 2639 2639 2639 2639 2639 2639 2639 2639 2639 2639 2639 2639 2639 2639 2639 2639 2639 2639 0 0 0 0 0 0 0 0 0 0
0 0 0 0 0 0 0 0 0 0 0 0 0 0 0 0 0 0 0 0 0 0 0 0 0 0 0 0 0 0 0 0 0 2415 2415 2415 2415 2415 2415 2415 2415 2415 2415 2432 2432 2432 2432 2432 2432 2432 2432 2432 2432 2432 2432 2432 2432 2432 2432 2432 2432 2432 2432 2432 2432 2432 2432 2432 2450 2450 2450 2450 2450 2450 2450 2450 2450 2450 2450 2450 2450 2450 2450 2450 2450 2450 2467 2467 2467 2450 2450 2467 2467 2467 2467 2467 2467 2467 2467 2467 2467 2467 2467 2467 2467 2467 2467 2467 2450 2450 2450 2450 2450 1483 1483 1483 1483 1483 1483 1483 1483 1483 1483 1483 1483 1489 1496 1496 1503 1503 1503 1509 1516 1415 1415 1415 1410 1410 1415 1415 1415 1415 1415 1415 1421 1427 1427 1433 1433 1439 1445 1647 1647 1655 1655 1647 1647 1647 1647 1647 1647 1639 1639 1639 1647 1647 1647 1647 1647 1647 1647 1647 1647 1647 1647 1647 1647 1647 1655 1647 1647 1647 1647 1647 1647 1647 1647 1655 1655 1655 1655 1655 1647 1647 1647 1647 1647 1647 1647 1655 1655 1655 1663 1663 1663 1663 1663 1663 1663 1671 1671 1671 1671 1671 1671 1671 1671 1671 1663 1663 1663 1663 1663 1663 1663 1663 1671 1671 1671 1671 1671 1671 1671 1671 1671 1671 1671 1671 1671 1671 1671 1671 1671 1663 1663 1671 1671 1671 1671 1489 1483 1483 1489 1489 1489 1489 1489 1489 1489 1489 1489 1489 1489 1993 1993 2005 2005 2005 2016 2016 2016 2016 2016 2016 2016 2028 2579 2579 2579 2579 2579 2579 2579 2579 2579 2598 1894 1894 1894 1894 1894 1894 1894 1894 1894 1894 1705 1705 1705 1696 1696 1696 1688 1680 1680 1680 1680 1680 1680 1680 1688 1688 1696 1696 1696 1483 1470 1464 1464 1464 1464 1464 1464 1464 1470 1470 1470 1470 1470 1470 1470 1470 1688 1688 1688 1688 1696 1696 1696 1696 1696 1696 1696 1696 1696 1696 1696 1696 1696 1696 1696 1696 1696 1696 1696 1696 1696 1696 1696 1705 1705 1705 1705 1705 1705 1705 1705 1705 1705 1705 1705 1705 1705 1705 1705 1713 1713 1713 1722 1722 1722 1722 1722 1722 1722 1713 1713 1713 1713 1713 1713 1722 1722 1713 1713 1722 1722 1722 1722 1713 1713 1722 1722 1722 1713 1713 1722 1722 1722 1722 1722 1722 1722 1722 1731 1731 1557 1543 1536 1536 1529 1529 1529 1529 1529 1529 1529 1529 1529 1529 1529 1523 1523 1529 1529 1536 2639 2639 2639 2639 2639 2639 2618 2618 2618 2618 2618 2618 2639 2639 2639 2639 2639 2639 2639 2639 2639 2659 2639 2639 2639 2639 2639 2639 2639 2639 2639 2639 2639 2659 2659 1776 1757 1739 1731 1722 1722 1713 1713 1713 1713 1713 1713 1713 1722 1722 1722 1722 1722 1731 1731 1739 1739 1739 1748 1748 2598 2598 2618 2639 2639 2618 2618 2618 2618 2639 2639 2639 2639 2639 2639 2639 2639 2639 2639 2639 2639 2639 2639 2639 2639 2639 2618 2618 2618 2618 2618 2618 2618 2618 2639 2639 2639 2639 2639 2639 2639 2639 2639 2639 2639 2639 2639 2639 2639 2639 2659 2659 2659 2659 2659 2659 2659 2659 2659 2659 2659 2659 2659 2659 2659 2659 2659 2659 2659 2659 2659 2659 2680 2680 2680 2680 2680 2680 2680 2680 2659 2659 2659 2659 2659 2659 2659 2659 2659 2659 2659 2659 2639 2639 2639 2639 2639 2639 2639 2639 2639 2639 2639 2639 2639 2639 2639 2639 2639 2639 2639 2639 2639 2639 2639 2639 2639 2639 2639 2639 2639 2618 2618 2618 2618 2618 2618 2618 2618 2618 2618 2618 2618 2618 0 0 0 0 0 0 0 0 0 0
0 0 0 0 0 0 0 0 0 0 0 0 0 0 0 0 0 0 0 0 0 0 0 0 0 0 0 0 0 0 0 0 0 2415 2415 2415 2415 2415 2415 2415 2415 2415 2415 2415 2415 2415 2415 2415 2415 2415 2432 2432 2432 2432 2432 2432 2415 2415 2415 2415 2415 2415 2415 2415 2432 2415 2415 2415 2432 2432 2432 2432 2432 2415 2415 2415 2432 2432 2432 2432 2432 2450 2450 2450 2450 2450 2450 2450 2450 2450 2450 2450 2450 2450 2450 2450 2467 2467 2467 2467 2467 2467 2467 2467 2467 2467 2467 2467 2450 2450 2450 2450 2450 2450 1489 1489 1483 1483 1483 1483 1483 1483 1483 1483 1483 1489 1496 1496 1503 1503 1503 1509 1516 1415 1415 1421 1415 1415 1415 1421 1421 1421 1421 1421 1427 1427 1427 1433 1433 1445 1452 1639 1639 1647 1647 1639 1639 1639 1639 1639 1639 1639 1639 1639 1639 1639 1639 1639 1639 1647 1647 1647 1647 1647 1647 1647 1647 1647 1647 1647 1647 1647 1647 1647 1647 1647 1647 1655 1655 1647 1647 1647 1647 1647 1647 1647 1647 1647 1647 1647 1647 1655 1655 1655 1663 1663 1663 1663 1663 1663 1663 1671 1671 1663 1663 1663 1663 1663 1663 1663 1655 1655 1663 1655 1655 1655 1663 1655 1655 1663 1663 1671 1671 1671 1671 1671 1671 1671 1671 1671 1671 1671 1671 1663 1663 1663 1671 1671 1671 1489 1489 1489 1489 1489 1489 1489 1489 1489 1489 1489 1489 1489 1489 1993 1993 2005 2005 2005 2016 2016 2016 2016 2016 2016 2016 2028 2579 2579 2579 2579 2579 2579 2579 2579 2579 2598 1904 1894 1894 1894 1894 1894 1894 1894 1894 1894 1894 1696 1696 1688 1688 1688 1680 1680 1680 1680 1680 1680 1680 1680 1680 1680 1688 1688 1688 1483 1477 1470 1464 1464 1464 1464 1464 1470 1470 1470 1470 1470 1470 1470 1477 1477 1688 1688 1688 1688 1688 1696 1696 1688 1688 1688 1688 1696 1696 1696 1696 1696 1696 1696 1696 1696 1696 1696 1696 1696 1696 1696 1696 1696 1696 1696 1696 1696 1696 1696 1696 1696 1696 1696 1696 1696 1696 1705 1705 1705 1705 1713 1713 1713 1713 1713 1713 1713 1713 1713 1713 1705 1705 1705 1713 1713 1713 1713 1713 1713 1713 1713 1713 1713 1713 1713 1713 1713 1713 1713 1713 1713 1713 1722 1713 1713 1722 1722 1722 1722 1722 1543 1536 1536 1536 1529 1529 1529 1529 1529 1529 1529 1529 1529 1529 1523 1523 1529 1529 1536 2618 2618 2618 2618 2618 2618 2618 2618 2618 2618 2618 2618 2618 2618 2618 2639 2639 2639 2639 2639 2639 2639 2639 2639 2618 2618 2618 2639 2639 2618 2618 2639 2639 2659 2659 1776 1757 1739 1731 1722 1722 1713 1713 1713 1713 1713 1713 1722 1722 1722 1722 1722 1731 1731 1739 1739 1739 1739 1739 1739 1739 2598 2598 2618 2618 2598 2598 2598 2598 2618 2618 2618 2618 2598 2598 2598 2618 2618 2618 2618 2618 2618 2639 2639 2618 2618 2618 2618 2618 2618 2598 2598 2598 2598 2618 2639 2639 2639 2639 2639 2639 2639 2639 2639 2639 2639 2639 2639 2639 2639 2639 2639 2659 2659 2659 2659 2659 2659 2659 2639 2639 2639 2639 2639 2639 2639 2639 2659 2659 2659 2659 2659 2659 2659 2659 2659 2659 2659 2659 2659 2639 2639 2659 2659 2659 2659 2659 2659 2659 2659 2659 2659 2618 2618 2618 2618 2618 2639 2639 2639 2639 2639 2639 2639 2639 2618 2618 2618 2639 2618 2618 2618 2639 2639 2639 2639 2639 2639 2639 2639 2618 2618 2598 2598 2618 2598 2598 2598 2618 2618 2618 2618 2618 2618 0 0 0 0 0 0 0 0 0 0
0 0 0 0 0 0 0 0 0 0 0 0 0 0 0 0 0 0 0 0 0 0 0 0 0 0 0 0 0 0 0 0 0 2398 2398 2415 2415 2415 2415 2415 2415 2398 2398 2415 2415 2415 2415 2415 2415 2415 2415 2415 2415 2415 2415 2415 2415 2415 2415 2415 2415 2415 2415 2415 2415 2398 2398 2415 2415 2415 2415 2415 2415 2415 2415 2415 2415 2415 2415 2415 2432 2432 2432 2432 2450 2450 2432 2432 2432 2432 2432 2450 2450 2450 2450 2450 2450 2450 2450 2450 2450 2450 2450 2450 2450 2450 2450 2450 2450 2450 2450 2450 2450 0 1489 1489 1483 1483 1483 1483 1483 1489 1483 1483 1489 1489 1496 1496 1503 1503 1509 1509 1516 1529 1421 1421 1421 1421 1421 1421 1421 1421 1427 1427 1427 1427 1427 1433 1433 1439 1632 1639 1639 1639 1639 1632 1632 1639 1639 1639 1639 1639 1639 1639 1639 1639 1639 1639 1639 1639 1639 1639 1639 1639 1647 1647 1647 1647 1647 1647 1647 1647 1647 1647 1647 1647 1647 1647 1647 1647 1647 1647 1639 1639 1647 1647 1647 1647 1647 1647 1647 1647 1647 1647 1647 1655 1655 1655 1655 1655 1655 1663 1663 1663 1663 1663 1663 1655 1655 1655 1655 1655 1655 1655 1655 1655 1655 1655 1655 1655 1663 1663 1663 1663 1663 1671 1663 1663 1671 1671 1671 1671 1671 1663 1663 1663 1663 1663 1663 1489 1489 1489 1489 1489 1489 1489 1496 1496 1496 1496 1489 1489 1496 1993 1993 2005 2016 2016 2016 2016 2016 2016 2016 2016 2016 2016 2560 2560 2560 2560 2560 2560 2560 2560 2560 2560 1904 1894 1894 1894 1894 1894 1894 1894 1894 1894 1894 1696 1696 1680 1680 1680 1671 1671 1671 1671 1671 1671 1671 1671 1671 1680 1680 1680 1680 1489 1477 1470 1464 1464 1470 1470 1470 1470 1470 1470 1470 1470 1470 1470 1477 1477 1688 1688 1688 1688 1688 1688 1688 1688 1688 1688 1688 1688 1688 1688 1688 1688 1688 1688 1688 1688 1696 1688 1688 1688 1688 1688 1688 1688 1696 1696 1696 1696 1696 1696 1696 1696 1696 1696 1696 1696 1696 1696 1696 1696 1696 1696 1705 1705 1705 1705 1696 1696 1696 1705 1705 1705 1705 1705 1705 1705 1705 1705 1705 1705 1713 1713 1713 1705 1705 1713 1713 1713 1705 1705 1705 1705 1705 1713 1713 1713 1713 1722 1713 1713 1722 1550 1543 1536 1536 1536 1529 1529 1529 1529 1529 1529 1536 1529 1529 1529 1529 1529 1529 2618 2618 2618 2618 2618 2618 2618 2618 2618 2618 2618 2618 2618 2618 2618 2618 2618 2618 2618 2618 2618 2618 2618 2618 2618 2618 2618 2618 2618 2618 2618 2618 2618 2618 2618 1776 1776 1766 1757 1739 1731 1722 1713 1713 1713 1713 1713 1722 1722 1722 1722 1731 1731 1731 1731 1731 1739 1739 1739 1739 1739 1731 1731 1748 2598 2618 2598 2598 2598 2598 2598 2598 2618 2598 2598 2598 2598 2598 2598 2598 2598 2598 2598 2598 2598 2598 2598 2598 2598 2598 2598 2598 2598 2598 2598 2598 2618 2618 2618 2618 2618 2639 2639 2618 2618 2618 2639 2639 2639 2639 2639 2639 2639 2639 2639 2639 2639 2659 2659 2639 2639 2639 2639 2639 2639 2639 2639 2639 2639 2659 2659 2659 2659 2659 2639 2639 2639 2639 2639 2639 2639 2639 2639 2639 2639 2639 2639 2639 2639 2639 2639 2639 2639 2598 2598 2598 2618 2618 2618 2618 2618 2618 2618 2618 2618 2618 2598 2598 2618 2618 2598 2598 2618 2618 2618 2639 2639 2639 2639 2639 2618 2598 2598 2579 2579 2598 2598 2598 2598 2598 2598 2598 2598 2598 2598 0 0 0 0 0 0 0 0 0 0
0 0 0 0 0 0 0 0 0 0 0 0 0 0 0 0 0 0 0 0 0 0 0 0 0 0 0 0 0 0 0 0 0 2398 2398 2398 2398 2398 2398 2398 2398 2398 2398 2398 2398 2398 2398 2415 2415 2415 2415 2415 2415 2415 2415 2415 2415 2415 2415 2415 2415 2415 2415 2415 2415 2398 2398 2398 2415 2398 2398 2398 2398 2398 2398 2398 2398 2398 2398 2415 2415 2415 2432 2432 2432 2432 2432 2432 2432 2415 2415 2432 2432 2432 2432 2432 2450 2450 2450 2450 2450 2450 2450 2450 2450 2450 2450 2450 2450 2450 2450 2450 2450 2467 1489 1489 1489 1483 1483 1489 1489 1489 1483 1483 1489 1489 1496 1496 1503 1503 1509 1509 1516 1529 1421 1421 1421 1421 1421 1421 1427 1427 1427 1427 1427 1427 1433 1433 1433 1439 1632 1632 1632 1632 1632 1624 1624 1632 1632 1632 1632 1632 1632 1632 1632 1632 1632 1639 1639 1639 1639 1639 1639 1639 1639 1639 1639 1647 1647 1647 1647 1647 1647 1647 1647 1647 1647 1647 1647 1639 1639 1639 1639 1639 1639 1639 1639 1639 1639 1639 1647 1647 1647 1647 1647 1647 1647 1647 1647 1655 1655 1655 1655 1655 1655 1655 1655 1647 1647 1647 1647 1647 1647 1647 1647 1647 1647 1647 1647 1655 1655 1655 1655 1655 1655 1663 1663 1663 1663 1663 1663 1663 1663 1655 1655 1663 1663 1663 1663 1489 1489 1489 1496 1496 1496 1496 1496 1496 1496 1496 1496 1496 1981 1981 1993 2005 2016 2016 2016 2016 2016 2028 2016 2016 2016 2016 2541 2541 2560 2560 2560 2560 2560 2560 2560 2560 1904 1894 1894 1894 1894 1894 1894 1894 1894 1894 1894 1688 1688 1680 1671 1671 1671 1671 1671 1671 1671 1671 1671 1671 1671 1671 1671 1671 1671 1489 1477 1470 1470 1470 1470 1470 1470 1470 1470 1470 1477 1477 1477 1477 1477 1477 1483 1680 1680 1680 1680 1680 1680 1680 1680 1680 1680 1688 1688 1688 1688 1688 1688 1688 1688 1688 1688 1688 1688 1688 1688 1688 1688 1688 1688 1688 1688 1688 1688 1688 1688 1688 1688 1688 1696 1696 1696 1696 1696 1696 1696 1696 1696 1696 1696 1696 1696 1696 1696 1696 1696 1696 1696 1696 1705 1705 1696 1696 1696 1705 1705 1705 1705 1705 1705 1705 1705 1705 1696 1696 1705 1705 1705 1705 1705 1705 1705 1713 1713 1713 1713 1550 1543 1536 1536 1536 1536 1536 1536 1536 1536 1536 1536 1536 1529 1529 1529 1529 1536 2618 2618 2618 2618 2618 2618 2618 2618 2618 2618 2618 2618 2618 2618 2618 2618 2618 2618 2618 2618 2618 2618 2618 2618 2598 2598 2598 2598 2618 2618 2618 2618 2618 2618 2618 1766 1766 1757 1748 1739 1731 1722 1713 1713 1713 1713 1722 1722 1722 1722 1722 1731 1731 1731 1731 1731 1739 1739 1739 1739 1739 1731 1731 1748 2598 2598 2598 2598 2598 2598 2598 2598 2598 2598 2598 2598 2598 2579 2579 2579 2579 2598 2598 2598 2598 2598 2598 2598 2598 2598 2598 2598 2598 2598 2598 2598 2618 2598 2598 2618 2618 2618 2618 2618 2618 2618 2618 2618 2618 2598 2598 2598 2598 2618 2618 2618 2618 2618 2618 2618 2618 2618 2598 2598 2618 2618 2618 2618 2639 2639 2639 2639 2639 2639 2639 2618 2618 2618 2618 2618 2618 2618 2618 2618 2618 2618 2639 2639 2639 2639 2639 2618 2618 2598 2598 2598 2598 2618 2618 2618 2618 2618 2618 2618 2598 2598 2598 2598 2598 2598 2598 2598 2598 2598 2618 2639 2618 2618 2618 2618 2598 2598 2579 2579 2579 2579 2598 2598 2598 2598 2598 2598 2598 2598 2598 0 0 0 0 0 0 0 0 0 0
0 0 0 0 0 0 0 0 0 0 0 0 0 0 0 0 0 0 0 0 0 0 0 0 0 0 0 0 0 0 0 0 0 2381 2381 2398 2398 2398 2398 2398 2398 2398 2381 2381 2381 2381 2398 2398 2398 2398 2415 2415 2415 2415 2415 2415 2415 2398 2398 2398 2398 2398 2415 2415 2415 2398 2398 2398 2398 2398 2398 2398 2398 2398 2398 2398 2398 2398 2398 2415 2415 2415 2415 2415 2415 2432 2415 2415 2415 2415 2415 2415 2415 2415 2415 2415 2415 2415 2432 2432 2432 2432 2432 2450 2450 2450 2450 2450 2450 2450 2450 2450 2467 2467 1489 1489 1489 1489 1489 1489 1489 1489 1489 1489 1489 1489 1496 1496 1503 1503 1509 1516 1516 1523 1421 1421 1421 1421 1427 1427 1427 1427 1427 1427 1427 1433 1433 1433 1433 1433 1433 1616 1624 1624 1624 1616 1616 1616 1616 1616 1616 1616 1624 1624 1624 1624 1624 1624 1624 1632 1632 1632 1639 1639 1639 1639 1639 1639 1639 1639 1639 1639 1639 1639 1639 1639 1639 1639 1639 1632 1632 1632 1632 1632 1632 1639 1639 1639 1639 1639 1639 1639 1639 1639 1639 1639 1639 1647 1647 1647 1647 1647 1647 1647 1647 1647 1647 1647 1647 1647 1647 1647 1647 1647 1647 1647 1647 1647 1647 1647 1647 1647 1647 1647 1655 1655 1655 1655 1655 1655 1655 1655 1655 1655 1655 1655 1655 1663 1663 1489 1489 1489 1496 1496 1496 1496 1496 1496 1496 1496 1503 1503 1981 1981 1993 2005 2016 2016 2016 2016 2016 2028 2016 2016 2016 2016 2541 2541 2541 2541 2541 2560 2560 2560 2560 2579 1904 1904 1894 1894 1894 1894 1904 1904 1904 1904 1915 1915 1680 1671 1671 1671 1671 1663 1663 1663 1663 1663 1671 1671 1671 1671 1671 1671 1671 1489 1477 1477 1470 1470 1470 1470 1470 1470 1470 1470 1477 1477 1477 1477 1477 1477 1483 1671 1671 1671 1671 1671 1671 1671 1671 1671 1671 1680 1680 1680 1680 1680 1688 1688 1680 1680 1688 1680 1680 1680 1680 1680 1688 1688 1688 1688 1688 1688 1688 1688 1688 1688 1688 1688 1688 1688 1696 1696 1696 1696 1688 1688 1688 1688 1688 1688 1688 1688 1688 1696 1696 1696 1696 1696 1696 1696 1696 1696 1696 1696 1696 1696 1696 1696 1696 1705 1705 1705 1696 1696 1696 1696 1696 1696 1696 1696 1705 1705 1705 1705 1713 1550 1543 1536 1536 1536 1536 1536 1536 1536 1536 1536 1536 1536 1536 1536 1536 1536 1536 2618 2598 2598 2598 2598 2598 2598 2598 2598 2598 2598 2598 2598 2618 2618 2618 2618 2618 2618 2618 2618 2618 2618 2598 2598 2598 2598 2598 2598 2598 2618 2618 2618 2618 2618 1757 1757 1748 1748 1739 1731 1722 1722 1713 1713 1713 1722 1722 1722 1722 1722 1731 1731 1739 1739 1739 1739 1739 1739 1739 1739 1739 1739 1748 2598 2598 2598 2598 2598 2598 2598 2598 2598 2598 2598 2598 2579 2579 2579 2579 2579 2579 2579 2579 2579 2579 2579 2579 2579 2579 2579 2579 2579 2579 2579 2598 2598 2598 2598 2598 2598 2598 2598 2598 2598 2598 2598 2598 2598 2598 2598 2598 2598 2598 2598 2598 2598 2618 2618 2598 2598 2598 2598 2598 2598 2598 2598 2598 2618 2618 2618 2618 2618 2618 2618 2598 2598 2598 2598 2598 2598 2598 2598 2598 2598 2598 2618 2618 2618 2618 2618 2598 2598 2579 2579 2579 2598 2598 2598 2598 2598 2598 2598 2598 2579 2579 2579 2579 2579 2579 2579 2579 2579 2579 2598 2618 2598 2598 2579 2579 2579 2579 2579 2579 2579 2579 2579 2579 2598 2598 2598 2598 2598 2598 2598 0 0 0 0 0 0 0 0 0 0
0 0 0 0 0 0 0 0 0 0 0 0 0 0 0 0 0 0 0 0 0 0 0 0 0 0 0 0 0 0 0 0 0 2381 2381 2381 2398 2398 2398 2381 2381 2381 2381 2381 2381 2381 2381 2398 2398 2398 2398 2415 2415 2415 2398 2398 2415 2398 2398 2398 2398 2398 2415 2415 2415 2398 2398 2398 2398 2398 2398 2398 2398 2398 2398 2398 2398 2398 2398 2398 2398 2415 2415 2415 2415 2415 2398 2398 2398 2398 2398 2398 2415 2415 2415 2415 2398 2398 2415 2415 2415 2415 2432 2432 2450 2450 2450 2450 2450 2450 2450 2467 2467 2467 1496 1496 1489 1489 1489 1496 1496 1489 1489 1489 1489 1496 1496 1503 1503 1503 1509 1516 1516 1523 1523 1421 1421 1421 1427 1427 1427 1427 1427 1427 1427 1433 1433 1433 1433 1433 1433 1616 1616 1624 1624 1616 1616 1616 1616 1616 1616 1616 1616 1616 1616 1616 1616 1616 1616 1616 1616 1616 1624 1624 1624 1624 1632 1632 1632 1632 1632 1632 1632 1632 1632 1632 1632 1632 1632 1632 1632 1624 1624 1624 1624 1632 1632 1632 1632 1632 1639 1639 1639 1639 1639 1639 1639 1639 1647 1647 1647 1647 1647 1639 1639 1639 1639 1639 1639 1639 1639 1647 1647 1647 1647 1647 1647 1647 1647 1647 1647 1647 1647 1647 1647 1647 1647 1647 1647 1647 1647 1647 1647 1647 1647 1647 1647 1655 1663 1489 1489 1489 1496 1496 1496 1496 1496 1503 1503 1503 1516 1516 1516 2005 2005 2016 2016 2016 2016 2016 2016 2028 2016 2016 2016 2016 2522 2522 2541 2522 2522 2541 2541 2560 2560 2560 2560 1904 1904 1894 1894 1894 1904 1904 1904 1904 1915 1926 1680 1671 1671 1671 1671 1663 1663 1663 1663 1663 1663 1671 1671 1671 1671 1671 1671 1489 1477 1477 1477 1477 1477 1477 1477 1477 1477 1477 1477 1483 1477 1477 1477 1483 1663 1663 1663 1663 1663 1663 1663 1663 1663 1663 1663 1671 1671 1671 1671 1671 1680 1680 1671 1671 1680 1680 1680 1671 1671 1680 1680 1680 1680 1680 1680 1680 1680 1680 1680 1680 1688 1688 1688 1688 1688 1688 1688 1688 1688 1688 1688 1680 1680 1680 1680 1688 1688 1688 1688 1688 1688 1688 1696 1688 1688 1688 1688 1688 1688 1696 1696 1696 1696 1696 1696 1696 1696 1696 1696 1696 1696 1696 1696 1696 1696 1696 1696 1705 1713 1550 1543 1543 1536 1536 1536 1536 1536 1536 1536 1536 1536 1543 1536 1536 1536 1536 1543 2598 2579 2579 2598 2598 2598 2598 2598 2598 2598 2598 2598 2598 2598 2598 2598 2618 2618 2618 2618 2598 2598 2598 2598 2598 2598 2598 2598 2598 2598 2598 2598 2598 2598 2598 1757 1757 1748 1748 1739 1731 1722 1722 1722 1722 1722 1722 1722 1722 1731 1731 1731 1731 1739 1739 1739 1739 1739 1739 1739 1739 1739 1739 2579 2598 2598 2579 2579 2579 2579 2579 2579 2579 2579 2579 2579 2579 2579 2579 2579 2579 2579 2579 2579 2579 2579 2579 2579 2579 2579 2579 2579 2579 2579 2579 2579 2598 2598 2598 2598 2598 2598 2598 2598 2598 2598 2598 2598 2598 2598 2598 2598 2598 2598 2598 2598 2598 2598 2598 2598 2598 2598 2598 2598 2598 2598 2598 2598 2598 2598 2598 2598 2598 2598 2598 2598 2598 2598 2598 2598 2598 2598 2598 2598 2598 2598 2598 2598 2598 2598 2598 2598 2598 2579 2579 2579 2598 2598 2579 2579 2579 2579 2579 2579 2579 2579 2579 2579 2579 2579 2579 2579 2579 2579 2579 2598 2579 2579 2579 2579 2579 2579 2579 2560 2560 2579 2579 2579 2579 2579 2579 2579 2579 2579 2579 0 0 0 0 0 0 0 0 0 0
0 0 0 0 0 0 0 0 0 0 0 0 0 0 0 0 0 0 0 0 0 0 0 0 0 0 0 0 0 0 0 0 0 2365 2365 2365 2381 2381 2381 2365 2365 2365 2381 2365 2365 2365 2365 2365 2381 2381 2381 2398 2398 2398 2398 2398 2398 2398 2398 2398 2398 2398 2398 2398 2398 2381 2381 2398 2398 2398 2398 2381 2381 2398 2381 2381 2381 2398 2398 2398 2398 2398 2398 2398 2398 2398 2398 2398 2398 2398 2398 2398 2398 2398 2398 2398 2398 2398 2398 2398 2398 2415 2415 2432 2432 2432 2432 2432 2432 2450 2450 2450 2450 2450 1496 1496 1496 1496 1496 1496 1496 1489 1489 1489 1496 1496 1496 1503 1503 1503 1509 1516 1523 1529 1529 1421 1421 1421 1427 1427 1427 1427 1433 1433 1433 1433 1433 1433 1433 1433 1433 1616 1616 1616 1616 1609 1609 1609 1609 1609 1609 1609 1609 1609 1609 1609 1609 1609 1609 1609 1616 1616 1616 1616 1616 1616 1624 1624 1624 1624 1624 1624 1624 1624 1624 1624 1624 1624 1624 1624 1624 1616 1616 1616 1624 1624 1624 1624 1624 1624 1624 1632 1632 1632 1632 1632 1632 1632 1632 1632 1632 1632 1632 1632 1632 1632 1632 1632 1639 1639 1639 1639 1639 1639 1639 1639 1639 1639 1639 1647 1647 1647 1647 1647 1647 1647 1647 1647 1647 1647 1647 1647 1647 1639 1639 1639 1639 1647 1496 1489 1489 1496 1496 1496 1496 1503 1503 1503 1509 1509 1516 1516 1516 2005 2005 2016 2016 2016 2016 2016 2016 2028 2016 2016 2016 2016 2503 2503 2522 2522 2522 2522 2522 2522 2522 2560 1915 1904 1904 1894 1894 1894 1904 1904 1904 1915 1915 1926 1671 1671 1671 1671 1663 1663 1663 1663 1663 1663 1663 1663 1663 1663 1671 1671 1671 1483 1477 1477 1477 1477 1477 1477 1477 1477 1477 1477 1483 1483 1483 1483 1483 1483 1655 1655 1655 1655 1663 1663 1655 1655 1655 1655 1663 1663 1663 1663 1663 1663 1663 1663 1663 1663 1671 1671 1671 1671 1671 1671 1671 1671 1671 1680 1680 1680 1671 1671 1680 1680 1680 1680 1680 1680 1688 1688 1688 1680 1680 1680 1671 1671 1671 1680 1680 1680 1680 1688 1688 1688 1688 1688 1688 1688 1680 1680 1688 1688 1688 1688 1688 1688 1696 1696 1696 1696 1688 1688 1688 1688 1688 1688 1688 1688 1696 1696 1572 1572 1564 1550 1543 1543 1536 1536 1536 1536 1536 1536 1536 1536 1536 1543 1543 1543 1543 2598 2579 2560 2560 2560 2579 2579 2579 2579 2579 2598 2598 2598 2598 2598 2598 2598 2598 2598 2598 2598 2598 2598 2598 2598 2579 2579 2579 2579 2579 2598 2598 2598 2598 2598 2598 2598 1757 1757 1748 1748 1739 1731 1722 1722 1722 1722 1722 1722 1731 1731 1731 1731 1731 1739 1739 1739 1739 1739 1748 1739 1739 1739 1739 2560 2560 2579 2598 2579 2579 2579 2579 2579 2579 2579 2579 2579 2579 2579 2579 2579 2579 2579 2579 2579 2579 2579 2579 2579 2579 2579 2579 2579 2579 2579 2579 2579 2579 2579 2579 2579 2579 2598 2598 2598 2598 2579 2579 2598 2598 2598 2598 2579 2579 2579 2579 2579 2579 2579 2579 2579 2579 2579 2579 2579 2598 2598 2598 2598 2598 2598 2598 2598 2598 2598 2598 2598 2579 2579 2598 2579 2579 2579 2598 2598 2598 2598 2598 2598 2598 2598 2598 2598 2598 2598 2579 2579 2579 2579 2579 2579 2579 2579 2579 2579 2579 2579 2579 2579 2579 2579 2560 2560 2560 2560 2560 2560 2560 2560 2560 2560 2560 2560 2560 2560 2560 2560 2560 2560 2579 2579 2579 2579 2560 2560 2560 2560 0 0 0 0 0 0 0 0 0 0
0 0 0 0 0 0 0 0 0 0 0 0 0 0 0 0 0 0 0 0 0 0 0 0 0 0 0 0 0 0 0 0 0 2365 2365 2365 2365 2365 2365 2365 2365 2365 2381 2365 2365 2365 2365 2365 2365 2365 2365 2381 2381 2381 2381 2381 2381 2381 2381 2381 2381 2381 2398 2398 2398 2381 2381 2381 2381 2381 2381 2381 2381 2381 2381 2381 2381 2381 2381 2398 2398 2398 2398 2398 2398 2398 2381 2381 2381 2381 2381 2398 2398 2398 2398 2398 2398 2398 2398 2398 2398 2398 2398 2415 2415 2432 2432 2432 2432 2450 2450 2450 2450 2450 1496 1496 1496 1496 1496 1496 1496 1496 1496 1496 1496 1496 1503 1503 1503 1503 1509 1516 1523 1529 1529 1529 1427 1427 1427 1427 1433 1433 1433 1433 1433 1433 1433 1433 1433 1433 1433 1616 1616 1616 1616 1609 1609 1609 1609 1609 1609 1609 1609 1609 1609 1609 1609 1609 1609 1609 1609 1609 1609 1616 1616 1616 1616 1616 1616 1616 1616 1616 1616 1616 1616 1616 1616 1616 1616 1616 1616 1616 1616 1616 1616 1616 1616 1616 1624 1624 1624 1624 1624 1624 1624 1624 1624 1624 1624 1624 1624 1624 1624 1624 1624 1624 1632 1632 1632 1632 1632 1639 1639 1639 1639 1639 1639 1639 1639 1639 1639 1639 1639 1639 1639 1639 1639 1639 1639 1639 1639 1639 1639 1632 1632 1632 1632 1639 1496 1489 1489 1496 1496 1503 1503 1503 1503 1503 1509 1509 1516 1516 1523 2005 2005 2016 2016 2016 2016 2016 2028 2028 2016 2016 2016 2503 2503 2503 2522 2503 2503 2522 2522 2522 2522 2522 1915 1904 1904 1894 1894 1894 1904 1904 1904 1915 1915 1915 1671 1671 1671 1671 1663 1655 1655 1655 1655 1655 1655 1655 1663 1663 1663 1663 1663 1483 1483 1477 1477 1477 1477 1477 1477 1477 1483 1483 1483 1483 1483 1489 1489 1647 1655 1655 1655 1655 1655 1655 1655 1655 1655 1655 1655 1655 1655 1655 1655 1655 1663 1663 1663 1663 1663 1663 1663 1663 1663 1663 1663 1671 1671 1671 1671 1671 1671 1671 1671 1671 1671 1671 1680 1680 1680 1680 1680 1680 1671 1671 1671 1671 1671 1680 1680 1680 1680 1680 1680 1680 1680 1680 1680 1680 1680 1680 1680 1680 1680 1680 1688 1688 1688 1688 1688 1688 1688 1688 1680 1680 1688 1688 1688 1688 1688 1696 1572 1572 1564 1557 1550 1543 1543 1543 1543 1543 1543 1543 1543 1543 1543 1543 1543 1543 1543 2579 2560 2560 2560 2560 2560 2560 2560 2560 2560 2579 2579 2579 2579 2598 2598 2598 2598 2598 2598 2598 2598 2598 2579 2579 2579 2579 2579 2579 2579 2579 2579 2579 2598 2598 2598 2598 1757 1757 1748 1748 1739 1731 1731 1722 1722 1722 1722 1722 1731 1731 1731 1731 1731 1739 1739 1739 1739 1739 1748 1739 1739 1739 2560 2560 2560 2560 2560 2560 2560 2579 2579 2579 2579 2579 2579 2579 2579 2579 2579 2579 2579 2579 2560 2560 2560 2560 2579 2560 2560 2579 2579 2579 2579 2579 2579 2579 2579 2579 2579 2579 2579 2579 2579 2579 2579 2579 2579 2579 2579 2579 2579 2579 2579 2579 2579 2579 2560 2560 2560 2560 2579 2579 2579 2579 2579 2579 2579 2579 2579 2579 2579 2579 2579 2579 2579 2579 2579 2579 2579 2579 2579 2579 2579 2579 2579 2598 2598 2579 2579 2579 2579 2579 2579 2579 2560 2560 2560 2579 2579 2560 2560 2560 2579 2579 2579 2579 2560 2560 2560 2560 2560 2560 2541 2541 2541 2522 2522 2522 2541 2541 2541 2541 2560 2560 2560 2560 2560 2560 2560 2541 2541 2541 2541 2541 2541 2541 0 0 0 0 0 0 0 0 0 0
0 0 0 0 0 0 0 0 0 0 0 0 0 0 0 0 0 0 0 0 0 0 0 0 0 0 0 0 0 0 0 0 0 2349 2349 2365 2365 2365 2365 2365 2365 2365 2365 2365 2349 2349 2349 2365 2365 2365 2365 2381 2381 2381 2381 2381 2381 2381 2381 2381 2381 2381 2381 2381 2381 2365 2365 2381 2381 2381 2381 2365 2365 2381 2381 2381 2381 2381 2381 2381 2381 2381 2381 2381 2381 2381 2381 2381 2381 2381 2381 2381 2398 2398 2398 2398 2398 2398 2398 2398 2398 2398 2398 2398 2398 2415 2415 2415 2432 2432 2450 2450 2450 2450 1496 1496 1496 1496 1496 1496 1496 1496 1496 1496 1503 1503 1503 1503 1503 1509 1509 1516 1523 1523 1529 1536 1427 1427 1427 1427 1433 1433 1433 1433 1433 1433 1433 1433 1433 1433 1433 1616 1609 1609 1609 1601 1601 1601 1601 1601 1609 1609 1609 1609 1609 1609 1609 1609 1609 1609 1609 1609 1609 1609 1616 1616 1616 1616 1616 1616 1616 1616 1616 1609 1609 1616 1616 1616 1609 1609 1609 1609 1609 1609 1616 1616 1616 1616 1616 1616 1616 1616 1616 1624 1624 1624 1624 1616 1616 1616 1624 1616 1616 1616 1616 1616 1624 1624 1624 1624 1632 1632 1632 1632 1632 1632 1632 1632 1632 1632 1632 1632 1632 1632 1632 1632 1632 1632 1632 1632 1632 1639 1639 1632 1632 1632 1632 1632 1496 1489 1489 1503 1503 1503 1503 1503 1503 1509 1509 1509 1516 1516 1523 2005 2005 2016 2016 2016 2016 2028 2028 2028 2028 2028 2028 2503 2503 2503 2503 2503 2503 2503 2503 2503 2503 2503 1926 1915 1904 1904 1904 1904 1904 1904 1904 1915 1915 1915 1688 1671 1671 1671 1663 1655 1655 1647 1647 1647 1647 1647 1647 1655 1663 1655 1655 1483 1483 1483 1483 1483 1483 1477 1477 1483 1483 1483 1489 1489 1489 1489 1489 1639 1647 1647 1647 1647 1647 1647 1647 1647 1647 1655 1655 1655 1655 1655 1655 1655 1655 1655 1655 1655 1655 1655 1655 1663 1663 1663 1663 1663 1663 1663 1663 1663 1663 1663 1663 1663 1663 1671 1671 1671 1671 1671 1671 1671 1671 1671 1671 1671 1671 1671 1671 1671 1671 1671 1671 1680 1680 1680 1680 1671 1671 1671 1680 1671 1671 1680 1680 1680 1688 1688 1680 1680 1680 1680 1671 1671 1680 1680 1680 1680 1688 1688 1572 1572 1564 1557 1550 1543 1543 1543 1543 1543 1543 1543 1550 1543 1543 1550 1550 1557 1557 2579 2560 2541 2541 2541 2541 2560 2560 2560 2560 2560 2560 2560 2560 2560 2560 2579 2579 2579 2579 2579 2579 2579 2579 2579 2579 2579 2560 2560 2560 2560 2560 2560 2579 2579 2579 2579 1766 1766 1757 1757 1748 1739 1731 1731 1731 1731 1731 1731 1731 1731 1731 1731 1739 1739 1739 1739 1739 1748 1748 1748 1748 1748 2541 2541 2541 2560 2560 2560 2560 2560 2560 2560 2560 2560 2560 2560 2560 2560 2560 2560 2560 2560 2560 2560 2560 2560 2560 2560 2560 2560 2560 2560 2560 2560 2560 2560 2560 2560 2579 2579 2579 2579 2579 2579 2579 2560 2560 2579 2560 2560 2579 2579 2560 2560 2560 2560 2560 2560 2560 2560 2560 2579 2579 2579 2579 2579 2579 2579 2579 2579 2579 2579 2579 2579 2579 2579 2579 2579 2579 2579 2579 2579 2579 2579 2579 2579 2579 2579 2579 2579 2579 2579 2579 2579 2560 2560 2560 2560 2560 2560 2560 2560 2560 2560 2560 2560 2560 2560 2560 2560 2541 2541 2541 2522 2522 2522 2522 2522 2522 2522 2541 2541 2560 2560 2560 2541 2541 2541 2541 2522 2522 2522 2522 2522 2522 2522 0 0 0 0 0 0 0 0 0 0
0 0 0 0 0 0 0 0 0 0 0 0 0 0 0 0 0 0 0 0 0 0 0 0 0 0 0 0 0 0 0 0 0 2349 2349 2349 2365 2365 2365 2365 2365 2365 2365 2349 2349 2349 2349 2349 2349 2349 2365 2365 2381 2381 2381 2381 2381 2381 2381 2365 2365 2365 2365 2365 2365 2349 2349 2365 2365 2365 2365 2365 2365 2365 2365 2365 2365 2381 2381 2381 2381 2381 2381 2381 2381 2381 2381 2381 2381 2381 2381 2381 2381 2381 2381 2381 2381 2398 2398 2398 2398 2398 2398 2398 2398 2398 2398 2398 2415 2432 2450 2450 2450 2450 1496 1496 1496 1496 1503 1503 1503 1503 1503 1503 1503 1503 1503 1503 1503 1509 1509 1516 1523 1523 1523 1536 1536 1433 1433 1433 1433 1433 1433 1433 1433 1433 1433 1439 1439 1439 1439 1439 1609 1601 1601 1594 1594 1594 1594 1594 1601 1601 1601 1601 1601 1601 1601 1601 1601 1601 1601 1601 1601 1609 1609 1609 1609 1609 1609 1609 1609 1609 1609 1609 1609 1609 1609 1609 1609 1609 1609 1609 1609 1609 1609 1609 1609 1609 1616 1616 1616 1616 1616 1616 1616 1616 1616 1616 1616 1616 1616 1616 1616 1616 1616 1616 1616 1616 1616 1616 1616 1624 1624 1624 1624 1624 1624 1624 1624 1624 1624 1624 1624 1624 1624 1624 1632 1632 1632 1632 1632 1632 1632 1624 1624 1624 1624 1624 1496 1496 1496 1503 1503 1509 1509 1509 1509 1509 1516 1516 1516 1516 1523 2005 2005 2016 2016 2016 2016 2028 2028 2028 2028 2028 2028 2485 2485 2485 2485 2485 2485 2503 2503 2485 2485 2485 1926 1915 1915 1915 1915 1915 1915 1915 1915 1915 1915 1915 1688 1680 1671 1671 1663 1655 1647 1647 1647 1647 1647 1647 1647 1647 1655 1655 1655 1483 1483 1483 1483 1483 1483 1483 1483 1483 1489 1489 1489 1489 1489 1489 1489 1639 1639 1639 1639 1639 1639 1647 1647 1647 1647 1647 1647 1647 1647 1647 1647 1647 1647 1647 1647 1647 1655 1647 1647 1655 1655 1655 1655 1655 1663 1663 1663 1663 1663 1663 1663 1663 1663 1663 1663 1663 1663 1663 1663 1663 1663 1663 1663 1663 1663 1671 1671 1663 1663 1671 1671 1671 1671 1671 1671 1671 1671 1671 1671 1671 1671 1671 1680 1680 1680 1680 1671 1671 1671 1671 1671 1671 1671 1671 1671 1671 1680 1579 1572 1572 1564 1557 1550 1543 1543 1543 1543 1543 1543 1550 1550 1550 1550 1557 1557 1564 1564 2541 2541 2541 2541 2541 2541 2541 2541 2541 2560 2560 2560 2560 2560 2560 2560 2560 2560 2560 2560 2579 2579 2560 2560 2560 2560 2560 2560 2560 2560 2560 2560 2560 2560 2560 2560 2560 1766 1766 1757 1757 1748 1739 1739 1739 1731 1731 1731 1731 1731 1739 1739 1739 1739 1739 1748 1748 1748 1748 1722 1722 1722 1748 2541 2541 2541 2541 2541 2541 2541 2541 2541 2541 2541 2541 2541 2541 2541 2541 2541 2541 2541 2541 2541 2541 2541 2541 2541 2541 2541 2541 2541 2560 2560 2541 2541 2541 2560 2560 2560 2560 2560 2579 2579 2560 2560 2560 2560 2560 2560 2560 2560 2560 2560 2560 2560 2560 2560 2560 2560 2560 2560 2560 2579 2579 2579 2579 2579 2579 2560 2560 2560 2560 2579 2560 2560 2560 2560 2560 2560 2560 2560 2579 2579 2579 2579 2579 2579 2579 2579 2579 2579 2579 2579 2560 2560 2560 2560 2560 2541 2541 2541 2541 2560 2560 2541 2541 2541 2541 2560 2541 2522 2522 2522 2522 2503 2503 2503 2503 2522 2522 2541 2541 2541 2560 2560 2541 2541 2541 2541 2503 2503 2503 2503 2503 2503 2503 0 0 0 0 0 0 0 0 0 0
0 0 0 0 0 0 0 0 0 0 0 0 0 0 0 0 0 0 0 0 0 0 0 0 0 0 0 0 0 0 0 0 0 2349 2349 2349 2349 2349 2349 2349 2349 2349 2365 2349 2349 2349 2349 2349 2349 2349 2349 2365 2365 2365 2365 2365 2365 2365 2365 2365 2365 2365 2365 2365 2365 2349 2349 2349 2349 2349 2349 2349 2349 2365 2365 2365 2365 2381 2381 2381 2381 2381 2381 2381 2381 2381 2365 2365 2365 2381 2381 2381 2381 2381 2381 2381 2381 2381 2381 2381 2381 2398 2398 2398 2398 2398 2398 2398 2398 2415 2432 2450 2450 2450 1496 1496 1496 1496 1503 1503 1503 1503 1503 1503 1503 1503 1503 1503 1509 1509 1509 1516 1516 1523 1523 1529 1529 1433 1433 1433 1433 1433 1433 1433 1433 1433 1439 1439 1439 1439 1439 1439 1601 1601 1594 1594 1594 1594 1594 1594 1594 1594 1601 1594 1594 1594 1594 1594 1594 1594 1601 1601 1601 1601 1601 1601 1609 1609 1609 1609 1609 1609 1609 1609 1609 1609 1609 1609 1609 1609 1609 1609 1609 1609 1609 1609 1609 1609 1609 1616 1616 1616 1616 1616 1616 1609 1609 1609 1609 1609 1616 1616 1616 1616 1616 1616 1616 1616 1616 1616 1616 1616 1624 1624 1624 1624 1624 1624 1624 1616 1616 1616 1616 1616 1616 1624 1624 1624 1624 1632 1632 1632 1624 1624 1616 1616 1616 1616 1496 1496 1503 1509 1509 1509 1509 1516 1516 1516 1516 1516 1516 1516 1516 2016 2016 2016 2016 2028 2028 2028 2028 2028 2028 2028 2028 2485 2485 2485 2485 2485 2485 2485 2485 2485 2485 2485 1926 1915 1915 1915 1915 1915 1915 1915 1915 1926 1926 1926 1688 1680 1671 1671 1663 1655 1647 1639 1639 1639 1632 1632 1632 1639 1639 1639 1483 1483 1483 1483 1483 1483 1483 1483 1483 1483 1489 1489 1489 1489 1489 1489 1489 1632 1632 1632 1639 1639 1639 1639 1639 1639 1647 1647 1647 1639 1639 1639 1639 1639 1639 1639 1647 1647 1647 1647 1647 1647 1647 1647 1647 1655 1655 1655 1655 1655 1655 1655 1663 1663 1663 1663 1663 1663 1663 1663 1663 1663 1663 1663 1663 1663 1663 1663 1663 1663 1663 1663 1663 1663 1663 1663 1663 1663 1663 1663 1663 1663 1671 1671 1671 1671 1671 1671 1663 1663 1663 1663 1663 1663 1663 1663 1663 1663 1601 1579 1572 1572 1564 1557 1550 1550 1543 1543 1543 1543 1550 1550 1550 1550 1550 1557 1564 1564 1564 2541 2541 2541 2541 2541 2541 2541 2541 2541 2541 2541 2541 2541 2541 2541 2541 2541 2541 2541 2541 2560 2560 2560 2560 2560 2560 2560 2560 2560 2560 2560 2541 2541 2541 2541 2541 2541 1766 1766 1766 1757 1748 1748 1739 1739 1739 1739 1739 1739 1739 1739 1739 1739 1739 1748 1748 1748 1748 1748 1722 1722 1722 2522 2522 2522 2541 2541 2541 2541 2541 2541 2541 2541 2541 2541 2522 2522 2522 2522 2522 2522 2522 2522 2522 2522 2522 2522 2522 2522 2522 2522 2522 2541 2541 2541 2541 2541 2541 2560 2560 2560 2560 2560 2560 2560 2560 2541 2541 2560 2541 2541 2541 2541 2541 2541 2541 2541 2541 2541 2541 2541 2560 2560 2579 2579 2579 2560 2560 2560 2560 2541 2541 2541 2560 2541 2541 2541 2560 2560 2541 2541 2541 2560 2560 2560 2560 2579 2579 2579 2579 2560 2560 2560 2560 2560 2541 2541 2541 2541 2541 2541 2541 2541 2541 2541 2541 2541 2541 2541 2541 2541 2522 2522 2522 2522 2503 2503 2503 2503 2522 2522 2522 2522 2522 2541 2541 2541 2541 2522 2522 2503 2503 2503 2503 2503 2503 2503 0 0 0 0 0 0 0 0 0 0
0 0 0 0 0 0 0 0 0 0 0 0 0 0 0 0 0 0 0 0 0 0 0 0 0 0 0 0 0 0 0 0 0 2349 2333 2333 2349 2349 2349 2349 2349 2349 2349 2349 2349 2349 2349 2349 2349 2349 2349 2349 2349 2349 2365 2365 2349 2349 2349 2349 2349 2349 2349 2349 2349 2333 2333 2333 2349 2349 2349 2349 2349 2349 2349 2349 2349 2365 2365 2365 2365 2365 2365 2365 2365 2365 2365 2365 2365 2365 2365 2381 2365 2365 2365 2381 2381 2381 2381 2381 2381 2381 2381 2381 2398 2398 2398 2398 2398 2398 2415 2432 2450 2450 1496 1496 1496 1496 1503 1503 1503 1503 1503 1503 1503 1503 1503 1509 1509 1509 1509 1516 1516 1523 1529 1529 1529 1427 1427 1427 1433 1433 1433 1433 1433 1439 1439 1439 1439 1439 1445 1601 1601 1594 1594 1586 1586 1586 1586 1586 1586 1586 1586 1586 1586 1594 1594 1594 1594 1594 1594 1594 1594 1594 1601 1601 1601 1609 1609 1609 1609 1609 1609 1609 1601 1601 1601 1601 1601 1601 1601 1601 1601 1601 1609 1609 1609 1609 1609 1609 1609 1609 1609 1609 1609 1609 1609 1609 1609 1609 1609 1609 1609 1609 1609 1609 1609 1609 1609 1609 1609 1616 1616 1616 1616 1616 1616 1616 1616 1616 1616 1616 1616 1616 1616 1616 1616 1624 1624 1624 1624 1616 1616 1616 1616 1616 1609 1609 1503 1503 1509 1509 1516 1509 1509 1516 1516 1516 1516 1516 1516 1516 1523 2028 2028 2016 2016 2028 2028 2028 2028 2028 2028 2028 2028 2467 2467 2467 2467 2485 2485 2485 2485 2467 2467 2467 1926 1926 1915 1915 1915 1915 1915 1915 1926 1926 1926 1926 1705 1696 1688 1680 1671 1655 1639 1632 1632 1632 1632 1632 1632 1632 1632 1632 1483 1483 1483 1483 1483 1489 1489 1483 1483 1489 1489 1489 1489 1489 1489 1489 1489 1632 1632 1632 1632 1632 1632 1632 1632 1632 1632 1632 1632 1632 1632 1632 1632 1632 1632 1632 1632 1639 1639 1639 1639 1639 1639 1639 1639 1639 1639 1639 1647 1647 1647 1655 1655 1655 1655 1655 1655 1655 1655 1655 1655 1655 1655 1655 1655 1655 1655 1663 1655 1655 1655 1663 1663 1663 1663 1663 1663 1663 1663 1663 1663 1663 1663 1663 1663 1663 1663 1663 1663 1663 1663 1663 1663 1663 1663 1663 1655 1655 1601 1586 1572 1572 1564 1557 1557 1550 1550 1550 1543 1543 1550 1550 1550 1550 1557 1564 1564 1564 2522 2522 2522 2522 2541 2541 2541 2541 2541 2541 2541 2541 2541 2541 2541 2541 2541 2541 2541 2541 2541 2541 2541 2541 2541 2541 2541 2541 2541 2541 2541 2541 2541 2541 2522 2522 2541 2541 1766 1766 1766 1757 1757 1748 1748 1748 1739 1739 1739 1739 1739 1748 1748 1748 1748 1748 1748 1748 1748 1748 1748 1748 2522 2522 2522 2522 2541 2541 2541 2522 2522 2522 2522 2522 2522 2522 2522 2522 2522 2522 2522 2522 2522 2522 2522 2522 2522 2522 2522 2522 2522 2522 2522 2522 2522 2522 2522 2522 2522 2541 2541 2541 2541 2541 2541 2541 2541 2541 2541 2541 2522 2522 2541 2541 2541 2541 2541 2541 2541 2541 2541 2541 2541 2560 2560 2560 2560 2541 2541 2541 2541 2541 2541 2541 2541 2541 2541 2541 2541 2541 2541 2541 2541 2541 2541 2541 2541 2560 2560 2560 2560 2560 2560 2560 2560 2560 2541 2541 2541 2541 2522 2522 2522 2522 2522 2522 2522 2522 2522 2522 2522 2522 2522 2522 2522 2522 2503 2503 2503 2503 2503 2503 2503 2503 2522 2522 2522 2522 2522 2503 2503 2503 2503 2503 2503 2485 2485 2485 0 0 0 0 0 0 0 0 0 0
0 0 0 0 0 0 0 0 0 0 0 0 0 0 0 0 0 0 0 0 0 0 0 0 0 0 0 0 0 0 0 0 0 2333 2333 2333 2333 2333 2333 2349 2333 2333 2349 2333 2333 2349 2349 2349 2349 2349 2349 2349 2349 2349 2349 2349 2349 2349 2349 2349 2349 2349 2349 2349 2349 2333 2333 2333 2333 2333 2333 2333 2333 2333 2333 2333 2333 2349 2349 2349 2365 2365 2365 2349 2349 2365 2349 2349 2365 2365 2365 2365 2365 2365 2365 2381 2381 2381 2381 2381 2381 2381 2381 2381 2381 2381 2381 2381 2381 2398 2398 2415 2415 2415 1496 1496 1496 1503 1503 1503 1503 1503 1503 1503 1503 1503 1503 1509 1509 1509 1509 1516 1523 1529 1529 1536 1536 1427 1427 1427 1433 1433 1439 1439 1439 1439 1445 1445 1445 1445 1445 1601 1594 1586 1586 1586 1579 1579 1586 1586 1586 1586 1586 1586 1586 1586 1586 1586 1586 1586 1586 1586 1586 1586 1594 1594 1594 1594 1594 1601 1601 1601 1601 1601 1601 1601 1594 1594 1594 1594 1594 1594 1601 1601 1601 1601 1609 1609 1609 1609 1609 1609 1601 1601 1601 1609 1609 1609 1609 1609 1609 1609 1609 1609 1609 1609 1609 1609 1609 1609 1609 1609 1616 1616 1616 1616 1616 1616 1609 1609 1609 1609 1609 1609 1609 1609 1609 1616 1616 1616 1616 1616 1616 1609 1609 1609 1609 1609 1509 1509 1509 1516 1516 1516 1516 1516 1516 1516 1516 1516 1516 1523 1523 2028 2028 2016 2016 2028 2028 2028 2028 2028 2040 2040 2040 2467 2467 2467 2467 2467 2467 2467 2467 2467 2467 2467 1926 1926 1915 1915 1915 1915 1915 1915 1926 1926 1926 1926 1705 1696 1696 1688 1688 1688 1639 1632 1632 1632 1632 1624 1624 1632 1632 1632 1483 1483 1483 1489 1489 1489 1489 1489 1489 1489 1489 1489 1489 1489 1489 1489 1489 1624 1624 1624 1624 1624 1632 1632 1632 1632 1632 1632 1632 1624 1624 1632 1624 1624 1632 1632 1632 1632 1632 1632 1632 1632 1632 1632 1632 1639 1639 1639 1639 1639 1639 1639 1639 1639 1647 1647 1647 1647 1655 1647 1647 1647 1639 1639 1647 1647 1647 1647 1655 1655 1655 1655 1655 1647 1647 1655 1655 1655 1655 1655 1655 1655 1655 1655 1655 1655 1655 1655 1655 1655 1655 1655 1655 1655 1655 1655 1655 1647 1601 1586 1572 1572 1564 1557 1557 1550 1550 1550 1543 1543 1550 1550 1550 1550 1557 1557 1557 2503 2522 2522 2522 2522 2522 2522 2522 2541 2541 2541 2541 2541 2541 2541 2541 2541 2541 2522 2522 2541 2541 2541 2541 2541 2541 2541 2541 2541 2541 2541 2541 2541 2522 2522 2522 2522 2522 2522 1776 1776 1766 1757 1757 1748 1748 1748 1748 1748 1748 1748 1748 1748 1748 1748 1748 1748 1748 1748 1748 1748 1748 1748 2522 2522 2522 2522 2541 2541 2541 2522 2522 2522 2522 2522 2522 2522 2503 2503 2503 2503 2503 2503 2503 2503 2503 2522 2522 2522 2522 2522 2522 2522 2522 2522 2522 2522 2522 2522 2522 2522 2522 2522 2522 2541 2522 2522 2522 2522 2522 2522 2522 2522 2522 2522 2522 2522 2522 2522 2541 2541 2541 2541 2541 2541 2541 2541 2541 2541 2541 2541 2541 2522 2522 2522 2541 2541 2541 2541 2541 2541 2541 2541 2541 2541 2541 2541 2541 2541 2541 2541 2560 2541 2541 2560 2560 2541 2541 2522 2522 2522 2522 2522 2522 2522 2522 2522 2503 2503 2503 2503 2522 2522 2522 2522 2522 2522 2503 2503 2503 2503 2503 2503 2503 2503 2503 2503 2503 2503 2522 2503 2503 2503 2503 2503 2485 2485 2485 2485 0 0 0 0 0 0 0 0 0 0
0 0 0 0 0 0 0 0 0 0 0 0 0 0 0 0 0 0 0 0 0 0 0 0 0 0 0 0 0 0 0 0 0 2333 2333 2333 2333 2317 2317 2333 2333 2333 2333 2333 2333 2333 2333 2349 2349 2349 2349 2349 2349 2349 2349 2349 2349 2349 2349 2349 2349 2349 2349 2349 2349 2333 2333 2333 2333 2333 2333 2333 2333 2333 2333 2333 2333 2333 2333 2333 2349 2349 2349 2349 2349 2349 2349 2349 2349 2349 2349 2349 2349 2349 2349 2365 2365 2365 2365 2381 2381 2381 2381 2381 2381 2381 2381 2381 2381 2381 2398 2398 2398 2398 1496 1496 1496 1503 1503 1503 1503 1503 1503 1503 1503 1509 1509 1509 1509 1509 1509 1516 1523 1529 1529 1536 1536 1427 1427 1427 1433 1439 1439 1439 1439 1445 1445 1452 1452 1452 1452 1586 1586 1586 1586 1579 1579 1579 1579 1579 1579 1586 1586 1586 1586 1586 1586 1586 1586 1586 1586 1586 1586 1586 1586 1586 1586 1594 1594 1594 1594 1594 1594 1594 1594 1594 1586 1586 1586 1586 1586 1594 1594 1594 1601 1601 1601 1601 1601 1601 1601 1601 1594 1594 1601 1601 1601 1601 1601 1601 1601 1601 1601 1601 1601 1601 1601 1601 1601 1601 1601 1609 1609 1609 1609 1609 1609 1609 1609 1609 1609 1609 1609 1609 1609 1609 1609 1609 1609 1616 1609 1609 1609 1601 1601 1601 1601 1594 1516 1516 1516 1516 1516 1516 1516 1516 1516 1516 1523 1523 1523 1523 1523 2028 2016 2016 2028 2028 2028 2028 2028 2040 2040 2040 2040 2053 2450 2450 2450 2450 2467 2467 2467 2467 2450 2450 1926 1926 1915 1915 1915 1915 1915 1915 1926 1926 1926 1926 1705 1705 1696 1696 1696 1696 1632 1624 1624 1624 1624 1624 1624 1624 1624 1624 1483 1483 1489 1489 1489 1489 1489 1489 1489 1489 1489 1489 1489 1489 1489 1489 1489 1624 1624 1624 1624 1624 1624 1624 1624 1624 1624 1624 1624 1624 1624 1624 1624 1624 1624 1624 1624 1624 1624 1624 1632 1632 1632 1632 1632 1632 1632 1632 1632 1632 1632 1632 1632 1632 1639 1639 1639 1647 1647 1647 1647 1639 1639 1639 1639 1639 1639 1639 1647 1647 1647 1647 1647 1647 1647 1647 1639 1639 1639 1639 1639 1647 1647 1647 1647 1647 1647 1647 1647 1647 1639 1639 1647 1647 1647 1647 1647 1639 1601 1594 1579 1572 1564 1557 1557 1550 1550 1550 1550 1550 1550 1550 1557 1557 1557 1557 1557 2503 2503 2503 2522 2522 2522 2522 2522 2541 2541 2541 2541 2541 2541 2522 2522 2522 2522 2522 2522 2522 2522 2522 2541 2541 2541 2541 2541 2541 2541 2522 2522 2522 2522 2522 2522 2522 2522 2522 1776 1776 1766 1766 1757 1757 1748 1748 1748 1748 1748 1748 1748 1748 1748 1748 1748 1748 1748 1748 1748 1748 1748 1748 2522 2522 2522 2522 2522 2522 2522 2503 2503 2503 2503 2503 2522 2503 2503 2503 2503 2503 2503 2503 2485 2485 2503 2503 2503 2503 2503 2503 2503 2503 2503 2503 2503 2503 2503 2522 2522 2522 2522 2522 2522 2522 2522 2522 2522 2522 2522 2522 2522 2522 2522 2522 2522 2522 2522 2522 2522 2522 2522 2522 2522 2522 2541 2541 2522 2522 2522 2522 2522 2522 2522 2522 2522 2522 2522 2522 2522 2541 2541 2522 2522 2522 2522 2541 2541 2522 2522 2541 2541 2541 2541 2541 2541 2541 2522 2522 2522 2522 2522 2503 2503 2503 2503 2503 2503 2503 2503 2503 2503 2503 2503 2503 2503 2503 2503 2503 2503 2503 2503 2503 2485 2485 2503 2503 2503 2503 2503 2503 2503 2503 2503 2503 2485 2485 2485 2485 0 0 0 0 0 0 0 0 0 0
0 0 0 0 0 0 0 0 0 0 0 0 0 0 0 0 0 0 0 0 0 0 0 0 0 0 0 0 0 0 0 0 0 2317 2317 2317 2317 2317 2317 2317 2317 2317 2317 2317 2317 2333 2333 2333 2333 2333 2349 2349 2349 2349 2349 2349 2349 2349 2349 2349 2349 2349 2333 2333 2333 2317 2317 2317 2317 2317 2317 2317 2317 2317 2317 2333 2333 2333 2333 2333 2333 2349 2349 2333 2333 2333 2333 2333 2333 2349 2349 2349 2333 2333 2333 2349 2349 2365 2365 2365 2365 2381 2365 2365 2365 2365 2365 2365 2365 2365 2381 2381 2381 2381 1503 1503 1503 1503 1503 1503 1503 1503 1503 1503 1503 1509 1509 1509 1509 1509 1509 1516 1523 1529 1529 1536 1543 1543 1433 1433 1439 1439 1439 1439 1445 1445 1452 1452 1452 1452 1452 1452 1579 1579 1579 1579 1579 1579 1579 1579 1579 1579 1579 1579 1579 1579 1579 1579 1579 1579 1579 1586 1586 1586 1586 1586 1586 1586 1586 1586 1586 1594 1586 1586 1586 1586 1586 1586 1586 1586 1586 1586 1586 1586 1594 1594 1594 1594 1594 1594 1594 1594 1594 1594 1594 1594 1594 1594 1594 1601 1601 1594 1594 1594 1594 1601 1594 1594 1594 1594 1601 1601 1601 1601 1601 1601 1601 1601 1601 1601 1601 1601 1601 1601 1601 1601 1601 1609 1609 1609 1609 1609 1609 1601 1601 1601 1594 1594 1523 1516 1516 1516 1516 1516 1516 1516 1516 1523 1523 1523 1523 1529 1529 2016 2016 2016 2028 2028 2028 2028 2040 2040 2040 2040 2040 2040 2450 2450 2432 2432 2432 2450 2450 2450 2432 2432 2432 1926 1915 1915 1915 1915 1915 1915 1926 1926 1926 1926 1713 1705 1696 1696 1696 1705 1632 1624 1616 1616 1616 1616 1616 1624 1624 1624 1483 1483 1489 1489 1489 1496 1496 1496 1496 1496 1496 1496 1496 1489 1489 1483 1483 1616 1616 1616 1616 1616 1616 1616 1616 1616 1616 1616 1616 1616 1616 1624 1624 1624 1624 1624 1624 1624 1624 1624 1624 1632 1632 1632 1632 1632 1632 1632 1632 1632 1632 1624 1624 1632 1632 1632 1632 1632 1639 1639 1639 1632 1632 1632 1632 1632 1632 1632 1639 1639 1639 1647 1639 1639 1639 1639 1639 1632 1632 1632 1639 1639 1639 1639 1639 1639 1639 1639 1639 1639 1639 1639 1647 1647 1647 1647 1639 1632 1609 1601 1572 1572 1564 1557 1557 1557 1550 1550 1550 1550 1550 1557 1557 1557 1557 1557 1557 2485 2485 2485 2503 2522 2522 2522 2522 2522 2522 2522 2522 2522 2522 2522 2522 2522 2522 2522 2522 2522 2522 2522 2522 2522 2522 2522 2522 2522 2522 2522 2522 2522 2522 2522 2522 2522 2522 1776 1776 1776 1766 1766 1757 1757 1748 1748 1748 1748 1748 1748 1748 1748 1748 1748 1748 1748 1748 1748 1748 1748 1748 2503 2522 2522 2522 2522 2522 2522 2522 2503 2503 2503 2503 2503 2503 2503 2503 2503 2485 2485 2485 2485 2485 2485 2485 2503 2503 2503 2503 2503 2503 2503 2503 2503 2503 2503 2503 2503 2503 2503 2503 2503 2503 2503 2503 2503 2503 2522 2503 2503 2503 2503 2503 2522 2522 2522 2522 2522 2522 2522 2522 2522 2522 2522 2522 2522 2522 2522 2522 2522 2522 2522 2522 2522 2522 2522 2522 2522 2522 2522 2522 2522 2522 2522 2522 2522 2522 2522 2522 2522 2522 2522 2522 2522 2522 2522 2503 2503 2503 2503 2503 2503 2503 2503 2503 2503 2503 2503 2503 2503 2503 2503 2503 2503 2503 2503 2503 2503 2485 2485 2485 2503 2485 2485 2485 2485 2485 2503 2503 2485 2485 2485 2485 2485 2485 2485 2485 2485 0 0 0 0 0 0 0 0 0 0
0 0 0 0 0 0 0 0 0 0 0 0 0 0 0 0 0 0 0 0 0 0 0 0 0 0 0 0 0 0 0 0 0 2301 2301 2301 2317 2301 2301 2317 2317 2317 2317 2317 2317 2333 2333 2333 2333 2333 2333 2349 2349 2349 2349 2349 2349 2349 2349 2349 2349 2333 2333 2333 2333 2317 2317 2317 2317 2317 2317 2317 2317 2317 2317 2317 2317 2333 2333 2333 2333 2333 2333 2333 2333 2333 2333 2333 2333 2333 2333 2333 2333 2333 2333 2333 2349 2349 2349 2349 2365 2365 2365 2365 2365 2365 2365 2365 2365 2365 2381 2381 2381 2381 1503 1503 1503 1503 1503 1503 1503 1509 1509 1509 1509 1509 1509 1509 1509 1509 1509 1516 1523 1529 1529 1536 1543 1543 1433 1433 1439 1445 1445 1445 1445 1445 1452 1452 1452 1452 1452 1452 1572 1572 1572 1572 1572 1572 1572 1572 1572 1579 1579 1579 1579 1579 1579 1579 1579 1579 1579 1579 1579 1579 1579 1586 1586 1586 1586 1586 1586 1586 1586 1586 1579 1579 1579 1579 1586 1586 1586 1586 1586 1586 1586 1586 1586 1586 1586 1586 1586 1586 1586 1586 1586 1586 1586 1586 1594 1594 1594 1586 1586 1586 1586 1586 1594 1586 1586 1594 1594 1594 1594 1594 1594 1594 1601 1601 1601 1601 1601 1601 1601 1601 1594 1594 1601 1601 1601 1609 1601 1601 1601 1594 1594 1594 1586 1579 1523 1523 1523 1523 1523 1523 1523 1523 1523 1523 1523 1523 1523 1529 1536 1536 2016 2016 2016 2028 2028 2028 2040 2040 2040 2040 2040 2040 2432 2432 2432 2432 2432 2432 2432 2432 2432 2432 2432 1926 1915 1915 1915 1915 1926 1926 1926 1926 1926 1926 1926 1696 1688 1688 1696 1696 1639 1624 1616 1616 1616 1609 1609 1616 1616 1616 1483 1483 1489 1489 1489 1496 1496 1496 1496 1496 1496 1496 1496 1489 1489 1483 1483 1609 1609 1609 1609 1609 1609 1609 1609 1609 1609 1616 1609 1609 1616 1616 1616 1616 1616 1616 1616 1616 1616 1624 1624 1624 1624 1624 1632 1624 1624 1624 1624 1624 1624 1624 1624 1624 1632 1632 1632 1632 1632 1632 1632 1632 1624 1624 1624 1632 1632 1632 1632 1632 1639 1639 1632 1632 1632 1632 1632 1632 1632 1632 1632 1632 1639 1632 1632 1639 1639 1639 1639 1632 1632 1632 1639 1639 1639 1639 1632 1632 1624 1616 1572 1572 1564 1557 1557 1557 1550 1550 1550 1550 1550 1557 1557 1557 1557 1557 2467 2467 2467 2485 2485 2503 2503 2503 2503 2522 2522 2522 2522 2503 2503 2503 2503 2503 2503 2485 2485 2503 2503 2503 2503 2503 2522 2503 2485 2485 2485 2503 2503 2522 2503 2503 2522 2522 2522 1776 1776 1776 1766 1766 1757 1757 1757 1757 1748 1748 1748 1748 1748 1748 1748 1748 1748 1748 1748 1748 1748 1748 1748 2503 2522 2522 2522 2522 2522 2522 2522 2503 2503 2503 2485 2485 2503 2503 2485 2485 2485 2485 2485 2485 2485 2485 2485 2503 2503 2503 2503 2503 2503 2503 2503 2503 2503 2503 2503 2503 2503 2503 2503 2503 2503 2503 2503 2503 2503 2503 2503 2503 2503 2503 2503 2503 2503 2503 2522 2522 2522 2522 2522 2522 2522 2522 2522 2522 2503 2503 2503 2522 2503 2503 2503 2503 2503 2522 2522 2522 2522 2522 2522 2522 2522 2522 2522 2522 2522 2503 2503 2522 2522 2522 2522 2522 2522 2522 2503 2503 2503 2503 2503 2503 2503 2503 2503 2503 2503 2485 2485 2485 2503 2503 2485 2485 2485 2503 2503 2485 2485 2485 2485 2485 2485 2485 2485 2485 2485 2503 2503 2485 2485 2485 2485 2485 2485 2485 2485 2485 0 0 0 0 0 0 0 0 0 0
0 0 0 0 0 0 0 0 0 0 0 0 0 0 0 0 0 0 0 0 0 0 0 0 0 0 0 0 0 0 0 0 0 2301 2301 2301 2301 2301 2301 2301 2301 2301 2301 2301 2301 2301 2301 2301 2317 2317 2333 2333 2333 2333 2333 2333 2333 2333 2333 2333 2333 2333 2333 2333 2333 2317 2317 2317 2317 2317 2317 2317 2317 2317 2317 2317 2317 2317 2317 2317 2317 2317 2317 2333 2317 2317 2333 2333 2333 2333 2333 2333 2333 2333 2333 2333 2333 2333 2333 2349 2349 2349 2349 2349 2349 2349 2349 2349 2349 2349 2365 2365 2365 2365 1503 1503 1503 1503 1509 1503 1503 1509 1509 1509 1509 1509 1509 1509 1509 1509 1516 1516 1523 1529 1536 1543 1550 1550 1439 1439 1445 1445 1452 1452 1452 1452 1452 1452 1458 1458 1458 1458 1564 1564 1564 1572 1564 1564 1564 1572 1572 1572 1572 1572 1572 1572 1572 1572 1572 1572 1572 1572 1572 1579 1579 1579 1579 1579 1579 1579 1579 1579 1579 1579 1579 1579 1579 1579 1579 1579 1579 1579 1579 1579 1586 1586 1579 1579 1586 1586 1586 1579 1579 1586 1586 1586 1586 1586 1586 1586 1586 1586 1586 1586 1586 1586 1586 1586 1586 1586 1586 1586 1594 1594 1594 1594 1594 1594 1594 1594 1594 1594 1594 1594 1594 1594 1594 1594 1601 1601 1601 1601 1601 1594 1594 1586 1579 1572 1523 1523 1523 1523 1523 1523 1523 1523 1523 1523 1523 1523 1523 1536 1536 1536 2016 2016 2016 2028 2028 2028 2040 2040 2040 2040 2040 2040 2432 2432 2432 2432 2432 2432 2432 2432 2432 2432 1936 1926 1915 1915 1926 1926 1926 1926 1926 1926 1926 1936 1936 1696 1688 1688 1696 1696 1696 1624 1616 1616 1609 1609 1609 1609 1609 1609 1609 1489 1489 1489 1489 1496 1496 1496 1496 1496 1496 1496 1496 1489 1489 1489 1609 1601 1601 1601 1601 1601 1601 1601 1601 1601 1601 1609 1609 1609 1609 1609 1609 1609 1609 1609 1609 1609 1609 1616 1616 1624 1624 1624 1624 1624 1624 1624 1624 1624 1624 1616 1616 1624 1624 1624 1624 1624 1624 1624 1624 1624 1624 1624 1624 1624 1624 1624 1632 1632 1632 1632 1632 1632 1632 1632 1632 1624 1624 1632 1632 1632 1632 1632 1632 1632 1632 1632 1632 1632 1632 1632 1632 1632 1632 1632 1632 1624 1616 1616 1579 1572 1572 1557 1557 1557 1557 1557 1557 1557 1557 1557 1557 1557 1564 1564 2467 2467 2467 2485 2485 2485 2503 2503 2503 2503 2503 2503 2503 2503 2503 2503 2485 2485 2485 2485 2485 2485 2485 2485 2503 2503 2503 2503 2485 2485 2485 2485 2485 2503 2503 2503 2503 2522 2522 1766 1766 1776 1776 1766 1757 1757 1757 1757 1748 1748 1748 1748 1748 1748 1748 1748 1748 1748 1748 1748 1748 1757 2485 2485 2503 2503 2503 2503 2522 2522 2522 2485 2485 2485 2485 2485 2485 2503 2485 2485 2485 2485 2485 2485 2485 2485 2485 2485 2503 2503 2503 2503 2503 2503 2503 2503 2485 2485 2485 2485 2485 2485 2485 2485 2485 2503 2503 2503 2503 2503 2485 2485 2485 2485 2485 2503 2503 2503 2503 2503 2503 2503 2503 2503 2503 2503 2503 2503 2503 2503 2503 2503 2503 2503 2503 2503 2503 2503 2503 2503 2503 2522 2522 2503 2503 2503 2503 2503 2503 2503 2503 2503 2522 2522 2522 2522 2522 2522 2503 2503 2503 2503 2503 2485 2485 2503 2503 2503 2503 2485 2485 2485 2485 2485 2485 2485 2485 2485 2485 2485 2485 2485 2485 2485 2485 2485 2485 2485 2485 2503 2503 2485 2485 2485 2485 2485 2485 2467 2467 2467 0 0 0 0 0 0 0 0 0 0
0 0 0 0 0 0 0 0 0 0 0 0 0 0 0 0 0 0 0 0 0 0 0 0 0 0 0 0 0 0 0 0 0 2301 2301 2286 2286 2286 2286 2286 2286 2286 2286 2286 2286 2286 2286 2301 2301 2301 2317 2317 2317 2317 2333 2317 2317 2317 2317 2333 2333 2317 2317 2317 2317 2301 2301 2301 2301 2301 2301 2301 2317 2317 2317 2317 2317 2317 2317 2317 2317 2317 2317 2317 2317 2317 2317 2317 2317 2317 2317 2333 2333 2333 2333 2333 2333 2333 2333 2333 2333 2333 2333 2333 2333 2333 2333 2349 2349 2349 2349 2365 2365 2365 1503 1503 1503 1503 1503 1503 1503 1509 1509 1509 1509 1509 1509 1509 1509 1509 1516 1523 1523 1529 1536 1543 1550 1564 1439 1439 1445 1452 1452 1452 1452 1452 1452 1458 1458 1458 1458 1458 1557 1557 1557 1564 1557 1557 1557 1564 1564 1564 1564 1564 1564 1564 1564 1564 1564 1564 1564 1572 1572 1572 1572 1572 1572 1572 1572 1572 1572 1572 1572 1572 1572 1572 1572 1572 1579 1579 1579 1579 1579 1579 1579 1579 1579 1579 1579 1579 1579 1579 1579 1579 1579 1579 1579 1579 1579 1579 1579 1579 1579 1579 1579 1579 1586 1586 1586 1586 1586 1586 1586 1586 1586 1586 1586 1586 1586 1586 1586 1586 1586 1586 1586 1586 1586 1594 1594 1594 1594 1594 1594 1586 1586 1579 1572 1572 1529 1523 1523 1523 1523 1523 1523 1523 1523 1523 1523 1529 1536 1536 1536 1536 2016 2016 2016 2028 2028 2028 2040 2040 2040 2040 2040 2040 2432 2432 2415 2415 2432 2432 2432 2432 2415 2415 1936 1926 1926 1926 1926 1926 1926 1926 1926 1926 1926 1936 1936 2415 1696 1696 1696 1696 1696 1624 1616 1616 1609 1609 1609 1609 1609 1609 1609 1489 1489 1489 1496 1496 1496 1496 1496 1496 1503 1496 1496 1496 1496 1609 1609 1601 1601 1601 1601 1601 1601 1601 1601 1601 1601 1601 1601 1601 1601 1609 1609 1601 1601 1601 1601 1609 1609 1609 1616 1616 1616 1616 1616 1616 1616 1616 1616 1616 1616 1616 1616 1616 1616 1616 1616 1616 1616 1616 1624 1624 1624 1624 1624 1624 1624 1624 1624 1624 1624 1624 1624 1624 1624 1624 1624 1624 1624 1624 1632 1632 1632 1624 1624 1632 1632 1632 1624 1624 1624 1624 1632 1632 1632 1632 1624 1624 1616 1616 1579 1572 1572 1557 1557 1557 1557 1557 1557 1557 1557 1557 1557 1564 1564 1564 2467 2467 2467 2467 2467 2485 2485 2485 2485 2503 2503 2485 2485 2485 2485 2485 2485 2467 2467 2467 2467 2485 2485 2467 2467 2485 2485 2485 2467 2467 2485 2485 2485 2485 2503 2503 2503 2522 2522 1766 1766 1785 1776 1766 1757 1757 1757 1757 1748 1748 1748 1748 1748 1748 1748 1748 1748 1748 1748 1748 1748 2467 2467 2467 2467 2485 2485 2485 2485 2503 2503 2485 2467 2467 2467 2467 2467 2467 2467 2467 2467 2467 2467 2467 2467 2467 2485 2485 2485 2485 2485 2485 2485 2485 2485 2485 2485 2485 2485 2485 2485 2485 2485 2485 2485 2485 2485 2485 2485 2485 2485 2485 2485 2485 2485 2503 2503 2503 2503 2503 2503 2503 2503 2503 2503 2503 2503 2503 2503 2503 2503 2503 2503 2503 2503 2503 2503 2503 2503 2503 2503 2522 2522 2503 2503 2503 2503 2503 2503 2503 2503 2503 2503 2503 2503 2503 2503 2503 2485 2485 2485 2485 2485 2485 2485 2485 2485 2485 2503 2485 2485 2485 2485 2485 2485 2485 2467 2467 2485 2485 2485 2485 2485 2485 2485 2485 2485 2485 2485 2485 2503 2485 2485 2485 2467 2467 2467 2467 2467 2467 0 0 0 0 0 0 0 0 0 0
0 0 0 0 0 0 0 0 0 0 0 0 0 0 0 0 0 0 0 0 0 0 0 0 0 0 0 0 0 0 0 0 0 2286 2286 2286 2286 2286 2286 2286 2286 2286 2286 2286 2286 2286 2286 2286 2301 2301 2301 2301 2317 2317 2317 2317 2317 2317 2317 2317 2317 2301 2301 2301 2301 2286 2286 2286 2301 2301 2301 2301 2301 2301 2317 2301 2301 2317 2301 2301 2301 2301 2301 2317 2317 2317 2317 2317 2317 2317 2317 2317 2317 2317 2317 2317 2317 2317 2317 2333 2333 2333 2333 2333 2333 2333 2333 2333 2333 2333 2349 2349 2349 2349 1503 1503 1503 1503 1503 1503 1503 1509 1509 1509 1509 1509 1509 1509 1516 1516 1516 1523 1529 1529 1536 1543 1550 1564 1445 1445 1445 1452 1452 1452 1452 1452 1458 1458 1458 1458 1464 1464 1557 1557 1557 1557 1557 1557 1557 1557 1557 1557 1557 1557 1557 1557 1557 1557 1557 1557 1557 1564 1564 1564 1564 1564 1564 1572 1564 1564 1564 1564 1564 1564 1564 1564 1564 1564 1572 1572 1572 1572 1572 1572 1572 1572 1564 1564 1572 1572 1572 1572 1572 1572 1579 1579 1579 1579 1579 1579 1572 1572 1579 1579 1579 1579 1579 1579 1579 1579 1586 1586 1586 1586 1586 1586 1586 1586 1586 1586 1586 1586 1586 1586 1586 1586 1586 1586 1586 1594 1594 1586 1586 1586 1586 1579 1572 1572 1536 1529 1529 1523 1523 1523 1523 1523 1523 1523 1529 1529 1536 1536 1536 1543 1543 2028 2028 2028 2028 2040 2040 2053 2040 2040 2040 2040 2415 2415 2415 2415 2432 2432 2432 2432 2415 2415 2415 1926 1926 1926 1926 1926 1926 1926 1926 1926 1936 2365 2415 2415 1696 1696 1696 1688 1688 1632 1616 1616 1609 1601 1601 1601 1601 1601 1601 1594 1489 1489 1496 1496 1496 1496 1496 1496 1503 1503 1496 1496 1601 1601 1601 1594 1594 1601 1601 1601 1594 1594 1601 1601 1601 1601 1601 1601 1601 1601 1601 1601 1594 1594 1601 1601 1601 1601 1609 1609 1609 1616 1616 1616 1609 1609 1609 1609 1609 1609 1609 1609 1616 1616 1616 1616 1616 1616 1616 1616 1616 1616 1616 1616 1616 1616 1624 1624 1624 1624 1624 1624 1624 1624 1624 1624 1624 1624 1624 1624 1624 1624 1624 1624 1624 1624 1624 1624 1624 1624 1624 1624 1624 1624 1624 1624 1616 1601 1579 1572 1572 1557 1557 1557 1557 1557 1557 1557 1557 1564 1564 1564 1564 2467 2467 2467 2467 2467 2467 2467 2467 2467 2485 2485 2485 2485 2485 2467 2467 2485 2467 2467 2467 2467 2467 2467 2467 2467 2467 2467 2467 2467 2467 2467 2467 2467 2467 2485 2485 2485 2503 2522 2522 1785 1785 1785 1776 1766 1766 1757 1757 1757 1748 1748 1748 1748 1748 1748 1748 1748 1748 1748 1748 1748 1757 2467 2467 2467 2467 2467 2467 2485 2485 2485 2485 2485 2467 2467 2450 2450 2450 2467 2450 2450 2450 2450 2450 2467 2467 2467 2467 2467 2467 2467 2467 2467 2467 2467 2467 2467 2467 2467 2467 2467 2485 2485 2485 2485 2485 2485 2485 2485 2467 2467 2467 2467 2467 2467 2467 2485 2485 2485 2485 2485 2485 2485 2485 2485 2485 2503 2503 2503 2485 2485 2503 2503 2503 2485 2485 2503 2503 2503 2503 2503 2503 2503 2503 2503 2503 2503 2503 2503 2503 2503 2485 2485 2503 2503 2503 2503 2503 2503 2485 2485 2467 2467 2485 2467 2467 2485 2485 2485 2485 2485 2485 2485 2485 2485 2467 2467 2450 2450 2467 2467 2467 2467 2467 2485 2467 2467 2467 2485 2485 2485 2485 2467 2467 2467 2450 2450 2450 2450 2450 2450 0 0 0 0 0 0 0 0 0 0
0 0 0 0 0 0 0 0 0 0 0 0 0 0 0 0 0 0 0 0 0 0 0 0 0 0 0 0 0 0 0 0 0 2286 2286 2271 2271 2286 2286 2286 2286 2286 2271 2271 2286 2286 2286 2286 2286 2301 2301 2301 2301 2301 2317 2301 2301 2301 2301 2301 2301 2301 2301 2301 2301 2286 2286 2286 2301 2301 2301 2301 2301 2301 2301 2301 2301 2301 2301 2301 2301 2301 2301 2301 2301 2301 2317 2317 2317 2317 2317 2317 2317 2317 2317 2317 2317 2317 2317 2317 2317 2317 2317 2317 2333 2333 2333 2333 2333 2333 2333 2333 2333 2333 2333 1509 1509 1509 1509 1503 1503 1509 1509 1509 1509 1509 1509 1516 1516 1516 1523 1523 1523 1529 1529 1536 1550 1452 1452 1452 1452 1452 1452 1458 1458 1458 1458 1458 1458 1458 1464 1464 1557 1550 1550 1557 1550 1550 1557 1557 1557 1557 1557 1557 1557 1557 1557 1557 1557 1557 1557 1557 1557 1557 1564 1564 1564 1564 1564 1564 1564 1557 1557 1557 1564 1564 1564 1564 1564 1564 1564 1564 1564 1564 1564 1564 1564 1564 1564 1564 1564 1564 1564 1572 1572 1572 1572 1572 1572 1572 1572 1572 1572 1572 1572 1572 1579 1579 1579 1579 1579 1579 1586 1579 1579 1579 1579 1579 1579 1579 1579 1579 1579 1579 1586 1586 1586 1586 1586 1586 1586 1586 1586 1579 1579 1579 1572 1564 1550 1536 1529 1529 1529 1529 1529 1529 1529 1529 1529 1536 1536 1536 1543 1543 1543 2028 2028 2028 2040 2040 2040 2053 2040 2040 2053 2053 2415 2415 2415 2415 2415 2415 2415 2415 2415 2415 1936 1926 1926 1926 1926 1926 1926 1936 1936 1936 1936 2415 2398 2381 2381 1696 1696 1688 1680 1671 1663 1616 1609 1601 1594 1594 1594 1594 1594 1586 1496 1496 1496 1496 1503 1503 1503 1503 1503 1503 1503 1503 1523 1601 1594 1594 1594 1594 1594 1594 1594 1594 1594 1594 1594 1594 1594 1594 1594 1594 1594 1594 1594 1594 1594 1594 1594 1601 1601 1601 1601 1609 1609 1609 1601 1601 1609 1609 1609 1609 1609 1609 1609 1609 1609 1609 1609 1609 1616 1609 1609 1609 1609 1609 1609 1609 1616 1616 1616 1616 1616 1616 1616 1616 1616 1616 1616 1616 1616 1616 1616 1616 1616 1616 1616 1616 1616 1616 1616 1624 1624 1624 1624 1616 1616 1616 1609 1601 1579 1572 1572 1557 1557 1564 1564 1564 1564 1564 1564 1564 1564 1564 1564 2467 2467 2467 2467 2467 2467 2467 2467 2467 2467 2485 2485 2485 2485 2467 2467 2467 2467 2467 2467 2467 2467 2467 2467 2467 2467 2467 2467 2467 2467 2467 2467 2467 2467 2467 2485 2485 2503 2522 2522 1785 1785 1785 1776 1776 1766 1757 1757 1757 1757 1757 1757 1757 1757 1757 1757 1757 1748 1748 1757 1757 2450 2450 2450 2450 2450 2467 2467 2467 2467 2467 2467 2467 2450 2450 2450 2450 2450 2450 2450 2450 2450 2450 2450 2450 2450 2450 2450 2467 2467 2467 2450 2450 2450 2450 2450 2450 2450 2450 2450 2467 2467 2467 2467 2467 2467 2467 2467 2450 2450 2450 2450 2450 2450 2450 2450 2467 2467 2467 2467 2467 2467 2467 2467 2467 2467 2485 2485 2485 2485 2485 2485 2503 2485 2485 2485 2503 2503 2503 2503 2503 2503 2503 2503 2503 2503 2503 2485 2485 2485 2485 2485 2485 2485 2503 2485 2485 2485 2485 2485 2467 2450 2450 2467 2467 2467 2467 2485 2485 2485 2467 2467 2467 2467 2467 2467 2450 2450 2450 2450 2467 2467 2467 2467 2485 2467 2467 2467 2467 2467 2467 2450 2450 2467 2467 2450 2432 2432 2450 2450 2450 0 0 0 0 0 0 0 0 0 0
0 0 0 0 0 0 0 0 0 0 0 0 0 0 0 0 0 0 0 0 0 0 0 0 0 0 0 0 0 0 0 0 0 2271 2271 2271 2271 2286 2271 2271 2271 2271 2271 2271 2286 2271 2271 2286 2286 2286 2286 2286 2301 2301 2301 2301 2301 2301 2301 2301 2301 2286 2286 2286 2286 2286 2286 2286 2286 2286 2286 2301 2286 2286 2286 2286 2286 2286 2301 2301 2301 2301 2301 2301 2301 2301 2301 2301 2301 2317 2317 2317 2317 2317 2317 2317 2317 2317 2317 2317 2317 2317 2317 2317 2317 2317 2317 2317 2317 2333 2333 2333 2333 2333 2333 2333 1509 1509 1509 1509 1509 1509 1509 1509 1509 1516 1516 1516 1516 1516 1523 1523 1523 1529 1529 1536 1550 1452 1452 1452 1452 1452 1458 1458 1458 1458 1458 1464 1464 1464 1464 1464 1489 1536 1543 1550 1550 1550 1550 1550 1550 1550 1550 1550 1550 1550 1550 1550 1550 1550 1550 1550 1550 1550 1557 1557 1557 1557 1557 1557 1557 1557 1557 1557 1557 1557 1557 1557 1557 1557 1557 1557 1557 1557 1557 1557 1557 1557 1557 1557 1557 1564 1564 1564 1564 1564 1564 1564 1564 1564 1564 1564 1564 1564 1564 1564 1572 1572 1572 1579 1579 1579 1579 1579 1579 1579 1579 1579 1579 1579 1579 1579 1579 1579 1579 1579 1579 1579 1579 1579 1579 1579 1579 1572 1572 1572 1564 1564 1550 1536 1536 1529 1529 1529 1529 1529 1529 1529 1536 1536 1543 1543 1543 1543 2028 2028 2028 2028 2040 2040 2040 2053 2040 2040 2053 2053 2398 2398 2415 2415 2415 2415 2415 2415 2398 2398 1936 1936 1936 1936 1936 1926 1926 1936 1936 1936 1936 2415 2398 2381 2381 2398 2398 1671 1671 1671 1655 1632 1609 1601 1594 1586 1586 1586 1586 1586 1496 1496 1503 1503 1503 1503 1503 1503 1509 1509 1509 1509 1523 1579 1586 1586 1586 1586 1594 1594 1594 1594 1594 1594 1594 1594 1594 1594 1594 1594 1594 1594 1594 1586 1586 1594 1594 1594 1594 1594 1601 1601 1601 1601 1601 1601 1601 1601 1601 1601 1601 1601 1601 1601 1601 1601 1601 1601 1601 1601 1601 1601 1601 1609 1609 1609 1609 1609 1609 1609 1609 1609 1609 1609 1609 1609 1609 1616 1616 1609 1609 1609 1609 1609 1609 1609 1609 1609 1609 1616 1616 1616 1616 1616 1616 1616 1609 1594 1586 1572 1572 1564 1564 1564 1564 1564 1564 1564 1564 1564 1564 1572 1572 2467 2450 2450 2450 2450 2450 2467 2467 2467 2467 2467 2467 2467 2467 2467 2467 2467 2467 2467 2467 2467 2467 2467 2450 2450 2450 2450 2450 2450 2450 2450 2467 2467 2467 2467 2467 2467 2485 2485 1785 1785 1785 1785 1776 1776 1766 1757 1757 1757 1757 1757 1757 1757 1757 1757 1757 1757 1757 1757 1757 2450 2450 2450 2450 2450 2450 2450 2450 2467 2467 2467 2467 2467 2450 2450 2450 2450 2450 2450 2450 2450 2450 2450 2450 2450 2450 2450 2450 2450 2450 2450 2450 2450 2450 2450 2450 2450 2450 2450 2450 2450 2450 2450 2450 2450 2467 2450 2450 2450 2450 2450 2450 2450 2450 2450 2450 2450 2450 2450 2450 2450 2450 2450 2450 2450 2450 2467 2467 2467 2485 2485 2485 2467 2467 2467 2467 2467 2467 2485 2485 2467 2467 2485 2485 2467 2467 2485 2485 2485 2485 2485 2485 2485 2485 2485 2485 2485 2485 2485 2485 2467 2450 2450 2467 2450 2450 2467 2467 2467 2467 2467 2467 2467 2450 2450 2450 2432 2432 2432 2450 2450 2450 2450 2467 2467 2467 2450 2450 2450 2467 2450 2450 2450 2450 2450 2432 2432 2432 2432 2432 2432 0 0 0 0 0 0 0 0 0 0
0 0 0 0 0 0 0 0 0 0 0 0 0 0 0 0 0 0 0 0 0 0 0 0 0 0 0 0 0 0 0 0 0 2271 2271 2271 2271 2271 2271 2271 2271 2271 2271 2271 2271 2271 2271 2271 2271 2286 2286 2286 2286 2286 2286 2286 2286 2286 2286 2286 2286 2286 2286 2286 2286 2286 2271 2271 2286 2286 2286 2286 2286 2286 2286 2286 2286 2286 2286 2286 2286 2286 2301 2301 2301 2301 2301 2301 2301 2317 2317 2301 2301 2301 2301 2317 2317 2317 2317 2317 2317 2317 2317 2317 2317 2317 2317 2317 2317 2317 2317 2333 2317 2317 2333 2333 1509 1509 1509 1509 1509 1509 1509 1509 1516 1516 1523 1523 1523 1523 1529 1529 1529 1529 1536 1543 1550 1564 1458 1458 1458 1458 1458 1458 1458 1458 1458 1464 1464 1464 1464 1464 1489 1529 1536 1543 1543 1543 1543 1550 1550 1550 1550 1550 1550 1550 1550 1543 1543 1543 1543 1543 1543 1543 1550 1550 1550 1550 1557 1557 1550 1550 1550 1550 1550 1550 1550 1557 1550 1550 1550 1550 1550 1550 1550 1550 1557 1557 1557 1557 1557 1557 1557 1557 1557 1557 1564 1564 1564 1564 1557 1557 1564 1564 1564 1564 1564 1564 1564 1572 1572 1572 1572 1572 1572 1572 1572 1572 1572 1572 1572 1572 1572 1572 1579 1579 1579 1579 1579 1579 1579 1579 1579 1572 1572 1564 1557 1557 1550 1536 1536 1529 1529 1529 1529 1529 1529 1529 1536 1536 1543 1543 1543 2028 2028 2028 2040 2040 2040 2040 2053 2053 2053 2053 2053 2053 2398 2398 2398 2398 2415 2415 2398 2398 2398 2398 1936 1926 1926 1936 1936 1936 1936 1936 1936 1936 1936 2415 2398 2381 2381 2381 1671 1671 1671 1671 1655 1632 1609 1594 1586 1586 1586 1586 1586 1579 1503 1503 1503 1503 1503 1503 1509 1509 1509 1509 1516 1516 1529 1579 1579 1586 1586 1586 1586 1586 1586 1586 1594 1594 1594 1594 1594 1594 1594 1594 1594 1594 1586 1586 1586 1586 1586 1594 1594 1594 1594 1594 1594 1601 1594 1594 1601 1601 1601 1601 1601 1601 1601 1601 1601 1601 1601 1601 1601 1601 1601 1601 1601 1601 1601 1601 1601 1601 1601 1601 1609 1609 1609 1609 1609 1609 1609 1609 1609 1609 1601 1601 1601 1601 1601 1601 1601 1601 1601 1609 1609 1609 1609 1609 1609 1609 1601 1594 1586 1579 1572 1564 1564 1564 1564 1564 1564 1564 1572 1572 1572 1572 1572 1572 2450 2450 2450 2450 2450 2450 2450 2450 2450 2467 2467 2467 2450 2450 2450 2467 2450 2450 2450 2450 2450 2450 2450 2450 2450 2450 2450 2450 2450 2450 2450 2450 2450 2450 2467 2467 2467 2467 1785 1785 1785 1785 1785 1776 1766 1757 1757 1757 1757 1757 1757 1757 1757 1757 1757 1757 1757 1757 1757 2432 2432 2450 2450 2450 2450 2450 2450 2450 2450 2450 2467 2467 2450 2450 2450 2450 2450 2450 2450 2450 2450 2450 2450 2450 2450 2450 2450 2450 2450 2450 2450 2450 2450 2450 2450 2450 2450 2450 2450 2450 2450 2450 2450 2450 2450 2450 2450 2450 2450 2450 2450 2450 2450 2450 2450 2450 2450 2450 2450 2450 2450 2450 2450 2450 2450 2450 2450 2450 2467 2467 2467 2467 2450 2450 2450 2467 2467 2450 2450 2450 2450 2450 2450 2450 2450 2450 2450 2450 2450 2450 2450 2450 2467 2467 2450 2450 2450 2450 2450 2450 2432 2432 2450 2450 2450 2450 2450 2450 2467 2450 2450 2450 2450 2450 2432 2432 2432 2432 2432 2432 2432 2432 2450 2450 2450 2450 2432 2432 2450 2432 2432 2432 2432 2432 2432 2432 2432 2432 2432 2432 0 0 0 0 0 0 0 0 0 0
0 0 0 0 0 0 0 0 0 0 0 0 0 0 0 0 0 0 0 0 0 0 0 0 0 0 0 0 0 0 0 0 0 2271 2271 2271 2271 2271 2271 2271 2271 2271 2271 2271 2271 2271 2271 2271 2271 2271 2286 2286 2286 2286 2286 2286 2286 2286 2286 2286 2286 2286 2286 2286 2286 2286 2271 2271 2271 2271 2271 2271 2271 2271 2271 2271 2271 2271 2271 2271 2286 2286 2286 2286 2286 2301 2286 2286 2286 2301 2301 2286 2286 2286 2286 2301 2301 2301 2301 2301 2317 2317 2301 2301 2317 2317 2317 2317 2317 2317 2317 2317 2317 2317 2333 2333 1509 1509 1509 1509 1509 1509 1509 1516 1516 1523 1523 1523 1523 1523 1529 1529 1529 1536 1536 1543 1550 1564 1458 1458 1458 1458 1458 1464 1464 1464 1464 1464 1464 1464 1470 1470 1489 1529 1536 1536 1536 1536 1543 1543 1543 1543 1543 1543 1543 1543 1543 1543 1536 1536 1536 1536 1536 1536 1543 1543 1550 1550 1550 1550 1550 1550 1550 1550 1550 1550 1550 1550 1550 1550 1550 1550 1550 1550 1550 1550 1550 1550 1550 1557 1557 1550 1550 1550 1557 1557 1557 1557 1557 1557 1557 1557 1557 1557 1557 1557 1557 1557 1557 1557 1564 1564 1564 1564 1557 1557 1557 1557 1564 1564 1564 1564 1572 1572 1572 1572 1572 1572 1572 1572 1572 1572 1572 1564 1564 1564 1557 1550 1550 1543 1536 1529 1529 1529 1529 1529 1529 1536 1536 1543 1543 1543 1543 2028 2028 2028 2040 2040 2040 2040 2053 2053 2053 2053 2053 2053 2398 2398 2398 2398 2398 2398 2398 2398 2381 2381 1936 1926 1926 1936 1936 1936 1936 1936 1936 1936 1936 1947 2381 2381 2381 2398 2415 1671 1671 1663 1647 1639 1624 1586 1586 1579 1579 1579 1579 1572 1557 1503 1503 1503 1503 1509 1509 1509 1509 1516 1516 1523 1529 1572 1572 1579 1579 1579 1579 1579 1579 1579 1586 1586 1586 1586 1586 1586 1586 1586 1586 1586 1586 1586 1586 1586 1586 1586 1586 1586 1594 1594 1594 1594 1594 1594 1594 1594 1594 1594 1594 1594 1594 1594 1594 1594 1594 1594 1594 1594 1594 1594 1594 1594 1594 1594 1594 1594 1601 1601 1601 1601 1601 1601 1601 1601 1601 1601 1601 1601 1601 1601 1601 1601 1601 1601 1601 1601 1601 1601 1601 1601 1601 1601 1601 1601 1601 1594 1586 1586 1579 1564 1564 1564 1572 1572 1572 1572 1572 1572 1579 1572 1572 1572 2450 2450 2450 2450 2450 2450 2450 2450 2450 2450 2450 2450 2450 2450 2450 2450 2450 2450 2450 2450 2450 2450 2450 2450 2450 2450 2450 2450 2450 2450 2450 2450 2450 2450 2450 2450 2467 2467 1785 1785 1785 1785 1785 1776 1766 1757 1757 1757 1757 1757 1757 1757 1757 1757 1757 1757 1757 1757 1766 2415 2432 2432 2432 2450 2450 2450 2450 2450 2450 2450 2450 2450 2432 2432 2432 2432 2432 2450 2450 2450 2450 2450 2450 2450 2432 2432 2432 2432 2432 2432 2432 2432 2450 2450 2450 2450 2450 2450 2450 2432 2432 2432 2432 2432 2450 2450 2450 2450 2450 2450 2450 2450 2432 2432 2450 2450 2450 2450 2432 2432 2450 2450 2450 2432 2432 2450 2450 2450 2450 2450 2450 2450 2450 2450 2450 2450 2450 2450 2450 2450 2450 2450 2450 2450 2450 2450 2450 2450 2450 2450 2450 2450 2450 2450 2450 2450 2450 2450 2450 2432 2432 2432 2432 2432 2432 2432 2432 2432 2432 2432 2415 2415 2415 2415 2398 2398 2398 2398 2432 2432 2415 2415 2432 2432 2432 2432 2432 2432 2432 2432 2432 2432 2432 2432 2432 2432 2432 2432 2432 2432 0 0 0 0 0 0 0 0 0 0
0 0 0 0 0 0 0 0 0 0 0 0 0 0 0 0 0 0 0 0 0 0 0 0 0 0 0 0 0 0 0 0 0 2256 2256 2256 2256 2256 2256 2256 2271 2256 2256 2271 2271 2271 2271 2271 2271 2271 2271 2271 2286 2286 2271 2271 2271 2271 2286 2286 2286 2286 2286 2286 2286 2286 2271 2271 2271 2271 2271 2271 2271 2271 2271 2271 2271 2271 2271 2271 2271 2271 2286 2286 2286 2271 2271 2271 2286 2286 2286 2286 2286 2286 2286 2286 2286 2286 2301 2301 2301 2301 2301 2301 2301 2301 2317 2317 2301 2301 2301 2317 2301 2301 2333 2333 1516 1516 1509 1509 1509 1516 1516 1516 1516 1523 1523 1523 1523 1523 1529 1529 1529 1536 1543 1550 1557 1564 1464 1464 1464 1464 1464 1464 1464 1464 1464 1470 1470 1470 1470 1477 1489 1509 1523 1529 1529 1529 1536 1536 1536 1536 1536 1536 1536 1536 1536 1536 1536 1536 1529 1529 1529 1536 1536 1536 1543 1543 1543 1543 1543 1543 1543 1543 1543 1543 1543 1550 1550 1550 1550 1550 1550 1550 1550 1550 1550 1550 1550 1550 1550 1550 1550 1550 1550 1550 1557 1550 1550 1557 1550 1550 1550 1550 1550 1550 1550 1550 1557 1557 1557 1557 1557 1557 1557 1557 1557 1557 1557 1557 1557 1557 1557 1557 1557 1557 1557 1557 1557 1557 1557 1557 1564 1557 1557 1550 1550 1550 1543 1543 1543 1536 1536 1536 1536 1536 1536 1536 1543 1543 1543 1550 1550 2053 2040 2040 2040 2040 2040 2040 2053 2053 2053 2053 2065 2065 2381 2381 2381 2381 2381 2381 2381 2381 2381 2381 1936 1926 1926 1926 1936 1936 1936 1936 1936 1936 1936 1936 2381 2381 2381 2398 2415 2415 2415 1663 1639 1632 1624 1586 1586 1579 1579 1579 1572 1572 1523 1509 1509 1509 1509 1509 1509 1509 1516 1516 1523 1523 1536 1564 1572 1572 1572 1572 1579 1579 1579 1579 1579 1579 1579 1579 1579 1579 1579 1586 1586 1586 1579 1579 1579 1579 1586 1586 1579 1579 1586 1586 1586 1586 1586 1586 1594 1594 1594 1594 1594 1594 1594 1594 1594 1594 1586 1586 1594 1594 1594 1594 1594 1586 1586 1594 1594 1594 1594 1594 1601 1601 1601 1601 1601 1601 1601 1601 1601 1601 1601 1601 1601 1601 1601 1601 1601 1601 1601 1601 1601 1601 1601 1601 1601 1601 1601 1594 1594 1586 1586 1572 1572 1572 1572 1572 1572 1572 1579 1579 1579 1572 1572 1564 1564 2450 2450 2450 2450 2450 2450 2450 2450 2450 2450 2450 2432 2432 2432 2432 2432 2432 2450 2450 2450 2450 2450 2450 2450 2450 2450 2450 2450 2450 2450 2450 2450 2450 2450 2450 2450 2450 1785 1785 1785 1785 1785 1776 1776 1766 1757 1757 1757 1757 1757 1757 1757 1766 1766 1766 1757 1757 1766 2415 2432 2432 2432 2450 2450 2450 2450 2450 2450 2450 2450 2450 2432 2432 2432 2432 2432 2432 2432 2432 2432 2432 2432 2432 2432 2432 2432 2432 2432 2432 2432 2432 2432 2432 2432 2450 2450 2432 2432 2432 2432 2432 2432 2432 2432 2450 2450 2450 2450 2450 2450 2432 2432 2432 2432 2432 2432 2432 2432 2432 2432 2432 2432 2432 2432 2432 2432 2432 2432 2450 2450 2450 2450 2450 2450 2450 2450 2450 2450 2432 2432 2432 2432 2432 2450 2450 2450 2450 2450 2450 2450 2450 2450 2450 2450 2450 2450 2450 2450 2432 2432 2432 2432 2432 2432 2432 2415 2415 2415 2415 2415 2415 2415 2415 2398 2398 2398 2398 2415 2415 2398 2398 2415 2415 2415 2415 2415 2415 2415 2415 2415 2415 2415 2415 2415 2415 2432 2415 2415 2415 0 0 0 0 0 0 0 0 0 0
0 0 0 0 0 0 0 0 0 0 0 0 0 0 0 0 0 0 0 0 0 0 0 0 0 0 0 0 0 0 0 0 0 2256 2256 2256 2256 2256 2256 2256 2256 2256 2256 2256 2271 2271 2271 2271 2271 2271 2271 2271 2271 2271 2271 2271 2271 2271 2271 2271 2271 2271 2271 2286 2286 2286 2271 2271 2271 2271 2271 2271 2256 2256 2256 2256 2256 2271 2271 2271 2271 2271 2271 2271 2271 2271 2271 2271 2271 2271 2271 2271 2271 2271 2286 2286 2286 2286 2286 2286 2286 2286 2286 2286 2286 2301 2301 2301 2286 2286 2286 2286 2286 2286 2317 2317 1516 1516 1516 1509 1509 1516 1516 1516 1516 1523 1523 1523 1523 1523 1529 1529 1529 1536 1543 1543 1550 1557 1557 1464 1464 1464 1464 1464 1464 1470 1470 1470 1470 1470 1477 1477 1496 1509 1523 1529 1529 1529 1529 1529 1529 1529 1529 1529 1529 1529 1529 1529 1529 1529 1529 1529 1529 1529 1529 1529 1536 1536 1543 1536 1536 1543 1543 1543 1543 1543 1543 1543 1543 1543 1543 1543 1543 1543 1543 1543 1543 1550 1550 1550 1550 1550 1550 1550 1550 1550 1550 1550 1550 1550 1543 1543 1543 1543 1543 1550 1550 1550 1550 1550 1550 1557 1557 1557 1550 1550 1557 1557 1557 1557 1557 1557 1557 1557 1557 1557 1557 1557 1557 1557 1557 1557 1557 1550 1550 1550 1550 1550 1543 1543 1543 1536 1536 1536 1536 1536 1536 1536 1543 1543 1550 1550 1550 2053 2040 2040 2040 2040 2040 2053 2053 2053 2053 2065 2065 2065 2365 2365 2365 2365 2365 2365 2381 2365 2365 2365 1936 1926 1926 1926 1936 1936 1936 1936 1936 1936 1936 1936 2381 2381 2381 2398 2415 2415 2415 1632 1632 1632 1624 1586 1586 1579 1579 1579 1572 1564 1523 1509 1509 1509 1509 1509 1516 1516 1516 1516 1523 1529 1543 1564 1572 1572 1572 1572 1572 1572 1572 1572 1572 1572 1579 1579 1579 1579 1579 1579 1579 1579 1572 1572 1572 1579 1579 1579 1579 1579 1586 1586 1586 1579 1579 1586 1586 1586 1586 1586 1586 1586 1586 1586 1586 1586 1586 1586 1586 1586 1586 1586 1586 1586 1586 1586 1586 1586 1594 1594 1594 1594 1594 1594 1594 1594 1594 1601 1601 1601 1601 1601 1601 1601 1594 1594 1601 1601 1601 1601 1601 1601 1601 1601 1601 1601 1594 1594 1594 1586 1586 1572 1572 1572 1579 1579 1579 1579 1579 1579 1586 1572 1564 1564 1564 1564 2432 2432 2450 2450 2450 2432 2432 2432 2432 2432 2432 2432 2432 2432 2432 2432 2432 2432 2432 2432 2432 2432 2432 2432 2432 2432 2432 2432 2432 2432 2432 2432 2432 2432 2432 2432 1785 1785 1785 1785 1785 1776 1776 1766 1757 1757 1757 1757 1757 1757 1766 1766 1766 1766 1766 1766 1766 2398 2415 2432 2432 2432 2432 2432 2432 2432 2432 2432 2450 2450 2415 2415 2432 2432 2432 2432 2432 2432 2432 2432 2432 2432 2432 2432 2432 2432 2432 2432 2432 2432 2432 2432 2432 2432 2432 2432 2432 2432 2415 2415 2432 2432 2432 2432 2432 2432 2432 2432 2432 2432 2432 2432 2432 2432 2432 2432 2432 2432 2432 2432 2432 2432 2432 2432 2432 2432 2432 2450 2450 2450 2450 2450 2450 2450 2432 2432 2432 2432 2432 2432 2432 2432 2432 2432 2432 2450 2450 2450 2450 2450 2450 2450 2432 2432 2432 2432 2432 2432 2415 2415 2415 2415 2415 2415 2415 2415 2415 2415 2415 2415 2415 2415 2415 2415 2398 2398 2415 2398 2398 2398 2398 2398 2398 2398 2415 2415 2415 2415 2415 2415 2415 2415 2415 2415 2415 2415 2415 2415 0 0 0 0 0 0 0 0 0 0
0 0 0 0 0 0 0 0 0 0 0 0 0 0 0 0 0 0 0 0 0 0 0 0 0 0 0 0 0 0 0 0 0 2241 2241 2256 2256 2241 2241 2241 2256 2256 2256 2256 2256 2256 2256 2256 2256 2256 2271 2271 2271 2271 2271 2271 2256 2256 2271 2271 2271 2271 2271 2271 2271 2271 2256 2256 2256 2256 2256 2256 2256 2256 2256 2256 2256 2256 2256 2271 2271 2271 2271 2256 2256 2256 2256 2256 2256 2256 2271 2271 2271 2271 2271 2271 2271 2271 2271 2271 2271 2271 2286 2271 2271 2286 2286 2286 2286 2286 2286 2286 2286 2286 2286 2286 1516 1516 1516 1516 1516 1516 1516 1516 1523 1523 1523 1523 1523 1523 1529 1529 1529 1536 1543 1543 1550 1550 1550 1464 1464 1464 1464 1470 1470 1470 1470 1477 1477 1477 1477 1483 1503 1509 1516 1523 1523 1523 1529 1529 1529 1529 1529 1529 1529 1529 1529 1529 1529 1529 1529 1529 1529 1529 1529 1529 1529 1536 1536 1536 1536 1536 1536 1536 1536 1536 1536 1536 1536 1536 1536 1536 1536 1536 1536 1536 1536 1543 1543 1543 1543 1543 1543 1543 1543 1543 1543 1543 1543 1543 1543 1543 1543 1543 1543 1543 1543 1543 1543 1543 1550 1550 1550 1550 1550 1550 1550 1550 1550 1550 1550 1550 1550 1550 1557 1550 1550 1557 1557 1557 1557 1557 1557 1550 1550 1550 1550 1550 1543 1543 1543 1543 1543 1543 1543 1543 1543 1543 1543 1543 1550 1550 1550 2053 2040 2040 2040 2040 2040 2053 2053 2053 2053 2065 2065 2365 2349 2349 2365 2365 2365 2365 2349 2349 2333 2333 1936 1926 1926 1936 1936 1936 1936 1936 1936 1936 1926 1926 1936 1601 1594 1594 2381 2381 2381 2398 1624 1624 1609 1586 1579 1579 1579 1572 1572 1564 1523 1516 1516 1516 1516 1516 1516 1516 1516 1516 1529 1529 1543 1557 1564 1564 1564 1564 1564 1564 1564 1564 1564 1572 1572 1572 1572 1572 1572 1572 1572 1572 1572 1572 1572 1572 1572 1572 1572 1572 1579 1579 1579 1572 1572 1579 1579 1579 1579 1579 1579 1579 1579 1579 1579 1579 1579 1579 1579 1586 1586 1579 1579 1579 1579 1586 1586 1586 1586 1586 1594 1594 1594 1594 1594 1594 1594 1594 1594 1594 1594 1594 1594 1594 1594 1594 1594 1594 1594 1594 1594 1594 1594 1594 1594 1601 1594 1594 1594 1594 1586 1579 1579 1579 1579 1579 1579 1586 1586 1586 1586 1572 1564 1564 1564 1564 2415 2415 2432 2432 2432 2432 2432 2432 2415 2415 2415 2415 2415 2415 2415 2415 2432 2432 2432 2432 2432 2432 2432 2415 2415 2432 2432 2432 2432 2432 2415 2415 2415 2415 2432 1794 1794 1785 1785 1785 1785 1785 1776 1766 1766 1766 1766 1766 1766 1766 1766 1766 1766 1766 1766 1766 1766 2398 2415 2415 2415 2415 2432 2432 2432 2432 2432 2432 2432 2432 2415 2415 2415 2415 2415 2415 2415 2415 2415 2415 2415 2432 2415 2415 2415 2415 2415 2415 2415 2415 2432 2415 2415 2415 2415 2415 2415 2415 2415 2415 2415 2415 2432 2432 2432 2432 2432 2432 2432 2432 2432 2432 2415 2415 2432 2432 2415 2415 2415 2432 2432 2432 2432 2432 2432 2432 2432 2450 2450 2450 2432 2432 2432 2432 2432 2432 2415 2415 2415 2432 2432 2432 2432 2432 2432 2450 2450 2450 2450 2450 2432 2432 2432 2432 2432 2432 2432 2415 2415 2415 2415 2415 2415 2415 2415 2415 2415 2415 2398 2398 2398 2398 2398 2398 2398 2398 2398 2398 2398 2381 2381 2381 2398 2398 2398 2415 2415 2415 2415 2415 2415 2415 2415 2415 2415 2398 2398 2398 0 0 0 0 0 0 0 0 0 0
