0 0 0 0 0 0 0 0 0 0 0 0 0 0 0 0 0 0 0 0 0 0 0 0 0 0 0 0 0 0 4708 4708 4774 4842 4842 4842 4842 4842 4911 4911 4911 4983 4983 4983 5056 5132 5210 5210 5210 5291 5548 6038 6259 6375 6375 6375 6375 6375 6375 6375 6375 6375 6259 6259 6259 6259 6259 6259 6259 6259 6146 6146 6259 6259 6259 6259 6375 6375 6375 6375 6375 6259 6259 6259 6259 6259 6259 6259 6259 6146 6146 6146 6146 6146 6146 6146 6146 6146 6259 6259 6259 6259 6259 6375 6375 6497 6622 6622 6622 6622 6622 6622 6622 6622 6622 6622 6622 6622 6622 6622 6622 6622 6622 6622 6622 6753 6753 6753 6753 6753 6753 6753 6753 6753 6753 6622 6622 6753 6753 6889 6889 6889 3092 3092 3092 3092 3092 3092 3120 3120 3120 3092 3092 3092 3120 3120 3120 3120 3120 3149 3120 3120 3120 3149 3149 3149 3149 3149 3149 3149 3149 3149 3149 3149 3149 3149 3149 3149 3149 3178 3178 3178 3178 3178 3178 3178 3178 3178 3178 3178 3178 3178 3178 3178 3178 3178 3178 3178 3178 3178 3208 3208 3208 3208 3208 3208 3208 3208 3208 3208 3208 3208 3208 3238 3238 3238 3238 3238 3269 3269 3269 3269 3269 3269 3269 3269 3238 3238 3238 3238 3269 3269 3269 3269 3269 3269 3269 3269 3269 3238 3238 3238 3238 3238 3238 3238 3238 3238 3269 3269 3269 3269 3269 3269 3333 4522 4522 4522 4582 4582 4582 4645 6375 6259 6259 6259 6259 6259 6259 6622 7030 7332 7332 7492 7492 7492 7492 7492 7332 7332 7030 7030 7178 7178 7178 7332 7492 7492 7492 7492 7492 7492 7492 7492 7492 7492 7492 7492 7492 7492 7492 7492 7660 7660 7660 7492 7492 7492 7332 7332 7332 7332 7332 7492 7492 7178 7030 6889 6889 6889 6889 6889 7030 7030 7178 7178 6889 6889 7030 7178 7332 7492 7492 7492 7492 7492 7492 7492 7492 7492 7660 7660 7660 7660 7660 7660 7660 7660 7835 7835 8019 8019 5132 5132 5132 5132 5132 5132 5132 5132 5132 5056 5056 5056 5132 5056 5056 5056 5056 5056 4983 4983 4983 4983 4911 4911 4911 4911 4983 4983 4911 4911 4911 4911 4911 4911 4911 4911 4911 4911 4911 4842 4842 4842 4842 4842 4842 4842 4842 4842 4842 4842 4842 4842 4842 4842 4842 4842 4842 4842 4842 0 0 0 0 0 0 0 0 0 0 0 0 0 0 0 0 0 0 0 0 0 0 0 0 0 0 0 0 0 0 0 0 0 0 0 0 0 0 3614 3614 3653 3653 3653 3653 3653 3653 0 0 0 0 0 3653 3653 3653 3653 3653 3653 3653 3653 3653 3732 3774 3774 3774 0 3433 0 3774 0 3774 3774 3692 3692 3692 3692 3692 3692 3732 3692 3692 3732 3774 3859 3692 3692 3692 3692 3732 3692 3653 3653 3653 3653 3653 3653 3653 3692 3692 3732 3732 3732 3732 3732 3732 0 0 0 0 0 0 0 0 0 0 0 0 0 0 0 0 0 0 0 0 0 0 0 0 0 0 0 0 0 2789 2789 2789 2789 2789 2789 2789 2767 2767 2767 2767 2767 2767 2767 2767 2767 2767 2767 2767 2767 2767 2767 2767 2767 2767 2767 2767 2744 2744 2744 2744 2744 2744 2744 2744 2744 2744 2744 2744 2744 2723 2723 2723 2701 2701 2701 2701 2701 2723 2723 2723 4645 4645 4645 4645 4582 4582 2744 2744 2744 2744 2723 2723 2723 2723 2723 2723 2723 2723 2723 2723 2723 2744 2744 2723 2723 2744 2744 2744 2744 2812 2812 2812 2812 0 0 0 0 0 0 0 0 0 0 0 0
0 0 0 0 0 0 0 0 0 0 0 0 0 0 0 0 0 0 0 0 0 0 0 0 0 0 0 0 0 0 4708 4708 4774 4842 4842 4842 4842 4842 4911 4911 4911 4983 4983 4983 5056 5132 5210 5210 5210 5291 5291 6259 6259 6497 6497 6497 6497 6375 6375 6375 6375 6375 6259 6259 6259 6259 6259 6375 6375 6375 6259 6259 6259 6259 6375 6375 6375 6375 6375 6497 6497 6375 6375 6375 6259 6259 6259 6259 6259 6259 6146 6146 6146 6146 6146 6146 6146 6146 6259 6259 6259 6259 6375 6375 6622 6622 6622 6622 6622 6622 6622 6622 6622 6622 6622 6622 6622 6622 6622 6622 6622 6622 6622 6622 6622 6622 6622 6622 6622 6753 6753 6753 6753 6753 6753 6622 6622 6753 6753 6753 6889 6889 6889 3092 3064 3064 3092 3092 3120 3120 3120 3120 3120 3120 3120 3120 3120 3149 3149 3149 3149 3149 3149 3149 3149 3149 3149 3149 3149 3149 3149 3149 3149 3149 3149 3149 3149 3149 3149 3178 3178 3178 3178 3178 3178 3178 3178 3178 3178 3178 3178 3178 3178 3178 3178 3178 3178 3178 3178 3178 3208 3208 3208 3208 3208 3208 3208 3208 3208 3208 3208 3238 3238 3238 3269 3269 3269 3269 3269 3269 3269 3269 3269 3269 3269 3269 3269 3269 3269 3269 3269 3269 3269 3269 3269 3269 3269 3269 3269 3238 3238 3238 3238 3238 3238 3238 3238 3238 3269 3269 3269 3269 3269 3269 3333 4522 4522 4522 4582 4582 4582 4582 6375 6375 6375 6375 6375 6375 6375 6753 7178 7332 7332 7492 7492 7492 7492 7492 7332 7178 7030 7030 7030 7030 7178 7178 7332 7492 7492 7492 7492 7492 7492 7492 7492 7492 7492 7492 7492 7492 7492 7492 7660 7660 7660 7660 7492 7492 7332 7332 7332 7332 7332 7492 7332 7178 7030 6889 6889 6889 6889 7030 7178 7178 7332 7178 6889 6889 7030 7030 7332 7492 7492 7492 7492 7492 7492 7492 7492 7492 7492 7660 7660 7660 7660 7660 7660 7835 7835 7835 7835 7835 5132 5132 5132 5132 5210 5132 5132 5132 5132 5132 5056 5056 5132 5132 5132 5056 5056 5056 4983 4983 4983 4911 4911 4911 4911 4911 4983 4983 4911 4911 4911 4911 4911 4911 4911 4911 4911 4911 4842 4842 4842 4842 4842 4842 4842 4842 4842 4842 4842 4842 4842 4842 4842 4842 4842 4842 4842 4842 4842 0 0 0 0 0 0 0 0 0 0 0 0 0 0 0 0 0 0 0 0 0 0 0 0 0 0 0 0 0 0 0 0 0 0 0 0 0 0 3614 3614 3614 3614 3614 3614 3614 3576 3576 0 0 0 3614 3614 3614 3614 3614 3614 3614 3614 3614 3614 3653 3653 3468 3433 3433 0 0 0 0 0 3692 3692 3653 3614 3614 3653 3653 3653 3653 3653 3653 3653 3653 3653 3653 3653 3653 3653 3653 3614 3614 3614 3614 3614 3614 3653 3653 3692 3692 3692 3732 3732 3732 3732 0 0 0 0 0 0 0 0 0 0 0 0 0 0 0 0 0 0 0 0 0 0 0 0 0 0 0 0 0 2789 2789 2789 2789 2789 2789 2789 2789 2789 2789 2767 2767 2767 2767 2767 2767 2767 2767 2767 2767 2767 2767 2767 2767 2767 2767 2767 2744 2744 2744 2744 2744 2744 2744 2744 2744 2744 2744 2744 2744 2723 2723 2723 2723 2701 2701 2701 2701 2723 2723 2723 2723 2723 2723 2723 2723 2723 2723 2723 2723 2723 2723 2723 2723 2723 2723 2723 2723 2723 2723 2744 2744 2744 2744 2744 2744 2767 2767 2767 2789 2812 2812 2835 0 0 0 0 0 0 0 0 0 0 0 0 0
0 0 0 0 0 0 0 0 0 0 0 0 0 0 0 0 0 0 0 0 0 0 0 0 0 0 0 0 0 0 4774 4774 4842 4842 4842 4842 4842 4911 4911 4911 4911 4983 4983 5056 5132 5132 5210 5210 5210 5291 5291 6259 6259 6375 6497 6497 6375 6259 6259 6259 6375 6375 6259 6259 6259 6375 6375 6375 6497 6375 6259 6259 6375 6375 6375 6375 6375 6375 6497 6497 6497 6497 6497 6375 6375 6375 6259 6259 6259 6259 6259 6259 6146 6146 6146 6146 6259 6259 6259 6259 6259 6259 6375 6375 6622 6622 6622 6622 6622 6622 6622 6622 6622 6622 6622 6622 6622 6622 6622 6622 6622 6622 6622 6622 6622 6622 6622 6622 6622 6753 6753 6753 6753 6753 6753 6753 6753 6753 6753 6753 6889 6889 6889 3092 3064 3064 3092 3092 3120 3120 3149 3120 3120 3120 3149 3149 3149 3149 3149 3149 3149 3149 3149 3149 3149 3149 3149 3149 3149 3149 3149 3149 3149 3149 3149 3149 3149 3149 3149 3178 3178 3178 3178 3178 3178 3178 3178 3178 3178 3178 3178 3178 3178 3178 3178 3208 3178 3178 3178 3178 3208 3208 3208 3208 3208 3208 3208 3208 3208 3208 3208 3238 3238 3238 3269 3269 3269 3269 3269 3269 3269 3269 3269 3269 3269 3269 3269 3269 3269 3269 3269 3269 3269 3269 3269 3269 3269 3269 3269 3238 3238 3238 3238 3238 3238 3269 3269 3269 3269 3269 3269 3269 3269 3269 4522 4522 4522 4522 4582 4582 4582 4582 4582 6375 6375 6375 6375 6375 6497 6753 7332 7332 7492 7492 7660 7492 7492 7492 7332 7178 6889 6889 7030 7030 7178 7178 7332 7492 7492 7492 7492 7492 7492 7492 7492 7492 7492 7492 7492 7492 7492 7492 7660 7660 7660 7492 7492 7492 7332 7332 7332 7332 7332 7492 7332 7178 7030 6889 6889 6889 6889 7030 7178 7332 7332 7178 6889 6889 7030 7030 7332 7492 7492 7492 7492 7660 7492 7492 7492 7492 7492 7660 7660 7660 7660 7660 7660 7835 7835 7835 7835 7835 5132 5132 5132 5210 5210 5210 5132 5132 5132 5132 5132 5132 5132 5132 5132 5132 5056 5056 4983 4983 4983 4911 4911 4911 4911 4911 4983 4983 4911 4911 4911 4911 4911 4911 4911 4911 4911 4911 4842 4842 4842 4842 4842 4842 4842 4842 4842 4842 4842 4842 4842 4842 4842 4842 4842 4842 4842 4842 4842 0 0 0 0 0 0 0 0 0 0 0 0 0 0 0 0 0 0 0 0 0 0 0 0 0 3576 3576 0 0 0 0 0 0 0 0 0 0 0 3614 3614 3614 3614 3614 3614 3576 3539 3503 3503 3503 3468 3468 3539 3539 3539 3576 3576 3576 3576 3576 3576 3468 3468 3468 3433 3433 3433 0 0 0 3614 3614 3614 3653 3614 3614 3614 3614 3614 3614 3614 3653 3653 3653 3653 3653 3614 3614 3614 3614 3576 3576 3576 3576 3614 3614 3614 3653 3653 3653 3692 3692 3692 0 0 0 0 0 0 0 0 0 0 0 0 0 0 0 0 0 0 0 0 0 0 0 0 0 0 0 0 0 0 0 2789 2789 2789 2789 2789 2789 2789 2789 2789 2767 2767 2767 2767 2767 2767 2767 2767 2767 2767 2767 2767 2767 2767 2767 2767 2767 2767 2744 2744 2744 2744 2744 2744 2744 2744 2744 2744 2744 2744 2744 2744 2744 2744 2744 2701 2701 2723 2723 2723 2723 2723 2723 2723 2723 2723 2723 2723 2723 2723 2723 2723 2723 2723 2723 2723 2723 2723 2723 2723 2723 2723 2744 2744 2744 2744 2744 2767 2767 2767 2767 2789 2812 2835 0 0 0 0 0 0 0 0 0 0 0 0 0
0 0 0 0 0 0 0 0 0 0 0 0 0 0 0 0 0 0 0 0 0 0 0 0 0 0 0 0 0 0 4774 4774 4842 4842 4842 4842 4911 4911 4911 4911 4911 4983 5056 5056 5132 5132 5210 5210 5210 5291 6375 6259 6259 6375 6375 6375 6259 6259 6259 6259 6259 6259 6259 6259 6259 6375 6497 6497 6497 6375 6375 6375 6375 6375 6375 6375 6375 6375 6375 6497 6497 6497 6497 6375 6375 6375 6375 6259 6259 6259 6259 6259 6146 6146 6146 6146 6259 6259 6259 6259 6259 6375 6375 6375 6497 6622 6622 6622 6622 6622 6622 6622 6622 6622 6622 6622 6622 6622 6622 6622 6622 6622 6622 6622 6622 6622 6622 6622 6622 6622 6753 6753 6753 6753 6753 6753 6753 6753 6753 6753 6753 6889 6889 6889 3092 3092 3092 3092 3120 3120 3149 3120 3120 3120 3149 3149 3149 3149 3149 3149 3149 3149 3149 3149 3149 3149 3149 3149 3149 3149 3149 3149 3149 3149 3149 3149 3149 3149 3149 3178 3178 3178 3178 3178 3178 3178 3178 3178 3178 3178 3178 3178 3178 3178 3178 3178 3178 3178 3178 3178 3208 3208 3208 3208 3208 3208 3208 3208 3208 3208 3208 3238 3238 3238 3269 3269 3269 3269 3269 3269 3269 3269 3269 3269 3269 3269 3269 3269 3269 3269 3269 3269 3269 3269 3269 3269 3269 3269 3269 3238 3238 3238 3238 3238 3238 3238 3269 3269 3269 3269 3269 3269 3269 3269 4522 4522 4522 4522 4582 4582 4582 4582 4645 6375 6375 6375 6375 6375 6497 6622 7332 7332 7492 7492 7660 7492 7492 7492 7492 7332 6889 6889 7030 7030 7178 7178 7332 7492 7492 7492 7492 7492 7492 7492 7492 7492 7492 7492 7492 7492 7492 7492 7492 7660 7660 7492 7332 7332 7332 7332 7332 7332 7332 7492 7492 7178 6889 6753 6753 6753 6753 6889 7178 7178 7332 7030 6889 6889 7030 7030 7332 7492 7492 7492 7660 7660 7660 7492 7492 7492 7492 7660 7660 7660 7660 7660 7660 7835 7835 7835 7835 7835 5210 5210 5210 5210 5210 5210 5132 5132 5132 5132 5132 5132 5132 5132 5132 5132 5132 5056 4983 4983 4911 4911 4911 4911 4911 4911 4983 4983 4911 4911 4911 4911 4911 4911 4911 4911 4911 4911 4911 4911 4911 4911 4911 4842 4842 4842 4842 4842 4842 4842 4842 4842 4842 4842 4842 4842 4842 4842 4842 0 0 0 0 0 0 0 0 0 0 0 0 0 0 0 0 0 0 0 0 0 0 0 3503 3503 3539 3468 3468 3433 3433 3433 0 0 0 0 0 0 0 3576 3576 3576 3576 3576 3576 3503 3503 3468 3468 3468 3433 3433 3468 3433 3433 3468 3468 3468 3468 3468 3468 3433 3433 3433 3433 3433 0 3433 0 0 3614 3614 3614 3614 3576 3576 3576 3576 3576 3576 3576 3576 3576 3576 3576 3576 3576 3576 3576 3576 3539 3539 3539 3576 3576 3576 3576 3576 3653 3653 3692 3692 0 0 0 0 0 0 0 0 0 0 0 0 0 0 0 0 0 0 0 0 0 0 0 0 0 0 0 0 0 0 0 0 2789 2789 2789 2789 2812 2789 2789 2789 2789 2767 2767 2767 2767 2767 2767 2767 2767 2767 2767 2767 2767 2767 2767 2767 2767 2767 2767 2744 2744 2744 2744 2744 2744 2744 2744 2744 2744 2744 2744 2744 2744 2744 2744 2744 2723 2723 2723 2723 2723 2723 2723 2723 2723 2723 2723 2723 2723 2723 2723 2723 2723 2744 2744 2744 2744 2744 2723 2723 2723 2723 2723 2744 2744 2744 2744 2744 2767 2767 2767 2767 2789 2812 0 0 0 0 0 0 0 0 0 0 0 0 0 0
0 0 0 0 0 0 0 0 0 0 0 0 0 0 0 0 0 0 0 0 0 0 0 0 0 0 0 0 0 0 4774 4774 4842 4842 4842 4842 4911 4911 4911 4911 4983 5056 5056 5132 5210 5210 5210 5210 5210 5210 5210 5210 6259 6259 6375 6375 6146 6146 6146 6259 6259 6259 6259 6259 6259 6375 6497 6497 6497 6375 6375 6375 6375 6375 6375 6375 6375 6375 6375 6497 6375 6375 6375 6375 6375 6375 6375 6259 6259 6259 6259 6259 6146 6146 6146 6146 6259 6259 6259 6259 6259 6375 6375 6375 6497 6622 6622 6622 6622 6622 6622 6622 6622 6622 6622 6622 6622 6622 6622 6622 6622 6622 6622 6622 6622 6622 6622 6622 6622 6622 6753 6753 6753 6753 6753 6753 6753 6753 6753 6753 6753 6753 6889 6889 3120 3092 3092 3120 3120 3120 3149 3120 3120 3149 3149 3149 3149 3149 3149 3149 3149 3149 3149 3149 3149 3149 3149 3149 3149 3149 3149 3149 3149 3149 3149 3149 3178 3178 3178 3178 3178 3178 3178 3178 3178 3178 3178 3178 3178 3178 3178 3178 3178 3178 3178 3178 3178 3178 3178 3208 3208 3208 3208 3208 3208 3238 3208 3208 3208 3208 3208 3238 3238 3238 3238 3238 3269 3269 3269 3269 3269 3269 3269 3269 3269 3269 3269 3269 3269 3269 3269 3269 3269 3269 3269 3269 3269 3269 3269 3238 3238 3238 3238 3238 3238 3238 3269 3269 3269 3269 3269 3269 3269 3269 3269 4522 4582 4582 4582 4582 4582 4582 4645 6375 6375 6375 6375 6375 6497 6622 7030 7178 7332 7492 7660 7492 7492 7492 7492 7332 6622 6622 7030 7030 7178 7332 7492 7492 7492 7492 7492 7492 7492 7492 7492 7492 7492 7492 7492 7492 7492 7492 7492 7660 7660 7492 7332 7332 7332 7332 7332 7332 7332 7492 7492 7178 6889 6753 6753 6753 6753 6889 7030 7030 7332 7030 6889 6889 7030 7030 7332 7492 7492 7660 7660 7660 7660 7492 7492 7492 7492 7660 7660 7660 7660 7660 7660 7835 7835 7835 7835 5132 5132 5210 5210 5210 5210 5210 5132 5132 5210 5210 5132 5132 5132 5132 5132 5132 5132 5132 5056 4983 4911 4911 4911 4911 4911 4983 4983 4911 4911 4911 4911 4911 4911 4911 4911 4911 4911 4911 4911 4911 4911 4911 4911 4842 4842 4842 4842 4842 4842 4842 4842 4842 4842 4842 4842 4842 4842 4911 4911 0 0 0 0 0 0 0 0 0 0 0 0 0 0 0 0 0 0 0 0 0 0 3503 3503 3503 3539 3468 3468 3433 3433 3433 0 0 0 0 0 0 0 3503 3468 3468 3468 3539 3468 3468 3468 3433 3433 3468 3433 3433 3433 3433 3433 3433 3468 3468 3468 3468 3468 3433 3433 3399 3399 3433 3433 0 0 0 3433 3614 3614 3614 3503 3503 3503 3503 3503 3503 3503 3539 3539 3539 3503 3503 3503 3539 3539 3539 3539 3539 3539 3539 3539 3539 3539 3539 3468 3468 3468 3468 3468 0 0 0 0 0 0 0 0 0 0 0 0 0 0 0 0 0 0 0 0 0 0 0 0 0 0 0 0 0 0 0 2812 2812 2812 2812 2812 2812 2812 2789 2789 2767 2767 2767 2767 2767 2767 2767 2767 2767 2767 2767 2767 2767 2767 2767 2767 2767 2767 2744 2744 2744 2744 2744 2744 2744 2744 2744 2744 2767 2767 2744 2744 2744 2767 2744 2723 2723 2723 2723 2723 2723 2723 2723 2723 2701 2701 2723 2723 2723 2723 2723 2723 2744 2744 2744 2744 2744 2744 2744 2744 2744 2744 2744 2744 2744 2744 2744 2744 2744 2744 2744 2744 2744 0 0 0 0 0 0 0 0 0 0 0 0 0 0
0 0 0 0 0 0 0 0 0 0 0 0 0 0 0 0 0 0 0 0 0 0 0 0 0 0 0 0 0 0 4774 4774 4842 4842 4842 4842 4911 4911 4911 4911 4983 5056 5132 5132 5210 5210 5210 5210 5210 5210 5210 5210 6259 6259 6259 6259 6038 6038 6146 6146 6259 6259 6259 6259 6259 6375 6375 6497 6497 6375 6375 6375 6375 6375 6375 6375 6259 6259 6375 6375 6259 6259 6375 6259 6259 6259 6259 6259 6259 6146 6146 6146 6146 6146 6146 6259 6259 6259 6259 6259 6259 6375 6375 6375 6497 6622 6622 6622 6622 6622 6622 6622 6622 6622 6622 6622 6622 6622 6622 6622 6622 6622 6622 6622 6622 6622 6622 6622 6622 6622 6622 6753 6753 6753 6753 6753 6753 6753 6753 6753 6753 6753 6889 6889 3120 3092 3092 3120 3120 3120 3149 3120 3120 3120 3149 3149 3149 3149 3149 3149 3149 3149 3149 3149 3149 3149 3149 3149 3149 3149 3149 3149 3149 3149 3149 3178 3178 3178 3178 3178 3178 3178 3178 3178 3178 3178 3178 3178 3178 3178 3178 3178 3178 3178 3178 3178 3178 3178 3178 3208 3208 3208 3208 3208 3208 3238 3208 3208 3208 3208 3208 3238 3238 3238 3238 3238 3269 3269 3269 3269 3269 3269 3269 3269 3269 3269 3269 3269 3269 3269 3269 3269 3269 3269 3269 3269 3269 3269 3269 3238 3238 3238 3238 3238 3238 3269 3269 3269 3269 3269 3269 3269 3269 3269 3269 4582 4582 4582 4582 4645 4582 4582 4645 6497 6375 6375 6375 6497 6497 6497 6889 7178 7332 7492 7660 7660 7660 7660 7492 7332 6622 6622 7030 7030 7178 7332 7492 7492 7492 7660 7492 7492 7660 7660 7660 7492 7492 7492 7492 7492 7492 7492 7492 7660 7660 7492 7332 7332 7332 7332 7332 7332 7332 7492 7492 7030 6753 6753 6753 6753 6753 6889 7030 7030 7030 7030 7178 7178 7178 7178 7492 7492 7660 7660 7660 7660 7660 7492 7492 7492 7492 7660 7660 7660 7660 7660 7660 7835 7835 7660 7660 5132 5132 5210 5210 5210 5210 5210 5210 5210 5210 5210 5210 5132 5132 5132 5132 5132 5132 5132 5056 4983 4983 4911 4911 4911 4911 4983 4983 4911 4911 4911 4911 4911 4911 4911 4911 4911 4911 4911 4911 4911 4911 4911 4911 4842 4842 4842 4842 4842 4842 4842 4842 4842 4842 4842 4842 4911 4911 4911 4983 0 0 0 0 0 0 0 0 0 0 0 0 0 0 0 0 0 0 0 0 0 3503 3503 3503 3503 3503 3468 3468 3468 3468 3468 3468 0 0 0 0 0 3433 3433 3433 3399 3399 3433 3433 3433 3433 3399 3399 3399 3365 3365 3399 3399 3399 3399 3433 3433 3433 3433 3433 3399 3399 3399 3399 3433 3433 0 0 0 0 0 3468 3468 3468 3468 3468 3468 3468 3468 3468 3468 3503 3503 3503 3503 3503 3503 3539 3539 3503 3503 3539 3539 3539 3539 3539 3539 3468 3468 3468 3468 3468 0 0 0 0 0 0 0 0 0 3468 3468 3468 0 0 3503 3503 0 0 0 0 0 0 0 0 0 0 0 0 0 0 0 2812 2812 2812 2812 2812 2812 2812 2789 2789 2767 2767 2767 2767 2767 2767 2767 2767 2767 2767 2767 2767 2767 2767 2767 2767 2767 2767 2744 2744 2744 2744 2744 2744 2744 2744 2744 2744 2767 2767 2767 2767 2767 2767 2767 2723 2723 2723 2723 2723 2723 2723 2723 2723 2701 2701 2723 2723 2723 2723 2723 2723 2744 2744 2744 2744 2744 2744 2744 2744 2744 2744 2744 2744 2744 2744 2744 2744 2744 2744 2744 2723 2723 0 0 0 0 0 0 0 0 0 0 0 0 0 0
0 0 0 0 0 0 0 0 0 0 0 0 0 0 0 0 0 0 0 0 0 0 0 0 0 0 0 0 0 0 4774 4774 4842 4842 4842 4842 4911 4911 4911 4983 5056 5132 5210 5210 5210 5210 5210 5210 5210 5291 5291 5291 5291 6259 6259 6259 6038 6038 6146 6146 6259 6259 6146 6146 6259 6375 6375 6497 6497 6375 6375 6375 6375 6375 6375 6375 6259 6259 6375 6375 6259 6259 6259 6259 6259 6259 6259 6259 6146 6146 6146 6146 6146 6146 6146 6259 6259 6259 6259 6375 6375 6375 6375 6497 6622 6622 6622 6497 6497 6497 6497 6497 6497 6497 6497 6622 6622 6622 6622 6622 6622 6622 6622 6622 6622 6622 6622 6622 6622 6622 6622 6753 6753 6753 6753 6753 6753 6753 6753 6753 6753 6753 6889 6889 3120 3092 3092 3120 3120 3120 3149 3120 3120 3120 3149 3149 3149 3149 3149 3149 3149 3149 3149 3149 3149 3149 3149 3149 3149 3149 3149 3149 3149 3149 3149 3178 3178 3178 3178 3178 3178 3178 3178 3178 3178 3178 3178 3178 3178 3178 3178 3178 3178 3178 3178 3178 3178 3178 3208 3208 3208 3238 3238 3238 3238 3238 3208 3208 3208 3208 3208 3238 3238 3238 3238 3238 3269 3269 3269 3269 3269 3269 3269 3269 3269 3269 3269 3269 3269 3269 3269 3269 3269 3269 3269 3269 3269 3300 3269 3238 3238 3238 3238 3238 3238 3269 3269 3269 3269 3269 3269 3269 3269 3269 3269 4582 4582 4582 4582 4645 4645 4645 4645 6497 6497 6497 6497 6497 6497 6497 6889 7332 7492 7492 7660 7660 7660 7492 7492 7332 6622 6622 6889 7030 7332 7332 7492 7492 7492 7660 7660 7660 7660 7660 7660 7492 7492 7492 7492 7492 7492 7492 7492 7660 7660 7492 7492 7492 7492 7332 7332 7332 7492 7492 7492 7030 6753 6622 6622 6753 6753 6889 6889 6889 6889 0 0 7332 7492 7492 7492 7492 7660 7660 7660 7660 7660 7660 7492 7492 7660 7660 7660 7660 7660 7660 7660 7835 7835 7660 7660 5132 5132 5210 5210 5210 5210 5210 5210 5210 5210 5210 5210 5210 5210 5210 5132 5132 5132 5132 5056 5056 4983 4911 4911 4911 4911 4911 4911 4983 4911 4911 4911 4911 4911 4911 4911 4911 4911 4911 4911 4911 4911 4911 4911 4911 4842 4842 4842 4842 4842 4842 4842 4842 4842 4842 4842 4911 4911 4911 0 0 0 0 0 0 0 0 0 0 0 0 0 0 0 0 0 0 0 0 0 0 3503 3503 3503 3503 3503 3468 3468 3468 3468 3468 3468 3433 3433 0 0 0 3399 3399 3399 3365 3365 3365 3365 3365 3365 3365 3365 3365 3333 3333 3365 3365 3365 3365 3365 3365 3399 3433 3433 3399 3399 3399 3433 3433 3399 3365 3365 3365 3433 3433 3433 3433 3433 3433 3433 3468 3468 3468 3468 3468 3503 3503 3503 3503 3503 3503 3503 3503 3468 3468 3539 3539 3539 3539 3539 3365 3468 3468 3433 3433 3433 3433 3433 3399 3399 0 0 0 0 3503 3468 3468 3468 3468 0 3433 3433 0 0 0 0 3468 3468 3468 3468 3468 3503 3503 0 3539 3539 3468 2812 2812 2812 2812 2812 2812 2812 2812 2789 2789 2789 2767 2767 2767 2767 2767 2767 2767 2767 2767 2767 2767 2767 2767 2767 2767 2767 2744 2744 2744 2744 2744 2744 2744 2744 2744 2744 2767 2767 2767 2767 2767 2767 2767 2744 2744 2723 2723 2723 2723 2723 2723 2723 2723 2723 2723 2723 2723 2723 2723 2723 2744 2744 2744 2744 2744 2744 2744 2744 2744 2744 2744 2744 2744 2744 2744 2744 2744 2744 2744 2723 2723 0 0 0 0 0 0 0 0 0 0 0 0 0 0
0 0 0 0 0 0 0 0 0 0 0 0 0 0 0 0 0 0 0 0 0 0 0 0 0 0 0 0 0 0 4774 4774 4842 4842 4842 4911 4911 4911 4911 5056 5132 5210 5210 5210 5210 5210 5210 5210 5210 5210 5210 5210 5291 5291 6375 6375 6375 6146 6146 6146 6259 6259 6146 6146 6146 6259 6375 6497 6375 6375 6375 6375 6375 6375 6259 6259 6259 6259 6259 6259 6146 6146 6146 6146 6146 6146 6146 6146 6146 6038 6038 6146 6146 6146 6146 6146 6259 6259 6259 6375 6375 6375 6375 6497 6622 6622 6622 6497 6497 6497 6497 6146 6146 6497 6497 6622 6622 6622 6622 6622 6753 6753 6622 6622 6622 6622 6622 6622 6622 6622 6622 6753 6753 6753 6753 6753 6753 6753 6753 6753 6753 6753 6889 6889 3120 3120 3120 3120 3120 3120 3149 3120 3120 3120 3149 3149 3149 3149 3149 3149 3149 3149 3149 3149 3149 3149 3149 3149 3149 3149 3178 3178 3178 3178 3178 3178 3178 3178 3178 3178 3178 3178 3178 3178 3178 3178 3178 3178 3178 3178 3178 3178 3178 3178 3178 3178 3208 3208 3208 3208 3238 3238 3238 3238 3238 3238 3208 3208 3238 3238 3238 3238 3238 3238 3269 3269 3269 3269 3269 3269 3269 3269 3269 3269 3269 3269 3269 3269 3269 3269 3269 3269 3269 3269 3269 3300 3300 3300 3269 3238 3238 3238 3238 3238 3238 3269 3269 3269 3269 3269 3269 3269 3269 3269 4582 4582 4582 4582 4645 4645 4645 4645 6497 6497 6497 6497 6497 6497 6497 6497 6889 7332 7492 7492 7660 7660 7660 7492 7492 6497 6497 6497 6622 6753 7332 7332 7492 7492 7660 7660 7660 7660 7660 7660 7492 7492 7492 7492 7492 7492 7492 7492 7492 7492 7492 7492 7492 7492 7492 7332 7332 7492 7492 7492 7492 6889 6622 6622 2317 2317 6753 6753 6753 0 0 0 0 7332 7332 7332 7660 7660 7835 7660 7660 7660 7660 7660 7492 7492 7660 7660 7660 7660 7660 7660 7660 7660 7660 7492 7492 5132 5132 5210 5210 5210 5291 5210 5210 5210 5210 5291 5210 5210 5210 5210 5132 5132 5132 5132 5056 5056 4983 4911 4911 4911 4911 4911 4911 4911 4911 4911 4911 4911 4911 4911 4911 4911 4911 4911 4911 4911 4911 4911 4911 4842 4842 4842 4842 4842 4842 4842 4842 4842 4842 4911 4911 4911 4911 4983 0 0 0 0 0 0 0 0 0 0 0 0 0 0 0 0 0 0 0 0 0 0 3503 3503 3503 3503 3503 3468 3468 3468 3468 3468 3468 3433 3433 3433 3433 3399 3399 3399 3365 3333 3333 3333 3333 3333 3333 3333 3333 3333 3333 3333 3365 3365 3365 3365 3365 3365 3365 3365 3399 3399 3399 3399 3399 3399 3365 3333 3333 3333 3333 3433 3433 3433 3433 3433 3433 3468 3433 3433 3468 3468 3468 3468 3468 3468 3468 3468 3468 3468 3433 3399 3399 3399 3365 3365 3365 3365 3433 3433 3433 3399 3399 3399 3399 3399 3399 3399 3503 3503 3468 3468 3468 3433 3433 3433 3433 3433 3433 0 0 3433 3433 3433 3433 3468 3468 3468 3503 3468 3468 3468 3468 3468 2812 2812 2812 2812 2812 2835 2812 2812 2789 2789 2789 2767 2767 2767 2767 2767 2767 2767 2767 2767 2767 2767 2767 2767 2767 2767 2767 2744 2744 2744 2744 2744 2744 2744 2744 2744 2744 2767 2767 2744 2744 2767 2767 2767 2744 2744 2723 2723 2723 2723 2723 2723 2723 2723 2723 2723 2723 2723 2723 2744 2744 2744 2744 2744 2744 2744 2744 2744 2744 2744 2744 2744 2744 2744 2744 2744 2744 2744 2744 2723 2723 2723 0 0 0 0 0 0 0 0 0 0 0 0 0 0
0 0 0 0 0 0 0 0 0 0 0 0 0 0 0 0 0 0 0 0 0 0 0 0 0 0 0 0 0 0 4774 4774 4842 4842 4842 4842 4842 4842 4911 5056 5132 5210 5291 5210 5210 5210 5210 5210 5210 5210 5210 5210 5291 5460 6375 6375 6375 6146 6146 6146 6259 6259 6146 6146 6146 6259 6259 6375 6375 6375 6375 6375 6375 6375 6259 6259 6259 6259 6259 6259 6146 6146 6146 6038 6038 6038 6038 6038 6038 6038 6038 6038 6038 6146 6146 6146 6259 6259 6259 6375 6375 6375 6375 6497 6497 6622 6622 6497 6497 6622 0 6146 6146 6375 6375 6497 6622 6622 6622 6622 6753 6753 6622 6622 6622 6622 6622 6622 6622 6622 6622 6753 6753 6753 6753 6753 6753 6753 6753 6753 6753 6753 6889 6889 3120 3120 3120 3120 3120 3120 3149 3120 3120 3120 3149 3149 3149 3149 3149 3149 3149 3149 3149 3149 3149 3149 3149 3149 3149 3178 3178 3178 3178 3178 3178 3178 3178 3178 3178 3178 3178 3178 3208 3178 3178 3178 3178 3178 3178 3178 3178 3178 3178 3178 3178 3178 3208 3208 3208 3208 3238 3238 3238 3238 3238 3238 3238 3238 3238 3238 3238 3238 3269 3269 3269 3269 3269 3300 3300 3300 3300 3300 3300 3300 3269 3269 3269 3269 3269 3269 3269 3269 3269 3269 3269 3300 3300 3300 3269 3238 3238 3238 3238 3238 3238 3269 3269 3269 3269 3269 3269 3269 3269 3269 4582 4582 4582 4582 4645 4645 4645 4645 6375 6375 6375 6375 6497 6375 6375 6375 7332 7332 7492 7660 7660 7660 7332 7332 7030 6497 6497 6497 6622 6753 7332 7492 7660 7660 7660 7660 7660 7660 7492 7492 7492 7492 7492 7492 7492 7492 7492 7492 7492 7492 7492 7492 7492 7492 7332 7332 7178 7178 7332 7492 7492 6889 6622 2301 2301 2301 2317 2317 2301 2301 2301 2301 2317 7332 7332 7332 7660 7660 7835 7835 7835 7660 7660 7660 7492 7492 7660 7660 7660 7660 7660 7660 7660 7660 7660 7492 7492 5132 5132 5210 5210 5210 5210 5291 5210 5210 5210 5291 5210 5210 5210 5210 5132 5132 5132 5132 5056 5056 5056 4983 4911 4911 4983 4911 4911 4911 4911 4911 4911 4911 4842 4842 4911 4911 4911 4911 4911 4911 4911 4911 4911 4842 4842 4842 4842 4842 4842 4842 4842 4842 4842 4842 4911 4911 4911 0 0 0 0 0 0 0 0 0 0 0 0 0 0 0 0 0 0 0 0 0 0 0 0 3503 3503 3503 3503 3468 3468 3468 3468 3468 3468 3468 3433 3433 3433 3399 3365 3365 3365 3333 3333 3333 3333 3333 3333 3333 3333 3333 3333 3333 3333 3333 3333 3333 3333 3333 3333 3333 3333 3365 3399 3365 3365 3365 3333 3333 3333 3300 3300 3333 3365 3365 3365 3399 3399 3433 3433 3399 3365 3365 3399 3433 3433 3433 3399 3399 3399 3399 3365 3333 3300 3300 3300 3300 3333 3333 3333 3365 3399 3399 3399 3399 3399 3399 3399 3399 3503 3468 3433 3433 3433 3399 3365 3365 3399 3399 3399 3399 3399 3399 3399 3399 3399 3433 3433 3433 3503 3433 3433 3433 3433 3433 2812 2812 2812 2812 2812 2835 2812 2812 2812 2789 2789 2789 2767 2767 2767 2767 2767 2767 2767 2767 2767 2767 2767 2767 2767 2767 2767 2744 2744 2744 2744 2744 2744 2744 2744 2744 2744 2744 2744 2744 2744 2744 2767 2767 2744 2744 2744 2744 2744 2723 2723 2723 2723 2723 2723 2723 2723 2723 2723 2744 2744 2744 2744 2744 2744 2744 2744 2744 2744 2744 2744 2744 2744 2744 2744 2744 2744 2744 2744 2723 2723 0 0 0 0 0 0 0 0 0 0 0 0 0 0 0
0 0 0 0 0 0 0 0 0 0 0 0 0 0 0 0 0 0 0 0 0 0 0 0 0 0 0 0 0 0 4774 4774 4842 4842 4842 4842 4842 4842 4911 5056 5132 5210 5291 5291 5291 5210 5210 5210 5210 5210 5210 5210 5210 5291 5291 6497 6497 6146 6146 6259 6259 6259 6146 6146 6146 6146 6146 6259 6259 6259 6259 6259 6375 6375 6259 6259 6146 6146 6146 6259 6038 6038 6146 6038 6038 6038 5933 5933 6038 6038 6038 6038 6038 6146 6146 6146 6146 6259 6259 6375 6375 6375 6375 6497 6497 6622 0 0 0 0 0 0 0 6375 6375 6497 6497 6497 6497 6622 6622 6753 6753 6753 6753 6622 6622 6622 6622 6622 6622 6753 6753 6622 6622 6622 6753 6753 6753 6753 6753 6753 6889 6889 3149 2143 2143 2143 3149 3149 3149 3120 3120 3120 3149 3149 3149 3149 3149 3149 3149 3149 3149 3149 3149 3149 3149 3178 3178 3178 3178 3178 3178 3178 3178 3178 3178 3178 3178 3178 3178 3178 3208 2198 2184 2184 3178 3178 3178 3178 3178 3178 3178 3178 3178 3178 3208 3208 3238 3238 3238 3238 3238 3238 3238 3238 3238 3238 3238 3238 3238 3238 3238 3269 3269 3269 3269 3300 3300 3300 3300 3300 3300 3300 3269 3269 3269 3269 3269 3269 3269 3269 3269 3269 3300 3300 3300 3300 3300 3269 3269 3269 3269 3269 3269 3269 3269 3269 3269 3269 3269 3269 3238 3238 4522 4582 4582 4582 4645 4645 4645 4645 4645 6375 6375 6375 6497 6375 6375 6375 6497 7178 7178 7492 7332 7332 7030 6753 6622 6497 6497 6497 6622 6753 7332 7492 7660 7660 7660 2256 2256 2256 2256 2256 2256 2256 2256 7492 7492 7492 7492 7492 7492 7492 7492 7492 7332 7332 7332 7178 7030 7030 7332 7332 2317 2317 2301 2301 2301 2301 2317 2301 2301 2301 2301 2301 2317 2317 2271 2271 2271 2271 2271 2271 2271 2271 2286 7660 7660 7660 7660 7660 7835 7835 7835 7660 7660 7835 7660 7660 7660 5210 5210 5210 5210 5210 5210 5291 5210 5210 5210 5210 5210 5210 5210 5210 5132 5132 5132 5132 5056 5056 4983 4983 4983 4983 4983 4983 4983 4911 4911 4911 4911 4911 4842 4842 4842 4911 4911 4911 4911 4911 4911 4911 4911 4911 4842 4842 4842 4842 4842 4842 4842 4842 4842 4842 4911 4911 4911 5056 0 0 0 0 0 0 0 0 0 0 0 0 0 0 0 0 0 0 0 0 0 0 0 3539 3503 3503 3503 3468 3468 3468 3468 3468 3468 3468 3433 3399 3399 3365 3333 3333 3333 3333 3333 3333 3333 3333 3333 3333 3333 3333 3333 3333 3333 3333 3333 3300 3300 3300 3300 3300 3300 3300 3300 3300 3300 3300 3300 3300 3300 3300 3300 3300 3333 3333 3333 3333 3365 3365 3333 3333 3333 3333 3333 3333 3333 3365 3333 3333 3365 3365 3333 3333 3269 3269 3269 3300 3300 3300 3300 3333 3365 3365 3365 3365 3399 3399 3399 3333 3333 3365 3365 3333 3333 3333 3333 3333 3333 3365 3365 3365 3365 3365 3365 3365 3365 3399 3399 3399 3399 3399 3365 3365 3399 3399 2812 2812 2812 2812 2812 2812 2812 2812 2812 2789 2789 2789 2789 2789 2789 2767 2767 2767 2767 2767 2767 2767 2767 2767 2767 2767 2767 2744 2744 2744 2744 2744 2744 2744 2744 2767 2744 2744 2744 2744 2744 2744 2767 2767 2744 2744 2744 2744 2744 2744 2744 2723 2723 2723 2723 2723 2744 2744 2744 2744 2744 2744 2767 2744 2744 2767 2767 2744 2744 2744 2744 2744 2744 2744 2744 2744 2744 2723 2723 2744 2744 0 0 0 0 0 0 0 0 0 0 0 0 0 0 0
0 0 0 0 0 0 0 0 0 0 0 0 0 0 0 0 0 0 0 0 0 0 0 0 0 0 0 0 0 0 4774 4774 4842 4842 4842 4842 4842 4842 4911 5056 5132 5210 5210 5210 5210 5210 5210 5210 5210 5210 5210 5210 5210 5291 5291 5210 5210 6497 6259 6259 6259 6259 6146 6146 6146 6146 6146 6146 6259 6259 6259 6259 6259 6259 6146 6146 6146 6146 6146 6259 6038 6038 6146 6038 6038 6038 5933 5933 6038 6038 6038 6038 6146 6146 6146 6146 6146 6259 6259 6259 6375 6375 6375 6497 6497 6622 0 0 0 0 0 0 3037 6497 6497 6497 6497 6259 6259 6259 6622 6753 6753 6753 6753 6753 6753 6622 6375 6375 6497 6622 6622 6622 6622 6622 6753 6753 6753 6753 6753 6753 2116 2129 2129 2129 2129 2129 2129 3120 3149 3120 3120 3120 3120 3149 3149 3149 3149 3149 3149 3149 3149 3149 3149 3178 3178 3178 3178 3178 3208 3208 3208 3208 3178 3178 3178 3178 3178 3178 3178 3208 2184 2184 2170 2170 2170 2170 2184 2184 3149 3149 3178 3178 3178 3178 3178 3208 3238 3238 3238 3238 3238 3269 3238 3238 3238 3238 3238 3238 3238 3238 3238 3269 3269 3269 3269 3300 2184 2184 2184 2184 2198 2198 2198 2198 3269 3269 3269 3269 3269 3300 3300 3300 3300 3300 3300 3300 3300 3269 3269 3269 3269 3238 3238 3269 3269 3269 3269 3269 3269 3269 3238 3238 4522 4582 4582 4582 4645 4645 4645 4645 4645 6375 6375 6375 6375 6375 6375 6375 6497 6753 7178 7492 7332 7332 6889 6622 6622 6497 6497 6497 6622 7030 7332 7492 7492 2241 2241 2241 2241 2241 2241 2241 2241 2241 2256 2256 2241 7492 7492 7492 7492 7492 7492 7492 7332 7332 7332 7030 7030 2286 2286 2271 2271 2286 2286 2286 2286 2301 2301 2301 2301 2301 2301 2301 2301 2301 2271 2271 2271 2271 2271 2271 2271 2271 2286 2286 2286 7660 7660 7660 7835 7660 7660 7835 7835 7660 7660 7660 2286 5210 5210 5210 5210 5210 5210 5291 5210 5210 5210 5210 5210 5210 5132 5132 5132 5132 5132 5132 5056 5056 4983 4983 4983 4983 4983 4983 4983 4911 4911 4911 4911 4911 4842 4842 4842 4911 4842 4842 4911 4911 4911 4911 4911 4911 4842 4842 4842 4842 4842 4842 4842 4842 4842 4842 4911 4911 4911 4983 0 0 0 0 0 0 0 0 0 0 0 0 0 0 0 0 0 0 0 0 0 0 0 3539 3503 3503 3503 3468 3468 3468 3468 3468 3468 3468 3433 3399 3399 3365 3333 3333 3333 3333 3333 3333 3300 3300 3300 3333 3333 3333 3333 3333 3300 3300 3300 3300 3300 3300 3269 3269 3269 3238 3238 3238 3238 3238 3269 3269 3269 3269 3269 3269 3300 3300 3333 3333 3333 3333 3333 3333 3333 3333 3333 3333 3333 3333 3333 3333 3333 3333 3333 3300 3269 3269 3269 3269 3269 3269 3269 3300 3333 3365 3365 3333 3333 3365 3399 3300 3300 3300 3300 3300 3300 3300 3300 3300 3300 3333 3365 3365 3365 3365 3333 3333 3333 3365 3365 3365 3333 3333 3365 3365 3399 3399 2812 2812 2812 2812 2812 2812 2812 2812 2812 2789 2789 2789 2789 2789 2789 2789 2789 2789 2767 2767 2767 2767 2767 2767 2767 2767 2767 2767 2744 2744 2744 2744 2744 2744 2744 2767 2767 2767 2767 2767 2767 2767 2767 2767 2744 2744 2744 2744 2744 2744 2744 2744 2744 2723 2723 2723 2744 2744 2744 2744 2744 2744 2767 2767 2767 2767 2767 2744 2744 2744 2744 2744 2744 2744 2744 2744 2744 2723 2723 2744 2744 0 0 0 0 0 0 0 0 0 0 0 0 0 0 0
0 0 0 0 0 0 0 0 0 0 0 0 0 0 0 0 0 0 0 0 0 0 0 0 0 0 0 0 0 0 4774 4774 4842 4842 4842 4842 4842 4842 4911 5056 5132 5132 5210 5210 5210 5210 5210 5210 5210 5210 5210 5210 5210 5210 5210 5210 5210 5210 0 6259 6259 6259 6146 6146 6146 6146 6146 0 6259 6259 6259 6259 6259 6259 6146 6146 6146 0 0 0 0 0 0 0 0 0 5933 5933 5933 6038 6038 6038 6146 6146 6146 6146 6146 6259 6259 6259 6259 6375 6497 6497 0 0 0 0 0 0 0 0 0 0 0 6146 6146 6146 6146 6146 6622 6889 6889 6753 6753 6889 6753 6753 6375 6375 6497 6622 2078 2065 2065 2065 2065 6622 6753 6753 6753 2129 2116 2116 2116 2116 2129 2129 2129 2129 3120 3120 3120 3120 3120 3120 3149 3149 3149 3149 3149 3149 3178 3178 3178 3178 3178 3178 3208 2129 2129 2129 2143 2143 2143 2143 2156 2156 2170 2170 2170 2170 2170 2170 2170 2170 2170 2170 2170 2170 2170 2170 2170 2184 2184 2184 2184 2184 2184 2198 2198 2198 2198 2198 2198 2212 2212 2212 2212 2212 3238 3269 3269 3269 3269 3269 2198 2184 2184 2184 2184 2184 2198 2198 2198 2198 2226 3269 3269 3269 3269 3300 3300 3269 3269 3300 3300 3300 3269 3238 3238 3269 3238 3238 3238 3269 3269 3269 3269 3269 3269 3269 3269 3269 4582 4582 4582 4582 4645 4645 4645 4582 4582 6375 6375 6375 6375 6375 6375 6375 6497 6753 7178 7332 7332 7178 6889 6622 6622 6497 6497 6497 6889 7030 7030 2241 2241 2241 2241 2241 2241 2241 2241 2241 2241 2241 2241 2241 2241 2241 2241 2256 2256 2286 2286 2286 2286 2286 2286 2286 2286 2286 2271 2271 2271 2286 2286 2286 2286 2286 2301 2301 2301 2301 2301 2301 2301 2301 2271 2271 2286 2286 2286 2286 2286 2286 2286 2286 2286 2286 2286 2271 2271 2271 2271 2271 2271 2271 2271 2271 2286 2301 5210 5210 5291 5291 5291 5291 2286 2286 5210 5210 5210 5210 5132 5132 5210 5210 5132 5132 5132 5132 5056 4983 4983 4983 4983 4983 4983 4983 4983 4911 4911 4911 4911 4911 4911 4911 4842 4842 4842 4911 4911 4911 4911 4911 4911 4911 4842 4842 4842 4842 4842 4842 4842 4911 4911 4911 4911 4983 5056 5056 0 0 0 0 0 0 0 0 0 0 0 0 0 0 0 0 0 0 0 0 0 3539 3539 3539 3503 3503 3503 3468 3468 3468 3468 3468 3433 3399 3399 3365 3333 3333 3333 3300 3300 3300 3300 3300 3300 3300 3300 3300 3300 3300 3300 3300 3269 3269 3269 3269 3238 3238 3238 3238 3238 3238 3238 3238 3238 3238 3269 3238 3238 3238 3300 3300 3300 3300 3333 3333 3300 3300 3300 3300 3300 3300 3269 3269 3300 3269 3269 3300 3269 3269 3238 3238 3238 3269 3269 3269 3269 3269 3300 3333 3300 3300 3333 3333 3333 3269 3269 3269 3269 3269 3269 3269 3269 3269 3269 3300 3300 3300 3300 3300 3300 3300 3300 3300 3300 3300 3300 3300 3300 3300 3365 3365 2812 2812 2812 2812 2812 2835 2812 2812 2812 2812 2812 2812 2789 2789 2789 2789 2789 2789 2789 2789 2789 2767 2767 2767 2767 2767 2767 2767 2744 2744 2744 2744 2744 2744 2767 2767 2767 2767 2767 2767 2767 2767 2767 2767 2744 2744 2744 2744 2744 2744 2744 2744 2744 2744 2744 2744 2744 2744 2744 2744 2744 2744 2744 2767 2767 2767 2767 2767 2744 2744 2744 2744 2744 2744 2744 2744 2744 2744 2744 2767 2767 0 0 0 0 0 0 0 0 0 0 0 0 0 0 0
0 0 0 0 0 0 0 0 0 0 0 0 0 0 0 0 0 0 0 0 0 0 0 0 0 0 0 0 0 0 4842 4842 4842 4842 4842 4842 4842 4842 4911 4983 5132 5132 5210 5210 5291 5210 5210 5210 5210 5210 5210 5210 5210 5210 5210 5210 5210 0 0 0 0 0 0 0 0 0 0 0 0 0 0 6259 6259 6146 6146 6146 6146 0 0 0 0 0 0 0 0 0 5933 5933 5933 6038 6038 6146 6146 6146 6146 6146 6146 6259 6259 6259 6259 0 0 0 0 0 0 0 0 0 0 0 0 3037 3064 3064 6146 6146 6146 6146 6753 6753 6889 6889 6889 6889 2984 3010 3010 3010 3010 2065 2065 2065 2065 2065 2065 6622 6753 6753 2129 2129 2129 2116 2116 2116 2129 2129 2129 2129 2129 2129 3092 3092 3120 2143 2143 2143 2129 2129 2129 2129 2143 2129 2129 3178 3178 2129 2129 2129 2129 2129 2143 2143 2143 2143 2156 2156 2170 2170 2170 2170 2170 2170 2170 2156 2156 2170 2170 2170 2170 2170 2170 2184 2184 2184 2184 2184 2184 2198 2184 2184 2198 2198 2198 2198 2198 2198 2198 2198 2212 2198 2198 2212 2198 2198 2198 2184 2184 2184 2184 2198 2198 2198 2198 2198 2226 2241 3269 3269 3269 3269 3269 3269 3269 3300 3269 3269 3269 3238 3238 3238 3238 3238 3238 3269 3269 3269 3269 3269 3269 3269 3300 3300 3300 4582 4582 4582 4645 4645 4645 4582 4582 6375 6375 6375 6375 6497 6497 6497 6622 6889 7030 7178 7178 7178 7030 6889 6622 6497 6497 6497 6889 6889 6889 2241 2241 2241 2241 2241 2241 2241 2241 2241 2241 2241 2241 2241 2241 2241 2241 2256 2256 2286 2286 2286 2286 2286 2286 2286 2286 2286 2271 2271 2271 2271 2286 2286 2286 2286 2286 2286 2286 2286 2286 2286 2286 2286 2271 2271 2286 2286 2286 2286 2286 2286 2286 2286 2286 2286 2271 2271 2271 2271 2271 2271 2271 2271 2271 2271 2286 2286 2286 2286 2286 2271 2271 2271 2271 2271 2271 2271 2271 2286 2286 2286 2301 5132 5132 5132 5132 5056 4983 4983 4983 4983 4983 4983 4983 4983 4983 4911 4911 4911 4911 4911 4911 4911 4842 4842 4842 4911 4911 4911 4911 4911 4911 4911 4842 4842 4911 4911 4842 4842 4842 4911 4911 4911 4911 4983 5056 5056 5056 5132 5132 5210 5291 0 0 0 0 0 0 0 0 0 0 0 0 0 0 0 0 3539 3503 3503 3503 3503 3503 3468 3468 3468 3468 3468 3433 3399 3399 3365 3333 3333 3333 3300 3300 3300 3300 3300 3300 3300 3300 3300 3300 3300 3300 3300 3269 3269 3269 3238 3238 3238 3208 3208 3238 3238 3238 3238 3238 3238 3238 3238 3208 3208 3269 3269 3269 3269 3300 3300 3300 3269 3269 3269 3269 3238 3238 3238 3269 3269 3269 3269 3238 3238 3238 3238 3238 3238 3238 3238 3238 3269 3269 3269 3269 3269 3269 3269 3269 3238 3238 3238 3238 3238 3238 3238 3269 3269 3269 3269 3300 3300 3300 3300 3300 3300 3269 3269 3269 3269 3269 3269 3269 3269 3300 3333 3333 2789 2789 2789 2812 2812 2812 2812 2812 2812 2812 2812 2812 2789 2789 2812 2812 2767 2767 2767 2767 2789 2767 2767 2767 2767 2767 2767 2767 2767 2744 2744 2744 2744 2767 2767 2767 2767 2767 2767 2767 2767 2767 2767 2744 2744 2744 2744 2744 2744 2744 2744 2723 2723 2744 2744 2744 2744 2744 2744 2744 2744 2744 2767 2767 2744 2744 2744 2744 2744 2744 2744 2744 2744 2744 2744 2744 2744 2744 4645 4645 4645 4645 4708 0 0 0 0 0 0 0 0 0 0 0 0
0 0 0 0 0 0 0 0 0 0 0 0 0 0 0 0 0 0 0 0 0 0 0 0 0 0 0 0 0 0 4842 4842 4842 4842 4842 4842 4842 4842 4911 4983 5056 5056 5132 5210 5291 5210 5210 5210 5210 5210 5210 5210 5210 5210 5210 5210 5210 0 0 0 0 0 0 0 0 0 0 0 0 0 0 0 0 6038 6038 6146 0 0 0 0 0 0 0 0 0 0 6038 5933 5933 6038 6038 6146 6146 6146 6146 6146 6146 6146 6146 6259 0 0 0 0 0 0 0 0 0 0 0 0 3037 3037 3064 3064 3037 3037 3037 3037 3037 3010 2984 2984 2984 2984 2984 2984 2984 3010 3064 2065 2065 2065 3064 3064 3064 3064 2103 2103 2103 2116 2116 2116 2116 2116 2116 2129 2129 2129 2129 2129 2156 2143 2143 2129 2129 2129 2129 2129 2129 2129 2143 2129 2129 2129 2129 2129 2129 2129 2129 2143 2143 2143 2143 2143 2156 2156 2170 2170 2170 2170 2170 2170 2170 2156 2156 2170 2170 2170 2170 2170 2184 2184 2184 2184 2184 2184 2184 2184 2184 2184 2198 2198 2198 2198 2198 2198 2198 2198 2198 2198 2198 2198 2198 2198 2198 2198 2198 2198 2198 2198 2198 2212 2198 2198 2226 2241 2256 3269 3269 3269 3269 3269 3269 3269 3269 3269 3269 3238 3238 3238 3238 3238 3238 3238 3238 3269 3269 3269 3269 3269 3269 3269 0 4582 4582 4582 4645 4645 4645 4645 6375 6375 6375 6375 6375 6497 6497 6497 6753 6889 7030 7178 7178 7178 7030 6889 6622 6497 6497 0 6497 2286 2286 2241 2241 2241 2241 2241 2241 2241 2241 2241 2241 2241 2241 2241 2241 2241 2256 2256 2256 2256 2256 2256 2271 2271 2271 2271 2271 2271 2256 2256 2271 2271 2271 2286 2286 2286 2286 2286 2286 2286 2286 2286 2286 2286 2271 2271 2286 2286 2286 2286 2286 2286 2286 2286 2286 2271 2271 2271 2271 2271 2271 2271 2271 2271 2271 2271 2286 2286 2286 2286 2286 2271 2271 2271 2271 2271 2271 2271 2271 2286 2286 2286 2301 2301 5132 5132 5132 5056 4983 4983 4983 5056 5056 4983 4983 4983 4983 4983 4911 4911 4911 4911 4911 4911 4911 4911 4911 4911 4911 4911 4911 4911 4911 4911 4842 4842 4911 4911 4842 4842 4911 4983 5056 5056 5056 5056 5056 5056 5056 5056 5056 5056 5056 4983 4983 0 0 0 0 0 0 0 0 0 0 0 0 0 0 3539 3503 3503 3503 3503 3503 3468 3468 3468 3468 3433 3433 3399 3399 3365 3333 3333 3333 3333 3300 3300 3300 3300 3300 3300 3300 3300 3300 3300 3300 3300 3269 3269 3269 3238 3238 3238 3208 3208 3238 3208 3208 3208 3208 3208 3208 3208 3178 3178 3208 3238 3238 3238 3238 3238 3238 3238 3238 3238 3208 3208 3208 3208 3208 3208 3208 3238 3208 3208 3208 3208 3208 3208 3208 3208 3208 3238 3238 3238 3238 3238 3238 3208 3208 3208 3208 3238 3238 3208 3208 3208 3238 3238 3238 3238 3238 3269 3300 3300 3300 3300 3269 3269 3269 3269 3269 3269 3238 3238 3238 3269 3269 2789 2789 2789 2812 2812 2812 2812 2812 2812 2812 2812 2789 2789 2812 2812 2812 2767 2767 2767 2767 2789 2789 2789 2789 2767 2767 2767 2767 2767 2767 2767 2767 2767 2767 2767 2767 2767 2767 2767 2767 2767 2767 2767 2744 2744 2744 2744 2744 2744 2744 2744 2723 2723 2744 2744 2723 2723 2744 2744 2744 2744 2744 2767 2767 2744 2744 2744 2767 2767 2767 2744 2744 2744 2744 2767 2767 2767 4463 4645 4645 4645 4645 4708 0 0 0 0 0 0 0 0 0 0 0 0
0 0 0 0 0 0 0 0 0 0 0 0 0 0 0 0 0 0 0 0 0 0 0 0 0 0 0 0 0 0 4911 4842 4842 4842 4842 4842 4842 4842 4842 4911 4983 5056 5132 5210 5291 5291 5210 5210 5210 5210 5210 5210 5210 5210 5210 5210 5210 0 0 0 0 0 0 0 0 0 0 0 0 0 0 0 0 6038 6038 0 0 0 0 0 0 0 0 0 0 0 6038 5933 5933 6038 6038 6146 6146 6038 6038 6038 6146 6146 6146 0 0 0 0 0 0 0 0 0 2984 2984 3010 3010 3010 3010 3010 3037 3037 3037 3037 3037 3037 3010 2984 2984 2984 2984 2984 2984 2984 3037 3037 3064 3064 3064 3064 3064 3064 3064 3064 2103 2103 2116 2116 2116 2116 2116 2116 2129 2129 2129 2129 2143 2156 2143 2129 2129 2129 2129 2129 2129 2129 2143 2143 2143 2129 2129 2129 2129 2129 2129 2143 2143 2143 2143 2156 2156 2156 2170 2170 2170 2170 2170 2170 2170 2170 2170 2170 2170 2170 2170 2184 2184 2184 2184 2184 2184 2184 2184 2184 2184 2184 2184 2198 2198 2198 2198 2198 2198 2198 2198 2198 2198 2198 2198 2198 2198 2198 2198 2198 2198 2198 2198 2198 2212 2212 2212 2241 2241 2256 3269 3269 3269 3269 3269 3269 3269 3269 3269 3269 3238 3238 3238 3238 3238 3238 3238 3238 3238 3269 3269 3269 3269 3269 3269 0 4645 4645 4645 4645 4645 4645 4645 6375 6375 6375 6375 6375 6497 6497 6497 6753 6889 6889 7030 7030 7030 7030 6889 6753 6497 6497 6497 0 2286 2286 2286 2241 2241 2241 2241 2241 2241 2241 2241 2241 2241 2241 2241 2241 2241 2256 2256 2256 2256 2256 2256 2271 2271 2271 2271 2271 2271 2256 2256 2271 2271 2271 2271 2271 2286 2286 2286 2286 2286 2286 2286 2286 2286 2271 2271 2286 2286 2286 2286 2286 2286 2286 2286 2271 2271 2271 2271 2271 2271 2271 2271 2271 2271 2271 2271 2286 2286 2286 2286 2286 2286 2271 2271 2286 2286 2286 2286 2286 2286 2286 2286 2301 2301 5132 5132 5056 5056 5056 5056 5056 5056 5056 5056 5056 5132 5056 5056 5056 5056 4983 4983 4911 4911 4911 4911 4911 4911 4911 4911 4911 4911 4911 4911 4911 4911 4911 4911 4911 4911 4983 5056 5056 5056 5056 5056 5056 5056 5056 5056 5056 5056 5056 4983 4983 0 0 0 0 0 0 0 0 0 0 0 0 0 0 0 0 3503 3503 3503 3468 3468 3468 3468 3468 3433 3433 3399 3399 3365 3333 3333 3333 3333 3333 3333 3333 3300 3300 3300 3300 3300 3300 3300 3300 3300 3269 3269 3269 3269 3238 3238 3208 3208 3238 3208 3208 3208 3208 3208 3208 3208 3178 3178 3208 3208 3208 3208 3208 3208 3208 3208 3208 3208 3208 3178 3178 3178 3178 3178 3178 3208 3178 3178 3178 3178 3178 3178 3178 3178 3178 3208 3208 3208 3208 3178 3178 3149 3149 3178 3178 3178 3178 3178 3178 3178 3178 3178 3149 3120 3120 3208 3208 3238 3300 3269 3208 3178 3149 3149 3149 3178 3178 3208 3208 3269 3269 3269 2789 2789 2812 2812 2812 2789 2789 2812 2812 2812 2789 2789 2812 2812 2812 2812 2812 2812 2789 2789 2789 2789 2789 2789 2767 2767 2767 2767 2767 2767 2767 2767 2767 2767 2767 2767 2767 2767 2767 2767 2767 2767 2744 2744 2744 2744 2744 2744 2744 2744 2723 2723 2744 2744 2723 2723 2744 2744 2744 2744 2767 2767 2767 2789 2767 2767 2767 2767 2767 2767 2744 2744 2744 2767 2767 2812 4463 4463 4708 4708 4708 4708 0 0 0 0 0 0 0 0 0 0 0 0
0 0 0 0 0 0 0 0 0 0 0 0 0 0 0 0 0 0 0 0 0 0 0 0 0 0 0 0 0 0 4983 4911 4911 4842 4842 4842 4842 4842 4842 4911 4983 5056 5132 5210 5291 5291 5291 5291 5291 5291 5210 5210 5210 5210 5210 5210 5210 5210 0 0 0 0 0 0 0 0 0 0 0 0 0 0 0 0 0 0 0 0 0 0 0 0 0 0 0 0 0 0 0 6038 6038 6146 6146 6038 6038 6038 6146 0 0 0 0 0 0 0 0 2984 2984 2984 2984 2984 3010 2984 2984 3010 3010 3010 3010 3010 3037 3037 3037 3037 3010 3010 3010 3010 3010 2984 2984 3037 3037 3064 3064 3064 3064 3064 3064 3064 3064 2103 2103 2103 2116 2116 2116 2116 2129 2129 2129 2129 2129 2143 2156 2143 2129 2129 2129 2143 2129 2129 2143 2143 2143 2143 2129 2129 2129 2129 2129 2143 2143 2143 2143 2156 2156 2156 2170 2170 2170 2170 2170 2170 2170 2170 2170 2170 2170 2170 2184 2184 2184 2184 2184 2184 2184 2184 2184 2184 2184 2184 2184 2184 2198 2198 2198 2198 2198 2198 2198 2198 2198 2198 2198 2198 2198 2198 2198 2198 2198 2198 2198 2198 2212 2226 2212 2212 2241 2241 2256 3269 3269 3269 3269 3269 3269 3269 3269 3269 3269 3238 3208 3208 3238 3238 3238 3238 3238 3238 3238 3238 3269 3269 3269 3269 3238 4645 4645 4645 4645 4645 4645 4645 4645 6375 6375 6375 6375 6497 6497 6622 6753 6889 6889 7030 7030 7030 7030 6889 6753 6497 6497 0 0 0 2271 2256 2241 2241 2241 2241 2241 2241 2241 2241 2241 2241 2241 2241 2256 2256 2256 2256 2256 2256 2256 2256 2271 2271 2271 2271 2271 2271 2271 2271 2271 2271 2271 2271 2271 2286 2286 2286 2286 2286 2286 2286 2286 2286 2271 2271 2286 2286 2286 2286 2286 2286 2286 2286 2271 2271 2271 2271 2271 2271 2271 2271 2271 2271 2271 2271 2286 2286 2286 2286 2286 2286 2286 2286 2286 2286 2286 2286 2286 2286 2286 2286 2301 2301 2301 5056 5056 4983 4983 4983 4983 4983 5056 5056 5056 5132 5056 5056 5056 5056 5056 4983 4911 4911 4911 4911 4911 4911 4911 4911 4911 4911 4911 4911 4911 4911 4911 4911 4911 4911 4983 5056 5132 5056 5056 5056 5132 5056 5056 5056 5056 5056 5056 4983 4983 5056 0 0 0 0 0 0 0 0 0 0 0 0 0 0 0 0 0 0 3468 3468 3468 3468 3468 3433 3433 3399 3399 3365 3333 3333 3333 3333 3333 3333 3333 3333 3300 3300 3300 3300 3300 3300 3300 3300 3300 3269 3269 3269 3238 3238 3208 3208 3238 3208 3208 3208 3208 3208 3208 3208 3178 3178 3208 3178 3178 3178 3178 3208 3208 3178 3178 3178 3178 3178 3178 3178 3178 3178 3178 3178 3149 3149 3149 3149 3149 3149 3149 3178 3178 3178 3178 3149 3149 3149 3149 3149 3149 3149 3178 3178 3178 3178 3149 3149 3149 3120 3092 3092 3092 3092 3208 3238 3300 3269 3149 3092 3092 3092 3092 3149 3149 3178 3178 3149 3149 3149 2812 2812 2835 2835 2812 2789 2789 2812 2812 2812 2812 2812 2812 2812 2812 2812 2812 2812 2812 2812 2812 2812 2812 2812 2789 2789 2767 2767 2767 2767 2767 2767 2767 2767 2767 2767 2767 2767 2767 2767 2767 2767 2744 2744 2744 2744 2744 2744 2744 2744 2744 2744 2744 2744 2744 2744 2744 2744 2744 2744 2744 2767 2767 2767 2767 2767 2767 2767 2767 2767 2767 2767 2767 2789 2789 2812 4463 4463 4645 4708 4708 4708 0 0 0 0 0 0 0 0 0 0 0 0
0 0 0 0 0 0 0 0 0 0 0 0 0 0 0 0 0 0 0 0 0 0 0 0 0 0 0 0 0 0 0 4983 4911 4842 4842 4842 4842 4842 4911 4911 4983 5056 5132 5291 5291 5291 5291 5291 5291 5291 5210 5210 5210 5210 5210 5210 5210 5210 0 0 0 0 0 0 0 0 0 0 0 0 0 0 0 0 0 0 0 0 0 0 0 0 0 0 0 0 0 0 0 6038 6038 6038 6038 6038 6038 0 0 0 0 0 0 0 0 0 0 2984 2984 2984 2984 2984 3010 2984 2984 3010 3010 3010 3010 3010 3037 3037 3037 3037 3037 3037 3037 3037 3037 3037 3037 3064 3064 3064 3064 3064 3064 3064 3064 3064 3064 2103 2103 2103 2116 2116 2116 2116 2129 2129 2143 2143 2143 2143 2143 2143 2129 2129 2129 2129 2129 2129 2143 2143 2143 2143 2143 2143 2143 2129 2129 2143 2143 2143 2143 2156 2156 2170 2170 2170 2170 2170 2170 2170 2170 2170 2170 2170 2170 2170 2184 2184 2184 2184 2184 2184 2184 2184 2184 2184 2184 2184 2184 2184 2198 2198 2198 2198 2198 2198 2198 2198 2198 2198 2198 2198 2198 2198 2198 2198 2198 2198 2198 2198 2212 2226 2226 2226 2241 2256 2256 2256 3269 3269 3269 3238 3238 3238 3238 3269 3238 3208 3208 3208 3208 3208 3208 3208 3208 3238 3238 3238 3238 3238 3238 3238 3238 4708 4708 4645 4645 4645 4645 4645 6375 6375 6375 6375 6375 6497 6497 6622 6753 6889 6889 7030 7030 7030 6889 6622 6497 6497 6497 0 0 0 2271 2256 2241 2241 2241 2241 2241 2241 2241 2241 2241 2241 2256 2256 2256 2256 2256 2256 2256 2256 2256 2256 2271 2271 2271 2271 2271 2271 2271 2271 2271 2271 2271 2271 2271 2286 2286 2286 2286 2286 2286 2286 2286 2286 2271 2271 2286 2286 2286 2286 2286 2286 2286 2286 2271 2271 2271 2271 2271 2271 2271 2271 2271 2271 2271 2271 2286 2286 2286 2286 2286 2286 2286 2286 2286 2286 2286 2286 2286 2286 2286 2286 2301 2301 2301 5056 4983 4983 4983 4983 4983 4983 4983 4983 4983 4983 5056 5056 5056 5056 4983 4983 4911 4911 4911 4911 4911 4911 4911 4911 4911 4911 4911 4911 4911 4911 4911 4911 4911 4911 4911 4983 5056 5132 5132 5132 5132 5056 5056 5056 5056 5056 5056 5056 5056 5056 0 0 0 0 0 0 0 0 0 0 0 0 0 0 0 0 0 0 0 0 0 0 0 0 0 0 3433 3365 3333 3333 3333 3333 3333 3333 3333 3333 3300 3300 3300 3300 3300 3300 3300 3300 3300 3300 3269 3269 3238 3238 3208 3208 3238 3208 3208 3208 3208 3208 3208 3208 3208 3208 3208 3178 3178 3178 3178 3178 3178 3178 3178 3178 3178 3178 3149 3149 3149 3178 3178 3178 3149 3149 3149 3149 3149 3149 3149 3149 3149 3149 3149 3149 3149 3149 3149 3149 3149 3149 3149 3149 3149 3149 3149 3149 3149 3120 3092 3092 3092 3092 3092 3092 3064 3064 3064 3092 3064 3064 3092 3120 3120 3178 3178 3149 3092 3092 3092 2835 2835 2835 2812 2789 2789 2812 2812 2812 2812 2812 2812 2812 2812 2812 2812 2812 2812 2812 2812 2812 2812 2812 2812 2789 2789 2789 2789 2789 2789 2789 2789 2789 2789 2767 2767 2767 2767 2767 2767 2767 2744 2744 2744 2744 2744 2744 2744 2744 2744 2744 2744 2744 2744 2744 2744 2744 2744 2744 2744 2767 2767 2767 2767 2767 2767 2767 2767 2789 2789 2789 2789 2789 2812 2812 4522 4522 4645 4645 4708 4708 0 0 0 0 0 0 0 0 0 0 0 0
0 0 0 0 0 0 0 0 0 0 0 0 0 0 0 0 0 0 0 0 0 0 0 0 0 0 0 0 0 0 0 0 4911 4842 4842 4842 4842 4842 4911 4911 4983 4983 5056 5210 5291 5291 5291 5291 5291 5291 5210 5210 5210 5210 5291 5210 5210 5210 5210 0 0 0 0 0 0 0 0 0 0 0 0 0 0 0 0 0 0 0 0 0 0 0 0 0 0 0 0 0 0 6038 6038 6038 6038 6038 0 0 0 0 0 0 0 0 0 0 2958 2958 2984 2984 2984 2984 2984 2984 2984 2984 2984 2984 3010 3010 3037 3037 3037 3037 3037 3037 3037 3037 3037 3037 3037 3064 3064 3037 3037 3037 3037 3037 3037 3064 2103 2103 2103 2103 2116 2116 2116 2116 2129 2129 2143 2143 2143 2143 2143 2143 2129 2129 2129 2129 2129 2129 2143 2143 2143 2143 2143 2143 2143 2143 2143 2143 2143 2143 2143 2156 2170 2170 2184 2184 2184 2184 2184 2184 2170 2170 2170 2170 2170 2184 2184 2184 2184 2184 2184 2198 2198 2184 2184 2184 2184 2184 2184 2184 2198 2198 2198 2198 2198 2198 2198 2198 2198 2198 2198 2198 2198 2198 2198 2198 2198 2198 2198 2212 2212 2226 2226 2226 2241 2256 2256 2256 3238 3238 3238 3238 3238 3208 3208 3238 3238 3208 3208 3208 3208 3208 3208 3208 3208 3208 3238 3269 3238 3238 3238 3238 3238 0 3120 3120 0 3120 3120 0 6497 6497 6497 6497 6497 6622 6622 6753 6753 6889 6889 6889 7030 6622 6622 6497 6497 6497 0 0 0 0 2271 2256 2241 2241 2241 2241 2241 2241 2241 2241 2241 2241 2241 2256 2256 2256 2256 2256 2256 2256 2256 2256 2256 2256 2271 2271 2271 2271 2271 2271 2271 2271 2271 2271 2271 2286 2286 2286 2286 2286 2286 2286 2286 2286 2271 2271 2271 2271 2271 2271 2286 2286 2286 2286 2271 2271 2271 2271 2271 2271 2271 2271 2271 2271 2271 2271 2286 2286 2286 2286 2286 2286 2286 2286 2286 2286 2286 2286 2286 2286 2286 2286 2286 2286 4911 4911 4983 4983 4983 4983 4983 4983 4983 4983 4983 4983 4983 4983 4983 4983 4983 4983 4911 4911 4911 4911 4911 4911 4911 4911 4911 4911 4911 4911 4911 4911 4911 4911 4911 4911 4911 4983 5056 5056 5056 5132 5132 5056 5056 5056 5056 5056 5056 5056 5056 5056 0 0 0 0 0 0 0 0 0 0 0 0 0 0 0 0 0 0 0 0 0 0 0 0 0 0 0 0 0 3333 3333 3333 3333 3333 3333 3300 3300 3300 3300 3300 3300 3300 3300 3300 3300 3300 3300 3269 3269 3238 3238 3238 3238 3238 3238 3208 3208 3208 3208 3208 3208 3208 3208 3178 3178 3178 3178 3178 3178 3178 3178 3178 3178 3149 3149 3149 3149 3149 3178 3178 3149 3149 3149 3120 3120 3149 3149 3120 3120 3149 3120 3120 3120 3120 3120 3120 3120 3149 3149 3149 3149 3149 3120 3120 3120 3092 3092 3092 3092 3092 3064 3064 3037 3037 3064 3064 3064 3064 3092 3092 3120 3149 3149 3092 3092 3064 3037 2859 2835 2835 2812 2789 2789 2812 2812 2812 2812 2812 2812 2812 2812 2812 2812 2812 2835 2835 2835 2835 2835 2835 2835 2812 2812 2789 2789 2789 2789 2789 2789 2789 2789 2767 2767 2767 2767 2767 2767 2767 2744 2744 2744 2744 2767 2744 2744 2744 2744 2744 2744 2744 2744 2744 2744 2744 2744 2744 2767 2767 2767 2789 2789 2767 2767 2767 2789 2789 2789 2789 2789 2789 2812 2812 4522 4522 4645 4645 4708 4708 0 0 0 0 0 0 0 0 0 0 0 0
0 0 0 0 0 0 0 0 0 0 0 0 0 0 0 0 0 0 0 0 0 0 0 0 0 0 0 0 0 0 0 0 4911 4911 4842 4842 4842 4842 4911 4911 4911 4911 4983 5210 5291 5291 5291 5291 5291 5291 5291 5291 5210 5210 5291 5210 5210 5210 5210 5291 0 0 0 0 0 0 0 0 0 0 6259 6146 6146 6146 0 0 0 0 0 0 0 0 0 0 0 0 0 0 0 6038 6038 6038 6038 0 0 0 0 0 0 0 0 0 2883 2883 2883 2883 2958 2958 2958 2958 2958 2958 2958 2958 2958 2984 2984 3010 3037 3037 3037 3037 3037 3037 3037 3037 3037 3037 3037 3064 3037 3037 3037 3010 3010 2984 2984 2984 2103 2103 2103 2103 2116 2116 2116 2116 2129 2129 2143 2143 2143 2143 2143 2129 2129 2129 2129 2129 2143 2143 2143 2143 2143 2143 2143 2143 2143 2143 2143 2143 2143 2143 2143 2156 2170 2170 2170 2170 2184 2184 2184 2184 2184 2184 2184 2184 2184 2184 2184 2184 2198 2198 2198 2198 2198 2184 2184 2184 2184 2184 2184 2184 2198 2198 2198 2198 2198 2198 2198 2198 2198 2198 2198 2198 2198 2198 2198 2198 2198 2198 2198 2212 2212 2226 2226 2226 2226 2226 2256 2271 3238 3238 3238 3208 3208 3208 3208 3238 3238 3208 3208 3208 3208 3208 3208 3208 3208 3208 3238 3238 3238 3238 3238 3238 3238 3120 3120 3120 0 0 0 0 6753 6753 6753 6622 6622 6753 6753 6889 6889 6889 6889 6889 6622 6622 6622 6497 6497 6497 0 0 0 0 2271 2271 2241 2241 2241 2241 2241 2241 2241 2241 2241 2241 2241 2256 2256 2256 2256 2256 2256 2256 2256 2256 2256 2256 2271 2271 2271 2271 2271 2271 2271 2271 2271 2271 2271 2286 2286 2286 2286 2286 2286 2286 2286 2286 2271 2271 2271 2271 2271 2271 2286 2271 2271 2286 2286 2271 2271 2271 2271 2271 2271 2271 2271 2271 2271 2271 2286 2286 2286 2286 2286 2286 2286 2286 2286 2286 2286 2286 2286 2286 2286 2286 2286 2286 4911 4911 4983 4983 4983 4983 4983 4983 4983 4983 4983 4983 4911 4911 4911 4983 4911 4911 4911 4911 4911 4911 4911 4911 4911 4911 4911 4911 4911 4911 4911 4911 4911 4911 4911 4911 4983 4983 5056 5056 5056 5132 5132 5056 5056 5132 5132 5132 5056 5056 5056 5056 0 0 0 0 0 0 0 0 0 0 0 0 0 0 0 0 0 0 0 0 0 0 0 0 0 0 0 0 0 0 3333 3333 3333 3333 3333 3300 3300 3300 3300 3300 3300 3300 3300 3300 3300 3300 3300 3300 3300 3269 3269 3269 3269 3238 3238 3208 3208 3208 3208 3208 3208 3208 3208 3178 3178 3178 3178 3178 3178 3178 3178 3178 3178 3149 3149 3149 3149 3149 3178 3178 3120 3120 3120 3120 3120 3120 3120 3120 3120 3120 3120 3120 3120 3120 3092 3092 3120 3120 3120 3120 3120 3120 3120 3092 3092 3092 3064 3064 3064 3064 3064 3064 3037 3037 3037 3064 3064 3064 3092 3092 3092 3149 3092 3092 3092 3064 3037 2958 2835 2835 2812 2812 2812 2812 2812 2812 2812 2812 2812 2835 2835 2835 2835 2835 2835 2835 2835 2835 2835 2835 2835 2812 2812 2812 2812 2812 2812 2789 2789 2789 2789 2767 2767 2767 2767 2767 2767 2767 2744 2744 2767 2767 2767 2744 2744 2744 2744 2744 2744 2744 2744 2744 2744 2767 2767 2767 2767 2767 2767 2789 2789 2789 2767 2767 2789 2789 2812 2812 2812 2812 2812 2812 4645 4645 4708 4708 4774 4774 0 0 0 0 0 0 0 0 0 0 0 0
0 0 0 0 0 0 0 0 0 0 0 0 0 0 0 0 0 0 0 0 0 0 0 0 0 0 0 0 0 0 0 0 4911 4911 4842 4842 4842 4842 4911 4911 4911 4911 4983 5210 5291 5291 5291 5291 5291 5291 5291 5291 5210 5210 5291 5210 5210 5210 5210 5291 0 0 0 0 0 0 0 0 6259 6146 6146 6146 6146 6146 6146 0 0 0 0 0 0 0 0 0 0 0 0 0 0 0 0 0 0 0 0 0 0 0 2789 2789 2812 2835 2835 2859 2883 2883 2883 2933 2933 2933 2933 2958 2958 2958 2958 2958 2958 2984 3010 3010 3037 3037 3037 3037 3037 3037 3037 3037 3037 3037 3037 3010 3010 3010 2958 2933 2933 2933 2116 2116 2116 2116 2116 2129 2129 2129 2129 2129 2143 2143 2143 2143 2143 2129 2129 2129 2129 2129 2143 2143 2143 2143 2143 2143 2143 2143 2143 2143 2143 2143 2143 2143 2143 2156 2170 2170 2170 2170 2184 2184 2184 2184 2184 2184 2184 2184 2184 2184 2184 2198 2198 2198 2198 2198 2198 2184 2184 2184 2184 2184 2184 2184 2198 2198 2198 2198 2198 2198 2198 2198 2198 2198 2198 2198 2198 2198 2198 2198 2198 2198 2198 2212 2212 2226 2226 2226 2226 2226 3208 3208 3208 3208 3208 3208 3208 3208 3208 3238 3238 3208 3208 3208 3208 3208 3208 3208 3208 3208 3238 3238 3238 3208 3208 3208 3208 3120 3120 3120 3120 3120 3037 3037 0 0 0 6622 6622 6753 6753 6622 6622 6622 6622 6753 6622 6497 6497 6497 6497 0 0 0 0 0 0 0 2241 2241 2241 2241 2241 2241 2241 2241 2241 2256 2256 2256 2256 2256 2256 2256 2256 2256 2256 2256 2256 2256 2271 2271 2271 2271 2271 2271 2271 2271 2271 2271 2271 2286 2286 2286 2286 2286 2286 2286 2286 2286 2271 2271 2271 2271 2271 2271 2286 2271 2271 2286 2271 2271 2271 2271 2271 2271 2271 2271 2271 2271 2271 2286 2286 2286 2286 2286 2286 2286 2286 2286 2286 2286 2286 2286 2286 2286 2286 2286 2286 2286 2286 4983 4983 4983 4983 4983 4983 4983 4983 4983 4983 4983 4911 4911 4911 4911 4911 4911 4911 4911 4911 4911 4911 4911 4911 4911 4911 4911 4911 4911 4911 4911 4911 4911 4911 4911 4983 4983 5056 5132 5132 5132 5132 5132 5132 5132 5132 5056 5056 5056 5056 5056 0 0 0 0 0 0 0 0 0 0 0 0 0 0 0 0 0 0 0 0 0 0 0 0 0 0 0 0 0 0 0 0 3333 3333 3300 3300 3300 3300 3300 3300 3300 3300 3300 3300 3300 3300 3300 3269 3269 3269 3269 3269 3269 3238 3238 3238 3208 3208 3208 3208 3208 3208 3208 3208 3208 3178 3178 3178 3178 3178 3178 3178 3178 3178 3178 3149 3149 3178 3178 3178 3120 3120 3120 3120 3120 3120 3120 3120 3120 3120 3120 3120 3120 3120 3092 3092 3120 3120 3120 3120 3120 3120 3092 3092 3092 3064 3064 3064 3064 3064 3064 3064 3037 3037 3037 3064 3064 3064 3064 3092 3092 3092 3092 3064 3064 3037 3010 3010 2835 2835 2835 2812 2812 2812 2812 2812 2812 2812 2812 2835 2835 2835 2835 2835 2835 2835 2835 2835 2835 2835 2835 2859 2859 2908 3064 3037 3037 3064 2859 2859 3120 3149 2767 2767 2767 2767 2767 2767 2744 2744 2767 2767 3120 2744 2744 2744 2744 2744 2744 2744 2767 2767 2767 2767 2767 2767 2789 2789 2789 2789 2789 2789 2789 2789 2789 2812 2812 2812 2812 2812 2812 2835 4645 4645 4708 4708 4774 4774 0 0 0 0 0 0 0 0 0 0 0 0
0 0 0 0 0 0 0 0 0 0 0 0 0 0 0 0 0 0 0 0 0 0 0 0 0 0 0 0 0 0 0 0 4911 4911 4842 4842 4842 4842 4911 4911 4911 4983 4983 5210 5291 5374 5374 5291 5291 5291 5291 5210 5210 5210 5210 5210 5210 5210 5291 5291 0 0 0 0 0 0 0 0 6146 6146 6038 6038 6038 6038 6038 0 0 0 0 0 0 0 0 0 0 0 0 0 0 0 0 0 0 0 0 0 0 0 2789 2789 2812 2835 2835 2859 2859 2859 2883 2883 2883 2908 2908 2908 2908 2933 2933 2933 2933 2933 2958 2958 3010 3010 3010 3037 3037 3010 3010 3010 3010 3037 2984 2958 2958 2958 2908 2908 2933 2933 2129 2129 2129 2129 2129 2129 2129 2129 2143 2143 2143 2143 2143 2143 2143 2129 2129 2129 2143 2143 2143 2143 2143 2143 2143 2143 2143 2143 2143 2143 2143 2143 2143 2156 2156 2156 2170 2170 2184 2184 2184 2184 2184 2184 2184 2184 2184 2184 2184 2184 2198 2198 2198 2198 2198 2198 2198 2184 2184 2184 2184 2184 2184 2184 2198 2198 2198 2198 2198 2198 2198 2198 2198 2198 2198 2212 2198 2198 2198 2198 2198 2198 2198 2212 2212 2226 2226 2226 2226 2226 3208 3178 3178 3208 3208 3208 3208 3208 3208 3238 3238 3208 3208 3208 3208 3208 3178 3178 3178 3208 3238 3238 3238 3208 3149 3149 3092 3092 3064 3064 3064 3037 3037 3037 3037 0 0 0 0 0 6753 6622 6622 6622 6622 6753 6622 6497 6497 0 0 0 0 0 0 0 0 0 2241 2241 2241 2241 2241 2241 2241 2241 2241 2256 2256 2256 2256 2256 2256 2256 2256 2256 2256 2256 2256 2256 2271 2271 2271 2271 2271 2271 2271 2271 2271 2271 2271 2286 2286 2286 2286 2286 2286 2286 2286 2286 2286 2271 2271 2271 2271 2286 2271 2271 2271 2286 2271 2271 2271 2271 2271 2271 2271 2271 2271 2271 2271 2286 2286 2286 2286 2286 2286 2286 2286 2286 2286 2286 2286 2286 2286 2286 2286 2286 2286 2286 2286 4983 4983 4983 5056 4983 4983 4983 4983 4983 4911 4911 4911 4911 4911 4911 4911 4911 4911 4911 4911 4911 4911 4911 4911 4911 4911 4911 4911 4911 4911 4911 4911 4911 4911 4911 4911 4983 5056 5056 5056 5132 5132 5132 5132 5132 5056 5056 5056 5056 5056 5056 0 0 0 0 0 0 0 0 0 0 0 0 0 0 0 0 0 0 0 0 0 0 0 0 0 0 0 0 0 0 0 0 3333 3333 3300 3300 3300 3300 3300 3269 3269 3269 3269 3300 3300 3300 3300 3269 3269 3269 3269 3269 3269 3238 3238 3238 3208 3208 3208 3208 3208 3208 3208 3208 3208 3208 3208 3178 3178 3178 3178 3178 3178 3178 3178 3178 3178 3178 3178 3178 3149 3149 3149 3120 3120 3120 3120 3120 3120 3120 3120 3120 3120 3092 3092 3092 3092 3120 3120 3092 3092 3092 3092 3092 3092 3064 3064 3064 3064 3064 3064 3064 3064 3064 3064 3064 3064 3064 3064 3092 3092 3092 3064 3064 3064 3037 3010 3010 2859 2859 2835 2812 2812 2812 2812 2812 2812 2812 2835 2835 2835 2835 2835 2835 2835 2835 2835 2835 2835 2859 2859 2908 2933 3037 3064 3064 3064 3092 3064 3064 3120 3120 3149 3149 3120 3120 3149 3120 3120 3120 3120 3120 3120 3149 3208 3208 2744 2744 2744 2767 2767 2767 2767 2789 2789 2789 2789 2789 2789 2789 2789 2789 2789 2789 2789 2812 2812 2812 2812 2812 2812 2835 4645 4645 4708 4708 4708 4774 0 0 0 0 0 0 0 0 0 0 0 0
0 0 0 0 0 0 0 0 0 0 0 0 0 0 0 0 0 0 0 0 0 0 0 0 0 0 0 0 0 0 0 0 0 4911 4842 4842 4842 4911 4911 4911 4983 5056 5132 5291 5291 5374 5374 5291 5291 5291 5291 5210 5210 5210 5210 5210 5210 5210 5291 5291 5548 0 0 0 0 0 0 0 6146 6146 6038 6038 6038 5832 5832 5832 5832 0 0 0 0 0 0 0 0 0 0 0 0 0 0 0 0 0 0 2812 2812 2812 2812 2812 2812 2835 2835 2859 2859 2859 2859 2883 2883 2883 2883 2883 2883 2883 2883 2883 2883 2883 2908 2908 2883 2883 2883 2883 2883 2883 2908 2908 2883 2883 2883 2908 2908 2908 2883 2883 2883 2908 2129 2116 2103 2103 2129 2129 2129 2129 2143 2143 2143 2143 2143 2143 2143 2129 2129 2129 2143 2143 2143 2143 2143 2143 2143 2143 2143 2143 2143 2143 2143 2143 2156 2156 2156 2170 2170 2184 2184 2184 2184 2184 2184 2184 2184 2184 2184 2184 2184 2198 2198 2198 2198 2198 2198 2198 2198 2184 2184 2184 2184 2184 2184 2198 2198 2198 2198 2198 2198 2198 2198 2198 2198 2198 2212 2212 2212 2212 2198 2198 2198 2198 2212 2212 2212 2226 2226 2226 2226 2226 2226 3178 3178 3208 3208 3208 3208 3208 3208 3208 3238 3208 3208 3208 3208 3208 3178 3178 3178 3208 3238 3238 3238 3238 3037 3037 3037 3037 3037 3037 3037 3037 3010 3010 3037 0 0 0 0 0 0 0 0 6497 6497 6622 6753 6497 6497 0 0 0 0 0 0 0 0 0 2241 2241 2241 2241 2241 2241 2241 2241 2241 2256 2256 2256 2256 2256 2256 2256 2256 2256 2256 2256 2256 2271 2271 2271 2271 2271 2271 2271 2271 2271 2271 2271 2271 2286 2286 2286 2286 2286 2286 2286 2286 2286 2286 2271 2271 2271 2271 2286 2271 2271 2271 2286 2286 2286 2271 2271 2271 2286 2271 2271 2286 2286 2286 2286 2286 2286 2286 2286 2286 2286 2286 2286 2286 2286 2286 2286 2286 2286 2286 2286 2286 2286 0 4983 4983 4983 4983 4983 4983 4983 4983 4983 4911 4911 4911 4911 4911 4911 4911 4911 4911 4911 4911 4911 4911 4911 4911 4911 4911 4911 4911 4911 4911 4911 4911 4911 4911 4911 4911 4983 5056 5056 5056 5132 5132 5132 5132 5056 5056 5056 5056 5056 5056 5056 0 0 0 0 0 0 0 0 0 0 0 0 0 0 0 0 0 0 0 0 0 0 0 0 0 0 0 0 0 0 0 0 4139 4139 4139 4139 4139 4190 4190 3269 3269 3269 3269 3300 3269 3269 3300 3269 3269 3269 3269 3269 3269 3238 3238 3238 3238 3238 3238 3208 3208 3208 3208 3208 3208 3208 3208 3178 3178 3178 3178 3178 3178 3178 3178 3178 3178 3178 3178 3178 3149 3149 3149 3149 3120 3120 3120 3120 3120 3120 3120 3120 3120 3092 3092 3092 3092 3120 3120 3092 3092 3092 3092 3092 3092 3092 3064 3064 3064 3064 3064 3064 3064 3064 3064 3064 3064 3064 3064 3092 3092 3064 3064 3064 3064 3037 3010 3010 2859 2859 2835 2812 2812 2812 2812 2812 2812 2835 2835 2835 2835 2835 2835 2835 2835 2835 2835 2835 2835 2859 2883 2958 3037 3064 3092 3092 3092 3120 3120 3120 3120 3120 3149 3149 3149 3149 3149 3120 3120 3120 3149 3149 3149 3178 3208 3208 3238 2767 2767 2767 2767 2767 2767 2789 2789 2789 2789 2789 2789 2789 2789 2789 2789 2789 2789 2812 2812 2812 2812 2812 2812 4645 4708 4708 4708 4708 4708 4774 0 0 0 0 0 0 0 0 0 0 0 0
0 0 0 0 0 0 0 0 0 0 0 0 0 0 0 0 0 0 0 0 0 0 0 0 0 0 0 0 0 0 0 0 5056 4911 4911 4911 4911 4911 4911 4911 4983 5056 5132 5210 5291 5291 5291 5291 5291 5291 5291 5291 5210 5210 5291 5291 5210 5210 5291 5291 5460 5548 0 0 0 0 0 0 6038 6038 6038 5832 5832 5832 5832 5734 5734 0 0 0 0 0 0 0 0 0 0 0 5734 5734 0 0 0 0 0 2812 2812 2835 2812 2812 2812 2812 2812 2859 2835 2835 2859 2859 2859 2859 2859 2859 2859 2859 2859 2859 2859 2859 2859 2859 2859 2859 2883 2883 2883 2883 2883 2883 2883 2883 2883 2883 2883 2883 2883 2883 2883 2883 2883 2116 2103 2103 2129 2129 2129 2129 2143 2143 2143 2143 2143 2143 2143 2129 2129 2143 2143 2143 2143 2143 2143 2143 2143 2143 2143 2143 2143 2156 2156 2156 2156 2156 2156 2170 2170 2170 2170 2184 2184 2184 2184 2184 2184 2184 2184 2184 2184 2198 2198 2198 2198 2198 2198 2198 2198 2184 2184 2184 2184 2198 2198 2198 2198 2198 2198 2198 2198 2198 2198 2198 2198 2198 2212 2212 2212 2212 2212 2198 2198 2212 2212 2212 2212 2226 2226 2226 2226 2226 2226 3238 3238 3238 3208 3178 3178 3178 3178 3208 3208 3178 3178 3208 3208 3208 3149 3149 3208 3238 3010 2984 2984 2984 3010 3010 3010 3010 3010 3010 3010 3010 3010 3010 3010 3037 0 0 0 0 0 0 0 6497 6497 6497 6497 6375 6375 6375 6375 0 0 0 0 0 0 0 2226 2226 2226 2241 2241 2241 2241 2241 2256 2256 2256 2256 2256 2256 2256 2256 2256 2271 2271 2271 2271 2271 2271 2271 2271 2271 2271 2271 2271 2271 2271 2271 2271 2286 2286 2286 2286 2286 2286 2286 2286 2301 2286 2271 2271 2271 2271 2286 2286 2271 2271 2286 2286 2286 2286 2286 2286 2286 2271 2271 2286 2286 2286 2286 2286 2286 2286 2286 2286 2286 2286 2286 2286 2286 2286 2286 2286 2286 2286 2286 2286 2286 0 4983 4983 4983 4983 4983 4983 4983 4983 4983 4911 4911 4911 4911 4911 4911 4911 4911 4911 4911 4911 4911 4911 4911 4911 4911 4911 4911 4911 4911 4911 4911 4911 4911 4911 4911 4983 4983 5056 5056 5132 5132 5132 5132 5132 5056 5056 5056 5056 5056 5056 5056 0 0 0 0 0 0 0 0 0 0 0 0 0 0 0 0 0 0 0 0 0 0 0 0 0 0 0 0 0 0 4089 4089 4089 4139 4139 4139 4139 4139 4139 4190 4190 4139 4139 3300 3269 3269 3269 3269 3269 3300 3269 3269 3238 3238 3238 3238 3238 3238 3238 3208 3208 3208 3208 3208 3208 3208 3208 3178 3178 3178 3178 3178 3178 3178 3178 3178 3178 3178 3178 3178 3149 3149 3149 3149 3149 3149 3149 3120 3120 3120 3120 3120 3120 3092 3092 3092 3092 3120 3120 3120 3120 3120 3120 3120 3120 3092 3092 3092 3092 3092 3064 3064 3064 3064 3064 3064 3064 3064 3064 3092 3092 3064 3064 3064 3064 3037 3010 3010 2883 2859 2835 2835 2812 2812 2812 2812 2812 2835 2835 2835 2835 2835 2835 2835 2835 2835 2835 2835 2859 2883 2933 3037 3064 3092 3092 3120 3120 3120 3120 3120 3149 3149 3178 3149 3149 3149 3149 3149 3149 3149 3149 3149 3149 3178 3178 3208 3238 2767 2767 2767 2767 2767 2767 2789 2789 2789 2789 2789 2789 2812 2789 2789 2789 2789 2789 2812 2812 2812 2835 2835 4645 4645 4708 4708 4708 4708 4708 4774 0 0 0 0 0 0 0 0 0 0 0 0
0 0 0 0 0 0 0 0 0 0 0 0 0 0 0 0 0 0 0 0 0 0 0 0 0 0 0 0 0 0 0 0 5056 4983 4911 4911 4911 4911 4983 4983 4983 5056 5056 5210 5210 5291 5291 5291 5291 5291 5291 5291 5210 5210 5210 5210 5210 5210 5291 5291 5291 5548 0 0 0 0 0 0 0 6038 6038 5832 5832 5832 5734 5734 5734 0 0 0 0 0 0 0 0 0 0 0 5734 5734 0 0 0 0 0 2812 2812 2835 2812 2812 2812 2812 2812 2859 2835 2835 2835 2859 2859 2859 2859 2835 2835 2859 2835 2835 2835 2835 2835 2835 2859 2859 2859 2859 2859 2859 2859 2859 2859 2859 2859 2859 2859 2859 2859 2859 2883 2883 2883 2143 2129 2129 2129 2129 2129 2143 2143 2143 2143 2143 2143 2143 2143 2143 2143 2143 2143 2143 2143 2143 2143 2143 2143 2143 2156 2156 2156 2156 2156 2156 2156 2156 2156 2170 2170 2170 2170 2184 2184 2184 2184 2184 2184 2184 2184 2184 2184 2198 2198 2198 2198 2198 2198 2198 2198 2184 2184 2184 2184 2198 2198 2198 2198 2198 2198 2198 2198 2198 2198 2198 2198 2198 2212 2212 2212 2212 2212 2212 2212 2212 2212 2212 2212 2226 2226 2226 2226 2226 2908 2908 2908 2933 2933 2958 2958 2958 2984 2958 2958 3010 3010 3037 2984 2984 3037 3149 3149 2984 2984 2984 2958 2958 2984 2984 3010 3010 3010 3010 3010 3010 3010 3010 3010 3037 0 0 0 0 0 0 0 6375 6375 6375 6497 6375 6375 6375 6375 0 0 0 0 0 0 0 2226 2226 2226 2241 2241 2241 2241 2241 2241 2256 2256 2256 2256 2256 2256 2256 2256 2271 2271 2271 2271 2271 2271 2271 2271 2271 2271 2271 2271 2271 2286 2286 2286 2286 2286 2286 2286 2286 2286 2286 2286 2301 2286 2286 2286 2286 2286 2286 2286 2271 2271 2286 2286 2286 2286 2286 2286 2286 2286 2286 2286 2286 2286 2286 2286 2286 2286 2286 2286 2286 2286 2286 2286 2286 2286 2286 2286 2286 2286 2286 2301 2301 0 4983 4983 4983 5056 4983 4983 4983 4983 4983 4983 4911 4911 4911 4911 4911 4911 4911 4911 4911 4911 4911 4911 4911 4911 4911 4911 4911 4911 4911 4911 4911 4911 4911 4911 4911 4983 5056 5056 5132 5132 5132 5132 5056 5056 5056 5056 5056 5056 5056 5056 0 0 0 0 0 0 0 0 0 0 0 0 0 0 0 0 0 0 0 0 0 0 0 0 0 0 0 0 0 0 0 4089 4089 4089 4139 4139 4089 4089 4139 4139 4139 4139 4139 4139 4139 4139 3269 3269 3269 3269 3269 3238 3238 3238 3238 3238 3238 3238 3238 3238 3208 3208 3208 3208 3208 3208 3208 3208 3208 3178 3178 3178 3178 3178 3178 3178 3178 3178 3178 3178 3178 3149 3149 3149 3149 3149 3149 3149 3120 3120 3120 3120 3120 3120 3120 3092 3092 3092 3120 3120 3120 3120 3120 3120 3120 3120 3120 3092 3092 3092 3092 3092 3064 3064 3064 3064 3064 3064 3064 3092 3092 3092 3064 3064 3064 3064 3037 3010 3010 2883 2859 2835 2835 2812 2812 2835 2835 2835 2835 2835 2859 2835 2835 2835 2835 2835 2835 2835 2835 2859 2883 2908 3037 3064 3092 3120 3120 3120 3149 3149 3149 3149 3149 3178 3178 3178 3178 3178 3149 3149 3149 3149 3149 3149 3178 3178 3238 2744 2744 2789 2789 2789 2767 2767 2767 2789 2789 2789 2789 2812 2812 2812 2812 2789 2789 2789 2812 2812 2812 2812 4645 4645 4645 4708 4708 4708 4708 4708 4774 0 0 0 0 0 0 0 0 0 0 0 0
0 0 0 0 0 0 0 0 0 0 0 0 0 0 0 0 0 0 0 0 0 0 0 0 0 0 0 0 0 0 0 5210 5132 5056 4983 4983 4983 4983 4983 4983 4983 5056 5056 5210 5210 5291 5291 5291 5291 5291 5291 5291 5210 5210 5210 5210 5210 5210 5291 5291 5291 5548 5548 5734 5734 5832 5832 0 5460 5460 5460 5640 5734 5734 5734 5640 5640 0 0 0 0 0 0 0 0 5734 5640 5640 5734 5734 5460 5460 0 0 0 2835 2835 2835 2835 2835 2835 2812 2812 2835 2835 2835 2835 2859 2859 2835 2835 2835 2835 2835 2835 2835 2835 2835 2835 2835 2835 2835 2835 2859 2859 2859 2859 2859 2859 2859 2859 2859 2859 2859 2859 2859 2859 2883 2883 2143 2143 2143 2143 2143 2143 2143 2143 2143 2143 2143 2143 2143 2143 2143 2143 2143 2143 2143 2143 2143 2143 2143 2143 2143 2156 2156 2156 2156 2156 2156 2156 2156 2156 2156 2170 2170 2170 2184 2184 2184 2170 2170 2184 2184 2184 2184 2184 2198 2198 2198 2198 2198 2198 2198 2198 2184 2184 2184 2184 2198 2198 2198 2198 2198 2198 2198 2198 2198 2198 2198 2198 2198 2212 2212 2198 2198 2198 2212 2212 2212 2212 2212 2226 2226 2241 2241 2226 2226 2908 2908 2908 2933 2933 2958 2958 2958 2984 2958 2958 2958 2958 2958 2958 2958 2958 2958 2958 2958 2958 2958 2958 2958 2984 2984 3010 3010 3010 3010 3010 3010 3010 3010 3010 3037 3064 0 0 0 0 0 0 6375 6375 6375 6375 6375 6375 6375 0 0 0 0 0 0 0 0 2226 2226 2226 2241 2241 2241 2241 2241 2241 2241 2241 2241 2256 2256 2256 2256 2271 2271 2271 2271 2271 2271 2271 2271 2271 2271 2271 2286 2286 2286 2271 2271 2286 2286 2286 2286 2286 2286 2286 2301 2301 2301 2286 2286 2286 2286 2271 2271 2271 2271 2271 2286 2286 2286 2286 2286 2286 2286 2286 2286 2286 2286 2286 2286 2286 2286 2286 2286 2286 2286 2286 2286 2286 2286 2286 2286 2286 2286 2286 2301 2301 2301 0 5132 5056 5056 5056 5056 5056 5056 5056 4983 4983 4911 4911 4911 4911 4911 4911 4911 4911 4911 4911 4911 4911 4911 4911 4911 4911 4911 4911 4911 4911 4911 4911 4911 4911 4983 5056 5056 5056 5132 5132 5132 5132 5056 5056 5056 5056 5056 5056 5056 5056 0 0 0 0 0 0 0 0 0 0 0 0 0 0 0 0 0 0 0 0 0 0 0 0 0 0 0 0 0 0 0 4089 4089 4089 4089 4089 4089 4089 4089 4139 4139 4139 4089 4089 4139 4139 4139 3269 3269 3269 3269 3238 3238 3238 3238 3238 3238 3238 3238 3238 3238 3238 3238 3208 3208 3208 3208 3208 3208 3208 3178 3178 3178 3178 3178 3178 3178 3178 3178 3178 3178 3149 3149 3149 3149 3149 3149 3149 3149 3149 3120 3120 3120 3120 3120 3120 3120 3120 3120 3120 3120 3120 3120 3120 3120 3120 3120 3120 3092 3092 3092 3092 3092 3064 3064 3064 3092 3092 3092 3092 3092 3092 3092 3092 3064 3064 3037 3010 2984 2883 2859 2859 2835 2835 2835 2835 2835 2835 2835 2859 2859 2859 2835 2835 2835 2835 2835 2835 2859 2859 2883 2908 2958 3064 3092 3120 3120 3120 3149 3149 3149 3149 3149 3178 3178 3178 3178 3178 3149 3149 3149 3178 3178 3178 3178 3208 3208 2744 2744 2789 2789 2789 2767 2767 2767 2789 2789 2789 2789 2812 2812 2812 2812 2812 2789 2789 2789 2767 2767 2767 4645 4645 4645 4708 4708 4708 4708 4708 4774 0 0 0 0 0 0 0 0 0 0 0 0
0 0 0 0 0 0 0 0 0 0 0 0 0 0 0 0 0 0 0 0 0 0 0 0 0 0 0 0 0 0 0 5210 5132 5132 4983 4983 4983 4983 4911 4911 4983 5056 5132 5210 5210 5291 5291 5291 5291 5291 5291 5291 5210 5210 5210 5210 5210 5210 5291 5291 5291 5460 5548 5640 5640 5640 5640 5734 5734 5460 5460 5548 5734 5734 5640 5640 5640 0 0 0 0 0 0 5832 5832 5734 5640 5640 5640 5548 5460 5460 0 0 2835 2835 2835 2835 2835 2835 2835 2835 2835 2835 2835 2835 2835 2835 2835 2835 2835 2835 2835 2835 2835 2835 2812 2812 2812 2812 2812 2835 2835 2835 2835 2835 2859 2859 2859 2859 2859 2859 2859 2859 2859 2859 2859 2859 2859 2143 2143 2143 2143 2143 2143 2143 2143 2143 2143 2143 2143 2143 2143 2143 2143 2143 2143 2143 2143 2143 2143 2156 2156 2156 2156 2156 2156 2156 2156 2156 2156 2156 2156 2156 2170 2170 2170 2184 2184 2184 2170 2170 2184 2184 2184 2184 2184 2198 2198 2198 2198 2198 2198 2198 2184 2184 2184 2184 2184 2198 2198 2198 2198 2198 2198 2198 2198 2198 2198 2198 2212 2212 2212 2226 2198 2198 2198 2198 2198 2212 2212 2226 2226 2226 2226 2241 2241 2241 2933 2933 2933 2933 2933 2958 2958 2958 2958 2958 2958 2958 2958 2958 2958 2958 2958 2958 2958 2958 2958 2958 2958 2958 2984 2984 2984 3010 3010 3010 3010 3010 3010 3010 3037 3037 3064 0 0 0 0 0 0 6375 6375 6375 6375 6375 6375 6375 6375 6497 0 0 0 0 0 0 2226 2226 2226 2226 2226 2241 2241 2241 2241 2241 2241 2241 2256 2256 2256 2271 2271 2271 2271 2271 2271 2271 2271 2271 2271 2271 2271 2271 2271 2271 2271 2271 2286 2286 2286 2286 2286 2286 2301 2301 2301 2301 2286 2286 2286 2286 2271 2271 2271 2271 2271 2286 2271 2271 2286 2271 2271 2271 2286 2286 2286 2286 2286 2286 2286 2286 2286 2286 2286 2286 2286 2286 2286 2286 2286 2286 2286 2286 2286 2286 2286 2286 2333 5132 5132 5132 5132 5132 5132 5132 5132 5056 4983 4983 4983 4911 4911 4911 4911 4911 4911 4983 4983 4911 4911 4911 4911 4911 4911 4911 4911 4911 4911 4911 4911 4911 4911 4983 5056 5056 5132 5132 5132 5132 5210 5056 5056 5056 5056 5056 5056 5056 5056 0 0 0 0 0 0 0 0 0 0 0 0 0 0 0 0 0 0 0 0 0 0 0 0 0 0 0 0 0 0 0 4089 4089 4089 4089 4089 4089 4089 4089 4089 4089 4089 4089 4089 4089 4089 4139 4139 3269 3269 3269 3269 3238 3238 3238 3238 3238 3238 3238 3238 3238 3208 3208 3208 3208 3208 3208 3208 3208 3208 3178 3178 3208 3208 3208 3208 3208 3178 3178 3178 3178 3149 3149 3149 3149 3149 3149 3149 3149 3149 3149 3149 3149 3149 3120 3120 3120 3120 3120 3120 3120 3120 3120 3120 3120 3120 3092 3092 3092 3092 3092 3092 3092 3092 3092 3092 3092 3092 3092 3092 3092 3092 3092 3092 3064 3064 3037 2984 2908 2859 2859 2835 2835 2835 2835 2835 2835 2835 2859 2859 2859 2859 2835 2835 2835 2835 2835 2859 2859 2859 2883 2883 2958 3064 3120 3120 3149 3149 3149 3149 3149 3149 3149 3178 3178 3178 3178 3178 3178 3178 3178 3178 3178 3178 3208 2789 2789 2744 2744 2789 2789 2789 2767 2767 2767 2767 2789 2789 2789 2812 2812 2812 2812 2812 2789 2789 2789 2767 2767 2767 4645 4645 4645 4708 4708 4708 4708 4708 4774 0 0 0 0 0 0 0 0 0 0 0 0
0 0 0 0 0 0 0 0 0 0 0 0 0 0 0 0 0 0 0 0 0 0 0 0 0 0 0 0 0 0 0 5210 5132 5132 4983 4983 4983 4911 4911 4911 4911 4983 4983 5132 5132 5210 5291 5291 5291 5374 5291 5291 5291 5291 5210 5210 5210 5210 5291 5291 5291 5460 5548 5460 5460 5460 5460 5548 5548 5460 5460 5548 5734 5734 5640 5640 5640 0 0 0 0 0 5734 5734 5832 5734 5640 5640 5640 5548 5460 5460 5460 0 2835 2835 2835 2835 2835 2835 2835 2835 2835 2835 2835 2835 2835 2835 2835 2835 2835 2835 2835 2835 2835 2835 2812 2812 2812 2812 2812 2835 2835 2835 2835 2835 2859 2859 2859 2859 2859 2859 2859 2859 2859 2859 2859 2859 2859 2859 2156 2143 2143 2143 2143 2143 2143 2143 2143 2143 2143 2143 2143 2143 2143 2143 2143 2143 2143 2143 2143 2156 2156 2143 2143 2156 2156 2156 2156 2156 2156 2170 2170 2170 2170 2170 2170 2184 2184 2184 2170 2170 2184 2184 2184 2184 2184 2198 2198 2212 2198 2198 2198 2198 2184 2184 2170 2170 2170 2198 2198 2198 2198 2198 2198 2184 2184 2198 2212 2212 2212 2212 2241 2241 2184 2184 2198 2198 2198 2198 2212 2226 2226 2226 2226 2241 2241 2241 2933 2933 2933 2958 2958 2958 2958 2958 2958 2958 2958 2958 2958 2958 2958 2958 2958 2958 2984 2958 2958 2984 2984 2984 2984 2984 2984 3010 3010 3010 3010 3037 3037 3037 3037 3037 3064 0 0 0 0 0 0 6375 6375 6375 6375 6375 6375 6259 6259 6497 0 0 0 0 0 0 2226 2226 2226 2226 2226 2241 2241 2241 2241 2241 2241 2241 2241 2256 2256 2271 2271 2286 2271 2271 2271 2271 2256 2256 2256 2256 2271 2271 2271 2271 2271 2271 2286 2286 2286 2286 2286 2286 2301 2301 2301 2301 2301 2301 2301 2286 2271 2271 2286 2286 2286 2286 2271 2271 2271 2271 2271 2271 2271 2286 2286 2286 2286 2286 2286 2286 2286 2286 2286 2286 2286 2286 2286 2286 2286 2286 2286 2286 2286 2286 2286 2333 2333 5132 5132 5132 5132 5132 5132 5132 5132 5056 4983 4983 4983 4983 4983 4911 4911 4911 4983 4983 4983 4911 4911 4911 4911 4911 4911 4911 4911 4911 4911 4911 4911 4911 4983 5056 5056 5132 5132 5132 5132 5132 5210 5132 5056 5056 5056 5056 5056 5056 5056 0 0 0 0 0 0 0 0 0 0 0 0 0 0 0 0 0 0 0 0 0 0 0 0 0 0 0 0 0 0 0 4089 4089 4089 4089 4089 4089 4089 4089 4089 4089 4089 4089 4089 4089 4089 4089 4139 4139 3269 3269 3269 3208 3208 3208 3208 3208 3238 3238 3238 3238 3208 3208 3208 3208 3208 3208 3208 3208 3208 3208 3208 3208 3208 3208 3208 3178 3178 3178 3178 3178 3149 3149 3149 3149 3149 3149 3149 3149 3149 3149 3149 3149 3149 3149 3149 3149 3149 3149 3120 3120 3120 3120 3120 3120 3120 3092 3092 3092 3092 3092 3092 3092 3092 3092 3092 3092 3092 3092 3120 3120 3120 3092 3092 3092 3064 3010 2933 2883 2859 2859 2835 2835 2835 2835 2835 2859 2859 2859 2859 2859 2859 2835 2835 2835 2835 2835 2859 2859 2859 2859 2883 2958 3064 3120 3120 3149 3149 3149 3149 3149 3149 3149 3178 3178 3178 3208 3208 3178 3178 3208 3208 3208 3208 3208 2789 2789 2789 2789 2789 2789 2789 2767 2767 2767 2767 2789 2789 2789 2812 2812 2812 2812 2812 2812 2812 2789 2767 2767 4645 4645 4645 4645 4708 4708 4708 4708 4708 4774 0 0 0 0 0 0 0 0 0 0 0 0
0 0 0 0 0 0 0 0 0 0 0 0 0 0 0 0 0 0 0 0 0 0 0 0 0 0 0 0 0 0 0 5210 5210 5210 5132 4983 4911 4911 4911 4911 4911 4911 4911 4983 5056 5132 5210 5291 5291 5374 5374 5374 5291 5291 5210 5210 5210 5210 5291 5291 5291 5291 5291 5374 5374 5460 5460 5460 5460 5460 5460 5548 5548 5734 5734 5734 0 0 0 0 0 0 5640 5640 5734 5640 5640 5640 5640 5548 5460 5460 5460 0 2835 2835 2835 2835 2835 2835 2835 2835 2835 2835 2835 2835 2835 2835 2835 2835 2835 2835 2835 2835 2835 2835 2812 2812 2812 2812 2812 2812 2835 2835 2835 2835 2859 2859 2859 2859 2859 2859 2859 2859 2859 2859 2859 2859 2859 2883 2156 2143 2143 2143 2143 2143 2143 2143 2143 2143 2143 2143 2143 2143 2143 2143 2143 2143 2143 2143 2143 2156 2156 2143 2143 2156 2156 2156 2156 2156 2156 2908 2908 2908 2908 2908 2883 2883 2908 2184 2170 2170 2933 2933 2184 2184 2184 2198 2212 2212 2198 2198 2198 2198 2184 2184 2170 2170 2170 2198 2212 2212 2212 2212 2984 2184 2184 2198 3037 2212 2212 2212 2241 2241 2156 2156 2184 2198 2198 2198 2212 2226 2226 2226 2226 2226 2241 2226 2226 2958 2958 2958 2958 2958 2958 2958 2958 2958 2958 2958 2958 2958 2958 2958 2958 2958 2984 2984 2984 2984 2984 2984 2984 2984 2984 3010 3010 3010 3037 3037 3037 3037 3037 3064 3064 3092 0 0 0 0 0 6375 6146 6146 6146 6146 6038 6038 6259 0 0 0 0 0 0 0 2226 2226 2226 2226 2241 2241 2241 2241 2256 2256 2241 2241 2241 2256 2271 2271 2271 2286 0 2271 2271 2271 2256 2241 2241 2241 2256 2256 2271 2271 2271 2271 2286 2286 2286 2286 2286 2286 2286 2286 2286 2286 2286 2286 2286 2271 2271 2271 2271 2271 2271 2271 2271 2271 2271 2256 2256 2256 2256 2271 2286 2286 2286 2286 2286 2286 2286 2286 2271 2271 2286 2286 2286 2286 2286 2286 2286 2286 2301 2301 2317 2333 2333 5132 5132 5132 5132 5132 5132 5132 5132 5056 4983 4983 4983 4983 4983 4983 4983 4983 4983 4983 4983 4911 4911 4911 4911 4911 4911 4911 4911 4911 4911 4911 4911 4911 4983 5056 5056 5132 5132 5132 5132 5132 5210 5056 5056 5056 5056 5056 5056 5056 5056 0 0 0 0 0 0 0 0 0 0 0 0 0 0 0 0 0 0 0 0 0 0 0 0 0 0 0 0 0 0 0 4089 4089 4089 4089 4089 4089 4089 4089 4089 4089 4089 4089 4041 4041 4089 4089 4089 4139 4139 4190 0 3208 3208 3208 3208 3208 3238 3238 3238 3208 3208 3208 3208 3178 3178 3178 3178 3208 3208 3178 3178 3208 3208 3208 3208 3178 3178 3178 3178 3178 3149 3149 3149 3149 3149 3149 3149 3149 3149 3149 3149 3149 3149 3149 3149 3149 3149 3149 3120 3120 3120 3120 3120 3120 3120 3120 3120 3092 3092 3120 3120 3120 3120 3120 3120 3120 3120 3120 3120 3120 3120 3120 3120 3092 3064 3010 2933 2883 2859 2859 2835 2835 2835 2835 2859 2859 2859 2859 2859 2859 2859 2859 2835 2835 2835 2835 2859 2859 2859 2859 2883 2883 2933 3120 3120 3149 3149 3149 3149 3178 3178 3178 3178 3178 3208 3208 3208 3208 3208 3208 3208 3208 2812 2789 2789 2789 2767 2767 2767 2767 2767 2767 2789 2767 2767 2789 2812 2812 2812 2812 2812 2812 2812 2812 2812 2789 2789 4708 4645 4645 4645 4645 4708 4708 4708 4708 4708 4774 0 0 0 0 0 0 0 0 0 0 0 0
0 0 0 0 0 0 0 0 0 0 0 0 0 0 0 0 0 0 0 0 0 0 0 0 0 0 0 0 0 0 0 5210 5210 5056 5056 4983 4911 4911 4911 4911 4911 4911 4911 4983 5056 5132 5210 5210 5291 5291 5291 5291 5291 5291 5210 5210 5210 5210 5291 5291 5291 5291 5291 5291 5291 5291 5291 5374 5374 5374 5374 5374 5374 5374 5132 5132 0 5374 5374 5374 5374 5460 5460 5548 5734 5640 5640 5640 5548 5548 5460 5460 5460 0 0 2812 2812 2835 2835 2835 2835 2835 2835 2835 2835 2835 2835 2835 2835 2835 2835 2835 2835 2835 2835 2835 2812 2812 2812 2812 2812 2812 2835 2835 2835 2835 2835 2859 2859 2859 2859 2859 2859 2859 2859 2859 2859 2859 2859 2883 2883 2143 2143 2143 2143 2143 2143 2143 2143 2143 2156 2156 2156 2143 2143 2156 2156 2156 2156 2156 2156 2156 2156 2156 2156 2170 2170 2170 2170 2908 2908 2908 2908 2908 2908 2908 2908 2908 2908 2933 2933 2933 2933 2933 2933 2958 2958 2933 2933 2984 2984 2984 2958 2958 2958 2958 2958 2958 2958 2958 2958 2984 2984 2984 2984 3010 3037 3037 3037 3064 2212 2212 2256 2256 2156 2156 2184 2198 2198 2212 2226 2226 2226 2226 2226 2226 2241 2226 2226 2958 2958 2958 2958 2958 2958 2958 2958 2958 2958 2958 2958 2958 2958 2958 2984 2984 2984 2984 2984 2984 2984 2984 2984 2984 3010 3010 3010 3010 3037 3037 3037 3037 3064 3064 3092 3092 0 0 0 0 6375 6375 6146 6146 6146 6146 6038 6038 6038 0 0 0 0 0 0 2226 2226 2226 2241 2241 2241 2241 2241 2241 2256 2256 2256 2256 2256 0 0 0 0 0 0 0 0 0 2256 2226 2226 2241 2241 2256 2256 2271 2271 0 0 2301 2286 2286 2286 2286 2286 2286 2286 2286 2286 2286 2286 2271 2271 2271 2271 2271 2271 2271 2271 2271 2271 2256 2256 2256 2256 2271 2286 2286 2286 2286 2286 2286 2286 2286 2271 2271 2286 2286 2286 2286 2286 2286 2286 2286 2286 2317 2317 2333 2333 5132 5132 5132 5132 5132 5132 5132 5132 5056 4983 4983 4983 5056 5056 4983 4983 4983 5056 4983 4983 4983 4911 4911 4911 4911 4911 4911 4911 4911 4911 4911 4911 4911 4983 5056 5132 5132 5132 5132 5132 5132 5210 5056 5056 5056 5056 5056 5056 5056 5056 0 0 0 0 0 0 0 0 0 0 0 0 0 0 0 0 0 0 0 0 0 0 0 0 0 0 0 0 0 0 0 4089 4089 4089 4089 4089 4089 4089 4089 4089 4089 4041 4041 4041 4041 4089 4089 4089 4139 4139 0 0 0 3208 3208 0 0 0 3994 0 3208 3208 3208 3208 3178 3178 3178 3178 4241 4241 3178 3178 3208 3208 3208 3208 3178 3178 3149 3149 3178 3149 3149 3149 3149 3149 3178 3178 3692 3576 3178 3178 3178 3178 3149 3149 3149 3149 3120 3120 3120 3120 3120 3120 3120 3120 3120 3120 3120 3120 3120 3120 3120 3120 3120 3120 3120 3120 3120 3120 3120 3120 3120 3120 3092 3037 2958 2908 2883 2859 2859 2835 2835 2835 2835 2859 2859 2859 2859 2859 2859 2859 2859 2835 2835 2835 2835 2859 2859 2859 2859 2859 2859 2859 2859 2883 3149 3149 3149 3149 3178 3178 3178 3178 3178 3208 3208 3208 3208 3208 3208 3208 3208 2789 2789 2789 2789 2723 2723 2744 2744 2744 2767 3503 2767 2767 2789 2812 2812 2812 2812 2812 2812 2812 2812 2789 2789 2789 4645 4645 4645 4645 4708 4708 4708 4708 4774 4774 4774 0 0 0 0 0 0 0 0 0 0 0 0
0 0 0 0 0 0 0 0 0 0 0 0 0 0 0 0 0 0 0 0 0 0 0 0 0 0 0 0 0 0 0 0 0 5056 5056 4983 4983 4983 4911 4911 4911 4911 4911 4911 4983 5056 5132 5210 5291 5210 5210 5210 5291 5291 5291 5291 5291 5291 5291 5291 5291 5291 5210 5210 5291 5291 5291 5374 5374 5374 5374 5374 5374 0 0 5132 5132 5132 5210 5291 5291 5374 5460 5460 5548 5548 5548 5548 5548 5548 5460 5460 5460 0 0 2812 2812 2812 2835 2835 2835 2859 2859 2859 2835 2835 2835 2835 2835 2835 2859 2835 2835 2835 2835 2835 2835 2812 2812 2812 2835 2835 2835 2835 2835 2835 2835 2859 2859 2859 2859 2859 2859 2859 2859 2859 2859 2859 2859 2883 2883 2143 2143 2143 2143 2143 2143 2143 2143 2143 2156 2156 2156 2156 2156 2170 2170 2170 2156 2156 2156 2156 2156 2958 2933 2933 2908 2908 2908 2908 2908 2908 2933 2933 2933 2933 2908 2908 2933 2933 2933 2933 2933 2933 2958 2958 2958 2933 2933 2958 2958 2958 2958 2958 2958 2958 2958 2958 2958 2958 2958 2984 2984 2984 2984 3010 3037 3037 3037 3064 2301 2301 3149 3149 2212 2198 2198 2212 2212 2212 2212 2226 2226 2226 2226 2226 2241 2241 2958 2958 2958 2958 2958 2958 2958 2958 2958 2984 2984 2958 2958 2958 2958 2958 2984 2984 2984 2984 2984 2984 2984 2984 2984 2984 2984 3010 3010 3010 3037 3037 3037 3037 3064 3064 3092 3092 0 0 0 0 6375 6375 6259 6259 6146 6146 6038 5933 5933 5933 0 0 0 0 0 2226 2226 2226 2241 2241 2241 2241 2241 2256 2256 2256 2256 2256 2256 0 0 0 0 0 0 0 0 0 0 2226 2226 2241 2241 2256 2256 0 0 0 0 0 0 0 0 2301 2301 2301 0 0 0 0 0 0 0 0 0 0 0 0 0 0 0 0 0 0 0 2286 2286 2286 2286 2286 2286 2286 2271 2271 2271 2271 2286 2286 2286 2286 2286 2286 2286 2286 2286 2317 2333 2333 2333 5132 5132 5132 5132 5132 5132 5132 5132 5056 5056 5056 5056 5056 5056 5056 5056 5056 5056 4983 4983 4983 4911 4911 4911 4911 4911 4911 4911 4911 4911 4911 4911 4911 4983 5056 5132 5132 5132 5210 5210 5210 5210 5132 5132 5132 5132 5056 5056 5132 5132 0 0 0 0 0 0 0 0 0 0 0 0 0 0 0 0 0 0 0 0 0 0 0 0 0 0 0 0 0 0 0 4089 4089 4089 4089 4089 4089 4089 4089 4089 0 0 4089 4089 4089 4089 4089 4089 0 0 0 0 0 0 0 0 0 0 0 3994 3994 3994 4089 4089 3178 3178 4190 4190 4241 4241 4241 4295 4295 3238 3208 3208 3178 3178 3149 3149 3149 3576 3539 3539 3539 3539 3576 3614 3614 3576 3576 3576 3576 3576 3149 3149 3149 3149 3120 3120 3120 3120 3120 3120 3120 3120 3120 3120 3120 3120 3120 3120 3120 3149 3120 3120 3120 3120 3120 3120 3120 3120 3120 3120 3064 3010 2933 2908 2883 2859 2859 2835 2835 2835 2859 2859 2859 2859 2859 2859 2859 2859 2859 2859 2859 2835 2835 2835 2835 2835 2835 2859 2859 2859 2859 2859 2859 3120 3149 3149 3178 3178 0 0 3208 3208 3178 3178 3208 3208 3238 2812 2812 2789 2789 2812 2812 2723 2680 2680 2680 2680 3468 3468 3503 2789 2789 2812 2812 2812 2812 2812 2812 2812 2812 2789 2789 4645 4645 4645 4645 4645 4708 4708 4708 4708 4774 4774 4774 0 0 0 0 0 0 0 0 0 0 0 0
0 0 0 0 0 0 0 0 0 0 0 0 0 0 0 0 0 0 0 0 0 0 0 0 0 0 0 0 0 0 0 0 0 5132 5132 4983 4983 4983 4911 4911 4911 4911 4911 4911 4983 4983 5132 5210 5291 5132 5132 5210 5291 5291 5291 5291 5291 5291 5291 5291 5291 5291 5210 5210 5210 5291 5291 5374 5374 5374 5291 5291 5291 5132 5056 5132 5132 5132 5210 5210 5291 5374 5460 5460 5460 5548 5548 5548 5640 0 0 0 0 0 0 0 2812 2812 2835 2835 2835 2859 2859 2859 2835 2835 2835 2835 2835 2835 2859 2859 2859 2859 2835 2835 2835 2835 2835 2835 2835 2835 2835 2835 2835 2835 2859 2859 2859 2859 2859 2859 2859 2859 2859 2859 2859 2859 2859 2883 2883 2143 2143 2143 2143 2143 2143 2156 2143 2143 2156 2156 2156 2156 2156 2170 2184 2984 2958 2958 2958 2958 2958 2933 2933 2933 2908 2908 2908 2908 2908 2908 2933 2933 2933 2933 2933 2933 2933 2933 2933 2933 2933 2958 2958 2958 2958 2958 2958 2958 2958 2958 2958 2958 2958 2958 2958 2958 2958 2958 2958 2984 3010 3037 3037 3037 3037 3064 3064 3092 3120 3178 3178 3178 2212 2212 2212 2212 2212 2212 2212 2226 2226 2226 2226 2226 2226 2212 2198 2198 2958 2958 2958 2958 2958 2958 2958 2984 2984 2958 2958 2958 2984 2984 2984 2984 2984 2984 2984 2984 2984 2984 2984 2984 2984 3010 3010 3010 3037 3037 3037 3064 3064 3092 3092 3092 3092 0 0 0 6375 6375 6259 6259 6146 6146 6038 5933 5933 5933 0 0 0 0 0 2241 2241 2241 2241 2241 2241 2241 2241 2256 2256 2256 2256 2256 0 0 0 0 0 0 0 0 0 0 0 0 0 0 0 0 0 0 0 0 0 0 0 0 0 0 0 0 0 0 0 0 0 0 0 0 0 0 0 0 0 0 0 0 0 0 0 0 0 0 0 0 0 0 2271 2271 2271 2271 2286 2286 2286 2286 2286 2286 2286 2286 2286 2317 2333 2349 2349 5132 5132 5132 5132 5132 5132 5132 5132 5056 5056 5056 5056 5132 5056 5056 5056 5056 5056 5132 4983 4983 4983 4911 4911 4911 4911 4983 4911 4911 4911 4911 4911 4911 4983 5056 5132 5132 5210 5210 5210 5210 5210 5132 5132 5132 5132 5132 5132 5132 5132 0 0 0 0 0 0 0 0 0 0 0 0 0 0 0 0 0 0 0 0 0 0 0 0 0 0 0 0 0 0 0 4089 4089 4089 4089 4089 4089 4089 4089 4089 0 0 0 0 0 0 0 0 0 0 0 0 0 0 0 0 0 0 0 3994 3994 3994 3994 3994 4089 4089 4139 4190 4190 4190 4190 4190 4190 4190 4190 4190 4139 4139 3614 3614 3576 3576 3576 3539 3539 3576 3576 3576 3576 3576 3576 3576 3576 3539 3539 3539 3178 3149 3149 3120 3120 3149 3120 3120 3120 3120 3120 3120 3120 3120 3120 3120 3120 3149 3120 3120 3120 3120 3120 3120 3120 3120 3092 3037 2958 2933 2908 2883 2883 2859 2859 2835 2835 2835 2859 2859 2859 2859 2859 2859 2859 2859 2859 2859 2859 2835 2835 2835 2835 2835 2835 2859 2859 2859 2859 2835 2835 2835 2835 2835 0 0 0 3178 0 0 3178 3178 3208 2835 2812 2812 2812 2812 2812 2812 2789 2701 2659 2659 2659 2680 3433 3433 2789 2789 2789 2812 2812 2812 2812 2812 2812 2812 2812 2812 2812 4645 4645 4645 4645 4645 4708 4708 4708 4708 4774 4774 4774 0 0 0 0 0 0 0 0 0 0 0 0
0 0 0 0 0 0 0 0 0 0 0 0 0 0 0 0 0 0 0 0 0 0 0 0 0 0 0 0 0 0 0 0 0 5132 5056 5056 4983 4983 4911 4911 4911 4911 4911 4911 4983 4983 5056 5132 5132 5132 5132 5210 5291 5291 5291 5291 5291 5291 5291 5291 5291 5291 5210 5132 5132 5210 5210 5210 5210 5210 5210 5210 5132 5132 5056 5056 5132 5132 5210 5210 5291 5374 5374 5374 5460 5548 5640 0 0 0 0 0 0 0 0 0 2812 2812 2835 2835 2835 2859 2859 2859 2859 2859 2859 2859 2859 2859 2859 2859 2859 2859 2859 2835 2812 2812 2812 2812 2835 2835 2835 2835 2835 2859 2859 2859 2859 2859 2859 2859 2883 2883 2883 2883 2883 2859 2859 2883 2883 2156 2156 2143 2143 2143 2143 2156 2143 2143 2156 2156 2156 2156 2156 2170 2184 2958 2958 2933 2933 2933 2933 2933 2933 2908 2908 2908 2908 2908 2908 2908 2933 2933 2908 2908 2933 2933 2933 2933 2933 2933 2933 2958 2958 2958 2958 2958 2958 2958 2958 2958 2958 2958 2958 2958 2958 2958 2984 2984 2984 3010 3010 3010 3037 3037 3037 3064 3064 3092 3120 3178 3178 3178 2226 2226 2212 2212 2212 2212 2212 2212 2212 2212 2212 2212 2212 2184 2184 2198 2958 2958 2958 2958 2958 2984 2984 2984 2984 2984 2984 2984 2984 2984 2984 2984 2984 2984 2984 2984 2984 3010 3010 2984 2984 3010 3010 3010 3037 3037 3037 3064 3092 3092 3092 3092 3092 0 0 0 6375 6375 0 0 0 5933 5933 5933 5832 6038 6038 6038 0 0 0 2241 2241 2241 2241 2241 2241 2241 2256 2256 2256 2256 2256 2256 0 0 0 0 0 0 0 0 0 0 0 0 0 0 0 0 0 0 0 0 0 0 0 0 0 0 0 0 0 0 0 0 0 0 0 0 0 0 0 0 0 0 0 0 0 0 0 0 0 0 0 0 0 0 0 0 0 2301 2286 2286 2286 2286 2286 2286 2286 2286 2301 2317 2333 2333 5132 5132 5132 5132 5132 5056 5056 5056 5056 5056 5056 5056 5056 5132 5056 5056 5056 5056 5056 5056 4983 4983 5056 4983 4983 4983 4983 4983 4911 4911 4911 4911 4983 4983 4983 5132 5132 5210 5210 5210 5210 5210 5210 5210 5132 5132 5132 5132 5132 5132 5210 0 0 0 0 0 0 0 0 0 0 0 0 0 0 0 0 0 0 0 0 0 0 0 0 0 0 0 0 0 0 0 4139 4089 4089 4089 4089 4089 4089 4089 4089 4139 4139 4139 0 0 0 0 0 0 0 0 0 0 0 0 0 0 0 0 3994 3994 3994 3994 3994 4089 4139 4139 4190 4190 4190 4190 4190 4190 4190 4190 4139 4139 0 0 3614 3614 3576 3576 3576 3576 3576 3576 3576 3576 3576 3576 3576 3576 3539 3539 3539 3539 3539 3149 3149 3149 3149 3120 3120 3120 3120 3120 3120 3120 3149 3149 3149 3149 3149 3149 3120 3120 3149 3149 3149 3149 3120 3092 2984 2933 2933 2908 2883 2883 2859 2859 2835 2835 2859 2859 2859 2859 2859 2859 2859 2859 2859 2859 2859 2859 2835 2835 2835 2835 2835 2835 2859 2859 2859 2859 2835 2835 2835 2835 2835 2835 0 0 0 0 2883 0 0 2835 2835 2812 2812 2812 2812 2789 2789 2789 2659 2659 2659 2659 3433 3433 3433 2789 2789 2789 2812 2812 2812 2812 2812 2812 2812 2812 2812 2812 4645 4645 4645 4645 4645 4708 4708 4708 4708 4774 4774 4774 0 0 0 0 0 0 0 0 0 0 0 0
