0 0 0 0 0 0 0 0 0 0 0 0 0 0 0 0 0 0 0 0 0 0 0 0 0 0 0 0 0 0 0 0 3178 3149 3149 3149 3149 3178 3178 3149 3149 3149 3149 3149 3149 3120 3120 3149 3149 3149 3149 3149 3149 3149 3178 3178 3178 3178 3178 3178 3149 3149 3149 3149 3149 3149 3149 3149 3149 3149 3120 3120 3120 3120 3120 3120 3120 3120 3149 3149 3149 3178 3178 3178 3178 3178 3178 3178 3178 3178 3178 3178 3178 3178 3178 3178 3178 3178 3178 3178 3178 3178 3178 3178 3178 3208 3208 3208 3208 3208 3208 3208 3208 3208 3178 3178 3208 3178 3178 3178 3037 2984 2933 2908 2908 2908 2908 2908 2908 2908 2908 2908 2908 2908 2908 2908 2883 2883 2883 2908 2908 2908 2933 2933 2958 2958 2958 2958 2958 2958 2933 2933 2958 2958 2958 2933 2933 2933 2933 2933 2933 2958 2958 2958 2958 2958 2958 2984 3010 3010 3037 3037 3037 3064 3064 3092 3120 3149 3149 2040 2040 2028 2028 2028 2028 2028 2028 2040 2040 2040 1370 1370 1370 1381 1381 1387 1387 1387 1387 1387 1387 1387 1387 1387 1387 1387 1387 1387 1387 1387 1387 1387 1387 1392 1392 1392 1392 1392 1392 1392 1387 1387 1392 1392 1392 1392 1392 1387 1387 1381 1273 1273 1273 1268 1268 1273 1273 1273 1273 1273 1273 1273 1278 1278 1278 1278 1283 1398 1398 1398 1398 1398 1398 1398 1398 1398 1404 1404 1404 1404 1410 1410 1410 1410 1410 1410 1415 1415 1415 1415 1307 1307 1307 1307 1312 1312 1317 1317 1317 1317 1317 1317 1317 1317 1317 1317 1317 1317 1317 1322 1322 1328 1328 1328 1328 1333 1333 1333 1333 1333 1333 1333 1333 1333 1338 1338 1338 1338 1343 1343 1349 1349 1349 1349 1349 1349 1349 1349 1354 1354 1354 1354 1354 1354 1359 1359 1365 1365 1370 1370 1370 1370 1370 1365 1365 1370 1370 1370 1370 1376 1376 1376 1381 1381 1387 1387 1381 1381 1387 1387 1387 1387 1387 1387 1387 1387 1387 1387 1387 1387 1387 1523 1523 1523 1529 1529 1529 1536 1536 1536 1536 1536 1536 1536 1543 1543 1543 1543 1543 1543 1543 1543 1543 1550 1550 1557 1557 1564 1564 1564 1564 1564 1564 1564 1564 1572 1572 1572 1572 1572 1572 1572 1579 1579 1579 1579 1579 1579 1579 1579 1579 1586 1586 1594 1586 1586 1586 1404 1404 1398 1392 1392 1387 1387 1387 1387 1387 1387 1387 1387 1392 1398 1398 1404 1404 1404 1404 1404 1404 1404 1404 1404 1404 1410 1410 1410 1410 1410 1415 1415 1415 1410 1410 1410 1415 1415 1421 1421 1421 1421 1427 1427 1427 1427 1427 1427 1427 1427 1427 1427 1433 1433 1433 1433 1433 1433 1433 1433 1433 1433 1433 1439 1445 1445 1445 1445 1445 1452 1452 1452 1452 1452 1452 1458 1458 1458 1458 1458 1458 1458 1458 1458 1458 1458 1458 1458 1464 1470 1470 1470 1477 1477 1477 1477 1477 1477 1477 1477 1477 1470 1470 1470 1477 1477 1477 1477 1477 1477 1477 1483 0 0 0 0 0 0 0 1757 1757 1757 1757 1757 1748 1748 1748 1739 1731 1722 1722 1722 1722 1722 1722 1722 1722 1722 1731 1731 1731 1731 1739 1739 1739 1731 1731 1713 1713 3238 3238 3269 3238 3238 3238 3238 3238 3238 3238 3238 3238 3269 3269 3238 3238 3238 3238 3238 3238 3238 3208 3208 3208 3208 3208 3208 3208 3208 3208 3208 3208 3178 3178 3178 3178 3178 3178 3178 3178 3178 3178 3178 3178 3208 3208 3208 3208 3208 3208 3208 3208 3208 3208 3208 3208 3208 3208 3208 3208 3208 3208 0 0 0 0 0 0 0 0 0 0 0
0 0 0 0 0 0 0 0 0 0 0 0 0 0 0 0 0 0 0 0 0 0 0 0 0 0 0 0 0 0 0 0 3149 3120 3120 3120 3120 3149 3149 3149 3149 3149 3149 3120 3120 3120 3120 3120 3120 3120 3149 3120 3120 3149 3149 3149 3178 3149 3149 3149 3149 3149 3149 3149 3149 3149 3149 3120 3120 3120 3120 3092 3092 3092 3092 3120 3120 3120 3149 3149 3149 3149 3149 3149 3178 3178 3178 3178 3178 3178 3178 3178 3178 3178 3149 3149 3149 3178 3178 3178 3178 3178 3178 3178 3178 3208 3208 3208 3208 3208 3208 3208 3208 3208 3178 3178 3208 3178 3178 3178 3178 3010 2958 2908 2908 2908 2908 2908 2908 2908 2908 2908 2908 2908 2908 2908 2883 2883 2883 2908 2908 2908 2933 2933 2958 2958 2958 2958 2958 2958 2933 2933 2958 2958 2958 2958 2933 2933 2933 2933 2933 2958 2958 2958 2958 2958 2984 2984 3010 3010 3037 3037 3037 3064 3064 3092 3120 3149 3149 3149 2040 2040 2040 2040 2028 2028 2040 2040 2040 2040 1359 1359 1359 1376 1376 1381 1381 1381 1381 1381 1381 1381 1381 1381 1381 1381 1381 1381 1381 1381 1381 1381 1381 1387 1387 1387 1387 1387 1387 1387 1387 1387 1387 1387 1387 1387 1387 1387 1387 1381 1273 1273 1273 1268 1268 1273 1273 1273 1273 1273 1273 1273 1278 1278 1278 1278 1283 1392 1392 1392 1392 1398 1398 1398 1398 1404 1404 1404 1404 1307 1307 1307 1307 1307 1307 1307 1307 1307 1307 1307 1307 1307 1307 1307 1312 1312 1317 1317 1317 1317 1317 1317 1317 1317 1317 1322 1322 1317 1317 1322 1328 1328 1328 1328 1328 1333 1333 1333 1333 1333 1333 1333 1333 1333 1338 1338 1338 1338 1343 1343 1343 1343 1349 1349 1354 1354 1354 1354 1354 1354 1354 1359 1359 1359 1359 1365 1365 1370 1370 1370 1370 1376 1370 1365 1365 1370 1370 1370 1370 1376 1381 1381 1387 1387 1387 1387 1387 1387 1387 1387 1387 1387 1387 1387 1387 1387 1387 1387 1387 1387 1387 1523 1523 1529 1529 1529 1529 1536 1536 1536 1536 1536 1536 1543 1543 1543 1543 1543 1543 1543 1543 1550 1550 1550 1550 1557 1557 1564 1564 1564 1564 1564 1564 1564 1564 1572 1572 1572 1572 1572 1572 1572 1579 1579 1579 1579 1579 1579 1579 1579 1579 1586 1586 1594 1586 1579 1579 1404 1404 1398 1392 1392 1387 1387 1387 1387 1392 1387 1387 1392 1392 1398 1404 1404 1404 1404 1404 1404 1410 1404 1404 1410 1410 1410 1410 1410 1410 1415 1415 1415 1415 1415 1415 1415 1415 1415 1421 1421 1421 1427 1427 1427 1427 1427 1427 1427 1427 1427 1427 1433 1433 1433 1433 1433 1433 1433 1433 1439 1439 1439 1439 1439 1445 1445 1445 1445 1452 1452 1452 1452 1452 1452 1452 1458 1458 1458 1458 1458 1458 1464 1464 1458 1458 1458 1458 1464 1464 1470 1470 1470 1477 1477 1477 1477 1477 1477 1477 1477 1477 1477 1477 1477 1477 1477 1477 1477 1477 1477 1477 1483 0 0 0 0 0 0 1766 1757 1757 1757 1757 1757 1748 1748 1748 1739 1731 1722 1722 1722 1722 1722 1722 1722 1722 1731 1731 1731 1739 1739 1739 1739 1739 1739 1739 1731 1731 3238 3238 3238 3238 3238 3238 3238 3238 3238 3238 3238 3238 3269 3269 3238 3238 3238 3208 3208 3208 3208 3208 3178 3178 3178 3178 3178 3208 3178 3178 3178 3178 3178 3149 3149 3149 3149 3149 3149 3149 3149 3149 3178 3178 3178 3178 3178 3208 3208 3178 3178 3208 3178 3178 3178 3178 3178 3178 3178 3208 3208 3208 0 0 0 0 0 0 0 0 0 0 0
0 0 0 0 0 0 0 0 0 0 0 0 0 0 0 0 0 0 0 0 0 0 0 0 0 0 0 0 0 0 0 0 3120 3120 3120 3120 3120 3120 3120 3120 3120 3120 3120 3120 3120 3120 3120 3120 3120 3120 3120 3120 3120 3120 3149 3149 3149 3149 3120 3120 3149 3120 3120 3120 3120 3120 3120 3120 3120 3120 3120 3092 3092 3092 3092 3092 3092 3120 3120 3149 3149 3149 3149 3149 3149 3178 3178 3178 3178 3178 3178 3149 3149 3149 3149 3149 3149 3149 3178 3178 3178 3178 3178 3178 3178 3178 3178 3178 3178 3178 3208 3208 3208 3208 3208 3208 3208 3178 3178 3178 3149 3037 2958 2908 2908 2908 2908 2908 2908 2908 2908 2908 2908 2908 2908 2908 2908 2908 2908 2908 2933 2933 2933 2958 2958 2958 2958 2958 2958 2958 2933 2933 2958 2958 2958 2958 2933 2933 2933 2933 2958 2958 2958 2958 2958 2984 2984 2984 3010 3010 3010 3037 3037 3064 3064 3092 3120 3149 3149 3149 2040 2040 2040 2040 2040 2040 2040 2040 2040 2040 1343 1343 1343 1370 1376 1376 1376 1376 1381 1381 1381 1381 1381 1381 1376 1376 1376 1376 1376 1381 1376 1376 1381 1381 1381 1381 1381 1381 1381 1381 1381 1381 1387 1387 1387 1387 1387 1381 1381 1381 1273 1273 1273 1273 1273 1273 1273 1273 1273 1273 1273 1278 1278 1278 1283 1283 1288 1297 1392 1392 1392 1398 1398 1398 1398 1404 1404 1302 1302 1302 1307 1307 1307 1307 1307 1307 1307 1307 1307 1307 1307 1307 1307 1307 1312 1312 1317 1317 1317 1317 1322 1317 1317 1317 1317 1322 1322 1322 1322 1322 1328 1328 1328 1328 1333 1333 1333 1333 1333 1333 1333 1333 1333 1338 1338 1338 1338 1343 1343 1343 1343 1343 1349 1349 1354 1354 1354 1354 1354 1354 1359 1359 1359 1365 1365 1365 1365 1370 1370 1376 1376 1376 1370 1370 1370 1370 1376 1376 1381 1381 1387 1387 1392 1392 1392 1392 1387 1387 1387 1387 1387 1387 1387 1387 1387 1392 1392 1392 1392 1392 1392 1529 1529 1529 1529 1536 1536 1536 1536 1536 1536 1536 1543 1543 1543 1543 1543 1543 1543 1543 1550 1550 1550 1550 1557 1557 1564 1564 1564 1564 1564 1564 1564 1572 1572 1572 1572 1572 1572 1572 1572 1579 1579 1579 1579 1579 1579 1579 1579 1579 1586 1586 1594 1594 1594 1579 1579 1404 1404 1398 1398 1392 1392 1387 1387 1392 1392 1392 1392 1392 1392 1398 1404 1404 1404 1404 1410 1410 1410 1410 1410 1410 1410 1410 1410 1415 1415 1415 1415 1415 1421 1415 1415 1415 1421 1421 1421 1421 1427 1427 1427 1427 1427 1427 1427 1427 1427 1427 1433 1433 1433 1433 1433 1433 1433 1433 1439 1439 1439 1439 1439 1445 1452 1445 1445 1452 1452 1452 1452 1452 1452 1452 1458 1458 1458 1458 1458 1458 1464 1464 1464 1458 1458 1458 1464 1464 1470 1470 1470 1477 1483 1483 1483 1483 1483 1483 1483 1477 1477 1477 1477 1477 1477 1477 1477 1477 1477 1483 1483 0 0 0 0 0 0 0 1766 1757 1757 1757 1757 1757 1748 1748 1748 1739 1739 1731 1722 1722 1722 1722 1722 1722 1722 1731 1731 1731 1739 1739 1739 1739 1739 1739 1739 1739 1739 3238 3238 3238 3208 3208 3208 3208 3238 3238 3238 3238 3238 3269 3269 3238 3238 3208 3208 3178 3178 3178 3178 3178 3178 3178 3178 3178 3178 3149 3149 3149 3149 3149 3149 3149 3149 3149 3149 3149 3149 3149 3149 3149 3149 3149 3149 3178 3178 3178 3178 3178 3178 3178 3178 3178 3178 3178 3178 3178 3178 3178 3208 0 0 0 0 0 0 0 0 0 0 0
0 0 0 0 0 0 0 0 0 0 0 0 0 0 0 0 0 0 0 0 0 0 0 0 0 0 0 0 0 0 0 0 3092 3092 3092 3092 3092 3092 3092 3120 3120 3120 3092 3092 3092 3092 3092 3092 3092 3092 3092 3092 3120 3120 3120 3120 3120 3120 3120 3120 3120 3120 3120 3120 3120 3120 3120 3120 3120 3120 3120 3092 3064 3064 3092 3092 3092 3092 3120 3120 3120 3149 3149 3149 3149 3149 3149 3149 3149 3149 3149 3149 3149 3149 3149 3149 3149 3149 3149 3149 3178 3178 3178 3178 3178 3178 3178 3178 3178 3178 3178 3178 3178 3178 3178 3178 3178 3178 3178 3149 3149 3092 2984 2933 2908 2908 2908 2908 2908 2908 2908 2908 2908 2908 2908 2908 2908 2908 2908 2908 2933 2933 2933 2958 2958 2958 2958 2958 2958 2958 2958 2958 2958 2958 2958 2958 2933 2933 2933 2958 2958 2958 2958 2958 2958 2984 2984 2984 3010 3010 3010 3037 3037 3064 3064 3092 3120 3149 3149 3149 2040 2040 2040 2040 2040 2040 2040 2040 2040 2040 1343 1343 1343 1365 1370 1370 1376 1376 1376 1376 1376 1376 1376 1376 1376 1376 1376 1376 1376 1376 1376 1376 1376 1376 1381 1381 1381 1381 1381 1381 1381 1381 1381 1381 1381 1381 1381 1381 1381 1381 1376 1273 1273 1273 1273 1273 1273 1273 1273 1273 1278 1278 1278 1278 1283 1283 1288 1297 1302 1392 1398 1398 1398 1398 1404 1302 1302 1302 1302 1302 1307 1307 1307 1307 1307 1307 1307 1307 1307 1307 1307 1312 1312 1312 1312 1312 1312 1317 1317 1317 1322 1317 1317 1317 1317 1317 1322 1322 1322 1322 1328 1328 1328 1328 1333 1333 1333 1333 1333 1333 1333 1333 1333 1338 1338 1338 1338 1343 1343 1343 1343 1343 1349 1349 1354 1354 1354 1354 1354 1354 1359 1359 1359 1365 1365 1370 1370 1370 1376 1376 1376 1376 1370 1370 1370 1370 1376 1381 1381 1387 1387 1387 1392 1392 1392 1392 1392 1392 1392 1387 1387 1387 1387 1387 1387 1392 1392 1392 1392 1392 1392 1536 1536 1536 1536 1536 1536 1536 1536 1543 1543 1543 1543 1543 1543 1550 1550 1550 1550 1550 1550 1557 1557 1557 1557 1564 1564 1564 1564 1564 1564 1564 1572 1572 1572 1572 1572 1572 1572 1572 1572 1579 1579 1579 1579 1586 1586 1586 1586 1586 1586 1594 1594 1594 1594 1594 1415 1404 1404 1398 1398 1392 1392 1392 1392 1392 1392 1392 1392 1392 1398 1398 1404 1404 1410 1410 1410 1410 1410 1410 1410 1410 1410 1410 1415 1415 1415 1415 1415 1421 1421 1421 1421 1421 1421 1421 1427 1427 1427 1427 1427 1427 1427 1427 1427 1433 1433 1433 1433 1433 1433 1433 1433 1433 1433 1433 1439 1439 1439 1439 1439 1445 1452 1452 1452 1452 1452 1452 1452 1452 1452 1452 1458 1458 1458 1464 1464 1464 1464 1464 1464 1458 1458 1458 1464 1464 1470 1470 1470 1477 1483 1489 1489 1483 1483 1483 1483 1477 1477 1477 1477 1477 1477 1477 1477 1477 1483 1483 1483 0 0 0 0 0 0 1766 1766 1757 1757 1766 1757 1757 1757 1748 1748 1739 1739 1731 1731 1722 1722 1722 1722 1731 1731 1731 1731 1731 1739 1739 1739 1739 1739 1739 1739 1748 1748 3178 3178 3208 3178 3178 3178 3178 3208 3208 3208 3208 3208 3238 3238 3208 3178 3178 3178 3149 3149 3149 3149 3149 3149 3149 3149 3149 3149 3149 3149 3149 3149 3149 3149 3149 3149 3149 3149 3120 3120 3149 3149 3149 3149 3149 3149 3178 3178 3178 3149 3149 3149 3149 3149 3149 3149 3149 3149 3149 3149 3178 3178 0 0 0 0 0 0 0 0 0 0 0
0 0 0 0 0 0 0 0 0 0 0 0 0 0 0 0 0 0 0 0 0 0 0 0 0 0 0 0 0 0 0 0 3092 3092 3064 3064 3092 3092 3092 3092 3092 3092 3092 3092 3092 3092 3092 3092 3092 3092 3092 3092 3092 3092 3092 3092 3092 3092 3092 3120 3120 3092 3092 3092 3092 3092 3092 3092 3092 3092 3092 3064 3064 3064 3064 3064 3092 3092 3092 3092 3092 3120 3120 3120 3149 3149 3149 3149 3149 3149 3149 3120 3120 3120 3120 3120 3120 3149 3149 3149 3149 3149 3149 3149 3149 3149 3149 3178 3178 3178 3178 3178 3178 3178 3178 3178 3178 3178 3149 3149 3149 3010 2984 2933 2908 2908 2908 2908 2908 2908 2908 2908 2908 2908 2908 2908 2908 2908 2908 2908 2933 2933 2933 2958 2958 2958 2958 2958 2958 2958 2958 2958 2958 2958 2958 2958 2933 2933 2933 2958 2958 2958 2958 2958 2958 2984 2984 2984 2984 3010 3010 3037 3037 3064 3064 3092 3120 3149 3149 3149 2028 2028 2040 2040 2040 2040 2040 2040 2040 2040 1343 1343 1343 1359 1365 1365 1370 1370 1370 1370 1370 1376 1376 1376 1376 1370 1370 1376 1376 1376 1370 1370 1376 1376 1376 1376 1376 1376 1381 1381 1381 1381 1381 1381 1381 1381 1381 1381 1381 1381 1376 1273 1273 1273 1273 1273 1273 1273 1273 1278 1278 1278 1278 1278 1283 1283 1288 1297 1297 1297 1398 1404 1307 1302 1302 1302 1302 1302 1302 1302 1307 1307 1307 1307 1307 1307 1307 1307 1307 1307 1312 1312 1312 1312 1312 1312 1312 1312 1317 1317 1322 1317 1317 1317 1317 1317 1322 1322 1322 1322 1328 1328 1333 1333 1333 1333 1333 1333 1333 1333 1333 1333 1338 1343 1343 1343 1343 1343 1349 1349 1349 1349 1349 1354 1354 1354 1354 1354 1359 1359 1359 1359 1365 1365 1370 1370 1370 1376 1376 1376 1376 1376 1370 1370 1376 1376 1381 1381 1381 1387 1387 1392 1392 1392 1392 1392 1392 1392 1392 1392 1387 1387 1387 1387 1387 1392 1392 1392 1392 1392 1392 1536 1536 1536 1536 1536 1536 1536 1536 1543 1543 1543 1543 1543 1550 1550 1550 1550 1550 1550 1557 1557 1557 1557 1564 1564 1564 1564 1564 1564 1572 1572 1572 1572 1572 1572 1572 1572 1572 1572 1572 1572 1579 1579 1586 1586 1586 1586 1594 1594 1594 1594 1594 1594 1594 1594 1415 1404 1404 1398 1398 1398 1392 1392 1392 1392 1392 1398 1398 1398 1398 1404 1404 1404 1410 1410 1410 1415 1415 1415 1415 1415 1415 1415 1415 1415 1415 1421 1421 1421 1421 1421 1421 1421 1421 1427 1427 1427 1427 1433 1433 1433 1433 1433 1433 1433 1433 1433 1433 1433 1433 1433 1433 1433 1433 1433 1439 1439 1439 1439 1439 1445 1452 1452 1452 1452 1452 1452 1452 1452 1452 1452 1458 1464 1464 1464 1464 1464 1470 1470 1470 1464 1464 1464 1464 1470 1477 1477 1477 1483 1489 1489 1489 1483 1483 1483 1483 1477 1477 1477 1477 1477 1483 1477 1477 1483 1483 1483 0 0 0 0 0 0 0 1766 1766 1766 1766 1766 1766 1757 1748 1748 1748 1739 1739 1731 1731 1722 1722 1722 1722 1731 1731 1739 1739 1739 1739 1739 1739 1739 1739 1739 1739 1739 3178 3178 3178 3178 3178 3178 3178 3178 3178 3208 3208 3208 3208 3208 3208 3178 3178 3178 3149 3149 3149 3149 3149 3149 3149 3149 3149 3149 3149 3149 3149 3149 3120 3120 3149 3120 3120 3120 3120 3120 3120 3120 3149 3149 3149 3149 3149 3149 3178 3149 3149 3149 3149 3149 3149 3120 3120 3120 3120 3149 3149 3149 3149 0 0 0 0 0 0 0 0 0 0 0
0 0 0 0 0 0 0 0 0 0 0 0 0 0 0 0 0 0 0 0 0 0 0 0 0 0 0 0 0 0 0 0 3037 3037 3037 3037 3064 3064 3064 3092 3092 3092 3092 3092 3092 3092 3092 3092 3064 3064 3064 3092 3092 3092 3092 3092 3092 3092 3092 3120 3092 3092 3092 3092 3092 3092 3092 3092 3092 3092 3092 3064 3064 3064 3064 3064 3064 3064 3092 3092 3092 3092 3092 3092 3120 3092 3092 3120 3120 3092 3092 3120 3120 3120 3120 3120 3120 3120 3120 3120 3120 3120 3120 3120 3149 3149 3149 3149 3149 3149 3178 3178 3149 3149 3178 3178 3178 3149 3149 3149 3120 3010 2984 2933 2908 2908 2908 2908 2908 2908 2908 2908 2908 2908 2908 2908 2908 2908 2908 2908 2933 2933 2933 2958 2958 2958 2958 2958 2958 2958 2958 2958 2958 2958 2958 2958 2933 2933 2933 2958 2958 2958 2958 2958 2958 2958 2984 2984 2984 3010 3010 3037 3037 3064 3064 3092 3092 3149 3149 2028 2028 2028 2040 2040 2040 2040 2040 2053 2053 2090 1343 1343 1343 1354 1359 1365 1365 1365 1370 1370 1370 1376 1376 1376 1376 1370 1370 1370 1376 1376 1370 1370 1376 1376 1376 1376 1376 1376 1381 1381 1381 1381 1381 1381 1381 1381 1381 1381 1381 1381 1376 1273 1273 1273 1273 1273 1278 1278 1278 1278 1278 1278 1283 1283 1288 1288 1292 1297 1297 1297 1307 1302 1302 1302 1302 1302 1307 1302 1302 1307 1307 1307 1307 1307 1307 1312 1312 1312 1312 1312 1312 1312 1312 1312 1312 1312 1312 1312 1317 1317 1322 1322 1317 1317 1317 1317 1322 1322 1322 1328 1328 1328 1333 1333 1333 1333 1333 1333 1333 1338 1338 1338 1343 1349 1349 1349 1349 1349 1349 1349 1349 1349 1354 1354 1354 1354 1354 1359 1359 1359 1359 1365 1365 1370 1370 1370 1376 1376 1376 1376 1376 1376 1376 1376 1376 1376 1381 1387 1387 1387 1392 1392 1392 1392 1392 1392 1392 1392 1392 1392 1392 1392 1392 1392 1392 1392 1392 1392 1398 1392 1392 1536 1536 1536 1536 1536 1536 1536 1543 1543 1543 1543 1543 1550 1550 1550 1550 1557 1557 1557 1557 1557 1557 1557 1564 1564 1564 1564 1564 1564 1572 1572 1572 1572 1572 1572 1572 1572 1572 1572 1572 1572 1579 1579 1586 1586 1586 1594 1594 1594 1594 1594 1594 1594 1594 1594 1415 1410 1404 1404 1398 1398 1398 1392 1392 1398 1398 1398 1404 1404 1404 1404 1404 1410 1410 1415 1415 1421 1421 1421 1421 1421 1421 1421 1421 1421 1421 1427 1427 1427 1421 1421 1427 1427 1427 1427 1427 1427 1427 1433 1433 1433 1433 1433 1433 1433 1433 1433 1433 1433 1433 1433 1433 1433 1433 1433 1433 1433 1433 1433 1439 1445 1452 1452 1452 1452 1452 1452 1452 1452 1452 1452 1458 1464 1470 1470 1470 1470 1470 1470 1470 1470 1470 1470 1470 1477 1477 1477 1477 1483 1496 1496 1496 1489 1489 1489 1483 1477 1477 1477 1483 1483 1483 1483 1483 1483 1489 1489 0 0 0 0 0 0 0 1776 1766 1766 1766 1766 1766 1757 1748 1748 1748 1739 1739 1731 1731 1722 1722 1731 1731 1731 1739 1739 1739 1739 1739 1739 1739 1739 1739 1739 1739 1739 3149 3149 3149 3149 3149 3149 3149 3149 3178 3178 3178 3178 3178 3208 3208 3149 3149 3149 3149 3149 3149 3149 3149 3149 3149 3149 3149 3149 3149 3149 3120 3120 3120 3120 3120 3120 3120 3120 3120 3120 3120 3120 3149 3149 3149 3149 3149 3149 3149 3149 3149 3149 3149 3120 3120 3120 3120 3120 3120 3149 3149 3149 3149 0 0 0 0 0 0 0 0 0 0 0
0 0 0 0 0 0 0 0 0 0 0 0 0 0 0 0 0 0 0 0 0 0 0 0 0 0 0 0 0 0 0 0 3037 3037 3037 3037 3037 3037 3037 3064 3064 3064 3064 3064 3064 3064 3064 3064 3064 3064 3064 3064 3064 3064 3064 3064 3064 3064 3092 3092 3092 3064 3064 3092 3092 3064 3064 3064 3064 3064 3092 3064 3064 3064 3064 3064 3064 3064 3064 3064 3064 3092 3092 3092 3092 3092 3092 3092 3120 3092 3092 3092 3092 3092 3092 3092 3092 3120 3120 3120 3120 3120 3120 3120 3120 3120 3120 3120 3120 3120 3149 3149 3149 3149 3149 3149 3149 3149 3149 3120 3092 3010 2984 2984 2933 2933 2908 2908 2908 2933 2933 2908 2908 2908 2908 2908 2908 2908 2908 2908 2933 2933 2958 2958 2958 2958 2958 2933 2933 2958 2958 2958 2958 2958 2958 2984 2933 2933 2933 2958 2958 2958 2958 2958 2958 2958 2984 2984 2984 3010 3010 3037 3037 3064 3064 3092 3092 3149 3149 2040 2040 2040 2040 2040 2040 2040 2040 2053 2090 2090 1349 1349 1349 1354 1359 1359 1365 1365 1365 1370 1370 1370 1376 1370 1370 1370 1370 1370 1370 1370 1370 1370 1370 1376 1376 1376 1376 1376 1381 1381 1381 1381 1381 1381 1381 1381 1381 1387 1381 1381 1376 1273 1273 1273 1273 1273 1278 1278 1278 1278 1278 1283 1283 1288 1292 1292 1292 1297 1297 1297 1302 1302 1302 1307 1307 1307 1307 1307 1307 1307 1307 1307 1312 1312 1312 1312 1312 1312 1312 1312 1312 1312 1312 1312 1312 1312 1312 1312 1317 1317 1322 1322 1322 1322 1322 1322 1322 1328 1328 1328 1328 1333 1333 1333 1333 1333 1333 1338 1338 1338 1343 1343 1343 1349 1349 1349 1349 1349 1349 1349 1354 1354 1354 1359 1359 1359 1365 1365 1365 1365 1365 1365 1370 1370 1370 1376 1376 1376 1376 1381 1381 1381 1376 1376 1381 1381 1387 1387 1387 1387 1392 1392 1398 1398 1398 1398 1392 1392 1392 1392 1392 1392 1392 1392 1392 1398 1398 1398 1398 1398 1398 1543 1536 1536 1536 1543 1543 1543 1543 1543 1543 1543 1550 1550 1550 1550 1557 1557 1557 1557 1564 1564 1564 1564 1564 1564 1564 1564 1564 1564 1572 1572 1572 1572 1572 1572 1572 1572 1572 1572 1572 1572 1579 1579 1586 1586 1594 1594 1594 1594 1594 1594 1594 1594 1594 1594 1415 1410 1404 1404 1404 1398 1398 1398 1398 1398 1398 1404 1404 1404 1404 1404 1410 1410 1410 1415 1421 1427 1421 1421 1421 1421 1421 1421 1421 1421 1421 1427 1427 1427 1421 1421 1427 1427 1427 1427 1427 1427 1427 1433 1433 1433 1433 1433 1433 1439 1439 1439 1439 1439 1439 1433 1433 1433 1433 1433 1433 1433 1433 1433 1439 1445 1452 1452 1452 1452 1452 1452 1452 1452 1452 1452 1458 3208 1470 1470 1470 1470 1470 1477 1477 1477 1523 1523 1523 1503 1503 1483 1483 1503 1503 1496 1496 1489 1489 1489 1483 1483 1483 1483 1483 1483 1489 1483 1483 1489 1489 1489 0 0 0 0 0 0 0 1776 1776 1776 1776 1766 1766 1757 1748 1748 1748 1739 1739 1731 1731 1731 1731 1731 1731 1739 1739 1739 1739 1739 1748 1748 1748 1748 1739 1739 1739 1748 3149 3149 3149 3149 3149 3149 3149 3149 3149 3178 3178 3178 3178 3178 3178 3149 3149 3149 3149 3149 3149 3149 3149 3149 3149 3149 3149 3149 3149 3120 3120 3120 3120 3120 3120 3120 3120 3120 3120 3120 3120 3120 3120 3120 3120 3149 3149 3149 3149 3120 3120 3120 3120 3120 3120 3092 3092 3092 3092 3120 3120 3120 3120 0 0 0 0 0 0 0 0 0 0 0
0 0 0 0 0 0 0 0 0 0 0 0 0 0 0 0 0 0 0 0 0 0 0 0 0 0 0 0 0 0 0 0 3037 3037 3037 3037 3037 3037 3037 3037 3037 3037 3037 3037 3037 3064 3037 3037 3037 3037 3037 3064 3064 3064 3064 3064 3064 3064 3064 3064 3064 3064 3064 3064 3064 3064 3064 3064 3064 3064 3092 3064 3064 3064 3064 3064 3064 3064 3064 3064 3064 3064 3064 3064 3092 3092 3092 3092 3092 3092 3092 3092 3092 3092 3092 3092 3092 3092 3092 3092 3092 3092 3092 3092 3092 3092 3092 3092 3120 3120 3120 3120 3120 3120 3120 3120 3120 3092 3092 3092 3064 3037 2984 2984 2958 2958 2933 2933 2933 2933 2933 2908 2908 2908 2933 2933 2908 2908 2933 2933 2958 2958 2958 2958 2958 2958 2958 2933 2933 2958 2958 2958 2958 2958 2958 2984 2933 2933 2958 2958 2958 2958 2958 2958 2958 2984 2984 2984 2984 3010 3010 3037 3037 3064 3064 3092 3092 3149 3149 2040 2040 2040 2040 2040 2040 2040 2053 2053 2090 2090 1354 1354 1354 1354 1359 1359 1359 1359 1365 1365 1370 1370 1370 1370 1370 1370 1370 1370 1370 1370 1370 1370 1370 1376 1376 1376 1376 1376 1381 1381 1381 1381 1381 1381 1381 1387 1387 1387 1387 1381 1381 1278 1273 1273 1278 1278 1278 1278 1278 1278 1278 1283 1288 1288 1292 1292 1292 1297 1297 1297 1302 1302 1302 1307 1307 1307 1307 1307 1307 1307 1307 1312 1312 1312 1312 1312 1312 1312 1312 1312 1312 1312 1312 1312 1312 1312 1317 1317 1317 1317 1322 1322 1328 1322 1322 1322 1328 1328 1328 1328 1328 1333 1333 1333 1333 1338 1338 1338 1338 1343 1343 1343 1349 1349 1349 1349 1349 1354 1354 1354 1354 1354 1359 1359 1365 1365 1365 1365 1365 1365 1370 1370 1370 1370 1370 1376 1376 1376 1381 1381 1381 1387 1381 1381 1387 1387 1387 1387 1387 1392 1392 1392 1398 1398 1398 1398 1398 1398 1392 1392 1392 1392 1392 1398 1398 1398 1404 1404 1404 1404 1543 1543 1536 1536 1543 1543 1543 1543 1543 1543 1543 1543 1550 1550 1557 1557 1557 1557 1564 1564 1564 1564 1564 1564 1564 1564 1564 1564 1564 1572 1572 1572 1572 1572 1572 1572 1572 1572 1572 1572 1579 1579 1579 1586 1586 1586 1594 1594 1594 1594 1594 1594 1594 1594 1421 1421 1415 1410 1410 1404 1404 1398 1398 1398 1398 1398 1398 1404 1404 1404 1404 1404 1410 1410 1410 1415 1427 1427 1421 1421 1421 1421 1421 1427 1427 1427 1427 1427 1427 1427 1427 1427 1427 1427 1421 1421 1421 1427 1427 1427 1433 1433 1433 1433 1433 1445 1445 1439 1439 1439 1439 1433 1433 1433 1433 1433 1433 1433 1433 1433 1439 1445 3178 1452 1452 3178 3178 3178 3208 3208 3208 3208 3208 3178 3178 3149 3149 3178 3178 3178 3178 0 1516 1516 1516 1516 1516 1509 1509 1509 1503 1503 1496 1496 1496 1489 1489 1489 1483 1483 1483 1483 1489 1483 1483 1489 1489 1489 0 0 0 0 0 0 0 1776 1776 1776 1776 1776 1766 1757 1748 1748 1748 1739 1739 1731 1731 1731 1739 1739 1739 1739 1739 1739 1739 1739 1748 1748 1748 1748 1748 1748 1748 1748 3149 3149 3120 3120 3120 3120 3149 3149 3149 3149 3178 3178 3178 3178 3178 3149 3149 3149 3120 3120 3120 3120 3120 3120 3120 3120 3120 3120 3120 3120 3120 3120 3120 3120 3120 3120 3120 3120 3120 3120 3120 3120 3120 3120 3120 3120 3149 3149 3149 3120 3120 3092 3092 3092 3092 3064 3064 3092 3092 3120 3120 3120 3120 0 0 0 0 0 0 0 0 0 0 0
0 0 0 0 0 0 0 0 0 0 0 0 0 0 0 0 0 0 0 0 0 0 0 0 0 0 0 0 0 0 0 0 3037 3010 3010 3037 3037 3010 3010 3037 3010 3010 3010 3010 3037 3010 3010 3010 3010 3037 3037 3037 3037 3037 3064 3037 3037 3064 3064 3064 3064 3037 3037 3064 3037 3037 3037 3037 3037 3064 3064 3037 3037 3037 3064 3064 3064 3064 3064 3064 3064 3064 3064 3064 3064 3064 3064 3064 3064 3064 3064 3064 3064 3064 3092 3092 3092 3092 3092 3092 3092 3092 3092 3092 3092 3092 3092 3092 3092 3092 3092 3092 3092 3092 3092 3092 3092 3092 3092 3092 3064 3037 2984 2984 2958 2958 2933 2933 2933 2933 2933 2933 2933 2933 2933 2933 2933 2933 2933 2933 2958 2958 2958 2958 2958 2958 2958 2958 2958 2958 2958 2958 2958 2958 2958 2984 2958 2958 2958 2958 2958 2958 2958 2958 2984 2984 2984 2984 2984 3010 3010 3037 3037 3064 3064 3092 3092 3149 3149 3149 2040 2040 2040 2040 2040 2040 2053 2053 2065 2065 1354 1354 1354 1354 1354 1359 1359 1359 1365 1365 1370 1370 1370 1370 1370 1370 1370 1370 1370 1370 1370 1370 1370 1376 1376 1376 1376 1376 1381 1381 1381 1381 1387 1387 1387 1387 1387 1387 1387 1387 1387 1278 1278 1278 1278 1278 1278 1278 1278 1278 1283 1283 1288 1292 1292 1292 1297 1297 1297 1297 1302 1302 1302 1307 1307 1307 1307 1307 1307 1307 1307 1312 1312 1312 1312 1312 1312 1312 1312 1312 1312 1312 1312 1312 1312 1317 1317 1317 1322 1322 1328 1328 1328 1328 1328 1328 1328 1328 1328 1328 1333 1333 1333 1333 1338 1338 1338 1343 1343 1343 1349 1349 1349 1349 1349 1349 1354 1354 1354 1354 1354 1359 1359 1365 1365 1365 1365 1365 1365 1370 1370 1370 1370 1376 1376 1376 1376 1376 1381 1381 1381 1387 1381 1381 1387 1387 1387 1392 1392 1392 1392 1392 1398 1398 1398 1398 1398 1398 1398 1398 1398 1398 1398 1404 1404 1404 1404 1404 1404 1404 1543 1543 1543 1543 1543 1543 1543 1543 1543 1543 1543 1550 1550 1550 1557 1557 1557 1557 1564 1564 1564 1564 1564 1564 1564 1564 1564 1572 1572 1572 1572 1572 1572 1572 1572 1572 1572 1572 1572 1579 1579 1579 1579 1586 1586 1586 1594 1594 1594 1594 1594 1601 1594 1594 1421 1421 1415 1410 1410 1404 1404 1404 1404 1404 1404 1404 1404 1404 1404 1404 1404 1404 1410 1410 1415 1427 1427 1427 1427 1427 1427 1427 1427 1427 1427 1427 1427 1427 1433 1427 1427 1427 1427 2116 1421 1421 1421 1421 1427 1427 1433 1433 1433 1433 1439 1452 1445 1445 1445 1452 1452 1458 3178 3178 3178 3178 3178 3178 3178 3178 3178 3178 3178 3149 3149 3178 3178 3178 3178 3178 3178 3178 3178 3178 3178 3149 3149 3149 3178 3178 3178 0 1516 1516 1516 1516 1509 1509 1509 1509 1503 1503 1496 1496 1496 1489 1489 1489 1489 1489 1489 1489 1496 1489 1489 1496 1496 1496 1496 0 0 0 0 0 0 1785 1776 1776 1776 1776 1776 1766 1757 1748 1748 1739 1739 1739 1739 1739 1739 1739 1739 1739 1739 1748 1748 1748 1748 1748 1748 1748 1748 1748 1739 1739 3149 3149 3120 3120 3120 3120 3120 3120 3120 3120 3149 3149 3149 3149 3149 3120 3120 3120 3120 3120 3120 3120 3120 3120 3092 3092 3092 3092 3092 3092 3092 3092 3092 3092 3092 3092 3092 3092 3092 3092 3120 3120 3120 3120 3120 3120 3120 3120 3120 3092 3092 3064 3064 3064 3064 3037 3037 3064 3064 3092 3092 3092 3092 0 0 0 0 0 0 0 0 0 0 0
0 0 0 0 0 0 0 0 0 0 0 0 0 0 0 0 0 0 0 0 0 0 0 0 0 0 0 0 0 0 0 0 3010 3010 3010 3010 3010 3010 3010 3010 3010 3010 3010 3010 3010 2984 2984 2984 3010 3010 3010 3010 3037 3037 3037 3037 3037 3037 3037 3037 3037 3037 3037 3037 3037 3037 3037 3037 3037 3037 3064 3010 3010 3037 3037 3037 3037 3064 3064 3064 3064 3064 3064 3064 3064 3064 3064 3064 3064 3064 3064 3064 3064 3064 3064 3064 3064 3064 3064 3064 3064 3092 3064 3064 3064 3092 3092 3092 3092 3092 3092 3092 3092 3092 3092 3092 3092 3092 3092 3064 3064 3037 2984 2984 2984 2958 2958 2958 2958 2958 2958 2933 2933 2933 2933 2933 2933 2933 2933 2933 2958 2958 2958 2958 2958 2958 2958 2958 2958 2958 2958 2958 2958 2958 2984 2984 2933 2933 2958 2958 2958 2958 2958 2984 2984 2984 2984 3010 3010 3010 3037 3037 3037 3064 3064 3064 3092 3092 3092 3092 2040 2040 2040 2040 2053 2053 2053 2065 2065 2065 2053 1354 1354 1354 1354 1359 1359 1365 1365 1365 1370 1370 1370 1370 1376 1370 1370 1370 1370 1370 1370 1370 1370 1376 1376 1376 1376 1381 1381 1381 1381 1387 1387 1387 1387 1387 1392 1392 1392 1392 1392 1278 1278 1278 1278 1278 1278 1283 1283 1283 1288 1288 1288 1292 1292 1297 1297 1302 1297 1297 1302 1302 1307 1307 1307 1307 1307 1307 1307 1307 1307 1312 1312 1312 1312 1312 1312 1312 1312 1312 1317 1317 1312 1312 1317 1317 1317 1322 1322 1322 1328 1328 1328 1328 1328 1328 1333 1333 1333 1333 1333 1333 1338 1338 1338 1343 1343 1343 1343 1349 1349 1349 1349 1354 1354 1354 1354 1354 1354 1354 1354 1359 1359 1365 1365 1365 1370 1370 1370 1370 1370 1370 1376 1376 1376 1376 1381 1381 1381 1387 1387 1387 1387 1387 1387 1387 1387 1392 1392 1392 1392 1398 1398 1398 1398 1404 1404 1398 1398 1398 1398 1398 1398 1404 1404 1404 1404 1404 1404 1536 1543 1543 1543 1543 1543 1543 1543 1543 1543 1543 1543 1550 1550 1550 1557 1557 1557 1564 1564 1564 1564 1564 1564 1564 1564 1564 1564 1572 1572 1572 1572 1572 1572 1572 1572 1572 1572 1572 1579 1579 1579 1579 1579 1586 1586 1586 1586 1594 1594 1594 1601 1601 1439 1433 1421 1421 1421 1415 1410 1410 1404 1404 1404 1404 1404 1404 1404 1404 1404 1404 1410 1410 1410 1410 1415 1427 1427 1427 1427 1427 1427 1427 1427 1427 1427 1427 1427 1427 1433 1433 2090 2103 2103 2103 2103 2103 1421 1421 1427 1427 1433 1433 1433 1439 2090 3178 3178 1464 1464 1470 3178 3178 3178 3178 3178 3178 3178 3178 3178 3178 3178 3178 3178 3149 3149 3178 3178 3178 3178 3178 3178 3178 3178 3178 3178 3149 3149 3149 3149 3149 3149 0 1516 1516 1516 1516 1509 1509 1509 1509 1503 1503 1503 1496 1496 1496 1489 1489 1489 1489 1489 1496 1496 1496 1496 1496 1496 1496 1496 0 0 0 0 0 0 1785 1776 1776 1776 1776 1776 1766 1757 1748 1748 1739 1739 1731 1731 1739 1739 1739 1739 1748 1748 1748 1748 1748 1748 1748 1748 1748 1748 1748 1739 1739 3149 3120 3120 3120 3120 3120 3120 3120 3120 3120 3149 3149 3149 3149 3149 3120 3120 3120 3120 3120 3120 3120 3120 3092 3092 3092 3092 3092 3092 3092 3092 3092 3064 3064 3064 3064 3092 3092 3092 3092 3092 3092 3064 3064 3092 3092 3064 3064 3064 3064 3037 3037 3037 3037 3037 3037 3037 3037 3064 3064 3064 3064 3064 0 0 0 0 0 0 0 0 0 0 0
0 0 0 0 0 0 0 0 0 0 0 0 0 0 0 0 0 0 0 0 0 0 0 0 0 0 0 0 0 0 0 0 3010 3010 3010 3010 3010 3010 3010 2984 2984 2984 2984 2984 2984 2984 2984 2984 3010 3010 3010 3010 3010 3037 3010 3010 3010 3010 3010 3010 3010 3037 3037 3037 3010 3010 3010 3010 3010 3010 3037 3010 3010 3010 3010 3010 3010 3037 3037 3037 3037 3037 3037 3064 3064 3037 3037 3064 3064 3064 3064 3064 3064 3064 3064 3064 3064 3064 3064 3064 3064 3064 3064 3064 3064 3064 3064 3064 3064 3064 3064 3064 3064 3064 3092 3092 3092 3092 3092 3064 3064 3037 2984 2984 2984 2958 2958 2958 2958 2958 2958 2958 2958 2958 2958 2933 2933 2933 2958 2958 2958 2958 2958 2958 2958 2958 2958 2958 2958 2958 2958 2958 2984 2958 2958 2984 2933 2933 2958 2958 2958 2958 2958 2984 2984 2984 2984 3010 3010 3010 3037 3037 3037 3037 3064 3064 3064 3092 3092 3092 2040 2040 2053 2053 2053 2053 2053 2053 2053 2053 2053 1354 1354 1354 1354 1359 1359 1365 1365 1365 1370 1370 1370 1376 1376 1376 1376 1376 1376 1376 1376 1376 1376 1376 1376 1376 1381 1381 1381 1387 1387 1392 1392 1392 1392 1392 1398 1398 1398 1398 1398 1278 1278 1283 1283 1283 1283 1283 1283 1288 1288 1288 1292 1292 1292 1297 1302 1302 1302 1302 1302 1302 1307 1307 1307 1307 1307 1307 1307 1312 1312 1312 1312 1312 1312 1312 1317 1317 1317 1317 1317 1317 1317 1317 1317 1322 1322 1328 1328 1328 1328 1328 1328 1328 1328 1328 1333 1333 1333 1333 1333 1338 1338 1343 1343 1343 1343 1349 1349 1349 1349 1349 1354 1354 1354 1354 1354 1359 1359 1359 1359 1359 1365 1365 1370 1370 1370 1370 1370 1370 1376 1376 1376 1376 1376 1381 1381 1381 1387 1387 1387 1392 1387 1387 1387 1392 1392 1392 1392 1392 1392 1398 1398 1404 1404 1404 1404 1398 1398 1398 1398 1398 1404 1404 1404 1404 1410 1410 1410 1536 1543 1543 1543 1543 1543 1543 1543 1543 1543 1543 1550 1550 1557 1557 1557 1557 1564 1564 1564 1564 1564 1564 1564 1564 1564 1564 1564 1564 1564 1564 1572 1572 1572 1572 1572 1572 1572 1579 1579 1586 1586 1586 1586 1586 1586 1586 1586 1594 2078 2078 2078 1439 1439 1433 1427 1427 1421 1421 1410 1410 1410 1404 1404 1404 1404 1404 1404 1404 1404 1404 1410 1410 1410 1410 1415 1427 1427 1427 1427 1427 2090 2090 1427 1427 1433 1427 1427 1427 1433 2103 2103 2103 2103 2103 2103 2103 2103 2103 2103 2103 2103 2103 2103 2090 2090 2103 3178 1483 1483 1483 3178 3178 3178 3178 3178 3178 3178 3149 3149 3149 3149 3149 3149 3149 3149 3149 3178 3178 3178 3178 3178 3178 3178 3178 3178 3149 3149 3149 3149 3149 0 0 0 1523 1523 1523 1516 1516 1509 1509 1503 1503 1503 1496 1496 1496 1489 1489 1489 1489 1496 1496 1496 1496 1496 1496 1489 1489 0 0 0 0 0 0 0 1785 1785 1785 1785 1776 1776 1766 1757 1748 1748 1739 1739 1731 1731 1739 1739 1739 1739 1748 1748 1748 1748 1748 1748 1748 1748 1748 1748 1748 1748 1748 3120 3120 3092 3092 3092 3092 3120 3120 3120 3120 3120 3120 3120 3120 3120 3120 3120 3120 3120 3120 3120 3120 3092 3092 3092 3064 3064 3064 3064 3064 3064 3064 3064 3064 3064 3064 3064 3064 3064 3064 3092 3064 3064 3064 3064 3064 3064 3064 3037 3037 3037 3037 3037 3037 3037 3037 3037 3037 3037 3037 3064 3064 3064 0 0 0 0 0 0 0 0 0 0 0
0 0 0 0 0 0 0 0 0 0 0 0 0 0 0 0 0 0 0 0 0 0 0 0 0 0 0 0 0 0 0 0 3010 3010 3010 3010 3010 3010 3010 2984 2984 2984 2984 2984 2984 2984 2984 2984 3010 3010 3010 3010 3010 3010 3010 3010 3010 3010 3010 3010 3010 3010 3010 3010 3010 3010 3010 3010 3010 3010 3037 3010 3010 3010 3010 3010 3010 3010 3010 3037 3037 3037 3037 3037 3037 3037 3037 3037 3037 3037 3037 3037 3037 3037 3037 3037 3037 3037 3037 3064 3064 3064 3064 3064 3064 3064 3064 3064 3064 3064 3064 3064 3064 3064 3064 3064 3064 3064 3064 3064 3064 3037 3010 3010 2984 2984 2958 2958 2958 2958 2958 2958 2958 2958 2958 2958 2958 2958 2958 2958 2958 2958 2958 2958 2958 2958 2958 2958 2958 2958 2958 2958 2984 2958 2958 2984 2958 2958 2958 2958 2958 2958 2958 2984 2984 2984 3010 3010 3010 3010 3037 3037 3037 3037 3064 3064 3064 3064 3064 3064 2040 2040 2053 2053 2053 2053 2053 2053 2053 2053 2053 2065 1354 1354 1354 1359 1359 1365 1365 1365 1370 1376 1376 1376 1376 1376 1376 1376 1376 1376 1376 1376 1376 1376 1381 1381 1381 1387 1387 1387 1387 1392 1398 1398 1398 1398 1398 1398 1404 1404 1404 1283 1283 1283 1283 1283 1283 1283 1283 1288 1288 1292 1292 1297 1297 1297 1302 1302 1302 1302 1302 1307 1307 1307 1307 1307 1307 1307 1307 1312 1312 1312 1312 1312 1312 1312 1317 1317 1317 1317 1322 1322 1322 1322 1322 1328 1328 1328 1328 1328 1328 1328 1333 1333 1333 1333 1333 1333 1333 1333 1338 1338 1343 1343 1343 1343 1349 1349 1349 1349 1349 1354 1354 1354 1354 1354 1354 1359 1359 1359 1359 1359 1365 1370 1370 1370 1376 1376 1376 1376 1376 1376 1376 1376 1376 1381 1381 1381 1387 1392 1392 1392 1392 1392 1392 1392 1392 1392 1392 1392 1392 1398 1404 1404 1404 1404 1404 1404 1404 1404 1398 1398 1404 1404 1410 1410 1410 1410 1410 1536 1543 1543 1543 1543 1543 1543 1543 1543 1550 1550 1550 1550 1557 1557 1557 1557 1564 1564 1564 1564 1564 1572 1564 1564 1564 1564 1564 1564 1564 1564 1564 1564 1564 1572 1572 1572 1572 1579 1579 1586 1594 1594 2053 2053 2053 2065 2065 2065 2065 2065 0 1439 1439 1433 1433 1427 1421 1421 1415 1410 1410 1404 1404 1404 1404 1404 1404 1404 1410 1410 1410 1410 1410 1410 1415 1427 1427 1427 2090 2090 2090 2090 2090 2090 2090 2090 2090 2090 2090 2103 2103 2103 2103 2103 2103 2103 2103 2103 2103 2103 2103 2103 2103 2103 2103 2103 3149 3178 1483 1483 3178 3178 3178 3178 3178 3149 3149 3120 3120 3149 3149 3149 3149 3149 3149 3149 3149 3178 3178 3178 3178 3178 3178 3178 3149 3120 3120 3120 3120 3120 0 0 0 1523 1523 1523 1516 1516 1516 1509 1503 1503 1503 1496 1496 1496 1496 1489 1489 1496 1496 1496 1496 1496 1496 1496 1489 1489 0 0 0 0 0 0 0 1785 1785 1785 1785 1776 1776 1766 1757 1748 1748 1739 1739 1739 1739 1739 1739 1739 1739 1748 1748 1748 1748 1748 1748 1748 1748 1748 1748 1748 1748 1748 3092 3092 3092 3092 3092 3092 3092 3092 3092 3092 3092 3120 3120 3120 3120 3120 3092 3092 3120 3092 3092 3092 3064 3064 3064 3064 3064 3037 3037 3037 3037 3064 3037 3037 3037 3064 3064 3064 3064 3064 3064 3064 3064 3064 3037 3037 3037 3037 3037 3037 3010 3010 3010 3010 3010 3010 3010 3037 3037 3037 3064 3037 3037 0 0 0 0 0 0 0 0 0 0 0
0 0 0 0 0 0 0 0 0 0 0 0 0 0 0 0 0 0 0 0 0 0 0 0 0 0 0 0 0 0 0 0 3010 3010 3010 3010 3010 3010 3010 2984 2984 2984 2984 2984 2958 2958 2958 2958 2984 2984 2984 2984 2984 3010 3010 2984 2984 3010 3010 3010 3010 3010 3010 3010 3010 3010 3010 3010 3010 3010 3037 3010 3010 3010 2984 2984 2984 2984 3010 3010 3010 3010 3010 3037 3037 3010 3010 3037 3037 3037 3037 3010 3010 3010 3010 3010 3010 3037 3037 3037 3037 3064 3064 3064 3064 3064 3064 3064 3064 3064 3064 3064 3064 3064 3064 3064 3064 3064 3064 3064 3037 3037 3010 3010 2984 2984 2984 2984 2958 2958 2958 2958 2958 2958 2958 2958 2958 2958 2958 2958 2958 2958 2958 2958 2958 2958 2958 2958 2958 2958 2958 2958 2984 2984 2984 2984 2958 2958 2958 2958 2958 2958 2958 2984 3010 3010 3010 3010 3010 3037 3037 3037 3037 3037 3064 3064 3064 3064 3064 3064 3064 2065 2065 2053 2053 2053 2053 2053 2065 2065 2065 2065 1359 1359 1359 1359 1365 1365 1365 1370 1376 1376 1376 1376 1376 1376 1376 1376 1376 1376 1376 1376 1376 1381 1381 1381 1381 1392 1392 1392 1392 1398 1398 1398 1398 1398 1404 1404 1404 1404 1404 1410 1283 1283 1283 1283 1288 1288 1288 1288 1292 1292 1292 1297 1297 1302 1302 1307 1302 1302 1302 1307 1307 1307 1307 1307 1307 1312 1312 1312 1312 1312 1312 1312 1312 1312 1317 1317 1322 1322 1322 1322 1322 1328 1328 1328 1328 1328 1328 1328 1333 1333 1333 1333 1333 1333 1333 1333 1333 1338 1338 1338 1343 1343 1343 1349 1349 1349 1349 1349 1349 1354 1354 1354 1354 1354 1354 1359 1359 1359 1359 1359 1365 1370 1370 1376 1376 1376 1376 1376 1376 1376 1376 1376 1376 1381 1381 1387 1392 1392 1392 1392 1392 1392 1392 1392 1392 1392 1392 1392 1392 1398 1404 1410 1410 1410 1410 1404 1404 1404 1404 1404 1404 1410 1410 1410 1410 1410 1410 1543 1543 1543 1543 1543 1543 1543 1543 1543 1550 1550 1550 1557 1557 1557 1564 1564 1564 1564 1564 1564 1572 1572 1564 1564 1564 1564 1564 1564 1564 1564 1564 1564 1564 1572 1572 1572 1572 2040 2040 2053 2053 2053 2053 2053 2053 2065 2065 2065 2065 2065 0 1433 1433 1433 1433 1433 1421 1421 1415 1410 1410 1404 1404 1404 1404 1404 1404 1404 1410 1410 1410 1410 1410 1410 1410 1427 2090 2090 2090 2090 2090 2090 2090 2090 2090 2090 2090 2090 2090 2103 2103 2103 2103 2103 2103 2103 2103 2103 2103 2103 2103 2103 2103 2103 2103 2103 3149 3149 3149 3149 3149 3149 3149 3149 3149 3149 3149 3120 3120 3120 3120 3120 3120 3120 3120 3149 3149 3149 3149 3149 3149 3149 3149 3149 3120 3120 3092 3092 3064 3064 0 0 0 1523 1523 1529 1523 1516 1516 1509 1503 1503 1503 1496 1496 1496 1496 1496 1496 1496 1496 1496 1496 1496 1496 1496 1496 0 0 0 0 0 0 0 0 1785 1785 1785 1776 1776 1766 1766 1757 1748 1748 1739 1739 1739 1739 1739 1739 1748 1748 1748 1748 1748 1748 1748 1748 1757 1757 1757 1748 1748 1748 3092 3092 3092 3064 3064 3064 3064 3064 3092 3092 3092 3092 3092 3092 3120 3120 3120 3092 3092 3092 3092 3092 3092 3064 3064 3064 3064 3064 3037 3037 3037 3037 3037 3037 3037 3037 3037 3037 3037 3037 3037 3037 3037 3037 3037 3037 3037 3037 3037 3010 3010 3010 3010 3010 3010 3010 3010 3010 3010 3037 3037 3037 3037 3037 0 0 0 0 0 0 0 0 0 0 0
0 0 0 0 0 0 0 0 0 0 0 0 0 0 0 0 0 0 0 0 0 0 0 0 0 0 0 0 0 0 0 0 3010 3010 3010 3010 3010 2984 2984 2984 2958 2958 2958 2958 2958 2958 2958 2958 2984 2984 2984 2984 2984 2984 2984 2984 2984 2984 2984 2984 3010 3010 3010 3010 2984 2984 3010 3010 3010 3010 3010 2984 2984 2984 2984 2984 2984 2984 2984 2984 2984 2984 2984 3010 3010 3010 3010 3010 3010 3010 3010 3010 3010 3010 3010 3010 3010 3010 3010 3010 3010 3037 3037 3037 3037 3037 3037 3037 3037 3037 3037 3037 3037 3064 3037 3037 3037 3037 3064 3037 3037 3037 3010 3010 2984 2984 2984 2984 2958 2958 2958 2958 2958 2958 2958 2958 2958 2958 2958 2958 2958 2958 2958 2958 2958 2958 2958 2958 2958 2958 2958 2958 2984 2984 2984 2984 2958 2958 2958 2958 2958 2958 2958 2984 2984 2984 2984 3010 3010 3037 3037 3037 3037 3037 3064 3064 3064 3064 3064 3064 3064 2065 2065 2053 2053 2053 2053 2053 2065 2065 2053 2053 2053 1359 1359 1359 1359 1365 1370 1370 1376 1376 1376 1376 1376 1381 1381 1381 1381 1381 1381 1381 1387 1387 1392 1392 1392 1398 1398 1398 1398 1404 1404 1404 1404 1404 1410 1410 1415 1415 1415 1421 1288 1288 1288 1288 1288 1288 1288 1288 1292 1292 1297 1297 1297 1302 1307 1307 1307 1307 1307 1307 1307 1307 1307 1307 1312 1312 1312 1312 1312 1312 1312 1312 1317 1317 1317 1317 1322 1322 1322 1328 1328 1328 1328 1328 1328 1328 1328 1333 1333 1333 1333 1333 1333 1333 1338 1338 1338 1338 1338 1343 1343 1349 1349 1349 1349 1349 1354 1354 1354 1354 1354 1354 1354 1354 1359 1359 1359 1359 1365 1365 1365 1370 1376 1376 1376 1376 1376 1376 1376 1381 1381 1381 1381 1381 1387 1387 1387 1392 1392 1392 1387 1387 1387 1387 1387 1387 1387 1392 1392 1398 1404 1410 1410 1410 1410 1404 1404 1404 1404 1404 1404 1410 1410 1410 1410 1410 1410 1543 1543 1543 1543 1543 1543 1543 1543 1543 1550 1550 1550 1557 1564 1564 1564 1564 1564 1564 1572 1572 1572 1564 1564 1564 1564 1564 1564 1564 1564 1564 1564 1564 1564 1572 1572 2040 2040 2040 2040 2053 2053 2053 2053 2053 2053 2053 2065 2065 2065 2065 0 1433 1433 1433 1433 1433 1421 1421 1415 1410 1410 1410 1404 1404 1404 1410 1410 1410 1410 1410 1410 1410 1410 1410 1410 2078 2090 2090 2090 2090 2090 2090 2090 2090 2090 2090 2090 2103 2103 2103 2103 2103 2103 2103 2103 2103 2103 2103 2103 2103 2103 2103 2103 2103 2103 2116 3120 3149 3149 3149 3149 3149 3149 3149 3120 3120 3120 3092 3092 3092 3092 3092 3120 3120 3120 3120 3149 3149 3120 3120 3149 3149 3149 3120 3120 3092 3064 3064 3064 3064 0 0 0 1529 1529 1529 1523 1523 1516 1509 1503 1503 1503 1503 1496 1496 1496 1496 1496 1496 1496 1496 1503 1496 1496 1496 1496 0 3037 0 3064 3064 3064 0 0 1785 1785 1785 1776 1776 1766 1766 1757 1748 1748 1739 1739 1739 1739 1739 1739 1748 1748 1748 1748 1757 1757 1757 1757 1757 1757 1748 1748 1748 1748 3092 3092 3064 3064 3064 3064 3064 3064 3064 3064 3064 3064 3092 3092 3092 3092 3092 3064 3064 3064 3064 3064 3064 3037 3037 3037 3037 3037 3037 3037 3037 3037 3037 3037 3037 3037 3037 3037 3037 3010 3010 3037 3037 3037 3037 3037 3037 3037 3037 3010 3010 2984 2984 3010 3010 3010 3010 3010 3010 3037 3037 3037 3010 3010 0 0 0 0 0 0 0 0 0 0 0
0 0 0 0 0 0 0 0 0 0 0 0 0 0 0 0 0 0 0 0 0 0 0 0 0 0 0 0 0 0 0 0 3010 3010 2984 2984 2984 2984 2984 2984 2958 2958 2958 2958 2933 2933 2958 2958 2984 2984 2984 2958 2958 2984 2984 2984 2984 2984 2984 2984 2984 2984 2984 2984 2984 2984 3010 3010 2984 2984 3010 2984 2984 2984 2984 2958 2958 2984 2984 2984 2984 2984 2984 2984 3010 3010 3010 3010 3010 3010 3010 2984 2984 2984 2984 2984 2984 3010 3010 3010 3010 3010 3010 3010 3010 3010 3010 3010 3037 3037 3037 3037 3037 3037 3037 3037 3037 3037 3037 3037 3037 3037 3010 3010 2984 2984 2984 2984 2958 2958 2958 2958 2958 2958 2958 2958 2958 2958 2958 2958 2958 2958 2958 2958 2958 2958 2958 2958 2958 2958 2984 2984 2984 2984 2984 2984 2958 2958 2958 2958 2958 2958 2958 2984 2984 2984 2984 3010 3010 3037 3037 3037 3037 3037 3064 3064 3064 3037 3037 3037 3037 2065 2065 2053 2053 2053 2053 2053 2065 2065 2053 2053 2053 2078 1359 1359 1359 1365 1370 1370 1376 1376 1376 1381 1381 1381 1381 1381 1381 1381 1381 1387 1387 1392 1392 1392 1398 1398 1398 1398 1404 1404 1404 1410 1410 1410 1415 1415 1415 1415 1415 1421 1292 1292 1292 1292 1292 1292 1292 1292 1292 1297 1297 1302 1302 1307 1307 1312 1307 1307 1307 1307 1307 1312 1312 1312 1312 1312 1312 1312 1312 1312 1312 1312 1317 1317 1317 1317 1322 1322 1328 1328 1328 1328 1328 1328 1328 1333 1333 1333 1333 1333 1338 1338 1338 1338 1343 1343 1343 1343 1343 1343 1349 1349 1349 1349 1349 1354 1354 1354 1354 1354 1354 1354 1354 1359 1359 1359 1365 1365 1365 1365 1370 1370 1376 1376 1376 1376 1376 1376 1376 1381 1381 1381 1381 1381 1387 1387 1387 1392 1392 1392 1387 1387 1387 1387 1387 1387 1387 1516 1516 1410 1410 1410 1415 1415 1410 1410 1410 1410 1410 1410 1410 1410 1410 1410 1410 1410 1410 1543 1543 1543 1543 1543 1543 1543 1543 1543 1550 1550 1557 1564 1564 1564 1564 1564 1572 1572 1572 1572 1572 1564 1564 2016 2016 2016 2028 2028 2028 2028 2028 2040 1572 1572 2040 2040 2053 2053 2053 2053 2053 2053 2053 2053 2053 2053 2065 2065 2065 2065 0 1439 1439 1439 1433 1433 1427 1421 1415 1410 1410 1410 1410 1410 1410 1410 1410 1410 1410 1410 1410 1410 1410 1410 1410 2078 2090 2090 2090 2090 2090 2090 2090 2090 2090 2090 2090 2090 2090 2090 2103 2103 2103 2103 2103 2116 2116 2103 2103 2116 2116 2116 2116 2116 2116 2116 3120 3120 3120 3120 3120 3120 3120 3120 3092 3092 3092 3092 3092 3092 3092 3092 3092 3120 3120 3120 3120 3120 3120 3120 3120 3120 3120 3092 3092 3092 3064 3064 3037 3037 3037 0 1529 1529 1529 1529 1523 1523 1516 1509 1503 1503 1503 1503 1503 1503 1496 1496 1496 1503 1503 1503 1503 1503 1503 1503 1503 3037 3037 3010 3010 3037 3064 3064 1785 1785 1785 1785 1785 1776 1776 1766 1757 1748 1748 1739 1739 1739 1739 1739 1739 1748 1748 1757 1757 1757 1757 1757 1757 1757 1757 1748 1748 1757 3092 3064 3064 3064 3064 3064 3064 3064 3064 3064 3064 3064 3064 3064 3064 3064 3064 3064 3064 3037 3037 3037 3037 3037 3037 3037 3037 3037 3037 3037 3037 3037 3010 3010 3010 3010 3010 3037 3037 3010 3010 3010 3010 3010 3010 3010 3010 3010 3037 3037 3010 3010 2984 2984 3010 3010 3010 3010 3010 3010 3010 3010 3010 3010 3010 0 0 0 0 0 0 0 0 0 0 0
0 0 0 0 0 0 0 0 0 0 0 0 0 0 0 0 0 0 0 0 0 0 0 0 0 0 0 0 0 0 0 0 2984 2984 2984 2984 2984 2958 2958 2958 2933 2933 2958 2958 2933 2933 2958 2958 2984 2958 2958 2958 2958 2958 2958 2958 2958 2958 2984 2984 2984 2984 2984 2984 2984 2984 2984 2984 2984 2984 2984 2984 2984 2984 2958 2958 2958 2958 2958 2984 2984 2984 2984 2984 2984 2984 2984 3010 2984 2984 2984 2984 2984 2984 2984 2984 2984 2984 3010 3010 3010 3010 3010 2984 2984 2984 2984 3010 3010 3010 3037 3037 3037 3037 3037 3010 3010 3010 3037 3037 3010 3010 3010 2984 2984 2984 2984 2984 2958 2958 2958 2958 2958 2958 2958 2958 2958 2958 2958 2958 2958 2958 2958 2958 2958 2958 2958 2958 2958 2958 2958 2958 2984 2984 2984 2984 2958 2958 2958 2958 2958 2958 2958 2958 2984 2984 2984 2984 3010 3010 3010 3037 3037 3037 3037 3064 3037 3037 3037 3010 3010 3010 2065 2053 2053 2053 2053 2053 2065 2065 2065 2065 2078 2078 1365 1365 1365 1370 1370 1370 1376 1381 1381 1381 1381 1381 1381 1381 1387 1387 1387 1387 1387 1392 1392 1398 1398 1398 1398 1404 1404 1404 1404 1410 1410 1410 1415 1415 1415 1415 1415 1292 1292 1292 1292 1292 1292 1292 1292 1292 1297 1297 1297 1302 1302 1307 1307 1312 1307 1307 1307 1312 1312 1312 1312 1312 1317 1317 1317 1317 1317 1317 1317 1317 1322 1322 1322 1322 1328 1328 1328 1328 1333 1333 1333 1333 1333 1333 1333 1333 1333 1338 1338 1338 1343 1343 1343 1343 1343 1343 1349 1349 1349 1349 1349 1354 1354 1354 1354 1354 1354 1354 1354 1359 1359 1359 1359 1365 1365 1365 1365 1365 1370 1370 1370 1376 1376 1376 1376 1376 1376 1381 1381 1381 1381 1387 1387 1387 1392 1392 1392 1392 1516 1516 1516 1516 1516 1516 1516 1516 1516 1410 1410 1415 1415 1415 1415 1410 1410 1410 1410 1410 1410 1410 1410 1410 1415 1410 1410 1543 1543 1543 1543 1543 1543 1543 1543 1550 1550 1557 1557 1564 1564 2005 2005 2005 2005 2005 2005 2016 2016 2016 2016 2016 2016 2016 2028 2028 2028 2028 2028 2040 2040 2040 2040 2053 2053 2053 2053 2053 2053 2053 2053 2053 2053 2053 2065 2065 2065 2065 0 1439 1439 1439 1433 1433 1427 1421 1415 1410 1410 1410 1410 1410 1410 1410 1410 1410 1410 1410 1410 1410 1415 1415 2078 2078 2078 2078 2078 2090 2078 2078 2078 2078 2090 2090 2090 2090 2090 2090 2090 2103 2103 2103 2103 2116 2116 2116 2116 2116 2116 2116 2116 2116 2116 2116 3092 3092 3092 3092 3092 3092 3092 3092 3092 3092 3092 3092 3092 3092 3092 3092 3092 3092 3120 3120 3120 3120 3092 3092 3092 3092 3092 3092 3092 3092 3064 3037 3037 3037 3037 0 1529 1529 1529 1529 1529 1523 1516 1509 1503 1503 1503 1503 1503 1503 1503 1503 1503 1503 1503 1503 1503 1503 1503 1503 3010 3010 3010 3010 3010 3010 3037 3037 1785 1785 1785 1785 1785 1776 1776 1766 1766 1748 1748 1739 1739 1739 1739 1739 1748 1748 1748 1757 1757 1757 1757 1757 1757 1757 1757 1757 1757 1757 3064 3037 3037 3037 3064 3064 3064 3064 3064 3064 3064 3064 3064 3064 3064 3064 3064 3064 3037 3037 3037 3037 3037 3037 3037 3037 3037 3037 3010 3010 3010 3010 3010 3010 3010 3010 3010 3010 3010 3010 3010 3010 3010 3010 3010 3010 3010 3010 3010 3010 3010 3010 2984 2984 2984 2984 2984 3010 3010 3010 3010 3010 3010 2984 2984 0 0 0 0 0 0 0 0 0 0 0
0 0 0 0 0 0 0 0 0 0 0 0 0 0 0 0 0 0 0 0 0 0 0 0 0 0 0 0 0 0 0 0 2984 2984 2958 2958 2958 2958 2958 2958 2933 2933 2933 2958 2933 2933 2958 2958 2958 2958 2958 2933 2933 2933 2933 2958 2958 2958 2958 2958 2958 2958 2958 2958 2958 2958 2984 2984 2984 2984 2984 2958 2958 2958 2958 2958 2958 2958 2958 2958 2958 2984 2984 2984 2984 2984 2984 2984 2984 2984 2984 2984 2984 2958 2958 2958 2984 2984 2984 2984 2984 2984 2984 2984 2984 2984 2984 2984 2984 3010 3010 3010 3037 3037 3010 3010 3010 3010 3010 3010 3010 3010 3010 2984 2984 2984 2984 2984 2958 2958 2958 2958 2958 2958 2958 2958 2958 2958 2958 2958 2958 2958 2958 2958 2958 2958 2958 2958 2958 2958 2958 2958 2984 2984 2984 2984 2958 2958 2958 2958 2958 2958 2958 2958 2984 2984 2984 2984 3010 3010 3010 3037 3037 3037 3037 3037 3037 3037 3037 3010 3010 3010 2053 2053 2053 2053 2053 2065 2065 2065 2065 2065 2078 2090 2090 1370 1370 1370 1370 1376 1381 1381 1381 1387 1387 1387 1392 1392 1392 1392 1392 1392 1392 1392 1398 1398 1398 1398 1398 1404 1404 1404 1404 1410 1410 1415 1415 1415 1415 1421 1421 1292 1292 1292 1292 1292 1292 1292 1292 1297 1297 1297 1302 1302 1307 1307 1307 1312 1312 1312 1312 1312 1312 1312 1312 1312 1317 1317 1317 1317 1317 1322 1322 1322 1322 1322 1328 1328 1328 1328 1333 1333 1333 1333 1333 1333 1333 1333 1333 1333 1333 1338 1343 1343 1343 1343 1349 1349 1349 1349 1349 1349 1349 1354 1354 1354 1354 1354 1354 1354 1359 1359 1359 1359 1365 1365 1365 1365 1365 1370 1365 1365 1365 1370 1370 1370 1370 1370 1370 1376 1376 1376 1381 1381 1381 1387 1387 1387 1392 1516 1523 1516 1516 1516 1516 1516 1516 1516 1516 1516 1516 1415 1415 1415 1415 1415 1415 1410 1410 1410 1410 1410 1410 1410 1415 1415 1415 1415 1415 1543 1543 1543 1543 1543 1543 1543 1543 1550 1557 1564 1564 2005 2005 2005 2005 2005 2005 2005 2005 2016 2016 2016 2016 2016 2016 2016 2028 2028 2028 2028 2028 2040 2040 2040 2040 2053 2053 2053 2053 2053 2053 2053 2053 2053 2053 2053 2065 2065 2065 2065 2090 0 1433 1433 1433 1433 1427 1421 1415 1410 1410 1410 1410 1410 1410 1410 1410 1410 1415 1415 1415 1415 1415 1415 2078 2005 2005 2040 2065 2078 2053 2053 2053 2065 2078 2078 2078 2078 2078 2090 2090 2090 2090 2103 2103 2103 2116 2116 2116 2116 2116 2116 2116 2116 2116 2116 3064 3092 3092 3092 3092 3092 3092 3092 3092 3092 3092 3092 3092 3092 3092 3092 3092 3092 3092 3092 3092 3092 3092 3092 3092 3092 3092 3092 3092 3092 3064 3037 3037 3037 3037 0 1529 1529 1529 1536 1529 1523 1523 1509 1509 1503 1503 1503 1503 1503 1503 1503 1503 1503 1503 1503 1503 1503 1503 1503 3010 3010 3010 2984 2984 3010 3037 3037 1785 1785 1785 1785 1785 1776 1776 1776 1766 1757 1748 1739 1739 1739 1739 1739 1748 1748 1748 1757 1757 1766 1766 1757 1757 1757 1757 1757 1757 1757 3064 3037 3037 3037 3037 3037 3037 3037 3037 3064 3064 3064 3064 3064 3064 3064 3064 3064 3037 3010 3010 3010 3010 3010 3037 3037 3037 3037 3010 3010 3010 3010 3010 3010 2984 2984 2984 2984 2984 2984 2984 2984 2984 3010 3010 3010 3010 3010 3010 3010 3010 3010 2984 2984 2984 2984 2984 2984 2984 2984 2984 2984 2984 2984 2984 0 0 0 0 0 0 0 0 0 0 0
0 0 0 0 0 0 0 0 0 0 0 0 0 0 0 0 0 0 0 0 0 0 0 0 0 0 0 0 0 0 0 0 2958 2958 2933 2933 2933 2933 2933 2933 2908 2908 2933 2933 2933 2933 2958 2958 2958 2958 2958 2933 2933 2933 2933 2933 2933 2933 2933 2933 2958 2958 2958 2958 2958 2958 2958 2984 2984 2984 2984 2958 2958 2958 2958 2933 2933 2933 2933 2958 2958 2958 2958 2958 2958 2984 2984 2958 2958 2958 2958 2958 2958 2958 2958 2958 2958 2958 2958 2984 2984 2984 2984 2984 2984 2984 2984 2984 2984 2984 2984 3010 3010 3010 2984 2984 2984 2984 2984 2984 2984 2984 2984 2984 2984 2984 2984 2984 2958 2958 2958 2958 2958 2958 2958 2958 2958 2958 2958 2958 2958 2958 2958 2958 2958 2958 2958 2958 2958 2958 2958 2958 2984 2984 2984 2984 2958 2958 2958 2958 2958 2958 2958 2958 2958 2958 2984 2984 2984 3010 3010 3037 3037 3037 3037 3037 3010 3010 3010 2984 2984 2984 2065 2065 2053 2053 2053 2065 2065 2065 2078 2078 2078 2090 2090 2090 1376 1376 1376 1376 1381 1381 1387 1387 1387 1387 1392 1392 1392 1392 1392 1392 1392 1398 1398 1398 1398 1398 1398 1404 1404 1404 1410 1410 1415 1415 1421 1421 1421 1421 1421 1292 1292 1292 1297 1297 1297 1297 1297 1297 1297 1297 1302 1302 1307 1307 1307 1312 1312 1312 1312 1312 1312 1312 1317 1317 1317 1317 1322 1322 1322 1322 1322 1322 1328 1328 1328 1328 1328 1328 1333 1333 1333 1333 1333 1333 1333 1333 1333 1338 1338 1343 1343 1343 1343 1343 1349 1349 1349 1349 1349 1349 1349 1354 1354 1354 1354 1354 1354 1354 1359 1359 1359 1359 1365 1365 1489 1370 1370 1370 1370 1365 1365 1370 1370 1370 1370 1370 1370 1376 1376 1376 1509 1509 1509 1509 1509 1516 1516 1516 1516 1516 1516 1516 1516 1516 1516 1516 1516 1516 1516 1427 1421 1421 1421 1415 1415 1410 1410 1410 1410 1410 1410 1415 1415 1415 1415 1415 1415 1543 1543 1543 1543 1543 1543 1543 2016 2016 2016 2005 2005 2005 2005 2005 2005 2005 2005 2005 2016 2016 2016 2016 2016 2028 2016 2016 2028 2028 2028 2028 2028 2040 2040 2040 2040 2053 2053 2053 2053 2053 2053 2053 2053 2065 2065 2065 2065 2065 2078 2090 2090 1433 1433 1433 1433 1433 1427 1421 1421 1415 1410 1410 1410 1410 1410 1410 1415 1415 1415 1415 1421 1421 2005 2005 2005 2005 2005 2005 2016 2040 2016 2016 2016 2016 2040 2005 2005 2016 2016 2078 2078 2090 2090 2090 2103 2103 2116 2116 2116 2116 2116 2116 2129 2129 2129 3037 3064 3064 3064 3064 3064 3064 3092 3092 3092 3092 3092 3092 3092 3092 3092 3092 3092 3092 3092 3092 3092 3092 3092 3092 3064 3064 3092 3064 3064 3064 3037 3037 3037 3037 3037 1529 1529 1529 1529 1536 1529 1523 1523 1516 1509 1503 1503 1503 1503 1503 1503 1503 1503 1503 1503 1503 1503 1503 1516 1516 3010 3010 3010 2984 2984 3010 3037 3037 1785 1785 1785 1785 1785 1776 1776 1776 1776 1757 1748 1739 1739 1739 1739 1748 1748 1748 1757 1757 1766 1766 1766 1757 1757 1757 1757 1748 1748 1757 3037 3010 3010 3010 3010 3037 3037 3037 3037 3037 3037 3037 3037 3064 3064 3064 3064 3064 3010 3010 3010 3010 3010 3010 3010 3037 3037 3037 3010 3010 3010 3010 2984 2984 2958 2958 2958 2958 2958 2958 2958 2984 2984 2984 3010 3010 3010 3010 2984 2984 2984 2984 2958 2958 2958 2958 2984 2984 2984 2984 2984 2984 2958 2933 2933 0 0 0 0 0 0 0 0 0 0 0
0 0 0 0 0 0 0 0 0 0 0 0 0 0 0 0 0 0 0 0 0 0 0 0 0 0 0 0 0 0 0 0 2933 2933 2933 2933 2933 2933 2933 2933 2908 2908 2933 2933 2933 2933 2933 2933 2933 2933 2933 2908 2908 2933 2933 2933 2933 2933 2933 2933 2933 2933 2933 2933 2958 2958 2958 2984 2984 2984 2984 2958 2958 2958 2933 2933 2933 2933 2933 2933 2958 2933 2933 2958 2958 2958 2958 2958 2958 2958 2958 2958 2958 2958 2958 2958 2958 2958 2958 2958 2958 2958 2958 2958 2958 2958 2958 2958 2984 2984 2984 2984 2984 2984 2984 2984 2984 2984 2984 2984 2984 2984 2984 2984 2984 2984 2984 2984 2984 2958 2958 2958 2958 2958 2958 2958 2958 2958 2958 2958 2958 2958 2958 2958 2958 2958 2958 2958 2958 2958 2958 2958 2984 2984 2984 2984 2958 2958 2958 2958 2958 2958 2958 2958 2958 2958 2958 2984 2984 3010 3010 3010 3010 3037 3037 3037 3010 3010 3010 2984 2984 2984 2065 2065 2065 2065 2065 2065 2065 2078 2078 2078 2090 2090 2090 2090 2090 1376 1376 1376 1381 1381 1387 1387 1392 1392 1392 1392 1392 1392 1392 1398 1398 1398 1398 1398 1398 1404 1404 1404 1404 1410 1410 1415 1415 1415 1421 1421 1421 1421 1427 1292 1292 1297 1297 1297 1297 1297 1297 1297 1297 1297 1302 1307 1307 1312 1312 1312 1312 1312 1312 1317 1317 1317 1317 1317 1322 1322 1322 1322 1322 1328 1328 1328 1328 1328 1328 1328 1328 1328 1333 1333 1333 1333 1333 1333 1333 1338 1338 1338 1338 1343 1343 1343 1343 1343 1349 1349 1349 1349 1349 1349 1349 1354 1354 1354 1354 1354 1354 1354 1359 1359 1359 1489 1489 1489 1489 1489 1489 1489 1489 1489 1370 1370 1370 1370 1370 1503 1503 1503 1503 1509 1509 1509 1509 1509 1509 1516 1516 1516 1516 1516 1516 1516 1516 1516 1516 1516 1516 1516 1439 1433 1427 1427 1421 1421 1415 1415 1415 1415 1415 1415 1415 1415 1415 1415 1421 1421 1421 1421 1543 1543 2016 2016 2016 2016 2016 2016 2016 2016 2005 2005 2005 2005 2005 2005 2005 2016 2016 2016 2016 2016 2028 2028 2028 2028 2028 2028 2028 2028 2040 2040 2040 2040 2053 2053 2053 2053 2053 2053 2053 2065 2065 2065 2065 2065 2065 2078 2078 2090 2090 1439 1439 1433 1433 1433 1427 1421 1421 1415 1415 1410 1410 1415 1415 1415 1421 1421 1421 1421 1421 1421 1993 1993 1993 1993 1993 1993 2005 2016 2005 2005 2005 2005 2016 2005 2005 1993 1981 1970 1970 1981 1993 2090 2103 2116 2116 2116 2116 2116 2129 2129 2129 2129 2143 3010 3037 3064 3064 3064 3064 3064 3064 3064 3064 3064 3064 3064 3064 3064 3064 3064 3064 3064 3092 3092 3092 3092 3092 3064 3064 3064 3092 3064 3064 3064 3037 3037 3037 3037 3037 1529 1529 1529 1529 1529 1529 1523 1523 1516 1509 1503 1503 1503 1503 1503 1503 1503 1503 1503 1503 1503 1503 1509 1516 1516 2984 2984 3010 2984 2984 3010 3010 3010 1785 1785 1785 1785 1785 1785 1776 1776 1776 1757 1757 1748 1748 1748 1748 1748 1748 1757 1766 1766 1766 1766 1766 1757 1757 1757 1757 1748 1748 3010 3037 3010 3010 3010 3010 3037 3037 3037 3037 3037 3037 3037 3037 3037 3037 3064 3037 3037 3010 3010 3010 3010 2984 2984 3010 3010 3010 3010 3010 3010 3010 3010 2984 2958 2958 2933 2933 2933 2933 2958 2958 2958 2984 2984 2984 2984 2984 2984 2984 2984 2984 2958 2958 2958 2958 2958 2958 2984 2984 2984 2984 2984 2958 2933 2933 0 0 0 0 0 0 0 0 0 0 0
0 0 0 0 0 0 0 0 0 0 0 0 0 0 0 0 0 0 0 0 0 0 0 0 0 0 0 0 0 0 0 0 2908 2908 2908 2908 2908 2908 2908 2908 2908 2908 2908 2908 2908 2908 2908 2908 2908 2908 2908 2908 2908 2908 2933 2933 2933 2933 2933 2933 2933 2933 2933 2933 2933 2933 2933 2958 2984 2984 2984 2958 2958 2958 2933 2933 2933 2908 2908 2933 2933 2933 2933 2933 2933 2933 2958 2933 2933 2933 2958 2958 2958 2933 2933 2933 2933 2933 2958 2958 2958 2958 2958 2958 2958 2958 2958 2958 2958 2984 2984 2984 2984 2984 2984 2984 2984 2984 2984 2958 2958 2984 2984 2984 2984 2984 2984 2984 2984 2958 2958 2958 2958 2958 2958 2958 2958 2958 2958 2958 2958 2958 2958 2958 2958 2958 2958 2958 2958 2958 2958 2958 2984 2984 2984 2984 2958 2958 2958 2958 2958 2958 2958 2958 2958 2958 2958 2958 2958 2984 2984 3010 3010 3010 3010 3010 3010 3010 2984 2984 2984 2984 2984 2065 2065 2065 2065 2065 2065 2078 2078 2078 2090 2090 2090 2090 0 1381 1381 1381 1381 1381 1387 1387 1392 1392 1392 1392 1398 1398 1398 1398 1398 1398 1398 1398 1404 1404 1404 1404 1410 1410 1410 1415 1415 1421 1421 1421 1421 1421 1427 1297 1297 1297 1297 1297 1297 1297 1297 1297 1297 1302 1307 1307 1312 1312 1312 1317 1312 1312 1317 1317 1317 1317 1322 1322 1322 1322 1328 1328 1328 1328 1328 1328 1328 1328 1328 1333 1333 1333 1333 1333 1333 1333 1333 1333 1333 1338 1338 1338 1338 1343 1349 1349 1349 1349 1349 1349 1349 1349 1349 1349 1354 1354 1354 1354 1354 1354 1354 1354 1489 1489 1489 1489 1489 1489 1489 1489 1489 1489 1489 1489 1496 1496 1496 1496 1496 1503 1503 1503 1509 1509 1509 1516 1509 1509 1509 1516 1516 1516 1516 1509 1509 1516 1516 1516 1516 1516 1516 1516 1439 1439 1433 1433 1427 1421 1421 1415 1415 1415 1415 1415 1415 1415 1421 1421 1421 1421 1421 1421 2016 2016 2016 2016 2016 2016 2016 2016 2016 2016 2016 2016 2016 2016 2016 2016 2016 2016 2016 2016 2016 2028 2028 2028 2028 2028 2028 2028 2028 2028 2040 2040 2053 2053 2053 2053 2053 2053 2053 2065 2065 2065 2065 2065 2065 2065 2065 2078 2090 2103 2103 1439 1439 1433 1433 1433 1427 1421 1421 1415 1415 1410 1410 1415 1415 1421 1421 1421 1421 1427 1427 1427 1970 1970 1970 1970 1970 1981 1981 1981 1981 1981 1981 1981 1970 1970 1970 1970 1970 1959 1959 1970 1970 1970 1970 2090 2103 2116 2129 2129 2129 2129 2129 2143 2984 2984 3010 3037 3037 3037 3037 3037 3064 3064 3064 3064 3064 3064 3064 3064 3064 3064 3064 3064 3064 3064 3064 3064 3064 3064 3064 3064 3064 3064 3064 3064 3037 3037 3064 3064 1529 1529 1529 1529 1529 1529 1529 1523 1516 1516 1509 1509 1509 1509 1509 1509 1509 1509 1509 1509 1509 1503 1503 1509 1509 2984 2984 2984 2984 2984 2984 2984 3010 3010 1785 1785 1785 1785 1785 1785 1776 1776 1776 1757 1757 1748 1748 1748 1748 1748 1748 1757 1766 1766 1776 1776 1766 1766 1766 1757 1757 1748 1748 3010 3010 3010 3010 3010 3010 3037 3037 3037 3037 3037 3037 3037 3037 3037 3037 3037 3037 3037 2984 2984 2984 2984 2984 2984 3010 3010 3010 3010 3010 3010 2984 2984 2958 2958 2933 2933 2933 2933 2933 2933 2933 2958 2958 2984 2984 2984 2984 2958 2958 2958 2958 2958 2958 2958 2958 2958 2958 2958 2958 2958 2958 2958 2933 2933 2933 0 0 0 0 0 0 0 0 0 0 0
0 0 0 0 0 0 0 0 0 0 0 0 0 0 0 0 0 0 0 0 0 0 0 0 0 0 0 0 0 0 0 0 2908 2908 2908 2908 2908 2908 2908 2908 2883 2883 2908 2908 2908 2908 2908 2908 2908 2908 2908 2908 2908 2908 2908 2908 2908 2908 2908 2908 2908 2908 2908 2908 2908 2908 2908 2933 2958 2958 2958 2933 2933 2933 2933 2908 2908 2908 2908 2908 2908 2908 2908 2908 2908 2908 2933 2933 2933 2933 2933 2933 2958 2933 2933 2933 2933 2933 2933 2933 2933 2958 2958 2958 2958 2958 2958 2958 2958 2958 2958 2984 2984 2984 2958 2958 2984 2958 2958 2958 2958 2958 2958 2984 2984 2984 2984 2984 2958 2958 2958 2958 2958 2958 2958 2958 2958 2958 2958 2958 2958 2958 2958 2958 2958 2958 2958 2958 2958 2958 2958 2958 2984 2984 2984 2984 2958 2958 2958 2958 2958 2958 2958 2958 2958 2958 2958 2958 2958 2984 2984 2984 3010 2984 2984 3010 2984 2984 2984 2984 2984 2984 2984 2065 2065 2065 2065 2065 2065 2078 2078 2078 2090 2090 2090 2090 0 1381 1381 1381 1381 1381 1387 1387 1392 1392 1392 1398 1398 1398 1398 1398 1398 1398 1398 1404 1404 1404 1404 1410 1410 1410 1415 1415 1415 1421 1421 1421 1421 1427 1427 1427 1297 1297 1297 1297 1297 1297 1297 1302 1302 1302 1307 1307 1312 1312 1317 1317 1317 1317 1317 1322 1322 1322 1322 1322 1328 1328 1328 1328 1328 1328 1328 1328 1333 1333 1333 1333 1333 1333 1333 1333 1333 1333 1333 1338 1338 1338 1338 1338 1343 1349 1349 1349 1349 1349 1349 1349 1349 1349 1349 1354 1354 1354 1354 1354 1354 1354 1489 1489 1489 1489 1489 1489 1489 1489 1489 1489 1489 1489 1489 1496 1496 1496 1496 1496 1496 1503 1503 1503 1509 1509 1509 1516 1509 1509 1509 1516 1516 1516 1516 1509 1509 1509 1516 1516 1516 1516 1516 1445 1439 1439 1433 1433 1427 1421 1421 1415 1415 1415 1415 1415 1415 1421 1421 1421 1421 1421 1421 1421 2016 2016 2016 2016 2016 2016 2016 2016 2016 2016 2016 2016 2016 2016 2016 2016 2016 2016 2016 2028 2028 2028 2028 2028 2028 2028 2028 2028 2028 2028 2040 2053 2053 2053 2053 2053 2053 2053 2053 2053 2053 2053 2053 2065 2053 2053 2065 2065 2078 2078 1445 1445 1445 1445 1439 1439 1427 1427 1421 1421 1415 1415 1415 1421 1421 1421 1427 1427 1427 1433 1427 1427 1959 1959 1959 1959 1959 1970 1970 1970 1970 1970 1970 1970 1970 1959 1959 1959 1959 1959 1959 1959 1959 1959 1959 1959 2103 2116 2129 2129 2129 2129 2129 2143 2984 2984 3010 2984 2984 2984 2984 3010 3037 3037 3064 3037 3037 3064 1509 1509 3037 3037 3037 3064 3064 3064 3064 1523 1523 1529 3064 3064 3064 3064 3064 3064 1529 1529 1529 1529 1529 1523 1523 1529 1529 1529 1523 1523 1516 1516 1509 1509 1509 1509 1509 1509 1509 1509 1509 1509 1509 1509 1509 1509 1509 2984 2984 2958 2958 2958 2958 2984 3010 3010 1794 1785 1785 1785 1785 1785 1776 1776 1776 1766 1757 1748 1748 1748 1748 1748 1748 1757 1766 1776 1776 1776 1776 1766 1766 1757 1757 1757 3010 3010 3010 2984 2984 2984 2984 3010 3010 3010 3010 3010 3010 3037 3037 3037 3037 3037 3037 3037 2984 2984 2984 2958 2958 2958 2958 2984 2984 2984 2984 2984 2984 2984 2958 2958 2933 2933 2933 2933 2933 2933 2933 2958 2958 2958 2958 2958 2958 2933 2933 2933 2933 2933 2933 2933 2933 2933 2933 2933 2933 2933 2958 2933 2933 2933 2933 0 0 0 0 0 0 0 0 0 0 0
0 0 0 0 0 0 0 0 0 0 0 0 0 0 0 0 0 0 0 0 0 0 0 0 0 0 0 0 0 0 0 0 2883 2883 2883 2883 2883 2883 2883 2883 2883 2883 2883 2883 2883 2883 2883 2883 2883 2883 2883 2883 2883 2908 2908 2908 2908 2908 2883 2883 2883 2883 2908 2908 2908 2908 2908 2908 2933 2933 2933 2908 2883 2883 2883 2883 2883 2883 2883 2883 2883 2883 2883 2883 2883 2883 2883 2883 2883 2883 2933 2933 2933 2933 2933 2933 2933 2908 2908 2933 2933 2933 2933 2933 2958 2958 2958 2958 2958 2958 2958 2958 2958 2958 2958 2958 2958 2958 2958 2958 2958 2958 2958 2958 2958 2958 2958 2958 2958 2958 2958 2958 2958 2958 2958 2958 2958 2958 2958 2958 2958 2958 2958 2958 2958 2958 2958 2958 2958 2958 2958 2958 2984 2984 2984 2984 2958 2958 2958 2958 2958 2958 2958 2958 2958 2958 2958 2958 2958 2958 2958 2984 2984 2984 2984 2984 2984 2958 2958 2958 2958 2958 2958 2065 2065 2065 2065 2065 2065 2078 2078 2078 2090 2090 2090 2090 2090 1381 1381 1381 1381 1387 1387 1392 1392 1392 1398 1398 1398 1398 1398 1398 1398 1398 1404 1404 1404 1404 1404 1410 1410 1410 1415 1415 1415 1421 1421 1421 1421 1421 1427 1297 1297 1297 1302 1302 1302 1302 1302 1302 1302 1302 1307 1312 1312 1317 1317 1317 1317 1317 1322 1322 1322 1322 1322 1328 1328 1328 1328 1328 1328 1333 1333 1333 1333 1333 1333 1333 1333 1333 1333 1333 1333 1333 1333 1338 1338 1338 1338 1338 1343 1349 1349 1349 1349 1349 1349 1349 1349 1349 1349 1354 1354 1354 1483 1483 1483 1489 1489 1489 1489 1489 1489 1489 1489 1489 1489 1489 1489 1496 1496 1496 1496 1496 1496 1496 1496 1936 1936 1936 1936 1947 1947 1947 1947 1947 1947 1959 1516 1516 1516 1509 1509 1509 1516 1516 1509 1509 1516 1445 1445 1439 1433 1433 1427 1421 1421 1415 1415 1415 1415 1421 1421 1421 1427 1427 1427 1427 1427 1427 1427 2016 2016 2016 2016 2016 2016 2016 2016 2016 2016 2016 2016 2016 2016 2016 2016 2016 2028 2028 2028 2040 2040 2040 2040 2040 2040 2028 2028 2028 2040 2053 2053 2040 2040 2040 2040 2053 2040 2040 2053 2053 2053 2053 2040 1970 1959 1959 1970 1970 1445 1445 1445 1445 1439 1439 1427 1427 1427 1421 1421 1421 1421 1421 1427 1427 1427 1427 1427 1433 1433 1433 1947 1947 1959 1959 1959 1959 1959 1959 1959 1959 1959 1959 1959 1959 1959 1947 1947 1947 1947 1959 1947 1947 1959 1959 2103 2116 2129 2129 2129 2129 2143 2984 2984 2984 2984 2984 2984 2984 2984 2984 3037 3037 3064 3037 1503 1503 1503 1503 1509 1509 1509 1509 1516 1509 1509 1516 1523 1523 1516 1516 1516 1523 1523 1523 1523 1523 1529 1529 1529 1523 1523 1529 1529 1529 1523 1523 1516 1516 1509 1509 1509 1509 1509 1509 1509 1509 1509 1509 1509 1509 1509 1509 2984 2984 2984 2958 2958 2958 2958 2984 2984 1785 1785 1785 1785 1785 1785 1785 1776 1776 1766 1766 1757 1757 1748 1748 1748 1748 1757 1766 1766 1776 1776 1776 1776 1766 1766 1757 1757 1757 2958 3010 3010 2984 2984 2984 2984 2984 2984 3010 2984 2984 3010 3010 3010 3010 3010 3010 3010 3010 2958 2958 2958 2958 2958 2958 2958 2958 2984 2984 2984 2958 2958 2958 2958 2958 2933 2933 2933 2933 2933 2933 2933 2958 2958 2958 2958 2933 2933 2933 2933 2933 2933 2908 2908 2908 2933 2908 2908 2933 2933 2933 2933 2933 2933 2908 2908 0 0 0 0 0 0 0 0 0 0 0
0 0 0 0 0 0 0 0 0 0 0 0 0 0 0 0 0 0 0 0 0 0 0 0 0 0 0 0 0 0 0 0 2883 2859 2859 2859 2859 2859 2883 2883 2883 2883 2883 2883 2883 2883 2883 2883 2883 2883 2883 2883 2883 2883 2883 2883 2883 2883 2883 2883 2883 2883 2883 2883 2883 2883 2883 2883 2908 2908 2908 2883 2883 2883 2883 2883 2883 2883 2859 2859 2883 2883 2883 2883 2883 2883 2883 2883 2883 2883 2883 2883 2908 2908 2908 2908 2908 2883 2883 2883 2883 2883 2883 2908 2908 2908 2908 2908 2908 2908 2908 2908 2933 2933 2933 2933 2958 2958 2958 2958 2958 2958 2958 2958 2958 2958 2958 2958 2958 2958 2958 2958 2958 2958 2958 2958 2958 2958 2958 2958 2958 2958 2958 2958 2958 2958 2958 2958 2958 2958 2958 2958 2958 2984 2984 2984 2958 2958 2958 2958 2933 2933 2933 2933 2933 2933 2933 2958 2958 2958 2958 2958 2958 2958 2958 2958 2958 2958 2958 2958 2958 2958 2958 2065 2065 2065 2065 2065 2078 2078 2078 2078 2090 2090 2090 2090 2090 1381 1381 1381 1387 1387 1392 1392 1392 1392 1398 1398 1398 1398 1398 1398 1398 1404 1404 1404 1404 1404 1404 1410 1410 1415 1415 1421 1421 1421 1421 1421 1421 1421 1427 1297 1297 1302 1302 1302 1302 1302 1302 1302 1302 1307 1307 1312 1312 1317 1317 1322 1317 1317 1322 1322 1322 1322 1322 1328 1328 1328 1328 1328 1333 1333 1333 1333 1333 1333 1333 1333 1333 1333 1333 1333 1333 1338 1338 1338 1338 1338 1338 1338 1343 1349 1349 1349 1470 1477 1477 1477 1477 1477 1483 1477 1477 1483 1483 1483 1483 1483 1483 1483 1489 1489 1489 1489 1489 1489 1496 1496 1496 1496 1496 1496 1496 1496 1496 1936 1936 1936 1936 1936 1947 1947 1947 1947 1947 1947 1959 1959 1959 1947 1947 1959 1509 1509 1516 1516 1509 1509 1509 1439 1439 1439 1439 1433 1433 1427 1421 1421 1421 1421 1421 1421 1427 1427 1427 1427 1427 1427 1433 0 0 0 2028 2016 2016 2016 2016 2016 2016 2016 2016 2016 2016 2016 2016 2016 2016 2016 2016 2028 2028 2028 2028 2040 2040 2040 2040 2028 2028 2028 2040 2040 2040 2040 2040 2016 2016 2040 2016 1970 1970 1970 1970 1959 1959 1959 1959 1959 1970 1970 1445 1445 1445 1445 1439 1439 1427 1427 1427 1427 1421 1421 1421 1427 1427 1427 1427 1427 1427 1433 1433 1433 1926 1947 1947 1947 1947 1959 1959 1959 1959 1959 1959 1959 1947 1947 1947 1947 1947 1947 1947 1947 1947 1947 1959 1959 1959 2129 2129 2143 2143 2984 2984 2984 2984 2984 2984 2958 1503 1503 2958 2984 2984 1503 1503 1503 1503 1503 1503 1503 1509 1509 1509 1509 1509 1509 1509 1516 1516 1516 1516 1516 1516 1523 1523 1523 1523 1523 1529 1529 1529 1523 1523 1529 1529 1523 1523 1523 1523 1516 1516 1516 1516 1516 1509 1509 1516 1516 1516 1509 1509 1509 1516 1516 2984 2984 2984 2958 2958 2958 2958 2984 2984 1794 1785 1785 1785 1785 1785 1776 1776 1766 1757 1757 1748 1748 1748 1748 1748 1748 1757 1766 1766 1776 1776 1776 1776 1766 1766 1757 1757 2958 2958 2984 2984 2984 2984 2984 2984 2984 2984 2984 2984 2984 2984 3010 2984 2984 2984 2984 3010 2984 2958 2958 2958 2958 2958 2933 2933 2958 2958 2958 2958 2958 2958 2933 2933 2933 2933 2933 2908 2908 2933 2933 2933 2933 2933 2933 2933 2908 2908 2908 2908 2908 2908 2908 2908 2908 2908 2908 2908 2908 2908 2933 2933 2933 2908 2908 2908 0 0 0 0 0 0 0 0 0 0 0
0 0 0 0 0 0 0 0 0 0 0 0 0 0 0 0 0 0 0 0 0 0 0 0 0 0 0 0 0 0 0 0 2859 2835 2835 2835 2859 2859 2859 2859 2859 2859 2883 2859 2859 2859 2859 2859 2859 2859 2859 2859 2883 2883 2883 2883 2883 2883 2883 2883 2883 2883 2883 2883 2883 2883 2883 2883 2883 2883 2883 2883 2859 2859 2883 2859 2859 2859 2859 2859 2883 2883 2859 2859 2859 2859 2883 2859 2859 2859 2883 2883 2883 2883 2883 2883 2883 2883 2883 2883 2883 2883 2883 2883 2883 2883 2883 2908 2908 2908 2908 2908 2908 2933 2933 2933 2933 2933 2908 2908 2908 2908 2933 2933 2933 2933 2933 2958 2958 2933 2933 2933 2933 2933 2933 2933 2958 2958 2958 2958 2958 2958 2958 2958 2958 2958 2958 2958 2958 2958 2958 2958 2958 2984 2984 2984 2958 2958 2933 2933 2933 2933 2933 2933 2933 2933 2933 2933 2933 2958 2958 2958 2958 2958 2958 2958 2958 2958 2958 2958 2958 2958 2958 2078 2065 2065 2065 2065 2078 2078 2078 2090 2090 2090 2090 2090 2090 1387 1387 1387 1387 1387 1387 1392 1392 1392 1398 1398 1398 1398 1398 1398 1404 1404 1404 1404 1404 1404 1410 1410 1415 1415 1415 1421 1421 1421 1421 1421 1421 1427 1427 1297 1297 1302 1302 1307 1302 1302 1302 1307 1307 1307 1312 1312 1317 1317 1322 1322 1322 1322 1322 1322 1322 1322 1322 1328 1328 1328 1328 1328 1333 1333 1333 1333 1333 1333 1333 1333 1333 1333 1333 1333 1333 1338 1338 1338 1338 1338 1338 1464 1464 1464 1464 1464 1470 1477 1477 1477 1477 1477 1483 1477 1477 1483 1483 1483 1483 1483 1483 1483 1483 1489 1489 1489 1489 1489 1496 1496 1496 1496 1496 1496 1496 1496 1936 1936 1936 1936 1936 1936 1947 1947 1947 1947 1959 1959 1959 1959 1959 1947 1947 1947 1947 1947 1947 1947 1947 0 0 1439 1439 1439 1433 1433 1433 1427 1427 1421 1421 1421 1427 1427 1427 1427 1433 1433 1433 1433 1433 0 0 0 2016 2016 2016 2016 2016 2016 2016 2005 2005 2005 2005 2005 2005 2005 2005 2005 2016 2016 2016 2016 2016 2028 1993 1970 1970 1970 1970 1970 1970 1970 1970 1970 1970 1970 1970 1970 1970 1959 1947 1936 1936 1947 1947 1947 1947 1959 1959 1959 1452 1452 1445 1445 1445 1439 1433 1427 1427 1427 1427 1427 1427 1427 1427 1427 1427 1427 1433 1433 1433 1915 1926 1936 1936 1947 1947 1947 1947 1947 1947 1947 1947 1947 1947 1947 1947 1947 1947 1947 1947 1947 1947 1947 1947 1959 1959 2129 2129 2129 2129 3010 2984 1509 1509 1509 1503 1496 1496 1503 1503 1503 1489 1489 1489 1489 1496 1503 1503 1503 1509 1509 1509 1509 1509 1509 1509 1516 1516 1516 1516 1516 1516 1516 1516 1523 1523 1523 1529 1529 1529 1523 1523 1523 1523 1523 1523 1523 1523 1523 1516 1516 1516 1516 1516 1516 1516 1516 1516 1516 1516 1516 1523 1523 2984 2984 2984 2958 2958 2958 2958 2984 2984 1794 1794 1794 1794 1785 1785 1776 1766 1766 1757 1757 1748 1748 1748 1748 1748 1748 1757 1766 1766 1776 1776 1776 1776 1766 1766 1757 1757 2933 2933 2958 2958 2958 2958 2958 2958 2958 2984 2984 2958 2958 2958 2984 2958 2958 2958 2958 2958 2958 2933 2933 2933 2933 2933 2933 2933 2933 2933 2933 2933 2933 2933 2933 2933 2933 2933 2908 2908 2908 2908 2908 2933 2933 2933 2908 2908 2908 2908 2908 2883 2883 2883 2883 2883 2908 2908 2908 2908 2908 2908 2933 2908 2908 2908 2908 2908 0 0 0 0 0 0 0 0 0 0 0
0 0 0 0 0 0 0 0 0 0 0 0 0 0 0 0 0 0 0 0 0 0 0 0 0 0 0 0 0 0 0 0 2859 2835 2835 2835 2835 2859 2859 2859 2859 2859 2859 2859 2859 2859 2835 2835 2835 2835 2835 2859 2859 2859 2859 2859 2883 2883 2859 2859 2883 2883 2859 2859 2859 2859 2859 2859 2859 2859 2859 2859 2859 2859 2859 2859 2859 2859 2859 2859 2859 2859 2859 2859 2859 2859 2859 2859 2859 2859 2859 2859 2883 2883 2883 2883 2883 2883 2883 2883 2883 2883 2883 2883 2883 2883 2883 2883 2883 2908 2908 2908 2908 2908 2908 2908 2908 2908 2908 2908 2908 2908 2908 2908 2908 2908 2908 2908 2933 2933 2933 2933 2933 2933 2933 2933 2933 2933 2933 2933 2933 2933 2933 2933 2958 2958 2958 2958 2958 2958 2958 2958 2958 2958 2958 2958 2933 2933 2933 2933 2933 2933 2933 2933 2933 2933 2933 2933 2933 2933 2933 2933 2933 2933 2933 2958 2958 2958 2958 2958 2958 2958 2958 2090 2078 2078 2078 2078 2078 2078 2078 2090 2090 2090 2090 2090 2090 2090 1387 1387 1387 1387 1387 1392 1392 1392 1398 1398 1398 1398 1398 1398 1404 1404 1404 1404 1404 1410 1410 1410 1415 1415 1415 1421 1421 1421 1421 1421 1421 1427 1427 1427 1302 1302 1302 1307 1307 1307 1307 1307 1307 1307 1312 1312 1317 1322 1322 1322 1322 1322 1445 1445 1445 1452 1452 1445 1445 1328 1328 1328 1333 1333 1333 1458 1458 1458 1464 1464 1464 1464 1333 1333 1333 1338 1338 1338 1338 1338 1470 1470 1470 1470 1470 1470 1477 1477 1477 1477 1477 1477 1483 1477 1477 1477 1483 1483 1483 1483 1483 1483 1483 1483 1483 1483 1489 1489 1496 1496 1496 1496 1503 1926 1926 1926 1926 1936 1936 1936 1936 1947 1947 1959 1959 1959 1959 1959 1959 1959 1959 1947 1947 1947 1947 1947 1947 0 0 0 0 1439 1439 1439 1433 1433 1433 1433 1427 1427 1427 1427 1427 1427 1433 1433 1433 1433 1433 1433 1433 1433 0 0 0 2005 2005 2005 2005 2005 2005 2005 2005 2005 2005 2005 2005 2005 2005 2005 2005 1970 1970 2016 1926 1926 1926 1926 1936 1936 1936 1947 1947 1947 1959 1959 1959 1959 1959 1959 1947 1936 1936 1936 1936 1936 1936 1936 1936 1947 1947 1947 1452 1452 1445 1445 1445 1439 1433 1427 1427 1427 1427 1427 1427 1427 1427 1427 1427 1433 1433 1433 1433 1915 1915 1915 1926 1936 1936 1947 1947 1947 1947 1947 1947 1947 1936 1936 1947 1947 1947 1947 1947 1947 1947 1947 1947 1947 1959 1503 1503 1503 2116 1503 1503 1503 1503 1496 1496 1496 1496 1496 1489 1489 1489 1489 1489 1489 1496 1503 1503 1503 1509 1509 1509 1509 1509 1509 1509 1516 1516 1516 1516 1516 1516 1516 1516 1516 1516 1523 1523 1529 1529 1523 1523 1523 1523 1523 1523 1523 1523 1523 1523 1523 1523 1523 1516 1516 1516 1516 1523 1516 1516 1516 1523 1523 2958 2958 2958 2958 2958 2958 2958 2958 2958 1794 1794 1794 1794 1785 1785 1776 1766 1766 1757 1757 1748 1748 1748 1748 1748 1757 1766 1766 1776 1776 1776 1776 1776 1776 1766 1766 1766 2933 2933 2933 2933 2933 2933 2933 2933 2958 2958 2958 2933 2933 2933 2933 2933 2958 2958 2958 2958 2958 2933 2933 2933 2933 2933 2933 2933 2933 2933 2933 2933 2908 2908 2908 2908 2908 2908 2908 2908 2908 2908 2908 2908 2933 2908 2908 2908 2883 2883 2883 2883 2883 2883 2883 2883 2883 2883 2883 2883 2908 2908 2908 2908 2908 2908 2883 2883 0 0 0 0 0 0 0 0 0 0 0
0 0 0 0 0 0 0 0 0 0 0 0 0 0 0 0 0 0 0 0 0 0 0 0 0 0 0 0 0 0 0 0 2835 2812 2812 2835 2835 2835 2835 2835 2859 2859 2859 2835 2835 2835 2835 2835 2835 2835 2835 2835 2859 2835 2835 2859 2859 2859 2859 2859 2859 2883 2859 2859 2859 2859 2859 2859 2859 2859 2859 2859 2835 2835 2835 2859 2859 2859 2859 2859 2859 2859 2859 2859 2859 2859 2859 2859 2859 2859 2859 2859 2859 2859 2883 2883 2883 2883 2883 2883 2883 2883 2883 2883 2883 2883 2883 2883 2883 2883 2883 2908 2883 2883 2883 2883 2883 2883 2883 2883 2883 2883 2908 2908 2908 2883 2883 2908 2908 2908 2908 2908 2908 2933 2933 2933 2933 2933 2933 2933 2933 2933 2933 2933 2933 2933 2933 2933 2933 2933 2933 2933 2958 2958 2958 2958 2933 2933 2933 2908 2908 2908 2908 2908 2908 2908 2908 2908 2908 2933 2933 2908 2908 2908 2908 2933 2933 2933 2933 2933 2933 2933 2933 2078 2078 2078 2078 2078 2078 2078 2090 2090 2090 2090 2090 2090 2090 2090 1387 1387 1387 1392 1392 1392 1398 1398 1398 1398 1398 1398 1398 1398 1404 1404 1404 1404 1404 1410 1410 1415 1415 1415 1421 1421 1421 1421 1421 1421 1427 1427 1427 1427 1302 1302 1307 1307 1307 1307 1307 1307 1307 1312 1312 1312 1317 1322 1322 1328 1328 1445 1445 1445 1445 1445 1445 1445 1445 1445 1445 1445 1452 1452 1452 1458 1458 1458 1458 1464 1464 1464 1464 1464 1464 1464 1464 1470 1470 1470 1470 1470 1470 1470 1470 1470 1470 1477 1477 1477 1477 1477 1483 1477 1477 1477 1904 1904 1483 1483 1483 1483 1483 1483 1483 1483 1489 1915 1915 1915 1915 1915 1915 1915 1915 1915 1926 1926 1926 1926 1936 1936 1947 1959 1959 1959 1959 1970 1970 1970 1970 1959 1959 1959 1947 1947 1947 0 0 0 0 1439 1439 1439 1439 1439 1433 1433 1427 1427 1427 1433 1433 1433 1433 1433 1433 1433 1433 1433 0 0 0 0 0 1993 1993 2005 2005 2005 2005 2005 2005 2005 1993 1970 1959 1959 1947 1947 1926 1926 1926 1926 1926 1926 1926 1926 1926 1926 1936 1936 1936 1936 1936 1936 1947 1947 1947 1936 1936 1936 1936 1926 1926 1926 1936 1936 1936 1936 1936 1936 1452 1452 1452 1452 1445 1439 1433 1433 1427 1427 1427 1427 1427 1427 1427 1427 1427 1433 1433 1433 1439 1915 1915 1915 1926 1936 1936 1947 1947 1947 1947 1947 1947 1947 1936 1936 1936 1947 1936 1936 1947 1947 1947 1947 1947 1947 2129 1496 1496 1489 1489 1489 1489 1496 1496 1496 1489 1489 1489 1489 1489 1489 1489 1489 1489 1489 1496 1496 1496 1503 1503 1509 1509 1509 1509 1509 1509 1509 1509 1509 1509 1509 1509 1509 1509 1516 1516 1523 1523 1529 1529 1523 1523 1523 1523 1523 1523 1523 1523 1523 1523 1523 1523 1523 1523 1523 1523 1523 1523 1523 1523 1523 1523 2958 2958 2958 2958 2958 2958 2958 2958 2958 2958 1794 1794 1794 1794 1785 1785 1776 1766 1766 1757 1757 1748 1748 1748 1757 1757 1757 1766 1766 1776 1776 1776 1776 1776 1776 1776 1776 1776 2933 2933 2933 2933 2933 2933 2933 2933 2933 2933 2933 2933 2933 2933 2933 2933 2933 2958 2958 2933 2933 2908 2908 2908 2908 2908 2908 2908 2908 2908 2908 2908 2908 2908 2908 2883 2883 2883 2883 2908 2908 2883 2883 2908 2908 2908 2883 2883 2883 2859 2859 2859 2859 2883 2883 2883 2883 2883 2883 2883 2883 2883 2908 2908 2908 2883 2859 2859 0 0 0 0 0 0 0 0 0 0 0
0 0 0 0 0 0 0 0 0 0 0 0 0 0 0 0 0 0 0 0 0 0 0 0 0 0 0 0 0 0 0 0 2812 2812 2812 2812 2812 2835 2835 2835 2859 2859 2859 2835 2835 2835 2835 2835 2835 2835 2835 2835 2835 2835 2835 2835 2835 2859 2859 2859 2859 2859 2835 2835 2835 2835 2835 2835 2835 2835 2835 2835 2812 2812 2835 2835 2835 2859 2859 2859 2859 2859 2859 2835 2835 2835 2835 2835 2835 2835 2835 2859 2859 2859 2859 2859 2859 2859 2859 2859 2859 2859 2859 2859 2859 2859 2859 2859 2859 2883 2883 2883 2883 2883 2883 2883 2883 2883 2883 2883 2883 2883 2883 2883 2883 2883 2883 2883 2883 2908 2908 2908 2908 2908 2933 2908 2908 2908 2908 2908 2908 2908 2908 2908 2933 2933 2933 2933 2933 2908 2908 2933 2933 2933 2933 2933 2908 2908 2908 2908 2908 2883 2883 2883 2883 2883 2883 2883 2883 2908 2908 2908 2908 2883 2883 2908 2908 2908 2908 2933 2908 2908 2908 2078 2078 2078 2078 2078 2078 2078 2090 2090 2090 2090 2090 2090 2090 2090 1392 1392 1392 1392 1392 1398 1398 1398 1398 1398 1398 1398 1398 1398 1404 1404 1404 1404 1410 1410 1410 1415 1415 1421 1421 1421 1421 1427 1427 1427 1427 1427 1427 1427 1302 1302 1307 1307 1307 1307 1307 1307 1307 1312 1312 1317 1317 1322 1322 1322 1328 1439 1439 1445 1445 1445 1445 1445 1445 1445 1445 1445 1452 1452 1452 1452 1458 1458 1458 1464 1464 1464 1464 1464 1464 1464 1464 1470 1470 1470 1470 1470 1470 1470 1464 1464 1470 1477 1477 1477 1483 1483 1483 1477 1477 1904 1904 1904 1904 1915 1915 1904 1904 1904 1915 1915 1915 1915 1915 1915 1915 1915 1915 1915 1915 1915 1915 1926 1926 1926 1926 1936 1936 1959 1959 1959 1959 1970 1970 1970 1970 1959 1959 1959 1959 0 0 0 0 0 0 1445 1445 1445 1439 1439 1439 1433 1433 1433 1433 1433 1433 1433 1433 1433 1433 1433 1433 0 0 0 0 0 0 1926 1926 1936 1993 1936 1936 1936 1936 1936 1926 1926 1926 1926 1936 1926 1926 1926 1926 1926 1926 1926 1926 1926 1926 1926 1926 1926 1926 1926 1926 1926 1936 1936 1936 1926 1926 1926 1926 1926 1926 1926 1926 1926 1926 1936 1936 1936 1458 1452 1452 1452 1445 1439 1433 1433 1433 1427 1427 1427 1427 1427 1433 1433 1433 1433 1433 1439 1439 1904 1915 1915 1915 1936 1936 1947 1947 1947 1936 1936 1947 1947 1936 1477 1477 1483 1477 1477 1477 1477 1477 1483 1947 1483 1483 1489 1489 1489 1489 1489 1489 1496 1489 1489 1489 1489 1489 1489 1489 1489 1489 1489 1489 1489 1496 1496 1496 1503 1503 1509 1509 1509 1509 1509 1509 1509 1509 1509 1509 1509 1509 1509 1509 1516 1516 1523 1523 1529 1529 1523 1523 1523 1523 1523 1523 1523 1523 1523 1523 1523 1523 1523 1523 1523 1523 1523 1523 1523 1523 1523 1523 2933 2933 2933 2933 2933 2958 2958 2958 2958 1794 1794 1794 1794 1794 1785 1785 1776 1766 1766 1757 1757 1748 1748 1757 1757 1757 1766 1766 1776 1776 1776 1776 1776 1776 1776 1776 1785 2933 2933 2933 2933 2933 2933 2933 2908 2908 2933 2933 2933 2933 2933 2933 2933 2933 2933 2958 2933 2933 2933 2908 2908 2908 2908 2908 2908 2908 2883 2883 2883 2883 2883 2883 2883 2859 2859 2859 2859 2859 2883 2859 2859 2883 2883 2883 2883 2883 2883 2859 2859 2859 2859 2859 2859 2859 2859 2859 2859 2859 2859 2859 2859 2859 2859 2859 2835 2835 0 0 0 0 0 0 0 0 0 0 0
0 0 0 0 0 0 0 0 0 0 0 0 0 0 0 0 0 0 0 0 0 0 0 0 0 0 0 0 0 0 0 0 2812 2812 2812 2812 2812 2812 2812 2835 2835 2835 2835 2835 2835 2812 2812 2812 2812 2812 2812 2812 2812 2812 2812 2812 2812 2835 2835 2835 2835 2835 2835 2835 2835 2835 2835 2835 2835 2835 2835 2835 2812 2812 2835 2835 2835 2835 2835 2835 2859 2835 2835 2835 2835 2835 2835 2835 2835 2835 2835 2835 2859 2859 2859 2859 2859 2859 2859 2859 2859 2859 2859 2859 2859 2859 2859 2859 2859 2859 2883 2883 2859 2859 2883 2859 2859 2859 2883 2883 2883 2883 2883 2883 2883 2883 2883 2883 2883 2883 2883 2883 2883 2908 2908 2883 2883 2883 2883 2883 2908 2908 2908 2908 2908 2933 2933 2908 2908 2908 2908 2908 2908 2908 2908 2908 2908 2908 2883 2883 2883 2859 2859 2859 2859 2883 2883 2883 2883 2883 2883 2883 2883 2883 2883 2908 2908 2908 2908 2908 2908 2908 2908 2090 2090 2078 2078 2078 2078 2078 2090 2090 2090 2090 2090 2090 2090 1392 1392 1392 1392 1398 1398 1398 1398 1398 1398 1398 1398 1404 1404 1404 1404 1404 1404 1410 1410 1410 1415 1415 1415 1421 1421 1421 1421 1427 1427 1427 1427 1427 1427 1427 1302 1302 1307 1307 1307 1307 1312 1312 1312 1312 1312 1317 1317 1322 1322 1322 1439 1439 1439 1439 1445 1445 1445 1445 1445 1445 1445 1445 1445 1452 1452 1452 1452 1458 1458 1458 1464 1464 1464 1464 1464 1464 1464 1464 1464 1470 1470 1464 1464 1470 1464 1464 1894 1894 1894 1489 1483 1483 1489 1904 1904 1904 1904 1904 1904 1904 1904 1904 1904 1904 1904 1915 1904 1904 1915 1915 1915 1904 1904 1904 1904 1904 1904 1915 1915 1915 1926 1936 1936 1947 1959 1959 1970 1970 1970 1970 1970 1959 1959 1959 1959 0 0 0 0 0 0 1445 1445 1445 1445 1439 1439 1439 1433 1433 1433 1433 1433 1433 1433 1433 1433 1439 1439 0 0 1883 1883 0 1904 1904 1904 1904 1904 1915 1915 1915 1915 1915 1915 1926 1926 1926 1926 1926 1926 1926 1926 1926 1926 1926 1926 1915 1915 1915 1915 1915 1926 1926 1926 1926 1926 1926 1926 1926 1926 1915 1915 1926 1926 1926 1926 1926 1926 1926 1926 1926 1458 1458 1452 1452 1445 1445 1433 1433 1433 1433 1427 1427 1427 1433 1433 1433 1433 1433 1433 1439 1439 1452 1904 1915 1915 1915 1936 1936 1936 1947 1936 1489 1483 1483 1483 1477 1477 1483 1477 1477 1477 1477 1477 1483 1483 1483 1483 1483 1483 1483 1483 1483 1489 1489 1489 1489 1489 1489 1489 1489 1489 1489 1489 1489 1489 1489 1496 1496 1496 1503 1503 1509 1509 1509 1509 1509 1509 1509 1509 1509 1509 1509 1509 1509 1509 1516 1516 1523 1523 1529 1529 1523 1523 1529 1529 1529 1529 1529 1523 1523 1523 1523 1523 1523 1523 1523 1523 1523 1523 1523 1523 1523 1523 2908 2908 2908 2933 2933 2958 2958 2958 2958 1794 1794 1794 1794 1794 1785 1785 1776 1766 1766 1757 1757 1748 1748 1757 1757 1766 1766 1766 1776 1776 1776 1776 1776 1776 1776 1785 1785 2908 2908 2908 2908 2908 2908 2908 2908 2908 2908 2908 2908 2908 2933 2933 2933 2933 2933 2933 2933 2933 2933 2883 2883 2883 2883 2883 2883 2883 2883 2883 2883 2859 2859 2883 2883 2859 2859 2859 2859 2859 2859 2859 2859 2859 2859 2859 2859 2859 2859 2859 2835 2835 2835 2835 2835 2835 2835 2835 2835 2859 2835 2835 2835 2835 2835 2835 2835 2835 0 0 0 0 0 0 0 0 0 0 0
0 0 0 0 0 0 0 0 0 0 0 0 0 0 0 0 0 0 0 0 0 0 0 0 0 0 0 0 0 0 0 0 2812 2812 2812 2812 2812 2812 2812 2812 2835 2835 2835 2812 2812 2812 2812 2812 2812 2812 2812 2812 2812 2812 2812 2812 2812 2812 2812 2835 2835 2835 2835 2812 2812 2812 2812 2812 2812 2835 2835 2812 2812 2812 2812 2812 2812 2812 2812 2812 2812 2835 2835 2812 2812 2812 2835 2835 2835 2835 2835 2835 2859 2859 2835 2835 2835 2835 2835 2835 2835 2835 2835 2835 2835 2835 2835 2835 2835 2859 2859 2859 2859 2859 2859 2859 2859 2859 2859 2859 2859 2859 2859 2859 2883 2883 2883 2883 2883 2883 2883 2883 2883 2883 2883 2883 2883 2883 2883 2883 2883 2883 2883 2883 2908 2908 2908 2883 2883 2883 2883 2883 2883 2883 2883 2908 2883 2883 2859 2859 2859 2859 2859 2859 2859 2859 2859 2859 2859 2859 2859 2859 2859 2859 2859 2883 2883 2883 2883 2883 2883 2883 2883 2090 2090 2090 2090 2090 2090 2090 2090 2090 2090 2090 2090 2090 2090 2090 1398 1398 1398 1398 1398 1398 1398 1404 1404 1398 1398 1404 1404 1404 1404 1404 1404 1410 1410 1415 1415 1415 1421 1421 1421 1421 1427 1427 1427 1427 1427 1427 1433 1433 1307 1307 1307 1307 1312 1312 1312 1312 1312 1317 1317 1317 1317 1317 1317 1322 1322 1439 1439 1439 1445 1445 1445 1445 1445 1445 1445 1445 1445 1452 1452 1452 1452 1452 1458 1458 1464 1464 1464 1464 1464 1464 1464 1464 1464 1470 1470 1464 1464 1470 1883 1883 1894 1894 1894 1894 1894 1894 1894 1904 1904 1904 1904 1904 1904 1904 1904 1894 1894 1904 1904 1904 1904 1904 1904 1904 1904 1904 1904 1904 1904 1904 1904 1904 1904 1904 1926 1926 1936 1947 1959 1959 1970 1970 1970 1970 1970 1959 1959 1959 1959 0 0 0 0 0 0 0 1452 1445 1445 1439 1439 1439 1433 1433 1433 1433 1433 1433 1439 1439 1439 1439 1439 1439 0 1883 1883 1883 1883 1894 1894 1894 1894 1904 1904 1915 1904 1904 1904 1915 1915 1915 1915 1915 1915 1915 1915 1915 1915 1915 1915 1915 1915 1915 1915 1915 1915 1915 1915 1915 1915 1915 1915 1915 1915 1915 1915 1915 1915 1915 1915 1915 1915 1915 1926 1926 1458 1458 1452 1452 1445 1445 1433 1433 1433 1433 1433 1433 1433 1433 1433 1433 1433 1439 1439 1439 1445 1452 1904 1915 1915 1915 1936 1936 1483 1483 1483 1483 1483 1483 1477 1477 1477 1477 1477 1477 1477 1477 1477 1483 1483 1483 1483 1483 1483 1483 1483 1483 1489 1489 1489 1483 1483 1483 1489 1489 1489 1489 1489 1489 1489 1489 1496 1496 1496 1503 1503 1509 1509 1509 1509 1509 1509 1509 1509 1509 1509 1509 1516 1516 1516 1516 1523 1523 1523 1529 1529 1523 1523 1529 1529 1529 1529 1523 1523 1523 1523 1523 1523 1523 1523 1523 1523 1523 1523 1523 1523 1523 1523 2883 2883 2883 2908 2908 2933 2933 2933 2933 1794 1794 1794 1794 1794 1785 1785 1776 1766 1766 1757 1757 1757 1757 1757 1757 1766 1766 1776 1776 1776 1776 1776 1776 1776 1776 1785 2908 2908 2908 2908 2908 2908 2908 2908 2883 2883 2883 2883 2883 2883 2908 2908 2933 2933 2933 2933 2933 2908 2908 2883 2883 2883 2883 2883 2883 2883 2859 2859 2859 2859 2859 2859 2859 2859 2859 2859 2835 2835 2835 2835 2835 2859 2859 2859 2859 2859 2835 2835 2835 2835 2835 2835 2835 2835 2835 2835 2835 2835 2835 2835 2835 2835 2835 2835 2835 2835 0 0 0 0 0 0 0 0 0 0 0
0 0 0 0 0 0 0 0 0 0 0 0 0 0 0 0 0 0 0 0 0 0 0 0 0 0 0 0 0 0 0 0 2812 2812 2812 2812 2812 2812 2812 2812 2812 2835 2812 2812 2812 2812 2812 2812 2789 2789 2789 2789 2789 2789 2789 2789 2812 2812 2812 2812 2835 2812 2812 2812 2812 2812 2812 2812 2812 2812 2812 2812 2789 2789 2812 2812 2812 2812 2812 2812 2812 2812 2812 2812 2812 2812 2812 2812 2812 2835 2835 2835 2835 2835 2835 2812 2812 2812 2812 2812 2835 2835 2835 2835 2835 2835 2812 2812 2835 2835 2859 2859 2859 2859 2859 2859 2859 2859 2859 2859 2859 2859 2859 2859 2883 2859 2859 2883 2883 2883 2883 2883 2883 2883 2883 2883 2859 2859 2859 2859 2883 2883 2883 2883 2883 2883 2883 2883 2883 2883 2883 2883 2883 2883 2883 2883 2859 2859 2859 2859 2859 2859 2859 2835 2835 2859 2859 2859 2859 2859 2859 2859 2859 2859 2859 2859 2859 2859 2859 2883 2859 2859 2859 2090 2090 2090 2090 2090 2090 2090 2090 2090 2090 2090 2090 2090 2090 2090 1398 1398 1398 1398 1398 1398 1398 1404 1404 1398 1398 1404 1404 1404 1404 1404 1410 1410 1410 1415 1421 1421 1421 1421 1421 1421 1427 1427 1427 1427 1427 1427 1433 1433 1439 1307 1307 1312 1312 1312 1312 1317 1317 1317 1317 1317 1317 1317 1317 1322 1322 1439 1439 1439 1439 1445 1445 1445 1445 1445 1445 1445 1445 1452 1452 1452 1452 1452 1458 1464 1464 1464 1464 1464 1464 1464 1464 1883 1883 1883 1883 1883 1883 1883 1883 1883 1883 1883 1883 1894 1894 1894 1894 1894 1894 1894 1894 1894 1894 1894 1894 1894 1894 1894 1894 1894 1894 1894 1894 1894 1894 1894 1894 1894 1894 1894 1894 1894 1894 1904 1915 1926 1936 1959 1959 1959 1970 1970 1970 1970 1970 1959 1959 1959 1959 0 0 0 0 0 0 0 1458 1452 1445 1439 1439 1439 1433 1433 1433 1433 1433 1433 1439 1439 1439 1439 1439 1439 1873 1873 1873 1883 1883 1883 1883 1894 1894 1894 1904 1904 1904 1904 1904 1904 1904 1904 1915 1915 1915 1915 1915 1915 1915 1915 1915 1915 1904 1894 1894 1904 1904 1904 1904 1915 1915 1915 1915 1915 1915 1915 1915 1915 1915 1915 1915 1915 1915 1915 1926 1458 1458 1458 1458 1452 1445 1445 1439 1439 1433 1433 1433 1433 1433 1433 1433 1439 1439 1439 1439 1445 1464 1470 1470 1477 1477 1477 1477 1477 1477 1483 1483 1483 1483 1477 1477 1477 1477 1477 1477 1477 1477 1477 1477 1483 1483 1483 1483 1483 1483 1483 1483 1483 1483 1483 1483 1483 1483 1483 1483 1489 1489 1489 1489 1489 1489 1496 1496 1503 1503 1503 1509 1509 1509 1509 1509 1509 1509 1509 1509 1509 1516 1516 1516 1516 1516 1523 1523 1529 1529 1529 1529 1523 1523 1529 1529 1529 1529 1523 1523 1523 1523 1523 1523 1529 1529 1529 1523 1523 1529 1529 1529 2883 2883 2859 2859 2883 2883 2908 2883 2883 2908 2908 1794 1794 1794 1794 1785 1785 1785 1785 1776 1776 1766 1766 1757 1757 1766 1766 1776 1776 1776 1776 1776 1776 1776 1776 1776 1776 1785 2908 2908 2908 2883 2883 2883 2883 2883 2859 2859 2883 2883 2883 2883 2883 2883 2908 2908 2908 2908 2908 2883 2883 2859 2859 2859 2859 2859 2859 2859 2859 2859 2859 2835 2835 2859 2859 2835 2835 2835 2835 2835 2835 2835 2835 2835 2859 2859 2859 2859 2835 2835 2835 2835 2835 2835 2835 2835 2835 2835 2835 2835 2835 2835 2835 2812 2812 2812 2812 2812 2812 0 0 0 0 0 0 0 0 0 0
0 0 0 0 0 0 0 0 0 0 0 0 0 0 0 0 0 0 0 0 0 0 0 0 0 0 0 0 0 0 0 0 2812 2812 2812 2812 2812 2812 2812 2812 2812 2812 2812 2812 2812 2812 2789 2789 2789 2789 2789 2789 2789 2789 2789 2789 2812 2812 2812 2812 2835 2812 2812 2812 2812 2812 2789 2789 2812 2812 2812 2812 2789 2789 2789 2789 2789 2812 2789 2789 2789 2789 2789 2812 2789 2789 2812 2812 2812 2835 2835 2835 2835 2835 2812 2812 2812 2812 2812 2812 2812 2812 2812 2812 2812 2812 2812 2812 2812 2835 2859 2859 2859 2859 2859 2835 2835 2835 2859 2859 2859 2859 2859 2859 2859 2859 2859 2859 2859 2859 2859 2859 2859 2859 2859 2859 2859 2859 2859 2859 2859 2859 2859 2859 2883 2883 2883 2883 2883 2859 2859 2859 2859 2883 2883 2883 2859 2859 2859 2859 2859 2859 2835 2835 2835 2859 2859 2835 2835 2859 2859 2859 2859 2859 2859 2859 2859 2859 2859 2859 2859 2859 2859 2090 2090 2090 2090 2090 2090 2090 2090 2090 2090 2090 2090 2090 2090 2090 1398 1398 1398 1398 1398 1398 1404 1404 1404 1404 1404 1404 1404 1404 1404 1410 1410 1410 1415 1415 1421 1421 1421 1421 1421 1421 1427 1427 1427 1427 1427 1427 1433 1433 1439 1312 1312 1312 1312 1312 1317 1317 1317 1317 1317 1317 1317 1322 1322 1322 1322 1433 1433 1439 1439 1445 1445 1445 1445 1452 1853 1853 1853 1853 1853 1863 1863 1863 1863 1863 1863 1470 1470 1873 1873 1883 1883 1883 1873 1873 1873 1873 1873 1873 1883 1883 1883 1883 1883 1883 1883 1883 1883 1883 1883 1883 1883 1883 1883 1883 1883 1883 1883 1883 1883 1883 1883 1883 1883 1883 1883 1883 1883 1883 1883 1883 1883 1883 1883 1894 1894 1904 1926 1959 1959 1970 1970 1970 1970 1970 1970 1959 1959 1959 0 0 0 0 0 0 0 1464 1458 1452 1445 1445 1439 1439 1433 1433 1433 1433 1439 1439 1439 1439 1439 1439 1439 1873 1873 1873 1873 1883 1883 1883 1883 1883 1883 1894 1894 1894 1894 1894 1894 1904 1904 1904 1904 1904 1904 1904 1904 1904 1904 1904 1894 1894 1894 1894 1894 1894 1894 1904 1904 1904 1915 1915 1915 1915 1915 1904 1904 1904 1904 1904 1904 1904 1904 1904 1904 1458 1458 1458 1458 1452 1445 1445 1439 1439 1433 1433 1433 1433 1433 1433 1439 1439 1439 1445 1452 1458 1464 1470 1470 1477 1477 1477 1477 1477 1477 1477 1483 1483 1477 1477 1477 1477 1477 1477 1477 1477 1477 1477 1483 1483 1483 1483 1483 1483 1483 1483 1483 1483 1483 1483 1483 1483 1483 1483 1483 1489 1489 1489 1489 1489 1496 1496 1503 1503 1503 1503 1509 1509 1509 1509 1509 1509 1509 1509 1516 1516 1516 1516 1516 1523 1523 1523 1529 1529 1529 1529 1529 1529 1529 1529 1529 1529 1529 1529 1529 1529 1523 1523 1523 1529 1529 1529 1529 1529 1529 1529 1529 2859 2859 2859 2859 2859 2859 2859 2859 2859 2883 2883 1794 1794 1794 1794 1785 1785 1785 1785 1776 1776 1776 1766 1766 1766 1766 1766 1776 1776 1776 1776 1776 1776 1776 1785 1785 1785 1785 2883 2883 2883 2883 2883 2883 2883 2883 2859 2859 2859 2859 2859 2859 2883 2883 2883 2883 2908 2908 2908 2883 2883 2859 2859 2859 2859 2859 2859 2859 2835 2835 2835 2835 2835 2835 2859 2835 2835 2835 2835 2812 2812 2835 2835 2835 2835 2835 2835 2835 2835 2835 2835 2835 2812 2812 2812 2812 2812 2812 2812 2812 2812 2812 2812 2812 2812 2812 2812 2812 2812 0 0 0 0 0 0 0 0 0 0
