0 0 0 0 0 0 0 0 0 0 0 0 0 0 0 0 0 0 0 0 0 0 0 0 0 0 0 0 0 0 0 0 0 2256 2256 2256 2256 2256 2271 2271 2271 2271 2271 2271 2271 2271 2271 2271 2271 2271 2271 2271 2271 2271 2271 2271 2271 2271 2271 2271 2271 2271 2271 2271 2271 2271 2271 2271 2271 2271 2271 2271 2256 2256 2256 2256 2271 2271 2271 2271 2271 2271 2271 1509 1509 1509 1509 1509 1509 1509 1503 1503 1503 1503 1503 1503 1496 1496 1470 1433 1433 1433 1433 1433 1433 1433 1433 1433 1439 1439 1445 1452 1452 1464 1470 1477 1483 1496 1503 1509 1509 1509 1509 1509 1509 1509 1509 1509 1516 1516 1516 1523 1523 1523 1523 1523 1523 1523 1523 1523 1523 1523 1523 1523 1523 1523 1523 1529 1529 1523 1523 1529 1529 1529 1523 1523 1523 1523 1523 1523 1523 1523 1523 1523 1523 1523 1523 1523 1523 1523 1523 1523 1523 1523 1523 1523 1523 1523 1529 1523 1523 1523 1523 1523 1523 1529 1529 1529 1529 1529 1529 1529 1529 1529 1529 1529 1529 1529 1529 1536 1536 1536 1536 1536 1536 1421 1421 1427 1427 1427 1427 1427 1427 1427 1427 1427 1433 1433 1433 1433 1439 1543 1543 1543 1543 1543 1543 1543 1550 1550 1557 1557 1564 1579 1594 1601 1609 1609 0 2349 2349 2349 2333 2333 2333 1853 1853 1853 1853 1853 1853 1853 1863 1863 1863 1873 1873 1873 1873 2349 2349 2349 2365 2365 2365 2381 0 0 0 1333 1333 1333 1333 1333 1333 1333 1333 1333 1333 1333 1333 1338 1338 1343 1343 1343 1523 1523 1529 1529 1536 1536 1536 1536 1536 1536 1536 1536 1536 1536 1536 1536 1536 1536 1536 1536 1536 1536 1536 1543 1543 1543 1543 1543 1543 1536 1536 1536 1536 1536 1536 1536 1536 1536 1543 1543 1543 1543 1543 1543 1543 1536 1536 1536 1536 1529 1529 1529 1529 1536 1536 1536 1536 1536 1543 1536 1536 1536 1529 1529 1536 1536 1536 1536 1536 1536 1536 1536 1536 1536 1536 1536 1536 1536 1543 1543 1543 1543 1543 1543 1543 1543 1543 1543 1543 1543 1536 1536 1536 1543 1543 1543 1543 1543 1543 1543 1543 1543 1543 1543 1312 1307 1307 1307 1307 1307 1307 1307 1307 1307 1307 1307 1307 1302 1302 1302 0 0 2090 2090 2103 2103 2116 2129 2129 2116 2116 1863 1853 1853 1863 1873 1873 1873 1873 1873 1873 1873 1873 1873 1873 1873 1873 2198 2198 2198 2198 2198 2198 2198 2198 2198 2198 2212 2212 2212 2365 2381 2381 2381 2398 2398 2398 2398 2398 2398 2398 2398 2381 2381 2398 2398 2398 2398 2398 2398 2398 2398 2398 2398 2398 2432 2450 2450 0 1433 1433 1433 1433 1433 1433 1433 1433 1433 1433 1433 1433 1433 1433 1433 1433 1433 1433 1433 1433 1433 1439 1439 1439 1439 1445 1445 1445 1445 1445 0 0 0 2381 0 2381 2381 2365 2365 2365 2365 2365 2365 2365 2365 2365 2365 2365 2365 2365 2381 2381 2381 2381 2381 2381 2381 2381 2381 2381 2381 2381 2381 2381 2381 2381 2381 2381 2381 2381 2381 2381 2381 2381 2381 2381 2365 2365 2365 2365 2381 2381 2381 2381 2381 2381 2381 2381 2381 2381 2381 2381 2381 2381 2381 2381 2381 2381 2381 2381 2381 2381 2381 2381 2381 2381 2381 2381 2381 2398 2398 2381 2381 2381 2365 2365 2365 2365 2365 2365 2365 2365 2365 2365 2365 2349 2349 2349 2349 2349 2349 2349 2349 2349 2349 2349 2349 2349 2349 2349 2349 2349 2349 2349 2349 2349 2365 2365 2365 2365 2365 2365 2365 2365 2365 2365 0 0 0 0 0 0 0 0 0
0 0 0 0 0 0 0 0 0 0 0 0 0 0 0 0 0 0 0 0 0 0 0 0 0 0 0 0 0 0 0 0 0 2256 2256 2256 2256 2256 2256 2271 2271 2271 2271 2271 2271 2271 2271 2271 2271 2271 2271 2271 2271 2271 2271 2271 2271 2271 2271 2271 2271 2271 2271 2271 2271 2256 2256 2256 2256 2256 2256 2256 2256 2256 2256 2256 2256 2256 2271 2271 2271 2271 2271 1509 1509 1509 1509 1509 1509 1509 1503 1503 1503 1503 1503 1503 1496 1496 1470 1445 1433 1433 1433 1433 1433 1433 1433 1439 1439 1439 1445 1452 1452 1464 1470 1477 1483 1496 1503 1509 1509 1509 1509 1509 1509 1509 1509 1509 1516 1516 1516 1516 1516 1516 1516 1516 1516 1516 1516 1516 1516 1516 1516 1523 1523 1523 1523 1523 1523 1516 1516 1516 1523 1523 1523 1523 1516 1516 1523 1516 1516 1523 1523 1523 1523 1523 1516 1516 1516 1516 1516 1516 1523 1523 1523 1523 1523 1523 1523 1523 1523 1523 1523 1523 1523 1523 1523 1529 1529 1529 1529 1529 1529 1529 1529 1529 1529 1529 1529 1529 1529 1536 1529 1529 1536 1421 1421 1427 1427 1427 1427 1427 1427 1427 1427 1433 1433 1433 1439 1439 1439 1543 1536 1536 1536 1536 1543 1543 1543 1550 1557 1557 1564 1579 1594 1594 2349 2349 2349 2349 2333 2333 2317 2317 2317 1853 1853 1853 1853 1853 1853 1853 1863 1863 1863 1873 1873 1873 1873 2349 2349 2349 2365 2365 2365 2381 0 0 0 1333 1333 1333 1333 1333 1333 1333 1333 1333 1333 1333 1333 1338 1338 1343 1343 1343 1523 1523 1523 1523 1529 1529 1529 1529 1529 1529 1536 1529 1529 1536 1529 1529 1529 1529 1529 1536 1536 1536 1536 1536 1536 1536 1536 1536 1536 1536 1536 1536 1536 1536 1536 1536 1536 1536 1536 1543 1543 1543 1543 1543 1543 1536 1529 1529 1529 1529 1529 1529 1529 1536 1536 1536 1536 1536 1536 1529 1529 1529 1529 1529 1529 1529 1536 1529 1529 1529 1536 1536 1536 1536 1536 1536 1536 1536 1536 1536 1536 1536 1543 1543 1543 1543 1536 1536 1536 1536 1536 1536 1536 1536 1536 1536 1536 1543 1543 1543 1543 1543 1543 1543 1312 1312 1307 1307 1307 1307 1307 1307 1307 1307 1307 1312 1312 1312 0 0 0 0 0 2103 2103 2103 2129 2129 2129 2103 2103 2103 1853 1853 1863 1873 1873 1873 1873 1873 1873 1873 1873 1873 1873 1873 1873 2198 2198 2198 2198 2198 2198 2198 2198 2198 2212 2212 2212 2226 2349 2365 2381 2381 2381 2381 2381 2381 2381 2381 2381 2381 2365 2365 2381 2381 2381 2381 2381 2381 2381 2381 2381 2381 2381 2415 2450 2450 0 1433 1433 1427 1427 1433 1433 1433 1433 1433 1433 1433 1433 1433 1433 1433 1433 1433 1433 1439 1439 1439 1439 1439 1439 1439 1445 1445 1445 1445 1445 0 0 0 2381 2381 2365 2365 2365 2365 2365 2365 2365 2349 2349 2365 2365 2365 2365 2365 2365 2365 2381 2381 2381 2381 2381 2381 2381 2365 2365 2365 2365 2381 2381 2381 2381 2381 2381 2381 2381 2381 2381 2381 2381 2365 2365 2365 2365 2365 2365 2365 2365 2365 2365 2381 2365 2365 2365 2365 2365 2381 2381 2381 2381 2381 2381 2381 2381 2381 2381 2381 2381 2381 2381 2381 2381 2381 2381 2381 2381 2381 2381 2381 2381 2349 2349 2365 2349 2349 2365 2365 2349 2349 2349 2349 2349 2349 2349 2349 2349 2349 2349 2349 2349 2349 2349 2349 2349 2349 2349 2349 2349 2349 2349 2349 2349 2349 2349 2349 2349 2349 2349 2349 2349 2349 2349 0 0 0 0 0 0 0 0 0
0 0 0 0 0 0 0 0 0 0 0 0 0 0 0 0 0 0 0 0 0 0 0 0 0 0 0 0 0 0 0 0 0 2241 2241 2241 2256 2256 2256 2256 2256 2271 2271 2271 2271 2271 2271 2271 2271 2271 2271 2271 2271 2271 2271 2271 2271 2271 2271 2271 2271 2271 2256 2256 2271 2256 2256 2256 2256 2256 2256 2256 2256 2256 2256 2256 2256 2256 2256 2256 2256 2271 2271 1503 1509 1509 1509 1509 1509 1509 1509 1509 1509 1509 1503 1503 1496 1489 1458 1439 1433 1433 1433 1433 1433 1433 1433 1439 1439 1445 1445 1452 1452 1464 1477 1477 1483 1489 1496 1503 1503 1503 1503 1503 1503 1509 1509 1509 1509 1509 1509 1509 1516 1516 1509 1509 1509 1516 1516 1516 1509 1509 1509 1516 1516 1516 1516 1516 1516 1509 1509 1516 1516 1516 1516 1516 1516 1516 1516 1516 1516 1516 1516 1516 1516 1516 1516 1516 1516 1509 1509 1509 1516 1516 1516 1516 1516 1516 1516 1516 1516 1516 1516 1523 1523 1523 1523 1523 1523 1523 1523 1523 1523 1523 1523 1529 1523 1523 1523 1523 1523 1529 1529 1529 1529 1421 1421 1427 1427 1427 1427 1427 1427 1427 1433 1433 1433 1433 1439 1439 1452 1543 1523 1523 1529 1529 1536 1536 1543 1550 1557 1557 1564 1579 1579 2317 2317 2317 2333 2333 2333 2333 2317 2317 2317 2317 1853 1853 1853 1853 1853 1853 1863 1863 1863 1873 1873 1873 1873 2317 2349 2349 2349 2349 2365 2365 0 0 0 1333 1333 1333 1333 1333 1333 1333 1333 1333 1333 1338 1338 1343 1343 1343 1349 1349 1516 1516 1523 1523 1523 1523 1523 1523 1523 1523 1523 1523 1523 1523 1523 1523 1523 1523 1523 1529 1529 1529 1536 1529 1529 1536 1529 1529 1529 1529 1529 1529 1529 1529 1529 1536 1536 1536 1536 1536 1536 1536 1543 1543 1543 1523 1523 1523 1523 1523 1523 1523 1523 1523 1529 1529 1529 1536 1536 1523 1523 1523 1523 1523 1523 1523 1529 1529 1529 1529 1529 1529 1529 1536 1529 1529 1529 1529 1536 1536 1536 1536 1536 1536 1536 1536 1536 1536 1536 1529 1529 1536 1536 1536 1536 1536 1536 1536 1536 1543 1543 1543 1543 1543 1543 1312 1312 1312 1312 1312 1307 1307 1307 1307 1312 1312 1317 1322 0 0 0 0 0 2103 2103 2103 2116 2116 2116 2103 2103 2103 1863 1863 1863 1873 1873 1873 1873 1873 1873 1873 1873 1873 1873 1873 1873 2198 2212 2212 2212 2212 2212 2212 2212 2212 2212 2212 2212 2241 2349 2365 2381 2381 2381 2381 2381 2381 2381 2381 2381 2365 2349 2349 2365 2365 2365 2365 2365 2365 2365 2365 2365 2365 2381 2398 2398 2398 1439 1433 1433 1427 1427 1433 1433 1433 1433 1433 1433 1433 1433 1433 1433 1439 1439 1439 1439 1439 1439 1439 1439 1439 1445 1445 1445 1445 1445 1445 1452 0 0 0 2365 2365 2349 2349 2349 2349 2365 2349 2349 2349 2349 2365 2365 2365 2365 2365 2365 2365 2365 2365 2365 2365 2381 2381 2365 2365 2365 2365 2365 2381 2381 2381 2381 2381 2381 2381 2381 2365 2365 2365 2365 2365 2365 2365 2365 2365 2365 2365 2365 2365 2365 2365 2349 2349 2349 2365 2365 2365 2365 2381 2381 2381 2381 2381 2381 2381 2365 2365 2365 2381 2365 2365 2381 2381 2381 2381 2381 2381 2365 2365 2365 2349 2349 2349 2349 2349 2349 2349 2349 2333 2333 2333 2333 2333 2333 2333 2349 2349 2349 2349 2349 2349 2349 2349 2349 2349 2333 2333 2333 2333 2349 2349 2349 2349 2349 2349 2349 2349 2349 2349 2349 2349 2349 0 0 0 0 0 0 0 0 0
0 0 0 0 0 0 0 0 0 0 0 0 0 0 0 0 0 0 0 0 0 0 0 0 0 0 0 0 0 0 0 0 0 2226 2226 2241 2241 2241 2256 2256 2256 2271 2256 2256 2256 2256 2241 2241 2241 2241 2256 2256 2271 2271 2271 2256 2256 2256 2271 2256 2256 2256 2256 2256 2256 2241 2241 2241 2241 2241 2256 2256 2256 2241 2241 2241 2241 2241 2241 2241 2256 2256 2256 1503 1503 1503 1503 1503 1503 1503 1509 1509 1509 1509 1509 1503 1496 1489 1458 1439 1433 1433 1433 1433 1433 1433 1439 1439 1439 1445 1445 1452 1458 1464 1477 1477 1483 1483 1489 1496 1496 1496 1503 1503 1503 1503 1503 1503 1509 1509 1509 1509 1509 1509 1509 1509 1509 1509 1509 1509 1509 1509 1509 1509 1509 1509 1509 1509 1509 1509 1509 1509 1509 1509 1509 1509 1509 1509 1509 1509 1509 1516 1516 1509 1509 1509 1509 1509 1509 1503 1503 1509 1509 1509 1509 1509 1509 1509 1509 1509 1509 1509 1509 1516 1516 1516 1516 1523 1523 1523 1523 1523 1523 1523 1523 1523 1523 1523 1523 1523 1523 1523 1523 1523 1523 1421 1421 1427 1427 1427 1433 1433 1433 1433 1433 1433 1433 1439 1445 1445 1452 1509 1509 1516 1523 1523 1529 1536 1536 1550 1557 1557 1564 1579 1579 2317 2317 2317 2333 2333 2317 2317 2317 2317 2333 2333 1853 1853 1853 1853 1853 1853 1863 1863 1863 1873 1873 1873 2271 2301 2317 2333 2333 2349 2349 2365 0 0 0 1338 1338 1338 1333 1333 1333 1338 1338 1338 1338 1338 1338 1343 1343 1343 1349 1509 1509 1516 1523 1523 1523 1523 1523 1523 1523 1523 1523 1516 1516 1523 1523 1523 1523 1523 1523 1523 1523 1523 1529 1529 1529 1529 1523 1523 1523 1523 1523 1523 1523 1523 1523 1523 1529 1529 1536 1536 1536 1536 1543 1536 1536 1516 1516 1516 1516 1523 1516 1516 1523 1523 1523 1523 1523 1523 1516 1516 1516 1516 1516 1516 1523 1523 1523 1523 1523 1523 1529 1529 1523 1523 1529 1529 1529 1529 1529 1536 1536 1536 1536 1536 1536 1536 1529 1529 1529 1529 1529 1529 1529 1529 1529 1529 1529 1536 1536 1536 1536 1543 1543 1543 1317 1317 1317 1312 1312 1312 1312 1307 1307 1307 1312 1312 1317 1322 0 0 0 0 0 2103 2103 2116 2103 2103 2103 2103 2103 2103 1863 1853 1853 1863 1873 1873 1873 1873 1873 1873 1873 1873 1873 1873 1873 2198 2212 2212 2212 2212 2212 2212 2212 2212 2212 2212 2212 2271 2349 2365 2365 2365 2365 2365 2365 2365 2365 2365 2365 2349 2349 2349 2349 2349 2349 2349 2349 2349 2349 2349 2349 2349 2365 2365 0 0 1439 1439 1433 1433 1433 1433 1433 1433 1433 1433 1433 1433 1433 1439 1439 1439 1439 1439 1439 1439 1439 1439 1439 1445 1445 1445 1445 1445 1452 1452 1458 0 2317 2317 2349 2349 2349 2349 2349 2349 2349 2349 2349 2349 2349 2349 2349 2349 2349 2365 2365 2365 2365 2365 2365 2365 2365 2365 2349 2349 2349 2365 2365 2365 2365 2365 2365 2365 2365 2365 2365 2365 2365 2365 2365 2365 2365 2365 2365 2365 2365 2365 2365 2365 2365 2365 2349 2349 2349 2365 2365 2365 2365 2365 2381 2381 2381 2365 2365 2365 2365 2365 2365 2365 2365 2365 2365 2365 2365 2365 2365 2365 2365 2349 2349 2333 2333 2349 2349 2349 2349 2349 2333 2333 2333 2333 2333 2333 2333 2333 2333 2349 2349 2349 2333 2333 2333 2349 2333 2333 2333 2333 2333 2333 2333 2333 2333 2333 2349 2333 2333 2333 2333 2333 2349 2333 2333 0 0 0 0 0 0 0 0 0
0 0 0 0 0 0 0 0 0 0 0 0 0 0 0 0 0 0 0 0 0 0 0 0 0 0 0 0 0 0 0 0 0 2226 2226 2226 2226 2226 2241 2241 2256 2256 2241 2241 2241 2241 2226 2226 2226 2226 2241 2241 2256 2271 2271 2256 2256 2256 2256 2256 2256 2241 2241 2241 2241 2226 2226 2226 2226 2226 2241 2241 2241 2226 2226 2226 2226 2226 2226 2226 2241 2241 2241 1503 1503 1503 1503 1503 1503 1503 1509 1509 1509 1509 1509 1503 1496 1489 1470 1439 1439 1433 1433 1433 1433 1439 1439 1439 1445 1445 1452 1452 1458 1464 1470 1477 1477 1483 1483 1483 1489 1489 1496 1496 1496 1503 1503 1503 1503 1503 1503 1503 1503 1503 1503 1503 1503 1503 1503 1503 1503 1503 1503 1503 1503 1503 1503 1503 1503 1503 1503 1503 1503 1503 1509 1509 1503 1503 1503 1503 1503 1509 1509 1509 1503 1503 1503 1503 1503 1503 1503 1503 1503 1503 1503 1503 1503 1509 1503 1503 1503 1509 1509 1509 1509 1509 1509 1516 1516 1516 1516 1516 1516 1516 1523 1516 1516 1516 1516 1516 1516 1516 1516 1516 1523 1421 1421 1427 1427 1427 1433 1433 1433 1433 1439 1439 1439 1445 1445 1452 1464 1503 1503 1509 1516 1516 1523 1536 1536 1550 1557 1564 1564 1579 1579 2301 2301 2317 2333 2333 2317 2317 2317 2317 2333 1863 1853 1853 1853 1853 1853 1863 1863 1863 1863 1873 1873 1873 1883 2301 2301 2317 2333 2333 2349 2365 0 0 0 1338 1338 1338 1338 1338 1338 1338 1338 1338 1338 1343 1343 1343 1343 1349 1349 1509 1509 1516 1516 1516 1516 1523 1516 1516 1516 1516 1516 1516 1516 1516 1516 1516 1516 1516 1516 1523 1523 1523 1523 1523 1523 1523 1523 1523 1523 1516 1516 1516 1516 1516 1523 1523 1523 1523 1529 1529 1529 1536 1536 1523 1523 1516 1516 1516 1516 1516 1516 1516 1516 1516 1516 1516 1516 1516 1516 1516 1516 1516 1516 1516 1516 1516 1516 1516 1516 1516 1516 1516 1516 1516 1516 1516 1523 1516 1516 1529 1516 1516 1523 1529 1529 1529 1529 1529 1523 1523 1523 1523 1523 1523 1523 1523 1523 1529 1529 1529 1536 1536 1543 1543 1317 1317 1317 1312 1312 1312 1312 1312 1312 1312 1312 1317 1317 1322 0 0 0 0 0 2116 2116 2103 2103 2103 2103 2090 2090 2090 2103 1853 1853 1853 1863 1873 1873 1873 1873 1873 1873 1883 1873 1873 2198 2212 2212 2212 2212 2212 2212 2212 2212 2212 2212 2226 2226 2271 2349 2349 2365 2365 2365 2365 2365 2349 2349 2349 2365 2349 2333 2333 2349 2333 2333 2349 2349 2349 2349 2349 2333 2333 2349 2349 0 1427 1433 1433 1433 1433 1433 1433 1433 1439 1439 1439 1439 1439 1439 1445 1445 1445 1445 1445 1445 1445 1439 1439 1439 1445 1445 1445 1445 1452 1452 1452 1458 0 2317 2317 2317 2317 2333 2333 2333 2333 2333 2333 2333 2333 2333 2333 2333 2333 2333 2349 2349 2349 2349 2349 2349 2349 2349 2349 2333 2333 2349 2349 2349 2365 2365 2365 2365 2365 2365 2365 2365 2365 2365 2365 2365 2365 2365 2365 2365 2365 2365 2365 2365 2365 2365 2365 2349 2349 2349 2349 2349 2365 2365 2365 2365 2365 2365 2365 2365 2365 2349 2349 2349 2349 2349 2349 2365 2365 2365 2365 2365 2365 2349 2349 2349 2333 2333 2333 2333 2333 2333 2333 2317 2317 2317 2317 2317 2317 2317 2317 2317 2333 2333 2317 2317 2317 2317 2333 2333 2333 2333 2333 2333 2333 2333 2333 2333 2333 2333 2333 2333 2333 2333 2333 2333 2333 2333 0 0 0 0 0 0 0 0 0
0 0 0 0 0 0 0 0 0 0 0 0 0 0 0 0 0 0 0 0 0 0 0 0 0 0 0 0 0 0 0 0 0 2226 2226 2226 2226 2226 2226 2226 2226 2241 2226 2226 2226 2226 2226 2226 2226 2226 2226 2226 2241 2241 2256 2256 2256 2256 2241 2241 2241 2241 2241 2241 2226 2226 2212 2212 2212 2212 2226 2226 2226 2226 2226 2226 2226 2226 2226 2226 2226 2241 2241 1509 1509 1509 1503 1503 1503 1509 1509 1509 1509 1509 1509 1503 1503 1496 1477 1433 1433 1433 1433 1433 1439 1439 1439 1439 1445 1445 1445 1452 1458 1464 1470 1477 1477 1477 1483 1483 1483 1489 1489 1489 1496 1496 1496 1496 1496 1496 1496 1496 1496 1496 1496 1496 1496 1496 1489 1489 1489 1496 1496 1496 1496 1496 1496 1496 1496 1496 1496 1496 1496 1496 1503 1503 1496 1496 1496 1496 1496 1496 1496 1496 1496 1496 1496 1496 1496 1496 1503 1496 1496 1503 1503 1503 1503 1503 1503 1503 1503 1503 1503 1503 1503 1503 1503 1509 1509 1509 1509 1516 1516 1516 1516 1516 1516 1509 1509 1516 1516 1509 1509 1509 1509 1509 1427 1427 1433 1433 1433 1433 1439 1439 1439 1439 1439 1445 1445 1452 1464 1483 1496 1503 1509 1516 1523 1536 1536 1550 1557 1564 1564 1564 2301 2301 2301 2317 2317 2317 2301 2301 2301 2301 2317 1863 1863 1863 1853 1853 1853 1853 1863 1863 1863 1873 1873 1883 1883 2286 2301 2317 2317 2317 2333 2333 0 0 0 1333 1333 1338 1343 1343 1343 1343 1343 1343 1343 1343 1343 1349 1349 1349 1349 1516 1516 1516 1516 1516 1516 1516 1516 1516 1509 1509 1509 1509 1509 1509 1509 1516 1516 1516 1516 1516 1516 1516 1523 1516 1516 1516 1516 1516 1516 1516 1516 1516 1516 1516 1516 1516 1516 1523 1523 1516 1516 1516 1516 1516 1516 1509 1509 1509 1509 1509 1509 1509 1509 1509 1509 1516 1516 1516 1516 1516 1516 1516 1516 1516 1516 1516 1516 1516 1516 1516 1516 1516 1516 1516 1516 1516 1516 1516 1516 1516 1516 1516 1516 1516 1516 1516 1516 1523 1523 1516 1516 1516 1516 1516 1523 1523 1523 1523 1523 1523 1529 1536 1536 1536 1317 1317 1317 1317 1317 1317 1312 1312 1312 1312 1312 1317 1322 1322 1328 0 0 0 0 0 0 2103 2090 2078 2078 2065 2065 2078 2090 1813 1813 1843 1863 1873 1873 1873 1873 1873 1873 1883 2212 2198 2198 2212 2212 2212 2212 2212 2212 2212 2212 2212 2226 2241 2271 2317 2333 2333 2349 2349 2349 2349 2349 2333 2333 2333 2333 2333 2333 2333 2333 2333 2333 2333 2333 2333 2333 2333 2333 2333 2349 2349 2349 1427 1427 1427 1433 1433 1433 1433 1433 1439 1439 1439 1439 1439 1439 1445 1445 1445 1445 1445 1445 1445 1445 1445 1445 1445 1452 1452 1452 1452 1452 1452 1452 2317 2317 2317 2317 2317 2317 2317 2317 2317 2317 2333 2333 2333 2333 2333 2333 2317 2317 2333 2333 2333 2333 2317 2317 2333 2333 2333 2317 2317 2333 2333 2349 2349 2349 2349 2349 2349 2349 2349 2349 2349 2349 2349 2349 2349 2349 2349 2365 2365 2365 2365 2365 2349 2349 2349 2333 2333 2333 2333 2349 2349 2349 2349 2365 2365 2365 2365 2349 2349 2349 2349 2333 2333 2333 2333 2349 2349 2349 2349 2349 2349 2349 2349 2333 2317 2317 2317 2317 2317 2317 2317 2317 2317 2317 2317 2317 2317 2317 2317 2317 2317 2317 2317 2317 2317 2317 2317 2317 2317 2317 2317 2317 2317 2317 2301 2301 2301 2317 2317 2317 2317 2317 2333 2333 2333 2333 0 0 0 0 0 0 0 0 0
0 0 0 0 0 0 0 0 0 0 0 0 0 0 0 0 0 0 0 0 0 0 0 0 0 0 0 0 0 0 0 0 0 2212 2212 2212 2212 2212 2226 2226 2226 2226 2212 2212 2226 2226 2226 2226 2226 2226 2226 2226 2226 2226 2226 2226 2241 2241 2241 2241 2241 2226 2226 2226 2226 2212 2212 2212 2212 2212 2226 2226 2226 2226 2226 2226 2226 2226 2226 2212 2212 2226 2226 2226 1509 1509 1509 1509 1509 1509 1509 1509 1509 1509 1509 1509 1509 1503 1503 1433 1433 1433 1439 1439 1439 1439 1439 1439 1445 1445 1445 1452 1452 1458 1470 1477 1477 1477 1483 1483 1483 1483 1483 1483 1489 1489 1489 1489 1489 1483 1483 1489 1489 1489 1489 1489 1489 1489 1483 1483 1483 1489 1489 1489 1489 1489 1489 1489 1489 1489 1489 1489 1489 1489 1489 1496 1489 1489 1489 1489 1489 1489 1489 1489 1496 1496 1496 1496 1496 1496 1496 1496 1496 1496 1496 1496 1496 1496 1496 1496 1496 1496 1496 1496 1496 1496 1503 1503 1503 1503 1496 1496 1503 1503 1503 1503 1503 1503 1503 1503 1503 1503 1503 1503 1496 1496 1433 1433 1433 1439 1439 1439 1439 1439 1445 1445 1445 1445 1452 1458 1464 1477 1489 1496 1503 1509 1529 1536 1543 1557 1572 1579 1579 1594 2301 2301 2301 2301 2317 2317 2301 2301 2301 2301 2301 1863 1863 1863 1853 1853 1853 1853 1863 1863 1863 1873 1873 1873 1873 2286 2301 2301 2317 2317 2333 2333 0 0 1333 1333 1333 1338 1343 1343 1343 1343 1343 1343 1343 1343 1343 1349 1349 1349 1354 1496 1509 1509 1509 1509 1509 1516 1509 1509 1509 1509 1509 1509 1509 1509 1509 1509 1509 1509 1509 1509 1516 1516 1516 1516 1516 1516 1516 1509 1509 1509 1509 1509 1509 1509 1509 1509 1516 1516 1516 1516 1516 1516 1509 1509 1509 1509 1509 1509 1509 1509 1509 1509 1509 1509 1509 1516 1509 1509 1509 1509 1509 1509 1509 1509 1509 1509 1509 1509 1509 1509 1509 1509 1509 1509 1509 1509 1516 1509 1509 1509 1509 1509 1516 1516 1516 1516 1516 1516 1516 1516 1516 1516 1516 1516 1516 1516 1516 1516 1516 1516 1523 1523 1536 1536 1317 1317 1317 1317 1317 1317 1317 1317 1317 1317 1317 1322 1322 1322 1328 0 0 0 0 0 0 2103 2078 2065 2065 2065 2065 2065 2078 1813 1813 1833 1863 1873 1873 1873 1873 1873 1883 1883 2198 2198 2212 2212 2212 2212 2212 2212 2212 2212 2212 2212 2226 2241 2256 2317 2333 2333 2333 2333 2333 2333 2333 2333 2333 2333 2333 2333 2333 2333 2333 2333 2333 2333 2333 2333 2333 2333 2333 2333 2333 2333 0 1427 1427 1427 1433 1433 1433 1433 1439 1439 1439 1439 1439 1439 1439 1445 1445 1445 1445 1445 1445 1445 1445 1445 1445 1445 1452 1452 1452 1452 1452 1452 1452 2317 2317 2301 2301 2317 2317 2317 2317 2317 2317 2317 2317 2317 2317 2317 2317 2317 2317 2317 2317 2317 2317 2317 2317 2317 2317 2317 2317 2317 2317 2333 2333 2333 2333 2333 2333 2333 2333 2333 2333 2333 2333 2333 2333 2333 2349 2349 2349 2349 2349 2349 2349 2349 2349 2349 2333 2333 2333 2333 2349 2349 2349 2349 2349 2365 2349 2349 2349 2349 2349 2333 2333 2333 2333 2333 2333 2333 2333 2349 2349 2349 2333 2333 2333 2317 2317 2317 2317 2317 2317 2317 2301 2301 2317 2317 2317 2317 2317 2317 2317 2317 2317 2301 2301 2301 2301 2301 2301 2301 2301 2301 2301 2301 2301 2301 2301 2301 2301 2301 2301 2301 2301 2317 2317 2301 2301 0 0 0 0 0 0 0 0 0
0 0 0 0 0 0 0 0 0 0 0 0 0 0 0 0 0 0 0 0 0 0 0 0 0 0 0 0 0 0 0 0 0 2212 2212 2212 2212 2212 2212 2212 2212 2212 2212 2212 2212 2226 2226 2226 2226 2226 2226 2226 2226 2226 2226 2226 2226 2226 2226 2226 2226 2212 2212 2212 2212 2212 2198 2198 2198 2212 2212 2212 2212 2212 2212 2212 2212 2212 2212 2212 2212 2226 2226 2226 1516 1516 1509 1509 1509 1509 1509 1509 1509 1509 1509 1516 1516 1509 1509 1509 1439 1439 1439 1439 1445 1445 1445 1445 1445 1445 1445 1452 1452 1452 1470 1470 1477 1477 1477 1477 1477 1483 1483 1483 1483 1483 1483 1483 1483 1483 1483 1483 1483 1483 1483 1483 1483 1483 1483 1483 1483 1483 1483 1483 1483 1489 1489 1489 1489 1489 1489 1489 1489 1489 1489 1489 1483 1483 1483 1483 1483 1483 1483 1483 1489 1489 1489 1489 1489 1489 1496 1489 1489 1489 1489 1489 1489 1489 1489 1489 1489 1489 1489 1496 1489 1489 1496 1496 1496 1489 1489 1489 1496 1496 1496 1496 1503 1503 1503 1503 1503 1503 1503 1496 1496 1496 1433 1433 1439 1439 1439 1439 1445 1445 1445 1445 1445 1452 1452 1458 1470 1477 1489 1496 1496 1503 1516 1543 1550 1564 1572 1579 1586 1594 2286 2286 2286 2301 2301 2301 2286 2286 2286 2301 2301 1863 1863 1863 1863 1863 1863 1863 1863 1863 1873 1873 1873 1873 1873 2286 2286 2301 2301 2317 2317 2317 0 0 0 1333 1333 1338 1343 1343 1343 1349 1349 1349 1349 1349 1349 1349 1354 1354 1354 1496 1496 1496 1496 1503 1503 1503 1509 1503 1503 1503 1503 1503 1503 1503 1503 1503 1503 1503 1503 1503 1509 1509 1509 1509 1509 1509 1509 1503 1503 1503 1503 1509 1509 1509 1509 1509 1516 1516 1516 1516 1516 1516 1509 1509 1509 1509 1509 1509 1503 1503 1503 1503 1503 1503 1503 1509 1509 1509 1509 1509 1509 1509 1509 1509 1509 1509 1509 1509 1509 1509 1509 1509 1509 1509 1509 1509 1509 1509 1509 1503 1503 1509 1509 1509 1509 1509 1509 1516 1509 1509 1509 1516 1509 1509 1516 1516 1516 1516 1516 1516 1516 1516 1523 1523 1317 1317 1317 1322 1322 1322 1317 1317 1322 1322 1322 1322 1322 1322 1328 0 0 0 0 0 0 0 2065 2065 2065 2053 2053 2053 2065 2078 1833 1833 1863 1873 1873 1873 1883 1883 1883 1883 1883 2198 2212 2212 2212 2212 2212 2212 2212 2226 2212 2212 2226 2241 2256 2317 2333 2333 2333 2333 2333 2333 2333 2317 2317 2333 2333 2317 2317 2317 2333 2317 2317 2333 2333 2333 2333 2317 2317 2317 2317 2317 2317 2317 1433 1433 1433 1433 1433 1433 1439 1439 1439 1439 1439 1439 1445 1445 1445 1445 1445 1445 1445 1445 1445 1445 1445 1452 1452 1452 1452 1452 1452 1452 1452 2301 2301 2301 2301 2301 2317 2317 2317 2317 2317 2317 2317 2317 2317 2317 2317 2317 2317 2317 2317 2317 2317 2317 2317 2317 2317 2317 2317 2317 2317 2317 2317 2317 2317 2317 2333 2317 2317 2317 2317 2317 2317 2317 2317 2317 2317 2317 2333 2333 2333 2333 2333 2333 2317 2317 2317 2317 2317 2333 2333 2333 2333 2333 2349 2349 2349 2333 2333 2333 2333 2333 2317 2317 2317 2317 2317 2317 2317 2333 2333 2333 2317 2317 2317 2301 2301 2301 2301 2301 2301 2301 2301 2301 2301 2301 2301 2317 2301 2301 2301 2301 2301 2301 2301 2301 2301 2301 2301 2301 2301 2286 2286 2286 2286 2286 2286 2286 2286 2301 2301 2301 2301 2301 2301 2301 2301 0 0 0 0 0 0 0 0 0
0 0 0 0 0 0 0 0 0 0 0 0 0 0 0 0 0 0 0 0 0 0 0 0 0 0 0 0 0 0 0 0 0 2198 2198 2198 2198 2198 2198 2184 2184 2184 2198 2198 2198 2212 2212 2226 2226 2226 2226 2212 2212 2212 2212 2212 2212 2226 2212 2212 2226 2212 2212 2212 2212 2212 2198 2198 2198 2198 2198 2198 2212 2212 2212 2212 2212 2212 2212 2212 2212 2198 2198 2198 2198 1516 1516 1516 1516 1516 1509 1509 1516 1516 1516 1516 1516 1516 1516 1509 1445 1445 1445 1445 1445 1445 1445 1445 1445 1445 1452 1452 1452 1452 1464 1464 1470 1470 1477 1477 1477 1477 1477 1477 1477 1477 1477 1477 1477 1477 1483 1483 1483 1483 1483 1483 1483 1483 1483 1483 1483 1483 1483 1483 1483 1483 1483 1483 1483 1483 1483 1483 1483 1483 1483 1483 1477 1477 1477 1477 1477 1477 1477 1477 1483 1483 1483 1483 1483 1483 1489 1483 1483 1483 1483 1489 1489 1483 1483 1483 1483 1483 1483 1489 1489 1489 1489 1489 1489 1489 1489 1489 1489 1489 1489 1496 1496 1496 1496 1496 1496 1496 1496 1496 1489 1489 1489 1452 1445 1445 1445 1445 1445 1445 1445 1445 1445 1452 1452 1458 1470 1477 1489 1489 1496 1503 1516 1550 1564 1579 1579 1586 1586 1594 2286 2286 2286 2286 2286 2301 2286 2286 2286 2286 2271 2271 1853 1853 1863 1863 1863 1863 1863 1873 1873 1873 1863 1863 1873 2286 2286 2301 2301 2301 2301 2301 0 0 0 1338 1338 1338 1343 1349 1349 1349 1349 1349 1349 1349 1349 1349 1354 1354 1354 1496 1496 1496 1496 1496 1503 1503 1503 1503 1503 1503 1503 1496 1496 1503 1503 1503 1503 1503 1503 1503 1503 1503 1503 1503 1503 1503 1503 1503 1496 1496 1496 1496 1496 1496 1503 1503 1509 1516 1509 1509 1509 1509 1516 1509 1509 1503 1503 1503 1503 1503 1496 1496 1496 1496 1496 1509 1509 1509 1509 1509 1509 1509 1503 1503 1503 1509 1503 1503 1503 1503 1503 1503 1503 1503 1503 1503 1509 1503 1503 1503 1503 1503 1503 1503 1503 1503 1503 1509 1509 1509 1509 1509 1509 1509 1509 1509 1509 1509 1509 1509 1509 1516 1516 1516 1317 1317 1322 1322 1322 1322 1322 1322 1322 1322 1322 1322 1322 1322 1328 0 0 0 0 0 0 0 2065 2053 2053 2053 2053 2053 2053 2065 1833 1833 1873 1873 1873 1883 1883 1883 1883 1883 1883 2198 2212 2212 2212 2212 2212 2212 2212 2212 2212 2212 2212 2226 2256 2301 2317 2317 2333 2333 2333 2317 2317 2317 2317 2317 2317 2317 2317 2317 2317 2317 2317 2317 2317 2333 2333 2317 2317 2317 2317 2317 2317 0 1433 1433 1433 1433 1439 1439 1439 1439 1439 1445 1445 1445 1445 1445 1445 1445 1445 1445 1445 1445 1445 1445 1452 1452 1452 1452 1452 1452 1452 1452 1452 2286 2286 2286 2301 2301 2301 2301 2301 2301 2301 2301 2301 2301 2301 2301 2317 2317 2317 2317 2317 2317 2317 2301 2301 2301 2301 2301 2317 2317 2317 2317 2317 2317 2317 2317 2317 2317 2317 2317 2317 2317 2317 2317 2317 2317 2317 2317 2317 2317 2317 2317 2317 2317 2317 2317 2317 2317 2317 2317 2317 2317 2317 2317 2317 2317 2317 2317 2317 2317 2317 2317 2317 2317 2317 2317 2317 2317 2317 2317 2317 2317 2317 2301 2301 2286 2286 2286 2286 2301 2301 2301 2301 2301 2301 2301 2301 2301 2301 2301 2301 2301 2286 2286 2286 2286 2286 2286 2286 2286 2286 2271 2271 2271 2271 2271 2271 2271 2286 2286 2286 2286 2301 2301 2286 2286 2286 0 0 0 0 0 0 0 0 0
0 0 0 0 0 0 0 0 0 0 0 0 0 0 0 0 0 0 0 0 0 0 0 0 0 0 0 0 0 0 0 0 0 2184 2184 2184 2198 2198 2198 2184 2184 2184 2198 2198 2198 2212 2212 2212 2212 2212 2212 2212 2212 2212 2212 2212 2212 2212 2212 2212 2212 2212 2212 2198 2198 2198 2184 2184 2198 2198 2198 2198 2212 2212 2212 2212 2212 2212 2212 2198 2198 2198 2198 2198 2198 1516 1516 1516 1523 1516 1509 1509 1523 1523 1523 1523 1523 1516 1516 1509 1458 1452 1445 1445 1445 1445 1445 1445 1445 1445 1452 1452 1452 1452 1464 1464 1470 1470 1470 1477 1477 1477 1477 1477 1477 1477 1477 1477 1477 1477 1477 1477 1477 1477 1477 1477 1477 1477 1477 1477 1477 1477 1477 1477 1477 1477 1477 1483 1483 1483 1483 1483 1483 1483 1483 1483 1477 1477 1477 1477 1477 1477 1477 1477 1477 1477 1477 1477 1477 1477 1483 1483 1483 1483 1483 1483 1483 1477 1477 1477 1477 1477 1483 1483 1483 1483 1489 1489 1489 1489 1489 1489 1489 1489 1489 1489 1489 1489 1489 1489 1489 1489 1489 1489 1489 1483 1483 1464 1452 1445 1445 1445 1445 1445 1445 1452 1452 1452 1458 1458 1470 1477 1489 1489 1496 1503 1523 1557 1564 1579 1586 1594 1594 1601 2286 2286 2286 2286 2286 2286 2286 2271 2271 2271 2271 2271 1853 1853 1863 1863 1863 1863 1873 1873 1873 1873 1863 1863 1873 2286 2286 2301 2286 2286 2301 2301 0 0 0 0 1343 1343 1343 1349 1349 1349 1349 1349 1349 1349 1349 1354 1354 1349 1349 1349 1489 1489 1489 1489 1496 1496 1496 1496 1496 1496 1496 1496 1496 1496 1496 1496 1496 1503 1503 1503 1496 1496 1496 1496 1496 1496 1496 1496 1496 1496 1496 1496 1496 1496 1503 1503 1503 1503 1503 1503 1503 1496 1496 1496 1496 1496 1496 1496 1496 1496 1496 1496 1496 1496 1496 1503 1509 1509 1509 1503 1503 1503 1496 1496 1496 1503 1503 1503 1503 1503 1503 1496 1496 1496 1503 1503 1496 1496 1496 1496 1496 1503 1496 1496 1496 1496 1496 1496 1496 1496 1503 1509 1503 1503 1509 1509 1509 1509 1503 1503 1509 1509 1509 1509 1317 1317 1322 1322 1322 1322 1322 1322 1322 1322 1322 1322 1322 1322 1328 0 0 0 0 0 0 0 2053 2053 2053 2040 2040 2040 2053 2053 1863 1863 1873 1873 1883 1883 1883 1883 1883 1883 1883 2212 2212 2212 2212 2212 2212 2212 2212 2212 2212 2212 2212 2226 2241 2271 2301 2317 2317 2317 2317 2317 2317 2317 2317 2317 2317 2317 2317 2317 2317 2317 2317 2317 2317 2317 2317 2317 2317 2317 2317 2317 2317 0 1427 1427 1427 1433 1439 1439 1439 1445 1445 1445 1445 1445 1445 1445 1445 1445 1445 1445 1445 1452 1452 1452 1452 1452 1452 1452 1452 1452 1452 1452 2271 2271 2271 2271 2286 2286 2301 2301 2301 2301 2301 2301 2301 2301 2301 2301 2301 2301 2301 2301 2301 2301 2301 2301 2301 2301 2301 2301 2301 2301 2301 2317 2317 2317 2317 2301 2301 2301 2301 2301 2301 2301 2301 2301 2301 2301 2301 2301 2317 2317 2317 2317 2317 2317 2317 2317 2317 2317 2317 2317 2317 2317 2301 2301 2301 2317 2317 2317 2317 2317 2317 2317 2317 2317 2317 2317 2317 2317 2317 2317 2317 2301 2301 2301 2301 2286 2286 2286 2286 2286 2301 2301 2301 2301 2301 2301 2301 2301 2301 2286 2286 2286 2286 2286 2286 2286 2286 2286 2286 2286 2286 2271 2271 2271 2271 2271 2271 2271 2286 2286 2286 2286 2301 2301 2286 2286 2286 0 0 0 0 0 0 0 0 0
0 0 0 0 0 0 0 0 0 0 0 0 0 0 0 0 0 0 0 0 0 0 0 0 0 0 0 0 0 0 0 0 0 2184 2184 2184 2184 2184 2184 2184 2184 2184 2198 2198 2198 2212 2212 2212 2212 2212 2212 2198 2198 2198 2198 2198 2212 2212 2212 2212 2212 2198 2198 2198 2198 2184 2184 2184 2184 2184 2184 2184 2198 2198 2198 2198 2198 2198 2198 2198 2184 2184 2198 2198 2198 1529 1523 1523 1523 1523 1523 1523 1523 1523 1523 1523 1523 1523 1523 1516 1503 1458 1452 1452 1452 1452 1445 1445 1445 1445 1452 1452 1452 1452 1458 1464 1464 1464 1464 1470 1470 1477 1470 1470 1470 1470 1470 1470 1470 1477 1477 1477 1477 1477 1477 1477 1477 1477 1477 1470 1470 1470 1470 1477 1477 1477 1477 1477 1477 1477 1477 1477 1477 1477 1477 1477 1470 1470 1470 1470 1470 1470 1470 1470 1477 1477 1477 1477 1477 1477 1477 1477 1477 1477 1477 1477 1477 1477 1477 1477 1477 1477 1477 1477 1477 1477 1483 1483 1483 1483 1483 1483 1483 1483 1483 1483 1483 1483 1483 1483 1483 1483 1483 1483 1483 1483 1477 1464 1458 1452 1452 1445 1445 1445 1445 1452 1452 1452 1458 1458 1470 1477 1489 1496 1496 1503 1536 1557 1564 1572 1586 1594 1594 1601 2271 2271 2271 2271 2286 2286 2271 2271 2271 2271 2271 2271 1863 1863 1883 1873 1863 1863 1873 1873 1873 1873 1873 1873 1863 1863 2286 2286 2286 2286 2286 2286 2301 2301 0 1343 1343 1343 1349 1349 1349 1349 1349 1349 1349 1349 1349 1354 1354 1349 1349 1349 1483 1483 1483 1489 1489 1489 1489 1489 1489 1489 1489 1489 1489 1496 1496 1496 1496 1496 1496 1489 1489 1489 1489 1489 1489 1489 1489 1489 1489 1489 1489 1489 1489 1489 1489 1496 1496 1496 1496 1496 1496 1496 1496 1496 1496 1496 1496 1496 1489 1489 1489 1489 1489 1489 1489 1496 1503 1503 1496 1496 1489 1489 1489 1489 1489 1489 1489 1496 1496 1496 1496 1496 1496 1496 1496 1489 1489 1489 1489 1496 1496 1496 1496 1496 1496 1496 1489 1489 1496 1496 1496 1503 1503 1503 1503 1503 1503 1503 1503 1503 1503 1503 1503 1503 1322 1322 1322 1322 1322 1322 1322 1322 1322 1322 1322 1322 1322 1322 1322 0 0 0 0 0 0 0 2053 2053 2053 2040 2040 2040 2053 2040 1863 1863 1873 1873 1883 1883 1883 1883 1883 1883 1883 2212 2212 2212 2212 2212 2212 2212 2212 2212 2212 2212 2212 2226 2241 2256 2271 2301 2317 2317 2317 2317 2317 2317 2317 2317 2317 2317 2317 2317 2317 2317 2317 2317 2317 2317 2317 2317 2317 2317 2317 2317 2317 1433 1427 1427 1427 1433 1439 1439 1439 1445 1445 1445 1445 1445 1445 1445 1445 1445 1445 1445 1445 1452 1452 1452 1452 1452 1458 1452 1452 1452 1452 1452 2256 2256 2256 2256 2271 2271 2286 2286 2286 2286 2286 2301 2301 2301 2301 2301 2301 2301 2301 2301 2301 2301 2301 2301 2301 2301 2301 2301 2301 2301 2301 2301 2301 2301 2301 2301 2301 2301 2301 2301 2301 2301 2301 2301 2301 2301 2301 2301 2301 2301 2301 2301 2301 2301 2301 2301 2301 2301 2301 2317 2301 2301 2301 2301 2301 2301 2301 2301 2301 2301 2317 2317 2301 2301 2301 2301 2301 2301 2301 2301 2301 2301 2301 2301 2301 2286 2286 2286 2286 2286 2286 2286 2286 2286 2286 2286 2286 2286 2286 2286 2286 2286 2286 2286 2286 2286 2286 2286 2286 2286 2286 2271 2271 2271 2256 2256 2271 2271 2271 2286 2286 2286 2286 2286 2286 2286 2286 0 0 0 0 0 0 0 0 0
0 0 0 0 0 0 0 0 0 0 0 0 0 0 0 0 0 0 0 0 0 0 0 0 0 0 0 0 0 0 0 0 0 2184 2184 2184 2184 2184 2184 2184 2184 2184 2184 2198 2198 2198 2198 2198 2198 2198 2198 2198 2198 2198 2184 2184 2212 2212 2212 2212 2198 2198 2198 2198 2184 2170 2156 2156 2170 2184 2184 2184 2184 2184 2198 2198 2198 2198 2198 2184 2184 2184 2170 2170 2170 1529 1529 1529 1523 1523 1523 1523 1523 1523 1523 1523 1523 1523 1523 1516 1503 1458 1452 1452 1452 1452 1445 1445 1452 1452 1452 1452 1452 1452 1458 1458 1464 1464 1464 1464 1470 1470 1470 1470 1470 1470 1470 1470 1470 1470 1477 1477 1477 1477 1477 1477 1477 1477 1470 1470 1470 1470 1470 1470 1470 1470 1477 1477 1477 1477 1477 1477 1477 1477 1477 1477 1470 1470 1470 1470 1470 1470 1470 1470 1470 1470 1470 1470 1470 1470 1470 1470 1470 1470 1470 1477 1477 1470 1470 1470 1470 1470 1470 1477 1477 1477 1477 1477 1477 1477 1477 1477 1477 1477 1477 1477 1477 1477 1477 1477 1477 1477 1477 1477 1477 1477 1477 1464 1458 1452 1452 1452 1452 1452 1452 1452 1452 1452 1458 1464 1470 1477 1489 1496 1496 1509 1543 1557 1557 1564 1586 1594 1594 2256 2256 2271 2271 2271 2271 2271 2271 2271 2271 2271 2256 2256 2271 1883 1883 1873 1873 1873 1873 1873 1873 1873 1873 1873 1863 1853 1853 2271 2271 2271 2271 2271 2286 2286 0 1343 1343 1343 1343 1349 1349 1354 1354 1354 1354 1354 1354 1354 1354 1354 1349 1349 1483 1483 1483 1489 1489 1489 1489 1489 1489 1489 1489 1489 1489 1489 1489 1489 1489 1489 1489 1483 1483 1483 1483 1483 1483 1483 1483 1483 1483 1483 1483 1483 1483 1483 1483 1489 1496 1496 1489 1489 1483 1483 1489 1489 1489 1489 1489 1489 1489 1483 1483 1483 1483 1483 1483 1483 1483 1483 1483 1483 1483 1483 1483 1489 1489 1489 1489 1489 1489 1489 1489 1489 1489 1489 1489 1489 1489 1489 1489 1489 1489 1489 1489 1489 1489 1489 1489 1489 1489 1489 1489 1496 1496 1496 1503 1503 1503 1503 1496 1496 1496 1496 1496 1496 1322 1322 1322 1322 1322 1322 1322 1322 1328 1328 1322 1322 1322 1322 1322 0 0 0 0 0 0 0 2053 2053 2053 2040 2040 2040 2040 2040 1873 1873 1873 1883 1883 1883 1883 1883 1883 1883 1883 2212 2212 2212 2212 2212 2212 2212 2212 2212 2212 2212 2212 2226 2241 2256 2271 2301 2301 2301 2301 2301 2301 2301 2301 2301 2301 2301 2301 2301 2301 2301 2301 2301 2301 2301 2301 2317 2317 2317 2317 2317 0 1433 1433 1433 1433 1433 1439 1439 1445 1445 1445 1445 1445 1445 1445 1445 1445 1445 1445 1452 1452 1452 1452 1452 1452 1452 1458 1452 1452 1452 1452 1452 2241 2241 2256 2256 2256 2271 2271 2271 2271 2271 2286 2286 2286 2286 2286 2286 2286 2286 2286 2301 2301 2301 2301 2301 2286 2286 2286 2286 2301 2301 2301 2301 2301 2301 2286 2286 2286 2286 2286 2286 2301 2301 2301 2301 2301 2286 2286 2286 2301 2301 2301 2301 2301 2301 2301 2301 2301 2301 2301 2301 2301 2301 2301 2301 2301 2301 2301 2301 2301 2301 2301 2301 2301 2301 2301 2301 2301 2301 2301 2301 2301 2301 2301 2286 2286 2286 2286 2286 2286 2286 2286 2286 2286 2286 2286 2286 2286 2271 2271 2286 2286 2286 2286 2286 2286 2286 2271 2271 2286 2286 2271 2271 2271 2271 2256 2256 2271 2271 2271 2271 2271 2286 2286 2286 2286 2271 2271 0 0 0 0 0 0 0 0 0
0 0 0 0 0 0 0 0 0 0 0 0 0 0 0 0 0 0 0 0 0 0 0 0 0 0 0 0 0 0 0 0 0 2170 2170 2170 2170 2170 2170 2170 2170 2170 2184 2184 2184 2184 2198 2184 2184 2184 2184 2184 2184 2184 2184 2184 2198 2212 2198 2198 2198 2198 2184 2184 2170 2156 2156 2156 2156 2156 2170 2170 2184 2184 2184 2184 2184 2184 2184 2170 2170 2170 2156 2156 2156 1536 1529 1529 1529 1523 1523 1523 1529 1529 1529 1529 1529 1529 1523 1523 1509 1464 1458 1452 1452 1452 1452 1452 1452 1452 1452 1452 1452 1452 1458 1458 1464 1464 1464 1464 1470 1470 1470 1470 1470 1470 1470 1470 1470 1470 1470 1470 1470 1470 1470 1470 1470 1470 1470 1464 1464 1464 1470 1470 1470 1470 1470 1477 1477 1477 1477 1477 1477 1477 1477 1477 1470 1470 1470 1464 1464 1464 1470 1470 1470 1470 1470 1470 1470 1470 1470 1470 1470 1470 1470 1470 1470 1470 1470 1470 1470 1470 1470 1470 1470 1477 1477 1477 1477 1477 1477 1477 1477 1477 1477 1477 1477 1477 1477 1477 1477 1477 1477 1477 1477 1477 1470 1470 1464 1458 1458 1452 1452 1452 1452 1452 1452 1452 1458 1464 1470 1477 1489 1496 1496 1516 1543 1550 1557 1564 1586 1594 1594 2256 2256 2256 2256 2256 2271 2271 2256 2256 2256 2256 2256 2256 2256 1883 1883 1873 1873 1873 1873 1873 1883 1883 1873 1873 1873 1853 1853 2271 2256 2256 2256 2271 2271 2271 0 0 1343 1343 1343 1349 1349 1354 1354 1354 1354 1354 1354 1354 1354 1354 1354 1354 1483 1483 1483 1483 1483 1489 1489 1483 1483 1483 1483 1483 1483 1483 1483 1483 1489 1483 1483 1477 1477 1477 1477 1477 1477 1477 1483 1477 1477 1477 1477 1477 1477 1477 1477 1477 1477 1477 1477 1477 1477 1477 1483 1483 1483 1483 1483 1483 1483 1483 1483 1483 1483 1483 1483 1483 1483 1483 1483 1483 1483 1483 1483 1483 1483 1483 1483 1483 1483 1483 1483 1483 1483 1483 1483 1483 1483 1483 1483 1483 1489 1489 1489 1489 1489 1489 1483 1483 1483 1483 1489 1489 1489 1489 1489 1489 1496 1496 1489 1489 1489 1489 1489 1328 1328 1328 1322 1322 1322 1322 1328 1328 1328 1328 1322 1322 1322 1322 1317 1317 0 0 0 0 0 0 2053 2053 2053 2040 2028 2028 2040 2016 1873 1873 1883 1883 1883 1883 1883 1883 1883 1883 1883 1904 2212 2212 2212 2212 2212 2212 2212 2212 2212 2212 2212 2226 2241 2256 2271 2286 2301 2301 2301 2286 2286 2286 2286 2301 2301 2301 2301 2301 2301 2301 2301 2301 2301 2301 2301 2317 2317 2317 2333 2333 0 1433 1433 1433 1433 1439 1439 1445 1445 1445 1445 1445 1445 1452 1445 1445 1445 1452 1452 1452 1452 1452 1452 1452 1452 1452 1458 1452 1452 1452 1452 2256 2241 2241 2241 2256 2256 2256 2256 2256 2256 2256 2271 2271 2271 2271 2271 2286 2286 2286 2286 2286 2286 2286 2286 2286 2286 2286 2286 2286 2286 2286 2286 2286 2286 2286 2271 2271 2271 2271 2271 2286 2286 2301 2301 2301 2286 2286 2286 2286 2286 2286 2286 2286 2286 2286 2286 2286 2286 2286 2286 2286 2286 2286 2286 2286 2286 2286 2286 2286 2286 2286 2286 2286 2286 2286 2301 2301 2301 2301 2286 2286 2286 2286 2286 2271 2271 2271 2271 2271 2256 2256 2271 2271 2271 2271 2271 2271 2271 2271 2271 2286 2271 2271 2271 2271 2271 2271 2271 2271 2271 2271 2271 2256 2256 2256 2256 2256 2256 2256 2256 2256 2271 2271 2271 2271 2256 2256 2256 0 0 0 0 0 0 0 0 0
0 0 0 0 0 0 0 0 0 0 0 0 0 0 0 0 0 0 0 0 0 0 0 0 0 0 0 0 0 0 0 0 0 2170 2170 2170 2170 2170 2170 2170 2170 2170 2184 2184 2184 2184 2184 2184 2184 2184 2184 2170 2170 2170 2170 2184 2198 2198 2198 2198 2198 2198 2184 2184 2170 2156 2156 2156 2156 2156 2170 2170 2184 2184 2170 2170 2184 2184 2184 2170 2170 2170 2156 2156 2156 2156 1529 1523 1523 1523 1523 1523 1529 1529 1529 1529 1529 1529 1529 1523 1516 1503 1458 1458 1452 1452 1452 1452 1452 1452 1452 1452 1452 1452 1458 1458 1464 1464 1464 1464 1464 1470 1470 1470 1470 1470 1470 1470 1470 1470 1470 1470 1470 1470 1470 1470 1470 1470 1464 1464 1464 1464 1464 1470 1470 1470 1470 1470 1477 1477 1477 1477 1477 1477 1477 1477 1470 1470 1470 1464 1464 1464 1464 1464 1470 1470 1470 1470 1470 1470 1470 1470 1470 1470 1470 1470 1470 1470 1470 1470 1470 1470 1470 1470 1470 1470 1477 1477 1470 1470 1470 1470 1477 1477 1477 1477 1477 1477 1470 1470 1470 1470 1470 1470 1470 1470 1470 1470 1470 1464 1458 1452 1452 1452 1452 1452 1452 1452 1458 1464 1470 1483 1489 1503 1503 1523 1543 1550 1557 1557 1557 1557 2256 2271 2271 2256 2256 2256 2256 2271 2256 2256 2241 2241 2241 2241 2241 1873 1873 1873 1873 1873 1873 1883 1883 1883 1873 1873 1873 2226 2241 2256 2241 2241 2256 2256 2256 2256 1947 1947 1359 1359 1354 1354 1354 1354 1354 1354 1354 1354 1354 1354 1354 1354 1354 1354 1483 1483 1483 1483 1483 1483 1483 1483 1477 1477 1477 1477 1477 1477 1477 1477 1477 1477 1477 1470 1470 1470 1470 1470 1470 1470 1477 1477 1477 1477 1470 1470 1470 1470 1470 1470 1470 1470 1470 1470 1470 1470 1477 1477 1477 1477 1477 1477 1477 1477 1477 1477 1477 1477 1477 1477 1477 1477 1477 1477 1477 1477 1477 1477 1477 1477 1470 1470 1470 1477 1477 1477 1477 1483 1483 1483 1483 1483 1483 1483 1483 1483 1483 1483 1483 1483 1483 1483 1483 1483 1483 1483 1483 1483 1489 1489 1483 1483 1483 1483 1489 1483 1483 1328 1328 1328 1328 1328 1328 1328 1328 1328 1328 1328 1328 1328 1328 1322 1317 1317 0 0 0 0 0 0 2040 2040 2040 2028 2028 2028 2040 2005 1883 1883 1883 1883 1883 1883 1883 1894 1894 1894 1894 1904 2212 2212 2212 2212 2212 2212 2212 2212 2212 2212 2212 2226 2241 2256 2271 2286 2286 2286 2286 2286 2286 2286 2286 2286 2286 2286 2286 2301 2301 2286 2286 2286 2286 2286 2301 2301 2301 2333 2349 2349 0 1433 1433 1433 1439 1439 1439 1445 1445 1452 1452 1452 1452 1452 1452 1452 1452 1452 1452 1452 1452 1452 1452 1452 1452 1452 1458 1452 1452 1452 2256 2256 2241 2241 2241 2256 2256 2256 2256 2256 2256 2256 2256 2256 2256 2271 2271 2271 2271 2271 2271 2271 2286 2286 2286 2286 2271 2271 2271 2271 2271 2271 2271 2286 2256 2256 2256 2256 2256 2271 2271 2271 2271 2271 2286 2286 2286 2286 2286 2286 2286 2286 2286 2286 2286 2286 2286 2286 2286 2271 2271 2271 2271 2271 2271 2286 2286 2286 2286 2286 2286 2286 2286 2286 2286 2286 2286 2286 2286 2286 2286 2271 2271 2271 2271 2271 2271 2256 2256 2256 2256 2256 2256 2256 2271 2271 2271 2271 2271 2271 2271 2271 2256 2256 2256 2256 2256 2256 2256 2256 2256 2256 2256 2256 2241 2241 2241 2241 2241 2241 2241 2241 2241 2256 2256 2241 2241 2241 2241 0 0 0 0 0 0 0 0 0
0 0 0 0 0 0 0 0 0 0 0 0 0 0 0 0 0 0 0 0 0 0 0 0 0 0 0 0 0 0 0 0 0 2170 2170 2170 2170 2170 2156 2156 2170 2170 2170 2170 2170 2184 2184 2170 2170 2170 2170 2170 2170 2170 2170 2170 2198 2198 2198 2198 2198 2184 2184 2184 2170 2156 2156 2143 2143 2143 2156 2156 2156 2156 2170 2170 2170 2170 2170 2156 2156 2156 2156 2156 2156 2156 1529 1523 1523 1523 1523 1523 1523 1529 1529 1529 1529 1529 1529 1529 1523 1509 1496 1458 1458 1452 1452 1452 1452 1452 1452 1452 1458 1458 1458 1458 1464 1464 1464 1464 1464 1470 1470 1470 1470 1470 1470 1470 1470 1470 1470 1470 1470 1470 1464 1464 1464 1464 1464 1464 1464 1464 1464 1470 1470 1470 1470 1470 1477 1477 1477 1477 1477 1477 1477 1477 1470 1464 1464 1464 1464 1464 1464 1464 1464 1464 1470 1470 1470 1464 1464 1464 1464 1464 1464 1464 1470 1470 1470 1470 1470 1470 1470 1470 1470 1470 1470 1470 1470 1470 1470 1470 1470 1470 1470 1470 1470 1470 1470 1470 1470 1470 1470 1470 1470 1470 1464 1464 1464 1458 1458 1452 1452 1452 1452 1452 1452 1452 1458 1464 1470 1483 1496 1503 1509 1523 1543 1550 1550 1557 1557 0 2256 2256 2256 2256 2256 2256 2256 2256 2241 2241 2241 2241 2241 2226 2226 1863 1863 1873 1873 1873 1873 1873 1883 1883 1883 1873 1873 2226 2226 2226 2241 2241 2256 2256 1947 1947 1947 1947 1359 1359 1359 1354 1354 1354 1354 1354 1354 1354 1354 1359 1359 1359 1354 1354 1477 1477 1477 1477 1477 1477 1477 1477 1470 1470 1470 1470 1470 1470 1470 1470 1470 1470 1470 1470 1470 1470 1470 1470 1470 1470 1470 1470 1470 1470 1470 1470 1470 1470 1470 1470 1470 1470 1470 1470 1470 1470 1470 1477 1477 1470 1470 1470 1470 1470 1470 1470 1470 1470 1470 1470 1470 1470 1470 1470 1470 1470 1470 1470 1470 1470 1470 1470 1470 1470 1470 1470 1477 1477 1477 1477 1477 1477 1477 1477 1477 1477 1477 1477 1477 1477 1477 1477 1477 1477 1477 1483 1483 1483 1483 1483 1483 1483 1483 1483 1483 1483 1483 1483 1333 1328 1328 1328 1328 1328 1328 1328 1328 1328 1328 1328 1328 1322 1322 1322 0 0 0 0 0 0 2028 2028 2028 2028 2028 2028 2005 2005 1883 1883 1883 1883 1883 1883 1883 1883 1883 1894 1894 1904 2212 2212 2212 2212 2212 2212 2212 2212 2212 2212 2212 2226 2226 2256 2256 2271 2271 2271 2271 2271 2271 2271 2271 2286 2286 2286 2286 2286 2286 2271 2271 2271 2271 2271 2286 2286 2301 2301 2301 2301 0 1439 1439 1439 1439 1439 1439 1445 1452 1452 1452 1452 1452 1452 1452 1452 1452 1452 1452 1452 1452 1452 1452 1452 1458 1458 1458 1452 1452 1452 2241 2241 2241 2241 2241 2256 2256 2256 2256 2256 2256 2256 2256 2256 2256 2256 2256 2256 2256 2256 2271 2271 2271 2271 2286 2271 2271 2271 2271 2271 2271 2271 2271 2271 2256 2256 2256 2256 2256 2256 2271 2271 2271 2271 2271 2271 2271 2271 2271 2271 2271 2271 2271 2271 2271 2271 2271 2271 2271 2271 2256 2256 2271 2271 2271 2271 2271 2286 2271 2271 2286 2286 2286 2271 2271 2271 2286 2271 2271 2271 2271 2256 2256 2271 2271 2256 2256 2256 2256 2256 2256 2256 2256 2256 2256 2256 2256 2256 2256 2256 2256 2256 2241 2241 2241 2241 2241 2241 2241 2256 2256 2256 2241 2241 2241 2241 2241 2241 2241 2241 2241 2241 2241 2241 2241 2241 2241 2241 2241 0 0 0 0 0 0 0 0 0
0 0 0 0 0 0 0 0 0 0 0 0 0 0 0 0 0 0 0 0 0 0 0 0 0 0 0 0 0 0 0 0 0 2170 2156 2156 2156 2156 2156 2156 2170 2156 2156 2156 2170 2184 2170 2170 2170 2170 2170 2156 2156 2156 2156 2156 2170 2170 2170 2184 2184 2184 2184 2170 2170 2143 2143 2143 2143 2143 2143 2156 2156 2156 2156 2156 2156 2156 2156 2156 2156 2156 2156 2156 2156 2156 1523 1523 1523 1523 1523 1523 1523 1523 1523 1529 1529 1529 1529 1529 1523 1509 1503 1458 1458 1452 1452 1452 1452 1452 1452 1458 1458 1458 1458 1458 1464 1464 1464 1464 1464 1470 1470 1470 1470 1470 1470 1470 1470 1470 1477 1477 1470 1470 1464 1464 1464 1464 1464 1464 1464 1464 1464 1470 1470 1470 1470 1470 1477 1477 1477 1477 1477 1477 1477 1477 1470 1464 1464 1464 1464 1464 1464 1464 1464 1464 1470 1470 1470 1464 1464 1464 1464 1464 1464 1464 1464 1464 1464 1470 1470 1470 1470 1470 1470 1470 1470 1470 1470 1470 1470 1470 1470 1470 1470 1470 1470 1470 1470 1470 1470 1470 1470 1470 1470 1464 1464 1464 1464 1458 1458 1452 1452 1452 1452 1452 1452 1452 1458 1464 1470 1483 1496 1509 1516 1536 1543 1550 1550 1557 1557 2212 2256 2256 2256 2256 2256 2256 2256 2256 2241 2241 2241 2241 2226 2226 2226 1863 1863 1873 1873 1873 1873 1873 1883 1883 1883 1883 2226 2226 2226 2226 2226 2241 2256 2256 1947 1947 1947 1947 0 1359 1359 1359 1359 1359 1359 1359 1359 1359 1359 1359 1365 1365 1365 1470 1470 1470 1470 1470 1470 1470 1470 1470 1470 1464 1464 1464 1464 1470 1470 1470 1470 1470 1470 1470 1464 1464 1464 1464 1464 1470 1470 1470 1470 1470 1470 1470 1470 1464 1464 1470 1470 1470 1470 1470 1470 1470 1470 1470 1470 1464 1464 1470 1470 1470 1464 1464 1464 1464 1464 1464 1464 1464 1464 1464 1464 1464 1470 1470 1470 1464 1464 1464 1464 1470 1470 1470 1470 1470 1470 1470 1470 1470 1470 1470 1470 1470 1470 1470 1470 1470 1470 1470 1470 1470 1470 1470 1470 1470 1483 1483 1483 1477 1477 1477 1477 1477 1477 1483 1333 1333 1328 1328 1328 1328 1328 1328 1328 1328 1328 1328 1328 1328 1328 1328 0 0 0 0 2256 2256 2016 2016 2016 2016 2005 2005 1993 1981 1883 1883 1883 1883 1883 1883 1883 1883 1883 1894 1894 1904 2212 2212 2212 2212 2212 2212 2212 2212 2212 2212 2212 2226 2226 2241 2256 2271 2271 2271 2271 2271 2271 2271 2271 2271 2271 2286 2271 2271 2271 2271 2271 2271 2271 2271 2271 2271 2271 2271 2271 0 1439 1439 1439 1439 1439 1445 1445 1452 1452 1452 1452 1452 1452 1452 1452 1452 1452 1452 1452 1452 1452 1452 1452 1452 1458 1458 1458 1452 1452 1452 2241 2241 2241 2241 2241 2241 2256 2256 2256 2256 2256 2256 2256 2256 2256 2256 2256 2256 2256 2256 2256 2271 2271 2271 2271 2271 2271 2256 2256 2256 2256 2256 2256 2256 2256 2256 2256 2256 2256 2256 2256 2256 2256 2256 2271 2271 2256 2256 2256 2256 2256 2256 2256 2256 2256 2271 2271 2271 2271 2256 2256 2256 2256 2256 2256 2271 2271 2286 2271 2271 2271 2271 2271 2271 2271 2271 2271 2271 2271 2256 2256 2256 2256 2256 2256 2256 2256 2241 2241 2241 2241 2241 2241 2241 2241 2241 2241 2241 2241 2241 2241 2241 2241 2241 2241 2226 2226 2241 2241 2241 2241 2241 2241 2241 2241 2226 2226 2226 2226 2241 2241 2241 2241 2241 2241 2241 2241 2241 2241 0 0 0 0 0 0 0 0 0
0 0 0 0 0 0 0 0 0 0 0 0 0 0 0 0 0 0 0 0 0 0 0 0 0 0 0 0 0 0 0 0 0 2156 2156 2156 2156 2156 2156 2156 2156 2156 2156 2156 2170 2170 2170 2156 2156 2156 2156 2156 2156 2156 2156 2156 2170 2170 2170 2184 2170 2170 2170 2170 2156 2143 2143 2143 2143 2143 2143 2143 2156 2156 2156 2156 2156 2156 2156 2156 2156 2156 2156 2156 2156 2156 2156 1523 1523 1516 1516 1516 1523 1523 1523 1529 1529 1529 1529 1529 1523 1523 1503 1477 1458 1458 1452 1452 1452 1452 1458 1458 1458 1458 1464 1464 1464 1464 1464 1464 1464 1470 1470 1470 1470 1470 1477 1477 1477 1477 1477 1477 1470 1470 1470 1470 1470 1470 1464 1464 1464 1464 1464 1470 1470 1470 1470 1470 1477 1477 1477 1477 1477 1477 1477 1477 1464 1464 1464 1464 1464 1464 1464 1464 1464 1464 1470 1470 1470 1464 1464 1464 1464 1464 1464 1464 1464 1464 1464 1464 1470 1470 1470 1470 1470 1470 1470 1470 1470 1470 1470 1470 1470 1470 1470 1470 1470 1470 1470 1470 1470 1470 1470 1470 1470 1464 1464 1464 1464 1464 1458 1452 1452 1452 1452 1452 1452 1452 1458 1464 1470 1483 1496 1516 1523 1536 1543 1550 1550 1557 1557 2212 2212 2212 2241 2241 2256 2256 2256 2256 2241 2241 2226 2226 2226 2226 1873 1873 1873 1873 1873 1873 1873 1883 1883 1883 1883 1883 2226 2226 2226 2226 2226 2241 2241 2256 1947 1947 1947 1947 0 1359 1359 1359 1359 1359 1359 1359 1359 1359 1359 1359 1365 1365 1365 1470 1470 1464 1464 1464 1470 1470 1464 1464 1464 1464 1464 1464 1464 1464 1464 1464 1464 1464 1464 1464 1464 1464 1464 1464 1464 1464 1464 1464 1464 1464 1464 1464 1464 1464 1464 1464 1464 1464 1464 1470 1470 1470 1470 1470 1470 1464 1464 1464 1464 1464 1464 1458 1458 1464 1464 1464 1464 1464 1464 1464 1464 1464 1464 1464 1464 1464 1464 1464 1464 1464 1464 1464 1464 1464 1464 1464 1464 1464 1464 1464 1464 1464 1470 1470 1470 1470 1470 1470 1470 1470 1464 1464 1464 1464 1464 1464 1470 1470 1470 1470 1477 1477 1477 1483 1333 1333 1333 1333 1333 1333 1333 1333 1333 1333 1328 1328 1333 1328 1328 1328 0 0 0 0 2256 2256 2016 2016 2016 2016 2005 1993 1981 1915 1894 1883 1883 1883 1883 1894 1894 1883 1883 1894 1894 1904 2212 2212 2212 2226 2212 2212 2212 2212 2212 2212 2212 2226 2226 2241 2241 2256 2271 2256 2256 2271 2271 2271 2271 2271 2271 2271 2271 2271 2271 2271 2271 2256 2256 2256 2256 2256 2256 2256 2256 0 1445 1445 1445 1445 1445 1445 1445 1452 1452 1452 1452 1452 1452 1452 1452 1452 1452 1452 1452 1458 1458 1458 1458 1458 1458 1458 1458 1452 1452 1452 2226 2226 2241 2241 2241 2241 2241 2256 2256 2241 2241 2241 2256 2241 2241 2256 2256 2256 2256 2256 2256 2256 2256 2256 2256 2256 2256 2256 2256 2256 2256 2256 2256 2256 2256 2256 2256 2256 2256 2256 2256 2256 2256 2256 2256 2256 2256 2256 2256 2256 2256 2256 2256 2256 2256 2256 2256 2256 2256 2256 2256 2256 2256 2256 2256 2271 2271 2286 2271 2271 2271 2271 2256 2256 2256 2256 2256 2256 2256 2241 2241 2241 2241 2241 2241 2241 2241 2241 2241 2241 2241 2241 2241 2241 2241 2241 2241 2226 2226 2226 2226 2226 2226 2226 2226 2226 2226 2226 2226 2226 2226 2226 2226 2226 2226 2226 2226 2226 2226 2226 2226 2226 2226 2241 2241 2226 2226 2226 2226 0 0 0 0 0 0 0 0 0
0 0 0 0 0 0 0 0 0 0 0 0 0 0 0 0 0 0 0 0 0 0 0 0 0 0 0 0 0 0 0 0 0 2156 2143 2143 2143 2143 2143 2143 2143 2143 2143 2156 2156 2156 2156 2156 2156 2156 2156 2156 2156 2156 2156 2156 2156 2156 2156 2170 2170 2170 2170 2156 2156 2143 2143 2129 2129 2129 2143 2143 2143 2143 2143 2143 2143 2156 2143 2143 2143 2143 2143 2143 2143 2156 2156 1523 1523 1516 1516 1516 1523 1523 1523 1529 1529 1529 1529 1529 1529 1529 1509 1477 1464 1458 1458 1452 1452 1458 1458 1458 1458 1458 1464 1464 1464 1470 1464 1464 1470 1470 1470 1470 1470 1477 1477 1477 1477 1477 1477 1477 1477 1470 1470 1470 1470 1470 1464 1464 1464 1464 1470 1470 1470 1470 1470 1470 1477 1477 1477 1477 1477 1477 1477 1477 1464 1464 1464 1464 1464 1464 1464 1464 1464 1464 1470 1470 1470 1470 1470 1464 1464 1464 1464 1464 1464 1464 1464 1464 1470 1470 1470 1470 1470 1470 1470 1470 1470 1470 1470 1470 1470 1470 1470 1470 1470 1470 1470 1470 1470 1470 1470 1470 1470 1464 1464 1464 1464 1464 1458 1458 1458 1452 1452 1458 1452 1452 1458 1464 1470 1477 1496 1509 1523 1536 1543 1550 1550 1550 2198 2198 2198 2212 2241 2241 2241 2256 2256 2256 2241 2226 2226 2226 2226 2226 1873 1873 1873 1873 1873 1873 1873 1883 1883 1883 1883 1883 2198 2212 2212 2226 2226 2241 2241 1936 1936 1936 1936 1947 0 1947 1365 1365 1365 1365 1365 1365 1359 1359 1365 1365 1370 1370 1370 1464 1464 1458 1458 1458 1464 1464 1458 1458 1458 1458 1458 1458 1458 1458 1464 1464 1464 1464 1464 1464 1464 1464 1464 1464 1464 1464 1464 1464 1464 1464 1464 1464 1464 1458 1458 1464 1464 1464 1464 1464 1464 1464 1470 1470 1464 1458 1458 1458 1458 1458 1458 1458 1458 1458 1458 1458 1458 1458 1464 1464 1464 1464 1464 1458 1458 1458 1458 1458 1458 1458 1458 1464 1464 1464 1464 1464 1464 1464 1464 1464 1464 1464 1464 1464 1464 1464 1464 1464 1464 1464 1464 1464 1464 1464 1464 1464 1464 1464 1464 1464 1470 1477 1477 1483 1333 1333 1333 1333 1333 1333 1333 1333 1333 1333 1333 1333 1333 1333 1333 0 0 0 2241 2241 2256 2256 2256 2005 2005 2005 2005 1993 1981 1915 1904 1894 1894 1894 1894 1894 1894 1894 1894 1894 1894 2212 2212 2212 2226 2226 2212 2212 2212 2212 2212 2212 2212 2226 2226 2226 2241 2241 2256 2256 2256 2256 2256 2256 2256 2256 2256 2256 2256 2256 2256 2256 2256 2256 2256 2256 2256 2256 2241 2241 2241 0 1452 1452 1452 1452 1452 1445 1445 1452 1452 1452 1452 1452 1452 1452 1452 1458 1458 1458 1458 1458 1458 1458 1458 1458 1458 1458 1458 1452 1452 1452 2212 2212 2226 2241 2241 2241 2241 2241 2241 2241 2241 2241 2241 2241 2241 2241 2241 2256 2256 2256 2256 2256 2256 2256 2256 2256 2256 2256 2256 2256 2256 2256 2256 2256 2256 2256 2256 2256 2256 2256 2256 2256 2256 2256 2256 2256 2256 2256 2256 2256 2256 2256 2256 2256 2256 2256 2256 2256 2256 2256 2256 2256 2256 2256 2256 2271 2271 2271 2256 2256 2256 2256 2256 2256 2241 2241 2256 2241 2241 2241 2241 2241 2241 2241 2241 2241 2241 2226 2226 2226 2226 2226 2226 2226 2226 2226 2226 2226 2226 2226 2226 2226 2226 2226 2226 2212 2212 2226 2226 2226 2226 2226 2226 2226 2226 2226 2226 2226 2226 2226 2226 2226 2226 2226 2226 2226 2226 2226 2226 0 0 0 0 0 0 0 0 0
0 0 0 0 0 0 0 0 0 0 0 0 0 0 0 0 0 0 0 0 0 0 0 0 0 0 0 0 0 0 0 0 0 2143 2143 2143 2143 2143 2143 2143 2143 2143 2143 2156 2156 2156 2156 2156 2156 2156 2156 2156 2156 2156 2156 2156 2143 2143 2143 2156 2156 2156 2156 2156 2143 2143 2129 2129 2129 2129 2129 2143 2143 2143 2143 2143 2143 2143 2143 2143 2143 2143 2143 2143 2143 2156 2156 1523 1523 1523 1523 1523 1523 1523 1523 1523 1523 1529 1529 1529 1529 1529 1523 1483 1464 1458 1458 1458 1458 1458 1458 1458 1458 1458 1464 1464 1464 1470 1470 1470 1470 1470 1477 1477 1477 1477 1477 1477 1477 1477 1477 1477 1477 1477 1470 1470 1470 1470 1470 1470 1470 1470 1470 1470 1470 1470 1470 1470 1477 1477 1477 1477 1477 1477 1477 1477 1470 1470 1470 1464 1464 1464 1464 1464 1470 1470 1470 1470 1470 1470 1470 1470 1470 1470 1464 1464 1464 1464 1464 1470 1470 1470 1470 1470 1470 1470 1470 1470 1470 1470 1470 1470 1470 1470 1470 1470 1470 1470 1470 1470 1470 1470 1470 1470 1470 1464 1464 1464 1464 1464 1458 1458 1458 1458 1458 1452 1452 1452 1458 1464 1470 1477 1496 1509 1523 1536 1543 1550 1550 2184 2184 2184 2198 2212 2226 2241 2241 2241 2241 2241 2226 2226 2226 2226 2226 2226 1873 1873 1873 1873 1873 1873 1873 1883 1883 1883 1883 2198 2198 2212 2212 2226 2226 2226 2226 1936 1936 1936 1936 1947 1947 0 1365 1365 1365 1365 1365 1365 1365 1365 1365 1365 1370 1370 1370 1464 1458 1452 1452 1452 1458 1458 1452 1452 1452 1452 1458 1452 1452 1458 1458 1458 1458 1458 1458 1458 1458 1458 1464 1464 1464 1464 1458 1458 1458 1458 1458 1458 1458 1458 1458 1464 1464 1464 1464 1464 1464 1464 1464 1464 1464 1458 1458 1458 1458 1458 1452 1452 1458 1458 1458 1458 1458 1458 1458 1458 1458 1458 1458 1458 1458 1458 1458 1458 1458 1458 1458 1458 1458 1458 1458 1458 1458 1458 1458 1458 1458 1458 1458 1458 1458 1458 1464 1458 1458 1458 1458 1458 1458 1458 1458 1458 1458 1458 1458 1458 1464 1464 1343 1343 1338 1338 1338 1338 1338 1338 1338 1333 1333 1338 1338 1333 1333 1338 0 0 0 2226 2226 2226 2241 2241 2241 2005 2005 2005 2005 1993 1981 1904 1894 1894 1894 1894 1894 1894 1894 1894 1894 1904 1904 2212 2212 2212 2226 2226 2212 2212 2212 2212 2212 2226 2226 2226 2226 2226 2241 2241 2241 2241 2241 2241 2241 2241 2241 2241 2241 2256 2241 2241 2256 2241 2241 2241 2241 2241 2241 2241 2226 2226 0 0 0 1452 1452 1452 1452 1452 1452 1452 1452 1452 1452 1452 1452 1452 1452 1458 1458 1458 1458 1458 1458 1458 1458 1458 1458 1458 1464 1464 1464 2198 2198 2198 2226 2226 2241 2241 2241 2241 2241 2241 2241 2241 2241 2241 2241 2241 2241 2241 2241 2241 2241 2241 2241 2241 2241 2241 2241 2241 2241 2241 2256 2256 2256 2256 2256 2241 2241 2256 2256 2256 2256 2256 2256 2256 2241 2241 2256 2241 2241 2256 2256 2241 2241 2241 2241 2241 2241 2241 2241 2241 2241 2241 2241 2241 2241 2256 2256 2256 2256 2256 2256 2256 2256 2241 2241 2241 2241 2241 2241 2241 2241 2241 2241 2241 2241 2241 2241 2226 2226 2226 2226 2226 2226 2226 2226 2226 2212 2212 2212 2226 2226 2212 2212 2212 2212 2212 2212 2212 2212 2226 2226 2226 2226 2226 2226 2226 2226 2226 2226 2226 2226 2226 2226 2226 2226 2226 2226 2226 2226 0 0 0 0 0 0 0 0 0
0 0 0 0 0 0 0 0 0 0 0 0 0 0 0 0 0 0 0 0 0 0 0 0 0 0 0 0 0 0 0 0 0 2143 2129 2129 2129 2129 2129 2129 2129 2129 2129 2143 2143 2143 2143 2143 2156 2156 2156 2156 2156 2156 2156 2156 2143 2143 2143 2143 2143 2143 2143 2156 2143 2129 2129 2129 2116 2116 2129 2129 2143 2143 2143 2143 2143 2143 2143 2143 2143 2129 2129 2129 2129 2143 2143 2143 1523 1523 1516 1516 1523 1523 1523 1523 1523 1529 1529 1529 1529 1529 1523 1483 1477 1464 1458 1458 1458 1458 1458 1458 1458 1464 1464 1470 1470 1470 1470 1470 1470 1477 1477 1477 1477 1477 1477 1477 1477 1477 1477 1477 1477 1477 1477 1477 1477 1477 1477 1477 1470 1470 1470 1477 1470 1470 1470 1470 1477 1477 1477 1477 1477 1477 1477 1477 1470 1470 1470 1470 1470 1470 1470 1470 1470 1470 1470 1470 1470 1470 1470 1470 1470 1470 1470 1470 1470 1470 1470 1470 1470 1470 1470 1470 1470 1470 1470 1470 1470 1470 1470 1477 1470 1470 1470 1470 1470 1470 1470 1470 1470 1470 1470 1470 1470 1464 1464 1464 1464 1464 1464 1458 1458 1458 1458 1452 1452 1452 1458 1464 1470 1477 1496 1509 1523 1536 1536 1550 2170 2170 2184 2184 2198 2212 2226 2226 2241 2241 2226 2226 2226 2226 2226 2226 2226 2226 1873 1873 1873 1883 1883 1883 1883 1883 1883 1883 1883 1883 2198 2212 2212 2212 2226 2226 2226 1936 1936 1936 1936 1936 1936 0 1370 1370 1365 1365 1365 1365 1365 1365 1365 1365 1370 1370 1370 1452 1452 1445 1445 1452 1452 1452 1445 1445 1445 1452 1452 1452 1452 1452 1452 1452 1452 1452 1452 1452 1458 1458 1458 1458 1458 1458 1458 1458 1452 1452 1452 1452 1452 1452 1452 1458 1458 1458 1458 1458 1458 1458 1458 1464 1458 1452 1452 1452 1458 1458 1452 1452 1452 1452 1452 1452 1452 1452 1452 1458 1458 1458 1458 1458 1458 1458 1452 1452 1452 1452 1452 1458 1458 1452 1452 1452 1452 1452 1452 1458 1458 1458 1458 1458 1458 1458 1458 1458 1458 1458 1458 1458 1458 1458 1458 1458 1458 1458 1458 1458 1458 1464 1343 1343 1338 1338 1338 1338 1338 1338 1338 1338 1338 1338 1343 1343 1343 1343 1343 0 0 2226 2226 2226 2241 2241 2241 2016 2016 2005 2005 1993 1915 1904 1894 1894 1894 1894 1894 1894 1894 1894 1894 1904 1904 2212 2212 2212 2226 2226 2226 2212 2212 2212 2226 2212 2212 2212 2212 2226 2226 2226 2226 2226 2226 2226 2226 2241 2241 2241 2241 2241 2241 2241 2241 2241 2241 2241 2241 2241 2241 2226 2226 2226 0 0 0 1452 1452 1452 1452 1452 1452 1452 1452 1452 1452 1458 1458 1458 1458 1458 1458 1458 1458 1458 1458 1458 1458 1458 1464 1464 1464 1464 1464 2184 2184 2184 2212 2226 2226 2226 2241 2241 2241 2241 2241 2241 2241 2226 2226 2241 2241 2226 2226 2226 2226 2241 2241 2226 2226 2241 2241 2241 2241 2241 2241 2241 2241 2241 2241 2241 2241 2241 2241 2256 2256 2241 2241 2241 2241 2241 2241 2241 2241 2241 2241 2241 2241 2241 2241 2241 2241 2241 2241 2241 2241 2241 2241 2241 2241 2241 2241 2241 2241 2241 2256 2256 2241 2241 2241 2241 2241 2241 2226 2226 2226 2226 2226 2226 2226 2226 2226 2226 2226 2226 2226 2226 2212 2212 2226 2212 2212 2212 2212 2212 2212 2198 2198 2198 2212 2198 2198 2198 2212 2212 2212 2212 2212 2212 2212 2212 2212 2212 2212 2212 2212 2212 2212 2212 2212 2212 2212 2212 2212 0 0 0 0 0 0 0 0 0
0 0 0 0 0 0 0 0 0 0 0 0 0 0 0 0 0 0 0 0 0 0 0 0 0 0 0 0 0 0 0 0 0 2116 2116 2129 2129 2129 2129 2129 2129 2129 2129 2129 2116 2116 2116 2129 2129 2129 2143 2156 2156 2156 2143 2143 2143 2143 2129 2129 2129 2129 2129 2143 2129 2129 2116 2116 2116 2116 2116 2116 2129 2129 2129 2129 2129 2129 2129 2129 2129 2129 2129 2129 2129 2143 2143 2143 1523 1523 1516 1516 1523 1523 1523 1523 1529 1529 1529 1529 1529 1529 1523 1477 1470 1464 1458 1458 1458 1458 1458 1458 1458 1464 1464 1470 1470 1470 1470 1470 1477 1477 1477 1477 1477 1477 1483 1483 1477 1477 1477 1477 1477 1477 1477 1477 1477 1477 1477 1477 1477 1477 1477 1477 1477 1477 1477 1477 1477 1477 1477 1477 1477 1477 1477 1477 1470 1470 1470 1470 1470 1470 1470 1470 1470 1470 1470 1470 1470 1470 1470 1470 1470 1470 1470 1470 1470 1470 1470 1470 1470 1470 1470 1470 1470 1470 1470 1470 1470 1470 1477 1477 1477 1470 1470 1477 1470 1470 1470 1470 1470 1470 1470 1470 1470 1470 1470 1470 1464 1464 1464 1458 1458 1458 1458 1452 1452 1452 1458 1464 1470 1477 1496 1503 1516 1536 1536 2156 2156 2170 2184 2198 2198 2212 2226 2226 2226 2226 2226 2226 2198 2198 2198 2198 2198 1853 1853 1873 1883 1883 1883 1883 1883 1883 1883 1883 1883 1883 1883 2198 2198 2212 2212 2226 2226 1936 1936 1936 1936 1936 1936 0 1370 1370 1365 1365 1370 1365 1365 1365 1365 1365 1370 1370 1370 1445 1445 1445 1445 1445 1445 1445 1445 1445 1445 1445 1445 1445 1445 1445 1445 1445 1452 1452 1445 1445 1452 1452 1458 1452 1452 1452 1452 1452 1445 1445 1445 1445 1445 1445 1445 1452 1452 1452 1452 1452 1452 1452 1452 1452 1452 1445 1445 1445 1445 1452 1445 1445 1445 1445 1445 1452 1445 1445 1445 1452 1452 1452 1452 1452 1452 1452 1452 1452 1452 1452 1452 1452 1452 1452 1452 1445 1445 1445 1452 1452 1452 1452 1458 1458 1452 1452 1452 1452 1452 1452 1452 1452 1452 1452 1452 1452 1452 1452 1452 1452 1452 1452 1349 1343 1343 1338 1338 1338 1338 1338 1338 1338 1338 1343 1343 1343 0 1343 0 0 0 2226 2226 2226 2226 2226 2226 2016 2016 2005 2005 1970 1915 1904 1894 1894 1894 1894 1894 1894 1894 1894 1894 1894 2212 2212 2212 2212 2226 2226 2226 2226 2226 2226 2226 2212 2212 2212 2212 2226 2226 2226 2226 2226 2226 2226 2226 2226 2226 2241 2241 2241 2241 2241 2241 2226 2226 2226 2226 2226 2241 2226 2226 2226 2226 0 1452 1452 1452 1452 1452 1452 1452 1452 1452 1452 1452 1458 1458 1458 1458 1458 1458 1458 1458 1458 1458 1458 1458 1464 1464 1464 1464 1464 1464 2184 2184 2184 2198 2198 2226 2226 2226 2226 2241 2241 2226 2226 2226 2212 2212 2212 2212 2212 2212 2212 2226 2226 2226 2226 2226 2226 2226 2226 2226 2226 2226 2241 2241 2241 2241 2241 2241 2241 2241 2241 2241 2241 2241 2241 2241 2241 2241 2226 2226 2241 2241 2241 2241 2226 2226 2226 2226 2226 2226 2226 2241 2241 2226 2226 2226 2241 2241 2241 2241 2241 2241 2241 2241 2241 2226 2226 2241 2241 2226 2212 2212 2226 2226 2226 2226 2226 2226 2212 2212 2226 2226 2212 2212 2212 2212 2212 2198 2198 2212 2212 2212 2198 2198 2198 2198 2184 2184 2198 2198 2198 2198 2198 2212 2212 2212 2212 2212 2212 2212 2212 2212 2212 2212 2212 2212 2212 2212 2212 2212 0 0 0 0 0 0 0 0 0
0 0 0 0 0 0 0 0 0 0 0 0 0 0 0 0 0 0 0 0 0 0 0 0 0 0 0 0 0 0 0 0 0 2116 2116 2116 2116 2116 2116 2116 2116 2129 2129 2116 2116 2116 2116 2129 2129 2129 2143 2156 2156 2156 2143 2143 2129 2129 2129 2129 2129 2129 2129 2129 2129 2129 2116 2116 2116 2116 2116 2116 2116 2116 2116 2129 2129 2129 2129 2129 2129 2116 2116 2116 2129 2129 2129 2129 1523 1523 1523 1523 1523 1523 1523 1523 1529 1529 1529 1529 1529 1529 1523 1477 1470 1464 1458 1458 1458 1458 1458 1458 1458 1458 1464 1470 1470 1477 1477 1477 1477 1477 1483 1483 1483 1483 1477 1477 1477 1483 1477 1477 1477 1477 1477 1477 1477 1477 1477 1477 1477 1477 1477 1477 1477 1477 1477 1477 1477 1477 1477 1477 1483 1483 1483 1477 1470 1470 1470 1470 1470 1470 1470 1470 1470 1470 1470 1477 1477 1477 1477 1477 1470 1470 1470 1470 1477 1477 1477 1477 1470 1470 1470 1470 1470 1470 1470 1470 1470 1477 1477 1477 1477 1477 1477 1477 1477 1477 1470 1470 1470 1470 1470 1470 1470 1470 1470 1470 1464 1464 1464 1464 1458 1458 1458 1458 1458 1458 1464 1464 1470 1477 1489 1496 1503 1503 2156 2156 2156 2170 2184 2198 2198 2212 2212 2212 2212 2212 2212 2212 2198 2198 2198 2198 2198 1853 1853 1873 1883 1883 1883 1883 1883 1883 1883 1883 1883 1883 1883 1894 2184 2198 2198 2198 2198 1926 1926 1926 1936 1936 1936 0 1370 1370 1370 1370 1370 1370 1370 1370 1370 1370 1370 1370 1376 1439 1439 1439 1439 1445 1445 1445 1445 1445 1445 1445 1445 1445 1445 1445 1445 1445 1445 1445 1445 1445 1445 1445 1452 1445 1445 1445 1445 1445 1445 1445 1445 1445 1445 1445 1445 1445 1445 1445 1445 1452 1445 1445 1445 1445 1445 1439 1439 1439 1439 1439 1439 1439 1439 1439 1439 1445 1439 1439 1445 1445 1445 1445 1445 1445 1452 1445 1445 1445 1445 1439 1439 1445 1445 1445 1445 1439 1439 1445 1445 1445 1452 1452 1452 1452 1452 1452 1452 1445 1445 1445 1445 1452 1452 1445 1445 1445 1445 1445 1445 1445 1445 1445 1349 1343 1343 1338 1338 1343 1338 1338 1343 1343 1343 1343 1343 1343 0 0 0 0 0 2226 2226 2226 2226 2226 2226 2256 2005 1993 1993 1926 1915 1915 1904 1894 1894 1894 1894 1894 1894 1894 1894 1894 2212 2212 2212 2212 2226 2226 2226 2226 2226 2226 2226 2212 2212 2212 2212 2212 2212 2212 2226 2226 2226 2226 2226 2226 2226 2226 2226 2226 2226 2226 2226 2226 2226 2226 2226 2226 2226 2226 2226 2226 2226 0 1452 1452 1452 1452 1452 1452 1452 1458 1452 1452 1458 1458 1458 1458 1458 1458 1458 1458 1458 1458 1464 1464 1464 1464 1464 1464 1464 1464 1464 1464 2198 2198 2198 2198 2198 2198 2198 2212 2212 2212 2212 2212 2212 2212 2198 2198 2212 2212 2212 2212 2212 2212 2212 2212 2212 2212 2212 2212 2212 2212 2212 2226 2226 2226 2226 2226 2226 2241 2241 2241 2241 2241 2226 2226 2226 2226 2226 2226 2226 2226 2226 2226 2226 2226 2226 2226 2226 2226 2212 2212 2226 2226 2212 2212 2212 2226 2226 2226 2226 2226 2226 2226 2226 2226 2226 2226 2226 2226 2226 2212 2212 2212 2212 2226 2226 2226 2226 2212 2212 2212 2212 2212 2212 2212 2212 2212 2198 2198 2198 2198 2198 2198 2184 2184 2184 2184 2184 2184 2184 2198 2198 2198 2198 2198 2198 2198 2198 2198 2198 2198 2198 2198 2198 2198 2212 2212 2212 2212 2212 0 0 0 0 0 0 0 0 0
0 0 0 0 0 0 0 0 0 0 0 0 0 0 0 0 0 0 0 0 0 0 0 0 0 0 0 0 0 0 0 0 0 2116 2116 2116 2116 2116 2116 2116 2116 2116 2116 2116 2116 2116 2116 2129 2129 2116 2116 2129 2129 2129 2129 2143 2129 2129 2129 2129 2129 2129 2129 2129 2129 2129 2116 2103 2103 2103 2116 2116 2116 2116 2116 2116 2116 2116 2103 2103 2116 2103 2103 2103 2116 2116 2103 2103 2103 1529 1523 1523 1529 1529 1529 1529 1536 1536 1529 1529 1529 1529 1523 1477 1477 1464 1464 1458 1458 1458 1458 1458 1458 1458 1464 1470 1470 1477 1477 1477 1477 1477 1483 1483 1483 1483 1477 1477 1477 1477 1477 1477 1477 1477 1477 1477 1477 1477 1477 1477 1477 1477 1477 1477 1477 1477 1477 1477 1477 1477 1477 1483 1483 1483 1483 1483 1477 1477 1477 1477 1470 1470 1477 1477 1477 1477 1477 1477 1477 1477 1477 1477 1477 1477 1477 1477 1477 1477 1477 1477 1477 1477 1477 1470 1470 1477 1477 1477 1477 1477 1477 1477 1477 1477 1477 1477 1477 1477 1477 1477 1477 1477 1477 1477 1477 1477 1470 1470 1470 1470 1464 1464 1464 1464 1458 1458 1458 1464 1464 1470 1470 1477 1483 1483 1503 1503 2143 2143 2156 2156 2184 2184 2198 2198 2198 2198 2212 2212 2212 2212 2184 2184 2184 2184 2198 1863 1863 1873 1883 1883 1883 1883 1883 1883 1883 1883 1883 1883 1883 1894 2184 2184 2198 2198 2198 1926 1926 1915 1915 1926 1926 0 0 1370 1370 1370 1370 1370 1370 1370 1370 1370 1370 1376 1376 1387 1433 1433 1439 1439 1445 1439 1439 1439 1439 1439 1439 1439 1439 1439 1439 1445 1439 1439 1439 1439 1439 1439 1439 1439 1439 1439 1439 1445 1445 1439 1439 1439 1445 1445 1445 1439 1439 1445 1445 1439 1439 1445 1445 1445 1445 1439 1433 1433 1433 1439 1439 1439 1439 1439 1439 1439 1439 1439 1439 1439 1439 1439 1445 1445 1445 1445 1439 1439 1439 1439 1439 1439 1439 1439 1439 1439 1439 1439 1445 1445 1445 1445 1445 1445 1445 1445 1445 1445 1439 1439 1445 1445 1445 1445 1445 1445 1445 1439 1439 1445 1445 1445 1349 1349 1343 1343 1343 1343 1343 1343 1343 1343 1343 1343 1343 1343 0 0 0 2212 0 2212 2212 2212 2226 2226 2226 2241 2005 1981 1981 1915 1915 1904 1904 1894 1894 1894 1894 1894 1894 1894 1904 1904 2212 2198 2198 2212 2212 2212 2212 2212 2212 2212 2212 2212 2212 2212 2212 2212 2212 2212 2212 2212 2212 2212 2212 2212 2212 2212 2212 2226 2226 2226 2226 2212 2212 2212 2212 2212 2226 2212 2212 2212 2212 0 1445 1445 1445 1452 1452 1452 1452 1458 1458 1458 1458 1458 1458 1458 1458 1458 1458 1458 1458 1464 1464 1464 1464 1464 1470 1470 1470 1464 1464 1464 2170 2170 2184 2184 2184 2198 2198 2198 2198 2198 2198 2212 2198 2198 2198 2198 2198 2198 2198 2198 2198 2198 2198 2198 2198 2198 2198 2198 2198 2198 2198 2212 2212 2212 2212 2212 2212 2226 2226 2212 2212 2226 2212 2212 2212 2212 2212 2212 2212 2212 2226 2212 2212 2212 2212 2212 2212 2212 2212 2212 2212 2212 2212 2212 2212 2212 2212 2212 2212 2212 2212 2212 2212 2212 2212 2212 2212 2212 2212 2212 2212 2212 2212 2212 2212 2212 2212 2198 2198 2198 2198 2198 2198 2198 2198 2198 2198 2184 2184 2184 2184 2184 2184 2184 2170 2170 2170 2184 2184 2184 2184 2184 2198 2198 2198 2198 2184 2184 2184 2184 2184 2184 2184 2198 2198 2198 2198 2198 2198 0 0 0 0 0 0 0 0 0
0 0 0 0 0 0 0 0 0 0 0 0 0 0 0 0 0 0 0 0 0 0 0 0 0 0 0 0 0 0 0 0 0 2103 2103 2116 2116 2116 2116 2116 2116 2116 2116 2116 2116 2116 2116 2116 2116 2116 2116 2129 2129 2129 2129 2129 2129 2143 2143 2143 2129 2129 2129 2116 2116 2116 2103 2103 2103 2103 2103 2103 2103 2116 2116 2116 2116 2103 2103 2103 2103 2103 2103 2103 2103 2103 2103 2103 2103 1529 1529 1529 1536 1529 1529 1536 1536 1536 1536 1529 1529 1529 1529 1483 1470 1464 1464 1458 1458 1458 1458 1464 1464 1464 1464 1470 1477 1477 1477 1477 1477 1483 1483 1483 1483 1483 1477 1477 1477 1477 1477 1477 1483 1483 1477 1477 1477 1477 1477 1477 1477 1483 1477 1477 1477 1477 1477 1477 1477 1483 1483 1483 1483 1483 1483 1483 1477 1477 1477 1477 1477 1477 1477 1477 1477 1477 1477 1477 1477 1477 1477 1477 1477 1477 1477 1477 1477 1477 1477 1477 1477 1477 1477 1477 1477 1477 1477 1477 1477 1477 1477 1477 1477 1477 1477 1477 1477 1477 1477 1477 1477 1477 1477 1477 1477 1477 1477 1477 1470 1470 1470 1464 1464 1464 1464 1464 1464 1464 1464 1470 1470 1477 1483 1483 1483 2143 2143 2143 2156 2156 2170 2184 2184 2198 2198 2198 2198 2198 2198 2198 2184 2184 2184 2184 2184 2184 1873 1873 1883 1883 1883 1883 1883 1883 1883 1883 1883 1883 1894 1894 2184 2184 2184 2198 2198 1926 1926 1915 1915 1926 0 1381 1376 1376 1370 1370 1370 1370 1370 1370 1370 1370 1370 1376 1381 1387 1415 1427 1433 1439 1439 1439 1439 1439 1439 1439 1439 1439 1439 1439 1439 1439 1439 1439 1439 1439 1439 1439 1433 1433 1439 1433 1433 1439 1439 1439 1439 1439 1439 1439 1439 1439 1439 1439 1439 1439 1439 1439 1439 1439 1439 1433 1433 1433 1433 1433 1433 1433 1433 1433 1439 1439 1433 1433 1433 1439 1439 1439 1439 1439 1439 1439 1439 1439 1439 1439 1439 1439 1439 1433 1433 1439 1439 1439 1439 1439 1439 1439 1439 1439 1439 1439 1439 1439 1439 1439 1439 1439 1439 1439 1439 1439 1439 1439 1439 1439 1439 1439 1349 1349 1343 1343 1343 1343 1343 1343 1343 1343 1343 1343 1343 1343 0 0 0 2212 2212 2212 2212 2212 2226 2212 2212 2226 2226 1981 1981 1915 1915 1904 1904 1894 1894 1894 1894 1894 1894 1894 1904 1904 2198 2198 2198 2212 2212 2212 2212 2212 2212 2212 2212 2212 2212 2212 2212 2212 2212 2212 2212 2212 2212 2212 2212 2212 2212 2212 2212 2212 2212 2212 2212 2212 2212 2212 2212 2212 2212 2212 2212 2212 2212 1439 1445 1445 1445 1452 1452 1452 1452 1458 1458 1458 1458 1458 1458 1458 1458 1458 1458 1458 1464 1464 1464 1464 1464 1464 1470 1470 1470 1464 1464 1464 2170 2170 2184 2184 2184 2184 2184 2198 2198 2198 2198 2198 2198 2198 2198 2198 2198 2198 2198 2198 2198 2198 2198 2198 2198 2198 2198 2198 2198 2198 2198 2198 2198 2198 2198 2198 2198 2198 2198 2198 2198 2198 2198 2198 2212 2212 2212 2212 2198 2198 2198 2198 2198 2198 2198 2198 2198 2198 2198 2198 2198 2198 2198 2198 2198 2198 2212 2212 2212 2212 2212 2212 2212 2212 2212 2212 2212 2212 2212 2198 2198 2198 2198 2212 2212 2198 2198 2198 2198 2198 2184 2184 2184 2184 2198 2184 2184 2184 2184 2184 2184 2170 2170 2170 2170 2170 2170 2170 2184 2184 2184 2184 2184 2184 2184 2184 2184 2184 2184 2184 2184 2184 2184 2184 2184 2184 2198 2198 2198 0 0 0 0 0 0 0 0 0
0 0 0 0 0 0 0 0 0 0 0 0 0 0 0 0 0 0 0 0 0 0 0 0 0 0 0 0 0 0 0 0 0 2103 2103 2103 2103 2103 2116 2116 2116 2116 2116 2116 2116 2116 2116 2116 2116 2116 2116 2116 2116 2129 2129 2129 2129 2129 2129 2129 2116 2116 2116 2116 2116 2116 2090 2090 2103 2103 2103 2103 2103 2116 2116 2116 2103 2103 2103 2103 2103 2103 2103 2103 2103 2103 2103 2103 2103 1543 1536 1536 1536 1536 1536 1536 1536 1536 1536 1529 1529 1529 1529 1477 1470 1464 1464 1458 1458 1458 1464 1464 1464 1464 1464 1470 1470 1477 1477 1477 1477 1483 1483 1483 1483 1477 1477 1477 1477 1477 1477 1477 1483 1483 1483 1477 1477 1477 1483 1483 1483 1483 1483 1483 1483 1483 1483 1483 1483 1483 1483 1483 1483 1483 1483 1483 1477 1477 1477 1477 1477 1477 1477 1477 1477 1477 1477 1477 1477 1477 1483 1483 1483 1483 1483 1483 1483 1483 1483 1483 1477 1477 1477 1477 1477 1477 1477 1477 1477 1477 1477 1477 1477 1483 1483 1483 1483 1477 1477 1477 1477 1477 1477 1477 1477 1483 1477 1477 1477 1470 1470 1464 1464 1464 1464 1464 1464 1464 1470 1470 1477 1477 1483 1489 1496 1496 2143 2143 2156 2156 2170 2184 2184 2184 2184 2184 2184 2184 2184 2184 2170 2170 2170 2170 2170 2170 1873 1873 1883 1883 1883 1883 1883 1883 1883 1883 1883 1883 1894 1894 2170 2184 2184 2184 2184 2184 2184 2184 1926 1926 0 1381 1381 1376 1376 1376 1376 1376 1376 1370 1370 1370 1376 1376 1381 1387 1415 1421 1427 1433 1433 1433 1427 1427 1427 1427 1433 1433 1433 1433 1439 1439 1433 1433 1433 1433 1433 1433 1427 1427 1433 1433 1433 1433 1433 1433 1433 1433 1433 1433 1433 1433 1433 1433 1433 1433 1433 1433 1439 1439 1439 1427 1427 1427 1427 1433 1433 1433 1433 1433 1433 1433 1433 1433 1433 1433 1433 1433 1433 1433 1433 1433 1433 1433 1433 1433 1433 1433 1433 1433 1433 1433 1433 1433 1433 1433 1433 1433 1433 1433 1433 1433 1433 1433 1439 1439 1439 1433 1433 1439 1439 1439 1439 1439 1439 1439 1439 1349 1349 1349 1343 1343 1343 1343 1343 1343 1343 1343 1343 1343 1343 1349 0 0 0 0 2212 2212 2212 2212 2212 2212 2212 2226 2212 1981 1981 1915 1904 1904 1904 1894 1894 1894 1894 1894 1894 1894 1894 1904 2198 2198 2198 2198 2212 2212 2212 2212 2212 2212 2212 2198 2198 2198 2212 2212 2212 2212 2212 2212 2198 2198 2198 2198 2198 2198 2198 2198 2198 2198 2212 2212 2212 2212 2212 2212 2212 2212 2212 2212 0 1439 1439 1439 1445 1452 1452 1452 1452 1458 1458 1458 1458 1458 1458 1458 1458 1458 1458 1458 1464 1464 1464 1464 1464 1470 1470 1470 1470 1470 1470 1470 2170 2170 2184 2184 2184 2184 2184 2184 2184 2184 2184 2198 2198 2198 2198 2198 2184 2184 2184 2184 2184 2184 2198 2184 2184 2184 2184 2198 2198 2184 2184 2184 2198 2198 2184 2184 2198 2198 2198 2198 2198 2198 2198 2198 2198 2198 2198 2198 2198 2198 2198 2198 2198 2198 2198 2198 2198 2198 2198 2198 2198 2198 2198 2198 2198 2198 2198 2198 2198 2212 2212 2212 2212 2212 2212 2212 2212 2212 2198 2198 2198 2198 2198 2198 2198 2198 2198 2184 2184 2184 2184 2184 2184 2184 2184 2184 2184 2184 2184 2184 2184 2170 2170 2170 2170 2170 2170 2170 2170 2184 2184 2184 2184 2184 2184 2184 2184 2184 2184 2184 2184 2184 2184 2184 2184 2184 2184 2184 2184 0 0 0 0 0 0 0 0 0
0 0 0 0 0 0 0 0 0 0 0 0 0 0 0 0 0 0 0 0 0 0 0 0 0 0 0 0 0 0 0 0 0 2103 2103 2103 2103 2103 2103 2103 2103 2116 2103 2103 2103 2103 2116 2116 2116 2103 2103 2116 2116 2116 2116 2116 2116 2116 2116 2116 2116 2116 2116 2116 2116 2103 2090 2090 2090 2103 2103 2103 2103 2103 2103 2103 2103 2103 2103 2103 2103 2103 2103 2103 2090 2090 2103 2103 2103 1543 1536 1536 1536 1536 1536 1536 1536 1536 1536 1536 1536 1536 1536 1464 1464 1464 1464 1464 1458 1458 1464 1464 1464 1464 1464 1470 1470 1477 1477 1477 1477 1483 1483 1483 1483 1477 1477 1477 1483 1477 1477 1477 1477 1483 1483 1483 1483 1483 1483 1483 1483 1483 1483 1483 1483 1483 1483 1483 1483 1483 1483 1483 1483 1483 1483 1483 1477 1477 1477 1477 1477 1477 1477 1477 1477 1477 1477 1477 1477 1483 1483 1483 1483 1483 1489 1489 1489 1483 1483 1483 1483 1483 1483 1483 1483 1477 1477 1477 1477 1477 1477 1477 1477 1483 1483 1483 1483 1483 1483 1483 1483 1483 1483 1483 1483 1483 1477 1477 1477 1477 1470 1470 1470 1470 1464 1464 1470 1470 1470 1470 1477 1483 1483 1489 1496 1496 2143 2143 2143 2156 2170 2170 2184 2184 2184 2184 2184 2184 2184 2184 2170 2170 2170 2170 2170 2170 1883 1883 1894 1894 1894 1894 1894 1894 1894 1894 1894 1894 1894 1894 2170 2170 2170 2170 2184 2184 2184 2184 2184 2184 0 0 1376 1376 1376 1376 1376 1376 1376 1376 1376 1376 1376 1376 1381 1392 1410 1421 1427 1427 1433 1427 1427 1427 1427 1427 1427 1427 1427 1433 1433 1433 1427 1427 1427 1427 1427 1427 1421 1421 1427 1427 1427 1427 1427 1427 1427 1427 1427 1427 1427 1427 1427 1427 1433 1433 1433 1433 1433 1433 1433 1421 1421 1421 1427 1427 1427 1427 1427 1427 1433 1433 1427 1427 1427 1427 1433 1433 1433 1433 1433 1433 1433 1433 1433 1433 1433 1427 1427 1427 1427 1427 1427 1433 1433 1433 1433 1433 1433 1433 1433 1433 1433 1433 1433 1433 1433 1433 1433 1433 1433 1433 1439 1439 1439 1439 1439 1349 1349 1349 1343 1343 1343 1343 1343 1343 1343 1349 1349 1343 1343 1349 1349 0 0 0 2212 2212 2212 2212 2212 2212 2212 2212 2212 2212 2212 1904 1904 1904 1894 1894 1894 1894 1894 1894 1894 1894 1894 1904 2198 2184 2184 2198 2198 2198 2198 2198 2198 2198 2198 2198 2198 2198 2198 2198 2198 2198 2198 2198 2198 2198 2198 2198 2198 2198 2198 2198 2198 2198 2198 2198 2198 2198 2198 2198 2198 2198 2198 2198 2198 1439 1439 1439 1445 1452 1452 1452 1458 1458 1458 1458 1458 1458 1458 1458 1458 1458 1464 1464 1464 1464 1470 1470 1470 1470 1470 1470 1477 1477 2170 2170 2170 2170 2184 2184 2184 2184 2184 2184 2184 2184 2184 2184 2184 2184 2184 2184 2184 2184 2184 2184 2184 2184 2184 2184 2184 2184 2184 2184 2184 2184 2184 2184 2184 2184 2184 2184 2198 2198 2198 2198 2198 2198 2198 2198 2198 2198 2198 2198 2198 2198 2198 2198 2198 2198 2184 2184 2184 2184 2184 2184 2184 2184 2184 2198 2198 2198 2198 2198 2198 2198 2198 2198 2198 2198 2198 2198 2198 2198 2198 2198 2198 2198 2198 2198 2198 2198 2198 2184 2184 2184 2184 2184 2184 2184 2184 2184 2170 2170 2170 2170 2170 2170 2170 2170 2170 2170 2170 2170 2170 2170 2170 2170 2170 2170 2184 2184 2184 2184 2184 2184 2184 2170 2170 2184 2184 2184 2184 2184 2184 0 0 0 0 0 0 0 0 0
0 0 0 0 0 0 0 0 0 0 0 0 0 0 0 0 0 0 0 0 0 0 0 0 0 0 0 0 0 0 0 0 0 2090 2090 2103 2103 2103 2103 2103 2103 2103 2090 2090 2103 2103 2103 2103 2116 2090 2090 2103 2103 2103 2103 2103 2103 2103 2116 2103 2103 2116 2116 2103 2103 2103 2090 2090 2090 2103 2103 2103 2103 2103 2103 2103 2103 2090 2090 2090 2103 2103 2090 2090 2090 2090 2090 2090 2090 1543 1543 1543 1536 1536 1536 1536 1536 1536 1536 1536 1536 1536 1536 1464 1464 1464 1464 1464 1458 1458 1464 1464 1464 1464 1470 1470 1477 1477 1477 1477 1477 1483 1483 1483 1483 1483 1477 1477 1483 1477 1477 1477 1477 1483 1483 1483 1483 1483 1483 1483 1483 1483 1483 1483 1483 1483 1483 1483 1483 1483 1483 1483 1489 1483 1483 1483 1477 1477 1477 1477 1477 1477 1477 1477 1477 1477 1477 1477 1483 1483 1483 1489 1489 1489 1489 1489 1489 1489 1489 1489 1483 1483 1483 1483 1483 1483 1477 1477 1477 1477 1477 1477 1477 1483 1483 1483 1483 1483 1489 1483 1483 1483 1483 1483 1483 1483 1477 1477 1477 1477 1470 1470 1470 1470 1470 1470 1470 1470 1470 1477 1483 1483 1489 1489 1489 2156 2143 2143 2143 2156 2156 2170 2170 2184 2184 2184 2184 2170 2170 2170 2170 2170 2156 2156 2156 2156 2156 1883 1883 1894 1894 1894 1894 1894 1894 1894 1894 1894 1894 1894 2170 2170 2170 2170 2170 2170 2170 2170 0 0 0 0 1376 1376 1376 1376 1376 1376 1376 1376 1376 1376 1376 1381 1387 1398 1404 1415 1421 1421 1421 1421 1421 1421 1421 1421 1421 1421 1421 1421 1421 1421 1421 1421 1421 1421 1421 1421 1421 1421 1427 1427 1427 1427 1427 1421 1421 1427 1427 1421 1421 1421 1421 1421 1421 1421 1421 1427 1427 1427 1427 1421 1421 1421 1421 1427 1427 1427 1427 1427 1427 1427 1427 1427 1427 1427 1427 1427 1427 1427 1427 1427 1427 1427 1433 1427 1427 1427 1427 1427 1421 1421 1427 1427 1427 1427 1421 1421 1427 1427 1427 1427 1427 1433 1433 1433 1433 1433 1433 1433 1433 1433 1433 1433 1433 1439 1439 1349 1343 1343 1343 1343 1349 1349 1343 1343 1349 1349 1349 1343 1343 1343 1343 0 0 0 2212 2212 2212 2212 2212 2212 2212 2212 2212 2198 2198 1904 1904 1904 1894 1894 1894 1894 1894 1894 1894 1894 1894 1904 2184 2184 2184 2198 2198 2198 2198 2198 2198 2198 2184 2184 2184 2198 2198 2184 2184 2198 2198 2198 2198 2198 2198 2184 2184 2184 2184 2184 2184 2184 2184 2198 2198 2198 2198 2198 2198 2198 2198 2198 2184 1445 1445 1445 1452 1452 1452 1452 1458 1458 1458 1458 1464 1464 1464 1464 1464 1464 1464 1464 1464 1464 1470 1470 1470 1470 1470 1470 1470 2156 2156 2156 2170 2170 2170 2170 2170 2184 2184 2184 2184 2184 2184 2184 2184 2184 2184 2170 2170 2184 2184 2184 2184 2184 2184 2184 2184 2184 2184 2184 2184 2184 2184 2184 2184 2184 2184 2184 2184 2184 2198 2198 2198 2198 2198 2198 2198 2184 2184 2184 2184 2184 2184 2184 2184 2184 2184 2184 2184 2184 2184 2184 2184 2184 2184 2184 2184 2198 2198 2198 2198 2198 2198 2184 2184 2184 2184 2184 2184 2184 2184 2198 2198 2198 2198 2198 2198 2198 2198 2170 2170 2184 2184 2170 2170 2170 2170 2170 2170 2170 2170 2170 2170 2170 2170 2170 2170 2170 2156 2156 2156 2170 2170 2170 2170 2170 2170 2170 2170 2170 2170 2170 2170 2170 2170 2170 2170 2170 2170 2170 2170 0 0 0 0 0 0 0 0 0
0 0 0 0 0 0 0 0 0 0 0 0 0 0 0 0 0 0 0 0 0 0 0 0 0 0 0 0 0 0 0 0 0 2090 2090 2090 2090 2090 2090 2090 2090 2090 2090 2090 2090 2090 2103 2103 2103 2090 2090 2090 2090 2090 2078 2078 2090 2103 2103 2090 2090 2103 2103 2103 2103 2103 2090 2090 2090 2090 2090 2090 2090 2090 2090 2090 2090 2090 2090 2090 2090 2090 2090 2078 2078 2090 2090 2090 2090 1543 1543 1543 1536 1536 1536 1536 1536 1536 1536 1536 1536 1536 1536 1464 1464 1464 1464 1464 1464 1464 1470 1470 1464 1464 1470 1477 1477 1477 1477 1483 1483 1483 1483 1483 1483 1483 1483 1483 1483 1477 1477 1477 1477 1483 1483 1483 1483 1483 1483 1483 1483 1483 1483 1483 1483 1483 1483 1483 1483 1483 1489 1489 1489 1489 1489 1489 1483 1483 1477 1477 1477 1477 1477 1477 1477 1477 1477 1483 1483 1483 1489 1489 1483 1483 1483 1483 1483 1483 1483 1489 1483 1483 1483 1483 1483 1483 1483 1483 1483 1483 1483 1483 1483 1483 1483 1483 1483 1483 1489 1483 1483 1483 1483 1483 1483 1483 1483 1483 1477 1477 1477 1470 1470 1470 1470 1470 1470 1470 1477 1477 1483 1483 1483 1489 1489 1496 2143 2143 2143 2143 2156 2156 2156 2170 2170 2170 2170 2170 2170 2170 2156 2156 2156 2143 2143 2143 1883 1883 1883 1894 1894 1894 1894 1894 1894 1894 1894 1894 1894 2143 2156 2156 2156 2170 2170 2170 2170 2170 2170 0 0 0 1376 1376 1376 1381 1381 1381 1381 1376 1376 1376 1381 1381 1387 1398 1404 1415 1415 1421 1421 1421 1421 1415 1415 1415 1421 1421 1421 1421 1421 1415 1415 1415 1415 1415 1415 1415 1415 1415 1415 1415 1415 1421 1421 1421 1421 1421 1421 1421 1421 1421 1415 1415 1415 1415 1415 1415 1415 1421 1421 1421 1415 1415 1415 1415 1421 1421 1421 1421 1421 1421 1421 1421 1421 1421 1421 1421 1421 1421 1421 1421 1421 1421 1421 1421 1421 1421 1421 1421 1415 1415 1421 1421 1421 1421 1421 1421 1421 1421 1421 1427 1427 1427 1427 1427 1427 1427 1427 1427 1427 1427 1433 1433 1433 1433 1433 1343 1343 1343 1343 1343 1349 1349 1349 1349 1349 1349 1349 1349 1349 1343 1343 1343 0 2198 2198 2198 2198 2198 2198 2198 2198 2198 2198 2184 2184 1904 1904 1904 1904 1894 1894 1894 1894 1904 1904 1894 1894 1904 2184 2170 2170 2184 2184 2184 2184 2198 2184 2184 2184 2170 2170 2184 2170 2170 2170 2184 2184 2184 2184 2184 2184 2184 2184 2170 2170 2184 2184 2184 2184 2184 2184 2184 2184 2184 2184 2198 2184 2184 2184 1445 1445 1445 1452 1452 1452 1458 1458 1464 1464 1464 1464 1464 1464 1464 1464 1464 1464 1464 1464 1470 1477 1470 1470 1470 1470 1470 1470 2156 2156 2156 2156 2156 2170 2170 2170 2170 2170 2170 2170 2170 2170 2170 2184 2170 2170 2170 2170 2170 2170 2170 2170 2170 2170 2184 2184 2184 2184 2184 2184 2184 2184 2184 2184 2184 2184 2184 2184 2184 2184 2184 2184 2184 2184 2184 2184 2184 2184 2184 2184 2184 2184 2184 2184 2184 2184 2184 2184 2184 2184 2184 2184 2184 2184 2184 2184 2184 2184 2184 2184 2184 2184 2184 2184 2184 2184 2184 2184 2170 2170 2170 2184 2184 2184 2184 2184 2184 2184 2170 2170 2170 2170 2170 2170 2170 2170 2170 2156 2156 2156 2156 2170 2170 2170 2170 2170 2170 2156 2156 2156 2156 2156 2156 2170 2170 2170 2170 2170 2170 2170 2170 2170 2170 2170 2170 2156 2156 2170 2156 2156 0 0 0 0 0 0 0 0 0
0 0 0 0 0 0 0 0 0 0 0 0 0 0 0 0 0 0 0 0 0 0 0 0 0 0 0 0 0 0 0 0 0 2065 2065 2090 2090 2090 2090 2090 2090 2090 2078 2078 2078 2078 2090 2090 2090 2078 2078 2078 2078 2078 2078 2078 2078 2090 2090 2078 2078 2090 2103 2103 2103 2103 2090 2090 2090 2090 2090 2090 2090 2078 2078 2078 2078 2078 2078 2078 2078 2078 2078 2078 2078 2090 2090 2078 2078 2078 1543 1543 1543 1536 1536 1543 1536 1536 1543 1543 1543 1536 1536 1470 1470 1464 1464 1464 1464 1464 1470 1470 1470 1470 1470 1477 1477 1477 1483 1483 1483 1483 1483 1483 1483 1483 1483 1483 1483 1477 1477 1483 1483 1483 1483 1483 1483 1483 1489 1489 1489 1483 1483 1489 1483 1483 1483 1483 1483 1483 1489 1489 1489 1483 1483 1483 1483 1483 1477 1477 1477 1477 1477 1477 1477 1477 1483 1483 1483 1483 1489 1489 1483 1483 1483 1483 1483 1483 1483 1489 1489 1489 1483 1483 1483 1483 1483 1483 1483 1483 1483 1483 1483 1483 1483 1483 1489 1489 1489 1489 1483 1483 1483 1483 1483 1483 1483 1483 1477 1477 1477 1470 1470 1470 1470 1470 1470 1470 1477 1477 1483 1483 1483 1489 1489 1496 2156 2143 2143 2143 2156 2156 2156 2156 2156 2156 2156 2156 2156 2156 2156 2156 2143 2143 2143 2143 1883 1883 1883 1894 1894 1894 1894 1894 1894 1894 1894 1894 2129 2143 2143 2143 2156 2156 2170 2170 2170 2170 0 0 0 0 0 1381 1381 1381 1381 1381 1381 1381 1381 1381 1387 1387 1392 1398 1398 1415 1415 1415 1415 1415 1415 1415 1415 1415 1415 1415 1415 1415 1415 1410 1410 1410 1410 1410 1410 1410 1415 1415 1415 1415 1415 1415 1415 1415 1415 1415 1415 1415 1415 1415 1415 1415 1415 1415 1415 1415 1415 1415 1415 1415 1410 1410 1410 1410 1410 1410 1410 1415 1415 1415 1410 1410 1410 1410 1410 1410 1410 1410 1410 1410 1410 1415 1415 1415 1415 1415 1415 1415 1415 1415 1415 1415 1415 1415 1415 1415 1415 1421 1421 1421 1421 1421 1421 1421 1421 1421 1421 1421 1421 1421 1427 1427 1427 1427 1427 1343 1343 1343 1349 1349 1349 1349 1349 1349 1349 1349 1349 1349 1349 1343 1343 1343 0 2184 2184 2184 2184 2198 2198 2184 2184 2184 2198 2184 2184 1904 1904 1904 1904 1904 1904 1904 1904 1904 1904 1894 1894 1904 2170 2170 2170 2170 2170 2170 2170 2184 2184 2184 2170 2170 2170 2170 2170 2156 2156 2170 2170 2170 2170 2170 2170 2170 2170 2170 2170 2170 2170 2170 2184 2184 2184 2184 2184 2184 2184 2184 2170 2170 2170 2170 1458 1458 1458 1458 1458 1464 1464 1470 1470 1470 1470 1470 1470 1470 1470 1470 1470 1470 1470 1470 1477 1470 1470 1477 1477 1477 2143 2143 2143 2156 2156 2156 2156 2170 2170 2170 2170 2170 2156 2156 2156 2156 2170 2156 2156 2156 2156 2156 2156 2156 2156 2156 2156 2156 2170 2170 2170 2170 2170 2184 2170 2170 2170 2170 2170 2170 2170 2170 2184 2184 2184 2184 2184 2184 2184 2170 2170 2170 2184 2184 2184 2184 2184 2184 2184 2184 2184 2184 2184 2184 2184 2184 2184 2184 2184 2184 2184 2184 2184 2184 2184 2184 2184 2184 2184 2184 2170 2170 2170 2170 2170 2170 2170 2170 2170 2170 2170 2156 2156 2156 2156 2156 2156 2143 2143 2143 2143 2143 2129 2129 2143 2156 2170 2156 2156 2156 2156 2143 2143 2143 2143 2156 2156 2156 2156 2156 2156 2156 2156 2156 2156 2156 2156 2156 2156 2156 2156 2156 2156 0 0 0 0 0 0 0 0 0
0 0 0 0 0 0 0 0 0 0 0 0 0 0 0 0 0 0 0 0 0 0 0 0 0 0 0 0 0 0 0 0 0 2065 2065 2065 2078 2078 2078 2078 2078 2078 2078 2078 2078 2078 2090 2090 2078 2065 2065 2078 2065 2065 2065 2065 2078 2078 2078 2078 2078 2078 2090 2103 2103 2103 2078 2078 2090 2065 2053 2053 2065 2065 2065 2065 2065 2065 2078 2078 2078 2078 2078 2078 2090 2090 2090 2078 2078 2078 1543 1543 1543 1543 1543 1543 1543 1543 1543 1543 1543 1543 1536 1483 1477 1470 1470 1470 1464 1464 1470 1477 1477 1477 1477 1477 1483 1483 1483 1483 1483 1483 1483 1483 1483 1483 1483 1483 1483 1477 1477 1483 1483 1483 1483 1483 1483 1483 1483 1483 1483 1483 1483 1489 1489 1483 1483 1483 1483 1489 1489 1489 1489 1483 1483 1483 1483 1477 1477 1477 1477 1477 1477 1477 1477 1477 1477 1483 1483 1489 1489 1489 1489 1489 1477 1477 1483 1483 1483 1489 1489 1489 1489 1483 1483 1489 1489 1489 1489 1483 1483 1483 1483 1483 1483 1483 1489 1489 1489 1489 1489 1489 1489 1489 1489 1489 1483 1483 1477 1477 1477 1470 1470 1470 1470 1470 1470 1477 1477 1477 1483 1489 1489 1489 1496 1496 2156 2143 2143 2143 2143 2143 2143 2143 2143 2143 2143 2143 2156 2156 2143 2143 2143 2129 2129 2143 1883 1883 1883 1894 1894 1894 1894 1894 1894 1883 1883 1883 1883 2143 2143 2143 2143 2143 2156 2156 2170 0 0 0 0 0 1381 1381 1381 1381 1381 1387 1381 1381 1381 1381 1387 1387 1392 1398 1398 1410 1410 1410 1410 1410 1410 1410 1410 1410 1410 1410 1410 1410 1410 1410 1404 1404 1404 1404 1404 1404 1410 1410 1410 1410 1410 1415 1415 1415 1415 1415 1415 1415 1415 1410 1410 1410 1410 1410 1410 1410 1410 1415 1415 1415 1410 1410 1410 1410 1410 1410 1410 1410 1410 1410 1410 1410 1410 1410 1410 1410 1410 1410 1410 1404 1404 1410 1404 1404 1410 1410 1410 1410 1410 1410 1410 1410 1410 1410 1410 1410 1410 1410 1415 1415 1415 1415 1415 1415 1421 1421 1421 1415 1415 1415 1415 1421 1421 1421 1421 1349 1349 1349 1349 1349 1349 1349 1349 1349 1349 1349 1349 1349 1349 1349 1349 1349 0 2170 2170 2170 2184 2184 2184 2184 2184 2184 2184 2156 2156 1904 1904 1904 1904 1904 1904 1904 1904 1904 1904 1894 1894 1894 2170 2156 2156 2156 2156 2156 2170 2170 2170 2170 2170 2170 2170 2170 2156 2156 2156 2156 2156 2156 2156 2156 2156 2170 2170 2170 2170 2170 2170 2170 2170 2170 2170 2170 2170 2184 2184 2184 2170 2170 2170 2170 1458 1458 1458 1458 1464 1470 1470 1477 1470 1470 1477 1477 1470 1470 1470 1470 1477 1477 1477 1477 1477 1477 1477 1477 1477 1477 2143 2143 2143 2156 2156 2156 2156 2156 2156 2156 2156 2156 2156 2156 2156 2156 2156 2156 2156 2156 2156 2156 2156 2156 2156 2156 2156 2156 2156 2170 2170 2170 2170 2170 2170 2170 2170 2170 2170 2170 2170 2170 2184 2184 2170 2170 2170 2170 2170 2156 2156 2156 2170 2170 2170 2170 2184 2184 2170 2170 2170 2170 2170 2170 2170 2170 2170 2170 2170 2170 2184 2184 2184 2184 2184 2170 2170 2170 2170 2170 2170 2156 2156 2170 2170 2170 2170 2170 2170 2170 2170 2156 2156 2156 2156 2156 2143 2143 2143 2143 2129 2129 2129 2129 2129 2143 2143 2156 2143 2143 2129 2129 2129 2129 2129 2143 2143 2143 2156 2156 2156 2156 2156 2156 2156 2156 2156 2156 2156 2156 2156 2156 2156 0 0 0 0 0 0 0 0 0
0 0 0 0 0 0 0 0 0 0 0 0 0 0 0 0 0 0 0 0 0 0 0 0 0 0 0 0 0 0 0 0 0 2065 2065 2065 2078 2065 2065 2065 2065 2078 2078 2078 2078 2078 2065 2065 2065 2065 2065 2078 2065 2065 2065 2065 2078 2078 2078 2065 2065 2078 2078 2090 2090 2090 2065 2065 2053 2053 2053 2053 2065 2065 2065 2065 2065 2065 2065 2065 2065 2065 2065 2065 2065 2090 2090 2090 2090 1543 1543 1543 1543 1543 1543 1543 1543 1543 1543 1543 1543 1536 1536 1536 1477 1470 1470 1470 1470 1470 1470 1477 1477 1477 1477 1483 1483 1483 1489 1489 1489 1489 1489 1489 1489 1483 1483 1483 1489 1483 1483 1483 1483 1483 1483 1483 1477 1477 1483 1483 1483 1483 1483 1483 1483 1483 1483 1483 1483 1489 1489 1489 1489 1489 1489 1483 1477 1477 1477 1477 1477 1470 1470 1477 1477 1477 1477 1483 1483 1489 1489 1483 1483 1489 1477 1477 1483 1483 1483 1489 1489 1489 1489 1489 1489 1489 1489 1489 1489 1483 1483 1483 1483 1483 1483 1483 1483 1489 1489 1489 1483 1483 1483 1489 1483 1483 1483 1483 1477 1477 1477 1470 1470 1470 1470 1470 1470 1470 1477 1477 1483 1489 1489 1496 1496 1503 2143 2143 2143 2143 2143 2143 2143 2143 2143 2143 2143 2143 2143 2156 2143 2129 2129 2129 2129 2129 1883 1883 1883 1883 1894 1894 1894 1894 1894 1883 1883 1883 1883 2129 2129 2129 2129 2143 2143 2143 0 0 0 0 0 0 1381 1381 1381 1381 1381 1387 1381 1381 1381 1387 1387 1387 1392 1398 1398 1404 1410 1410 1410 1410 1410 1404 1404 1404 1404 1404 1404 1404 1404 1404 1404 1404 1398 1398 1398 1398 1404 1404 1410 1404 1404 1410 1410 1410 1410 1410 1410 1410 1404 1404 1398 1398 1398 1398 1404 1404 1404 1410 1410 1410 1404 1404 1404 1404 1404 1404 1404 1410 1410 1404 1404 1404 1404 1404 1404 1404 1404 1404 1404 1404 1404 1404 1404 1404 1404 1404 1404 1404 1404 1410 1410 1410 1410 1410 1410 1410 1410 1410 1410 1410 1410 1410 1410 1410 1410 1410 1410 1410 1410 1410 1410 1410 1410 1410 1410 1349 1349 1349 1349 1349 1349 1349 1354 1354 1354 1349 1349 1349 1349 1349 1349 0 2103 2156 2156 2156 2170 2170 2170 2170 2170 2170 2170 2156 2156 2156 1904 1904 1904 1904 1904 1904 1904 1904 1904 1894 1894 1894 2156 2156 2156 2156 2156 2156 2156 2170 2170 2170 2170 2156 2156 2156 2156 2156 2156 2156 2156 2156 2156 2156 2156 2156 2156 2156 2156 2156 2156 2156 2156 2156 2156 2156 2170 2170 2170 2170 2156 2156 2156 2156 1489 1489 1483 1470 1470 1477 1477 1477 1477 1477 1477 1477 1477 1477 1477 1477 1477 1477 1477 1477 1477 1483 1483 1483 1483 2156 2156 2143 2143 2156 2143 2143 2143 2143 2143 2143 2143 2143 2143 2143 2143 2156 2156 2156 2156 2143 2143 2143 2143 2143 2143 2143 2143 2143 2156 2156 2156 2156 2156 2170 2170 2170 2156 2156 2156 2156 2156 2156 2170 2156 2156 2156 2156 2156 2156 2143 2143 2156 2156 2170 2170 2170 2170 2170 2170 2170 2170 2170 2170 2170 2170 2170 2170 2170 2170 2170 2170 2170 2170 2170 2170 2170 2156 2156 2156 2156 2156 2156 2156 2156 2156 2170 2170 2170 2156 2156 2156 2143 2143 2143 2143 2143 2129 2129 2129 2129 2129 2129 2129 2129 2129 2129 2143 2143 2143 2129 2129 2129 2129 2129 2116 2116 2129 2129 2129 2129 2143 2143 2143 2143 2143 2156 2156 2143 2143 2143 2143 2143 2143 0 0 0 0 0 0 0 0 0
