0 0 0 0 0 0 0 0 0 0 0 0 0 0 0 0 0 0 0 0 0 0 0 0 0 0 0 0 0 0 0 0 3120 3120 3149 3149 3149 3149 3149 3149 3149 3149 3149 3149 3149 3149 3149 3149 3149 3149 3149 3149 3149 3149 3149 3149 3120 3120 3149 3178 3178 3178 3178 3178 3178 3178 3178 3178 3178 3178 3149 3149 3149 3149 3149 3149 3149 3178 3178 3178 3178 3178 3178 3178 3178 3178 3178 3178 3178 3178 3178 3178 3178 3178 3178 3178 3178 3178 3178 3178 3178 3178 3178 3178 3178 3178 3178 3149 3149 2908 2883 2883 2883 2883 2883 2883 2883 2883 2883 2883 2883 2883 2883 2883 2883 2883 2883 2883 2883 2883 2883 2883 2883 2883 2883 2883 2883 2883 2883 2908 2908 2933 2933 2933 2933 2958 2958 2958 2958 2958 2958 2958 2958 2958 2984 2984 2958 2958 2958 2984 2984 3010 3064 3064 3092 3092 3092 3092 3064 3064 3064 2028 2028 2040 2040 2040 2040 2040 2053 2053 2053 2053 2065 2078 2078 1404 1404 1392 1392 1392 1387 1387 1387 1387 1387 1387 1387 1387 1387 1387 1392 1392 1392 1392 1392 1392 1392 1387 1387 1387 1387 1387 1387 1392 1392 1392 1392 1392 1398 1398 1404 1404 1404 1404 1404 1404 1404 1404 1404 1283 1283 1283 1283 1283 1283 1283 1283 1283 1283 1283 1288 1288 1288 1288 1404 1404 1404 1404 1404 1404 1410 1410 1415 1415 1415 1415 1415 1421 1415 1312 1312 1312 1317 1317 1317 1317 1317 1317 1317 1322 1322 1322 1322 1322 1328 1328 1328 1328 1328 1328 1333 1333 1333 1333 1333 1333 1333 1333 1333 1338 1338 1338 1343 1343 1349 1349 1349 1349 1349 1349 1349 1354 1354 1354 1354 1354 1354 1354 1359 1359 1365 1365 1365 1370 1376 1376 1376 1376 1376 1376 1376 1381 1381 1381 1387 1392 1392 1392 1392 1398 1398 1398 1392 1392 1392 1398 1398 1404 1404 1410 1410 1410 1410 1410 1404 1404 1404 1404 1404 1410 1410 1410 1410 1410 1410 1410 1410 1543 1543 1543 1550 1550 1550 1557 1557 1557 1564 1564 1564 1564 1564 1564 1564 1564 1572 1572 1572 1572 1572 1572 1572 1579 1579 1579 1579 1586 1586 1586 1586 1594 1594 1594 1594 1594 1601 1601 1601 1601 1601 1601 1601 1609 1609 1609 1609 1616 1616 1616 1616 1616 1624 1624 1427 1421 1421 1415 1415 1410 1410 1410 1410 1410 1415 1415 1421 1427 1427 1427 1433 1433 1433 1433 1433 1439 1439 1439 1439 1439 1439 1439 1439 1439 1439 1439 1439 1445 1445 1445 1452 1452 1452 1452 1452 1452 1452 1458 1458 1458 1458 1458 1458 1458 1458 1458 1464 1464 1464 1464 1464 1470 1470 1477 1477 1477 1477 1477 1477 1477 1477 1477 1477 1477 1477 1477 1477 1477 1477 1477 1477 1483 1483 1483 1483 1496 1496 1503 1509 1516 1516 1529 1529 1523 1523 1523 1523 1516 1516 1509 1509 1509 1509 1509 1509 1509 1516 1516 1516 1516 1509 1509 1509 1509 1813 1813 1813 1804 1804 1794 1794 1794 1785 1785 1785 1776 1776 1766 1766 1757 1757 1757 1757 1757 1766 1766 1766 1776 1776 1776 1776 1776 1785 1785 1785 1785 1794 1794 3269 3238 3238 3238 3238 3238 3238 3238 3269 3238 3238 3269 3269 3269 3269 3269 3269 3269 3269 3269 3269 3269 3269 3269 3269 3238 3238 3238 3238 3238 3238 3238 3238 3208 3208 3208 3208 3208 3208 3178 3178 3208 3208 3208 3208 3178 3178 3178 3178 3178 3178 3178 3208 3178 3178 3178 3208 3208 3208 3208 3208 3208 3178 3178 3208 3208 3178 3178 3178 3208 3208 3238 3238 0 0 0 0 0 0 0 0 0 0 0
0 0 0 0 0 0 0 0 0 0 0 0 0 0 0 0 0 0 0 0 0 0 0 0 0 0 0 0 0 0 0 0 3120 3120 3120 3120 3120 3120 3149 3149 3120 3120 3120 3120 3120 3120 3120 3120 3120 3120 3120 3120 3120 3120 3120 3120 3120 3120 3120 3149 3149 3149 3149 3149 3149 3178 3178 3178 3178 3178 3149 3149 3149 3120 3120 3149 3149 3149 3149 3149 3149 3149 3178 3178 3178 3178 3178 3178 3178 3178 3178 3178 3178 3178 3178 3178 3178 3178 3178 3178 3178 3178 3178 3178 3178 3178 3178 3149 3149 2984 2908 2883 2883 2883 2908 2908 2908 2908 2908 2908 2883 2883 2883 2883 2883 2883 2883 2883 2883 2883 2883 2883 2883 2883 2883 2883 2883 2883 2908 2908 2933 2933 2933 2933 2933 2958 2958 2958 2958 2958 2958 2958 2958 2984 2984 2984 2958 2958 2958 2984 2984 3010 3064 3064 3092 3120 3120 3120 3092 3092 3092 2028 2028 2040 2040 2040 2040 2040 2053 2053 2053 2053 2065 2065 2090 2090 1392 1392 1387 1387 1381 1381 1381 1381 1381 1381 1381 1381 1381 1381 1381 1387 1387 1392 1387 1387 1387 1387 1387 1387 1381 1381 1381 1387 1387 1387 1387 1387 1392 1398 1398 1398 1398 1398 1398 1404 1404 1404 1404 1283 1283 1283 1283 1283 1283 1283 1283 1283 1288 1288 1288 1292 1292 1292 1312 1398 1398 1398 1398 1404 1410 1410 1415 1415 1307 1307 1307 1312 1312 1312 1312 1312 1317 1317 1317 1317 1317 1317 1317 1322 1322 1322 1328 1328 1328 1328 1328 1328 1328 1328 1333 1333 1333 1333 1333 1333 1333 1333 1333 1338 1338 1338 1343 1343 1349 1349 1349 1349 1349 1349 1349 1354 1354 1354 1354 1354 1354 1354 1359 1359 1365 1365 1370 1370 1376 1376 1376 1376 1376 1376 1376 1381 1381 1381 1387 1392 1392 1392 1398 1398 1398 1398 1392 1392 1392 1398 1398 1404 1410 1410 1410 1410 1410 1410 1404 1404 1410 1404 1404 1410 1410 1410 1410 1410 1410 1410 1410 1543 1543 1550 1550 1550 1557 1557 1564 1564 1564 1564 1564 1564 1572 1572 1572 1572 1572 1572 1572 1572 1572 1579 1579 1579 1586 1586 1586 1594 1594 1594 1594 1594 1594 1594 1594 1601 1601 1601 1601 1601 1601 1601 1601 1609 1609 1616 1616 1616 1616 1616 1616 1616 1624 1624 1427 1421 1421 1421 1415 1410 1410 1410 1410 1415 1415 1421 1421 1427 1427 1433 1433 1433 1433 1433 1439 1445 1445 1445 1445 1445 1445 1445 1445 1445 1445 1445 1445 1445 1445 1452 1452 1452 1452 1452 1452 1458 1458 1458 1458 1458 1458 1458 1458 1458 1458 1458 1464 1464 1464 1464 1464 1470 1470 1477 1477 1477 1477 1477 1477 1483 1483 1477 1477 1477 1477 1477 1483 3300 3300 3300 3300 3300 3300 3300 3300 3269 3269 1523 1523 1523 1529 1529 1529 1529 1529 1523 1523 1516 1516 1509 1509 1509 1509 1516 1516 1516 1516 1516 1516 1516 1509 1509 1509 0 0 1813 1813 1804 1804 1794 1794 1794 1785 1785 1776 1776 1766 1766 1757 1757 1757 1757 1757 1757 1766 1766 1766 1776 1776 1776 1785 1785 1785 1785 1785 1794 1794 1794 3238 3238 3238 3238 3238 3208 3208 3208 3238 3238 3238 3238 3238 3238 3238 3238 3238 3238 3269 3269 3269 3269 3269 3238 3238 3238 3238 3208 3208 3208 3208 3208 3208 3208 3208 3208 3208 3208 3178 3178 3178 3178 3178 3178 3178 3178 3178 3178 3178 3178 3178 3178 3178 3178 3178 3178 3208 3208 3208 3208 3208 3208 3178 3178 3178 3178 3178 3178 3178 3178 3208 3208 3208 0 0 0 0 0 0 0 0 0 0 0
0 0 0 0 0 0 0 0 0 0 0 0 0 0 0 0 0 0 0 0 0 0 0 0 0 0 0 0 0 0 0 0 3092 3092 3092 3092 3092 3092 3120 3120 3120 3120 3120 3120 3120 3120 3120 3120 3120 3120 3120 3120 3120 3120 3120 3120 3120 3120 3120 3120 3120 3120 3120 3120 3120 3120 3120 3120 3120 3120 3120 3120 3120 3120 3120 3120 3120 3120 3120 3120 3120 3149 3149 3149 3149 3149 3149 3178 3149 3149 3178 3149 3149 3149 3149 3149 3149 3149 3149 3149 3149 3149 3149 3149 3178 3149 3149 3149 3149 3092 2908 2908 2908 2908 2908 2908 2908 2908 2908 2908 2883 2883 2883 2883 2883 2883 2883 2883 2883 2883 2883 2883 2883 2883 2908 2908 2908 2908 2908 2908 2933 2933 2933 2933 2933 2958 2958 2958 2958 2958 2958 2958 2958 2984 2984 2984 2958 2958 2958 2984 2984 3010 3064 3064 3092 3120 3120 3092 3092 3037 3037 2028 2028 2040 2040 2040 2040 2040 2053 2053 2053 2053 2053 2065 2078 2078 1376 1376 1376 1381 1376 1376 1376 1376 1381 1381 1376 1376 1376 1381 1381 1381 1381 1387 1387 1381 1381 1381 1381 1381 1381 1381 1381 1381 1387 1387 1387 1387 1392 1392 1398 1398 1398 1398 1398 1398 1398 1398 1398 1283 1283 1283 1283 1283 1283 1288 1288 1288 1288 1288 1292 1292 1292 1292 1312 1317 1317 1322 1398 1312 1312 1312 1312 1312 1307 1307 1307 1312 1312 1312 1317 1317 1317 1317 1317 1317 1322 1322 1322 1322 1328 1328 1328 1328 1328 1328 1328 1328 1328 1328 1333 1333 1333 1333 1333 1333 1333 1333 1338 1338 1338 1343 1343 1349 1349 1349 1349 1349 1349 1354 1354 1354 1354 1359 1359 1359 1359 1359 1365 1365 1365 1370 1370 1370 1376 1376 1376 1376 1376 1381 1381 1381 1387 1387 1392 1392 1398 1398 1398 1398 1398 1398 1398 1398 1398 1398 1404 1404 1410 1410 1410 1410 1410 1410 1410 1410 1410 1410 1410 1410 1410 1410 1410 1410 1410 1410 1410 1543 1550 1550 1550 1550 1557 1564 1564 1564 1564 1564 1564 1564 1572 1572 1572 1572 1572 1572 1572 1579 1579 1579 1586 1586 1586 1594 1594 1594 1594 1594 1594 1594 1594 1601 1601 1601 1601 1601 1601 1601 1601 1601 1609 1609 1609 1616 1616 1616 1624 1624 1616 1616 1439 1433 1427 1427 1421 1421 1421 1410 1410 1415 1415 1421 1421 1421 1427 1427 1427 1433 1433 1433 1439 1439 1439 1445 1445 1445 1445 1445 1445 1445 1445 1445 1445 1445 1445 1445 1445 1452 1452 1452 1452 1458 1458 1458 1458 1458 1458 1458 1458 1458 1458 1458 1458 1458 1464 1464 1464 1458 1458 1470 1470 1477 1477 1477 1477 1477 1483 1483 1483 1483 1483 1483 1483 3300 3300 3300 3300 3269 3269 3269 3300 3300 3269 3269 3269 3269 1529 1529 1529 1536 1529 1529 1529 1523 1523 1516 1516 1516 1516 1509 1509 1516 1516 1516 1516 1516 1516 1516 1509 1509 1509 0 0 1813 1813 1804 1804 1794 1794 1794 1785 1785 1776 1766 1766 1766 1757 1757 1757 1757 1757 1757 1766 1766 1766 1776 1776 1785 1785 1785 1785 1785 1785 1794 1804 1813 3238 3238 3238 3238 3238 3208 3208 3208 3208 3238 3238 3208 3208 3208 3208 3208 3238 3238 3238 3238 3238 3269 3238 3238 3238 3208 3208 3178 3178 3208 3208 3178 3178 3178 3178 3178 3178 3178 3178 3178 3149 3149 3178 3149 3149 3149 3178 3178 3178 3149 3149 3178 3178 3149 3149 3178 3178 3178 3178 3178 3178 3178 3149 3149 3149 3178 3178 3178 3178 3178 3208 3208 3208 0 0 0 0 0 0 0 0 0 0 0
0 0 0 0 0 0 0 0 0 0 0 0 0 0 0 0 0 0 0 0 0 0 0 0 0 0 0 0 0 0 0 0 3092 3092 3092 3064 3064 3092 3092 3092 3120 3120 3120 3120 3120 3092 3092 3092 3092 3092 3092 3092 3092 3092 3092 3092 3092 3092 3092 3120 3120 3120 3120 3120 3120 3120 3120 3120 3120 3120 3120 3092 3092 3092 3092 3092 3092 3092 3092 3092 3092 3092 3120 3120 3120 3149 3149 3149 3149 3149 3178 3149 3149 3149 3149 3149 3149 3149 3149 3149 3149 3149 3149 3149 3149 3149 3149 3149 3149 2984 2958 2908 2908 2908 2908 2908 2908 2908 2908 2908 2883 2883 2883 2883 2883 2883 2883 2883 2883 2883 2883 2883 2883 2883 2908 2908 2908 2908 2908 2908 2933 2933 2933 2933 2933 2958 2958 2958 2958 2958 2958 2958 2984 2984 2984 2984 2958 2958 2958 2984 2984 3010 3064 3064 3092 3092 3092 3092 3064 3037 3037 3037 2040 2040 2040 2040 2040 2040 2053 2053 2053 2053 2053 2065 2065 2065 1376 1376 1376 1376 1376 1376 1376 1376 1376 1376 1376 1376 1376 1376 1376 1381 1381 1381 1381 1381 1381 1381 1381 1381 1381 1381 1381 1381 1381 1387 1387 1387 1387 1392 1392 1398 1398 1398 1398 1398 1398 1398 1398 1283 1283 1288 1288 1288 1288 1288 1288 1288 1292 1292 1292 1292 1297 1307 1312 1312 1317 1322 1398 1312 1312 1312 1312 1312 1312 1312 1312 1312 1312 1317 1317 1317 1317 1317 1322 1322 1322 1322 1322 1328 1328 1328 1328 1328 1328 1328 1328 1328 1328 1328 1333 1333 1333 1333 1333 1333 1338 1338 1338 1343 1343 1343 1349 1349 1349 1349 1349 1354 1354 1354 1354 1354 1359 1365 1365 1365 1365 1365 1365 1370 1370 1370 1370 1376 1376 1376 1376 1381 1381 1381 1381 1387 1387 1392 1392 1398 1398 1398 1398 1398 1398 1398 1398 1398 1398 1404 1404 1410 1410 1410 1410 1415 1415 1410 1410 1410 1410 1410 1410 1410 1410 1410 1410 1410 1410 1410 1410 1550 1550 1550 1557 1557 1557 1564 1564 1564 1564 1564 1564 1564 1572 1572 1572 1572 1572 1579 1579 1579 1579 1586 1586 1586 1586 1594 1594 1594 1594 1594 1594 1594 1594 1601 1601 1601 1601 1601 1601 1601 1601 1601 1609 1609 1609 1616 1616 1624 1624 1624 1624 1624 1439 1433 1433 1427 1427 1421 1421 1415 1415 1415 1415 1421 1421 1427 1427 1427 1427 1433 1433 1433 1439 1439 1445 1445 1445 1445 1445 1445 1445 1445 1445 1445 1445 1445 1445 1452 1452 1452 1452 1452 1452 1458 1458 1458 1458 1458 1458 1458 1458 1458 1458 1452 1452 1458 1458 1458 1458 1458 1458 1470 1470 1477 1477 1483 1483 1483 1483 1483 1483 1483 1483 3269 3269 3269 3269 3269 3238 3238 3238 3238 3238 3238 3238 3238 3238 0 1543 1543 1543 1536 1529 1529 1529 1529 1523 1523 1516 1516 1516 1516 1516 1516 1516 1516 1523 1523 1516 1516 1516 0 1516 0 1823 1813 1813 1813 1804 1804 1794 1794 1785 1785 1776 1766 1766 1766 1757 1757 1757 1757 1757 1757 1766 1766 1776 1776 1776 1785 1785 1785 1785 1785 1794 1794 1804 1804 3238 3208 3208 3208 3238 3208 3208 3208 3208 3208 3208 3208 3208 3208 3208 3208 3208 3208 3208 3208 3208 3238 3208 3208 3208 3178 3178 3178 3178 3178 3178 3178 3178 3178 3178 3178 3178 3178 3149 3149 3149 3149 3149 3149 3149 3149 3149 3178 3149 3149 3149 3149 3149 3149 3149 3149 3178 3178 3178 3178 3178 3178 3149 3149 3149 3149 3149 3178 3178 3178 3178 3208 3208 0 0 0 0 0 0 0 0 0 0 0
0 0 0 0 0 0 0 0 0 0 0 0 0 0 0 0 0 0 0 0 0 0 0 0 0 0 0 0 0 0 0 0 3064 3037 3037 3037 3037 3064 3064 3064 3092 3092 3092 3092 3092 3092 3092 3092 3092 3092 3092 3092 3092 3092 3092 3092 3092 3092 3092 3092 3092 3092 3120 3120 3120 3120 3092 3092 3092 3120 3120 3092 3092 3092 3092 3092 3092 3092 3092 3092 3092 3092 3092 3092 3120 3120 3120 3120 3120 3120 3149 3120 3120 3120 3120 3120 3120 3120 3120 3120 3120 3120 3120 3120 3120 3120 3120 3092 3092 2984 2984 2933 2908 2908 2908 2908 2908 2908 2908 2908 2908 2883 2883 2883 2883 2883 2883 2883 2883 2883 2908 2883 2883 2883 2908 2908 2908 2908 2908 2908 2933 2933 2933 2933 2933 2958 2958 2958 2958 2958 2958 2958 2958 2984 2984 2984 2958 2958 2958 2984 3010 3010 3064 3064 3092 3092 3092 3092 3064 3064 3064 3064 2040 2040 2040 2040 2040 2040 2053 2053 2053 2053 2065 2065 2065 2065 1370 1370 1370 1376 1370 1370 1370 1376 1376 1376 1376 1376 1376 1376 1376 1376 1376 1381 1381 1381 1381 1376 1376 1381 1381 1381 1381 1381 1381 1381 1387 1387 1387 1392 1392 1398 1398 1398 1398 1398 1398 1398 1398 1288 1288 1288 1288 1288 1288 1292 1292 1292 1292 1292 1292 1292 1297 1307 1312 1312 1317 1317 1312 1312 1312 1312 1312 1312 1312 1312 1312 1312 1312 1317 1317 1317 1322 1322 1322 1322 1328 1328 1328 1328 1328 1328 1328 1328 1328 1333 1333 1333 1333 1333 1333 1333 1333 1338 1338 1338 1343 1343 1343 1343 1343 1349 1349 1349 1349 1354 1354 1354 1354 1354 1354 1359 1359 1365 1365 1365 1365 1365 1370 1370 1370 1370 1376 1376 1376 1376 1376 1381 1381 1381 1387 1387 1392 1392 1392 1398 1398 1398 1398 1404 1404 1404 1404 1404 1404 1404 1410 1410 1410 1410 1415 1415 1415 1410 1410 1410 1410 1410 1410 1410 1410 1415 1410 1410 1410 1410 1410 1550 1557 1557 1557 1557 1564 1564 1564 1564 1564 1564 1564 1572 1572 1572 1572 1572 1579 1579 1579 1579 1586 1586 1586 1586 1594 1594 1594 1594 1594 1594 1594 1594 1594 1601 1601 1601 1601 1601 1601 1601 1601 1601 1609 1609 1609 1616 1624 1624 1624 1624 1624 1445 1439 1439 1433 1433 1427 1427 1421 1415 1415 1421 1421 1427 1427 1427 1427 1427 1427 1433 1433 1433 1439 1439 1445 1445 1445 1445 1445 1445 1445 1445 1445 1445 1445 1445 1445 1452 1452 1452 1452 1452 1452 1458 1458 1458 1464 1464 1458 1458 1458 1452 1452 1452 1452 1458 1458 1458 1458 3208 3238 3238 3238 3238 3238 3238 3238 3238 3269 3269 3238 3238 3238 3238 3238 3238 3238 3238 3208 3208 3208 3238 3208 3208 3208 3208 3208 0 0 1543 1543 1536 1529 1529 1529 1529 1523 1523 1523 1516 1516 1516 1516 1523 1523 1523 1523 1523 1523 1516 1516 0 0 0 1823 1823 1813 1813 1804 1804 1794 1794 1785 1785 1776 1776 1766 1757 1757 1757 1757 1757 1757 1757 1766 1776 1776 1776 1776 1785 1785 1785 1785 1794 1794 1794 1804 1804 1813 3208 3208 3208 3208 3208 3208 3208 3208 3208 3208 3178 3178 3178 3178 3178 3178 3178 3178 3208 3208 3208 3208 3208 3208 3178 3178 3149 3149 3149 3178 3149 3149 3149 3149 3149 3149 3149 3149 3149 3149 3149 3149 3149 3149 3149 3149 3149 3149 3149 3149 3149 3149 3149 3149 3149 3149 3149 3149 3149 3149 3149 3149 3149 3149 3149 3149 3149 3149 3149 3149 3149 3149 0 0 0 0 0 0 0 0 0 0 0
0 0 0 0 0 0 0 0 0 0 0 0 0 0 0 0 0 0 0 0 0 0 0 0 0 0 0 0 0 0 0 0 3037 3037 3037 3037 3037 3037 3037 3064 3064 3064 3064 3064 3064 3064 3064 3064 3064 3092 3092 3092 3092 3092 3092 3064 3064 3092 3092 3092 3092 3092 3092 3092 3092 3092 3092 3092 3092 3092 3092 3092 3092 3092 3092 3092 3092 3092 3092 3092 3092 3092 3092 3092 3092 3092 3092 3092 3120 3092 3092 3120 3120 3120 3120 3092 3092 3120 3092 3092 3092 3092 3092 3092 3120 3092 3092 3092 3092 3010 2984 2958 2908 2908 2908 2908 2908 2908 2908 2908 2883 2883 2883 2883 2883 2883 2883 2883 2883 2908 2908 2908 2908 2908 2908 2908 2908 2908 2908 2933 2933 2933 2933 2958 2958 2958 2958 2958 2958 2958 2958 2958 2958 2984 2984 2984 2958 2958 2984 2984 3010 3037 3037 3064 3092 3092 3092 3092 3092 3092 3064 3064 2040 2040 2040 2040 2040 2040 2053 2053 2053 2053 2065 2065 2065 2065 1370 1370 1370 1370 1370 1370 1370 1370 1370 1376 1376 1376 1376 1376 1376 1376 1376 1376 1381 1376 1376 1376 1376 1376 1376 1381 1381 1381 1381 1381 1387 1387 1387 1392 1392 1398 1398 1398 1398 1398 1398 1398 1398 1288 1288 1288 1288 1288 1288 1292 1292 1292 1292 1292 1292 1297 1302 1312 1312 1312 1317 1317 1312 1312 1312 1312 1312 1317 1317 1317 1317 1317 1317 1317 1317 1322 1322 1322 1322 1328 1328 1328 1328 1328 1328 1328 1328 1328 1333 1333 1333 1333 1333 1333 1338 1338 1338 1338 1338 1338 1343 1343 1343 1343 1349 1349 1349 1354 1354 1354 1354 1354 1354 1359 1359 1359 1359 1365 1365 1365 1365 1370 1370 1370 1370 1376 1376 1376 1381 1381 1381 1381 1381 1387 1387 1392 1392 1392 1392 1398 1398 1398 1404 1404 1404 1410 1404 1404 1404 1410 1410 1410 1415 1415 1415 1415 1415 1415 1410 1410 1410 1410 1410 1415 1415 1415 1415 1410 1410 1410 1410 1557 1557 1557 1564 1564 1564 1564 1564 1564 1572 1572 1572 1572 1572 1572 1579 1579 1579 1579 1586 1586 1586 1586 1586 1594 1594 1594 1594 1594 1594 1594 1594 1594 1594 1601 1601 1601 1601 1601 1601 1601 1601 1609 1609 1609 1609 1616 1624 1624 1624 1624 1624 1445 1439 1439 1433 1433 1427 1427 1421 1421 1421 1421 1421 1427 1427 1427 1427 1427 1427 1433 1433 1433 1439 1439 1445 1445 1445 1445 1445 2116 2116 1445 1445 1445 1445 1452 1452 1452 1452 1452 1452 1458 1458 2143 2143 2156 2156 2156 3208 3208 1458 1452 1452 1452 1452 3208 3208 3208 3208 3208 3208 3238 3238 3238 3238 3238 3238 3238 3238 3238 3238 3238 3238 3208 3208 3208 3208 3208 3208 3208 3208 3208 3208 3208 3208 3208 3208 0 1557 0 1557 1543 1529 1529 1529 1529 1523 1523 1523 1523 1523 1523 1523 1523 1523 1523 1523 1523 1523 1523 1523 0 0 0 0 1823 1813 1813 1813 1804 1804 1794 1785 1785 1776 1776 1766 1757 1757 1757 1757 1757 1757 1757 1766 1776 1776 1776 1776 1785 1785 1785 1794 1794 1794 1794 1794 1794 1813 3208 3208 3208 3208 3178 3178 3178 3178 3178 3178 3178 3178 3178 3178 3178 3178 3178 3178 3178 3208 3208 3178 3178 3178 3149 3149 3149 3149 3149 3149 3149 3149 3149 3149 3149 3149 3149 3149 3149 3149 3149 3149 3149 3149 3149 3149 3149 3149 3149 3149 3149 3149 3149 3149 3149 3149 3149 3149 3149 3149 3149 3149 3149 3149 3149 3149 3149 3149 3149 3149 3120 3120 0 0 0 0 0 0 0 0 0 0 0
0 0 0 0 0 0 0 0 0 0 0 0 0 0 0 0 0 0 0 0 0 0 0 0 0 0 0 0 0 0 0 0 3037 3010 3010 3010 3010 3010 3010 3037 3064 3064 3064 3064 3064 3064 3064 3064 3064 3064 3064 3064 3064 3064 3064 3064 3064 3064 3064 3064 3092 3092 3092 3092 3092 3092 3092 3092 3092 3092 3092 3064 3064 3064 3064 3064 3064 3064 3064 3064 3064 3064 3064 3064 3092 3092 3092 3092 3092 3092 3092 3092 3092 3092 3092 3092 3092 3092 3092 3092 3092 3092 3092 3092 3092 3092 3092 3092 3064 3010 2984 2958 2908 2908 2908 2908 2908 2908 2908 2908 2883 2883 2883 2883 2883 2883 2883 2883 2883 2908 2908 2908 2908 2908 2933 2933 2933 2933 2933 2933 2933 2933 2933 2933 2958 2958 2958 2958 2958 2958 2958 2958 2984 2984 2984 2984 2958 2958 2984 2984 3010 3010 3037 3064 3092 3092 3092 3092 3064 3064 3064 3064 3064 2040 2040 2040 2040 2040 2053 2053 2053 2065 2065 2065 2065 2065 1376 1376 1376 1370 1370 1370 1370 1370 1370 1376 1376 1376 1376 1376 1376 1376 1376 1376 1381 1376 1376 1376 1376 1376 1376 1381 1381 1381 1381 1387 1387 1387 1387 1392 1392 1398 1398 1398 1398 1398 1398 1398 1398 1288 1288 1292 1292 1292 1292 1292 1292 1292 1292 1292 1297 1297 1307 1312 1312 1312 1317 1317 1312 1312 1312 1312 1312 1317 1317 1317 1317 1317 1317 1317 1317 1322 1322 1322 1328 1328 1328 1328 1328 1328 1328 1328 1328 1333 1333 1333 1333 1333 1338 1338 1338 1338 1338 1338 1343 1343 1349 1349 1349 1349 1349 1349 1349 1354 1354 1354 1354 1354 1359 1365 1365 1365 1365 1370 1370 1370 1370 1370 1370 1376 1376 1376 1376 1381 1381 1381 1381 1387 1387 1387 1392 1392 1392 1392 1398 1398 1398 1404 1404 1404 1404 1410 1404 1404 1410 1410 1410 1415 1415 1415 1415 1415 1415 1415 1415 1415 1415 1415 1415 1415 1415 1415 1415 1415 1415 1415 1415 1557 1557 1557 1564 1564 1564 1564 1564 1564 1572 1572 1572 1572 1572 1572 1579 1579 1579 1579 1586 1586 1586 1586 1586 1594 1594 1594 1594 1594 1594 1594 1594 1594 1594 1601 1601 1601 1601 1601 1601 1601 1609 1609 1609 1609 1609 1616 1624 1624 1624 1624 1624 1445 1439 1439 1439 1433 1433 1427 1421 1421 1427 1427 1427 1427 1427 1427 1427 1433 1433 1433 1433 1433 1439 1439 1445 2103 2103 2103 2103 2116 2116 2116 2143 2143 2143 1452 1452 1452 1452 1452 1452 2143 2143 2143 2143 2143 2143 2156 3208 3208 3208 3208 3208 3208 3208 3208 3208 3208 3208 3208 3208 3208 3208 3208 3208 3208 3208 3238 3238 3238 3238 3238 3208 3208 3208 3208 3208 3208 3208 3208 3208 3208 3208 3208 3208 3208 3208 0 1557 1557 1557 1543 1536 1536 1529 1529 1523 1523 1523 1523 1523 1523 1523 1523 1523 1523 1523 1523 1523 1523 1523 0 0 0 0 1833 1823 1813 1813 1813 1804 1794 1785 1785 1776 1776 1766 1766 1757 1757 1757 1757 1766 1766 1776 1776 1776 1785 1785 1785 1785 1794 1794 1794 1794 1794 1794 1794 3178 3178 3178 3178 3178 3178 3178 3178 3178 3178 3149 3149 3149 3149 3149 3178 3149 3149 3149 3149 3149 3149 3149 3149 3149 3120 3120 3149 3120 3120 3149 3149 3120 3120 3120 3120 3120 3120 3120 3120 3120 3120 3120 3120 3120 3149 3149 3149 3149 3149 3149 3120 3120 3120 3120 3120 3120 3120 3120 3149 3120 3120 3120 3120 3120 3120 3120 3149 3149 3149 3120 3120 3120 0 0 0 0 0 0 0 0 0 0 0
0 0 0 0 0 0 0 0 0 0 0 0 0 0 0 0 0 0 0 0 0 0 0 0 0 0 0 0 0 0 0 0 3010 3010 3010 3010 3010 3010 3010 3010 3010 3037 3037 3037 3064 3037 3037 3037 3037 3064 3064 3064 3064 3064 3064 3064 3064 3064 3064 3064 3064 3064 3064 3064 3064 3064 3064 3092 3092 3092 3092 3064 3064 3064 3064 3064 3064 3064 3064 3064 3064 3064 3064 3064 3064 3064 3064 3064 3064 3064 3064 3092 3092 3092 3092 3092 3092 3092 3092 3064 3064 3092 3092 3092 3092 3092 3092 3092 3064 3064 3010 2984 2984 2958 2933 2933 2908 2908 2908 2908 2883 2883 2883 2883 2883 2883 2883 2883 2883 2908 2908 2908 2908 2908 2933 2933 2933 2933 2933 2933 2933 2933 2933 2933 2958 2958 2958 2958 2958 2958 2958 2958 2984 2984 2984 2984 2958 2958 2984 2984 2984 3010 3037 3064 3092 3092 3064 3064 3064 3064 3064 3064 3064 3064 2053 2053 2053 2053 2053 2065 2065 2065 2065 2065 2065 2065 1376 1376 1376 1370 1370 1365 1365 1370 1370 1370 1376 1376 1376 1376 1376 1376 1376 1376 1381 1376 1376 1376 1376 1376 1376 1381 1381 1381 1381 1387 1387 1392 1392 1398 1398 1398 1398 1398 1398 1398 1398 1398 1283 1283 1288 1292 1292 1292 1292 1292 1292 1292 1297 1297 1297 1297 1307 1312 1312 1317 1317 1317 1312 1312 1312 1317 1317 1317 1317 1317 1317 1317 1317 1317 1317 1322 1322 1322 1328 1328 1328 1328 1328 1328 1333 1333 1333 1333 1333 1333 1333 1338 1338 1338 1338 1338 1338 1343 1343 1343 1349 1349 1349 1349 1349 1354 1354 1354 1354 1354 1354 1359 1359 1365 1365 1370 1370 1370 1370 1370 1370 1370 1376 1376 1376 1376 1376 1381 1381 1387 1387 1387 1387 1392 1392 1392 1392 1398 1398 1398 1404 1404 1404 1410 1410 1410 1404 1404 1410 1410 1410 1415 1415 1415 1415 1415 1415 1415 1415 1415 1415 1415 1415 1415 1415 1415 1415 1415 1415 1415 1557 1557 1557 1564 1564 1564 1564 1564 1564 1572 1572 1572 1572 1572 1572 1572 1579 1579 1579 1579 1586 1586 1586 1586 1594 1594 1594 1594 1594 1594 1594 1594 1594 1594 1594 1601 1601 1601 1601 1601 1601 1601 1609 1609 1609 1609 1616 1616 1624 1624 1624 1624 1458 1445 1439 1439 1439 1433 1433 1433 1427 1427 1427 1427 1427 1427 1427 1427 1427 1433 1433 1433 1433 1433 1433 1433 2103 2103 2103 2103 2116 2116 2116 2116 2129 2143 2143 2143 2129 2129 2129 2129 2129 2129 2129 2129 2129 2143 2143 2143 3178 3208 3208 3208 3208 3208 3208 3208 3208 3208 3208 3208 3208 3208 3208 3208 3208 3208 3208 3208 3208 3208 3208 3208 3208 3178 3178 3178 3178 3178 3178 3178 3178 3178 3178 3178 3208 0 3208 1564 1557 1557 1557 1543 1536 1536 1529 1529 1523 1523 1523 1523 1523 1523 1523 1529 1529 1529 1529 1529 1529 1529 0 0 0 0 0 1833 1823 1823 1813 1813 1804 1794 1785 1785 1785 1776 1766 1766 1757 1757 1757 1766 1766 1776 1776 1776 1785 1785 1785 1794 1794 1794 1794 1794 1794 1794 3149 3149 3178 3178 3178 3178 3178 3178 3178 3149 3149 3149 3149 3149 3149 3149 3149 3149 3149 3149 3149 3149 3149 3149 3149 3149 3149 3120 3120 3120 3120 3120 3120 3120 3120 3120 3120 3120 3120 3120 3120 3120 3120 3120 3120 3120 3120 3120 3120 3120 3120 3120 3120 3120 3092 3092 3092 3092 3092 3064 3064 3064 3092 3092 3092 3092 3092 3092 3092 3092 3092 3092 3092 3092 3092 0 0 0 0 0 0 0 0 0 0 0
0 0 0 0 0 0 0 0 0 0 0 0 0 0 0 0 0 0 0 0 0 0 0 0 0 0 0 0 0 0 0 0 3010 3010 3010 2984 2984 2984 3010 3010 3010 3010 3010 3010 3037 3010 3010 3037 3037 3010 3010 3037 3037 3037 3037 3037 3037 3037 3037 3037 3037 3037 3064 3064 3064 3064 3064 3064 3064 3064 3064 3064 3064 3064 3064 3064 3064 3064 3064 3037 3037 3037 3037 3064 3064 3064 3064 3064 3064 3064 3064 3064 3064 3064 3064 3064 3064 3064 3064 3064 3064 3064 3064 3064 3064 3064 3064 3064 3064 3037 3010 2984 2984 2958 2933 2933 2908 2908 2908 2908 2908 2883 2883 2883 2883 2883 2883 2883 2908 2908 2933 2908 2908 2933 2933 2933 2933 2933 2933 2933 2933 2933 2933 2933 2958 2958 2958 2958 2958 2958 2958 2958 2984 2984 2984 2984 2958 2958 2984 2984 2984 3010 3037 3064 3092 3092 3064 3064 3064 3064 3064 3064 3064 3064 3092 2053 2053 2053 2053 2065 2065 2065 2065 2065 2065 2065 1376 1376 1370 1370 1370 1365 1365 1370 1370 1370 1376 1376 1376 1376 1376 1376 1376 1376 1381 1381 1381 1381 1381 1381 1381 1381 1381 1381 1387 1392 1392 1398 1398 1398 1398 1404 1404 1404 1404 1404 1404 1398 1283 1283 1288 1292 1292 1292 1292 1297 1297 1297 1297 1297 1297 1302 1312 1312 1312 1317 1317 1317 1312 1312 1312 1312 1317 1317 1317 1317 1317 1317 1317 1317 1322 1322 1328 1328 1328 1328 1328 1328 1328 1328 1333 1333 1333 1333 1333 1333 1338 1338 1338 1343 1343 1343 1343 1343 1343 1343 1349 1349 1354 1354 1354 1354 1354 1354 1354 1354 1354 1359 1365 1365 1370 1370 1370 1370 1370 1370 1376 1376 1376 1376 1376 1381 1381 1387 1387 1387 1392 1392 1392 1392 1398 1398 1398 1398 1398 1404 1404 1404 1404 1410 1410 1410 1404 1404 1410 1410 1410 1415 1415 1415 1415 1421 1415 1415 1415 1415 1415 1415 1415 1415 1421 1421 1421 1421 1415 1415 1564 1564 1564 1564 1564 1564 1564 1564 1572 1572 1572 1572 1572 1572 1572 1572 1579 1579 1579 1579 1586 1586 1586 1594 1594 1594 1594 1594 1594 1594 1594 1594 1594 1601 1601 1601 1601 1601 1601 1601 1609 1609 1609 2065 2065 2065 2065 2078 2078 2078 2078 1458 1458 1452 1445 1439 1439 1439 1433 1433 1427 1427 1427 1427 1427 1427 1433 1433 1433 1433 1433 1433 1433 1433 1433 1433 2103 2103 2103 2103 2116 2116 2116 2116 2129 2143 2143 2143 2129 2129 2129 2129 2129 2129 2129 2129 2129 2129 2129 2129 3178 3178 3178 3208 3208 3208 3208 3178 3178 3208 3208 3208 3208 3208 3208 3208 3208 3208 3208 3208 3208 3178 3178 3178 3178 3178 3178 3178 3178 3178 3178 3178 3178 3178 3178 3178 3208 0 1572 1564 1564 1557 1557 1550 1536 1536 1529 1529 1529 1529 1529 1529 1529 1529 1529 1529 1529 1529 1529 1529 1529 1523 1523 0 0 0 1843 1833 1833 1823 1813 1813 1804 1794 1794 1785 1785 1785 1776 1766 1766 1766 1766 1766 1766 1776 1776 1785 1785 1785 1785 1785 1785 1785 1785 1785 1785 3149 3149 3149 3149 3149 3178 3178 3178 3178 3149 3149 3149 3149 3149 3149 3149 3149 3149 3149 3149 3149 3149 3149 3149 3149 3149 3149 3149 3120 3120 3120 3120 3120 3120 3120 3120 3120 3120 3120 3120 3120 3120 3120 3120 3120 3092 3092 3092 3092 3092 3092 3092 3092 3092 3092 3092 3092 3092 3092 3092 3064 3064 3064 3064 3064 3064 3064 3064 3037 3037 3064 3064 3064 3064 3064 3064 0 0 0 0 0 0 0 0 0 0 0
0 0 0 0 0 0 0 0 0 0 0 0 0 0 0 0 0 0 0 0 0 0 0 0 0 0 0 0 0 0 0 0 3010 3010 3010 2984 2984 2984 2984 3010 3010 3010 3010 3010 3010 3010 3010 3010 3010 3010 3010 3010 3010 3010 3010 3010 3010 3037 3037 3037 3037 3037 3037 3037 3037 3037 3037 3037 3037 3037 3037 3037 3037 3037 3037 3037 3037 3037 3037 3037 3037 3037 3037 3037 3037 3037 3037 3037 3064 3064 3064 3064 3064 3064 3064 3064 3064 3064 3064 3064 3064 3064 3064 3064 3064 3064 3064 3064 3064 3037 3010 2984 2984 2958 2933 2933 2933 2908 2908 2908 2908 2908 2883 2883 2908 2908 2908 2908 2908 2908 2933 2908 2908 2933 2933 2933 2933 2933 2933 2933 2933 2933 2933 2958 2958 2958 2958 2958 2958 2958 2958 2958 2984 2984 2984 2984 2958 2958 2984 2984 2984 3010 3037 3064 3064 3064 3064 3064 3064 3064 3064 3064 3064 3064 3092 2078 2065 2065 2065 2065 2065 2065 2065 2065 2065 2065 2065 1370 1370 1370 1370 1370 1370 1370 1370 1376 1376 1376 1376 1376 1376 1376 1381 1381 1381 1381 1381 1381 1381 1381 1381 1387 1387 1387 1392 1392 1398 1398 1398 1404 1404 1404 1404 1404 1404 1404 1404 1398 1398 1292 1292 1292 1292 1292 1292 1297 1297 1297 1297 1297 1297 1302 1312 1312 1317 1317 1317 1317 1317 1312 1312 1312 1317 1317 1317 1317 1317 1317 1317 1322 1322 1328 1328 1328 1328 1328 1333 1333 1333 1333 1333 1333 1333 1338 1338 1338 1343 1343 1343 1343 1343 1343 1349 1349 1349 1349 1349 1354 1354 1354 1354 1354 1354 1354 1354 1359 1359 1365 1365 1370 1370 1370 1370 1370 1370 1370 1376 1376 1376 1376 1376 1381 1381 1387 1387 1392 1392 1392 1392 1398 1398 1398 1398 1398 1398 1404 1404 1404 1410 1410 1410 1415 1410 1410 1410 1410 1415 1415 1415 1415 1415 1421 1421 1415 1415 1415 1415 1415 1415 1421 1421 1421 1421 1421 1564 1564 1564 1564 1564 1564 1564 1564 1564 1564 1572 1572 1572 1572 1572 1572 1572 1572 1579 1579 1579 1579 1586 1586 1586 1594 1594 1594 1586 1586 1586 1594 1594 1594 1594 1594 1601 1601 1601 1601 1601 1601 2065 2065 2065 2065 2065 2065 2065 2078 2078 2078 2078 1464 1464 1452 1445 1439 1439 1439 1439 1433 1427 1427 1427 1433 1427 1427 1433 1433 1433 1433 1433 1433 1433 1433 2103 2103 2103 2103 2116 2116 2116 2116 2129 2143 2143 2143 2143 2143 2143 2129 2129 2129 2129 2129 2129 2129 2129 2129 2129 2116 2116 3178 3178 3208 3208 3208 3178 3178 3178 3178 3178 3178 3208 3208 3208 3208 3208 3208 3208 3208 3178 3178 3178 3178 3178 3178 3178 3178 3178 3178 3178 3178 3178 3178 3178 3178 3178 0 1572 1572 1564 1564 1564 1550 1543 1536 1529 1529 1529 1529 1529 1529 1529 1529 1529 1529 1529 1529 1529 1529 1529 1523 1523 0 0 0 1843 1833 1833 1823 1813 1813 1804 1794 1794 1794 1785 1785 1776 1776 1766 1766 1766 1776 1776 1776 1776 1785 1785 1785 1785 1785 1785 1785 1785 1785 1785 3149 3149 3149 3149 3149 3149 3149 3149 3149 3149 3149 3120 3120 3120 3120 3120 3149 3149 3149 3149 3149 3149 3149 3149 3120 3120 3120 3120 3120 3092 3092 3092 3092 3092 3092 3092 3092 3120 3120 3120 3120 3120 3092 3092 3120 3092 3092 3092 3092 3092 3064 3064 3064 3092 3092 3092 3092 3064 3064 3064 3064 3064 3064 3064 3064 3064 3037 3037 3037 3037 3037 3064 3064 3064 3064 3064 0 0 0 0 0 0 0 0 0 0 0
0 0 0 0 0 0 0 0 0 0 0 0 0 0 0 0 0 0 0 0 0 0 0 0 0 0 0 0 0 0 0 0 3010 3010 2984 2984 2984 2984 2984 2984 2984 2984 2984 3010 2984 2984 2984 3010 3010 3010 3010 3010 3010 3010 3010 3010 3010 3010 3010 3010 3010 3010 3037 3010 3010 3010 3037 3037 3037 3037 3037 3010 3010 3037 3010 3010 3010 3010 3010 3010 3010 3010 3010 3037 3037 3037 3037 3037 3037 3037 3037 3037 3037 3064 3064 3064 3064 3064 3064 3037 3037 3064 3064 3064 3064 3064 3064 3064 3037 3037 3010 2984 2984 2958 2933 2933 2933 2908 2908 2908 2908 2908 2908 2908 2908 2908 2908 2908 2908 2908 2908 2908 2908 2933 2933 2933 2933 2933 2933 2933 2958 2958 2958 2958 2958 2958 2958 2958 2958 2958 2958 2958 2984 2984 2984 2984 2958 2958 2958 2984 2984 3010 3037 3064 3064 3064 3064 3064 3064 3064 3064 3064 3064 3064 3064 2078 2065 2065 2065 2065 2065 2065 2065 2065 2065 2065 2065 2065 1370 1370 1370 1370 1370 1370 1376 1376 1376 1376 1376 1376 1381 1381 1381 1381 1381 1381 1381 1381 1387 1387 1387 1387 1387 1392 1392 1392 1398 1398 1404 1404 1404 1404 1410 1410 1410 1410 1410 1404 1404 1292 1292 1292 1292 1292 1292 1297 1297 1297 1297 1297 1302 1307 1312 1317 1317 1317 1317 1317 1317 1312 1312 1317 1317 1317 1317 1317 1317 1317 1322 1322 1322 1328 1328 1328 1328 1333 1333 1333 1333 1333 1333 1333 1333 1338 1338 1338 1343 1349 1349 1349 1349 1349 1349 1349 1349 1349 1354 1354 1354 1354 1354 1354 1354 1354 1354 1359 1359 1365 1365 1370 1370 1370 1370 1370 1370 1370 1376 1376 1376 1376 1376 1381 1381 1387 1387 1392 1392 1398 1398 1398 1398 1398 1398 1398 1398 1404 1404 1404 1410 1410 1410 1415 1410 1410 1410 1410 1415 1415 1415 1415 1415 1421 1421 1415 1415 1415 1421 1421 1421 1421 1427 1427 1427 1427 1564 1564 1564 1564 1564 1564 1564 1564 1564 1564 1572 1572 1572 1572 1572 1579 1579 1579 1579 1586 1586 1586 1586 1594 1594 1594 1594 1594 1586 1586 1586 2053 2053 1594 1594 1594 2065 2065 2065 2065 2065 2065 2065 2065 2065 2065 2065 2078 2078 2078 2078 2078 2078 1464 1464 1458 1452 1445 1439 1439 1439 1439 1433 1433 1433 1433 1427 1427 1433 1433 1433 1433 1433 2090 2103 2103 2103 2103 2103 2116 2116 2116 2129 2129 2129 2143 2143 2143 2143 2143 2143 2143 2143 2143 2143 2143 2143 2129 2129 2129 2129 2116 2116 3149 3178 3178 3178 3178 3178 3178 3178 3178 3178 3178 3178 3178 3178 3208 3178 3178 3178 3178 3178 3178 3178 3178 3178 3178 3149 3149 3149 3149 3149 3149 3149 3149 3149 3149 0 1572 1572 1572 1564 1564 1564 1550 1543 1536 1529 1529 1529 1529 1529 1529 1529 1529 1529 1529 1529 1529 1529 1529 1529 1529 0 1529 0 1833 0 1833 1833 1823 1813 1813 1804 1794 1794 1794 1785 1785 1776 1776 1776 1776 1776 1776 1776 1776 1776 1785 1785 1785 1785 1785 1785 1785 1785 1785 1785 3120 3120 3120 3149 3149 3149 3149 3149 3149 3120 3120 3120 3120 3092 3092 3092 3120 3120 3120 3120 3120 3120 3120 3120 3120 3120 3120 3120 3120 3092 3092 3092 3092 3092 3092 3092 3092 3092 3092 3120 3092 3092 3092 3092 3120 3092 3064 3064 3064 3064 3064 3037 3037 3064 3064 3064 3064 3064 3064 3064 3064 3037 3037 3037 3037 3037 3037 3037 3037 3037 3037 3037 3037 3037 3037 3037 0 0 0 0 0 0 0 0 0 0 0
0 0 0 0 0 0 0 0 0 0 0 0 0 0 0 0 0 0 0 0 0 0 0 0 0 0 0 0 0 0 0 0 2984 2984 2984 2984 2984 2984 2984 2984 2984 2984 2984 2984 2984 2984 2984 3010 3010 2984 2984 2984 2984 3010 3010 3010 3010 3010 3010 3010 3010 3010 3010 3010 3010 3010 3010 3010 3010 3010 3010 3010 3010 3010 3010 3010 3010 3010 2984 2984 2984 3010 3010 3010 3010 3010 3010 3010 3037 3037 3037 3037 3037 3037 3037 3037 3037 3037 3037 3037 3037 3037 3037 3037 3037 3037 3037 3037 3037 3010 2984 2984 2958 2958 2933 2933 2933 2908 2908 2933 2908 2908 2908 2908 2908 2908 2908 2908 2908 2908 2908 2908 2908 2933 2933 2933 2933 2933 2933 2933 2958 2958 2958 2958 2958 2958 2958 2958 2958 2958 2958 2958 2984 2984 2984 2984 2958 2958 2958 2984 2984 3010 3037 3037 3064 3064 3064 3064 3064 3064 3064 3064 3064 3064 3064 2078 2065 2065 2065 2078 2065 2065 2065 2065 2065 2065 2065 2065 2078 1376 1376 1376 1376 1376 1376 1376 1376 1376 1376 1376 1381 1381 1381 1381 1381 1387 1387 1387 1387 1387 1387 1392 1392 1398 1398 1398 1398 1404 1404 1404 1404 1410 1410 1415 1415 1415 1421 1421 1421 1297 1297 1297 1297 1297 1297 1297 1297 1297 1297 1297 1302 1307 1312 1317 1317 1317 1317 1317 1317 1317 1317 1317 1317 1317 1317 1322 1322 1322 1322 1322 1328 1328 1328 1328 1333 1333 1333 1333 1333 1333 1333 1333 1338 1338 1343 1343 1349 1349 1349 1349 1349 1349 1349 1349 1349 1349 1354 1354 1354 1354 1354 1354 1359 1359 1359 1359 1365 1370 1370 1370 1370 1376 1376 1376 1376 1376 1376 1376 1376 1376 1376 1381 1381 1387 1387 1392 1392 1398 1398 1398 1398 1398 1404 1398 1398 1404 1404 1404 1410 1415 1415 1415 1410 1410 1410 1410 1415 1415 1421 1421 1421 1421 1421 1421 1421 1421 1421 1421 1421 1421 1427 1427 1427 1572 1572 1564 1564 1564 1564 1564 1564 1564 1564 1564 1564 1572 1572 1572 1579 1579 1579 1579 1586 1586 1586 1586 1586 1594 1594 1594 2053 2053 2053 2053 2053 2053 2053 2053 2053 2053 2065 2065 2065 2065 2065 2065 2065 2065 2065 2065 2078 2078 2078 2090 2090 2090 2090 1464 1464 1458 1458 1452 1445 1439 1439 1439 1433 1433 1433 1433 1433 1433 1433 1433 1433 1433 1433 2103 2103 2103 2103 2103 2103 2116 2116 2116 2129 2129 2143 2143 2143 2143 2143 2143 2143 2143 2143 2143 2143 2143 2143 2143 2143 2143 2129 2116 2116 3149 3149 3178 3178 3178 3178 3178 3178 3178 3178 3178 3178 3178 3178 3178 3178 3178 3178 3178 3178 3149 3149 3149 3149 3149 3149 3149 3149 3149 3149 3149 3149 3120 3120 3120 0 1572 1572 1572 1564 1564 1564 1557 1543 1543 1536 1529 1529 1529 1529 1529 1529 1529 1529 1529 1529 1529 1529 1529 1529 1529 0 0 0 0 0 1833 1833 1823 1823 1813 1804 1794 1794 1794 1785 1785 1776 1776 1776 1776 1776 1776 1776 1776 1776 1785 1785 1785 1785 1794 1794 1785 1785 1785 3064 3092 3092 3092 3120 3120 3149 3149 3149 3149 3120 3092 3092 3092 3092 3092 3092 3092 3092 3092 3092 3092 3092 3092 3092 3092 3092 3092 3092 3092 3064 3064 3064 3092 3092 3092 3092 3092 3092 3092 3064 3064 3064 3064 3064 3064 3037 3037 3037 3037 3037 3037 3037 3037 3037 3037 3037 3064 3037 3037 3064 3064 3037 3037 3037 3037 3037 3037 3037 3037 3037 3037 3037 3037 3037 3037 3037 0 0 0 0 0 0 0 0 0 0 0
0 0 0 0 0 0 0 0 0 0 0 0 0 0 0 0 0 0 0 0 0 0 0 0 0 0 0 0 0 0 0 0 2984 2984 2984 2984 2984 2984 2984 2984 2984 2984 2984 2984 2984 2984 2984 2984 2984 2984 2984 2984 2984 3010 3010 3010 3010 3010 3010 3010 3010 3010 3010 3010 3010 3010 3010 3010 3010 3010 3010 2984 2984 2984 2984 2984 2984 2984 2984 2984 2984 2984 2984 2984 2984 2984 2984 3010 3010 3010 3010 3010 3010 3037 3010 3010 3037 3037 3037 3010 3010 3037 3010 3010 3037 3037 3037 3037 3010 3010 2984 2984 2958 2958 2933 2933 2933 2933 2933 2933 2908 2908 2908 2908 2908 2908 2908 2908 2908 2908 2908 2908 2908 2933 2933 2933 2933 2933 2933 2933 2958 2958 2958 2958 2958 2958 2958 2958 2958 2958 2984 2984 2984 2984 2984 2984 2958 2958 2984 2984 2984 3010 3037 3037 3037 3037 3037 3064 3064 3037 3037 3037 3064 3064 3064 2090 2078 2078 2078 2078 2065 2065 2065 2065 2065 2065 2065 2078 2078 1376 1376 1376 1376 1376 1376 1376 1376 1381 1381 1381 1381 1381 1381 1381 1387 1387 1387 1387 1392 1392 1392 1398 1398 1398 1398 1398 1404 1404 1404 1410 1410 1410 1415 1421 1421 1421 1421 1421 1427 1297 1297 1297 1297 1297 1297 1297 1302 1302 1302 1302 1307 1312 1317 1317 1317 1317 1322 1322 1322 1317 1317 1317 1317 1322 1322 1322 1322 1322 1328 1328 1328 1328 1328 1328 1333 1333 1333 1333 1333 1338 1338 1338 1338 1343 1343 1343 1349 1349 1349 1349 1349 1349 1354 1354 1354 1354 1354 1359 1359 1359 1359 1359 1359 1359 1359 1365 1365 1370 1370 1370 1370 1376 1376 1376 1376 1376 1376 1376 1376 1381 1381 1381 1381 1387 1392 1392 1392 1398 1398 1398 1398 1398 1404 1404 1404 1404 1404 1404 1410 1543 1543 1536 1536 1536 1536 1543 1543 1543 1421 1421 1427 1427 1427 1421 1421 1421 1427 1427 1427 1427 1427 1427 1427 1433 1572 1572 1564 1564 1564 1564 1564 1564 1564 1564 1564 1572 1572 1572 1579 1579 1586 1586 1586 1594 2028 2028 2028 2040 2040 2053 2053 2053 2053 2053 2053 2053 2053 2065 2065 2065 2065 2065 2065 2065 2065 2065 2065 2065 2065 2065 2078 2078 2078 2090 2090 2090 2090 1464 1464 1458 1458 1452 1445 1445 1439 1439 1433 1433 1433 1433 1433 1433 1433 1433 1433 1433 1439 2103 2090 2090 2103 2103 2103 2116 2116 2116 2129 2129 2129 2143 2143 2143 2143 2143 2143 2143 2143 2143 2143 2143 2143 2143 2143 2143 2129 2116 2116 3149 3149 3149 3149 3149 3149 3149 3178 3149 3149 3149 3178 3149 3149 3149 3149 3149 3149 3149 3149 3149 3149 3149 3149 3149 3120 3120 3120 3120 3120 3120 3120 3120 3120 3120 0 1572 1572 1572 1564 1564 1564 1557 1550 1543 1536 1536 1529 1529 1529 1529 1529 1529 1529 1529 1529 1529 1536 1536 1529 1529 0 0 0 0 0 1833 1833 1823 1823 1813 1813 1804 1794 1794 1785 1785 1776 1776 1776 1776 1776 1776 1776 1785 1785 1785 1785 1785 1785 1794 1794 1785 1785 1813 3064 3092 3092 3092 3092 3092 3120 3120 3120 3120 3120 3092 3092 3092 3092 3092 3092 3092 3092 3092 3092 3092 3092 3092 3092 3064 3064 3092 3092 3092 3064 3064 3064 3064 3064 3064 3064 3064 3064 3064 3064 3064 3064 3064 3064 3064 3037 3037 3037 3037 3037 3037 3037 3037 3037 3037 3037 3037 3037 3037 3064 3064 3037 3037 3037 3037 3037 3037 3037 3010 3010 3010 3010 3010 3010 3010 3010 0 0 0 0 0 0 0 0 0 0 0
0 0 0 0 0 0 0 0 0 0 0 0 0 0 0 0 0 0 0 0 0 0 0 0 0 0 0 0 0 0 0 0 2984 2984 2984 2958 2958 2958 2958 2958 2958 2958 2984 2984 2984 2984 2984 2984 2984 2984 2984 2984 2984 2984 2984 2984 2984 2984 2984 3010 3010 3010 3010 3010 3010 3010 3010 2984 2984 2984 2984 2984 2984 2984 2984 2984 2984 2984 2984 2984 2984 2984 2984 2984 2984 2984 2984 2984 2984 2984 3010 3010 3010 3010 3010 3010 3010 3010 3010 3010 3010 3010 3010 3010 3010 3010 3010 3010 3010 2984 2984 2984 2958 2958 2958 2958 2933 2933 2933 2933 2933 2933 2908 2908 2908 2908 2908 2908 2933 2933 2933 2908 2908 2933 2933 2933 2933 2933 2933 2933 2958 2958 2958 2958 2958 2958 2958 2958 2958 2958 2984 2984 2984 2984 2984 2984 2958 2958 2984 2984 2984 3010 3037 3037 3037 3037 3037 3037 3037 3037 3037 3037 3037 3064 3064 2090 2078 2078 2078 2078 2078 2065 2065 2065 2065 2065 2065 2078 2078 2078 1376 1376 1376 1376 1376 1376 1381 1381 1381 1381 1381 1387 1387 1387 1392 1392 1392 1392 1398 1392 1392 1398 1398 1398 1404 1404 1404 1404 1404 1410 1410 1410 1415 1421 1421 1421 1421 1427 1427 1297 1297 1297 1297 1297 1297 1302 1302 1302 1307 1307 1312 1312 1317 1317 1322 1322 1322 1322 1322 1322 1322 1322 1322 1322 1322 1328 1328 1328 1328 1328 1328 1333 1333 1333 1333 1333 1333 1338 1338 1338 1343 1343 1343 1343 1349 1349 1349 1349 1349 1349 1349 1354 1354 1354 1359 1359 1359 1359 1359 1359 1359 1359 1359 1359 1365 1365 1365 1370 1370 1370 1376 1376 1376 1376 1376 1376 1376 1376 1381 1381 1381 1381 1381 1387 1392 1392 1392 1398 1398 1398 1398 1398 1404 1404 1404 1410 1536 1536 1543 1543 1543 1536 1536 1536 1536 1543 1543 1452 1427 1427 1433 1433 1427 1427 1427 1427 1427 1427 1427 1427 1433 1433 1433 1433 1572 1572 1572 1572 1572 1564 1564 1564 1564 1564 1564 1572 1572 1572 1579 1586 1586 2028 2028 2028 2028 2028 2028 2040 2040 2053 2053 2053 2053 2053 2053 2053 2053 2065 2065 2065 2065 2065 2065 2065 2065 2065 2078 2078 2078 2078 2078 2090 2090 2090 2090 2090 2090 1464 1464 1458 1458 1452 1452 1445 1439 1439 1433 1433 1433 1433 1433 1433 1433 1433 1433 1433 1439 2103 2090 2090 2090 2090 2090 2103 2103 2103 2116 2053 2053 2116 2129 2129 2129 2129 2143 2143 2143 2143 2143 2143 2143 2143 2143 2143 2129 2129 3120 3120 3149 3149 3120 3120 3120 3149 3149 3149 3149 3149 3149 3149 3149 3120 3120 3149 3149 3149 3120 3120 3120 3120 3120 3120 3120 3120 3120 3120 3120 3120 3092 3092 3120 3120 0 1572 1572 1572 1572 1564 1564 1557 1550 1550 1543 1536 1536 1536 1536 1536 1536 1536 1536 1536 1536 1536 1543 1543 1529 1529 0 2958 2958 2958 0 1833 1833 1823 1823 1813 1813 1804 1794 1794 1785 1785 1776 1776 1776 1776 1785 1785 1785 1785 1785 1785 1785 1785 1794 1794 1794 1794 1794 1813 3064 3064 3064 3064 3064 3092 3092 3092 3092 3092 3092 3092 3092 3092 3092 3092 3092 3092 3064 3064 3064 3064 3064 3064 3064 3064 3064 3064 3064 3064 3064 3037 3037 3064 3064 3064 3064 3064 3064 3064 3037 3037 3037 3037 3037 3037 3037 3037 3037 3037 3037 3037 3037 3037 3037 3037 3037 3037 3037 3037 3037 3037 3037 3037 3037 3037 3010 3010 3010 3010 3010 3010 3010 3010 3010 2984 2984 0 0 0 0 0 0 0 0 0 0 0
0 0 0 0 0 0 0 0 0 0 0 0 0 0 0 0 0 0 0 0 0 0 0 0 0 0 0 0 0 0 0 0 2984 2984 2958 2958 2958 2958 2958 2958 2958 2958 2958 2984 2984 2984 2984 2984 2984 2984 2984 2984 2984 2984 2984 2984 2984 2984 2984 2984 2984 2984 2984 2984 2984 2984 2984 2984 2984 2984 2984 2984 2958 2958 2958 2958 2984 2984 2984 2984 2984 2984 2984 2984 2984 2984 2984 2984 2984 2984 2984 2984 2984 2984 3010 2984 2984 3010 3010 3010 3010 3010 3010 3010 3010 3010 3010 2984 2984 2984 2984 2984 2958 2958 2958 2958 2958 2933 2933 2933 2933 2933 2933 2933 2933 2933 2933 2933 2933 2933 2933 2933 2933 2933 2933 2933 2933 2933 2933 2958 2958 2958 2958 2958 2958 2958 2958 2958 2958 2958 2984 2984 2984 2984 2984 2984 2984 2984 2984 2984 2984 3010 3010 3037 3037 3037 3037 3037 3037 3037 3037 3037 3037 3037 3037 2090 2078 2078 2078 2078 2078 2065 2065 2065 2065 2065 2065 2078 2078 2078 2078 1376 1376 1376 1376 1381 1381 1381 1381 1381 1387 1392 1392 1392 1398 1398 1398 1398 1398 1398 1398 1398 1398 1404 1404 1404 1404 1404 1404 1410 1410 1410 1415 1421 1421 1427 1427 1427 1427 1302 1302 1302 1302 1302 1302 1302 1307 1307 1307 1307 1312 1312 1317 1317 1322 1322 1328 1328 1328 1322 1322 1322 1322 1328 1328 1328 1328 1328 1328 1333 1333 1333 1333 1333 1333 1338 1338 1338 1338 1343 1343 1343 1349 1349 1349 1349 1349 1349 1349 1349 1354 1354 1354 1354 1359 1359 1365 1365 1365 1365 1365 1365 1365 1365 1365 1370 1370 1370 1370 1370 1376 1376 1376 1376 1376 1376 1376 1381 1381 1381 1381 1516 1516 1516 1516 1516 1516 1523 1398 1398 1398 1398 1404 1523 1523 1529 1536 1536 1543 1543 1543 1536 1536 1536 1536 1543 1445 1445 1433 1433 1433 1433 1433 1427 1427 1427 1427 1433 1433 1433 1433 1433 1433 1433 1572 1579 1579 1579 1572 1572 1572 2016 2016 2016 2016 2016 2016 2028 2028 2028 2028 2028 2028 2040 2040 2040 2040 2040 2053 2053 2053 2053 2065 2065 2065 2065 2065 2065 2065 2065 2065 2065 2078 2078 2078 2078 2078 2078 2078 2078 2090 2090 2090 2103 2103 2103 1464 1464 1464 1458 1458 1458 1452 1445 1439 1439 1433 1433 1433 1433 1433 1433 1433 1433 1433 1433 1433 2078 2078 2078 2078 2053 2053 2053 2053 2005 2005 2016 2005 2005 2016 2016 2016 2129 2143 2143 2143 2143 2143 2143 2143 2143 2143 2143 2143 2143 3120 3120 3120 3120 3120 3120 3120 3120 3149 3120 3120 3120 3120 3120 3120 3092 3092 3120 3120 3120 3120 3120 3092 3092 3092 3120 3092 3092 3092 3092 3120 3092 3092 3092 3092 3092 1564 1564 1564 1564 1564 1564 1564 1557 1550 1550 1543 1543 1543 1543 1543 1543 1543 1543 1543 1543 1543 1543 1543 1543 1529 1529 0 2958 2958 2958 0 1833 1833 1823 1823 1813 1813 1804 1794 1794 1785 1785 1776 1776 1785 1785 1785 1785 1785 1785 1785 1785 1785 1785 1794 1794 1794 1794 1794 1813 3037 3064 3064 3064 3064 3064 3064 3064 3092 3092 3064 3064 3092 3092 3092 3092 3064 3064 3064 3064 3064 3064 3064 3064 3064 3064 3064 3064 3064 3064 3037 3037 3037 3037 3037 3037 3064 3037 3037 3037 3037 3037 3037 3037 3037 3037 3037 3010 3010 3010 3010 3010 3010 3010 3010 3010 3037 3037 3037 3037 3037 3037 3037 3037 3037 3010 3010 3010 3010 3010 3010 3010 3010 3010 2984 2984 2984 0 0 0 0 0 0 0 0 0 0 0
0 0 0 0 0 0 0 0 0 0 0 0 0 0 0 0 0 0 0 0 0 0 0 0 0 0 0 0 0 0 0 0 2958 2958 2933 2933 2933 2933 2933 2933 2933 2933 2933 2958 2958 2958 2984 2984 2984 2984 2984 2958 2958 2984 2984 2984 2984 2984 2984 2984 2984 2984 2984 2984 2984 2984 2984 2984 2984 2984 2984 2958 2958 2958 2958 2958 2958 2958 2958 2958 2958 2958 2958 2958 2958 2958 2958 2958 2958 2958 2984 2984 2984 2984 2984 2984 2984 2984 2984 2984 2984 2984 2984 2984 2984 2984 2984 2984 2984 2984 2984 2958 2958 2958 2958 2958 2958 2958 2933 2933 2933 2933 2933 2933 2933 2933 2933 2933 2933 2933 2933 2933 2933 2933 2933 2933 2933 2933 2933 2958 2958 2958 2958 2958 2958 2958 2958 2958 2958 2958 2984 2984 2984 2984 2984 2984 2984 2984 2984 2984 2984 3010 3010 3010 3010 3010 3010 3010 3037 3010 3010 3010 3037 3037 2090 2078 2078 2065 2065 2078 2078 2065 2065 2065 2065 2065 2078 2078 2078 2078 2078 1381 1381 1381 1381 1381 1381 1381 1381 1381 1387 1392 1398 1398 1398 1398 1398 1398 1398 1398 1398 1404 1404 1404 1404 1404 1404 1404 1404 1410 1415 1415 1415 1421 1421 1427 1427 1427 1427 1427 1302 1302 1302 1307 1307 1307 1307 1312 1312 1312 1312 1312 1317 1317 1322 1322 1328 1328 1328 1328 1328 1328 1328 1328 1328 1328 1333 1333 1333 1333 1333 1333 1333 1333 1338 1338 1338 1338 1343 1343 1349 1349 1349 1349 1349 1349 1349 1354 1354 1354 1354 1354 1354 1359 1359 1359 1365 1365 1365 1365 1365 1370 1370 1370 1370 1370 1370 1370 1370 1370 1376 1376 1376 1376 1376 1376 1376 1509 1516 1516 1516 1516 1516 1516 1516 1516 1516 1516 1516 1523 1523 1523 1523 1523 1523 1523 1536 1536 1543 1543 1543 1536 1536 1536 1536 1543 1445 1445 1445 1439 1439 1439 1433 1433 1433 1427 1427 1433 1433 1433 1433 1433 1433 1433 1579 1579 1579 1579 1586 2005 2016 2016 2016 2016 2016 2016 2016 2028 2040 2040 2040 2040 2040 2040 2040 2040 2040 2053 2053 2053 2053 2053 2065 2065 2065 2065 2065 2065 2065 2065 2065 2065 2078 2078 2078 2078 2078 2090 2090 2090 2090 2090 2090 2103 2103 2103 1464 1464 1464 1458 1458 1458 1452 1452 1445 1439 1439 1439 1433 1433 1439 1439 1439 1439 1439 1439 1439 2005 2005 2005 2005 2005 2005 2005 2005 2005 2005 2005 2005 2005 2005 2005 2005 2005 2143 2143 2143 2156 2143 2143 2143 2143 2143 2156 2156 2156 3092 3092 3092 3092 3092 3092 3092 3092 3120 3120 3120 3120 3120 3120 3092 3092 3092 3092 3120 3120 3120 3120 3092 3092 3092 3120 3092 3092 3092 3092 3120 3092 3092 3092 3092 1564 1564 1564 1564 1564 1564 1564 1564 1557 1550 1550 1550 1543 1543 1543 1543 1543 1543 1543 1543 1543 1543 1543 1543 1543 1529 1529 1529 2958 2958 2958 2958 1833 1833 1823 1823 1813 1813 1804 1804 1794 1785 1785 1785 1785 1785 1785 1785 1785 1785 1785 1785 1794 1794 1794 1794 1794 1794 1794 1804 3037 3037 3037 3064 3064 3064 3064 3064 3064 3064 3064 3064 3064 3064 3064 3064 3064 3064 3064 3064 3064 3064 3064 3064 3064 3064 3064 3064 3064 3037 3037 3037 3037 3037 3037 3037 3037 3037 3037 3037 3037 3037 3037 3037 3037 3037 3037 3010 3010 3010 2984 2984 3010 3010 3010 3010 3010 3010 3010 3010 3037 3037 3037 3037 3010 3010 3010 2984 2984 2984 2984 2984 2984 2984 2984 2984 2984 2984 0 0 0 0 0 0 0 0 0 0 0
0 0 0 0 0 0 0 0 0 0 0 0 0 0 0 0 0 0 0 0 0 0 0 0 0 0 0 0 0 0 0 0 2958 2958 2933 2933 2933 2933 2933 2933 2933 2933 2933 2933 2958 2958 2958 2958 2958 2958 2958 2958 2958 2958 2958 2958 2958 2958 2984 2984 2984 2984 2984 2984 2984 2984 2984 2958 2958 2958 2958 2958 2933 2933 2933 2933 2958 2958 2958 2958 2958 2958 2958 2958 2958 2958 2958 2958 2958 2958 2958 2958 2984 2984 2984 2984 2984 2984 2984 2984 2984 2984 2984 2984 2984 2984 2984 2984 2984 2984 2984 2958 2958 2958 2958 2958 2958 2958 2933 2933 2933 2933 2933 2933 2933 2933 2933 2958 2958 2933 2933 2933 2933 2933 2933 2933 2933 2933 2933 2933 2958 2958 2958 2958 2958 2958 2958 2958 2958 2958 2984 2984 2984 2984 2984 2984 2984 2984 2984 2984 2984 2984 3010 3010 2984 2984 3010 3010 3010 3010 3010 3010 3010 3037 2090 2065 2065 2065 2065 2065 2078 2065 2065 2065 2065 2065 2078 2078 2065 2065 2065 2065 1381 1381 1381 1381 1387 1387 1387 1392 1392 1398 1398 1398 1398 1398 1398 1398 1404 1404 1404 1404 1404 1404 1410 1410 1410 1410 1410 1415 1415 1415 1421 1421 1421 1427 1427 1427 1427 1427 1302 1302 1302 1307 1307 1307 1312 1312 1312 1312 1312 1317 1317 1322 1322 1328 1328 1333 1328 1328 1328 1328 1328 1328 1333 1333 1333 1333 1333 1333 1333 1333 1333 1338 1338 1343 1343 1343 1343 1343 1349 1349 1349 1349 1349 1349 1349 1354 1354 1354 1354 1354 1354 1359 1359 1365 1365 1365 1370 1370 1370 1370 1370 1370 1370 1370 1370 1370 1370 1370 1376 1376 1509 1509 1509 1509 1509 1509 1509 1509 1516 1516 1516 1516 1516 1516 1516 1516 1516 1523 1523 1523 1523 1523 1523 1523 1536 1536 1543 1543 1543 1536 1536 1536 1536 1543 1458 1452 1445 1439 1439 1439 1439 1433 1433 1433 1433 1433 1433 1433 1433 1433 1439 1439 1439 2016 2016 2016 2016 2016 2016 2016 2016 2016 2016 2028 2028 2040 2040 2040 2040 2040 2040 2040 2040 2040 2053 2053 2053 2053 2065 2065 2065 2065 2065 2065 2065 2065 2065 2065 2065 2078 2078 2078 2078 2078 2078 2065 2065 2078 2090 2090 2090 2090 2103 2103 1464 1464 1464 1458 1458 1458 1452 1452 1445 1445 1439 1439 1439 1439 1439 1439 1445 1445 1445 1445 1458 1993 1993 1993 1993 1993 2005 2005 2005 2005 2005 2005 2005 2005 2005 2005 2005 2005 2005 2156 2156 2156 2156 2156 2156 2156 2156 2156 2156 3092 3092 3092 3092 3092 3092 3092 3092 3092 3092 3092 3092 3092 3092 3092 3092 3092 3092 3092 3092 3120 3092 3092 3092 3092 3092 3092 3064 3064 3092 3092 3092 3120 3120 3120 1564 1564 1557 1557 1557 1564 1564 1564 1564 1564 1550 1550 1550 1543 1543 1543 1543 1543 1543 1543 1543 1543 1550 1550 1550 1543 1543 1543 2933 2958 2958 2958 2958 1833 1823 1823 1823 1813 1813 1804 1804 1794 1785 1785 1785 1785 1785 1785 1785 1785 1785 1794 1794 1794 1794 1794 1804 1804 1804 1804 1804 3010 3010 3037 3037 3037 3037 3037 3064 3064 3064 3064 3064 3064 3064 3064 3064 3064 3064 3064 3064 3064 3064 3037 3037 3037 3037 3037 3037 3037 3037 3037 3010 3010 3010 3010 3010 3010 3010 3010 3010 3037 3010 3010 3037 3037 3010 3010 3010 3010 2984 2958 2958 2984 2984 3010 3010 3010 3010 3010 3010 3037 3037 3037 3037 3010 3010 3010 2984 2984 2984 2984 2984 2984 2984 2984 2984 2958 2958 0 0 0 0 0 0 0 0 0 0 0
0 0 0 0 0 0 0 0 0 0 0 0 0 0 0 0 0 0 0 0 0 0 0 0 0 0 0 0 0 0 0 0 2933 2933 2933 2933 2933 2908 2908 2908 2908 2908 2908 2933 2933 2933 2933 2933 2933 2958 2958 2933 2933 2958 2958 2958 2958 2958 2958 2958 2958 2958 2984 2984 2984 2958 2958 2958 2958 2958 2958 2958 2933 2933 2933 2933 2958 2958 2958 2958 2958 2958 2958 2933 2933 2933 2958 2933 2933 2933 2958 2958 2958 2958 2958 2958 2958 2958 2958 2958 2958 2984 2984 2984 2984 2984 2984 2984 2984 2984 2984 2958 2958 2958 2958 2958 2958 2958 2933 2933 2933 2933 2933 2933 2933 2933 2933 2933 2958 2933 2933 2933 2933 2933 2933 2933 2933 2933 2933 2933 2958 2958 2958 2958 2958 2958 2958 2958 2958 2958 2984 2984 2984 2984 2984 2984 2984 2984 2984 2984 2984 2984 3010 2984 2984 2984 2984 2984 2984 2984 2984 2984 3010 3037 3037 2065 2065 2065 2065 2065 2065 2065 2065 2065 2065 2065 2065 2065 2065 2065 2065 0 1381 1381 1381 1387 1387 1392 1392 1392 1392 1398 1398 1398 1398 1398 1398 1398 1404 1404 1404 1404 1404 1410 1410 1410 1410 1410 1410 1415 1421 1421 1421 1421 1421 1427 1427 1427 1427 1427 1302 1302 1307 1307 1307 1307 1312 1312 1312 1312 1312 1317 1317 1322 1328 1328 1333 1333 1328 1328 1328 1333 1333 1333 1333 1333 1333 1333 1333 1333 1333 1338 1338 1343 1343 1343 1343 1349 1349 1349 1349 1349 1349 1349 1349 1349 1349 1354 1354 1354 1354 1354 1359 1359 1489 1365 1365 1365 1370 1370 1370 1370 1370 1370 1370 1370 1370 1370 1370 1370 1509 1509 1509 1509 1509 1509 1509 1509 1509 1509 1516 1516 1516 1516 1516 1516 1516 1516 1516 1516 1516 1523 1523 1523 1523 1523 1536 1536 1543 1543 1543 1536 1536 1536 1536 1458 1452 1452 1445 1445 1439 1439 1439 1433 1433 1433 1433 1433 1439 1439 1439 1439 1439 1439 1439 2016 2016 2016 2016 2016 2016 2016 2016 2016 2016 2016 2028 2040 2040 2040 2053 2053 2053 2053 2053 2053 2053 2053 2065 2065 2065 2065 2065 2065 2065 2065 2065 2065 2065 2065 2078 2078 2065 2065 2065 2065 2053 2016 2005 2005 2016 2065 2065 2065 2103 2103 1464 1464 1464 1464 1458 1458 1458 1452 1452 1445 1439 1439 1439 1439 1439 1445 1445 1445 1452 1452 1458 1993 1981 1981 1981 1981 1981 1993 1993 1993 1993 1993 1993 1993 1993 1993 1993 1993 1993 2005 2005 2156 2156 2143 2143 2156 2156 2156 2156 3092 3092 3092 3092 3092 3092 3092 3064 3064 3064 3064 3064 3064 3064 3064 3064 3064 3064 3064 3092 3120 3092 3092 3092 1550 1550 1550 1557 1557 1564 1564 1572 1564 1564 1564 1564 1564 1557 1557 1557 1557 1557 1564 1564 1564 1550 1550 1550 1550 1550 1550 1543 1543 1543 1543 1550 1550 1550 1550 1550 1550 1550 2958 2933 2933 2933 2958 2958 1823 1823 1823 1823 1813 1813 1804 1804 1794 1785 1785 1785 1785 1785 1785 1785 1785 1785 1794 1794 1794 1794 1804 1804 1813 1813 1813 1813 3010 3010 3037 3037 3037 3037 3037 3037 3037 3037 3037 3037 3037 3064 3064 3064 3037 3037 3037 3037 3037 3037 3037 3037 3037 3037 3037 3037 3037 3037 3037 3010 3010 3010 3010 3010 3010 3010 3010 3010 3010 3010 3010 3010 3010 3010 3010 3010 2984 2984 2958 2958 2958 2958 2984 2984 2984 3010 3010 3010 3010 3010 3010 3010 3010 3010 3010 2958 2958 2984 2984 2984 2958 2958 2958 2958 2958 2958 0 0 0 0 0 0 0 0 0 0 0
0 0 0 0 0 0 0 0 0 0 0 0 0 0 0 0 0 0 0 0 0 0 0 0 0 0 0 0 0 0 0 0 2933 2908 2908 2908 2908 2908 2908 2908 2908 2908 2908 2908 2933 2933 2908 2908 2908 2908 2908 2908 2908 2933 2933 2933 2958 2958 2933 2933 2933 2933 2933 2958 2933 2933 2933 2933 2933 2958 2958 2958 2958 2958 2933 2933 2933 2933 2933 2933 2933 2933 2933 2933 2933 2933 2933 2933 2933 2933 2958 2958 2958 2958 2958 2958 2958 2958 2958 2958 2958 2958 2958 2958 2984 2984 2984 2958 2958 2958 2958 2958 2958 2958 2958 2958 2958 2958 2933 2933 2933 2933 2933 2933 2933 2933 2933 2933 2958 2933 2933 2933 2933 2933 2933 2933 2933 2933 2933 2933 2958 2958 2958 2958 2958 2958 2958 2958 2958 2958 2984 2984 2984 2984 2984 2984 2984 2984 2984 2984 2984 2984 2984 2984 2984 2984 2984 2984 2984 2984 2984 2984 3010 3010 3010 2065 2065 2065 2065 2065 2065 2065 2065 2078 2078 2078 2065 2065 2065 2065 2065 0 1381 1381 1381 1387 1392 1392 1392 1392 1392 1398 1398 1398 1398 1398 1404 1404 1404 1404 1404 1404 1404 1410 1410 1415 1415 1415 1415 1421 1421 1421 1421 1421 1421 1427 1427 1427 1427 1427 1307 1307 1307 1307 1307 1312 1312 1312 1312 1312 1312 1317 1317 1322 1328 1333 1333 1333 1328 1328 1333 1333 1333 1333 1333 1333 1333 1333 1333 1338 1338 1338 1343 1343 1343 1343 1349 1349 1349 1349 1349 1349 1349 1349 1349 1349 1349 1354 1354 1354 1354 1483 1483 1483 1489 1489 1370 1370 1370 1496 1496 1496 1496 1496 1496 1496 1503 1503 1503 1503 1503 1509 1509 1509 1509 1509 1509 1509 1509 1509 1516 1516 1516 1516 1516 1947 1516 1516 1516 1516 1516 1523 1523 1523 1523 1523 1536 1536 1543 1543 1550 0 0 0 1458 1458 1452 1452 1445 1445 1439 1439 1439 1433 1433 1433 1433 1439 1439 1439 1439 1439 1439 1439 1439 2016 2016 2016 2016 2016 2016 2016 2016 2016 2016 2016 2028 2040 2040 2040 2053 2053 2053 2053 2053 2053 2053 2065 2065 2065 2065 2065 2065 2065 2065 2065 2065 2065 2065 2065 2078 2065 2053 2053 2053 2040 1970 1970 1970 1981 1981 2053 2053 2053 2053 1483 1483 1470 1470 1464 1458 1458 1458 1452 1452 1452 1445 1445 1445 1445 1445 1452 1452 1452 1458 1458 1981 1981 1981 1981 1981 1981 1981 1981 1981 1981 1981 1981 1981 1981 1981 1993 1993 1993 1993 1993 1993 2016 2156 2143 2143 2156 2156 2156 2156 3092 3092 3092 3092 1516 1516 3064 3064 3064 3064 1529 1529 1529 1529 1529 1529 1529 1529 1529 1529 1536 1536 1536 1536 1543 1543 1543 1543 1543 1557 1557 1557 1557 1557 1557 1557 1557 1557 1557 1557 1557 1557 1557 1557 1557 1550 1550 1550 1550 1550 1550 1550 1550 1550 1550 1550 1550 1550 1550 1550 1550 1550 2958 2958 2933 2933 2958 2958 1823 1823 1823 1823 1813 1813 1804 1804 1794 1785 1785 1785 1785 1785 1785 1785 1785 1794 1794 1804 1804 1804 1804 1804 1813 1813 1813 1823 2984 3010 3010 3010 3010 3010 3037 3037 3037 3037 3037 3037 3037 3064 3064 3064 3037 3037 3037 3037 3037 3037 3037 3037 3037 3037 3037 3037 3037 3010 3010 2984 2984 2984 3010 3010 3010 3010 3010 3010 3010 3010 3010 3010 3010 3010 2984 2984 2984 2958 2958 2958 2958 2958 2958 2958 2958 2958 2984 2984 2984 2984 2984 3010 2984 2984 2984 2958 2958 2958 2958 2958 2958 2958 2933 2933 2958 2958 0 0 0 0 0 0 0 0 0 0 0
0 0 0 0 0 0 0 0 0 0 0 0 0 0 0 0 0 0 0 0 0 0 0 0 0 0 0 0 0 0 0 0 2908 2908 2908 2908 2908 2908 2908 2908 2908 2908 2908 2908 2908 2908 2908 2908 2908 2908 2908 2908 2908 2908 2933 2933 2933 2933 2908 2908 2908 2908 2933 2933 2908 2908 2908 2908 2908 2933 2933 2933 2908 2908 2908 2908 2908 2908 2883 2883 2908 2883 2883 2908 2908 2908 2908 2908 2908 2908 2933 2933 2958 2958 2958 2958 2958 2958 2958 2958 2958 2958 2958 2958 2958 2958 2958 2958 2958 2958 2958 2958 2958 2958 2958 2958 2958 2958 2958 2933 2933 2933 2933 2933 2933 2933 2933 2933 2958 2933 2933 2933 2933 2933 2933 2933 2933 2933 2933 2958 2958 2958 2958 2958 2958 2958 2958 2958 2958 2984 2984 2984 2984 2984 2984 2984 2958 2958 2958 2958 2958 2958 2958 2958 2958 2958 2958 2958 2984 2984 2984 2984 3010 3010 3010 2065 2065 2065 2065 2065 2078 2065 2065 2078 2078 2078 2078 2078 2078 2078 2078 0 1387 1387 1387 1387 1392 1392 1392 1398 1398 1398 1398 1398 1398 1398 1404 1404 1404 1404 1404 1404 1404 1410 1415 1415 1415 1421 1421 1421 1421 1421 1421 1421 1427 1427 1427 1427 1427 1307 1307 1307 1307 1312 1312 1312 1312 1312 1312 1312 1317 1317 1322 1322 1328 1333 1333 1333 1328 1328 1333 1333 1333 1333 1333 1333 1333 1333 1338 1338 1338 1343 1343 1349 1349 1349 1349 1349 1349 1349 1349 1349 1349 1349 1349 1349 1349 1349 1349 1354 1483 1483 1483 1483 1489 1489 1489 1496 1496 1496 1496 1496 1496 1496 1496 1496 1496 1496 1503 1496 1496 1503 1503 1503 1503 1509 1509 1516 1516 1516 1516 1516 1959 1959 1947 1947 1959 1959 1959 1959 1970 1970 1970 1970 1970 0 0 0 0 0 0 0 0 0 1458 1458 1452 1452 1452 1445 1439 1439 1439 1433 1433 1433 1439 1439 1439 1439 1439 1439 1439 1445 2040 2040 2028 2028 2028 2028 2028 2028 2028 2028 2028 2028 2040 2040 2040 2053 2053 2053 2053 2053 2053 2053 2053 2053 2065 2053 2053 2053 2053 2065 2065 2065 2065 2065 2065 2065 2065 2053 2053 2040 2005 1970 1970 1970 1970 1970 1970 1970 1970 2053 2053 1483 1483 1477 1470 1470 1464 1458 1458 1458 1458 1452 1445 1445 1452 1452 1452 1452 1452 1452 1458 1458 1464 1483 1970 1970 1970 1970 1970 1970 1970 1970 1970 1981 1981 1981 1981 1981 1993 1993 1993 1993 1993 2016 2156 1516 1516 1516 1516 2170 2170 1516 1516 1516 1516 1516 1516 1523 1523 1529 1529 1529 1529 1529 1523 1523 1529 1529 1523 1523 1529 1529 1536 1536 1536 1536 1536 1543 1543 1543 1550 1557 1557 1557 1557 1557 1557 1557 1557 1557 1557 1557 1557 1557 1557 1557 1550 1550 1550 1550 1550 1550 1550 1550 1550 1550 1550 1550 1550 1550 1550 1550 2958 2958 2958 2933 2933 2933 2933 1823 1823 1823 1823 1813 1804 1804 1804 1794 1785 1785 1785 1785 1785 1785 1785 1785 1794 1804 1804 1813 1813 1813 1813 1813 1813 1813 1823 2984 3010 2984 2984 3010 3010 3010 3010 3037 3037 3037 3037 3037 3037 3064 3037 3010 3010 3037 3037 3037 3037 3037 3037 3037 3037 3010 3010 3010 2984 2984 2958 2958 2984 2984 2984 2984 3010 3010 3010 3010 3010 2984 2984 3010 2984 2984 2984 2958 2958 2958 2958 2958 2958 2958 2958 2933 2933 2958 2958 2958 2958 2958 2958 2958 2958 2933 2933 2933 2933 2933 2933 2933 2933 2933 2933 2933 2933 0 0 0 0 0 0 0 0 0 0 0
0 0 0 0 0 0 0 0 0 0 0 0 0 0 0 0 0 0 0 0 0 0 0 0 0 0 0 0 0 0 0 0 2908 2883 2883 2883 2883 2883 2883 2908 2908 2908 2908 2908 2908 2908 2883 2883 2883 2883 2883 2883 2883 2883 2908 2908 2908 2908 2908 2908 2908 2908 2908 2908 2908 2908 2908 2908 2908 2908 2908 2908 2908 2908 2908 2908 2908 2883 2883 2883 2883 2883 2883 2883 2883 2908 2908 2908 2908 2908 2933 2933 2933 2933 2933 2933 2933 2933 2933 2933 2933 2933 2933 2933 2933 2933 2933 2933 2933 2933 2933 2933 2933 2958 2958 2958 2958 2958 2933 2933 2933 2933 2933 2958 2933 2933 2933 2958 2933 2933 2933 2933 2933 2933 2933 2933 2933 2933 2933 2933 2958 2958 2958 2958 2958 2958 2958 2958 2984 2984 2984 2984 2984 2984 2984 2984 2958 2958 2958 2958 2958 2958 2958 2958 2958 2958 2958 2958 2958 2984 2984 2984 2984 2984 2984 2053 2053 2065 2065 2065 2078 2065 2065 2078 2078 2078 2078 2078 2078 2078 2078 0 1387 1387 1387 1387 1392 1392 1392 1398 1398 1398 1398 1398 1398 1404 1404 1404 1404 1404 1404 1404 1404 1410 1415 1415 1415 1421 1421 1421 1421 1421 1421 1421 1427 1427 1427 1427 1427 1307 1307 1307 1312 1312 1312 1312 1312 1317 1317 1317 1317 1317 1322 1322 1328 1333 1333 1333 1333 1333 1333 1333 1333 1333 1333 1333 1333 1333 1338 1343 1343 1349 1349 1349 1349 1349 1349 1349 1349 1349 1349 1349 1349 1349 1349 1349 1349 1349 1349 1483 1483 1483 1483 1483 1489 1489 1489 1489 1489 1489 1496 1496 1496 1503 1496 1496 1496 1496 1496 1496 1496 1503 1503 1503 1503 1509 1509 1516 1516 1516 1947 1947 1947 1959 1947 1947 1959 1959 1959 1959 1970 1970 1970 1970 1981 0 0 0 0 0 0 0 0 0 1458 1458 1458 1452 1452 1445 1445 1439 1439 1439 1439 1439 1439 1439 1439 1445 1445 1445 1445 1445 2040 2040 2040 2028 2028 2028 2028 2028 2028 2028 2028 2028 2040 2040 2040 2040 2053 2053 2053 2053 2053 2053 2053 2053 2053 2040 2040 2040 2040 2040 2053 2053 2053 2053 2053 2065 2065 2053 1970 1970 1970 1970 1970 1970 1970 1970 1970 1970 1970 1970 1489 1489 1483 1477 1470 1470 1464 1458 1458 1458 1458 1458 1452 1452 1452 1452 1452 1452 1452 1458 1458 1458 1464 1483 1959 1959 1959 1959 1970 1970 1959 1959 1959 1970 1970 1970 1970 1981 1981 1981 1993 1993 1993 1993 1516 1516 1516 1516 1516 1516 1509 1509 1516 1516 1516 1516 1516 1523 1523 1529 1529 1529 1523 1523 1523 1523 1523 1523 1523 1523 1529 1529 1536 1536 1536 1536 1536 1543 1543 1543 1550 1550 1550 1557 1557 1557 1557 1557 1557 1557 1557 1557 1557 1557 1557 1557 1550 1550 1550 1550 1550 1550 1550 1550 1550 1550 1550 1550 1550 1550 1550 2958 2958 2958 2958 2933 2933 2933 2933 1833 1823 1823 1823 1813 1804 1794 1794 1785 1785 1785 1785 1785 1785 1785 1785 1785 1794 1804 1804 1813 1813 1813 1813 1813 1813 1813 1823 2984 2984 2984 2984 3010 3010 3010 3010 3037 3037 3037 3037 3037 3037 3037 3037 3010 3010 3010 3010 3010 3010 3010 3010 3037 3010 3010 2984 2984 2958 2958 2933 2933 2958 2958 2984 2984 2984 2984 2984 2984 2984 2984 2984 2984 2984 2958 2958 2958 2933 2933 2933 2933 2933 2933 2933 2933 2933 2933 2933 2933 2933 2933 2933 2933 2933 2933 2933 2933 2933 2933 2933 2933 2933 2933 2933 2933 2933 0 0 0 0 0 0 0 0 0 0 0
0 0 0 0 0 0 0 0 0 0 0 0 0 0 0 0 0 0 0 0 0 0 0 0 0 0 0 0 0 0 0 0 2883 2883 2883 2883 2883 2883 2883 2883 2883 2883 2883 2883 2908 2883 2883 2883 2883 2883 2883 2883 2883 2883 2883 2883 2908 2908 2908 2908 2908 2908 2908 2908 2908 2908 2908 2883 2883 2908 2908 2908 2883 2883 2883 2883 2883 2883 2883 2883 2883 2883 2883 2883 2883 2883 2883 2883 2883 2908 2908 2908 2908 2908 2908 2908 2908 2908 2908 2908 2908 2908 2908 2908 2908 2908 2908 2908 2908 2908 2933 2933 2933 2933 2933 2933 2933 2933 2933 2908 2908 2933 2933 2933 2933 2933 2933 2933 2933 2933 2933 2933 2933 2933 2933 2933 2933 2933 2933 2933 2958 2958 2958 2958 2958 2958 2958 2958 2958 2984 2984 2984 2984 2984 2984 2984 2958 2958 2958 2958 2933 2933 2933 2958 2958 2958 2958 2958 2958 2958 2958 2984 2984 2984 2984 2053 2053 2065 2065 2065 2078 2065 2065 2078 2078 2078 2078 2078 2078 2078 2078 0 1387 1387 1387 1387 1392 1392 1398 1398 1398 1398 1398 1398 1398 1404 1404 1404 1404 1404 1404 1404 1410 1415 1415 1421 1421 1421 1421 1421 1421 1421 1421 1421 1427 1427 1427 1427 1312 1307 1307 1312 1312 1312 1312 1312 1312 1317 1317 1317 1317 1317 1322 1322 1322 1333 1333 1338 1333 1333 1333 1333 1333 1333 1333 1333 1333 1333 1338 1343 1343 1349 1349 1349 1349 1349 1349 1349 1349 1349 1349 1349 1349 1354 1354 1354 1354 1483 1483 1483 1483 1483 1489 1489 1489 1489 1489 1489 1489 1489 1496 1496 1496 1503 1503 1503 1496 1496 1496 1496 1496 1496 1496 1496 1503 1503 1509 1516 1516 1947 1947 1947 1947 1959 1947 1947 1959 1959 1970 1970 1970 1970 1981 1981 1981 0 0 0 0 0 0 0 0 0 1458 1458 1458 1452 1452 1452 1445 1439 1439 1439 1439 1439 1439 1439 1445 1445 1445 1445 1452 1452 2053 2040 2040 2040 2040 2028 2028 2028 2028 2028 2028 2028 2028 2040 2040 2040 2040 2040 2053 2053 2053 2053 2040 2040 1970 1970 1970 1970 1970 1970 1970 1970 1970 1970 1970 1970 1970 1970 1970 1970 1970 1970 1970 1970 1970 1970 1970 1970 1970 1970 1489 1489 1483 1477 1477 1470 1464 1458 1458 1458 1458 1458 1452 1452 1452 1452 1452 1452 1452 1458 1458 1458 1464 1483 1959 1959 1959 1959 1959 1959 1959 1959 1959 1959 1959 1959 1970 1981 1516 1509 1509 1509 1509 1509 1509 1509 1509 1509 1516 1516 1509 1509 1516 1516 1516 1516 1516 1523 1523 1523 1529 1529 1523 1523 1523 1523 1523 1523 1523 1523 1529 1529 1529 1529 1529 1536 1536 1536 1543 1543 1550 1550 1550 1557 1557 1557 1557 1557 1557 1557 1557 1557 1557 1557 1557 1557 1550 1550 1550 1550 1550 1550 1550 1550 1550 1550 1550 1550 1550 1550 1550 2958 2958 2958 2958 2933 2933 2933 1843 1823 1823 1823 1823 1813 1804 1794 1794 1785 1785 1785 1785 1785 1785 1785 1794 1794 1794 1804 1804 1813 1813 1813 1813 1813 1813 1813 2933 2958 2958 2958 2958 2958 2958 2958 2984 2984 3010 3010 3010 3010 2984 2984 2984 2984 2984 2984 2984 2984 2984 2984 3010 2984 2984 2984 2958 2958 2958 2958 2933 2933 2933 2933 2958 2958 2958 2958 2958 2958 2958 2958 2958 2958 2958 2958 2958 2958 2933 2933 2933 2933 2933 2933 2933 2933 2933 2933 2933 2908 2908 2908 2908 2933 2933 2933 2908 2908 2908 2933 2933 2933 2933 2933 2933 2933 2933 0 0 0 0 0 0 0 0 0 0 0
0 0 0 0 0 0 0 0 0 0 0 0 0 0 0 0 0 0 0 0 0 0 0 0 0 0 0 0 0 0 0 0 2883 2883 2883 2883 2883 2883 2883 2883 2883 2883 2883 2883 2883 2883 2883 2883 2883 2883 2883 2883 2883 2883 2883 2883 2883 2883 2883 2883 2883 2908 2908 2883 2883 2883 2883 2883 2883 2883 2883 2883 2883 2883 2883 2883 2883 2883 2883 2883 2883 2883 2883 2883 2883 2883 2883 2883 2883 2883 2883 2883 2883 2883 2883 2908 2908 2908 2908 2908 2908 2908 2908 2908 2908 2908 2908 2908 2908 2908 2933 2933 2908 2908 2933 2933 2908 2908 2908 2908 2908 2908 2908 2933 2908 2908 2908 2933 2933 2933 2908 2908 2933 2933 2933 2933 2933 2933 2933 2933 2958 2958 2958 2958 2958 2958 2958 2958 2958 2958 2958 2958 2958 2958 2958 2958 2933 2933 2958 2958 2933 2933 2933 2933 2958 2958 2958 2958 2958 2958 2958 2958 2984 2984 2984 2065 2065 2065 2065 2065 2078 2078 2078 2078 2078 2078 2078 2078 2078 2078 2078 2090 1387 1387 1387 1387 1392 1392 1398 1398 1398 1398 1398 1398 1404 1404 1404 1404 1404 1404 1404 1410 1410 1415 1415 1421 1421 1421 1421 1421 1421 1421 1421 1427 1427 1427 1427 1433 1312 1312 1312 1312 1312 1312 1312 1312 1317 1317 1317 1317 1317 1317 1322 1322 1322 1333 1333 1338 1458 1458 1458 1464 1464 1464 1464 1464 1464 1464 1464 1464 1470 1470 1470 1470 1470 1470 1470 1470 1470 1470 1349 1349 1349 1354 1354 1354 1477 1477 1483 1489 1489 1489 1489 1489 1489 1489 1489 1489 1496 1496 1496 1496 1496 1503 1503 1503 1503 1503 1496 1496 1496 1496 1496 1496 1503 1503 1936 1936 1936 1936 1936 1947 1947 1959 1959 1959 1959 1959 1970 1970 1970 1970 1981 1981 1981 0 0 0 0 0 0 0 0 0 0 1458 1458 1458 1452 1452 1445 1445 1439 1439 1439 1439 1439 1445 1445 1445 1452 1452 1452 1452 2053 2040 2040 2040 2040 2040 2040 2040 2028 2005 2005 2016 2016 2028 2040 2040 2040 2040 2040 2040 2040 1947 1947 1947 1947 1947 1947 1947 1947 1959 1959 1959 1959 1959 1959 1970 1970 1970 1970 1970 1970 1970 1959 1959 1959 1959 1959 1970 1970 1970 1489 1489 1483 1477 1477 1470 1464 1458 1458 1458 1458 1458 1452 1452 1452 1452 1452 1452 1452 1458 1458 1458 1464 1483 1959 1959 1959 1959 1959 1947 1947 1947 1959 1959 1516 1516 1509 1509 1509 1509 1509 1509 1509 1509 1509 1509 1509 1509 1509 1516 1509 1509 1516 1516 1516 1516 1516 1523 1523 1523 1529 1529 1523 1523 1523 1523 1523 1523 1523 1523 1529 1529 1529 1529 1529 1536 1536 1536 1543 1543 1550 1550 1550 1557 1557 1557 1557 1557 1557 1557 1557 1557 1557 1564 1564 1557 1550 1550 1550 1550 1550 1550 1550 1550 1550 1550 1557 1550 1550 1550 1557 2958 2958 2958 2958 2933 2933 2933 1843 1823 1823 1823 1823 1813 1804 1794 1794 1785 1785 1785 1785 1785 1785 1785 1794 1794 1804 1804 1813 1813 1813 1813 1813 1813 1813 1813 2933 2958 2958 2958 2958 2958 2958 2958 2958 2958 2984 2984 2984 2984 2984 2984 2958 2958 2958 2958 2958 2958 2958 2958 2984 2958 2958 2958 2958 2958 2933 2933 2908 2908 2933 2933 2933 2933 2933 2958 2958 2958 2933 2933 2933 2933 2933 2933 2933 2933 2933 2933 2933 2933 2933 2933 2933 2908 2908 2908 2908 2908 2908 2908 2908 2908 2908 2908 2908 2908 2908 2908 2908 2933 2933 2933 2933 2933 2933 0 0 0 0 0 0 0 0 0 0 0
0 0 0 0 0 0 0 0 0 0 0 0 0 0 0 0 0 0 0 0 0 0 0 0 0 0 0 0 0 0 0 0 2883 2859 2859 2859 2859 2859 2859 2859 2883 2883 2883 2883 2883 2883 2883 2883 2859 2859 2859 2859 2859 2859 2859 2859 2883 2883 2883 2883 2883 2883 2883 2883 2883 2883 2883 2883 2883 2883 2883 2883 2883 2883 2883 2883 2883 2859 2859 2859 2883 2883 2883 2883 2883 2883 2883 2883 2883 2883 2883 2883 2883 2883 2883 2883 2908 2908 2908 2908 2908 2908 2883 2883 2908 2908 2908 2908 2883 2883 2908 2908 2908 2908 2908 2908 2908 2908 2908 2908 2908 2908 2908 2908 2908 2908 2908 2908 2908 2933 2908 2908 2933 2933 2933 2933 2933 2933 2933 2933 2958 2958 2958 2958 2958 2958 2958 2958 2933 2933 2933 2933 2958 2958 2958 2958 2933 2933 2933 2933 2933 2933 2933 2933 2933 2933 2933 2933 2933 2958 2958 2958 2958 2958 2958 2065 2065 2078 2078 2078 2078 2078 2078 2078 2078 2078 2078 2078 2078 2078 2090 2090 1392 1392 1387 1387 1392 1392 1398 1398 1398 1398 1398 1398 1404 1404 1404 1404 1404 1404 1410 1410 1415 1415 1415 1421 1421 1421 1421 1421 1421 1427 1427 1427 1427 1427 1433 1433 1312 1312 1312 1317 1317 1317 1317 1317 1317 1317 1317 1317 1317 1322 1322 1322 1322 1328 1338 1452 1452 1458 1458 1458 1458 1464 1464 1464 1464 1464 1464 1464 1464 1464 1464 1470 1470 1470 1470 1470 1470 1470 1470 1470 1470 1470 1477 1477 1477 1477 1483 1489 1489 1489 1489 1489 1489 1489 1489 1489 1496 1496 1496 1496 1496 1926 1926 1926 1926 1926 1926 1936 1926 1496 1496 1496 1936 1936 1936 1936 1936 1936 1936 1947 1947 1959 1959 1959 1959 1959 1970 1970 1970 1970 1981 1981 1981 0 0 0 0 0 0 0 0 0 0 1458 1458 1458 1458 1452 1452 1445 1445 1439 1439 1439 1445 1445 1452 1452 1452 1452 1452 1452 2053 2040 2040 2040 2040 2028 2028 2028 2005 2005 1981 1981 2005 2028 2028 2028 2005 2005 2005 1993 1970 1936 1936 1936 1936 1936 1936 1936 1936 1947 1947 1947 1947 1959 1959 1959 1959 1959 1959 1959 1959 1959 1959 1959 1959 1959 1959 1959 1959 1959 1489 1489 1483 1477 1477 1470 1464 1458 1458 1458 1458 1458 1452 1452 1452 1452 1452 1452 1452 1458 1458 1458 1477 1483 1959 1959 1959 1959 1959 1947 1947 1947 1959 1509 1509 1509 1509 1509 1509 1509 1509 1509 1509 1509 1509 1509 1509 1509 1509 1516 1509 1509 1516 1516 1516 1516 1516 1516 1523 1523 1523 1529 1523 1523 1523 1523 1523 1523 1523 1523 1529 1529 1529 1529 1529 1536 1536 1536 1543 1543 1550 1550 1550 1557 1557 1557 1557 1557 1557 1557 1557 1557 1557 1564 1564 1557 1550 1550 1550 1550 1550 1550 1550 1550 1557 1557 1557 1557 1550 1550 1557 2958 2958 2958 2933 2933 2933 1843 1843 1833 1823 1823 1823 1813 1813 1804 1794 1794 1794 1785 1785 1785 1785 1785 1794 1794 1804 1804 1813 1813 1813 1813 1813 1813 1813 1813 2958 2958 2958 2958 2958 2958 2958 2958 2958 2958 2958 2958 2958 2958 2958 2958 2958 2958 2958 2958 2958 2958 2958 2958 2958 2958 2958 2958 2958 2958 2933 2933 2908 2908 2933 2933 2933 2933 2933 2933 2908 2908 2908 2908 2908 2908 2908 2908 2908 2933 2933 2933 2908 2908 2933 2908 2908 2908 2908 2908 2908 2908 2883 2883 2908 2908 2908 2908 2908 2908 2908 2908 2908 2908 2908 2908 2908 2908 2908 0 0 0 0 0 0 0 0 0 0 0
0 0 0 0 0 0 0 0 0 0 0 0 0 0 0 0 0 0 0 0 0 0 0 0 0 0 0 0 0 0 0 0 2883 2859 2859 2859 2859 2835 2835 2859 2859 2859 2859 2859 2859 2859 2859 2859 2859 2859 2859 2859 2835 2835 2835 2859 2859 2859 2883 2883 2883 2883 2883 2883 2883 2883 2883 2883 2883 2883 2883 2859 2859 2859 2859 2859 2859 2859 2859 2859 2859 2859 2859 2859 2859 2859 2859 2859 2859 2859 2859 2859 2883 2883 2883 2883 2883 2883 2883 2883 2883 2883 2883 2883 2883 2883 2883 2883 2883 2883 2883 2883 2883 2883 2883 2883 2883 2883 2883 2883 2883 2883 2883 2908 2908 2908 2908 2908 2908 2908 2908 2908 2933 2933 2933 2933 2933 2933 2908 2908 2933 2933 2958 2958 2958 2958 2958 2933 2933 2933 2933 2933 2958 2958 2958 2958 2933 2933 2933 2933 2933 2933 2933 2933 2933 2933 2933 2933 2933 2933 2933 2933 2933 2933 2933 2078 2078 2078 2078 2078 2078 2078 2078 2078 2078 2078 2078 2078 2090 2090 2090 2090 2090 1392 1392 1392 1392 1392 1398 1398 1398 1398 1404 1404 1404 1404 1404 1404 1404 1410 1410 1410 1415 1415 1421 1421 1421 1421 1421 1421 1421 1427 1427 1427 1427 1427 1433 1433 1445 1317 1317 1317 1317 1317 1317 1317 1317 1317 1317 1317 1317 1322 1322 1322 1322 1328 1458 1452 1452 1452 1452 1452 1458 1458 1464 1464 1464 1464 1464 1464 1464 1464 1464 1464 1470 1470 1470 1470 1470 1470 1470 1477 1477 1477 1477 1477 1477 1483 1483 1483 1489 1489 1489 1489 1489 1489 1489 1489 1496 1496 1496 1496 1926 1926 1926 1926 1926 1926 1926 1926 1926 1926 1926 1936 1936 1926 1926 1936 1936 1936 1936 1947 1947 1959 1959 1959 1959 1970 1970 1970 1970 1981 1981 1981 1981 0 0 0 0 0 0 0 0 0 1464 1458 1458 1458 1458 1458 1452 1452 1445 1445 1445 1445 1445 1452 1452 1452 1452 1452 1458 1458 1458 2053 2053 2040 2040 2028 2005 1936 1926 1926 1926 1936 1936 1936 1926 1926 1926 1926 1926 1926 1926 1926 1926 1926 1926 1936 1936 1936 1936 1936 1936 1936 1936 1947 1947 1947 1947 1947 1947 1947 1959 1959 1959 1947 1947 1959 1947 1947 1947 1947 1483 1483 1483 1477 1477 1464 1464 1464 1458 1458 1458 1458 1452 1452 1452 1452 1452 1458 1458 1458 1458 1458 1483 1483 1483 1959 1959 1959 1959 1959 1959 1959 1509 1509 1509 1509 1509 1509 1509 1509 1509 1509 1509 1509 1509 1509 1509 1509 1509 1516 1509 1509 1516 1516 1516 1516 1516 1516 1516 1523 1523 1529 1523 1523 1523 1523 1523 1523 1523 1523 1529 1529 1529 1529 1536 1536 1536 1536 1543 1543 1550 1550 1550 1557 1557 1557 1557 1557 1557 1557 1557 1557 1564 1564 1564 1564 1550 1550 1557 1550 1550 1550 1550 1557 1557 1557 1557 1550 1550 1550 1557 2958 2958 2958 2933 2933 2933 1853 1843 1833 1833 1823 1823 1823 1813 1804 1804 1794 1794 1794 1785 1785 1794 1794 1794 1794 1804 1804 1813 1813 1813 1813 1813 1813 1813 1813 2958 2958 2958 2958 2958 2958 2958 2958 2958 2958 2958 2958 2958 2958 2958 2958 2958 2933 2933 2933 2933 2933 2933 2958 2958 2958 2958 2958 2958 2958 2933 2933 2908 2908 2908 2908 2933 2933 2908 2908 2908 2908 2883 2883 2908 2908 2908 2908 2908 2908 2908 2908 2908 2908 2908 2908 2908 2908 2908 2908 2883 2883 2883 2883 2883 2883 2883 2883 2883 2883 2883 2883 2883 2883 2883 2883 2883 2883 2883 0 0 0 0 0 0 0 0 0 0 0
0 0 0 0 0 0 0 0 0 0 0 0 0 0 0 0 0 0 0 0 0 0 0 0 0 0 0 0 0 0 0 0 2859 2859 2859 2859 2835 2835 2835 2835 2859 2835 2835 2835 2835 2859 2835 2835 2835 2835 2835 2835 2835 2835 2835 2835 2835 2859 2859 2859 2859 2883 2883 2883 2883 2859 2859 2859 2859 2859 2859 2859 2835 2835 2859 2859 2859 2859 2859 2859 2859 2859 2859 2859 2859 2859 2859 2859 2859 2859 2859 2859 2859 2859 2859 2859 2883 2883 2883 2883 2883 2859 2859 2859 2883 2883 2883 2859 2859 2859 2883 2883 2859 2859 2883 2883 2883 2883 2883 2883 2883 2883 2883 2883 2883 2883 2883 2883 2908 2908 2908 2908 2908 2908 2908 2908 2908 2908 2908 2908 2908 2933 2933 2933 2933 2933 2933 2933 2933 2908 2908 2933 2933 2933 2933 2933 2933 2908 2908 2908 2908 2908 2908 2908 2908 2933 2933 2933 2933 2933 2933 2933 2908 2908 2908 2078 2078 2078 2078 2078 2078 2078 2078 2078 2090 2090 2090 2090 2090 2090 2090 2090 2090 1392 1392 1392 1392 1392 1398 1398 1398 1398 1404 1404 1404 1410 1410 1410 1410 1410 1410 1415 1415 1421 1421 1421 1421 1421 1421 1421 1421 1427 1427 1427 1427 1433 1433 1445 1452 1458 1317 1317 1317 1317 1317 1317 1317 1317 1317 1317 1322 1322 1322 1322 1322 1458 1458 1452 1452 1452 1452 1452 1458 1458 1458 1458 1464 1464 1464 1464 1464 1464 1464 1464 1464 1470 1470 1470 1470 1477 1477 1477 1477 1477 1477 1477 1483 1483 1483 1483 1489 1489 1489 1489 1489 1496 1915 1915 1915 1915 1915 1915 1915 1926 1926 1926 1926 1926 1926 1926 1926 1926 1926 1926 1926 1926 1926 1926 1936 1936 1936 1936 1947 1959 1959 1959 1970 1970 1970 1970 1970 1981 1981 1981 1993 0 0 0 0 0 0 0 0 0 1464 1458 1458 1458 1458 1458 1452 1452 1445 1445 1445 1445 1452 1452 1452 1458 1458 1458 1458 1458 1458 2053 2053 1926 1926 1926 1926 1926 1926 1926 1926 1926 1926 1926 1926 1926 1926 1926 1926 1926 1926 1926 1926 1926 1926 1926 1926 1936 1936 1936 1936 1936 1936 1936 1936 1936 1936 1947 1947 1947 1947 1947 1947 1936 1936 1936 1936 1936 1947 1947 1483 1483 1477 1477 1477 1464 1464 1464 1458 1458 1458 1458 1458 1458 1458 1458 1458 1458 1458 1458 1458 1458 1483 1483 1483 1496 1503 1503 1503 1503 1509 1509 1509 1509 1509 1509 1509 1509 1509 1503 1503 1509 1509 1509 1509 1509 1509 1509 1509 1509 1509 1509 1509 1516 1516 1516 1516 1516 1516 1523 1523 1523 1523 1523 1523 1523 1523 1523 1523 1523 1529 1529 1529 1536 1536 1536 1543 1543 1543 1550 1550 1557 1557 1557 1557 1557 1557 1557 1557 1564 1564 1564 1564 1564 1564 1564 1557 1557 1557 1557 1557 1557 1557 1557 1557 1557 1550 1550 1550 1550 1550 2933 2933 2908 2908 2908 2908 1853 1833 1833 1833 1823 1823 1823 1813 1804 1804 1794 1794 1794 1785 1785 1794 1794 1794 1794 1804 1804 1813 1813 1813 1813 1813 1813 1813 1813 2958 2958 2958 2958 2958 2958 2933 2933 2933 2933 2958 2933 2933 2933 2933 2933 2958 2933 2933 2933 2933 2933 2933 2958 2958 2958 2958 2958 2958 2958 2933 2933 2908 2908 2908 2908 2908 2908 2908 2883 2883 2883 2883 2883 2883 2883 2883 2883 2908 2908 2883 2883 2883 2883 2908 2883 2883 2883 2883 2883 2883 2883 2883 2883 2883 2883 2883 2883 2883 2883 2883 2859 2859 2859 2859 2859 2859 2859 2859 0 0 0 0 0 0 0 0 0 0 0
0 0 0 0 0 0 0 0 0 0 0 0 0 0 0 0 0 0 0 0 0 0 0 0 0 0 0 0 0 0 0 0 2859 2859 2859 2859 2835 2812 2812 2835 2835 2835 2812 2812 2812 2835 2835 2835 2835 2835 2835 2835 2812 2812 2812 2812 2835 2835 2835 2859 2859 2859 2859 2859 2859 2859 2859 2859 2859 2859 2859 2835 2812 2812 2835 2835 2835 2835 2835 2835 2859 2859 2859 2859 2859 2859 2859 2859 2859 2859 2859 2859 2859 2859 2859 2859 2859 2859 2859 2859 2859 2859 2859 2859 2859 2859 2859 2859 2859 2859 2883 2883 2859 2859 2859 2859 2859 2883 2883 2883 2883 2883 2883 2883 2883 2883 2883 2883 2883 2883 2883 2883 2883 2908 2883 2883 2883 2883 2883 2883 2908 2908 2908 2908 2908 2908 2908 2908 2908 2908 2908 2908 2908 2908 2908 2933 2908 2883 2883 2883 2883 2883 2883 2883 2883 2908 2908 2908 2908 2933 2908 2908 2908 2883 2883 2078 2078 2078 2078 2078 2078 2078 2078 2078 2090 2090 2090 2090 2090 2090 2090 2090 2090 1398 1398 1398 1398 1398 1398 1404 1404 1404 1404 1404 1410 1410 1415 1415 1415 1415 1415 1415 1421 1421 1421 1421 1421 1421 1421 1421 1421 1427 1427 1427 1433 1433 1439 1445 1445 1452 1317 1317 1317 1317 1317 1317 1317 1322 1322 1322 1322 1328 1328 1328 1333 1458 1458 1452 1452 1452 1445 1445 1452 1452 1458 1458 1464 1464 1464 1464 1464 1464 1464 1464 1464 1470 1470 1470 1470 1477 1477 1477 1477 1477 1477 1894 1894 1894 1894 1894 1904 1904 1489 1489 1904 1904 1904 1904 1904 1904 1904 1915 1915 1915 1926 1926 1926 1915 1915 1915 1915 1915 1926 1926 1926 1926 1926 1926 1926 1936 1936 1936 1947 1959 1959 1970 1970 1970 1970 1970 1970 1981 1981 1993 0 0 0 0 0 0 0 0 0 0 1464 1464 1464 1464 1458 1458 1452 1452 1452 1452 1452 1452 1452 1452 1458 1458 1458 1458 1458 1458 1458 1926 1915 1915 1926 1915 1915 1915 1915 1915 1915 1915 1915 1926 1926 1926 1926 1926 1926 1926 1915 1915 1926 1926 1926 1926 1926 1926 1926 1926 1926 1926 1926 1926 1926 1926 1926 1936 1936 1936 1936 1936 1936 1926 1926 1936 1936 1936 1947 1947 1483 1483 1477 1477 1477 1464 1464 1464 1464 1464 1464 1464 1458 1458 1458 1458 1458 1458 1458 1458 1458 1477 1483 1483 1489 1496 1503 1503 1503 1503 1503 1503 1503 1503 1503 1509 1509 1509 1503 1503 1503 1509 1509 1509 1509 1509 1509 1509 1509 1509 1509 1509 1509 1516 1516 1516 1516 1516 1516 1523 1523 1523 1523 1523 1523 1523 1523 1523 1523 1529 1529 1529 1529 1536 1536 1536 1543 1543 1550 1557 1557 1557 1557 1557 1557 1557 1557 1564 1564 1564 1564 1564 1564 1564 1564 1564 1557 1557 1557 1557 1557 1557 1557 1557 1557 1557 1550 1550 1543 1543 1550 2933 2933 2908 2908 2908 2908 1843 1833 1833 1833 1823 1823 1823 1813 1804 1804 1794 1794 1794 1794 1794 1794 1794 1794 1794 1804 1804 1813 1813 1813 1813 1813 1813 1813 2933 2958 2958 2933 2933 2933 2933 2933 2933 2933 2933 2933 2933 2933 2933 2933 2933 2933 2933 2933 2933 2933 2933 2933 2933 2933 2958 2958 2958 2958 2933 2933 2933 2908 2908 2908 2908 2883 2883 2883 2883 2859 2859 2859 2859 2883 2883 2883 2883 2908 2883 2883 2859 2859 2859 2883 2883 2883 2883 2883 2883 2859 2859 2859 2859 2859 2859 2883 2883 2883 2859 2859 2835 2835 2835 2835 2835 2835 2835 2859 0 0 0 0 0 0 0 0 0 0 0
0 0 0 0 0 0 0 0 0 0 0 0 0 0 0 0 0 0 0 0 0 0 0 0 0 0 0 0 0 0 0 0 2859 2859 2859 2859 2835 2812 2812 2835 2812 2812 2812 2812 2812 2812 2835 2835 2812 2812 2812 2812 2789 2789 2812 2812 2812 2835 2835 2835 2835 2835 2835 2835 2835 2835 2835 2835 2835 2835 2835 2835 2789 2789 2812 2812 2812 2835 2835 2835 2835 2835 2859 2835 2835 2835 2835 2835 2835 2835 2835 2835 2859 2835 2835 2835 2835 2835 2835 2835 2859 2859 2859 2859 2859 2859 2859 2859 2859 2859 2859 2859 2859 2859 2859 2859 2859 2859 2859 2859 2859 2859 2883 2883 2883 2883 2883 2883 2883 2883 2883 2883 2883 2883 2883 2883 2883 2883 2883 2883 2883 2883 2883 2908 2908 2908 2908 2883 2883 2883 2883 2883 2883 2908 2908 2908 2908 2883 2883 2883 2883 2883 2883 2859 2859 2883 2883 2883 2908 2908 2908 2908 2908 2883 2883 2883 2078 2078 2078 2078 2078 2078 2078 2078 2090 2090 2090 2090 2090 2090 2090 2090 2090 1398 1398 1398 1398 1398 1398 1404 1404 1404 1404 1410 1410 1410 1415 1415 1415 1415 1415 1415 1421 1421 1421 1421 1421 1421 1427 1427 1427 1427 1427 1427 1433 1439 1439 1439 1445 1317 1317 1317 1322 1322 1322 1322 1322 1328 1328 1333 1333 1333 1333 1333 1333 1458 1452 1452 1452 1445 1445 1445 1452 1452 1458 1458 1464 1464 1464 1464 1464 1464 1464 1464 1470 1470 1470 1470 1883 1883 1883 1883 1883 1883 1883 1883 1883 1894 1894 1894 1894 1894 1894 1894 1894 1894 1894 1894 1894 1894 1904 1904 1904 1904 1904 1904 1915 1904 1904 1904 1904 1904 1915 1915 1915 1915 1915 1915 1915 1926 1926 1936 1947 1959 1970 1970 1970 1970 1981 1981 1981 1993 1993 1993 0 0 0 0 0 0 0 0 0 0 1470 1464 1464 1464 1464 1458 1458 1458 1452 1452 1452 1452 1458 1458 1458 1458 1458 1458 1458 1458 1458 1915 1904 1904 1915 1904 1904 1904 1904 1904 1915 1915 1915 1915 1915 1915 1915 1915 1915 1915 1915 1915 1915 1915 1915 1926 1926 1926 1926 1926 1926 1926 1926 1915 1915 1926 1926 1926 1926 1926 1926 1926 1926 1926 1926 1926 1926 1936 1936 1936 1483 1483 1477 1477 1477 1464 1464 1464 1464 1464 1464 1464 1458 1458 1458 1464 1464 1464 1464 1470 1477 1477 1489 1496 1496 1496 1503 1503 1503 1503 1503 1503 1503 1503 1503 1503 1503 1503 1503 1503 1503 1509 1509 1509 1509 1509 1509 1509 1509 1516 1509 1509 1509 1516 1516 1516 1516 1516 1516 1523 1523 1523 1523 1523 1523 1529 1529 1529 1529 1529 1529 1529 1536 1536 1536 1543 1543 1550 1550 1557 1557 1557 1557 1557 1557 1557 1557 1564 1564 1564 1564 1564 1564 1564 1564 1564 1557 1557 1557 1557 1557 1557 1557 1557 1557 1557 1550 1550 1543 1543 1550 2908 2908 2908 2908 2908 1843 1843 1833 1833 1833 1833 1823 1823 1813 1813 1804 1794 1794 1794 1794 1794 1794 1794 1804 1804 1813 1813 1813 1813 1813 1813 1813 1813 1823 2933 2933 2933 2933 2933 2933 2933 2933 2933 2933 2933 2933 2908 2908 2933 2933 2933 2933 2908 2908 2908 2908 2908 2908 2933 2933 2933 2933 2933 2933 2933 2908 2908 2883 2883 2883 2883 2883 2883 2883 2859 2859 2859 2859 2859 2883 2883 2883 2883 2883 2883 2859 2859 2859 2859 2859 2859 2859 2859 2859 2883 2859 2859 2859 2859 2859 2859 2859 2859 2859 2859 2835 2835 2835 2835 2835 2835 2835 2835 2835 0 0 0 0 0 0 0 0 0 0 0
0 0 0 0 0 0 0 0 0 0 0 0 0 0 0 0 0 0 0 0 0 0 0 0 0 0 0 0 0 0 0 0 2835 2835 2835 2835 2835 2812 2812 2812 2812 2812 2812 2812 2812 2812 2812 2812 2812 2812 2812 2812 2789 2789 2812 2812 2812 2812 2812 2835 2835 2835 2835 2835 2835 2835 2835 2835 2835 2835 2835 2812 2789 2789 2789 2789 2789 2812 2812 2812 2812 2812 2812 2812 2812 2812 2835 2835 2835 2835 2835 2835 2835 2835 2812 2812 2812 2812 2812 2812 2812 2835 2835 2835 2835 2859 2859 2835 2835 2859 2859 2859 2859 2859 2859 2859 2859 2859 2859 2859 2859 2859 2859 2859 2859 2859 2859 2859 2883 2883 2883 2883 2883 2883 2883 2859 2859 2859 2859 2859 2859 2859 2883 2883 2883 2883 2883 2883 2883 2883 2883 2883 2883 2883 2883 2908 2883 2883 2883 2883 2883 2883 2859 2859 2859 2883 2883 2883 2883 2883 2883 2883 2883 2859 2859 2859 2078 2078 2078 2078 2078 2090 2090 2090 2090 2090 2090 2090 2090 2090 2090 2090 2090 1404 1404 1398 1398 1398 1404 1404 1404 1404 1410 1410 1410 1410 1415 1415 1415 1415 1421 1421 1421 1421 1421 1421 1427 1427 1427 1427 1427 1427 1427 1427 1433 1433 1439 1439 1445 1317 1317 1322 1322 1322 1322 1322 1328 1328 1333 1333 1333 1333 1333 1333 1333 1464 1452 1452 1452 1445 1445 1445 1452 1452 1458 1458 1464 1464 1464 1873 1873 1873 1873 1873 1873 1873 1873 1873 1883 1883 1883 1883 1883 1883 1883 1883 1883 1883 1883 1883 1883 1883 1883 1883 1894 1894 1894 1894 1894 1894 1894 1894 1894 1894 1894 1894 1894 1894 1894 1894 1894 1894 1894 1894 1894 1894 1904 1904 1904 1904 1915 1926 1947 1959 1970 1970 1970 1981 1981 1981 1981 1993 1993 1993 0 0 0 0 0 0 0 0 0 0 1470 1464 1464 1464 1464 1458 1458 1458 1458 1458 1458 1458 1458 1458 1458 1458 1458 1458 1458 1464 1904 1904 1904 1904 1904 1904 1904 1904 1904 1904 1904 1904 1904 1915 1915 1915 1915 1915 1915 1915 1915 1915 1915 1915 1915 1915 1915 1915 1915 1915 1915 1915 1915 1904 1904 1915 1915 1915 1915 1926 1926 1926 1926 1926 1926 1926 1926 1926 1936 1936 1483 1483 1477 1477 1477 1470 1464 1464 1464 1464 1464 1464 1458 1458 1464 1464 1470 1477 1477 1477 1477 1483 1489 1496 1496 1496 1503 1503 1503 1503 1503 1503 1503 1503 1503 1503 1503 1503 1503 1503 1503 1509 1509 1509 1509 1509 1509 1509 1509 1509 1509 1509 1509 1516 1516 1516 1516 1516 1523 1523 1529 1529 1529 1529 1529 1529 1529 1529 1529 1529 1536 1536 1536 1536 1543 1543 1550 1550 1557 1557 1557 1557 1557 1557 1557 1557 1564 1564 1564 1564 1564 1564 1564 1564 1564 1564 1557 1557 1557 1557 1557 1557 1557 1557 1557 1557 1557 1550 1543 1543 1550 2883 2883 2883 2883 2908 2908 1843 1833 1833 1833 1833 1823 1823 1813 1813 1804 1804 1804 1794 1794 1794 1794 1794 1804 1804 1813 1813 1823 1823 1823 1823 1823 1823 2933 2933 2933 2933 2933 2908 2908 2908 2908 2908 2908 2908 2908 2908 2908 2908 2908 2908 2908 2908 2908 2908 2908 2908 2908 2908 2908 2933 2933 2933 2908 2908 2908 2908 2859 2859 2883 2883 2883 2883 2883 2859 2859 2859 2859 2859 2883 2883 2883 2883 2883 2859 2835 2835 2835 2835 2835 2835 2835 2835 2859 2859 2859 2859 2859 2859 2835 2835 2835 2835 2835 2835 2835 2835 2835 2835 2835 2835 2835 2835 2835 0 0 0 0 0 0 0 0 0 0 0
0 0 0 0 0 0 0 0 0 0 0 0 0 0 0 0 0 0 0 0 0 0 0 0 0 0 0 0 0 0 0 0 2812 2812 2812 2812 2812 2812 2812 2812 2812 2812 2812 2812 2812 2812 2812 2789 2789 2789 2789 2789 2789 2789 2789 2789 2789 2812 2812 2812 2812 2812 2812 2812 2812 2812 2812 2812 2812 2812 2812 2789 2789 2789 2789 2789 2789 2789 2789 2789 2812 2812 2812 2812 2812 2812 2812 2835 2835 2812 2812 2812 2835 2812 2812 2812 2812 2789 2789 2789 2812 2812 2812 2835 2835 2835 2859 2835 2835 2835 2859 2859 2859 2835 2835 2835 2859 2859 2859 2859 2859 2859 2859 2859 2859 2859 2859 2859 2859 2859 2859 2859 2859 2883 2859 2859 2859 2859 2859 2859 2859 2859 2859 2859 2883 2883 2883 2883 2883 2883 2883 2883 2883 2883 2883 2883 2883 2859 2859 2859 2859 2859 2859 2859 2859 2859 2859 2859 2859 2859 2883 2859 2859 2859 2859 2859 2859 2078 2078 2078 2090 2090 2090 2090 2090 2090 2090 2090 2090 2090 2090 2090 2090 1404 1404 1404 1404 1404 1404 1404 1404 1404 1410 1410 1410 1415 1415 1415 1415 1421 1421 1421 1421 1421 1421 1421 1427 1427 1427 1427 1427 1427 1427 1427 1433 1433 1439 1439 1445 1445 1322 1322 1322 1322 1328 1328 1328 1333 1333 1333 1333 1333 1333 1338 1338 1338 1338 1863 1863 1863 1445 1445 1458 1458 1464 1464 1873 1873 1873 1863 1863 1863 1873 1873 1873 1873 1873 1873 1873 1883 1883 1883 1883 1883 1883 1883 1883 1883 1883 1883 1883 1883 1883 1883 1883 1883 1883 1883 1883 1883 1883 1883 1883 1883 1883 1883 1883 1883 1883 1883 1883 1894 1894 1894 1894 1894 1894 1894 1883 1883 1894 1915 1947 1959 1970 1970 1981 1981 1981 1981 1981 1993 1993 1993 0 0 0 0 0 0 0 0 1477 1477 1477 1470 1464 1464 1464 1464 1458 1458 1458 1458 1458 1458 1458 1458 1458 1464 1464 1464 1464 1464 1464 1894 1894 1894 1894 1894 1894 1894 1894 1894 1894 1904 1904 1904 1904 1904 1904 1904 1904 1904 1904 1904 1915 1915 1915 1915 1915 1915 1915 1904 1904 1904 1904 1904 1904 1904 1915 1915 1915 1915 1915 1915 1915 1915 1915 1915 1915 1926 1926 1926 1483 1483 1483 1477 1477 1470 1464 1464 1464 1464 1464 1470 1464 1464 1464 1470 1477 1477 1483 1483 1489 1496 1496 1496 1496 1496 1503 1503 1503 1503 1503 1503 1503 1503 1503 1503 1503 1503 1509 1503 1503 1509 1509 1509 1509 1509 1509 1509 1509 1509 1516 1516 1516 1516 1516 1516 1516 1516 1523 1523 1529 1529 1529 1529 1529 1529 1529 1529 1536 1536 1536 1536 1536 1543 1543 1550 1550 1550 1557 1557 1557 1557 1557 1557 1564 1564 1564 1564 1564 1572 1572 1572 1572 1572 1572 1564 1564 1557 1557 1557 1557 1557 1557 1564 1557 1557 1557 1550 1550 2859 2859 2859 2859 2883 2883 2883 2883 1833 1833 1833 1833 1833 1823 1823 1813 1813 1813 1804 1804 1804 1794 1794 1794 1794 1804 1804 1813 1813 1823 1823 1823 1823 1823 1823 2933 2933 2908 2908 2883 2883 2883 2908 2883 2883 2883 2883 2883 2883 2883 2883 2883 2883 2883 2883 2908 2883 2883 2908 2908 2908 2908 2908 2908 2908 2908 2883 2883 2883 2859 2859 2859 2859 2859 2859 2859 2859 2859 2859 2859 2859 2859 2859 2859 2859 2859 2859 2835 2835 2835 2835 2835 2835 2835 2835 2835 2835 2835 2835 2835 2835 2835 2835 2835 2835 2835 2835 2835 2835 2835 2835 2835 2835 2812 2812 2812 2812 0 0 0 0 0 0 0 0 0 0
0 0 0 0 0 0 0 0 0 0 0 0 0 0 0 0 0 0 0 0 0 0 0 0 0 0 0 0 0 0 0 0 2812 2812 2812 2812 2789 2789 2789 2789 2789 2789 2789 2789 2789 2789 2789 2789 2767 2767 2767 2767 2767 2767 2789 2789 2789 2812 2812 2812 2812 2812 2812 2812 2812 2812 2812 2812 2812 2812 2812 2789 2789 2789 2789 2789 2789 2789 2789 2789 2789 2789 2789 2812 2812 2812 2812 2812 2812 2812 2812 2812 2812 2812 2789 2789 2789 2789 2789 2789 2789 2812 2812 2812 2812 2835 2835 2835 2835 2835 2835 2835 2835 2835 2835 2835 2835 2835 2859 2859 2859 2859 2859 2859 2859 2859 2859 2859 2859 2859 2859 2859 2859 2859 2859 2859 2859 2859 2859 2859 2859 2859 2859 2859 2859 2859 2859 2859 2859 2859 2859 2883 2883 2883 2883 2883 2859 2859 2859 2859 2859 2859 2859 2859 2859 2859 2859 2859 2859 2859 2859 2859 2859 2859 2859 2859 2859 2078 2078 2078 2090 2090 2090 2090 2090 2090 2090 2090 2090 2090 2090 2090 2090 2090 1404 1404 1404 1404 1404 1404 1404 1410 1410 1410 1415 1415 1415 1415 1415 1421 1421 1421 1421 1421 1427 1427 1427 1427 1427 1427 1427 1427 1427 1427 1433 1439 1439 1439 1445 1445 1328 1328 1328 1328 1328 1328 1328 1333 1333 1333 1333 1333 1333 1338 1338 1338 1338 1853 1853 1853 1853 1863 1863 1863 1863 1873 1873 1863 1863 1863 1863 1863 1863 1863 1863 1873 1873 1873 1873 1873 1873 1873 1873 1883 1883 1873 1873 1873 1873 1873 1873 1873 1873 1873 1873 1883 1873 1873 1883 1883 1883 1873 1873 1873 1883 1883 1883 1883 1883 1883 1883 1883 1883 1883 1883 1883 1883 1883 1883 1883 1883 1894 1904 1959 1970 1970 1981 1981 1981 1981 1981 1993 2005 2005 0 0 0 0 0 0 1470 1470 1470 1470 1477 1470 1470 1464 1464 1464 1458 1458 1458 1458 1458 1458 1458 1458 1464 1464 1464 1464 1464 1464 1464 1883 1883 1883 1883 1883 1883 1883 1883 1883 1883 1883 1883 1883 1883 1883 1894 1894 1894 1894 1894 1894 1894 1904 1904 1904 1904 1904 1904 1904 1904 1894 1894 1894 1894 1904 1904 1904 1904 1904 1904 1915 1915 1915 1915 1915 1915 1915 1915 1915 1483 1483 1483 1483 1483 1470 1470 1470 1464 1464 1464 1470 1464 1464 1464 1470 1477 1483 1483 1483 1489 1496 1496 1496 1496 1503 1503 1503 1503 1503 1503 1503 1503 1503 1503 1503 1509 1509 1509 1509 1509 1509 1509 1509 1509 1509 1509 1509 1509 1509 1516 1516 1516 1516 1516 1523 1523 1523 1523 1529 1529 1529 1529 1529 1529 1529 1529 1536 1536 1536 1536 1536 1543 1543 1550 1550 1550 1557 1557 1557 1557 1557 1557 1564 1564 1564 1564 1572 1572 1572 1579 1579 1572 1572 1572 1572 1564 1564 1564 1557 1557 1564 1564 1564 1557 1557 1557 1557 2883 2859 2859 2859 2859 2859 2859 2883 2883 1833 1833 1833 1833 1833 1823 1823 1813 1813 1813 1804 1804 1804 1804 1804 1804 1804 1813 1813 1813 1813 1823 1823 1823 1823 1823 1823 2908 2908 2883 2883 2883 2883 2883 2883 2883 2883 2883 2883 2883 2859 2859 2859 2859 2859 2859 2859 2883 2883 2883 2883 2883 2908 2908 2908 2908 2883 2883 2859 2859 2859 2835 2835 2835 2835 2859 2859 2859 2859 2835 2835 2835 2859 2859 2859 2859 2859 2859 2835 2835 2835 2835 2835 2835 2835 2835 2835 2835 2835 2835 2835 2835 2835 2835 2835 2835 2835 2835 2812 2812 2812 2812 2812 2812 2812 2812 2812 2812 2812 0 0 0 0 0 0 0 0 0 0
