0 0 0 0 0 0 0 0 0 0 0 0 0 0 0 0 0 0 0 0 0 0 0 0 0 0 0 0 0 0 0 4190 4190 4190 4190 4295 4349 4349 4349 4349 4349 4295 4295 4241 4241 4241 4241 4190 4190 4241 4190 4190 4190 4190 4190 4190 4190 4241 4295 4295 4349 4349 4349 4405 4349 4349 4349 4349 4241 4241 4190 4190 4190 4190 4295 4295 3064 3037 3037 3037 3064 3064 3037 3037 3037 3037 2744 2744 2744 2723 2723 2723 2723 2723 2723 2723 2723 2723 2723 2723 2701 2701 2701 2701 2701 2723 2723 2723 2723 2744 2744 2744 2744 2767 2767 2789 2767 2767 2767 2767 2767 2767 2767 2767 2767 2789 2789 2789 2789 2789 2789 2789 2789 2789 2812 2812 2835 2859 2859 2859 2883 2908 2958 2984 3010 3037 3037 2984 2958 2933 2933 2908 2883 2883 2883 2883 2859 2859 2859 2859 2859 2859 2859 2859 2859 2859 2859 2859 2859 2883 1981 1970 1970 1970 1959 1959 1959 1947 1947 1947 1947 1959 1959 1959 1959 1959 1959 1959 1947 1947 1947 1947 1947 1947 1947 1947 1970 1981 1981 1981 1970 1947 1947 1947 1947 1947 1959 1970 1970 1981 1981 1981 1981 1981 1970 1959 1959 1970 1970 1970 1959 1959 1970 1970 1970 1970 1970 1970 1970 1981 1981 1981 1981 1981 1981 1981 1981 1981 1981 1981 1981 1993 1993 1993 1981 1981 1993 1993 1993 1981 1970 1970 1981 1981 1981 1981 1981 1981 1981 1993 1993 1993 1993 1993 2005 1993 1993 1993 1993 1993 1993 1981 1981 1981 1981 1981 1981 1981 1981 1981 1981 1993 1993 1993 1993 1993 2016 2005 2005 2005 2005 2016 2016 2016 2005 2005 2005 2005 1993 1993 1993 1993 1993 2005 2005 2005 2005 2005 2005 2005 2005 2005 2005 2005 2005 2016 2016 2016 2016 2016 2028 2028 2028 2028 2016 2016 2028 2028 2028 2016 2016 2016 2016 2016 2016 2016 2016 2016 2005 2005 2005 2005 2005 2016 2016 2016 2016 2016 2016 2016 2016 2016 2016 2016 2016 2016 2028 2028 2040 2040 2040 2040 2040 2040 2065 2065 1415 1415 1410 1410 1415 1415 1415 1415 1415 1410 1410 1410 1410 1415 1415 1415 1415 1415 2078 2078 2078 2078 2065 2065 2053 2053 2053 2053 2053 2053 2053 2053 2053 2053 2053 2053 2053 2053 2053 2053 2053 2065 2065 2065 2065 2065 2065 2053 2053 2053 2053 2053 2040 2040 2053 2053 2053 2053 2053 2053 2053 2053 2053 2053 2053 2053 2065 2078 2078 2090 2090 1433 1427 1421 1421 1421 1421 1421 1421 1427 1427 1427 1433 1427 1427 1427 1433 1433 1433 2103 2103 2103 2103 2103 2103 2103 2103 2103 2090 2090 2090 2090 1458 1458 1458 1458 1458 1458 1458 1458 1458 1458 1458 1458 1458 1458 1458 1458 1464 1464 1470 1470 1477 1477 1477 1477 1483 1483 1483 1483 1483 1483 1483 1483 1483 1477 1477 1489 1489 1496 1496 1496 1496 1496 1496 1503 1503 1503 1509 1509 1516 1523 1523 1523 1523 1523 1523 1523 1523 1523 1529 1529 1529 1529 1529 1529 1529 1529 1529 1529 1536 1536 1543 1543 1543 0 0 0 0 0 4582 4582 4582 4582 4582 4582 4645 4645 4774 4842 4911 4911 4911 4911 4842 4842 4842 4983 4983 5056 5132 5132 5132 5132 0 4911 0 0 4295 4241 4241 4241 4241 4241 4190 4190 4190 4190 4190 4190 4190 4190 4190 4241 0 0 0 0 0 0 4241 4190 4190 4241 4295 4405 4463 4522 4582 4582 4522 4463 4405 4295 4295 4295 4295 4295 4295 4645 4645 4774 4774 4708 4405 4190 4190 4190 4139 4089 4089 4139 0 0 0 0 0 0 0 0 0 0 0 0
0 0 0 0 0 0 0 0 0 0 0 0 0 0 0 0 0 0 0 0 0 0 0 0 0 0 0 0 0 0 0 4139 4139 4190 4190 4295 4295 4349 4349 4349 4349 4349 4295 4241 4241 4241 4241 4190 4190 4241 4190 4190 4190 4190 4190 4190 4190 4190 4241 4241 4295 4349 4349 4349 4349 4295 4295 4295 4241 4241 4139 4139 4139 4139 4139 3010 3010 3037 3037 3037 3064 3064 3037 3037 3037 2744 2744 2744 2723 2723 2723 2723 2723 2723 2723 2723 2723 2723 2723 2723 2701 2701 2701 2701 2701 2723 2723 2744 2744 2744 2744 2767 2767 2767 2767 2767 2767 2767 2767 2767 2767 2767 2767 2767 2789 2789 2789 2789 2789 2789 2789 2789 2789 2789 2812 2812 2835 2859 2859 2859 2883 2908 2933 2958 2984 3010 3010 2984 2958 2933 2933 2908 2883 2883 2883 2883 2859 2859 2859 2859 2859 2859 2859 2859 2859 2859 2859 2859 2859 2859 1970 1970 1970 1959 1959 1947 1947 1947 1947 1947 1947 1947 1947 1947 1947 1947 1947 1947 1947 1936 1936 1947 1947 1947 1947 1947 1947 1959 1959 1959 1959 1947 1947 1947 1947 1947 1959 1959 1970 1970 1970 1970 1970 1970 1959 1959 1959 1959 1959 1959 1947 1947 1959 1959 1959 1959 1959 1959 1959 1959 1959 1970 1981 1981 1981 1981 1981 1981 1981 1981 1981 1981 1981 1981 1981 1981 1981 1981 1981 1981 1970 1970 1970 1970 1970 1970 1970 1970 1981 1981 1981 1981 1981 1981 1981 1981 1981 1981 1981 1981 1981 1981 1981 1981 1981 1970 1970 1970 1970 1981 1981 1981 1981 1981 1981 1981 1993 1993 1993 1993 2005 2005 2005 2005 1993 1993 1981 1981 1981 1981 1981 1981 1981 1993 1993 1993 1993 1993 1993 2005 1993 1993 1993 1993 1993 2005 2005 2005 2016 2016 2016 2016 2016 2016 2016 2016 2016 2016 2016 2005 2005 2016 2016 2005 2005 2005 2005 2005 2005 2005 2005 2005 2005 2005 2005 2005 2016 2005 2005 2005 2005 2005 2016 2005 2005 2005 2016 2028 2028 2028 2028 2040 2040 2040 2040 1415 1415 1415 1410 1410 1415 1415 1415 1410 1410 1410 1410 1410 1410 1415 1415 1415 1415 1415 1421 1421 2065 2065 2053 2040 2040 2040 2016 2016 2016 2016 2016 2016 2040 2040 2040 2040 2040 2040 2040 2053 2053 2053 2053 2053 2053 2053 2053 2040 2040 2028 2028 2040 2028 2028 2028 2040 2040 2040 2040 2040 2040 2053 2053 2053 2053 2053 2053 2078 2078 1439 1439 1433 1427 1427 1427 1421 1421 1421 1421 1427 1427 1427 1433 1427 1427 1427 1433 1433 1433 1452 2103 2103 2103 2103 2103 2103 2103 2103 2090 1452 1452 1452 1452 1452 1452 1458 1458 1458 1458 1458 1458 1458 1458 1458 1464 1464 1464 1464 1464 1464 1470 1470 1477 1477 1477 1477 1477 1483 1483 1483 1483 1483 1483 1483 1483 1483 1483 1489 1489 1496 1496 1496 1496 1496 1496 1496 1503 1503 1503 1509 1516 1516 1516 1523 1523 1523 1523 1523 1523 1523 1529 1529 1529 1529 1529 1529 1529 1529 1529 1536 1536 1536 1543 1543 0 0 0 4522 0 4582 4582 4582 4582 4582 4582 4645 4708 4708 4774 4842 4842 4842 4842 4842 4842 4842 4842 4911 4911 4983 5056 5056 5056 4983 4911 4911 0 4405 4295 4241 4241 4241 4241 4295 4241 4241 4190 4190 4241 4190 4190 4190 4241 4241 0 0 0 0 0 0 4241 4241 4241 4295 4295 4405 4463 4522 4582 4582 4582 4522 4463 4349 4295 4295 4295 4295 4295 4295 4774 4774 4842 4708 4295 4190 4190 4190 4139 4139 4139 4139 0 0 0 0 0 0 0 0 0 0 0 0
0 0 0 0 0 0 0 0 0 0 0 0 0 0 0 0 0 0 0 0 0 0 0 0 0 0 0 0 0 0 0 4139 4139 4139 4295 4295 4295 4349 4349 4349 4349 4349 4295 4241 4241 4241 4241 4190 4190 4190 4190 4190 4190 4190 4190 4190 4190 4190 4241 4241 4295 4295 4295 4349 4295 4295 4295 4241 4241 4190 4139 4139 4089 4089 4089 3010 3010 3064 3064 3064 3064 3064 3064 3064 3064 2744 2744 2744 2723 2723 2723 2723 2723 2723 2723 2723 2723 2723 2723 2723 2701 2701 2701 2723 2723 2723 2723 2744 2744 2744 2744 2767 2767 2767 2767 2767 2767 2767 2767 2767 2767 2767 2767 2767 2789 2789 2789 2789 2789 2789 2789 2789 2812 2812 2812 2812 2835 2859 2859 2883 2883 2908 2933 2933 2958 2984 2984 2984 2958 2933 2933 2908 2883 2883 2883 2883 2859 2859 2859 2859 2859 2859 2859 2859 2859 2859 2859 2859 2859 2859 1970 1970 1970 1959 1947 1947 1936 1936 1904 1904 1904 1904 1904 1904 1915 1926 1926 1926 1926 1936 1926 1926 1926 1936 1947 1947 1947 1947 1947 1947 1947 1936 1936 1936 1936 1936 1947 1947 1947 1959 1959 1947 1947 1947 1947 1947 1947 1947 1947 1947 1947 1947 1947 1947 1947 1947 1947 1947 1947 1959 1959 1959 1970 1981 1981 1981 1970 1970 1970 1970 1970 1970 1970 1970 1970 1970 1970 1970 1970 1970 1959 1959 1947 1947 1947 1947 1959 1959 1970 1970 1970 1970 1970 1970 1970 1970 1970 1970 1981 1981 1981 1970 1970 1981 1970 1959 1959 1959 1959 1970 1970 1970 1970 1970 1970 1970 1970 1981 1981 1981 1981 1993 1981 1981 1981 1970 1970 1970 1970 1970 1981 1981 1981 1981 1981 1981 1981 1981 1981 1981 1981 1981 1993 1993 1993 1993 2005 2005 2005 2005 2005 2005 2005 2005 2005 2005 2005 2005 2005 1993 1993 2005 2005 1993 1993 1993 1993 1993 1993 1993 1993 1993 1993 2005 2005 2005 2005 2005 2005 2005 2005 2005 2005 2005 2005 2005 2016 2016 2016 2016 2016 2028 2028 2028 1410 1410 1410 1410 1410 1410 1410 1410 1410 1410 1410 1410 1410 1410 1410 1415 1415 1415 1415 1415 1415 1421 2053 2053 2053 2028 2028 2028 2005 2005 2005 2005 2005 2005 2016 2028 2028 2028 2028 2028 2028 2040 2040 2028 2028 2028 2040 2040 2040 2028 2028 2016 2016 2028 2016 2016 2028 2028 2028 2028 2028 2028 2028 2040 2040 2040 2040 2040 2053 2053 1433 1433 1433 1427 1427 1427 1427 1427 1427 1427 1427 1427 1427 1427 1433 1433 1427 1427 1433 1433 1445 1445 1445 1445 1445 1452 1452 1433 1433 1433 1452 1452 1452 1452 1452 1452 1452 1458 1458 1458 1458 1458 1458 1458 1458 1458 1464 1464 1464 1464 1470 1470 1470 1470 1477 1477 1477 1477 1477 1483 1483 1483 1483 1483 1483 1483 1489 1483 1483 1489 1496 1496 1496 1496 1496 1496 1496 1496 1503 1503 1503 1509 1509 1516 1516 1523 1523 1523 1523 1523 1523 1529 1529 1529 1529 1529 1529 1529 1529 1529 1529 1536 1543 1543 1543 1543 0 0 0 0 4522 4522 4582 4582 4582 4582 4582 4582 4708 4774 4842 4842 4842 4842 4842 4842 4774 4774 4774 4774 4842 4842 4911 4911 4983 4983 4911 4911 4911 4349 4295 4241 4241 4241 4241 4241 4190 4190 4190 4190 4241 4241 4241 4241 0 0 0 0 0 0 0 0 0 4349 4349 4405 4405 4463 4522 4582 4582 4645 4582 4582 4522 4405 4349 4295 4295 4295 4295 4295 4911 4911 4911 4774 4295 4241 4241 4190 4139 4139 4139 4190 0 0 0 0 0 0 0 0 0 0 0 0
0 0 0 0 0 0 0 0 0 0 0 0 0 0 0 0 0 0 0 0 0 0 0 0 0 0 0 0 0 0 0 0 0 3994 3994 3994 3994 4190 4190 4295 4295 4295 4241 4241 4241 4241 4190 4190 4190 4190 4190 4190 4190 4190 4190 4190 4190 4190 4241 4241 4241 4241 4241 4295 4295 4190 4190 4241 4190 4190 4139 4139 4089 4089 4089 3037 3037 3064 3064 3064 3064 3064 3064 3064 3064 3064 2744 2723 2723 2744 2723 2723 2723 2723 2723 2723 2723 2723 2723 2723 2701 2701 2723 2723 2723 2723 2723 2744 2744 2744 2767 2767 2767 2767 2767 2767 2767 2767 2767 2767 2767 2767 2767 2767 2789 2789 2789 2789 2789 2789 2789 2789 2812 2812 2812 2812 2859 2859 2859 2883 2883 2908 2908 2933 2958 2984 2984 2984 2958 2933 2933 2908 2908 2908 2883 2883 2859 2859 2859 2859 2859 2859 2859 2859 2859 2859 2859 2859 2859 2859 2859 1970 1959 1959 1947 1936 1926 1904 1904 1904 1894 1894 1894 1894 1904 1904 1915 1915 1915 1915 1915 1915 1915 1915 1926 1915 1915 1915 1915 1926 1926 1926 1926 1936 1926 1926 1926 1936 1936 1936 1936 1926 1926 1936 1947 1936 1936 1936 1936 1936 1936 1936 1936 1947 1947 1947 1947 1947 1947 1947 1947 1947 1959 1959 1959 1959 1959 1959 1959 1959 1947 1947 1947 1947 1947 1947 1947 1947 1947 1947 1947 1947 1936 1936 1947 1936 1936 1947 1947 1947 1947 1959 1959 1959 1947 1947 1959 1959 1970 1970 1970 1970 1970 1970 1947 1947 1947 1947 1947 1959 1959 1959 1959 1959 1959 1959 1959 1959 1959 1959 1970 1970 1959 1959 1959 1959 1959 1959 1959 1959 1970 1970 1970 1970 1970 1970 1970 1970 1970 1970 1981 1981 1981 1981 1981 1993 1993 1993 1993 1993 1993 1981 1981 1981 1981 1981 1993 1993 1993 1981 1981 1993 1993 1993 1993 1993 1993 1993 1993 1993 1993 1993 1993 1993 1993 2005 2005 2005 2005 2005 1993 1993 1993 1993 2005 2005 2005 2005 2005 2005 2005 2005 2028 2028 1415 1410 1410 1410 1410 1410 1410 1410 1410 1410 1410 1410 1410 1410 1410 1410 1415 1415 1415 1415 1415 1415 2053 2028 2028 2016 2016 2016 2005 1993 1993 2005 2005 2005 2005 2016 2016 2016 2016 2016 2016 2028 2016 2016 2016 2016 2016 2028 2028 2016 2016 2016 2016 2016 2016 2016 2016 2016 2016 2028 2028 2016 2016 2028 2028 2028 2028 2028 2028 1433 1433 1433 1433 1427 1427 1427 1427 1427 1427 1427 1427 1427 1427 1427 1427 1433 1433 1433 1433 1433 1445 1445 1445 1445 1445 1452 1452 1433 1433 1433 1452 1452 1452 1452 1452 1458 1458 1458 1458 1458 1458 1458 1458 1458 1464 1464 1464 1464 1464 1470 1470 1470 1470 1470 1477 1477 1477 1477 1477 1483 1483 1483 1483 1483 1483 1483 1489 1489 1489 1489 1496 1496 1496 1496 1496 1496 1503 1503 1503 1503 1503 1509 1509 1516 1516 1523 1523 1523 1523 1529 1529 1529 1529 1529 1529 1529 1529 1529 1529 1536 1536 1536 1543 1543 1543 1550 0 0 0 0 4522 4522 4582 4582 4582 4582 4582 4582 4708 4774 4842 4842 4774 4774 4774 4774 4774 4774 4774 4774 4774 4842 4842 4911 4983 4983 4983 4983 4983 4295 4295 4241 4241 4241 4241 4241 4190 4190 4241 4241 4241 4295 4295 4295 0 0 0 0 0 0 0 4708 4645 4582 4582 4582 4582 4582 4582 4645 4645 4645 4645 4582 4522 4463 4349 4295 4295 4295 4295 4295 4295 4911 4911 4911 4295 4241 4241 4190 4139 4139 4139 4139 0 0 0 0 0 0 0 0 0 0 0 0
0 0 0 0 0 0 0 0 0 0 0 0 0 0 0 0 0 0 0 0 0 0 0 0 0 0 0 0 0 0 0 0 3948 3948 3948 3948 3994 3994 4139 4190 4190 4190 4241 4190 4190 4241 4190 4190 4190 4190 4190 4190 4190 4190 4190 4190 4190 4190 4190 4190 4190 4190 4241 4295 4295 4190 4190 4241 4190 4190 4089 4089 4089 4089 4089 3064 3064 3064 3064 3064 3064 3064 3064 3064 3064 3064 2744 2723 2723 2744 2744 2723 2723 2723 2723 2723 2723 2723 2723 2723 2701 2701 2723 2723 2723 2723 2723 2744 2744 2744 2744 2767 2767 2767 2767 2767 2767 2767 2767 2767 2767 2767 2767 2767 2789 2789 2789 2789 2789 2789 2789 2789 2812 2812 2812 2812 2859 2859 2859 2859 2883 2908 2908 2933 2958 2984 2984 2984 2958 2958 2933 2933 2933 2908 2883 2883 2859 2859 2859 2859 2859 2859 2859 2859 2859 2859 2859 2859 2859 2859 2859 1959 1959 1959 1936 1926 1904 1894 1894 1894 1894 1894 1894 1894 1894 1904 1904 1904 1904 1904 1904 1904 1904 1904 1904 1904 1904 1904 1915 1915 1915 1915 1915 1926 1926 1926 1926 1926 1926 1926 1915 1915 1915 1915 1915 1904 1904 1926 1926 1926 1936 1936 1926 1926 1926 1936 1936 1936 1936 1936 1936 1936 1936 1936 1947 1947 1947 1947 1947 1947 1936 1936 1936 1936 1936 1936 1936 1936 1936 1936 1936 1936 1936 1936 1936 1936 1936 1936 1936 1936 1947 1947 1936 1936 1936 1936 1947 1947 1959 1959 1959 1947 1947 1936 1936 1936 1936 1947 1947 1947 1947 1947 1947 1947 1936 1936 1947 1936 1936 1947 1947 1947 1947 1947 1947 1947 1947 1947 1947 1959 1959 1959 1959 1959 1959 1959 1959 1959 1959 1959 1970 1970 1981 1981 1981 1981 1981 1981 1981 1970 1970 1970 1970 1970 1970 1970 1981 1981 1981 1970 1970 1970 1970 1981 1981 1993 1993 1993 1993 1993 1993 1993 1993 1993 1993 1993 1993 1993 1993 1993 1993 1993 1993 1993 1981 1981 1993 1993 1993 2005 2005 2005 2005 1410 1410 1410 1410 1410 1410 1410 1410 1410 1410 1410 1410 1410 1410 1410 1410 1410 1410 1410 1415 1415 1415 1415 1415 2028 1981 1981 1970 1970 1970 1981 1981 1993 1993 1993 1993 2005 2005 2005 2005 2005 2005 2005 2005 1993 1993 2005 2005 2016 2016 2005 2005 2016 2016 2016 2016 2016 2005 2005 2016 2016 2016 2016 2016 2016 2016 2028 2028 2028 2028 1433 1433 1433 1433 1433 1433 1427 1427 1427 1427 1427 1427 1427 1427 1427 1427 1427 1433 1433 1433 1433 1439 1439 1439 1439 1445 1445 1445 1452 1452 1452 1452 1452 1452 1452 1452 1452 1458 1458 1458 1458 1458 1458 1458 1458 1458 1458 1464 1464 1464 1470 1470 1470 1470 1477 1477 1477 1477 1477 1477 1483 1483 1483 1483 1483 1483 1489 1489 1489 1489 1496 1496 1496 1496 1496 1503 1503 1503 1503 1503 1509 1509 1516 1516 1516 1516 1523 1523 1523 1523 1529 1529 1529 1529 1529 1536 1536 1536 1536 1536 1536 1536 1536 1543 1543 1550 1550 1550 0 4708 0 4582 4582 4582 4645 4582 4582 4582 4645 4708 4774 4842 4774 4774 4774 4774 4774 4708 4708 4708 4708 4774 4774 4774 4842 4911 4911 4911 4842 4842 4295 4241 4241 4241 4241 4241 4241 4241 4241 4241 4241 4295 4349 4349 4405 0 0 0 0 0 4708 4645 4645 4645 4645 4582 4582 4582 4645 4645 4645 4645 4645 4645 4582 4522 4463 4405 4295 4295 4295 4295 4295 4405 4708 4708 4522 4405 4241 4241 4190 4139 4139 4139 4139 0 0 0 0 0 0 0 0 0 0 0 0
0 0 0 0 0 0 0 0 0 0 0 0 0 0 0 0 0 0 0 0 0 0 0 0 0 0 0 0 0 0 0 0 3948 3948 3948 3948 3948 3994 4041 4139 4139 4139 4190 4139 4139 4190 4139 4139 4139 4139 4139 4139 4139 4139 4139 4139 4139 4139 4190 4139 4139 4190 4190 4190 4295 4241 4241 4241 4190 4139 4089 4089 4089 4089 4089 3064 3064 3064 3064 3064 3064 3064 3064 3064 3064 3064 2723 2723 2723 2723 2744 2744 2744 2744 2744 2744 2744 2723 2723 2723 2701 2701 2723 2723 2723 2723 2723 2744 2744 2744 2744 2767 2767 2767 2767 2767 2767 2767 2767 2767 2767 2767 2767 2767 2789 2789 2789 2789 2789 2789 2789 2812 2812 2812 2812 2812 2859 2859 2859 2859 2883 2908 2908 2933 2958 2984 3010 2984 2958 2958 2933 2933 2933 2908 2883 2883 2859 2859 2859 2859 2859 2859 2859 2859 2859 2859 2859 2859 2859 2859 2859 1959 1959 1959 1936 1926 1894 1894 1894 1894 1894 1883 1883 1894 1894 1894 1894 1894 1894 1894 1894 1894 1894 1894 1894 1894 1894 1894 1904 1904 1904 1904 1904 1904 1904 1904 1904 1904 1904 1904 1904 1904 1904 1904 1904 1904 1904 1915 1915 1915 1926 1926 1926 1926 1926 1926 1926 1926 1926 1926 1926 1894 1894 1894 1894 1894 1915 1915 1915 1915 1915 1915 1926 1926 1904 1894 1894 1904 1915 1915 1915 1915 1915 1926 1926 1926 1926 1926 1936 1936 1936 1936 1936 1936 1936 1936 1936 1936 1947 1936 1936 1936 1936 1936 1936 1936 1936 1936 1936 1936 1936 1936 1936 1936 1936 1936 1936 1926 1926 1936 1936 1936 1936 1936 1936 1936 1936 1936 1947 1947 1947 1947 1947 1947 1947 1947 1947 1947 1947 1947 1959 1970 1970 1970 1981 1981 1970 1970 1970 1959 1959 1959 1959 1959 1970 1970 1970 1970 1981 1970 1359 1359 1359 1359 1365 1981 1981 1993 1981 1981 1993 1993 1993 1365 1365 1981 1993 1993 1381 1381 1387 1387 1387 1392 1392 1392 1392 1392 1392 1398 1398 1398 1398 1410 1410 1410 1410 1410 1410 1410 1410 1410 1410 1410 1410 1410 1410 1410 1410 1410 1410 1410 1415 1415 1415 1415 1415 1959 1959 1959 1970 1970 1970 1970 1970 1981 1981 1981 1981 1993 2005 1993 1981 1981 1981 1981 1981 1981 1981 1981 1993 2005 2005 2005 2005 2005 2005 2005 2005 2005 2005 2005 2005 2005 2005 2005 2005 2005 2005 2016 2016 2016 2016 1433 1433 1433 1433 1433 1433 1427 1427 1427 1421 1421 1427 1427 1427 1427 1427 1427 1433 1433 1433 1433 1439 1439 1439 1439 1445 1445 1445 1452 1452 1452 1452 1452 1452 1452 1452 1452 1458 1458 1458 1458 1458 1458 1458 1458 1458 1458 1464 1464 1464 1470 1470 1470 1477 1477 1477 1477 1477 1483 1483 1483 1483 1483 1489 1489 1489 1489 1496 1496 1496 1496 1496 1496 1496 1503 1503 1503 1509 1509 1509 1509 1516 1516 1516 1523 1523 1523 1523 1523 1529 1529 1529 1529 1536 1536 1536 1536 1536 1536 1536 1536 1536 1536 1543 1543 1550 1550 0 0 4708 4708 4582 4582 4645 4645 4582 4582 4582 4645 4708 4774 4774 4774 4774 4774 4708 4708 4708 4708 4708 4708 4708 4708 4774 4774 4774 4842 4842 4708 4405 4295 4241 4241 4241 4241 4241 4295 4295 4295 4295 4295 4349 4349 4405 4582 0 0 0 0 4708 4645 4645 4645 4582 4582 4582 4582 4582 4582 4645 4645 4645 4645 4645 4582 4522 4463 4405 4295 4295 4295 4295 4349 4405 4405 4708 4463 4405 4295 4241 4139 4139 4139 4139 4139 0 0 0 0 0 0 0 0 0 0 0 0
0 0 0 0 0 0 0 0 0 0 0 0 0 0 0 0 0 0 0 0 0 0 0 0 0 0 0 0 0 0 0 3948 3948 3948 3948 3948 3948 3948 3994 4041 4089 4089 4089 4089 4139 4139 4139 4139 4139 4139 4139 4139 4139 4139 4139 4139 4139 4139 4139 4139 4139 4139 4190 4190 4190 4190 4190 4190 4190 4139 4089 4089 4089 4089 4089 3064 3064 3064 3064 3064 3064 3064 3064 3064 3064 3064 2723 2723 2723 2723 2744 2744 2744 2744 2744 2744 2744 2744 2744 2744 2723 2723 2723 2723 2723 2723 2723 2744 2744 2744 2767 2767 2767 2767 2767 2767 2767 2767 2767 2767 2767 2767 2767 2789 2789 2789 2789 2789 2789 2789 2789 2812 2812 2812 2812 2859 2859 2859 2859 2883 2883 2908 2908 2958 2984 3037 3037 2984 2984 2958 2933 2933 2933 2933 2908 2883 2859 2859 2859 2859 2859 2859 2859 2859 2859 2859 2859 2859 2859 2859 2859 2859 1993 1970 1947 1926 1894 1883 1883 1883 1873 1873 1873 1873 1883 1883 1873 1873 1883 1883 1883 1883 1883 1883 1883 1883 1883 1894 1894 1894 1894 1894 1894 1904 1904 1894 1894 1894 1894 1894 1904 1904 1904 1904 1904 1904 1904 1904 1904 1915 1915 1915 1915 1915 1883 1883 1883 1883 1883 1883 1883 1883 1883 1894 1894 1894 1904 1904 1904 1904 1904 1904 1904 1904 1904 1883 1883 1894 1904 1904 1904 1904 1915 1915 1904 1904 1904 1915 1915 1915 1926 1926 1926 1926 1926 1926 1936 1936 1947 1936 1936 1936 1312 1312 1317 1317 1926 1926 1926 1926 1926 1926 1926 1926 1926 1915 1915 1915 1915 1926 1926 1926 1926 1936 1936 1936 1936 1936 1936 1936 1936 1936 1947 1947 1947 1947 1947 1947 1936 1936 1947 1959 1970 1970 1970 1981 1970 1370 1365 1359 1359 1354 1354 1959 1970 1970 1970 1970 1970 1354 1354 1354 1359 1359 1359 1359 1359 1359 1359 1365 1365 1365 1365 1365 1365 1365 1365 1370 1376 1381 1387 1387 1387 1387 1392 1392 1392 1392 1392 1398 1398 1398 1398 1404 1410 1410 1410 1410 1410 1410 1410 1410 1410 1410 1410 1410 1410 1410 1410 1410 1410 1415 1415 1415 1415 1415 1926 1926 1959 1959 1959 1959 1959 1970 1970 1981 1981 1981 1981 1981 1981 1981 1981 1970 1970 1970 1970 1970 1970 1981 1981 1993 2005 1993 1993 1993 1993 1993 1993 1993 1993 1993 1993 1981 1981 1981 1993 1993 1993 1993 1993 2016 2016 1439 1433 1433 1439 1433 1433 1427 1427 1427 1421 1421 1427 1427 1427 1427 1427 1427 1433 1433 1433 1433 1439 1439 1439 1439 1445 1445 1445 1452 1452 1452 1452 1452 1452 1452 1452 1452 1458 1458 1458 1458 1458 1458 1458 1458 1458 1464 1464 1464 1470 1470 1470 1477 1477 1477 1477 1477 1483 1483 1483 1483 1483 1489 1489 1489 1489 1489 1496 1496 1496 1496 1496 1496 1503 1503 1503 1503 1509 1509 1509 1516 1516 1516 1516 1523 1523 1523 1529 1529 1529 1529 1529 1529 1536 1536 1543 1543 1543 1543 1543 1543 1543 1543 1543 1543 1550 0 1550 0 4708 4645 4645 4645 4645 4645 4645 4645 4645 4645 4774 4774 4774 4774 4774 4774 4708 4708 4708 4708 4708 4708 4708 4708 4708 4774 4774 4842 4774 4645 4405 4349 4295 4295 4295 4295 4295 4295 4349 4349 4349 4349 4405 4463 0 0 0 0 0 0 4645 4645 4645 4582 4582 4582 4522 4522 4522 4582 4582 4582 4645 4645 4645 4582 4522 4463 4405 4295 4295 4295 4295 4295 4349 4349 4405 4405 4349 4241 4190 4139 4139 4139 4139 4139 0 0 0 0 0 0 0 0 0 0 0 0
0 0 0 0 0 0 0 0 0 0 0 0 0 0 0 0 0 0 0 0 0 0 0 0 0 0 0 0 0 0 0 3948 3948 3948 3948 3948 3948 3948 3948 4041 4041 4041 4041 4041 4041 4139 4089 4089 4089 4139 4139 4139 4139 4139 4139 4190 4139 4139 4139 4089 4089 4139 4139 4139 4190 4190 4190 4190 4190 4139 4089 4089 4089 4089 3064 3064 3064 3064 3064 3064 3064 3064 3064 3064 3064 3064 2723 2723 2723 2723 2744 2744 2744 2744 2744 2744 2744 2744 2744 2744 2744 2744 2744 2744 2744 2744 2744 2744 2744 2744 2767 2767 2767 2767 2767 2767 2767 2767 2767 2767 2767 2789 2789 2789 2789 2789 2789 2789 2789 2789 2789 2812 2812 2835 2835 2859 2859 2859 2859 2883 2883 2908 2908 2958 2984 3037 3037 2984 2984 2958 2958 2933 2933 2933 2908 2908 2859 2859 2859 2859 2859 2859 2859 2859 2859 2859 2859 2859 2859 2859 2859 2859 2859 2016 1947 1926 1894 1883 1873 1873 1873 1863 1863 1873 1873 1863 1863 1863 1863 1873 1873 1873 1873 1873 1873 1873 1873 1883 1883 1883 1883 1894 1894 1883 1883 1883 1883 1883 1883 1883 1894 1894 1894 1894 1894 1894 1894 1894 1894 1904 1904 1904 1904 1873 1873 1873 1873 1873 1873 1873 1873 1873 1873 1873 1873 1873 1894 1894 1904 1904 1904 1904 1904 1894 1894 1873 1873 1873 1873 1883 1883 1894 1894 1904 1894 1894 1894 1894 1894 1894 1894 1894 1894 1915 1915 1926 1936 1936 1947 1947 1302 1302 1307 1307 1307 1312 1926 1926 1926 1915 1915 1915 1915 1904 1904 1904 1904 1904 1904 1915 1915 1915 1926 1926 1915 1915 1915 1915 1915 1915 1926 1926 1936 1936 1936 1936 1947 1322 1322 1322 1322 1959 1970 1970 1970 1970 1370 1370 1349 1349 1354 1349 1343 1343 1970 1970 1970 1349 1349 1349 1354 1354 1359 1354 1354 1354 1354 1354 1354 1359 1365 1365 1365 1365 1365 1365 1365 1370 1370 1381 1381 1387 1387 1387 1392 1392 1392 1392 1392 1398 1398 1398 1398 1404 1410 1410 1410 1410 1410 1410 1410 1410 1410 1410 1410 1410 1410 1410 1410 1410 1415 1415 1415 1421 1421 1421 1926 1926 1959 1959 1959 1959 1959 1959 1970 1970 1970 1970 1970 1970 1970 1970 1970 1959 1959 1959 1959 1970 1970 1970 1970 1970 1970 1993 1981 1981 1981 1981 1981 1981 1981 1970 1970 1970 1970 1970 1970 1970 1970 1959 1959 1970 1970 1439 1439 1439 1439 1433 1433 1427 1427 1427 1427 1427 1427 1427 1427 1427 1427 1427 1433 1433 1433 1439 1439 1439 1439 1445 1445 1445 1452 1452 1452 1452 1452 1452 1452 1452 1458 1458 1458 1458 1458 1458 1464 1464 1464 1464 1464 1464 1464 1470 1470 1477 1477 1477 1477 1477 1477 1477 1483 1483 1483 1483 1483 1489 1496 1496 1496 1496 1503 1496 1496 1496 1496 1496 1503 1503 1503 1509 1509 1509 1509 1516 1516 1516 1516 1523 1523 1529 1529 1529 1529 1536 1536 1536 1536 1543 1543 1543 1543 1550 1550 1550 1543 1543 1550 1550 1550 0 0 0 4645 4645 4645 4645 4708 4708 4708 4708 4708 4708 4774 4842 4774 4774 4774 4774 4708 4708 4708 4708 4708 4708 4708 4708 4708 4708 4708 4774 4774 4582 4463 4349 4295 4295 4295 4295 4295 4295 4405 4405 4463 4522 4582 4582 0 0 0 0 0 0 4645 4645 4582 4582 4582 4582 4522 4522 4522 4582 4582 4582 4645 4645 4582 4582 4522 4463 4405 4295 4295 4295 4295 4295 4349 4349 4241 4241 4241 4190 4190 4139 4139 4139 4139 4139 0 0 0 0 0 0 0 0 0 0 0 0
0 0 0 0 0 0 0 0 0 0 0 0 0 0 0 0 0 0 0 0 0 0 0 0 0 0 0 0 0 0 0 3948 3948 3948 3948 3948 3948 3948 3948 3994 3994 3994 4041 4041 4041 4041 4041 4041 4089 4089 4089 4089 4089 4089 4139 4089 4089 4089 4089 4041 4041 4089 4139 4139 4190 4190 4190 4190 3300 3300 3300 3300 3300 3208 3092 3092 3064 3064 3064 3064 3064 3064 3064 3064 3064 3064 3092 2723 2723 2744 2744 2744 2744 2744 2744 2744 2744 2744 2744 2744 2744 2744 2744 2744 2744 2744 2744 2744 2744 2744 2767 2767 2767 2767 2767 2767 2767 2767 2767 2767 2767 2789 2789 2789 2789 2789 2789 2789 2789 2789 2789 2812 2835 2835 2835 2859 2859 2859 2859 2883 2883 2908 2908 2958 2984 3037 3037 2984 2984 2984 2958 2933 2933 2933 2908 2908 2859 2859 2859 2859 2883 2883 2883 2883 2859 2859 2859 2859 2859 2859 2859 2859 2859 2908 2908 1926 1894 1883 1873 1873 1873 1863 1863 1863 1863 1863 1863 1863 1863 1863 1863 1863 1863 1863 1863 1863 1863 1863 1863 1863 1873 1873 1873 1873 1873 1873 1873 1873 1873 1873 1883 1883 1883 1883 1894 1894 1894 1894 1894 1894 1883 1863 1863 1863 1863 1863 1863 1863 1863 1863 1863 1863 1863 1873 1873 1873 1873 1883 1894 1894 1894 1894 1894 1883 1883 1873 1873 1873 1863 1863 1883 1883 1883 1883 1873 1873 1883 1883 1894 1894 1894 1894 1894 1915 1915 1288 1288 1288 1288 1288 1292 1297 1292 1292 1292 1292 1292 1926 1926 1915 1915 1915 1915 1904 1904 1894 1894 1894 1894 1894 1894 1894 1915 1915 1915 1915 1915 1904 1904 1904 1904 1926 1936 1333 1333 1328 1328 1322 1322 1322 1322 1328 1328 1328 1333 1333 1333 1338 1338 1338 1349 1349 1343 1343 1343 1349 1349 1349 1349 1349 1354 1354 1354 1354 1354 1354 1354 1354 1354 1359 1365 1365 1365 1365 1365 1365 1365 1370 1370 1381 1381 1381 1387 1387 1387 1387 1387 1392 1392 1398 1398 1398 1398 1404 1404 1410 1410 1410 1410 1410 1410 1410 1410 1410 1410 1410 1410 1410 1410 1415 1415 1415 1421 1427 1421 1421 1433 1926 1936 1936 1947 1947 1947 1959 1959 1959 1959 1959 1959 1959 1959 1959 1959 1959 1959 1959 1959 1959 1959 1959 1959 1959 1959 1959 1959 1970 1970 1959 1959 1959 1959 1959 1959 1959 1959 1959 1959 1959 1959 1926 1926 1926 1926 1445 1439 1439 1439 1439 1433 1433 1427 1427 1427 1427 1427 1427 1427 1427 1427 1433 1433 1433 1433 1439 1439 1439 1439 1445 1445 1445 1452 1452 1452 1452 1452 1452 1452 1458 1458 1458 1458 1458 1464 1464 1470 1470 1470 1470 1464 1464 1470 1470 1470 1477 1477 1477 1477 1477 1477 1483 1483 1483 1483 1489 1489 1489 1496 1496 1496 1496 1503 1496 1496 1496 1496 1503 1503 1509 1509 1509 1516 1516 1516 1516 1523 1523 1523 1523 1523 1529 1529 1529 1536 1536 1536 1536 1543 1543 1543 1550 1550 1550 1550 1550 1550 1550 1550 1550 1550 0 0 4582 4582 4582 4645 4645 4645 4645 4708 4645 4645 4645 4708 4774 4774 4708 4708 4708 4708 4708 4708 4708 4645 4645 4645 4645 4645 4708 4708 4708 4645 4522 4405 4349 4295 4295 4295 4295 4295 4295 4349 4349 4463 4582 4582 0 0 0 0 0 0 0 4645 4645 4582 4582 4582 4582 4582 4522 4522 4582 4582 4582 4582 4582 4582 4582 4463 4463 4405 4295 4295 4295 4241 4241 4349 4349 4349 4241 4241 4190 4190 4139 4139 4139 4139 4139 0 0 0 0 0 0 0 0 0 0 0 0
0 0 0 0 0 0 0 0 0 0 0 0 0 0 0 0 0 0 0 0 0 0 0 0 0 0 0 0 0 0 0 3948 3948 3948 3948 3948 3948 3948 3948 3994 3994 3994 3994 3994 3994 3994 3994 3994 3994 4041 4041 4041 4041 4041 4041 4041 4041 4041 4041 4041 4041 4089 4089 4139 4190 4190 4190 3300 3300 3300 0 3300 3300 3208 3208 3208 3092 3092 3064 3064 3064 3064 3064 3064 3064 3064 3092 2744 2744 2744 2767 2767 2767 2767 2744 2744 2744 2744 2744 2744 2744 2744 2744 2744 2744 2744 2744 2744 2744 2744 2767 2767 2767 2767 2767 2767 2767 2767 2767 2767 2767 2767 2767 2789 2789 2789 2789 2789 2789 2789 2789 2812 2812 2835 2859 2859 2859 2859 2859 2883 2883 2908 2908 2958 2984 3037 3064 3010 2984 2984 2958 2958 2958 2908 2908 2908 2883 2883 2883 2883 2883 2883 2883 2883 2883 2883 2883 2883 2883 2883 2883 2883 2883 2908 2908 1894 1894 1883 1873 1873 1863 1863 1863 1853 1853 1853 1853 1853 1853 1853 1863 1863 1863 1863 1853 1853 1853 1853 1853 1853 1853 1853 1853 1853 1853 1853 1853 1853 1863 1863 1863 1873 1873 1873 1883 1883 1883 1883 1883 1883 1873 1853 1853 1853 1853 1853 1853 1863 1863 1863 1863 1863 1863 1863 1863 1863 1873 1873 1883 1883 1883 1883 1873 1873 1873 1863 1863 1863 1863 1863 1863 1853 1853 1853 1853 1863 1873 1873 1883 1883 1894 1894 1894 1283 1283 1288 1288 1288 1288 1288 1292 1292 1292 1292 1292 1292 1292 1292 1915 1915 1915 1904 1904 1894 1894 1894 1894 1894 1894 1894 1894 1894 1915 1915 1915 1915 1333 1333 1333 1333 1328 1328 1328 1328 1328 1328 1328 1328 1328 1328 1328 1328 1328 1328 1333 1333 1333 1338 1338 1338 1343 1349 1343 1343 1343 1349 1349 1349 1349 1349 1354 1354 1354 1354 1354 1354 1354 1354 1354 1359 1365 1365 1365 1365 1365 1365 1365 1370 1370 1376 1381 1381 1387 1387 1387 1387 1387 1387 1392 1398 1398 1398 1398 1404 1404 1410 1410 1410 1410 1410 1410 1410 1410 1410 1410 1410 1410 1410 1415 1415 1415 1415 1421 1427 1427 1427 1433 1915 1915 1936 1936 1936 1936 1936 1936 1936 1936 1936 1947 1936 1936 1936 1947 1947 1947 1947 1947 1947 1959 1959 1947 1947 1959 1959 1947 1947 1926 1926 1926 1947 1947 1947 1947 1947 1947 1947 1947 1947 1947 1926 1926 1926 1926 1926 1439 1439 1439 1439 1433 1433 1427 1427 1427 1427 1427 1427 1427 1427 1433 1433 1433 1433 1433 1439 1439 1445 1445 1445 1445 1452 1452 1452 1452 1452 1458 1458 1458 1458 1458 1458 1458 1464 1464 1470 1470 1470 1470 1470 1470 1470 1470 1470 1470 1477 1477 1477 1477 1483 1483 1483 1483 1483 1489 1489 1489 1496 1496 1503 1503 1503 1503 1496 1496 1496 1503 1503 1503 1509 1509 1509 1516 1516 1523 1523 1523 1523 1523 1529 1529 1529 1536 1536 1536 1536 1543 1543 1543 1543 1543 1550 1550 1550 1550 1550 1550 1550 1550 1550 1550 0 0 4582 4582 4582 4582 4582 4582 4645 4645 4645 4645 4645 4645 4708 4708 4708 4708 4708 4645 4645 4645 4645 4645 4645 4645 4645 4645 4708 4708 4645 4582 4522 4405 4349 4295 4295 4295 4295 4295 4295 4349 4349 4463 4522 4582 0 0 0 0 0 0 0 0 4582 4582 4582 4582 4522 4522 4522 4522 4582 4582 4582 4582 4582 4522 4522 4463 4405 4405 4295 4241 4241 4241 4241 4295 4241 4241 4241 4241 4190 4139 4089 4089 4089 4089 4089 0 0 0 0 0 0 0 0 0 0 0 0
0 0 0 0 0 0 0 0 0 0 0 0 0 0 0 0 0 0 0 0 0 0 0 0 0 0 0 0 0 0 0 3994 3948 3948 3948 3948 3948 3948 3948 3994 3994 3994 3994 3994 3948 3948 3948 3948 3948 3948 3903 3903 3948 3994 3994 3948 3948 3994 3994 3994 3994 4041 4089 4139 4139 3300 3300 3300 3300 3300 3269 3300 3300 3300 3208 3208 3092 3092 3064 3064 3064 3064 3064 3064 3092 3092 3120 2744 2744 2767 2767 2767 2767 2767 2767 2744 2744 2744 2744 2744 2744 2744 2744 2744 2767 2767 2767 2744 2744 2767 2767 2767 2767 2767 2767 2767 2767 2767 2767 2767 2767 2767 2767 2789 2789 2789 2789 2789 2789 2789 2789 2812 2812 2812 2835 2859 2859 2859 2859 2883 2883 2883 2908 2933 3010 3064 3064 3010 2984 2984 2958 2908 2908 2908 2908 2908 2883 2883 2883 2883 2883 2883 2883 2883 2883 2883 2883 2883 2883 2883 2883 2883 2883 2908 2908 1981 1894 1883 1873 1863 1853 1853 1853 1843 1843 1833 1833 1843 1843 1843 1843 1843 1843 1853 1843 1843 1843 1833 1833 1843 1833 1833 1833 1833 1833 1833 1833 1833 1843 1843 1843 1853 1853 1863 1873 1873 1873 1873 1873 1863 1853 1843 1843 1843 1853 1853 1853 1853 1853 1853 1853 1853 1853 1853 1853 1853 1863 1863 1873 1873 1873 1863 1863 1863 1863 1863 1863 1853 1853 1853 1853 1853 1853 1843 1843 1853 1853 1853 1883 1883 1894 1288 1288 1283 1283 1288 1288 1288 1288 1288 1292 1292 1292 1292 1292 1292 1292 1292 1915 1915 1915 1904 1904 1894 1894 1894 1883 1883 1883 1883 1883 1904 1915 1322 1322 1322 1328 1328 1328 1328 1328 1328 1328 1328 1328 1328 1322 1322 1328 1328 1328 1328 1328 1333 1333 1333 1333 1338 1338 1338 1343 1343 1343 1343 1343 1349 1349 1349 1349 1349 1354 1354 1354 1349 1349 1354 1354 1354 1359 1359 1365 1365 1365 1365 1365 1365 1370 1370 1370 1376 1381 1381 1387 1387 1387 1387 1387 1387 1392 1398 1398 1398 1404 1404 1404 1410 1410 1410 1410 1410 1410 1410 1410 1410 1410 1410 1410 1410 1415 1415 1415 1415 1421 1427 1433 1433 1439 1904 1915 1915 1915 1915 1926 1926 1915 1915 1915 1915 1915 1915 1915 1915 1926 1926 1936 1926 1926 1926 1926 1926 1926 1926 1926 1936 1926 1915 1915 1926 1926 1926 1926 1926 1936 1936 1936 1936 1936 1936 1926 1915 1915 1915 1915 1915 1439 1439 1439 1439 1433 1433 1427 1427 1427 1427 1427 1427 1427 1427 1433 1433 1439 1439 1439 1439 1439 1445 1445 1445 1445 1452 1452 1452 1452 1452 1458 1458 1458 1458 1458 1458 1458 1464 1470 1470 1470 1477 1470 1470 1470 1470 1477 1477 1477 1477 1477 1477 1477 1483 1483 1483 1483 1483 1489 1489 1489 1496 1496 1503 1503 1503 1503 1496 1496 1503 1503 1503 1503 1509 1516 1516 1516 1523 1523 1523 1523 1523 1529 1529 1529 1536 1536 1536 1543 1543 1543 1543 1543 1550 1550 1550 1550 1550 1550 1550 1550 1550 1557 1557 1557 0 0 0 4582 4582 4582 4582 4582 4645 4645 4582 4582 4582 4582 4645 4645 4645 4645 4645 4645 4645 4645 4582 4582 4582 4582 4582 4645 4645 4645 4645 4582 4522 4405 4349 4295 4295 4295 4295 4295 4349 4405 4405 4463 4463 4522 0 0 0 0 0 0 0 0 4582 4522 4463 4463 4463 4522 4463 4463 4645 4582 4582 4582 4582 4522 4522 4463 4405 4405 4241 4241 4241 4241 4241 4241 4241 4241 4190 4190 4139 4139 4089 4089 4089 4089 4089 0 0 0 0 0 0 0 0 0 0 0 0
0 0 0 0 0 0 0 0 0 0 0 0 0 0 0 0 0 0 0 0 0 0 0 0 0 0 0 0 0 0 0 3994 3994 3994 3994 3994 3994 3948 3948 3948 3994 3994 3948 3948 3948 3948 3948 3948 3948 3948 3903 3903 3948 3994 3948 3948 3948 3994 3994 3948 3948 3994 4089 3269 3269 3269 3269 3269 3269 3269 3269 3269 3269 3269 3238 3178 3092 3092 3064 3064 3064 3064 3064 3064 3092 3092 3120 2744 2744 2767 2767 2767 2767 2767 2767 2744 2744 2744 2744 2744 2744 2744 2744 2744 2767 2767 2767 2767 2767 2767 2767 2767 2767 2767 2767 2767 2767 2767 2767 2767 2767 2767 2767 2789 2789 2789 2789 2789 2789 2789 2789 2789 2812 2812 2835 2835 2859 2859 2859 2883 2883 2883 2908 2933 3010 3037 3064 3010 3010 2984 2984 2908 2908 2908 2908 2908 2883 2883 2883 2883 2883 2883 2883 2883 2883 2883 2883 2883 2883 2883 2883 2859 2859 2859 1993 1981 1981 1981 1873 1853 1853 1843 1833 1823 1823 1823 1823 1823 1833 1833 1833 1833 1833 1833 1833 1823 1823 1823 1823 1823 1823 1823 1823 1823 1823 1823 1823 1833 1833 1833 1833 1833 1843 1853 1853 1853 1853 1863 1863 1853 1843 1843 1843 1843 1843 1853 1853 1853 1853 1853 1853 1853 1853 1853 1843 1843 1853 1853 1853 1853 1853 1853 1853 1853 1853 1853 1843 1843 1843 1843 1843 1843 1843 1843 1843 1843 1843 1853 1853 1292 1292 1288 1288 1283 1283 1288 1288 1288 1288 1288 1292 1292 1292 1292 1292 1292 1292 1292 1297 1312 1904 1894 1894 1883 1883 1883 1883 1883 1883 1883 1317 1317 1317 1317 1322 1322 1322 1322 1322 1322 1322 1328 1328 1322 1322 1322 1322 1322 1328 1328 1328 1328 1333 1333 1333 1333 1333 1333 1338 1338 1343 1343 1343 1343 1343 1349 1349 1349 1349 1349 1354 1354 1354 1349 1349 1354 1354 1354 1359 1359 1365 1365 1365 1365 1365 1365 1370 1370 1370 1381 1381 1381 1387 1387 1387 1387 1392 1392 1392 1398 1398 1404 1404 1404 1404 1410 1410 1410 1410 1410 1410 1410 1410 1410 1410 1410 1410 1415 1415 1415 1415 1421 1421 1427 1433 1433 1904 1904 1904 1904 1904 1904 1904 1904 1904 1904 1904 1904 1915 1904 1904 1915 1915 1915 1915 1926 1926 1926 1926 1926 1926 1915 1915 1915 1904 1904 1904 1904 1904 1915 1915 1915 1915 1904 1904 1904 1904 1915 1915 1904 1904 1915 1915 1452 1445 1445 1445 1439 1439 1433 1433 1427 1427 1427 1427 1433 1433 1433 1433 1433 1439 1439 1439 1439 1439 1445 1445 1445 1445 1452 1452 1452 1458 1458 1458 1458 1458 1458 1458 1458 1458 1464 1470 1470 1470 1477 1477 1477 1477 1477 1477 1477 1477 1477 1477 1483 1483 1483 1483 1483 1483 1483 1489 1489 1496 1496 1503 1503 1503 1503 1503 1503 1503 1503 1503 1503 1509 1516 1516 1516 1523 1523 1523 1523 1523 1529 1529 1529 1529 1536 1536 1543 1543 1543 1543 1543 1543 1550 1550 1550 1550 1550 1550 1550 1557 1557 1557 1557 1557 0 0 0 4582 4582 4582 4582 4582 4582 4645 4582 4582 4582 4582 4645 4645 4645 4645 4645 4582 4582 4582 4582 4582 4522 4522 4522 4582 4582 4582 4582 4522 4463 4405 4349 4349 4295 4295 4349 4349 4349 4405 4405 4463 4463 4522 0 0 0 0 0 0 0 0 4522 4522 4463 4463 4463 4522 4463 4463 4582 4582 4582 4582 4522 4522 4522 4405 4405 4405 4241 4241 4241 4241 4241 4241 4190 4190 4190 4190 4139 4139 4089 4089 4089 4089 4089 0 0 0 0 0 0 0 0 0 0 0 0
0 0 0 0 0 0 0 0 0 0 0 0 0 0 0 0 0 0 0 0 0 0 0 0 0 0 0 0 0 0 0 3994 3994 3994 3994 3994 3994 3948 3948 3948 3948 3948 3948 3948 3948 3948 3948 3948 3948 3948 3903 3903 3948 3948 3948 3948 3948 3994 3994 3948 3948 3994 3994 3269 3269 3269 3269 3269 3269 3269 3269 3269 3238 3238 3238 3149 3149 3092 3064 3064 3064 3064 3064 3064 3064 3092 3092 2767 2767 2767 2767 2767 2767 2767 2767 2767 2744 2744 2767 2744 2744 2744 2744 2767 2767 2767 2767 2767 2767 2767 2767 2767 2767 2767 2767 2767 2767 2767 2767 2767 2767 2767 2789 2789 2789 2789 2789 2789 2789 2789 2789 2789 2812 2812 2835 2835 2859 2859 2859 2883 2883 2883 2908 2958 2984 3037 3037 3010 3010 2984 2984 2908 2908 2933 2933 2908 2908 2883 2883 2883 2883 2883 2883 2883 2883 2883 2883 2883 2883 2883 2859 2859 2859 2859 1993 1993 1993 1981 1873 1853 1853 1823 1823 1813 1813 1813 1813 1813 1813 1823 1823 1823 1823 1823 1823 1813 1813 1823 1823 1823 1823 1823 1823 1823 1823 1823 1823 1823 1823 1823 1823 1833 1833 1843 1843 1843 1843 1823 1823 1823 1823 1823 1823 1833 1843 1843 1843 1843 1843 1843 1843 1843 1843 1843 1843 1843 1843 1833 1833 1833 1833 1833 1833 1843 1843 1843 1833 1833 1833 1833 1833 1833 1833 1833 1833 1843 1843 1843 1843 1292 1292 1288 1288 1288 1283 1283 1283 1283 1283 1288 1288 1288 1288 1292 1292 1292 1292 1292 1292 1297 1904 1894 1894 1883 1883 1883 1883 1883 1312 1312 1312 1312 1317 1317 1317 1317 1322 1322 1322 1322 1322 1322 1322 1322 1322 1322 1322 1322 1328 1328 1328 1328 1333 1333 1333 1333 1333 1333 1338 1338 1343 1343 1343 1343 1343 1349 1349 1349 1349 1349 1354 1354 1354 1349 1349 1354 1359 1359 1359 1359 1365 1365 1365 1365 1365 1365 1370 1370 1376 1381 1381 1387 1387 1387 1387 1387 1392 1392 1392 1398 1398 1404 1404 1404 1410 1410 1410 1410 1410 1410 1410 1410 1410 1415 1415 1415 1415 1415 1415 1421 1421 1421 1427 1433 1433 1439 1894 1894 1904 1894 1894 1894 1904 1904 1904 1904 1894 1894 1894 1894 1894 1894 1904 1904 1904 1915 1915 1915 1915 1915 1915 1915 1915 1915 1904 1904 1904 1904 1904 1904 1904 1904 1904 1894 1894 1904 1904 1904 1904 1904 1904 1904 1926 1452 1452 1452 1445 1439 1439 1433 1433 1433 1433 1433 1433 1433 1433 1433 1433 1433 1445 1445 1445 1445 1445 1445 1445 1452 1452 1452 1452 1452 1458 1458 1458 1458 1458 1458 1458 1458 1458 1464 1470 1470 1477 1477 1477 1477 1477 1477 1477 1477 1477 1477 1483 1483 1483 1483 1483 1483 1489 1489 1489 1496 1496 1496 1503 1503 1503 1509 1509 1503 1503 1503 1503 1503 1509 1516 1516 1516 1523 1523 1523 1523 1529 1529 1529 1536 1536 1536 1543 1543 1550 1550 1550 1550 1550 1550 1550 1550 1550 1550 1550 1550 1557 1557 1550 1550 1557 0 0 1557 4582 4582 4582 4522 4522 4582 4645 4582 4582 4582 4582 4582 4582 4582 4582 4645 4582 4582 4582 4522 4522 4522 4522 4522 4522 4522 4522 4522 4522 4463 4405 4349 4349 4349 4349 4349 4349 4405 4463 4463 4463 4522 4522 4645 4645 0 0 0 4522 4522 4463 4463 4463 4463 4463 4463 4522 4522 4522 4582 4582 4582 4582 4522 4522 4522 4405 4405 4349 4295 4295 4295 4241 4241 4241 4190 4190 4190 4190 4139 4139 4139 4139 4139 4139 4139 0 0 0 0 0 0 0 0 0 0 0 0
0 0 0 0 0 0 0 0 0 0 0 0 0 0 0 0 0 0 0 0 0 0 0 0 0 0 0 0 0 0 0 4041 3994 3994 3948 3948 3948 3948 3948 3948 3948 3948 3948 3948 3948 3948 3948 3948 3948 3948 3903 3903 3948 3948 3948 3948 3948 3948 3948 3948 3948 3948 3238 3238 3238 3269 3238 3238 3238 3238 3238 3208 3208 3208 3269 3149 3092 3092 3064 3064 3064 3064 3064 3064 3064 3092 3092 2767 2767 2767 2767 2767 2767 2767 2767 2767 2744 2744 2767 2767 2744 2744 2744 2767 2767 2767 2767 2767 2767 2767 2767 2767 2767 2767 2767 2767 2767 2767 2767 2767 2767 2789 2789 2789 2789 2789 2789 2789 2789 2789 2789 2789 2812 2812 2835 2835 2859 2859 2883 2883 2883 2883 2908 2933 2984 3010 3037 3010 3010 2984 2984 2908 2908 2933 2933 2933 2908 2883 2883 2908 2908 2883 2883 2883 2883 2883 2883 2883 2883 2883 2859 2859 2859 2859 1993 1993 1993 1981 1981 1981 1981 1804 1804 1804 1813 1813 1813 1813 1813 1813 1813 1813 1813 1813 1813 1813 1813 1813 1813 1813 1813 1813 1813 1813 1813 1813 1823 1823 1823 1823 1823 1823 1823 1833 1833 1833 1833 1804 1804 1804 1813 1823 1823 1823 1833 1833 1833 1843 1843 1843 1843 1833 1833 1833 1823 1823 1823 1823 1823 1823 1823 1823 1823 1823 1823 1823 1813 1813 1813 1813 1813 1813 1813 1813 1813 1833 1833 1833 0 1292 1292 1288 1288 1283 1283 1283 1283 1283 1283 1283 1288 1288 1288 1292 1292 1292 1292 1292 1292 1297 1302 1307 1312 1312 1312 1312 1312 1312 1312 1312 1312 1312 1312 1312 1317 1317 1322 1322 1322 1322 1322 1322 1322 1322 1322 1322 1322 1322 1328 1328 1328 1328 1333 1333 1333 1333 1333 1338 1338 1338 1343 1343 1343 1343 1343 1349 1349 1349 1354 1354 1354 1354 1359 1354 1354 1354 1359 1359 1359 1359 1365 1365 1365 1365 1365 1365 1370 1376 1376 1381 1381 1387 1387 1387 1387 1392 1392 1392 1392 1398 1404 1404 1404 1404 1410 1410 1410 1410 1410 1410 1410 1410 1410 1415 1415 1415 1415 1415 1415 1421 1421 1427 1427 1433 1433 1439 1873 1883 1883 1883 1883 1883 1883 1883 1883 1883 1894 1894 1894 1894 1894 1883 1883 1883 1883 1883 1904 1915 1915 1915 1904 1904 1904 1904 1894 1894 1894 1894 1904 1904 1904 1894 1894 1894 1894 1883 1883 1883 1883 1873 1873 1904 1452 1452 1452 1452 1452 1445 1445 1439 1439 1433 1433 1433 1433 1433 1433 1433 1439 1439 1452 1452 1452 1452 1452 1452 1452 1452 1452 1458 1458 1458 1458 1458 1458 1458 1464 1464 1464 1464 1464 1464 1470 1477 1477 1477 1477 1477 1477 1477 1477 1483 1483 1483 1483 1483 1483 1489 1489 1489 1489 1489 1496 1496 1503 1503 1503 1503 1509 1509 1509 1503 1503 1503 1503 1509 1516 1516 1523 1523 1523 1523 1523 1523 1529 1529 1529 1536 1536 1543 1550 1550 1550 1550 1550 1550 1550 1550 1550 1550 1550 1550 1550 1550 1557 1557 1550 1550 1550 0 0 0 0 0 4582 4463 4463 4582 4645 4522 4522 4522 4522 4582 4522 4522 4522 4522 4522 4522 4522 4522 4463 4463 4463 4463 4463 4463 4463 4463 4463 4405 4349 4295 4295 4295 4295 4349 4349 4405 4463 4463 4463 4463 4463 4463 4463 4463 4582 4645 4522 4522 4463 4463 4463 4463 4405 4405 4405 4349 4349 4582 4582 4582 4582 4522 4522 4522 4405 4405 4349 4295 4295 4295 4241 4241 4241 4190 4190 4190 4190 4139 4139 4139 4139 4139 4139 4139 0 0 0 0 0 0 0 0 0 0 0 0
0 0 0 0 0 0 0 0 0 0 0 0 0 0 0 0 0 0 0 0 0 0 0 0 0 0 0 0 0 0 0 3994 3994 3994 3948 3948 3903 3903 3903 3948 3948 3948 3948 3948 3948 3948 3948 3948 3948 3948 3903 3903 3948 3948 3948 3948 3903 3903 3948 3948 3948 3948 3238 3238 3238 3238 3238 3238 3238 3238 3208 3178 3178 3178 3120 3120 3092 3092 3064 3064 3064 3064 3064 3092 3092 3092 3120 2789 2789 2789 2767 2767 2767 2767 2767 2767 2744 2744 2744 2744 2744 2744 2744 2744 2744 2744 2767 2767 2767 2767 2767 2767 2767 2767 2767 2767 2767 2767 2767 2767 2767 2789 2789 2789 2789 2789 2789 2789 2789 2789 2789 2789 2812 2812 2835 2859 2859 2859 2883 2883 2883 2883 2908 2933 2984 3010 3037 3037 3010 2984 2984 2958 2958 2958 2958 2958 2933 2908 2908 2908 2908 2908 2908 2908 2908 2908 2908 2883 2883 2883 2883 2859 2859 2859 1981 1981 1981 1993 1993 2005 2005 1794 1794 1794 1794 1785 1785 1794 1794 1804 1794 1794 1794 1804 1804 1794 1794 1794 1794 1794 1794 1794 1794 1794 1804 1804 1804 1794 1794 1823 1823 1823 1823 1823 1823 1794 1794 1794 1794 1794 1794 1794 1794 1804 1813 1823 1813 1813 1813 1823 1823 1823 1823 1823 1823 1823 1823 1813 1813 1813 1813 1813 1813 1813 1813 1813 1804 1804 1813 1813 1804 1804 1804 1813 1813 1813 1813 1813 1292 1288 1288 1288 1288 1283 1283 1283 1283 1283 1283 1283 1288 1288 1288 1292 1292 1292 1292 1292 1292 1297 1302 1302 1307 1307 1307 1307 1312 1312 1312 1312 1312 1312 1312 1312 1317 1317 1317 1317 1322 1322 1322 1322 1322 1322 1322 1322 1322 1322 1328 1328 1328 1333 1333 1333 1333 1333 1333 1338 1338 1338 1343 1343 1343 1343 1343 1349 1349 1349 1354 1354 1354 1359 1359 1354 1354 1354 1359 1359 1359 1359 1365 1365 1365 1370 1370 1370 1370 1376 1376 1381 1381 1387 1387 1387 1392 1392 1392 1392 1392 1398 1404 1404 1404 1410 1410 1410 1410 1410 1410 1410 1415 1415 1415 1415 1415 1415 1415 1415 1421 1421 1427 1427 1427 1433 1439 1445 1863 1863 1863 1863 1863 1873 1873 1873 1873 1873 1883 1883 1883 1873 1873 1873 1873 1883 1873 1873 1873 1873 1873 1904 1904 1904 1904 1883 1873 1873 1873 1873 1873 1883 1873 1873 1883 1873 1873 1873 1873 1873 1873 1873 1873 1873 1452 1452 1452 1452 1452 1445 1445 1439 1439 1439 1433 1433 1433 1433 1433 1439 1439 1445 1452 1452 1452 1452 1452 1458 1458 1458 1458 1458 1458 1458 1464 1464 1464 1464 1464 1470 1470 1464 1464 1470 1477 1477 1477 1477 1477 1477 1483 1483 1483 1483 1483 1489 1489 1489 1489 1496 1496 1496 1496 1496 1503 1503 1503 1503 1503 1503 1509 1509 1509 1503 1503 1509 1509 1516 1516 1523 1523 1523 1523 1523 1529 1529 1529 1536 1536 1543 1543 1550 1550 1550 1550 1550 1550 1550 1550 1550 1550 1550 1550 1550 1550 1550 1557 1557 1557 1557 1557 0 1863 1863 1863 0 4463 4463 4463 4463 4522 4522 4522 4522 4522 4582 4522 4522 4522 4522 4522 4522 4463 4463 4463 4463 4463 4463 4463 4463 4463 4463 4463 4405 4349 4295 4295 4295 4295 4349 4349 4405 4405 4405 4405 4463 4463 4463 4463 4463 4405 4405 4463 4463 4463 4349 4349 4405 4405 4349 4349 4349 0 0 4582 4582 4582 4522 4522 4522 4405 4405 4349 4349 4349 4349 4295 4295 4295 4295 4241 4190 4190 4190 4139 4139 4139 4139 4139 4139 0 0 0 0 0 0 0 0 0 0 0 0
0 0 0 0 0 0 0 0 0 0 0 0 0 0 0 0 0 0 0 0 0 0 0 0 0 0 0 0 0 0 0 3994 3994 3994 3948 3948 3903 3903 3903 3948 3948 3948 3948 3948 3948 3948 3948 3948 3948 3948 3903 3903 3948 3948 3948 3948 3903 3903 3948 3816 3816 3816 3238 3238 3238 3238 3208 3208 3208 3208 3208 3178 3178 3149 3120 3120 3092 3092 3064 3064 3064 3064 3092 3092 3092 3092 3120 2789 2789 2789 2789 2789 2789 2767 2767 2767 2767 2767 2744 2744 2744 2744 2744 2744 2744 2744 2744 2767 2767 2767 2767 2767 2767 2767 2767 2767 2767 2767 2767 2767 2789 2789 2789 2789 2789 2789 2789 2789 2789 2789 2789 2789 2812 2812 2835 2835 2835 2859 2859 2883 2883 2883 2908 2933 2984 2984 3064 3037 3010 2984 2984 2958 2958 2958 2958 2958 2933 2908 2908 2908 2908 2908 2908 2908 2908 2908 2908 2883 2883 2883 2883 2883 2883 1981 1981 1981 1981 1993 1993 2005 2016 1794 1794 1794 1785 1785 1785 1785 1785 1785 1776 1776 1785 1785 1785 1785 1785 1785 1785 1785 1785 1785 1785 1794 1794 1794 1794 1785 1785 1785 1785 1785 1785 1785 1785 1785 1785 1785 1785 1785 1785 1785 1785 1794 1794 1794 1794 1794 1794 1804 1804 1813 1813 1813 1813 1813 1813 1813 1804 1804 1804 1804 1813 1813 1813 1794 1794 1794 1794 1794 1804 1804 1804 1804 1804 1804 1813 1813 1292 1292 1288 1288 1288 1283 1283 1283 1283 1283 1283 1283 1288 1288 1288 1292 1292 1292 1292 1292 1297 1297 1302 1302 1307 1307 1307 1307 1312 1312 1312 1312 1312 1312 1312 1312 1317 1317 1317 1317 1322 1322 1322 1322 1322 1322 1322 1322 1322 1322 1328 1328 1328 1333 1333 1333 1333 1333 1338 1338 1338 1338 1343 1343 1343 1349 1349 1349 1349 1354 1354 1354 1354 1359 1359 1354 1354 1354 1359 1359 1359 1365 1365 1365 1370 1370 1370 1370 1376 1381 1381 1381 1381 1387 1387 1387 1392 1392 1392 1398 1398 1404 1404 1410 1410 1410 1410 1410 1415 1415 1415 1415 1415 1415 1415 1415 1421 1421 1421 1421 1421 1427 1427 1427 1427 1433 1439 1445 1464 1853 1853 1863 1853 1853 1873 1873 1873 1873 1873 1873 1873 1873 1873 1873 1873 1873 1863 1863 1853 1853 1853 1853 1853 1853 1863 1863 1863 1863 1863 1863 1863 1863 1863 1863 1863 1863 1873 1873 1873 1873 1863 1863 1863 1863 1452 1452 1452 1452 1452 1445 1445 1445 1445 1439 1439 1433 1433 1439 1439 1445 1445 1445 1452 1452 1458 1458 1458 1458 1458 1458 1458 1458 1458 1458 1464 1464 1464 1464 1470 1470 1470 1470 1477 1477 1477 1477 1477 1477 1477 1477 1483 1483 1483 1489 1489 1489 1489 1489 1496 1496 1496 1496 1503 1503 1503 1503 1503 1503 1509 1509 1509 1509 1509 1503 1503 1509 1509 1516 1516 1523 1523 1523 1523 1523 1529 1529 1536 1543 1543 1550 1550 1557 1557 1557 1550 1550 1550 1550 1550 1550 1550 1550 1550 1557 1557 1557 1557 1557 1564 1564 1863 1863 1863 1863 1863 0 1863 0 0 1863 1863 0 1863 4645 4645 4645 4645 4582 4582 4582 4522 4463 4463 4463 4405 4405 4463 4463 4463 4463 4463 4463 4463 4405 4349 4295 4295 4295 4295 4349 4405 4405 4405 4405 4405 4405 4405 4405 4405 4405 4405 4405 4405 4405 4405 4349 4349 4405 4349 4349 4349 4349 4295 4295 4295 4582 4582 4522 4522 4522 4463 4405 4349 4349 4349 4349 4349 4241 4241 4241 4241 4241 4190 4190 4190 4139 4139 4139 4139 4139 0 0 0 0 0 0 0 0 0 0 0 0
0 0 0 0 0 0 0 0 0 0 0 0 0 0 0 0 0 0 0 0 0 0 0 0 0 0 0 0 0 0 0 3994 3994 3994 3948 3948 3903 3903 3903 3903 3948 3948 3948 3948 3948 3948 3948 3948 3948 3948 3948 3948 3994 3994 3903 3903 3859 3859 3816 3816 3816 3816 3816 3208 3208 3208 3208 3208 3208 3178 3178 3149 3149 3120 3120 3120 3092 3064 3064 3064 3064 3064 3064 3092 3092 3092 3092 2789 2789 2789 2789 2789 2767 2767 2767 2767 2767 2767 2744 2744 2723 2723 2744 2744 2744 2744 2744 2767 2767 2767 2767 2767 2767 2767 2767 2767 2767 2767 2767 2767 2789 2789 2789 2789 2789 2789 2789 2789 2789 2789 2789 2812 2812 2812 2835 2835 2835 2859 2859 2859 2883 2883 2908 2908 2958 2984 3010 3037 3010 3010 2984 2958 2958 2958 2958 2958 2933 2908 2908 2908 2908 2908 2908 2908 2883 2883 2883 2883 2883 2883 2883 2883 2883 1981 1981 1993 1993 1993 2005 2005 2005 1794 1794 1785 1785 1776 1776 1776 1776 1776 1776 1776 1776 1776 1776 1776 1776 1776 1776 1776 1776 1785 1785 1785 1785 1785 1785 1776 1776 1776 1776 1776 1776 1776 1776 1776 1776 1776 1785 1785 1785 1785 1785 1785 1785 1785 1785 1785 1785 1785 1794 1794 1794 1804 1804 1804 1804 1804 1794 1794 1794 1794 1804 1804 1794 1785 1785 1785 1785 1785 1794 1794 1794 1794 1794 1794 1794 1794 1292 1292 1288 1288 1283 1283 1283 1283 1283 1283 1283 1283 1288 1288 1288 1292 1292 1292 1292 1292 1297 1297 1302 1302 1307 1307 1307 1307 1312 1312 1312 1312 1312 1312 1312 1312 1312 1317 1317 1317 1322 1322 1322 1322 1322 1322 1322 1322 1328 1328 1328 1328 1333 1333 1333 1333 1333 1338 1338 1338 1338 1338 1343 1343 1343 1349 1349 1354 1354 1354 1354 1354 1359 1359 1359 1359 1359 1359 1359 1359 1365 1365 1365 1365 1370 1370 1376 1376 1376 1381 1381 1381 1381 1387 1387 1387 1392 1392 1392 1404 1404 1404 1410 1410 1410 1410 1410 1415 1415 1415 1415 1415 1421 1415 1415 1421 1421 1421 1421 1421 1427 1427 1427 1427 1427 1433 1439 1445 1464 1843 1843 1853 1853 1853 1863 1863 1873 1873 1873 1873 1863 1863 1863 1853 1853 1853 1853 1853 1843 1843 1843 1843 1843 1853 1853 1853 1853 1853 1843 1843 1843 1843 1843 1843 1853 1853 1853 1863 1863 1863 1853 1853 1853 1853 1452 1452 1452 1458 1452 1452 1445 1445 1445 1445 1439 1439 1445 1445 1445 1445 1445 1452 1458 1458 1458 1458 1458 1458 1464 1464 1458 1458 1464 1464 1470 1470 1470 1470 1470 1477 1477 1477 1477 1477 1477 1477 1477 1477 1477 1477 1483 1483 1489 1489 1489 1489 1489 1489 1496 1496 1503 1503 1503 1503 1509 1503 1503 1509 1509 1509 1509 1509 1509 1503 1503 1516 1516 1523 1523 1523 1523 1523 1529 1529 1529 1536 1543 1550 1550 1557 1557 1557 1557 1557 1557 1550 1550 1550 1550 1550 1550 1557 1557 1557 1557 1557 1557 1564 1863 1863 1863 1863 1863 1863 1863 1863 1863 1863 1863 1863 1863 1863 0 0 0 4645 4645 4582 4582 4463 4463 4463 4463 4463 4405 4405 4463 4463 4463 4463 4463 4463 4349 4349 4349 4295 4295 4295 4295 4349 4405 4405 4349 4349 4405 4405 4405 4405 4349 4349 4349 4349 4349 4349 4349 4349 4349 4349 4349 4349 4295 4295 4295 4295 4295 4582 4582 4522 4522 4582 4522 4463 4349 4349 4349 4349 4349 4241 4241 4241 4241 4241 4241 4190 4190 4190 4190 4139 4139 4139 0 0 0 0 0 0 0 0 0 0 0 0
0 0 0 0 0 0 0 0 0 0 0 0 0 0 0 0 0 0 0 0 0 0 0 0 0 0 0 0 0 0 0 3994 3948 3948 3859 3859 3859 3903 3903 3903 3903 3903 3903 3903 3903 3903 3903 3903 3903 3948 3948 3948 3994 3994 3903 3903 3859 3859 3816 3816 3816 3816 3816 3208 3178 3178 3178 3178 3178 3178 3149 3149 3120 3092 3092 3092 3092 3064 3064 3064 3064 3064 3064 3064 3092 3092 2859 2812 2789 2789 2789 2767 2767 2767 2767 2767 2744 2744 2744 2744 2723 2723 2744 2744 2744 2744 2744 2767 2767 2767 2767 2767 2767 2767 2767 2767 2767 2767 2767 2767 2789 2789 2789 2789 2789 2789 2789 2789 2789 2812 2812 2812 2812 2835 2835 2859 2859 2859 2859 2859 2883 2883 2908 2908 2958 2984 3010 3037 3010 3010 2984 2958 2958 2958 2958 2958 2933 2908 2908 2908 2908 2908 2908 2883 2883 2883 2883 2859 2859 2883 2883 2908 2908 1981 1981 1981 1993 1993 1993 1993 1993 2016 1785 1776 1776 1766 1766 1766 1766 1766 1766 1766 1766 1766 1766 1766 1776 1776 1776 1776 1776 1776 1776 1766 1766 1766 1766 1766 1766 1766 1766 1766 1766 1776 1776 1776 1776 1776 1776 1776 1776 1776 1776 1776 1785 1785 1785 1785 1785 1785 1785 1785 1794 1794 1794 1794 1794 1794 1794 1785 1785 1785 1794 1794 1794 1776 1776 1776 1776 1785 1785 1785 1785 1785 1785 1785 1794 1794 1288 1288 1288 1288 1283 1283 1283 1283 1283 1283 1283 1283 1288 1288 1288 1292 1292 1292 1292 1292 1297 1297 1302 1307 1307 1307 1307 1307 1312 1312 1312 1312 1312 1312 1312 1312 1312 1317 1317 1317 1322 1322 1322 1322 1322 1322 1322 1322 1328 1328 1328 1328 1333 1333 1333 1333 1338 1338 1338 1343 1343 1343 1343 1343 1343 1349 1349 1354 1354 1354 1354 1354 1359 1359 1359 1359 1359 1359 1359 1359 1365 1365 1365 1370 1370 1376 1376 1376 1381 1387 1387 1387 1387 1387 1392 1392 1392 1392 1398 1404 1404 1404 1410 1410 1410 1410 1410 1415 1415 1415 1415 1415 1421 1421 1421 1421 1421 1421 1427 1427 1427 1433 1433 1433 1433 1433 1433 1445 1464 1843 1843 1843 1843 1843 1853 1853 1863 1863 1863 1863 1863 1853 1853 1853 1853 1843 1843 1843 1843 1843 1843 1843 1843 1843 1843 1843 1843 1843 1833 1833 1843 1843 1843 1843 1843 1843 1843 1853 1853 1853 1843 1843 1853 1853 1452 1452 1458 1458 1452 1452 1452 1452 1452 1445 1445 1445 1445 1445 1445 1445 1445 1452 1458 1458 1458 1458 1458 1464 1464 1464 1464 1464 1464 1464 1470 1470 1470 1477 1477 1477 1477 1477 1477 1477 1477 1477 1477 1477 1477 1477 1483 1489 1489 1496 1496 1496 1496 1496 1503 1503 1503 1503 1509 1509 1509 1509 1509 1509 1509 1509 1509 1509 1516 1516 1516 1523 1523 1523 1523 1529 1529 1529 1529 1529 1579 1579 1579 1579 1579 1572 1572 1572 1564 1557 1557 1557 1557 1557 1557 1557 1557 1557 1557 1557 1564 1564 1564 1564 1853 1843 1843 1853 1853 1853 1853 1853 1853 1863 1863 1863 1863 1863 1873 1873 0 0 4645 4645 4645 4463 4463 4463 4463 4463 4463 4463 4463 4463 4463 4463 4405 4349 4349 4349 4349 4295 4295 4295 4295 4349 4405 4405 4349 4349 4349 4349 4349 4349 4349 4295 4295 4349 4349 4349 4349 4349 4349 4349 4349 4349 4295 4295 4295 4295 4295 4463 4463 4463 4522 4522 4522 4463 4349 4349 4349 4349 4295 4295 4241 4241 4241 4241 4190 4190 4190 4190 4190 4139 4139 4139 0 0 0 0 0 0 0 0 0 0 0 0
0 0 0 0 0 0 0 0 0 0 0 0 0 0 0 0 0 0 0 0 0 0 0 0 0 0 0 0 0 0 0 3903 3903 3903 3859 3859 3816 3816 3816 3816 3816 3816 3816 3816 3859 3859 3859 3859 3903 3903 3948 3994 4041 4041 3948 3948 3948 3948 3859 3859 3816 3816 3816 3178 3178 3178 3178 3149 3149 3149 3120 3120 3120 3092 3092 3092 3092 3064 3064 3064 3064 3064 3064 3064 3092 3092 2859 2789 2789 2789 2789 2767 2767 2767 2767 2767 2744 2744 2767 2744 2744 2744 2744 2744 2744 2744 2767 2767 2767 2767 2767 2767 2767 2767 2767 2767 2767 2767 2767 2767 2789 2789 2789 2789 2789 2789 2789 2789 2789 2812 2812 2835 2835 2835 2859 2859 2859 2859 2883 2883 2883 2908 2908 2933 2958 2984 3010 3064 3120 3064 3010 2984 2958 2958 2958 2958 2908 2908 2908 2908 2908 2908 2908 2883 2883 2883 2883 2859 2859 2883 2883 2908 2908 1981 1981 1981 1993 1993 1993 1993 1993 2005 1785 1766 1757 1757 1757 1748 1748 1748 1748 1748 1748 1748 1748 1748 1748 1757 1757 1766 1766 1757 1757 1757 1757 1757 1757 1757 1766 1766 1766 1766 1766 1766 1766 1766 1766 1766 1776 1776 1776 1776 1776 1776 1776 1776 1776 1776 1776 1776 1785 1785 1785 1785 1785 1785 1794 1785 1785 1785 1785 1785 1785 1785 1785 1766 1766 1776 1776 1776 1776 1776 1776 1776 1776 1766 1766 1766 1288 1288 1288 1288 1288 1283 1283 1283 1283 1283 1283 1283 1288 1288 1288 1292 1292 1292 1292 1292 1297 1302 1302 1307 1307 1307 1307 1307 1312 1312 1312 1312 1312 1312 1312 1312 1317 1317 1317 1317 1322 1322 1322 1322 1322 1322 1322 1328 1328 1328 1333 1333 1333 1338 1338 1338 1338 1338 1338 1343 1343 1343 1349 1349 1349 1349 1349 1354 1354 1354 1354 1354 1359 1365 1365 1365 1365 1365 1365 1365 1365 1365 1370 1370 1370 1376 1376 1381 1387 1387 1387 1387 1387 1387 1392 1392 1392 1398 1404 1404 1410 1410 1410 1410 1410 1410 1410 1415 1415 1415 1415 1415 1421 1421 1421 1421 1421 1421 1427 1427 1427 1433 1433 1433 1433 1433 1433 1464 1833 1833 1843 1843 1843 1843 1843 1853 1853 1853 1853 1853 1843 1843 1843 1833 1833 1833 1833 1833 1833 1833 1833 1833 1833 1833 1833 1843 1833 1823 1823 1833 1833 1833 1833 1833 1833 1843 1843 1843 1843 1853 1843 1843 1843 1458 1452 1452 1458 1458 1452 1452 1452 1452 1452 1452 1445 1445 1445 1445 1445 1445 1445 1452 1458 1458 1464 1464 1464 1464 1464 1464 1464 1464 1470 1470 1477 1477 1477 1477 1477 1477 1477 1477 1477 1477 1477 1477 1477 1477 1477 1477 1483 1489 1489 1496 1496 1496 1496 1496 1503 1503 1503 1503 1509 1509 1509 1509 1516 1509 1509 1509 1509 1523 1523 1516 1516 1523 1523 1523 1523 1529 1823 1823 1823 1579 1579 1579 1579 1579 1579 1579 1572 1572 1564 1557 1557 1557 1557 1557 1557 1557 1557 1557 1557 1564 1564 1564 1564 1833 1843 1843 1843 1843 1853 1853 1853 1853 1853 1853 1853 1853 1853 1863 1873 1873 0 0 0 0 4463 4463 4463 4463 4463 4463 4463 4463 4463 4463 4463 4405 4405 4349 4349 4349 4349 4295 4295 4295 4295 4349 4349 4349 4349 4349 4349 4349 4349 4349 4349 4295 4295 4295 4295 4295 4295 4295 4295 4295 4295 4295 4241 4241 4241 4190 4190 4190 4463 4463 4522 4522 4522 4522 4295 4295 4295 4295 4241 4241 4241 4241 4241 4241 4190 4190 4190 4190 4139 4139 4139 4139 0 0 0 0 0 0 0 0 0 0 0 0
0 0 0 0 0 0 0 0 0 0 0 0 0 0 0 0 0 0 0 0 0 0 0 0 0 0 0 0 0 0 0 3859 3859 3859 3859 3859 3816 3816 3816 3816 3816 3816 3816 3816 3859 3859 3859 3859 3903 3903 3903 3948 3948 3994 3948 3948 3948 3903 3859 3859 3859 3859 3859 3178 3178 3178 3149 3149 3149 3149 3120 3120 3120 3092 3092 3092 3092 3092 3064 3064 3064 3064 3064 3092 3064 3064 2859 2789 2789 2789 2789 2767 2767 2767 2767 2767 2767 2767 2767 2767 2744 2744 2744 2744 2744 2744 2744 2744 2767 2767 2767 2767 2767 2767 2767 2767 2767 2767 2789 2789 2789 2789 2789 2789 2812 2812 2812 2812 2812 2812 2835 2835 2835 2835 2859 2859 2859 2859 2883 2883 2883 2908 2908 2933 2958 2984 3010 3064 3120 3092 3037 2984 2958 2958 2958 2958 2908 2908 2908 2908 2908 2908 2908 2883 2883 2883 2883 2883 2883 2883 2908 2908 2908 1981 1981 1981 1981 1993 1993 1993 1993 1993 1785 1757 1748 1748 1748 1748 1739 1739 1739 1739 1739 1739 1739 1748 1748 1748 1748 1748 1748 1748 1748 1748 1748 1748 1748 1748 1748 1748 1748 1748 1748 1748 1748 1748 1748 1739 1739 1748 1766 1766 1766 1766 1766 1766 1766 1766 1766 1766 1766 1766 1776 1776 1776 1776 1785 1785 1776 1776 1776 1776 1776 1776 1776 1766 1766 1766 1766 1766 1766 1766 1776 1776 1776 1757 1757 1748 1748 1748 1288 1288 1288 1283 1283 1283 1283 1283 1283 1288 1288 1288 1292 1292 1292 1297 1297 1297 1297 1302 1302 1307 1307 1307 1307 1307 1312 1312 1312 1312 1312 1312 1312 1317 1317 1317 1317 1322 1322 1322 1322 1322 1328 1328 1328 1328 1328 1333 1333 1333 1338 1338 1338 1338 1343 1343 1343 1343 1343 1343 1349 1349 1349 1349 1354 1354 1354 1354 1359 1359 1365 1365 1365 1365 1365 1365 1365 1365 1365 1370 1370 1370 1376 1376 1381 1381 1387 1387 1387 1387 1387 1387 1392 1392 1392 1398 1404 1410 1410 1410 1410 1410 1410 1410 1410 1415 1415 1421 1421 1421 1421 1421 1421 1421 1427 1427 1427 1433 1433 1433 1433 1439 1439 1439 1813 1813 1823 1823 1833 1833 1833 1833 1833 1843 1843 1833 1813 1804 1804 1823 1823 1823 1813 1813 1823 1823 1823 1833 1833 1833 1833 1833 1833 1833 1813 1813 1813 1813 1813 1813 1823 1823 1823 1823 1833 1833 1833 1843 1833 1833 1833 1458 1458 1458 1458 1458 1458 1452 1452 1452 1452 1452 1452 1445 1445 1445 1445 1445 1452 1452 1458 1464 1464 1464 1464 1464 1464 1464 1464 1464 1470 1470 1477 1477 1477 1477 1477 1477 1477 1477 1477 1477 1483 1477 1477 1477 1477 1477 1483 1483 1483 1496 1496 1496 1496 1496 1503 1503 1503 1503 1509 1509 1509 1509 1523 1529 1823 1823 1823 1813 1813 1823 1823 1823 1823 1813 1813 1813 1813 1813 1823 1579 1579 1579 1579 1579 1579 1579 1572 1572 1564 1557 1557 1557 1557 1557 1557 1557 1557 1557 1564 1564 1564 1586 1823 1833 1833 1833 1833 1843 1843 1853 1853 1853 1853 1853 1853 1853 1853 1863 1863 1863 1873 0 0 0 4463 0 4463 4405 4405 4463 4463 4463 4463 4463 4463 4405 4405 4349 4349 4349 4349 4295 4295 4295 4295 4349 4349 4349 4349 4349 4295 4295 4295 4295 4295 4295 4295 4295 4295 4295 4241 4241 4241 4295 4295 4241 4241 4241 4190 4190 4190 4190 4190 4241 4295 4463 4463 4522 4295 4241 4241 4241 4241 4241 4241 4241 4190 4190 4190 4190 4190 4190 4139 4139 4139 4139 0 0 0 0 0 0 0 0 0 0 0 0
0 0 0 0 0 0 0 0 0 0 0 0 0 0 0 0 0 0 0 0 0 0 0 0 0 0 0 0 0 0 0 3816 3816 3816 3816 3816 3816 3816 3774 3774 3816 3816 3816 3816 3859 3859 3859 3859 3903 3903 3903 3948 3948 3994 3816 3816 3903 3859 3859 3859 3816 3816 3816 3149 3149 3149 3149 3120 3120 3120 3120 3120 3120 3092 3092 3092 3092 3092 3064 3064 3064 3064 3064 3092 3064 3064 3092 2789 2789 2789 2789 2767 2767 2767 2767 2767 2767 2767 2767 2767 2744 2744 2744 2744 2744 2744 2744 2744 2767 2767 2767 2767 2767 2767 2767 2789 2789 2789 2789 2789 2789 2789 2789 2789 2812 2812 2812 2812 2812 2835 2835 2835 2835 2835 2859 2859 2859 2859 2883 2883 2883 2883 2908 2908 2958 2958 3010 3064 3149 3120 3064 2984 2984 2958 2958 2958 2908 2908 2908 2908 2908 2908 2908 2883 2883 2883 2883 2883 2883 2883 2908 2908 2933 2933 1981 1981 1981 1993 1993 1981 1981 1981 1981 1757 1739 1739 1739 1739 1739 1739 1739 1739 1739 1739 1739 1739 1739 1739 1739 1739 1739 1739 1739 1739 1739 1739 1739 1739 1739 1739 1739 1739 1739 1739 1739 1739 1739 1739 1739 1739 1739 1739 1739 1748 1748 1748 1748 1757 1757 1757 1757 1757 1748 1748 1757 1757 1757 1748 1748 1748 1748 1748 1748 1757 1757 1757 1757 1757 1757 1766 1757 1757 1766 1766 1757 1748 1748 1739 1739 1739 1739 1288 1288 1283 1283 1288 1283 1283 1288 1288 1292 1292 1292 1292 1292 1297 1297 1297 1302 1302 1307 1307 1307 1312 1312 1312 1312 1312 1312 1312 1312 1312 1317 1317 1317 1317 1317 1322 1322 1322 1328 1328 1328 1328 1328 1328 1333 1333 1333 1338 1338 1338 1338 1343 1343 1343 1343 1349 1349 1349 1349 1349 1349 1349 1354 1354 1354 1354 1359 1359 1365 1365 1365 1365 1365 1365 1365 1365 1370 1370 1370 1370 1381 1381 1381 1387 1392 1392 1392 1392 1392 1392 1392 1392 1398 1404 1404 1410 1410 1410 1410 1410 1410 1415 1415 1415 1415 1421 1427 1421 1421 1427 1427 1427 1427 1427 1433 1433 1433 1433 1433 1439 1439 1439 1804 1804 1804 1813 1823 1823 1823 1823 1823 1823 1813 1813 1804 1804 1804 1823 1823 1813 1813 1813 1813 1823 1823 1823 1823 1823 1823 1813 1813 1813 1804 1804 1804 1804 1804 1804 1813 1813 1813 1813 1823 1823 1823 1833 1823 1823 1823 1458 1458 1458 1458 1458 1458 1452 1452 1452 1452 1452 1452 1452 1452 1452 1452 1452 1452 1452 1458 1464 1464 1464 1464 1464 1464 1464 1464 1464 1470 1470 1477 1477 1477 1483 1483 1483 1483 1483 1483 1483 1483 1483 1483 1483 1477 1477 1483 1477 1477 1496 1496 1503 1503 1503 1503 1503 1509 1509 1509 1509 1509 1509 1529 1804 1813 1813 1813 1813 1813 1813 1813 1813 1813 1813 1813 1813 1813 1813 1823 1833 1579 1579 1579 1579 1579 1579 1572 1572 1564 1557 1557 1557 1557 1557 1557 1557 1557 1557 1564 1564 1572 1586 1823 1823 1833 1833 1833 1833 1843 1843 1853 1853 1853 1863 1863 1853 1853 1863 1863 1863 1863 0 0 0 0 0 0 4405 4405 4463 4463 4405 4405 4463 4463 4405 4405 4349 4349 4349 4349 4295 4295 4295 4295 4349 4349 4349 4295 4241 4241 4241 4241 4295 4295 4241 4241 4241 4241 4241 4190 4190 4190 4190 4241 4241 4190 4190 4190 4139 4089 4089 4139 4190 4241 4295 4295 4295 4295 4241 4241 4241 4190 4190 4190 4241 4190 4190 4190 4190 4190 4190 4139 4139 4139 4139 0 0 0 0 0 0 0 0 0 0 0 0
0 0 0 0 0 0 0 0 0 0 0 0 0 0 0 0 0 0 0 0 0 0 0 0 0 0 0 0 0 0 0 3774 3774 3816 3816 3816 3774 3774 3774 3774 3774 3774 3816 3816 3859 3859 3859 3859 3859 3903 3903 3948 3948 3948 3816 3816 3859 3859 3816 3816 3816 3816 3816 3120 3120 3120 3120 3120 3120 3092 3092 3092 3092 3092 3092 3092 3092 3092 3064 3064 3064 3064 3064 3092 3064 3064 3064 2789 2789 2789 2789 2767 2767 2767 2767 2767 2767 2767 2767 2767 2744 2744 2744 2744 2744 2744 2744 2767 2767 2767 2767 2767 2767 2767 2767 2789 2767 2767 2789 2789 2789 2789 2789 2789 2812 2812 2812 2812 2812 2835 2835 2835 2835 2859 2859 2859 2859 2859 2883 2883 2883 2883 2883 2908 2933 2958 2984 3064 3120 3120 3092 3010 2984 2984 2958 2958 2933 2933 2908 2908 2933 2908 2908 2908 2883 2883 2883 2883 2883 2883 2908 2908 2933 2933 1981 1981 1993 1993 1993 1981 1981 1981 1970 1970 1739 1739 1739 1731 1731 1731 1731 1731 1731 1722 1722 1722 1722 1731 1731 1731 1731 1731 1731 1731 1731 1731 1731 1731 1731 1731 1739 1739 1739 1739 1739 1731 1722 1722 1722 1722 1722 1722 1731 1731 1731 1739 1739 1748 1748 1748 1748 1739 1739 1739 1739 1739 1748 1739 1739 1739 1739 1739 1739 1739 1739 1731 1731 1739 1739 1739 1739 1739 1739 1739 1739 1739 1739 1739 1739 1739 1739 1288 1288 1288 1288 1288 1288 1288 1288 1292 1292 1292 1292 1292 1292 1297 1297 1302 1302 1307 1307 1307 1307 1312 1312 1312 1312 1312 1312 1317 1317 1317 1317 1317 1317 1317 1317 1322 1322 1328 1328 1328 1333 1333 1333 1333 1333 1333 1338 1338 1338 1343 1343 1343 1343 1343 1343 1349 1349 1349 1349 1349 1354 1354 1354 1354 1354 1359 1359 1359 1365 1370 1370 1370 1370 1370 1370 1370 1370 1370 1376 1381 1381 1381 1387 1392 1392 1392 1392 1392 1392 1392 1392 1398 1398 1404 1410 1410 1410 1410 1410 1415 1415 1415 1415 1415 1421 1427 1427 1427 1427 1427 1427 1427 1427 1433 1433 1433 1433 1433 1439 1439 1439 1439 1794 1794 1794 1804 1804 1804 1804 1794 1794 1804 1794 1794 1794 1794 1794 1794 1804 1804 1804 1804 1804 1804 1804 1813 1813 1813 1813 1804 1804 1804 1794 1794 1794 1804 1804 1804 1804 1804 1813 1813 1813 1804 1804 1823 1823 1823 1470 1458 1458 1458 1458 1458 1458 1452 1452 1452 1452 1452 1452 1452 1452 1452 1452 1452 1452 1458 1464 1464 1470 1470 1464 1464 1464 1464 1464 1470 1470 1470 1477 1477 1477 1483 1483 1483 1483 1483 1483 1483 1483 1794 1804 1804 1794 1794 1794 1477 1477 1496 1496 1503 1503 1509 1509 1509 1516 1804 1804 1804 1804 1804 1804 1804 1804 1804 1804 1804 1804 1813 1813 1804 1804 1804 1804 1813 1813 1813 1813 1823 1579 1579 1579 1579 1579 1579 1579 1572 1564 1564 1557 1557 1564 1564 1564 1564 1564 1564 1564 1572 1579 1823 1823 1823 1823 1833 1833 1833 1833 1843 1843 1853 1853 1853 1853 1853 1853 1863 1863 1863 1853 1853 0 0 0 0 0 4295 4295 4349 4349 4349 4405 4405 4405 4349 4349 4349 4349 4349 4295 4295 4295 4295 4295 4349 4349 4349 4295 4241 4241 4241 4241 4295 4295 4241 4241 4241 4241 4241 4190 4190 4190 4190 4190 4190 4139 4139 4139 4139 4089 4089 4089 4190 4190 4190 4190 4295 4241 4190 4190 4139 4139 4139 4139 4190 4190 4190 4190 4190 4190 4139 4139 4139 4139 4139 0 0 0 0 0 0 0 0 0 0 0 0
0 0 0 0 0 0 0 0 0 0 0 0 0 0 0 0 0 0 0 0 0 0 0 0 0 0 0 0 0 0 0 3732 3732 3774 3774 3774 3774 3774 3774 3774 3774 3774 3774 3774 3816 3816 3816 3816 3859 3859 3903 3903 3732 3732 3732 3859 3859 3816 3816 3816 3816 3816 3816 3120 3120 3120 3120 3120 3120 3092 3092 3092 3092 3092 3092 3092 3092 3064 3064 3064 3064 3064 3064 3064 3064 3064 3064 2789 2789 2789 2789 2789 2767 2767 2767 2767 2767 2767 2767 2767 2767 2744 2744 2744 2744 2744 2767 2767 2767 2767 2767 2767 2767 2767 2767 2789 2767 2767 2789 2789 2789 2789 2789 2789 2789 2812 2812 2812 2812 2835 2835 2835 2859 2859 2859 2859 2859 2859 2883 2883 2883 2883 2883 2908 2933 2958 2984 3037 3120 3120 3037 3010 2984 2984 2958 2958 2933 2933 2933 2933 2933 2908 2908 2908 2908 2883 2883 2883 2883 2883 2908 2908 2908 1981 1981 1981 1981 1981 1993 1981 1981 1981 1959 1959 1731 1731 1731 1731 1722 1722 1722 1722 1722 1713 1713 1713 1713 1713 1713 1722 1722 1722 1722 1722 1722 1722 1722 1722 1722 1722 1722 1722 1722 1713 1713 1713 1713 1713 1722 1722 1713 1713 1722 1722 1722 1731 1731 1739 1739 1739 1739 1731 1731 1722 1722 1731 1731 1731 1731 1731 1731 1731 1731 1731 1731 1731 1731 1731 1731 1731 1731 1731 1731 1731 1731 1731 1731 1739 1731 1731 1731 1288 1288 1288 1288 1288 1288 1288 1288 1292 1292 1292 1292 1292 1292 1297 1302 1302 1302 1307 1307 1307 1312 1312 1312 1312 1312 1312 1312 1317 1317 1317 1317 1317 1317 1322 1322 1328 1328 1328 1328 1328 1333 1333 1333 1333 1338 1338 1338 1343 1343 1343 1343 1343 1343 1349 1349 1349 1349 1349 1354 1354 1354 1354 1359 1359 1359 1359 1359 1365 1365 1370 1370 1370 1370 1370 1370 1370 1370 1370 1381 1381 1387 1387 1387 1392 1392 1392 1392 1392 1392 1392 1398 1398 1404 1404 1410 1410 1410 1415 1415 1415 1415 1415 1415 1421 1421 1427 1433 1427 1427 1433 1427 1427 1433 1433 1433 1433 1433 1439 1439 1439 1439 1439 1785 1785 1785 1785 1794 1794 1785 1776 1776 1785 1776 1776 1785 1785 1785 1794 1794 1804 1804 1804 1804 1804 1804 1804 1804 1804 1794 1794 1794 1794 1785 1785 1794 1794 1794 1794 1794 1804 1804 1804 1804 1794 1794 1794 1794 1794 1470 1464 1464 1464 1458 1458 1458 1452 1452 1452 1452 1452 1452 1452 1452 1452 1452 1452 1458 1458 1464 1470 1470 1470 1470 1470 1470 1470 1470 1470 1470 1477 1483 1483 1483 1483 1483 1483 1483 1794 1794 1794 1794 1794 1794 1794 1794 1794 1794 1794 1804 1804 1804 1804 1804 1804 1804 1804 1794 1794 1794 1794 1794 1794 1794 1804 1804 1804 1804 1794 1794 1804 1804 1804 1804 1794 1794 1804 1804 1804 1813 1813 1579 1579 1579 1579 1579 1579 1579 1572 1564 1564 1564 1564 1564 1564 1564 1564 1564 1564 1564 1572 1586 1823 1823 1823 1823 1833 1833 1833 1833 1843 1843 1853 1853 1853 1853 1853 1853 1863 1863 1863 1853 1853 0 0 0 0 4241 4241 4295 4295 4295 4295 4349 4295 4295 4295 4295 4295 4295 4295 4295 4295 4349 4349 4349 4349 4349 4349 4295 4241 4241 4241 4241 4241 4241 4241 4241 4241 4241 4241 4190 4190 4190 4190 4190 4190 4139 4139 4139 4139 4089 4089 4089 4190 4190 4190 4089 4089 4139 4139 4089 4089 4089 4139 4139 4190 4190 4190 4139 4139 4139 4139 4139 4139 4089 4089 0 0 0 0 0 0 0 0 0 0 0 0
0 0 0 0 0 0 0 0 0 0 0 0 0 0 0 0 0 0 0 0 0 0 0 0 0 0 0 0 0 0 0 3692 3692 3732 3774 3692 3692 3732 3732 3732 3732 3732 3732 3774 3774 3774 3816 3774 3774 3816 3816 3692 3692 3692 3732 3816 3816 3816 3816 3816 3816 3816 3816 3092 3092 3120 3120 3120 3092 3092 3092 3092 3064 3064 3064 3064 3120 3064 3064 3064 3064 3064 3064 3064 3064 3064 3064 2812 2812 2789 2789 2789 2789 2789 2789 2789 2767 2767 2767 2767 2767 2767 2767 2767 2767 2767 2767 2767 2767 2767 2767 2767 2767 2767 2789 2789 2789 2789 2789 2789 2789 2789 2789 2789 2789 2812 2812 2812 2812 2835 2835 2835 2859 2859 2859 2859 2859 2859 2883 2883 2883 2883 2883 2908 2933 2958 2984 3010 3092 3064 3010 2984 2984 2958 2958 2958 2933 2933 2933 2933 2933 2933 2908 2908 2908 2908 2908 2883 2883 2883 2908 2908 2908 1981 1981 1981 1981 1981 1993 1993 1981 1981 1959 1959 1731 1722 1722 1722 1722 1722 1722 1713 1713 1713 1713 1713 1713 1713 1705 1705 1713 1713 1713 1713 1705 1705 1713 1713 1713 1713 1713 1705 1705 1705 1705 1705 1705 1713 1713 1713 1713 1713 1713 1713 1713 1713 1722 1722 1722 1722 1722 1722 1722 1722 1722 1722 1722 1722 1722 1722 1722 1722 1722 1722 1722 1713 1713 1713 1713 1713 1713 1722 1722 1722 1722 1722 1731 1731 1731 1731 1731 1288 1288 1288 1292 1292 1288 1288 1292 1292 1292 1292 1292 1297 1297 1302 1302 1302 1307 1307 1307 1312 1312 1312 1312 1312 1312 1317 1317 1317 1317 1317 1322 1322 1322 1322 1322 1322 1328 1328 1328 1328 1328 1333 1338 1338 1338 1338 1343 1343 1343 1343 1343 1343 1349 1349 1349 1349 1349 1354 1354 1354 1354 1354 1359 1359 1359 1359 1359 1365 1370 1370 1370 1370 1370 1370 1370 1370 1376 1376 1381 1381 1387 1387 1387 1392 1392 1398 1398 1398 1398 1398 1398 1404 1404 1410 1410 1410 1410 1415 1415 1415 1415 1415 1421 1421 1421 1427 1433 1433 1433 1433 1433 1433 1433 1433 1433 1439 1439 1439 1439 1445 1445 1445 1776 1776 1776 1776 1776 1776 1776 1776 1776 1776 1776 1776 1776 1785 1785 1785 1794 1794 1794 1794 1794 1794 1794 1794 1785 1785 1776 1776 1785 1785 1785 1785 1785 1785 1785 1785 1785 1794 1785 1785 1785 1785 1785 1776 1776 1776 1470 1470 1470 1464 1464 1464 1458 1458 1452 1452 1452 1452 1452 1452 1452 1452 1452 1452 1458 1458 1464 1470 1470 1470 1470 1470 1470 1470 1470 1470 1470 1477 1483 1483 1483 1794 1785 1785 1785 1785 1785 1785 1785 1785 1785 1794 1794 1794 1794 1794 1794 1794 1794 1794 1794 1794 1794 1794 1794 1794 1794 1794 1794 1794 1794 1794 1794 1794 1794 1794 1794 1794 1794 1794 1794 1794 1794 1804 1804 1804 1813 1813 1579 1579 1579 1579 1579 1579 1579 1572 1572 1564 1564 1564 1564 1564 1564 1564 1564 1564 1572 1579 1823 1823 1823 1823 1823 1833 1833 1833 1833 1843 1843 1853 1853 1853 1853 1853 1853 1863 1853 1853 1853 1853 0 0 0 0 4241 4241 4241 4241 4241 4241 4295 4241 4241 4295 4295 4295 4295 4295 4295 4295 4349 4349 4349 4349 4349 4349 4241 4241 4241 4241 4241 4241 4241 4241 4241 4241 4241 4241 4190 4190 4190 4190 4190 4190 4139 4139 4190 4139 4139 4139 4139 4139 4139 4089 4041 4041 4089 4139 4089 4089 4041 4041 4139 4139 4139 4139 4139 4139 4139 4139 4139 4139 4089 4089 0 0 0 0 0 0 0 0 0 0 0 0
0 0 0 0 0 0 0 0 0 0 0 0 0 0 0 0 0 0 0 0 0 0 0 0 0 0 0 0 0 0 0 3692 3692 3692 3732 3692 3692 3732 3732 3732 3732 3732 3732 3732 3732 3732 3692 3692 3732 3692 3692 3653 3653 3692 3692 3774 3816 3816 3816 3816 3816 3816 3092 3092 3092 3092 3120 3120 3092 3092 3092 3092 3064 3064 3064 3064 3120 3064 3064 3064 3064 3092 3092 3064 3064 3064 3064 3064 2812 2789 2789 2789 2789 2767 2767 2767 2767 2767 2767 2767 2767 2767 2767 2767 2767 2767 2767 2767 2767 2767 2767 2789 2789 2789 2789 2789 2789 2789 2789 2789 2789 2789 2789 2789 2789 2812 2812 2812 2835 2835 2835 2859 2859 2859 2859 2859 2859 2883 2883 2883 2883 2883 2908 2933 2933 2958 2984 3010 3010 3010 2984 2984 2984 2958 2958 2958 2933 2933 2933 2933 2933 2933 2933 2908 2908 2908 2908 2908 2883 2883 2908 2908 2908 2908 1981 1981 1981 1981 1993 1993 1981 1970 1959 1947 1947 1722 1722 1722 1713 1713 1713 1713 1713 1705 1705 1705 1705 1705 1696 1696 1696 1705 1696 1696 1696 1696 1696 1696 1696 1696 1696 1705 1696 1696 1696 1705 1696 1696 1705 1705 1705 1705 1705 1705 1705 1705 1713 1713 1713 1713 1713 1713 1713 1713 1713 1713 1713 1713 1713 1713 1713 1713 1713 1713 1713 1705 1705 1705 1705 1705 1705 1705 1705 1705 1713 1713 1722 1731 1731 1731 1731 1292 1292 1292 1292 1292 1292 1292 1292 1292 1292 1297 1297 1297 1302 1302 1307 1307 1307 1307 1307 1312 1312 1312 1312 1312 1317 1317 1317 1322 1322 1322 1322 1322 1328 1322 1322 1322 1328 1328 1328 1328 1328 1333 1338 1338 1343 1343 1343 1343 1343 1343 1343 1343 1349 1349 1349 1349 1354 1354 1354 1354 1354 1359 1359 1359 1359 1359 1365 1365 1370 1376 1370 1370 1376 1376 1376 1376 1376 1376 1381 1381 1387 1387 1392 1392 1392 1398 1398 1398 1398 1398 1404 1404 1404 1410 1410 1410 1415 1415 1415 1415 1415 1415 1421 1421 1427 1427 1433 1433 1433 1433 1433 1433 1433 1439 1439 1439 1439 1439 1445 1445 1452 1766 1766 1766 1766 1766 1766 1766 1766 1766 1766 1766 1766 1776 1776 1776 1776 1785 1785 1785 1785 1785 1785 1785 1776 1776 1776 1776 1776 1776 1776 1776 1776 1776 1776 1785 1785 1785 1785 1785 1776 1776 1776 1776 1776 1766 1766 1776 1776 1470 1470 1470 1464 1464 1458 1458 1458 1452 1452 1452 1452 1452 1452 1452 1452 1452 1458 1458 1464 1470 1470 1470 1470 1470 1470 1470 1470 1470 1477 1477 1483 1785 1785 1785 1785 1776 1776 1776 1776 1776 1776 1776 1785 1785 1785 1785 1785 1785 1785 1785 1785 1785 1785 1785 1785 1794 1794 1794 1785 1785 1785 1785 1785 1785 1794 1794 1794 1785 1785 1785 1785 1785 1785 1794 1794 1794 1794 1794 1804 1804 1813 1579 1579 1579 1579 1579 1579 1579 1572 1572 1564 1564 1564 1572 1572 1572 1572 1572 1572 1579 1823 1823 1823 1823 1823 1833 1833 1833 1833 1843 1843 1853 1853 1853 1853 1863 1863 1863 1853 1853 0 1853 0 0 0 4241 4241 4241 4241 4241 4241 4241 4295 4241 4241 4295 4295 4295 4295 4295 4295 4295 4295 4349 4349 4295 4295 4295 4241 4241 4241 4190 4190 4241 4241 4190 4190 4241 4241 4190 4190 4190 4139 4139 4139 4139 4139 4139 4139 4089 4089 4089 4089 4089 4089 4041 4041 4041 4041 4041 4089 4089 4041 4041 4139 4139 4139 4139 4139 4139 4139 4139 4139 4139 4139 4139 0 0 0 0 0 0 0 0 0 0 0 0
0 0 0 0 0 0 0 0 0 0 0 0 0 0 0 0 0 0 0 0 0 0 0 0 0 0 0 0 0 0 0 3653 3653 3653 3653 3653 3653 3653 3653 3653 3653 3653 3653 3653 3692 3692 3653 3653 3653 3653 3653 3653 3653 3653 3692 3692 3774 3774 3774 3774 3774 3774 3092 3092 3092 3092 3092 3092 3092 3092 3092 3092 3092 3064 3064 3092 3120 3092 3092 3064 3064 3092 3092 3092 3092 3064 3064 3064 3064 2812 2789 2789 2789 2767 2767 2767 2767 2767 2767 2767 2767 2767 2767 2767 2767 2767 2767 2767 2767 2767 2789 2789 2789 2789 2789 2789 2789 2789 2789 2789 2789 2789 2789 2789 2789 2812 2812 2812 2835 2835 2835 2859 2859 2859 2859 2859 2859 2883 2883 2883 2883 2883 2883 2908 2933 2958 2958 2984 3010 3010 2984 2984 2958 2958 2958 2958 2933 2933 2933 2933 2933 2933 2933 2933 2908 2908 2908 2908 2883 2883 2908 2908 2908 2908 1993 1993 1993 1993 1993 1993 1981 1970 1959 1947 1947 1722 1713 1713 1713 1713 1713 1705 1705 1696 1696 1696 1696 1688 1688 1688 1688 1688 1688 1680 1680 1680 1688 1688 1688 1688 1688 1688 1696 1688 1688 1688 1688 1688 1696 1696 1696 1696 1696 1696 1705 1705 1696 1696 1696 1705 1705 1705 1705 1705 1705 1705 1705 1705 1705 1705 1705 1705 1705 1705 1705 1705 1696 1696 1688 1688 1688 1696 1696 1705 1705 1705 1705 1713 1731 1297 1297 1292 1292 1292 1292 1292 1292 1292 1292 1297 1297 1297 1297 1302 1302 1302 1307 1307 1307 1307 1307 1312 1312 1312 1312 1317 1317 1322 1322 1322 1322 1322 1322 1322 1328 1328 1328 1328 1328 1328 1328 1333 1333 1333 1338 1338 1343 1343 1343 1349 1349 1349 1349 1349 1349 1349 1349 1349 1354 1354 1359 1359 1359 1359 1359 1359 1365 1365 1365 1370 1370 1376 1370 1370 1376 1376 1376 1376 1376 1376 1381 1381 1387 1387 1392 1392 1398 1398 1398 1398 1404 1404 1404 1404 1410 1410 1410 1410 1410 1415 1415 1415 1415 1421 1421 1427 1427 1433 1433 1433 1433 1433 1433 1433 1433 1439 1439 1439 1439 1445 1445 1452 1452 1757 1757 1757 1766 1766 1766 1766 1766 1766 1766 1766 1766 1766 1766 1766 1766 1776 1776 1776 1776 1776 1776 1776 1766 1766 1776 1766 1766 1766 1766 1766 1776 1766 1766 1776 1776 1776 1776 1766 1766 1766 1766 1766 1757 1757 1757 1766 1477 1477 1477 1470 1464 1464 1458 1458 1458 1458 1458 1458 1458 1452 1452 1458 1458 1458 1458 1464 1470 1477 1477 1477 1477 1748 1757 1757 1757 1757 1757 1766 1776 1776 1785 1785 1776 1776 1766 1766 1766 1766 1766 1776 1776 1776 1785 1785 1776 1776 1785 1776 1776 1785 1785 1776 1776 1785 1785 1785 1785 1785 1785 1785 1785 1785 1785 1785 1794 1785 1785 1785 1785 1785 1785 1785 1785 1785 1785 1794 1794 1804 1804 1579 1579 1579 1579 1579 1579 1579 1572 1572 1572 1572 1572 1572 1572 1572 1572 1579 1579 1833 1833 1833 1833 1833 1833 1833 1833 1833 1843 1843 1843 1853 1853 1853 1863 1863 1863 1863 1863 0 0 0 0 0 0 4241 4241 4241 4241 4241 4241 4241 4241 4241 4241 4241 4241 4295 4295 4295 4295 4295 4295 4295 4295 4295 4295 4295 4241 4241 4190 4190 4190 4190 4190 4190 4190 4190 4190 4190 4139 4139 4139 4139 4089 4089 4089 4089 4139 4089 4089 4041 4041 4041 4041 4041 3994 3994 4041 4041 4041 4041 4089 4139 4139 4139 4139 4139 4139 4139 4139 4139 4139 4139 4139 4139 0 0 0 0 0 0 0 0 0 0 0 0
0 0 0 0 0 0 0 0 0 0 0 0 0 0 0 0 0 0 0 0 0 0 0 0 0 0 0 0 0 0 0 3614 3614 3614 3614 3614 3653 3653 3653 3653 3653 3653 3653 3653 3653 3614 3614 3614 3614 3614 3614 3614 3614 3653 3653 3653 3653 3653 3732 3732 3774 3774 3774 3064 3064 3092 3092 3092 3092 3092 3092 3092 3092 3064 3064 3092 3120 3092 3092 3092 3092 3092 3092 3092 3092 3092 3092 3092 3064 3064 2789 2789 2789 2767 2767 2789 2767 2767 2767 2767 2767 2767 2767 2767 2767 2767 2767 2767 2767 2789 2789 2789 2789 2789 2789 2789 2789 2789 2789 2789 2789 2789 2789 2789 2789 2812 2812 2812 2812 2835 2835 2859 2859 2859 2859 2859 2859 2883 2883 2883 2883 2883 2883 2908 2933 2958 2958 2984 3010 3010 2984 2984 2958 2958 2958 2958 2933 2933 2933 2933 2933 2933 2933 2933 2933 2933 2908 2908 2908 2908 2908 2908 2908 2908 1993 1993 1993 1993 1993 1993 1981 1970 1959 1936 1936 1722 1713 1705 1705 1705 1705 1696 1688 1688 1680 1680 1680 1680 1671 1671 1671 1671 1680 1671 1671 1671 1680 1680 1680 1680 1680 1688 1688 1680 1680 1680 1680 1680 1688 1688 1688 1688 1688 1688 1688 1688 1688 1688 1688 1688 1688 1696 1696 1696 1696 1696 1696 1696 1696 1696 1696 1696 1696 1696 1696 1696 1688 1688 1688 1680 1680 1688 1688 1696 1696 1696 1696 1705 1705 1297 1292 1292 1292 1292 1292 1292 1292 1292 1292 1297 1297 1302 1302 1302 1307 1307 1307 1307 1307 1307 1307 1312 1312 1312 1317 1317 1322 1322 1322 1322 1328 1328 1328 1328 1328 1328 1328 1328 1328 1333 1333 1333 1333 1333 1338 1338 1343 1343 1349 1349 1349 1349 1349 1349 1349 1349 1354 1354 1354 1354 1359 1359 1359 1359 1365 1370 1370 1370 1370 1370 1376 1376 1376 1376 1376 1376 1376 1376 1376 1376 1381 1381 1387 1392 1392 1392 1392 1398 1398 1404 1404 1404 1410 1410 1410 1410 1410 1410 1410 1415 1415 1415 1415 1421 1427 1433 1433 1439 1439 1439 1433 1433 1433 1439 1439 1439 1439 1439 1439 1445 1445 1452 1452 1748 1757 1757 1757 1757 1757 1748 1748 1731 1731 1739 1739 1739 1748 1748 1748 1748 1739 1739 1739 1739 1748 1748 1748 1748 1748 1748 1748 1748 1748 1748 1748 1739 1739 1739 1739 1739 1739 1739 1739 1739 1748 1748 1748 1748 1748 1748 1477 1477 1477 1470 1464 1464 1458 1458 1458 1458 1458 1458 1458 1458 1458 1458 1458 1458 1464 1470 1470 1470 1477 1477 1748 1748 1748 1748 1757 1757 1757 1757 1766 1766 1766 1766 1766 1766 1757 1757 1757 1766 1766 1766 1766 1766 1766 1776 1766 1766 1766 1766 1766 1766 1766 1766 1766 1776 1776 1776 1776 1776 1776 1776 1785 1785 1785 1785 1785 1776 1776 1785 1785 1785 1785 1785 1785 1785 1785 1794 1794 1794 1794 1586 1586 1586 1579 1579 1579 1579 1572 1572 1572 1572 1572 1572 1572 1579 1579 1579 1579 1833 1833 1833 1833 1833 1833 1833 1843 1843 1843 1843 1853 1853 1853 1863 1863 1863 1863 1863 1863 0 0 0 0 4190 4190 4190 4190 4190 4241 4241 4241 4241 4241 4241 4241 4241 4241 4241 4241 4295 4241 4241 4241 4241 4241 4241 4241 4241 4190 4190 4190 4190 4190 4190 4139 4139 4139 4139 4139 4139 4089 4089 4089 4089 4089 4089 4089 4089 4139 4089 4089 4041 4041 4041 4041 4041 3994 3994 4041 4041 4041 4041 4089 4139 4139 4139 4139 4139 4139 4139 4139 4139 4139 4139 4139 4139 0 0 0 0 0 0 0 0 0 0 0 0
0 0 0 0 0 0 0 0 0 0 0 0 0 0 0 0 0 0 0 0 0 0 0 0 0 0 0 0 0 0 0 3614 3614 3614 3614 3614 3614 3614 3614 3653 3653 3653 3653 3653 3653 3614 3614 3614 3576 3576 3614 3614 3614 3614 3653 3653 3653 3653 3732 3732 3732 3774 3774 3064 3064 3064 3092 3092 3092 3092 3092 3064 3064 3064 3064 3092 3092 3092 3092 3092 3092 3092 3092 3092 3092 3092 3092 3092 3092 3064 2789 2767 2767 2767 2789 2789 2767 2767 2767 2767 2767 2767 2767 2767 2767 2767 2767 2767 2767 2767 2789 2789 2789 2789 2789 2789 2789 2789 2789 2789 2789 2789 2789 2789 2789 2812 2812 2812 2812 2835 2835 2859 2859 2859 2859 2859 2859 2859 2883 2883 2883 2883 2883 2908 2933 2958 2958 2984 3037 3037 2984 2984 2958 2958 2958 2958 2933 2908 2908 2933 2933 2933 2933 2933 2933 2933 2908 2908 2908 2908 2908 2908 2908 2908 1993 1993 1993 1993 1993 2005 1981 1970 1959 1926 1926 1926 1705 1696 1696 1696 1696 1688 1680 1680 1671 1671 1671 1671 1663 1663 1663 1663 1671 1663 1663 1663 1671 1671 1671 1671 1671 1671 1671 1671 1671 1680 1671 1671 1671 1680 1671 1671 1680 1680 1680 1680 1680 1680 1680 1680 1680 1680 1688 1688 1688 1688 1688 1688 1688 1688 1688 1680 1680 1688 1688 1688 1680 1680 1680 1671 1671 1680 1680 1680 1688 1688 1696 1705 1705 1292 1292 1292 1292 1292 1292 1292 1292 1292 1292 1297 1297 1302 1302 1302 1307 1307 1307 1307 1307 1307 1307 1312 1312 1312 1317 1317 1322 1322 1322 1328 1328 1328 1328 1328 1328 1328 1328 1328 1333 1333 1333 1333 1333 1333 1338 1338 1343 1343 1349 1349 1349 1349 1349 1349 1349 1354 1354 1354 1354 1359 1359 1359 1365 1365 1370 1370 1370 1370 1376 1376 1376 1376 1376 1376 1376 1376 1376 1376 1376 1376 1381 1381 1387 1392 1392 1392 1392 1398 1398 1404 1404 1404 1410 1410 1410 1415 1410 1410 1415 1415 1696 1696 1696 1445 1445 1452 1452 1445 1439 1439 1439 1439 1439 1439 1439 1439 1439 1439 1445 1445 1452 1452 1452 1739 1748 1748 1748 1748 1739 1731 1731 1731 1731 1731 1731 1731 1731 1731 1731 1731 1731 1731 1731 1739 1739 1739 1739 1739 1739 1739 1739 1739 1739 1739 1739 1731 1722 1722 1722 1722 1722 1722 1731 1731 1739 1739 1731 1731 1739 1739 1477 1477 1477 1470 1464 1464 1458 1458 1458 1458 1458 1458 1458 1458 1458 1458 1458 1464 1464 1470 1470 1470 1731 1731 1731 1739 1739 1739 1739 1739 1739 1739 1739 1748 1748 1748 1748 1748 1748 1748 1757 1757 1757 1757 1757 1757 1757 1757 1757 1757 1757 1766 1766 1766 1766 1766 1766 1766 1766 1776 1766 1766 1776 1776 1776 1776 1785 1785 1785 1776 1776 1776 1785 1785 1785 1785 1785 1785 1785 1794 1794 1794 1601 1586 1586 1586 1586 1579 1579 1579 1572 1572 1572 1572 1572 1579 1579 1579 1579 1579 1579 1833 1833 1833 1833 1833 1833 1843 1843 1843 1843 1843 1853 1853 1863 1863 1863 1873 1863 1863 0 0 4041 0 0 4139 4139 4139 4190 4190 4241 4190 4190 4190 4190 4190 4190 4190 4190 4241 4241 4241 4241 4241 4241 4190 4139 4139 4190 4190 4139 4139 4139 4139 4139 4139 4139 4089 4089 4089 4089 4089 4089 4089 4089 4089 4089 4089 4089 4089 4139 4089 4089 4089 4089 4041 4041 4041 3994 3994 4041 4041 4041 4041 4089 4089 4089 4089 4089 4089 4089 4089 4089 4089 4089 4139 4139 4139 0 0 0 0 0 0 0 0 0 0 0 0
0 0 0 0 0 0 0 0 0 0 0 0 0 0 0 0 0 0 0 0 0 0 0 0 0 0 0 0 0 0 0 3614 3614 3614 3614 3614 3614 3614 3614 3614 3614 3653 3614 3614 3614 3614 3614 3614 3576 3576 3614 3614 3614 3614 3653 3653 3653 3653 3692 3692 3732 3774 3774 3064 3064 3064 3092 3092 3092 3092 3092 3064 3064 3064 3064 3064 3064 3064 3064 3064 3064 3092 3092 3092 3092 3092 3092 3092 3092 3064 3064 2767 2767 2767 2789 2789 2789 2767 2767 2767 2767 2767 2767 2767 2767 2767 2767 2767 2767 2767 2767 2789 2789 2789 2767 2767 2767 2767 2767 2767 2789 2789 2789 2789 2789 2812 2812 2812 2812 2835 2835 2859 2859 2859 2859 2859 2859 2859 2883 2883 2883 2883 2883 2933 2958 2958 2958 2984 3010 3010 2984 2984 2958 2958 2958 2958 2933 2908 2908 2933 2933 2933 2933 2933 2933 2933 2933 2933 2933 2933 2933 2933 2933 2933 1993 1993 1993 2005 2005 2005 1993 1981 1981 1926 1926 1926 1705 1688 1688 1688 1680 1680 1671 1671 1663 1655 1655 1663 1655 1655 1655 1655 1663 1655 1655 1655 1663 1663 1663 1663 1663 1663 1663 1663 1663 1663 1663 1663 1663 1663 1663 1663 1663 1663 1671 1671 1671 1671 1671 1671 1671 1671 1671 1680 1680 1680 1680 1680 1680 1680 1680 1671 1671 1680 1680 1671 1671 1671 1671 1671 1671 1671 1671 1671 1671 1680 1688 1696 1696 1302 1292 1292 1292 1292 1292 1292 1297 1297 1297 1302 1307 1302 1302 1307 1307 1307 1307 1307 1307 1307 1312 1312 1312 1317 1317 1317 1322 1322 1328 1328 1328 1328 1328 1328 1328 1333 1333 1333 1333 1333 1333 1333 1333 1333 1338 1338 1343 1343 1349 1349 1349 1349 1349 1354 1354 1354 1354 1354 1359 1359 1359 1365 1365 1370 1370 1370 1370 1370 1376 1376 1376 1381 1376 1376 1376 1376 1376 1376 1376 1376 1381 1387 1688 1392 1392 1688 1688 1688 1404 1404 1404 1404 1410 1410 1410 1415 1410 1410 1705 1696 1696 1696 1696 1696 1458 1458 1452 1445 1439 1439 1439 1439 1439 1439 1439 1439 1445 1445 1445 1445 1452 1452 1731 1731 1731 1731 1739 1739 1731 1722 1722 1722 1722 1722 1722 1713 1713 1722 1722 1722 1722 1722 1731 1731 1731 1731 1731 1731 1731 1731 1731 1731 1731 1731 1731 1713 1713 1713 1713 1713 1713 1713 1722 1722 1722 1722 1731 1731 1731 1477 1477 1477 1477 1470 1470 1464 1464 1464 1458 1458 1458 1458 1458 1458 1458 1458 1458 1464 1464 1470 1470 1731 1731 1731 1731 1731 1731 1731 1731 1739 1731 1731 1731 1739 1739 1739 1739 1739 1739 1739 1748 1748 1748 1748 1748 1748 1748 1748 1748 1748 1748 1748 1757 1757 1757 1757 1757 1766 1766 1766 1766 1766 1766 1766 1776 1776 1785 1785 1785 1776 1776 1776 1785 1785 1785 1785 1785 1785 1785 1794 1794 1794 1601 1586 1586 1586 1586 1579 1579 1579 1579 1579 1579 1579 1579 1579 1579 1579 1579 1579 1579 1833 1833 1843 1843 1843 1843 1843 1843 1843 1853 1853 1853 1863 1863 1863 1873 1873 1883 1883 1883 4041 4041 4041 4041 4089 4139 4139 4190 4190 4190 4190 4190 4139 4139 4139 4139 4139 4190 4190 4190 4190 4190 4190 4190 4139 4139 4139 4139 4190 4139 4139 4139 4139 4139 4139 4139 4089 4089 4089 4089 4089 4089 4041 4041 4089 4089 4089 4139 4139 4139 4089 4089 4089 4089 4041 4041 4041 4041 4041 4041 4041 4041 4041 4089 4089 4089 4089 4041 4041 4089 4089 4089 4089 4089 4089 4089 4139 0 0 0 0 0 0 0 0 0 0 0 0
0 0 0 0 0 0 0 0 0 0 0 0 0 0 0 0 0 0 0 0 0 0 0 0 0 0 0 0 0 0 0 3614 3614 3614 3614 3614 3614 3614 3614 3614 3614 3614 3614 3614 3614 3614 3614 3614 3576 3576 3614 3614 3614 3653 3653 3653 3653 3653 3653 3653 3653 3653 3064 3064 3064 3092 3092 3092 3092 3092 3092 3064 3064 3064 3064 3064 3064 3064 3064 3064 3064 3064 3064 3092 3092 3092 3120 3120 3092 3092 3064 2767 2767 2767 2789 2789 2789 2767 2767 2767 2767 2767 2767 2767 2767 2767 2767 2767 2767 2767 2767 2789 2767 2767 2767 2767 2767 2767 2767 2767 2789 2789 2789 2789 2789 2812 2812 2812 2812 2835 2835 2859 2859 2859 2859 2859 2859 2859 2883 2883 2883 2883 2883 2933 2933 2958 2958 2984 3010 3010 2984 2984 2958 2958 2958 2958 2933 2908 2908 2933 2933 2933 2933 2933 2933 2933 2933 2933 2933 2933 2933 2933 2933 1993 1993 1993 1993 2005 2005 2005 1993 1981 1981 1936 1936 1936 1671 1671 1671 1671 1671 1663 1663 1655 1647 1647 1647 1647 1647 1647 1647 1655 1655 1655 1655 1655 1655 1655 1655 1663 1663 1663 1655 1655 1655 1655 1655 1655 1655 1655 1655 1655 1655 1655 1655 1663 1663 1663 1663 1655 1655 1663 1663 1671 1671 1671 1671 1680 1671 1671 1671 1671 1671 1671 1671 1671 1663 1663 1663 1663 1663 1663 1663 1663 1663 1671 1671 1696 1307 1302 1302 1302 1297 1297 1297 1297 1297 1297 1302 1307 1307 1307 1307 1307 1307 1307 1307 1307 1307 1312 1312 1312 1317 1317 1317 1322 1322 1328 1328 1328 1328 1328 1328 1328 1328 1333 1333 1333 1333 1333 1333 1333 1333 1338 1338 1338 1343 1343 1349 1349 1349 1354 1354 1354 1354 1354 1354 1354 1359 1359 1365 1365 1370 1370 1370 1370 1370 1370 1376 1376 1376 1381 1376 1376 1376 1376 1376 1376 1381 1381 1381 1680 1680 1680 1680 1688 1688 1688 1688 1680 1680 1688 1688 1410 1410 1688 1688 1688 1696 1696 1696 1696 1696 1696 1458 1458 1452 1445 1439 1439 1439 1439 1439 1439 1439 1445 1445 1445 1452 1452 1452 1458 1713 1713 1722 1705 1696 1696 1705 1705 1705 1705 1705 1705 1705 1705 1705 1705 1705 1713 1713 1713 1713 1722 1722 1722 1722 1722 1731 1722 1722 1722 1722 1722 1722 1705 1705 1705 1705 1705 1705 1705 1713 1713 1713 1722 1722 1722 1722 1477 1477 1477 1477 1477 1477 1470 1464 1464 1464 1458 1458 1458 1458 1458 1464 1464 1464 1470 1470 1470 1477 1722 1722 1722 1722 1722 1722 1722 1722 1731 1731 1731 1731 1731 1731 1731 1731 1731 1739 1739 1739 1739 1748 1739 1739 1748 1748 1748 1748 1748 1748 1748 1757 1757 1757 1757 1757 1766 1766 1766 1766 1766 1766 1766 1776 1776 1785 1785 1785 1776 1776 1776 1785 1785 1785 1785 1785 1785 1785 1794 1794 1794 1594 1594 1594 1586 1586 1579 1579 1579 1579 1579 1579 1579 1579 1579 1579 1579 1579 1586 1586 1843 1843 1843 1853 1853 1853 1853 1853 1853 1853 1853 1853 1863 1863 1873 1873 1883 1894 1894 1894 4041 4041 4041 4041 4089 4089 4089 4089 4139 4139 4139 4139 4139 4139 4139 4139 4139 4139 4190 4139 4139 4190 4139 4139 4139 4139 4139 4139 4139 4089 4089 4089 4139 4139 4139 4089 4089 4089 4089 4089 4089 4041 4041 4041 4041 4089 4089 4089 4139 4139 4139 4041 4041 4041 4041 4041 3994 3994 3994 4041 4041 4041 4041 4089 4089 4041 4041 4041 4041 4041 4041 4041 4041 4089 4089 4089 4139 0 0 0 0 0 0 0 0 0 0 0 0
0 0 0 0 0 0 0 0 0 0 0 0 0 0 0 0 0 0 0 0 0 0 0 0 0 0 0 0 0 0 0 3614 3614 3614 3576 3576 3576 3576 3576 3614 3614 3614 3614 3614 3614 3614 3614 3576 3576 3576 3614 3614 3614 3653 3653 3653 3614 3614 3614 3614 3614 3614 3614 3037 3037 3092 3092 3092 3092 3120 3092 3092 3064 3064 3064 3064 3064 3064 3064 3092 3064 3064 3064 3064 3064 3064 3064 3064 3092 3092 3092 2789 2789 2789 2789 2789 2789 2767 2767 2767 2767 2767 2767 2767 2767 2767 2767 2767 2767 2789 2789 2789 2767 2767 2767 2789 2789 2767 2767 2789 2789 2789 2789 2789 2789 2812 2812 2812 2835 2835 2859 2859 2859 2859 2859 2859 2859 2859 2883 2883 2883 2883 2908 2933 2933 2958 2958 2984 3010 3010 2984 2984 2958 2958 2958 2958 2933 2908 2908 2908 2933 2933 2933 2933 2933 2933 2933 2933 2933 2933 2933 2933 2933 1993 1993 1981 1981 2005 2005 2005 2005 2005 2005 2005 2028 2028 1853 1671 1671 1671 1671 1663 1663 1655 1647 1647 1647 1639 1639 1639 1647 1647 1647 1647 1647 1647 1655 1647 1647 1655 1655 1655 1647 1647 1647 1647 1647 1647 1647 1647 1647 1647 1647 1647 1647 1647 1655 1655 1647 1647 1647 1655 1655 1655 1663 1663 1671 1671 1671 1663 1663 1663 1663 1663 1663 1663 1655 1655 1655 1655 1655 1655 1655 1655 1655 1663 1663 1663 1307 1307 1302 1302 1302 1302 1302 1302 1302 1302 1302 1307 1307 1307 1307 1307 1307 1307 1307 1312 1312 1312 1312 1317 1317 1322 1322 1322 1328 1328 1328 1328 1328 1328 1328 1328 1333 1333 1333 1333 1333 1338 1338 1338 1338 1338 1343 1343 1343 1343 1349 1349 1349 1354 1354 1354 1354 1354 1354 1354 1359 1359 1365 1365 1370 1370 1370 1376 1376 1376 1370 1370 1376 1381 1381 1376 1376 1376 1376 1376 1663 1663 1663 1671 1671 1671 1671 1680 1688 1688 1688 1680 1680 1688 1696 1688 1688 1688 1688 1688 1688 1688 1696 1688 1688 1464 1458 1458 1458 1452 1445 1439 1439 1439 1439 1439 1439 1445 1445 1452 1452 1452 1458 1458 1705 1705 1705 1696 1696 1696 1705 1696 1696 1705 1705 1705 1696 1696 1696 1696 1696 1696 1705 1705 1705 1713 1713 1713 1722 1722 1722 1722 1722 1722 1713 1713 1713 1696 1696 1696 1696 1696 1696 1696 1696 1705 1705 1713 1713 1713 1713 1477 1477 1477 1477 1477 1477 1470 1464 1464 1464 1458 1458 1464 1464 1464 1464 1470 1470 1477 1477 1477 1713 1713 1713 1713 1713 1713 1713 1713 1713 1722 1722 1722 1722 1722 1722 1722 1722 1731 1731 1731 1739 1739 1739 1739 1739 1739 1748 1748 1748 1748 1748 1748 1757 1757 1757 1757 1757 1757 1757 1766 1766 1766 1766 1776 1785 1785 1785 1785 1794 1785 1785 1785 1785 1785 1785 1785 1785 1794 1794 1804 1804 1594 1594 1594 1594 1586 1586 1579 1579 1579 1579 1579 1579 1579 1579 1579 1586 1586 1586 1586 1586 1843 1843 1853 1853 1853 1853 1853 1853 1853 1853 1853 1863 1863 1863 1873 1873 1883 1894 1894 0 4041 4041 4041 4089 4089 4089 4089 4089 4089 4089 4089 4089 4089 4089 4089 4089 4089 4139 4139 4089 4089 4139 4089 4089 4089 4089 4089 4089 4089 4041 4041 4041 4041 4089 4041 4041 4041 4041 4041 4041 4041 3994 3994 3994 4041 4041 4041 4041 4089 4089 4089 4041 4041 4041 3994 3994 3994 3994 3994 3994 3994 3994 3994 4041 4041 4041 4041 4041 4041 4041 4041 4041 4041 4089 4089 4089 4139 0 0 0 0 0 0 0 0 0 0 0 0
