0 0 0 0 0 0 0 0 0 0 0 0 0 0 0 0 0 0 0 0 0 0 0 0 0 0 0 0 0 0 0 3653 3653 3653 3653 3653 3653 3653 3692 3653 3653 3614 3614 3653 3653 3653 3653 3653 3653 3653 3653 3653 3238 3238 3238 3238 3692 3692 3653 3653 3653 3692 3692 3692 3692 3732 3732 3692 3692 3732 3732 3732 3037 2984 2984 2984 2958 2958 3732 3732 3732 3732 3692 3692 3692 3692 3692 3692 3692 3692 3732 3774 3774 3774 3774 3774 3774 3732 3732 3732 3732 3732 3774 3774 3774 3774 3774 3774 3774 3774 3774 3774 3816 3816 3816 3816 3859 3859 3859 3816 3816 3816 3816 3816 3816 3816 3816 3816 3816 3859 3859 3859 3859 3859 3859 3859 3859 3859 3859 3859 3859 3774 3774 3774 3816 3859 3859 3903 3903 3903 3903 3903 3903 3859 3859 3903 3859 3859 3816 3816 3774 3774 3816 3816 3816 3816 3859 3859 3903 3903 3903 3903 3903 3948 3948 0 0 0 1616 1616 1616 1616 1616 1624 1624 1624 1624 1632 1632 1632 1632 1639 1632 1624 1609 1601 1601 1601 1594 1594 1601 1601 1594 1594 1586 1579 1579 1572 1572 1579 1579 1572 1572 1572 1572 1572 1572 1564 1564 1564 1557 1557 1557 1557 1557 1550 1550 1550 1543 1543 1543 1543 1543 1543 1536 1529 1529 1529 1529 1529 1529 1529 1523 1523 1523 1516 1516 1509 1509 1509 1509 1509 1509 1503 1503 1496 1496 1496 1489 1489 1489 1489 1483 1483 1477 1477 1477 1477 1477 1483 1489 1489 1489 1496 1572 1572 1579 1579 1579 1579 1572 1572 1572 1572 1572 1572 1572 1564 1564 1564 1557 1557 1557 1557 1550 1550 1550 1550 1550 1550 1550 1338 1338 1333 1333 1333 1333 1333 1333 1333 1333 1333 1333 1333 1333 1338 1338 1343 1343 1349 1349 1536 1543 1550 1557 1564 1564 1564 1564 1564 1557 1557 1550 1550 1550 1550 1543 1543 1543 1543 1543 1543 1543 1550 1550 1550 1550 1550 1543 1543 1550 1550 1543 1543 1543 1550 1550 1550 1550 1557 1557 1557 1550 1550 1557 1557 1557 1550 1550 1557 1557 1550 1550 1557 1557 1564 1564 1572 1572 1572 1572 1564 1564 1557 1557 1557 1557 1557 1564 1564 1564 1572 1572 1572 1214 1210 1210 1210 1210 1210 1210 1206 1206 1202 1202 1202 1197 1197 1197 1197 1197 1193 1193 1193 1193 1189 1189 1185 1181 1177 1177 1173 1173 1173 1173 1173 1173 1173 1173 1173 1177 1177 1181 1181 1181 1185 1185 1210 1210 1210 1210 1206 1206 1594 1594 1594 1594 1594 1594 1594 1594 1594 1594 1594 1594 1594 1594 1594 1594 1601 1601 1594 1594 1601 1601 1601 1601 1601 1601 1609 1601 1601 1609 1616 1616 1609 1609 1609 1609 1601 1601 1609 1609 1609 1616 1616 1616 1609 1609 1609 1609 1601 1601 1601 1601 1601 1601 1609 1609 1609 1609 1601 1601 1601 1601 1594 1594 1594 1594 1594 1594 1601 1601 1601 1601 1601 1601 1609 1609 1601 1601 1594 1594 1594 1594 1594 1594 1594 1601 1601 1609 1601 1601 1601 1601 1601 1601 1601 1609 1609 1609 1616 1616 1616 1616 1624 1624 1624 1624 1624 1624 1624 1624 1616 1616 1616 1616 1616 1616 1616 1616 1632 1632 1632 1632 1632 1632 1632 1632 1632 1632 1624 1624 1624 1624 1624 1624 1624 1624 1632 1632 1632 1632 1632 1632 1632 1624 1609 1609 0 0 0 0 0 4405 4405 4349 4349 4349 4349 4349 4349 4405 4405 4405 4405 4405 4405 4349 4349 4349 4349 4405 4405 4405 4405 4463 4463 4405 4405 4405 4405 0 0 0 0 0 0 0 0 0 0 0 0 0 0 0 0 0 0
0 0 0 0 0 0 0 0 0 0 0 0 0 0 0 0 0 0 0 0 0 0 0 0 0 0 0 0 0 0 0 3614 3614 3614 3614 3614 3614 3614 3653 3653 3653 3614 3614 3653 3653 3653 3653 3653 3653 3653 3614 3614 3333 3238 3238 3238 3238 3614 3614 3614 3653 3653 3653 3692 3692 3732 3732 3692 3692 3692 3732 3732 3064 2984 2984 2984 2958 2958 3692 3692 3692 3653 3653 3653 3653 3692 3653 3653 3692 3692 3732 3774 3774 3774 3774 3774 3774 3732 3732 3732 3732 3732 3732 3732 3732 3732 3774 3774 3774 3774 3774 3774 3774 3774 3816 3816 3816 3816 3816 3816 3816 3816 3816 3774 3774 3774 3774 3774 3816 3816 3816 3816 3859 3859 3859 3859 3816 3816 3816 3816 3816 3732 3732 3774 3816 3816 3859 3859 3859 3903 3903 3903 3903 3859 3859 3859 3859 3816 3774 3774 3774 3774 3774 3774 3774 3816 3859 3859 3859 3859 3859 3903 3903 3948 0 0 0 0 1616 1616 1616 1624 1624 1624 1624 1624 1624 1632 1632 1632 1639 1639 1639 1624 1616 1609 1601 1601 1601 1601 1601 1601 1594 1594 1586 1579 1579 1572 1572 1572 1572 1572 1572 1572 1572 1572 1572 1564 1564 1564 1557 1557 1557 1557 1557 1550 1550 1550 1550 1543 1543 1543 1543 1543 1536 1536 1536 1529 1529 1529 1529 1529 1529 1529 1523 1516 1516 1516 1509 1509 1509 1509 1509 1503 1503 1503 1496 1496 1496 1489 1489 1489 1483 1483 1483 1483 1483 1483 1483 1483 1489 1489 1496 1496 1503 1586 1586 1586 1579 1579 1579 1579 1579 1572 1572 1572 1572 1564 1564 1564 1557 1557 1557 1557 1550 1550 1550 1550 1550 1543 1543 1343 1338 1338 1333 1333 1333 1333 1333 1333 1333 1333 1333 1333 1333 1338 1338 1343 1343 1349 1523 1529 1543 1543 1543 1543 1536 1536 1529 1523 1523 1523 1523 1523 1523 1523 1523 1529 1529 1523 1523 1523 1529 1529 1529 1529 1529 1529 1529 1536 1536 1536 1536 1536 1536 1543 1543 1543 1543 1543 1543 1543 1543 1543 1543 1550 1550 1543 1543 1550 1550 1550 1550 1550 1550 1557 1557 1564 1564 1564 1564 1564 1557 1557 1557 1550 1550 1550 1557 1557 1564 1564 1564 1564 1564 1210 1210 1210 1210 1210 1550 1206 1206 1536 1550 1543 1197 1197 1197 1197 1197 1197 1193 1193 1193 1189 1189 1185 1185 1177 1177 1173 1173 1173 1173 1173 1173 1173 1173 1177 1177 1177 1181 1181 1185 1185 1185 1202 1202 1210 1210 1210 1210 1579 1579 1579 1579 1579 1579 1579 1579 1579 1579 1579 1579 1579 1579 1586 1586 1586 1586 1586 1586 1586 1586 1586 1586 1594 1594 1594 1594 1594 1594 1601 1601 1594 1594 1594 1594 1594 1594 1594 1601 1601 1609 1609 1609 1601 1601 1601 1601 1594 1594 1601 1601 1594 1594 1594 1594 1601 1601 1594 1586 1586 1594 1594 1594 1594 1586 1586 1594 1594 1594 1586 1586 1586 1586 1594 1594 1594 1594 1594 1594 1594 1586 1586 1586 1586 1586 1586 1594 1586 1586 1586 1586 1586 1586 1586 1594 1594 1594 1601 1609 1609 1609 1609 1616 1616 1609 1609 1616 1616 1609 1609 1609 1609 1609 1609 1609 1601 1601 1609 1609 1616 1624 1624 1632 1624 1624 1616 1616 1616 1616 1616 1616 1616 1616 1616 1616 1624 1624 1616 1616 1616 1624 1616 1616 1609 1609 0 0 0 0 0 4405 4349 4349 4349 4349 4349 4349 4349 4349 4295 4295 4349 4349 4349 4295 4295 4295 4295 4349 4349 4349 4405 4405 4405 4349 4349 4349 4405 4405 4405 0 0 0 0 0 0 0 0 0 0 0 0 0 0 0 0
0 0 0 0 0 0 0 0 0 0 0 0 0 0 0 0 0 0 0 0 0 0 0 0 0 0 0 0 0 0 0 3614 3614 3614 3576 3576 3614 3614 3614 3614 3614 3614 3614 3614 3614 3653 3614 3614 3614 3614 3576 3503 3333 3269 3269 3269 3399 3614 3614 3614 3653 3653 3653 3692 3692 3692 3692 3653 3653 3692 3692 3732 3732 2958 2958 2984 2958 2958 3692 3653 3653 3653 3653 3653 3653 3653 3653 3653 3692 3692 3732 3774 3092 3092 3092 3732 3732 3732 3732 3732 3732 3732 3732 3732 3732 3732 3732 3732 3774 3774 3774 3774 3774 3774 3774 3774 3816 3816 3816 3816 3816 3774 3774 3774 3774 3774 3774 3774 3774 3816 3816 3816 3816 3816 3816 3816 3774 3774 3774 3774 3774 3732 3732 3732 3774 3816 3859 3859 3859 3903 3859 3859 3859 3816 3816 3816 3816 3816 3774 3774 3774 3774 3774 3774 3774 3774 3816 3859 3859 3859 3859 3859 3859 3903 0 3903 0 1616 1616 1616 1616 1624 1624 1624 1624 1624 1632 1632 1639 1639 1639 1639 1647 1639 1616 1609 1601 1601 1601 1601 1601 1739 1739 1731 1731 1731 1731 1731 1572 1572 1572 1572 1572 1572 1572 1572 1572 1572 1572 1564 1564 1564 1557 1557 1557 1557 1550 1550 1550 1550 1543 1543 1543 1543 1543 1536 1536 1529 1529 1529 1529 1529 1529 1529 1523 1516 1516 1516 1509 1509 1509 1509 1509 1503 1503 1503 1503 1496 1496 1496 1489 1489 1489 1489 1483 1483 1483 1483 1483 1489 1489 1496 1496 1496 1503 1586 1586 1594 1586 1586 1579 1579 1579 1579 1572 1572 1572 1572 1572 1564 1564 1557 1557 1557 1557 1550 1550 1550 1550 1543 1543 1543 1338 1338 1338 1338 1338 1338 1333 1333 1333 1333 1333 1338 1338 1338 1338 1343 1349 1349 1349 1529 1529 1529 1529 1529 1529 1523 1523 1516 1516 1516 1516 1516 1516 1516 1516 1523 1523 1523 1523 1523 1523 1523 1523 1523 1523 1523 1523 1523 1523 1523 1523 1523 1523 1523 1523 1523 1523 1523 1523 1529 1529 1529 1529 1536 1536 1536 1536 1536 1536 1536 1536 1536 1543 1543 1543 1550 1550 1557 1557 1557 1550 1550 1550 1543 1543 1543 1550 1550 1557 1557 1557 1557 1557 1557 1210 1210 1550 1550 1543 1543 1543 1543 1543 1543 1543 1543 1543 1197 1197 1197 1193 1193 1193 1189 1189 1185 1185 1177 1177 1177 1177 1173 1173 1173 1173 1173 1173 1177 1177 1177 1185 1185 1185 1185 1189 1202 1202 1210 1210 1210 1572 1572 1572 1572 1572 1572 1572 1572 1564 1564 1572 1572 1564 1564 1564 1572 1579 1572 1572 1572 1579 1579 1579 1579 1579 1579 1579 1579 1579 1586 1586 1586 1586 1586 1586 1586 1586 1586 1586 1586 1586 1594 1594 1594 1594 1594 1594 1594 1594 1586 1586 1594 1594 1586 1579 1579 1579 1579 1586 1579 1579 1579 1579 1579 1579 1579 1579 1579 1579 1579 1572 1572 1572 1564 1564 1579 1579 1579 1586 1586 1586 1586 1586 1579 1579 1579 1579 1579 1579 1579 1579 1586 1586 1586 1586 1586 1586 1586 1586 1594 1594 1594 1601 1601 1601 1601 1594 1594 1594 1601 1594 1594 1594 1594 1601 1601 1594 1594 1594 1594 1601 1601 1601 1601 1609 1609 1609 1609 1609 1609 1609 1609 1609 1609 1609 1609 1616 1616 1609 1609 1609 1609 1609 1601 1601 1609 1609 0 0 0 0 0 4349 4349 4349 4349 4349 4349 4349 4349 4295 4295 4295 4241 4241 4241 4241 4241 4241 4241 4295 4349 4349 4349 4349 4349 4349 4295 4295 4295 4295 4295 4295 4241 4241 0 0 0 0 0 0 0 0 0 0 0 0 0
0 0 0 0 0 0 0 0 0 0 0 0 0 0 0 0 0 0 0 0 0 0 0 0 0 0 0 0 0 0 0 3614 3614 3576 3539 3539 3576 3576 3365 3614 3614 3614 3614 3614 3614 3614 3614 3614 3614 3614 3576 3503 3433 3433 3365 3365 3399 3539 3539 3576 3614 3653 3653 3653 3692 3692 3692 3653 3653 3653 3653 3692 3732 2958 2958 2958 2958 2958 2958 3653 3653 3614 3614 3614 3653 3653 3653 3653 3653 3692 3732 3149 3092 3092 3092 3732 3692 3692 3692 3692 3692 3692 3692 3692 3692 3732 3732 3732 3732 3732 3732 3732 3732 3732 3774 3774 3774 3774 3774 3774 3774 3774 3774 3774 3774 3732 3732 3732 3774 3774 3774 3774 3774 3774 3774 3774 3774 3774 3774 3774 3732 3732 3732 3732 3774 3774 3816 3816 3816 3859 3816 3816 3816 3774 3774 3774 3816 3816 3774 3732 3732 3732 3732 3732 3732 3774 3816 3816 3816 3816 3816 3859 3859 3859 3903 3903 0 1624 0 1624 1624 1624 1624 1624 1632 1632 1632 1639 1639 1639 1639 1639 1647 1647 1647 1739 1739 1739 1739 1739 1739 1739 1739 1731 1731 1731 1731 1731 1731 1731 1572 1572 1572 1579 1579 1579 1579 1572 1572 1564 1564 1564 1557 1557 1557 1557 1550 1550 1550 1550 1550 1543 1543 1543 1543 1543 1536 1536 1536 1536 1536 1529 1529 1529 1529 1523 1516 1516 1516 1516 1509 1509 1509 1509 1503 1503 1503 1496 1496 1496 1489 1489 1489 1489 1489 1483 1483 1489 1489 1489 1489 1496 1496 1503 1503 1594 1594 1594 1594 1586 1586 1586 1579 1579 1579 1579 1572 1572 1572 1572 1564 1557 1557 1557 1557 1550 1550 1550 1550 1543 1543 1543 1543 1543 1338 1338 1338 1338 1333 1333 1333 1333 1333 1338 1338 1338 1338 1343 1349 1349 1349 1523 1529 1523 1523 1523 1523 1516 1516 1509 1503 1503 1509 1509 1509 1509 1509 1516 1516 1516 1516 1516 1516 1516 1516 1516 1516 1516 1516 1516 1516 1516 1523 1523 1523 1523 1516 1516 1516 1516 1516 1523 1523 1523 1529 1529 1529 1529 1523 1523 1529 1529 1529 1529 1536 1536 1529 1529 1529 1529 1529 1523 1523 1529 1536 1536 1536 1536 1536 1536 1536 1536 1543 1543 1536 1536 1543 1543 1543 1543 1536 1536 1536 1536 1543 1536 1536 1536 1536 1536 1202 1197 1193 1193 1189 1189 1189 1185 1185 1181 1177 1177 1177 1177 1177 1177 1177 1177 1177 1177 1177 1181 1185 1185 1185 1185 1189 1197 1197 1210 1557 1557 1557 1564 1564 1564 1564 1557 1557 1557 1557 1557 1564 1557 1557 1557 1557 1564 1564 1564 1564 1564 1564 1572 1572 1572 1572 1572 1572 1564 1564 1572 1572 1564 1564 1564 1572 1572 1572 1572 1579 1579 1579 1579 1579 1579 1572 1572 1579 1579 1586 1586 1586 1579 1579 1572 1572 1572 1564 1564 1564 1564 1564 1564 1564 1564 1572 1572 1572 1572 1564 1564 1564 1564 1564 1557 1557 1557 1572 1572 1579 1579 1579 1579 1579 1579 1572 1572 1572 1572 1572 1572 1572 1579 1579 1579 1579 1579 1579 1579 1579 1579 1579 1579 1579 1586 1586 1579 1579 1579 1586 1586 1586 1586 1586 1586 1586 1586 1586 1586 1586 1586 1586 1586 1594 1594 1594 1594 1594 1594 1594 1594 1594 1594 1594 1594 1601 1601 1601 1601 1594 1594 1594 1594 1594 1594 1601 1609 0 0 0 0 4241 0 4295 4295 4295 4241 4241 4241 4241 4295 4295 4241 4241 4241 4190 4190 4190 4190 4190 4241 4241 4241 4295 4295 4295 4295 4349 4295 4295 4241 4241 4241 4241 4241 4241 4241 0 0 0 0 0 0 0 0 0 0 0 0
0 0 0 0 0 0 0 0 0 0 0 0 0 0 0 0 0 0 0 0 0 0 0 0 0 0 0 0 0 0 0 3614 3576 3576 3539 3399 3333 3333 3365 3365 3433 3539 3539 3539 3539 3576 3576 3576 3576 3576 3539 3503 3433 3399 3365 3365 3399 3399 3503 3576 3576 3614 3653 3653 3653 3653 3653 3614 3614 3614 3653 3653 3653 2958 2958 2958 2958 2958 2958 3614 3614 3614 3614 3614 3614 3614 3614 3614 3653 3653 3692 3149 3149 3149 3149 3692 3692 3653 3653 3692 3692 3692 3692 3692 3692 3692 3692 3732 3732 3732 3732 3732 3732 3732 3732 3732 3732 3774 3774 3774 3774 3774 3774 3732 3732 3732 3732 3732 3732 3774 3774 3774 3774 3774 3774 3774 3774 3774 3774 3774 3732 3732 3732 3732 3732 3732 3774 3774 3774 3816 3774 3774 3774 3732 3732 3732 3774 3774 3732 3732 3692 3692 3692 3692 3692 3732 3774 3774 3816 3816 3816 3816 3816 3859 3859 0 0 0 0 1624 1624 1624 1624 1632 1632 1632 1639 1639 1639 1639 1639 1647 1647 1647 1655 1739 1739 1739 1748 1748 1739 1739 1739 1739 1731 1731 1731 1731 1731 1731 1722 1572 1572 1579 1579 1579 1579 1572 1572 1564 1564 1564 1564 1557 1557 1557 1550 1550 1550 1550 1550 1550 1550 1550 1543 1543 1543 1536 1536 1536 1536 1536 1536 1529 1529 1523 1523 1516 1516 1516 1516 1509 1509 1509 1503 1503 1503 1496 1496 1496 1496 1489 1489 1489 1489 1489 1489 1489 1489 1489 1496 1496 1496 1503 1503 1594 1594 1594 1594 1594 1594 1586 1586 1579 1579 1579 1579 1572 1572 1572 1572 1564 1564 1557 1557 1550 1550 1550 1550 1543 1543 1543 1543 1543 1338 1338 1338 1338 1338 1333 1333 1338 1338 1338 1338 1338 1343 1343 1349 1349 1354 1523 1523 1523 1523 1523 1516 1516 1509 1509 1503 1503 1509 1509 1509 1509 1509 1509 1509 1509 1509 1509 1509 1509 1509 1509 1509 1509 1509 1509 1509 1509 1516 1516 1509 1509 1509 1509 1509 1509 1509 1516 1516 1516 1516 1516 1516 1509 1509 1509 1516 1516 1516 1516 1523 1523 1523 1523 1516 1516 1516 1516 1516 1523 1523 1529 1529 1529 1529 1529 1529 1529 1523 1523 1523 1523 1523 1523 1529 1529 1529 1529 1529 1536 1536 1536 1536 1536 1536 1536 1536 1543 1193 1193 1189 1189 1189 1185 1185 1181 1181 1177 1177 1177 1177 1177 1177 1177 1177 1177 1181 1181 1185 1185 1185 1189 1193 1193 1197 1202 1543 1543 1543 1543 1543 1543 1543 1550 1550 1550 1550 1550 1557 1557 1550 1550 1550 1557 1557 1557 1557 1557 1557 1557 1557 1557 1557 1557 1557 1557 1557 1557 1550 1550 1550 1550 1557 1564 1557 1557 1557 1564 1564 1564 1564 1564 1564 1564 1564 1564 1572 1572 1572 1564 1564 1564 1564 1564 1557 1557 1564 1557 1557 1557 1557 1557 1564 1564 1564 1564 1557 1557 1557 1557 1557 1557 1557 1557 1564 1564 1564 1572 1572 1572 1572 1572 1564 1564 1564 1564 1564 1564 1564 1564 1564 1572 1572 1572 1572 1572 1572 1564 1564 1572 1572 1572 1572 1572 1572 1579 1579 1579 1579 1579 1579 1579 1572 1572 1572 1579 1579 1579 1579 1586 1586 1586 1586 1579 1579 1579 1579 1586 1586 1586 1586 1586 1594 1594 1594 1594 1586 1586 1586 1579 1579 1586 1586 1601 1601 0 0 0 4241 4241 4241 4241 4241 4241 4241 4241 4241 4295 4295 4241 4241 4241 4190 4190 4190 4190 4190 4190 4241 4241 4295 4295 4295 4295 4241 4241 4241 4241 4241 4241 4241 4241 4241 4241 0 0 0 0 0 0 0 0 0 0 0 0
0 0 0 0 0 0 0 0 0 0 0 0 0 0 0 0 0 0 0 0 0 0 0 0 0 0 0 0 0 0 0 3576 3539 3503 3433 3399 3333 3333 3365 3365 3433 3468 3503 3503 3503 3539 3539 3539 3539 3539 3503 3503 3433 3399 3365 3365 3399 3399 3433 3468 3503 3539 3614 3614 3614 3614 3614 3614 3614 3614 3614 3653 3653 2958 2958 2984 2958 2958 2958 3614 3614 3614 3614 3614 3614 3614 3614 3614 3653 3653 3653 3149 3149 3178 3178 3238 3576 3576 3576 3653 3653 3653 3653 3653 3692 3692 3692 3692 3692 3692 3732 3732 3732 3732 3732 3732 3732 3732 3732 3732 3732 3732 3732 3732 3732 3692 3692 3732 3732 3732 3732 3732 3732 3732 3732 3774 3774 3774 3774 3774 3774 3732 3732 3732 3732 3732 3732 3774 3774 3774 3774 3774 3774 3732 3732 3732 3732 3732 3732 3732 3692 3692 3692 3692 3692 3732 3732 3732 3774 3774 3774 3816 3816 3816 3859 0 0 0 0 1632 1632 1632 1632 1639 1639 1639 1639 1639 1639 1647 1647 1647 1647 1647 1663 1739 1739 1739 1748 1748 1739 1739 1739 1739 1731 1731 1731 1731 1731 1731 1722 1722 1731 1722 1579 1579 1579 1572 1572 1564 1564 1564 1557 1557 1550 1550 1550 1550 1550 1550 1550 1550 1550 1543 1543 1543 1536 1536 1536 1536 1536 1536 1536 1529 1529 1523 1523 1523 1516 1516 1516 1516 1509 1509 1509 1503 1503 1503 1496 1496 1496 1496 1489 1489 1489 1489 1489 1489 1489 1489 1496 1496 1496 1496 1496 1594 1594 1594 1594 1594 1594 1594 1594 1586 1586 1579 1579 1579 1579 1572 1572 1572 1564 1564 1557 1557 1550 1550 1550 1550 1550 1543 1543 1543 1338 1338 1343 1343 1338 1338 1338 1338 1338 1338 1343 1343 1343 1349 1349 1349 1354 1523 1523 1523 1516 1516 1516 1516 1509 1509 1503 1503 1503 1503 1503 1503 1503 1503 1503 1503 1496 1496 1503 1503 1503 1503 1503 1503 1503 1503 1503 1503 1509 1503 1503 1509 1509 1509 1509 1509 1509 1509 1509 1509 1509 1503 1503 1496 1496 1503 1503 1503 1503 1503 1509 1509 1509 1509 1509 1509 1509 1509 1509 1509 1509 1516 1516 1516 1516 1516 1516 1516 1516 1516 1516 1516 1523 1523 1523 1523 1523 1523 1523 1529 1529 1529 1529 1529 1536 1536 1536 1543 1543 1193 1193 1189 1189 1189 1185 1181 1181 1177 1177 1177 1177 1177 1177 1177 1177 1177 1181 1181 1185 1185 1185 1189 1193 1193 1193 1202 1529 1529 1536 1536 1536 1536 1536 1536 1536 1536 1536 1536 1536 1536 1536 1529 1529 1529 1536 1536 1536 1536 1536 1536 1543 1543 1536 1536 1536 1536 1536 1536 1536 1536 1536 1536 1543 1543 1543 1536 1536 1543 1543 1543 1543 1550 1557 1557 1550 1550 1557 1550 1550 1550 1550 1557 1557 1557 1557 1557 1557 1557 1557 1557 1557 1557 1557 1557 1557 1557 1550 1550 1550 1550 1550 1550 1550 1550 1550 1557 1557 1557 1557 1557 1557 1557 1557 1557 1557 1557 1557 1557 1557 1557 1557 1557 1564 1564 1564 1564 1564 1557 1557 1557 1564 1557 1557 1564 1564 1564 1564 1564 1564 1564 1564 1564 1564 1564 1564 1572 1572 1572 1579 1579 1579 1579 1572 1572 1572 1572 1572 1572 1579 1586 1586 1586 1586 1586 1586 1586 1579 1579 1579 1579 1579 1579 1586 1601 1601 0 4241 4241 4241 4241 4241 4241 4241 4241 4241 4241 4241 4241 4241 4241 4241 4241 4190 4190 4190 4190 4190 4190 4241 4241 4241 4241 4241 4241 4241 4241 4241 4190 4190 4241 4241 4241 4190 4190 0 0 0 0 0 0 0 0 0 0 0 0
0 0 0 0 0 0 0 0 0 0 0 0 0 0 0 0 0 0 0 0 0 0 0 0 0 0 0 0 0 0 0 3503 3503 3468 3433 3399 3365 3365 3365 3399 3433 3468 3503 3503 3503 3503 3503 3503 3503 3503 3503 3468 3433 3365 3365 3365 3399 3399 3433 3468 3503 3539 3576 3614 3614 3614 3614 3576 3576 3576 3576 3576 3614 2984 2984 2984 2958 2958 2958 3576 3576 3576 3576 3614 3614 3614 3614 3614 3614 3614 3614 3614 3178 3178 3238 3238 3539 3539 3576 3614 3614 3653 3653 3653 3653 3653 3653 3692 3692 3692 3692 3692 3692 3692 3692 3692 3692 3692 3692 3692 3692 3692 3692 3692 3692 3692 3692 3692 3732 3732 3732 3732 3732 3732 3732 3732 3732 3774 3774 3774 3732 3732 3692 3692 3692 3732 3732 3732 3774 3774 3732 3732 3732 3732 3692 3692 3732 3732 3732 3732 3692 3692 3692 3692 3692 3692 3732 3732 3732 3774 3774 3774 3774 3774 3816 3816 0 0 0 1632 1632 1639 1639 1639 1639 1639 1639 1639 1639 1647 1647 1647 1647 1655 1663 1748 1739 1739 1748 1748 1739 1739 1739 1739 1731 1731 1731 1731 1731 1731 1722 1722 1722 1722 1713 1713 1713 1572 1572 1564 1564 1557 1557 1557 1550 1550 1550 1543 1543 1543 1543 1543 1543 1543 1543 1536 1536 1536 1536 1536 1536 1536 1536 1529 1529 1523 1523 1523 1523 1516 1516 1516 1516 1509 1509 1509 1503 1503 1503 1496 1496 1496 1496 1489 1489 1489 1489 1489 1489 1489 1496 1496 1496 1496 1496 1594 1594 1594 1601 1601 1601 1594 1594 1594 1586 1586 1586 1579 1579 1579 1572 1572 1572 1564 1564 1564 1557 1557 1557 1550 1550 1543 1543 1543 1343 1343 1343 1343 1343 1338 1338 1338 1338 1343 1343 1343 1343 1349 1349 1354 1359 1516 1516 1516 1516 1516 1516 1509 1509 1509 1503 1503 1503 1503 1503 1503 1503 1496 1496 1496 1489 1489 1496 1496 1496 1496 1496 1496 1489 1489 1489 1489 1496 1496 1496 1496 1496 1496 1496 1496 1496 1496 1496 1496 1496 1496 1489 1489 1489 1489 1489 1489 1496 1496 1496 1496 1496 1496 1496 1496 1496 1503 1503 1503 1503 1503 1503 1503 1509 1509 1509 1509 1516 1516 1516 1516 1516 1516 1509 1509 1509 1509 1516 1516 1516 1516 1516 1516 1529 1529 1529 1536 1536 1193 1193 1193 1193 1193 1189 1185 1185 1181 1181 1181 1181 1177 1177 1177 1181 1181 1185 1189 1189 1193 1193 1193 1193 1193 1193 1516 1509 1509 1516 1516 1523 1523 1523 1529 1529 1529 1529 1529 1529 1529 1523 1523 1523 1523 1523 1523 1529 1529 1529 1529 1529 1536 1529 1529 1529 1529 1529 1529 1529 1529 1529 1529 1536 1536 1536 1536 1536 1536 1536 1536 1536 1536 1536 1529 1523 1523 1516 1516 1523 1529 1529 1536 1543 1543 1543 1543 1550 1543 1543 1543 1543 1543 1543 1543 1536 1536 1536 1536 1536 1536 1536 1529 1529 1529 1536 1543 1543 1536 1536 1536 1550 1550 1550 1550 1550 1550 1557 1550 1550 1550 1550 1550 1550 1557 1557 1557 1557 1550 1550 1557 1557 1550 1550 1557 1557 1557 1557 1557 1557 1557 1557 1557 1550 1550 1557 1557 1557 1557 1564 1564 1572 1564 1557 1557 1557 1564 1564 1564 1564 1572 1572 1579 1579 1579 1579 1572 1572 1572 1572 1572 1572 1579 1586 1586 4241 4241 4241 4241 4041 4041 4190 4190 4190 4190 4190 4241 4241 4241 4241 4241 4241 4241 4190 4190 4139 4139 4190 4190 4190 4190 4190 4190 4190 4190 4241 4190 4190 4190 4190 4190 4190 4190 4190 4190 0 0 0 0 0 0 0 0 0 0 0 0
0 0 0 0 0 0 0 0 0 0 0 0 0 0 0 0 0 0 0 0 0 0 0 0 0 0 0 0 0 0 0 3503 3468 3468 3433 3433 3365 3365 3399 3433 3433 3468 3468 3468 3468 3503 3503 3503 3503 3503 3503 3468 3433 3365 3365 3399 3399 3399 3433 3468 3503 3503 3539 3576 3576 3576 3576 3576 3539 3539 3539 3539 3539 3614 2984 2984 2984 2984 3576 3576 3576 3576 3576 3576 3576 3614 3576 3576 3576 3576 3539 3433 3208 3208 3208 3208 3365 3503 3576 3576 3614 3614 3614 3614 3614 3614 3614 3614 3653 3653 3653 3653 3653 3653 3653 3653 3653 3653 3653 3653 3653 3653 3653 3653 3653 3653 3653 3653 3692 3692 3692 3692 3732 3732 3732 3732 3732 3732 3732 3732 3732 3692 3692 3692 3692 3732 3732 3732 3732 3732 3732 3732 3732 3692 3692 3692 3732 3732 3692 3692 3692 3692 3692 3692 3692 3692 3692 3732 3732 3732 3732 3732 3732 3774 3774 3816 0 0 0 1632 1632 1639 1639 1639 1639 1639 1639 1639 1639 1647 1647 1639 1639 1647 1663 1680 1748 1748 1748 1748 1748 1748 1739 1739 1731 1731 1739 1739 1731 1731 1722 1722 1722 1722 1713 1713 1713 1713 1713 1713 1705 1557 1557 1550 1550 1550 1543 1543 1543 1543 1543 1543 1536 1536 1536 1536 1536 1536 1536 1536 1536 1536 1536 1529 1529 1523 1523 1523 1523 1516 1516 1516 1516 1516 1509 1509 1509 1503 1503 1503 1496 1496 1496 1496 1496 1489 1489 1489 1489 1496 1496 1496 1496 1503 1503 1594 1594 1601 1601 1601 1601 1601 1594 1594 1586 1586 1586 1586 1579 1579 1579 1579 1572 1572 1572 1564 1564 1564 1564 1550 1550 1543 1543 1543 1343 1343 1343 1343 1343 1343 1338 1338 1338 1343 1343 1343 1349 1349 1354 1354 1509 1516 1516 1516 1516 1516 1516 1509 1509 1509 1503 1503 1503 1496 1496 1496 1496 1496 1496 1489 1489 1489 1489 1489 1489 1489 1489 1489 1483 1483 1483 1483 1483 1483 1483 1489 1489 1483 1483 1489 1489 1489 1489 1489 1489 1489 1489 1489 1489 1489 1489 1489 1489 1489 1489 1489 1489 1489 1489 1496 1496 1496 1496 1496 1496 1496 1496 1496 1496 1503 1503 1503 1509 1509 1509 1509 1509 1503 1503 1496 1496 1503 1509 1503 1503 1503 1503 1509 1516 1516 1523 1529 1529 1193 1193 1193 1193 1193 1193 1189 1185 1185 1185 1181 1181 1181 1177 1177 1181 1181 1185 1189 1193 1193 1193 1197 1193 1193 1193 1503 1503 1496 1496 1503 1509 1509 1509 1516 1516 1523 1523 1516 1516 1516 1516 1516 1509 1509 1509 1509 1516 1516 1516 1516 1516 1523 1523 1523 1523 1523 1523 1523 1523 1523 1523 1523 1529 1529 1529 1529 1529 1529 1529 1529 1529 1529 1523 1516 1516 1516 1509 1509 1516 1523 1523 1529 1529 1529 1536 1536 1536 1529 1529 1523 1523 1529 1529 1529 1529 1529 1529 1529 1529 1523 1523 1523 1523 1523 1523 1523 1523 1529 1529 1529 1536 1536 1536 1543 1543 1543 1550 1543 1536 1536 1523 1503 1496 1496 1496 1550 1550 1543 1543 1543 1543 1543 1550 1550 1550 1550 1550 1550 1550 1550 1550 1550 1550 1543 1543 1543 1543 1543 1543 1543 1536 1536 1543 1550 1550 1550 1550 1550 1550 1557 1557 1557 1564 1564 1564 1564 1564 1564 1564 1572 1572 1579 1579 0 4190 4190 4190 4190 4041 4041 4139 4190 4190 4190 4190 4190 4190 4190 4190 4190 4190 4190 4139 4139 4139 4139 4139 4139 4139 4139 4139 4190 4190 4190 4190 4190 4190 4139 4139 4139 4139 4139 4139 4139 0 0 0 0 0 0 0 0 0 0 0 0
0 0 0 0 0 0 0 0 0 0 0 0 0 0 0 0 0 0 0 0 0 0 0 0 0 0 0 0 0 0 0 3503 3468 3468 3468 3433 3399 3399 3399 3433 3433 3468 3468 3468 3468 3468 3503 3468 3468 3503 3468 3468 3433 3365 3365 3399 3399 3399 3433 3433 3468 3503 3539 3539 3539 3539 3539 3503 3503 3503 3503 3503 3503 3539 3539 3539 3539 3010 3010 3010 3539 3539 3539 3576 3576 3576 3576 3539 3539 3539 3539 3433 3399 3208 3208 3208 3365 3503 3539 3576 3576 3576 3576 3576 3576 3576 3576 3576 3576 3576 3576 3614 3614 3614 3614 3614 3614 3614 3614 3614 3614 3614 3614 3614 3614 3614 3614 3614 3692 3692 3692 3692 3692 3692 3692 3692 3692 3692 3692 3692 3653 3653 3653 3653 3653 3653 3692 3692 3732 3732 3732 3732 3732 3692 3692 3692 3692 3692 3692 3692 3692 3692 3692 3692 3692 3692 3692 3692 3732 3732 3732 3732 3732 3774 3774 3774 0 0 0 1639 1639 1639 1639 1639 1639 1639 1639 1639 1639 1647 1647 1639 1639 1647 1663 1671 1748 1748 1748 1748 1748 1748 1748 1739 1739 1739 1739 1739 1731 1731 1722 1722 1722 1722 1713 1713 1713 1713 1713 1713 1705 1705 1713 1550 1550 1550 1543 1529 1529 1543 1543 1523 1523 1536 1536 1536 1529 1529 1529 1536 1529 1529 1529 1529 1529 1516 1516 1516 1516 1516 1516 1516 1516 1516 1509 1509 1509 1509 1503 1503 1496 1496 1496 1496 1496 1489 1489 1489 1489 1496 1496 1496 1503 1503 1503 1601 1601 1601 1601 1601 1601 1601 1594 1594 1594 1594 1586 1586 1586 1579 1579 1579 1579 1572 1572 1572 1572 1564 1564 1557 1550 1543 1543 1338 1338 1343 1343 1343 1343 1343 1343 1343 1343 1343 1343 1349 1349 1349 1354 1354 1365 1516 1516 1516 1516 1516 1516 1509 1509 1509 1503 1503 1496 1496 1496 1496 1496 1496 1496 1489 1489 1489 1489 1489 1489 1483 1483 1483 1483 1483 1483 1483 1483 1483 1483 1483 1483 1483 1483 1483 1477 1477 1483 1483 1483 1483 1483 1483 1483 1483 1483 1483 1483 1489 1489 1489 1489 1489 1489 1489 1489 1489 1489 1483 1483 1483 1483 1483 1489 1489 1496 1496 1503 1503 1503 1496 1496 1496 1496 1496 1496 1496 1496 1496 1496 1496 1496 1496 1503 1503 1503 1509 1509 1193 1193 1193 1193 1193 1193 1189 1189 1185 1185 1185 1185 1181 1181 1181 1181 1185 1189 1193 1193 1197 1197 1202 1489 1489 1496 1496 1489 1489 1489 1489 1496 1489 1489 1496 1496 1503 1509 1509 1509 1503 1503 1503 1503 1503 1509 1509 1509 1509 1509 1509 1509 1509 1509 1509 1509 1509 1509 1516 1516 1516 1516 1516 1523 1523 1523 1523 1523 1523 1523 1523 1516 1509 1509 1509 1509 1509 1509 1509 1516 1516 1516 1516 1523 1523 1529 1523 1523 1516 1509 1509 1509 1509 1509 1523 1516 1516 1516 1516 1516 1509 1509 1509 1509 1509 1516 1516 1516 1516 1523 1523 1529 1529 1529 1529 1529 1536 1536 1523 1516 1509 1496 1483 1483 1483 1483 1483 1550 1543 1543 1543 1543 1543 1550 1550 1550 1550 1543 1543 1536 1536 1536 1536 1536 1536 1529 1529 1529 1529 1529 1529 1529 1529 1529 1536 1543 1543 1536 1536 1536 1529 1529 1529 1529 1529 1529 1543 1550 1543 1543 1550 1557 1557 1557 0 4190 4190 4190 4190 4139 4089 4089 4139 4139 4139 4139 4139 4139 4139 4139 4139 4139 4139 4089 4089 4089 4089 4139 4139 4139 4139 4139 4190 4190 4190 4190 4190 4139 4089 4089 4089 4089 4089 4089 4089 0 0 0 0 0 0 0 0 0 0 0 0
0 0 0 0 0 0 0 0 0 0 0 0 0 0 0 0 0 0 0 0 0 0 0 0 0 0 0 0 0 0 0 3468 3468 3468 3468 3433 3399 3399 3399 3433 3433 3433 3433 3433 3468 3468 3468 3468 3468 3468 3468 3433 3433 3365 3365 3365 3365 3399 3399 3433 3468 3468 3503 3539 3503 3503 3503 3468 3468 3468 3468 3468 3468 3503 3503 3539 3539 3010 3010 3010 3503 3503 3503 3468 3468 3539 3539 3539 3539 3539 3539 3468 3399 3399 3433 3433 3468 3503 3539 3576 3576 3576 3576 3576 3576 3576 3576 3576 3576 3576 3576 3576 3576 3576 3614 3614 3614 3614 3614 3614 3614 3614 3614 3614 3614 3614 3614 3614 3614 3614 3614 3614 3614 3653 3614 3614 3614 3614 3653 3653 3653 3614 3614 3653 3653 3653 3653 3653 3732 3732 3732 3732 3732 3692 3692 3692 3692 3692 3692 3692 3692 3692 3692 3653 3653 3653 3692 3692 3732 3732 3732 3732 3732 3732 3774 3774 0 0 0 1639 1639 1639 1639 1639 1639 1639 1639 1639 1647 1647 1647 1647 1655 1655 1663 1671 1688 1748 1757 1757 1757 1757 1757 1748 1748 1739 1739 1739 1731 1731 1731 1731 1731 1722 1722 1713 1713 1713 1713 1713 1713 1713 1713 1713 1713 1713 1705 1529 1529 1705 1688 1523 1523 1688 1688 1688 1529 1529 1529 1536 1529 1529 1529 1523 1523 1516 1516 1516 1516 1516 1516 1516 1516 1516 1516 1516 1509 1509 1503 1503 1496 1496 1496 1496 1496 1496 1496 1496 1496 1496 1496 1496 1503 1509 1509 1523 1601 1601 1601 1601 1601 1601 1601 1594 1594 1594 1594 1586 1586 1586 1586 1579 1579 1579 1579 1572 1572 1572 1564 1564 1557 1550 1550 1338 1338 1343 1343 1343 1343 1343 1343 1343 1343 1343 1343 1349 1349 1349 1354 1359 1365 1509 1509 1516 1516 1516 1516 1509 1509 1509 1503 1503 1496 1496 1496 1496 1496 1496 1489 1489 1489 1489 1483 1483 1483 1483 1483 1483 1483 1483 1477 1477 1477 1477 1477 1483 1477 1477 1477 1477 1470 1470 1477 1477 1477 1477 1477 1483 1483 1477 1477 1477 1477 1483 1483 1483 1483 1483 1483 1483 1483 1483 1483 1477 1477 1477 1477 1477 1477 1477 1477 1477 1477 1483 1470 1470 1477 1477 1483 1483 1489 1489 1489 1483 1483 1483 1483 1489 1489 1489 1489 1489 1489 1193 1193 1193 1193 1193 1193 1189 1189 1189 1189 1185 1185 1181 1181 1181 1185 1185 1189 1193 1193 1197 1197 1483 1483 1483 1489 1489 1489 1489 1489 1489 1489 1483 1483 1489 1489 1489 1496 1496 1496 1489 1489 1489 1489 1496 1496 1503 1503 1503 1503 1503 1496 1496 1503 1496 1496 1496 1503 1503 1503 1503 1503 1503 1509 1509 1509 1516 1516 1509 1509 1516 1503 1496 1496 1496 1503 1503 1503 1503 1509 1509 1509 1509 1509 1509 1516 1509 1503 1503 1503 1496 1496 1496 1503 1503 1496 1496 1496 1489 1489 1503 1496 1496 1503 1503 1509 1509 1509 1509 1516 1523 1523 1523 1523 1516 1516 1523 1509 1503 1503 1489 1483 1477 1477 1477 1477 1477 1477 1477 1483 1543 1543 1543 1550 1550 1550 1503 1503 1523 1523 1536 1536 1536 1536 1536 1529 1529 1523 1523 1523 1523 1523 1516 1516 1523 1529 1529 1529 1523 1523 1523 1523 1516 1516 1523 1523 1529 1543 1543 1543 1550 1557 1557 1557 0 4190 4190 4139 4139 4139 4041 4041 4089 4089 4041 4041 4089 4089 4089 4041 4041 4041 4041 4089 4041 4041 4041 4089 4089 4139 4089 4089 4139 4139 4139 4139 4139 4139 4089 4089 4041 4041 4041 4041 4041 0 0 0 0 0 0 0 0 0 0 0 0
0 0 0 0 0 0 0 0 0 0 0 0 0 0 0 0 0 0 0 0 0 0 0 0 0 0 0 0 0 0 0 3433 3433 3433 3433 3433 3399 3399 3399 3399 3433 3433 3433 3433 3468 3468 3468 3468 3468 3468 3468 3433 3433 3365 3365 3365 3365 3365 3399 3433 3468 3468 3503 3503 3503 3503 3503 3468 3468 3468 3468 3468 3468 3503 3503 3503 3503 3503 3010 3010 3503 3503 3468 3468 3468 3503 3503 3503 3503 3503 3503 3468 3433 3433 3433 3433 3503 3503 3503 3539 3539 3539 3539 3539 3576 3576 3576 3576 3576 3576 3576 3576 3576 3576 3576 3614 3614 3576 3576 3576 3576 3576 3576 3576 3576 3614 3614 3614 3614 3614 3614 3614 3614 3614 3614 3614 3614 3614 3614 3614 3614 3614 3614 3614 3653 3653 3653 3653 3653 3692 3692 3692 3692 3653 3653 3653 3653 3653 3653 3653 3653 3653 3653 3614 3614 3614 3653 3653 3692 3692 3692 3732 3732 3732 3732 3774 3774 0 1647 1647 1639 1639 1639 1639 1639 1639 1647 1647 1647 1647 1647 1647 1655 1655 1663 1671 1688 1748 1757 1757 1766 1766 1766 1757 1757 1748 1748 1739 1731 1731 1722 1722 1731 1722 1722 1722 1722 1713 1713 1713 1713 1713 1713 1713 1705 1705 1705 1705 1705 1705 1688 1688 1688 1688 1688 1688 1688 1688 1688 1696 1529 1529 1529 1523 1523 1516 1516 1509 1509 1516 1516 1516 1516 1516 1516 1516 1516 1516 1509 1503 1503 1496 1496 1496 1496 1496 1496 1496 1496 1496 1496 1496 1503 1509 1509 1523 1601 1601 1601 1601 1601 1601 1601 1601 1594 1594 1594 1586 1586 1586 1586 1579 1579 1579 1579 1579 1572 1572 1572 1572 1572 1564 1343 1343 1343 1343 1343 1343 1349 1343 1343 1343 1343 1343 1349 1349 1349 1349 1354 1354 1359 1359 1509 1516 1516 1516 1516 1516 1516 1509 1503 1503 1503 1503 1503 1503 1496 1496 1489 1489 1489 1489 1483 1483 1483 1483 1483 1477 1477 1477 1477 1477 1477 1477 1477 1477 1470 1470 1470 1470 1470 1470 1470 1470 1470 1470 1470 1470 1470 1470 1470 1470 1470 1477 1477 1477 1477 1477 1477 1477 1477 1477 1477 1470 1470 1470 1470 1470 1470 1470 1470 1470 1470 1470 1464 1464 1464 1470 1470 1477 1477 1477 1477 1477 1477 1483 1483 1477 1477 1477 1483 1483 1483 1193 1193 1193 1193 1193 1193 1189 1189 1189 1189 1189 1185 1185 1181 1181 1185 1185 1189 1193 1193 1197 1197 1458 1464 1477 1477 1483 1477 1477 1477 1477 1483 1477 1477 1477 1483 1483 1483 1483 1483 1483 1483 1483 1483 1489 1489 1489 1489 1496 1496 1489 1489 1489 1496 1489 1489 1489 1489 1496 1496 1496 1496 1496 1496 1503 1503 1503 1496 1496 1496 1496 1483 1483 1483 1489 1489 1496 1496 1496 1503 1503 1496 1496 1496 1496 1489 1489 1496 1496 1489 1489 1489 1489 1489 1483 1483 1483 1483 1483 1483 1483 1489 1489 1496 1496 1496 1496 1496 1503 1503 1516 1503 1496 1483 1483 1489 1477 1477 1477 1483 1477 1477 1470 1470 1470 1470 1470 1470 1470 1470 1470 0 0 0 0 0 1503 1503 1523 1523 1523 1523 1529 1529 1529 1523 1523 1523 1523 1516 1516 1516 1516 1516 1516 1516 1516 1516 1516 1509 1509 1516 1516 1516 1516 1516 1523 1529 1529 1536 1543 1550 1564 0 0 0 4190 4089 4089 4089 4041 4041 4041 4041 4041 4041 4041 4041 4089 4041 4041 4041 4041 4041 4041 4041 4041 4041 4089 4139 4089 4089 4089 4089 4089 4041 4041 4041 4041 4041 4041 4041 4041 4041 4041 0 0 0 0 0 0 0 0 0 0 0 0
0 0 0 0 0 0 0 0 0 0 0 0 0 0 0 0 0 0 0 0 0 0 0 0 0 0 0 0 0 0 0 3433 3433 3433 3433 3399 3399 3399 3399 3399 3433 3433 3433 3433 3433 3433 3433 3433 3433 3468 3468 3433 3399 3365 3365 3365 3365 3365 3399 3433 3468 3468 3503 3503 3503 3503 3503 3468 3433 3433 3433 3433 3468 3468 3468 3468 3468 3468 3010 3010 3010 3433 3433 3468 3468 3503 3468 3468 3468 3468 3468 3468 3433 3433 3433 3433 3503 3433 3433 3468 3503 3503 3503 3503 3539 3539 3539 3539 3539 3539 3539 3576 3576 3576 3576 3576 3576 3576 3576 3576 3576 3576 3576 3576 3576 3576 3576 3576 3576 3576 3614 3614 3614 3614 3614 3614 3614 3614 3614 3614 3614 3614 3614 3614 3614 3614 3653 3653 3653 3653 3692 3653 3653 3614 3614 3614 3614 3614 3614 3614 3614 3614 3614 3614 3614 3614 3653 3653 3653 3653 3692 3692 3692 3692 3692 3692 0 0 0 1647 1647 1647 1647 1647 1647 1647 1647 1647 1647 1647 1647 1647 1655 1663 1671 1671 1680 1680 1766 1766 1766 1776 1776 1766 1766 1757 1748 1739 1731 1731 1722 1722 1731 1722 1722 1722 1722 1713 1713 1713 1713 1713 1705 1705 1705 1705 1705 1705 1705 1705 1688 1688 1688 1688 1688 1688 1688 1688 1688 1688 1688 1680 1680 1671 1663 1663 1663 1509 1509 1509 1509 1516 1516 1516 1516 1516 1516 1516 1509 1509 1503 1503 1503 1496 1496 1496 1496 1496 1496 1496 1496 1503 1509 1509 1516 1516 1601 1601 1601 1601 1601 1601 1601 1601 1601 1594 1594 1594 1594 1586 1586 1586 1579 1579 1579 1579 1579 1579 1572 1572 1579 1572 1343 1343 1343 1343 1343 1349 1349 1349 1349 1349 1349 1349 1349 1349 1349 1349 1354 1354 1354 1354 1349 1349 1349 1516 1516 1516 1516 1509 1503 1503 1503 1503 1503 1503 1496 1496 1496 1489 1489 1489 1483 1483 1483 1483 1483 1477 1477 1477 1477 1477 1477 1477 1477 1470 1470 1470 1470 1464 1464 1464 1464 1470 1470 1470 1464 1464 1464 1464 1464 1464 1464 1464 1464 1470 1470 1464 1464 1464 1464 1464 1464 1464 1464 1464 1464 1464 1464 1464 1464 1464 1464 1464 1464 1464 1464 1464 1464 1464 1470 1470 1470 1470 1470 1470 1470 1464 1464 1470 1470 1470 1470 1193 1193 1193 1197 1197 1193 1193 1189 1189 1189 1189 1185 1185 1185 1185 1189 1189 1189 1193 1193 1197 1197 1452 1458 1464 1470 1470 1470 1470 1470 1470 1470 1470 1470 1477 1477 1477 1477 1483 1483 1483 1483 1483 1483 1483 1483 1483 1483 1489 1483 1483 1483 1483 1483 1483 1483 1483 1483 1489 1489 1489 1489 1489 1489 1489 1489 1483 1483 1483 1483 1483 1477 1477 1477 1483 1483 1489 1489 1489 1489 1496 1489 1489 1483 1483 1477 1477 1483 1483 1483 1483 1483 1483 1483 1477 1477 1477 1477 1477 1477 1483 1483 1489 1489 1489 1489 1489 1483 1483 1483 1477 1477 1470 1470 1470 1477 1470 1470 1464 1464 1464 1464 1464 1464 1464 1464 1470 1470 1470 1470 1470 0 0 0 0 0 1503 1503 1496 1496 1516 1523 1523 1529 1529 1523 1523 1516 1516 1516 1516 1509 1503 1503 1503 1503 1489 1489 1496 1496 1503 1503 1509 1509 1509 1509 1516 1516 1516 1523 1523 1550 0 0 0 0 4089 4089 4089 4041 3994 3994 3994 4041 4041 4041 4041 4041 4041 3994 3994 3994 3994 4041 4041 4041 4041 4041 4089 4089 4089 4041 4041 3994 3994 3994 3994 3994 4041 3994 3994 3994 3994 3994 3994 0 0 0 0 0 0 0 0 0 0 0 0
0 0 0 0 0 0 0 0 0 0 0 0 0 0 0 0 0 0 0 0 0 0 0 0 0 0 0 0 0 0 0 3399 3399 3399 3399 3399 3365 3365 3365 3399 3399 3365 3365 3399 3399 3433 3433 3399 3399 3433 3433 3433 3399 3365 3365 3365 3365 3365 3399 3399 3468 3468 3503 3503 3503 3468 3468 3433 3433 3433 3433 3433 3433 3468 3468 3468 3468 3468 3010 3010 3010 3399 3399 3433 3468 3468 3468 3468 3468 3468 3468 3433 3433 3433 3433 3433 3433 3433 3433 3433 3468 3468 3468 3503 3503 3503 3503 3503 3503 3503 3539 3539 3539 3576 3576 3576 3576 3576 3576 3576 3576 3576 3576 3576 3576 3576 3576 3576 3576 3576 3576 3576 3576 3576 3614 3614 3614 3614 3614 3614 3614 3614 3614 3614 3614 3614 3614 3614 3614 3653 3614 3614 3614 3576 3576 3576 3576 3576 3576 3576 3576 3576 3576 3576 3576 3576 3614 3614 3614 3614 3653 3692 3692 3653 3653 3653 0 0 0 1647 1647 1647 1647 1647 1647 1647 1647 1647 1647 1647 1647 1647 1655 1663 1671 1671 1680 1680 1766 1776 1776 1776 1776 1776 1776 1766 1757 1757 1731 1731 1731 1731 1731 1731 1722 1722 1722 1713 1705 1705 1705 1705 1705 1705 1705 1705 1705 1705 1705 1696 1688 1688 1680 1680 1680 1680 1680 1680 1680 1688 1680 1680 1671 1671 1663 1663 1663 1663 1509 1509 1509 1509 1516 1516 1516 1516 1516 1516 1509 1509 1509 1503 1503 1496 1496 1496 1496 1496 1496 1496 1496 1503 1509 1516 1516 1516 1601 1601 1601 1601 1601 1601 1601 1601 1601 1594 1594 1594 1586 1586 1586 1586 1586 1579 1579 1579 1579 1579 1572 1572 1572 1572 1572 1349 1349 1349 1349 1349 1349 1349 1349 1349 1349 1349 1349 1349 1349 1349 1354 1354 1354 1354 1349 1349 1343 1343 1516 1516 1516 1516 1509 1509 1509 1503 1503 1503 1503 1496 1496 1496 1489 1489 1489 1483 1483 1483 1483 1483 1483 1483 1477 1477 1477 1477 1477 1470 1470 1464 1464 1464 1464 1464 1464 1464 1464 1464 1464 1464 1464 1458 1458 1458 1458 1464 1464 1458 1458 1458 1458 1458 1458 1452 1452 1452 1452 1458 1458 1458 1458 1458 1458 1458 1458 1458 1452 1452 1452 1458 1458 1458 1458 1458 1458 1458 1458 1458 1458 1458 1458 1458 1458 1458 1458 1193 1193 1197 1197 1197 1193 1193 1189 1189 1189 1189 1189 1185 1185 1189 1189 1189 1193 1193 1197 1197 1197 1445 1452 1452 1452 1452 1452 1458 1464 1464 1464 1464 1464 1464 1464 1464 1464 1470 1470 1470 1470 1470 1477 1470 1470 1470 1464 1464 1464 1464 1470 1470 1464 1464 1470 1477 1477 1483 1483 1483 1483 1483 1477 1477 1470 1470 1470 1470 1470 1470 1470 1470 1470 1477 1470 1470 1477 1477 1483 1470 1470 1470 1470 1470 1470 1470 1470 1477 1477 1477 1477 1477 1477 1477 1477 1477 1477 1470 1470 1477 1477 1483 1483 1483 1477 1477 1477 1470 1470 1464 1464 1470 1470 1470 1470 1464 1464 1464 1464 1458 1458 1458 1458 1458 1464 1464 1470 1470 1470 1470 0 0 0 0 0 0 0 1477 1477 1483 1516 1523 1523 1529 1503 1483 1483 1483 1496 1489 1483 1483 1483 1483 1483 1483 1483 1489 1489 1496 1503 1503 1503 1503 1503 1509 1509 1509 1509 1509 0 0 0 0 4295 4089 4041 3994 3994 3994 3994 3994 3994 3994 3994 3994 3994 4041 3994 3994 3994 3994 3994 3994 3994 4041 4041 4041 4041 3994 3994 3994 3994 3994 3994 3994 3994 3994 3994 3994 3994 3948 3948 3948 0 0 0 0 0 0 0 0 0 0 0 0
0 0 0 0 0 0 0 0 0 0 0 0 0 0 0 0 0 0 0 0 0 0 0 0 0 0 0 0 0 0 0 3399 3399 3399 3399 3365 3365 3365 3365 3365 3365 3365 3365 3365 3399 3433 3399 3399 3399 3433 3433 3433 3399 3365 3365 3365 3365 3365 3365 3399 3433 3468 3468 3468 3468 3468 3468 3433 3433 3433 3433 3433 3433 3433 3433 3433 3433 3433 3010 3010 3178 3300 3365 3433 3433 3433 3468 3468 3468 3468 3433 3433 3433 3333 3208 3208 3208 3238 3365 3399 3468 3468 3468 3468 3468 3503 3503 3503 3503 3503 3503 3503 3539 3539 3539 3539 3539 3539 3539 3576 3576 3576 3576 3576 3576 3576 3539 3539 3539 3539 3539 3576 3576 3576 3576 3576 3576 3576 3576 3576 3576 3576 3576 3576 3614 3614 3614 3576 3576 3614 3614 3614 3614 3576 3576 3576 3576 3576 3576 3576 3576 3576 3576 3576 3576 3576 3576 3576 3614 3614 3653 3653 3614 3614 3614 3614 0 0 0 1647 1647 1647 1647 1647 1647 1647 1647 1647 1647 1647 1655 1655 1655 1663 1671 1671 1680 1680 1776 1776 1776 1776 1785 1785 1785 1776 1776 1785 1731 1731 1731 1731 3692 3692 3692 3692 3692 1713 1705 1705 1705 1705 1705 1705 1705 1705 1705 1705 1696 1696 1688 1680 1680 1680 1680 1680 1680 1680 1680 1680 1680 1680 1671 1671 1663 1663 1663 1663 1655 1509 1509 1509 1516 1516 1516 1516 1516 1516 1509 1509 1509 1503 1503 1496 1496 1496 1496 1496 1496 1496 1496 1503 1509 1516 1516 1516 1601 1601 1601 1601 1601 1601 1601 1601 1601 1594 1594 1594 1586 1586 1586 1586 1586 1579 1579 1579 1579 1579 1572 1572 1572 1572 1572 1349 1349 1349 1349 1354 1354 1349 1349 1349 1349 1349 1349 1349 1349 1349 1354 1354 1349 1349 1349 1343 1343 1343 1333 1333 1333 1516 1509 1509 1509 1509 1503 1503 1503 1503 1496 1496 1489 1489 1489 1489 1483 1483 1483 1483 1483 1483 1483 1483 1477 1477 1477 1470 1470 1464 1464 1464 1464 1464 1464 1464 1464 1464 1464 1464 1458 1458 1458 1458 1458 1458 1458 1458 1452 1445 1445 1445 1445 1445 1445 1445 1445 1452 1452 1452 1452 1452 1452 1452 1452 1452 1452 1452 1452 1452 1452 1445 1445 1452 1452 1445 1445 1445 1452 1452 1452 1452 1458 1458 1458 1197 1197 1197 1197 1197 1193 1193 1189 1189 1189 1189 1189 1189 1189 1189 1189 1189 1193 1193 1197 1197 1197 1439 1439 1439 1439 1439 1439 1445 1445 1445 1452 1452 1452 1458 1458 1458 1458 1458 1458 1458 1458 1458 1464 1464 1464 1458 1458 1458 1452 1452 1458 1458 1458 1458 1458 1470 1470 1470 1470 1470 1477 1470 1464 1464 1458 1458 1464 1464 1464 1458 1458 1464 1464 1464 1458 1458 1464 1464 1470 1464 1464 1464 1464 1464 1464 1464 1464 1464 1470 1464 1464 1470 1470 1470 1470 1470 1470 1470 1470 1470 1470 1477 1477 1477 1470 1470 1470 1464 1464 1458 1458 1464 1464 1464 1464 1464 1458 1452 1427 1427 1439 1458 1445 1445 1464 1464 0 0 0 0 0 0 0 0 0 0 1458 1458 1464 1464 1464 1458 1458 1445 1445 1452 1458 1470 1477 1477 1477 1470 1470 1470 1477 1477 1477 1483 1483 1483 1489 1496 1496 1503 1503 1503 1503 1503 1503 1509 0 0 0 0 4295 4041 4041 3994 3994 3948 3948 3994 3994 3994 3994 3994 3994 3994 3994 3994 3994 3994 3994 3994 3994 3994 3994 3994 3994 3948 3903 3903 3948 3948 3948 3948 3994 3994 3994 3994 3948 3948 3948 3948 0 0 0 0 0 0 0 0 0 0 0 0
0 0 0 0 0 0 0 0 0 0 0 0 0 0 0 0 0 0 0 0 0 0 0 0 0 0 0 0 0 0 0 3365 3365 3365 3365 3365 3333 3333 3333 3365 3333 3333 3333 3365 3365 3365 3365 3365 3365 3399 3433 3399 3399 3365 3365 3365 3365 3365 3365 3399 3433 3433 3468 3468 3468 3468 3468 3399 3399 3433 3433 3433 3433 3433 3433 3433 3433 3433 3092 3092 3178 3300 3365 3433 3433 3433 3433 3433 3433 3433 3433 3433 3399 3333 3208 3208 3208 3238 3300 3399 3433 3468 3468 3468 3468 3468 3468 3468 3468 3468 3503 3503 3503 3503 3503 3503 3503 3503 3503 3503 3503 3539 3539 3539 3539 3539 3503 3503 3503 3503 3503 3539 3539 3539 3576 3576 3576 3576 3576 3576 3576 3576 3576 3576 3576 3576 3576 3576 3576 3576 3576 3576 3576 3539 3539 3576 3539 3539 3576 3576 3576 3576 3539 3539 3539 3539 3576 3576 3576 3576 3614 3614 3576 3576 3576 3576 3614 3614 0 1647 1647 1647 1647 1647 1647 1647 1647 1647 1647 1647 1655 1655 1655 1663 1671 1671 1671 1680 1776 1776 1785 1785 1785 1785 1785 1785 1794 1804 1804 3576 3576 3614 3614 3614 3614 3653 3692 3692 3692 3692 3692 1705 1705 1705 1696 1696 1705 1705 1696 1696 1680 1680 1680 1680 1680 1680 1680 1680 1680 1680 1680 1680 1671 1671 1663 1663 1663 1655 1655 1655 1655 1655 1647 1647 1647 1647 1647 1639 1639 1509 1503 1503 1503 1496 1496 1496 1496 1496 1496 1496 1496 1503 1509 1516 1516 1516 1601 1601 1601 1601 1601 1601 1601 1601 1601 1601 1594 1594 1586 1586 1586 1586 1579 1579 1579 1579 1579 1579 1579 1579 1579 1579 1572 1572 1354 1349 1349 1354 1354 1349 1349 1349 1349 1349 1349 1349 1349 1349 1354 1354 1349 1349 1349 1343 1343 1343 1333 1333 1333 1333 1509 1509 1509 1509 1509 1509 1503 1503 1503 1496 1496 1489 1489 1483 1483 1483 1483 1483 1483 1483 1483 1483 1483 1477 1477 1470 1464 1464 1464 1464 1464 1464 1464 1464 1464 1464 1464 1464 1458 1458 1458 1458 1458 1458 1458 1452 1445 1445 1445 1445 1445 1439 1439 1439 1445 1445 1445 1445 1445 1445 1445 1445 1445 1445 1445 1445 1445 1445 1439 1439 1439 1439 1439 1439 1439 1439 1439 1439 1445 1445 1445 1445 1445 1445 1197 1197 1197 1197 1193 1193 1193 1189 1189 1189 1189 1189 1189 1189 1189 1193 1193 1193 1202 1202 1433 1433 1433 1433 1433 1433 1439 1439 1439 1439 1439 1439 1439 1452 1452 1452 1452 1452 1452 1452 1452 1452 1452 1452 1452 1452 1452 1445 1445 1445 1445 1445 1445 1445 1452 1458 1452 1445 1445 1452 1458 1452 1452 1445 1445 1452 1452 1452 1452 1452 1452 1452 1458 1458 1452 1452 1452 1458 1458 1458 1458 1458 1464 1464 1458 1458 1464 1464 1458 1458 1458 1458 1458 1464 1464 1464 1464 1464 1464 1464 1464 1464 1470 1470 1464 1464 1464 1458 1458 1458 1458 1458 1458 1458 1458 1458 1458 1427 1427 1427 1433 1433 1439 1439 1439 1439 0 0 0 0 0 0 0 0 0 0 1458 1458 1458 1458 1458 1439 1439 1439 1439 1439 1445 1452 1464 1464 1464 1464 1464 1464 1464 1464 1470 1470 1477 1477 1483 1483 1489 1489 1496 1503 1503 1503 1503 0 0 0 0 0 0 3994 3994 3948 3948 3948 3948 3994 3994 3994 3994 3994 3994 3994 3994 3994 3994 3994 3994 3994 3994 3994 3994 3948 3903 3903 3903 3903 3948 3948 3948 3948 3948 3994 3948 3948 3903 3903 3859 3859 0 0 0 0 0 0 0 0 0 0 0 0
0 0 0 0 0 0 0 0 0 0 0 0 0 0 0 0 0 0 0 0 0 0 0 0 0 0 0 0 0 0 0 3365 3365 3365 3365 3365 3333 3333 3333 3365 3333 3333 3333 3365 3365 3365 3365 3365 3365 3365 3399 3399 3365 3365 3365 3365 3365 3365 3365 3365 3399 3433 3433 3433 3433 3433 3433 3399 3399 3399 3399 3433 3433 3433 3433 3433 3433 3433 3433 3433 3333 3333 3399 3433 3433 3433 3433 3433 3433 3433 3433 3433 3399 3333 3238 3238 3238 3238 3300 3365 3433 3433 3468 3468 3468 3468 3468 3468 3468 3468 3468 3468 3468 3468 3468 3468 3468 3468 3468 3468 3503 3468 3468 3468 3468 3468 3468 3468 3503 3503 3503 3539 3539 3539 3539 3576 3576 3576 3576 3576 3576 3576 3576 3576 3576 3576 3576 3576 3576 3576 3576 3576 3576 3539 3539 3539 3539 3539 3539 3539 3539 3539 3539 3539 3539 3539 3539 3539 3576 3576 3576 3576 3576 3576 3576 3576 3614 3614 0 1647 0 1647 1647 1647 1647 1647 1647 1647 1655 1655 1655 1655 1663 1663 1671 1671 1671 1671 1671 1785 1785 1785 1785 1785 1785 1785 1794 1813 1813 3576 3576 3576 3614 3614 3614 3653 3653 3692 3653 3653 3692 3692 3692 3692 1696 1696 1705 1705 1696 1696 1680 1680 1680 1671 1671 1680 1680 1680 1680 1680 1680 1680 1671 1671 1663 1663 1663 1655 1655 1655 1655 1647 1647 1647 1647 1647 1647 1639 1639 1639 1503 1503 1503 1496 1496 1496 1496 1496 1496 1496 1503 1503 1509 1516 1516 1516 1523 1601 1601 1609 1609 1601 1601 1601 1601 1601 1594 1594 1586 1586 1586 1586 1579 1579 1579 1579 1579 1579 1579 1579 1579 1579 1572 1572 1572 1349 1349 1354 1354 1354 1354 1354 1349 1349 1349 1349 1349 1349 1354 1354 1349 1349 1349 1349 1343 1343 1343 1333 1333 1333 1333 1328 1322 1317 1317 1509 1509 1509 1503 1496 1496 1489 1489 1312 1312 1483 1483 1483 1483 1483 1483 1483 1483 1477 1477 1470 1464 1464 1464 1464 1464 1464 1464 1464 1464 1464 1458 1458 1458 1458 1458 1458 1458 1452 1452 1445 1445 1445 1445 1445 1439 1439 1439 1439 1445 1439 1439 1439 1439 1439 1439 1439 1439 1439 1439 1439 1439 1439 1433 1433 1433 1433 1433 1433 1433 1433 1433 1439 1433 1433 1433 1433 1433 1433 1197 1197 1197 1197 1193 1193 1193 1189 1189 1189 1189 1189 1189 1189 1193 1193 1197 1197 1202 1202 1206 1433 1433 1433 1433 1433 1433 1433 1433 1433 1433 1433 1439 1445 1445 1445 1445 1445 1445 1439 1439 1439 1439 1439 1445 1445 1445 1439 1439 1439 1439 1439 1439 1439 1439 1439 1439 1439 1439 1439 1439 1439 1439 1439 1439 1439 1445 1445 1445 1445 1445 1445 1445 1445 1445 1439 1439 1445 1445 1445 1445 1452 1452 1458 1458 1458 1458 1458 1452 1445 1445 1452 1452 1458 1458 1458 1458 1458 1458 1464 1464 1464 1464 1458 1458 1458 1458 1452 1452 1452 1452 1458 1458 1458 1458 1452 1452 1427 1421 1421 1433 1427 1427 1433 1433 1427 0 0 0 0 0 0 0 0 0 0 1452 1452 1452 1427 1427 1433 1433 1433 1433 1439 1445 1452 1452 1458 1464 1458 1458 1458 1458 1464 1464 1470 1470 1470 1477 1477 1477 1483 1489 1489 1496 1496 1496 0 0 0 0 0 0 3948 3948 3948 3948 3948 3948 3948 3948 3994 3948 3948 3994 3994 3994 3994 3948 3948 3994 3948 3948 3948 3903 3903 3859 3859 3859 3859 3903 3948 3948 3948 3948 3948 3903 3859 3859 3859 3859 3859 0 0 0 0 0 0 0 0 0 0 0 0
0 0 0 0 0 0 0 0 0 0 0 0 0 0 0 0 0 0 0 0 0 0 0 0 0 0 0 0 0 0 0 3365 3365 3365 3333 3333 3333 3333 3333 3333 3333 3333 3333 3365 3365 3365 3365 3365 3365 3365 3365 3365 3365 3365 3365 3365 3365 3365 3365 3365 3399 3433 3433 3433 3433 3433 3433 3365 3365 3365 3399 3399 3399 3399 3399 3399 3433 3433 3433 3433 3365 3365 3399 3399 3399 3433 3433 3433 3433 3433 3433 3399 3399 3300 3238 3238 3238 3238 3269 3333 3399 3433 3433 3433 3468 3468 3433 3433 3433 3433 3468 3468 3468 3468 3468 3468 3468 3468 3468 3468 3468 3468 3468 3468 3468 3468 3468 3468 3468 3468 3503 3503 3503 3539 3539 3539 3576 3576 3576 3539 3539 3539 3539 3539 3539 3539 3539 3539 3539 3539 3539 3539 3576 3539 3539 3539 3539 3539 3539 3539 3539 3503 3503 3503 3503 3539 3539 3539 3539 3539 3576 3576 3539 3539 3576 3576 3614 3614 0 0 1647 1647 1647 1647 1647 1647 1647 1647 1655 1655 1655 1663 1663 1663 1671 1671 1671 1671 1671 1785 1785 1785 1785 1785 1785 1785 1804 1813 1813 3576 3576 3576 3614 3614 3614 3653 3653 3653 3653 3653 3692 3692 3692 3653 3653 3692 3692 3692 3732 3732 1688 1688 1680 1671 1671 1671 1680 1680 1680 1680 1680 1680 1671 1671 1663 1663 1663 1655 1655 1655 1655 1647 1647 1647 1647 1647 1647 1647 1639 1639 1639 1503 1503 1503 1503 1496 1496 1496 1496 1496 1503 1503 1509 1516 1516 1523 1523 1601 1601 1609 1609 1609 1601 1601 1601 1601 1594 1594 1586 1586 1586 1586 1586 1586 1579 1579 1579 1579 1579 1579 1579 1579 1572 1572 1572 1354 1354 1354 1354 1354 1354 1354 1354 1354 1354 1354 1349 1349 1354 1354 1349 1349 1349 1349 1343 1343 1343 1333 1333 1333 1333 1328 1322 1317 1317 1317 1312 1312 1509 1312 1307 1307 1307 1307 1307 1307 1302 1302 1302 1302 1302 1302 1483 1477 1477 1470 1464 1464 1464 1464 1464 1464 1464 1464 1464 1464 1458 1458 1458 1458 1458 1458 1458 1452 1452 1445 1445 1445 1445 1445 1439 1439 1439 1439 1439 1439 1439 1439 1439 1439 1439 1433 1433 1433 1433 1433 1433 1433 1427 1427 1433 1433 1427 1427 1427 1433 1433 1433 1433 1433 1433 1427 1427 1427 1427 1197 1197 1197 1193 1193 1193 1193 1193 1189 1189 1189 1189 1189 1193 1193 1197 1197 1202 1206 1206 1427 1427 1427 1427 1433 1433 1433 1433 1427 1427 1427 1427 1427 1427 1433 1433 1433 1433 1433 1433 1433 1433 1433 1433 1439 1439 1433 1433 1433 1433 1433 1433 1433 1433 1433 1433 1433 1433 1427 1427 1427 1427 1433 1433 1433 1439 1439 1439 1439 1439 1439 1439 1439 1439 1433 1433 1439 1439 1439 1439 1439 1445 1445 1452 1452 1452 1452 1445 1439 1439 1439 1439 1433 1433 1433 1439 1439 1445 1445 1445 1445 1445 1445 1445 1445 1445 1445 1445 1445 1445 1452 1452 1445 1445 1445 1445 1381 1381 1381 1427 1427 1427 1427 1427 1427 0 0 0 0 0 0 0 0 0 0 1452 1445 1445 1421 1421 1427 1427 1427 1433 1433 1439 1445 1445 1452 1452 1458 1458 1458 1458 1458 1458 1464 1464 1464 1470 1470 1470 1477 1477 1483 1489 1496 1496 0 0 0 0 0 0 3948 3948 3903 3903 3903 3903 3859 3859 3903 3903 3903 3903 3948 3903 3903 3903 3903 3948 3903 3903 3859 3859 3859 3859 3859 3859 3859 3903 3903 3903 3948 3948 3903 3859 3816 3816 3816 3816 3816 0 0 0 0 0 0 0 0 0 0 0 0
0 0 0 0 0 0 0 0 0 0 0 0 0 0 0 0 0 0 0 0 0 0 0 0 0 0 0 0 0 0 0 3365 3365 3365 3333 3333 3333 3333 3333 3333 3333 3333 3333 3333 3365 3365 3365 3333 3333 3365 3365 3365 3365 3365 3365 3365 3365 3365 3365 3365 3365 3365 3399 3399 3399 3399 3399 3365 3365 3365 3365 3399 3399 3399 3399 3399 3399 3399 3365 3365 3333 3333 3365 3399 3399 3399 3399 3399 3433 3433 3399 3399 3365 3300 3238 3238 3238 3238 3269 3300 3365 3399 3399 3433 3433 3433 3433 3433 3433 3433 3433 3433 3433 3433 3433 3433 3433 3468 3468 3468 3468 3468 3468 3468 3468 3468 3468 3468 3468 3468 3468 3468 3503 3503 3503 3503 3503 3539 3503 3503 3503 3539 3503 3503 3503 3503 3503 3503 3503 3539 3539 3539 3539 3503 3503 3539 3539 3503 3503 3503 3539 3503 3503 3503 3503 3503 3539 3539 3539 3539 3539 3539 3539 3539 3539 3576 3576 0 3503 0 1647 1647 1647 1647 1647 1647 1647 1647 1655 1655 1655 1663 1663 1663 1671 1671 1671 1671 1671 1680 1785 1785 1785 1785 1794 1794 1813 1823 1823 3576 3576 3576 3614 3614 3614 3614 3653 3653 3653 3653 3692 3692 3692 3653 3653 3692 3653 3653 3692 3732 3732 3732 3692 1671 1671 1671 1680 1680 1680 1671 1671 1680 1671 1671 1663 1663 1655 1655 1655 1655 1655 1655 1647 1647 1647 1647 1647 1647 1639 1639 1496 1496 1503 1503 1503 1503 1496 1496 1496 1503 1503 1503 1509 1516 1523 1523 1523 1601 1601 1609 1609 1609 1609 1601 1601 1601 1594 1594 1594 1594 1586 1586 1586 1586 1586 1586 1579 1579 1579 1579 1579 1579 1579 1579 1579 1354 1354 1354 1354 1354 1354 1354 1354 1354 1354 1354 1354 1354 1354 1354 1349 1349 1349 1349 1343 1343 1343 1338 1333 1333 1333 1328 1322 1322 1317 1317 1312 1312 1307 1307 1307 1307 1307 1307 1307 1307 1302 1302 1302 1302 1302 1297 1292 1292 1297 1297 1464 1464 1464 1464 1464 1464 1464 1464 1464 1464 1458 1458 1458 1458 1458 1458 1458 1452 1452 1452 1445 1445 1445 1445 1439 1439 1439 1439 1439 1439 1439 1433 1433 1433 1433 1433 1433 1433 1433 1433 1427 1427 1427 1427 1427 1427 1427 1427 1427 1427 1427 1427 1427 1421 1421 1421 1421 1421 1421 1202 1197 1197 1197 1193 1193 1193 1193 1193 1189 1189 1189 1189 1193 1193 1202 1202 1206 1206 1206 1421 1421 1427 1427 1427 1427 1427 1427 1427 1427 1421 1421 1415 1415 1421 1421 1421 1421 1427 1427 1427 1427 1427 1427 1433 1433 1427 1427 1427 1427 1427 1427 1427 1427 1427 1427 1427 1421 1421 1421 1421 1421 1427 1427 1433 1433 1433 1433 1433 1433 1433 1433 1433 1433 1427 1427 1433 1433 1433 1433 1433 1433 1439 1439 1445 1445 1445 1433 1427 1427 1427 1427 1427 1427 1427 1427 1427 1427 1427 1427 1427 1433 1433 1439 1433 1433 1433 1439 1439 1439 1439 1439 1439 1439 1376 1376 1376 1376 1381 1381 1427 1421 1421 1427 0 0 0 0 0 0 0 0 0 0 0 1445 1445 1445 1421 1421 1427 1427 1427 1427 1433 1439 1439 1445 1445 1445 1452 1452 1452 1452 1452 1452 1458 1458 1458 1452 1452 1452 1464 1464 1477 1489 0 0 0 0 0 0 3994 3948 3903 3903 3816 3816 3859 3859 3859 3859 3859 3859 3859 3859 3903 3859 3859 3859 3859 3859 3859 3859 3816 3816 3816 3816 3816 3816 3859 3903 3903 3903 3903 3903 3903 3859 3816 3816 3816 3816 3816 0 0 0 0 0 0 0 0 0 0 0 0
0 0 0 0 0 0 0 0 0 0 0 0 0 0 0 0 0 0 0 0 0 0 0 0 0 0 0 0 0 0 0 3333 3333 3333 3333 3333 3300 3300 3300 3300 3300 3300 3300 3333 3333 3333 3333 3333 3333 3333 3333 3333 3365 3365 3365 3365 3365 3365 3365 3365 3365 3365 3365 3365 3365 3365 3365 3333 3333 3333 3333 3365 3365 3365 3365 3365 3399 3399 3333 3333 3333 3333 3333 3333 3333 3365 3399 3399 3399 3399 3399 3399 3365 3300 3269 3269 3269 3269 3269 3300 3300 3365 3399 3433 3433 3433 3433 3433 3433 3433 3433 3433 3433 3433 3433 3433 3433 3433 3433 3433 3468 3433 3433 3433 3433 3433 3433 3433 3468 3468 3468 3468 3468 3468 3468 3468 3468 3503 3503 3468 3468 3503 3503 3503 3503 3503 3503 3503 3503 3503 3539 3539 3539 3503 3503 3503 3503 3503 3503 3503 3503 3468 3468 3468 3468 3503 3503 3503 3503 3503 3503 3503 3503 3503 3539 3539 3503 3503 3503 0 1647 1647 1647 1647 1647 1647 1647 1655 1655 1655 1655 1663 1663 1663 1671 1671 1671 1680 1680 1680 1785 1785 1785 1794 1794 1794 1813 1823 0 3539 3539 3539 3576 3614 3614 3614 3653 3653 3653 3653 3653 3653 3653 3692 3692 3692 3653 3653 3692 3692 3692 3692 3692 3732 3732 3732 3614 1680 1680 1671 1671 1680 1671 1671 1663 1663 1655 1655 1655 1655 1655 1655 1647 1647 1647 1647 1647 1647 1647 1647 1489 1489 1503 1503 1503 1503 1496 1496 1503 1503 1503 1503 1509 1516 1523 1523 1523 1601 1601 1609 1609 1609 1609 1609 1601 1601 1594 1594 1594 1594 1586 1586 1586 1586 1586 1586 1579 1579 1579 1579 1579 1579 1579 1579 1579 1365 1359 1359 1359 1354 1354 1354 1354 1354 1354 1354 1354 1354 1354 1354 1354 1349 1349 1349 1343 1343 1343 1338 1333 1333 1333 1333 1328 1322 1317 1317 1312 1312 1307 1307 1307 1307 1307 1307 1307 1307 1302 1302 1302 1302 1302 1297 1292 1292 1297 1297 1292 1292 1288 1288 1292 1464 1464 1464 1464 1464 1458 1458 1458 1458 1458 1452 1452 1445 1439 1439 1439 1439 1439 1445 1439 1439 1439 1439 1439 1439 1439 1433 1433 1433 1433 1433 1433 1427 1427 1427 1427 1427 1421 1421 1421 1421 1421 1421 1421 1421 1421 1421 1421 1415 1415 1410 1410 1415 1415 1202 1202 1202 1197 1193 1193 1193 1193 1193 1189 1189 1189 1193 1193 1197 1202 1202 1206 1206 1206 1415 1415 1421 1421 1421 1421 1421 1421 1421 1421 1415 1415 1415 1415 1415 1415 1415 1415 1421 1421 1421 1421 1421 1421 1421 1421 1421 1421 1421 1421 1421 1427 1427 1421 1421 1421 1421 1415 1415 1415 1415 1415 1421 1421 1421 1427 1427 1427 1427 1427 1427 1427 1427 1427 1427 1427 1427 1427 1427 1427 1427 1427 1427 1427 1427 1421 1421 1415 1415 1415 1415 1415 1415 1410 1410 1410 1410 1410 1410 1410 1410 1410 1415 1415 1427 1427 1427 1427 1433 1433 1433 1427 1421 1387 1376 1376 1376 1376 1381 1381 1381 1398 1398 1398 1398 0 1398 1398 0 0 0 0 0 0 0 0 1398 1415 1415 1415 1421 1421 1421 1427 1427 1433 1439 1439 1439 1439 1445 1445 1445 1445 1445 1445 1445 1445 1439 1433 1433 1433 1433 1445 1452 1452 0 0 0 0 0 0 3994 3903 3903 3903 3816 3816 3859 3859 3859 3859 3859 3859 3859 3859 3859 3859 3816 3816 3816 3816 3816 3816 3816 3816 3816 3816 3816 3816 3859 3903 3903 3903 3903 3903 3859 3859 3816 3816 3816 3816 3816 0 0 0 0 0 0 0 0 0 0 0 0
0 0 0 0 0 0 0 0 0 0 0 0 0 0 0 0 0 0 0 0 0 0 0 0 0 0 0 0 0 0 0 3300 3300 3300 3300 3300 3300 3269 3269 3269 3269 3300 3300 3300 3333 3333 3333 3333 3333 3333 3333 3333 3333 3333 3365 3365 3365 3365 3365 3333 3333 3365 3333 3333 3365 3365 3365 3333 3333 3333 3333 3333 3333 3333 3333 3333 3365 3333 3269 3269 3300 3300 3300 3300 3300 3333 3365 3365 3365 3365 3399 3399 3333 3300 3300 3269 3269 3269 3269 3269 3269 3333 3399 3399 3399 3399 3399 3399 3399 3399 3399 3433 3433 3433 3433 3433 3433 3433 3433 3433 3433 3433 3433 3433 3433 3433 3433 3433 3433 3468 3468 3468 3468 3468 3468 3468 3468 3468 3468 3468 3468 3468 3468 3468 3468 3468 3468 3503 3503 3503 3503 3503 3503 3468 3468 3468 3468 3468 3468 3468 3468 3468 3468 3468 3468 3468 3468 3468 3468 3468 3468 3468 3468 3468 3468 3468 3468 3468 3468 3399 1647 1647 1647 1647 1647 1647 1655 1655 1655 1655 1655 1655 1663 1663 1671 1671 1671 1680 1680 1785 1785 1785 1785 1794 1794 1794 1813 1813 1813 3539 3539 3539 3576 3576 3614 3614 3614 3614 3614 3614 3653 3653 3653 3653 3653 3653 3653 3653 3653 3692 3692 3692 3692 3692 3732 3732 3614 3614 3576 3576 3576 1680 1671 1671 1663 1663 1655 1655 1655 1655 1655 1655 1647 1647 1647 1647 1647 1647 1647 1647 1489 1489 1503 1509 1509 1503 1503 1503 1503 1503 1503 1509 1509 1516 1523 1523 1523 1601 1601 1601 1609 1609 1609 1609 1601 1601 1601 1601 1594 1594 1586 1586 1586 1586 1586 1586 1586 1579 1579 1579 1579 1579 1579 1579 1579 1365 1359 1359 1354 1354 1354 1354 1354 1354 1354 1354 1354 1354 1354 1354 1354 1349 1349 1349 1343 1343 1343 1338 1333 1333 1333 1333 1328 1322 1322 1322 1317 1317 1312 1312 1312 1307 1307 1307 1307 1307 1302 1302 1302 1302 1302 1302 1297 1297 1297 1297 1292 1292 1288 1288 1288 1283 1283 1283 1283 1283 1283 1283 1283 1283 1283 1283 1283 1283 1283 1439 1439 1439 1439 1439 1439 1439 1439 1439 1439 1439 1439 1433 1433 1433 1433 1433 1433 1427 1427 1427 1427 1421 1421 1421 1415 1415 1415 1415 1415 1415 1415 1415 1410 1410 1410 1410 1410 1410 1410 1410 1202 1202 1202 1197 1193 1193 1193 1193 1193 1189 1189 1193 1193 1197 1202 1202 1206 1206 1206 1210 1404 1404 1410 1410 1415 1410 1404 1404 1410 1410 1410 1410 1410 1410 1410 1410 1410 1415 1415 1415 1410 1410 1410 1410 1410 1410 1410 1415 1415 1415 1415 1415 1415 1415 1415 1415 1410 1410 1410 1410 1410 1410 1410 1415 1415 1415 1421 1421 1421 1421 1421 1421 1421 1421 1421 1421 1421 1421 1421 1415 1415 1415 1415 1415 1415 1415 1410 1410 1410 1410 1410 1410 1410 1410 1410 1410 1404 1404 1404 1404 1404 1410 1410 1415 1415 1421 1421 1421 1427 1421 1415 1381 1381 1376 1376 1376 1376 1376 1376 1376 1381 1387 1392 1392 1398 1398 1398 1398 1398 1404 1410 1404 1404 1404 1398 1398 1398 1398 1410 1415 1415 1415 1421 1421 1421 1433 1433 1439 1439 1439 1439 1439 1439 1439 1439 1439 1433 1427 1427 1427 1427 1433 1433 1439 0 0 0 0 0 0 0 3903 3859 3859 3859 3859 3859 3816 3816 3816 3816 3859 3859 3859 3859 3859 3816 3816 3816 3816 3816 3816 3816 3816 3774 3774 3816 3816 3816 3816 3859 3859 3859 3903 3903 3859 3816 3774 3774 3774 3774 3774 0 0 0 0 0 0 0 0 0 0 0 0
0 0 0 0 0 0 0 0 0 0 0 0 0 0 0 0 0 0 0 0 0 0 0 0 0 0 0 0 0 0 0 3300 3269 3269 3269 3269 3269 3269 3269 3269 3269 3269 3269 3269 3300 3300 3300 3300 3269 3269 3269 3269 3300 3300 3333 3333 3365 3365 3333 3333 3333 3333 3333 3333 3333 3333 3333 3333 3333 3333 3333 3333 3333 3333 3333 3333 3300 3300 3269 3269 3269 3269 3269 3269 3300 3333 3333 3333 3333 3365 3365 3365 3333 3333 3300 3300 3300 3269 3269 3269 3269 3300 3365 3365 3365 3365 3365 3365 3399 3399 3399 3399 3399 3399 3399 3399 3399 3433 3433 3433 3433 3433 3433 3433 3433 3399 3399 3433 3433 3433 3433 3433 3468 3468 3468 3468 3468 3468 3468 3468 3468 3468 3468 3468 3468 3468 3468 3468 3468 3468 3468 3468 3468 3433 3433 3433 3433 3433 3433 3433 3433 3433 3433 3433 3433 3468 3468 3468 3468 3468 3468 3433 3433 3433 3433 3433 3433 3399 3399 3399 0 1647 1647 1647 1647 1647 1655 1655 1655 1655 1655 1655 1663 1663 1671 1671 1671 1680 1680 1680 1785 1785 1785 1794 1804 1813 1813 1813 0 3539 3539 3539 3576 3576 3614 3614 3614 3614 3614 3614 3653 3614 3614 3653 3653 3653 3614 3614 3653 3653 3653 3653 3653 3692 3614 3614 3614 3614 3576 3576 3576 3576 3576 3576 1663 1663 1655 1655 1663 1663 1663 1655 1655 1655 1647 1647 1647 1647 1647 1647 1496 1496 1503 1509 1509 1503 1503 1503 1503 1503 1509 1509 1509 1516 1523 1523 1523 1601 1601 1601 1609 1609 1609 1609 1609 1601 1601 1601 1594 1594 1586 1586 1586 1586 1586 1586 1586 1579 1579 1579 1579 1579 1579 1579 1579 1365 1359 1359 1354 1354 1354 1354 1354 1354 1354 1354 1354 1354 1354 1354 1354 1349 1349 1349 1349 1343 1343 1338 1338 1338 1333 1333 1328 1322 1322 1322 1317 1317 1312 1312 1312 1307 1307 1307 1307 1307 1302 1302 1302 1302 1302 1302 1297 1297 1297 1297 1292 1292 1288 1288 1288 1283 1283 1283 1283 1283 1283 1283 1283 1283 1283 1283 1283 1283 1283 1288 1439 1439 1439 1439 1439 1439 1439 1439 1439 1439 1439 1433 1433 1433 1433 1433 1433 1427 1427 1427 1427 1421 1421 1421 1415 1415 1415 1415 1415 1415 1415 1410 1410 1410 1410 1410 1410 1410 1410 1410 1206 1206 1202 1197 1197 1197 1193 1193 1193 1193 1193 1193 1197 1197 1202 1202 1206 1206 1206 1206 1387 1387 1387 1387 1387 1387 1387 1387 1392 1392 1392 1398 1398 1398 1398 1392 1392 1398 1392 1392 1398 1404 1404 1404 1404 1410 1410 1410 1410 1410 1410 1404 1404 1404 1404 1404 1404 1404 1404 1404 1404 1404 1404 1404 1404 1410 1410 1410 1410 1415 1415 1415 1415 1415 1415 1415 1415 1410 1410 1410 1410 1410 1410 1410 1410 1410 1404 1404 1404 1404 1410 1410 1404 1404 1404 1404 1404 1404 1404 1404 1404 1404 1404 1410 1410 1415 1415 1415 1421 1415 1381 1381 1376 1376 1376 1376 1376 1376 1376 1376 1381 1381 1387 1387 1387 1387 1387 1387 1398 1398 1398 1398 1398 1398 1392 1387 1387 1392 1398 1404 1404 1410 1415 1415 1415 1421 1421 1427 1427 1427 1427 1427 1427 1427 1427 1427 1421 1421 1421 1421 1421 1427 1427 1427 1427 0 0 0 3859 3816 3816 3816 3859 3816 3816 3859 3816 3816 3816 3816 3816 3859 3816 3816 3816 3816 3816 3774 3774 3774 3774 3774 3774 3774 3774 3774 3774 3816 3816 3816 3816 3859 3859 3859 3859 3859 3816 3774 3774 3774 3774 3774 0 0 0 0 0 0 0 0 0 0 0 0
0 0 0 0 0 0 0 0 0 0 0 0 0 0 0 0 0 0 0 0 0 0 0 0 0 0 0 0 0 0 0 0 3238 3238 3269 3269 3238 3238 3238 3238 3238 3238 3238 3238 3269 3269 3269 3269 3269 3269 3269 3269 3269 3269 3269 3269 3300 3300 3300 3300 3300 3300 3269 3269 3300 3300 3300 3300 3300 3300 3300 3300 3300 3300 3300 3300 3300 3269 3269 3208 3208 3238 3238 3269 3269 3333 3333 3333 3333 3365 3365 3365 3333 3300 3300 3300 3300 3269 3269 3238 3238 3269 3333 3333 3365 3333 3333 3365 3365 3365 3365 3365 3365 3365 3365 3365 3365 3399 3399 3399 3433 3399 3399 3399 3399 3399 3399 3399 3399 3433 3433 3433 3433 3433 3433 3433 3468 3433 3433 3433 3433 3433 3468 3468 3468 3468 3468 3468 3468 3468 3468 3468 3468 3433 3433 3433 3433 3433 3433 3433 3433 3433 3433 3433 3433 3433 3433 3433 3433 3433 3433 3433 3433 3433 3433 3433 3433 3399 3399 3399 0 1655 1655 1655 1655 1655 1655 1655 1655 1655 1663 1663 1671 1671 1671 1671 1671 1680 1680 1680 1785 1785 1785 1794 1804 1813 1813 1647 1647 1647 1647 3576 3576 3576 3614 3614 3614 3614 3614 3614 3614 3614 3614 3614 3614 3614 3614 3614 3614 3614 3614 3614 3614 3653 3614 3614 3614 3614 3614 3576 3576 3576 3576 3614 3614 3576 1663 1663 1663 1663 1663 1663 1663 1655 1655 1647 1647 1647 1647 1647 1496 1496 1503 1509 1509 1509 1503 1503 1509 1509 1509 1509 1516 1516 1523 1523 1523 1594 1601 1601 1609 1609 1609 1609 1609 1609 1601 1601 1594 1594 1594 1594 1594 1586 1586 1586 1586 1586 1579 1579 1579 1579 1579 1579 1370 1370 1365 1365 1359 1359 1354 1354 1354 1354 1354 1354 1354 1354 1354 1354 1354 1354 1354 1349 1349 1349 1343 1343 1343 1338 1338 1333 1328 1328 1322 1322 1322 1317 1317 1312 1312 1312 1307 1307 1307 1307 1302 1302 1302 1302 1302 1302 1297 1297 1297 1297 1292 1292 1288 1288 1288 1283 1283 1283 1283 1283 1283 1283 1283 1283 1283 1283 1283 1283 1283 1283 1283 1283 1433 1433 1439 1439 1439 1439 1439 1439 1439 1433 1433 1433 1433 1433 1433 1433 1433 1433 1427 1427 1421 1421 1415 1415 1415 1415 1415 1415 1410 1410 1410 1410 1410 1410 1404 1404 1410 1210 1206 1206 1202 1202 1197 1197 1197 1197 1193 1193 1193 1193 1197 1197 1202 1202 1206 1206 1206 1206 1381 1381 1387 1387 1381 1381 1387 1387 1387 1387 1387 1392 1392 1392 1387 1381 1381 1387 1387 1381 1381 1387 1387 1387 1387 1392 1392 1392 1392 1392 1392 1387 1387 1392 1392 1392 1392 1392 1392 1392 1387 1387 1387 1387 1387 1387 1387 1387 1392 1398 1398 1398 1404 1398 1398 1398 1404 1398 1398 1398 1398 1404 1404 1398 1398 1398 1398 1398 1398 1398 1398 1404 1398 1398 1398 1398 1398 1398 1398 1398 1398 1398 1398 1404 1404 1404 1404 1410 1415 1381 1365 1365 1365 1365 1365 1370 1370 1370 1370 1376 1376 1376 1381 1381 1381 1381 1387 1387 1392 1392 1392 1392 1392 1387 1387 1381 1381 1381 1387 1398 1398 1404 1398 1398 1398 1404 1410 1415 1415 1415 1415 1415 1410 1410 1410 1410 1410 1410 1415 1415 1421 1421 1421 1421 1421 0 0 0 3816 3774 3774 3774 3816 3774 3774 3816 3816 3816 3816 3816 3816 3816 3816 3816 3816 3816 3774 3774 3774 3732 3732 3774 3774 3774 3732 3732 3774 3774 3774 3816 3816 3816 3816 3859 3859 3816 3816 3732 3732 3732 3732 3732 0 0 0 0 0 0 0 0 0 0 0 0
0 0 0 0 0 0 0 0 0 0 0 0 0 0 0 0 0 0 0 0 0 0 0 0 0 0 0 0 0 0 0 0 3238 3238 3238 3238 3208 3208 3208 3208 3208 3208 3208 3208 3238 3238 3238 3238 3238 3238 3238 3238 3238 3269 3269 3269 3269 3300 3300 3300 3300 3269 3269 3269 3269 3269 3269 3300 3269 3269 3269 3300 3300 3300 3300 3300 3269 3269 3269 3208 3208 3149 3149 3178 3269 3269 3300 3300 3300 3333 3365 3365 3333 3300 3300 3300 3300 3269 3269 3238 3238 3269 3333 3333 3333 3333 3333 3333 3333 3333 3333 3365 3333 3333 3365 3365 3365 3365 3399 3399 3399 3399 3399 3399 3399 3399 3399 3399 3399 3399 3433 3433 3433 3433 3433 3433 3433 3433 3433 3433 3433 3433 3433 3433 3433 3433 3433 3433 3433 3433 3433 3433 3433 3433 3433 3433 3433 3433 3433 3433 3433 3433 3433 3433 3433 3433 3433 3433 3433 3433 3433 3433 3433 3433 3433 3433 3399 3399 3399 3399 0 1655 1655 1655 1655 1655 1655 1663 1663 1663 1663 1663 1671 1671 1671 1671 1671 1680 1671 1671 1671 1671 1647 1647 1647 1647 1647 1647 1647 1647 1647 1655 3614 3614 3614 3614 3614 3614 3614 3614 3614 3576 3576 3614 3614 3614 3614 3614 3614 3614 3614 3614 3614 3614 3576 3576 3614 3614 3614 3576 3576 3576 3576 3576 3576 3576 3576 3539 3539 3539 3503 1671 1663 1663 1663 1663 1647 1647 1647 1647 1496 1496 1509 1509 1509 1509 1509 1509 1509 1509 1509 1516 1516 1523 1523 1523 1529 1594 1601 1601 1609 1609 1609 1609 1609 1609 1601 1601 1594 1594 1594 1594 1594 1594 1594 1594 1594 1586 1579 1579 1579 1579 1579 1579 1370 1370 1365 1365 1359 1359 1354 1354 1359 1354 1354 1354 1354 1354 1354 1354 1354 1354 1354 1349 1349 1349 1349 1343 1343 1338 1338 1338 1328 1328 1322 1322 1322 1322 1317 1317 1317 1312 1307 1307 1307 1307 1302 1302 1302 1302 1302 1302 1297 1297 1297 1297 1292 1292 1292 1292 1288 1288 1288 1283 1283 1283 1283 1283 1283 1283 1283 1283 1283 1283 1283 1283 1283 1278 1278 1433 1439 1439 1439 1439 1439 1439 1439 1433 1433 1433 1433 1433 1433 1433 1433 1433 1427 1427 1421 1421 1421 1415 1415 1415 1415 1415 1410 1410 1410 1410 1410 1404 1404 1404 1404 1210 1210 1210 1206 1202 1202 1197 1197 1197 1193 1193 1193 1193 1197 1197 1202 1202 1202 1202 1202 1381 1381 1381 1381 1381 1381 1381 1381 1381 1381 1381 1381 1381 1381 1381 1370 1370 1370 1370 1370 1370 1370 1381 1381 1381 1381 1381 1381 1381 1381 1381 1381 1381 1381 1381 1381 1381 1381 1381 1381 1381 1381 1381 1381 1381 1381 1376 1376 1381 1381 1387 1387 1387 1387 1387 1387 1381 1381 1381 1381 1381 1381 1381 1381 1381 1387 1387 1387 1381 1381 1381 1381 1381 1381 1381 1381 1381 1376 1376 1381 1381 1387 1381 1381 1392 1398 1398 1398 1392 1392 1370 1354 1354 1359 1359 1359 1359 1365 1365 1365 1370 1370 1370 1376 1376 1376 1381 1381 1381 1387 1381 1381 1387 1387 1387 1381 1381 1381 1381 1381 1392 1392 1392 1387 1387 1387 1387 1381 1381 1381 1392 1398 1404 1404 1404 1404 1404 1404 1410 1410 1415 1415 1415 1415 1415 1421 0 0 0 3774 3774 3732 3732 3774 3774 3774 3774 3774 3774 3774 3816 3816 3816 3816 3774 3774 3774 3774 3732 3732 3732 3732 3732 3774 3732 3732 3732 3732 3774 3774 3816 3816 3816 3816 3816 3816 3816 3774 3732 3692 3692 3692 3692 0 0 0 0 0 0 0 0 0 0 0 0
0 0 0 0 0 0 0 0 0 0 0 0 0 0 0 0 0 0 0 0 0 0 0 0 0 0 0 0 0 0 0 0 3238 3208 3208 3208 3208 3208 3208 3208 3208 3208 3208 3208 3208 3208 3208 3208 3238 3238 3238 3238 3238 3238 3238 3238 3238 3238 3238 3269 3269 3269 3269 3269 3269 3269 3269 3269 3269 3269 3269 3269 3269 3269 3269 3238 3238 3238 3208 3178 3178 3149 3149 3178 3208 3269 3269 3269 3300 3333 3333 3333 3300 3300 3300 3300 3300 3300 3269 3238 3238 3269 3300 3300 3300 3300 3300 3333 3333 3333 3333 3333 3333 3333 3333 3365 3365 3365 3365 3399 3399 3399 3399 3365 3365 3365 3365 3365 3365 3399 3399 3399 3399 3399 3399 3399 3399 3399 3399 3433 3433 3433 3433 3433 3433 3433 3433 3433 3433 3433 3433 3433 3433 3399 3399 3399 3399 3399 3399 3399 3399 3399 3399 3399 3433 3433 3433 3433 3433 3433 3433 3433 3399 3399 3399 3399 3399 3399 3399 3399 0 1655 1655 1655 1655 1655 1655 1663 1663 1663 1663 1663 1671 1671 1671 1671 1671 1671 1671 1671 1655 1655 1647 1647 1647 1647 1647 1647 1647 1647 1655 1655 3653 3653 3614 3614 3614 3614 3614 3614 3576 3576 3576 3576 3576 3576 3576 3576 3576 3576 3576 3576 3576 3576 3576 3576 3576 3576 3576 3539 3539 3576 3576 3576 3576 3539 3539 3539 3539 3539 3539 3539 3539 3539 3539 3539 1655 1655 1655 1503 1503 1509 1509 1516 1516 1509 1509 1509 1509 1509 1516 1516 1516 1523 1523 1523 1529 1529 1601 1609 1609 1609 1609 1609 1609 1609 1601 1601 1601 1601 1594 1594 1594 1586 1586 1594 1594 1586 1586 1579 1579 1579 1579 1579 1370 1370 1365 1365 1365 1365 1359 1359 1359 1359 1359 1359 1354 1354 1354 1354 1354 1354 1354 1354 1349 1349 1349 1349 1349 1343 1338 1338 1328 1328 1328 1322 1322 1322 1322 1317 1317 1312 1307 1307 1307 1307 1307 1302 1302 1302 1302 1302 1297 1297 1297 1297 1292 1292 1292 1292 1288 1288 1288 1283 1283 1283 1283 1283 1283 1283 1283 1283 1283 1278 1278 1278 1278 1278 1273 1268 1268 1433 1439 1268 1268 1268 1433 1433 1433 1433 1433 1433 1433 1433 1433 1433 1427 1427 1427 1421 1421 1421 1415 1415 1415 1415 1410 1410 1410 1410 1410 1404 1404 1404 1210 1210 1210 1210 1206 1202 1202 1197 1197 1197 1193 1193 1193 1193 1197 1197 1202 1202 1202 1202 1202 1381 1381 1381 1381 1381 1376 1376 1376 1376 1376 1376 1370 1370 1376 1370 1365 1365 1365 1365 1365 1365 1365 1370 1376 1370 1370 1376 1376 1376 1376 1376 1376 1376 1376 1376 1370 1370 1370 1370 1370 1370 1370 1370 1376 1376 1376 1370 1370 1370 1370 1376 1376 1376 1376 1376 1376 1376 1370 1370 1370 1370 1370 1370 1370 1370 1376 1376 1376 1376 1376 1370 1370 1370 1370 1370 1370 1370 1365 1365 1370 1370 1370 1376 1376 1376 1376 1376 1370 1359 1359 1317 1317 1328 1333 1333 1343 1349 1349 1354 1354 1359 1359 1359 1359 1365 1365 1365 1365 1365 1365 1365 1365 1365 1365 1365 1376 1376 1376 1376 1376 1381 1387 1387 1387 1387 1387 1387 1381 1381 1381 1387 1387 1392 1392 1392 1398 1398 1398 1404 1404 1404 1410 1410 1410 1410 1421 0 0 0 3732 3732 3732 3732 3774 3774 3774 3774 3774 3774 3774 3774 3774 3774 3774 3774 3774 3774 3774 3732 3732 3732 3732 3732 3732 3732 3692 3692 3732 3732 3774 3774 3774 3774 3774 3816 3816 3732 3692 3692 3692 3692 3692 3692 0 0 0 0 0 0 0 0 0 0 0 0
0 0 0 0 0 0 0 0 0 0 0 0 0 0 0 0 0 0 0 0 0 0 0 0 0 0 0 0 0 0 0 0 3208 3208 3208 3208 3208 3208 3208 3208 3208 3178 3178 3178 3208 3208 3208 3208 3208 3208 3238 3238 3238 3238 3238 3208 3208 3238 3238 3238 3238 3238 3238 3238 3238 3238 3238 3238 3238 3238 3269 3269 3269 3269 3238 3238 3208 3208 3208 3178 3149 3120 3120 3149 3149 3178 3208 3208 3269 3300 3300 3300 3300 3300 3269 3269 3300 3269 3269 3238 3238 3269 3300 3300 3300 3300 3300 3300 3300 3300 3300 3300 3300 3300 3300 3333 3333 3333 3333 3365 3365 3365 3365 3333 3333 3365 3333 3333 3333 3333 3365 3365 3399 3399 3399 3399 3399 3399 3399 3399 3399 3399 3433 3433 3433 3433 3433 3433 3433 3433 3399 3399 3399 3399 3399 3399 3399 3399 3399 3399 3399 3399 3399 3399 3399 3399 3399 3399 3399 3399 3399 3399 3399 3399 3399 3399 3399 3399 3365 3365 3365 3365 1655 1655 1655 1663 1663 1663 1663 1663 1663 1663 1671 1671 1671 1671 1671 1671 1671 1671 1655 1655 1647 1647 1647 1647 1647 1647 1647 1647 1639 1639 1632 1632 1632 3614 3614 3576 3576 3614 3576 3576 3576 3576 3576 3576 3576 3576 3576 3576 3576 3576 3576 3576 3539 3539 3576 3576 3576 3539 3539 3539 3576 3576 3539 3539 3539 3539 3539 3539 3539 3539 3539 3539 3539 0 0 1503 1503 1503 1503 1509 1509 1516 1516 1516 1516 1516 1516 1516 1516 1516 1516 1523 1523 1523 1523 1529 1601 1609 1609 1609 1609 1609 1609 1601 1601 1601 1601 1601 1594 1594 1594 1586 1586 1586 1586 1586 1586 1586 1579 1579 1579 1579 1370 1370 1370 1365 1365 1365 1365 1365 1359 1359 1359 1359 1359 1359 1359 1359 1359 1354 1354 1354 1354 1349 1349 1349 1349 1343 1343 1333 1328 1328 1328 1328 1322 1322 1322 1322 1317 1317 1312 1307 1307 1307 1307 1307 1307 1307 1307 1302 1302 1297 1297 1297 1292 1292 1288 1288 1288 1288 1288 1283 1283 1283 1283 1283 1283 1283 1283 1283 1283 1278 1278 1278 1278 1273 1273 1268 1268 1268 1268 1268 1268 1268 1268 1273 1273 1433 1433 1433 1433 1433 1433 1433 1433 1427 1427 1427 1421 1421 1421 1415 1415 1415 1410 1410 1410 1410 1410 1410 1410 1410 1210 1210 1210 1210 1206 1206 1202 1197 1197 1197 1197 1197 1197 1197 1197 1202 1202 1206 1206 1210 1381 1381 1381 1381 1381 1376 1370 1370 1370 1370 1370 1370 1365 1365 1370 1365 1365 1359 1359 1359 1359 1359 1359 1365 1359 1359 1365 1359 1359 1359 1359 1365 1365 1365 1365 1365 1365 1359 1359 1359 1365 1359 1359 1365 1365 1365 1365 1365 1365 1365 1365 1365 1365 1365 1365 1365 1365 1365 1365 1365 1365 1365 1365 1365 1365 1365 1365 1365 1365 1365 1365 1365 1365 1365 1365 1359 1359 1359 1359 1359 1365 1365 1365 1365 1365 1365 1370 1359 1359 1359 1322 1317 1317 1328 1328 1333 1343 1343 1349 1349 1349 1349 1349 1349 1349 1349 1349 1349 1354 1354 1354 1359 1359 1359 1359 1359 1359 1359 1365 1365 1365 1370 1376 1376 1376 1376 1376 1376 1376 1376 1376 1376 1376 1381 1381 1381 1381 1387 1387 1387 1392 1398 1398 1398 1404 1404 1404 0 0 0 3732 3732 3732 3732 3732 3732 3732 3732 3732 3732 3732 3732 3732 3732 3732 3732 3732 3732 3732 3692 3692 3692 3692 3692 3692 3692 3692 3692 3692 3692 3732 3732 3774 3732 3732 3774 3774 3732 3692 3692 3653 3653 3653 3653 0 0 0 0 0 0 0 0 0 0 0 0
0 0 0 0 0 0 0 0 0 0 0 0 0 0 0 0 0 0 0 0 0 0 0 0 0 0 0 0 0 0 0 0 3208 3208 3208 3208 3208 3208 3208 3208 3208 3178 3178 3178 3178 3178 3208 3208 3208 3208 3208 3208 3208 3208 3208 3208 3208 3208 3208 3208 3208 3208 3208 3238 3238 3238 3238 3238 3238 3238 3238 3238 3238 3238 3208 3208 3208 3208 3208 3178 3149 3120 3120 3120 3120 3092 3092 3120 3238 3269 3300 3300 3269 3269 3269 3269 3269 3269 3238 3238 3238 3238 3269 3269 3269 3269 3269 3300 3300 3269 3269 3300 3300 3300 3300 3300 3300 3300 3333 3333 3333 3333 3333 3333 3333 3333 3333 3333 3333 3333 3333 3333 3333 3333 3333 3333 3365 3365 3365 3365 3365 3365 3365 3365 3365 3365 3365 3365 3399 3399 3399 3365 3365 3399 3399 3365 3365 3365 3365 3365 3365 3365 3365 3365 3399 3399 3399 3399 3399 3399 3399 3399 3399 3399 3399 3399 3399 3399 3365 3365 3365 0 1655 1655 1655 1663 1663 1663 1663 1663 1663 1671 1671 1671 1671 1671 1671 1671 1671 1671 1655 1655 1647 1647 1647 1647 1647 1647 1639 1639 1639 1632 1632 1632 1624 1624 1632 3576 3576 3576 3576 3576 3576 3539 3539 3576 3576 3576 3576 3539 3539 3576 3576 3539 3539 3539 3576 3576 3576 3539 3539 3539 3539 3539 3539 3539 3539 3539 3539 3539 3539 3539 3539 3539 3539 3539 0 0 1509 1509 1509 1509 1516 1516 1516 1516 1516 1516 1516 1516 1516 1516 1516 1523 1523 1523 1523 1529 1609 1609 1609 1609 1609 1609 1609 1601 1601 1601 1601 1601 1594 1594 1594 1586 1586 1586 1586 1586 1586 1586 1586 1586 1586 1586 1370 1370 1370 1370 1365 1365 1365 1365 1359 1359 1359 1359 1359 1359 1359 1359 1359 1354 1354 1354 1354 1349 1349 1349 1349 1343 1343 1333 1333 1328 1328 1328 1322 1322 1322 1322 1322 1317 1312 1312 1312 1307 1307 1307 1307 1307 1307 1302 1302 1297 1297 1297 1292 1292 1288 1288 1288 1288 1288 1283 1283 1283 1283 1283 1283 1283 1283 1283 1283 1278 1278 1278 1278 1273 1273 1268 1268 1268 1268 1268 1268 1268 1268 1268 1268 1268 1268 1268 1268 1268 1433 1433 1427 1427 1433 1427 1427 1421 1421 1421 1415 1415 1415 1415 1410 1410 1410 1410 1410 1410 1210 1210 1210 1210 1206 1206 1202 1202 1197 1197 1197 1197 1197 1197 1197 1202 1206 1206 1206 1210 1381 1381 1381 1376 1376 1370 1365 1365 1365 1365 1365 1365 1365 1365 1365 1359 1359 1359 1354 1354 1354 1354 1354 1354 1354 1354 1354 1354 1354 1354 1354 1354 1354 1354 1359 1359 1359 1359 1359 1354 1354 1359 1354 1354 1354 1354 1354 1354 1354 1354 1354 1354 1354 1354 1354 1354 1354 1359 1359 1359 1359 1359 1359 1359 1359 1359 1359 1359 1359 1359 1359 1359 1359 1359 1359 1354 1354 1354 1354 1354 1359 1359 1359 1359 1359 1359 1365 1354 1354 1343 1322 1322 1322 1328 1328 1338 1338 1343 1343 1343 1343 1338 1338 1343 1343 1343 1338 1338 1343 1349 1349 1354 1354 1354 1354 1354 1354 1354 1359 1359 1359 1359 1370 1370 1370 1370 1370 1370 1370 1370 1370 1370 1370 1376 1370 1370 1370 1376 1381 1381 1387 1392 1392 1392 1398 1398 0 0 0 0 3692 3653 3653 3692 3692 3692 3692 3692 3692 3692 3692 3692 3692 3692 3692 3692 3692 3692 3692 3692 3692 3692 3692 3692 3692 3692 3653 3653 3692 3692 3653 3653 3692 3692 3539 3539 3539 3539 3539 3576 3576 3614 3614 3653 0 0 0 0 0 0 0 0 0 0 0 0
0 0 0 0 0 0 0 0 0 0 0 0 0 0 0 0 0 0 0 0 0 0 0 0 0 0 0 0 0 0 0 0 3178 3178 3178 3178 3178 3178 3178 3178 3178 3178 3178 3178 3178 3178 3178 3178 3178 3208 3208 3208 3208 3208 3178 3178 3178 3208 3208 3208 3208 3208 3208 3208 3208 3208 3208 3208 3208 3208 3208 3208 3208 3208 3208 3208 3208 3208 3178 3149 3149 3120 3120 3120 3120 3092 3092 3120 3208 3238 3238 3238 3238 3238 3238 3238 3238 3238 3208 3208 3208 3208 3238 3238 3238 3269 3269 3300 3300 3269 3269 3300 3300 3300 3300 3300 3300 3300 3300 3300 3300 3300 3333 3333 3333 3333 3300 3300 3300 3300 3333 3300 3300 3300 3300 3333 3333 3333 3333 3333 3333 3333 3365 3365 3365 3365 3365 3365 3365 3365 3365 3333 3333 3333 3333 3333 3333 3333 3333 3333 3333 3333 3333 3333 3333 3333 3333 3333 3365 3365 3365 3365 3365 3365 3365 3365 3365 3365 3365 3365 3365 0 1663 1663 1663 1663 1663 1663 1663 1663 1663 1671 1671 1671 1671 1671 1671 1671 1671 1671 1663 1655 1655 1647 1647 1647 1647 1647 1639 1639 1639 1632 1632 1632 1624 1624 1624 1624 1624 1624 1624 3576 3576 3539 3539 3576 3576 3576 3576 3539 3539 3539 3539 3539 3539 3539 3576 3576 3576 3539 3503 3503 3539 3503 3503 3503 3503 3503 3539 3539 3539 3539 3539 3539 3539 0 0 0 0 0 1516 1516 1516 1516 1516 1516 1516 1516 1516 1516 1516 1516 1523 1523 1523 1523 1529 1529 1529 1609 1609 1609 1609 1609 1609 1601 1601 1601 1601 1601 1601 1594 1594 1586 1586 1594 1586 1586 1586 1586 1586 1586 1586 1376 1376 1370 1370 1370 1370 1370 1365 1365 1365 1365 1365 1365 1359 1359 1365 1365 1359 1359 1359 1354 1354 1354 1354 1349 1349 1349 1343 1333 1333 1328 1328 1328 1328 1322 1322 1322 1322 1317 1312 1312 1312 1312 1307 1307 1307 1307 1307 1302 1302 1297 1297 1297 1292 1292 1292 1292 1288 1288 1288 1283 1283 1283 1283 1283 1283 1283 1283 1283 1283 1278 1278 1278 1278 1273 1273 1268 1268 1268 1268 1268 1268 1268 1264 1264 1264 1264 1264 1264 1264 1259 1259 1264 1427 1427 1433 1427 1427 1421 1421 1421 1415 1415 1415 1415 1410 1410 1410 1410 1410 1410 1210 1210 1210 1210 1206 1206 1206 1202 1197 1197 1197 1197 1197 1202 1202 1202 1206 1210 1210 1210 1381 1381 1376 1376 1370 1365 1365 1365 1365 1365 1365 1365 1359 1359 1359 1359 1359 1354 1354 1354 1354 1354 1354 1349 1349 1349 1349 1349 1349 1349 1349 1349 1343 1343 1343 1349 1349 1349 1349 1349 1349 1349 1349 1349 1349 1349 1349 1349 1349 1349 1349 1349 1349 1349 1349 1349 1349 1349 1349 1349 1354 1354 1354 1354 1354 1354 1354 1354 1354 1354 1354 1354 1354 1354 1354 1349 1349 1349 1349 1349 1354 1354 1354 1354 1354 1359 1354 1349 1343 1328 1322 1322 1322 1322 1322 1322 1333 1333 1338 1338 1333 1333 1333 1338 1338 1338 1333 1333 1338 1338 1343 1343 1343 1349 1349 1349 1349 1349 1349 1349 1354 1354 1354 1359 1359 1359 1365 1370 1370 1370 1370 1370 1370 1370 1365 1365 1365 1370 1376 1376 1381 1387 1392 1392 1398 1398 0 0 0 0 3692 3653 3653 3653 3692 3692 3653 3653 3653 3692 3692 3692 3692 3692 3692 3692 3692 3653 3653 3692 3653 3653 3653 3653 3653 3653 3653 3614 3614 3614 3614 3614 3576 3576 3539 3539 3539 3539 3539 3576 3576 3576 3576 3614 0 0 0 0 0 0 0 0 0 0 0 0
0 0 0 0 0 0 0 0 0 0 0 0 0 0 0 0 0 0 0 0 0 0 0 0 0 0 0 0 0 0 0 0 3149 3149 3149 3149 3149 3149 3149 3149 3149 3149 3149 3149 3178 3178 3178 3149 3149 3178 3178 3178 3178 3178 3178 3178 3178 3178 3178 3178 3178 3178 3208 3208 3208 3208 3208 3208 3208 3178 3178 3178 3208 3178 3178 3178 3178 3178 3178 3149 3120 3120 3120 3120 3120 3120 3120 3120 3178 3208 3238 3238 3238 3238 3238 3238 3208 3208 3208 3208 3208 3208 3208 3238 3238 3238 3269 3269 3269 3269 3269 3269 3269 3269 3269 3269 3269 3269 3300 3300 3300 3300 3300 3300 3333 3300 3300 3300 3300 3300 3300 3300 3300 3300 3300 3300 3300 3333 3333 3333 3333 3333 3333 3333 3333 3333 3333 3333 3365 3333 3333 3333 3333 3300 3300 3300 3300 3300 3300 3300 3300 3300 3300 3300 3300 3333 3300 3300 3333 3333 3333 3333 3333 3333 3333 3333 3333 3333 3333 3333 3333 0 1663 1663 1663 1663 1663 1663 1663 1663 1663 1671 1671 1671 1671 1671 1671 1671 1671 1671 1663 1655 1655 1647 1647 1647 1647 1647 1639 1639 1639 1632 1632 1624 1624 1624 1624 1616 1616 1616 1616 1616 1616 1609 1609 1616 3539 3539 3576 3539 3539 3539 3539 3539 3539 3539 3576 3576 3576 3539 3503 3503 3503 3503 3503 3503 3503 3503 3503 3503 3503 3503 3503 3503 3503 0 0 0 0 0 1516 1516 1516 1516 1516 1516 1516 1523 1516 1516 1516 1523 1523 1523 1523 1523 1529 1529 1529 1609 1609 1609 1609 1609 1601 1601 1601 1601 1601 1601 1601 1601 1594 1586 1586 1594 1586 1586 1586 1586 1586 1586 1594 1376 1376 1376 1376 1370 1370 1370 1370 1370 1365 1365 1365 1365 1365 1365 1365 1365 1365 1359 1359 1359 1354 1354 1354 1349 1349 1349 1343 1333 1333 1328 1328 1328 1328 1322 1322 1322 1322 1317 1312 1312 1312 1312 1307 1307 1307 1307 1307 1307 1302 1302 1297 1297 1292 1292 1292 1292 1292 1288 1288 1288 1288 1283 1283 1283 1283 1283 1283 1283 1283 1278 1278 1278 1273 1273 1273 1268 1268 1268 1268 1268 1268 1264 1264 1264 1264 1264 1264 1264 1264 1259 1259 1255 1255 1255 1255 1259 1427 1427 1421 1421 1421 1415 1415 1415 1410 1410 1410 1415 1415 1415 1214 1210 1210 1210 1206 1206 1206 1202 1202 1202 1197 1197 1197 1202 1202 1202 1206 1210 1210 1210 1381 1381 1376 1376 1370 1365 1365 1365 1365 1365 1365 1365 1359 1359 1359 1359 1359 1354 1354 1354 1354 1349 1349 1349 1349 1349 1349 1343 1343 1343 1343 1343 1338 1338 1338 1338 1338 1338 1338 1338 1338 1343 1343 1343 1343 1343 1343 1343 1343 1343 1349 1349 1343 1343 1343 1343 1343 1343 1343 1343 1349 1349 1349 1343 1343 1343 1349 1349 1349 1349 1349 1349 1349 1349 1349 1349 1343 1343 1349 1349 1349 1349 1349 1349 1349 1343 1343 1338 1333 1322 1317 1317 1317 1317 1317 1317 1322 1328 1333 1328 1328 1328 1328 1328 1328 1328 1328 1328 1328 1333 1338 1338 1338 1343 1343 1343 1343 1343 1343 1343 1343 1343 1343 1343 1343 1349 1349 1354 1359 1359 1365 1359 1359 1365 1359 1359 1359 1365 1365 1370 1370 1376 1381 1392 1398 0 0 0 0 0 0 3692 3653 3653 3692 3653 3653 3653 3653 3653 3653 3653 3653 3692 3692 3692 3653 3653 3653 3653 3653 3653 3653 3653 3653 3653 3653 3614 3614 3614 3614 3614 3576 3576 3539 3539 3539 3576 3539 3539 3576 3576 3576 3614 0 0 0 0 0 0 0 0 0 0 0 0
0 0 0 0 0 0 0 0 0 0 0 0 0 0 0 0 0 0 0 0 0 0 0 0 0 0 0 0 0 0 0 0 3149 3149 3149 3149 3149 3149 3120 3120 3149 3149 3149 3149 3149 3149 3149 3149 3149 3149 3149 3149 3149 3149 3149 3149 3149 3178 3149 3149 3178 3178 3178 3208 3178 3178 3208 3208 3208 3178 3178 3178 3178 3178 3178 3178 3178 3178 3178 3149 3120 3120 3120 3120 3120 3120 3120 3120 3178 3208 3208 3208 3208 3208 3208 3208 3208 3208 3208 3178 3178 3178 3208 3208 3208 3238 3238 3269 3238 3238 3238 3269 3238 3238 3238 3269 3269 3269 3269 3269 3269 3300 3300 3300 3300 3300 3300 3300 3300 3300 3300 3300 3300 3300 3300 3300 3300 3300 3300 3300 3300 3333 3333 3333 3333 3333 3333 3333 3333 3333 3333 3333 3333 3300 3300 3300 3269 3269 3269 3300 3300 3300 3300 3300 3300 3300 3300 3300 3300 3300 3300 3300 3300 3300 3333 3333 3300 3300 3300 3300 3300 3300 0 1663 1663 1663 1663 1671 1671 1671 1671 1671 1671 1671 1671 1671 1671 1671 1671 1671 1663 1655 1655 1655 1647 1647 1647 1647 1639 1639 1639 1632 1632 1624 1624 1616 1616 1616 1616 1616 1616 1616 1616 1609 1609 1616 1616 1616 1616 1616 1616 1616 1616 3539 3539 3539 3576 3576 3539 3503 3503 3503 3503 3468 3468 3468 3503 3503 3503 3503 3503 3503 3468 3468 3503 0 0 0 0 0 1516 1516 1516 1516 1516 1516 1523 1523 1523 1523 1523 1523 1523 1523 1523 1523 1529 1529 1543 1543 1543 2170 2170 1609 1601 1601 1601 1601 1601 1601 1601 1601 1594 1586 1586 1586 1586 1586 1586 1586 1586 1586 1594 1376 1376 1376 1376 1376 1370 1370 1370 1370 1370 1370 1370 1370 1370 1370 1370 1365 1365 1365 1359 1359 1359 1354 1354 1354 1349 1349 1343 1333 1333 1328 1328 1328 1328 1322 1322 1322 1322 1322 1317 1317 1317 1312 1312 1312 1307 1307 1307 1307 1302 1302 1302 1297 1297 1292 1292 1292 1292 1288 1288 1288 1288 1288 1288 1283 1283 1283 1283 1283 1283 1278 1278 1273 1273 1273 1273 1268 1268 1268 1268 1268 1268 1264 1264 1264 1264 1264 1264 1264 1259 1259 1259 1255 1255 1255 1255 1255 1255 1255 1255 1421 1421 1415 1415 1415 1410 1410 1410 1415 1415 1415 1214 1210 1210 1210 1206 1206 1206 1206 1202 1202 1202 1202 1202 1202 1202 1206 1210 1210 1214 1214 1381 1381 1381 1376 1376 1365 1365 1365 1365 1365 1365 1365 1359 1359 1359 1359 1354 1354 1349 1349 1349 1349 1349 1349 1343 1343 1343 1343 1343 1343 1338 1338 1338 1338 1333 1333 1328 1328 1333 1333 1333 1338 1338 1333 1333 1338 1338 1338 1338 1343 1343 1343 1343 1343 1343 1338 1338 1338 1338 1338 1333 1333 1333 1333 1333 1333 1338 1333 1333 1333 1333 1338 1338 1338 1338 1343 1343 1343 1343 1338 1338 1338 1338 1338 1338 1338 1338 1333 1322 1312 1307 1307 1312 1312 1312 1312 1312 1317 1322 1322 1322 1322 1322 1322 1322 1322 1322 1322 1322 1328 1328 1333 1333 1338 1338 1338 1338 1338 1338 1338 1338 1338 1338 1338 1338 1343 1343 1349 1354 1354 1354 1354 1354 1359 1354 1354 1354 1354 1359 1359 1365 1370 1376 1387 0 0 0 0 0 0 0 3692 3653 3653 3653 3653 3653 3653 3653 3653 3653 3653 3653 3653 3653 3653 3653 3653 3653 3653 3653 3614 3614 3614 3653 3653 3614 3614 3614 3614 3576 3576 3539 3539 3539 3539 3539 3576 3539 3539 3576 3576 3576 3614 0 0 0 0 0 0 0 0 0 0 0 0
0 0 0 0 0 0 0 0 0 0 0 0 0 0 0 0 0 0 0 0 0 0 0 0 0 0 0 0 0 0 0 0 3120 3120 3120 3120 3120 3120 3120 3120 3120 3120 3120 3120 3120 3120 3120 3120 3120 3120 3120 3120 3120 3120 3149 3149 3149 3149 3149 3149 3149 3178 3178 3178 3178 3178 3178 3208 3178 3178 3178 3178 3178 3178 3149 3149 3178 3178 3178 3149 3149 3120 3120 3120 3120 3120 3120 3120 3178 3208 3208 3208 3208 3208 3208 3208 3208 3208 3178 3178 3178 3178 3178 3208 3208 3208 3238 3238 3238 3238 3238 3238 3238 3238 3238 3238 3238 3238 3238 3238 3238 3269 3269 3269 3269 3269 3269 3269 3300 3300 3300 3300 3269 3269 3269 3269 3269 3269 3300 3300 3300 3300 3300 3300 3300 3300 3300 3300 3300 3300 3300 3300 3300 3300 3269 3269 3269 3269 3269 3269 3300 3300 3269 3269 3300 3300 3300 3300 3300 3300 3300 3300 3300 3300 3300 3300 3300 3300 3300 3300 3300 3300 0 1663 1663 1663 1671 1671 1671 1671 1671 1671 1671 1671 1671 1671 1671 1671 1671 1671 1663 1663 1655 1655 1647 1647 1647 1647 1639 1639 1639 1632 1632 1624 1624 1616 1616 1616 1616 1616 1616 1616 1616 1616 1616 1616 1616 1616 1616 1616 1609 1609 1609 1601 1601 1594 1594 1594 1586 1586 1586 1586 1579 1579 1572 1572 3468 3468 3503 3503 3503 3503 3468 3468 3468 3468 0 0 0 0 1516 1516 1516 1516 1516 1516 1523 1523 1523 1523 1523 1523 1523 1523 1523 1523 1536 1536 1543 1543 2143 2156 2156 2156 1601 1601 1601 1601 1601 1601 1601 1601 1601 1586 1586 1586 1586 1586 1586 1586 1586 1586 1376 1376 1376 1376 1376 1376 1370 1370 1370 1370 1370 1370 1370 1370 1370 1370 1370 1370 1365 1365 1359 1359 1359 1354 1354 1354 1349 1349 1349 1338 1333 1333 1328 1328 1328 1328 1328 1322 1322 1322 1322 1317 1317 1317 1312 1312 1312 1307 1307 1307 1302 1302 1302 1302 1297 1297 1292 1292 1292 1292 1292 1288 1288 1288 1288 1283 1283 1283 1283 1283 1278 1278 1278 1273 1273 1273 1273 1268 1268 1268 1268 1268 1268 1264 1264 1264 1264 1264 1264 1264 1259 1259 1259 1259 1255 1255 1255 1255 1255 1255 1250 1250 1250 1250 1250 1250 1250 1250 1410 1415 1415 1219 1214 1210 1210 1210 1206 1206 1206 1206 1206 1202 1202 1202 1202 1206 1206 1206 1210 1210 1214 1219 1227 1381 1381 1376 1376 1365 1365 1365 1365 1365 1365 1365 1359 1359 1359 1359 1354 1354 1349 1349 1349 1349 1343 1343 1343 1343 1343 1343 1343 1343 1338 1338 1333 1333 1333 1333 1328 1328 1328 1328 1328 1333 1333 1328 1328 1333 1333 1333 1333 1338 1338 1338 1338 1333 1333 1333 1333 1333 1328 1328 1328 1322 1322 1322 1322 1322 1328 1328 1328 1328 1328 1328 1333 1333 1333 1333 1338 1333 1328 1328 1328 1328 1322 1322 1322 1322 1328 1317 1312 1307 1302 1302 1302 1302 1302 1307 1307 1307 1312 1312 1312 1312 1312 1312 1312 1312 1317 1317 1317 1317 1317 1322 1322 1328 1333 1328 1328 1333 1333 1333 1333 1333 1333 1333 1333 1338 1338 1343 1343 1349 1349 1349 1349 1354 1354 1349 1349 1354 1354 1354 1359 1359 1370 1387 0 0 0 0 0 0 0 0 3653 3653 3653 3614 3614 3614 3653 3653 3653 3653 3653 3653 3653 3614 3614 3614 3614 3614 3576 3576 3576 3576 3614 3614 3576 3576 3576 3576 3576 3539 3539 3539 3539 3539 3539 3539 3539 3539 3576 3576 3576 3576 0 0 0 0 0 0 0 0 0 0 0 0
0 0 0 0 0 0 0 0 0 0 0 0 0 0 0 0 0 0 0 0 0 0 0 0 0 0 0 0 0 0 0 0 3120 3120 3120 3120 3120 3120 3120 3120 3120 3120 3120 3120 3120 3120 3120 3120 3120 3120 3120 3120 3120 3120 3120 3120 3120 3149 3149 3149 3149 3149 3149 3178 3149 3149 3178 3178 3178 3149 3149 3149 3178 3178 3149 3149 3149 3149 3149 3120 3120 3120 3120 3120 3120 3120 3120 3120 3178 3178 3178 3178 3178 3208 3178 3178 3178 3178 3178 3149 3149 3149 3178 3178 3208 3208 3208 3208 3208 3208 3208 3208 3208 3208 3208 3208 3238 3238 3238 3238 3238 3238 3238 3238 3238 3238 3269 3269 3269 3300 3300 3269 3269 3269 3269 3269 3269 3269 3269 3269 3300 3300 3269 3269 3269 3269 3269 3269 3269 3269 3269 3269 3300 3300 3269 3269 3269 3269 3269 3269 3269 3269 3269 3269 3269 3300 3269 3269 3269 3269 3300 3300 3300 3300 3300 3300 3300 3300 3269 3269 3269 3269 0 1671 1671 1671 1671 1671 1671 1671 1671 1671 1671 1671 1671 1671 1671 1671 1671 1671 1663 1663 1655 1655 1647 1647 1647 1647 1647 1639 1639 1639 1632 1632 1624 1624 1624 1624 1616 1616 1616 1616 1616 1616 1616 1616 1616 1616 1616 1616 1609 1609 1609 1601 1601 1594 1586 1586 1586 1586 1586 1586 1579 1579 1572 1572 1572 1572 3503 3503 3503 3503 3468 3468 3468 3468 0 0 0 0 0 1516 1516 1516 1523 1523 1523 1523 1523 1523 1523 1523 1523 1523 1523 1529 1536 1543 1543 1543 2143 2143 2143 2143 2156 2156 2156 2156 2170 2156 2156 2170 1601 1601 1594 1586 1586 1586 1579 1579 1586 1586 1376 1376 1376 1376 1376 1376 1376 1370 1370 1370 1370 1370 1370 1370 1370 1370 1370 1370 1370 1365 1365 1359 1359 1359 1354 1354 1354 1349 1349 1338 1333 1333 1328 1328 1328 1328 1328 1328 1322 1322 1322 1317 1317 1317 1312 1312 1312 1307 1307 1307 1302 1302 1302 1302 1302 1297 1297 1297 1297 1292 1292 1288 1288 1288 1288 1288 1283 1283 1283 1283 1278 1278 1278 1273 1273 1273 1273 1268 1268 1268 1268 1268 1268 1264 1264 1264 1264 1264 1264 1264 1259 1259 1259 1259 1255 1255 1255 1255 1250 1250 1250 1250 1250 1250 1250 1250 1250 1250 1245 1245 1241 1219 1219 1214 1214 1214 1210 1206 1206 1206 1206 1206 1206 1206 1206 1206 1206 1206 1210 1214 1223 1223 1227 1381 1381 1381 1376 1370 1365 1365 1365 1365 1365 1365 1359 1359 1359 1359 1354 1354 1349 1349 1349 1343 1343 1343 1343 1343 1343 1343 1343 1338 1338 1338 1333 1333 1328 1328 1328 1328 1328 1328 1328 1328 1328 1328 1328 1328 1328 1328 1328 1328 1328 1328 1328 1328 1328 1328 1328 1328 1328 1328 1322 1322 1317 1317 1322 1322 1322 1322 1322 1322 1322 1322 1322 1322 1322 1328 1328 1328 1328 1317 1317 1317 1317 1317 1317 1317 1312 1302 1302 1297 1297 1297 1297 1297 1297 1302 1302 1302 1302 1302 1307 1302 1302 1302 1302 1307 1307 1307 1307 1312 1312 1317 1317 1317 1317 1322 1328 1328 1328 1328 1328 1328 1328 1333 1333 1333 1338 1338 1343 1343 1343 1343 1349 1349 1349 1349 1349 1349 1349 1349 1354 1354 1354 1354 0 0 0 0 0 0 0 0 3614 3614 3614 3614 3614 3614 3614 3614 3576 3576 3614 3614 3614 3576 3576 3576 3576 3576 3539 3539 3539 3539 3539 3576 3539 3539 3539 3576 3539 3539 3539 3539 3539 3539 3539 3539 3539 3539 3539 3576 3576 3576 0 0 0 0 0 0 0 0 0 0 0 0
