0 0 0 0 0 0 0 0 0 0 0 0 0 0 0 0 0 0 0 0 0 0 0 0 0 0 0 0 0 0 0 3300 3238 3238 3269 3269 3269 3269 3269 3269 3300 3300 3300 3300 3300 3300 3300 3300 3300 3300 3300 3333 3333 3333 3333 3333 3333 3300 3300 3333 3333 3333 3333 3333 3333 3333 3333 3333 3333 3333 3300 3300 3300 3300 3300 3300 3300 3300 3300 3300 3300 3300 3333 3333 3333 3333 3333 3333 3333 3333 3333 3333 3333 3333 3300 3300 3208 3120 3092 3064 3064 3064 3064 3064 3064 3092 3092 3092 3092 3208 3300 3365 3399 3399 3399 3399 3399 3433 3433 3433 3433 3433 3433 3399 3365 3333 3333 3365 3365 3399 3399 3399 3433 3433 2859 2859 2859 2859 2859 2859 2859 2859 2859 2859 2859 2859 2859 2859 2859 2859 2859 2859 2859 2859 2835 2835 2812 2812 2812 2812 2812 2812 2812 2835 2835 2835 2835 2859 2859 2859 2859 2859 2859 2859 2859 2859 2859 2859 2859 2859 2883 2883 2908 2933 2933 2958 2958 2958 2958 2984 2984 3010 3037 3037 3037 3037 3037 3037 3037 3037 3010 3010 3010 3010 3010 3010 3010 3010 3010 3010 3010 3010 2984 2984 2984 2984 2984 3010 3010 3010 3010 3010 3010 3037 3037 3037 3037 3037 3037 3037 3064 3064 3064 3064 3064 3064 3064 3064 3092 3092 3092 3120 3120 3149 3149 3149 3149 3149 3149 3149 3149 3149 3149 3149 3149 3149 3149 3149 3149 3149 3149 3149 3149 2116 2116 2116 2116 2116 2116 2116 2116 2116 2116 2116 2116 2116 2116 2129 2129 2143 2184 2212 2226 2226 2226 2226 2226 2226 2226 2241 2241 2241 2241 2256 2271 3539 3539 3539 3539 3539 3539 3576 3576 3614 3614 3614 3614 3614 3653 2317 2317 2317 2317 1766 1766 1776 1776 1766 1757 1757 1757 1748 1739 1739 1739 1731 1731 1722 1722 1713 1696 1688 1688 1688 1680 1680 1671 1663 1655 1655 1647 1647 1639 1639 1632 1616 1616 1609 1609 1594 1579 1572 1572 1564 1543 1543 1536 1536 1529 1523 1523 1523 1516 1516 1516 1509 1509 1509 1509 1509 1509 1509 1509 1509 1509 1509 1509 1509 1509 1516 1516 1516 1516 1516 1516 1516 1523 1523 1529 1529 1529 1529 1536 1536 1536 1536 1543 1543 1543 1543 1543 1550 1550 1557 1557 1557 1564 1564 1564 1564 1564 1564 1458 1458 1452 1452 1445 1439 1433 1433 1433 1433 1433 1433 1439 1439 1445 1452 1452 1452 1464 1470 1477 1477 1477 1477 1477 1483 1483 1483 1483 1483 1483 1483 1483 1489 1489 1496 1496 1503 1503 1503 1503 1503 1503 1503 1509 1509 1516 1516 1523 1523 1529 1529 1529 1529 1536 1536 1536 1543 1550 1550 1557 1557 1557 1557 1564 1564 1564 1564 1572 1579 1579 1586 1586 1594 1594 1594 1594 1601 1601 1601 1601 1601 1601 1601 1601 1601 1594 1594 1594 1776 1776 1785 1785 1785 1785 1785 1785 1785 1785 1785 1794 1794 1804 1813 1813 1823 1823 1823 1823 1823 1823 1823 1823 1823 1823 1823 1823 1833 1833 1833 1833 1843 1843 1671 1663 1663 1663 1655 1655 1655 1647 1647 1647 1647 1647 1639 1639 1639 1639 1639 1639 1639 1639 1639 1639 1639 1647 1647 1655 1655 1655 1655 1663 1663 1671 1671 1671 1671 3692 3653 3653 3692 1671 1671 1671 1663 1663 1671 3692 3692 3653 3653 3692 3692 3692 1804 1794 1794 1794 1804 1804 1804 1804 1804 1804 1804 1794 1794 1794 1794 1785 1785 1785 1785 1785 1785 1776 1776 1776 1776 1776 1776 1757 1739 1739 3653 3653 3653 3614 3614 3576 3576 3576 3576 3576 3576 0 0 0 0 0 0 0 0 0 0 0 0
0 0 0 0 0 0 0 0 0 0 0 0 0 0 0 0 0 0 0 0 0 0 0 0 0 0 0 0 0 0 0 0 3238 3238 3238 3238 3238 3238 3238 3269 3269 3269 3269 3269 3269 3269 3269 3269 3269 3269 3269 3269 3300 3300 3300 3333 3333 3300 3300 3300 3333 3333 3333 3333 3333 3333 3300 3300 3300 3300 3269 3269 3269 3269 3269 3269 3300 3300 3300 3300 3300 3300 3333 3333 3333 3333 3333 3333 3333 3333 3333 3333 3300 3300 3300 3269 3178 3149 3120 3092 3064 3064 3064 3064 3064 3064 3064 3092 3092 3208 3300 3333 3365 3365 3365 3399 3399 3399 3433 3433 3433 3399 3399 3365 3365 3333 3333 3333 3365 3365 3399 3399 3399 3433 2859 2859 2859 2859 2859 2859 2859 2859 2859 2859 2859 2859 2859 2859 2859 2859 2859 2859 2859 2859 2859 2859 2835 2835 2835 2812 2812 2835 2835 2835 2835 2835 2859 2859 2859 2859 2859 2859 2859 2859 2859 2859 2859 2859 2859 2859 2883 2883 2908 2933 2933 2958 2958 2958 2958 2984 2984 3010 3037 3037 3037 3037 3037 3037 3037 3037 3010 3010 3010 3010 3010 3010 3010 3010 3010 3010 3010 3010 3010 3010 2984 2984 3010 3010 3010 3010 3010 3010 3010 3037 3037 3037 3037 3037 3037 3037 3064 3064 3064 3064 3064 3064 3064 3064 3092 3092 3092 3120 3120 3149 3149 3149 3149 3178 3149 3149 3149 3149 3149 3149 3149 3149 3149 3149 3149 3149 3149 3149 3149 2116 2116 2116 2116 2116 2116 2116 2116 2116 2116 2116 2116 2116 2116 2129 2129 2143 2212 2212 2226 2226 2226 2226 2226 2226 2226 2241 2241 2241 2241 2256 2271 2271 3539 3539 3539 3539 3539 3539 3539 3576 3576 3614 3614 3653 3653 2317 2317 2301 2301 1766 1766 1776 1776 1766 1757 1757 1757 1748 1739 1739 1739 1731 1731 1731 1722 1713 1696 1696 1688 1688 1680 1680 1671 1663 1655 1655 1655 1647 1639 1639 1632 1616 1616 1609 1609 1601 1586 1579 1572 1564 1543 1543 1536 1536 1529 1523 1516 1516 1516 1516 1509 1509 1509 1509 1503 1503 1503 1503 1503 1503 1503 1503 1509 1509 1509 1509 1516 1516 1516 1516 1516 1516 1516 1523 1523 1529 1529 1529 1536 1536 1536 1536 1543 1543 1543 1543 1543 1550 1550 1557 1557 1564 1564 1564 1564 1564 1564 1458 1458 1458 1452 1452 1445 1439 1433 1433 1433 1433 1433 1439 1439 1445 1452 1452 1458 1464 1470 1470 1477 1477 1477 1483 1483 1483 1483 1483 1483 1483 1489 1489 1489 1489 1489 1496 1496 1503 1503 1503 1503 1503 1509 1509 1509 1516 1523 1523 1529 1529 1529 1529 1529 1536 1536 1536 1543 1543 1550 1557 1557 1557 1557 1557 1564 1564 1564 1564 1572 1579 1586 1586 1594 1594 1594 1594 1594 1601 1601 1601 1601 1601 1601 1609 1601 1601 1601 1601 1586 1586 1776 1785 1785 1785 1785 1785 1785 1785 1785 1785 1794 1794 1804 1813 1813 1823 1823 1823 1823 1823 1823 1823 1823 1823 1823 1833 1833 3692 3692 3692 3692 1671 1671 1671 1663 1663 1663 1655 1655 1655 1647 1647 1647 1647 1647 1647 1647 1647 1647 1639 1639 1647 1647 1647 1647 1639 1639 1647 1663 3614 3614 3614 3614 3653 3653 3653 3653 3653 3653 3653 3653 3653 3653 3653 3653 3653 3653 3692 3653 3653 3653 3653 3653 3692 3692 1804 1804 1804 1804 1804 1804 1804 1804 1804 1804 1804 1794 1794 1794 1794 1785 1785 1785 1785 1785 1785 1785 1776 1776 1776 1776 1766 1757 1739 1739 3576 3614 3614 3614 3576 3576 3539 3539 3539 3539 3539 0 0 0 0 0 0 0 0 0 0 0 0
0 0 0 0 0 0 0 0 0 0 0 0 0 0 0 0 0 0 0 0 0 0 0 0 0 0 0 0 0 0 0 0 3208 3208 3208 3238 3238 3238 3238 3269 3269 3269 3269 3269 3238 3238 3238 3238 3238 3238 3238 3238 3238 3238 3238 3238 3238 3238 3238 3238 3269 3269 3269 3269 3269 3269 3269 3269 3269 3238 3238 3269 3269 3269 3269 3269 3269 3269 3269 3300 3300 3300 3300 3333 3333 3333 3333 3333 3333 3300 3300 3300 3300 3300 3300 3269 3178 3149 3120 3092 3064 3064 3064 3064 3064 3064 3064 3092 3092 3208 3300 3300 3333 3333 3333 3365 3365 3365 3399 3399 3399 3399 3365 3365 3365 3333 3333 3333 3365 3365 3365 3399 3399 3399 2859 2859 2859 2859 2859 2883 2859 2859 2859 2859 2859 2859 2859 2859 2859 2859 2859 2859 2859 2859 2859 2859 2835 2835 2835 2835 2835 2835 2835 2835 2835 2835 2835 2859 2859 2859 2859 2859 2859 2859 2859 2859 2859 2859 2859 2883 2883 2908 2908 2933 2933 2958 2958 2958 2958 2984 2984 3010 3037 3037 3037 3037 3037 3037 3037 3037 3037 3010 3010 3010 3010 3010 3010 3010 3010 3010 3010 3010 3010 3010 3010 3010 3010 3010 3010 3010 3010 3010 3010 3010 3037 3037 3037 3037 3037 3037 3037 3064 3064 3064 3064 3064 3064 3092 3092 3092 3120 3120 3120 3149 3149 3149 3149 3178 3149 3149 3149 3149 3149 3149 3149 3149 3149 3149 3149 3149 3149 3149 3149 2116 2116 2116 2116 2116 2116 2116 2116 2116 2116 2116 2116 2129 2129 2129 2143 2143 2212 2212 2226 2226 2226 2226 2226 2226 2226 2241 2241 2241 2241 2256 2271 2271 3539 2286 2286 2286 2286 3539 2301 2301 2317 2301 2301 2301 2301 2301 2301 2301 2301 2301 2301 2286 2286 1766 1757 1757 1757 1748 1739 1739 1739 1739 1731 1731 1722 1713 1696 1696 1688 1688 1680 1680 1671 1663 1663 1655 1655 1647 1639 1639 1632 1616 1616 1609 1609 1601 1594 1586 1572 1572 1550 1550 1543 1536 1529 1523 1516 1516 1516 1516 1509 1509 1509 1509 1503 1503 1503 1503 1503 1503 1503 1503 1509 1509 1509 1509 1516 1516 1516 1516 1516 1516 1516 1516 1523 1523 1529 1529 1536 1536 1543 1543 1543 1543 1543 1543 1550 1550 1557 1564 1564 1564 1572 1572 1572 1572 1572 1458 1458 1458 1458 1452 1445 1439 1439 1439 1439 1439 1439 1439 1445 1445 1452 1452 1464 1464 1470 1470 1477 1477 1477 1483 1483 1483 1483 1483 1483 1483 1489 1489 1489 1489 1496 1496 1503 1503 1503 1503 1509 1509 1509 1509 1516 1516 1523 1529 1529 1529 1529 1529 1536 1536 1536 1543 1543 1550 1557 1557 1557 1557 1557 1564 1564 1564 1564 1572 1579 1579 1586 1586 1594 1594 1594 1601 1601 1601 1601 1601 1601 1601 1609 1609 1609 1609 1601 1601 1586 1586 1785 1785 1785 1785 1785 1785 1785 1785 1785 1785 1794 1794 1804 1813 1813 1823 1813 1813 1823 1823 1823 1823 1823 1823 1823 3653 3692 3692 3692 3692 0 1671 1671 1671 1663 1663 1663 1655 1655 1655 1647 1647 1647 1647 1647 1647 1647 1647 1647 1639 1639 1647 1647 1647 1647 1639 1639 1647 3576 3614 3576 3576 3614 3653 3653 3653 3653 3614 3614 3614 3614 3614 3614 3653 3653 3653 3653 3653 3614 3614 3576 3576 3614 3614 1813 1804 1804 1804 1804 1804 1804 1804 1804 1804 1804 1804 1804 1794 1794 1794 1785 1785 1785 1785 1785 1785 1785 1776 1776 1776 1776 1766 1766 3576 3576 3576 3576 3576 3576 3576 3539 3539 3539 3539 3539 3539 0 0 0 0 0 0 0 0 0 0 0 0
0 0 0 0 0 0 0 0 0 0 0 0 0 0 0 0 0 0 0 0 0 0 0 0 0 0 0 0 0 0 0 0 3208 3208 3208 3208 3208 3208 3208 3238 3238 3238 3238 3238 3238 3238 3238 3238 3238 3238 3238 3238 3238 3238 3238 3238 3238 3238 3238 3238 3238 3238 3238 3238 3238 3238 3238 3238 3238 3238 3238 3238 3238 3238 3238 3238 3238 3238 3238 3269 3269 3269 3300 3300 3300 3300 3300 3300 3300 3300 3300 3300 3300 3300 3269 3269 3178 3149 3120 3092 3064 3064 3064 3064 3064 3064 3092 3092 3092 3149 3269 3300 3333 3333 3333 3333 3365 3365 3399 3399 3399 3365 3365 3333 3333 3333 3333 3333 3333 3333 3333 3365 3365 3365 3399 2883 2859 2859 2883 2883 2883 2859 2859 2859 2859 2859 2859 2859 2859 2859 2859 2859 2859 2859 2859 2859 2835 2835 2835 2835 2835 2835 2835 2835 2835 2835 2835 2859 2859 2859 2859 2859 2859 2859 2859 2859 2859 2859 2883 2883 2883 2908 2908 2933 2933 2933 2958 2958 2958 2984 2984 3010 3037 3037 3037 3037 3037 3037 3037 3037 3037 3037 3037 3037 3037 3010 3010 3010 3010 3010 3010 3010 3010 3010 3010 3010 3010 3010 3010 3010 3010 3010 3010 3010 3037 3037 3037 3037 3037 3037 3037 3064 3064 3064 3064 3064 3064 3092 3092 3092 3120 3120 3120 3149 3149 3149 3178 3178 3178 3178 3149 3149 3149 3149 3149 3149 3149 3149 3149 3149 3120 3120 3120 2116 2116 2116 2116 2116 2116 2116 2116 2116 2116 2116 2116 2129 2129 2129 2143 2143 2184 2212 2212 2226 2226 2226 2226 2226 2226 2241 2241 2241 2241 2256 2271 2271 2286 2286 2286 2286 2286 2301 2301 2301 2301 2301 2301 2301 2301 2301 2301 2301 2301 2301 2301 2286 2286 2286 1757 1757 1757 1748 1739 1739 1739 1739 1731 1731 1722 1713 1696 1696 1696 1688 1688 1680 1671 1663 1663 1655 1655 1647 1639 1639 1632 1624 1616 1616 1616 1609 1594 1586 1579 1572 1557 1557 1550 1536 1536 1529 1523 1516 1516 1516 1516 1509 1509 1503 1503 1496 1496 1496 1496 1496 1503 1503 1509 1509 1509 1509 1516 1516 1516 1516 1516 1516 1516 1516 1523 1523 1529 1536 1536 1536 1543 1543 1543 1543 1550 1550 1550 1557 1557 1564 1564 1572 1572 1572 1572 1572 1579 1458 1458 1458 1458 1452 1445 1445 1439 1439 1439 1439 1439 1445 1445 1452 1452 1458 1464 1470 1470 1477 1477 1477 1477 1483 1483 1483 1483 1483 1489 1489 1489 1496 1496 1496 1503 1503 1503 1503 1509 1509 1509 1509 1509 1509 1516 1516 1523 1529 1529 1529 1529 1536 1536 1536 1543 1543 1550 1550 1557 1557 1557 1564 1564 1564 1564 1564 1564 1572 1579 1586 1586 1594 1594 1601 1601 1601 1601 1601 1609 1609 1609 1609 1609 1616 1616 1609 1609 1609 1601 1601 1601 1785 1785 1785 1785 1785 1785 1785 1785 1794 1794 1794 1804 1804 1823 1823 1813 1813 1823 1823 3614 3576 3576 3614 3614 3614 3653 3653 3653 3653 0 1671 1671 1671 1663 1663 1663 1655 1655 1655 1647 1647 1647 1647 1647 1647 1647 1647 1647 1647 1647 1647 1647 1647 1647 1639 1639 3539 3576 3576 3576 3576 3614 3614 3653 3653 3614 3614 3576 3576 3576 3576 3576 3614 3614 3614 3614 3614 3576 3539 3539 3539 3614 3614 1813 1813 1813 1813 1813 1804 1804 1804 1804 1804 1804 1804 1804 1794 1794 1794 1785 1785 1785 1785 1785 1785 1785 1776 1776 1776 1776 3539 3539 3576 3539 3539 3576 3576 3539 3539 3539 3539 3539 3539 3539 3539 0 0 0 0 0 0 0 0 0 0 0 0
0 0 0 0 0 0 0 0 0 0 0 0 0 0 0 0 0 0 0 0 0 0 0 0 0 0 0 0 0 0 0 0 3208 3208 3208 3208 3208 3208 3208 3208 3208 3208 3208 3208 3208 3208 3208 3208 3208 3208 3238 3238 3238 3238 3238 3238 3238 3238 3238 3238 3238 3238 3238 3238 3238 3238 3238 3238 3238 3238 3208 3208 3208 3208 3208 3208 3208 3208 3238 3238 3238 3269 3269 3269 3300 3300 3300 3300 3269 3269 3269 3269 3269 3269 3269 3238 3178 3149 3092 3092 3064 3064 3064 3064 3064 3064 3092 3092 3092 3149 3238 3269 3300 3300 3333 3333 3333 3333 3365 3365 3365 3365 3333 3333 3333 3333 3333 3333 3333 3333 3333 3333 3333 3365 3365 2883 2859 2859 2883 2883 2883 2859 2859 2859 2859 2859 2859 2859 2859 2859 2859 2859 2859 2859 2859 2859 2835 2835 2835 2835 2835 2835 2835 2835 2835 2835 2859 2859 2859 2859 2859 2859 2859 2859 2859 2859 2859 2859 2883 2883 2883 2908 2908 2933 2933 2933 2958 2958 2958 2984 2984 3010 3037 3037 3037 3037 3037 3037 3037 3037 3037 3037 3037 3037 3037 3037 3010 3010 3010 3010 3010 3010 3010 3010 3010 3010 3010 3010 3010 3010 3010 3010 3010 3010 3037 3037 3037 3037 3064 3064 3064 3064 3064 3064 3064 3064 3064 3092 3092 3092 3092 3120 3120 3149 3149 3178 3178 3178 3178 3178 3149 3149 3149 3149 3149 3149 3149 3149 3149 3149 3120 3120 3120 2116 2116 2116 2116 2116 2116 2116 2116 2116 2116 2116 2129 2129 2129 2129 2143 2156 2184 2212 2212 2226 2226 2226 2226 2226 2226 2241 2241 2241 2241 2256 2256 2271 2271 2286 2286 2286 2286 2286 2286 2286 2286 2286 2286 2286 2286 2286 2301 2301 2286 2286 2301 2286 2286 2286 2286 2271 2271 2271 1739 1739 1739 1731 1731 1731 1713 1713 1696 1696 1696 1688 1688 1680 1671 1663 1663 1655 1655 1647 1647 1639 1632 1624 1616 1616 1616 1609 1601 1594 1586 1579 1572 1564 1557 1543 1543 1536 1529 1523 1523 1516 1516 1509 1509 1503 1496 1496 1496 1496 1496 1496 1503 1503 1509 1509 1509 1509 1516 1516 1516 1516 1516 1516 1516 1516 1523 1523 1529 1536 1536 1543 1543 1543 1543 1550 1550 1550 1557 1557 1557 1572 1572 1572 1579 1579 1579 1579 1458 1458 1458 1458 1458 1458 1445 1445 1445 1439 1439 1439 1445 1445 1452 1452 1452 1458 1464 1470 1477 1477 1477 1477 1483 1483 1483 1489 1489 1489 1489 1496 1496 1496 1496 1496 1503 1503 1503 1503 1509 1509 1509 1509 1509 1509 1516 1523 1523 1529 1529 1536 1536 1536 1536 1543 1543 1550 1550 1557 1557 1557 1557 1564 1564 1564 1564 1572 1572 1579 1586 1594 1601 1609 1609 1616 1609 1609 1609 1609 1609 1609 1609 1609 1616 1616 1616 1616 1609 1609 1601 1601 1601 1785 1785 1785 1785 1785 1785 1785 1785 1794 1794 1794 1804 1804 1823 3539 3576 3576 3576 3576 3576 3576 3576 3576 3576 3576 3576 3614 3614 0 0 1671 1671 1671 1671 1671 1663 1663 1663 1655 1655 1647 1647 1647 1647 1647 1647 1647 1647 1647 1647 1647 1647 1647 1647 1647 1647 3539 3576 3576 3576 3576 3614 3614 3653 3653 3614 3614 3576 3576 3576 3576 3576 3614 3614 3614 3614 3614 3576 3539 3539 3539 3539 1804 1804 1804 1804 1813 1813 1813 1804 1804 1813 1804 1804 1804 1804 1794 1794 1794 1785 1785 1785 1785 1785 1785 1785 1776 1776 1776 3539 3539 3539 3539 3539 3539 3539 3539 3539 3539 3539 3539 3539 3503 3503 3503 0 0 0 0 0 0 0 0 0 0 0 0
0 0 0 0 0 0 0 0 0 0 0 0 0 0 0 0 0 0 0 0 0 0 0 0 0 0 0 0 0 0 0 0 3178 3178 3178 3178 3208 3178 3178 3208 3208 3208 3208 3208 3208 3208 3208 3208 3208 3208 3208 3208 3208 3238 3238 3208 3208 3208 3208 3208 3238 3238 3238 3238 3238 3238 3238 3238 3238 3238 3208 3208 3208 3208 3208 3208 3208 3208 3208 3238 3238 3238 3269 3269 3269 3300 3269 3269 3238 3238 3269 3269 3269 3269 3238 3208 3178 3149 3092 3092 3064 3064 3064 3064 3064 3064 3092 3092 3092 3120 3178 3208 3238 3269 3269 3300 3300 3300 3333 3333 3333 3333 3333 3333 3333 3300 3300 3300 3300 3300 3333 3333 3333 3333 3365 2883 2859 2859 2883 2883 2883 2859 2859 2859 2859 2859 2859 2859 2859 2859 2859 2859 2859 2859 2859 2859 2835 2835 2835 2835 2835 2835 2835 2835 2835 2835 2859 2859 2859 2859 2859 2859 2859 2859 2859 2859 2859 2883 2883 2883 2908 2908 2933 2933 2933 2958 2958 2958 2958 2984 2984 3010 3037 3037 3037 3037 3037 3037 3037 3037 3037 3037 3037 3037 3037 3037 3037 3010 3010 3010 3037 3037 3010 3010 3010 3010 3010 3010 3010 3010 3010 3010 3010 3010 3037 3037 3037 3037 3064 3064 3064 3064 3064 3064 3064 3064 3092 3092 3092 3092 3092 3120 3120 3149 3149 3178 3178 3178 3178 3178 3149 3149 3149 3149 3149 3149 3149 3149 3149 3149 3120 3120 3120 2116 2116 2116 2116 2116 2116 2116 2116 2116 2129 2129 2129 2129 2129 2129 2156 2184 2198 2212 2212 2226 2226 2226 2226 2226 2226 2241 2241 2241 2241 2241 2256 2256 2271 2271 2271 2271 2286 2286 2286 2286 2286 2286 2286 2286 2286 2286 2286 2286 2286 2286 2286 2286 2286 2286 2286 2271 2271 2271 2271 1739 1731 1731 1731 1731 1713 1713 1696 1696 1696 1688 1688 1680 1680 1671 1663 1663 1655 1647 1647 1639 1632 1624 1616 1616 1616 1609 1601 1594 1594 1586 1579 1572 1564 1550 1543 1536 1536 1529 1523 1516 1516 1509 1509 1503 1496 1496 1496 1496 1496 1496 1503 1503 1509 1509 1509 1509 1516 1516 1516 1516 1516 1516 1516 1523 1529 1529 1536 1536 1543 1543 1550 1550 1550 1557 1557 1557 1557 1564 1564 1572 1572 1579 1579 1579 1579 1586 1458 1458 1458 1458 1458 1458 1445 1445 1445 1445 1439 1439 1445 1445 1452 1452 1458 1458 1470 1470 1477 1477 1477 1477 1483 1483 1483 1489 1489 1489 1489 1496 1496 1496 1496 1503 1503 1503 1509 1509 1509 1509 1509 1509 1509 1516 1523 1523 1529 1529 1536 1536 1536 1536 1536 1543 1543 1550 1550 1557 1557 1557 1557 1564 1564 1564 1564 1572 1572 1579 1594 1609 1609 1616 1616 1616 1616 1616 1609 1609 1616 1616 1616 1616 1616 1616 1616 1616 1616 1616 1616 1616 2349 2349 2349 2349 2349 2349 2349 2333 2333 2333 2317 2317 3503 3503 3539 3539 3539 3576 3576 3576 3576 3539 3539 3576 3539 3539 3539 3576 0 0 0 0 1671 1671 1671 1671 1663 1663 1663 1655 1655 1647 1647 1647 1647 1647 1647 1647 1647 1647 1647 1647 1647 1647 1639 1639 1647 3539 3539 3576 3576 3576 3614 3614 3614 3653 3614 1748 1748 1748 1757 1757 1757 1757 1766 1766 1766 1766 1776 1785 1785 1794 1804 1804 1804 1804 1804 1804 1804 1804 1804 1804 1813 1804 1804 1804 1804 1794 1794 1794 1794 1794 1785 1785 1785 1785 1785 1776 1776 1776 3503 3503 3503 3539 3539 3539 3539 3539 3539 3539 3539 3503 3503 3503 3503 3503 0 0 0 0 0 0 0 0 0 0 0 0
0 0 0 0 0 0 0 0 0 0 0 0 0 0 0 0 0 0 0 0 0 0 0 0 0 0 0 0 0 0 0 0 3178 3149 3149 3178 3178 3178 3178 3208 3208 3208 3208 3208 3208 3208 3178 3178 3178 3208 3208 3208 3208 3208 3208 3208 3208 3208 3208 3208 3208 3208 3208 3208 3208 3208 3208 3208 3238 3238 3208 3178 3178 3208 3208 3208 3208 3208 3208 3208 3238 3238 3238 3238 3238 3238 3238 3208 3208 3208 3238 3238 3238 3238 3208 3208 3178 3149 3120 3092 3064 3064 3064 3064 3064 3092 3092 3092 3092 3120 3178 3208 3238 3238 3269 3269 3300 3300 3300 3300 3300 3300 3300 3300 3300 3300 3300 3300 3300 3300 3300 3300 3300 3300 3333 2883 2883 2883 2883 2883 2883 2883 2859 2859 2859 2859 2859 2859 2859 2859 2859 2859 2859 2859 2859 2859 2835 2835 2835 2835 2835 2835 2835 2835 2859 2859 2859 2859 2859 2859 2859 2859 2859 2859 2859 2859 2859 2883 2883 2883 2908 2933 2933 2933 2933 2958 2958 2958 2958 2984 2984 3010 3010 3037 3037 3037 3037 3037 3037 3037 3037 3037 3037 3037 3037 3037 3037 3037 3037 3037 3037 3037 3037 3037 3037 3037 3010 3010 3010 3010 3010 3010 3010 3010 3037 3037 3037 3037 3064 3064 3064 3064 3064 3064 3064 3064 3092 3092 3092 3092 3120 3149 3149 3149 3178 3178 3178 3178 3178 3178 3149 3149 3149 3178 3149 3149 3149 3149 3149 3149 3120 3120 3120 2116 2116 2103 2103 2116 2116 2116 2116 2116 2129 2129 2129 2129 2129 2129 2156 2198 2198 2212 2226 2226 2226 2226 2226 2226 2241 2241 2241 2241 2241 2241 2241 2256 2256 2256 2256 2256 2271 2271 2271 2271 2286 2286 2271 2271 2271 2271 2271 2271 2286 2286 2286 2286 2286 2286 2286 2271 2271 2271 2271 2271 1731 1731 1731 1731 1713 1713 1696 1696 1696 1688 1688 1680 1680 1671 1663 1663 1655 1655 1647 1639 1632 1624 1616 1616 1616 1601 1601 1594 1594 1594 1586 1579 1572 1557 1550 1543 1536 1529 1529 1523 1516 1509 1509 1503 1496 1496 1496 1496 1496 1496 1503 1503 1509 1509 1509 1509 1516 1516 1516 1516 1523 1523 1523 1523 1529 1536 1536 1543 1550 1550 1557 1557 1557 1557 1557 1564 1564 1564 1564 1572 1572 1579 1579 1586 1586 1586 1586 1464 1464 1464 1458 1458 1452 1452 1452 1445 1445 1445 1445 1452 1452 1458 1458 1458 1470 1470 1477 1477 1483 1483 1483 1483 1489 1489 1496 1496 1496 1496 1503 1503 1503 1503 1503 1509 1509 1509 1509 1509 1509 1516 1516 1516 1523 1523 1529 1529 1536 1536 1536 1536 1543 1543 1550 1550 1557 1557 1557 1557 1564 1564 1564 1731 1731 1739 1594 1594 1616 1624 1624 1624 1624 1616 1616 1616 1616 1616 1616 1616 1616 1616 1616 1616 1624 1624 1624 1624 1616 1616 2349 2349 2365 2349 2349 2349 2349 2349 2333 2333 2317 2317 3503 3503 3539 3539 3539 3539 3539 3539 3539 3539 3539 3539 3539 3539 3539 3539 3539 0 0 1671 1671 1671 1671 1671 1671 1663 1663 1655 1655 1655 1655 1655 1655 1655 1647 1647 1647 1647 1647 1647 1647 1647 1639 1639 3539 3539 3539 3576 3576 3576 3576 3614 3614 3653 1748 1748 1748 1748 1757 1757 1757 1757 1766 1766 1766 1766 1776 1785 1785 1785 1794 1794 1794 1794 1794 1804 1804 1804 1804 1804 1804 1804 1804 1804 1804 1794 1794 1794 1794 1794 1785 1785 1785 1785 1776 1776 1776 3539 3503 3503 3503 3503 3503 3503 3503 3503 3539 3539 3503 3503 3503 3503 3503 3503 0 0 0 0 0 0 0 0 0 0 0 0
0 0 0 0 0 0 0 0 0 0 0 0 0 0 0 0 0 0 0 0 0 0 0 0 0 0 0 0 0 0 0 0 3149 3149 3149 3149 3149 3149 3149 3178 3178 3178 3178 3178 3178 3178 3178 3178 3178 3178 3178 3178 3178 3208 3178 3178 3178 3178 3178 3178 3208 3208 3208 3208 3208 3208 3208 3208 3208 3208 3178 3178 3178 3178 3178 3178 3178 3178 3208 3208 3208 3208 3208 3208 3208 3208 3208 3208 3208 3208 3208 3208 3208 3208 3208 3178 3178 3149 3092 3092 3064 3064 3064 3064 3064 3092 3092 3092 3092 3120 3178 3208 3238 3238 3269 3269 3300 3300 3300 3300 3300 3269 3269 3300 3300 3269 3269 3269 3269 3300 3300 3300 3300 3300 3300 2883 2883 2883 2883 2883 2883 2883 2883 2883 2883 2883 2883 2859 2859 2859 2859 2859 2859 2859 2859 2859 2835 2835 2835 2835 2835 2835 2835 2835 2859 2859 2859 2859 2859 2859 2859 2859 2859 2859 2859 2859 2883 2883 2883 2908 2908 2933 2933 2933 2933 2958 2958 2958 2958 2984 2984 3010 3010 3010 3037 3037 3037 3037 3037 3037 3037 3037 3037 3037 3037 3037 3037 3037 3037 3037 3037 3037 3037 3037 3037 3037 3010 3010 3010 3010 3010 3010 3010 3010 3037 3037 3037 3037 3064 3064 3064 3064 3064 3064 3064 3092 3092 3092 3120 3120 3120 3149 3149 3149 3178 3178 3178 3178 3178 3178 3178 3178 3178 3178 3178 3178 3149 3149 3149 3149 3120 3120 3120 2116 2116 2103 2103 2116 2116 2116 2116 2116 2129 2129 2129 2129 2129 2129 2170 2198 2212 2226 2226 2226 2241 2241 2241 2241 2241 2241 2241 2241 2241 2241 2241 2256 2256 2256 2256 2256 2256 2256 2271 2271 2271 2271 2271 2271 2271 2271 2271 2271 2271 2271 2271 2271 2271 2271 2271 2271 2271 2271 2271 2271 2256 2256 2241 1731 1722 1713 1705 1696 1696 1688 1688 1680 1671 1671 1663 1663 1655 1655 1647 1647 1639 1624 1624 1616 1616 1601 1601 1594 1594 1594 1586 1579 1572 1564 1557 1550 1543 1536 1529 1523 1516 1516 1509 1503 1503 1503 1503 1503 1503 1503 1503 1503 1509 1509 1509 1516 1516 1516 1523 1523 1523 1523 1523 1536 1536 1536 1543 1550 1557 1557 1564 1564 1564 1564 1564 1564 1564 1572 1572 1579 1579 1586 1586 1586 1586 1586 1464 1464 1464 1464 1458 1458 1452 1452 1452 1452 1445 1445 1452 1452 1452 1458 1458 1464 1477 1477 1477 1483 1483 1483 1483 1489 1489 1496 1496 1496 1503 1503 1503 1503 1503 1503 1509 1509 1509 1509 1509 1516 1516 1516 1516 1523 1529 1529 1529 1529 1536 1536 1536 1543 1543 1550 1550 1557 1557 1557 1557 1557 1564 1731 1731 1731 1731 1739 1739 1632 1632 1632 1632 1624 1624 1624 1616 1616 1616 1616 1616 1616 1616 1616 1616 1616 1624 1624 1624 1624 1616 1616 2333 2349 2349 2349 2349 2349 2349 2349 2349 2349 2349 3503 3503 3503 3539 3539 3539 3539 3539 3539 3503 3503 3539 3539 3539 3539 3539 3539 0 0 0 0 1671 1671 1671 1671 1671 1671 1663 1655 1655 1663 1655 1655 1655 1655 1655 1655 1655 1647 1647 1647 1647 1647 1639 1639 3539 3539 3539 1748 1748 1748 3576 3576 1748 1748 1748 1748 1748 1757 1766 1766 1766 1766 1776 1766 1766 1776 1776 1785 1785 1785 1785 1785 1785 1785 1785 1794 1804 1804 1804 1804 1804 1804 1804 1804 1804 1794 1794 1794 1794 1794 1785 1785 1785 1776 1776 1776 1776 3503 3468 3468 3433 3433 3468 3468 3468 3468 3468 3503 3503 3503 3503 3503 3503 3503 0 0 0 0 0 0 0 0 0 0 0 0
0 0 0 0 0 0 0 0 0 0 0 0 0 0 0 0 0 0 0 0 0 0 0 0 0 0 0 0 0 0 0 0 3120 3120 3120 3149 3149 3149 3149 3149 3149 3149 3149 3149 3149 3149 3149 3149 3149 3178 3178 3178 3178 3178 3178 3149 3149 3149 3149 3149 3149 3178 3178 3208 3208 3208 3208 3208 3208 3208 3178 3178 3178 3178 3178 3178 3178 3178 3178 3208 3208 3208 3208 3208 3208 3208 3178 3178 3178 3208 3208 3208 3208 3208 3208 3178 3178 3149 3092 3092 3064 3064 3064 3064 3092 3092 3092 3092 3120 3149 3149 3178 3208 3208 3238 3238 3269 3269 3269 3269 3269 3269 3269 3269 3269 3269 3269 3269 3269 3269 3269 3269 3269 3269 3269 2908 2883 2883 2883 2883 2883 2883 2883 2883 2883 2883 2883 2859 2859 2859 2859 2859 2859 2859 2859 2859 2835 2835 2835 2835 2835 2835 2835 2835 2859 2859 2859 2859 2859 2859 2859 2859 2859 2859 2859 2859 2883 2883 2883 2908 2908 2933 2933 2933 2933 2958 2958 2958 2958 2984 2984 3010 3010 3010 3037 3037 3037 3037 3037 3037 3037 3037 3037 3037 3037 3037 3037 3037 3037 3037 3037 3037 3037 3037 3037 3037 3010 3010 3010 3010 3010 3010 3010 3010 3010 3037 3037 3037 3064 3064 3064 3064 3064 3064 3064 3092 3092 3120 3120 3120 3120 3149 3149 3149 3178 3178 3208 3208 3208 3178 3178 3178 3178 3178 3178 3178 3149 3149 3149 3149 3120 3120 3120 2116 2116 2116 2116 2116 2116 2116 2116 2116 2129 2129 2129 2129 2129 2129 2170 2184 2212 2226 2226 2226 2241 2241 2241 2241 2241 2241 2241 2241 2241 2241 2241 2241 2241 2241 2241 2241 2241 2241 2241 2241 2241 2256 2256 2256 2256 2256 2256 2256 2256 2256 2256 2256 2256 2256 2271 2271 2256 2256 2271 2256 2241 2241 2241 2241 2241 1722 1705 1696 1696 1688 1688 1680 1671 1671 1663 1663 1663 1655 1655 1647 1639 1624 1624 1616 1616 1601 1601 1601 1594 1594 1586 1579 1572 1572 1564 1557 1543 1536 1536 1529 1523 1516 1516 1509 1503 1503 1503 1503 1503 1503 1509 1509 1509 1516 1516 1516 1523 1523 1523 1523 1523 1529 1529 1543 1543 1550 1557 1557 1564 1564 1564 1564 1564 1572 1572 1572 1572 1572 1579 1579 1579 1586 1586 1594 1594 1594 1464 1464 1464 1464 1464 1458 1452 1452 1452 1452 1452 1452 1452 1452 1458 1458 1464 1464 1477 1477 1477 1483 1483 1483 1483 1489 1489 1496 1496 1496 1503 1503 1503 1503 1503 1503 1509 1509 1509 1509 1509 1516 1516 1516 1523 1523 1529 1529 1529 1536 1536 1536 1543 1543 1543 1550 1550 1550 1557 1557 1557 1557 1564 1731 1731 1739 1739 1739 1739 1739 1639 1639 1632 1632 1632 1624 1624 1624 1616 1616 1616 1616 1616 1624 1624 1624 1624 1624 1624 1624 1624 1624 2301 2333 2349 2349 2349 2349 2333 2317 2317 2317 2317 3503 3503 3503 3539 3539 3539 3539 3539 3503 3503 3503 3503 3539 3503 3503 3503 3503 3503 0 0 0 1671 1671 1671 1671 1671 1663 1663 1655 1655 1663 1655 1655 1655 1655 1655 1655 1655 1647 1647 1647 1647 1647 1647 1739 1739 1739 1739 1739 1739 1739 1739 1739 1739 1748 1748 1748 1748 1757 1766 1766 1766 1766 1776 1776 1776 1776 1776 1785 1785 1785 1785 1785 1785 1785 1785 1794 1794 1804 1804 1804 1804 1804 1804 1804 1804 1804 1804 1804 1794 1794 1794 1794 1785 1776 1776 1776 2078 3503 3468 3468 3433 3433 3433 3433 3468 3468 3468 3468 3468 3468 3468 3468 3468 3468 3468 0 0 0 0 0 0 0 0 0 0 0
0 0 0 0 0 0 0 0 0 0 0 0 0 0 0 0 0 0 0 0 0 0 0 0 0 0 0 0 0 0 0 0 3120 3120 3120 3120 3120 3120 3120 3149 3120 3120 3120 3120 3120 3120 3120 3120 3120 3149 3149 3149 3149 3149 3149 3149 3149 3149 3149 3149 3149 3149 3149 3178 3178 3178 3178 3208 3208 3208 3178 3178 3178 3178 3149 3149 3149 3178 3178 3178 3178 3178 3178 3178 3178 3178 3149 3149 3178 3178 3178 3178 3178 3208 3178 3178 3149 3120 3092 3092 3092 3064 3064 3064 3092 3092 3092 3092 3120 3149 3149 3178 3208 3208 3208 3208 3238 3238 3238 3238 3238 3238 3238 3269 3269 3269 3269 3269 3269 3269 3269 3269 3269 3269 3269 2908 2883 2883 2883 2883 2883 2883 2883 2883 2883 2883 2883 2859 2859 2859 2859 2859 2859 2859 2859 2859 2835 2835 2835 2835 2835 2835 2835 2835 2859 2859 2859 2859 2859 2859 2859 2859 2859 2859 2859 2883 2883 2883 2908 2908 2933 2933 2933 2933 2933 2958 2958 2958 2958 2984 3010 3010 3010 3037 3037 3037 3037 3037 3037 3037 3037 3037 3037 3037 3037 3037 3037 3037 3037 3037 3037 3037 3037 3037 3037 3037 3037 3010 3010 3010 3010 3010 3010 3010 3010 3037 3037 3037 3064 3064 3064 3064 3064 3064 3064 3092 3092 3120 3120 3120 3149 3149 3149 3178 3178 3208 3208 3208 3208 3208 3208 3178 3178 3178 3178 3178 3178 3178 3178 3149 3149 3149 3149 2116 2116 2116 2116 2116 2116 2116 2116 2116 2129 2129 2129 2129 2129 2129 2156 2170 2198 2212 2226 2226 2241 2241 2241 2241 2241 2241 2241 2241 2241 2241 2241 2241 2241 2241 2241 2241 2241 2226 2226 2241 2241 2241 2241 2241 2241 2241 2241 2241 2241 2241 2241 2256 2256 2256 2256 2256 2256 2256 2256 2256 2241 2241 2241 2241 2226 2212 1705 1696 1696 1688 1688 1680 1671 1671 1663 1663 1655 1655 1655 1647 1639 1624 1624 1616 1616 1601 1601 1601 1594 1594 1586 1579 1572 1572 1564 1557 1550 1543 1543 1536 1529 1523 1516 1509 1509 1509 1509 1503 1503 1503 1509 1509 1516 1516 1516 1523 1523 1529 1529 1529 1529 1536 1536 1543 1550 1550 1557 1564 1564 1564 1564 1564 1564 1572 1572 1572 1572 1579 1579 1579 1586 1586 1594 1594 1594 1594 1464 1464 1464 1464 1464 1464 1452 1452 1452 1452 1452 1452 1452 1458 1458 1458 1464 1470 1477 1477 1483 1483 1483 1483 1489 1489 1496 1496 1496 1503 1503 1503 1503 1503 1503 1509 1509 1509 1509 1509 1509 1516 1516 1523 1523 1529 1529 1529 1529 1536 1536 1536 1543 1543 1543 1550 1550 1550 2301 2301 1557 1557 1731 1731 1739 1739 1739 1739 1748 1748 1647 1647 1639 1632 1632 1632 1624 1624 1616 1616 1616 1616 1616 1624 1624 1624 1624 1624 1624 1624 1624 2256 2271 2271 2301 2317 2333 2349 2301 2256 2256 2271 2271 2241 2241 3503 3539 3503 3503 3503 3503 3503 3503 3503 3503 3503 3468 3468 3433 3433 3433 0 1688 0 1680 1680 1680 1671 1671 1663 1663 1655 1655 1663 1655 1655 1655 1655 1655 1655 1655 1655 1655 1655 1655 1655 1731 1731 1731 1739 1739 1739 1739 1739 1739 1739 1739 1748 1748 1748 1748 1757 1766 1766 1766 1766 1776 1776 1776 1776 1776 1785 1785 1785 1785 1785 1785 1785 1785 1785 1794 1804 1804 1804 1804 1804 1804 1804 1804 1804 1804 1804 1794 1794 1794 1794 1785 1785 1785 2078 2078 3468 3433 3433 3433 3433 3433 3433 3433 3433 3468 3468 3468 3468 3468 3468 3468 3468 3468 0 0 0 0 0 0 0 0 0 0 0
0 0 0 0 0 0 0 0 0 0 0 0 0 0 0 0 0 0 0 0 0 0 0 0 0 0 0 0 0 0 0 0 3120 3120 3120 3120 3120 3120 3120 3120 3120 3120 3120 3120 3120 3120 3120 3120 3120 3120 3120 3120 3120 3149 3149 3149 3149 3149 3149 3149 3149 3149 3149 3178 3178 3178 3178 3208 3208 3178 3149 3149 3178 3149 3149 3149 3149 3149 3149 3149 3149 3149 3149 3178 3149 3149 3149 3149 3149 3178 3178 3178 3178 3178 3178 3149 3149 3120 3092 3092 3092 3092 3092 3092 3092 3092 3092 3092 3120 3149 3149 3178 3208 3208 3208 3208 3208 3208 3238 3238 3238 3238 3238 3238 3269 3269 3269 3269 3269 3269 3269 3269 3269 3269 3269 2908 2883 2883 2883 2883 2883 2883 2883 2883 2883 2883 2883 2883 2859 2859 2859 2859 2859 2859 2859 2859 2835 2835 2835 2835 2835 2835 2835 2835 2835 2835 2835 2835 2859 2859 2859 2859 2859 2859 2883 2883 2883 2883 2908 2908 2933 2933 2933 2958 2958 2958 2958 2958 2958 2984 3010 3010 3037 3037 3037 3037 3037 3037 3037 3037 3037 3037 3037 3037 3037 3037 3037 3037 3037 3037 3037 3037 3037 3037 3037 3037 3037 3037 3010 3010 3010 3010 3010 3010 3037 3037 3037 3037 3064 3064 3064 3064 3064 3064 3064 3092 3092 3120 3120 3120 3120 3149 3149 3178 3178 3208 3208 3208 3208 3208 3178 3178 3178 3178 3178 3178 3178 3178 3178 3149 3149 3149 3149 2116 2116 2116 2116 2116 2116 2116 2116 2116 2129 2129 2129 2129 2129 2129 2156 2170 2198 2212 2226 2226 2241 2241 2241 2241 2241 2241 2241 2226 2226 2241 2241 2226 2226 2226 2226 2226 2226 2212 2212 2226 2226 2226 2226 2226 2226 2226 2226 2226 2226 2226 2241 2241 2241 2241 2241 2241 2241 2241 2241 2241 2226 2226 2226 2241 2212 2212 2212 2212 2212 1688 1688 1680 1671 1671 1663 1663 1655 1655 1655 1647 1639 1624 1624 1616 1616 1609 1601 1601 1601 1594 1586 1586 1579 1572 1564 1564 1557 1550 1543 1543 1536 1529 1523 1516 1516 1509 1509 1509 1509 1509 1509 1509 1516 1516 1523 1529 1529 1536 1536 1536 1536 1536 1543 1550 1557 1557 1557 1564 1564 1564 1564 1564 1572 1572 1572 1572 1579 1579 1586 1586 1594 1594 1594 1594 1594 1594 1470 1470 1470 1464 1464 1464 1458 1452 1452 1452 1452 1452 1452 1458 1458 1464 1464 1470 1477 1477 1483 1483 1483 1489 1489 1489 1496 1496 1503 1503 1503 1503 1503 1503 1503 1509 1509 1509 1509 1509 1516 1523 1523 1523 1523 1529 1529 1529 1529 1536 1536 1543 1543 1543 1543 1550 1550 2286 2301 2301 2301 2301 2317 2317 2301 1739 1739 2317 2317 1655 1647 1647 1639 1639 1632 1632 1624 1624 1624 1616 1616 1616 1624 1624 1624 1624 1624 1624 1624 1624 1624 2241 2241 2241 2256 2256 2256 2256 2226 2226 2226 2241 2226 2212 2212 3503 3539 3503 3503 3503 3503 3503 3503 3468 3468 3468 3433 3433 3433 3433 3433 0 1688 1688 1680 1680 1680 1671 1671 1671 1663 1663 1663 1663 1655 1655 1655 1655 1655 1663 1655 1655 1655 1663 1663 1731 1739 1731 1731 1739 1739 1739 1739 1739 1739 1739 1739 1739 1748 1748 1748 1757 1757 1766 1766 1766 1766 1776 1776 1776 1776 1785 1785 1785 1785 1785 1785 1785 1785 1785 1794 1804 1804 1804 1804 1804 1804 1804 1804 1804 1804 1804 1804 1804 1794 1794 1794 1794 2090 2078 2078 3468 3433 3433 3433 3433 3399 3399 3399 3433 3433 3433 3433 3433 3433 3433 3433 3433 3433 0 0 0 0 0 0 0 0 0 0 0
0 0 0 0 0 0 0 0 0 0 0 0 0 0 0 0 0 0 0 0 0 0 0 0 0 0 0 0 0 0 0 0 3092 3092 3092 3092 3120 3120 3120 3120 3120 3120 3120 3120 3120 3120 3120 3120 3120 3120 3120 3120 3120 3120 3120 3120 3120 3120 3120 3120 3120 3149 3149 3149 3149 3149 3149 3178 3178 3178 3149 3149 3149 3149 3149 3149 3149 3149 3149 3120 3120 3120 3120 3149 3120 3120 3120 3149 3149 3149 3149 3149 3178 3178 3178 3149 3120 3120 3092 3092 3092 3092 3092 3092 3092 3092 3092 3092 3120 3149 3149 3178 3178 3178 3208 3208 3208 3208 3208 3238 3238 3238 3238 3238 3238 3238 3238 3238 3238 3238 3238 3269 3269 3269 3238 2908 2908 2883 2883 2883 2883 2883 2883 2883 2883 2883 2883 2883 2859 2859 2859 2859 2859 2859 2859 2859 2835 2835 2835 2835 2835 2835 2835 2835 2835 2835 2835 2835 2859 2859 2859 2859 2859 2859 2883 2883 2908 2908 2908 2933 2933 2933 2933 2958 2958 2958 2958 2958 2958 2984 3010 3010 3037 3037 3037 3037 3037 3037 3037 3037 3037 3037 3037 3037 3037 3037 3037 3037 3037 3037 3037 3037 3037 3037 3037 3037 3037 3037 3037 3037 3037 3037 3037 3037 3037 3037 3037 3037 3064 3064 3064 3064 3064 3064 3064 3092 3092 3120 3120 3120 3120 3149 3149 3178 3178 3208 3208 3208 3208 3208 3178 3178 3178 3178 3178 3178 3178 3178 3178 3178 3149 3149 2129 2129 2116 2116 2116 2116 2116 2116 2116 2116 2129 2129 2129 2129 2129 2129 2156 2184 2212 2226 2241 2241 2241 2241 2241 2226 2226 2226 2226 2226 2226 2226 2226 2226 2212 2212 2212 2198 2198 2198 2198 2198 2198 2212 2212 2212 2212 2212 2212 2212 2226 2226 2226 2226 2226 2226 2226 2226 2226 2226 2226 2226 2226 2226 2226 2226 2212 2212 2198 2198 2198 2198 1688 1680 1680 1671 1663 1663 1663 1655 1655 1647 1639 1632 1624 1616 1616 1609 1601 1601 1601 1594 1594 1586 1579 1572 1572 1564 1557 1550 1550 1543 1536 1529 1529 1523 1516 1516 1516 1509 1509 1509 1509 1516 1516 1523 1529 1529 1536 1536 1536 1536 1543 1543 1543 1557 1557 1557 1564 1564 1564 1564 1564 1572 1572 1572 1572 1579 1579 1579 1586 1594 1594 1594 1594 1594 1594 1594 1477 1477 1470 1470 1464 1464 1458 1458 1458 1458 1452 1452 1458 1458 1458 1464 1470 1470 1477 1483 1483 1483 1489 1489 1496 1496 1496 1503 1496 1496 1503 1503 1503 1503 1503 1503 1509 1509 1509 1509 1516 1523 1523 1523 1523 1529 1529 1529 1529 1536 1536 1543 1550 1550 1557 2271 2271 2286 2286 2286 2301 2301 2301 2301 2301 2301 2301 2301 1655 1655 1647 1647 1639 1639 1639 1632 1624 1624 1624 1624 1624 1624 1624 1624 1624 1624 1624 1624 1616 1616 2226 2226 2226 2226 2226 2226 2226 2226 2212 2212 2212 2212 2212 2212 2212 2226 2226 3503 3503 3468 3468 3468 3468 3468 3468 3433 3433 3433 3433 3433 3433 1696 1688 1688 1688 1688 1680 1671 1671 1671 1663 1663 1663 1663 1655 1655 1663 1663 1663 1663 1663 1663 1671 1680 1680 1731 1739 1731 1731 1739 1739 1739 1739 1739 1739 1739 1739 1739 1748 1748 1748 1757 1757 1757 1766 1766 1766 1766 1766 1776 1776 1776 1776 1785 1785 1785 1785 1785 1785 1794 1794 1804 1804 1804 1804 1804 1804 1804 1804 1804 1804 1804 1804 1804 1804 1794 1794 1804 2078 2078 2078 3433 3433 3433 3433 3399 3399 3399 3399 3433 3433 3433 3433 3433 3433 3433 3399 3399 3399 0 0 0 0 0 0 0 0 0 0 0
0 0 0 0 0 0 0 0 0 0 0 0 0 0 0 0 0 0 0 0 0 0 0 0 0 0 0 0 0 0 0 0 3092 3092 3092 3092 3092 3092 3092 3092 3092 3092 3092 3092 3092 3092 3092 3092 3092 3120 3092 3092 3120 3120 3120 3120 3120 3120 3120 3120 3120 3120 3120 3120 3120 3120 3120 3149 3120 3120 3120 3120 3120 3120 3120 3120 3120 3120 3120 3120 3120 3120 3120 3120 3120 3120 3120 3120 3149 3149 3149 3149 3178 3178 3149 3149 3120 3092 3092 3092 3092 3092 3092 3092 3092 3092 3092 3092 3120 3149 3149 3178 3178 3178 3208 3208 3208 3208 3208 3208 3238 3208 3208 3208 3208 3208 3238 3238 3238 3238 3238 3238 3238 3238 3208 2933 2908 2883 2883 2883 2883 2883 2883 2883 2883 2883 2883 2859 2859 2859 2859 2859 2859 2859 2859 2859 2835 2835 2835 2835 2835 2835 2835 2835 2835 2835 2835 2835 2859 2859 2859 2859 2859 2883 2883 2883 2908 2908 2908 2933 2933 2933 2933 2958 2958 2958 2958 2958 2958 2984 3010 3010 3037 3037 3037 3037 3037 3037 3037 3037 3037 3037 3037 3037 3037 3037 3037 3037 3037 3037 3037 3037 3037 3037 3037 3037 3037 3037 3037 3037 3037 3037 3037 3037 3037 3037 3037 3037 3064 3064 3064 3064 3064 3092 3092 3092 3120 3120 3120 3149 3149 3149 3149 3149 3178 3178 3208 3208 3208 3208 3208 3208 3178 3178 3178 3178 3178 3178 3178 3178 3149 3149 2129 2129 2116 2116 2116 2116 2116 2116 2116 2116 2129 2129 2129 2129 2129 2143 2170 2198 2212 2226 2241 2241 2241 2241 2241 2226 2226 2226 2212 2212 2212 2212 2198 2198 2198 2184 2184 2184 2184 2184 2184 2184 2184 2184 2184 2184 2198 2184 2184 2184 2212 2198 2198 2198 2198 2198 2198 2198 2198 2198 2198 2198 2198 2212 2212 2212 2198 2198 2198 2198 2198 2198 2184 1688 1680 1671 1663 1663 1663 1655 1655 1647 1647 1632 1624 1624 1616 1609 1601 1601 1601 1594 1594 1586 1579 1572 1572 1564 1557 1557 1550 1543 1536 1529 1529 1523 1516 1516 1516 1509 1509 1509 1516 1516 1523 1523 1529 1536 1536 1536 1536 1543 1543 1543 1550 1557 1557 1564 1564 1564 1564 1564 1564 1572 1572 1572 1572 1579 1579 1586 1586 1594 1594 1594 1594 1594 1594 1594 1477 1477 1470 1470 1464 1464 1458 1458 1458 1458 1458 1458 1458 1458 1464 1464 1470 1470 1477 1483 1483 1489 1489 1496 1496 1496 1503 1503 1496 1496 1503 1503 1503 1503 1503 1503 1509 1509 1509 1509 1516 1523 1523 1523 1523 1529 1529 1529 1529 1536 1713 1713 2271 2271 2271 2271 2271 2286 2286 2286 2286 2301 2301 2301 2301 2301 2301 2301 1655 1655 1647 1647 1647 1639 1639 1632 1632 1624 1624 1624 1624 1624 1624 1624 1624 1624 1624 1624 1616 1616 2212 2226 2226 2212 2212 2212 2212 2212 2212 2212 2212 2212 2212 2198 2198 2212 2212 2198 2198 3433 3433 3433 3433 3433 3433 3433 3433 3433 3433 3433 1705 1696 1696 1688 1688 1688 1680 1680 1680 1671 1671 1663 1663 1663 1663 1663 1663 1663 1663 1671 1671 1671 1680 1688 1731 1739 1739 1739 1739 1739 1739 1739 1739 1739 1739 1739 1739 1739 1748 1748 1748 1748 1757 1757 1757 1757 1766 1766 1766 1776 1776 1776 1776 1785 1785 1785 1785 1785 1785 1794 1804 1804 1804 1804 1804 1804 1804 1804 1804 1804 1804 1804 1804 1804 1804 1804 2090 2078 2078 2078 2065 2065 3433 3433 3399 3399 3399 3399 3399 3399 3399 3399 3399 3399 3399 3399 3399 3399 3399 0 0 0 0 0 0 0 0 0 0 0
0 0 0 0 0 0 0 0 0 0 0 0 0 0 0 0 0 0 0 0 0 0 0 0 0 0 0 0 0 0 0 0 3092 3092 3064 3064 3064 3064 3064 3064 3064 3092 3092 3092 3092 3092 3092 3092 3092 3092 3092 3092 3092 3092 3092 3092 3092 3092 3120 3120 3120 3120 3120 3120 3120 3120 3120 3120 3120 3120 3120 3092 3092 3092 3092 3092 3120 3092 3092 3092 3092 3092 3092 3092 3092 3092 3092 3120 3120 3149 3149 3149 3149 3149 3149 3120 3120 3092 3092 3092 3092 3092 3092 3092 3092 3092 3092 3092 3149 3149 3178 3178 3178 3178 3208 3208 3208 3208 3208 3208 3208 3208 3208 3208 3208 3208 3208 3238 3208 3208 3208 3208 3208 3208 3208 2958 2908 2883 2883 2883 2883 2883 2883 2883 2883 2883 2859 2859 2859 2859 2859 2859 2859 2859 2859 2859 2835 2835 2835 2835 2835 2835 2835 2835 2835 2835 2835 2835 2859 2859 2859 2859 2859 2883 2883 2908 2908 2908 2933 2933 2933 2933 2933 2958 2958 2958 2958 2958 2958 2984 3010 3010 3037 3037 3064 3064 3037 3037 3037 3037 3037 3037 3037 3037 3037 3037 3037 3037 3037 3037 3037 3037 3037 3037 3037 3037 3037 3037 3037 3037 3037 3037 3037 3037 3037 3037 3037 3064 3064 3064 3064 3064 3064 3092 3092 3092 3120 3120 3120 3149 3149 3149 3149 3149 3178 3178 3208 3208 3208 3208 3208 3208 3178 3178 3178 3178 3178 3178 3178 3178 3178 3178 2129 2129 2129 2129 2129 2129 2116 2116 2116 2129 2129 2129 2129 2129 2129 2156 2170 2198 2226 2226 2241 2241 2241 2241 2241 2226 2226 2212 2212 2198 2198 2198 2184 2184 2184 2184 2184 2184 2184 2184 2184 2184 2184 2184 2184 2184 2184 2184 2184 2184 2184 2184 2184 2184 2184 2184 2184 2184 2184 2184 2184 2184 2184 2198 2198 2198 2170 2170 2184 2184 2170 2170 2170 2170 2170 1671 1663 1663 1655 1655 1647 1647 1639 1632 1624 1624 1616 1609 1601 1601 1601 1594 1594 1586 1579 1572 1572 1564 1564 1557 1550 1543 1536 1536 1529 1523 1523 1516 1516 1516 1516 1516 1516 1516 1523 1529 1536 1536 1536 1536 1536 1543 1543 1543 1550 1557 1557 1564 1564 1564 1564 1564 1572 1572 1572 1572 1572 1579 1579 1586 1594 1594 1594 1594 1594 1594 1594 1483 1477 1477 1470 1470 1470 1464 1458 1458 1458 1458 1458 1458 1458 1458 1464 1470 1470 1477 1477 1483 1483 1489 1489 1496 1496 1496 1496 1496 1496 1496 1503 1503 1503 1503 1503 1503 1509 1509 1509 1509 1516 1523 1523 1523 1523 1529 1529 1536 1713 1713 1713 2271 2271 2271 2271 2271 2271 2271 2271 2271 2286 2286 2301 2301 2301 2301 2301 2301 1655 1655 1647 1647 1647 1647 1647 1639 1632 1624 1624 1624 1624 1624 1624 1624 1624 1624 1624 1624 1624 2198 2198 2198 2212 2198 2198 2198 2198 2198 2198 2198 2198 2198 2198 2198 2198 2198 2198 2198 2198 2198 3433 3433 3433 3433 3433 3433 3433 3433 3433 1705 1705 1705 1696 1696 1688 1688 1680 1680 1680 1671 1671 1663 1663 1663 1663 1663 1663 1663 1671 1671 1680 1680 1688 1722 1731 1731 1739 1739 1739 1739 1739 1739 1739 1739 1739 1739 1739 1739 1748 1748 1748 1748 1757 1757 1757 1757 1766 1766 1766 1776 1776 1776 1776 1785 1785 1785 1785 1785 1794 1804 1804 1804 1804 1804 1804 1804 1804 1804 1804 1804 1804 1804 1804 1804 1804 1804 2090 2078 2078 2078 2065 2065 3399 3399 3399 3399 3399 3399 3399 3399 3399 3399 3399 3399 3399 3399 3399 3399 3399 0 0 0 0 0 0 0 0 0 0 0
0 0 0 0 0 0 0 0 0 0 0 0 0 0 0 0 0 0 0 0 0 0 0 0 0 0 0 0 0 0 0 0 3092 3092 3064 3064 3064 3064 3064 3064 3064 3092 3092 3092 3092 3092 3092 3092 3092 3092 3092 3092 3092 3092 3092 3092 3092 3092 3092 3092 3092 3092 3092 3092 3092 3092 3092 3092 3092 3092 3092 3092 3092 3092 3092 3092 3092 3092 3092 3092 3092 3092 3092 3092 3092 3092 3092 3092 3120 3120 3120 3120 3149 3149 3120 3120 3092 3092 3092 3064 3064 3092 3092 3092 3092 3092 3092 3092 3149 3149 3178 3178 3178 3178 3208 3208 3208 3208 3208 3208 3208 3208 3208 3208 3208 3208 3208 3208 3208 3208 3208 3208 3208 3208 3178 2958 2908 2883 2883 2883 2883 2883 2883 2883 2883 2883 2859 2859 2859 2859 2859 2859 2859 2859 2859 2859 2835 2835 2835 2835 2835 2835 2835 2835 2835 2835 2859 2859 2859 2859 2859 2859 2883 2883 2883 2908 2908 2908 2933 2933 2933 2933 2933 2958 2958 2958 2958 2958 2984 2984 3010 3037 3037 3064 3064 3064 3064 3037 3037 3037 3037 3037 3037 3037 3037 3037 3037 3037 3037 3037 3037 3037 3037 3037 3037 3037 3037 3037 3037 3037 3037 3037 3037 3037 3037 3037 3037 3037 3064 3064 3064 3064 3064 3092 3092 3092 3120 3120 3120 3149 3149 3149 3149 3149 3178 3208 3208 3208 3208 3208 3208 3208 3178 3178 3178 3178 3178 3178 3178 3178 3178 3178 2129 2129 2129 2129 2129 2129 2129 2129 2129 2129 2129 2129 2129 2129 2129 2143 2170 2198 2226 2226 2241 2241 2241 2241 2241 2226 2226 2212 2212 2198 2198 2184 2184 2184 2170 2170 2170 2170 2170 2170 2170 2170 2170 2170 2170 2170 2170 2170 2170 2170 2170 2170 2170 2170 2170 2170 2170 2170 2170 2170 2170 2170 2184 2184 2184 2184 2170 2170 2170 2170 2170 2170 2170 2170 2170 2170 1663 1663 1655 1655 1647 1639 1639 1632 1624 1624 1616 1616 1609 1601 1601 1594 1594 1586 1579 1572 1572 1564 1564 1557 1550 1543 1543 1536 1529 1523 1523 1516 1516 1516 1516 1516 1516 1523 1529 1536 1536 1536 1536 1536 1543 1543 1543 1543 1550 1557 1564 1564 1564 1564 1572 1572 1572 1572 1572 1572 1579 1586 1586 1586 1594 1594 1594 1594 1594 1594 1601 1483 1477 1477 1470 1470 1470 1464 1458 1458 1458 1458 1458 1458 1458 1458 1464 1470 1470 1470 1477 1483 1483 1489 1489 1496 1496 1496 1496 1496 1496 1496 1503 1503 1503 1503 1503 1503 1509 1509 1688 1688 1688 1696 1713 1713 1713 1713 1713 1713 1713 1713 2271 2271 2271 2271 2271 2271 2271 2271 2271 2271 2286 2286 2301 2301 2301 2301 2301 1655 1655 1655 1647 1647 1647 1647 1647 1639 1632 1632 1632 1624 1624 1624 1624 1624 1624 1632 1624 1624 1624 2184 2184 2198 2198 2198 2198 2198 2198 2198 2198 2198 2198 2198 2198 2198 2198 2198 2198 2184 2184 2184 2198 3468 3468 3433 3433 3433 3433 1696 1696 1705 1705 1705 1696 1696 1688 1688 1680 1680 1680 1671 1671 1671 1663 1663 1663 1663 1671 1671 1671 1680 1680 1688 1696 1722 1731 1731 1731 1731 1731 1731 1731 1739 1739 1739 1739 1739 1739 1739 1748 1748 1748 1748 1757 1757 1757 1757 1766 1766 1766 1776 1776 1776 1776 1785 1785 1785 1785 1785 1794 1804 1804 1813 1804 1804 1804 1804 1804 1804 1804 1804 1804 1804 1804 1804 1804 1804 2090 2090 2078 2078 2078 3365 3399 3399 3399 3399 3399 3399 3399 3399 3365 3365 3399 3399 3365 3365 3365 3365 3365 0 0 0 0 0 0 0 0 0 0 0
0 0 0 0 0 0 0 0 0 0 0 0 0 0 0 0 0 0 0 0 0 0 0 0 0 0 0 0 0 0 0 0 3064 3064 3037 3037 3037 3037 3037 3037 3064 3064 3092 3092 3092 3092 3092 3092 3092 3092 3092 3092 3092 3092 3092 3092 3092 3092 3092 3092 3092 3092 3092 3092 3092 3092 3092 3092 3092 3092 3092 3064 3064 3064 3064 3064 3092 3064 3064 3064 3064 3092 3092 3092 3092 3092 3092 3092 3092 3092 3092 3120 3120 3120 3092 3092 3092 3092 3092 3064 3064 3092 3092 3092 3092 3092 3092 3092 3120 3149 3149 3178 3178 3178 3178 3178 3178 3178 3178 3178 3178 3178 3178 3208 3208 3208 3208 3208 3208 3208 3208 3208 3208 3208 3178 2984 2908 2883 2883 2883 2883 2883 2883 2883 2883 2883 2883 2859 2859 2883 2883 2859 2859 2859 2859 2859 2835 2835 2835 2835 2835 2835 2835 2835 2835 2835 2859 2859 2859 2859 2859 2883 2883 2883 2908 2908 2908 2908 2933 2933 2933 2933 2933 2958 2958 2958 2958 2958 2984 2984 3010 3037 3037 3064 3064 3064 3064 3064 3037 3037 3037 3037 3037 3037 3037 3037 3037 3037 3037 3037 3037 3037 3037 3037 3037 3037 3037 3037 3037 3037 3037 3037 3037 3037 3037 3037 3037 3037 3064 3064 3064 3064 3064 3092 3092 3120 3120 3120 3149 3149 3149 3120 3120 3149 3178 3208 3208 3208 3208 3208 3208 3208 3178 3178 3178 3178 3178 3178 3178 3178 3178 3178 2143 2143 2129 2129 2129 2129 2129 2129 2129 2129 2129 2129 2129 2129 2143 2143 2170 2212 2226 2241 2241 2241 2241 2241 2241 2226 2226 2212 2212 2198 2184 2184 2184 2170 2170 2170 2156 2156 2156 2156 2156 2170 2170 2170 2170 2170 2170 2170 2170 2170 2170 2170 2170 2156 2156 2156 2170 2170 2170 2170 2170 2170 2170 2170 2170 2170 2156 2156 2156 2156 2156 2156 2156 2156 2156 2156 2156 2156 1663 1655 1647 1639 1639 1632 1624 1624 1616 1616 1609 1601 1601 1594 1594 1586 1579 1572 1572 1564 1564 1557 1550 1543 1543 1536 1529 1523 1523 1523 1516 1516 1516 1516 1523 1523 1529 1536 1536 1536 1536 1543 1543 1543 1543 1543 1550 1557 1564 1564 1564 1564 1572 1572 1572 1572 1572 1579 1579 1586 1586 1594 1594 1594 1594 1594 1594 1594 1601 1483 1483 1477 1477 1470 1470 1464 1458 1458 1458 1458 1458 1458 1458 1464 1464 1470 1470 1470 1477 1483 1483 1489 1496 1496 1496 1496 1496 1496 1496 1496 1503 1503 1503 1503 1688 1688 1688 1688 1688 1688 1696 2256 2256 2271 1722 1713 1713 2271 2271 2271 2271 2271 2271 2271 2271 2271 2271 2271 2271 2271 2286 2286 2301 2301 2301 2301 2301 1655 1655 1655 1647 1647 1647 1647 1647 1639 1632 1632 1632 1632 1632 1632 1632 1632 1632 1632 1632 1632 2170 2170 2184 2184 2184 2184 2184 2184 2184 2184 2184 2184 2184 2184 2184 2184 2184 2184 2184 2184 2184 2184 2170 2170 3468 3468 3468 1713 1713 1696 1696 1705 1705 1705 1696 1696 1688 1688 1680 1680 1680 1680 1671 1671 1671 1671 1663 1663 1671 1671 1680 1680 1688 1696 1713 1722 1722 1731 1731 1731 1731 1731 1731 1731 1731 1731 1731 1739 1739 1739 1748 1748 1748 1748 1748 1757 1757 1757 1766 1766 1766 1776 1776 1785 1785 1785 1794 1794 1794 1794 1794 1804 1804 1813 1813 1813 1813 1804 1804 1804 1804 1804 1804 1804 1804 1804 1804 2090 2090 2090 2078 2065 2065 3365 3365 3365 3365 3365 3365 3365 3365 3365 3365 3365 3365 3365 3365 3365 3365 3333 3333 0 0 0 0 0 0 0 0 0 0 0
0 0 0 0 0 0 0 0 0 0 0 0 0 0 0 0 0 0 0 0 0 0 0 0 0 0 0 0 0 0 0 0 3064 3064 3037 3037 3037 3037 3037 3037 3037 3064 3064 3064 3064 3064 3064 3064 3064 3064 3064 3064 3064 3064 3064 3064 3092 3092 3092 3092 3092 3092 3092 3092 3092 3092 3092 3092 3064 3064 3092 3064 3064 3064 3064 3064 3064 3064 3064 3064 3064 3064 3064 3064 3064 3064 3092 3092 3092 3092 3092 3092 3092 3092 3092 3092 3064 3064 3064 3064 3064 3064 3092 3092 3092 3092 3092 3092 3120 3120 3149 3178 3178 3178 3178 3178 3178 3178 3178 3178 3178 3178 3178 3178 3178 3178 3178 3178 3178 3178 3178 3178 3178 3178 3149 2984 2908 2908 2883 2883 2883 2883 2883 2883 2883 2883 2883 2883 2883 2883 2883 2883 2883 2883 2859 2859 2859 2859 2859 2835 2835 2835 2835 2835 2835 2835 2859 2859 2859 2859 2883 2883 2908 2908 2908 2933 2933 2933 2933 2933 2933 2933 2933 2958 2958 2958 2958 2958 2958 2984 2984 3010 3037 3064 3064 3064 3064 3064 3037 3037 3037 3037 3037 3037 3010 3010 3037 3037 3037 3037 3037 3037 3037 3037 3037 3037 3037 3037 3037 3037 3037 3037 3037 3037 3037 3037 3064 3064 3064 3064 3064 3064 3092 3092 3120 3120 3120 3149 3149 3149 3149 3120 3120 3149 3178 3208 3208 3208 3208 3208 3208 3208 3178 3178 3178 3178 3178 3178 3178 3178 3208 3208 2143 2143 2129 2129 2129 2129 2129 2129 2129 2129 2129 2129 2129 2129 2143 2156 2170 2212 2226 2241 2241 2256 2241 2241 2241 2226 2226 2212 2212 2198 2184 2184 2170 2170 2170 2170 2156 2156 2156 2156 2156 2156 2156 2156 2156 2170 2156 2156 2156 2156 2156 2156 2156 2156 2156 2156 2156 2156 2156 2156 2156 2156 2156 2170 2170 2170 2156 2156 2156 2156 2156 2156 2156 2156 2156 2143 2143 2129 2129 2116 1647 1639 1639 1632 1632 1624 1616 1609 1609 1609 1601 1601 1594 1594 1586 1579 1572 1564 1564 1557 1550 1550 1543 1536 1529 1529 1529 1523 1523 1523 1523 1523 1523 1523 1529 1536 1536 1536 1536 1543 1543 1543 1543 1550 1550 1557 1564 1564 1564 1564 1572 1572 1572 1572 1572 1579 1586 1586 1594 1594 1594 1594 1594 1594 1594 1594 1483 1483 1483 1477 1477 1470 1470 1464 1458 1458 1458 1458 1458 1458 1458 1464 1464 1464 1470 1470 1477 1477 1483 1489 1496 1496 1496 1496 1496 1496 1496 1496 1680 1680 1680 1680 1688 1688 1688 1688 1688 1688 2256 2256 2256 2271 2271 2271 2271 2271 2271 2271 2271 2271 2271 2271 2271 2271 2271 2271 2271 2271 2271 2271 2286 2301 2301 2317 1663 1655 1655 1655 1647 1647 1647 1647 1647 1639 1632 1632 1632 1632 1632 1632 1632 1632 1639 1639 1632 1632 2156 2156 2156 2170 2184 2184 2184 2184 2184 2184 2184 2184 2184 2184 2184 2184 2184 2184 2184 2170 2170 2170 2156 2156 2156 2156 2143 1713 1713 1705 1705 1705 1705 1705 1696 1696 1688 1688 1680 1680 1680 1680 1671 1671 1671 1671 1671 1671 1680 1680 1680 1696 1696 1713 1722 1722 1722 1731 1731 1731 1731 1731 1731 1731 1731 1731 1731 1739 1739 1739 1748 1748 1748 1748 1748 1757 1757 1757 1766 1766 1766 1776 1776 1785 1785 1785 1794 1804 1804 1804 1804 1813 1813 1813 1813 1813 1813 1813 1804 1804 1804 1804 1804 1804 1804 1804 1804 2090 2090 2090 2078 2065 2065 3333 3365 3365 3365 3365 3365 3365 3365 3365 3365 3365 3365 3365 3365 3333 3333 3333 3333 0 0 0 0 0 0 0 0 0 0 0
0 0 0 0 0 0 0 0 0 0 0 0 0 0 0 0 0 0 0 0 0 0 0 0 0 0 0 0 0 0 0 0 3037 3037 3010 3010 3010 3037 3010 3010 3010 3010 3037 3037 3037 3037 3037 3037 3037 3037 3037 3037 3037 3037 3037 3037 3064 3064 3064 3064 3092 3092 3064 3064 3092 3092 3064 3064 3064 3064 3064 3064 3064 3064 3064 3064 3064 3064 3064 3064 3064 3064 3064 3064 3064 3064 3092 3092 3092 3092 3092 3092 3092 3092 3092 3092 3064 3064 3064 3064 3064 3064 3064 3064 3092 3092 3092 3092 3092 3092 3149 3149 3149 3178 3178 3178 3178 3178 3178 3149 3149 3149 3178 3178 3178 3178 3178 3178 3178 3178 3178 3149 3149 3149 3120 3010 2908 2908 2883 2883 2883 2883 2883 2883 2883 2883 2883 2883 2883 2883 2883 2883 2883 2883 2883 2883 2859 2859 2859 2859 2859 2835 2835 2859 2859 2859 2859 2859 2859 2859 2883 2883 2908 2908 2908 2933 2933 2933 2933 2933 2933 2933 2933 2958 2958 2958 2958 2958 2958 2984 2984 3010 3037 3064 3064 3064 3064 3064 3037 3037 3037 3037 3037 3037 3010 3010 3037 3037 3037 3037 3037 3037 3037 3037 3037 3037 3037 3037 3037 3037 3037 3037 3037 3037 3037 3037 3064 3064 3064 3064 3064 3064 3092 3092 3120 3120 3120 3149 3149 3149 3149 3149 3149 3149 3178 3208 3208 3208 3208 3238 3238 3208 3208 3208 3208 3208 3208 3208 3208 3208 3208 2170 2143 2143 2129 2129 2129 2129 2129 2129 2129 2129 2129 2129 2129 2129 2143 2156 2184 2212 2226 2241 2256 2241 2241 2241 2241 2226 2226 2212 2212 2198 2184 2184 2170 2170 2170 2156 2156 2143 2143 2143 2143 2143 2143 2143 2156 2156 2156 2143 2143 2143 2143 2143 2143 2143 2143 2143 2143 2143 2143 2143 2143 2143 2156 2156 2156 2156 2143 2143 2143 2129 2129 2129 2143 2143 2143 2143 2143 2129 2129 2116 2103 2103 2103 1632 1632 1624 1616 1609 1609 1609 1601 1601 1594 1594 1586 1579 1572 1564 1557 1557 1550 1550 1543 1536 1529 1529 1529 1523 1523 1523 1523 1523 1529 1529 1536 1536 1536 1536 1536 1543 1543 1543 1543 1550 1557 1564 1564 1564 1564 1572 1572 1572 1572 1579 1579 1586 1594 1594 1594 1594 1594 1594 1594 1594 1601 1601 1483 1483 1483 1477 1477 1470 1470 1464 1458 1458 1458 1458 1458 1458 1464 1464 1464 1464 1464 1470 1477 1477 1647 1647 1647 1647 1647 1655 1655 1655 1663 1680 1680 1680 1680 1680 1688 1688 1688 1696 2256 2256 2256 2256 2256 2256 2256 2256 2256 2256 2256 2256 2256 2256 2256 2256 2256 2256 2256 2256 2256 2256 2256 2271 2271 2286 2301 1663 1663 1655 1655 1655 1647 1647 1647 1647 1647 1639 1632 1632 1632 1632 1632 1632 1632 1639 1639 1639 1639 2156 2156 2156 2156 2156 2170 2170 2170 2170 2184 2184 2184 2184 2184 2184 2170 2170 2170 2170 2170 2170 2170 2156 2156 2143 2143 2143 2143 1731 1713 1705 1705 1705 1705 1696 1696 1688 1688 1688 1680 1680 1680 1680 1671 1671 1671 1671 1671 1671 1680 1680 1688 1696 1696 1713 1722 1722 1722 1731 1731 1731 1731 1731 1731 1731 1731 1731 1731 1739 1739 1739 1748 1748 1748 1748 1757 1757 1757 1757 1766 1776 1776 1776 1776 1785 1785 1794 1804 1804 1804 1804 1813 1813 1823 1823 1813 1813 1813 1813 1804 1804 1804 1804 1804 1813 1813 1813 2090 2090 2090 2090 2078 2078 3300 3300 3333 3333 3333 3365 3365 3365 3365 3365 3365 3365 3365 3365 3333 3333 3300 3300 3300 0 0 0 0 0 0 0 0 0 0 0
0 0 0 0 0 0 0 0 0 0 0 0 0 0 0 0 0 0 0 0 0 0 0 0 0 0 0 0 0 0 0 0 3010 3010 3010 3010 3010 3010 3010 3010 3010 3010 3010 3010 3010 3010 3010 3010 3010 3010 3010 3010 3037 3037 3037 3037 3064 3064 3037 3037 3064 3037 3037 3037 3037 3037 3037 3037 3037 3064 3064 3037 3037 3064 3037 3037 3037 3037 3037 3037 3037 3064 3064 3064 3064 3064 3092 3092 3092 3092 3092 3092 3092 3064 3064 3064 3064 3064 3064 3064 3064 3064 3064 3064 3092 3092 3092 3092 3092 3092 3120 3120 3120 3149 3149 3149 3149 3149 3149 3149 3149 3149 3149 3149 3178 3178 3178 3178 3178 3149 3149 3149 3149 3149 3120 3037 2933 2908 2883 2883 2883 2883 2883 2883 2883 2883 2883 2883 2883 2883 2883 2883 2883 2883 2883 2883 2859 2859 2859 2859 2859 2859 2859 2859 2859 2859 2859 2859 2859 2859 2883 2883 2908 2908 2908 2933 2933 2933 2933 2933 2933 2933 2933 2958 2958 2958 2958 2958 2984 2984 3010 3037 3037 3064 3064 3064 3064 3064 3064 3037 3037 3037 3037 3037 3037 3037 3037 3037 3037 3037 3037 3037 3037 3037 3037 3037 3037 3037 3037 3037 3037 3037 3037 3037 3037 3037 3064 3064 3064 3064 3064 3064 3092 3092 3120 3120 3149 3149 3149 3149 3149 3149 3149 3149 3178 3178 3208 3208 3208 3208 3208 3208 3208 3208 3208 3208 3208 3208 3208 3208 3208 2170 2156 2143 2143 2129 2129 2129 2129 2129 2129 2129 2129 2129 2143 2143 2143 2156 2170 2212 2226 2241 2256 2241 2241 2241 2241 2226 2226 2212 2212 2198 2184 2184 2184 2170 2156 2156 2143 2143 2143 2129 2129 2129 2129 2143 2143 2143 2143 2143 2143 2143 2129 2129 2129 2129 2129 2129 2129 2129 2129 2129 2129 2143 2143 2143 2143 2143 2129 2129 2116 2116 2116 2129 2129 2129 2129 2129 2129 2129 2129 2116 2116 2103 2103 2103 2103 2103 1616 1609 1609 1609 1609 1601 1601 1594 1586 1579 1572 1564 1557 1557 1550 1550 1543 1536 1529 1529 1529 1529 1523 1523 1523 1529 1536 1536 1536 1536 1536 1536 1536 1543 1543 1543 1543 1550 1557 1564 1564 1564 1572 1572 1572 1572 1579 1579 1586 1586 1594 1594 1594 1594 1601 1601 1601 1601 1601 1601 1489 1489 1483 1477 1477 1477 1470 1470 1464 1464 1464 1464 1464 1464 1470 1470 1464 1464 1464 1647 1647 1647 1647 1647 1647 1647 1647 1655 1655 1655 1663 1680 1680 1688 1688 2241 2241 2256 2256 2256 2256 2256 2256 2256 2256 2256 2256 2256 2256 2256 2256 2256 2256 2241 2241 2241 2241 2241 2156 2156 2156 2241 2241 2241 2256 1680 1663 1663 1663 1655 1655 1655 1647 1647 1647 1647 1647 1639 1632 1632 1632 1632 1632 1632 1639 1639 1639 1639 2156 2156 2143 2143 2143 2143 2156 2156 2170 2170 2170 2170 2170 2170 2170 2170 2156 2156 2156 2156 2156 2156 2156 2156 2143 2143 2143 2129 2129 1731 1713 1705 1705 1705 1705 1696 1696 1688 1688 1688 1680 1680 1680 1680 1680 1671 1671 1671 1680 1680 1680 1688 1696 1705 1705 1713 1722 1722 1722 1731 1731 1731 1731 1731 1731 1731 1731 1731 1731 1739 1739 1739 1748 1748 1748 1748 1757 1757 1757 1766 1766 1776 1776 1785 1785 1785 1785 1794 1813 1813 1813 1813 1813 1823 1823 1823 1823 1813 1813 1813 1813 1813 1804 1804 1813 1804 1804 1813 2090 2090 2090 2090 2103 3269 3269 3269 3300 3269 3269 3300 3300 3300 3300 3300 3300 3333 3333 3333 3333 3300 3300 3300 3300 0 0 0 0 0 0 0 0 0 0 0
0 0 0 0 0 0 0 0 0 0 0 0 0 0 0 0 0 0 0 0 0 0 0 0 0 0 0 0 0 0 0 0 3010 3010 3010 3010 3010 3010 3010 3010 3010 3010 3010 3010 3010 3010 3010 3010 3010 3010 3010 3010 3010 3010 3037 3037 3037 3037 3037 3037 3037 3037 3037 3037 3037 3037 3037 3010 3010 3010 3010 3010 3010 3010 3010 3010 3010 3010 3010 3010 3010 3037 3037 3064 3064 3064 3064 3064 3064 3064 3064 3064 3064 3064 3064 3064 3064 3064 3064 3064 3064 3064 3064 3064 3092 3092 3092 3092 3092 3092 3092 3092 3092 3120 3120 3120 3120 3120 3120 3120 3120 3120 3149 3149 3149 3149 3149 3149 3149 3149 3149 3149 3149 3149 3120 3092 2984 2908 2883 2883 2883 2883 2883 2883 2883 2883 2883 2883 2883 2883 2883 2883 2883 2883 2883 2883 2859 2859 2859 2859 2859 2859 2859 2859 2859 2859 2859 2859 2859 2859 2883 2883 2908 2908 2908 2908 2933 2933 2933 2933 2933 2933 2958 2958 2958 2958 2958 2984 2984 3010 3010 3037 3037 3064 3064 3064 3064 3064 3064 3064 3037 3037 3037 3037 3037 3037 3037 3037 3037 3037 3037 3037 3037 3037 3037 3037 3037 3037 3037 3037 3037 3037 3037 3037 3064 3064 3064 3064 3064 3064 3064 3064 3092 3092 3092 3120 3149 3149 3149 3149 3149 3149 3149 3149 3149 3178 3178 3178 3208 3178 3178 3208 3208 3208 3208 3208 3208 3208 3208 3208 3238 2170 2170 2156 2143 2143 2143 2129 2129 2129 2129 2129 2129 2129 2129 2143 2143 2156 2170 2198 2226 2241 2256 2256 2256 2241 2241 2226 2226 2212 2212 2198 2184 2184 2184 2170 2156 2143 2129 2129 2129 2129 2129 2129 2129 2129 2129 2129 2129 2129 2129 2129 2129 2129 2129 2129 2129 2129 2129 2129 2129 2129 2129 2129 2129 2129 2129 2129 2116 2116 2116 2116 2116 2116 2116 2116 2116 2129 2129 2116 2116 2116 2116 2103 2103 2103 2103 2103 2103 1609 1609 1609 1601 1601 1601 1594 1586 1579 1572 1564 1557 1557 1550 1543 1543 1536 1536 1536 1529 1529 1529 1529 1529 1529 1536 1536 1536 1536 1536 1543 1543 1543 1543 1550 1550 1557 1557 1564 1564 1572 1572 1572 1572 1579 1579 1579 1586 1586 1594 1594 1594 1601 1601 1601 1601 1601 1601 1609 1489 1489 1483 1483 1483 1477 1477 1477 1464 1464 1470 1470 1470 1470 1470 1470 1464 1464 1647 1647 1647 1647 1647 1647 1647 1647 1647 2256 2256 2241 2241 2241 2241 2241 2241 2241 2241 2241 2241 2241 2241 2241 2241 2241 2241 2256 2256 2256 2241 2241 2241 2241 2170 2170 2156 2156 2156 2156 2156 2156 2156 2156 2156 2198 2256 1671 1663 1655 1655 1655 1655 1647 1647 1647 1647 1647 1647 1639 1639 1632 1632 1639 1639 1639 1639 1639 1639 1639 2143 2143 2129 2129 2129 2129 2143 2143 2143 2143 2156 2156 2156 2156 2143 2143 2143 2143 2143 2143 2143 2143 2143 2143 2143 2143 2143 2129 2129 2129 1722 1713 1705 1705 1705 1696 1696 1696 1688 1688 1680 1680 1680 1680 1680 1680 1680 1680 1680 1680 1688 1696 1696 1705 1705 1713 1722 1722 1722 1722 1722 1731 1731 1731 1731 1739 1739 1739 1739 1739 1739 1739 1748 1748 1748 1757 1757 1757 1766 1766 1776 1776 1785 1785 1785 1794 1794 1804 1813 1813 1813 1813 1813 1823 1823 1823 1823 1823 1813 1813 1813 1813 1813 1813 1813 1804 1804 2103 2103 2103 2103 2103 2116 3269 3269 3269 3269 3269 3269 3269 3269 3269 3269 3269 3269 3300 3300 3300 3300 3300 3300 3300 3300 0 0 0 0 0 0 0 0 0 0 0
0 0 0 0 0 0 0 0 0 0 0 0 0 0 0 0 0 0 0 0 0 0 0 0 0 0 0 0 0 0 0 0 2984 2984 2984 2984 2984 2984 3010 3010 3010 3010 3010 3010 3010 3010 3010 2984 2984 2984 2984 3010 3010 3010 3010 3010 3037 3010 3010 3010 3010 3010 3010 3010 3010 3010 3010 3010 3010 3010 3010 3010 3010 3010 2984 2984 3010 3010 2984 2984 2984 3010 3037 3037 3037 3037 3064 3064 3064 3064 3064 3037 3037 3037 3064 3064 3037 3037 3064 3064 3037 3037 3064 3064 3064 3064 3064 3064 3064 3064 3064 3064 3092 3092 3092 3092 3092 3092 3092 3120 3120 3120 3120 3149 3149 3149 3149 3149 3149 3120 3120 3120 3120 3120 3120 3092 3010 2908 2908 2883 2883 2883 2883 2883 2883 2883 2883 2883 2883 2883 2883 2883 2883 2883 2883 2883 2859 2859 2859 2859 2859 2859 2859 2859 2859 2859 2859 2859 2859 2859 2883 2883 2908 2908 2908 2908 2933 2933 2933 2933 2933 2933 2958 2958 2958 2958 2958 2984 2984 2984 3010 3037 3064 3064 3064 3064 3064 3064 3064 3064 3037 3037 3037 3037 3037 3037 3037 3037 3037 3037 3037 3037 3037 3037 3037 3037 3037 3037 3037 3037 3037 3037 3064 3064 3064 3064 3064 3064 3064 3064 3064 3092 3092 3092 3092 3120 3149 3149 3149 3149 3149 3149 3149 3149 3149 3178 3178 3178 3178 3178 3178 3178 3178 3178 3178 3178 3208 3208 3208 3208 3238 3238 2156 2156 2143 2143 2129 2129 2129 2129 2129 2129 2129 2129 2129 2143 2143 2156 2170 2198 2226 2241 2256 2256 2256 2256 2241 2226 2226 2226 2212 2198 2184 2184 2184 2170 2156 2143 2129 2129 2129 2129 2129 2129 2129 2129 2129 2129 2129 2129 2116 2116 2116 2116 2116 2116 2116 2116 2116 2116 2116 2116 2116 2116 2116 2116 2116 2116 2103 2103 2103 2103 2103 2103 2116 2116 2116 2116 2116 2116 2116 2116 2103 2103 2103 2103 2103 2103 2103 1609 1609 1609 1601 1601 1601 1594 1586 1579 1572 1564 1557 1557 1550 1543 1543 1536 1536 1536 1529 1529 1529 1529 1529 1529 1536 1536 1536 1536 1536 1543 1543 1543 1550 1550 1557 1557 1564 1564 1572 1572 1572 1572 1572 1579 1579 1586 1586 1586 1594 1594 1594 1601 1601 1601 1601 1601 1609 1616 1483 1483 1483 1483 1483 1483 1477 1477 1470 1470 1470 1470 1470 1470 1470 1470 1464 1464 1647 1647 1639 1639 1647 1647 1647 2271 2271 2256 2256 2241 2241 2241 2241 2241 2241 2241 2241 2241 2241 2241 2241 2241 2241 2241 2241 2241 2241 2241 2241 2241 2241 2156 2156 2156 2156 2156 2143 2143 2143 2143 2143 2143 2143 2143 2143 1663 1655 1655 1655 1655 1655 1647 1647 1647 1647 1647 1647 1647 1639 1639 1639 1639 1639 1639 1639 1639 1639 1639 2143 2143 2129 2129 2129 2129 2143 2143 2143 2143 2143 2143 2143 2143 2129 2129 2129 2129 2129 2129 2129 2129 2129 2143 2143 2143 2143 2129 2129 2129 2143 1713 1705 1705 1705 1696 1696 1696 1688 1688 1680 1680 1680 1680 1671 1671 1671 1680 1680 1680 1688 1696 1705 1705 1705 1713 1713 1722 1722 1722 1722 1731 1731 1731 1731 1739 1739 1739 1739 1739 1739 1748 1748 1748 1748 1757 1757 1766 1766 1776 1776 1776 1785 1785 1785 1794 1804 1813 1823 1813 1813 1823 1823 1833 1833 1823 1823 1813 1813 1813 1813 1813 1813 1813 1813 1813 2116 2103 2103 2103 2103 2103 2116 3238 3269 3269 3269 3269 3269 3269 3269 3269 3269 3269 3269 3269 3269 3300 3300 3269 3269 3269 3300 0 0 0 0 0 0 0 0 0 0 0
0 0 0 0 0 0 0 0 0 0 0 0 0 0 0 0 0 0 0 0 0 0 0 0 0 0 0 0 0 0 0 0 2984 2984 2984 2984 2984 2984 2984 2984 2984 2984 2984 2984 2984 2984 2984 2984 2984 2984 2984 2984 3010 3010 3010 3010 3010 3010 3010 3010 3010 3010 3010 3010 3010 3010 3010 3010 3010 3010 3010 2984 2984 2984 2984 2984 3010 3010 2984 2984 2984 3010 3010 3037 3037 3037 3037 3037 3037 3037 3037 3037 3037 3037 3037 3037 3037 3037 3037 3037 3037 3037 3064 3064 3064 3037 3037 3037 3037 3037 3064 3064 3064 3064 3092 3092 3092 3064 3064 3092 3092 3092 3092 3092 3092 3092 3092 3092 3092 3092 3092 3092 3092 3092 3092 3064 3010 2933 2908 2908 2883 2883 2883 2883 2883 2883 2883 2883 2883 2883 2883 2883 2883 2883 2883 2883 2859 2859 2859 2859 2859 2859 2859 2859 2859 2859 2859 2859 2859 2883 2883 2883 2908 2908 2908 2933 2933 2933 2933 2933 2933 2933 2958 2958 2958 2958 2958 2958 2984 2984 3010 3037 3037 3064 3064 3064 3064 3064 3064 3064 3064 3037 3037 3037 3037 3037 3037 3037 3037 3037 3037 3037 3037 3037 3037 3037 3037 3037 3037 3037 3037 3037 3064 3064 3064 3064 3064 3064 3064 3064 3064 3092 3092 3120 3120 3149 3149 3149 3149 3149 3149 3149 3149 3149 3149 3149 3149 3149 3178 3178 3178 3178 3178 3178 3178 3178 3208 3208 3208 3208 3238 3238 2156 2143 2143 2143 2129 2129 2129 2129 2129 2129 2129 2129 2143 2143 2143 2156 2170 2212 2226 2241 2256 2256 2256 2256 2241 2241 2226 2226 2212 2198 2198 2184 2184 2170 2156 2143 2129 2129 2129 2116 2116 2116 2116 2116 2116 2116 2103 2103 2103 2103 2103 2103 2116 2116 2103 2103 2116 2116 2116 2116 2116 2116 2116 2116 2116 2116 2103 2103 2090 2090 2103 2103 2103 2103 2103 2103 2103 2103 2103 2103 2103 2103 2103 2103 2103 2103 2103 2103 1609 1609 1601 1601 1601 1601 1586 1579 1572 1564 1557 1557 1550 1550 1543 1543 1536 1536 1536 1529 1529 1529 1529 1536 1536 1536 1536 1543 1543 1543 1543 1550 1550 1557 1557 1564 1564 1572 1572 1572 1572 1579 1579 1579 1579 1586 1586 1586 1594 1594 1594 1601 1601 1601 1601 1609 1609 1624 1483 1483 1483 1483 1483 1483 1483 1483 1477 1477 1477 1477 1477 1477 1470 1470 1470 1470 1639 1639 1639 1639 1639 1647 2271 2271 2256 2256 2241 2241 2241 2226 2226 2226 2226 2226 2226 2241 2241 2226 2226 2212 2212 2198 2198 2156 2156 2156 2156 2156 2156 2143 2143 2143 2143 2143 2143 2143 2143 2143 2143 2143 2143 2143 2143 1655 1655 1655 1655 1655 1655 1647 1647 1647 1647 1647 1647 1647 1647 1647 1647 1647 1639 1639 1639 1639 1639 2129 2129 2129 2129 2129 2116 2116 2116 2129 2129 2129 2116 2116 2129 2129 2129 2129 2129 2129 2129 2129 2129 2129 2129 2129 2129 2129 2129 2129 2129 2129 2129 2129 1705 1705 1705 1696 1696 1696 1688 1688 1680 1680 1680 1680 1671 1671 1671 1680 1680 1680 1688 1696 1705 1705 1705 1713 1713 1722 1722 1722 1731 1731 1731 1739 1739 1739 1739 1739 1739 1748 1748 1748 1748 1748 1757 1757 1766 1766 1776 1776 1776 1785 1785 1785 1794 1804 1804 1823 1833 1833 1833 1833 1833 1843 1833 1833 1823 1813 1813 1813 1813 1813 1813 1813 1813 1813 2103 2103 2103 2103 2103 2103 2116 3238 3269 3269 3269 3269 3269 3269 3238 3238 3238 3238 3238 3238 3238 3269 3269 3269 3269 3269 3269 0 0 0 0 0 0 0 0 0 0 0
0 0 0 0 0 0 0 0 0 0 0 0 0 0 0 0 0 0 0 0 0 0 0 0 0 0 0 0 0 0 0 0 2958 2958 2958 2958 2984 2984 2984 2984 2984 2984 2984 2984 2984 2984 2984 2984 2984 2984 2984 2984 2984 2984 2984 2984 3010 3010 3010 3010 3010 3010 3010 2984 2984 2984 3010 3010 3010 3010 3010 2984 2984 2984 2984 2984 2984 2984 2984 2984 2984 2984 3010 3010 3010 3010 3037 3010 3010 3010 3010 3010 3010 3010 3010 3037 3037 3037 3037 3037 3037 3037 3037 3064 3064 3037 3037 3037 3037 3037 3064 3064 3064 3064 3064 3064 3064 3064 3064 3064 3064 3064 3064 3064 3064 3064 3064 3064 3092 3064 3064 3092 3092 3092 3064 3064 3010 2958 2933 2908 2908 2908 2908 2908 2908 2883 2883 2883 2883 2883 2883 2883 2883 2883 2883 2883 2859 2859 2859 2859 2859 2859 2859 2859 2859 2859 2859 2859 2859 2883 2883 2883 2908 2883 2883 2908 2933 2933 2933 2933 2933 2933 2958 2958 2958 2958 2958 2958 2984 2984 3010 3037 3037 3064 3064 3064 3064 3064 3064 3064 3064 3037 3037 3037 3037 3037 3037 3037 3037 3037 3037 3037 3037 3037 3037 3037 3037 3037 3037 3037 3037 3037 3064 3064 3064 3064 3064 3064 3064 3064 3064 3092 3092 3120 3120 3120 3149 3149 3149 3149 3149 3149 3149 3149 3149 3149 3149 3149 3149 3149 3149 3149 3149 3149 3178 3178 3178 3208 3208 3208 3238 3238 3238 2143 2143 2143 2143 2129 2129 2129 2129 2129 2129 2129 2143 2143 2143 2156 2184 2212 2226 2256 2256 2256 2256 2256 2256 2241 2226 2226 2212 2198 2198 2184 2184 2170 2156 2143 2129 2129 2116 2116 2116 2116 2116 2116 2103 2090 2090 2090 2103 2103 2103 2103 2103 2103 2103 2103 2103 2103 2103 2103 2103 2103 2103 2103 2103 2103 2090 2090 2078 2078 2090 2090 2090 2103 2103 2103 2103 2103 2103 2103 2103 2103 2103 2103 2103 2103 2103 2090 2090 1609 1609 1601 1601 1601 1586 1579 1572 1564 1557 1557 1550 1550 1543 1543 1536 1536 1536 1529 1529 1529 1529 1536 1536 1536 1536 1543 1543 1543 1543 1550 1557 1557 1557 1564 1564 1572 1572 1572 1572 1579 1579 1579 1579 1586 1586 1586 1594 1594 1594 1601 1601 1601 1609 1609 1609 1483 1483 1483 1483 1483 1483 1483 1483 1483 1477 1477 1477 1477 1477 1477 1477 1470 1470 1470 1639 1639 1639 1639 1639 2256 2271 2256 2256 2256 2241 2241 2226 2212 2212 2212 2226 2212 2212 2212 2212 2212 2198 2103 2103 2129 2156 2143 2143 2143 2143 2143 2129 2116 2116 2129 2129 2129 2129 2129 2129 2129 2129 2129 2143 1655 1655 1647 1647 1647 1647 1647 1647 1647 1647 1647 1647 1647 1647 1647 1647 1647 1647 1647 1647 1647 1639 1632 1632 2116 2116 2116 2103 2103 2103 2103 2103 2103 2103 2116 2103 2103 2116 2116 2116 2116 2116 2116 2116 2129 2129 2129 2129 2129 2129 2129 2129 2129 2129 2129 2129 2129 1705 1705 1705 1696 1696 1696 1688 1688 1688 1680 1680 1680 1680 1680 1680 1680 1680 1688 1696 1696 1705 1705 1713 1713 1713 1722 1722 1722 1731 1739 1739 1739 1739 1739 1739 1739 1748 1748 1748 1748 1748 1757 1757 1757 1766 1776 1776 1776 1785 1785 1785 1785 1794 1813 1813 1833 1843 1833 1833 1843 1843 1843 1833 1833 1823 1813 1813 1813 1813 1813 1813 1813 1813 1813 2103 2103 2103 2103 2103 2103 2116 3238 3269 3269 3269 3269 3269 3269 3238 3238 3238 3238 3238 3238 3238 3238 3269 3269 3269 3269 3269 0 0 0 0 0 0 0 0 0 0 0
0 0 0 0 0 0 0 0 0 0 0 0 0 0 0 0 0 0 0 0 0 0 0 0 0 0 0 0 0 0 0 0 2958 2958 2958 2958 2958 2958 2958 2958 2958 2984 2984 2984 2984 2984 2984 2984 2984 2984 2984 2984 2984 2984 2984 2984 2984 2984 2984 2984 2984 2984 2984 2984 2984 2984 3010 3010 3010 3010 3010 2984 2984 2984 2984 2958 2958 2984 2984 2984 2984 2984 2984 2984 2984 2984 2984 2984 2984 2984 2984 2984 2984 3010 3010 3037 3037 3037 3037 3037 3037 3010 3010 3037 3037 3037 3037 3037 3037 3037 3037 3037 3037 3037 3064 3064 3064 3064 3037 3037 3037 3037 3037 3064 3064 3064 3064 3064 3064 3064 3064 3064 3092 3064 3064 3037 3010 2984 2933 2933 2908 2908 2908 2908 2908 2908 2883 2883 2883 2883 2883 2883 2883 2883 2883 2883 2859 2859 2859 2859 2859 2859 2859 2859 2859 2859 2859 2859 2859 2883 2883 2883 2883 2883 2883 2908 2908 2933 2933 2933 2933 2958 2958 2958 2958 2958 2958 2984 2984 2984 3010 3037 3064 3064 3064 3064 3064 3064 3064 3064 3064 3037 3037 3037 3037 3037 3037 3037 3037 3037 3037 3037 3037 3037 3037 3037 3037 3037 3037 3037 3037 3064 3064 3064 3064 3064 3064 3064 3064 3064 3064 3092 3092 3092 3120 3120 3149 3149 3149 3149 3149 3149 3149 3149 3149 3149 3149 3149 3149 3149 3149 3149 3149 3149 3149 3178 3178 3178 3208 3208 3208 3238 3238 2143 2143 2143 2143 2129 2129 2129 2129 2129 2129 2129 2143 2143 2156 2170 2184 2198 2226 2241 2256 2256 2256 2256 2256 2241 2241 2226 2226 2212 2198 2184 2184 2170 2156 2143 2129 2129 2116 2116 2116 2116 2103 2103 2090 2090 2090 2090 2090 2090 2090 2090 2090 2090 2090 2090 2090 2090 2090 2090 2090 2090 2090 2090 2090 2090 2078 2078 2078 2078 2078 2078 2078 2078 2090 2090 2090 2090 2090 2090 2090 2090 2090 2090 2090 2090 2090 2078 2078 2078 2078 1609 1601 1601 1586 1579 1572 1564 1564 1557 1550 1550 1543 1543 1536 1536 1536 1529 1529 1529 1529 1536 1536 1536 1543 1543 1543 1543 1550 1550 1557 1557 1564 1564 1564 1572 1572 1572 1579 1579 1579 1579 1579 1586 1586 1586 1594 1594 1594 1601 1601 1601 1609 1609 1609 1483 1483 1489 1483 1483 1483 1483 1483 1483 1477 1477 1477 1477 1477 1477 1477 1477 1477 1477 1639 1639 1639 2256 2256 2256 2256 2256 2256 2241 2241 2241 2226 2212 2212 2212 2212 2212 2198 2198 2198 2116 2103 2103 2103 2116 2129 2129 2129 2129 2129 2129 2116 2116 2116 2116 2129 2129 2129 2129 2129 2116 2116 2129 2129 1647 1647 1647 1647 1647 1647 1647 1647 1647 1647 1647 1647 1647 1647 1647 1647 1647 1647 1647 1647 1647 1639 1632 1632 2103 2103 2103 2090 2090 2090 2090 2090 2090 2090 2090 2103 2103 2103 2103 2103 2103 2103 2103 2116 2116 2116 2116 2116 2116 2116 2116 2116 2116 2116 2129 2129 2129 1705 1705 1705 1705 1705 1696 1696 1688 1688 1688 1680 1680 1680 1680 1680 1680 1680 1688 1696 1705 1705 1713 1713 1713 1713 1722 1731 1731 1731 1739 1739 1739 1739 1739 1739 1748 1748 1748 1748 1748 1757 1757 1757 1766 1766 1776 1776 1776 1785 1785 1785 1785 1794 1813 1823 1843 1843 1843 1843 1843 1843 1843 1843 1833 1823 1823 1813 1813 1813 1813 1813 1804 1804 2116 2103 2103 2103 2103 2103 2116 2116 3238 3269 3269 3269 3269 3269 3269 3238 3238 3208 3208 3208 3208 3208 3238 3238 3238 3238 3238 3269 0 0 0 0 0 0 0 0 0 0 0
0 0 0 0 0 0 0 0 0 0 0 0 0 0 0 0 0 0 0 0 0 0 0 0 0 0 0 0 0 0 0 0 2933 2933 2933 2958 2958 2958 2958 2958 2958 2958 2958 2958 2958 2958 2958 2958 2958 2958 2958 2958 2984 2958 2958 2984 2984 2984 2984 2984 2984 2984 2984 2984 2984 2984 2984 3010 3010 2984 2984 2984 2984 2984 2958 2958 2958 2984 2984 2984 2984 2984 2984 2984 2984 2984 2984 2984 2984 2984 2984 2984 2984 3010 3010 3010 3010 3037 3010 3010 3010 2984 2984 3010 3010 3010 3010 3010 3010 3010 3010 3010 3010 3010 3037 3037 3037 3037 3010 3010 3037 3010 3010 3037 3037 3037 3037 3064 3064 3064 3064 3064 3064 3064 3064 3010 2984 2958 2958 2958 2933 2933 2908 2908 2908 2908 2908 2883 2883 2883 2883 2883 2883 2883 2883 2883 2859 2859 2859 2859 2859 2859 2859 2859 2859 2859 2859 2859 2859 2883 2883 2883 2883 2883 2883 2908 2908 2908 2933 2933 2933 2933 2958 2958 2958 2958 2958 2984 2984 3010 3037 3037 3037 3064 3064 3064 3064 3064 3064 3064 3064 3064 3064 3037 3037 3037 3037 3037 3037 3037 3037 3037 3037 3037 3037 3037 3037 3037 3037 3037 3037 3064 3064 3064 3064 3064 3064 3064 3064 3064 3064 3092 3092 3092 3120 3120 3149 3149 3149 3149 3149 3120 3120 3149 3149 3149 3149 3149 3120 3120 3120 3120 3149 3149 3149 3149 3149 3178 3178 3178 3208 3238 2156 2156 2143 2143 2143 2129 2129 2129 2129 2129 2129 2129 2143 2143 2156 2170 2184 2198 2226 2241 2256 2256 2256 2256 2256 2241 2241 2226 2226 2212 2198 2184 2184 2170 2156 2143 2129 2129 2116 2103 2103 2103 2103 2090 2078 2078 2078 2078 2078 2078 2078 2078 2078 2078 2078 2078 2078 2078 2078 2078 2078 2090 2078 2078 2078 2078 2065 2065 2065 2065 2065 2065 2065 2065 2078 2078 2078 2078 2078 2078 2078 2078 2078 2078 2078 2078 2078 2078 2078 2078 2065 2065 2078 1601 1586 1579 1572 1564 1557 1557 1550 1550 1543 1543 1536 1536 1536 1529 1529 1536 1536 1536 1536 1543 1543 1543 1543 1543 1550 1550 1557 1557 1564 1564 1564 1572 1572 1572 1579 1579 1579 1579 1586 1586 1594 1594 1594 1594 1594 1594 1601 1601 1601 1609 1489 1489 1489 1489 1483 1483 1483 1483 1483 1483 1477 1477 1477 1477 1477 1477 1477 1477 1477 1477 1477 2103 2103 2103 2103 2103 2256 2256 2256 2241 2226 2226 2212 2198 2198 2198 2198 2184 2143 2103 2103 2103 2090 2090 2103 2103 2103 2116 2116 2116 2129 2129 2116 2116 2116 2116 2116 2116 2129 2129 2129 2116 2116 2116 1632 1632 1639 1639 1639 1647 1647 1647 1647 1647 1647 1647 1647 1647 1647 1647 1647 1647 1647 1647 1647 1647 1639 1632 1632 2090 2103 2103 2078 2078 2090 2078 2078 2078 2078 2090 2090 2090 2090 2090 2090 2090 2090 2090 2103 2103 2103 2103 2103 2103 2103 2103 2103 2103 2103 2116 2116 2116 1705 1705 1705 1705 1705 1696 1696 1688 1688 1688 1688 1680 1680 1680 1688 1696 1696 1696 1705 1705 1713 1713 1713 1722 1722 1731 1731 1731 1731 1739 1739 1739 1739 1739 1739 1748 1748 1748 1748 1748 1757 1766 1766 1766 1776 1776 1776 1776 1785 1785 1785 1794 1833 1843 1853 1853 1853 1843 1843 1843 1843 1843 1843 1833 1823 1823 1813 1813 1813 1813 1813 1804 1804 2116 2116 2103 2103 2103 2103 2116 3238 3238 3238 3238 3238 3238 3269 3238 3208 3208 3208 3208 3208 3208 3208 3208 3208 3208 3208 3178 3178 0 0 0 0 0 0 0 0 0 0 0
0 0 0 0 0 0 0 0 0 0 0 0 0 0 0 0 0 0 0 0 0 0 0 0 0 0 0 0 0 0 0 0 2933 2933 2933 2933 2933 2933 2958 2958 2958 2958 2958 2958 2958 2958 2958 2958 2933 2933 2958 2958 2958 2933 2933 2958 2958 2958 2958 2958 2958 2984 2984 2984 2984 2984 2984 2984 2984 2984 2984 2984 2984 2958 2958 2958 2958 2958 2958 2958 2958 2958 2984 2984 2984 2984 2984 2984 2984 2984 2984 2984 2984 2984 2984 2984 2984 3010 2984 2984 2984 2984 2984 2984 2984 2984 2984 2984 2984 3010 3010 3010 3010 3010 3037 3037 3037 3010 3010 3010 3010 3010 3010 3010 3010 3010 3010 3037 3064 3064 3064 3064 3064 3037 3037 3010 2984 2958 2958 2958 2933 2933 2933 2933 2933 2908 2908 2908 2883 2883 2883 2883 2883 2883 2883 2883 2859 2859 2859 2859 2859 2859 2859 2859 2859 2859 2859 2859 2859 2883 2883 2883 2883 2883 2883 2908 2908 2908 2933 2933 2933 2933 2958 2958 2958 2958 2958 2958 2984 2984 3010 3037 3037 3064 3064 3064 3064 3064 3064 3064 3064 3064 3064 3064 3064 3064 3064 3064 3037 3037 3037 3037 3037 3037 3037 3037 3037 3037 3037 3037 3037 3064 3064 3064 3064 3064 3064 3064 3064 3064 3064 3092 3092 3092 3092 3120 3120 3120 3149 3149 3149 3120 3120 3120 3120 3120 3120 3120 3120 3120 3120 3120 3120 3120 3120 3149 3149 3149 3149 3149 3178 3178 2156 2156 2156 2143 2143 2129 2129 2129 2129 2129 2129 2129 2143 2143 2156 2170 2184 2212 2226 2241 2256 2256 2256 2256 2256 2256 2241 2226 2226 2212 2198 2184 2184 2170 2156 2143 2129 2129 2116 2103 2103 2103 2090 2090 2078 2078 2078 2078 2078 2065 2065 2065 2065 2065 2065 2065 2065 2065 2065 2065 2065 2078 2078 2078 2078 2078 2065 2065 2065 2065 2065 2065 2065 2065 2065 2065 2065 2078 2078 2078 2078 2065 2065 2065 2065 2065 2065 2065 2065 2065 2065 2065 2065 2065 2065 1579 1564 1564 1557 1557 1550 1550 1543 1543 1536 1536 1536 1536 1536 1536 1536 1536 1536 1543 1543 1543 1543 1543 1550 1557 1557 1557 1564 1564 1564 1572 1572 1579 1579 1579 1586 1586 1586 1586 1594 1594 1594 1594 1594 1594 1594 1601 1601 1601 1489 1489 1489 1489 1483 1483 1483 1483 1483 1483 1477 1477 1477 1477 1477 1477 1477 1477 1483 1483 0 2103 2103 2103 2103 2103 2090 2090 2090 2090 2090 2090 2103 2103 2103 2116 2116 2103 2103 2103 2103 2090 2090 2090 2090 2103 2103 2103 2116 2116 2116 2116 2116 2103 2103 2103 2116 2116 2116 2116 2129 1624 1624 1624 1632 1632 1639 1639 1639 1647 1647 1647 1647 1647 1647 1647 1647 1647 1647 1647 1647 1647 1647 1647 1647 1647 1639 1639 2090 2090 2090 2090 2078 2078 2078 2078 2078 2078 2078 2078 2078 2090 2090 2090 2090 2090 2090 2090 2090 2090 2090 2090 2090 2090 2090 2090 2090 2103 2103 2103 2116 2116 1705 1705 1705 1705 1705 1696 1696 1688 1688 1688 1688 1680 1680 1688 1696 1696 1696 1705 1705 1705 1713 1713 1713 1722 1722 1731 1731 1731 1731 1739 1739 1739 1739 1739 1739 1748 1748 1748 1748 1748 1757 1766 1766 1766 1776 1776 1776 1776 1785 1785 1785 1794 1853 1853 1853 1863 1863 1853 1853 1853 1843 1843 1843 1843 1823 1823 1813 1813 1813 1813 1813 2116 2116 2116 2103 2103 2103 2103 2103 2103 3208 3238 3238 3238 3238 3238 3238 3238 3208 3208 3178 3178 3178 3178 3178 3178 3178 3178 3178 3149 3149 0 0 0 0 0 0 0 0 0 0 0
0 0 0 0 0 0 0 0 0 0 0 0 0 0 0 0 0 0 0 0 0 0 0 0 0 0 0 0 0 0 0 0 2933 2933 2933 2933 2933 2933 2933 2933 2933 2958 2933 2933 2933 2933 2933 2933 2933 2933 2933 2933 2933 2908 2908 2933 2933 2958 2958 2958 2958 2958 2958 2958 2958 2958 2984 2984 2984 2984 2984 2984 2984 2958 2958 2958 2958 2958 2958 2958 2958 2958 2958 2958 2958 2958 2958 2958 2958 2984 2984 2984 2984 2984 2984 2958 2958 2984 2984 2984 2984 2958 2958 2984 2984 2984 2984 2984 2984 2984 3010 2984 2984 3010 3010 3010 3010 3010 2984 2984 2984 2984 2984 3010 3010 3010 3010 3037 3037 3037 3037 3037 3037 3010 3010 2984 2984 2958 2958 2958 2958 2933 2933 2933 2933 2908 2908 2883 2883 2883 2883 2883 2883 2883 2883 2883 2859 2859 2859 2859 2859 2859 2859 2859 2859 2859 2859 2859 2859 2883 2883 2883 2883 2908 2908 2908 2908 2908 2933 2933 2933 2933 2958 2958 2958 2958 2958 2958 2984 2984 3010 3037 3037 3064 3064 3064 3064 3064 3064 3064 3064 3064 3064 3064 3064 3064 3064 3064 3037 3037 3037 3037 3037 3037 3037 3037 3037 3037 3064 3064 3064 3064 3064 3064 3064 3064 3064 3064 3064 3064 3064 3092 3092 3092 3092 3092 3092 3120 3120 3120 3120 3092 3092 3092 3092 3092 3092 3092 3092 3092 3092 3092 3120 3120 3120 3120 3120 3120 3120 3120 3120 3120 2156 2156 2156 2143 2143 2143 2129 2129 2129 2129 2129 2129 2143 2143 2156 2170 2184 2212 2226 2241 2256 2271 2271 2271 2271 2256 2241 2241 2241 2226 2212 2198 2184 2170 2156 2143 2129 2129 2116 2103 2103 2103 2090 2078 2078 2078 2078 2078 2065 2065 2065 2065 2053 2053 2053 2053 2053 2053 2053 2053 2053 2053 2065 2065 2065 2065 2065 2065 2053 2053 2053 2053 2053 2053 2053 2065 2065 2065 2065 2065 2065 2065 2065 2065 2065 2053 2053 2053 2053 2065 2065 2065 2065 2065 2065 2065 1564 1564 1564 1557 1550 1550 1543 1543 1543 1536 1536 1536 1536 1536 1536 1536 1536 1543 1543 1543 1543 1550 1550 1557 1557 1564 1564 1564 1572 1572 1572 1579 1579 1586 1586 1586 1594 1594 1594 1594 1594 1594 1594 1594 1594 1594 1594 1503 1489 1489 1489 1489 1489 1483 1483 1483 1483 1483 1477 1477 1477 1483 1483 1483 1483 1483 1483 1483 2103 2103 2103 2103 2103 2090 2090 2090 2090 2090 2090 2090 2090 2090 2090 2090 2090 2090 2090 2090 2090 2078 2078 2078 2090 2090 2103 2103 2103 2103 2116 2116 2103 1609 1609 2103 2103 2116 2116 1624 1624 1624 1624 1624 1624 1632 1632 1639 1639 1647 1647 1647 1647 1647 1647 1655 1655 1655 1655 1655 1647 1647 1647 1647 1647 1639 1639 1639 2078 2078 2090 2090 2078 2078 2078 2078 2078 2078 2078 2078 2078 2078 2078 2078 2078 2078 2078 2078 2078 2078 2078 2078 2078 2078 2078 2078 2090 2090 2090 2090 2116 1713 1705 1705 1705 1705 1705 1696 1696 1688 1688 1688 1688 1680 1680 1688 1696 1696 1696 1705 1705 1713 1713 1713 1713 1722 1722 1731 1731 1731 1731 1739 1739 1739 1739 1748 1748 1748 1748 1748 1757 1757 1766 1766 1766 1766 1776 1776 1785 1785 1785 1785 1794 1794 1863 1863 1863 1863 1863 1853 1853 1853 1843 1843 1843 1833 1823 1823 1813 1813 1813 1813 1813 2116 2116 2116 2103 2103 2103 2103 2103 2103 3208 3208 3208 3208 3208 3208 3238 3238 3208 3178 3178 3178 3178 3149 3149 3149 3149 3149 3149 3149 3149 0 0 0 0 0 0 0 0 0 0 0
0 0 0 0 0 0 0 0 0 0 0 0 0 0 0 0 0 0 0 0 0 0 0 0 0 0 0 0 0 0 0 0 2908 2908 2933 2933 2908 2908 2908 2908 2933 2933 2908 2908 2933 2933 2908 2908 2908 2908 2908 2908 2908 2908 2908 2908 2908 2933 2933 2933 2933 2933 2933 2933 2933 2958 2958 2958 2958 2984 2984 2958 2958 2933 2933 2933 2933 2933 2933 2933 2933 2933 2933 2958 2958 2958 2958 2958 2958 2958 2958 2958 2958 2984 2958 2958 2958 2958 2958 2958 2958 2958 2958 2984 2984 2984 2984 2984 2984 2984 2984 2984 2984 2984 2984 2984 2984 2984 2984 2984 2984 2984 2984 2984 2984 2984 3010 3010 3010 3037 3037 3010 3010 3010 3010 2984 2984 2958 2958 2958 2958 2933 2933 2933 2933 2908 2908 2883 2883 2883 2883 2883 2883 2883 2883 2883 2859 2859 2859 2859 2859 2859 2859 2859 2859 2859 2859 2859 2859 2883 2883 2883 2908 2908 2908 2933 2933 2933 2933 2933 2933 2933 2958 2958 2958 2958 2958 2958 2984 2984 3010 3037 3037 3037 3064 3064 3064 3064 3064 3064 3064 3064 3064 3064 3064 3064 3037 3037 3037 3037 3037 3037 3037 3037 3037 3037 3037 3037 3064 3064 3064 3064 3064 3064 3064 3064 3064 3064 3064 3064 3064 3064 3064 3064 3092 3092 3092 3092 3120 3120 3120 3092 3092 3064 3064 3092 3064 3064 3064 3092 3092 3092 3092 3092 3092 3092 3092 3092 3092 3064 3064 3064 2156 2156 2156 2143 2143 2143 2129 2129 2129 2129 2143 2143 2143 2156 2156 2170 2184 2212 2226 2256 2271 2271 2271 2271 2271 2256 2256 2241 2241 2241 2212 2198 2184 2170 2156 2143 2129 2129 2116 2103 2103 2103 2078 2078 2078 2078 2065 2065 2065 2053 2053 2053 2053 2053 2040 2040 2040 2040 2040 2040 2053 2053 2053 2053 2053 2065 2053 2053 2053 2053 2053 2053 2053 2053 2053 2053 2053 2053 2053 2053 2053 2053 2053 2053 2053 2053 2053 2053 2053 2053 2053 2053 2065 2065 2065 2065 1564 1564 1564 1557 1557 1550 1550 1543 1543 1543 1536 1536 1536 1536 1536 1536 1543 1543 1543 1543 1550 1550 1550 1557 1557 1564 1564 1564 1572 1572 1572 1579 1579 1586 1586 1586 1594 1594 1594 1594 1594 1594 1594 1594 1594 1594 1516 1503 1496 1496 1489 1489 1489 1483 1483 1483 1483 1483 1477 1477 1477 1483 1483 1483 1477 1477 1489 1489 2103 2103 2090 2090 2090 2090 2078 2078 2078 2078 2078 2078 2078 2078 2078 2065 2065 2078 2078 2078 2078 2078 2078 2078 2078 2090 2090 2090 2103 1594 1594 1601 1609 1609 1609 1616 1616 1624 1624 1624 1624 1624 1624 1624 1624 1624 1632 1639 1639 1647 1647 1647 1647 1647 1655 1655 1655 1655 1655 1655 1647 1647 1647 1647 1647 1639 1639 2078 2078 2078 2078 2078 2065 2065 2065 2065 2065 2065 2065 2065 2065 2065 2065 2078 2078 2078 2078 2078 2078 2078 2078 2078 2078 2078 2078 2078 2078 2078 2078 2078 2078 1713 1713 1705 1705 1705 1705 1696 1696 1688 1688 1688 1688 1688 1688 1696 1705 1705 1705 1705 1713 1713 1722 1722 1722 1731 1731 1731 1731 1731 1731 1739 1739 1739 1739 1748 1748 1748 1748 1757 1757 1766 1766 1766 1766 1766 1776 1776 1785 1785 1785 1785 1794 1863 1873 1863 1863 1863 1863 1853 1853 1843 1843 1843 1843 1833 1823 1823 1823 1823 1823 1823 2116 2116 2116 2116 2116 2103 2103 2103 2103 3208 3208 3208 3208 3208 3208 3208 3208 3178 3149 3149 3149 3149 3149 3149 3149 3149 3149 3149 3149 3149 3149 0 0 0 0 0 0 0 0 0 0 0
0 0 0 0 0 0 0 0 0 0 0 0 0 0 0 0 0 0 0 0 0 0 0 0 0 0 0 0 0 0 0 0 2908 2908 2908 2933 2908 2908 2908 2908 2908 2908 2908 2908 2908 2908 2908 2908 2908 2908 2908 2883 2883 2883 2883 2908 2908 2908 2933 2933 2933 2933 2933 2933 2933 2933 2933 2933 2933 2958 2958 2958 2958 2933 2933 2933 2933 2908 2908 2908 2933 2933 2933 2933 2933 2933 2933 2958 2958 2958 2958 2958 2958 2958 2958 2933 2933 2933 2933 2958 2958 2958 2958 2958 2958 2958 2958 2958 2958 2958 2958 2958 2958 2958 2984 2984 2984 2984 2984 2984 2984 2984 2984 2984 2984 2984 2984 2984 3010 3010 3010 3010 3010 3010 3010 2984 2984 2958 2958 2958 2958 2933 2933 2933 2908 2908 2908 2908 2883 2883 2883 2883 2883 2883 2883 2883 2859 2859 2859 2859 2859 2859 2859 2859 2859 2859 2859 2859 2859 2883 2883 2908 2908 2908 2908 2933 2933 2933 2933 2933 2933 2933 2958 2958 2958 2958 2958 2984 3010 3010 3010 3037 3037 3037 3037 3037 3037 3037 3064 3064 3064 3064 3064 3064 3064 3064 3037 3037 3037 3037 3037 3037 3037 3037 3037 3037 3064 3064 3064 3064 3064 3064 3064 3064 3064 3064 3064 3064 3064 3064 3064 3064 3064 3064 3064 3064 3064 3092 3092 3092 3092 3064 3064 3064 3064 3064 3064 3064 3064 3064 3064 3092 3092 3092 3092 3092 3092 3092 3064 3037 3037 3037 2156 2156 2156 2156 2156 2143 2143 2143 2143 2143 2143 2143 2156 2156 2170 2184 2198 2226 2241 2271 2271 2286 2271 2271 2271 2271 2256 2256 2256 2241 2226 2212 2184 2170 2156 2156 2143 2129 2129 2116 2116 2103 2078 2078 2078 2078 2065 2065 2053 2053 2040 2040 2028 2028 2028 2028 2028 2028 2028 2028 2028 2028 2040 2040 2040 2040 2053 2040 2040 2040 2040 2040 2040 2040 2040 2040 2040 2040 2040 2053 2053 2053 2053 2040 2040 2040 2040 2040 2040 2053 2053 2053 2053 2053 2053 2053 1564 1564 1564 1557 1557 1550 1550 1543 1543 1543 1536 1536 1536 1536 1536 1543 1543 1543 1543 1550 1550 1550 1557 1557 1557 1564 1564 1564 1572 1572 1572 1579 1579 1586 1594 1594 1594 1594 1594 1594 1594 1594 1594 1594 1594 1516 1516 1509 1503 1496 1496 1489 1489 1489 1483 1483 1483 1483 1477 1477 1483 1483 1483 1483 1477 1477 1477 1477 2103 2103 2090 2090 2090 2090 2078 2078 2078 2078 2065 2065 2078 2065 2065 2065 2065 2078 2078 2078 2078 2078 2065 2065 2078 2078 2090 1594 1594 1594 1594 1601 1609 1609 1609 1616 1616 1624 1624 1624 1624 1624 1624 1624 1624 1624 1632 1632 1639 1647 1647 1647 1647 1647 1655 1655 1655 1655 1655 1655 1655 1655 1655 1655 1647 1647 1647 2053 2065 2065 2065 2065 2053 2053 2053 2053 2053 2053 2053 2053 2053 2053 2053 2065 2065 2065 2065 2053 2053 2065 2065 2065 2065 2065 2065 2065 2078 2078 2065 2065 2065 1713 1713 1713 1705 1705 1705 1696 1696 1696 1688 1688 1688 1688 1688 1696 1705 1705 1705 1713 1713 1722 1722 1731 1731 1731 1731 1731 1731 1731 1731 1731 1739 1739 1739 1748 1748 1748 1748 1757 1757 1766 1776 1776 1776 1776 1776 1776 1883 1883 1883 1883 1883 1883 1883 1873 1873 1863 1863 1853 1853 1843 1843 1843 1843 1833 1833 1833 1823 1823 1823 1823 2116 2116 2116 2116 2116 2103 2103 2103 2116 3178 3178 3178 3178 3178 3178 3178 3149 3149 3149 3149 3149 3149 3149 3149 3149 3149 3149 3149 3149 3149 3149 0 0 0 0 0 0 0 0 0 0 0
0 0 0 0 0 0 0 0 0 0 0 0 0 0 0 0 0 0 0 0 0 0 0 0 0 0 0 0 0 0 0 0 2908 2908 2908 2908 2883 2883 2883 2883 2908 2883 2883 2883 2908 2908 2883 2883 2883 2883 2883 2883 2883 2883 2883 2908 2908 2908 2908 2908 2908 2908 2908 2933 2933 2933 2933 2933 2933 2933 2933 2933 2908 2908 2908 2908 2908 2908 2908 2908 2908 2908 2908 2933 2908 2908 2933 2933 2933 2958 2958 2958 2958 2958 2933 2908 2908 2908 2908 2933 2933 2933 2958 2958 2958 2958 2958 2958 2958 2958 2958 2958 2958 2958 2984 2984 2984 2984 2984 2984 2984 2958 2958 2984 2984 2984 2984 2984 2984 2984 2984 2984 2984 2984 2984 2984 2984 2958 2958 2958 2958 2933 2933 2908 2908 2908 2908 2908 2883 2883 2883 2883 2883 2883 2883 2883 2859 2859 2859 2859 2859 2859 2859 2859 2859 2859 2859 2859 2859 2883 2883 2883 2908 2908 2933 2933 2933 2933 2933 2933 2933 2933 2958 2958 2958 2958 2958 2984 2984 2984 3010 3010 3037 3037 3037 3037 3037 3037 3037 3037 3037 3037 3064 3064 3064 3064 3037 3037 3037 3037 3037 3037 3037 3037 3037 3064 3064 3037 3037 3064 3064 3064 3064 3064 3064 3064 3064 3064 3064 3064 3064 3064 3064 3064 3064 3064 3064 3092 3092 3092 3092 3037 3037 3037 3037 3037 3037 3037 3037 3064 3064 3064 3064 3064 3064 3092 3092 3092 3064 3037 3037 2170 2170 2170 2170 2156 2156 2156 2143 2143 2143 2143 2143 2156 2156 2170 2170 2184 2198 2241 2256 2271 2286 2286 2271 2271 2271 2271 2271 2271 2271 2256 2256 2226 2184 2170 2156 2156 2143 2129 2129 2129 2116 2103 2090 2078 2078 2078 2065 2065 2053 2053 2040 2040 2028 2028 2028 2028 2016 2016 2016 2028 2016 2016 2016 2028 2028 2028 2028 2016 2016 2016 2016 2016 2016 2016 2016 2016 2016 2016 2016 2028 2028 2028 2028 2016 2016 2016 2016 2016 2016 2016 2028 2028 2040 2040 2040 2040 1564 1564 1564 1557 1557 1557 1550 1543 1543 1543 1536 1536 1536 1536 1536 1543 1543 1543 1543 1550 1550 1557 1557 1557 1564 1564 1564 1564 1564 1572 1572 1572 1579 1586 1594 1594 1594 1594 1601 1594 1594 1594 1594 2040 2040 1523 1523 1509 1509 1503 1496 1489 1489 1489 1483 1483 1483 1483 1483 1483 1483 1483 1483 1489 1496 1496 1496 0 2103 2103 2090 2090 2090 2090 2078 2078 2078 2065 2065 2065 2065 2065 2065 2065 2065 2065 2065 2065 2065 2065 2065 2065 2078 1594 1594 1594 1594 1601 1601 1601 1609 1609 1609 1616 1616 1624 1624 1624 1624 1624 1624 1624 1624 1624 1632 1632 1632 1647 1647 1647 1655 1655 1655 1655 1655 1655 1655 1655 1655 1655 1655 1655 1647 1639 1639 2053 2053 2053 2053 2053 2053 2053 2053 2053 2053 2053 2053 2053 2053 2040 2040 2053 2053 2053 2053 2053 2053 2053 2053 2053 2053 2053 2053 2053 2065 2078 2065 2065 2065 1713 1713 1713 1713 1705 1705 1705 1696 1696 1688 1688 1688 1688 1696 1696 1705 1705 1705 1713 1713 1722 1722 1731 1731 1731 1731 1731 1731 1731 1731 1731 1739 1739 1739 1748 1748 1748 1757 1766 1766 1776 3178 3178 3178 3178 3178 3178 1883 1883 1883 1883 1883 1883 1883 1873 1873 1873 1863 1853 1853 1853 1843 1843 1843 1843 1833 1833 1823 1823 1823 1833 2116 2116 2116 2116 2116 2103 2103 2103 3120 3149 3149 3149 3149 3149 3149 3149 3149 3149 3149 3149 3149 3149 3149 3149 3149 3149 3149 3149 3149 3149 3149 0 0 0 0 0 0 0 0 0 0 0
0 0 0 0 0 0 0 0 0 0 0 0 0 0 0 0 0 0 0 0 0 0 0 0 0 0 0 0 0 0 0 0 2883 2883 2883 2883 2883 2883 2883 2883 2883 2859 2859 2883 2883 2883 2859 2859 2883 2859 2859 2859 2859 2859 2883 2883 2883 2908 2908 2908 2908 2908 2908 2908 2908 2908 2933 2933 2933 2933 2933 2908 2908 2908 2908 2908 2908 2908 2883 2883 2908 2908 2908 2908 2908 2908 2908 2933 2933 2933 2933 2933 2933 2933 2908 2908 2908 2908 2908 2933 2933 2933 2933 2958 2958 2958 2958 2958 2958 2958 2958 2958 2958 2958 2984 2984 2984 2984 2984 2984 2984 2958 2958 2984 2984 2984 2984 2984 2984 2984 2984 2984 2984 2984 2984 2984 2958 2958 2958 2958 2958 2933 2933 2908 2908 2908 2908 2908 2908 2883 2883 2883 2883 2883 2883 2883 2859 2859 2859 2859 2859 2859 2859 2859 2859 2859 2859 2859 2859 2883 2883 2883 2908 2908 2933 2933 2933 2933 2933 2933 2933 2933 2958 2958 2958 2958 2958 2984 2984 2984 2984 3010 3010 3010 3037 3037 3037 3037 3037 3037 3037 3037 3037 3037 3037 3037 3037 3037 3037 3037 3037 3037 3037 3037 3037 3037 3037 3037 3037 3037 3037 3037 3037 3037 3037 3037 3037 3037 3037 3037 3037 3037 3064 3064 3064 3064 3064 3064 3064 3064 3064 3037 3037 3037 3037 3037 3037 3037 3037 3064 3064 3064 3064 3064 3064 3064 3064 3064 3064 3037 3037 2170 2170 2156 2156 2156 2156 2156 2156 2156 2143 2143 2156 2156 2156 2170 2170 2184 2198 2256 2271 2286 2286 2286 2286 2286 2271 2271 2271 2271 2271 2271 2271 2256 2212 2184 2170 2156 2156 2143 2143 2143 2129 2116 2103 2090 2090 2078 2078 2065 2053 2053 2040 2028 2028 2028 2016 2016 2016 2016 2016 2016 2016 2016 2016 2016 2016 2016 2016 2005 2005 2016 2016 2016 2016 2016 2016 2016 2005 2005 2005 2016 2016 2016 2016 2016 2016 2016 2016 2016 2005 2005 2005 2016 2016 2016 2016 2016 1564 1564 1564 1557 1557 1557 1550 1543 1543 1543 1543 1536 1536 1543 1543 1543 1543 1543 1550 1557 1557 1557 1557 1564 1564 1564 1564 1564 1564 1572 1572 1572 1579 1586 1594 1594 1594 1594 2040 2053 2053 2053 2040 2040 2040 1523 1516 1509 1509 1503 1503 1496 1489 1489 1483 1483 1483 1483 1483 1483 1483 1483 1483 1489 1496 1496 0 0 2103 2103 2090 2090 2090 2078 2078 2078 2078 2065 2065 2065 2065 2053 2053 2053 2053 2065 2065 2065 1594 1594 1594 1594 1594 1594 1594 1594 1594 1601 1601 1601 1609 1609 1609 1616 1616 1616 1624 1624 1624 1624 1624 1624 1624 1624 1632 1632 1632 1647 1647 1655 1655 1655 1655 1655 1655 1655 1655 1655 1655 1655 1655 1655 1647 1639 1639 2053 2053 2053 2053 2053 2040 2040 2040 2040 2040 2040 2040 2040 2040 2040 2040 2040 2040 2040 2040 2040 2040 2040 2040 2053 2040 2040 2040 2053 2053 2065 2065 2078 1713 1713 1713 1713 1713 1705 1705 1705 1705 1696 1696 1696 1688 1688 1696 1705 1705 1705 1713 1713 1713 1722 1722 1731 1731 1731 1731 1731 1731 1731 1731 1731 1739 1739 1739 1748 3149 3149 3178 3178 3178 3178 3178 3178 3178 3178 3178 3178 1894 1894 1894 1894 1894 1883 1883 1873 1873 1873 1873 1853 1853 1853 1853 1843 1843 1843 1833 1833 1823 1823 1833 2116 2116 2116 2103 2103 2103 2103 2103 2103 3120 3120 3120 3120 3120 3120 3149 3149 3120 3120 3120 3120 3149 3149 3120 3120 3120 3120 3120 3120 3120 3120 3120 0 0 0 0 0 0 0 0 0 0 0
