0 0 0 0 0 0 0 0 0 0 0 0 0 0 0 0 0 0 0 0 0 0 0 0 0 0 0 0 0 0 0 0 2958 2958 2958 2958 2958 2958 2958 2984 2984 3010 3010 3037 3037 3064 3064 3064 3064 3092 3092 3092 3092 3092 3092 3120 3120 3120 3120 3120 3120 3120 3149 3149 3149 3178 3178 3208 3178 3178 3208 3208 3238 3238 3333 3333 3333 3333 3300 3300 3300 3300 0 0 0 0 1483 1483 1483 1483 1483 1483 1483 1483 1483 1483 1477 1477 1483 1483 1477 1477 1477 1477 1477 1470 1464 1464 1458 1458 1458 1458 1458 1458 1452 1452 1452 1452 1452 1445 1445 1445 1445 1439 1439 1433 1433 1433 1433 1433 1433 1427 1427 1427 1427 1427 1427 1427 1427 1427 1427 1427 1427 1421 1421 1421 1421 1415 1415 1415 1415 1415 1415 1415 1415 1415 1410 1410 1410 1410 1404 1404 1404 1404 1404 1404 1404 1404 1404 1404 1404 1404 1398 1392 1392 1392 1392 1387 1387 1387 1387 1387 1387 1387 1387 1392 1392 1392 1398 1404 1404 1404 0 0 0 0 0 0 0 0 5640 5640 5460 5460 5460 5460 5374 5374 5374 5374 5460 5460 5548 5548 5640 0 0 0 0 0 0 0 2241 2241 2241 2241 2241 2256 2256 4983 4983 5056 5056 5056 5056 6259 2241 2241 6146 6146 6146 6146 6146 6146 6146 6038 6038 6038 6038 6038 6038 5832 5374 5291 5291 5291 5374 5460 5460 5460 2317 2317 2317 2317 2317 2317 2317 2317 2317 2333 2317 2301 2301 2317 2301 2301 2317 2301 2301 2301 2317 2301 2301 2301 2301 2301 2301 2286 2286 2286 2286 2286 2286 2286 2286 2286 2286 2286 2286 2286 2286 2286 2286 2286 2286 2286 2286 2286 2286 2286 2286 2286 2286 2286 2271 2271 2271 2271 2271 2256 2256 2241 2241 2241 2241 2241 2241 2226 2226 2226 2226 2226 2226 2226 2241 2241 2256 2271 3010 3010 3037 3037 3010 3010 3010 3010 3010 3010 3010 3010 3010 3010 3010 3037 3037 3037 3037 3037 3037 3037 3037 3037 3037 3037 3037 3037 3064 3064 3064 3064 3064 3064 3092 3092 3092 3064 3037 3010 2984 2958 2958 2958 2958 2958 2958 2958 2933 2933 2933 2908 2908 2908 2908 2933 2116 2116 2129 2116 2116 2116 2116 2116 2103 2103 2103 2090 2078 2078 2883 2883 2883 2859 2859 2883 2883 2883 2883 2883 2883 2883 2883 2883 2883 2883 2883 2883 2908 2908 2933 2933 2958 2958 3365 3365 3365 3365 3365 3399 3433 3468 3468 3468 3468 3503 3539 3576 3576 3576 3576 3614 3614 3732 4295 4295 4295 4349 4349 4349 4349 4349 4405 4405 4463 4463 4463 1981 1981 1981 2005 2005 2005 2005 2005 2005 1993 1993 1993 1993 1993 1993 1993 1993 2005 0 0 0 0 0 0 7030 6889 6889 7030 7030 6889 6753 6753 6753 6753 6753 6753 6753 6753 6889 6889 6753 6753 6889 6889 5640 5640 5640 5640 5734 5832 6038 6375 6497 6622 6753 6753 6753 6753 6753 6753 6622 6622 6622 6497 6146 5933 5832 5832 6038 6146 6259 6375 6497 6622 6622 6622 6622 6622 6622 6622 6622 6497 6497 6497 6622 6622 6622 6622 6622 6622 6622 6622 6622 6622 6497 6497 6497 6497 6497 6497 6375 6259 6259 6259 6146 6146 6038 5933 5734 5734 5832 5832 5933 6146 6259 6259 6259 6146 6038 5933 5832 5832 5832 5832 5832 5832 5933 6038 6038 6146 6146 6146 4089 4089 4089 4089 4139 4139 4139 4139 4139 4139 4139 4089 4089 4041 4041 4041 4041 4041 4041 4041 4041 4041 4041 4041 4041 3994 3994 3994 3948 3948 3948 0 0 0 0 0 0 0 0 0 0 0 0
0 0 0 0 0 0 0 0 0 0 0 0 0 0 0 0 0 0 0 0 0 0 0 0 0 0 0 0 0 0 0 0 2933 2933 2958 2958 2958 2984 2984 2984 2984 3010 3010 3010 3037 3064 3064 3064 3064 3092 3092 3092 3092 3092 3092 3120 3120 3120 3120 3120 3120 3149 3149 3149 3149 3178 3178 3208 3178 3178 3208 3208 3238 3269 3333 3333 3333 3333 3300 3300 3300 3300 0 0 0 0 0 1483 1483 1483 1483 1483 1483 1483 1483 1483 1483 1483 1483 1483 1477 1477 1477 1477 1477 1477 1470 1464 1458 1458 1458 1458 1458 1458 1452 1452 1452 1452 1452 1452 1452 1445 1445 1445 1439 1439 1433 1433 1433 1433 1433 1427 1427 1427 1427 1427 1427 1427 1427 1427 1427 1427 1427 1427 1421 1421 1421 1421 1415 1415 1415 1415 1415 1415 1415 1415 1410 1410 1410 1410 1404 1404 1404 1404 1404 1404 1404 1404 1404 1404 1404 1398 1398 1392 1392 1392 1387 1387 1387 1387 1387 1387 1387 1387 1387 1392 1392 1392 1398 1404 1404 1404 0 0 0 0 0 0 0 0 0 0 5460 5460 5460 5460 5374 5374 5374 5460 5460 5460 5548 5548 5640 0 0 0 0 2241 2241 2241 2241 2241 2241 2241 2241 2256 2256 2256 4983 5056 2271 2256 2256 2241 2241 2241 2241 2212 2212 2198 2198 6038 6038 6038 6038 6038 6038 6038 6038 5734 5374 5291 5291 5291 5374 5460 5460 0 2317 2317 2317 2317 2317 2317 2317 2317 2317 2317 2317 2301 2301 2317 2301 2301 2317 2301 2301 2301 2301 2301 2301 2301 2301 2301 2301 2286 2286 2286 2286 2286 2286 2286 2286 2286 2286 2286 2286 2286 2286 2286 2286 2286 2286 2286 2286 2286 2286 2271 2271 2271 2271 2271 2271 2256 2256 2256 2256 2256 2256 2241 2241 2241 2241 2241 2241 2226 2226 2226 2226 2226 2226 2241 2241 2256 2256 3010 3010 3037 3037 3037 3037 3010 3010 3010 3010 3010 3010 3010 3010 3010 3010 3037 3037 3037 3037 3037 3037 3037 3037 3037 3037 3037 3037 3037 3064 3064 3064 3064 3064 3064 3092 3092 3092 3064 3037 3010 2984 2958 2958 2958 2958 2958 2958 2958 2933 2933 2933 2908 2908 2908 2908 2933 2116 2116 2129 2116 2116 2116 2116 2116 2116 2116 2103 2103 2078 2078 2883 2883 2883 2859 2859 2883 2883 2883 2883 2883 2883 2883 2883 2883 2883 2883 2883 2908 2908 2933 2933 2933 2958 2958 3365 3333 3333 3365 3365 3399 3433 3468 3468 3468 3468 3539 3576 3576 3576 3614 3614 3614 3732 3732 3732 4295 4295 4349 4349 4349 4349 4349 4405 4405 4463 4463 4582 4582 2005 2005 2005 2005 2005 2005 2005 2005 1993 1993 1993 1993 1993 1993 1993 1993 0 0 0 0 0 0 0 7030 7030 7030 7030 7030 6889 6889 6889 6753 6753 6753 6753 6753 6753 6753 6889 6753 6753 6889 6889 5640 5640 5640 5640 5734 5832 6038 6375 6497 6622 6753 6753 6753 6753 6753 6753 6753 6622 6622 6375 6146 6038 6038 6038 6038 6146 6375 6375 6497 6622 6622 6622 6622 6622 6622 6622 6622 6497 6497 6497 6622 6622 6622 6622 6622 6622 6622 6622 6622 6622 6497 6497 6497 6497 6497 6497 6375 6259 6259 6259 6259 6146 6038 6038 5734 5734 5832 5832 5933 6259 6375 6259 6259 6259 6038 5933 5640 5640 5832 5832 5832 5933 5933 6038 6146 6146 6146 6146 4139 4139 4089 4089 4139 4139 4139 4139 4139 4139 4139 4089 4089 4041 4041 4041 4041 4041 4041 4041 4041 4041 4041 4041 4041 3994 3994 3994 3948 3948 3948 0 0 0 0 0 0 0 0 0 0 0 0
0 0 0 0 0 0 0 0 0 0 0 0 0 0 0 0 0 0 0 0 0 0 0 0 0 0 0 0 0 0 0 0 2933 2933 2958 2958 2958 2984 2984 2984 2984 3010 3010 3010 3037 3064 3064 3064 3064 3092 3092 3092 3092 3092 3120 3120 3120 3120 3120 3149 3149 3149 3149 3178 3178 3178 3208 3208 3178 3178 3208 3238 3269 3269 3300 3300 3300 3300 3300 3300 3300 3269 3269 0 0 0 0 1483 1483 1483 1483 1483 1483 1483 1483 1483 1483 1483 1483 1483 1483 1483 1483 1477 1477 1477 1470 1464 1458 1458 1458 1458 1458 1458 1452 1452 1452 1452 1452 1452 1452 1445 1445 1445 1439 1439 1439 1433 1433 1433 1433 1433 1427 1427 1427 1427 1427 1427 1427 1427 1427 1427 1427 1427 1421 1421 1421 1421 1421 1415 1415 1415 1415 1415 1415 1415 1415 1415 1410 1410 1404 1404 1404 1404 1404 1404 1404 1404 1404 1404 1404 1398 1398 1392 1392 1392 1387 1387 1387 1381 1381 1381 1381 1381 1381 1387 1392 1392 1398 1398 1404 1404 0 0 0 0 0 0 0 0 0 0 0 5460 5460 5460 5460 5460 5460 5460 5460 5548 5640 5640 5640 0 2198 0 2226 2226 2226 2241 2241 2241 2241 2226 2226 2241 2241 2241 2241 2241 2241 2241 2241 2241 2241 2241 2241 2212 2212 2198 2198 2212 2212 2226 2241 2241 2241 2271 2271 5734 5374 5374 5374 5374 5374 5374 5374 0 2301 2301 2301 2301 2317 2301 2301 2301 2317 2317 2317 2301 2301 2317 2301 2301 2317 2301 2301 2301 2301 2301 2301 2301 2301 2301 2301 2301 2301 2286 2286 2286 2286 2286 2286 2286 2286 2286 2286 2286 2286 2286 2286 2286 2286 2286 2286 2286 2286 2271 2271 2271 2271 2271 2256 2256 2256 2256 2256 2256 2256 2256 2241 2241 2241 2241 2241 2226 2226 2226 2226 2226 2226 2241 2241 2256 2271 3010 3010 3037 3037 3037 3037 3037 3037 3010 3010 3010 3010 3010 3010 3010 3010 3037 3037 3037 3037 3037 3037 3037 3037 3037 3037 3037 3064 3064 3064 3064 3064 3092 3092 3092 3092 3092 3092 3064 3037 3010 2984 2958 2958 2958 2958 2958 2958 2958 2933 2933 2933 2908 2908 2908 2908 2933 2129 2116 2116 2116 2116 2116 2116 2116 2116 2116 2090 2090 2090 2090 2883 2883 2883 2859 2859 2883 2883 2883 2883 2883 2883 2883 2883 2883 2883 2883 2883 2908 2908 2933 2933 2933 2958 2958 3365 3333 3333 3365 3365 3433 3433 3468 3468 3468 3539 3576 3576 3614 3614 3614 3614 3653 3732 3732 3732 4295 4295 4349 4349 4349 4349 4349 4349 4405 4405 4405 4463 4582 4582 2005 2005 2005 2005 2005 2005 2005 1993 1993 1993 1993 1993 1993 1993 1993 0 0 0 0 0 0 0 7030 7030 7030 7030 7030 6889 6889 6889 6753 6753 6753 6753 6753 6753 6753 6889 6753 6753 6889 5734 5640 5640 5640 5640 5832 5832 6146 6375 6497 6622 6753 6753 6753 6753 6753 6753 6753 6622 6497 6146 6038 6038 5933 5933 6038 6146 6259 6375 6497 6622 6622 6622 6622 6622 6622 6622 6622 6622 6622 6622 6622 6622 6622 6622 6622 6622 6622 6622 6622 6622 6622 6622 6622 6622 6497 6497 6375 6375 6375 6259 6259 6146 6038 6038 5832 5832 5832 5832 6259 6375 6375 6259 6259 6259 6038 5933 5640 5640 5734 5734 5832 5933 5933 6038 6146 6259 6259 6259 4139 4139 4139 4139 4139 4139 4139 4139 4139 4139 4139 4089 4089 4041 4041 4041 4041 4041 4041 4041 4041 4041 3994 3994 4041 3994 3994 3994 3948 3948 3948 0 0 0 0 0 0 0 0 0 0 0 0
0 0 0 0 0 0 0 0 0 0 0 0 0 0 0 0 0 0 0 0 0 0 0 0 0 0 0 0 0 0 0 0 2933 2933 2958 2958 2958 2984 2984 2984 3010 3010 3010 3037 3037 3064 3064 3064 3092 3092 3092 3092 3092 3092 3120 3120 3120 3120 3120 3149 3149 3149 3178 3178 3178 3208 3208 3208 3178 3178 3208 3238 3269 3269 3300 3300 3300 3300 3300 3300 3269 3269 3269 0 0 0 0 0 1489 1483 1483 1483 1483 1483 1483 1483 1483 1483 1483 1483 1483 1483 1483 1483 1483 1477 1470 1464 1464 1464 1458 1458 1458 1458 1458 1452 1452 1452 1452 1452 1452 1452 1452 1445 1445 1445 1439 1439 1433 1433 1433 1433 1433 1433 1433 1427 1427 1427 1427 1427 1427 1427 1427 1427 1421 1421 1421 1421 1421 1421 1421 1421 1415 1415 1415 1415 1415 1415 1410 1410 1404 1404 1404 1404 1404 1404 1404 1404 1404 1404 1404 1398 1398 1392 1392 1392 1387 1387 1387 1381 1381 1381 1381 1381 1381 1387 1387 1392 1398 1398 1404 1404 0 0 0 0 0 0 0 0 0 0 5548 5548 5460 5460 5460 5460 5460 5460 5460 5548 5548 2143 2198 2198 2198 2198 2212 2212 2226 2226 2241 2241 2241 2226 2226 2226 2226 2226 2226 2226 2226 2241 2241 2226 2226 2241 2241 2226 2226 2226 2212 2212 2212 2212 2212 2212 2212 2226 2241 2241 2241 5374 5374 5374 5374 5374 5374 2198 2286 2286 2286 2286 2286 2286 2286 2301 2301 2317 2317 2317 2317 2317 2317 2317 2317 2317 2317 2317 2317 2317 2317 2301 2301 2301 2301 2301 2301 2286 2286 2286 2286 2286 2286 2286 2286 2286 2286 2286 2286 2286 2286 2286 2286 2286 2286 2286 2286 2271 2271 2271 2271 2271 2256 2256 2256 2256 2271 2271 2256 2256 2241 2241 2241 2241 2241 2226 2226 2226 2226 2226 2226 2241 2241 2256 2256 3037 3037 3064 3064 3064 3037 3037 3037 3037 3010 3010 3037 3037 3037 3037 3037 3037 3037 3037 3037 3037 3037 3037 3037 3037 3037 3037 3064 3064 3064 3064 3092 3092 3092 3092 3092 3092 3092 3064 3037 3010 2984 2984 2984 2958 2958 2958 2958 2933 2933 2933 2933 2908 2908 2908 2908 2933 2116 2116 2116 2116 2116 2116 2116 2116 2116 2116 2065 2065 2090 2859 2883 2883 2883 2883 2883 2883 2883 2883 2883 2883 2883 2883 2883 2883 2883 2883 2883 2908 2908 2933 2933 2933 2958 2958 3365 3365 3365 3365 3399 3433 3433 3468 3468 3503 3539 3576 3614 3614 3614 3614 3653 3692 3732 3732 3732 4295 4295 4295 4349 4349 4349 4349 4349 4405 4405 4405 4463 4463 4463 4463 2005 2005 2005 2005 2005 2005 1993 1993 2005 2005 2005 2005 2005 0 0 0 0 0 0 0 0 7030 7030 7030 7030 7030 6889 6889 6889 6889 6889 6889 6889 6889 6889 6889 6889 6889 6889 6889 5734 5734 5734 5734 5734 5832 5832 6146 6375 6622 6753 6753 6753 6753 6753 6753 6753 6622 6497 6375 6038 6038 5933 5933 5933 6038 6146 6259 6375 6497 6622 6622 6622 6622 6622 6622 6622 6622 6622 6622 6622 6622 6622 6622 6622 6753 6753 6753 6622 6622 6622 6622 6622 6622 6622 6497 6497 6375 6375 6375 6259 6259 6259 6146 6146 6038 6038 5933 5933 6375 6375 6375 6259 6259 6259 6038 5933 5640 5640 5640 5640 5832 5933 6038 6146 6146 6259 6259 6259 4089 4089 4139 4139 4190 4139 4139 4139 4139 4139 4139 4089 4089 4089 4089 4089 4089 4041 4041 4041 4041 3994 3994 3994 3994 3948 3948 3948 3903 3903 3903 0 0 0 0 0 0 0 0 0 0 0 0
0 0 0 0 0 0 0 0 0 0 0 0 0 0 0 0 0 0 0 0 0 0 0 0 0 0 0 0 0 0 0 0 2933 2933 2958 2984 2984 2984 2984 3010 3010 3010 3010 3037 3037 3064 3092 3092 3092 3092 3092 3092 3092 3092 3120 3120 3120 3120 3149 3149 3178 3178 3178 3178 3208 3208 3208 3208 3208 3208 3208 3238 3269 3269 3300 3300 3300 3300 3300 3300 3269 3269 3269 0 0 0 0 0 1489 1489 1489 1489 1483 1483 1483 1489 1483 1483 1489 1489 1483 1483 1483 1483 1483 1483 1477 1470 1464 1464 1464 1458 1458 1458 1458 1458 1452 1452 1452 1452 1452 1452 1452 1452 1445 1445 1445 1445 1439 1439 1433 1433 1433 1433 1433 1433 1433 1427 1427 1427 1427 1427 1427 1427 1421 1421 1421 1421 1421 1421 1421 1421 1421 1421 1415 1415 1415 1415 1410 1410 1404 1404 1404 1404 1404 1404 1404 1404 1404 1404 1404 1398 1398 1392 1392 1392 1387 1387 1387 1381 1381 1381 1381 1381 1381 1387 1387 1392 1398 1398 1404 1404 0 0 0 0 0 0 0 0 0 0 0 5548 5548 5548 2143 2143 2143 2143 5460 5548 2143 2143 2143 2184 2184 2184 2198 2198 2212 2226 2226 2226 2226 2212 2212 2212 2212 2212 2212 2226 2226 2226 2226 2226 2226 2226 2226 2226 2226 2212 2198 2198 2198 2198 2212 2198 2198 2212 2226 2226 2226 5548 5460 5374 2198 2198 2198 2198 2212 2241 2241 2256 2271 2271 2271 2271 2286 2286 2286 2301 2301 2317 2301 2301 2317 2317 2317 2317 2301 2301 2301 2301 2301 2301 2301 2286 2286 2286 2286 2286 2286 2286 2286 2286 2286 2286 2286 2286 2286 2286 2286 2286 2286 2286 2286 2286 2286 2271 2271 2271 2271 2271 2271 2256 2256 2256 2271 2271 2256 2256 2256 2256 2241 2241 2241 2226 2226 2226 2226 2226 2226 2241 2241 2256 2256 3010 3010 3064 3037 3037 3037 3037 3037 3037 3037 3037 3037 3037 3037 3037 3037 3037 3037 3037 3037 3037 3037 3037 3037 3037 3037 3064 3064 3064 3064 3092 3092 3092 3092 3092 3092 3092 3092 3064 3037 3010 2984 2984 2984 2958 2958 2958 2958 2933 2933 2933 2933 2933 2908 2908 2908 2933 2116 2116 2116 2129 2129 2116 2116 2116 2103 2090 2065 2065 2835 2883 2883 2883 2908 2883 2883 2883 2883 2883 2883 2883 2883 2883 2883 2883 2883 2908 2908 2933 2933 2933 2933 2933 2958 2958 3365 3365 3365 3365 3399 3399 3433 3433 3468 3468 3576 3576 3614 3614 3614 3614 3653 3692 3732 3774 4295 4295 4295 4295 4349 4349 4349 4349 4349 4349 4405 4405 4405 4405 4405 4349 2005 2005 2005 2005 2005 2005 1993 1993 2005 2005 2005 2005 2005 0 0 0 0 0 0 0 0 0 7030 7030 7030 7030 6753 6753 6889 6889 6889 6889 6889 6889 6889 6889 6889 6889 6889 6889 5734 5734 5734 5734 5734 5832 5933 6259 6497 6622 6753 6753 6753 6753 6753 6753 6622 6622 6497 6375 6038 5933 5933 5933 5933 6038 6038 6259 6259 6497 6622 6622 6622 6622 6622 6622 6622 6622 6622 6622 6622 6622 6622 6622 6622 6753 6753 6753 6622 6622 6622 6622 6622 6622 6622 6497 6497 6375 6375 6375 6259 6259 6259 6146 6146 6038 5933 5832 5832 6375 6375 6497 6259 6259 6259 5933 5832 5460 5460 5548 5640 5734 5933 6038 6146 6259 6259 6259 6259 4089 4089 4139 4139 4190 4190 4139 4139 4139 4139 4139 4089 4089 4089 4089 4089 4089 4089 4041 4041 4041 3994 3994 3994 3994 3948 3948 3948 3903 3903 3903 0 0 0 0 0 0 0 0 0 0 0 0
0 0 0 0 0 0 0 0 0 0 0 0 0 0 0 0 0 0 0 0 0 0 0 0 0 0 0 0 0 0 0 0 2933 2933 2958 2984 2984 2984 2984 3010 3010 3010 3010 3010 3037 3064 3064 3092 3092 3092 3092 3092 3092 3092 3120 3120 3120 3120 3149 3149 3178 3178 3208 3208 3208 3208 3208 3208 3208 3208 3208 3238 3238 3269 3269 3300 3300 3300 3300 3300 3300 3269 3269 0 0 0 0 0 1489 1489 1489 1489 1489 1489 1489 1489 1489 1489 1489 1489 1489 1483 1483 1483 1483 1483 1477 1470 1470 1470 1470 1464 1458 1458 1458 1458 1452 1452 1452 1452 1452 1452 1452 1452 1452 1445 1445 1445 1445 1439 1439 1439 1433 1433 1433 1433 1433 1433 1427 1427 1427 1427 1427 1427 1427 1421 1421 1421 1421 1421 1421 1421 1421 1421 1421 1415 1415 1415 1410 1410 1404 1404 1404 1404 1404 1404 1404 1404 1404 1404 1404 1398 1398 1392 1392 1392 1387 1387 1387 1387 1381 1381 1381 1381 1381 1387 1392 1392 1398 1398 1404 1404 1410 0 0 0 0 0 0 0 0 2129 2129 2129 2129 2129 2143 2143 2143 2129 2129 2129 2129 2129 2143 2143 2143 2170 2184 2184 2198 2212 2212 2212 2226 2198 2198 2198 2198 2198 2198 2198 2198 2212 2212 2212 2212 2212 2212 2198 2198 2198 2198 2184 2184 2184 2198 2184 2184 2198 2198 2198 2198 2198 2198 2198 2184 2184 2184 2184 2198 2198 2198 2226 2226 2241 2241 2241 2241 2241 2271 2286 2286 2301 2301 2301 2301 2301 2301 2301 2301 2301 2301 2301 2301 2301 2301 2286 2286 2286 2286 2286 2286 2286 2286 2286 2286 2286 2286 2286 2286 2286 2286 2286 2286 2286 2286 2286 2286 2286 2271 2271 2271 2271 2271 2271 2271 2271 2271 2271 2271 2256 2256 2256 2241 2241 2241 2226 2226 2226 2226 2226 2226 2241 2241 2256 2256 3010 3010 3064 3037 3037 3064 3064 3064 3037 3037 3037 3064 3064 3064 3037 3037 3064 3037 3037 3064 3064 3037 3037 3037 3037 3064 3064 3064 3064 3092 3092 3092 3092 3092 3092 3092 3092 3092 3064 3037 3010 2984 2984 2984 2984 2958 2958 2958 2933 2933 2933 2933 2933 2908 2908 2908 2933 2116 2116 2116 2116 2129 2116 2116 2116 2103 2090 2065 2065 2835 2883 2883 2883 2908 2883 2883 2883 2883 2883 2883 2883 2883 2883 2883 2883 2883 2908 2908 2933 2933 2933 2933 2933 2958 2958 3333 3333 3365 3365 3399 3399 3433 3433 3468 3468 3576 3576 3614 3614 3614 3614 3653 3692 3732 3774 4295 4295 4295 4295 4349 4349 4349 4349 4349 4349 4405 4405 4405 4349 4349 4349 2040 2040 2005 2005 2005 2005 2005 2005 2005 2005 2005 2005 2005 0 0 0 0 0 0 0 0 0 7030 7030 7030 6753 6622 6622 6622 6753 6753 6753 6753 6753 6753 6753 6753 6622 6622 6622 5734 5734 5734 5734 5734 5832 6038 6259 6622 6622 6753 6753 6753 6622 6622 6622 6622 6622 6497 6259 5933 5933 5832 5832 5933 6038 6038 6146 6259 6497 6622 6622 6622 6622 6622 6622 6622 6622 6622 6622 6622 6622 6622 6622 6622 6753 6753 6622 6622 6622 6622 6622 6622 6622 6622 6497 6497 6375 6375 6375 6259 6259 6259 6146 6146 6038 5933 5832 5832 6375 6375 6497 6375 6375 6259 5933 5832 5460 5460 5548 5640 5734 6038 6038 6146 6259 6259 6259 6259 4190 4139 4139 4139 4190 4190 4190 4190 4139 4139 4139 4139 4089 4089 4089 4089 4089 4089 4041 4041 3994 3994 3994 3994 3948 3948 3948 3948 3948 3903 3903 0 0 0 0 0 0 0 0 0 0 0 0
0 0 0 0 0 0 0 0 0 0 0 0 0 0 0 0 0 0 0 0 0 0 0 0 0 0 0 0 0 0 0 0 2958 2958 2984 2984 2984 2984 2984 3010 3010 3010 3010 3010 3037 3064 3064 3092 3092 3092 3092 3092 3092 3092 3120 3120 3120 3120 3149 3149 3178 3178 3208 3208 3208 3208 3208 3238 3208 3208 3208 3238 3238 3269 3269 3300 3300 3300 3300 3300 3300 3300 3300 0 0 0 0 0 1489 1489 1489 1489 1489 1489 1489 1489 1489 1489 1489 1489 1489 1489 1483 1483 1483 1483 1477 1477 1470 1470 1470 1464 1458 1458 1458 1458 1458 1458 1458 1452 1452 1452 1452 1452 1452 1445 1445 1445 1445 1445 1439 1439 1439 1439 1433 1433 1433 1433 1433 1427 1427 1427 1427 1427 1427 1427 1427 1427 1427 1427 1427 1427 1421 1421 1421 1415 1415 1415 1410 1410 1410 1404 1404 1404 1404 1404 1404 1404 1404 1404 1404 1398 1398 1392 1392 1392 1387 1387 1387 1387 1387 1387 1387 1381 1381 1387 1392 1392 1398 1404 1404 1404 1410 0 0 0 0 0 0 0 0 2129 2116 2116 2116 2129 2129 2129 2116 2116 2116 2116 2116 2129 2129 2129 2143 2170 2184 2184 2198 2198 2198 2212 2212 2198 2198 2198 2198 2198 2198 2184 2184 2198 2198 2198 2198 2198 2198 2184 2184 2184 2170 2170 2170 2170 2170 2170 2170 2184 2184 2170 2170 2184 2184 2184 2184 2184 2184 2184 2184 2170 2170 2184 2198 2212 2212 2198 2198 2198 2226 2271 2271 2286 2286 2286 2286 2286 2301 2301 2301 2301 2301 2301 2301 2301 2301 2286 2286 2286 2286 2286 2286 2286 2286 2286 2286 2286 2286 2286 2286 2286 2286 2286 2286 2286 2286 2286 2286 2286 2271 2271 2271 2271 2271 2271 2271 2271 2271 2271 2271 2256 2256 2256 2241 2241 2241 2226 2226 2226 2226 2226 2226 2241 2256 2256 3010 3010 3010 3064 3037 3037 3064 3064 3037 3037 3037 3037 3064 3064 3064 3037 3037 3064 3037 3037 3064 3064 3064 3064 3064 3064 3064 3064 3064 3092 3092 3092 3092 3092 3092 3120 3092 3092 3092 3064 3037 3010 2984 2984 2984 2984 2984 2984 2958 2958 2933 2933 2933 2933 2933 2933 2933 2933 2103 2103 2116 2116 2116 2116 2116 2116 2103 2103 2103 2859 2859 2883 2883 2883 2908 2883 2883 2883 2883 2883 2883 2883 2883 2883 2883 2883 2883 2908 2908 2933 2933 2933 2933 2933 2958 2958 3333 3333 3365 3365 3399 3433 3433 3468 3468 3539 3576 3576 3614 3614 3614 3614 3653 3692 3732 3774 4295 4295 4295 4349 4349 4349 4349 4349 4349 4349 4405 4405 4405 4349 4349 4349 4349 2005 2005 2005 2005 2005 2005 2005 2005 2005 2005 2005 0 0 0 0 0 0 0 0 0 0 0 7030 6889 6753 6622 6622 6622 6753 6753 6753 6753 6753 6753 6753 6753 6622 6622 6375 5734 5734 5734 5734 5734 5933 6038 6259 6497 6497 6622 6622 6622 6622 6622 6622 6497 6497 6375 6038 5832 5832 5832 5832 5933 6038 6038 6146 6375 6497 6622 6622 6622 6622 6622 6622 6622 6622 6622 6622 6622 6622 6622 6622 6622 6622 6622 6622 6622 6622 6622 6622 6622 6622 6622 6497 6497 6497 6375 6375 6375 6259 6259 6259 6259 6146 5933 5832 5832 6375 6497 6497 6375 6375 6259 6038 5933 5548 5548 5640 5640 5832 6038 6038 6259 6259 6259 6259 6259 6259 4139 4139 4139 4190 4190 4190 4190 4139 4139 4139 4139 4139 4089 4089 4089 4041 4041 4041 4041 3994 3994 3994 3994 3948 3948 3948 3948 3948 3903 3903 0 0 0 0 0 0 0 0 0 0 0 0
0 0 0 0 0 0 0 0 0 0 0 0 0 0 0 0 0 0 0 0 0 0 0 0 0 0 0 0 0 0 0 0 2958 2958 2984 2984 3010 2984 2984 3010 3010 3010 3010 3010 3037 3064 3092 3092 3092 3092 3092 3092 3120 3120 3120 3120 3120 3120 3149 3149 3178 3208 3208 3208 3208 3208 3208 3238 3208 3208 3208 3238 3238 3269 3269 3300 3300 3269 3269 3300 3300 3300 3300 3333 0 0 0 0 1496 1489 1489 1489 1489 1496 1496 1496 1496 1496 1496 1496 1489 1489 1489 1489 1483 1483 1477 1477 1470 1470 1470 1464 1458 1458 1458 1458 1458 1458 1458 1452 1452 1452 1452 1452 1452 1452 1452 1452 1445 1445 1445 1445 1439 1439 1439 1433 1433 1433 1433 1433 1433 1427 1427 1427 1433 1427 1427 1427 1427 1427 1427 1427 1427 1421 1421 1415 1415 1415 1415 1415 1410 1410 1410 1404 1404 1404 1404 1404 1404 1398 1398 1398 1398 1392 1392 1392 1392 1387 1387 1387 1387 1387 1387 1387 1387 1392 1392 1392 1398 1404 1404 1410 1410 1415 0 0 0 0 2090 2090 2090 2090 2090 2116 2116 2116 2116 2116 2116 2103 2103 2116 2116 2116 2116 2116 2129 2156 2170 2184 2198 2198 2198 2198 2184 2184 2184 2170 2170 2170 2170 2170 2170 2170 2170 2170 2170 2170 2184 2170 2170 2170 2156 2156 2156 2156 2143 2143 2156 2156 2156 2156 2156 2170 2170 2170 2170 2170 2170 2170 2170 2170 2170 2170 2170 2184 2184 2184 2184 2184 2184 2184 2184 2184 2198 2241 2271 2271 2333 2317 2301 2286 2286 2286 2286 2286 2286 2286 2286 2286 2286 2286 2286 2286 2286 2286 2286 2286 2286 2286 2286 2286 2286 2286 2286 2286 2286 2286 2286 2286 2286 2271 2271 2271 2271 2271 2271 2271 2271 2271 2271 2256 2256 2256 2241 2241 2241 2226 2226 2226 2226 2226 2241 2241 2256 2271 2271 3064 3064 3064 3037 3037 3064 3064 3037 3037 3037 3037 3064 3064 3064 3064 3064 3064 3064 3064 3064 3064 3064 3064 3064 3064 3064 3064 3092 3092 3092 3092 3092 3092 3120 3120 3120 3092 3092 3064 3037 3010 2984 2984 2984 2984 2984 2984 2958 2958 2933 2933 2933 2933 2933 2933 2933 2933 2103 2103 2116 2116 2116 2116 2116 2116 2116 2103 2103 2859 2859 2883 2883 2908 2908 2883 2883 2883 2883 2883 2883 2883 2883 2883 2883 2908 2908 2908 2908 2933 2933 2933 2933 2933 2933 2933 3333 3333 3365 3399 3399 3433 3433 3468 3503 3539 3576 3614 3614 3614 3614 3653 3692 3732 3732 3774 4349 4349 4349 4349 4349 4349 4349 4349 4349 4349 4405 4405 4405 4349 4349 4349 0 2005 2005 2005 2005 2005 2005 2005 2005 2005 2005 2005 0 0 0 0 0 0 0 0 0 0 6889 6889 6889 6889 6622 6622 6753 6753 6753 6753 6753 6753 6753 6753 6753 6497 6497 5734 5734 5734 5734 5734 5832 5933 6038 6259 6375 6497 6622 6622 6622 6622 6622 6622 6497 6375 6259 6038 5832 5832 5832 5832 5933 6038 6038 6146 6259 6497 6497 6622 6622 6622 6622 6622 6622 6753 6753 6753 6753 6753 6622 6622 6622 6622 6622 6622 6622 6622 6622 6622 6622 6622 6622 6497 6497 6497 6375 6375 6375 6259 6259 6146 6146 5933 5933 5832 5832 6375 6497 6497 6375 6375 6259 6146 6038 5548 5548 5640 5734 5832 6146 6146 6259 6259 6259 6146 6146 6259 6259 4190 4190 4190 4190 4190 4190 4139 4139 4139 4139 4089 4089 4089 4089 4041 4041 4041 4041 3994 3994 3994 3994 3948 3948 3948 3948 3948 3903 3903 0 0 0 0 0 0 0 0 0 0 0 0
0 0 0 0 0 0 0 0 0 0 0 0 0 0 0 0 0 0 0 0 0 0 0 0 0 0 0 0 0 0 0 0 2958 2958 2984 2984 3010 3010 3010 3010 3010 3010 3010 3010 3037 3064 3092 3092 3092 3092 3092 3092 3120 3120 3120 3120 3120 3120 3149 3149 3178 3208 3208 3208 3208 3208 3208 3238 3208 3208 3208 3208 3238 3269 3269 3300 3300 3269 3269 3269 3300 3300 3300 3300 0 0 0 0 1496 1489 1489 1496 1496 1496 1496 1496 1496 1496 1496 1496 1496 1496 1489 1489 1483 1483 1483 1477 1477 1470 1470 1470 1464 1464 1458 1458 1458 1458 1458 1458 1458 1452 1452 1452 1452 1452 1452 1452 1452 1452 1445 1445 1445 1445 1439 1439 1433 1433 1433 1433 1433 1433 1433 1433 1433 1427 1427 1433 1433 1427 1427 1427 1427 1421 1421 1415 1415 1415 1415 1415 1410 1410 1410 1410 1410 1404 1404 1404 1404 1398 1398 1398 1398 1398 1398 1398 1398 1392 1392 1392 1387 1387 1387 1387 1392 1392 1392 1398 1398 1404 1404 1410 1410 1415 0 0 0 0 2078 2078 2078 2078 2090 2090 2103 2103 2103 2103 2103 2103 2103 2103 2103 2116 2116 2116 2129 2143 2156 2170 2184 2184 2198 2198 2184 2184 1278 1278 1283 1288 1288 1288 1288 1288 1292 2170 2170 2170 2170 2170 2156 2156 2143 2143 2143 2143 2143 2143 2143 2143 2156 2156 2156 2170 2170 2156 2156 2156 2156 2156 2170 2170 2170 2170 2170 2170 2170 2170 2170 2170 2170 2170 2170 2170 2170 2184 2241 2271 2271 2170 2170 2286 2170 2170 2256 2256 2286 2286 2286 2286 2271 2271 2271 2286 2286 2286 2286 2286 2286 2286 2286 2286 2286 2286 2286 2286 2286 2286 2286 2286 2286 2286 2286 2271 2271 2256 2256 2271 2271 2271 2271 2256 2256 2256 2241 2241 2241 2226 2226 2226 2226 2241 2241 2241 2256 2271 2271 3092 3064 3064 3064 3064 3064 3064 3064 3064 3064 3064 3064 3064 3064 3064 3064 3064 3064 3064 3064 3064 3064 3064 3064 3064 3064 3064 3064 3092 3092 3092 3092 3092 3120 3120 3120 3092 3092 3064 3037 3010 2984 2984 2984 2984 2984 2984 2984 2958 2958 2958 2933 2933 2933 2933 2933 2933 2090 2090 2116 2116 2116 2116 2116 2116 2116 2116 2116 2883 2883 2908 2908 2908 2908 2883 2883 2883 2883 2883 2883 2883 2883 2883 2908 2908 2908 2908 2933 2933 2933 2933 2908 2908 2908 3333 3333 3333 2053 2053 3399 3433 3433 3468 3503 3539 3576 3614 3614 3614 3614 3653 3692 3732 3732 3774 4349 4349 4349 4349 4349 4349 4349 4349 4349 4349 4349 4349 4405 4349 4349 4349 0 1993 1993 1993 1993 1993 1993 2005 1993 1993 1993 1993 0 0 0 0 0 0 0 0 0 0 6753 6753 6753 6622 6497 6497 6622 6622 6622 6753 6753 6753 6753 6753 6497 6497 6375 5734 5734 5734 5734 5832 5832 5933 6038 6259 6375 6375 6497 6497 6497 6497 6497 6497 6375 6146 6038 6038 5832 5832 5832 5832 5933 6038 6038 6146 6259 6497 6497 6497 6622 6622 6622 6622 6622 6753 6753 6753 6753 6753 6622 6622 6622 6622 6622 6622 6622 6622 6622 6622 6622 6622 6497 6497 6497 6497 6375 6375 6375 6259 6259 6146 6146 5832 5832 5832 5832 6259 6497 6497 6375 6375 6259 6259 6259 5548 5548 5640 5734 6038 6146 6259 6259 6259 6259 6146 6146 6259 4241 4190 4190 4190 4190 4190 4190 4190 4190 4139 4139 4089 4089 4089 4089 4041 4041 4041 4041 3994 3994 3994 3994 3948 3948 3948 3948 3948 3903 3903 0 0 0 0 0 0 0 0 0 0 0 0
0 0 0 0 0 0 0 0 0 0 0 0 0 0 0 0 0 0 0 0 0 0 0 0 0 0 0 0 0 0 0 0 2958 2958 2984 2984 3010 3010 3010 3010 3010 3010 3010 3010 3037 3092 3092 3092 3092 3092 3092 3092 3120 3120 3120 3120 3120 3120 3149 3149 3178 3178 3208 3208 3208 3208 3208 3238 3208 3178 3178 3208 3238 3269 3269 3300 3300 3269 3269 3269 3269 3300 3300 3300 0 0 0 0 1496 1489 1489 1496 1496 1496 1496 1503 1503 1496 1496 1496 1496 1496 1496 1496 1489 1489 1483 1477 1477 1477 1477 1470 1464 1464 1464 1464 1458 1458 1458 1458 1458 1458 1452 1452 1452 1452 1452 1452 1452 1452 1452 1452 1445 1445 1445 1439 1439 1439 1433 1433 1433 1433 1433 1433 1433 1433 1433 1433 1433 1427 1427 1427 1427 1427 1421 1421 1415 1415 1415 1415 1410 1410 1410 1410 1410 1404 1404 1404 1404 1404 1404 1404 1404 1404 1398 1398 1398 1398 1398 1392 1392 1392 1392 1392 1392 1392 1398 1398 1404 1404 1404 1410 1410 1415 1421 0 0 2078 2078 2078 2078 2078 2078 2078 2090 2090 2090 2090 2090 2090 2090 2103 2103 2103 2103 2103 2116 2143 2143 2170 2184 2184 2184 1273 1273 1278 1278 1278 1278 1283 1283 1283 1288 1288 1292 1297 1297 2170 2170 2156 2156 2156 2129 2129 2129 2129 2129 2129 2129 2129 2129 2129 2129 2170 2129 2129 2129 2129 2143 2143 2143 2143 2143 2156 2156 2156 2156 2156 2156 2156 2156 2156 2156 2156 2156 2156 2156 2143 2143 2143 2143 2143 2156 2156 2156 2156 2156 2156 2170 2170 2170 2170 2170 2184 2184 2271 2271 2286 2286 2286 2286 2286 2286 2286 2286 2271 2271 2271 2286 2286 2286 2286 2286 2271 2271 2256 2256 2271 2271 2256 2256 2256 2256 2256 2241 2241 2241 2226 2226 2226 2226 2241 2241 2241 2256 2271 3064 3064 3092 3092 3064 3064 3064 3064 3064 3064 3064 3064 3064 3064 3064 3064 3064 3064 3064 3064 3064 3064 3064 3064 3064 3064 3064 3064 3064 3092 3092 3092 3092 3092 3120 3120 3120 3120 3092 3092 3064 3010 3010 3010 2984 2984 2984 2984 2984 2984 2984 2984 2984 2984 2958 2933 2933 2933 2090 2090 2116 2116 2116 2116 2116 2116 2116 2129 2129 2143 2908 2908 2908 2908 2908 2883 2883 2883 2883 2883 2883 2883 2883 2908 2908 2908 2908 2933 2933 2933 2933 2933 2908 2908 2908 3333 2053 2053 2053 2053 3399 3433 3433 3468 3503 3539 3576 3614 3614 3653 3653 3653 3692 3732 3774 3774 4349 4349 4349 4349 4349 4349 4349 4349 4349 4349 4349 4349 4349 4349 4349 4349 0 1993 1993 1993 1993 1993 1993 1993 1993 1993 1993 1993 0 0 0 0 0 0 0 0 0 6622 6622 6622 6622 6622 6497 6497 6497 6375 6375 6375 6497 6497 6497 6497 6375 6038 5734 5734 5734 5734 5832 5832 5832 6038 6146 6259 6375 6375 6375 6375 6375 6375 6259 6259 6146 6038 6038 5933 5832 5832 5832 5832 5933 6038 6038 6259 6375 6497 6497 6497 6497 6497 6497 6497 6497 6622 6753 6753 6753 6753 6622 6622 6622 6622 6497 6497 6497 6497 6622 6622 6622 6497 6497 6497 6375 6375 6375 6375 6375 6146 5832 5734 5734 5734 5734 5832 5832 6259 6497 6497 6375 6375 5933 5933 5933 5640 5640 5734 5832 6038 6146 6259 6259 6146 6146 6146 6146 6146 4241 4241 4241 4241 4190 4190 4190 4190 4139 4139 4089 4089 4089 4041 4041 4041 4041 4041 4041 3994 3994 3994 3994 3948 3948 3903 3903 3948 3903 3903 0 0 0 0 0 0 0 0 0 0 0 0
0 0 0 0 0 0 0 0 0 0 0 0 0 0 0 0 0 0 0 0 0 0 0 0 0 0 0 0 0 0 0 0 2958 2958 2984 2984 3010 3010 3010 3010 3010 3010 3010 3010 3037 3064 3092 3092 3092 3092 3092 3092 3120 3120 3120 3120 3149 3149 3149 3149 3178 3178 3208 3208 3208 3208 3208 3238 3208 3178 3178 3208 0 0 0 0 0 0 3269 3269 3269 3300 3300 3300 3300 0 0 0 0 1496 1496 1496 1496 1503 1503 1503 1503 1503 1503 1503 1503 1503 1503 1496 1496 1489 1483 1483 1477 1477 1477 1477 1470 1464 1464 1464 1464 1458 1458 1458 1458 1458 1458 1458 1452 1452 1458 1458 1452 1452 1452 1452 1445 1445 1445 1439 1439 1439 1439 1439 1439 1433 1433 1433 1433 1433 1433 1433 1433 1433 1433 1427 1427 1427 1427 1421 1415 1415 1415 1415 1410 1410 1410 1410 1410 1410 1404 1404 1404 1404 1404 1404 1404 1404 1398 1398 1398 1398 1398 1392 1392 1398 1392 1392 1392 1392 1398 1398 1404 1404 1404 1410 1410 1415 1415 0 0 2065 2065 2065 2065 2065 2065 2065 2065 2065 2065 2078 2078 2078 2090 2090 2090 2090 2090 2103 2116 2143 2143 2143 1268 1273 1273 1273 1273 1278 1278 1278 1278 1278 1278 1283 1283 1283 1292 1297 1297 1297 2170 2156 2156 2143 2129 2116 2116 2116 2116 2116 2116 2116 2116 2116 2116 2116 2103 2103 2103 2103 2116 2116 2116 2129 2129 2129 2129 2129 2129 2129 2143 2143 2143 2143 2143 2143 2143 2129 2129 2129 2143 2143 2143 2143 2143 2156 2143 2143 2143 2143 2143 2143 2143 2143 2143 2143 2156 2184 2271 2286 2286 2286 2301 2301 2301 2286 2286 2271 2256 2256 2256 2256 2256 2271 2271 2256 2256 2271 2241 2241 2256 2256 2256 2256 2256 2241 2241 2241 2241 2226 2226 2226 2226 2226 2241 2241 2256 2256 2271 3064 3092 3092 3064 3064 3064 3064 3092 3092 3064 3064 3064 3064 3064 3064 3064 3064 3037 3037 3064 3064 3064 3064 3064 3064 3064 3064 3092 3092 3092 3092 3092 3092 3092 3120 3120 3092 3092 3092 3037 3010 3010 3010 3010 3010 2984 2984 2984 2984 2984 2984 2984 2984 2958 2958 2958 2103 2103 2103 2116 2116 2129 2116 2116 2116 2116 2129 2129 2116 2116 2908 2908 2908 2933 2908 2908 2908 2883 2883 2908 2908 2908 2908 2908 2908 2933 2933 2933 2933 2908 2908 2908 2908 2908 2065 2053 2053 2053 2053 2053 3433 3433 3468 3503 3539 3576 3614 3653 3653 3692 3732 3732 3774 3774 4349 4349 4349 4405 4405 4349 4349 4349 4349 4349 4349 4349 4349 4349 4349 4349 4349 0 1993 1993 1993 1993 1993 1993 1993 1993 1993 1993 1993 2005 0 0 0 0 0 0 0 0 6622 6622 6622 6622 6622 6497 6375 6375 6375 6259 6259 6375 6375 6375 6375 6259 5933 5734 5734 5832 5832 5832 5832 6038 6038 6146 6259 6375 6375 6375 6259 6259 6259 6259 6146 6038 6038 5933 5933 5832 5832 5933 5933 5933 6038 6146 6259 6375 6375 6497 6497 6375 6375 6375 6497 6497 6622 6753 6753 6753 6753 6622 6622 6622 6497 6497 6497 6497 6497 6497 6497 6497 6497 6497 6497 6375 6375 6375 6375 6375 6146 5832 5734 5734 5734 5734 5832 5832 6375 6497 6497 6375 6259 5734 5734 5832 5832 5832 5933 6038 6146 6259 6259 6259 6146 6146 6146 6146 4241 4241 4241 4241 4241 4190 4190 4190 4190 4139 4139 4089 4089 4089 4041 4041 4041 4041 4041 4041 3994 3994 3994 3994 3948 3948 3903 3903 3948 3903 3903 0 0 0 0 0 0 0 0 0 0 0 0
0 0 0 0 0 0 0 0 0 0 0 0 0 0 0 0 0 0 0 0 0 0 0 0 0 0 0 0 0 0 0 0 2958 2958 2984 2984 3010 3010 3010 3010 3010 3010 3010 3037 3037 3064 3064 3064 3092 3092 3092 3092 3120 3120 3120 3120 3149 3149 3149 3149 3178 3178 3208 3208 3208 3208 3208 3238 0 0 0 0 0 0 0 0 0 0 0 0 3300 3300 3300 3300 3300 0 3365 0 0 0 1496 1496 1496 1503 1503 1503 1503 1503 1503 1503 1503 1503 1503 1496 1496 1496 1483 1483 1477 1477 1477 1477 1470 1464 1464 1464 1464 1458 1458 1458 1458 1458 1458 1458 1458 1458 1458 1458 1458 1452 1452 1452 1452 1452 1445 1445 1439 1439 1439 1439 1439 1439 1433 1433 1433 1433 1433 1433 1433 1433 1433 1433 1433 1433 1427 1427 1421 1421 1421 1415 1410 1410 1415 1415 1410 1410 1410 1410 1404 1404 1404 1404 1404 1404 1404 1398 1398 1398 1398 1398 1398 1398 1398 1392 1392 1398 1398 1398 1404 1404 1404 1410 1410 1415 1415 1415 2065 2065 2065 2053 2053 2053 2053 2053 2053 2053 2053 2078 2078 2078 2090 2090 2090 2090 2090 2103 2103 2103 2103 1268 1268 1268 1268 1273 1273 1278 1278 1278 1278 1278 1278 1278 1283 1283 1288 1292 1292 1297 1297 2156 2143 2129 2116 2103 2090 2090 2090 2090 2090 2090 2103 2103 2090 2090 2090 2090 2090 2090 2103 2103 2116 2116 2116 2116 2103 2103 2103 2103 2103 2116 2116 2116 2129 2129 2129 2129 2116 2116 2116 2116 2129 2129 2129 2129 2129 2129 2129 2129 2129 2129 2129 2129 2129 2129 2116 2116 2103 2103 2286 2301 2301 2301 2301 2301 2286 2129 2129 2212 2241 2241 2241 2241 2241 2256 2256 2271 2226 2226 2241 2241 2241 2241 2241 2241 2241 2226 2226 2226 2226 2226 2226 2226 2226 2226 2226 2256 2271 3092 3092 3092 3064 3064 3064 3064 3092 3092 3092 3092 3064 3064 3064 3064 3064 3064 3037 3037 3064 3064 3064 3064 3092 3092 3092 3092 3092 3092 3092 3092 3092 3092 3092 3120 3120 3092 3092 3092 3037 3010 3010 3010 3010 3010 2984 2984 2984 2984 2984 2984 2958 2958 2958 2958 2103 2103 2103 2103 2116 2116 2129 2116 2116 2116 2116 2129 2129 2116 2116 2116 2908 2908 2933 2908 2908 2908 2116 2116 2116 2116 2908 2958 2933 2933 2933 2933 2933 2933 2908 2090 2090 2090 2065 2065 2053 2053 2053 2053 2053 3433 3433 3468 3468 3539 3576 3614 3653 3692 3692 3732 3774 3774 3774 4349 4349 4405 4405 4405 4405 4405 4405 4405 4405 4405 4405 4349 4349 4349 4349 4349 0 0 1993 1993 1993 1993 1993 1993 1993 1993 1993 1993 2005 0 0 0 0 0 0 6889 6753 6497 6497 6622 6622 6497 6375 6375 6259 6259 6259 6146 6146 6146 6146 6038 6038 5832 5734 5734 5832 5832 5832 5832 6038 6146 6146 6259 6259 6375 6375 6259 6259 6259 6259 6146 6038 5933 5933 5933 5933 5933 5933 5933 6038 6146 6375 6375 6375 6375 6375 6375 6375 6375 6375 6375 6497 6622 6753 6753 6889 6889 6622 6622 6622 6497 6497 6497 6497 6497 6497 6497 6497 6375 6375 6497 6375 6375 6497 6375 6375 6375 6375 6375 5734 5734 5734 5734 5832 6375 6497 6497 6375 6259 5734 5734 5832 5933 5933 6038 6259 6259 6259 6375 6259 6259 6146 6146 6146 4241 4241 4241 4241 4190 4190 4190 4190 4190 4139 4139 4089 4041 4041 4041 4041 4041 4041 4041 4041 3994 3994 3994 3994 3948 3948 3948 3948 3948 3948 3948 0 0 0 0 0 0 0 0 0 0 0 0
0 0 0 0 0 0 0 0 0 0 0 0 0 0 0 0 0 0 0 0 0 0 0 0 0 0 0 0 0 0 0 0 2958 2958 2984 2984 3010 3010 3010 3010 3010 3010 3010 3037 3037 3064 3064 3064 3092 3092 3120 3120 3120 3120 3120 3120 3149 3149 3178 3178 3178 3208 3208 3208 3208 3208 3208 0 0 0 0 0 0 0 0 0 0 0 0 0 3300 3300 3300 3300 3300 3365 0 0 0 0 1496 1496 1496 1503 1503 1503 1503 1503 1503 1503 1509 1509 1509 1503 1503 1496 1483 1483 1477 1477 1477 1477 1470 1470 1470 1470 1470 1464 1458 1458 1458 1458 1458 1458 1458 1458 1458 1458 1458 1458 1452 1452 1452 1452 1445 1445 1439 1439 1445 1445 1439 1439 1439 1439 1439 1433 1433 1433 1433 1433 1433 1433 1433 1433 1433 1427 1427 1427 1421 1421 1415 1415 1415 1421 1415 1415 1410 1410 1410 1410 1410 1404 1404 1404 1404 1404 1404 1398 1398 1398 1398 1398 1398 1398 1398 1398 1398 1404 1404 1404 1404 1410 1410 1415 1415 1415 2040 2040 2040 2040 2040 2040 2040 2040 2040 2040 2040 2040 2078 2078 2078 2078 2078 2078 2090 2090 2103 2103 0 1273 1268 1268 1268 1273 1273 1278 1278 1278 1278 1278 1278 1278 1278 1278 1283 1288 1292 1292 1297 2143 2129 2116 2103 2103 2090 2090 2090 2090 2090 2090 2078 2078 2065 2065 2078 2078 2078 2078 2090 2090 2090 2103 2090 2090 2078 2078 2078 2090 2090 2090 2103 2103 2116 2103 2103 2103 2103 2103 2103 2103 2103 2116 2103 2103 2116 2116 2116 2116 2116 2116 2129 2129 2129 2129 2116 2090 2090 2090 2116 2301 2103 2103 2116 2116 2116 2116 2116 2129 2170 2212 2212 2241 2241 2256 2256 2170 2170 2212 2226 2226 2241 2241 2241 2241 2226 2226 2226 2212 2198 2198 2198 2198 2212 2198 2116 2116 3092 3092 3092 3092 3064 3064 3064 3064 3092 3092 3092 3092 3064 3064 3064 3064 3064 3064 3064 3064 3064 3064 3064 3064 3092 3092 3092 3092 3092 3092 3092 3092 3092 3092 3092 3120 3120 3092 3092 3092 3092 3037 3010 3010 3010 3010 2984 2984 2984 2984 2984 2984 2958 2958 2958 2958 2116 2103 2103 2103 2116 2116 2129 2129 2129 2116 2116 2129 2129 2116 2116 2116 2116 2908 2908 2908 2908 2116 2116 2116 2116 2103 2090 2090 2090 2090 2090 2090 2090 2090 2090 2090 2090 2090 2065 2065 2065 2053 2053 2053 2053 2065 3433 3468 3468 3539 3576 3614 3653 3692 3732 3732 3774 3774 3774 4405 4405 4405 4463 4463 4463 4405 4405 4405 4405 4405 4405 4349 4349 4349 4349 0 1993 1993 1993 1993 1993 1993 1993 1993 1993 1993 1993 1993 2005 0 0 0 0 0 0 6889 6753 6497 6497 6497 6622 6497 6375 6375 6259 6259 6259 6146 6146 6146 6038 6038 6038 5832 5734 5734 5734 5734 5832 5832 6038 6146 6146 6259 6259 6259 6259 6259 6259 6375 6259 6146 6038 5933 5933 5933 5933 5933 5933 5933 6038 6146 6375 6146 6146 6146 6146 6146 6146 6146 6259 6375 6375 6753 6753 6753 6753 6753 6497 6497 6497 6375 6259 6259 6375 6375 6497 6497 6497 6375 6375 6375 0 6375 6038 0 5640 5640 5640 5640 5640 5734 5734 5734 5734 6375 6497 6375 6375 6375 0 0 0 6146 6146 6146 6259 6259 6375 6375 6259 6259 6259 6375 4190 4190 4241 4241 4241 4190 4190 4190 4190 4190 4139 4139 4089 4041 4041 4041 4041 4041 4041 4041 4041 4041 4041 4041 3994 3994 3994 3994 3994 3948 3948 3948 0 0 0 0 0 0 0 0 0 0 0 0
0 0 0 0 0 0 0 0 0 0 0 0 0 0 0 0 0 0 0 0 0 0 0 0 0 0 0 0 0 0 0 0 2958 2958 2984 2984 3010 3010 3010 3037 3037 3037 3037 3037 3064 3064 3064 3064 3092 3092 3120 3120 3120 3120 3120 3120 3149 3149 3178 3178 3208 3208 3208 3208 3208 3208 3208 0 0 0 0 0 0 0 0 0 0 0 0 0 3300 3300 3300 3300 3300 3333 0 0 0 0 1496 1496 1496 1503 1503 1503 1503 1509 1503 1503 1509 1509 1509 1509 1509 1496 1489 1483 1477 1477 1477 1477 1477 1470 1470 1470 1470 1470 1470 1464 1464 1464 1464 1458 1458 1458 1458 1458 1458 1458 1458 1452 1452 1452 1452 1445 1445 1445 1445 1445 1439 1439 1439 1439 1439 1439 1433 1433 1433 1433 1433 1433 1433 1433 1433 1427 1427 1427 1427 1427 1415 1415 1421 1421 1421 1421 1415 1415 1410 1410 1410 1410 1410 1404 1404 1404 1404 1404 1404 1404 1398 1398 1398 1398 1398 1398 1398 1404 1404 1404 1404 1410 1415 1415 1415 1421 0 2040 2040 2028 2028 2028 2028 2028 2028 2028 2028 2028 2040 2053 2065 2065 2065 2078 2078 2090 2090 2090 0 1273 1273 1268 1268 1273 1278 1278 1278 1278 1273 1273 1278 1278 1278 1278 1283 1283 1288 1292 1292 1292 2129 2116 2103 2103 2090 2090 2078 2078 2078 2078 2065 2053 2053 2053 2065 2065 2065 2078 2078 2078 2078 2078 2078 2078 2065 2065 2065 2078 2078 2078 2078 2090 2090 2090 2090 2090 2090 2090 2078 2078 2090 2090 2090 2090 2090 2103 2116 2103 2103 2116 2116 2116 2116 2116 2090 2090 2090 2090 2090 2090 2090 2103 2103 2103 2103 2103 2103 2103 2116 2103 2103 2103 2103 2103 2103 2103 2103 2143 2143 2212 2212 2226 2226 2226 2226 2184 2156 2129 2129 2143 2143 2143 2129 2129 2116 2116 2116 2116 2116 3092 3064 3064 3064 3064 3092 3092 3092 3064 3064 3064 3064 3064 3064 3064 3064 3064 3064 3064 3064 3092 3092 3092 3092 3092 3092 3092 3092 3092 3092 3092 3092 3120 3092 3092 3092 3092 3037 3037 3010 3010 3010 3010 2984 2984 2984 2984 2984 2984 2984 2984 2984 2116 2116 2116 2116 2116 2116 2129 2129 2116 2116 2116 2116 2116 2116 2116 2116 2116 2103 2103 2116 2116 2116 2116 2116 2116 2103 2103 2090 2090 2090 2090 2090 2090 2090 2090 2090 2090 2090 2090 2078 2078 2065 2065 2065 2065 2065 2065 2065 3468 3468 3539 2053 2053 2040 2040 2040 2040 3774 3774 4463 4463 4463 4463 4463 4463 4463 4405 4405 4405 4405 4405 4405 4405 4405 4349 4349 4349 1993 1993 1993 1993 1993 1993 1993 1993 1993 1993 1993 1993 2005 0 0 0 0 0 0 0 6753 6497 6375 6375 6497 6497 6497 6375 6259 6259 6259 6259 6146 6146 6038 6038 6038 5832 5734 5734 5734 5734 5832 5832 6038 6146 6146 6259 6259 6259 6259 6259 6259 6259 6259 6146 6038 5933 5933 5933 5933 5933 6038 6038 6038 6146 6375 6146 6146 6146 6146 6146 6146 6146 6259 6259 6259 6622 6622 6622 6622 6622 6375 6375 6375 6375 6259 6259 6375 6375 6497 6497 6497 0 0 0 0 0 0 0 0 0 0 5640 5640 5640 5640 5734 5734 6497 6497 6375 6375 0 0 0 0 6146 6146 6146 6259 6259 6259 6375 6259 6259 6259 6259 4190 4190 4241 4241 4241 4241 4190 4190 4190 4190 4139 4089 4089 4041 4041 4041 4041 4089 4041 4041 4041 4089 4041 4041 3994 3994 4041 4041 3994 3994 3994 3994 0 0 0 0 0 0 0 0 0 0 0 0
0 0 0 0 0 0 0 0 0 0 0 0 0 0 0 0 0 0 0 0 0 0 0 0 0 0 0 0 0 0 0 0 2958 2958 2984 2984 3010 3010 3010 3037 3037 3037 3037 3037 3064 3064 3064 3064 3092 3092 3092 3092 3092 3092 3120 3120 3149 3149 3208 3208 3208 3208 3208 3208 3208 3208 0 0 0 0 0 0 0 0 0 0 0 0 0 0 3300 3300 3300 3300 3300 3333 0 0 0 0 1496 1496 1496 1503 1503 1503 1509 1509 1509 1509 1509 1509 1509 1516 1516 1509 1503 1483 1483 1477 1477 1477 1477 1477 1477 1477 1477 1477 1470 1470 1470 1464 1464 1458 1458 1458 1458 1458 1458 1458 1458 1458 1452 1452 1452 1452 1445 1445 1445 1445 1445 1445 1445 1445 1439 1439 1433 1433 1433 1433 1433 1433 1433 1433 1433 1433 1427 1427 1427 1427 1421 1421 1421 1421 1421 1421 1415 1415 1415 1415 1415 1415 1410 1404 1404 1410 1410 1404 1404 1404 1404 1398 1398 1398 1398 1398 1398 1404 1404 1410 1410 1415 1421 1421 1421 1421 1993 2016 2016 2016 2016 2016 2016 2016 2016 2016 2016 2016 2016 2028 2040 2040 2040 2040 2040 0 1981 1981 0 0 1273 1273 1273 1273 1278 1278 1278 1278 1273 1273 1278 1278 1278 1278 1283 1283 1288 1288 1288 1288 2143 2143 2103 2090 2078 2053 2053 2053 2065 2053 2040 2040 2040 2040 2040 2040 2040 2065 2065 2065 2065 2065 2065 2065 2065 2065 2065 2065 2065 2078 2078 2078 2078 2078 2078 2078 2078 2078 2078 2078 2078 2078 2090 2078 2078 2090 2090 2090 2090 2090 2103 2103 2103 2103 2078 2078 2078 2078 2078 2078 2078 2090 2090 2103 2090 2090 2090 2090 2103 2090 2090 2090 2090 2090 2103 2103 2103 2116 2116 2156 2212 2103 2103 2226 2116 2116 2116 2116 2103 2103 2116 2116 2103 2103 2103 2103 2090 2090 2065 2065 2103 3092 3092 3092 3092 3092 3092 3064 3064 3064 3064 3064 3064 3064 3064 3064 3064 3064 3092 3092 3092 3092 3092 3092 3092 3092 3092 3092 3092 3092 3092 3092 3092 3092 3092 3092 3037 3037 3010 3010 3010 3010 3010 2984 2984 2984 2984 2984 2984 2984 2984 2116 2116 2116 2116 2116 2116 2129 2129 2116 2116 2116 2116 2116 2116 2116 2116 2116 2103 2103 2116 2116 2116 2103 2103 2103 2103 2103 2090 2090 2090 2090 2090 2090 2090 2090 2090 2090 2090 2090 2078 2078 2078 2065 2065 2065 2065 2065 2065 2078 2065 2053 2053 2053 2040 2040 2040 2040 2028 2028 2028 2040 2028 2028 4463 4463 4463 4463 4405 4405 4405 4405 4405 4405 4405 4405 4405 4405 1993 1993 1993 1993 1993 1993 1993 1993 1993 1993 1993 2005 2005 0 0 0 0 0 0 0 0 0 6259 6259 6497 6497 6375 6375 6259 6259 6146 6146 6146 6038 6038 6038 6038 5832 5734 5734 5734 5832 5832 6038 6146 6146 6259 6259 6375 6259 6146 6146 6146 6146 6259 6146 6038 6038 6038 6038 6038 6038 6038 6038 6038 6146 6375 6146 6146 6146 6146 6146 6146 6146 6259 6259 6622 6622 6622 6622 6622 6622 6375 6375 6259 6259 6259 6259 6375 6497 6497 0 0 0 0 0 6038 6038 0 0 5640 5640 5548 5640 5640 5640 5640 5734 5832 0 0 0 0 0 0 0 0 0 6146 6146 6259 6259 6259 6375 6375 6622 6622 4190 4190 4190 4241 4241 4241 4241 4190 4190 4190 4139 4139 4089 4089 4041 4041 4041 4041 4089 4041 4041 4041 4041 4041 4041 3994 3994 4041 4041 3994 3994 3994 3994 0 0 0 0 0 0 0 0 0 0 0 0
0 0 0 0 0 0 0 0 0 0 0 0 0 0 0 0 0 0 0 0 0 0 0 0 0 0 0 0 0 0 0 0 2958 2958 2984 2984 3010 3010 3037 3037 3037 3037 3064 3064 3064 3064 3064 3064 3092 3092 3092 3092 3092 3092 3092 3120 0 0 0 3208 3208 3208 3208 3208 3208 3208 0 0 0 0 0 0 0 0 0 0 0 0 0 0 0 3300 3300 3300 3333 3365 3365 0 0 0 1496 1496 1503 1503 1503 1503 1509 1509 1509 1509 1509 1509 1509 1523 1523 1516 1516 1483 1483 1477 1477 1477 1477 1477 1477 1477 1477 1477 1477 1470 1470 1464 1464 1458 1458 1458 1458 1458 1458 1458 1458 1458 1452 1452 1452 1452 1452 1452 1452 1452 1452 1445 1445 1445 1445 1439 1439 1439 1439 1439 1433 1433 1433 1433 1433 1433 1433 1433 1433 1433 1421 1421 1421 1421 1421 1421 1415 1415 1415 1415 1415 1415 1410 1410 1410 1410 1410 1404 1404 1404 1404 1398 1398 1398 1398 1398 1398 1404 1404 1410 1410 1415 1421 1421 1421 1421 1993 1993 1993 1993 1993 1993 1993 1993 1993 1993 1993 1993 1993 1993 1993 1981 1981 1981 1970 1970 1981 1981 1970 0 1273 1273 1273 1273 1278 1278 1278 1278 1273 1273 1278 1278 1278 1278 1283 1283 1288 1288 1288 1288 1292 2212 2212 2090 2065 2040 2040 1268 1264 1264 2028 2028 1255 1255 1255 2040 2040 2040 2053 2053 2053 2040 2040 2040 2053 2053 2065 2065 2065 2078 2078 2078 2065 2065 2065 2065 2065 2065 2065 2065 2065 2078 2078 2065 2065 2078 2078 2078 2078 2078 2078 2078 2078 2078 2065 2065 2065 2078 2078 2078 2078 2078 2090 2078 2078 2078 2078 2078 2090 2078 2078 2090 2090 2090 2103 2103 2103 2116 2116 2116 2103 2090 2090 2090 2090 2103 2103 2103 2103 2103 2103 2090 2090 2090 2090 2078 2078 2078 2065 2065 2065 2065 2065 2065 2065 2078 3092 3092 3064 3064 3064 3064 3064 3064 3064 3092 3092 3092 3092 3092 3092 3092 3092 3092 3092 3092 3092 3092 3092 3092 3092 3092 3092 3092 3092 3092 3037 3010 3010 3010 3010 2984 2984 2984 2984 2984 2984 2958 2958 2958 2958 2116 2116 2116 2116 2116 2129 2129 2129 2116 2116 2116 2116 2116 2116 2103 2103 2116 2103 2103 2103 2116 2116 2103 2103 2103 2103 2103 2090 2090 2090 2090 2090 2090 2090 2090 2090 2090 2090 2090 2078 2078 2078 2078 2078 2078 2078 2065 2065 2078 2065 2053 2053 2053 2053 2053 2040 2040 2028 2028 2028 2040 2028 2028 2040 4463 4463 4463 4405 4405 4405 4463 4463 4405 4405 4405 4405 1981 1993 1993 1993 1993 1993 1993 1993 1993 1993 2005 2005 2005 2016 0 0 0 0 0 0 0 0 0 6146 6146 6146 6375 6375 6259 6146 6146 6146 6146 6146 6038 6038 6038 6038 5832 5832 5734 5734 5734 5832 5832 6038 6146 6146 6259 6259 6259 6146 6146 6146 6146 6146 6146 6038 6038 6038 6038 6038 6038 6038 6038 6038 6146 6146 6146 6375 6375 6146 6146 6038 6038 6146 6146 6622 6622 6622 6622 6622 6622 6375 6375 6146 6146 6146 6146 6375 0 6375 6146 6146 6038 6038 6038 6038 6038 6038 6038 5640 5640 5548 5548 5640 5640 5640 5734 5832 0 0 0 0 0 0 0 0 0 0 0 6259 6259 6259 6375 6375 0 4190 4190 4190 4190 4241 4241 4241 4190 4190 4190 4190 4139 4139 4089 4089 4041 4041 4041 4041 4089 4041 4041 4041 4041 4041 4041 3994 3994 4041 4041 3994 3994 3994 3994 0 0 0 0 0 0 0 0 0 0 0 0
0 0 0 0 0 0 0 0 0 0 0 0 0 0 0 0 0 0 0 0 0 0 0 0 0 0 0 0 0 0 0 0 2958 2958 2984 2984 3010 3010 3037 3064 3064 3064 3064 3064 3064 3064 0 3092 3092 0 0 0 3092 3092 3092 0 0 0 0 0 3208 3208 3208 3208 3208 3208 0 0 0 0 0 0 0 0 0 0 0 0 0 0 3300 3300 3300 3300 3333 3365 3365 0 0 0 0 1496 1496 1503 1503 1503 1509 1509 1509 1509 1509 1509 1509 1523 1523 1523 1523 1489 1483 1477 1477 1470 1470 1470 1477 1477 1483 1483 1483 1483 1483 1477 1477 1464 1464 1458 1458 1458 1458 1458 1458 1458 1458 1458 1452 1452 1452 1452 1452 1452 1452 1452 1452 1452 1445 1445 1439 1439 1439 1439 1433 1433 1433 1433 1433 1433 1433 1433 1433 1433 1427 1421 1421 1421 1421 1421 1421 1421 1421 1421 1421 1415 1415 1415 1410 1410 1410 1410 1404 1404 1404 1398 1398 1398 1398 1398 1398 1404 1404 1410 1410 1415 1421 1421 1421 1427 1947 1947 1959 1959 1959 1959 1970 1970 1970 1970 1970 1959 1959 1970 1970 1959 1947 1947 1959 1959 1970 1970 1970 1273 1273 1273 1273 1273 1278 1278 1273 1273 1273 1273 1278 1278 1278 1278 1283 1283 1288 1288 1288 1288 1283 1283 1283 1278 1278 1273 1273 1268 1264 1255 1255 1250 1250 1255 1255 1255 1241 1241 2040 2040 2040 2040 2040 2040 2053 1236 1236 1241 1236 1236 1236 1236 2065 2053 2053 2065 2065 2065 2053 2053 2065 2065 2065 2065 2065 2065 2065 2065 2065 2065 2065 2065 2065 2053 2053 2053 2053 2065 2065 2065 2065 2065 2078 2078 2078 2065 2065 2065 2078 2065 2065 2078 2078 2078 2078 2090 2090 2090 2090 2090 2090 2090 2090 2078 2078 2090 2090 2090 2090 2090 2090 2078 2078 2078 2078 2078 2065 2065 2065 2065 2065 2053 2053 2053 2065 2065 2065 2065 2065 2078 3037 3037 3037 3037 3037 3064 3092 3092 3092 3092 3092 3092 3092 3092 3092 3092 3092 3092 3092 3092 3120 3092 3092 3092 3092 3064 3037 3010 3010 2984 2984 2984 2984 2984 2984 2984 2984 2958 2958 2958 2958 2116 2116 2116 2116 2129 2129 2129 2129 2129 2129 2116 2116 2116 2116 2103 2103 2116 2103 2103 2103 2116 2116 2103 2103 2103 2103 2103 2103 2103 2103 2103 2090 2090 2090 2090 2090 2090 2090 2090 2090 2078 2078 2078 2078 2078 2078 2078 2078 2078 2078 2053 2053 2053 2053 2053 2040 2040 2040 2040 2040 2040 2040 2040 2040 2040 4463 4463 4463 4463 4463 4463 4522 4463 4463 4463 4582 1981 1981 1981 1993 1993 1993 1993 1993 2005 2005 2005 2005 2005 2016 0 0 0 0 0 0 0 0 6146 6146 6146 6146 6146 6259 6259 6146 6146 6146 6146 6146 6146 6038 6038 6038 5832 5734 5734 5734 5734 5734 5734 6038 6146 6146 6146 6146 6146 6038 6038 6146 6146 6146 6146 6038 6038 6038 6038 6038 6038 6038 6038 6038 6146 6146 6146 6146 6038 6038 6038 6038 6038 6146 6146 6622 6622 6622 6622 6622 6622 6375 6375 6146 6146 6146 6146 6146 6038 0 6038 6146 6146 6038 6038 6038 6038 6038 6038 5933 5640 5548 5548 5640 5640 5640 5734 5933 0 0 0 0 0 0 0 0 0 0 0 0 0 0 0 0 0 4190 4190 4190 4190 4241 4241 4190 4190 4190 4190 4190 4139 4089 4041 4041 4041 4041 4041 4041 4041 4041 4041 4041 4041 4041 4041 4041 4041 4089 4089 4041 3994 3994 4041 0 0 0 0 0 0 0 0 0 0 0 0
0 0 0 0 0 0 0 0 0 0 0 0 0 0 0 0 0 0 0 0 0 0 0 0 0 0 0 0 0 0 0 0 2958 2958 2958 2984 3010 3010 3037 3064 3064 3064 3064 3064 3064 0 0 0 0 0 0 0 0 0 0 0 0 0 0 0 3238 3238 3208 3208 3208 3208 3238 0 0 0 0 0 0 0 0 0 0 0 0 0 3300 3300 3300 3300 3333 3333 3333 0 0 0 0 1496 1496 1503 1503 1509 1509 1509 1509 1509 1516 1509 1509 1523 1523 1529 1529 1529 1529 1529 1477 1470 1470 1470 1477 1483 1483 1483 1483 1483 1483 1483 1483 1464 1464 1458 1458 1458 1458 1458 1458 1458 1458 1458 1458 1452 1452 1452 1452 1452 1452 1452 1452 1452 1445 1445 1439 1439 1439 1439 1439 1439 1439 1439 1433 1433 1433 1433 1433 1433 1427 1427 1427 1421 1421 1421 1421 1421 1421 1421 1421 1421 1415 1415 1410 1410 1410 1410 1404 1404 1404 1404 1404 1404 1398 1398 1404 1404 1404 1410 1415 1421 1421 1421 1421 1427 1947 1947 1959 1959 1947 1947 1947 1947 1947 1947 1947 1936 1936 1947 1947 1947 1936 1936 1947 1959 1970 1970 0 1273 1273 1273 1273 1273 1278 1278 1273 1273 1273 1273 1278 1278 1278 1278 1278 1278 1283 1283 1283 1283 1278 1278 1278 1273 1273 1273 1273 1268 1264 1255 1255 1250 1250 1255 1245 1245 1241 1236 1236 1232 1232 1232 1232 1232 1236 1236 1236 1236 1236 1236 1236 1236 1236 1236 2053 2053 2065 2065 2053 2053 2053 2065 2065 2053 2053 2065 2065 2053 2053 2053 2053 2053 2040 2040 2040 2040 2040 2040 2040 2040 2053 2053 2053 2065 2065 2065 2053 2053 2053 2053 2053 2053 2065 2065 2078 2078 2078 2078 2078 2078 2065 2065 2078 2078 2078 2078 2078 2078 2078 2078 2078 2078 2078 2078 2078 2065 2065 2065 2065 2053 2053 2053 2053 2053 2053 2065 2065 2065 2065 2078 2078 2065 2065 2065 3037 3064 3092 3092 3092 3092 3092 2065 2065 2065 2065 2065 2065 3120 3120 3120 3120 3092 3092 3092 3092 3037 3037 3010 3010 2984 2984 2984 2984 2984 2984 2984 2958 2958 2958 2958 2958 2116 2116 2116 2129 2129 2129 2129 2129 2129 2129 2129 2116 2116 2116 2116 2116 2116 2116 2116 2116 2116 2116 2103 2103 2103 2103 2103 2103 2103 2103 2103 2103 2103 2103 2090 2090 2090 2090 2090 2090 2090 2078 2078 2078 2078 2078 2078 2078 2078 2078 2053 2053 2053 2053 2053 2053 2053 2053 2040 2040 2040 2040 2040 2040 2040 4463 4522 4463 4463 4463 4522 4522 4522 4522 4582 4582 1981 1981 1981 1993 1993 1993 1993 1993 2005 2005 2005 2005 2005 2005 0 0 0 0 0 0 0 0 6146 6038 6038 6038 5832 5832 5734 0 0 6146 6146 6146 6146 6038 6038 5933 5832 5734 5734 5734 5734 5734 5734 5734 6146 6146 6146 6146 6146 6038 6038 6038 6038 6038 6038 5933 5933 5933 5933 5933 5933 5933 5933 6038 6038 6038 6038 6038 6038 6038 6038 6038 6038 6146 6146 0 6622 6622 6622 6622 6622 6146 6146 6038 6038 6038 6038 6038 6038 0 0 6038 6038 6038 6038 6038 5933 5933 5933 5832 5640 5548 5548 5640 5640 5734 5832 5933 0 0 0 0 0 0 0 0 0 0 0 0 0 0 0 0 0 4190 4190 4190 4241 4241 4241 4190 4190 4190 4190 4190 4139 4089 4041 4041 4041 4041 4041 4041 4041 4041 4041 4041 4041 4041 4041 4041 4041 4041 4089 4089 4041 4041 4041 0 0 0 0 0 0 0 0 0 0 0 0
0 0 0 0 0 0 0 0 0 0 0 0 0 0 0 0 0 0 0 0 0 0 0 0 0 0 0 0 0 0 0 0 2958 2958 2958 2984 2984 3010 3064 3092 3064 3064 3092 3092 0 0 0 0 0 0 0 0 0 0 0 0 0 0 0 0 3238 3238 3238 3238 3238 3238 3238 3238 0 0 0 0 0 4645 4582 4582 4582 4582 4645 4645 3300 3300 3300 3300 3333 3333 3333 0 0 0 0 1503 1503 1509 1509 1509 1509 1509 1509 1509 1516 1509 1509 1523 1523 1529 1529 1529 1529 1529 1477 1477 1477 1477 1477 1483 1483 1483 1483 1483 0 0 1483 1470 1464 1464 1464 1458 1458 1458 1458 1458 1458 1458 1458 1452 1452 1452 1452 1452 1452 1452 1452 1445 1445 1445 1445 1439 1439 1439 1439 1439 1439 1439 1433 1433 1433 1433 1433 1433 1427 1427 1427 1421 1421 1421 1421 1421 1421 1421 1421 1421 1421 1415 1415 1410 1410 1410 1404 1404 1404 1404 1404 1404 1404 1404 1404 1404 1404 1410 1415 1421 1421 1427 1427 1427 1427 1947 1936 1936 1936 1936 1936 1936 1936 1936 1936 1926 1926 1936 1936 1936 1936 1936 1936 1947 1970 1970 1970 1273 1273 1273 1273 1278 1278 1278 1278 1278 1278 1278 1278 1278 1278 1278 1278 1278 1278 1278 1278 1278 1278 1278 1278 1273 1273 1273 1273 1264 1264 1255 1255 1250 1250 1250 1245 1245 1241 1236 1236 1232 1232 1232 1232 1232 1236 1236 1236 1236 1236 1236 1232 1232 1232 1227 1227 1227 1227 1232 1223 1223 1227 1227 2053 2040 2040 2053 2053 2053 2053 2040 2040 2028 2028 2028 2028 2040 2028 2028 2040 2040 2040 2040 2040 2028 2028 2040 2040 2040 2040 2040 2040 2053 2053 2065 2065 2065 2065 2065 2065 2065 2053 2053 2053 2053 2065 2065 2065 2065 2065 2065 2065 2065 2065 2065 2065 2053 2053 2053 2053 2053 2053 2053 2053 2053 2053 2053 2053 2053 2065 2065 2065 2065 2065 2065 2065 2065 2065 2065 2065 2065 2065 2065 2065 2065 2065 2065 2065 2065 2065 3120 3120 3120 3092 3092 3092 3037 3037 3010 3010 2984 2984 2984 2984 2984 2984 2958 2958 2958 2958 2958 2958 2958 2116 2116 2129 2129 2129 2129 2129 2129 2129 2129 2116 2116 2129 2116 2116 2116 2116 2116 2116 2116 2116 2103 2103 2103 2103 2103 2103 2103 2103 2103 2103 2103 2103 2090 2090 2090 2090 2090 2090 2090 2078 2078 2078 2078 2078 2078 2078 2078 2065 2065 2065 2053 2053 2053 2053 2053 2053 2053 2053 2053 2053 2040 2040 2040 2040 2040 4463 4463 4522 4522 4522 4522 4582 4582 4582 2028 1993 1993 1993 1993 1993 1993 1993 2005 2005 2005 2005 2005 2005 0 0 0 0 0 0 0 0 6038 5933 5832 5832 5832 5734 0 0 0 6146 6146 6038 6038 5933 5933 5933 5832 5734 5734 5734 5734 5734 5734 5734 6146 6146 6146 6146 6146 6038 5832 5832 5832 5832 5832 5832 5933 5933 5933 5933 5933 5933 5933 6038 6038 6038 6038 0 6038 6038 6038 6038 6038 6038 6146 0 0 0 0 0 0 6038 6038 5933 5933 6038 5933 5933 0 0 0 6038 6038 6038 6038 6038 5933 5832 5734 5640 5640 5640 5640 5640 5734 5734 5832 5933 0 0 0 0 0 0 0 0 0 0 0 0 0 0 0 0 0 4190 4190 4241 4241 4241 4190 4190 4190 4190 4190 4190 4139 4089 4089 4041 4041 4041 4041 4041 4041 4041 4041 4041 4041 4041 4041 3994 3994 4041 4089 4089 4041 4041 4089 0 0 0 0 0 0 0 0 0 0 0 0
0 0 0 0 0 0 0 0 0 0 0 0 0 0 0 0 0 0 0 0 0 0 0 0 0 0 0 0 0 0 0 0 0 0 0 2984 2984 3010 3092 3092 3064 3064 0 0 0 0 0 0 0 0 0 0 0 0 0 0 0 0 0 0 3238 3238 3238 3238 3238 3238 3238 3238 0 0 0 4582 4582 4582 4582 4582 4582 4582 4582 4582 3333 3333 3333 3333 3333 3333 3333 0 0 0 1509 1509 1509 1509 1516 1516 1509 1509 1509 1516 1516 1516 1516 1523 1529 1529 1529 1536 1536 1536 1536 1483 1483 1483 1483 1483 1489 0 0 0 0 0 1483 1477 1470 1470 1464 1458 1458 1458 1458 1458 1458 1458 1458 1452 1452 1452 1452 1445 1445 1445 1445 1445 1439 1439 1445 1439 1439 1445 1445 1439 1439 1439 1433 1433 1433 1427 1427 1433 1427 1427 1427 1427 1427 1421 1421 1421 1421 1421 1421 1421 1421 1421 1415 1415 1415 1415 1410 1410 1410 1404 1404 1404 1404 1404 1404 1404 1404 1410 1421 1421 1421 1427 1427 1427 1427 1947 1926 1926 1926 1915 1915 1915 1926 1926 1926 1915 1915 1926 1926 1926 1936 1936 1936 1947 1970 1970 1273 1268 1268 1268 1278 1278 1278 1278 1278 1278 1278 1278 1278 1278 1278 1278 1278 1278 1278 1278 1278 1278 1273 1273 1273 1268 1268 1268 1268 1259 1259 1255 1255 1255 1250 1250 1245 1245 1241 1236 1236 1232 1232 1232 1232 1232 1236 1236 1236 1236 1232 1232 1232 1232 1227 1227 1227 1227 1227 1227 1223 1223 1223 1223 1223 1223 1223 2040 1214 1214 1219 2040 1219 1219 1219 2028 2028 2028 2028 2028 2028 2028 2028 2028 2028 2028 2028 2028 2028 2040 2040 2040 2040 2040 2040 2040 2028 2028 2040 2028 2028 2040 2040 2040 2040 2040 2053 2053 2053 2053 2040 2040 2053 2053 2053 2040 2040 2040 2040 2040 2040 2040 2040 2040 2040 2040 2053 2053 2053 2053 2053 2053 2053 2053 2053 2053 2053 2053 2053 2053 2065 2053 2053 2065 2053 2053 2053 2053 2053 2053 2053 2053 2065 2053 2053 3092 3092 3037 3010 3010 3010 2984 2984 2984 2984 2984 2958 2958 2958 2958 2958 2958 2958 2129 2116 2116 2129 2129 2129 2129 2129 2129 2129 2129 2143 2129 2129 2129 2129 2129 2129 2129 2129 2116 2116 2103 2103 2103 2103 2103 2103 2103 2103 2103 2103 2103 2103 2090 2090 2090 2090 2090 2090 2090 2078 2078 2078 2078 2078 2078 2078 2078 2065 2065 2065 2053 2053 2053 2053 2053 2053 2053 2053 2053 2053 2040 2040 2040 2040 2040 2040 2028 2028 4522 4522 4582 4582 4645 4645 2028 1993 1993 1993 1993 2005 2005 2005 2005 2005 2005 2005 2005 2005 0 0 0 0 0 0 0 0 5933 5933 5832 5734 5734 0 0 0 0 0 0 6038 6038 5933 5933 5933 5933 5933 5933 5640 5640 5640 5734 0 5734 5734 5734 5933 5734 5734 5734 5734 5734 5734 5734 5734 5734 5832 5933 5933 5933 6146 6038 6038 6038 6038 6038 6038 6038 6038 6038 6038 6038 6038 0 0 0 0 0 0 0 5832 5832 5933 5933 6038 5933 5933 0 0 0 6038 6038 6038 6038 6038 5933 5832 5734 5640 5640 5640 5640 5734 5734 5832 5832 0 0 0 0 0 0 0 0 0 0 0 0 0 0 0 0 0 0 4190 4190 4241 4241 4241 4190 4190 4190 4190 4190 4139 4139 4139 4089 4041 4041 4041 4041 4041 4041 4041 4041 4041 4041 3994 3994 3994 3994 4041 4089 4089 4041 4041 4089 0 0 0 0 0 0 0 0 0 0 0 0
0 0 0 0 0 0 0 0 0 0 0 0 0 0 0 0 0 0 0 0 0 0 0 0 0 0 0 0 0 0 0 0 0 0 0 0 0 0 0 3092 3092 0 0 0 0 0 0 0 0 0 0 0 0 0 0 0 0 0 0 0 3238 3238 3238 3238 3238 3238 3238 3238 3238 0 4582 4582 4582 4582 4582 4582 4582 4582 4582 4582 3333 3333 3333 3333 3333 3333 3333 0 0 0 0 1509 1509 1509 1516 1516 1509 1509 1509 1516 1516 1516 1516 1523 1529 1529 1529 1536 1536 1536 1536 1483 1483 1483 0 0 0 0 0 0 0 0 0 0 0 0 0 1458 1458 1458 1458 1458 1458 1458 1458 1452 1452 1452 1452 1445 1445 1445 1445 1445 1439 1439 1439 1433 1433 1439 1445 1833 1833 1833 1433 1427 1427 1427 1427 1433 1427 1427 1427 1427 1427 1421 1421 1421 1421 1421 1421 1421 1421 1421 1421 1415 1415 1415 1410 1410 1410 1404 1404 1404 1404 1404 1404 1404 1410 1415 1421 1421 1421 1421 1421 1427 1427 1947 1904 1904 1904 1904 1904 1904 1915 1915 1915 1904 1904 1915 1926 1926 1926 1926 1936 1947 1947 1947 1273 1273 1268 1268 1278 1278 1278 1283 1283 1283 1283 1278 1278 1278 1278 1278 1278 1278 1278 1278 1278 1278 1273 1273 1273 1268 1268 1264 1264 1259 1259 1255 1255 1255 1250 1245 1245 1245 1241 1236 1236 1236 1236 1232 1232 1232 1236 1236 1236 1236 1232 1232 1232 1227 1227 1227 1223 1223 1223 1223 1223 1223 1223 1219 1219 1219 1219 1214 1214 1214 1214 1214 1214 1214 1214 1214 1210 1206 1206 1202 1202 1202 2016 2016 2016 2016 2016 2028 2028 2028 2016 2016 2028 2016 2016 2016 2005 2005 2016 2016 2016 2028 2028 2028 2028 2028 2028 2028 2040 2028 2028 2028 2028 2028 2040 2028 2028 2016 2016 2016 2016 2016 2016 2028 2028 2028 2040 2040 2040 2040 2053 2053 2053 2053 2053 2040 2028 2028 2028 2028 2028 2028 2028 2040 2040 2040 2053 2053 2053 2040 2040 2040 2053 2053 2053 2040 2040 2053 2053 2053 2040 2016 2016 2984 2984 2984 2958 2958 2958 2958 2958 2958 2958 2129 2116 2116 2143 2143 2143 2129 2129 2129 2129 2129 2143 2143 2129 2129 2129 2129 2129 2129 2129 2129 2116 2103 2103 2103 2103 2103 2103 2103 2103 2103 2103 2090 2090 2090 2090 2090 2090 2090 2090 2090 2078 2078 2078 2078 2078 2078 2078 2065 2065 2065 2065 2065 2053 2053 2053 2053 2053 2053 2053 2053 2053 2053 2053 2040 2040 2040 2040 2028 2028 2028 2040 2040 2028 2028 2028 2028 1993 1993 1993 1993 2005 2005 2005 2005 2005 2005 2005 2005 0 0 0 0 0 0 0 0 0 5933 5832 5734 5734 5640 5640 0 0 0 0 0 6038 6038 5832 5832 5933 5933 5640 5734 5640 5640 5640 5734 5734 5734 5734 5734 5933 5933 5734 5734 5734 5734 5734 5734 5734 5734 5734 5933 5832 5832 5832 5933 5933 5933 5933 5933 6038 6038 5933 5933 5933 5933 5933 0 0 0 0 0 0 0 5832 5832 5933 5933 6038 6038 0 0 0 0 6038 6038 6038 6038 6038 5933 5832 5734 5640 5640 5640 5640 5734 5734 5832 5933 0 0 0 0 0 0 0 0 0 0 0 0 0 0 0 0 0 0 4241 4241 4241 4241 4190 4190 4190 4190 4190 4190 4139 4139 4139 4089 4041 4041 4041 4041 4041 4041 4041 4041 4041 3994 3994 3994 3994 3994 4041 4041 4041 4041 4041 4089 0 0 0 0 0 0 0 0 0 0 0 0
0 0 0 0 0 0 0 0 0 0 0 0 0 0 0 0 0 0 0 0 0 0 0 0 0 0 0 0 0 0 0 0 0 0 0 0 0 0 0 0 0 0 0 0 0 0 0 0 0 0 0 0 0 0 0 0 0 0 0 0 3238 3238 3238 3238 3208 3208 3238 3238 3238 4522 4522 4522 4582 4522 4522 4522 4522 4522 4582 4582 4582 3333 3333 3333 3333 3300 3300 0 0 0 0 1523 1516 1516 1516 1516 1516 1516 1516 1516 1516 1516 1516 1529 1529 1529 1529 1536 1536 1536 0 0 0 0 0 0 0 0 0 0 0 0 0 0 0 0 0 0 0 0 0 1458 1458 1458 1458 1458 1452 1452 1452 1452 1445 1445 1445 1439 1433 1433 1433 1433 1433 1439 1823 1833 1833 1833 1433 1427 1427 1427 1427 1433 1427 1427 1427 1427 1427 1427 1427 1427 1427 1427 1427 1427 1421 1421 1415 1415 1415 1415 1410 1410 1410 1410 1404 1404 1404 1404 1404 1410 1410 1415 1421 1421 1421 1421 1421 1427 1427 1904 1904 1883 1883 1894 1894 1894 1894 1904 1904 1894 1894 1894 1904 1915 1915 1915 1915 1936 1936 0 1273 1273 1273 1273 1278 1283 1283 1283 1283 1283 1283 1278 1278 1278 1278 1278 1278 1278 1278 1278 1278 1273 1273 1273 1268 1268 1264 1264 1259 1255 1255 1255 1255 1255 1250 1245 1245 1245 1241 1236 1236 1236 1236 1232 1232 1232 1232 1232 1232 1232 1232 1232 1227 1227 1223 1223 1223 1223 1223 1219 1219 1219 1219 1219 1219 1219 1214 1214 1214 1214 1214 1214 1214 1214 1214 1210 1206 1206 1202 1202 1202 1202 1202 1202 1202 1202 1202 1202 2016 2016 2016 2016 2016 1993 1993 2005 1993 1993 1981 1981 1993 1993 1993 1993 1993 2016 2016 2016 2016 2016 2005 2005 2005 2005 2016 2016 2016 2005 2005 2005 2005 2005 2005 2016 2016 2016 2028 2028 2040 2040 2040 2040 2040 2040 2040 2016 2016 2016 2016 2016 2028 2028 2028 2028 2040 2040 2040 2053 2053 2040 2040 2040 2040 2053 2040 2040 2040 2040 2053 2053 2040 2016 2005 2005 2005 2005 2958 2958 2958 2958 2958 2958 2958 2958 2116 2116 2129 2129 2129 2116 2116 2116 2129 2129 2143 2143 2129 2129 2129 2129 2129 2129 2129 2129 2116 2103 2103 2103 2103 2103 2103 2103 2103 2103 2103 2090 2090 2090 2090 2090 2090 2090 2090 2090 2078 2078 2078 2078 2078 2078 2078 2065 2065 2065 2065 2053 2053 2053 2053 2053 2053 2053 2053 2053 2053 2053 2053 2040 2040 2040 2040 2028 2028 2028 2040 2040 2028 2028 2028 2028 2005 2005 2005 2005 2005 2005 2005 2005 2005 2005 2005 2005 0 0 0 0 0 0 0 0 0 5933 5832 5734 5734 5640 5640 0 0 0 0 0 6038 5734 5734 5734 5734 5640 5640 5734 5640 5640 5640 5734 5734 5734 5734 5734 5933 5832 5734 5734 5734 5734 5734 5734 5734 5734 5734 5832 5832 5832 5832 5832 5832 5832 5832 5832 5832 5832 5832 5832 5832 5832 5832 5832 0 0 0 0 0 0 5933 5933 0 0 0 0 0 0 0 5933 5933 6038 6038 6038 6038 5933 5734 5640 5640 5548 5548 5640 5640 5734 0 0 0 0 0 0 0 0 0 0 0 0 0 0 0 0 0 0 0 0 4241 4241 4241 4241 4190 4190 4190 4190 4190 4190 4139 4139 4139 4089 4041 4041 4041 4041 4041 4041 4041 4041 4041 3994 3994 3994 3994 3994 4041 4041 4041 4041 4041 0 0 0 0 0 0 0 0 0 0 0 0 0
0 0 0 0 0 0 0 0 0 0 0 0 0 0 0 0 0 0 0 0 0 0 0 0 0 0 0 0 0 0 0 0 0 0 0 0 0 0 0 0 0 0 0 0 0 0 0 0 0 0 0 0 0 0 0 0 0 0 0 0 3238 3238 3238 3208 3208 3208 3238 3238 3238 4522 4522 4522 4522 4522 4522 4522 4522 4522 4522 4522 4522 3333 3300 3300 3300 3300 3300 0 0 0 0 1523 1523 1523 1523 1523 1523 1516 1516 1523 1523 1523 1523 1529 1529 1529 1529 1536 1536 1536 0 0 0 0 0 0 0 0 0 0 0 0 0 0 0 0 0 0 0 0 0 0 1766 1766 1766 1766 1823 1823 1823 1823 1804 1804 1804 1439 1433 1433 1433 1433 1433 1823 1823 1833 1833 1833 1833 1833 1427 1427 1427 1433 1427 1427 1427 1427 1427 1427 1427 1427 1427 1427 1427 1427 1427 1421 1415 1415 1415 1415 1415 1410 1410 1410 1404 1404 1404 1404 1404 1410 1415 1415 1421 1421 1421 1421 1427 1427 1427 1853 1853 1863 1863 1873 1873 1873 1883 1883 1894 1894 1894 1894 1904 1894 1894 1894 1894 1894 1894 1853 1268 1268 1268 1278 1283 1283 1283 1283 1283 1283 1283 1278 1278 1283 1278 1278 1278 1278 1278 1278 1278 1273 1273 1273 1268 1268 1264 1264 1259 1255 1255 1250 1250 1250 1250 1245 1245 1245 1241 1236 1236 1236 1236 1236 1232 1232 1232 1232 1232 1232 1232 1232 1227 1223 1223 1223 1223 1223 1223 1219 1219 1219 1219 1219 1219 1214 1214 1214 1214 1214 1214 1214 1214 1214 1210 1210 1206 1206 1202 1202 1202 1202 1202 1202 1202 1202 1202 1202 1202 1202 1197 1197 1197 1197 1197 1197 1197 1197 1970 1970 1981 1981 1993 1981 1981 1981 1981 1981 1970 1970 1959 1959 1959 1970 1970 1970 1970 1970 1970 1981 1993 1993 2005 2005 2005 2016 2016 2016 2016 2016 2016 2016 2016 2016 2016 2005 2005 2005 2016 2016 2016 2016 2016 2016 2028 2028 2028 2040 2040 2028 2028 2028 2028 2040 2040 2040 2040 2040 2040 2040 2016 2005 2005 2005 1993 1981 1970 1970 1970 2016 2016 2016 2016 2016 2016 2090 2116 2129 2116 2116 2116 2116 2129 2129 2143 2143 2143 2129 2129 2129 2129 2116 2116 2116 2116 2103 2103 2103 2103 2103 2103 2103 2103 2103 2103 2103 2103 2090 2090 2090 2090 2090 2090 2090 2090 2078 2078 2078 2078 2078 2078 2065 2065 2065 2065 2053 2053 2053 2053 2053 2053 2053 2053 2053 2053 2053 2053 2040 2040 2040 2040 2040 2040 2040 2040 2028 2028 2028 2028 2016 2005 2005 2005 2005 2005 2005 2005 2005 2005 2005 1993 1993 0 0 0 0 0 0 0 0 0 5933 5832 5832 5734 5734 0 0 0 0 0 0 5933 5734 5734 5734 5734 5640 5640 5640 5640 5640 5734 5734 5734 5734 5734 5734 5832 5832 5734 5734 5734 5734 5734 5734 5734 5734 5734 5832 5832 5832 5832 5832 5832 5832 5832 5832 5832 5734 5734 5734 5734 5734 5734 5734 0 0 0 0 0 0 0 0 0 0 0 0 0 0 0 5933 5933 6038 6038 6038 5933 5832 5734 5640 5640 5548 5548 5640 5640 5734 0 0 0 0 0 0 0 0 0 0 0 0 0 0 0 0 0 0 0 0 4241 4241 4241 4241 4241 4190 4190 4190 4190 4190 4139 4139 4139 4089 4089 4041 4041 4041 4041 4041 4041 4041 4041 3994 3994 3994 3994 3994 4041 4041 4041 4041 4041 0 0 0 0 0 0 0 0 0 0 0 0 0
0 0 0 0 0 0 0 0 0 0 0 0 0 0 0 0 0 0 0 0 0 0 0 0 0 0 0 0 0 0 0 0 0 0 0 0 0 0 0 0 0 0 0 0 0 0 0 0 0 0 0 0 0 0 0 0 0 0 0 0 3238 3238 3238 3208 3208 3208 3238 3238 3238 4522 4463 4463 4463 4463 4463 4463 4463 4463 4463 4463 4405 3333 3300 3300 3300 3300 3300 0 0 0 0 1529 1523 1523 1523 1523 1523 1523 1523 1523 1523 1523 1523 1529 1529 1529 1536 1536 1536 1536 0 0 0 0 0 0 0 0 0 0 0 0 0 0 0 0 0 0 0 0 0 0 0 1766 1766 1766 1766 1776 1776 1776 1785 1794 1794 1794 1804 1804 1804 1804 1813 1813 1823 1823 1823 1833 1833 1833 1823 1813 1813 1439 1427 1427 1433 1804 1427 1427 1427 1427 1427 1427 1427 1427 1427 1427 1421 1421 1415 1415 1415 1410 1410 1410 1404 1404 1404 1404 1404 1410 1415 1421 1421 1421 1421 1427 1427 1427 1427 1853 1853 1853 1853 1853 1863 1863 1873 1873 1873 1873 1873 1883 1883 1883 1883 1873 1863 1853 1853 1853 1853 1268 1268 1278 1283 1283 1283 1283 1283 1283 1283 1283 1283 1283 1278 1278 1278 1278 1278 1278 1278 1278 1273 1273 1273 1268 1264 1264 1259 1255 1255 1250 1250 1250 1250 1245 1245 1245 1241 1241 1236 1236 1236 1236 1236 1236 1236 1232 1232 1232 1232 1227 1227 1223 1223 1223 1223 1223 1223 1219 1219 1219 1219 1214 1214 1214 1214 1214 1210 1210 1214 1214 1210 1210 1206 1206 1202 1202 1202 1202 1202 1202 1202 1202 1202 1202 1202 1202 1197 1197 1197 1197 1197 1197 1197 1197 1197 1197 1197 1197 1202 1202 1981 1981 1981 1981 1981 1970 1970 1970 1959 1959 1959 1959 1970 1970 1970 1970 1970 1981 1981 1993 1993 1993 2005 1177 1177 1181 2005 2005 2016 2005 2005 2005 2016 1993 1993 1993 1993 2005 1993 1993 1993 1993 2005 2005 2005 2005 1993 1993 1993 1993 2005 2016 2016 2016 2016 2016 2016 2005 1993 1993 1993 1981 1981 1970 1970 1970 1970 1981 2005 2005 2005 2005 2016 2016 2116 2116 2116 2103 2103 2103 2103 2116 2129 2129 2143 2129 2129 2129 2129 2116 2116 2116 2116 2103 2103 2103 2103 2103 2103 2103 2103 2103 2103 2103 2090 2090 2090 2090 2090 2090 2090 2090 2090 2078 2078 2078 2078 2078 2078 2065 2065 2065 2065 2053 2053 2053 2053 2053 2053 2053 2053 2053 2053 2053 2053 2040 2040 2040 2040 2040 2040 2040 2028 2028 2028 2028 2016 2016 2005 2005 2005 2005 2005 2005 2005 2005 2005 2005 1993 1993 0 0 0 0 0 0 0 0 0 0 0 0 0 0 0 0 0 0 0 0 5832 5734 5734 5734 5734 5734 5640 5640 5640 5640 5734 5734 5734 5832 5933 5832 5832 5832 5734 5734 0 5734 5734 5734 5734 5734 5832 5734 5734 5832 5832 5832 5832 5832 5832 5832 5832 5734 5734 5640 5640 5734 5734 5734 0 0 0 0 0 0 0 0 0 0 0 0 0 0 0 5933 5933 5933 5832 5832 5832 5734 5734 5640 5640 5640 5640 5640 5734 0 0 0 0 0 0 0 0 0 0 0 0 0 0 0 0 0 0 0 0 0 4241 4241 4241 4241 4241 4190 4190 4190 4190 4190 4139 4139 4139 4089 4089 4089 4041 4041 4041 4041 4041 4041 4041 3994 3994 3994 3994 3994 4041 3994 3994 3994 3994 0 0 0 0 0 0 0 0 0 0 0 0 0
0 0 0 0 0 0 0 0 0 0 0 0 0 0 0 0 0 0 0 0 0 0 0 0 0 0 0 0 0 0 0 0 0 0 0 0 0 0 0 0 0 0 0 0 0 0 0 0 0 0 0 0 0 0 0 0 0 0 0 0 3269 3269 3238 3238 3238 3238 3238 3238 4405 4405 4405 4405 4349 4349 4405 4405 4405 4405 4405 4405 4405 4405 3300 3300 3300 3300 0 0 0 0 0 1529 1529 1529 1529 1523 1523 1523 1523 1523 1523 1523 1529 1529 1529 1529 1536 1536 1536 1536 1536 0 0 0 0 0 0 0 0 0 0 0 0 0 0 0 0 0 0 0 0 1757 1757 1766 1766 1766 1766 1766 1766 1776 1785 1785 1794 1794 1794 1804 1804 1804 1804 1813 1813 1813 1813 1823 1823 1823 1804 1804 1804 1804 1804 1804 1804 1804 1794 1785 1785 1785 1776 1427 1427 1427 1427 1427 1421 1421 1415 1415 1415 1415 1410 1410 1410 1410 1410 1410 1410 1410 1415 1421 1421 1421 1427 1427 1427 1427 1427 1843 1843 1843 1843 1843 1853 1853 1853 1863 1863 1863 1853 1843 1843 1843 1863 1863 1853 1853 1843 1843 1843 1278 1278 1278 1283 1283 1283 1288 1283 1283 1283 1283 1283 1283 1278 1278 1278 1278 1278 1278 1278 1278 1273 1273 1273 1268 1268 1264 1264 1255 1255 1250 1250 1250 1250 1250 1245 1245 1241 1241 1236 1236 1236 1236 1236 1236 1236 1232 1232 1232 1227 1227 1223 1223 1223 1223 1223 1223 1223 1219 1219 1219 1214 1214 1214 1214 1214 1214 1210 1210 1214 1214 1210 1210 1206 1202 1202 1202 1202 1202 1202 1202 1202 1202 1202 1202 1202 1197 1197 1197 1197 1197 1197 1197 1197 1197 1197 1197 1197 1197 1197 1197 1197 1197 1202 1981 1970 1970 1959 1959 1947 1947 1947 1947 1959 1959 1959 1970 1970 1970 1981 1993 1993 1993 1173 1173 1177 1177 1993 1993 1993 2005 2005 2005 2005 1993 1993 1993 1993 1993 1981 1981 1981 1981 1981 1970 1970 1981 1981 1981 1981 1981 1981 1993 1981 1981 1981 1981 1981 1981 1981 1981 1981 1981 1970 1970 1970 1970 1970 1981 1993 1993 1993 1993 2005 1993 1993 2103 2016 2016 2005 2005 2016 2016 2005 2005 1993 1993 1993 2129 1993 1993 2016 2116 2116 2090 2090 2090 2090 2090 2090 2090 2090 2090 2090 2090 2090 2090 2090 2078 2078 2078 2090 2090 2078 2078 2078 2078 2078 2078 2078 2065 2065 2065 2065 2053 2053 2053 2053 2053 2053 2053 2053 2053 2053 2053 2053 2040 2040 2040 2040 2040 2040 2040 2028 2028 2028 2028 2016 2016 2005 2005 2005 2005 2005 2005 2005 2005 2005 2005 2005 2005 0 0 0 0 0 0 0 0 0 0 0 0 0 0 0 0 0 0 0 0 5734 5734 5734 5734 5734 5640 5640 5640 5640 5640 5734 5734 5734 5832 5933 5933 5933 5832 5832 0 0 0 0 0 5734 5734 5734 5734 5734 5734 5734 5734 5734 5734 5832 5832 5832 5734 5734 5640 5640 5640 5640 5640 0 0 0 0 0 0 0 0 0 0 0 0 0 0 0 5933 5832 5832 5734 5734 5734 5640 5640 5640 5640 5640 5640 5734 5734 0 0 0 0 0 0 0 0 0 0 0 0 0 0 0 0 0 0 0 0 0 4241 4241 4241 4241 4241 4241 4190 4190 4190 4190 4139 4139 4139 4089 4089 4089 4041 4041 4041 4041 4041 4041 4041 3994 3994 3994 3994 3994 3994 3994 3994 3948 3948 3948 0 0 0 0 0 0 0 0 0 0 0 0
0 0 0 0 0 0 0 0 0 0 0 0 0 0 0 0 0 0 0 0 0 0 0 0 0 0 0 0 0 0 0 0 0 0 0 0 0 0 0 0 0 0 0 0 0 0 0 0 0 0 0 0 0 0 0 0 0 0 0 0 3269 3269 3238 3238 3238 3238 3238 3269 4349 4349 4349 4349 4349 4349 4349 4349 4349 4349 4349 4349 4349 4349 4349 3300 3300 0 0 0 0 0 0 1529 1529 1529 1529 1523 1523 1523 1523 1523 1529 1529 1529 1529 1529 1536 1536 1536 1536 1536 1536 0 0 0 0 0 0 0 0 0 0 0 0 0 0 0 0 0 0 1757 1757 1757 1757 1766 1766 1766 1766 1766 1766 1766 1776 1776 1785 1785 1794 1794 1785 1785 1794 1794 1794 1794 1794 1813 1813 1813 1794 1794 1794 1794 1794 1804 1794 1794 1785 1785 1785 1776 1776 1776 1776 1785 1776 1776 1427 1421 1415 1415 1415 1415 1410 1410 1410 1410 1410 1415 1415 1415 1421 1421 1421 1421 1427 1427 1427 1427 1427 1843 1843 1833 1833 1843 1843 1843 1843 1853 1843 1843 1843 1843 1843 1843 1843 1843 1843 1843 1833 1833 1833 1283 1283 1283 1283 1288 1288 1288 1288 1288 1288 1283 1283 1288 1283 1283 1283 1278 1278 1278 1278 1278 1273 1273 1273 1268 1268 1268 1264 1259 1259 1250 1250 1250 1250 1250 1245 1245 1245 1241 1241 1236 1236 1236 1236 1236 1236 1232 1232 1232 1227 1227 1223 1223 1223 1223 1223 1223 1219 1219 1219 1219 1214 1214 1214 1214 1214 1214 1210 1210 1214 1210 1210 1210 1202 1202 1202 1202 1202 1202 1202 1202 1202 1202 1202 1202 1197 1197 1197 1197 1197 1197 1197 1197 1197 1197 1193 1193 1197 1197 1197 1197 1197 1197 1202 1202 1970 1947 1947 1947 1947 1936 1936 1947 1947 1959 1959 1970 1970 1970 1165 1165 1165 1169 1169 1169 1173 1173 1173 1169 1169 2005 2005 2005 2005 1993 1981 1981 1993 1981 1970 1970 1959 1959 1959 1959 1959 1970 1970 1970 1970 1970 1970 1981 1970 1970 1970 1970 1970 1970 1970 1981 1981 1981 1970 1970 1970 1970 1970 1970 1970 1981 1981 1981 1981 1981 1981 1981 1993 1993 1981 1981 1981 1993 1981 1981 1981 1981 1981 1981 1981 1981 1993 2005 2090 2078 2078 2005 2005 2078 2078 2078 2078 2078 2078 2078 2078 2078 2078 2078 2078 2078 2090 2090 2078 2078 2078 2078 2078 2065 2065 2065 2065 2065 2053 2053 2053 2053 2053 2053 2053 2053 2053 2053 2040 2040 2053 2040 2040 2040 2040 2040 2040 2040 2028 2028 2028 2028 2028 2016 2016 2016 2016 2016 2005 2005 2005 2005 2016 2005 2005 2005 0 0 0 0 0 0 0 0 0 0 0 0 0 0 0 0 0 0 0 0 5734 5640 5640 5640 5640 5548 5548 5640 5640 5640 5734 5734 5734 5832 5933 5933 5933 5832 5832 0 0 0 0 0 5734 5734 5734 5640 5640 5734 5734 5734 5734 5734 5832 5832 5832 5734 5640 5640 5640 5640 5640 5640 5640 0 0 0 0 0 0 0 0 0 0 0 0 0 0 0 5832 5734 5734 5640 5640 5640 5640 5640 5640 5640 5640 5640 5734 0 0 0 0 0 0 0 0 0 0 0 0 0 0 0 0 0 0 0 0 0 4241 4241 4241 4241 4241 4241 4241 4190 4190 4190 4190 4190 4139 4139 4139 4089 4089 4041 4041 4041 4041 4041 3994 3994 3994 3994 3994 3994 3994 3994 3948 3948 3903 3903 0 0 0 0 0 0 0 0 0 0 0 0
0 0 0 0 0 0 0 0 0 0 0 0 0 0 0 0 0 0 0 0 0 0 0 0 0 0 0 0 0 0 0 0 0 0 0 0 4190 4139 4089 4089 4139 4139 0 0 0 0 0 0 0 0 0 0 0 0 0 0 4349 4349 4349 0 3269 3269 3238 3238 3238 3238 3238 3269 4349 4349 4295 4295 4295 4295 4295 4295 4295 4295 4295 4295 4295 4295 4295 4295 4349 0 0 0 0 0 0 0 0 1529 1529 1523 1523 1523 1523 1523 1529 1529 1529 1529 1529 1536 1536 1536 1536 1536 1543 1550 1557 0 0 0 0 0 0 0 0 0 0 0 0 0 0 0 0 1748 1748 1748 1757 1757 1757 1757 1766 1766 1766 1766 1776 1776 1776 1776 1776 1785 1776 1776 1776 1776 1776 1776 1785 1794 1794 1804 1794 1794 1785 1785 1785 1785 1785 1785 1785 1785 1785 1776 1776 1776 1776 1776 1776 1776 1766 1766 1776 1415 1415 1415 1415 1415 1415 1415 1415 1415 1415 1415 1421 1421 1421 1421 1427 1427 1427 1433 1433 1843 1833 1833 1833 1833 1833 1833 1833 1843 1833 1823 1823 1833 1833 1833 1833 1833 1833 1833 1823 1823 1823 1823 1288 1288 1288 1288 1288 1288 1288 1288 1288 1288 1288 1288 1283 1283 1283 1283 1283 1278 1278 1278 1278 1273 1273 1273 1268 1268 1264 1259 1259 1255 1250 1250 1250 1250 1250 1245 1245 1245 1241 1236 1236 1236 1236 1236 1236 1232 1232 1232 1232 1227 1227 1223 1223 1223 1223 1223 1219 1219 1219 1219 1214 1214 1214 1214 1214 1214 1210 1210 1214 1210 1210 1206 1202 1202 1202 1202 1202 1202 1202 1202 1202 1202 1202 1197 1197 1193 1193 1197 1197 1197 1197 1197 1197 1197 1193 1193 1193 1193 1193 1197 1197 1197 1197 1197 1197 1197 1936 1936 1947 1926 1926 1926 1947 1959 1959 1161 1161 1161 1165 1165 1165 1169 1169 1169 1169 1169 1169 1169 1169 1169 1173 1173 1169 1970 1970 1970 1970 1959 1947 1947 1947 1936 1936 1936 1936 1947 1947 1959 1959 1959 1970 1970 1970 1959 1959 1959 1959 1959 1970 1970 1970 1970 1981 1970 1970 1970 1970 1970 1970 1970 1970 1970 1970 1970 1981 1981 1981 1981 1981 1981 1981 1970 1970 1970 1970 1970 1970 1970 1970 1970 1981 1981 1981 1981 2005 1970 1970 1970 1970 1970 1970 1970 2005 2005 2016 2016 2028 2078 2078 2078 2090 2078 2078 2078 2078 2078 2078 2053 2053 2053 2053 2053 2053 2053 2053 2053 2053 2053 2053 2053 2053 2053 2040 2040 2053 2040 2040 2040 2040 2040 2040 2040 2028 2028 2028 2028 2028 2016 2016 2016 2016 2016 2005 2005 2005 2005 2016 2016 2016 2016 0 0 0 0 0 0 0 0 0 0 0 0 0 0 0 0 0 0 0 0 5734 5640 5640 5548 5548 5548 5548 5640 5640 5640 5832 5832 5832 5933 5933 5933 5933 0 0 0 0 0 0 0 5734 5291 5291 5291 5291 5640 5734 5734 5734 5832 5832 5832 5832 5734 5640 5640 5640 5640 5640 5640 5640 5640 0 0 0 0 0 0 0 0 0 0 0 0 0 0 5832 5734 5640 5640 5640 5640 5640 5640 5640 5640 5640 5640 5640 5734 0 0 0 0 0 0 0 0 0 0 0 0 0 0 0 0 0 0 0 0 4295 4295 4295 4295 4241 4241 4241 4190 4190 4190 4190 4190 4139 4139 4139 4089 4089 4041 4041 4041 4041 3994 3994 3994 3994 3948 3948 3948 3948 3948 3903 3859 3859 3859 0 0 0 0 0 0 0 0 0 0 0 0
0 0 0 0 0 0 0 0 0 0 0 0 0 0 0 0 0 0 0 0 0 0 0 0 0 0 0 0 0 0 0 0 0 0 0 4190 4190 4139 4089 4089 4139 4139 4139 0 0 0 0 0 0 0 0 4295 4295 4295 4349 4349 4349 4349 4405 4349 4349 4349 4349 3238 3238 3238 3238 3269 4349 4295 4295 4241 4241 4241 4241 4295 4295 4295 4295 4295 4295 4295 4295 4295 4295 4295 0 0 0 0 0 0 0 1529 1529 1529 1529 1529 1529 1529 1529 1529 1529 1529 1529 1536 1536 1536 1536 1543 1543 1550 1557 0 0 0 0 1713 1713 1713 1713 1713 1713 1722 1722 1722 1722 1722 1722 1731 1731 1731 1748 1748 1748 1757 1757 1757 1757 1757 1766 1766 1766 1766 1766 1766 1766 1766 1766 1766 1766 1766 1785 1785 1785 1785 1785 1776 1776 1776 1776 1776 1776 1776 1776 1776 1776 1776 1766 1766 1776 1776 1766 1766 1766 1766 1776 1776 1415 1415 1415 1415 1415 1415 1415 1421 1415 1415 1421 1421 1421 1427 1427 1427 1427 1433 1433 1833 1833 1823 1823 1823 1823 1823 1813 1813 1823 1813 1813 1823 1823 1823 1823 1823 1823 1823 1813 1813 1813 1813 1813 1288 1288 1288 1288 1288 1288 1288 1288 1288 1288 1288 1283 1283 1283 1283 1283 1283 1278 1278 1278 1273 1273 1273 1273 1268 1268 1264 1264 1255 1255 1255 1250 1250 1250 1245 1245 1245 1245 1241 1241 1241 1236 1236 1236 1236 1232 1232 1232 1227 1227 1223 1223 1223 1223 1223 1223 1219 1219 1219 1214 1214 1214 1214 1214 1214 1210 1210 1214 1210 1210 1206 1202 1202 1202 1202 1202 1202 1202 1202 1202 1202 1202 1197 1197 1193 1193 1197 1197 1197 1197 1197 1197 1197 1193 1193 1193 1193 1193 1197 1197 1197 1197 1193 1193 1193 1189 1189 1189 1189 1193 1193 1189 1189 1165 1165 1161 1161 1165 1165 1165 1165 1165 1165 1165 1165 1165 1165 1165 1165 1169 1169 1169 1169 1970 1970 1970 1959 1926 1926 1926 1926 1926 1926 1926 1936 1936 1936 1947 1959 1959 1959 1959 1947 1947 1947 1959 1959 1970 1970 1970 1970 1970 1970 1959 1959 1959 1959 1959 1959 1959 1959 1959 1970 1970 1970 1970 1970 1970 1970 1970 1970 1959 1959 1959 1959 1959 1959 1959 1959 1970 1970 1970 1981 1970 1970 1970 1970 1970 1970 1959 1959 1981 1959 1959 1970 1981 2078 2078 2078 2090 2078 2078 2078 2078 2078 1970 1970 2005 2040 2040 2040 2040 2053 2053 2053 2053 2053 2053 2053 2053 2040 2040 2040 2053 2040 2040 2040 2040 2040 2040 2040 2028 2028 2028 2028 2028 2016 2016 2016 2005 2005 2005 2005 2005 2005 2005 2005 2016 0 0 0 0 0 0 0 0 0 0 0 0 0 0 0 0 0 0 0 0 0 5734 5734 5734 5548 5548 5548 5548 5640 5640 5640 5832 5933 5933 0 0 0 0 0 0 0 0 0 0 0 0 5291 5291 5291 5291 5291 5640 5640 5734 5734 5832 5832 5832 5734 5734 5640 5640 5640 5640 5640 5640 5640 5640 0 0 0 0 0 0 0 0 0 0 0 0 0 0 5734 5640 5548 5548 5548 5640 5640 5640 5640 5640 5640 5640 5734 5933 6038 0 0 0 0 0 0 0 0 0 0 0 0 0 0 0 0 0 4295 4295 4295 4295 4295 4295 4241 4241 4241 4190 4190 4190 4190 4139 4139 4139 4139 4089 4041 4041 4041 4041 3994 3994 3994 3994 3948 3948 3948 3948 3948 3903 3859 3859 3859 0 0 0 0 0 0 0 0 0 0 0 0
0 0 0 0 0 0 0 0 0 0 0 0 0 0 0 0 0 0 0 0 0 0 0 0 0 0 0 0 0 0 0 0 0 4241 4241 4190 4190 4139 4139 4139 4139 4139 4139 0 0 0 0 0 0 0 0 4295 4295 4295 4295 4295 4349 4349 4349 4349 4349 4349 4349 4405 3269 3269 3269 4349 4349 4295 4241 4241 4190 4190 4190 4241 4295 4295 4295 4295 4295 4295 4295 4295 4295 4295 0 0 0 0 0 0 0 1529 1529 1529 1529 1529 1529 1529 1529 1529 1529 1529 1536 1536 1536 1536 1543 1543 1550 1550 1550 0 0 1696 1696 1696 1696 1705 1705 1713 1713 1713 1713 1713 1713 1722 1722 1722 1731 1731 1731 1739 1739 1739 1739 1739 1748 1748 1739 1739 1757 1757 1757 1757 1757 1757 1757 1757 1748 1748 1757 1776 1785 1776 1776 1776 1766 1766 1766 1766 1766 1766 1766 1776 1776 1766 1766 1766 1766 1766 1766 1766 1766 1766 1776 1776 1415 1415 1415 1415 1415 1415 1415 1415 1415 1415 1421 1421 1427 1427 1427 1427 1433 1433 1433 1433 1823 1823 1785 1785 1785 1813 1794 1794 1794 1804 1804 1804 1804 1813 1813 1813 1813 1813 1813 1813 1813 1813 1813 1813 1292 1292 1288 1288 1288 1288 1288 1288 1288 1288 1288 1288 1288 1288 1288 1283 1283 1278 1278 1273 1273 1273 1273 1273 1268 1264 1264 1259 1255 1255 1250 1250 1250 1250 1250 1250 1245 1245 1241 1241 1241 1236 1236 1236 1232 1232 1232 1227 1227 1227 1223 1223 1223 1223 1223 1219 1219 1219 1219 1219 1214 1214 1214 1214 1214 1214 1214 1214 1210 1210 1202 1202 1202 1202 1202 1202 1202 1202 1202 1202 1202 1197 1197 1197 1197 1197 1197 1197 1197 1197 1197 1197 1197 1193 1193 1193 1193 1193 1193 1193 1193 1193 1193 1189 1189 1189 1185 1185 1189 1193 1185 1173 1165 1165 1165 1165 1165 1165 1165 1165 1165 1165 1165 1165 1165 1165 1165 1165 1169 1165 1165 0 1165 1165 1926 0 1926 1904 1904 1904 1904 1915 1915 1926 1926 1926 1926 1926 1926 1926 1926 1926 1936 1936 1947 1947 1947 1959 1959 1959 1959 1959 1959 1959 1947 1947 1947 1947 1936 1936 1947 1959 1959 1959 1970 1970 1970 1959 1959 1959 1959 1959 1959 1959 1959 1959 1959 1959 1959 1959 1959 1959 1947 1947 1947 1959 1959 1947 1947 1947 1959 1959 1959 1959 1959 1959 1970 1936 1936 1936 1947 1947 1947 1947 1947 1959 1959 1959 1959 1970 2028 2028 2040 2040 2053 2053 2053 2040 2040 2040 2040 2040 2040 2040 2040 2040 2040 2040 2040 2028 2028 2016 2016 2016 2016 2016 2016 2005 2005 2005 2005 2005 2005 2005 2005 2005 0 0 0 0 0 0 0 0 0 0 0 0 0 0 0 0 0 0 0 0 0 0 5734 5734 5734 5374 5374 5374 5374 5548 5640 5640 5734 5832 0 0 0 0 0 0 0 0 0 0 0 0 0 5291 5291 5291 5291 5291 5548 5548 5640 5734 5734 5832 5933 5734 5734 5640 5640 5640 5640 5640 5640 5640 5640 0 0 0 0 0 0 0 0 0 0 0 0 0 5640 5640 5548 5460 5460 5548 5548 5548 5640 5640 5640 5640 5640 5734 5933 6038 0 0 0 0 0 0 0 0 0 0 0 0 0 0 0 0 4349 4295 4295 4349 4349 4349 4295 4241 4241 4241 4241 4241 4190 4190 4139 4139 4139 4139 4089 4041 4041 4041 4041 4041 4041 3994 3994 3948 3948 3948 3948 3948 3903 3859 3859 3859 0 0 0 0 0 0 0 0 0 0 0 0
0 0 0 0 0 0 0 0 0 0 0 0 0 0 0 0 0 0 0 0 0 0 0 0 0 0 0 0 0 0 0 0 4241 4241 4190 4139 4139 4139 4139 4089 4089 4089 4089 0 0 0 0 0 0 0 0 0 0 4295 4295 4295 4349 4349 4349 4295 4295 4349 4349 4405 4405 4405 4405 4349 4349 4241 4241 4190 4190 4190 4190 4241 4241 4241 4241 4241 4295 4295 4241 4241 4241 4241 0 0 0 0 0 0 0 1523 1523 1529 1529 1529 1529 1529 1529 1529 1529 1529 1536 1536 1536 1543 1543 1543 1550 1550 1550 0 1688 1688 1688 1688 1688 1696 1696 1705 1705 1713 1713 1713 1713 1713 1713 1713 1722 1722 1722 1731 1731 1731 1731 1731 1739 1739 1731 1731 1731 1731 1731 1731 1731 1731 1731 1731 1731 1731 1731 1722 1722 1722 1722 1757 1757 1757 1748 1748 1748 1748 1748 1766 1757 1757 1757 1757 1757 1757 1757 1757 1757 1757 1776 1421 1421 1421 1415 1415 1415 1415 1415 1415 1415 1415 1421 1421 1427 1427 1427 1427 1427 1433 1433 1445 1757 1757 1757 1766 1766 1776 1776 1776 1785 1785 1794 1794 1794 1804 1804 1804 1804 1804 1813 1813 1813 1813 1813 1813 1288 1288 1288 1288 1292 1292 1292 1288 1288 1292 1292 1288 1288 1288 1288 1283 1283 1283 1273 1273 1273 1273 1273 1273 1273 1264 1264 1264 1259 1255 1255 1255 1250 1250 1250 1250 1250 1245 1245 1241 1241 1236 1236 1236 1232 1232 1232 1232 1232 1227 1227 1227 1227 1227 1223 1223 1223 1223 1219 1219 1219 1219 1214 1214 1214 1214 1214 1210 1210 1210 1202 1202 1202 1202 1202 1202 1202 1202 1202 1202 1202 1197 1197 1197 1197 1197 1197 1197 1197 1197 1197 1193 1193 1193 1193 1193 1193 1193 1193 1193 1193 1193 1189 1189 1189 1189 1185 1185 1189 1189 1185 1173 1169 1165 1165 1165 1161 1161 1161 1161 1165 1165 1161 1161 1161 1161 1165 1165 1169 1165 1165 0 0 0 0 0 0 1883 1883 1894 1894 1894 1904 1904 1904 1915 1915 1915 1926 1926 1915 1915 1926 1926 1926 1926 1936 1947 1947 1947 1947 1947 1947 1947 1936 1936 1926 1926 1926 1926 1926 1947 1947 1947 1959 1959 1959 1959 1959 1947 1947 1947 1947 1947 1947 1947 1947 1947 1947 1947 1947 1947 1936 1936 1936 1936 1936 1936 1936 1947 1947 1947 1947 1947 1947 1947 1926 1926 1926 1926 1926 1936 1936 1936 1947 1959 1959 1936 1936 1947 1959 1959 2028 2040 2040 2053 2040 2040 2040 2040 2040 2040 2040 2040 2040 2040 2028 2028 2028 2028 2016 2016 2016 2016 2016 2016 2016 2005 2005 2005 2005 2005 2005 2005 2005 2005 2005 0 0 0 0 0 0 0 0 0 0 0 0 0 0 0 0 0 0 0 0 0 0 0 0 5374 5374 5374 5374 5374 5374 5640 5734 5734 0 0 0 0 0 0 0 0 0 0 0 0 5291 5291 5291 5291 5291 5460 5548 5548 5640 5734 5734 0 0 0 0 0 0 5640 5640 5640 5640 5640 5734 0 0 0 0 0 0 0 0 0 0 0 0 0 5548 5548 5548 5460 5460 5548 5548 5548 5548 5548 5640 5640 5640 5734 5933 6038 0 0 0 0 0 0 0 0 0 0 0 0 0 0 0 0 4349 4349 4349 4349 4349 4349 4295 4241 4241 4241 4241 4241 4190 4190 4190 4190 4190 4139 4139 4089 4089 4089 4041 4041 4041 3994 3994 3948 3948 3948 3948 3948 3903 3859 3859 3859 0 0 0 0 0 0 0 0 0 0 0 0
0 0 0 0 0 0 0 0 0 0 0 0 0 0 0 0 0 0 0 0 0 0 0 0 0 0 0 0 0 0 0 0 4241 4190 4139 4139 4139 4139 4089 4089 4089 4041 4041 0 0 0 0 0 0 0 0 0 0 4295 4295 4295 4295 4295 4295 4295 4295 4295 4295 4349 4405 4405 4405 4349 4295 4241 4241 4190 4139 4139 4139 4190 4190 4241 4190 4190 4241 4241 4190 4190 4190 4241 4241 0 0 0 0 0 0 1523 1523 1529 1529 1529 1529 1529 1529 1529 1529 1536 1536 1536 1536 1543 1543 1550 1550 1550 1550 1680 1680 1680 1680 1680 1680 1688 1688 1705 1705 1713 1713 1705 1705 1705 1705 1705 1713 1713 1713 1713 1713 1722 1722 1731 1722 1722 1722 1722 1722 1722 1722 1722 1722 1722 1722 1722 1722 1722 1722 1722 1722 1722 1713 1713 1705 1705 1713 1713 1705 1705 1705 1739 1739 1739 1739 1739 1739 1739 1739 1739 1748 1757 1757 1421 1421 1421 1421 1421 1421 1421 1421 1421 1421 1421 1421 1421 1427 1427 1427 1427 1427 1433 1445 1445 1748 1748 1757 1766 1766 1766 1766 1776 1776 1785 1785 1785 1785 1785 1794 1794 1794 1794 1785 1785 1794 1804 1813 1813 1292 1288 1288 1288 1292 1292 1292 1292 1292 1292 1292 1292 1292 1288 1288 1288 1283 1278 1273 1273 1273 1273 1273 1273 1273 1264 1264 1264 1264 1259 1255 1255 1255 1250 1250 1250 1250 1250 1250 1245 1245 1241 1241 1236 1236 1236 1236 1236 1232 1232 1227 1227 1227 1227 1227 1223 1223 1223 1219 1219 1219 1219 1214 1214 1214 1214 1214 1210 1210 1210 1206 1206 1206 1206 1206 1206 1202 1202 1202 1202 1202 1197 1197 1197 1197 1197 1197 1197 1197 1193 1193 1193 1193 1193 1193 1193 1193 1193 1193 1193 1193 1189 1189 1189 1189 1185 1185 1185 1189 1189 1185 1177 1169 1165 1165 1165 1161 1161 1161 1161 1161 1161 1161 1161 1161 1161 1161 1165 1169 1169 1169 0 0 0 0 0 0 1883 1883 1883 1883 1883 1894 1894 1894 1894 1904 1904 1915 1915 1915 1915 1904 1904 1915 1915 1915 1915 1915 1915 1926 1936 1915 1915 1915 1915 1915 1915 1904 1904 1904 1904 1904 1904 1915 1915 1915 1936 1936 1936 1936 1936 1936 1936 1947 1947 1947 1947 1947 1936 1936 1936 1926 1926 1926 1926 1926 1926 1936 1936 1936 1936 1936 1936 1936 1926 1926 1926 1926 1926 1926 1926 1926 1926 1936 1947 1936 1926 1926 1936 1936 1947 1936 1936 1936 1915 1915 1915 2040 2040 2040 2040 2028 2028 2028 2028 2005 2005 2005 2016 2016 2016 2016 2016 2016 2016 2005 2005 2005 2005 2005 2005 2005 1993 1993 2005 0 0 0 0 0 0 0 1894 1894 0 0 0 0 0 0 0 0 0 0 0 0 0 0 0 5374 5374 5374 5374 5374 5374 5374 5734 5640 5640 0 0 0 0 0 0 0 0 0 0 0 5210 5210 5210 5291 5291 5291 5460 5460 5548 5548 5734 5734 0 0 0 0 0 5640 5640 5548 5548 5548 5640 0 0 0 0 0 0 0 0 0 0 0 0 0 0 5548 5548 5460 5460 5460 5460 5460 5460 5460 5460 5460 5548 5640 5640 5734 6038 0 0 0 0 0 0 0 0 0 0 0 0 0 0 0 4463 4405 4405 4405 4349 4349 4349 4295 4241 4241 4241 4241 4241 4190 4190 4190 4190 4190 4139 4089 4089 4089 4041 4041 4041 4041 3994 3994 3948 3948 3948 3948 3948 3903 3903 3859 3859 0 0 0 0 0 0 0 0 0 0 0 0
0 0 0 0 0 0 0 0 0 0 0 0 0 0 0 0 0 0 0 0 0 0 0 0 0 0 0 0 0 0 0 0 4190 4139 4139 4139 4139 4139 4089 4089 4089 4041 4041 0 0 0 0 0 0 0 0 0 0 4295 4190 4190 4241 4241 4241 4241 4241 4241 4241 4295 4349 4349 4349 4349 4295 4241 4241 4190 4139 4139 4139 4139 4190 4190 4190 4190 4241 4241 4190 4190 4190 4190 4190 0 0 0 0 0 0 0 1529 1529 1529 1529 1529 1529 1529 1529 1536 1536 1536 1543 1543 1543 1550 1550 1543 1543 1543 1680 1680 1671 1671 1671 1671 1680 1680 1680 1688 1705 1705 1696 1696 1696 1696 1696 1705 1705 1696 1696 1705 1713 1713 1713 1722 1713 1713 1713 1713 1713 1713 1705 1705 1705 1705 1713 1713 1705 1705 1705 1705 1713 1705 1705 1696 1696 1705 1705 1705 1705 1705 1713 1713 1731 1731 1731 1731 1731 1731 1731 1731 1731 1731 1415 1415 1421 1421 1421 1421 1421 1421 1421 1421 1421 1421 1421 1427 1427 1427 1427 1427 1433 1445 1739 1739 1739 1748 1748 1748 1748 1748 1757 1766 1766 1776 1776 1776 1776 1785 1776 1776 1776 1776 1776 1776 1776 1776 1292 1292 1292 1292 1292 1292 1292 1292 1292 1292 1292 1292 1292 1292 1292 1292 1288 1288 1278 1278 1278 1273 1273 1273 1273 1273 1268 1268 1264 1264 1259 1255 1255 1255 1250 1250 1250 1250 1250 1250 1245 1245 1245 1241 1241 1241 1236 1236 1236 1232 1232 1227 1227 1227 1227 1227 1227 1227 1223 1223 1223 1223 1219 1219 1219 1219 1214 1214 1214 1210 1210 1206 1206 1206 1206 1206 1206 1202 1202 1202 1202 1202 1202 1197 1197 1197 1197 1197 1197 1197 1193 1193 1193 1193 1193 1189 1189 1193 1193 1193 1193 1189 1189 1185 1185 1185 1185 1185 1185 1189 1189 1185 1177 1169 1169 1165 1165 1165 1161 1161 1161 1161 1161 1157 1157 1161 1161 1161 1161 1165 1169 1169 0 0 0 0 0 1863 1863 1873 1873 1873 1873 1883 1883 1883 1883 1883 1883 1894 1883 1883 1883 1894 1894 1894 1883 1883 1883 1883 1883 1883 1883 1883 1883 1883 1894 1894 1894 1894 1894 1894 1894 1894 1894 1894 1894 1904 1904 1904 1915 1915 1915 1915 1926 1926 1926 1926 1926 1926 1926 1926 1926 1915 1915 1915 1915 1915 1915 1926 1926 1926 1926 1915 1915 1915 1915 1915 1915 1915 1915 1915 1915 1915 1926 1926 1926 1926 1915 1915 1904 1904 1915 1915 1915 1915 1915 1915 1915 1926 1915 1915 1915 1926 1926 1959 1959 1970 1970 1993 2005 2005 2005 2005 2016 2016 2016 2005 1993 1993 2005 1993 1993 1993 1993 1993 2005 2005 0 1904 1904 1904 1904 1894 1894 1894 1904 1904 1904 0 0 0 0 0 0 0 0 0 0 0 0 5460 5374 5374 5460 5460 5460 5640 5640 5640 5640 0 0 0 0 0 0 0 0 0 0 0 5210 5210 5210 5291 5291 5291 5460 5460 5460 5548 5734 0 0 0 0 0 0 0 5548 5548 5460 5460 5460 0 0 0 0 0 0 0 0 0 0 0 0 0 0 5460 5460 5460 5460 5460 5460 5460 5460 5460 5460 5460 5460 5548 5548 5548 0 0 0 0 0 0 0 0 0 0 0 0 0 0 0 0 4463 4463 4405 4405 4349 4349 4349 4295 4295 4241 4241 4241 4241 4190 4190 4190 4190 4190 4139 4089 4089 4089 4041 4041 4041 4041 3994 3994 3948 3948 3948 3948 3948 3903 3903 3859 3859 0 0 0 0 0 0 0 0 0 0 0 0
