0 0 0 0 0 0 0 0 0 0 0 0 0 0 0 0 0 0 0 0 0 0 0 0 0 0 0 0 0 0 0 0 0 2317 2317 2333 2333 2333 2333 2333 2333 2333 2333 2333 2333 2333 2333 2333 2333 2333 2333 2333 2333 2333 2333 2333 2333 2349 2333 2333 2333 2333 2333 2333 2333 2333 2333 2333 2333 2317 2317 2317 2333 2333 2333 2333 2333 2333 2333 2317 2317 2317 2317 2317 2333 2333 2333 2333 2333 2349 2349 2349 2349 2349 2333 2333 2333 2333 2333 2333 2333 2349 2349 2349 2349 2349 2349 2365 2365 2365 2349 2349 2365 2365 2349 2349 2349 2349 2349 2349 2349 2349 2349 2349 2349 2349 2349 2365 2365 2365 2365 2381 2381 2381 2381 2381 2381 2381 2381 2381 2381 2381 2381 2381 2381 2381 2381 2381 2381 2381 2381 2381 2398 2398 2398 2381 2381 2381 2381 2365 2365 2365 2365 2365 2365 2365 2365 2381 2381 2381 2381 2381 2381 2381 2381 2381 2381 2381 2381 2381 2381 2381 2381 2381 2381 2381 2398 2398 2398 2398 2381 2381 2381 2381 2381 2381 2381 2381 2398 2398 2398 2381 2381 2381 2381 2381 2381 2381 1785 1785 1776 1776 1776 1766 1766 1766 1766 1766 1766 1776 1776 1776 1776 1776 1776 1776 2432 2415 2415 2415 2415 2415 2415 2415 2415 2415 2415 2415 2415 2415 2415 2398 2398 2398 2398 2398 2415 2415 2415 2415 2415 2415 2415 2415 2415 2415 2415 2415 2415 2415 2432 2432 2432 2432 2432 2432 2103 2103 2116 2116 2129 2129 2129 2143 2143 2156 2415 2415 2415 2415 2415 2415 2415 1616 1616 1616 1616 1609 1609 1609 1609 1609 1609 1609 1609 1609 1609 1624 1624 1624 1632 1632 1632 1632 1639 2398 1671 1671 1671 2415 2415 2415 2432 2432 2415 2415 2432 2432 2432 2432 2432 2432 2432 2415 2415 2415 0 1445 1445 1445 1445 1439 1439 1439 1439 1439 1439 1439 1439 1445 1445 1452 1452 1458 1458 1464 1483 1489 1489 1489 1496 1496 1496 1496 1496 1496 1496 1496 1496 1496 1496 1496 1496 1496 1496 1496 1496 1503 1503 1509 1509 1509 1509 1509 1509 1509 1503 1503 1503 1509 1509 1509 1509 1509 1509 1509 1509 1509 1516 1516 1516 1516 1516 1509 1509 1509 1509 1509 1509 1509 1509 1509 1509 1509 1509 1509 1509 1509 1509 1509 1509 1509 1509 1509 1509 1509 1509 1503 1503 1503 1503 1503 1503 1503 1503 1503 1503 1503 1503 1503 1503 1503 1496 1496 1496 1268 1264 1264 1264 1264 1264 1259 1259 1259 1259 1259 1259 1259 1264 1264 1264 1268 1278 1278 1278 1496 1489 1489 1489 1489 1489 1489 1489 1496 1496 1496 1496 1503 1496 1496 1496 1496 1496 1496 1496 1496 1496 1496 1496 1503 1496 1496 1496 1503 1503 1503 1503 1503 1509 1516 1586 1586 1594 1601 1601 1609 1609 1609 1616 1616 2415 2415 2415 2432 2432 2432 2432 2432 2432 2432 2432 2432 2450 2450 2450 2432 2432 2450 2432 2432 2415 2415 2432 2432 2432 2432 2432 2450 2450 2450 1655 1655 1655 1663 1655 1655 1655 1647 1647 1647 1647 1647 1647 1639 1639 1647 1647 1245 1245 1245 1250 1255 1255 1255 1255 1255 1255 1255 1255 1255 1255 1255 1255 1255 1255 1250 1250 1250 1250 1245 1241 1241 1241 1241 1236 1236 1236 1236 1236 1236 1236 1236 1236 1236 1236 1236 1236 1232 1232 1232 1232 1255 1259 2432 2432 2432 2432 2432 2415 2415 2398 2398 2398 2398 2398 2415 2415 2415 2398 2398 2398 2398 2398 2398 2398 2398 2398 2398 2415 2415 2415 2415 2415 2415 2415 2415 2415 2398 2398 2398 0 0 0 0 0 0 0 0 0 0
0 0 0 0 0 0 0 0 0 0 0 0 0 0 0 0 0 0 0 0 0 0 0 0 0 0 0 0 0 0 0 0 0 2317 2317 2317 2317 2317 2317 2317 2333 2333 2333 2333 2333 2333 2333 2333 2333 2317 2317 2333 2333 2333 2317 2317 2333 2333 2333 2333 2333 2333 2333 2333 2333 2333 2333 2333 2333 2317 2317 2317 2317 2317 2317 2317 2333 2333 2317 2317 2317 2317 2317 2317 2317 2317 2317 2333 2333 2333 2333 2333 2333 2333 2333 2317 2317 2317 2333 2333 2333 2333 2349 2349 2349 2349 2349 2349 2349 2349 2333 2333 2349 2349 2333 2333 2333 2333 2333 2333 2333 2333 2333 2333 2349 2349 2349 2349 2365 2365 2365 2365 2365 2365 2381 2381 2381 2381 2381 2381 2365 2365 2365 2365 2365 2365 2365 2365 2365 2381 2381 2381 2381 2398 2398 2381 2381 2365 2365 2365 2365 2365 2365 2365 2365 2365 2365 2365 2381 2381 2381 2381 2381 2381 2381 2381 2381 2381 2381 2381 2381 2381 2381 2381 2381 2381 2381 2381 2381 2381 2381 2381 2381 2381 2381 2381 2381 2381 2381 2381 2381 2381 2381 2381 2381 2381 2381 2381 1785 1785 1785 1776 1776 1766 1766 1766 1766 1766 1766 1776 1776 1776 1785 1785 1776 1776 2381 2381 2381 2398 2398 2398 2398 2398 2398 2398 2398 2398 2398 2398 2398 2398 2398 2398 2398 2398 2398 2398 2398 2398 2398 2398 2398 2398 2398 2398 2415 2415 2415 2415 2415 2415 2432 2078 2078 2090 2103 2103 2116 2116 2129 2129 2129 2143 2143 2143 2415 2415 2415 2415 2415 2415 2415 2415 1616 1616 1616 1609 1609 1609 1609 1609 1609 1609 1609 1609 1616 1624 1624 1624 1632 1632 1632 1632 1632 2432 2398 2398 2415 2415 2415 2415 2415 2415 2415 2415 2432 2432 2415 2415 2415 2415 2415 2415 2415 2415 0 1452 1452 1452 1452 1445 1445 1445 1445 1445 1445 1445 1445 1452 1452 1452 1458 1458 1464 1464 1477 1483 1489 1489 1489 1489 1489 1489 1489 1489 1489 1489 1489 1489 1489 1489 1489 1489 1489 1489 1489 1496 1496 1503 1503 1503 1496 1496 1496 1496 1489 1489 1489 1496 1496 1496 1496 1496 1496 1503 1503 1503 1503 1503 1509 1503 1503 1509 1509 1509 1503 1503 1503 1503 1503 1503 1503 1503 1503 1503 1503 1503 1503 1503 1503 1503 1503 1509 1509 1509 1503 1503 1503 1496 1496 1496 1489 1489 1489 1489 1489 1496 1496 1496 1496 1489 1489 1496 1273 1268 1268 1268 1264 1264 1264 1264 1259 1259 1259 1259 1259 1259 1264 1264 1268 1273 1278 1278 1278 1489 1483 1483 1483 1483 1483 1483 1483 1489 1489 1489 1489 1496 1496 1496 1489 1489 1489 1489 1489 1489 1489 1489 1489 1496 1496 1496 1496 1496 1496 1503 1503 1503 1509 1516 1572 1586 1594 1609 1609 1609 1616 1616 1624 1624 2398 2398 2398 2415 2415 2415 2432 2432 2432 2432 2432 2432 2432 2450 2450 2432 2432 2432 2432 2415 2415 2415 2415 2415 2415 2432 2432 2432 2450 2450 1655 1655 1655 1663 1655 1655 1655 1655 1655 1655 1647 1647 1647 1639 1639 1639 1639 1250 1250 1250 1250 1255 1255 1255 1255 1255 1255 1255 1255 1255 1255 1255 1255 1255 1255 1250 1250 1250 1250 1250 1245 1245 1241 1241 1241 1241 1241 1236 1236 1236 1236 1236 1236 1236 1236 1236 1236 1236 1236 1236 1236 1255 1255 2432 2432 2432 2415 2415 2415 2415 2398 2398 2398 2398 2398 2398 2398 2398 2398 2381 2381 2381 2381 2381 2381 2381 2381 2398 2398 2398 2398 2398 2415 2415 2415 2398 2398 2381 2381 2381 0 0 0 0 0 0 0 0 0 0
0 0 0 0 0 0 0 0 0 0 0 0 0 0 0 0 0 0 0 0 0 0 0 0 0 0 0 0 0 0 0 0 0 2317 2317 2317 2301 2301 2301 2301 2317 2317 2301 2301 2317 2317 2317 2317 2317 2317 2317 2317 2317 2317 2317 2317 2317 2317 2317 2317 2317 2317 2317 2317 2317 2317 2317 2317 2317 2301 2301 2301 2301 2301 2317 2317 2317 2317 2317 2317 2317 2317 2317 2317 2317 2317 2317 2333 2333 2333 2333 2333 2317 2317 2317 2317 2317 2317 2317 2333 2333 2333 2349 2349 2349 2333 2333 2333 2333 2333 2333 2333 2333 2333 2333 2333 2333 2333 2333 2333 2333 2333 2333 2333 2349 2349 2349 2349 2349 2349 2349 2365 2365 2365 2365 2365 2365 2365 2365 2365 2349 2349 2349 2349 2349 2349 2349 2349 2365 2365 2365 2381 2381 2381 2381 2365 2365 2365 2365 2365 2365 2349 2349 2349 2349 2349 2365 2365 2365 2365 2381 2381 2381 2381 2381 2381 2381 2365 2365 2365 2365 2381 2381 2381 2381 2381 2381 2381 2381 2381 2365 2365 2365 2365 2365 2365 2365 2365 2365 2381 2381 2381 2381 2381 2381 2381 2381 2381 1794 1785 1785 1776 1776 1766 1766 1766 1766 1766 1776 1776 1776 1785 1785 1776 1776 1785 2381 2381 2381 2398 2381 2381 2398 2398 2398 2398 2398 2398 2398 2398 2398 2381 2381 2381 2381 2381 2398 2398 2381 2381 2381 2381 2381 2398 2398 2398 2398 2398 2415 2415 2415 2415 2078 2078 2078 2090 2103 2103 2116 2116 2129 2129 2129 2143 2143 2143 2415 2415 2415 2415 2415 2415 2415 2415 2415 1616 1616 1616 1609 1609 1609 1609 1609 1609 1609 1609 1616 1624 1624 1632 1632 1632 1632 1639 1639 2415 2398 2398 2415 2398 2398 2398 2415 2415 2415 2415 2415 2415 2415 2415 2415 2415 2415 2398 2398 2398 0 1452 1452 1452 1452 1445 1445 1445 1445 1445 1445 1445 1445 1452 1452 1458 1458 1458 1464 1464 1470 1477 1483 1483 1483 1489 1489 1489 1489 1489 1489 1489 1489 1489 1489 1489 1489 1489 1489 1489 1489 1489 1496 1496 1496 1496 1496 1496 1489 1489 1489 1489 1489 1489 1489 1489 1496 1496 1496 1496 1496 1496 1496 1496 1503 1496 1496 1496 1496 1496 1496 1489 1489 1496 1496 1496 1496 1496 1496 1496 1489 1489 1496 1496 1496 1496 1496 1496 1496 1496 1496 1496 1496 1489 1489 1489 1483 1483 1483 1483 1483 1489 1489 1489 1489 1489 1489 1489 1273 1273 1268 1268 1268 1264 1264 1264 1259 1259 1259 1259 1259 1259 1264 1264 1268 1273 1278 1278 1278 1483 1483 1483 1483 1483 1483 1483 1483 1489 1483 1483 1483 1489 1489 1489 1483 1483 1483 1489 1483 1483 1483 1483 1483 1489 1489 1489 1489 1489 1496 1496 1496 1503 1509 1543 1572 1586 1594 1609 1609 1609 1616 1616 1624 1624 2381 2381 2381 2398 2398 2398 2415 2415 2415 2432 2432 2432 2432 2450 2432 2432 2432 2432 2415 2398 2398 2398 2398 2398 2398 2415 2415 2432 2450 2450 1655 1655 1655 1663 1663 1663 1655 1655 1655 1655 1647 1647 1647 1647 1647 1259 1259 1250 1250 1250 1250 1255 1255 1255 1255 1255 1255 1255 1255 1255 1255 1255 1255 1255 1255 1250 1250 1250 1250 1245 1245 1245 1245 1241 1241 1241 1241 1241 1241 1236 1236 1236 1236 1236 1236 1236 1236 1236 1236 1236 1236 1255 1255 2432 2432 2415 2415 2398 2398 2398 2381 2381 2381 2381 2381 2398 2398 2398 2398 2381 2381 2381 2381 2381 2381 2381 2381 2381 2381 2381 2398 2398 2398 2398 2398 2398 2381 2381 2381 2365 2365 0 0 0 0 0 0 0 0 0
0 0 0 0 0 0 0 0 0 0 0 0 0 0 0 0 0 0 0 0 0 0 0 0 0 0 0 0 0 0 0 0 0 2301 2301 2301 2301 2301 2301 2301 2301 2301 2286 2286 2301 2301 2301 2301 2301 2301 2301 2301 2301 2317 2301 2301 2301 2317 2301 2301 2301 2301 2301 2301 2301 2317 2317 2317 2317 2301 2301 2301 2301 2301 2301 2301 2317 2301 2301 2301 2301 2301 2301 2317 2317 2317 2317 2317 2333 2317 2317 2317 2317 2317 2317 2317 2317 2317 2317 2333 2333 2333 2333 2333 2333 2333 2333 2333 2333 2333 2333 2333 2333 2333 2333 2333 2333 2333 2333 2333 2333 2333 2333 2333 2333 2333 2349 2349 2349 2349 2349 2349 2349 2349 2349 2365 2365 2349 2349 2349 2349 2349 2349 2349 2333 2333 2349 2349 2349 2365 2365 2381 2381 2381 2381 2365 2365 2365 2365 2349 2349 2349 2349 2349 2349 2349 2349 2349 2365 2365 2365 2365 2365 2365 2365 2365 2365 2365 2365 2365 2365 2365 2365 2365 2365 2365 2365 2365 2365 2365 2365 2365 2365 2365 2365 2365 2365 2365 2365 2365 2381 2381 2381 2381 2381 2381 2381 1853 1853 1785 1785 1776 1776 1766 1766 1766 1766 1766 1776 1776 1776 1785 1785 1776 1776 1776 2381 2381 2381 2381 2381 2381 2381 2381 2381 2398 2398 2398 2398 2398 2398 2381 2381 2381 2381 2381 2381 2381 2381 2381 2381 2381 2381 2381 2381 2381 2398 2398 2398 2415 2415 2065 2065 2078 2078 2090 2103 2103 2116 2116 2129 2129 2129 2143 2143 2143 2398 2398 2398 2398 2398 2398 2398 2398 2398 1616 1616 1616 1609 1609 1609 1609 1609 1609 1609 1616 1616 1624 1624 1632 1632 1632 1632 1639 2381 2381 2398 2415 2415 2398 2398 2398 2415 2415 2415 2415 2415 2415 2415 2415 2415 2415 2415 2398 2398 0 1464 1458 1458 1458 1458 1452 1452 1452 1452 1445 1445 1445 1452 1452 1452 1458 1458 1458 1464 1464 1470 1477 1483 1483 1483 1483 1483 1483 1483 1483 1483 1483 1483 1483 1483 1483 1483 1483 1483 1483 1483 1489 1489 1489 1489 1489 1489 1489 1489 1489 1489 1489 1489 1489 1489 1489 1489 1489 1489 1496 1489 1489 1489 1489 1489 1489 1489 1489 1489 1489 1489 1489 1489 1489 1489 1489 1489 1489 1489 1489 1489 1489 1489 1489 1489 1489 1489 1489 1489 1489 1483 1483 1483 1483 1477 1477 1477 1477 1477 1477 1477 1477 1477 1477 1477 1477 1477 1477 1278 1273 1273 1273 1273 1268 1264 1264 1259 1259 1259 1259 1259 1264 1264 1264 1268 1273 1278 1283 1283 1477 1477 1477 1477 1477 1477 1477 1483 1483 1483 1483 1483 1483 1483 1483 1483 1483 1483 1483 1477 1477 1477 1483 1483 1483 1483 1483 1483 1489 1489 1496 1496 1503 1516 1557 1579 1594 1601 1609 1609 1616 1616 1616 1624 1624 2381 2381 2381 2381 2381 2381 2398 2398 2415 2415 2415 2415 2432 2432 2432 2415 2415 2398 2398 2381 2381 2398 2398 2398 2398 2398 2398 2432 2432 1655 1655 1655 1655 1663 1663 1663 1655 1655 1655 1655 1647 1647 1647 1647 1647 1259 1259 1259 1255 1255 1255 1255 1255 1255 1255 1255 1255 1255 1255 1255 1255 1255 1255 1255 1255 1250 1250 1250 1250 1245 1245 1245 1245 1241 1241 1241 1241 1241 1241 1236 1236 1236 1236 1236 1236 1236 1236 1236 1236 1236 1236 1250 1255 2415 2415 2398 2381 2381 2381 2381 2381 2381 2381 2381 2381 2381 2381 2381 2381 2381 2381 2381 2365 2365 2365 2365 2365 2381 2381 2381 2381 2381 2381 2381 2381 2381 2365 2365 2365 2365 2365 0 0 0 0 0 0 0 0 0
0 0 0 0 0 0 0 0 0 0 0 0 0 0 0 0 0 0 0 0 0 0 0 0 0 0 0 0 0 0 0 0 0 2286 2286 2286 2286 2286 2286 2286 2301 2286 2286 2286 2301 2301 2301 2301 2301 2301 2301 2301 2301 2301 2301 2301 2301 2301 2301 2301 2301 2301 2301 2301 2301 2301 2317 2317 2301 2301 2301 2301 2286 2286 2286 2301 2301 2286 2286 2286 2286 2286 2286 2301 2301 2317 2317 2317 2317 2317 2317 2301 2301 2301 2301 2301 2301 2317 2317 2317 2317 2333 2333 2333 2333 2333 2317 2317 2317 2317 2317 2317 2317 2333 2333 2333 2333 2333 2333 2333 2333 2333 2333 2333 2333 2333 2333 2333 2333 2333 2333 2333 2333 2349 2349 2349 2349 2333 2333 2333 2333 2333 2333 2333 2333 2333 2333 2349 2349 2349 2349 2365 2381 2381 2381 2349 2349 2349 2349 2333 2333 2333 2333 2333 2333 2333 2333 2333 2349 2349 2349 2349 2349 2349 2349 2349 2349 2349 2349 2349 2349 2365 2365 2365 2349 2349 2365 2365 2365 2365 2365 2365 2365 2365 2365 2365 2365 2365 2365 2365 2365 2365 2365 2365 2381 2381 2381 1853 1785 1785 1776 1776 1776 1766 1766 1766 1766 1766 1776 1776 1776 1785 1785 1776 1776 1776 2381 2365 2365 2365 2365 2381 2381 2381 2381 2381 2381 2381 2381 2381 2381 2365 2365 2365 2365 2365 2365 2365 2365 2365 2365 2365 2365 2365 2381 2381 2381 2381 2398 2415 2415 2065 2065 2078 2078 2090 2090 2103 2116 2116 2129 2129 2129 2143 2143 2143 2156 2381 2381 2381 2381 2381 2381 2381 2381 1616 1616 1616 1609 1609 1609 1609 1609 1609 1609 1616 1616 1624 1624 1632 1632 1632 1632 1632 2381 2365 2365 2381 2381 2381 2381 2415 2415 2398 2398 2415 2415 2415 2415 2415 2398 2398 2398 2398 2398 2398 1464 1464 1458 1458 1458 1452 1452 1452 1452 1452 1452 1452 1452 1452 1452 1458 1458 1458 1458 1464 1470 1470 1477 1477 1477 1477 1483 1483 1483 1483 1483 1483 1483 1483 1477 1477 1477 1477 1477 1483 1483 1483 1483 1483 1483 1483 1483 1483 1483 1483 1483 1483 1483 1483 1483 1483 1489 1489 1489 1489 1483 1483 1483 1483 1483 1489 1483 1483 1489 1489 1489 1489 1483 1483 1483 1483 1483 1483 1483 1483 1483 1483 1483 1483 1489 1483 1483 1489 1489 1483 1477 1477 1477 1477 1477 1477 1477 1477 1477 1477 1477 1477 1477 1477 1477 1477 1470 1470 1278 1278 1273 1273 1273 1268 1268 1264 1264 1264 1264 1264 1264 1264 1264 1268 1273 1278 1278 1283 1283 1470 1470 1470 1470 1477 1477 1477 1477 1477 1477 1477 1477 1477 1477 1477 1477 1477 1477 1477 1477 1477 1477 1477 1477 1477 1477 1483 1483 1483 1489 1489 1489 1496 1564 1564 1586 1594 1609 1616 1616 1616 1616 1624 1624 1624 2365 2365 2381 2381 2381 2381 2381 2381 2398 2398 2398 2398 2415 2415 2398 2398 2398 2381 2381 2381 2381 2381 2381 2381 2398 2398 2398 2398 1655 1655 1655 1663 1663 1663 1663 1663 1655 1655 1655 1655 1647 1647 1647 1647 1647 1259 1259 1255 1255 1255 1255 1259 1259 1259 1259 1255 1255 1255 1255 1255 1255 1255 1255 1250 1250 1250 1250 1250 1250 1245 1245 1245 1245 1241 1241 1241 1241 1241 1241 1236 1236 1236 1236 1236 1236 1236 1236 1236 1236 1241 1241 1250 1255 2398 2398 2398 2365 2365 2381 2365 2365 2365 2365 2365 2381 2381 2381 2365 2365 2365 2365 2365 2365 2365 2365 2365 2365 2365 2365 2365 2365 2365 2381 2365 2365 2365 2365 2365 2365 2365 2365 0 0 0 0 0 0 0 0 0
0 0 0 0 0 0 0 0 0 0 0 0 0 0 0 0 0 0 0 0 0 0 0 0 0 0 0 0 0 0 0 0 0 2286 2286 2286 2286 2286 2286 2286 2286 2286 2286 2286 2286 2286 2286 2286 2301 2301 2301 2301 2301 2301 2301 2301 2301 2301 2301 2301 2286 2286 2286 2286 2301 2301 2301 2301 2301 2286 2286 2286 2286 2286 2286 2286 2286 2271 2271 2271 2271 2271 2271 2271 2301 2301 2301 2317 2317 2317 2301 2301 2301 2301 2286 2286 2301 2301 2317 2317 2317 2317 2317 2317 2317 2317 2317 2317 2301 2301 2301 2317 2317 2317 2317 2317 2333 2317 2317 2317 2317 2317 2317 2317 2333 2333 2333 2333 2333 2333 2333 2333 2333 2333 2333 2333 2333 2333 2333 2333 2333 2333 2333 2333 2333 2333 2333 2333 2333 2333 2349 2365 2365 2381 2365 2349 2349 2349 2333 2333 2333 2333 2333 2333 2317 2317 2333 2333 2333 2333 2333 2333 2349 2349 2349 2349 2349 2349 2349 2349 2349 2349 2349 2349 2349 2349 2349 2365 2349 2349 2365 2349 2349 2365 2365 2365 2365 2365 2365 2365 2365 2365 2365 2365 2365 2365 2381 2381 1785 1785 1776 1776 1776 1776 1766 1766 1776 1776 1776 1776 1776 1785 1785 1785 1785 1785 2365 2365 2365 2365 2365 2365 2365 2365 2365 2381 2381 2381 2381 2381 2381 2365 2365 2365 2365 2365 2365 2365 2365 2365 2365 2365 2365 2365 2365 2365 2381 2381 2398 2398 2065 2065 2065 2078 2078 2090 2090 2103 2116 2116 2129 2129 2143 2143 2143 2156 2156 2365 2365 2381 2381 2381 2381 2381 2381 1616 1616 1616 1609 1609 1616 1616 1616 1616 1616 1616 1616 1624 1624 1632 1632 1632 1632 1632 2365 2365 2365 2365 2381 2381 2381 2415 2415 2398 2398 2398 2398 2398 2415 2415 2398 2398 2398 2398 2398 2365 1464 1464 1458 1458 1458 1452 1452 1452 1452 1452 1452 1452 1452 1452 1452 1452 1458 1458 1458 1464 1464 1470 1470 1477 1477 1477 1477 1477 1483 1483 1477 1477 1477 1477 1477 1477 1477 1477 1477 1477 1477 1477 1470 1470 1470 1470 1477 1483 1483 1477 1477 1483 1483 1483 1483 1483 1483 1483 1483 1483 1477 1477 1477 1477 1477 1477 1477 1477 1483 1483 1483 1483 1483 1477 1477 1477 1477 1477 1477 1477 1477 1477 1483 1483 1483 1483 1483 1483 1483 1483 1477 1477 1470 1470 1470 1470 1470 1470 1470 1470 1470 1470 1470 1470 1470 1470 1470 1470 1278 1278 1278 1273 1273 1268 1268 1264 1264 1264 1264 1264 1264 1264 1268 1268 1273 1278 1278 1283 1288 1464 1464 1464 1470 1470 1470 1470 1470 1470 1464 1464 1464 1464 1464 1464 1464 1464 1464 1464 1464 1470 1470 1470 1470 1477 1477 1477 1483 1483 1489 1489 1489 1496 1564 1572 1586 1594 1609 1616 1616 1616 1624 1624 1624 1624 2365 2365 2365 2365 2365 2365 2381 2381 2381 2381 2381 2381 2398 2381 2381 2381 2381 2381 2381 2381 2381 2381 2381 2381 2398 2398 2398 1655 1655 1655 1663 1663 1663 1663 1663 1663 1663 1655 1655 1655 1647 1647 1647 1647 1647 1250 1250 1250 1255 1255 1259 1259 1259 1259 1259 1259 1259 1255 1255 1259 1255 1255 1255 1250 1250 1250 1250 1250 1250 1245 1245 1250 1250 1245 1245 1241 1241 1241 1241 1236 1236 1236 1236 1236 1236 1236 1236 1236 1236 1241 1241 1255 1255 2398 2365 2365 2365 2365 2365 2365 2365 2365 2365 2365 2365 2365 2365 2365 2365 2365 2365 2365 2365 2365 2365 2365 2365 2365 2365 2365 2365 2365 2365 2365 2365 2365 2365 2365 2365 2349 2349 0 0 0 0 0 0 0 0 0
0 0 0 0 0 0 0 0 0 0 0 0 0 0 0 0 0 0 0 0 0 0 0 0 0 0 0 0 0 0 0 0 0 2271 2271 2271 2271 2271 2271 2271 2271 2271 2271 2271 2271 2271 2271 2271 2271 2286 2286 2286 2286 2286 2286 2286 2286 2286 2286 2286 2271 2271 2271 2286 2286 2286 2286 2286 2286 2271 2271 2271 2271 2271 2271 2271 2271 2271 2271 2271 2271 2271 2271 2271 2271 2286 2301 2301 2301 2301 2286 2286 2286 2286 2286 2286 2286 2286 2301 2301 2301 2317 2301 2301 2301 2301 2286 2286 2286 2286 2301 2301 2317 2317 2317 2317 2317 2317 2317 2317 2317 2317 2317 2317 2317 2317 2333 2333 2333 2333 2333 2333 2333 2333 2333 2333 2333 2333 2333 2333 2333 2333 2333 2333 2333 2333 2333 2333 2333 2333 2333 2349 2365 2365 2349 2333 2333 2333 2333 2317 2317 2317 2317 2317 2317 2317 2317 2317 2317 2317 2333 2333 2333 2333 2333 2333 2333 2333 2333 2333 2333 2349 2333 2333 2349 2349 2349 2349 2333 2333 2349 2349 2349 2349 2349 2349 2349 2349 2349 2365 2349 2349 2349 2349 2349 2349 2349 1794 1794 1785 1776 1776 1776 1776 1776 1776 1776 1776 1776 1776 1776 1785 1785 1785 1785 1785 2365 2365 2365 2365 2365 2365 2365 2365 2365 2365 2365 2381 2381 2381 2381 2365 2349 2349 2349 2349 2349 2365 2365 2365 2365 2365 2365 2365 2365 2365 2381 2381 2381 2381 2065 2065 2065 2078 2078 2090 2103 2116 2116 2129 2129 2129 2143 2143 2156 2156 2156 2365 2365 2365 2365 2365 2365 2365 2365 1624 1624 1616 1616 1616 1616 1616 1616 1616 1616 1616 1616 1624 1632 1632 1632 1632 1632 2365 2365 2365 2365 2365 2365 2381 2381 2398 2398 2398 2398 2398 2398 2398 2381 2381 2381 2381 2381 2365 2365 2365 1464 1464 1458 1458 1458 1452 1452 1452 1452 1452 1452 1452 1452 1452 1452 1452 1452 1458 1458 1464 1464 1464 1470 1470 1470 1477 1477 1477 1477 1477 1470 1470 1470 1470 1470 1470 1470 1470 1470 1470 1470 1470 1464 1464 1470 1470 1470 1477 1477 1477 1477 1477 1477 1477 1477 1477 1477 1477 1477 1470 1470 1470 1470 1470 1470 1470 1470 1470 1477 1477 1477 1477 1477 1477 1470 1470 1470 1470 1470 1470 1470 1470 1477 1477 1477 1477 1477 1477 1477 1477 1470 1470 1464 1464 1464 1464 1470 1470 1470 1470 1470 1470 1470 1470 1464 1464 1464 1464 1278 1278 1278 1278 1273 1273 1273 1268 1264 1264 1264 1264 1264 1264 1268 1268 1273 1278 1278 1283 1288 1458 1458 1464 1464 1464 1464 1464 1464 1464 1464 1458 1458 1458 1458 1458 1458 1458 1464 1458 1458 1464 1464 1464 1470 1470 1477 1477 1477 1483 1483 1489 1496 1564 1564 1579 1594 1601 1609 1616 1616 1616 1624 1624 1624 1624 2349 2349 2365 2365 2365 2365 2365 2365 2365 2365 2381 2381 2381 2381 2381 2381 2381 2381 2381 2381 2381 2381 2381 2381 2381 2398 2398 1663 1663 1663 1663 1671 1663 1663 1663 1663 1663 1655 1655 1655 1647 1647 1647 1647 1647 1255 1250 1250 1255 1255 1259 1259 1259 1259 1259 1259 1255 1255 1255 1255 1255 1255 1255 1255 1250 1250 1250 1250 1250 1245 1245 1250 1250 1245 1245 1241 1241 1241 1241 1241 1241 1241 1236 1236 1241 1241 1241 1241 1241 1241 1245 1245 1245 2349 2349 2349 2349 2349 2365 2349 2349 2349 2349 2349 2365 2365 2365 2365 2365 2365 2365 2349 2349 2349 2349 2349 2365 2365 2365 2365 2365 2365 2365 2365 2349 2349 2349 2349 2349 2349 2349 0 0 0 0 0 0 0 0 0
0 0 0 0 0 0 0 0 0 0 0 0 0 0 0 0 0 0 0 0 0 0 0 0 0 0 0 0 0 0 0 0 0 2271 2271 2271 2271 2271 2271 2271 2271 2271 2271 2271 2271 2271 2271 2271 2271 2271 2271 2271 2271 2271 2286 2286 2271 2271 2271 2271 2271 2271 2271 2271 2271 2271 2286 2286 2286 2271 2271 2271 2271 2271 2271 2271 2256 2256 2256 2256 2256 2256 2256 2256 2271 2271 2286 2286 2286 2286 2271 2271 2271 2271 2271 2271 2286 2286 2301 2301 2301 2317 2286 2286 2286 2286 2286 2286 2286 2286 2286 2301 2317 2317 2317 2317 2317 2301 2301 2301 2301 2301 2301 2317 2317 2317 2317 2333 2333 2317 2317 2317 2317 2317 2317 2317 2317 2317 2317 2317 2317 2317 2317 2317 2317 2317 2333 2333 2333 2333 2333 2333 2349 2349 2349 2333 2333 2333 2317 2317 2317 2317 2317 2317 2317 2317 2317 2317 2317 2317 2317 2317 2317 2317 2317 2333 2317 2317 2317 2317 2317 2333 2317 2317 2317 2317 2333 2333 2333 2333 2333 2333 2333 2349 2349 2349 2349 2349 2349 2349 2333 2333 2333 2333 2333 2333 2333 1853 1794 1785 1785 1776 1776 1776 1776 1776 1766 1766 1776 1776 1785 1785 1785 1785 1785 1785 2349 2349 2349 2349 2349 2349 2349 2365 2365 2365 2365 2365 2365 2365 2365 2349 2349 2349 2349 2349 2349 2349 2349 2349 2349 2349 2349 2349 2365 2365 2365 2365 2040 0 0 2065 2065 2078 2078 2090 2103 2116 2129 2129 2143 2143 2143 2156 2156 2156 2156 2349 2349 2365 2365 2365 2365 2365 2365 1624 1624 1616 1616 1616 1616 1616 1616 1616 1616 1616 1624 1624 1632 1632 1632 1632 1632 2349 2349 2349 2349 2349 2365 2365 2365 2365 2365 2381 2381 2381 2381 2381 2365 2365 2365 2381 2365 2365 2365 2365 2365 1464 1464 1464 1458 1452 1452 1452 1452 1452 1452 1452 1452 1452 1452 1452 1452 1452 1452 1458 1458 1464 1464 1464 1464 1464 1464 1464 1464 1470 1464 1464 1464 1464 1464 1464 1464 1464 1464 1464 1464 1464 1464 1464 1464 1464 1464 1470 1470 1470 1470 1470 1470 1470 1470 1470 1470 1470 1470 1464 1464 1464 1464 1464 1464 1464 1464 1464 1470 1470 1470 1470 1470 1464 1464 1464 1464 1464 1464 1464 1470 1470 1470 1470 1470 1477 1477 1477 1477 1470 1464 1464 1458 1458 1458 1458 1464 1464 1464 1464 1464 1464 1464 1464 1458 1458 1458 1458 1278 1278 1278 1278 1278 1273 1273 1268 1268 1264 1264 1264 1264 1264 1268 1273 1273 1278 1283 1283 1458 1458 1458 1458 1458 1458 1458 1458 1458 1458 1458 1452 1452 1458 1458 1458 1458 1458 1458 1458 1458 1458 1458 1464 1464 1470 1470 1477 1477 1483 1483 1489 1564 1564 1572 1594 1609 1616 1616 1624 1624 1624 1624 1624 1624 1624 2349 2349 2349 2349 2349 2365 2365 2365 2365 2365 2365 2365 2365 2365 2365 2365 2365 2381 2381 2381 2381 2381 2381 2381 2381 2381 2381 1663 1663 1663 1663 1671 1671 1671 1663 1663 1663 1663 1663 1655 1647 1647 1647 1647 1255 1255 1250 1250 1255 1255 1259 1259 1259 1259 1259 1259 1255 1255 1255 1255 1255 1255 1255 1255 1255 1250 1250 1250 1250 1250 1250 1250 1250 1250 1245 1245 1245 1241 1241 1241 1241 1241 1241 1241 1241 1241 1241 1241 1241 1245 1245 1245 0 2333 2333 2333 2333 2349 2349 2349 2349 2349 2349 2349 2349 2349 2349 2349 2349 2349 2349 2349 2349 2349 2349 2349 2349 2365 2349 2349 2365 2365 2365 2349 2349 2349 2349 2349 2349 2349 2349 0 0 0 0 0 0 0 0 0
0 0 0 0 0 0 0 0 0 0 0 0 0 0 0 0 0 0 0 0 0 0 0 0 0 0 0 0 0 0 0 0 0 2256 2256 2256 2256 2256 2271 2271 2256 2256 2256 2256 2271 2256 2256 2256 2256 2256 2256 2256 2271 2271 2271 2271 2271 2271 2271 2271 2271 2271 2271 2271 2271 2271 2271 2271 2271 2256 2256 2271 2256 2256 2256 2256 2256 2256 2241 2241 2241 2256 2256 2256 2256 2256 2271 2271 2271 2271 2271 2271 2271 2271 2271 2271 2271 2271 2271 2271 2286 2271 2271 2271 2271 2271 2271 2271 2271 2271 2286 2286 2301 2301 2301 2301 2301 2286 2286 2286 2286 2286 2286 2301 2301 2301 2301 2301 2301 2301 2317 2317 2317 2317 2317 2317 2317 2317 2317 2317 2317 2317 2317 2317 2317 2317 2317 2317 2317 2317 2333 2333 2333 2333 2333 2317 2317 2317 2317 2301 2301 2301 2301 2301 2301 2317 2317 2317 2317 2317 2317 2317 2317 2317 2317 2317 2317 2317 2317 2317 2317 2317 2317 2317 2317 2317 2317 2317 2317 2317 2317 2317 2317 2333 2333 2333 2333 2333 2333 2333 2333 2333 2333 2333 2317 2286 2256 1853 1853 1785 1776 1776 1776 1776 1776 1776 1766 1766 1776 1776 1785 1785 1794 1794 1794 1794 1915 1915 2333 2349 2349 2349 2349 2349 2349 2349 2349 2365 2365 2365 2365 2349 2349 2333 2333 2349 2349 2349 2349 2349 2349 2349 2028 2028 2028 2028 2028 2040 2040 0 0 2078 2078 2078 2090 2103 2116 2129 2129 2129 2143 2143 2143 2156 2156 2156 2184 2333 2333 2349 2349 2365 2365 2365 2365 1624 1624 1616 1616 1616 1616 1616 1616 1616 1624 1624 1624 1632 1632 1632 1632 1632 1632 2333 2333 2349 2349 2349 2365 2365 2365 2365 2365 2365 2365 2365 2365 2365 2365 2365 2365 2365 2365 2349 2349 2365 2365 1464 1464 1464 1458 1458 1458 1458 1458 1458 1452 1452 1452 1452 1452 1452 1452 1452 1452 1458 1458 1458 1458 1464 1464 1458 1458 1458 1464 1464 1458 1458 1464 1464 1464 1464 1464 1464 1464 1458 1458 1458 1458 1458 1458 1458 1458 1464 1464 1464 1464 1464 1464 1464 1464 1464 1464 1464 1464 1464 1464 1464 1464 1464 1464 1464 1464 1464 1464 1464 1464 1464 1464 1458 1458 1458 1458 1464 1464 1464 1464 1464 1464 1464 1464 1470 1470 1470 1470 1464 1458 1458 1452 1452 1458 1458 1458 1458 1458 1458 1458 1458 1458 1458 1452 1452 1452 1452 1283 1283 1278 1278 1278 1273 1273 1273 1268 1268 1264 1264 1264 1268 1268 1273 1273 1278 1283 1288 1458 1458 1458 1458 1458 1458 1458 1452 1452 1452 1452 1452 1452 1452 1452 1452 1452 1452 1452 1452 1452 1452 1458 1458 1464 1464 1470 1477 1477 1483 1483 1483 1616 1601 1601 1609 1616 1616 1624 1624 1624 1624 1624 1624 1632 2333 2333 2333 2333 2333 2349 2349 2349 2349 2349 2349 2365 2365 2365 2365 2365 2365 2365 2365 2365 2365 2365 2365 2365 2365 2365 2381 2381 1663 1663 1663 1663 1671 1671 1671 1663 1663 1663 1663 1663 1663 1647 1647 1647 1255 1255 1255 1255 1255 1255 1255 1259 1259 1259 1259 1259 1259 1259 1259 1259 1255 1255 1255 1255 1255 1255 1255 1255 1255 1255 1255 1255 1250 1250 1250 1245 1245 1245 1245 1241 1241 1241 1241 1241 1241 1241 1241 1241 1241 1241 1245 1245 1245 2301 2333 2333 2333 2333 2333 2349 2349 2333 2333 2333 2333 2349 2349 2333 2333 2349 2333 2333 2333 2333 2333 2333 2333 2333 2349 2333 2333 2349 2349 2349 2349 2349 2349 2349 2349 2349 2349 2349 0 0 0 0 0 0 0 0 0
0 0 0 0 0 0 0 0 0 0 0 0 0 0 0 0 0 0 0 0 0 0 0 0 0 0 0 0 0 0 0 0 0 2256 2256 2256 2256 2256 2256 2256 2256 2256 2256 2256 2256 2241 2241 2241 2241 2241 2256 2256 2256 2256 2271 2271 2256 2256 2256 2256 2256 2256 2256 2256 2256 2256 2271 2271 2271 2256 2256 2256 2256 2256 2256 2256 2256 2241 2241 2241 2241 2241 2256 2256 2256 2256 2271 2271 2271 2271 2256 2256 2271 2256 2256 2256 2256 2256 2271 2271 2271 2256 2256 2256 2256 2256 2256 2256 2271 2271 2271 2271 2286 2286 2286 2286 2286 2286 2271 2271 2286 2286 2271 2271 2271 2286 2286 2286 2286 2286 2301 2301 2286 2286 2286 2286 2286 2301 2301 2301 2301 2301 2301 2301 2301 2301 2286 2286 2301 2301 2301 2301 2301 2301 2301 2301 2286 2286 2286 2286 2286 2286 2301 2301 2301 2301 2301 2301 2317 2317 2317 2317 2301 2301 2317 2317 2317 2317 2317 2317 2317 2317 2317 2317 2317 2317 2317 2317 2317 2317 2317 2317 2317 2317 2317 2317 2317 2317 2317 2317 2317 2317 2317 2317 2301 2286 2256 2256 2256 1785 1776 1776 1776 1776 1776 1776 1776 1776 1776 1776 1785 1785 1794 1794 1794 1904 1904 1904 2317 2317 2317 2333 2333 2333 2333 2349 2349 2349 2349 2349 2349 2333 2333 2333 2333 2333 2333 2333 2333 2349 2028 2028 2028 2028 2028 2028 2028 2040 2040 2040 0 2040 2116 2116 2116 2116 2129 2143 2143 2143 2143 2156 2156 2156 2156 2170 2184 2333 2333 2349 2349 2349 2349 2349 2349 1616 1616 1616 1616 1616 1616 1616 1616 1616 1624 1624 1624 1632 1632 1632 1632 1632 1632 2333 2333 2333 2333 2349 2349 2349 2349 2365 2349 2349 2349 2349 2365 2349 2349 2349 2365 2365 2365 2349 2349 2365 2365 1464 1464 1464 1458 1458 1458 1458 1458 1458 1458 1452 1452 1452 1452 1452 1452 1445 1445 1452 1452 1452 1458 1458 1458 1458 1452 1452 1458 1458 1458 1458 1452 1452 1458 1458 1458 1458 1458 1458 1458 1458 1458 1458 1458 1458 1458 1458 1458 1458 1458 1458 1458 1458 1458 1458 1458 1458 1458 1458 1458 1458 1458 1458 1464 1458 1458 1458 1464 1464 1458 1458 1458 1458 1458 1458 1458 1458 1458 1458 1458 1458 1458 1464 1464 1464 1464 1464 1464 1464 1452 1452 1452 1452 1452 1452 1452 1452 1452 1452 1452 1452 1452 1445 1445 1445 1452 1452 1283 1283 1283 1278 1278 1273 1273 1273 1273 1268 1268 1268 1268 1268 1273 1273 1278 1278 1288 1292 1452 1452 1452 1452 1452 1452 1452 1445 1445 1445 1445 1445 1445 1452 1452 1452 1452 1452 1452 1452 1452 1452 1452 1452 1458 1464 1470 1477 1477 1483 1483 1616 1616 1616 1616 1616 1624 1624 1624 1624 1624 1624 1624 1624 1632 2317 2317 2317 2333 2333 2333 2333 2333 2349 2349 2349 2349 2349 2349 2349 2349 2365 2365 2365 2365 2349 2349 2365 2365 2365 2365 2365 2365 1663 1663 1663 1671 1671 1671 1671 1671 1663 1663 1663 1663 1663 1655 1655 1655 1655 1264 1264 1255 1255 1255 1259 1259 1264 1264 1259 1259 1259 1259 1259 1259 1259 1255 1255 1255 1255 1255 1255 1255 1255 1255 1255 1255 1250 1250 1250 1245 1245 1245 1245 1241 1241 1241 1241 1241 1241 1241 1241 1241 1241 1241 1245 1245 1245 2301 2301 2301 2317 2317 2333 2333 2333 2333 2333 2333 2333 2333 2317 2317 2317 2317 2317 2317 2317 2317 2317 2317 2317 2317 2333 2333 2333 2333 2333 2349 2333 2333 2333 2333 2333 2349 2349 2349 0 0 0 0 0 0 0 0 0
0 0 0 0 0 0 0 0 0 0 0 0 0 0 0 0 0 0 0 0 0 0 0 0 0 0 0 0 0 0 0 0 0 2241 2241 2241 2241 2241 2241 2241 2241 2241 2241 2241 2241 2241 2241 2241 2241 2241 2241 2256 2256 2256 2256 2256 2256 2241 2241 2226 2226 2241 2241 2241 2241 2241 2256 2256 2256 2256 2256 2256 2241 2241 2241 2256 2241 2241 2226 2226 2226 2241 2241 2241 2241 2256 2256 2256 2256 2256 2256 2256 2256 2256 2256 2256 2256 2256 2256 2256 2256 2256 2256 2256 2256 2256 2256 2256 2256 2271 2271 2271 2271 2271 2271 2271 2271 2271 2271 2271 2271 2271 2271 2271 2271 2271 2286 2286 2286 2286 2286 2286 2286 2271 2271 2271 2271 2286 2286 2286 2286 2286 2286 2286 2286 2286 2286 2286 2286 2286 2286 2286 2286 2301 2286 2286 2286 2286 2286 2286 2286 2271 2271 2286 2286 2286 2286 2286 2301 2301 2301 2301 2301 2301 2301 2301 2301 2301 2301 2301 2301 2301 2301 2301 2301 2301 2301 2301 2301 2301 2301 2301 2301 2317 2317 2317 2317 2317 2317 2317 2317 2317 2301 2301 2301 2286 2256 2256 2256 1776 1776 1776 1776 1776 1776 1776 1776 1776 1776 1776 1785 1785 1794 1794 1794 1904 1904 1904 2317 2317 2317 2317 2317 2333 2333 2333 2333 2333 2333 2333 2333 2317 2317 2317 2317 2317 2317 2333 2016 2016 2028 2028 2028 2028 2028 2028 2028 2028 2040 2040 2040 0 0 2143 2143 2143 2143 2156 2143 2143 2156 2156 2156 2170 2170 2170 2184 2198 2301 2333 2333 2349 2333 2333 2333 1616 1616 1616 1616 1616 1616 1624 1616 1616 1624 1624 1624 1632 1632 1632 1632 1632 1632 1632 2333 2333 2333 2333 2333 2349 2349 2349 2349 2349 2349 2349 2349 2349 2349 2349 2349 2349 2349 2349 2349 2349 2349 1483 1483 1470 1464 1458 1458 1458 1458 1458 1458 1458 1458 1458 1452 1452 1452 1445 1445 1452 1452 1452 1452 1452 1458 1452 1452 1452 1445 1445 1452 1452 1445 1445 1452 1452 1452 1452 1452 1452 1452 1452 1452 1452 1452 1452 1452 1452 1452 1452 1452 1452 1452 1452 1452 1452 1452 1452 1458 1452 1452 1458 1458 1458 1458 1458 1458 1458 1458 1458 1458 1452 1452 1452 1452 1452 1452 1452 1452 1452 1458 1458 1458 1458 1458 1458 1458 1458 1458 1452 1445 1445 1445 1445 1445 1445 1445 1445 1445 1445 1445 1445 1445 1439 1439 1439 1439 1297 1288 1288 1283 1283 1278 1278 1278 1278 1273 1273 1273 1273 1273 1273 1273 1278 1278 1283 1288 1292 1452 1452 1452 1445 1445 1445 1445 1445 1439 1439 1439 1439 1445 1445 1445 1445 1445 1445 1445 1445 1445 1445 1445 1452 1452 1464 1470 1477 1483 1516 1529 1624 1624 1624 1616 1616 1624 1624 1624 1624 1624 1624 1624 1624 1632 1639 2317 2317 2333 2333 2333 2333 2333 2333 2333 2333 2349 2349 2349 2349 2349 2349 2349 2349 2349 2349 2349 2349 2365 2365 2365 2365 2365 1671 1671 1671 1671 1671 1671 1671 1671 1663 1663 1663 1663 1663 1655 1655 1655 1655 1264 1264 1259 1259 1259 1259 1264 1264 1264 1259 1259 1259 1259 1259 1259 1259 1259 1255 1255 1255 1255 1255 1255 1255 1255 1255 1255 1255 1250 1250 1245 1245 1245 1245 1245 1241 1241 1241 1241 1241 1241 1241 1241 1241 1241 1241 1241 2286 2301 2301 2301 2301 2317 2317 2333 2317 2317 2317 2317 2317 2317 2317 2317 2317 2317 2317 2317 2317 2317 2317 2317 2317 2317 2317 2317 2317 2317 2317 2333 2317 2317 2317 2317 2333 2333 2333 2333 0 0 0 0 0 0 0 0 0
0 0 0 0 0 0 0 0 0 0 0 0 0 0 0 0 0 0 0 0 0 0 0 0 0 0 0 0 0 0 0 0 0 2241 2241 2241 2241 2241 2241 2226 2226 2241 2241 2226 2226 2241 2226 2226 2226 2226 2241 2241 2241 2241 2241 2241 2241 2241 2226 2226 2226 2226 2226 2226 2226 2241 2256 2256 2256 2241 2241 2241 2226 2226 2226 2226 2226 2226 2226 2226 2226 2226 2241 2241 2241 2241 2241 2256 2256 2256 2256 2256 2256 2241 2241 2241 2241 2241 2256 2256 2241 2241 2256 2256 2256 2256 2256 2256 2256 2256 2271 2271 2271 2271 2271 2271 2271 2271 2271 2271 2271 2271 2271 2271 2271 2271 2271 2271 2271 2271 2271 2271 2271 2271 2271 2271 2271 2286 2286 2286 2286 2286 2286 2286 2271 2271 2271 2271 2286 2286 2286 2286 2286 2286 2286 2271 2271 2271 2271 2271 2271 2271 2271 2271 2271 2286 2286 2286 2286 2286 2301 2301 2301 2301 2286 2286 2286 2286 2286 2286 2286 2301 2301 2301 2301 2301 2301 2301 2301 2301 2301 2301 2301 2301 2301 2301 2301 2301 2301 2301 2301 2301 2301 2286 2286 2256 2241 2241 2241 1776 1776 1776 1766 1766 1766 1776 1776 1776 1776 1785 1785 1785 1794 1794 1823 1894 1894 1904 2301 2301 2301 2317 2317 2317 2317 2317 2333 2333 2333 2317 2317 2301 2301 2317 2317 2317 2317 2333 2016 2016 2028 2028 2028 2028 2028 2028 2028 2028 2040 2040 2040 0 0 2184 0 2170 2156 2156 2156 2156 2156 2170 2170 2170 2170 2170 2198 2198 2301 2317 2317 2333 2333 2333 2333 1616 1616 1616 1616 1616 1616 1616 1616 1616 1624 1624 1632 1632 1632 1632 1632 1632 1632 1632 2317 2317 2317 2333 2333 2349 2349 2349 2349 2349 2349 2349 2349 2349 2349 2349 2349 2349 2349 2349 2349 2349 2349 1489 1489 1477 1464 1458 1458 1458 1458 1458 1458 1458 1458 1458 1458 1452 1452 1452 1452 1452 1452 1452 1452 1452 1452 1452 1445 1445 1445 1445 1445 1445 1445 1445 1445 1445 1445 1445 1445 1445 1445 1445 1445 1445 1452 1445 1445 1445 1445 1452 1452 1452 1452 1452 1452 1452 1452 1452 1452 1452 1452 1452 1452 1452 1452 1452 1452 1452 1452 1452 1452 1452 1452 1452 1452 1452 1452 1452 1452 1452 1452 1452 1452 1452 1452 1452 1452 1452 1445 1445 1439 1439 1439 1439 1439 1439 1439 1439 1439 1445 1439 1439 1439 1439 1439 1439 1433 1297 1288 1288 1283 1283 1283 1278 1278 1278 1278 1273 1273 1273 1273 1273 1278 1278 1278 1283 1292 1297 1297 1445 1445 1439 1439 1439 1439 1439 1433 1433 1433 1439 1439 1439 1439 1439 1439 1439 1439 1445 1445 1445 1445 1452 1452 1464 1470 1483 1489 1516 1529 1624 1624 1624 1624 1624 1624 1624 1624 1624 1624 1624 1624 1632 1639 1639 2317 2317 2317 2333 2333 2333 2333 2333 2333 2333 2333 2333 2333 2333 2333 2349 2349 2333 2333 2333 2333 2349 2349 2349 2349 2349 2365 2365 1671 1671 1671 1671 1671 1671 1671 1671 1663 1663 1663 1663 1663 1663 1663 1663 1268 1268 1268 1264 1264 1264 1264 1268 1264 1264 1259 1259 1259 1259 1259 1259 1259 1255 1255 1255 1255 1255 1255 1255 1255 1255 1255 1255 1255 1250 1250 1245 1245 1245 1245 1241 1241 1241 1241 1241 1241 1241 1241 1241 1245 1245 2286 2286 2286 2286 2301 2301 2301 2317 2317 2317 2301 2301 2301 2317 2317 2301 2301 2301 2301 2317 2301 2301 2301 2301 2317 2317 2317 2317 2301 2301 2301 2301 2301 2301 2301 2317 2317 2317 2317 2317 2317 0 0 0 0 0 0 0 0 0
0 0 0 0 0 0 0 0 0 0 0 0 0 0 0 0 0 0 0 0 0 0 0 0 0 0 0 0 0 0 0 0 0 2241 2226 2226 2241 2226 2226 2226 2226 2226 2226 2226 2226 2226 2226 2226 2226 2226 2226 2226 2226 2226 2226 2226 2226 2226 2226 2226 2226 2226 2226 2226 2226 2226 2241 2241 2241 2241 2241 2241 2226 2226 2226 2226 2226 2226 2226 2212 2212 2226 2226 2226 2226 2241 2241 2241 2241 2241 2241 2241 2241 2241 2241 2241 2241 2241 2241 2241 2226 2226 2241 2241 2241 2241 2241 2256 2256 2256 2256 2271 2271 2271 2271 2271 2271 2271 2256 2256 2256 2271 2256 2256 2256 2256 2271 2271 2271 2271 2271 2271 2271 2271 2271 2271 2271 2271 2271 2271 2271 2271 2271 2271 2271 2271 2271 2271 2271 2271 2271 2271 2271 2286 2286 2271 2271 2271 2271 2271 2271 2271 2271 2271 2271 2271 2271 2271 2271 2271 2286 2286 2286 2286 2286 2286 2286 2286 2286 2286 2286 2286 2286 2286 2286 2286 2286 2286 2286 2286 2286 2286 2286 2286 2286 2301 2301 2301 2301 2301 2301 2301 2301 2286 2271 2256 2241 2241 2241 2241 1766 1766 1766 1766 1766 1776 1776 1776 1776 1785 1785 1785 1794 1794 1823 1894 1894 1904 2301 2301 2301 2301 2317 2317 2317 2317 2317 2317 2317 2317 2317 2301 2301 2317 2317 2317 2317 2333 2005 2005 2016 2016 2016 2016 2028 2028 2028 2028 2040 2040 2040 2286 2286 2184 2184 2170 2170 2170 2156 2156 2170 2170 2170 2170 2170 2184 2198 2198 2286 2301 2317 2333 2333 2333 1616 1616 1616 1616 1616 1616 1616 1616 1616 1616 1624 1624 1632 1632 1632 1639 1639 1639 1639 1639 2317 2317 2317 2317 2317 2333 2333 2333 2333 2333 2333 2333 2333 2333 2333 2333 2349 2349 2349 2349 2349 2349 2349 1489 1489 1477 1458 1458 1464 1458 1458 1458 1458 1458 1458 1458 1458 1458 1458 1452 1452 1452 1452 1452 1452 1452 1452 1452 1445 1445 1445 1439 1439 1439 1439 1439 1439 1439 1439 1439 1439 1445 1445 1445 1445 1445 1445 1445 1439 1439 1439 1445 1445 1445 1445 1445 1445 1445 1445 1445 1445 1445 1445 1445 1445 1445 1445 1445 1445 1445 1445 1445 1445 1445 1445 1445 1445 1445 1445 1445 1445 1445 1445 1445 1445 1445 1445 1445 1445 1439 1439 1439 1433 1433 1433 1433 1433 1433 1433 1433 1439 1439 1439 1439 1439 1433 1433 1433 1433 1433 1288 1288 1283 1283 1283 1283 1278 1278 1278 1278 1278 1278 1273 1273 1278 1278 1283 1288 1292 1297 1297 1439 1433 1433 1433 1433 1433 1433 1433 1433 1433 1433 1433 1433 1433 1433 1433 1439 1439 1439 1439 1439 1439 1445 1452 1464 1470 1489 1503 1523 1639 1632 1632 1632 1624 1624 1624 1624 1624 1624 1632 1632 1624 1624 1639 2317 2317 2317 2317 2317 2317 2317 2317 2317 2333 2333 2333 2333 2333 2317 2317 2317 2317 2317 2317 2333 2333 2333 2333 2333 2333 2333 2333 2333 1671 1671 1671 1671 1671 1671 1671 1671 1663 1663 1663 1663 1663 1663 1663 1663 1273 1273 1273 1268 1268 1268 1268 1268 1264 1264 1259 1259 1259 1259 1259 1259 1259 1259 1259 1259 1259 1255 1255 1255 1259 1259 1255 1255 1255 1255 1250 1250 1250 1245 1245 1241 1241 1241 1241 1241 1241 1241 1241 1245 1245 1245 2286 2286 2286 2286 2301 2301 2301 2317 2317 2301 2301 2301 2301 2301 2301 2301 2301 2301 2301 2301 2301 2301 2301 2301 2301 2301 2301 2301 2301 2301 2301 2301 2301 2301 2301 2301 2301 2301 2301 2301 2301 0 0 0 0 0 0 0 0 0
0 0 0 0 0 0 0 0 0 0 0 0 0 0 0 0 0 0 0 0 0 0 0 0 0 0 0 0 0 0 0 0 0 2226 2226 2226 2226 2212 2212 2212 2212 2212 2212 2212 2212 2226 2226 2226 2226 2226 2226 2226 2226 2226 2226 2226 2226 2226 2226 2226 2226 2226 2226 2226 2226 2226 2241 2241 2241 2226 2226 2226 2212 2212 2212 2212 2212 2212 2212 2212 2212 2226 2226 2226 2226 2226 2241 2226 2226 2241 2241 2241 2241 2226 2226 2226 2226 2226 2226 2226 2226 2226 2226 2241 2241 2241 2241 2241 2241 2256 2256 2256 2256 2256 2256 2256 2256 2256 2256 2256 2256 2256 2256 2256 2256 2256 2271 2271 2271 2271 2271 2271 2271 2271 2271 2271 2271 2271 2256 2256 2271 2271 2271 2271 2271 2271 2271 2271 2271 2271 2271 2271 2271 2271 2271 2256 2256 2256 2256 2256 2256 2256 2256 2256 2256 2256 2256 2256 2271 2271 2271 2286 2286 2286 2271 2271 2271 2271 2271 2271 2271 2271 2271 2286 2286 2286 2286 2271 2271 2271 2271 2271 2286 2286 2286 2286 2301 2301 2301 2301 2301 2301 2286 2286 2256 2241 2241 2241 2241 2241 1766 1766 1766 1766 1766 1776 1776 1776 1776 1785 1785 1785 1794 1794 1794 1894 1894 1904 2301 2301 2301 2301 2301 2317 2317 2317 2317 2317 2317 2317 2317 2301 2301 2301 2317 2317 2333 1993 1993 2005 2016 2016 2016 2016 2016 2028 2016 2016 2016 2040 2040 2286 2286 2271 2184 2184 2170 2170 2170 2170 2170 2170 2170 2170 2184 2184 2198 2241 2271 2301 2301 2317 2317 2317 1616 1616 1616 1616 1616 1616 1616 1616 1616 1616 1616 1624 1632 1632 1632 1639 1639 1639 1632 1632 2301 2301 2301 2317 2317 2317 2317 2317 2333 2333 2333 2333 2333 2333 2333 2333 2333 2333 2333 2333 2349 2349 2349 1489 1489 1477 1458 1458 1464 1464 1458 1458 1458 1458 1458 1458 1458 1458 1458 1452 1452 1452 1452 1452 1452 1452 1452 1445 1445 1439 1439 1439 1439 1439 1439 1439 1439 1439 1439 1439 1439 1439 1439 1439 1439 1439 1439 1439 1439 1439 1439 1439 1439 1439 1439 1439 1439 1439 1439 1439 1439 1439 1439 1439 1439 1439 1439 1439 1439 1439 1439 1439 1439 1439 1439 1439 1439 1439 1439 1439 1439 1439 1439 1439 1439 1439 1439 1439 1439 1439 1439 1439 1433 1433 1433 1433 1433 1433 1433 1433 1433 1433 1433 1433 1433 1433 1433 1433 1427 1427 1288 1288 1288 1283 1283 1283 1283 1283 1278 1278 1278 1278 1278 1278 1278 1283 1288 1288 1297 1297 1297 1427 1427 1427 1427 1427 1427 1427 1427 1427 1427 1433 1433 1433 1433 1433 1433 1433 1433 1433 1433 1439 1439 1445 1452 1477 1503 1503 1509 1523 1639 1632 1632 1632 1632 1624 1624 1624 1624 1632 1624 1624 1624 1624 1639 2301 2301 2317 2317 2317 2317 2317 2317 2317 2317 2317 2317 2317 2317 2317 2317 2317 2317 2317 2317 2317 2317 2317 2317 2317 2317 2317 2317 2317 1680 1680 1671 1671 1671 1671 1671 1671 1671 1671 1671 1671 1663 1663 1663 1663 1273 1273 1273 1273 1268 1268 1268 1268 1264 1264 1259 1259 1259 1259 1259 1259 1259 1259 1259 1259 1259 1255 1255 1255 1259 1259 1255 1255 1255 1255 1250 1250 1250 1245 1245 1245 1245 1245 1245 1245 1245 1245 1245 1245 1245 2317 2286 2286 2286 2301 2301 2301 2301 2301 2301 2286 2286 2286 2286 2286 2286 2301 2301 2301 2301 2301 2301 2301 2301 2301 2301 2301 2301 2301 2301 2301 2301 2301 2301 2286 2286 2286 2286 2301 2301 2301 2301 0 0 0 0 0 0 0 0 0
0 0 0 0 0 0 0 0 0 0 0 0 0 0 0 0 0 0 0 0 0 0 0 0 0 0 0 0 0 0 0 0 0 2226 2212 2212 2212 2212 2212 2212 2212 2212 2212 2212 2212 2212 2212 2212 2212 2212 2212 2212 2212 2212 2212 2212 2226 2226 2226 2226 2226 2226 2226 2226 2226 2226 2226 2226 2226 2212 2212 2212 2212 2212 2212 2212 2212 2212 2212 2212 2212 2212 2212 2212 2226 2226 2226 2226 2226 2226 2226 2226 2226 2226 2212 2212 2212 2212 2212 2212 2212 2212 2226 2226 2226 2226 2241 2241 2241 2241 2241 2241 2241 2241 2241 2241 2256 2256 2241 2241 2241 2241 2241 2241 2256 2256 2256 2256 2256 2256 2256 2256 2256 2256 2256 2256 2256 2256 2256 2256 2256 2256 2256 2256 2256 2256 2256 2271 2271 2271 2271 2271 2271 2271 2271 2256 2256 2256 2256 2256 2256 2256 2256 2256 2256 2256 2256 2256 2256 2256 2256 2256 2256 2271 2271 2271 2256 2256 2256 2271 2271 2271 2271 2271 2271 2271 2271 2271 2271 2271 2271 2271 2271 2271 2271 2286 2286 2286 2286 2286 2286 2286 2286 2271 2256 2241 2241 2241 2241 2241 1766 1766 1776 1776 1776 1776 1776 1776 1776 1785 1785 1785 1794 1804 1804 1894 1894 1894 2301 2301 2301 2301 2301 2301 2301 2301 2301 2317 2301 2301 2301 2286 2286 2301 1981 1981 1981 1981 1981 1993 2005 2016 2016 2016 2016 2028 2016 2016 2016 2040 2301 2286 2286 2271 2198 2184 2170 2170 2170 2170 2170 2170 2170 2170 2184 2184 2198 2212 2256 2286 2286 2301 2301 2301 1616 1616 1616 1616 1616 1616 1616 1616 1616 1616 1616 1624 1632 1632 1632 1639 1639 1639 1632 1632 2301 2301 2301 2301 2301 2301 2301 2301 2317 2317 2317 2317 2317 2317 2317 2317 2317 2317 2317 2317 2333 2333 2333 1489 1489 1483 1464 1464 1464 1464 1458 1458 1458 1458 1458 1458 1458 1458 1458 1458 1458 1458 1458 1452 1452 1452 1452 1445 1445 1439 1439 1439 1439 1439 1439 1439 1439 1439 1433 1433 1433 1433 1439 1439 1439 1439 1439 1433 1433 1433 1433 1433 1433 1433 1433 1433 1433 1433 1433 1433 1433 1433 1433 1433 1433 1433 1433 1433 1433 1433 1433 1433 1433 1439 1439 1439 1433 1433 1433 1433 1433 1433 1433 1433 1433 1433 1433 1433 1433 1433 1433 1433 1427 1427 1427 1427 1427 1427 1427 1427 1433 1433 1433 1433 1433 1433 1427 1427 1427 1427 1292 1288 1288 1283 1283 1283 1283 1283 1278 1278 1278 1278 1278 1278 1283 1283 1288 1292 1297 1297 1297 1421 1421 1421 1421 1421 1421 1427 1427 1427 1427 1427 1427 1427 1427 1427 1427 1427 1433 1433 1433 1433 1439 1445 1464 1509 1516 1509 1509 1523 1639 1632 1632 1632 1632 1632 1624 1624 1624 1632 1624 1624 1616 1616 1624 2301 2301 2301 2301 2317 2317 2317 2317 2301 2301 2301 2301 2301 2301 2301 2301 2301 2301 2301 2301 2301 2301 2301 2301 2301 2301 2301 2301 2301 1680 1680 1671 1671 1671 1671 1671 1671 1671 1671 1671 1671 1671 1663 1663 1663 1273 1273 1273 1273 1268 1268 1268 1268 1264 1264 1264 1264 1264 1264 1259 1259 1259 1259 1259 1259 1259 1255 1255 1255 1255 1255 1255 1255 1255 1255 1250 1250 1250 1250 1245 1245 1245 1245 1245 1245 1245 1245 1245 1255 1255 2317 2317 2286 2286 2286 2286 2286 2286 2286 2286 2286 2286 2286 2286 2286 2286 2286 2286 2286 2286 2286 2286 2286 2286 2286 2286 2286 2286 2286 2271 2271 2271 2271 2271 2286 2286 2286 2286 2286 2286 2286 2286 0 0 0 0 0 0 0 0 0
0 0 0 0 0 0 0 0 0 0 0 0 0 0 0 0 0 0 0 0 0 0 0 0 0 0 0 0 0 0 0 0 0 2212 2212 2212 2212 2212 2212 2212 2212 2212 2212 2212 2212 2212 2212 2212 2212 2212 2212 2212 2212 2212 2212 2212 2212 2212 2212 2212 2212 2212 2212 2212 2212 2212 2212 2212 2226 2212 2212 2212 2198 2198 2198 2198 2198 2198 2198 2198 2198 2212 2212 2212 2212 2212 2212 2212 2212 2212 2226 2226 2226 2212 2212 2212 2212 2212 2212 2212 2212 2212 2226 2226 2226 2226 2226 2226 2226 2241 2241 2241 2241 2241 2241 2241 2241 2241 2226 2226 2226 2226 2226 2226 2241 2241 2241 2256 2256 2256 2256 2256 2256 2256 2256 2256 2241 2241 2241 2241 2241 2241 2256 2256 2256 2256 2256 2256 2256 2271 2271 2271 2271 2271 2271 2256 2256 2256 2256 2256 2256 2256 2256 2256 2256 2256 2256 2256 2241 2241 2256 2241 2241 2256 2256 2256 2256 2256 2256 2256 2256 2256 2256 2256 2256 2256 2256 2256 2256 2256 2256 2256 2271 2271 2271 2271 2271 2286 2286 2286 2286 2271 2271 2256 2241 2241 2241 2241 2241 1776 1776 1776 1776 1776 1776 1776 1776 1776 1776 1785 1785 1785 1794 1794 1894 1894 1894 1894 2301 2286 2286 2301 2301 2301 2301 2301 2301 2301 2301 2286 2286 2271 2271 1981 1981 1981 1981 1981 1981 1981 2005 2005 2016 2016 2016 2016 2028 2028 2028 2286 2286 2286 2286 2271 2256 2226 2184 2184 2170 2170 2170 2170 2170 2170 2184 2184 2198 2212 2241 2271 2286 2286 2286 2286 1616 1616 1616 1616 1616 1616 1616 1616 1616 1616 1616 1624 1632 1632 1632 1639 1639 1639 1639 1639 2286 2286 2301 2301 2301 2301 2301 2301 2301 2301 2301 2301 2301 2301 2301 2301 2301 2301 2301 2301 2317 2317 2317 2317 1489 1483 1464 1464 1464 1464 1464 1464 1458 1458 1458 1458 1458 1458 1458 1458 1458 1458 1458 1458 1452 1452 1452 1445 1445 1445 1439 1439 1439 1439 1439 1439 1439 1439 1433 1433 1433 1433 1433 1433 1433 1433 1433 1433 1433 1433 1433 1433 1433 1433 1433 1433 1433 1433 1433 1427 1427 1427 1427 1427 1427 1427 1427 1427 1427 1427 1433 1433 1433 1433 1433 1433 1433 1433 1427 1427 1427 1427 1427 1427 1427 1427 1433 1433 1433 1433 1433 1433 1427 1427 1427 1421 1421 1427 1427 1427 1427 1427 1427 1427 1427 1427 1427 1427 1427 1427 1292 1288 1288 1288 1288 1283 1283 1283 1283 1278 1278 1278 1278 1278 1283 1283 1292 1292 1297 1292 1292 1415 1415 1415 1415 1421 1421 1421 1421 1421 1421 1421 1421 1421 1421 1421 1427 1427 1433 1433 1433 1433 1439 1509 1509 1523 1523 1523 1523 1523 1639 1639 1639 1639 1639 1632 1632 1632 1632 1632 1624 1624 1616 1616 1624 2301 2301 2301 2301 2301 2301 2301 2301 2301 2301 2301 2301 2301 2286 2286 2286 2286 2286 2286 2286 2301 2301 2301 2301 2301 2286 2286 2301 2301 1688 1680 1680 1680 1671 1671 1671 1671 1671 1671 1671 1671 1671 1663 1663 1663 1273 1273 1273 1273 1268 1268 1268 1268 1264 1264 1264 1264 1264 1264 1264 1264 1259 1259 1259 1259 1259 1255 1255 1255 1255 1255 1255 1255 1255 1255 1250 1250 1250 1250 1245 1245 1245 1245 1245 1245 1245 1245 1250 1250 1250 2301 2301 2286 2286 2286 2286 2286 2286 2286 2286 2286 2286 2271 2271 2271 2271 2271 2271 2271 2271 2286 2286 2286 2286 2286 2286 2286 2286 2271 2271 2256 2256 2271 2271 2256 2256 2256 2256 2271 2271 2256 2256 0 0 0 0 0 0 0 0 0
0 0 0 0 0 0 0 0 0 0 0 0 0 0 0 0 0 0 0 0 0 0 0 0 0 0 0 0 0 0 0 0 0 2212 2212 2212 2198 2198 2198 2198 2198 2198 2198 2198 2198 2198 2198 2198 2198 2198 2198 2198 2212 2212 2212 2212 2212 2212 2212 2212 2212 2212 2212 2212 2212 2212 2212 2212 2212 2212 2212 2212 2198 2198 2198 2198 2198 2198 2198 2198 2198 2212 2198 2198 2198 2212 2212 2212 2212 2212 2212 2212 2212 2212 2212 2212 2212 2212 2212 2212 2212 2212 2212 2226 2226 2226 2226 2226 2226 2226 2226 2226 2226 2226 2226 2226 2241 2226 2226 2226 2226 2226 2226 2226 2226 2241 2241 2241 2241 2256 2256 2256 2256 2241 2241 2241 2241 2241 2241 2226 2226 2241 2241 2241 2256 2256 2256 2256 2256 2256 2256 2256 2256 2256 2256 2241 2241 2241 2241 2241 2241 2241 2241 2241 2241 2241 2241 2241 2241 2241 2241 2241 2241 2241 2241 2241 2241 2241 2241 2256 2256 2256 2256 2256 2256 2256 2256 2256 2256 2256 2256 2256 2256 2256 2256 2271 2271 2271 2271 2271 2271 2256 2256 2256 2241 2226 2226 2241 2241 1776 1776 1776 1776 1776 1776 1776 1776 1776 1785 1785 1785 1794 1794 1794 1894 1894 1894 1904 2286 2286 2286 2286 2286 2301 2286 2286 2286 2301 2286 2286 2286 2256 2256 1981 1981 1981 1981 1981 1981 1981 2005 2005 2016 2016 2016 2016 2028 2028 2028 2286 2271 2271 2271 2271 2256 2226 2198 2184 2184 2184 2170 2170 2170 2170 2184 2184 2198 2212 2241 2271 2271 2286 2286 2286 1624 1624 1624 1624 1624 1616 1616 1616 1616 1624 1624 1624 1632 1632 1639 1639 1639 1639 1639 2271 2271 2271 2286 2286 2301 2301 2301 2301 2301 2301 2301 2301 2301 2301 2301 2301 2301 2301 2301 2301 2301 2301 2301 2301 1489 1489 1464 1464 1464 1464 1464 1458 1458 1458 1458 1458 1464 1458 1458 1458 1458 1458 1458 1458 1458 1458 1458 1452 1452 1445 1445 1439 1439 1439 1439 1439 1433 1433 1433 1433 1433 1433 1433 1433 1433 1427 1427 1427 1427 1427 1427 1427 1427 1427 1433 1433 1427 1427 1427 1421 1421 1427 1421 1421 1421 1421 1421 1421 1421 1421 1421 1421 1427 1427 1427 1427 1427 1427 1427 1427 1421 1421 1427 1427 1427 1427 1427 1427 1427 1427 1427 1427 1421 1421 1421 1421 1421 1421 1421 1421 1421 1421 1427 1427 1421 1421 1421 1421 1421 1421 1288 1288 1288 1288 1288 1288 1283 1283 1283 1283 1278 1278 1283 1283 1283 1288 1292 1292 1297 1292 1292 1415 1415 1410 1410 1415 1415 1410 1410 1415 1415 1415 1415 1415 1415 1421 1421 1427 1427 1433 1433 1433 1496 1509 1509 1516 1523 1516 1516 1523 1647 1639 1639 1639 1639 1632 1632 1632 1632 1632 1624 1624 1624 1624 1624 2286 2286 2286 2301 2301 2301 2301 2301 2301 2301 2286 2286 2286 2286 2286 2286 2286 2286 2286 2286 2286 2286 2286 2286 2286 2286 2286 2271 2271 1688 1680 1680 1680 1680 1671 1671 1671 1671 1671 1671 1671 1671 1663 1663 1663 1273 1273 1273 1273 1268 1268 1268 1268 1264 1264 1264 1264 1264 1264 1264 1264 1259 1259 1259 1259 1259 1255 1255 1255 1255 1255 1255 1255 1255 1255 1255 1255 1250 1250 1250 1250 1245 1245 1245 1245 1245 1245 1250 1250 1250 2286 2286 2271 2271 2271 2271 2271 2271 2271 2271 2271 2271 2256 2256 2256 2256 2271 2271 2271 2271 2271 2271 2271 2286 2271 2271 2271 2271 2256 2256 2241 2241 2256 2256 2256 2256 2256 2256 2256 2256 2256 2256 0 0 0 0 0 0 0 0 0
0 0 0 0 0 0 0 0 0 0 0 0 0 0 0 0 0 0 0 0 0 0 0 0 0 0 0 0 0 0 0 0 0 2212 2198 2198 2198 2198 2198 2198 2184 2184 2184 2184 2184 2184 2184 2184 2184 2184 2184 2184 2198 2198 2198 2198 2198 2198 2198 2198 2198 2198 2198 2198 2198 2198 2198 2198 2198 2198 2198 2198 2198 2198 2198 2198 2198 2198 2198 2198 2198 2198 2198 2198 2198 2198 2198 2198 2198 2198 2198 2198 2198 2198 2198 2198 2198 2198 2198 2198 2198 2198 2212 2212 2212 2226 2226 2226 2212 2212 2226 2226 2226 2226 2226 2226 2226 2226 2212 2212 2212 2212 2212 2226 2226 2226 2226 2226 2241 2241 2241 2241 2241 2241 2241 2241 2226 2226 2226 2226 2226 2226 2226 2226 2241 2241 2241 2256 2256 2256 2256 2256 2256 2256 2256 2241 2241 2241 2241 2241 2241 2241 2241 2241 2241 2241 2241 2241 2226 2226 2226 2226 2226 2226 2226 2241 2241 2241 2241 2241 2241 2241 2256 2256 2256 2256 2241 2241 2241 2256 2241 2241 2256 2256 2256 2256 2256 2256 2256 2256 2256 2256 2241 2241 2226 2226 2226 2226 1785 1776 1776 1776 1776 1776 1776 1776 1776 1776 1785 1785 1785 1794 1794 1794 1794 1904 1904 1915 1926 2271 2271 2271 2286 2286 2286 2286 2286 2301 2286 2286 2286 2256 1981 1981 1981 1981 1981 1981 1981 1993 2005 2005 2016 2016 2016 2016 2028 2028 2286 2271 2271 2271 2271 2271 2256 2226 2212 2184 2184 2184 2170 2170 2170 2170 2184 2184 2212 2226 2241 2271 2271 2271 2271 2271 1624 1624 1624 1624 1624 1616 1616 1616 1616 1624 1624 1624 1632 1632 1639 1639 1639 1639 1639 2271 2271 2271 2286 2286 2286 2301 2301 2301 2286 2286 2286 2286 2286 2286 2286 2286 2286 2286 2286 2286 2286 2286 2286 2286 1477 1477 1464 1464 1464 1464 1464 1458 1458 1458 1464 1464 1464 1464 1464 1458 1458 1458 1458 1458 1458 1458 1458 1452 1452 1452 1445 1445 1445 1439 1439 1439 1433 1433 1433 1433 1433 1427 1427 1427 1427 1421 1421 1421 1421 1421 1421 1421 1421 1421 1421 1421 1421 1415 1415 1415 1415 1415 1415 1415 1415 1415 1415 1415 1421 1421 1421 1421 1421 1421 1421 1421 1421 1421 1415 1415 1415 1415 1421 1421 1421 1421 1421 1427 1421 1421 1421 1421 1415 1415 1415 1415 1415 1415 1421 1421 1421 1421 1421 1421 1421 1421 1415 1415 1415 1415 1288 1288 1288 1288 1288 1288 1283 1283 1283 1283 1283 1283 1283 1283 1283 1288 1292 1292 1297 1297 1410 1410 1410 1410 1410 1410 1410 1410 1410 1410 1410 1410 1410 1410 1415 1415 1421 1421 1427 1433 1433 1496 1496 1509 1509 1516 1516 1509 1509 1647 1647 1647 1639 1639 1639 1639 1632 1632 1632 1632 1632 1624 1616 1616 1624 2271 2271 2286 2286 2286 2286 2286 2286 2286 2286 2286 2286 2286 2271 2271 2271 2286 2286 2286 2286 2286 2271 2271 2271 2271 2271 2271 2271 2271 2271 1688 1680 1680 1680 1671 1671 1671 1671 1671 1671 1671 1671 1663 1663 1663 1273 1273 1273 1273 1268 1268 1268 1268 1268 1264 1264 1264 1264 1264 1264 1264 1264 1264 1259 1259 1259 1259 1259 1259 1259 1255 1255 1255 1255 1255 1255 1255 1250 1250 1250 1250 1250 1250 1245 1245 1245 1245 1250 1255 1255 2256 2256 2256 2256 2256 2271 2271 2271 2271 2271 2271 2271 2256 2256 2256 2256 2256 2256 2256 2256 2256 2256 2271 2271 2271 2271 2256 2256 2241 2241 2241 2241 2256 2256 2241 2241 2241 2241 2256 2256 2256 2256 0 0 0 0 0 0 0 0 0
0 0 0 0 0 0 0 0 0 0 0 0 0 0 0 0 0 0 0 0 0 0 0 0 0 0 0 0 0 0 0 0 0 2198 2184 2184 2184 2184 2184 2184 2170 2170 2170 2170 2170 2184 2184 2184 2184 2170 2170 2184 2184 2184 2184 2198 2198 2198 2198 2198 2184 2184 2184 2198 2198 2198 2198 2184 2184 2198 2198 2198 2198 2198 2198 2198 2198 2198 2198 2198 2198 2198 2198 2184 2184 2184 2184 2184 2184 2198 2198 2198 2198 2198 2198 2198 2198 2198 2198 2198 2198 2198 2198 2212 2212 2212 2212 2212 2212 2212 2212 2212 2212 2212 2212 2212 2212 2212 2212 2212 2212 2212 2212 2212 2226 2226 2226 2226 2226 2226 2241 2241 2241 2241 2241 2241 2226 2226 2226 2226 2226 2226 2226 2226 2226 2241 2241 2241 2241 2241 2241 2241 2241 2241 2256 2241 2226 2226 2226 2226 2241 2241 2241 2241 2241 2241 2241 2226 2226 2226 2212 2212 2212 2212 2212 2226 2226 2226 2226 2241 2241 2241 2241 2241 2241 2241 2241 2241 2241 2241 2241 2241 2241 2241 2241 2241 2241 2241 2241 2241 2241 2241 2241 2241 2226 2226 2226 2241 1785 1776 1776 1776 1776 1776 1776 1776 1776 1776 1785 1785 1785 1794 1794 1794 1904 1904 1904 1926 1926 2256 2256 2256 2271 2271 2271 2271 2271 2301 2286 2286 2286 2286 1981 1981 1981 1981 1981 1981 1981 1993 2005 2005 2005 2016 2016 2028 2028 2256 2256 2256 2256 2256 2256 2256 2241 2226 2212 2198 2184 2184 2170 2170 2170 2170 2184 2184 2212 2226 2241 2256 2256 2271 2271 2271 1624 1624 1624 1624 1624 1624 1624 1624 1624 1624 1624 1632 1632 1632 1639 1639 1639 1639 1639 2256 2256 2256 2286 2286 2286 2286 2286 2286 2286 2286 2286 2286 2286 2286 2286 2271 2271 2271 2271 2271 2256 2256 2271 2271 1477 1477 1464 1464 1464 1464 1464 1464 1464 1464 1464 1464 1464 1464 1464 1464 1464 1464 1464 1464 1458 1458 1458 1458 1458 1452 1452 1452 1445 1445 1445 1439 1439 1439 1433 1433 1433 1427 1427 1427 1421 1421 1421 1415 1415 1415 1415 1415 1415 1415 1415 1415 1415 1415 1410 1410 1415 1415 1415 1410 1410 1415 1415 1415 1415 1410 1410 1415 1415 1410 1410 1410 1410 1410 1410 1410 1410 1410 1410 1410 1410 1410 1415 1415 1421 1415 1415 1415 1410 1410 1410 1410 1410 1410 1415 1415 1415 1415 1415 1415 1415 1415 1410 1410 1410 1410 1288 1288 1288 1288 1288 1288 1283 1283 1283 1283 1283 1283 1283 1283 1288 1292 1292 1292 1297 1297 1410 1410 1410 1410 1410 1404 1404 1404 1404 1404 1404 1404 1410 1410 1410 1415 1415 1421 1427 1433 1483 1496 1496 1503 1509 1516 1509 1503 1503 1647 1647 1647 1639 1639 1639 1639 1632 1632 1632 1632 1624 1624 1616 1616 1624 2256 2256 2271 2271 2271 2271 2271 2271 2271 2271 2271 2271 2271 2271 2271 2271 2271 2271 2271 2271 2271 2271 2271 2256 2256 2271 2271 2256 2256 2256 1688 1680 1680 1680 1680 1671 1671 1671 1671 1671 1671 1671 1663 1663 1663 1292 1292 1273 1273 1273 1273 1268 1268 1268 1268 1264 1264 1264 1264 1264 1264 1264 1264 1259 1259 1259 1259 1259 1259 1259 1259 1255 1255 1255 1255 1255 1255 1255 1250 1250 1250 1250 1250 1245 1245 1245 1245 1250 1255 1255 2256 2256 2256 2256 2256 2256 2256 2256 2256 2256 2256 2256 2241 2241 2241 2241 2241 2241 2241 2241 2241 2256 2256 2256 2256 2256 2241 2241 2241 2241 2226 2226 2241 2241 2241 2241 2241 2241 2241 2241 2241 2241 0 0 0 0 0 0 0 0 0
0 0 0 0 0 0 0 0 0 0 0 0 0 0 0 0 0 0 0 0 0 0 0 0 0 0 0 0 0 0 0 0 0 2198 2170 2170 2170 2170 2170 2170 2170 2170 2170 2170 2170 2170 2170 2170 2170 2170 2170 2170 2184 2184 2184 2184 2184 2184 2184 2170 2170 2170 2170 2184 2184 2184 2184 2184 2184 2184 2184 2184 2184 2184 2184 2198 2198 2198 2198 2184 2184 2184 2184 2170 2170 2170 2170 2184 2184 2184 2198 2198 2198 2198 2198 2198 2198 2184 2184 2198 2198 2198 2198 2198 2198 2212 2212 2212 2212 2212 2198 2198 2212 2212 2198 2198 2212 2212 2212 2212 2212 2212 2212 2212 2212 2212 2212 2212 2212 2212 2226 2226 2226 2226 2226 2226 2226 2226 2212 2212 2212 2212 2212 2212 2212 2226 2226 2226 2226 2226 2226 2241 2241 2241 2241 2226 2226 2226 2226 2226 2226 2226 2226 2226 2226 2226 2226 2226 2226 2212 2212 2212 2212 2212 2212 2212 2212 2212 2212 2226 2226 2226 2241 2241 2241 2241 2241 2241 2241 2241 2241 2241 2241 2241 2241 2241 2241 2241 2241 2241 2241 2241 2241 2241 2226 2226 2241 2241 2241 1776 1776 1776 1776 1776 1776 1776 1776 1776 1785 1785 1785 1794 1794 1794 1904 1904 1915 1926 1926 2256 2256 2256 2256 2271 2271 2271 2271 2286 2301 2301 1981 1981 1981 1981 1981 1981 1981 1981 1981 1981 2005 2005 2005 2016 2016 2256 2256 2256 2256 2256 2256 2256 2256 2256 2241 2226 2212 2198 2184 2184 2170 2170 2170 2170 2184 2184 2212 2226 2226 2241 2241 2241 2241 2241 1624 1624 1624 1624 1624 1624 1624 1624 1624 1624 1632 1632 1632 1639 1639 1639 1647 1647 2256 2256 2256 2256 2271 2271 2286 2286 2286 2286 2286 2271 2271 2271 2271 2271 2271 2271 2271 2256 2256 2256 2241 2241 2256 2256 1483 1483 1464 1464 1464 1464 1464 1464 1464 1464 1464 1464 1464 1464 1464 1464 1464 1464 1464 1464 1464 1464 1458 1458 1458 1452 1452 1452 1452 1445 1445 1445 1439 1439 1433 1433 1433 1427 1427 1427 1421 1421 1421 1415 1415 1415 1415 1415 1415 1415 1415 1415 1415 1415 1410 1410 1410 1410 1410 1410 1410 1410 1410 1410 1410 1410 1410 1410 1410 1404 1404 1404 1404 1404 1404 1404 1404 1404 1404 1404 1410 1410 1410 1410 1410 1410 1410 1410 1404 1404 1404 1404 1404 1404 1404 1404 1404 1404 1404 1404 1410 1404 1404 1404 1404 1404 1292 1292 1292 1292 1292 1288 1288 1283 1283 1283 1283 1283 1283 1283 1288 1292 1292 1292 1297 1297 1404 1404 1404 1404 1404 1404 1404 1404 1404 1404 1404 1404 1404 1404 1410 1415 1415 1421 1427 1477 1483 1496 1496 1503 1509 1509 1509 1503 1503 1647 1647 1647 1647 1647 1647 1639 1632 1632 1632 1632 1624 1624 1616 1616 1624 2241 2256 2256 2256 2271 2271 2271 2271 2271 2271 2271 2271 2271 2256 2256 2271 2271 2271 2271 2271 2271 2256 2256 2256 2256 2256 2256 2256 2256 1696 1688 1688 1680 1680 1680 1671 1671 1671 1671 1671 1671 1671 1671 1671 1671 1292 1292 1273 1273 1273 1273 1273 1268 1268 1268 1268 1268 1264 1264 1264 1264 1264 1264 1259 1259 1259 1259 1259 1259 1259 1255 1255 1255 1255 1255 1255 1255 1255 1250 1250 1250 1250 1250 1245 1245 1245 1245 1250 1250 2241 2241 2241 2241 2241 2241 2241 2241 2241 2241 2241 2241 2241 2241 2241 2241 2241 2241 2241 2241 2241 2241 2241 2241 2241 2241 2241 2226 2226 2226 2226 2226 2226 2241 2241 2241 2241 2241 2241 2241 2241 2241 2241 0 0 0 0 0 0 0 0 0
0 0 0 0 0 0 0 0 0 0 0 0 0 0 0 0 0 0 0 0 0 0 0 0 0 0 0 0 0 0 0 0 0 2184 2170 2170 2170 2170 2170 2170 2170 2170 2170 2170 2170 2170 2170 2170 2170 2170 2170 2170 2170 2170 2170 2170 2170 2170 2170 2170 2170 2170 2170 2170 2170 2170 2170 2170 2170 2170 2170 2184 2184 2184 2184 2184 2170 2170 2170 2170 2170 2184 2170 2170 2170 2170 2170 2170 2170 2184 2184 2184 2184 2184 2184 2184 2184 2184 2184 2184 2198 2198 2198 2198 2198 2198 2198 2198 2198 2198 2198 2198 2198 2198 2198 2198 2198 2198 2198 2198 2198 2198 2198 2198 2198 2212 2198 2198 2212 2212 2212 2212 2226 2212 2212 2212 2212 2212 2212 2212 2212 2212 2212 2212 2212 2212 2212 2212 2212 2226 2226 2226 2226 2226 2241 2226 2226 2212 2212 2226 2226 2226 2226 2226 2226 2226 2226 2212 2212 2198 2198 2198 2198 2198 2198 2212 2212 2212 2212 2212 2212 2226 2226 2226 2241 2241 2241 2241 2241 2241 2241 2241 2241 2241 2241 2241 2226 2226 2226 2226 2226 2226 2226 2226 2226 2226 2241 2241 2241 1785 1785 1785 1776 1776 1776 1776 1776 1785 1785 1785 1785 1794 1794 1794 1833 1904 1915 1926 1926 1926 2241 2241 2256 2256 2256 2256 2256 2286 2286 2286 1981 1981 1970 1970 1970 1970 1970 1981 1981 1981 2005 2005 2005 2016 2256 2256 2256 2241 2241 2241 2241 2241 2241 2241 2226 2226 2198 2198 2184 2184 2170 2170 2170 2170 2184 2184 2212 2212 2226 2241 2241 2241 2241 2241 1632 1632 1632 1632 1624 1624 1632 1624 1624 1632 1632 1632 1632 1639 1639 1639 1639 1639 2241 2241 2256 2256 2256 2256 2256 2256 2271 2271 2271 2271 2256 2256 2256 2256 2256 2256 2256 2256 2241 2241 2241 2241 2256 2256 2256 1496 1477 1470 1470 1470 1470 1464 1464 1464 1464 1464 1464 1470 1464 1464 1464 1464 1464 1464 1464 1464 1458 1458 1458 1458 1452 1452 1452 1452 1452 1445 1439 1439 1439 1433 1433 1433 1427 1427 1421 1421 1421 1415 1415 1415 1415 1415 1415 1410 1410 1410 1410 1410 1410 1410 1410 1410 1410 1410 1410 1410 1410 1404 1404 1404 1404 1404 1404 1398 1398 1398 1398 1398 1398 1398 1398 1404 1404 1404 1404 1404 1404 1404 1404 1404 1404 1404 1398 1398 1404 1404 1398 1398 1404 1398 1398 1404 1404 1404 1404 1404 1398 1398 1404 1404 1297 1297 1292 1292 1292 1292 1288 1288 1288 1283 1283 1283 1283 1288 1288 1292 1297 1297 1297 1297 1392 1398 1398 1404 1398 1398 1398 1398 1398 1398 1398 1398 1398 1404 1410 1415 1415 1427 1470 1477 1483 1496 1496 1503 1509 1509 1509 1509 1647 1647 1647 1647 1647 1647 1647 1639 1632 1632 1632 1632 1624 1624 1616 1616 2226 2226 2241 2241 2256 2256 2256 2256 2256 2256 2256 2256 2256 2256 2256 2256 2256 2256 2256 2256 2256 2256 2256 2256 2256 2256 2256 2256 2256 2256 1696 1688 1688 1680 1680 1680 1680 1680 1680 1680 1680 1680 1680 1671 1671 1671 1292 1292 1273 1273 1273 1273 1273 1268 1268 1268 1268 1268 1264 1264 1264 1264 1264 1264 1259 1259 1259 1259 1259 1259 1259 1255 1255 1255 1255 1255 1255 1255 1255 1255 1255 1250 1250 1250 1250 1250 1250 1250 1250 1250 2241 2241 2241 2241 2241 2241 2241 2241 2241 2241 2241 2241 2241 2241 2226 2226 2226 2226 2226 2226 2241 2241 2241 2241 2241 2226 2226 2226 2226 2226 2226 2226 2226 2226 2226 2226 2226 2241 2241 2241 2226 2226 2241 0 0 0 0 0 0 0 0 0
0 0 0 0 0 0 0 0 0 0 0 0 0 0 0 0 0 0 0 0 0 0 0 0 0 0 0 0 0 0 0 0 0 2184 2170 2170 2170 2170 2170 2170 2170 2170 2156 2156 2156 2170 2170 2170 2170 2170 2170 2170 2170 2170 2170 2170 2170 2170 2156 2156 2156 2156 2156 2156 2156 2170 2170 2170 2170 2170 2170 2170 2170 2156 2156 2156 2170 2170 2170 2170 2170 2170 2170 2156 2156 2156 2156 2170 2170 2170 2184 2184 2170 2170 2170 2170 2184 2170 2170 2184 2184 2184 2184 2198 2198 2198 2198 2198 2198 2198 2198 2198 2198 2198 2198 2198 2198 2198 2198 2198 2198 2198 2198 2198 2198 2198 2198 2198 2198 2198 2212 2212 2212 2212 2212 2212 2212 2212 2212 2198 2198 2198 2198 2198 2198 2198 2212 2212 2212 2212 2226 2226 2226 2226 2226 2212 2212 2212 2212 2212 2212 2212 2212 2212 2212 2212 2212 2198 2198 2198 2198 2198 2198 2198 2198 2198 2198 2198 2198 2212 2212 2212 2226 2226 2226 2226 2241 2241 2226 2226 2226 2226 2226 2226 2226 2226 2226 2226 2226 2226 2226 2226 2226 2226 2226 2226 2226 2226 1785 1785 1785 1785 1776 1776 1776 1776 1776 1785 1785 1785 1794 1804 1813 1813 1833 1904 1926 1926 1926 1926 2241 2241 2241 2241 2256 2256 2256 2286 2286 1959 1970 1970 1959 1959 1970 1970 1970 1970 1981 1981 1993 2005 2005 2241 2241 2241 2241 2241 2241 2241 2241 2241 2241 2241 2226 2212 2198 2198 2184 2184 2170 2170 2170 2184 2184 2184 2198 2212 2212 2226 2226 2226 2226 2226 1632 1632 1632 1632 1624 1624 1632 1624 1624 1632 1632 1632 1639 1639 1639 1639 1639 1639 2241 2241 2241 2241 2241 2241 2241 2241 2256 2256 2256 2241 2241 2256 2256 2256 2241 2241 2241 2241 2241 2241 2241 2241 2241 2241 2241 1477 1477 1470 1470 1470 1470 1470 1470 1470 1470 1470 1470 1470 1470 1470 1470 1464 1464 1464 1464 1464 1458 1458 1458 1458 1458 1458 1458 1452 1452 1452 1445 1445 1439 1439 1439 1433 1433 1427 1427 1427 1421 1421 1415 1415 1415 1415 1415 1410 1410 1410 1410 1410 1410 1410 1410 1404 1404 1404 1404 1398 1398 1398 1398 1398 1398 1398 1398 1392 1392 1392 1392 1392 1398 1398 1398 1398 1398 1398 1398 1398 1398 1398 1398 1398 1398 1398 1398 1398 1398 1398 1398 1398 1398 1392 1392 1398 1398 1398 1398 1392 1392 1398 1398 1398 1297 1297 1297 1297 1292 1292 1288 1288 1288 1283 1283 1283 1283 1288 1292 1292 1297 1297 1297 1381 1387 1387 1392 1392 1392 1392 1392 1392 1392 1392 1392 1392 1392 1398 1410 1415 1415 1433 1477 1477 1483 1489 1496 1503 1509 1509 1509 1509 1655 1647 1647 1647 1647 1647 1647 1639 1632 1632 1632 1632 1624 1624 1624 1624 2226 2226 2241 2241 2241 2241 2256 2256 2256 2256 2256 2256 2256 2256 2256 2256 2256 2256 2256 2256 2256 2256 2256 2256 2241 2241 2256 2256 2256 2256 1696 1688 1688 1688 1688 1680 1680 1680 1680 1680 1680 1680 1680 1680 1680 1680 1288 1288 1273 1273 1273 1273 1273 1273 1273 1268 1268 1268 1268 1268 1264 1264 1264 1264 1264 1259 1259 1259 1259 1259 1259 1259 1255 1255 1255 1255 1255 1255 1255 1255 1255 1250 1250 1250 1250 1250 1250 1250 1250 2226 2226 2241 2241 2241 2241 2241 2241 2241 2241 2241 2241 2241 2241 2226 2226 2226 2226 2226 2226 2226 2226 2226 2226 2226 2226 2226 2226 2212 2212 2212 2226 2226 2226 2226 2226 2226 2226 2226 2226 2226 2226 2226 2226 0 0 0 0 0 0 0 0 0
0 0 0 0 0 0 0 0 0 0 0 0 0 0 0 0 0 0 0 0 0 0 0 0 0 0 0 0 0 0 0 0 0 2170 2170 2170 2170 2170 2170 2170 2156 2156 2156 2156 2156 2156 2156 2156 2156 2156 2156 2170 2170 2170 2170 2170 2156 2156 2156 2156 2156 2156 2156 2156 2156 2156 2156 2170 2170 2156 2156 2156 2156 2156 2156 2156 2156 2156 2156 2156 2156 2156 2156 2156 2156 2156 2156 2156 2156 2156 2156 2170 2170 2170 2170 2170 2170 2170 2170 2170 2170 2170 2170 2184 2184 2184 2184 2184 2184 2184 2170 2170 2170 2170 2170 2170 2184 2184 2198 2198 2198 2198 2184 2184 2184 2184 2184 2184 2184 2184 2184 2184 2198 2198 2198 2198 2198 2198 2198 2198 2198 2198 2198 2198 2198 2198 2198 2198 2212 2212 2212 2212 2212 2212 2212 2212 2198 2198 2198 2198 2198 2198 2212 2212 2198 2198 2198 2198 2198 2198 2198 2198 2198 2198 2198 2198 2198 2198 2198 2198 2198 2212 2212 2226 2226 2226 2226 2226 2212 2212 2212 2212 2212 2212 2212 2212 2212 2212 2212 2212 2212 2212 2212 2212 2212 2212 2226 2226 1785 1785 1785 1785 1776 1776 1776 1776 1776 1785 1785 1794 1794 1804 1813 1823 1833 1904 1926 1926 1926 1926 2241 2241 2241 2241 2256 2256 2256 2256 1959 1959 1959 1959 1959 1959 1959 1970 1970 1970 1981 1981 1981 2005 2241 2226 2226 2226 2226 2226 2226 2226 2226 2226 2241 2226 2226 2212 2198 2198 2184 2184 2170 2170 2170 2184 2184 2198 2198 2212 2212 2226 2226 2226 2226 2226 1632 1632 1632 1632 1624 1624 1632 1624 1624 1632 1632 1632 1639 1632 1632 1639 1639 1639 2241 2241 2241 2241 2241 2241 2241 2241 2241 2241 2241 2241 2241 2241 2241 2241 2241 2241 2241 2241 2226 2226 2241 2241 2241 2241 2241 1477 1477 1470 1470 1470 1470 1470 1470 1470 1470 1470 1470 1470 1470 1470 1470 1470 1464 1464 1464 1464 1458 1458 1458 1458 1458 1458 1458 1452 1452 1452 1445 1445 1439 1439 1439 1433 1433 1433 1427 1427 1427 1421 1421 1415 1415 1415 1415 1410 1410 1410 1410 1410 1410 1404 1404 1404 1398 1398 1398 1398 1398 1398 1392 1392 1392 1392 1392 1392 1392 1392 1392 1392 1392 1392 1392 1392 1392 1392 1392 1392 1392 1392 1392 1392 1392 1392 1392 1392 1392 1392 1392 1392 1392 1387 1387 1392 1387 1387 1392 1387 1387 1392 1398 1398 1297 1297 1297 1297 1297 1297 1292 1292 1292 1288 1288 1288 1288 1292 1292 1302 1302 1302 1381 1381 1381 1387 1387 1387 1387 1387 1387 1387 1392 1392 1392 1392 1392 1398 1410 1415 1421 1470 1477 1477 1483 1483 1489 1503 1509 1503 1503 1509 1647 1647 1647 1647 1647 1647 1647 1639 1632 1632 1632 1632 1624 1624 1624 1624 2226 2226 2226 2241 2241 2241 2241 2241 2241 2256 2256 2256 2256 2256 2256 2256 2256 2256 2256 2256 2256 2256 2256 2241 2241 2241 2241 2241 2241 2241 1688 1688 1680 1680 1680 1680 1680 1680 1680 1680 1680 1680 1680 1680 1680 1680 1288 1288 1283 1278 1273 1273 1273 1273 1273 1268 1268 1268 1268 1268 1268 1268 1268 1264 1264 1259 1259 1259 1259 1259 1259 1259 1259 1259 1259 1259 1255 1255 1255 1255 1255 1255 1250 1250 1255 1255 1250 1250 1255 2226 2226 2241 2241 2241 2241 2241 2241 2241 2241 2241 2226 2226 2226 2226 2226 2226 2226 2226 2226 2226 2226 2226 2226 2226 2226 2226 2212 2212 2212 2212 2212 2226 2226 2226 2226 2226 2226 2226 2226 2226 2226 2226 2226 0 0 0 0 0 0 0 0 0
0 0 0 0 0 0 0 0 0 0 0 0 0 0 0 0 0 0 0 0 0 0 0 0 0 0 0 0 0 0 0 0 0 2156 2156 2156 2156 2156 2156 2156 2156 2156 2156 2156 2156 2143 2143 2156 2156 2156 2156 2156 2156 2156 2156 2156 2143 2143 2143 2143 2143 2143 2156 2156 2156 2156 2156 2156 2156 2143 2143 2143 2143 2143 2143 2143 2156 2156 2156 2156 2156 2156 2156 2156 2156 2156 2156 2156 2156 2156 2156 2156 2156 2156 2156 2156 2156 2156 2156 2156 2170 2170 2170 2184 2184 2184 2184 2184 2184 2170 2156 2156 2156 2156 2156 2156 2156 2184 2184 2184 2184 2184 2184 2184 2184 2170 2170 2184 2184 2184 2170 2170 2184 2184 2184 2198 2198 2198 2198 2198 2198 2198 2184 2184 2184 2184 2198 2198 2198 2198 2198 2212 2212 2212 2212 2212 2198 2198 2198 2198 2198 2198 2198 2198 2198 2198 2198 2198 2198 2198 2198 2198 2198 2198 2198 2198 2198 2198 2198 2198 2198 2198 2198 2212 2212 2212 2212 2212 2212 2212 2212 2212 2198 2198 2198 2198 2212 2212 2212 2212 2212 2212 2212 2212 2212 2198 2198 2198 1785 1785 1785 1785 1776 1776 1776 1776 1776 1785 1785 1794 1794 1804 1813 1823 1833 1904 1926 1926 1936 1936 2226 2226 2241 2241 2241 2241 2256 1936 1936 1947 1947 1959 1947 1947 1959 1959 1970 1970 1970 1981 1981 2241 2226 2226 2226 2226 2226 2226 2226 2226 2226 2226 2226 2226 2226 2212 2198 2198 2184 2184 2184 2184 2184 2184 2184 2198 2212 2212 2212 2226 2226 2226 2226 2226 1639 1632 1632 1632 1632 1632 1632 1624 1624 1632 1632 1632 1639 1632 1632 1639 1639 1639 2226 2226 2241 2241 2241 2241 2241 2241 2241 2241 2241 2241 2241 2241 2241 2226 2226 2226 2226 2226 2226 2226 2226 2241 2241 2241 2241 1477 1477 1477 1470 1470 1470 1470 1470 1470 1470 1470 1470 1470 1470 1470 1470 1470 1464 1464 1464 1464 1464 1464 1458 1458 1458 1458 1458 1452 1452 1452 1445 1445 1439 1439 1439 1433 1433 1433 1427 1427 1427 1421 1421 1415 1415 1415 1415 1415 1415 1415 1410 1410 1410 1404 1404 1398 1398 1398 1398 1392 1392 1392 1392 1392 1392 1392 1392 1392 1392 1392 1392 1392 1392 1392 1392 1392 1387 1387 1387 1387 1387 1387 1387 1387 1387 1392 1387 1387 1387 1387 1387 1387 1387 1381 1381 1381 1381 1381 1381 1381 1381 1387 1392 1302 1302 1302 1297 1297 1297 1297 1297 1292 1292 1288 1288 1288 1288 1292 1292 1302 1302 1307 1376 1376 1381 1381 1381 1381 1381 1381 1387 1387 1387 1387 1387 1387 1387 1410 1439 1470 1470 1477 1477 1477 1483 1483 1489 1503 1509 1503 1503 1655 1647 1647 1647 1647 1647 1647 1647 1639 1632 1632 1632 1632 1624 1624 1624 2241 2226 2226 2226 2241 2241 2241 2241 2241 2241 2241 2241 2241 2241 2241 2241 2256 2256 2256 2256 2256 2256 2256 2241 2241 2241 2241 2241 2241 2241 1696 1688 1688 1680 1680 1680 1680 1680 1680 1680 1680 1680 1680 1680 1680 1680 1680 1297 1297 1283 1278 1278 1273 1273 1273 1273 1273 1273 1273 1268 1268 1268 1268 1268 1264 1264 1264 1264 1264 1259 1259 1259 1259 1259 1259 1259 1259 1259 1259 1255 1255 1255 1255 1255 1255 1255 1255 1250 1250 1255 2241 2241 2241 2226 2226 2226 2226 2226 2226 2226 2226 2226 2226 2226 2226 2226 2226 2226 2226 2226 2226 2226 2226 2226 2226 2212 2212 2212 2198 2198 2198 2212 2212 2212 2212 2212 2212 2212 2212 2226 2226 2212 2212 2212 0 0 0 0 0 0 0 0 0
0 0 0 0 0 0 0 0 0 0 0 0 0 0 0 0 0 0 0 0 0 0 0 0 0 0 0 0 0 0 0 0 0 2156 2156 2156 2156 2156 2156 2156 2156 2143 2143 2143 2143 2143 2143 2143 2143 2143 2156 2156 2156 2156 2156 2143 2143 2143 2143 2143 2143 2143 2156 2156 2156 2156 2156 2156 2156 2143 2143 2143 2143 2143 2143 2143 2143 2143 2143 2143 2143 2143 2143 2143 2143 2143 2143 2143 2143 2143 2143 2143 2143 2143 2143 2143 2143 2143 2143 2143 2156 2156 2156 2156 2170 2170 2170 2156 2156 2143 2143 2143 2143 2143 2156 2156 2156 2156 2170 2170 2184 2184 2170 2170 2170 2170 2170 2170 2170 2170 2170 2170 2170 2170 2184 2184 2184 2184 2184 2184 2184 2184 2184 2170 2170 2184 2184 2198 2198 2198 2198 2198 2212 2212 2212 2212 2198 2198 2198 2198 2198 2198 2198 2198 2198 2184 2184 2184 2184 2184 2184 2184 2184 2184 2184 2198 2184 2184 2198 2198 2198 2198 2198 2198 2198 2212 2212 2212 2212 2212 2198 2198 2198 2198 2198 2198 2198 2212 2198 2198 2212 2198 2198 2198 2198 2198 2198 2198 2198 1785 1785 1785 1776 1776 1776 1776 1785 1785 1785 1794 1794 1804 1813 1823 1843 1904 1915 1926 1926 1926 2226 2226 2241 2241 2241 2241 2256 1936 1936 1936 1947 1959 1947 1947 1947 1959 1959 1970 1970 1970 1981 2226 2226 2212 2212 2212 2212 2226 2226 2226 2226 2226 2226 2212 2212 2198 2198 2184 2184 2184 2184 2184 2184 2184 2184 2198 2198 2198 2212 2212 2212 2226 2226 2226 1639 1632 1632 1632 1632 1632 1632 1624 1624 1632 1632 1632 1639 1639 1639 1639 1639 1639 2226 2226 2226 2226 2226 2226 2226 2226 2226 2226 2226 2226 2226 2226 2226 2226 2226 2226 2226 2226 2226 2226 2226 2226 2226 2226 2226 1477 1477 1477 1470 1470 1470 1470 1470 1470 1470 1470 1470 1470 1470 1470 1470 1470 1464 1464 1464 1464 1464 1464 1458 1458 1458 1458 1458 1452 1452 1452 1452 1445 1445 1439 1439 1439 1433 1433 1433 1433 1433 1427 1427 1421 1421 1421 1415 1415 1415 1415 1410 1410 1410 1404 1404 1398 1398 1398 1398 1392 1392 1392 1392 1392 1392 1392 1392 1387 1387 1387 1387 1387 1387 1387 1387 1387 1387 1387 1387 1387 1387 1387 1387 1387 1387 1387 1387 1381 1381 1381 1381 1381 1381 1376 1376 1376 1376 1376 1376 1376 1381 1381 1387 1302 1302 1302 1302 1302 1297 1297 1297 1292 1292 1292 1292 1288 1288 1292 1302 1302 1302 1307 1376 1376 1376 1376 1376 1376 1376 1381 1381 1381 1381 1387 1387 1387 1387 1445 1470 1470 1470 1470 1477 1477 1477 1483 1503 1509 1647 1647 1655 1655 1647 1647 1647 1647 1647 1647 1647 1639 1639 1639 1632 1632 1624 1624 1624 2241 2226 2226 2226 2226 2226 2226 2226 2226 2226 2226 2226 2226 2226 2241 2241 2241 2241 2241 2241 2241 2241 2241 2241 2241 2241 2241 2241 2241 2241 1696 1688 1688 1688 1688 1688 1688 1680 1680 1680 1680 1680 1680 1680 1680 1680 1680 1292 1292 1283 1278 1278 1273 1273 1273 1273 1273 1273 1273 1273 1273 1268 1268 1268 1268 1268 1264 1264 1264 1264 1259 1259 1259 1259 1259 1259 1264 1259 1259 1259 1259 1255 1255 1255 1255 1255 1259 1259 1255 1255 2241 2241 2241 2226 2226 2226 2226 2226 2226 2226 2212 2198 2198 2198 2212 2212 2212 2212 2212 2226 2226 2226 2226 2212 2212 2198 2198 2198 2198 2198 2198 2198 2198 2198 2198 2198 2198 2198 2212 2212 2212 2198 2198 2198 0 0 0 0 0 0 0 0 0
0 0 0 0 0 0 0 0 0 0 0 0 0 0 0 0 0 0 0 0 0 0 0 0 0 0 0 0 0 0 0 0 0 2129 2129 2143 2143 2143 2143 2143 2143 2143 2129 2129 2143 2129 2129 2129 2129 2143 2143 2156 2156 2156 2156 2143 2143 2143 2129 2129 2129 2129 2143 2143 2143 2143 2156 2156 2143 2129 2129 2143 2143 2143 2129 2129 2129 2129 2129 2143 2143 2143 2143 2143 2143 2143 2143 2143 2143 2129 2129 2129 2129 2129 2129 2116 2116 2129 2129 2129 2143 2143 2143 2156 2156 2156 2156 2156 2156 2143 2143 2143 2143 2143 2156 2156 2156 2156 2156 2156 2156 2156 2156 2156 2156 2156 2156 2170 2170 2170 2170 2170 2170 2156 2156 2156 2156 2156 2156 2156 2156 2156 2156 2156 2156 2170 2184 2184 2184 2198 2198 2198 2198 2198 2198 2198 2184 2184 2198 2184 2184 2184 2184 2184 2184 2184 2184 2184 2184 2184 2184 2184 2184 2184 2184 2184 2184 2184 2184 2184 2198 2198 2198 2198 2198 2198 2198 2198 2198 2198 2198 2198 2198 2198 2198 2198 2198 2198 2198 2198 2198 2198 2198 2198 2198 2198 2198 2198 2198 1785 1785 1785 1776 1776 1785 1785 1785 1785 1785 1794 1794 1804 1813 1823 1853 1904 1915 1926 1926 1926 2241 2241 2241 1926 1926 1936 1936 1936 1936 1936 1947 1959 1947 1947 1947 1959 1959 1959 1970 1970 1981 2212 2212 2212 2212 2212 2212 2212 2212 2212 2212 2212 2212 2212 2212 2198 2198 2184 2184 2184 2184 2184 2184 2184 2184 2184 2198 2198 2198 2212 2212 2212 2212 2212 1639 1632 1632 1632 1632 1632 1632 1632 1632 1632 1632 1632 1639 1639 1639 1639 1639 2212 2212 2212 2226 2212 2212 2212 2226 2226 2226 2226 2226 2226 2226 2226 2226 2226 2226 2226 2226 2226 2226 2226 2226 2226 2212 2212 2212 1477 1477 1477 1477 1477 1470 1470 1470 1470 1470 1470 1470 1470 1470 1470 1470 1470 1470 1464 1464 1464 1464 1464 1464 1464 1458 1458 1458 1458 1458 1452 1452 1445 1445 1439 1439 1439 1439 1433 1433 1433 1433 1433 1433 1427 1427 1421 1421 1415 1415 1415 1415 1410 1410 1410 1404 1404 1398 1398 1398 1392 1392 1392 1392 1392 1392 1392 1387 1387 1387 1387 1387 1387 1387 1387 1387 1387 1387 1387 1387 1387 1387 1387 1387 1387 1387 1387 1387 1381 1381 1376 1376 1370 1370 1370 1370 1370 1370 1370 1370 1370 1376 1376 1381 1302 1302 1302 1302 1302 1302 1297 1297 1297 1297 1292 1292 1292 1292 1297 1302 1302 1307 1317 1365 1365 1370 1370 1370 1370 1370 1376 1376 1381 1381 1381 1387 1387 1387 1445 1464 1464 1470 1470 1477 1477 1477 1483 2198 1655 1647 1647 1647 1647 1647 1647 1647 1647 1647 1647 1647 1639 1639 1639 1639 1639 1639 2226 2226 2226 2212 2212 2212 2212 2212 2212 2226 2226 2226 2212 2212 2226 2226 2226 2226 2226 2241 2226 2226 2226 2226 2226 2226 2226 2226 2226 2226 2241 1696 1696 1688 1688 1688 1688 1688 1688 1680 1680 1680 1680 1680 1680 1680 1680 1680 1297 1288 1288 1283 1278 1273 1273 1273 1273 1273 1273 1273 1273 1273 1273 1268 1268 1268 1268 1268 1264 1264 1264 1264 1264 1264 1264 1264 1264 1264 1264 1264 1264 1259 1259 1259 1255 1255 1255 1259 1259 1259 1255 1255 2241 2226 2226 2226 2226 2212 2212 2212 2212 2212 2198 2184 2184 2184 2198 2198 2198 2198 2198 2212 2212 2212 2212 2198 2198 2198 2198 2184 2184 2184 2184 2198 2198 2198 2198 2198 2198 2198 2198 2198 2198 2184 2184 2184 0 0 0 0 0 0 0 0 0
0 0 0 0 0 0 0 0 0 0 0 0 0 0 0 0 0 0 0 0 0 0 0 0 0 0 0 0 0 0 0 0 0 2129 2116 2116 2129 2129 2116 2116 2129 2129 2129 2129 2129 2116 2116 2129 2116 2116 2143 2143 2116 2116 2143 2143 2129 2129 2129 2129 2129 2129 2129 2129 2129 2143 2143 2143 2143 2129 2129 2129 2129 2129 2129 2129 2129 2129 2129 2129 2129 2129 2129 2129 2143 2143 2129 2116 2116 2129 2116 2116 2116 2116 2129 2116 2116 2129 2116 2116 2143 2143 2143 2143 2143 2143 2156 2156 2156 2143 2143 2143 2143 2143 2143 2143 2143 2143 2143 2143 2143 2156 2156 2156 2156 2156 2156 2156 2156 2156 2156 2156 2156 2156 2156 2143 2143 2143 2156 2143 2143 2156 2156 2156 2156 2156 2170 2170 2170 2170 2170 2170 2170 2170 2170 2170 2170 2170 2184 2170 2170 2170 2170 2170 2170 2170 2170 2170 2170 2170 2170 2184 2184 2184 2184 2184 2184 2184 2184 2184 2184 2184 2184 2184 2184 2198 2198 2184 2184 2184 2184 2198 2198 2198 2198 2198 2198 2198 2198 2198 2198 2198 2198 2198 2198 2184 2184 2184 2184 1785 1785 1785 1785 1785 1785 1785 1785 1785 1785 1794 1804 1804 1813 1823 1873 1904 1915 1926 1926 1926 1926 2241 2241 1926 1926 1936 1936 1936 1936 1936 1947 1947 1936 1936 1947 1947 1959 1959 1970 1970 2212 2212 2212 2212 2212 2212 2198 2198 2198 2212 2212 2212 2198 2198 2198 2198 2198 2184 2184 2184 2184 2184 2184 2184 2184 2184 2184 2184 2198 2198 2198 2198 2212 2212 1639 1632 1632 1632 1632 1632 1632 1632 1632 1632 1632 1632 1639 1639 1639 1647 1647 2212 2212 2212 2198 2198 2198 2198 2212 2212 2212 2226 2226 2226 2226 2226 2226 2212 2212 2212 2212 2226 2212 2212 2212 2212 2212 2212 2212 1483 1483 1483 1477 1477 1477 1470 1470 1470 1470 1470 1470 1470 1470 1477 1477 1477 1470 1470 1470 1470 1464 1464 1464 1464 1464 1458 1458 1458 1458 1452 1452 1445 1445 1439 1439 1439 1439 1439 1439 1439 1433 1433 1433 1433 1427 1427 1421 1421 1415 1415 1415 1415 1415 1410 1410 1404 1398 1398 1398 1392 1392 1392 1392 1392 1392 1387 1387 1387 1387 1387 1387 1387 1381 1381 1381 1381 1381 1381 1381 1381 1381 1381 1381 1381 1381 1381 1381 1376 1370 1370 1370 1370 1365 1365 1365 1365 1365 1365 1365 1370 1370 1370 1370 1370 1307 1307 1307 1302 1302 1302 1297 1297 1297 1297 1297 1297 1297 1297 1302 1307 1307 1322 1343 1359 1359 1365 1365 1365 1370 1370 1376 1376 1376 1381 1387 1387 1387 1452 1464 1464 1464 1464 1470 1477 1477 2198 2198 2212 1647 1647 1647 1647 1647 1647 1647 1647 1647 1647 1647 1639 1639 1647 1647 1647 2226 2226 2226 2226 2212 2212 2212 2212 2212 2212 2212 2212 2212 2212 2212 2212 2212 2212 2212 2212 2212 2212 2198 2198 2198 2212 2212 2212 2212 2226 2226 1696 1696 1696 1688 1688 1688 1688 1688 1688 1680 1680 1680 1680 1680 1680 1680 1680 1680 1297 1297 1283 1283 1278 1273 1273 1273 1273 1273 1273 1273 1273 1273 1273 1273 1273 1268 1268 1268 1268 1268 1264 1264 1264 1264 1264 1264 1264 1264 1264 1264 1264 1264 1259 1259 1255 1255 1255 1259 1259 1259 1259 1259 2226 2226 2226 2226 2212 2198 2198 2212 2212 2198 2198 2184 2184 2184 2184 2184 2184 2184 2198 2198 2198 2198 2198 2184 2184 2184 2184 2184 2184 2184 2184 2184 2184 2198 2198 2198 2198 2198 2198 2184 2184 2184 2184 2184 0 0 0 0 0 0 0 0 0
0 0 0 0 0 0 0 0 0 0 0 0 0 0 0 0 0 0 0 0 0 0 0 0 0 0 0 0 0 0 0 0 0 0 2103 2103 2116 2116 2116 2116 2129 2129 2116 2116 2129 2116 2116 2116 2116 2116 2129 2129 2116 2116 2129 2129 2116 2116 2116 2116 2116 2129 2129 2129 2129 2129 2129 2129 2129 2116 2116 2116 2116 2116 2116 2129 2129 2129 2129 2129 2129 2129 2129 2129 2129 2129 2116 2116 2116 2116 2116 2116 2116 2116 2116 2116 2116 2116 2116 2116 2129 2129 2129 2129 2129 2129 2143 2143 2143 2143 2129 2129 2129 2129 2143 2143 2143 2143 2143 2143 2143 2143 2143 2156 2156 2156 2156 2156 2156 2156 2156 2156 2156 2143 2143 2143 2143 2143 2143 2143 2143 2156 2156 2156 2156 2156 2156 2170 2156 2156 2156 2170 2170 2170 2170 2170 2170 2170 2170 2170 2170 2170 2170 2156 2156 2156 2170 2170 2170 2170 2170 2170 2170 2170 2170 2170 2170 2170 2184 2184 2184 2184 2184 2184 2184 2184 2184 2184 2184 2184 2184 2184 2184 2184 2184 2184 2184 2184 2184 2184 2184 2184 2184 2184 2184 2184 2184 2184 1776 1776 1785 1785 1785 1785 1785 1785 1785 1785 1785 1794 1804 1804 1813 1894 1894 1904 1915 1926 1926 1926 1915 1915 1915 1915 1915 1926 1936 1936 1936 1936 1947 1947 1936 1936 1936 1947 1947 1959 2198 2198 2198 2198 2198 2198 2198 2198 2198 2198 2198 2198 2198 2198 2198 2198 2198 2198 2184 2184 2184 2184 2184 2184 2184 2184 2184 2184 2184 2184 2184 2198 2198 2198 2212 1647 1639 1632 1632 1632 1632 1632 1632 1632 1632 1632 1632 1632 1639 1639 1647 1647 1647 2212 2212 2198 2198 2198 2198 2198 2198 2212 2212 2212 2212 2212 2212 2212 2212 2212 2212 2212 2212 2212 2212 2212 2212 2212 2212 2212 2212 1483 1483 1483 1477 1477 1470 1470 1470 1470 1470 1470 1477 1470 1470 1477 1477 1477 1470 1470 1470 1470 1470 1464 1464 1464 1464 1458 1458 1458 1458 1458 1452 1452 1445 1445 1439 1439 1439 1439 1439 1439 1439 1439 1439 1433 1433 1427 1427 1421 1421 1421 1415 1415 1415 1415 1410 1410 1404 1398 1398 1398 1398 1392 1392 1392 1392 1387 1387 1387 1387 1387 1387 1381 1381 1381 1376 1376 1376 1376 1376 1376 1376 1376 1376 1376 1376 1376 1376 1370 1365 1365 1365 1365 1365 1365 1365 1365 1365 1365 1365 1365 1365 1365 1359 1317 1307 1307 1307 1302 1302 1302 1297 1297 1297 1297 1297 1297 1297 1297 1307 1307 1312 1328 1343 1354 1359 1365 1365 1365 1365 1365 1370 1370 1376 1381 1381 1387 1452 1452 1458 1458 1458 1458 1464 1477 2198 2198 2212 2212 2212 1647 1647 1647 1655 1655 1647 1647 1647 1647 1647 1639 1639 1647 1647 1647 1647 2226 2212 2212 2212 2212 2212 2198 2198 2198 2198 2212 2198 2198 2198 2198 2198 2198 2198 2198 2198 2198 2198 2198 2198 2198 2198 2198 2198 2212 2212 1696 1696 1696 1696 1696 1696 1688 1688 1688 1680 1680 1680 1680 1680 1680 1680 1680 1680 1292 1292 1283 1283 1278 1278 1278 1273 1273 1273 1273 1273 1273 1273 1273 1273 1273 1273 1273 1268 1268 1268 1268 1268 1264 1264 1264 1264 1264 1264 1264 1264 1264 1264 1259 1259 1259 1259 1259 1255 1255 1259 1259 1259 2212 2212 2226 2212 2212 2184 2184 2198 2198 2184 2184 2184 2184 2184 2184 2184 2184 2184 2184 2184 2184 2184 2184 2184 2184 2184 2184 2184 2184 2184 2184 2184 2184 2184 2184 2184 2184 2184 2184 2184 2184 2184 2184 2184 0 0 0 0 0 0 0 0 0
0 0 0 0 0 0 0 0 0 0 0 0 0 0 0 0 0 0 0 0 0 0 0 0 0 0 0 0 0 0 0 0 0 0 2103 2103 2103 2103 2116 2116 2116 2116 2116 2116 2116 2116 2116 2103 2103 2103 2116 2116 2116 2129 2129 2116 2116 2116 2116 2116 2116 2116 2129 2116 2116 2116 2116 2116 2116 2116 2103 2103 2103 2103 2116 2116 2116 2116 2116 2129 2116 2116 2116 2116 2116 2116 2116 2116 2116 2116 2116 2116 2116 2116 2116 2116 2116 2116 2116 2116 2116 2116 2116 2116 2116 2116 2129 2129 2129 2143 2129 2129 2129 2129 2129 2143 2129 2129 2129 2129 2129 2129 2129 2143 2143 2143 2143 2143 2143 2143 2143 2143 2143 2143 2143 2129 2129 2143 2143 2143 2143 2143 2143 2143 2143 2143 2156 2156 2156 2156 2156 2156 2156 2156 2156 2170 2156 2156 2156 2156 2156 2156 2156 2156 2156 2156 2156 2156 2156 2170 2170 2170 2170 2170 2170 2170 2170 2170 2170 2170 2170 2170 2170 2170 2170 2170 2170 2170 2170 2170 2170 2184 2184 2184 2184 2184 2184 2184 2184 2170 2170 2170 2170 2170 2170 2170 2170 2170 1776 1776 1776 1776 1785 1785 1785 1785 1785 1785 1785 1794 1804 1804 1804 1894 1894 1915 1915 1915 1926 1915 1915 1915 1915 1915 1915 1926 1926 1936 1936 1936 1947 1947 1936 1936 1936 1947 1947 2170 2184 2184 2184 2184 2184 2184 2184 2184 2184 2184 2184 2184 2184 2184 2184 2184 2184 2184 2184 2184 2184 2184 2184 2184 2184 2184 2184 2184 2184 2184 2184 2198 2198 2198 2198 1647 1639 1632 1632 1632 1632 1632 1632 1632 1632 1632 1632 1632 1639 1639 1647 1655 1655 1655 2198 2198 2198 2198 2198 2198 2198 2198 2198 2212 2212 2212 2212 2212 2212 2212 2198 2198 2198 2198 2198 2198 2198 2198 2212 2212 2212 1496 1483 1483 1477 1477 1470 1470 1470 1470 1470 1470 1477 1477 1477 1477 1477 1477 1477 1470 1470 1470 1470 1464 1464 1464 1464 1458 1458 1458 1458 1458 1452 1452 1452 1445 1445 1439 1439 1439 1439 1439 1439 1439 1439 1439 1433 1433 1427 1427 1421 1421 1415 1415 1415 1415 1410 1410 1404 1404 1404 1404 1398 1398 1392 1392 1392 1392 1392 1387 1387 1387 1387 1381 1381 1381 1376 1376 1376 1376 1376 1376 1376 1370 1370 1370 1370 1370 1370 1365 1365 1365 1359 1359 1365 1365 1365 1365 1365 1365 1365 1365 1359 1359 1349 1317 1312 1307 1307 1307 1302 1302 1302 1302 1297 1297 1297 1297 1297 1302 1307 1312 1312 1328 1338 1349 1354 1359 1359 1359 1365 1365 1365 1370 1370 1381 1381 1387 1452 1452 1452 1452 1458 1458 1464 1464 2198 2198 2198 2198 2198 1647 1647 1647 1655 1655 1655 1655 1647 1647 1647 1647 1647 1647 1647 1647 1647 2212 2212 2212 2212 2198 2198 2198 2198 2198 2198 2198 2198 2198 2198 2198 2198 2198 2198 2198 2198 2198 2184 2184 2198 2198 2198 2198 2198 2198 2198 1696 1696 1696 1696 1696 1696 1688 1688 1688 1688 1680 1680 1680 1680 1680 1680 1292 1292 1292 1292 1288 1283 1283 1278 1278 1278 1278 1273 1273 1273 1273 1273 1273 1273 1273 1273 1273 1273 1273 1273 1273 1268 1268 1264 1264 1264 1268 1268 1268 1268 1268 1268 1259 1259 1259 1259 1259 1255 1255 1259 1259 1273 2198 2198 2198 2198 2184 2184 2184 2184 2184 2184 2184 2184 2184 2184 2184 2184 2184 2184 2184 2184 2184 2184 2184 2184 2170 2170 2170 2170 2170 2170 2170 2170 2184 2184 2184 2184 2184 2184 2184 2170 2170 2170 2170 2170 0 0 0 0 0 0 0 0 0
0 0 0 0 0 0 0 0 0 0 0 0 0 0 0 0 0 0 0 0 0 0 0 0 0 0 0 0 0 0 0 0 0 0 2090 2090 2090 2103 2103 2103 2116 2116 2116 2116 2103 2103 2103 2103 2103 2103 2116 2116 2116 2116 2116 2116 2116 2116 2116 2116 2116 2116 2116 2116 2116 2116 2116 2116 2116 2116 2103 2103 2103 2103 2116 2103 2103 2116 2116 2103 2103 2116 2103 2103 2116 2116 2103 2103 2103 2103 2103 2103 2103 2103 2103 2103 2116 2116 2116 2116 2116 2116 2116 2116 2116 2116 2116 2116 2116 2129 2129 2129 2129 2129 2129 2129 2129 2129 2129 2129 2129 2129 2129 2129 2143 2143 2143 2143 2143 2143 2129 2129 2143 2129 2129 2129 2129 2129 2129 2129 2129 2143 2143 2143 2143 2143 2143 2143 2143 2143 2143 2143 2156 2156 2156 2156 2156 2156 2156 2143 2143 2156 2156 2143 2143 2156 2156 2156 2156 2156 2156 2156 2156 2156 2170 2156 2156 2170 2170 2170 2170 2170 2170 2170 2170 2156 2156 2170 2170 2170 2170 2170 2184 2184 2184 2184 2170 2170 2170 2170 2170 2170 2170 2170 2170 2170 2170 2170 1776 1776 1776 1776 1785 1785 1785 1785 1785 1785 1794 1794 1804 1804 1804 1894 1894 1904 1904 1904 1904 1904 1904 1904 1904 1904 1915 1926 1926 1936 1936 1936 1947 1947 1936 1936 1936 1947 2170 2170 2170 2170 2170 2170 2170 2170 2170 2170 2170 2170 2170 2170 2184 2184 2184 2184 2184 2184 2184 2184 2184 2170 2170 2170 2170 2170 2170 2184 2184 2184 2184 2184 2184 2184 2184 1632 1632 1632 1632 1632 1632 1632 1632 1632 1639 1639 1639 1639 1639 1639 1647 1655 1655 1655 2198 2184 2184 2184 2184 2184 2184 2198 2198 2198 2198 2198 2198 2198 2198 2184 2184 2184 2184 2184 2184 2184 2198 2198 2198 2198 1496 1496 1483 1483 1477 1477 1477 1470 1470 1470 1470 1470 1477 1477 1477 1477 1477 1483 1477 1477 1477 1477 1470 1470 1464 1464 1464 1458 1458 1458 1458 1458 1452 1452 1452 1445 1445 1439 1439 1439 1439 1439 1439 1439 1439 1439 1433 1433 1433 1427 1421 1421 1421 1415 1415 1415 1410 1410 1404 1404 1404 1404 1404 1398 1398 1392 1392 1392 1392 1392 1392 1392 1387 1387 1381 1381 1376 1376 1376 1376 1370 1370 1370 1370 1370 1370 1370 1370 1365 1359 1359 1359 1359 1359 1359 1359 1359 1359 1359 1359 1359 1359 1359 1354 1343 1328 1317 1312 1312 1307 1307 1302 1302 1302 1297 1297 1297 1297 1297 1302 1307 1312 1317 1328 1338 1343 1354 1354 1359 1359 1365 1365 1365 1370 1370 1381 1445 1445 1452 1452 1452 1452 1458 1458 1458 2198 2184 2184 2198 2198 2198 1647 1647 1655 1655 1655 1655 1655 1655 1647 1647 1647 1647 1647 1647 1647 1647 1655 2212 2198 2198 2184 2184 2184 2184 2184 2198 2184 2184 2184 2184 2184 2184 2184 2184 2184 2184 2184 2184 2184 2184 2198 2198 2198 2198 2198 1696 1696 1696 1696 1696 1696 1696 1688 1688 1688 1688 1680 1680 1680 1680 1680 1680 1292 1292 1292 1288 1288 1283 1283 1278 1278 1278 1278 1278 1278 1278 1278 1278 1278 1278 1273 1273 1273 1273 1273 1273 1273 1273 1268 1268 1268 1268 1268 1268 1268 1268 1268 1268 1264 1259 1259 1259 1259 1259 1259 1264 1264 1273 2170 2170 2170 2170 2170 2170 2170 2184 2184 2184 2184 2184 2184 2184 2184 2170 2170 2170 2170 2170 2170 2170 2170 2170 2170 2170 2170 2170 2170 2170 2170 2170 2170 2170 2170 2184 2184 2184 2170 2170 2170 2170 2170 2170 0 0 0 0 0 0 0 0 0
0 0 0 0 0 0 0 0 0 0 0 0 0 0 0 0 0 0 0 0 0 0 0 0 0 0 0 0 0 0 0 0 0 0 2078 2078 2078 2090 2103 2103 2116 2116 2103 2103 2103 2103 2103 2103 2103 2103 2116 2116 2116 2116 2116 2116 2116 2103 2103 2103 2116 2116 2116 2116 2116 2116 2103 2103 2103 2103 2103 2103 2103 2103 2103 2103 2103 2103 2116 2103 2103 2116 2103 2103 2103 2103 2103 2103 2103 2103 2103 2103 2103 2103 2103 2103 2103 2103 2103 2103 2116 2116 2116 2103 2103 2103 2116 2116 2116 2116 2129 2129 2116 2116 2129 2129 2116 2116 2116 2116 2116 2116 2116 2116 2129 2129 2129 2129 2129 2129 2129 2129 2129 2129 2129 2129 2129 2129 2129 2129 2129 2143 2143 2143 2143 2143 2143 2143 2143 2143 2143 2143 2143 2143 2143 2143 2143 2143 2143 2143 2143 2143 2143 2143 2143 2143 2143 2143 2143 2143 2143 2143 2143 2143 2156 2143 2143 2143 2156 2156 2156 2156 2156 2156 2156 2143 2143 2156 2143 2143 2143 2156 2156 2156 2170 2156 2156 2156 2156 2156 2156 2156 2156 2156 2156 2156 2156 2156 1776 1776 1785 1785 1785 1785 1785 1785 1785 1785 1794 1804 1804 1813 1823 1883 1894 1904 1904 1904 1904 1904 1904 1904 1904 1904 1915 1915 1926 1926 1926 1936 1936 1936 1947 2156 2156 2156 2156 2156 2170 2170 2170 2170 2170 2170 2170 2170 2170 2170 2170 2170 2170 2170 2170 2170 2170 2170 2170 2170 2170 2170 2170 2170 2170 2170 2170 2184 2184 2184 2184 2184 2184 2184 2184 1632 1632 1632 1632 1632 1639 1639 1639 1639 1639 1639 1639 1639 1639 1647 1647 1655 1655 1663 2198 2184 2184 2184 2184 2184 2184 2184 2184 2184 2184 2184 2184 2184 2184 2184 2184 2184 2184 2184 2184 2184 2184 2184 2198 2198 1496 1496 1483 1483 1477 1477 1477 1477 1477 1477 1477 1477 1477 1477 1477 1477 1483 1483 1483 1483 1477 1477 1470 1470 1464 1464 1458 1458 1458 1458 1458 1458 1452 1452 1452 1445 1445 1439 1439 1439 1439 1439 1439 1439 1439 1439 1433 1433 1433 1427 1427 1421 1421 1421 1415 1415 1415 1410 1410 1410 1410 1410 1404 1404 1398 1398 1398 1392 1392 1392 1392 1392 1387 1387 1381 1381 1376 1376 1376 1376 1370 1370 1370 1370 1370 1370 1365 1365 1365 1359 1359 1359 1359 1354 1354 1359 1359 1359 1359 1359 1359 1354 1354 1349 1338 1328 1322 1317 1312 1307 1307 1307 1302 1302 1302 1297 1297 1297 1297 1302 1307 1312 1317 1328 1333 1343 1349 1354 1354 1359 1365 1365 1365 1370 1370 1381 1445 1445 1445 1452 1452 1452 1452 1458 1458 2184 2184 2184 2184 2184 2184 1647 1647 1655 1655 1655 1655 1655 1655 1647 1647 1647 1647 1647 1647 1647 1647 1655 2170 2198 2198 2184 2184 2184 2184 2184 2184 2184 2184 2184 2184 2184 2184 2184 2184 2184 2184 2184 2184 2184 2184 2184 2184 2184 2184 2184 1696 1696 1696 1696 1696 1696 1696 1688 1688 1688 1688 1688 1688 1680 1680 1680 1680 1288 1288 1288 1283 1283 1283 1283 1278 1278 1278 1278 1278 1278 1278 1278 1278 1278 1278 1278 1273 1273 1273 1273 1273 1273 1273 1273 1268 1268 1268 1268 1268 1268 1268 1268 1268 1264 1264 1264 1264 1264 1259 1259 1259 1264 1264 2156 2156 2170 2170 2170 2170 2170 2170 2170 2170 2170 2170 2170 2170 2170 2170 2170 2170 2156 2156 2170 2170 2170 2170 2170 2170 2156 2156 2156 2156 2156 2170 2170 2170 2170 2170 2184 2184 2170 2170 2170 2170 2156 2156 0 0 0 0 0 0 0 0 0
