0 0 0 0 0 0 0 0 0 0 0 0 0 0 0 0 0 0 0 0 0 0 0 0 0 0 0 0 0 0 0 0 0 0 1970 1970 1981 1981 1981 1993 1993 1981 1981 1981 1981 1970 1970 1981 1970 1970 1993 1993 1993 1993 1993 1993 1993 1993 1993 1993 1993 1993 1981 1981 1993 1993 1993 1981 1981 1981 1970 1970 1970 1970 1970 1981 1981 1981 1981 1981 1981 1981 1981 1981 1981 1981 1993 1993 1993 1993 1993 1993 1993 1993 1993 1993 1993 1993 1993 1993 1993 1993 1993 1993 1993 1993 1993 2005 2005 2005 1722 1722 1722 1722 1731 1731 1722 1722 1731 1731 1739 1739 1739 1748 1748 1757 1766 1785 1794 1804 1804 1813 1823 1823 1823 1823 1823 2005 2005 2005 2005 2005 2005 2005 2005 2005 2005 2005 2005 2005 2005 2005 2005 2005 2005 2005 1993 1993 1993 1993 1993 2005 2005 2005 2005 2005 2005 2005 2016 2016 2016 2016 2016 2016 2016 2016 2016 2016 2016 2028 2028 2028 2028 2028 1647 1632 1624 1624 1624 1624 1624 1624 1624 1624 1632 1632 1639 1639 1639 1647 1647 1647 1647 1647 1632 1632 2028 2040 2040 2040 2040 2040 2040 2040 2040 2040 2040 2040 2065 2065 1776 1776 1804 1804 1804 1813 1813 1813 1813 1503 1503 1503 1503 1503 1503 1503 1503 1503 1503 1503 1516 1523 1523 1523 1523 1523 1523 1523 2065 2053 2053 2065 2065 2053 2053 2053 2040 2040 2028 2028 2016 2016 2028 2028 2028 2040 2053 2053 2065 2065 2078 1564 1564 1813 1813 1813 1823 1833 1833 1843 1853 1863 1873 1883 1894 1904 1904 1915 1926 1926 1936 1936 1421 1421 1421 1421 1415 1415 1415 1415 1415 1415 1415 1415 1415 1421 1415 1415 1415 1415 1415 1415 1415 1410 1410 1410 1404 1404 1404 1398 1398 1404 1398 1398 1398 1398 1392 1387 1387 1381 1376 1370 1370 1370 1370 1370 1370 1370 1370 1381 1387 1392 1392 1398 1404 1410 1415 1433 2053 2053 2053 2053 2053 2053 2053 2065 2065 2065 2065 2065 2065 2065 2065 2065 2065 2065 2065 2078 2078 2078 2078 2078 2078 2065 2065 2078 2078 2078 1757 1757 1757 1748 1748 1748 1748 1748 1748 1748 1757 1757 1757 1757 1766 2065 2065 2065 2065 2078 2078 2078 2078 2078 2078 2078 2078 2090 2090 2090 2090 2090 2078 2078 2078 2065 2053 2053 2065 2065 2065 2078 1794 1794 1804 1804 1804 1804 1804 1804 1794 1794 1804 1804 1365 1365 1365 1370 1376 1376 1381 1381 1381 1381 1381 1381 1381 1381 1381 1381 1376 1376 1381 1381 1370 1365 1365 1365 1365 1365 1359 1359 2053 2065 2065 2065 2065 2065 2065 2078 2078 2078 2078 2078 2078 2078 2078 2078 2078 2078 2078 2090 2090 2090 2090 2090 2090 2090 2090 2090 2090 2090 2090 2090 2090 2090 2090 2090 2090 2090 2090 2065 2065 2078 2078 2078 2078 2078 2078 2078 2078 2078 2078 2078 2078 2078 2078 2078 2078 2090 2078 2078 2090 2090 2090 2090 2078 2078 2090 2090 2090 2078 2078 2078 2078 2078 2078 2078 2090 2090 2090 2090 2090 2090 2090 2090 2090 2090 2090 2090 2090 2090 2090 2090 2090 2090 2090 2090 2090 2090 2090 2090 2090 2090 2090 2090 2090 2103 2090 2090 2090 2090 2090 2090 2090 2090 2090 2090 2090 2090 2078 2078 2090 2090 2090 2090 2090 2078 2078 2078 2078 2078 2078 2078 2078 2078 2078 2078 2078 2078 2065 2065 2078 2078 2078 2078 2078 2078 2078 2065 2065 2065 2078 2078 2065 2065 2078 2078 2078 2078 2078 2078 2078 2078 2078 2078 2078 2078 2078 2078 2090 2090 2090 2103 0 0 0 0 0 0 0 0
0 0 0 0 0 0 0 0 0 0 0 0 0 0 0 0 0 0 0 0 0 0 0 0 0 0 0 0 0 0 0 0 0 0 1959 1959 1970 1970 1970 1981 1993 1981 1981 1981 1981 1970 1970 1970 1970 1970 1981 1981 1981 1981 1981 1981 1981 1981 1981 1981 1981 1981 1981 1981 1981 1981 1981 1981 1981 1970 1970 1970 1970 1970 1970 1981 1981 1981 1981 1981 1981 1981 1981 1981 1981 1981 1981 1981 1981 1981 1981 1993 1981 1981 1981 1981 1981 1981 1981 1981 1993 1981 1981 1981 1981 1981 1993 1993 2005 2005 1722 1722 1722 1722 1731 1731 1722 1722 1731 1731 1739 1748 1748 1748 1757 1757 1766 1794 1794 1804 1813 1823 1823 1833 1823 1823 1993 1993 2005 2005 2005 2005 2005 2005 2005 2005 2005 2005 2005 2005 2005 2005 2005 2005 2005 2005 1993 1993 1993 1993 1993 1993 1993 1993 2005 2005 2005 2005 2005 2005 2016 2016 2016 2005 2005 2016 2005 2005 2016 2016 2016 2028 2028 2028 1647 1624 1624 1624 1624 1624 1624 1624 1624 1624 1632 1632 1639 1639 1647 1647 1647 1647 1647 1647 1632 1632 2028 2028 2028 2040 2040 2040 2040 2040 2040 2040 2040 1766 1766 1766 1776 1776 1785 1804 1804 1813 1813 1813 1813 1503 1503 1503 1503 1503 1503 1503 1503 1503 1503 1503 1516 1523 1523 1523 1523 1523 1523 1523 2028 2028 2040 2040 2040 2040 2040 2040 2040 2028 2028 2028 2028 2028 2028 2028 2028 2040 2040 2053 2053 2065 1804 1564 1564 1804 1813 1813 1823 1833 1833 1843 1853 1863 1883 1883 1894 1904 1915 1915 1926 1926 1936 1936 1421 1421 1421 1421 1415 1415 1415 1415 1415 1415 1415 1415 1421 1421 1415 1415 1415 1415 1415 1410 1410 1410 1410 1410 1398 1398 1398 1398 1398 1398 1398 1398 1398 1398 1392 1387 1387 1381 1376 1370 1370 1370 1370 1370 1370 1370 1370 1381 1387 1392 1392 1398 1404 1410 1415 1433 1433 2053 2053 2053 2053 2053 2053 2053 2053 2053 2065 2065 2065 2065 2065 2065 2065 2065 2065 2065 2065 2065 2065 2065 2065 2065 2065 2065 2065 2078 1757 1757 1757 1757 1748 1748 1748 1748 1748 1757 1757 1757 1757 1766 2053 2065 2065 2065 2065 2065 2065 2078 2078 2078 2078 2078 2078 2078 2078 2078 2078 2078 2065 2065 2065 2053 2053 2053 2053 2065 2065 2078 1794 1794 1804 1804 1804 1804 1804 1804 1804 1804 1804 1804 1804 1370 1370 1370 1381 1381 1381 1381 1381 1381 1381 1381 1381 1381 1381 1381 1381 1381 1381 1381 1370 1365 1365 1365 1365 1365 2053 2053 2053 2053 2065 2065 2065 2065 2065 2065 2065 2065 2065 2065 2065 2065 2065 2065 2065 2065 2065 2065 2065 2065 2078 2078 2078 2078 2078 2078 2078 2078 2065 2065 2078 2078 2078 2078 2078 2078 2078 2065 2065 2065 2065 2078 2065 2065 2065 2078 2078 2078 2078 2078 2078 2078 2078 2078 2078 2078 2078 2078 2078 2078 2078 2078 2078 2078 2078 2078 2078 2078 2078 2078 2078 2078 2078 2078 2078 2078 2090 2090 2090 2090 2090 2078 2078 2078 2078 2078 2078 2078 2078 2078 2078 2078 2078 2090 2090 2090 2090 2090 2090 2090 2078 2078 2078 2090 2090 2090 2090 2090 2090 2090 2090 2078 2078 2078 2090 2090 2078 2078 2078 2078 2078 2078 2078 2065 2065 2078 2078 2065 2065 2065 2065 2065 2065 2065 2065 2065 2065 2065 2065 2065 2065 2065 2065 2065 2065 2053 2053 2053 2065 2065 2065 2065 2065 2078 2078 2078 2078 2078 2078 2078 2065 2065 2078 2078 2078 2078 2078 2078 2090 2090 0 0 0 0 0 0 0 0
0 0 0 0 0 0 0 0 0 0 0 0 0 0 0 0 0 0 0 0 0 0 0 0 0 0 0 0 0 0 0 0 0 0 1947 1947 1959 1959 1959 1970 1970 1970 1970 1970 1970 1970 1970 1970 1970 1970 1970 1970 1970 1970 1970 1970 1970 1970 1970 1970 1970 1970 1970 1970 1970 1970 1970 1970 1970 1970 1959 1959 1959 1959 1959 1959 1959 1959 1970 1981 1981 1981 1981 1970 1970 1970 1970 1981 1981 1981 1981 1981 1981 1981 1970 1970 1981 1981 1981 1981 1981 1970 1970 1970 1970 1981 1981 1993 2005 2005 1722 1722 1722 1722 1731 1731 1722 1722 1731 1731 1739 1739 1748 1748 1757 1757 1766 1794 1794 1813 1813 1823 1833 1833 1833 1981 1993 1993 1993 1993 1993 1993 1993 1993 1993 1993 1993 2005 2005 2005 2005 2005 2005 2005 1993 1993 1981 1981 1981 1981 1993 1993 1993 1993 1993 1993 1993 1993 1993 1993 2005 2005 2005 2005 2005 2005 2005 2005 2005 2005 2005 2016 1993 1993 1993 1624 1616 1616 1624 1624 1624 1624 1624 1632 1639 1639 1639 1647 1647 1647 1647 1647 1647 1639 1639 2028 2028 2028 2028 2028 2028 2040 2040 2040 2040 1776 1776 1766 1766 1766 1776 1785 1785 1804 1804 1813 1813 1813 1813 1503 1503 1503 1503 1503 1503 1503 1503 1503 1503 1509 1516 1523 1523 1523 1523 1523 1523 1523 2016 2028 2028 2040 2028 2028 2040 2040 2028 2028 2028 2028 2016 2016 2028 2028 2028 2040 2040 2040 2053 1794 1794 1794 1804 1804 1804 1813 1813 1823 1823 1843 1853 1863 1883 1883 1894 1904 1915 1926 1926 1936 1936 1936 2028 1415 1415 1415 1415 1415 1415 1415 1415 1415 1415 1415 1421 1421 1415 1415 1415 1415 1415 1410 1410 1410 1410 1404 1398 1398 1398 1398 1398 1398 1398 1398 1398 1398 1392 1387 1387 1381 1381 1370 1370 1370 1370 1370 1370 1370 1370 1381 1381 1387 1392 1398 1404 1410 1410 1433 1433 2053 2053 2053 2053 2053 2053 2053 2053 2053 2053 2053 2053 2053 2053 2053 2053 2065 2065 2065 2065 2065 2053 2053 2053 2053 2053 2065 2065 2065 1757 1748 1748 1757 1757 1757 1757 1757 1757 1757 1757 1757 1766 1766 2053 2053 2053 2065 2065 2065 2065 2065 2065 2065 2065 2065 2065 2078 2078 2078 2078 2065 2065 2065 2065 2053 2053 2053 2053 2053 2065 2065 1794 1794 1804 1804 1804 1804 1804 1794 1794 1794 1794 1794 1794 1376 1376 1376 1381 1381 1381 1381 1387 1381 1381 1381 1381 1381 1381 1381 1381 1381 1381 1381 1370 1365 1365 1365 1365 2053 2053 2053 2053 2053 2053 2053 2053 2053 2065 2065 2065 2065 2065 2065 2065 2053 2053 2053 2053 2053 2053 2053 2053 2053 2065 2065 2065 2065 2065 2065 2065 2065 2065 2065 2065 2065 2065 2065 2065 2065 2065 2053 2053 2053 2053 2053 2053 2053 2053 2065 2065 2065 2065 2065 2065 2078 2078 2078 2078 2078 2078 2078 2078 2078 2078 2078 2078 2078 2078 2078 2078 2078 2078 2078 2078 2078 2078 2065 2065 2065 2065 2078 2090 2090 2078 2065 2065 2065 2065 2065 2065 2065 2065 2078 2078 2078 2078 2078 2078 2078 2078 2078 2078 2078 2065 2065 2078 2078 2078 2078 2078 2078 2078 2078 2078 2078 2078 2078 2078 2078 2065 2065 2078 2078 2078 2078 2078 2065 2065 2065 2065 2065 2065 2065 2065 2065 2065 2065 2065 2065 2065 2065 2065 2065 2065 2065 2065 2065 2053 2053 2053 2053 2065 2065 2053 2053 2065 2065 2065 2065 2065 2065 2065 2065 2065 2065 2065 2065 2078 2078 2078 2078 2078 2090 0 0 0 0 0 0 0 0
0 0 0 0 0 0 0 0 0 0 0 0 0 0 0 0 0 0 0 0 0 0 0 0 0 0 0 0 0 0 0 0 0 0 1936 1936 1947 1947 1947 1959 1959 1959 1959 1959 1970 1970 1970 1970 1970 1970 1970 1970 1970 1970 1970 1970 1970 1970 1970 1970 1970 1970 1959 1959 1959 1959 1970 1970 1970 1970 1959 1959 1959 1959 1959 1959 1959 1959 1959 1959 1959 1959 1959 1959 1959 1959 1959 1959 1959 1959 1959 1970 1970 1959 1959 1959 1970 1959 1959 1970 1970 1959 1959 1959 1959 1970 1970 1970 1981 1981 1722 1722 1722 1722 1731 1731 1722 1722 1731 1731 1739 1739 1748 1748 1748 1757 1766 1794 1804 1813 1823 1833 1833 1843 1970 1970 1981 1981 1993 1993 1993 1993 1993 1993 1993 1993 1993 1993 1993 1993 1993 1993 1993 1993 1993 1993 1981 1981 1981 1981 1981 1981 1981 1981 1993 1993 1993 1993 1993 1993 1993 1993 1993 1993 1993 1993 1993 1993 1993 1993 1993 2005 1993 1981 1981 1624 1616 1616 1624 1624 1624 1624 1632 1632 1639 1639 1639 1639 1647 1639 1639 1647 1647 1639 1639 2016 2028 2028 2028 2028 2028 2040 2040 2040 2040 1776 1776 1776 1776 1776 1776 1785 1785 1794 1804 1813 1813 1813 1496 1496 1503 1503 1503 1503 1503 1503 1503 1503 1503 1509 1516 1523 1529 1529 1523 1523 1523 2016 2016 2016 2028 2028 2028 2028 2028 2028 2028 2028 2028 2016 2016 2016 2028 2028 2028 2040 2040 2040 2040 1785 1785 1785 1804 1804 1804 1813 1813 1823 1823 1833 1853 1873 1883 1894 1904 1904 1915 1926 1926 1936 1936 1947 1993 1415 1415 1415 2040 2040 2040 2040 2040 2040 1415 1415 1421 1421 1415 1415 1415 1415 2040 2040 1410 1410 1410 1404 1398 1398 1398 1392 1392 1398 1398 1398 1398 1392 1392 1387 1381 1381 1381 1370 1370 1370 1370 1370 1370 1370 1370 1376 1381 1387 1392 1398 1404 1410 1410 1410 2040 2040 2040 2040 2053 2053 2053 2053 2053 2053 2053 2053 2053 2053 2053 2053 2053 2053 2053 2053 2053 2053 2053 2053 2053 2053 2053 2053 2053 2065 2065 1748 1748 1748 1748 1757 1757 1757 1757 1757 1757 1757 1766 1766 2053 2053 2053 2053 2065 2065 2065 2065 2065 2065 2065 2065 2065 2065 2065 2065 2065 2065 2065 2065 2053 2053 2053 2053 2053 2053 2053 2053 1794 1794 1804 1804 1804 1804 1804 1794 1794 1794 1794 1794 1794 1387 1381 1381 1381 1381 1387 1387 1387 1387 1381 1381 1381 1381 1381 1381 1381 1381 1376 1376 1370 1370 1370 1370 2040 2040 2040 2040 2040 2053 2053 2053 2053 2053 2053 2065 2065 2053 2053 2053 2053 2053 2053 2053 2053 2053 2053 2053 2053 2053 2053 2053 2065 2053 2053 2053 2053 2065 2053 2053 2065 2065 2065 2065 2065 2065 2065 2053 2053 2053 2053 2053 2040 2040 2040 2040 2053 2053 2053 2053 2053 2065 2065 2065 2065 2065 2065 2065 2065 2065 2065 2065 2065 2065 2078 2078 2078 2065 2065 2065 2065 2065 2065 2065 2065 2065 2065 2053 2053 2053 2065 2053 2053 2053 2053 2065 2065 2065 2065 2065 2065 2065 2065 2078 2078 2078 2078 2078 2078 2065 2065 2065 2065 2078 2065 2065 2065 2065 2065 2065 2065 2065 2065 2065 2065 2065 2053 2053 2065 2065 2065 2065 2065 2065 2065 2065 2053 2053 2053 2053 2053 2053 2053 2053 2053 2053 2053 2053 2053 2053 2053 2053 2053 2053 2040 2040 2040 2040 2040 2040 2040 2040 2040 2040 2040 2040 2053 2053 2065 2065 2065 2065 2065 2065 2065 2065 2065 2065 2078 2078 0 0 0 0 0 0 0 0
0 0 0 0 0 0 0 0 0 0 0 0 0 0 0 0 0 0 0 0 0 0 0 0 0 0 0 0 0 0 0 0 0 0 1936 1936 1947 1947 1947 1959 1959 1959 1959 1959 1959 1959 1959 1959 1959 1959 1970 1970 1970 1970 1970 1970 1970 1959 1959 1959 1959 1959 1959 1959 1959 1959 1959 1959 1959 1959 1947 1947 1947 1947 1947 1947 1959 1959 1959 1959 1959 1959 1959 1959 1947 1947 1959 1959 1959 1959 1959 1959 1959 1959 1959 1959 1959 1959 1959 1959 1959 1959 1959 1959 1959 1970 1970 1959 1959 1959 1722 1722 1722 1722 1731 1731 1722 1722 1731 1731 1739 1739 1748 1748 1748 1757 1766 1794 1804 1823 1833 1843 1843 1873 1959 1959 1970 1981 1981 1981 1993 1993 1981 1981 1981 1981 1981 1993 1981 1981 1993 1993 1993 1993 1993 1993 1981 1970 1970 1970 1970 1970 1981 1981 1981 1981 1981 1981 1981 1981 1981 1981 1993 1993 1993 1993 1993 1981 1981 1981 1981 1981 1981 1981 1981 1981 1624 1624 1624 1624 1624 1624 1632 1632 1632 1639 1639 1639 1647 1639 1639 1647 1647 1647 1647 2016 2016 2016 2016 2028 2028 2040 2040 2040 1766 1766 1766 1776 1776 1776 1776 1785 1785 1794 1794 1804 1813 1496 1496 1496 1503 1503 1503 1503 1503 1503 1503 1503 1503 1509 1523 1523 1529 1529 1523 1523 1523 2016 2005 2005 2016 2016 2016 2016 2028 2028 2028 2028 2016 2016 2016 2016 2028 2028 2028 2040 2040 2040 1776 1776 1776 1785 1794 1804 1804 1813 1813 1813 1823 1833 1853 1873 1894 1894 1904 1915 1915 1926 1926 1936 1936 1947 1993 2016 2028 2040 2040 2040 2040 2040 2040 2040 2028 2028 2028 2028 2028 2028 2028 2028 2028 2028 2028 1410 1410 1404 1398 1392 1392 1392 1392 1392 1392 1398 1392 1392 1392 1387 1381 1381 1381 1370 1370 1370 1370 1370 1370 1370 1370 1376 1376 1387 1392 1392 1398 1398 1410 2028 2028 2040 2040 2040 2040 2053 2053 2053 2053 2040 2040 2040 2053 2053 2053 2053 2053 2053 2053 2053 2053 2053 2053 2053 2053 2053 2053 2053 2053 2053 2065 1739 1739 1748 1748 1757 1757 1757 1757 1757 1766 1766 1766 1766 2040 2053 2053 2053 2053 2053 2053 2053 2053 2053 2053 2065 2065 2065 2065 2065 2065 2053 2053 2053 2053 2040 2040 2040 2040 2053 2053 2053 2053 1804 1804 1804 1804 1804 1804 1804 1794 1794 1794 1794 1794 1387 1387 1387 1387 1387 1387 1387 1387 1387 1381 1381 1381 1381 1381 1381 1381 1381 1376 1376 1376 1376 1376 1381 2040 2040 2040 2040 2040 2040 2053 2053 2053 2053 2053 2053 2053 2053 2053 2053 2053 2053 2053 2053 2053 2053 2053 2053 2053 2053 2053 2053 2053 2053 2053 2053 2053 2053 2053 2053 2053 2065 2065 2065 2065 2053 2053 2040 2040 2040 2040 2040 2040 2040 2040 2040 2040 2040 2040 2040 2040 2053 2053 2053 2053 2053 2053 2053 2053 2053 2053 2053 2053 2053 2065 2065 2065 2065 2065 2053 2053 2053 2053 2053 2053 2053 2053 2053 2053 2053 2053 2053 2053 2053 2053 2065 2065 2053 2053 2065 2065 2065 2065 2065 2065 2053 2053 2053 2053 2053 2053 2053 2053 2053 2053 2053 2053 2053 2053 2053 2053 2053 2053 2053 2053 2053 2053 2040 2040 2065 2053 2053 2065 2053 2053 2053 2053 2053 2053 2053 2053 2053 2053 2053 2053 2053 2053 2053 2053 2040 2040 2040 2040 2040 2028 2028 2028 2028 2040 2040 2028 2028 2028 2028 2040 2040 2040 2053 2053 2065 2065 2065 2065 2065 2065 2065 2065 2065 2065 2065 0 0 0 0 0 0 0 0
0 0 0 0 0 0 0 0 0 0 0 0 0 0 0 0 0 0 0 0 0 0 0 0 0 0 0 0 0 0 0 0 0 0 1936 1936 1936 1936 1936 1936 1947 1947 1959 1959 1959 1959 1959 1959 1959 1959 1959 1959 1959 1959 1959 1970 1970 1959 1959 1959 1959 1959 1959 1959 1959 1959 1959 1959 1959 1959 1947 1947 1947 1947 1947 1947 1947 1959 1947 1947 1947 1959 1959 1947 1947 1947 1947 1959 1959 1959 1959 1959 1959 1947 1947 1947 1959 1959 1959 1959 1959 1959 1959 1959 1959 1959 1959 1947 1947 1959 1722 1722 1722 1722 1731 1731 1731 1731 1731 1739 1739 1739 1748 1748 1748 1757 1766 1804 1823 1833 1843 1873 1894 1915 1959 1959 1959 1970 1970 1970 1970 1970 1970 1970 1970 1970 1981 1981 1981 1981 1993 1993 1993 1993 1981 1981 1981 1970 1970 1970 1970 1970 1970 1970 1981 1981 1981 1981 1981 1981 1981 1981 1981 1981 1981 1993 1981 1981 1981 1981 1981 1970 1970 1981 1981 1981 1632 1632 1624 1624 1624 1624 1632 1632 1632 1639 1639 1639 1647 1639 1639 1647 1647 1647 1993 1993 1993 1993 1993 2005 2016 2028 2040 1748 1748 1757 1766 1766 1776 1776 1776 1776 1785 1785 1794 1794 1794 1496 1496 1503 1503 1503 1503 1503 1503 1503 1503 1503 1503 1509 1516 1523 1523 1523 1523 1523 1523 2005 2005 2005 2016 2016 2016 2016 2016 2016 2016 2028 2016 2016 2028 2028 2028 2028 2028 2028 2028 2040 1776 1776 1776 1785 1794 1794 1804 1813 1813 1813 1813 1833 1873 1883 1894 1904 1915 1915 1915 1926 1926 1936 1947 1970 2005 2016 2028 2028 2028 2040 2040 2040 2028 2028 2028 2028 2028 2028 2028 2028 2028 2028 2028 2028 2028 2028 2016 2016 1398 1392 1392 1392 1387 1387 1392 1392 1392 1392 1392 1392 1387 1387 1381 1376 1376 1376 1370 1370 1370 1370 1370 1376 1376 1387 1392 1392 1398 1398 1404 2016 2028 2040 2040 2040 2040 2053 2053 2053 2053 2040 2040 2040 2053 2053 2053 2040 2040 2053 2053 2040 2040 2040 2040 2040 2040 2040 2040 2040 2040 2040 2040 1739 1739 1748 1748 1757 1757 1757 1757 1757 1766 1766 1766 2040 2040 2053 2053 2053 2053 2053 2053 2053 2040 2040 2053 2053 2053 2053 2053 2053 2053 2053 2053 2053 2053 2040 2040 2040 2040 2040 2040 2053 1804 1804 1804 1804 1804 1804 1804 1804 1804 1794 1794 1794 1421 1387 1387 1387 1387 1387 1387 1387 1387 1387 1387 1381 1381 1381 1381 1381 1381 1381 1381 1381 1376 1376 1381 1381 2040 2040 2028 2028 2040 2040 2040 2053 2053 2053 2053 2053 2053 2053 2053 2053 2053 2053 2053 2053 2053 2053 2053 2053 2053 2053 2053 2053 2053 2040 2040 2040 2040 2053 2053 2053 2053 2053 2053 2053 2053 2053 2053 2040 2040 2040 2040 2040 2040 2040 2040 2040 2040 2040 2040 2040 2040 2040 2040 2040 2040 2040 2040 2040 2040 2040 2040 2040 2040 2040 2053 2053 2053 2053 2053 2053 2053 2053 2053 2053 2040 2040 2040 2053 2040 2040 2040 2053 2053 2053 2053 2053 2053 2053 2053 2053 2053 2053 2053 2053 2053 2053 2053 2053 2053 2053 2040 2040 2053 2053 2040 2040 2040 2053 2053 2040 2040 2040 2040 2040 2040 2040 2040 2040 2040 2040 2040 2040 2053 2040 2040 2040 2040 2040 2040 2040 2040 2040 2040 2040 2040 2040 2040 2040 2040 2040 2040 2028 2028 2028 2028 2028 2028 2028 2028 2028 2028 2028 2028 2028 2028 2028 2040 2040 2053 2053 2053 2053 2053 2053 2053 2053 2053 2053 2065 2065 0 0 0 0 0 0 0 0
0 0 0 0 0 0 0 0 0 0 0 0 0 0 0 0 0 0 0 0 0 0 0 0 0 0 0 0 0 0 0 0 0 0 1926 1926 1926 1926 1926 1936 1936 1947 1947 1947 1959 1959 1959 1959 1959 1959 1959 1959 1959 1959 1959 1959 1959 1959 1947 1947 1947 1947 1959 1959 1947 1947 1959 1959 1959 1947 1936 1936 1936 1936 1936 1936 1947 1947 1947 1947 1947 1947 1947 1947 1947 1947 1947 1947 1959 1947 1947 1947 1947 1947 1947 1947 1947 1947 1947 1947 1947 1947 1959 1947 1947 1947 1947 1947 1947 1947 1722 1722 1722 1722 1731 1731 1731 1731 1731 1739 1739 1739 1748 1748 1748 1757 1766 1813 1823 1843 1863 1883 1904 1936 1947 1947 1959 1959 1959 1959 1959 1970 1970 1970 1970 1970 1970 1970 1970 1970 1981 1981 1981 1981 1981 1981 1970 1959 1959 1970 1970 1970 1970 1970 1981 1981 1981 1970 1970 1970 1970 1970 1970 1970 1981 1981 1970 1970 1970 1970 1970 1959 1959 1959 1970 1970 1639 1639 1639 1624 1624 1632 1632 1632 1639 1639 1639 1639 1647 1647 1647 1647 1647 1647 1993 1993 1993 1993 1993 2005 2005 2016 1748 1748 1748 1757 1766 1766 1766 1776 1776 1776 1785 1785 1785 1794 1794 1496 1496 1503 1503 1503 1503 1503 1509 1509 1503 1503 1509 1516 1516 1523 1523 1523 1523 1523 1523 1981 2005 2005 2005 2005 2005 2005 2016 2016 2016 2016 2016 2016 2016 2016 2028 2028 2028 1757 1757 1766 1766 1766 1776 1776 1785 1794 1804 1804 1813 1813 1813 1823 1883 1904 1904 1915 1915 1915 1915 1926 1926 1936 1947 1981 2005 2016 2016 2028 2028 2028 2028 2028 2028 2028 2028 2028 2028 2028 2028 2028 2028 2028 2016 2016 2028 2028 2016 2016 2016 2016 1392 1392 1387 1387 1392 1392 1392 1392 1392 1392 1387 1381 1381 1376 1376 1376 1370 1370 1370 1370 1370 1376 1381 1387 1392 1392 1392 1398 1404 2016 2016 2028 2028 2028 2028 2040 2040 2040 2040 2040 2040 2040 2040 2040 2040 2040 2040 2040 2040 2040 2040 2040 2040 2040 2028 2028 2040 2028 2028 2040 2040 1748 1748 1748 1748 1748 1748 1748 1757 1757 1766 1766 1766 2040 2040 2040 2040 2040 2040 2040 2040 2040 2028 2028 2040 2053 2053 2053 2040 2040 2053 2053 2040 2040 2053 2040 2040 2040 2040 2040 2040 2053 1804 1804 1804 1804 1804 1804 1804 1804 1804 1804 1804 1804 1421 1410 1387 1387 1387 1387 1387 1387 1387 1387 1387 1381 1381 1381 1381 1381 1381 1381 1381 1381 1381 1381 1381 1381 1381 2016 2016 2016 2016 2040 2040 2040 2040 2040 2040 2040 2040 2040 2040 2040 2040 2040 2040 2040 2040 2040 2040 2040 2040 2040 2040 2040 2040 2040 2040 2040 2040 2040 2040 2040 2040 2053 2053 2053 2053 2053 2040 2040 2040 2028 2028 2028 2028 2040 2040 2040 2040 2040 2040 2040 2040 2028 2028 2028 2040 2028 2028 2040 2040 2040 2040 2040 2040 2040 2053 2040 2040 2040 2040 2040 2040 2040 2040 2040 2040 2040 2040 2040 2040 2040 2040 2040 2040 2040 2040 2040 2040 2040 2040 2040 2053 2040 2040 2053 2053 2040 2040 2040 2040 2040 2040 2040 2040 2040 2040 2040 2040 2040 2040 2040 2040 2040 2040 2040 2040 2040 2040 2040 2040 2040 2040 2040 2040 2028 2028 2028 2028 2028 2028 2028 2028 2028 2040 2028 2028 2040 2040 2040 2028 2028 2028 2028 2016 2016 2028 2028 2028 2028 2028 2028 2028 2028 2028 2028 2028 2028 2028 2040 2040 2053 2053 2053 2053 2053 2040 2040 2040 2040 2040 2040 0 0 0 0 0 0 0 0
0 0 0 0 0 0 0 0 0 0 0 0 0 0 0 0 0 0 0 0 0 0 0 0 0 0 0 0 0 0 0 0 0 0 1926 1926 1926 1926 1926 1936 1936 1936 1936 1936 1947 1947 1947 1947 1947 1947 1947 1947 1947 1947 1959 1959 1959 1947 1947 1947 1947 1947 1947 1947 1947 1947 1959 1959 1947 1947 1936 1936 1936 1926 1926 1936 1936 1936 1936 1936 1947 1947 1947 1947 1947 1947 1947 1947 1959 1947 1947 1947 1947 1947 1947 1947 1947 1947 1947 1947 1947 1947 1947 1947 1947 1947 1936 1936 1936 1705 1705 1722 1722 1722 1731 1731 1731 1731 1731 1739 1739 1739 1748 1748 1757 1766 1785 1813 1833 1853 1863 1883 1904 1926 1947 1947 1947 1959 1959 1959 1959 1959 1959 1959 1959 1959 1970 1970 1959 1959 1970 1970 1970 1970 1970 1970 1959 1959 1959 1959 1959 1970 1970 1970 1970 1970 1970 1959 1959 1959 1959 1959 1970 1970 1970 1981 1970 1959 1959 1959 1959 1959 1959 1959 1970 1970 1639 1639 1639 1624 1624 1632 1632 1632 1639 1639 1639 1639 1647 1647 1647 1647 1647 1647 1993 1993 1993 1993 1993 2005 2005 1739 1739 1748 1748 1748 1766 1766 1766 1776 1776 1776 1776 1785 1785 1785 1785 1496 1496 1503 1503 1503 1503 1509 1509 1509 1509 1509 1509 1523 1523 1523 1523 1523 1523 1523 1523 1981 1981 1993 1993 1993 1993 2005 2005 2005 2005 2016 2016 2016 2016 2016 2028 2028 2028 1757 1757 1766 1766 1766 1776 1776 1785 1785 1794 1794 1804 1804 1813 1823 1904 1904 1904 1915 1915 1915 1915 1926 1926 1936 1947 1981 2005 2005 2016 2016 2028 2028 2028 2028 2028 2028 2028 2028 2028 2016 2016 2016 2016 2028 2016 2016 2028 2028 2016 2016 2016 2016 2016 2016 2005 2005 2005 1392 1392 1392 1392 1392 1387 1381 1381 1376 1376 1376 1370 1370 1370 1376 1376 1381 1381 1387 1392 1392 1392 1398 1398 2016 2016 2028 2016 2016 2016 2016 2016 2028 2028 2028 2028 2028 2040 2028 2028 2028 2028 2028 2028 2028 2028 2028 2028 2028 2028 2028 2028 2016 2005 2005 2016 1748 1748 1748 1748 1748 1748 1748 1757 1757 1757 1757 2016 2016 2016 2028 2028 2028 2028 2028 2028 2028 2028 2028 2028 2040 2040 2040 2028 2028 2028 2040 2028 2028 2040 2040 2028 2028 2028 2028 2040 2040 1804 1804 1804 1804 1813 1813 1813 1813 1813 1813 1813 1421 1421 1415 1387 1387 1387 1387 1387 1387 1387 1387 1387 1387 1387 1381 1381 1381 1381 1381 1381 1381 1381 1381 1387 1387 0 2005 2005 2005 2005 2016 2028 2040 2040 2040 2040 2040 2040 2040 2028 2028 2028 2028 2040 2040 2040 2040 2040 2040 2040 2040 2040 2040 2040 2028 2028 2028 2028 2040 2040 2040 2040 2053 2053 2040 2040 2040 2040 2028 2028 2028 2028 2028 2028 2028 2028 2028 2028 2028 2028 2028 2028 2028 2028 2028 2040 2028 2028 2028 2040 2040 2040 2040 2040 2040 2053 2040 2040 2040 2040 2040 2040 2040 2040 2028 2028 2040 2040 2040 2040 2040 2040 2040 2040 2040 2040 2040 2028 2028 2040 2040 2040 2028 2028 2040 2040 2040 2040 2040 2040 2040 2040 2040 2040 2040 2040 2040 2040 2040 2040 2040 2040 2040 2040 2040 2040 2040 2040 2040 2040 2040 2028 2028 2040 2028 2028 2028 2028 2028 2028 2028 2028 2028 2028 2028 2028 2028 2028 2028 2028 2016 2016 2016 2016 2016 2028 2028 2028 2028 2028 2028 2028 2028 2028 2028 2028 2028 2028 2028 2040 2040 2040 2040 2040 2040 2040 2028 2028 2040 2040 2040 0 0 0 0 0 0 0 0
0 0 0 0 0 0 0 0 0 0 0 0 0 0 0 0 0 0 0 0 0 0 0 0 0 0 0 0 0 0 0 0 0 0 1926 1926 1926 1926 1926 1926 1926 1926 1936 1936 1936 1947 1947 1947 1947 1936 1936 1936 1936 1936 1947 1947 1947 1936 1936 1936 1936 1936 1947 1947 1947 1947 1947 1947 1936 1936 1936 1926 1926 1926 1926 1926 1936 1926 1926 1936 1936 1947 1947 1936 1936 1936 1936 1936 1947 1936 1936 1947 1936 1936 1936 1936 1936 1936 1947 1947 1936 1936 1947 1936 1936 1936 1936 1936 1936 1705 1705 1722 1722 1722 1731 1731 1731 1731 1739 1739 1739 1739 1748 1748 1757 1766 1776 1833 1843 1863 1873 1894 1915 1915 1936 1947 1947 1947 1947 1947 1947 1959 1959 1959 1959 1959 1959 1959 1959 1959 1959 1959 1959 1959 1959 1959 1959 1947 1947 1959 1959 1959 1959 1959 1970 1970 1959 1959 1959 1959 1959 1959 1959 1959 1959 1959 1959 1959 1959 1959 1959 1959 1959 1959 1959 1959 1639 1639 1639 1639 1639 1632 1632 1632 1639 1639 1639 1639 1647 1647 1647 1647 1655 1655 1671 2005 1993 1993 1993 2005 1739 1739 1739 1748 1748 1748 1748 1766 1766 1776 1776 1776 1776 1785 1785 1785 1785 1503 1503 1503 1503 1503 1503 1509 1509 1509 1509 1509 1509 1523 1523 1523 1529 1529 1523 1523 1523 1981 1981 1981 1981 1981 1981 1993 1993 1993 1993 2005 2016 2016 2016 2016 2028 2028 2028 1748 1748 1766 1766 1766 1776 1776 1785 1785 1785 1785 1794 1804 1813 1915 1915 1915 1915 1915 1915 1915 1915 1926 1936 1947 1959 1981 2005 2005 2016 2016 2016 2016 2016 2016 2016 2016 2016 2016 2016 2016 2005 2005 2005 2016 2016 2016 2016 2016 2016 2016 2016 2016 2016 2005 2005 2005 2005 2005 1392 1387 1387 1387 1387 1381 1381 1376 1376 1376 1370 1370 1376 1376 1376 1381 1381 1387 1392 1392 1392 1398 1398 2016 2016 2028 2016 2016 2016 2016 2016 2016 2016 2016 2028 2028 2028 2016 2016 2016 2016 2016 2016 2016 2016 2016 2016 2016 2016 2016 2016 2016 2005 2005 2016 2016 1748 1748 1748 1748 1748 1748 1757 1757 1757 1757 2016 2016 2016 2016 2028 2016 2016 2016 2016 2028 2028 2028 2028 2028 2028 2028 2028 2028 2028 2028 2028 2028 2028 2028 2016 2016 2016 2016 2028 2040 1804 1804 1804 1813 1813 1813 1813 1813 1813 1823 1823 1421 1421 1415 1410 1387 1387 1387 1387 1387 1387 1387 1387 1387 1387 1381 1381 1381 1381 1381 1381 1381 1381 1381 1387 1387 0 2005 2005 2005 2005 2016 2016 2028 2028 2040 2028 2028 2028 2028 2016 2016 2016 2016 2028 2028 2028 2028 2028 2028 2028 2028 2028 2040 2028 2028 2028 2028 2028 2028 2028 2028 2028 2040 2040 2040 2040 2040 2040 2028 2028 2028 2028 2028 2028 2028 2028 2028 2028 2028 2028 2028 2028 2028 2028 2028 2028 2028 2028 2028 2028 2028 2040 2028 2028 2040 2040 2028 2028 2028 2028 2028 2028 2028 2028 2028 2028 2028 2028 2028 2028 2028 2028 2028 2028 2028 2028 2028 2028 2028 2028 2028 2040 2028 2028 2040 2040 2040 2040 2040 2040 2040 2028 2028 2028 2028 2028 2028 2028 2028 2028 2028 2028 2028 2028 2040 2040 2028 2028 2028 2028 2028 2028 2028 2028 2016 2016 2016 2016 2028 2028 2028 2028 2028 2028 2028 2028 2028 2028 2028 2028 2016 2016 2016 2016 2016 2016 2016 2016 2016 2016 2016 2016 2016 2016 2016 2016 2016 2028 2028 2028 2028 2028 2028 2028 2028 2028 2028 2028 2028 2028 2028 0 0 0 0 0 0 0 0
0 0 0 0 0 0 0 0 0 0 0 0 0 0 0 0 0 0 0 0 0 0 0 0 0 0 0 0 0 0 0 0 0 0 1915 1915 1926 1926 1926 1926 1926 1926 1926 1926 1936 1936 1936 1936 1936 1936 1936 1926 1926 1926 1926 1926 1926 1926 1926 1936 1936 1936 1936 1936 1936 1936 1947 1936 1936 1926 1926 1926 1926 1915 1915 1926 1936 1926 1926 1926 1936 1936 1936 1926 1926 1926 1926 1926 1926 1926 1926 1926 1926 1926 1926 1926 1936 1936 1936 1936 1936 1936 1936 1936 1936 1936 1936 1936 1936 1713 1713 1722 1722 1731 1731 1731 1731 1739 1739 1739 1739 1748 1748 1748 1757 1766 1776 1843 1853 1873 1873 1883 1904 1915 1915 1936 1936 1936 1936 1936 1947 1947 1947 1947 1959 1959 1959 1959 1947 1947 1959 1959 1959 1959 1959 1959 1947 1947 1947 1947 1947 1947 1959 1959 1959 1959 1959 1959 1959 1959 1959 1959 1959 1959 1959 1959 1959 1947 1947 1959 1959 1959 1959 1959 1959 1959 1639 1639 1639 1639 1639 1632 1632 1632 1639 1639 1639 1647 1647 1647 1647 1655 1663 1663 1671 2005 2005 2005 2005 1739 1739 1739 1748 1748 1748 1748 1748 1766 1766 1776 1776 1776 1776 1785 1785 1785 1785 1503 1503 1503 1503 1503 1503 1509 1509 1509 1509 1509 1509 1523 1523 1523 1523 1529 1523 1523 1523 1523 1981 1981 1981 1981 1981 1981 1981 1993 1993 1993 1993 2016 2016 2016 2028 2028 2028 1748 1748 1766 1766 1776 1776 1776 1776 1776 1785 1785 1794 1959 1936 1926 1926 1926 1926 1926 1926 1926 1926 1926 1936 1947 1959 1970 1993 1993 2005 2005 2005 2005 2005 2016 2005 2005 2005 2005 2005 2005 2005 2005 2005 2005 2016 2016 2016 2016 2016 2016 2016 2005 2005 2005 2005 2005 2005 2005 2005 1387 1387 1387 1381 1381 1381 1376 1376 1376 1370 1370 1376 1376 1376 1381 1387 1387 1387 1392 1392 1392 2028 2028 2016 2016 2016 2016 2005 2005 2016 2016 2016 2016 2016 2016 2016 2016 2005 2005 2016 2016 2016 2016 2016 2016 2016 2016 2016 2016 2016 2016 2005 1757 1757 1748 1748 1748 1748 1748 1748 1757 1757 1757 1766 1766 2005 2005 2005 2016 2016 2016 2016 2016 2016 2016 2016 2016 2016 2028 2016 2016 2028 2016 2016 2016 2016 2016 2016 2005 2005 2005 2016 2016 2016 2028 1813 1813 1813 1813 1813 1813 1813 1813 1813 1823 1823 1823 1421 1404 1404 1387 1387 1392 1387 1387 1387 1387 1387 1387 1387 1381 1381 1381 1381 1381 1381 1381 1381 1381 1387 1387 1392 1981 1981 1981 2005 2005 2016 2016 2028 2040 2028 2028 2028 2016 2016 2016 2016 2016 2016 2016 2016 2016 2016 2016 2016 2028 2028 2028 2028 2028 2028 2028 2028 2028 2016 2016 2028 2040 2040 2040 2040 2040 2028 2028 2028 2016 2016 2016 2016 2028 2028 2028 2028 2028 2028 2028 2028 2028 2028 2028 2028 2028 2028 2028 2028 2028 2028 2016 2016 2028 2028 2016 2016 2028 2028 2028 2028 2028 2028 2028 2028 2028 2028 2028 2028 2028 2028 2028 2028 2028 2028 2028 2028 2028 2028 2028 2028 2028 2028 2028 2028 2028 2028 2028 2028 2028 2028 2028 2028 2028 2028 2028 2016 2016 2028 2028 2028 2028 2028 2028 2028 2028 2028 2028 2028 2028 2016 2016 2016 2016 2016 2016 2016 2016 2016 2016 2016 2016 2016 2028 2028 2028 2028 2028 2028 2016 2016 2016 2016 2016 2016 2016 2016 2016 2016 2016 2016 2016 2016 2016 2016 2016 2016 2016 2028 2016 2016 2028 2028 2028 2028 2028 2028 2028 2028 2028 0 0 0 0 0 0 0 0
0 0 0 0 0 0 0 0 0 0 0 0 0 0 0 0 0 0 0 0 0 0 0 0 0 0 0 0 0 0 0 0 0 0 1915 1915 1915 1915 1926 1926 1926 1926 1926 1926 1926 1926 1926 1926 1926 1926 1926 1926 1915 1915 1926 1926 1926 1926 1926 1926 1926 1926 1936 1936 1936 1936 1936 1936 1926 1926 1915 1915 1915 1915 1915 1915 1936 1926 1926 1926 1936 1926 1926 1926 1926 1926 1926 1926 1926 1926 1915 1915 1926 1926 1926 1926 1926 1926 1936 1936 1926 1926 1936 1936 1936 1936 1936 1936 1936 1713 1713 1722 1722 1739 1739 1731 1731 1739 1739 1739 1739 1748 1748 1748 1757 1766 1833 1843 1863 1873 1873 1883 1904 1915 1915 1936 1936 1936 1936 1936 1936 1947 1947 1947 1947 1947 1947 1947 1947 1947 1947 1947 1947 1947 1947 1947 1936 1936 1936 1947 1947 1947 1947 1947 1947 1947 1947 1947 1947 1947 1947 1947 1947 1947 1947 1947 1947 1947 1947 1947 1947 1947 1947 1947 1947 1947 1639 1639 1639 1639 1639 1639 1639 1639 1639 1639 1639 1647 1647 1647 1647 1655 1663 1671 1680 2005 2005 1722 1722 1731 1739 1739 1748 1748 1748 1748 1748 1766 1766 1776 1776 1776 1776 1776 1776 1785 1776 1776 1503 1503 1503 1509 1509 1509 1509 1509 1509 1509 1509 1523 1523 1523 1523 1529 1523 1523 1523 1523 1970 1981 1981 1981 1981 1981 1981 1981 1981 1981 1981 1993 1993 2005 2028 1731 1731 1739 1748 1766 1766 1766 1776 1776 1776 1776 1776 1776 1959 1959 1947 1936 1926 1926 1926 1926 1926 1926 1926 1926 1936 1947 1959 1970 1993 1993 2005 1993 1993 1993 1993 1993 1993 1993 1993 1993 1993 1993 1993 1993 1993 2005 2005 2016 2016 2005 2005 2005 2005 2005 2005 2005 2005 2005 2005 2005 2005 1387 1387 1381 1381 1381 1381 1376 1376 1376 1370 1370 1376 1376 1376 1381 1387 1387 1387 1392 1392 1392 2028 2005 1993 1993 1993 1993 1993 1993 1993 1993 1993 2005 2005 2005 2005 2005 2005 2005 2005 2005 2005 2005 2005 2016 2016 2016 2016 2005 2005 2005 2005 1757 1757 1748 1748 1748 1748 1757 1757 1757 1757 1757 1766 1766 2005 2005 2005 2016 2016 2016 2016 2016 2016 2016 2016 2016 2016 2016 2016 2016 2016 2016 2016 2016 2016 2016 2016 2005 2005 2005 2005 2005 2005 2016 1813 1813 1813 1813 1813 1823 1823 1823 1823 1823 1823 1823 1404 1404 1404 1387 1387 1392 1387 1387 1387 1387 1387 1387 1387 1387 1381 1381 1381 1381 1381 1381 1381 1381 1387 1392 1392 1981 1981 1981 1981 2005 2005 2016 2016 2016 2016 2016 2016 2005 2005 2005 2005 2005 2005 2005 2005 2005 2005 2016 2016 2016 2016 2016 2016 2016 2016 2016 2016 2016 2016 2016 2016 2028 2028 2028 2028 2028 2028 2016 2016 2016 2016 2016 2016 2016 2016 2016 2016 2016 2016 2016 2016 2016 2016 2028 2028 2028 2016 2016 2016 2016 2016 2005 2005 2005 2005 2005 2005 2016 2016 2016 2016 2016 2016 2016 2028 2028 2028 2028 2028 2028 2028 2028 2028 2028 2016 2016 2016 2016 2016 2016 2028 2016 2016 2028 2028 2028 2028 2028 2028 2028 2028 2028 2028 2028 2028 2028 2016 2016 2016 2016 2016 2016 2016 2016 2016 2016 2016 2016 2016 2016 2016 2005 2005 2005 2005 2005 2005 2016 2016 2016 2016 2016 2016 2016 2016 2016 2016 2016 2016 2016 2016 2016 2005 2005 2016 2016 2016 2016 2016 2016 2016 2016 2016 2016 2016 2016 2016 2016 2016 2016 2016 2016 2016 2016 2016 2016 2016 2028 2016 2016 0 0 0 0 0 0 0 0
0 0 0 0 0 0 0 0 0 0 0 0 0 0 0 0 0 0 0 0 0 0 0 0 0 0 0 0 0 0 0 0 0 0 1904 1904 1904 1915 1915 1915 1915 1915 1915 1926 1926 1926 1926 1926 1926 1926 1915 1915 1915 1915 1915 1915 1915 1915 1926 1926 1926 1926 1926 1926 1926 1926 1936 1926 1926 1926 1915 1915 1915 1915 1915 1915 1915 1926 1926 1926 1926 1926 1926 1926 1926 1926 1915 1915 1915 1915 1915 1915 1915 1915 1926 1926 1926 1926 1926 1926 1926 1926 1926 1926 1926 1926 1926 1926 1936 1705 1705 1722 1722 1731 1739 1739 1739 1739 1739 1748 1748 1748 1748 1757 1757 1766 1833 1853 1863 1873 1873 1883 1894 1904 1915 1936 1936 1936 1936 1936 1936 1936 1947 1947 1947 1947 1947 1947 1947 1947 1947 1947 1947 1947 1947 1936 1936 1936 1936 1936 1936 1947 1947 1947 1947 1947 1947 1947 1947 1947 1947 1947 1947 1947 1947 1947 1947 1947 1947 1947 1947 1947 1947 1947 1947 1947 1639 1639 1639 1639 1639 1639 1639 1639 1639 1639 1639 1647 1647 1647 1655 1663 1671 1680 1688 1713 1713 1722 1722 1731 1739 1739 1739 1748 1748 1748 1748 1766 1766 1776 1776 1776 1776 1776 1776 1776 1776 1776 1503 1503 1509 1509 1509 1509 1509 1509 1509 1509 1509 1523 1523 1523 1529 1529 1529 1529 1523 1523 1970 1981 1981 1981 1970 1970 1981 1981 1981 1981 1981 1993 1993 2005 2005 1731 1731 1739 1739 1748 1766 1766 1766 1776 1776 1776 1776 1776 1959 1959 1947 1936 1926 1926 1926 1926 1926 1926 1926 1926 1936 1947 1959 1970 1981 1981 1993 1993 1993 1981 1981 1981 1981 1981 1981 1981 1993 1993 1993 1993 1993 1993 1993 2005 2005 2005 2005 2005 2005 1993 1993 1993 1993 2005 2005 2005 2005 1387 1387 1381 1381 1381 1381 1381 1376 1376 1376 1376 1376 1381 1381 1387 1387 1387 1392 1392 1392 1392 1981 1981 1970 1970 1981 1981 1981 1981 1981 1993 1993 1993 1993 1993 2005 1981 1981 1993 1981 1981 1993 2005 2005 2005 2005 2005 2005 2005 2005 2005 1757 1757 1748 1748 1757 1748 1748 1757 1757 1757 1757 1757 1757 1766 2005 2005 2005 2005 2016 2016 2016 2005 2005 2005 2005 2005 2005 2005 2005 2005 2016 2016 2016 2016 2005 2005 2005 1993 1993 2005 2005 2005 2005 2016 1813 1813 1823 1823 1823 1823 1823 1823 1823 1823 1823 1823 1410 1410 1410 1387 1387 1392 1392 1387 1387 1387 1387 1387 1387 1387 1381 1381 1381 1381 1381 1387 1387 1387 1387 1392 1392 1981 1981 1981 1981 2005 2005 2005 2005 2005 2005 2005 2005 2005 2005 2005 2005 2005 2005 2005 2005 2005 2005 2005 2005 2005 2005 2005 2016 2016 2005 2005 2005 2005 2005 2005 2016 2016 2028 2016 2016 2028 2016 2005 2005 2005 2005 2005 2005 1993 1993 2005 2005 2005 2005 2016 2016 2016 2016 2016 2016 2016 2005 2005 2005 2005 2005 2005 2005 1993 1993 1993 2005 2005 2005 2005 2005 2016 2016 2005 2005 2028 2016 2016 2016 2016 2016 2016 2016 2016 2005 2005 2005 2005 2005 2005 2016 2005 2005 2016 2016 2016 2016 2016 2016 2016 2016 2016 2016 2016 2016 2016 2005 2005 2005 2005 2005 2005 2005 2005 2016 2016 2016 2016 2016 2016 2005 2005 2005 1993 1993 1993 1993 1993 1993 1993 2005 2005 2005 2005 2005 2016 2016 2005 2005 1993 1993 2005 1993 1993 2005 2005 2005 2005 2005 2005 2005 2016 2016 2016 2016 2016 2016 2016 2016 2005 2005 2016 2016 2016 2016 2016 2016 2016 2016 2016 0 0 0 0 0 0 0 0
0 0 0 0 0 0 0 0 0 0 0 0 0 0 0 0 0 0 0 0 0 0 0 0 0 0 0 0 0 0 0 0 0 0 1904 1904 1904 1904 1904 1904 1904 1904 1915 1915 1915 1926 1915 1915 1915 1915 1915 1915 1915 1915 1915 1915 1915 1915 1926 1926 1926 1926 1926 1926 1926 1926 1926 1926 1926 1926 1915 1904 1904 1904 1904 1915 1915 1915 1915 1915 1915 1915 1915 1915 1915 1915 1915 1915 1904 1904 1915 1915 1915 1915 1915 1915 1915 1926 1915 1915 1915 1915 1915 1915 1915 1915 1915 1926 1926 1705 1705 1722 1722 1731 1739 1739 1739 1748 1748 1748 1748 1748 1748 1757 1757 1766 1833 1853 1863 1863 1873 1873 1883 1904 1915 1936 1936 1936 1926 1926 1936 1936 1936 1936 1936 1947 1947 1947 1947 1947 1936 1936 1936 1936 1936 1936 1926 1926 1926 1936 1936 1936 1936 1947 1936 1936 1947 1947 1947 1947 1947 1947 1947 1947 1947 1947 1947 1947 1947 1947 1936 1936 1936 1936 1936 1936 1639 1639 1639 1639 1639 1632 1632 1639 1639 1639 1639 1647 1647 1647 1655 1671 1671 1680 1705 1713 1713 1722 1722 1722 1739 1739 1739 1748 1748 1748 1748 1766 1766 1776 1776 1776 1776 1776 1776 1776 1776 1503 1503 1503 1503 1509 1509 1509 1509 1509 1516 1516 1516 1523 1523 1523 1529 1529 1529 1529 1529 1529 1970 1970 1970 1970 1970 1970 1970 1970 1981 1981 1981 1993 1993 1731 1731 1731 1731 1731 1739 1748 1757 1757 1766 1776 1776 1776 1776 1970 1959 1959 1947 1936 1926 1926 1926 1926 1926 1926 1926 1926 1936 1947 1959 1970 1981 1981 1981 1981 1981 1981 1981 1981 1981 1981 1981 1981 1981 1981 1981 1981 1981 1993 1993 1993 1993 1993 1993 1993 1993 1993 1993 1993 1993 1993 1993 1993 1993 1387 1387 1381 1381 1381 1381 1381 1376 1376 1376 1376 1376 1381 1381 1387 1387 1392 1392 1392 1392 1392 1981 1970 1970 1970 1970 1981 1981 1981 1981 1981 1981 1993 1981 1981 1981 1981 1981 1981 1981 1981 1993 1993 1993 1993 1993 2005 2005 2005 1993 1993 1757 1748 1748 1748 1748 1748 1757 1757 1757 1757 1757 1757 1757 1766 1970 1981 1981 1981 2005 2005 2005 2005 2005 2005 2005 2005 2005 2005 2005 2005 2005 2005 2005 2005 2005 2005 2005 1993 1993 1993 2005 2005 2005 2005 1813 1813 1823 1823 1823 1823 1823 1823 1823 1833 1833 0 1410 1410 1410 1392 1392 1392 1392 1387 1387 1387 1387 1387 1387 1387 1387 1381 1381 1381 1381 1387 1387 1387 1387 1387 1387 1981 1981 1981 1981 1993 2005 2005 2005 2005 2005 2005 2005 1993 1993 1993 1993 1993 1993 1993 2005 2005 2005 2005 2005 2005 2005 2005 2005 2005 2005 2005 2005 2005 2005 2005 2005 2016 2016 2016 2016 2016 2016 2005 1993 1993 1993 1993 1993 1993 1993 1993 1993 1993 2005 2005 2005 2005 2005 2005 2005 2005 2005 2005 1993 1993 1993 1993 1993 1993 1993 1993 1993 1993 1993 2005 2005 2005 2005 1993 1993 1993 1993 1993 2005 2016 2005 2005 2005 2005 2005 2005 2005 2005 2005 2005 2005 2005 2005 2005 2005 2005 2005 2005 2005 2005 2005 2005 2005 2005 2016 2005 2005 2005 2005 2005 2005 2005 2005 2005 2005 2005 2005 2005 2005 2005 2005 2005 1993 1993 1993 1993 1993 1993 1993 1993 1993 1993 1993 1981 1981 1981 1993 1993 1981 1981 1981 1981 1993 1993 1993 1993 1993 1993 1993 1993 1993 2005 2005 2005 2005 2005 2005 2005 2005 2005 2005 2005 2005 2005 2005 2016 2016 2016 2016 2016 0 0 0 0 0 0 0 0
0 0 0 0 0 0 0 0 0 0 0 0 0 0 0 0 0 0 0 0 0 0 0 0 0 0 0 0 0 0 0 0 0 0 1894 1894 1894 1904 1894 1894 1894 1904 1915 1915 1915 1915 1915 1915 1915 1915 1904 1904 1904 1904 1904 1915 1915 1915 1915 1915 1915 1915 1915 1926 1926 1926 1926 1926 1926 1926 1904 1904 1904 1904 1904 1915 1915 1915 1915 1915 1915 1915 1915 1915 1915 1915 1904 1904 1904 1904 1904 1904 1915 1915 1915 1915 1915 1915 1915 1915 1915 1915 1915 1915 1915 1915 1915 1915 1915 1926 1722 1722 1722 1731 1739 1739 1739 1748 1748 1748 1748 1748 1748 1757 1766 1785 1843 1853 1863 1863 1873 1873 1883 1894 1915 1926 1926 1926 1926 1926 1926 1926 1926 1926 1936 1936 1936 1936 1936 1936 1936 1936 1936 1936 1936 1926 1926 1926 1926 1926 1936 1936 1936 1936 1936 1936 1936 1936 1936 1936 1936 1947 1947 1947 1947 1936 1936 1936 1936 1936 1936 1936 1936 1936 1936 1936 1936 1632 1632 1639 1632 1632 1632 1639 1639 1639 1639 1647 1647 1647 1663 1671 1680 1680 1705 1705 1713 1713 1713 1722 1731 1739 1739 1748 1748 1757 1757 1766 1766 1776 1776 1776 1776 1959 1947 1947 1947 1947 1503 1503 1503 1509 1509 1509 1516 1516 1516 1516 1516 1523 1523 1529 1529 1536 1536 1536 1536 1536 1970 1970 1970 1970 1970 1970 1970 1970 1970 1981 1981 1993 1993 1722 1722 1739 1731 1731 1739 1739 1748 1748 1766 1766 1766 1766 1776 1959 1959 1947 1947 1936 1926 1926 1926 1926 1926 1926 1926 1936 1936 1947 1959 1970 1981 1981 1981 1981 1981 1981 1981 1981 1981 1981 1981 1981 1981 1981 1981 1981 1981 1981 1981 1993 1981 1981 1981 1981 1981 1981 1981 1981 1981 1981 1981 1981 1981 1387 1387 1381 1381 1381 1381 1381 1376 1376 1376 1376 1381 1381 1381 1387 1387 1392 1392 1387 1387 2005 1970 1970 1970 1970 1970 1970 1970 1970 1970 1981 1981 1981 1981 1981 1981 1981 1981 1981 1970 1970 1981 1981 1981 1981 1981 1981 1981 1993 1993 1993 1993 1739 1739 1739 1739 1748 1748 1748 1757 1757 1757 1757 1766 1766 1970 1981 1981 1981 1993 1993 1993 2005 2005 2005 2005 2005 1993 1993 2005 2005 2005 2005 1993 1993 2005 2005 2005 1993 1993 1993 1993 1993 2005 1813 1813 1813 1823 1823 1823 1823 1823 1823 1823 1833 1833 0 1392 1398 1398 1392 1392 1392 1392 1387 1387 1387 1387 1387 1387 1387 1387 1387 1381 1381 1387 1387 1387 1387 1387 1387 1387 1981 1981 1981 1981 1981 1993 1993 1993 2005 2005 2005 2005 1993 1993 1993 1993 1993 1993 1993 1993 1993 1993 1993 1993 1993 1993 2005 2005 2005 1993 1993 2005 2005 2005 1993 1993 2005 2005 2005 2005 2016 2005 1993 1993 1993 1993 1993 1993 1981 1981 1993 1993 1993 1993 1993 1993 1993 1993 1993 1993 2005 1993 1993 1993 1993 1993 1993 1993 1993 1993 1993 1993 1993 1993 1993 1993 1993 1993 1993 1993 1993 1993 1993 2005 2005 2005 2005 2005 2005 1993 1993 1993 1993 1993 1993 2005 1993 1993 2005 1993 1993 1993 1993 1993 1993 1993 1993 1993 1993 2005 2005 1993 1993 1993 1993 1993 1993 1993 1993 1993 1993 1993 1993 2005 2005 1993 1993 1993 1981 1981 1981 1981 1981 1981 1981 1993 1981 1981 1981 1981 1981 1981 1981 1981 1981 1981 1981 1981 1981 1981 1981 1970 1970 1970 1981 1981 1981 1993 1993 1993 1993 1993 1993 1993 1993 1993 2005 2005 2005 2005 2005 2016 2016 2005 2005 0 0 0 0 0 0 0 0
0 0 0 0 0 0 0 0 0 0 0 0 0 0 0 0 0 0 0 0 0 0 0 0 0 0 0 0 0 0 0 0 0 0 1883 1883 1883 1894 1894 1894 1894 1894 1904 1915 1915 1915 1915 1915 1904 1904 1904 1904 1904 1904 1904 1904 1904 1904 1915 1915 1915 1915 1915 1915 1915 1915 1915 1915 1915 1915 1904 1904 1904 1904 1904 1904 1904 1904 1904 1904 1904 1904 1904 1904 1904 1904 1904 1904 1904 1904 1904 1904 1904 1915 1915 1915 1915 1915 1915 1915 1915 1915 1915 1915 1904 1904 1904 1904 1904 1915 1915 1722 1722 1731 1739 1739 1739 1748 1748 1748 1748 1748 1757 1757 1766 1785 1843 1853 1863 1863 1863 1873 1883 1894 1915 1926 1926 1926 1926 1926 1926 1926 1926 1926 1926 1936 1936 1936 1926 1926 1926 1926 1926 1926 1926 1926 1915 1915 1915 1915 1926 1936 1936 1936 1926 1926 1936 1936 1936 1936 1936 1936 1936 1936 1936 1936 1936 1936 1936 1936 1936 1936 1936 1936 1936 1936 1632 1632 1632 1639 1632 1632 1639 1639 1639 1639 1647 1647 1647 1655 1671 1680 1680 1688 1705 1705 1713 1713 1713 1713 1731 1739 1739 1748 1748 1748 1757 1766 1766 1776 1776 1776 1959 1947 1947 1947 1947 1947 1503 1503 1503 1509 1509 1509 1516 1516 1516 1516 1516 1523 1529 1529 1529 1536 1536 1536 1536 1536 1970 1970 1970 1970 1970 1970 1970 1970 1970 1981 1981 1993 1722 1722 1722 1739 1731 1731 1731 1739 1739 1748 1757 1766 1766 1766 1970 1959 1959 1947 1947 1936 1926 1926 1926 1926 1926 1926 1926 1936 1936 1947 1959 1970 1970 1970 1981 1981 1981 1970 1970 1970 1981 1981 1970 1970 1981 1981 1981 1981 1981 1981 1981 1981 1981 1981 1981 1981 1981 1981 1981 1981 1981 1981 1981 1981 1981 1387 1387 1381 1381 1381 1381 1381 1376 1376 1376 1376 1381 1381 1381 1387 1387 1392 1392 1387 1387 1993 1970 1970 1959 1959 1970 1970 1970 1970 1970 1970 1970 1970 1970 1970 1970 1970 1970 1970 1970 1970 1970 1970 1970 1970 1970 1981 1981 1981 1993 1981 1981 1731 1731 1731 1739 1748 1748 1748 1757 1757 1757 1757 1766 1970 1970 1970 1981 1981 1993 1993 1993 1993 1993 2005 1993 1993 1993 1993 1981 1981 1993 1993 1993 1993 1993 1993 2005 1993 1993 1993 1993 1993 1993 1813 1813 1813 1823 1823 1823 1823 1823 1823 1833 1833 1833 1833 1392 1392 1392 1392 1392 1392 1392 1392 1392 1387 1387 1387 1387 1387 1387 1387 1381 1381 1387 1387 1387 1387 1387 1387 1387 1981 1981 1981 1981 1981 1981 1993 1993 1993 1993 1993 1993 1993 1993 1993 1993 1993 1993 1993 1993 1993 1993 1993 1993 1993 1993 1993 1993 1993 1993 1993 1993 1993 1993 1993 1993 2005 2005 2005 2005 2005 2005 1993 1993 1981 1981 1981 1981 1981 1981 1981 1981 1981 1981 1993 1993 1993 1993 1993 1993 1993 1993 1993 1993 1993 1993 1993 1981 1981 1981 1981 1993 1993 1993 1993 1993 1993 1993 1981 1981 1981 1981 1993 1993 1993 1993 1993 1993 1993 1993 1993 1993 1993 1993 1993 1993 1993 1993 1993 1993 1993 1993 1993 1993 1993 1993 1993 1993 1993 1993 1993 1993 1993 1993 1993 1993 1993 1993 1993 1993 1993 1993 1993 1993 1993 1993 1993 1993 1981 1981 1981 1981 1970 1970 1981 1981 1981 1981 1970 1970 1970 1981 1981 1981 1981 1970 1970 1981 1970 1970 1970 1970 1970 1970 1970 1970 1981 1981 1981 1981 1981 1981 1993 1981 1981 1981 1981 1993 1993 1993 1993 2005 2005 2005 2005 0 0 0 0 0 0 0 0
0 0 0 0 0 0 0 0 0 0 0 0 0 0 0 0 0 0 0 0 0 0 0 0 0 0 0 0 0 0 0 0 0 0 1883 1883 1883 1883 1883 1883 1883 1894 1904 1904 1904 1904 1915 1915 1904 1894 1894 1894 1904 1894 1894 1904 1904 1904 1915 1915 1915 1915 1915 1915 1915 1915 1915 1915 1915 1915 1894 1894 1904 1904 1904 1904 1904 1904 1904 1904 1904 1904 1904 1904 1904 1904 1904 1904 1904 1904 1904 1904 1904 1904 1904 1904 1904 1904 1904 1904 1904 1904 1904 1904 1904 1904 1904 1904 1904 1915 1915 1739 1739 1739 1739 1739 1739 1748 1748 1748 1748 1748 1757 1757 1766 1794 1843 1853 1863 1863 1863 1873 1883 1883 1904 1915 1915 1915 1915 1915 1915 1915 1926 1926 1926 1926 1926 1926 1926 1926 1926 1915 1915 1926 1926 1926 1915 1915 1915 1915 1926 1926 1926 1926 1926 1926 1926 1926 1926 1926 1926 1926 1926 1926 1926 1926 1926 1926 1936 1926 1926 1926 1926 1926 1926 1926 1632 1632 1632 1639 1632 1632 1639 1639 1639 1639 1647 1647 1647 1655 1671 1680 1680 1688 1705 1705 1713 1713 1713 1713 1731 1731 1739 1739 1748 1748 1748 1766 1766 1776 1776 1947 1947 1947 1947 1947 1947 1947 1947 1509 1509 1509 1509 1509 1516 1516 1516 1516 1516 1523 1529 1529 1529 1529 1529 1536 1543 1550 1970 1970 1959 1959 1959 1959 1959 1970 1970 1970 1731 1713 1713 1713 1722 1739 1731 1731 1731 1739 1739 1748 1757 1766 1766 1766 1959 1959 1947 1947 1947 1936 1926 1926 1926 1926 1926 1926 1926 1936 1936 1947 1947 1959 1970 1970 1970 1970 1970 1970 1970 1970 1970 1970 1970 1970 1970 1981 1981 1981 1981 1981 1981 1981 1970 1970 1970 1970 1970 1970 1970 1970 1981 1981 1981 1981 1981 1387 1387 1387 1387 1387 1387 1381 1381 1381 1376 1376 1381 1381 1387 1387 1392 1392 1392 1387 1387 1981 1970 1959 1959 1959 1959 1959 1959 1970 1970 1970 1970 1970 1970 1970 1970 1970 1970 1959 1959 1959 1970 1970 1970 1970 1970 1970 1981 1981 1981 1981 1981 1731 1731 1731 1731 1739 1739 1757 1757 1757 1757 1757 1766 1970 1970 1970 1970 1970 1981 1993 1993 1993 1993 1993 1981 1981 1981 1981 1981 1981 1981 1981 1981 1981 1993 1993 1993 1981 1981 1993 1993 1993 1993 1813 1813 1813 1823 1823 1823 1823 1823 1823 1833 1833 1833 1833 1392 1392 1392 1392 1392 1392 1392 1392 1392 1392 1387 1387 1387 1387 1387 1387 1381 1381 1387 1387 1387 1387 1387 1387 1404 1404 1981 1970 1970 1981 1981 1981 1993 1993 1993 1993 1993 1993 1993 1993 1993 1993 1993 1993 1993 1993 1993 1993 1993 1993 1993 1993 1993 1993 1981 1981 1981 1993 1993 1993 1981 1981 1993 1993 1993 1993 1993 1981 1981 1981 1981 1981 1981 1981 1981 1981 1981 1981 1981 1981 1981 1981 1993 1993 1993 1981 1981 1981 1993 1993 1981 1981 1981 1981 1981 1981 1981 1981 1981 1981 1981 1981 1981 1981 1981 1981 1981 1981 1993 1993 1993 1993 1993 1993 1993 1993 1993 1981 1981 1993 1993 1993 1993 1993 1993 1993 1981 1981 1981 1981 1981 1981 1981 1993 1993 1993 1981 1981 1981 1981 1981 1981 1981 1981 1981 1981 1981 1993 1993 1993 1993 1981 1981 1981 1970 1970 1970 1970 1970 1970 1970 1970 1970 1970 1970 1970 1981 1970 1970 1970 1970 1970 1970 1970 1970 1970 1970 1970 1970 1970 1970 1970 1981 1981 1981 1981 1981 1981 1981 1981 1981 1981 1981 1981 1981 1981 1993 1993 2005 2005 0 0 0 0 0 0 0 0
0 0 0 0 0 0 0 0 0 0 0 0 0 0 0 0 0 0 0 0 0 0 0 0 0 0 0 0 0 0 0 0 0 0 1883 1883 1883 1883 1883 1883 1883 1883 1894 1894 1894 1894 1894 1894 1894 1894 1894 1894 1894 1894 1894 1894 1894 1894 1904 1904 1904 1915 1915 1915 1915 1915 1915 1915 1915 1915 1894 1894 1904 1904 1904 1894 1894 1894 1894 1894 1894 1894 1894 1904 1904 1904 1904 1904 1904 1904 1904 1904 1904 1904 1904 1904 1894 1894 1894 1904 1904 1904 1904 1904 1904 1904 1904 1904 1904 1915 1915 1739 1739 1739 1739 1739 1739 1748 1748 1748 1748 1748 1757 1757 1766 1833 1843 1853 1863 1863 1863 1873 1883 1883 1904 1915 1915 1915 1915 1915 1915 1915 1915 1915 1915 1926 1915 1915 1915 1915 1915 1915 1915 1915 1915 1915 1915 1904 1904 1915 1915 1915 1915 1915 1915 1915 1915 1915 1915 1915 1915 1915 1915 1915 1915 1915 1915 1915 1926 1915 1915 1926 1926 1926 1926 1926 1639 1632 1632 1632 1639 1639 1639 1639 1639 1639 1647 1647 1647 1655 1671 1680 1688 1696 1705 1713 1713 1713 1713 1713 1722 1731 1739 1739 1739 1739 1748 1757 1766 1936 1947 1947 1947 1936 1936 1947 1947 1947 1947 1509 1509 1509 1516 1516 1516 1516 1516 1523 1523 1523 1529 1529 1529 1529 1529 1543 1543 1550 1959 1959 1947 1947 1959 1959 1959 1959 1970 1713 1713 1713 1713 1713 1722 1731 1731 1731 1731 1739 1739 1739 1757 1766 1766 1959 1959 1947 1947 1947 1947 1936 1926 1926 1926 1926 1926 1926 1926 1936 1936 1947 1947 1959 1959 1959 1970 1970 1970 1970 1970 1970 1970 1959 1959 1959 1970 1970 1970 1970 1970 1970 1970 1970 1970 1970 1970 1970 1970 1970 1970 1970 1970 1970 1970 1970 1970 1387 1387 1387 1387 1387 1387 1381 1381 1381 1381 1381 1381 1381 1387 1387 1392 1392 1392 1392 1392 1970 1959 1959 1959 1959 1959 1959 1959 1959 1959 1970 1970 1970 1970 1970 1970 1970 1959 1959 1959 1959 1970 1970 1970 1970 1970 1970 1970 1981 1981 1713 1713 1722 1722 1722 1731 1739 1739 1739 1748 1748 1757 1757 1757 1757 1970 1970 1970 1970 1981 1981 1981 1981 1981 1970 1970 1970 1970 1970 1970 1970 1970 1970 1970 1981 1981 1993 1993 1981 1981 1981 1981 1970 1970 1823 1823 1823 1823 1823 1823 1823 1823 1833 1833 1833 1833 1833 1392 1392 1392 1392 1392 1392 1392 1392 1392 1392 1392 1387 1387 1387 1387 1387 1381 1381 1387 1387 1387 1387 1392 1398 1398 1398 1970 1970 1970 1970 1970 1981 1981 1993 1993 1993 1993 1993 1993 1993 1981 1981 1993 1993 1981 1981 1981 1981 1981 1981 1981 1981 1981 1981 1970 1970 1970 1981 1981 1981 1981 1981 1981 1981 1981 1981 1981 1981 1970 1970 1970 1981 1981 1970 1970 1970 1970 1981 1981 1981 1981 1981 1981 1981 1981 1981 1981 1981 1981 1981 1981 1981 1981 1981 1981 1981 1981 1981 1981 1981 1981 1981 1981 1970 1970 1970 1970 1981 1981 1981 1981 1981 1981 1981 1981 1981 1981 1981 1981 1981 1981 1981 1981 1981 1981 1981 1981 1981 1981 1981 1981 1981 1981 1981 1981 1981 1981 1981 1981 1981 1981 1981 1981 1981 1981 1981 1981 1981 1981 1981 1981 1981 1981 1970 1970 1970 1970 1970 1970 1970 1970 1970 1970 1970 1970 1970 1970 1970 1970 1970 1970 1970 1970 1970 1970 1970 1970 1970 1970 1970 1970 1970 1970 1970 1981 1981 1981 1981 1981 1970 1970 1970 1981 1981 1981 1981 1981 1981 1981 1981 0 0 0 0 0 0 0 0
0 0 0 0 0 0 0 0 0 0 0 0 0 0 0 0 0 0 0 0 0 0 0 0 0 0 0 0 0 0 0 0 0 0 1883 1883 1883 1883 1883 1883 1883 1883 1883 1883 1883 1883 1883 1894 1883 1883 1883 1883 1894 1894 1894 1894 1894 1894 1894 1894 1894 1904 1904 1915 1915 1904 1904 1904 1904 1904 1883 1883 1894 1894 1894 1894 1894 1894 1894 1894 1894 1894 1894 1894 1894 1894 1894 1904 1904 1904 1904 1904 1904 1904 1894 1894 1883 1883 1883 1894 1894 1894 1894 1904 1904 1894 1894 1904 1904 1904 1748 1739 1739 1739 1739 1739 1739 1739 1739 1748 1748 1748 1757 1766 1776 1833 1853 1853 1863 1863 1863 1873 1883 1883 1904 1915 1915 1915 1915 1915 1915 1915 1904 1904 1915 1915 1915 1915 1915 1915 1915 1915 1915 1915 1915 1915 1904 1904 1904 1904 1915 1915 1915 1904 1904 1904 1904 1904 1904 1904 1904 1904 1904 1904 1904 1904 1904 1904 1915 1915 1915 1915 1915 1915 1926 1926 1639 1624 1624 1632 1639 1639 1639 1639 1639 1639 1647 1647 1655 1663 1671 1680 1680 1688 1705 1713 1713 1713 1713 1713 1722 1731 1731 1731 1739 1739 1748 1757 1926 1926 1936 1936 1936 1936 1936 1936 1936 1947 1947 1509 1509 1509 1516 1516 1516 1516 1523 1523 1523 1523 1523 1523 1523 1529 1529 1543 1550 1550 1947 1947 1936 1936 1947 1947 1947 1959 1959 1705 1705 1705 1713 1713 1713 1731 1731 1731 1731 1739 1739 1739 1757 1766 1947 1947 1947 1947 1947 1936 1936 1926 1926 1926 1926 1926 1926 1926 1926 1936 1936 1947 1947 1947 1959 1959 1959 1959 1959 1959 1959 1959 1959 1947 1947 1959 1959 1959 1959 1959 1959 1970 1970 1970 1970 1970 1970 1970 1970 1970 1970 1970 1970 1970 1970 1970 1970 1387 1387 1387 1387 1387 1387 1381 1381 1381 1381 1381 1381 1381 1387 1387 1387 1392 1392 1392 1392 1970 1947 1947 1959 1959 1959 1959 1959 1959 1959 1959 1959 1959 1959 1959 1970 1959 1959 1959 1959 1959 1959 1959 1959 1970 1970 1970 1970 1970 1981 1713 1713 1713 1722 1722 1731 1731 1731 1739 1748 1748 1757 1757 1757 1757 1959 1959 1959 1970 1970 1970 1970 1970 1970 1970 1970 1970 1970 1970 1970 1970 1970 1970 1970 1970 1970 1981 1970 1970 1970 1970 1970 1970 1970 1823 1823 1823 1823 1823 1833 1833 1833 1833 1833 1833 1833 1398 1398 1398 1398 1398 1398 1398 1392 1392 1392 1392 1392 1387 1387 1387 1387 1387 1381 1381 1387 1392 1387 1387 1392 1398 1392 1392 1959 1959 1959 1959 1959 1970 1970 1981 1981 1981 1981 1981 1981 1981 1981 1981 1981 1981 1981 1981 1981 1981 1981 1981 1981 1981 1970 1970 1959 1959 1959 1970 1970 1970 1970 1970 1981 1981 1970 1970 1970 1970 1970 1959 1959 1970 1970 1970 1970 1970 1970 1970 1970 1970 1981 1981 1981 1981 1981 1981 1981 1981 1981 1981 1970 1970 1970 1970 1970 1970 1981 1981 1981 1981 1970 1970 1970 1970 1970 1970 1970 1970 1970 1970 1970 1981 1981 1981 1981 1981 1981 1981 1981 1981 1981 1981 1981 1981 1981 1981 1970 1970 1970 1970 1970 1970 1970 1970 1970 1970 1970 1970 1970 1970 1970 1970 1970 1970 1981 1981 1981 1981 1981 1981 1981 1981 1981 1970 1970 1970 1959 1959 1959 1959 1959 1959 1959 1959 1959 1970 1970 1970 1970 1970 1959 1959 1959 1959 1959 1959 1959 1959 1970 1970 1970 1970 1970 1970 1970 1970 1970 1981 1970 1970 1970 1970 1970 1970 1970 1970 1981 1981 1970 1970 0 0 0 0 0 0 0 0
0 0 0 0 0 0 0 0 0 0 0 0 0 0 0 0 0 0 0 0 0 0 0 0 0 0 0 0 0 0 0 0 0 0 1873 1873 1873 1883 1883 1883 1883 1883 1883 1873 1873 1883 1883 1883 1883 1883 1883 1883 1894 1883 1883 1883 1883 1883 1883 1894 1894 1904 1904 1904 1904 1904 1894 1894 1904 1904 1883 1883 1894 1894 1894 1883 1883 1883 1883 1883 1883 1883 1883 1883 1883 1883 1883 1894 1894 1894 1904 1904 1894 1894 1883 1883 1873 1873 1873 1883 1883 1883 1894 1894 1894 1894 1894 1894 1894 1894 1748 1739 1739 1739 1739 1739 1739 1739 1739 1748 1748 1748 1757 1766 1776 1833 1853 1853 1863 1863 1863 1873 1883 1883 1904 1904 1904 1904 1904 1904 1904 1904 1904 1904 1904 1915 1904 1904 1904 1904 1915 1915 1915 1915 1915 1915 1904 1904 1904 1904 1904 1904 1904 1904 1904 1894 1894 1904 1904 1904 1904 1904 1904 1904 1904 1904 1904 1904 1904 1904 1904 1915 1915 1915 1915 1915 1915 1624 1624 1632 1639 1639 1639 1639 1639 1639 1647 1647 1655 1663 1671 1671 1680 1688 1705 1713 1713 1713 1713 1713 1722 1731 1731 1731 1739 1739 1748 1915 1915 1915 1926 1926 1936 1936 1936 1936 1936 1936 1936 1509 1509 1516 1516 1516 1523 1523 1523 1523 1523 1523 1523 1523 1523 1529 1529 1543 1543 1936 1936 1936 1936 1936 1947 1947 1947 1705 1705 1705 1705 1705 1713 1713 1713 1722 1722 1731 1731 1739 1739 1739 1748 1766 1936 1936 1947 1936 1936 1936 1936 1926 1926 1926 1926 1926 1926 1926 1936 1936 1936 1936 1936 1947 1947 1947 1947 1947 1947 1947 1959 1959 1947 1947 1947 1947 1947 1947 1947 1947 1959 1959 1959 1970 1970 1959 1959 1970 1959 1959 1959 1959 1959 1959 1959 1970 1970 1387 1387 1387 1387 1392 1392 1387 1387 1381 1381 1381 1381 1381 1387 1387 1387 1392 1398 1392 1392 1936 1936 1947 1947 1947 1947 1959 1959 1959 1959 1959 1959 1959 1959 1959 1959 1959 1947 1947 1947 1959 1959 1959 1959 1959 1970 1970 1970 1970 1970 1713 1713 1713 1722 1722 1722 1731 1731 1739 1748 1748 1757 1757 1757 1970 1959 1959 1959 1970 1970 1970 1970 1970 1970 1970 1970 1959 1959 1959 1959 1959 1970 1970 1970 1970 1959 1959 1959 1959 1959 1959 1959 1947 1947 1833 1823 1823 1823 1833 1833 1833 1833 1833 1843 1843 1883 1883 1404 1404 1404 1398 1398 1398 1398 1398 1392 1392 1392 1392 1392 1392 1387 1387 1387 1387 1392 1392 1392 1392 1398 1398 1392 1392 1959 1959 1959 1959 1959 1959 1970 1970 1970 1959 1959 1970 1970 1970 1970 1970 1970 1970 1970 1970 1970 1970 1970 1970 1970 1970 1970 1970 1959 1959 1959 1959 1959 1970 1970 1970 1970 1970 1970 1970 1970 1959 1959 1959 1959 1959 1959 1959 1959 1959 1959 1970 1970 1970 1970 1970 1981 1970 1970 1970 1981 1970 1970 1970 1970 1970 1970 1970 1970 1970 1970 1970 1970 1970 1970 1970 1959 1959 1959 1959 1970 1959 1959 1959 1959 1970 1981 1970 1970 1981 1981 1970 1970 1981 1981 1981 1981 1970 1970 1970 1970 1970 1970 1970 1970 1970 1970 1970 1970 1959 1959 1959 1959 1970 1959 1959 1959 1970 1970 1970 1970 1970 1970 1970 1970 1970 1970 1970 1959 1959 1959 1959 1959 1959 1959 1947 1947 1947 1959 1959 1970 1959 1959 1959 1959 1959 1959 1959 1959 1959 1959 1959 1959 1959 1959 1970 1970 1970 1970 1970 1970 1970 1970 1970 1970 1970 1970 1970 1970 1970 1970 1981 1970 1970 0 0 0 0 0 0 0 0
0 0 0 0 0 0 0 0 0 0 0 0 0 0 0 0 0 0 0 0 0 0 0 0 0 0 0 0 0 0 0 0 0 0 1873 1873 1873 1873 1873 1873 1873 1873 1873 1873 1873 1873 1873 1883 1883 1883 1883 1883 1894 1883 1883 1883 1883 1883 1883 1883 1883 1894 1894 1904 1904 1894 1883 1883 1894 1894 1873 1873 1883 1894 1883 1883 1883 1873 1873 1883 1883 1873 1873 1873 1883 1883 1883 1883 1894 1894 1894 1894 1894 1894 1883 1883 1873 1873 1873 1883 1883 1883 1883 1883 1883 1883 1883 1883 1883 1883 1748 1739 1739 1739 1739 1739 1739 1748 1748 1748 1748 1748 1757 1766 1776 1833 1853 1853 1863 1863 1863 1873 1883 1883 1894 1904 1904 1904 1904 1904 1904 1904 1894 1894 1904 1904 1904 1904 1904 1904 1904 1904 1904 1904 1904 1904 1904 1904 1894 1894 1894 1894 1894 1894 1894 1894 1894 1894 1894 1894 1894 1904 1904 1904 1904 1904 1904 1904 1904 1904 1904 1904 1904 1904 1904 1904 1904 1624 1624 1632 1639 1639 1639 1639 1639 1639 1647 1647 1655 1663 1671 1671 1680 1688 1705 1713 1713 1713 1713 1713 1722 1722 1722 1731 1731 1739 1915 1915 1915 1915 1915 1926 1926 1926 1926 1926 1926 1926 1926 1516 1516 1516 1516 1523 1523 1523 1523 1523 1523 1523 1523 1523 1529 1529 1529 1543 1543 1557 1926 1936 1936 1936 1936 1936 1936 1696 1696 1696 1705 1705 1713 1713 1713 1722 1722 1722 1731 1739 1748 1748 1748 1936 1936 1936 1936 1936 1936 1936 1936 1936 1926 1926 1926 1926 1926 1926 1926 1926 1936 1936 1936 1936 1936 1947 1947 1947 1947 1947 1947 1947 1947 1936 1936 1936 1936 1936 1936 1936 1947 1947 1959 1959 1959 1959 1959 1959 1959 1959 1959 1959 1947 1947 1947 1947 1387 1387 1387 1387 1387 1392 1392 1387 1387 1381 1381 1381 1381 1381 1387 1392 1392 1392 1398 1398 1398 1926 1926 1947 1947 1947 1947 1947 1947 1959 1959 1959 1959 1959 1959 1959 1959 1947 1947 1947 1947 1947 1947 1947 1947 1959 1959 1959 1970 1970 1705 1705 1713 1713 1722 1722 1722 1731 1731 1739 1748 1748 1757 1766 1766 1959 1959 1959 1959 1959 1959 1959 1959 1959 1959 1959 1959 1959 1959 1959 1959 1959 1959 1959 1959 1959 1959 1959 1959 1959 1959 1959 1959 1947 1947 1833 1833 1823 1823 1833 1833 1833 1833 1833 1843 1863 1883 1883 1404 1404 1404 1398 1398 1398 1398 1398 1398 1392 1392 1392 1392 1392 1392 1387 1387 1387 1392 1392 1392 1392 1398 1404 1404 1959 1959 1959 1959 1959 1959 1959 1959 1959 1959 1959 1959 1959 1959 1959 1959 1959 1959 1970 1959 1959 1959 1959 1959 1959 1959 1959 1959 1959 1959 1959 1959 1959 1959 1959 1959 1959 1970 1970 1959 1959 1959 1947 1947 1947 1947 1959 1959 1959 1959 1959 1959 1959 1959 1959 1970 1970 1970 1970 1970 1970 1959 1959 1959 1959 1959 1959 1959 1959 1959 1959 1959 1959 1959 1959 1959 1959 1947 1947 1947 1959 1959 1959 1959 1959 1959 1970 1970 1970 1970 1970 1970 1970 1970 1970 1970 1970 1970 1970 1970 1970 1970 1970 1970 1959 1959 1959 1959 1959 1959 1959 1947 1947 1959 1947 1947 1947 1947 1959 1959 1959 1959 1959 1959 1959 1959 1959 1959 1959 1947 1947 1947 1947 1947 1947 1947 1947 1947 1947 1947 1959 1947 1947 1947 1947 1947 1947 1947 1947 1947 1947 1947 1959 1959 1947 1947 1947 1959 1959 1959 1959 1959 1959 1959 1970 1970 1970 1970 1970 1970 1970 1970 1970 1970 1970 0 0 0 0 0 0 0 0
0 0 0 0 0 0 0 0 0 0 0 0 0 0 0 0 0 0 0 0 0 0 0 0 0 0 0 0 0 0 0 0 0 0 1863 1863 1863 1873 1873 1873 1873 1873 1873 1873 1873 1873 1873 1873 1873 1873 1883 1883 1883 1883 1883 1883 1883 1883 1883 1883 1883 1894 1894 1894 1894 1894 1883 1883 1894 1894 1873 1873 1883 1883 1883 1873 1873 1873 1873 1873 1873 1873 1873 1873 1873 1873 1873 1873 1873 1883 1883 1883 1883 1883 1883 1873 1873 1873 1873 1873 1873 1873 1873 1873 1873 1873 1873 1873 1873 1873 1757 1739 1739 1739 1739 1739 1748 1748 1748 1748 1748 1757 1757 1766 1785 1833 1853 1853 1863 1863 1863 1873 1883 1883 1894 1894 1894 1894 1894 1894 1894 1894 1894 1894 1894 1894 1894 1894 1904 1904 1904 1904 1904 1904 1904 1904 1894 1894 1894 1894 1894 1894 1894 1894 1894 1894 1894 1894 1894 1894 1894 1894 1894 1894 1894 1894 1894 1894 1894 1894 1894 1904 1904 1904 1904 1904 1904 1632 1632 1639 1639 1639 1639 1639 1639 1647 1647 1655 1655 1663 1671 1680 1680 1688 1696 1713 1713 1713 1713 1713 1722 1722 1722 1731 1731 1915 1904 1904 1904 1904 1915 1915 1915 1926 1926 1926 1915 1915 1915 1516 1516 1516 1523 1523 1523 1523 1523 1523 1523 1523 1529 1529 1529 1529 1543 1543 1550 1557 1926 1926 1926 1936 1936 1936 1680 1680 1688 1688 1696 1696 1705 1705 1705 1722 1722 1722 1739 1739 1748 1748 1926 1926 1926 1926 1936 1926 1926 1926 1926 1926 1926 1926 1926 1926 1926 1926 1926 1926 1936 1936 1926 1926 1936 1936 1936 1936 1936 1936 1936 1936 1936 1936 1936 1936 1936 1936 1936 1936 1936 1947 1947 1959 1959 1959 1959 1947 1947 1947 1947 1947 1936 1936 1947 1947 1387 1387 1387 1387 1387 1392 1392 1387 1387 1381 1381 1381 1381 1381 1387 1387 1392 1392 1398 1398 1915 1926 1926 1936 1936 1936 1947 1947 1947 1947 1947 1959 1947 1947 1947 1947 1947 1947 1936 1936 1947 1947 1947 1947 1947 1959 1959 1959 1970 1696 1696 1705 1705 1713 1713 1722 1722 1731 1731 1739 1748 1748 1757 1766 1766 1766 1959 1959 1959 1959 1959 1959 1959 1959 1959 1959 1959 1959 1959 1959 1959 1959 1959 1959 1959 1947 1947 1947 1947 1947 1947 1947 1936 1936 1959 1833 1833 1823 1823 1833 1833 1833 1833 1833 1843 1843 1873 1873 1404 1404 1404 1404 1398 1398 1398 1398 1398 1398 1392 1392 1392 1392 1392 1387 1387 1387 1392 1398 1398 1398 1404 1404 1404 1959 1947 1947 1959 1959 1959 1959 1959 1959 1959 1959 1959 1959 1947 1947 1947 1947 1959 1959 1959 1959 1959 1959 1959 1959 1959 1959 1959 1959 1959 1959 1959 1959 1959 1959 1959 1959 1959 1959 1959 1959 1959 1947 1936 1936 1947 1947 1947 1947 1947 1947 1947 1947 1947 1947 1959 1947 1947 1959 1959 1947 1947 1947 1947 1947 1947 1947 1959 1959 1959 1959 1959 1959 1959 1947 1947 1947 1947 1947 1947 1947 1947 1947 1947 1947 1947 1959 1959 1959 1959 1959 1959 1959 1959 1959 1959 1959 1959 1959 1959 1959 1959 1959 1959 1959 1959 1959 1959 1959 1959 1947 1947 1947 1947 1947 1947 1947 1947 1947 1947 1947 1947 1947 1947 1947 1947 1947 1947 1947 1936 1936 1936 1936 1947 1947 1947 1947 1947 1947 1947 1947 1947 1936 1936 1936 1936 1936 1936 1936 1936 1947 1947 1947 1936 1936 1936 1936 1947 1947 1947 1947 1947 1947 1959 1959 1959 1959 1959 1970 1970 1970 1970 1970 1970 1970 0 0 0 0 0 0 0 0
0 0 0 0 0 0 0 0 0 0 0 0 0 0 0 0 0 0 0 0 0 0 0 0 0 0 0 0 0 0 0 0 0 0 1843 1843 1843 1853 1853 1853 1853 1853 1863 1863 1863 1863 1863 1863 1873 1873 1873 1883 1883 1883 1883 1873 1873 1873 1873 1873 1873 1873 1873 1873 1883 1873 1873 1883 1883 1883 1873 1873 1873 1873 1863 1863 1863 1873 1873 1863 1863 1863 1863 1863 1863 1863 1863 1863 1863 1863 1873 1873 1873 1873 1873 1873 1873 1873 1873 1873 1863 1863 1873 1863 1863 1863 1863 1863 1863 1757 1757 1748 1739 1739 1748 1748 1748 1748 1748 1748 1748 1757 1766 1766 1785 1833 1853 1853 1863 1863 1863 1873 1873 1883 1883 1883 1883 1883 1883 1883 1883 1883 1873 1873 1873 1873 1873 1883 1883 1883 1883 1883 1883 1894 1894 1894 1873 1873 1873 1883 1873 1873 1873 1873 1873 1883 1883 1883 1883 1894 1894 1894 1894 1894 1894 1894 1894 1894 1894 1894 1894 1904 1904 1904 1894 1894 1894 1639 1639 1639 1639 1639 1639 1639 1647 1647 1647 1655 1655 1663 1671 1680 1680 1688 1696 1713 1713 1713 1713 1713 1722 1731 1731 1731 1731 1904 1904 1904 1904 1904 1904 1915 1915 1915 1915 1915 1915 1915 1915 1516 1516 1516 1523 1523 1523 1523 1523 1523 1523 1529 1529 1529 1536 1536 1543 1543 1550 1557 1915 1926 1926 1926 1926 1926 1680 1680 1680 1680 1696 1696 1705 1705 1705 1713 1713 1722 1731 1739 1739 1748 1926 1926 1926 1926 1926 1926 1926 1926 1926 1926 1926 1926 1926 1926 1926 1926 1926 1926 1936 1936 1926 1926 1926 1926 1926 1926 1926 1936 1936 1936 1936 1936 1936 1926 1926 1926 1936 1936 1936 1936 1947 1947 1947 1947 1947 1936 1936 1936 1936 1936 1936 1936 1936 1936 1387 1387 1387 1387 1392 1392 1392 1387 1387 1381 1381 1381 1381 1381 1387 1387 1392 1398 1398 1404 1904 1915 1915 1926 1936 1926 1926 1936 1936 1936 1947 1947 1947 1947 1936 1936 1947 1947 1936 1936 1936 1936 1947 1947 1947 1947 1959 1959 1970 1696 1696 1705 1705 1713 1713 1722 1722 1731 1731 1739 1748 1757 1766 1766 1766 1766 1959 1947 1947 1947 1959 1959 1959 1959 1959 1959 1959 1959 1959 1959 1959 1959 1947 1947 1947 1947 1947 1947 1947 1947 1936 1926 1915 1894 1894 1833 1833 1823 1823 1833 1833 1833 1833 1833 1843 1843 1873 1873 1404 1404 1404 1404 1398 1398 1398 1398 1398 1398 1392 1392 1392 1392 1392 1387 1387 1392 1398 1404 1398 1398 1404 1404 1404 1947 1947 1947 1947 1947 1947 1947 1959 1959 1959 1947 1947 1947 1947 1947 1947 1947 1947 1947 1947 1947 1947 1947 1959 1959 1959 1959 1947 1947 1947 1947 1947 1947 1947 1947 1959 1959 1947 1947 1947 1947 1947 1936 1936 1936 1936 1936 1947 1947 1947 1947 1947 1936 1936 1936 1936 1936 1936 1947 1947 1947 1947 1947 1947 1947 1947 1947 1947 1947 1959 1959 1959 1959 1947 1947 1947 1947 1947 1947 1947 1947 1947 1947 1947 1947 1947 1947 1947 1947 1947 1947 1959 1959 1959 1959 1959 1959 1959 1947 1947 1947 1959 1959 1959 1947 1947 1947 1947 1947 1947 1936 1936 1936 1936 1936 1936 1936 1936 1936 1947 1947 1947 1947 1947 1947 1947 1947 1947 1947 1936 1936 1936 1936 1936 1936 1936 1936 1936 1936 1936 1947 1936 1936 1936 1936 1936 1936 1936 1936 1936 1936 1936 1936 1936 1926 1926 1926 1936 1936 1936 1936 1947 1947 1947 1947 1947 1947 1959 1959 1970 1970 1970 1970 1970 1970 0 0 0 0 0 0 0 0
0 0 0 0 0 0 0 0 0 0 0 0 0 0 0 0 0 0 0 0 0 0 0 0 0 0 0 0 0 0 0 0 0 0 1843 1843 1843 1843 1843 1853 1853 1853 1853 1853 1853 1853 1863 1863 1863 1863 1873 1873 1873 1873 1873 1873 1873 1873 1873 1863 1863 1873 1873 1873 1873 1873 1873 1873 1873 1873 1863 1863 1863 1863 1863 1863 1863 1863 1863 1863 1863 1863 1863 1863 1863 1863 1863 1863 1863 1863 1863 1863 1863 1863 1863 1863 1863 1863 1863 1863 1863 1863 1863 1863 1863 1863 1863 1853 1853 1757 1757 1748 1748 1748 1748 1748 1748 1748 1748 1757 1757 1757 1766 1766 1785 1823 1843 1853 1863 1863 1863 1873 1873 1873 1873 1873 1873 1883 1883 1873 1873 1873 1873 1873 1873 1873 1873 1873 1873 1873 1873 1883 1883 1883 1883 1883 1873 1873 1873 1873 1873 1873 1873 1873 1873 1873 1873 1873 1873 1873 1873 1873 1873 1873 1873 1873 1873 1873 1873 1883 1883 1894 1894 1894 1894 1894 1894 1639 1639 1639 1639 1639 1639 1639 1647 1647 1647 1655 1655 1663 1671 1680 1680 1688 1696 1713 1713 1713 1713 1713 1722 1731 1731 1731 1904 1904 1904 1904 1904 1904 1904 1904 1904 1915 1915 1915 1915 1915 1516 1516 1516 1516 1523 1523 1523 1523 1523 1523 1523 1529 1529 1529 1529 1536 1543 1543 1550 1550 1915 1915 1915 1915 1663 1663 1671 1671 1671 1680 1696 1696 1705 1705 1705 1713 1713 1722 1731 1731 1739 1915 1915 1915 1926 1926 1926 1926 1926 1926 1926 1926 1926 1926 1926 1926 1926 1926 1926 1926 1926 1926 1926 1926 1926 1926 1926 1926 1926 1926 1936 1936 1926 1926 1926 1926 1926 1926 1926 1926 1936 1936 1936 1936 1936 1936 1936 1936 1936 1936 1936 1936 1926 1926 1926 1926 1392 1392 1392 1392 1392 1392 1392 1387 1387 1381 1381 1381 1381 1381 1387 1392 1392 1398 1404 1410 1410 1915 1915 1926 1936 1926 1926 1926 1926 1936 1936 1936 1936 1936 1936 1936 1936 1926 1926 1936 1936 1936 1936 1936 1936 1947 1947 1688 1688 1696 1696 1696 1705 1705 1713 1713 1722 1731 1731 1739 1757 1766 1766 1766 1766 1766 1947 1926 1926 1947 1947 1936 1936 1936 1936 1947 1947 1947 1947 1947 1947 1947 1947 1936 1936 1936 1936 1936 1936 1936 1926 1926 1915 1873 1873 1833 1833 1823 1823 1833 1833 1833 1833 1833 1843 1883 1915 1915 1404 1404 1404 1404 1404 1404 1404 1404 1398 1398 1398 1392 1392 1392 1392 1387 1387 1392 1392 1398 1398 1398 1398 1404 1404 1936 1936 1947 1947 1947 1947 1947 1947 1947 1947 1947 1947 1947 1936 1936 1936 1947 1947 1936 1936 1936 1947 1947 1947 1947 1959 1959 1947 1947 1947 1947 1947 1947 1947 1947 1947 1947 1947 1947 1947 1947 1947 1936 1936 1936 1936 1936 1936 1936 1936 1936 1936 1936 1936 1936 1936 1936 1936 1936 1936 1936 1936 1936 1936 1936 1936 1947 1947 1947 1947 1947 1947 1947 1947 1947 1947 1947 1936 1936 1936 1947 1947 1936 1936 1936 1936 1947 1947 1947 1947 1947 1959 1959 1959 1947 1947 1947 1947 1947 1947 1947 1947 1947 1947 1947 1947 1947 1947 1947 1947 1936 1936 1936 1936 1936 1936 1936 1936 1936 1936 1947 1947 1947 1947 1947 1947 1947 1947 1947 1936 1936 1936 1936 1936 1936 1936 1936 1936 1936 1936 1936 1936 1936 1936 1936 1926 1926 1926 1926 1926 1926 1926 1926 1926 1926 1926 1926 1936 1936 1936 1936 1936 1936 1947 1947 1947 1947 1947 1959 1970 1970 1970 1970 1970 1970 0 0 0 0 0 0 0 0
0 0 0 0 0 0 0 0 0 0 0 0 0 0 0 0 0 0 0 0 0 0 0 0 0 0 0 0 0 0 0 0 0 0 1843 1843 1843 1843 1843 1843 1843 1843 1843 1853 1853 1853 1853 1853 1863 1863 1863 1873 1873 1873 1873 1873 1873 1873 1863 1863 1863 1863 1863 1863 1873 1873 1863 1863 1863 1863 1853 1853 1853 1853 1853 1853 1853 1863 1863 1863 1863 1863 1863 1863 1863 1863 1853 1853 1853 1853 1853 1853 1853 1853 1853 1853 1863 1863 1863 1863 1863 1863 1863 1853 1853 1853 1853 1853 1853 1794 1757 1748 1748 1748 1748 1748 1748 1748 1748 1757 1757 1766 1776 1776 1785 1823 1833 1843 1853 1863 1863 1863 1873 1873 1873 1873 1873 1873 1873 1873 1873 1873 1873 1873 1873 1873 1873 1873 1873 1873 1873 1873 1873 1883 1883 1883 1873 1873 1873 1873 1873 1873 1873 1873 1873 1873 1873 1873 1863 1863 1873 1863 1863 1863 1863 1863 1873 1873 1873 1873 1873 1883 1883 1883 1883 1894 1894 1639 1639 1639 1639 1639 1647 1647 1647 1647 1647 1655 1663 1671 1671 1680 1680 1688 1696 1705 1705 1705 1705 1713 1722 1731 1894 1894 1894 1894 1894 1894 1894 1894 1894 1904 1904 1904 1904 1904 1904 1904 1516 1516 1516 1516 1523 1523 1523 1523 1523 1523 1523 1529 1529 1529 1529 1536 1536 1543 1550 1550 1904 1904 1915 1915 1663 1663 1671 1671 1671 1671 1688 1696 1705 1705 1705 1713 1713 1722 1722 1731 1739 1915 1915 1915 1926 1926 1926 1926 1926 1926 1926 1926 1926 1926 1915 1915 1926 1926 1926 1926 1926 1926 1915 1915 1915 1926 1926 1926 1926 1926 1926 1926 1926 1926 1926 1926 1926 1926 1926 1926 1926 1926 1926 1936 1936 1936 1936 1926 1926 1926 1926 1926 1926 1926 1926 1926 1392 1392 1392 1392 1392 1392 1392 1387 1387 1381 1381 1381 1381 1381 1387 1392 1392 1398 1404 1410 1410 1915 1915 1926 1926 1915 1915 1926 1926 1926 1926 1936 1926 1926 1926 1926 1926 1926 1926 1926 1926 1926 1926 1926 1936 1936 1947 1688 1688 1688 1696 1696 1696 1705 1713 1713 1722 1731 1739 1748 1757 1766 1766 1766 1766 1766 1926 1926 1926 1926 1926 1926 1926 1936 1936 1936 1936 1936 1947 1936 1936 1936 1936 1936 1936 1936 1936 1936 1936 1926 1926 1926 1904 1873 1873 1843 1833 1833 1833 1833 1833 1833 1843 1843 1873 1894 1915 1915 1404 1404 1404 1404 1404 1404 1404 1404 1404 1398 1398 1392 1392 1392 1392 1392 1392 1392 1392 1398 1398 1398 1398 1404 1404 1936 1936 1936 1936 1947 1947 1947 1947 1947 1947 1947 1947 1947 1936 1936 1936 1936 1936 1936 1936 1936 1936 1936 1936 1947 1947 1947 1947 1947 1947 1947 1947 1947 1936 1936 1947 1947 1947 1947 1936 1936 1936 1926 1926 1926 1926 1926 1926 1936 1926 1926 1936 1936 1936 1936 1936 1936 1936 1926 1926 1936 1936 1936 1936 1936 1936 1936 1936 1936 1936 1936 1936 1936 1936 1936 1936 1936 1936 1936 1936 1936 1936 1936 1936 1936 1936 1936 1936 1936 1936 1947 1947 1947 1947 1947 1947 1947 1947 1947 1947 1947 1947 1947 1947 1947 1947 1947 1947 1947 1936 1936 1936 1936 1936 1936 1936 1936 1936 1936 1936 1936 1936 1936 1936 1936 1936 1936 1936 1936 1926 1926 1926 1926 1936 1936 1926 1926 1926 1936 1936 1936 1926 1926 1926 1926 1926 1926 1926 1926 1926 1926 1926 1926 1926 1926 1926 1926 1926 1926 1936 1936 1936 1936 1936 1936 1947 1947 1947 1959 1959 1959 1959 1959 1959 1959 0 0 0 0 0 0 0 0
0 0 0 0 0 0 0 0 0 0 0 0 0 0 0 0 0 0 0 0 0 0 0 0 0 0 0 0 0 0 0 0 0 0 1833 1833 1833 1833 1833 1833 1833 1843 1843 1843 1843 1843 1853 1853 1843 1843 1853 1853 1853 1863 1873 1863 1863 1863 1863 1853 1853 1853 1843 1843 1853 1853 1853 1863 1863 1863 1853 1843 1843 1843 1843 1853 1853 1853 1853 1863 1863 1863 1863 1853 1853 1853 1853 1853 1853 1853 1853 1853 1853 1853 1843 1843 1853 1853 1853 1853 1843 1843 1853 1853 1853 1853 1853 1853 1853 1833 1757 1757 1748 1748 1748 1748 1748 1748 1757 1757 1757 1766 1776 1776 1785 1813 1823 1843 1853 1863 1863 1863 1863 1863 1863 1863 1863 1863 1863 1863 1863 1863 1863 1863 1863 1863 1863 1873 1873 1873 1873 1873 1873 1873 1873 1873 1863 1863 1863 1863 1863 1863 1863 1863 1863 1863 1863 1863 1863 1863 1863 1863 1863 1863 1863 1863 1863 1863 1863 1873 1873 1873 1873 1873 1873 1883 1883 1639 1639 1639 1639 1647 1647 1647 1647 1647 1655 1655 1663 1671 1671 1680 1680 1688 1696 1705 1705 1705 1705 1883 1883 1883 1894 1894 1894 1894 1894 1894 1894 1894 1894 1894 1894 1904 1904 1894 1894 1894 1516 1516 1516 1516 1516 1523 1523 1523 1523 1523 1523 1529 1529 1536 1536 1536 1536 1543 1550 1550 1904 1904 1883 1883 1655 1655 1663 1663 1671 1671 1680 1696 1696 1705 1705 1705 1705 1722 1722 1731 1904 1904 1904 1904 1904 1915 1915 1915 1915 1915 1915 1915 1915 1915 1915 1915 1915 1926 1915 1915 1926 1926 1915 1915 1915 1915 1915 1915 1926 1926 1926 1926 1926 1926 1926 1915 1915 1915 1915 1915 1926 1926 1926 1926 1926 1926 1926 1926 1926 1926 1926 1926 1926 1926 1926 1926 1392 1392 1392 1392 1392 1392 1392 1387 1387 1387 1381 1381 1381 1381 1387 1392 1398 1404 1410 1410 1915 1915 1915 1915 1915 1915 1915 1926 1926 1926 1926 1926 1926 1915 1915 1915 1915 1915 1915 1915 1926 1926 1926 1926 1926 1671 1671 1671 1680 1688 1688 1696 1696 1696 1705 1713 1722 1739 1748 1757 1757 1766 1766 1766 1766 1766 1915 1926 1926 1926 1926 1926 1926 1936 1936 1936 1936 1936 1936 1926 1926 1926 1926 1926 1926 1926 1936 1936 1936 1926 1926 1915 1904 1873 1873 1843 1833 1833 1833 1833 1833 1833 1843 1843 1883 1915 1915 1915 1404 1404 1404 1404 1404 1404 1404 1404 1404 1398 1392 1392 1392 1392 1392 1387 1387 1392 1392 1398 1398 1398 1398 1398 1915 1915 1926 1926 1936 1936 1936 1936 1936 1936 1936 1936 1936 1936 1936 1936 1936 1936 1936 1926 1926 1926 1936 1936 1936 1936 1936 1947 1936 1936 1936 1936 1936 1936 1936 1936 1947 1947 1947 1947 1936 1936 1936 1926 1926 1926 1926 1926 1926 1926 1926 1926 1926 1926 1926 1936 1936 1936 1936 1926 1926 1926 1926 1926 1926 1926 1926 1926 1915 1915 1926 1926 1926 1926 1926 1926 1936 1936 1926 1926 1926 1926 1926 1915 1915 1915 1915 1936 1936 1936 1936 1936 1936 1947 1936 1936 1936 1936 1936 1936 1936 1936 1936 1947 1947 1947 1947 1947 1947 1936 1936 1926 1926 1936 1926 1926 1926 1926 1926 1936 1936 1936 1936 1936 1936 1936 1936 1936 1936 1936 1926 1926 1926 1926 1926 1926 1926 1926 1926 1926 1936 1926 1926 1926 1926 1926 1926 1926 1926 1926 1926 1915 1915 1915 1915 1915 1915 1926 1926 1926 1926 1936 1936 1936 1936 1936 1936 1947 1947 1959 1959 1959 1959 1959 1959 1959 0 0 0 0 0 0 0 0
0 0 0 0 0 0 0 0 0 0 0 0 0 0 0 0 0 0 0 0 0 0 0 0 0 0 0 0 0 0 0 0 0 0 1823 1823 1833 1833 1833 1833 1833 1843 1843 1843 1843 1843 1843 1843 1843 1843 1843 1843 1843 1853 1853 1853 1853 1853 1853 1853 1843 1843 1843 1843 1843 1843 1843 1853 1853 1853 1843 1843 1843 1843 1843 1843 1843 1853 1853 1863 1853 1853 1853 1853 1853 1843 1843 1843 1843 1843 1843 1843 1843 1843 1843 1843 1843 1843 1843 1843 1843 1843 1853 1853 1853 1853 1853 1853 1853 1833 1757 1757 1748 1748 1748 1748 1748 1757 1757 1757 1766 1766 1776 1776 1785 1813 1823 1833 1843 1853 1853 1853 1853 1853 1863 1853 1853 1853 1863 1863 1853 1853 1853 1863 1863 1863 1863 1863 1863 1863 1863 1873 1873 1863 1863 1863 1863 1863 1863 1863 1863 1863 1863 1863 1863 1863 1863 1863 1863 1863 1863 1863 1863 1863 1863 1863 1863 1863 1863 1863 1863 1863 1863 1863 1863 1883 1647 1639 1639 1639 1639 1647 1647 1647 1647 1647 1655 1663 1663 1671 1680 1680 1680 1688 1696 1705 1705 1705 1883 1883 1883 1883 1883 1894 1894 1894 1894 1894 1894 1894 1894 1894 1894 1894 1894 1894 1894 1894 1516 1516 1516 1516 1516 1523 1516 1516 1516 1516 1523 1529 1529 1536 1536 1536 1543 1543 1543 1550 1904 1904 1883 1655 1655 1655 1663 1663 1663 1671 1671 1696 1696 1705 1705 1705 1705 1713 1722 1894 1894 1904 1904 1904 1904 1915 1915 1915 1915 1904 1904 1904 1915 1904 1904 1904 1904 1915 1915 1915 1915 1915 1915 1904 1904 1904 1904 1904 1904 1904 1904 1904 1904 1904 1904 1915 1915 1915 1915 1915 1915 1904 1904 1904 1915 1915 1915 1926 1926 1926 1926 1915 1915 1915 1915 1915 1392 1392 1392 1392 1392 1392 1392 1387 1387 1387 1381 1381 1381 1381 1387 1392 1398 1404 1410 1415 1904 1904 1904 1915 1915 1915 1915 1915 1915 1915 1915 1915 1915 1904 1904 1904 1915 1915 1915 1915 1915 1915 1915 1915 1663 1663 1671 1671 1680 1688 1688 1696 1696 1696 1705 1705 1722 1739 1748 1757 1766 1766 1766 1766 1766 1766 1915 1915 1915 1915 1915 1926 1926 1926 1926 1926 1926 1926 1926 1926 1926 1926 1926 1926 1926 1926 1926 1926 1926 1926 1915 1915 1904 1863 1863 1833 1833 1833 1833 1833 1833 1833 1843 1853 1894 1904 1915 1915 1398 1398 1404 1404 1404 1404 1404 1404 1404 1398 1392 1392 1392 1392 1392 1387 1387 1392 1392 1398 1398 1398 1398 1904 1904 1904 1915 1915 1926 1936 1936 1926 1926 1926 1926 1926 1936 1936 1926 1926 1926 1926 1926 1926 1926 1926 1926 1926 1926 1926 1936 1936 1926 1926 1926 1926 1926 1926 1926 1926 1936 1936 1947 1947 1947 1947 1947 1936 1926 1915 1915 1915 1926 1926 1926 1926 1926 1926 1926 1936 1936 1936 1926 1926 1926 1926 1915 1915 1915 1915 1915 1915 1915 1915 1915 1915 1915 1915 1915 1926 1926 1926 1926 1926 1926 1926 1915 1915 1915 1904 1904 1915 1915 1915 1915 1915 1926 1926 1926 1926 1926 1936 1936 1936 1936 1936 1936 1936 1936 1936 1936 1936 1936 1936 1926 1926 1926 1936 1926 1926 1926 1926 1926 1926 1926 1926 1926 1936 1926 1926 1936 1936 1936 1926 1915 1915 1915 1915 1915 1926 1926 1926 1926 1926 1926 1926 1915 1915 1926 1926 1915 1915 1915 1915 1915 1915 1915 1915 1915 1915 1915 1926 1926 1926 1926 1926 1926 1936 1936 1936 1936 1936 1947 1947 1947 1947 1947 1947 1947 1947 0 0 0 0 0 0 0 0
0 0 0 0 0 0 0 0 0 0 0 0 0 0 0 0 0 0 0 0 0 0 0 0 0 0 0 0 0 0 0 0 0 0 1823 1823 1823 1833 1833 1833 1833 1843 1843 1843 1843 1843 1843 1843 1833 1833 1833 1833 1843 1843 1843 1843 1843 1853 1853 1843 1843 1843 1843 1843 1843 1843 1843 1853 1843 1843 1833 1833 1833 1833 1843 1843 1843 1843 1853 1853 1853 1853 1853 1843 1843 1843 1843 1843 1843 1843 1843 1843 1843 1843 1833 1833 1833 1833 1833 1843 1843 1843 1853 1853 1853 1853 1853 1853 1853 1843 1757 1757 1748 1748 1748 1748 1748 1757 1757 1757 1766 1766 1776 1785 1794 1813 1823 1833 1833 1843 1843 1843 1843 1853 1853 1853 1843 1843 1853 1853 1843 1843 1843 1853 1853 1853 1863 1863 1863 1863 1863 1863 1863 1863 1863 1863 1853 1853 1853 1853 1853 1853 1853 1853 1863 1863 1863 1863 1863 1863 1863 1863 1863 1863 1863 1863 1863 1863 1863 1863 1863 1863 1863 1863 1863 1863 1639 1639 1639 1639 1639 1647 1647 1647 1647 1647 1655 1663 1663 1671 1680 1680 1688 1696 1696 1696 1705 1883 1883 1883 1883 1883 1883 1883 1883 1883 1883 1883 1883 1883 1883 1883 1883 1894 1894 1894 1894 1894 1516 1516 1516 1516 1516 1523 1516 1516 1516 1516 1523 1529 1529 1536 1536 1536 1543 1543 1543 1550 1904 1904 1904 1655 1655 1655 1663 1663 1663 1671 1671 1680 1696 1696 1696 1705 1705 1705 1722 1894 1894 1894 1894 1894 1894 1894 1904 1904 1904 1904 1894 1894 1904 1904 1904 1904 1904 1904 1904 1904 1904 1904 1904 1904 1894 1894 1904 1904 1904 1904 1904 1904 1904 1904 1904 1894 1894 1894 1904 1904 1904 1904 1904 1904 1904 1904 1904 1915 1915 1904 1904 1904 1894 1894 1894 1894 1392 1392 1392 1392 1392 1392 1392 1387 1387 1387 1387 1387 1387 1387 1392 1392 1398 1404 1410 1415 1904 1904 1904 1904 1904 1904 1904 1915 1904 1904 1904 1904 1904 1904 1904 1904 1904 1904 1904 1904 1915 1915 1915 1663 1663 1663 1663 1671 1680 1688 1688 1688 1696 1696 1705 1705 1722 1739 1757 1757 1766 1766 1776 1766 1766 1766 1915 1915 1915 1915 1915 1926 1926 1926 1926 1926 1926 1915 1915 1915 1915 1915 1915 1915 1915 1915 1926 1926 1926 1926 1915 1904 1894 1863 1853 1833 1833 1833 1833 1833 1833 1833 1843 1853 1894 1904 1915 1915 1398 1398 1404 1404 1404 1404 1404 1404 1404 1398 1398 1398 1392 1392 1392 1392 1392 1392 1392 1398 1398 1404 1404 1894 1894 1894 1915 1915 1915 1926 1926 1926 1915 1915 1915 1915 1926 1926 1915 1915 1926 1926 1926 1915 1915 1915 1915 1915 1915 1926 1926 1926 1926 1926 1926 1926 1926 1915 1915 1926 1926 1936 1947 1947 1926 1926 1926 1926 1915 1915 1915 1915 1915 1915 1915 1915 1915 1915 1915 1904 1904 1904 1904 1915 1915 1915 1915 1915 1915 1915 1915 1904 1904 1904 1904 1904 1904 1904 1904 1904 1915 1915 1915 1915 1915 1915 1915 1904 1904 1904 1904 1904 1904 1904 1915 1915 1915 1915 1915 1915 1915 1915 1915 1915 1915 1926 1926 1926 1926 1926 1926 1936 1926 1926 1926 1915 1915 1915 1926 1915 1915 1915 1915 1915 1915 1926 1926 1926 1926 1926 1926 1926 1926 1926 1915 1915 1915 1904 1904 1915 1915 1915 1915 1915 1926 1915 1915 1915 1915 1915 1915 1915 1915 1915 1915 1915 1915 1915 1915 1915 1915 1915 1926 1926 1926 1926 1926 1926 1936 1936 1936 1936 1936 1936 1936 1936 1936 1936 1936 1936 0 0 0 0 0 0 0 0
0 0 0 0 0 0 0 0 0 0 0 0 0 0 0 0 0 0 0 0 0 0 0 0 0 0 0 0 0 0 0 0 0 0 1813 1813 1813 1823 1833 1833 1833 1833 1833 1833 1833 1833 1833 1833 1833 1833 1833 1833 1833 1833 1833 1843 1843 1843 1843 1843 1843 1843 1843 1843 1843 1843 1843 1843 1843 1843 1833 1833 1833 1833 1833 1833 1833 1833 1833 1843 1843 1853 1853 1843 1843 1843 1833 1833 1833 1833 1833 1833 1833 1833 1833 1833 1833 1833 1833 1833 1843 1843 1853 1853 1853 1843 1843 1843 1843 1833 1757 1757 1748 1748 1748 1748 1748 1757 1757 1757 1757 1766 1776 1785 1794 1813 1823 1833 1833 1843 1843 1843 1843 1843 1843 1843 1843 1843 1843 1843 1843 1843 1843 1843 1853 1853 1853 1853 1863 1863 1863 1863 1863 1853 1853 1853 1843 1843 1843 1843 1853 1853 1853 1853 1853 1853 1853 1853 1853 1853 1853 1853 1853 1853 1853 1853 1853 1853 1853 1853 1853 1853 1853 1853 1863 1863 1639 1639 1639 1639 1639 1647 1647 1647 1647 1647 1655 1663 1663 1671 1680 1680 1688 1696 1696 1696 1873 1873 1873 1873 1873 1873 1873 1883 1883 1883 1883 1883 1883 1883 1883 1883 1883 1883 1883 1894 1894 1894 1516 1516 1516 1516 1516 1523 1516 1516 1516 1516 1523 1529 1529 1536 1536 1536 1543 1543 1543 1894 1647 1647 1655 1655 1655 1655 1663 1663 1663 1671 1671 1680 1680 1696 1696 1696 1705 1705 1883 1883 1883 1894 1894 1894 1894 1894 1894 1894 1894 1894 1894 1894 1894 1894 1894 1894 1894 1894 1894 1894 1904 1904 1904 1904 1894 1894 1894 1894 1894 1894 1894 1894 1894 1894 1894 1894 1894 1894 1894 1894 1894 1894 1894 1894 1894 1894 1894 1904 1904 1904 1904 1894 1894 1894 1894 1894 1392 1392 1392 1392 1398 1398 1398 1387 1387 1387 1387 1387 1387 1387 1392 1392 1398 1398 1404 1410 1894 1894 1904 1904 1904 1904 1904 1915 1904 1904 1904 1904 1904 1894 1894 1894 1894 1904 1904 1904 1904 1904 1663 1663 1663 1663 1663 1671 1680 1688 1688 1688 1696 1696 1705 1713 1731 1757 1766 1766 1766 1776 1776 1776 1915 1915 1904 1904 1915 1915 1915 1926 1926 1926 1926 1926 1926 1915 1915 1915 1915 1915 1915 1915 1915 1915 1915 1926 1915 1915 1904 1904 1883 1863 1853 1843 1833 1833 1833 1833 1833 1843 1853 1863 1894 1904 1904 1904 1398 1398 1404 1404 1404 1404 1404 1404 1404 1404 1398 1398 1398 1392 1392 1392 1392 1392 1392 1398 1398 1404 1404 1883 1883 1883 1904 1904 1915 1915 1926 1915 1915 1915 1915 1915 1915 1915 1915 1915 1926 1926 1915 1915 1915 1915 1915 1915 1915 1915 1915 1915 1915 1915 1915 1915 1915 1915 1915 1915 1915 1915 1926 1926 1926 1915 1915 1926 1915 1904 1904 1904 1904 1904 1904 1904 1904 1904 1904 1904 1904 1904 1904 1904 1904 1904 1915 1904 1904 1915 1904 1904 1904 1904 1904 1904 1904 1894 1894 1904 1904 1904 1904 1904 1904 1904 1904 1904 1904 1904 1904 1904 1904 1904 1904 1904 1915 1904 1904 1904 1904 1915 1915 1915 1915 1915 1926 1926 1926 1915 1915 1926 1915 1915 1915 1915 1915 1915 1904 1904 1915 1915 1915 1915 1915 1915 1915 1915 1915 1915 1926 1926 1915 1915 1904 1904 1904 1894 1894 1904 1915 1915 1915 1915 1915 1915 1904 1904 1904 1904 1904 1904 1904 1915 1915 1904 1904 1904 1904 1904 1904 1915 1915 1915 1915 1915 1926 1926 1926 1926 1926 1926 1926 1926 1926 1926 1936 1936 1926 1926 0 0 0 0 0 0 0 0
0 0 0 0 0 0 0 0 0 0 0 0 0 0 0 0 0 0 0 0 0 0 0 0 0 0 0 0 0 0 0 0 0 0 1813 1813 1813 1813 1823 1833 1833 1833 1833 1833 1833 1833 1833 1823 1823 1833 1833 1833 1833 1833 1833 1843 1843 1843 1843 1843 1843 1843 1843 1843 1843 1843 1833 1833 1843 1843 1833 1833 1833 1833 1833 1833 1833 1833 1833 1833 1833 1833 1833 1833 1833 1833 1833 1833 1833 1833 1833 1833 1823 1823 1823 1823 1833 1833 1833 1833 1833 1843 1843 1843 1843 1843 1833 1833 1833 1823 1766 1757 1748 1748 1748 1748 1748 1748 1748 1757 1757 1757 1766 1776 1794 1813 1823 1833 1833 1833 1833 1833 1833 1843 1843 1843 1843 1843 1843 1833 1833 1833 1843 1843 1843 1843 1853 1853 1853 1853 1853 1853 1853 1853 1853 1843 1843 1843 1843 1843 1843 1853 1853 1853 1853 1853 1853 1853 1853 1853 1853 1853 1853 1853 1853 1853 1853 1853 1853 1853 1853 1853 1853 1853 1853 1863 1639 1639 1639 1639 1639 1647 1647 1647 1647 1647 1655 1663 1663 1671 1680 1680 1688 1696 1696 1863 1863 1873 1873 1873 1873 1873 1873 1873 1873 1873 1873 1873 1873 1873 1873 1873 1873 1873 1883 1883 1894 1894 1516 1516 1516 1516 1516 1523 1516 1516 1516 1516 1523 1529 1529 1536 1536 1536 1536 1536 1543 1894 1647 1647 1655 1655 1655 1655 1663 1663 1663 1663 1671 1671 1680 1688 1688 1696 1696 1696 1883 1883 1883 1883 1883 1883 1883 1883 1883 1883 1883 1883 1883 1883 1894 1883 1883 1894 1894 1894 1894 1894 1894 1894 1894 1894 1894 1894 1894 1894 1894 1894 1894 1894 1894 1894 1894 1894 1894 1894 1894 1894 1894 1894 1894 1894 1894 1894 1894 1894 1904 1894 1894 1894 1894 1894 1894 1894 1894 1392 1392 1392 1392 1398 1398 1387 1387 1387 1387 1387 1387 1387 1392 1398 1398 1398 1404 1410 1894 1894 1883 1883 1883 1883 1883 1883 1883 1883 1883 1883 1883 1883 1883 1883 1894 1894 1894 1894 1904 1655 1655 1663 1663 1663 1671 1671 1671 1688 1688 1688 1696 1696 1705 1713 1731 1757 1766 1766 1776 1776 1776 1776 1904 1904 1904 1904 1904 1915 1915 1915 1915 1926 1926 1926 1915 1894 1894 1904 1904 1915 1915 1915 1915 1915 1915 1915 1915 1915 1904 1894 1883 1863 1863 1843 1843 1843 1833 1833 1833 1843 1853 1863 1883 1894 1894 1894 1398 1398 1404 1404 1404 1404 1404 1404 1404 1404 1404 1398 1398 1392 1392 1392 1392 1392 1392 1404 1404 1404 1404 1894 1883 1883 1904 1904 1904 1915 1915 1915 1904 1904 1904 1904 1904 1904 1904 1915 1915 1915 1915 1915 1915 1915 1915 1904 1904 1915 1915 1915 1915 1915 1915 1915 1915 1915 1915 1915 1915 1915 1915 1915 1915 1915 1915 1915 1904 1904 1904 1904 1904 1904 1904 1894 1894 1904 1904 1904 1904 1904 1904 1904 1904 1904 1904 1904 1904 1904 1904 1904 1904 1904 1904 1894 1894 1894 1894 1894 1904 1904 1904 1904 1904 1904 1904 1904 1904 1894 1894 1904 1904 1904 1904 1904 1904 1904 1904 1904 1904 1904 1904 1904 1904 1915 1915 1915 1915 1915 1915 1904 1904 1904 1904 1904 1904 1904 1904 1904 1904 1904 1904 1904 1904 1904 1904 1904 1904 1904 1915 1915 1915 1915 1894 1894 1894 1894 1894 1894 1904 1904 1904 1904 1904 1904 1894 1894 1894 1904 1904 1904 1904 1915 1915 1904 1904 1904 1904 1904 1904 1904 1904 1904 1915 1915 1915 1915 1926 1926 1926 1926 1926 1926 1926 1926 1926 1926 1926 1926 0 0 0 0 0 0 0 0
0 0 0 0 0 0 0 0 0 0 0 0 0 0 0 0 0 0 0 0 0 0 0 0 0 0 0 0 0 0 0 0 0 0 1804 1804 1804 1804 1813 1823 1823 1833 1833 1833 1833 1833 1823 1823 1823 1833 1833 1833 1833 1833 1833 1833 1833 1833 1833 1833 1833 1833 1833 1833 1833 1833 1833 1833 1833 1833 1833 1833 1823 1823 1823 1823 1823 1823 1823 1823 1823 1833 1833 1833 1833 1833 1823 1823 1823 1823 1833 1833 1823 1823 1823 1823 1833 1833 1833 1833 1833 1843 1843 1833 1833 1843 1833 1833 1823 1813 1804 1757 1757 1748 1748 1748 1748 1748 1748 1757 1757 1757 1766 1776 1804 1813 1823 1833 1833 1833 1833 1833 1833 1843 1843 1833 1833 1833 1833 1833 1833 1833 1833 1833 1833 1833 1843 1843 1853 1853 1853 1853 1853 1843 1843 1843 1833 1833 1833 1833 1833 1843 1843 1843 1843 1843 1853 1853 1853 1853 1853 1853 1853 1853 1853 1853 1853 1853 1853 1853 1853 1853 1853 1853 1853 1853 1853 1639 1639 1639 1639 1639 1639 1647 1647 1647 1655 1663 1671 1671 1680 1680 1680 1696 1863 1863 1863 1863 1863 1863 1863 1863 1863 1863 1873 1873 1873 1873 1873 1873 1873 1873 1873 1873 1883 1883 1883 1894 1516 1516 1516 1516 1516 1523 1523 1523 1523 1523 1523 1529 1529 1536 1536 1536 1536 1536 1639 1639 1639 1639 1647 1647 1647 1655 1663 1663 1663 1663 1671 1671 1680 1688 1688 1696 1696 1696 1883 1883 1883 1883 1883 1883 1883 1883 1883 1883 1883 1883 1883 1883 1883 1883 1883 1883 1883 1883 1883 1883 1894 1894 1894 1894 1883 1883 1883 1883 1883 1883 1883 1883 1894 1894 1894 1894 1894 1894 1894 1894 1894 1894 1894 1894 1894 1894 1894 1894 1894 1894 1894 1883 1883 1883 1883 1883 1883 1392 1392 1392 1392 1398 1398 1392 1387 1387 1387 1387 1387 1392 1398 1404 1404 1404 1410 1410 1410 1894 1883 1883 1883 1883 1883 1883 1883 1883 1883 1883 1883 1883 1883 1883 1883 1894 1894 1894 1904 1655 1655 1655 1655 1663 1663 1663 1671 1671 1688 1688 1696 1696 1705 1722 1748 1766 1766 1776 1776 1776 1785 1785 1904 1904 1904 1904 1904 1904 1915 1915 1915 1915 1915 1894 1894 1894 1894 1904 1904 1904 1904 1904 1915 1904 1904 1915 1915 1904 1894 1894 1873 1863 1863 1853 1843 1843 1833 1833 1833 1843 1853 1853 1843 1843 1894 1894 1404 1404 1404 1404 1404 1404 1410 1404 1404 1404 1404 1398 1398 1398 1398 1398 1392 1392 1404 1404 1410 1410 1410 1883 1883 1883 1894 1894 1904 1904 1915 1915 1904 1904 1904 1904 1904 1904 1904 1904 1904 1915 1904 1904 1904 1904 1904 1904 1904 1904 1904 1904 1904 1904 1904 1904 1904 1904 1904 1904 1904 1904 1904 1915 1915 1915 1915 1915 1904 1894 1894 1894 1894 1894 1894 1894 1894 1894 1894 1894 1894 1894 1894 1904 1904 1904 1904 1904 1904 1904 1894 1894 1894 1894 1894 1894 1894 1894 1894 1894 1894 1894 1904 1904 1904 1904 1904 1894 1894 1894 1894 1894 1904 1904 1904 1904 1904 1904 1904 1904 1904 1904 1904 1904 1904 1904 1904 1904 1904 1904 1904 1894 1894 1894 1894 1904 1904 1904 1904 1904 1904 1904 1894 1894 1894 1894 1894 1894 1894 1894 1904 1894 1894 1894 1883 1883 1883 1883 1883 1894 1894 1894 1894 1894 1894 1894 1894 1894 1894 1894 1894 1904 1904 1904 1904 1904 1904 1904 1904 1894 1894 1904 1904 1904 1904 1904 1915 1915 1926 1926 1926 1926 1926 1926 1926 1915 1915 1926 1926 1926 0 0 0 0 0 0 0 0
0 0 0 0 0 0 0 0 0 0 0 0 0 0 0 0 0 0 0 0 0 0 0 0 0 0 0 0 0 0 0 0 0 0 1804 1804 1804 1804 1804 1804 1804 1823 1823 1823 1833 1823 1813 1813 1823 1823 1823 1823 1823 1823 1823 1833 1833 1833 1823 1823 1833 1833 1823 1823 1823 1823 1823 1823 1823 1833 1823 1823 1823 1823 1823 1813 1813 1823 1823 1823 1823 1823 1823 1823 1823 1823 1823 1823 1823 1823 1823 1823 1823 1823 1823 1823 1823 1833 1833 1833 1833 1833 1843 1833 1833 1833 1833 1833 1823 1813 1804 1757 1757 1748 1748 1748 1748 1748 1757 1757 1757 1757 1766 1776 1804 1813 1823 1823 1823 1833 1833 1833 1833 1833 1833 1833 1833 1833 1833 1833 1833 1833 1833 1833 1833 1833 1833 1833 1843 1843 1843 1853 1853 1843 1843 1833 1833 1833 1823 1823 1833 1833 1833 1833 1843 1843 1843 1843 1843 1843 1853 1853 1853 1853 1853 1853 1843 1843 1843 1843 1843 1843 1843 1843 1843 1853 1853 1639 1639 1639 1639 1639 1639 1647 1647 1655 1655 1663 1663 1671 1671 1680 1680 1696 1853 1863 1863 1863 1863 1863 1863 1863 1863 1863 1863 1863 1863 1873 1863 1863 1873 1863 1863 1873 1873 1873 1873 1883 1883 1516 1516 1523 1523 1523 1523 1523 1523 1523 1529 1529 1529 1536 1536 1543 1543 1543 1632 1632 1639 1639 1639 1639 1647 1647 1663 1663 1663 1663 1671 1671 1680 1688 1688 1696 1873 1873 1883 1883 1883 1883 1883 1883 1883 1883 1883 1883 1883 1883 1883 1883 1883 1883 1883 1883 1883 1883 1883 1883 1883 1883 1883 1883 1883 1883 1883 1883 1883 1883 1883 1883 1883 1883 1894 1894 1894 1894 1894 1894 1894 1883 1883 1883 1883 1894 1894 1894 1883 1883 1883 1883 1883 1883 1883 1883 1883 1398 1398 1398 1398 1398 1398 1392 1387 1387 1387 1387 1392 1392 1398 1404 1404 1404 1410 1410 1415 1873 1873 1873 1873 1883 1883 1883 1883 1883 1883 1883 1883 1883 1883 1883 1883 1883 1883 1894 1894 1655 1655 1655 1655 1663 1663 1663 1671 1671 1688 1688 1696 1696 1705 1731 1748 1766 1776 1776 1776 1785 1785 1785 1804 1873 1883 1894 1894 1894 1894 1904 1904 1904 1904 1883 1883 1894 1894 1894 1904 1904 1904 1904 1904 1904 1904 1915 1915 1904 1883 1883 1863 1863 1863 1843 1843 1843 1833 1833 1833 1843 1843 1843 1833 1833 1843 1843 1404 1404 1404 1404 1404 1404 1410 1404 1404 1404 1404 1404 1404 1398 1398 1398 1404 1404 1404 1404 1410 1415 1445 1883 1883 1883 1894 1894 1904 1904 1904 1904 1904 1894 1894 1904 1904 1894 1894 1904 1904 1904 1904 1904 1904 1904 1904 1904 1904 1904 1904 1904 1904 1904 1904 1904 1904 1904 1904 1904 1904 1904 1904 1904 1904 1904 1904 1904 1904 1894 1894 1894 1894 1894 1894 1894 1894 1894 1894 1894 1894 1894 1894 1894 1894 1894 1894 1894 1894 1894 1894 1894 1894 1894 1894 1894 1894 1883 1883 1894 1894 1894 1894 1894 1894 1894 1894 1894 1894 1894 1894 1894 1894 1894 1894 1894 1894 1894 1894 1894 1894 1894 1894 1904 1904 1904 1904 1894 1894 1894 1894 1894 1894 1894 1894 1894 1904 1904 1904 1894 1894 1894 1894 1894 1894 1894 1894 1894 1894 1894 1894 1894 1894 1894 1883 1883 1883 1873 1873 1883 1883 1883 1894 1894 1894 1894 1894 1894 1894 1894 1894 1904 1904 1904 1904 1904 1904 1894 1894 1894 1894 1904 1904 1904 1904 1904 1904 1915 1915 1915 1926 1926 1915 1915 1915 1904 1904 1915 1915 1915 0 0 0 0 0 0 0 0
