0 0 0 0 0 0 0 0 0 0 0 0 0 0 0 0 0 0 0 0 0 0 0 0 0 0 0 0 0 0 0 0 0 2129 2129 2129 2129 2129 2129 2129 2129 2129 2129 2129 2129 2129 2129 2129 2129 2129 2129 2129 2129 2143 2143 2156 2156 2156 2143 2143 2143 2143 2143 2143 2143 2143 2143 2143 2143 2143 2143 2143 2116 2116 2116 2129 2129 2129 2129 2129 2143 2143 2129 2129 2143 2143 2143 2143 2143 2143 2129 2129 2129 2129 2129 2143 2143 2143 2143 2143 2143 2143 2143 2143 2143 2143 2143 2143 2143 2143 2156 2156 2156 2156 2156 2156 2156 2156 2156 2156 2156 2156 2156 2156 2156 2156 2156 2156 2156 2156 2156 2170 2170 2170 2170 2170 2184 2184 2184 2184 2170 2170 2170 2170 2170 2170 2170 2170 2170 2184 2184 2184 2184 2184 2184 2184 2170 2170 2170 2170 2170 2184 2170 2170 2170 2184 2184 2184 1853 1853 1853 1853 1853 1853 1853 1853 1853 1853 1853 1853 1863 1873 1883 1904 1915 1926 1936 1936 1936 1936 1936 1936 1947 1947 1947 1959 1981 1981 2198 2198 2198 2198 2198 2198 2198 2198 2198 2198 2198 2198 2212 2212 2212 2212 2212 2212 2212 2212 2212 2212 2212 2212 2212 2212 2212 2212 2212 2212 2212 2226 2226 2226 2212 2212 2212 2212 2226 2226 1722 1722 1722 1722 1722 1713 1713 1713 1713 1713 1713 1713 1713 1722 1722 1731 1731 1731 2226 2212 2212 2226 2226 2226 2226 2226 2226 2226 2226 2226 2226 2226 2226 2226 2241 2241 2241 2241 2241 2241 2241 2241 1572 1572 1572 1564 1564 1572 1572 1572 1572 1572 1572 1572 1572 1572 1579 1579 1579 1579 1579 1586 1586 2053 2053 2053 2065 2078 2078 2078 2078 2078 2090 2103 2103 2116 2116 2116 2129 2226 2226 1536 1529 1529 1529 1523 1523 1523 1523 1523 1516 1516 1509 1509 1509 1503 1503 1503 1503 1496 1496 1489 1489 1489 1489 1489 1483 1483 1483 1483 1483 1483 1483 1483 1477 1477 1477 1477 1470 1470 1464 1464 1464 1464 1458 1458 1458 1458 1458 1452 1452 1452 1445 1445 1445 1439 1439 1433 1433 1427 1427 1427 1421 1415 1415 1415 1410 1410 1410 1410 1415 1415 1421 1427 1433 1445 1452 1470 1477 1489 1496 1503 1509 1509 1509 1516 1516 1516 2241 2241 2256 2256 2271 2271 2256 2256 2256 2271 2256 2256 2256 2256 2256 2256 2256 2241 2241 2241 1766 1766 1776 1776 1776 1776 1776 1776 1776 1776 1785 1785 1776 1776 2256 2256 2256 2256 2256 2271 2271 2271 2271 2271 2271 2271 2271 2271 2271 2271 2271 2271 2271 2271 2271 2271 2256 2256 2256 2271 2271 1823 1823 1823 1823 1823 1823 1823 1823 1823 1404 1404 1404 1404 1404 1398 1398 1398 1392 1392 1392 1392 1392 1387 1387 1387 1387 1387 1387 1387 1387 1387 1381 1381 1381 1381 1381 1376 1376 1376 1376 1376 1376 1376 1376 1376 2040 2040 2040 2040 2040 2040 2040 2040 2040 2028 2028 2256 2241 2241 2241 2241 2241 2241 2256 2256 2256 2256 2256 2256 2256 2256 2256 2256 2256 2256 2256 2256 2256 2256 2256 2256 2271 2271 2271 2256 2256 2256 2256 2256 2256 2256 2256 2256 2256 2256 2256 2256 2256 2256 2256 2256 2256 2256 2256 2256 2256 2256 2256 2256 2256 2256 2271 2256 2256 2256 2256 2256 2241 2241 2241 2241 2241 2241 2241 2241 2241 2241 2241 2241 2256 2256 2241 2241 2241 2241 2241 2241 2241 2241 2241 2241 2241 2241 2241 2241 2241 2241 2256 2256 2256 2241 2241 2241 2241 2241 2241 2241 2241 2226 2226 2226 2226 2226 2226 0 0 0 0 0 0 0 0 0
0 0 0 0 0 0 0 0 0 0 0 0 0 0 0 0 0 0 0 0 0 0 0 0 0 0 0 0 0 0 0 0 0 2129 2116 2116 2116 2116 2116 2116 2116 2116 2116 2116 2129 2116 2116 2116 2116 2116 2129 2116 2116 2129 2129 2143 2143 2143 2143 2143 2143 2143 2129 2129 2129 2129 2129 2129 2129 2129 2129 2129 2103 2103 2116 2116 2116 2116 2116 2129 2129 2129 2129 2129 2143 2129 2129 2129 2129 2129 2129 2129 2129 2129 2129 2143 2143 2143 2143 2143 2143 2143 2143 2143 2143 2143 2143 2143 2143 2143 2143 2143 2143 2143 2143 2156 2156 2156 2156 2156 2156 2156 2156 2156 2156 2156 2156 2156 2156 2156 2156 2156 2156 2156 2156 2170 2170 2170 2170 2170 2170 2170 2170 2156 2156 2156 2156 2170 2170 2170 2170 2184 2184 2184 2184 2184 2170 2170 2170 2170 2170 2170 2170 2170 2170 2170 2184 2184 1853 1853 1853 1853 1853 1853 1853 1853 1853 1853 1853 1853 1863 1873 1883 1894 1904 1915 1926 1926 1936 1936 1936 1936 1947 1947 1947 1959 2198 2198 2198 2184 2184 2184 2184 2184 2184 2184 2184 2184 2198 2198 2198 2198 2198 2198 2198 2198 2198 2198 2198 2198 2198 2198 2198 2198 2198 2212 2212 2212 2212 2212 2212 2212 2212 2212 2212 2212 2212 2226 1722 1722 1722 1722 1722 1713 1713 1713 1713 1713 1713 1713 1722 1722 1731 1731 1731 1739 1739 2184 2184 2184 2198 2198 2198 2212 2212 2212 2212 2212 2212 2212 2212 2226 2226 2226 2226 2226 2226 2226 2241 2241 1564 1564 1572 1564 1564 1572 1572 1572 1572 1572 1572 1572 1572 1572 1579 1579 1579 1579 1579 1579 2212 2212 2103 2103 2078 2078 2090 2090 2090 2090 2090 2103 2103 2116 2116 2116 2129 2170 2226 2226 2226 2226 1529 1529 1523 1523 1523 1523 1523 1523 1509 1509 1509 1509 1503 1503 1503 1496 1496 1496 1489 1489 1489 1489 1489 1483 1483 1483 1483 1483 1483 1483 1477 1477 1477 1477 1477 1470 1470 1464 1464 1464 1464 1458 1458 1458 1458 1458 1458 1452 1452 1445 1445 1439 1439 1439 1433 1433 1427 1427 1421 1415 1415 1415 1415 1415 1410 1410 1415 1415 1421 1427 1433 1445 1464 1477 1483 1489 1496 1503 1509 1509 1509 1509 1509 1516 2226 2241 2256 2256 2256 2271 2256 2256 2256 2256 2256 2241 2241 2256 2256 2256 2241 2241 2241 2241 1776 1776 1785 1776 1776 1776 1776 1776 1776 1776 1785 1785 1776 1776 2256 2256 2256 2256 2256 2256 2256 2256 2271 2256 2256 2271 2271 2271 2271 2271 2271 2271 2256 2256 2256 2256 2256 2256 2256 2256 2256 1823 1823 1823 1823 1823 1823 1823 1823 1823 1404 1404 1404 1404 1404 1398 1398 1398 1392 1392 1392 1392 1392 1392 1392 1387 1387 1387 1387 1387 1387 1387 1387 1387 1387 1387 1387 1381 1381 1381 1376 1376 1376 1376 1376 1376 2040 2040 2040 2040 2040 2040 2040 2040 2040 2028 2028 2241 2241 2241 2241 2241 2241 2241 2241 2256 2256 2256 2256 2256 2256 2241 2241 2241 2241 2241 2241 2256 2256 2256 2256 2256 2256 2256 2256 2256 2256 2256 2256 2256 2241 2241 2241 2256 2256 2256 2241 2241 2241 2256 2256 2256 2256 2256 2256 2256 2256 2256 2256 2256 2256 2256 2256 2256 2256 2256 2256 2256 2241 2241 2241 2241 2241 2241 2241 2226 2226 2241 2226 2226 2226 2226 2226 2226 2226 2226 2226 2241 2241 2241 2226 2226 2226 2226 2241 2241 2241 2241 2241 2241 2241 2241 2241 2241 2241 2241 2226 2226 2226 2226 2226 2226 2226 2226 2226 0 0 0 0 0 0 0 0 0
0 0 0 0 0 0 0 0 0 0 0 0 0 0 0 0 0 0 0 0 0 0 0 0 0 0 0 0 0 0 0 0 0 0 2116 2116 2103 2103 2103 2116 2116 2103 2103 2103 2116 2116 2116 2116 2103 2103 2116 2116 2116 2116 2116 2129 2143 2143 2143 2143 2143 2129 2129 2129 2129 2116 2116 2116 2116 2129 2116 2116 2103 2103 2103 2103 2103 2116 2116 2116 2116 2129 2129 2129 2129 2129 2129 2129 2129 2129 2129 2116 2116 2116 2116 2129 2129 2129 2129 2129 2143 2129 2129 2143 2143 2143 2143 2143 2143 2143 2143 2143 2143 2143 2143 2143 2143 2143 2143 2143 2143 2143 2143 2156 2156 2156 2156 2156 2156 2156 2156 2156 2156 2156 2156 2156 2156 2156 2156 2156 2156 2156 2156 2156 2156 2156 2156 2156 2156 2156 2170 2170 2170 2170 2170 2170 2156 2156 2156 2156 2156 2170 2156 2156 2156 2156 2170 2170 1853 1853 1853 1853 1853 1853 1853 1853 1853 1853 1853 1863 1863 1873 1883 1894 1904 1904 1915 1926 1926 1936 1936 1936 1947 1947 1947 1959 2184 2184 2184 2184 2184 2184 2184 2184 2184 2184 2184 2184 2184 2184 2184 2184 2184 2184 2184 2184 2184 2198 2198 2198 2198 2198 2198 2198 2198 2198 2198 2212 2212 2212 2212 2212 2198 2198 2198 2198 2212 2212 1722 1722 1722 1722 1722 1713 1713 1713 1713 1713 1722 1722 1722 1731 1731 1731 1731 1739 1739 2184 2184 2184 2184 2198 2198 2198 2198 2212 2212 2212 2198 2198 2212 2212 2212 2212 2212 2226 2226 2226 2226 1564 1564 1564 1564 1564 1564 1572 1572 1572 1572 1572 1572 1572 1572 1572 1579 1579 1579 1579 1579 1579 2198 2198 2129 2116 2103 2103 2103 2090 2090 2090 2090 2090 2103 2103 2116 2129 2143 2170 2212 2226 2226 2226 2226 2226 1529 1523 1523 1523 1523 1523 1516 1516 1509 1509 1503 1503 1503 1503 1503 1496 1489 1489 1489 1489 1489 1489 1489 1489 1483 1483 1483 1483 1477 1477 1477 1477 1477 1470 1470 1464 1464 1464 1464 1464 1458 1458 1458 1458 1458 1452 1452 1452 1452 1445 1439 1439 1433 1433 1427 1427 1421 1421 1415 1415 1415 1415 1415 1415 1415 1415 1421 1427 1433 1445 1470 1483 1483 1489 1496 1503 1503 1509 1509 1503 1503 2226 2226 2241 2241 2241 2241 2256 2241 2241 2256 2241 2241 2241 2241 2241 2256 2241 2241 2241 2241 2241 1776 1776 1785 1785 1785 1785 1776 1776 1776 1776 1785 1785 1776 1776 2256 2256 2256 2256 2256 2256 2256 2256 2256 2256 2256 2256 2256 2256 2256 2256 2256 2256 2256 2256 2256 2241 2241 2241 2241 2256 1833 1833 1823 1823 1823 1823 1823 1823 1823 1823 1404 1404 1404 1404 1404 1404 1398 1398 1398 1398 1398 1392 1392 1392 1392 1392 1387 1387 1387 1387 1387 1387 1387 1387 1387 1387 1387 1381 1381 1381 1381 1381 1376 1376 1376 1376 2053 2053 2053 2053 2053 2040 2040 2040 2040 2040 2241 2241 2241 2241 2241 2241 2241 2241 2241 2241 2241 2241 2241 2241 2241 2241 2241 2241 2241 2241 2241 2241 2241 2256 2256 2256 2256 2256 2256 2241 2241 2241 2241 2241 2241 2241 2241 2241 2241 2241 2241 2241 2241 2241 2241 2241 2241 2241 2241 2241 2241 2256 2256 2241 2241 2256 2256 2241 2241 2241 2241 2241 2226 2226 2226 2226 2226 2226 2226 2226 2226 2226 2226 2226 2226 2226 2226 2226 2226 2226 2226 2226 2226 2226 2226 2226 2226 2226 2226 2226 2226 2226 2226 2226 2226 2212 2212 2198 2198 2212 2226 2226 2226 2226 2226 2226 2226 2226 2226 0 0 0 0 0 0 0 0 0
0 0 0 0 0 0 0 0 0 0 0 0 0 0 0 0 0 0 0 0 0 0 0 0 0 0 0 0 0 0 0 0 0 0 2116 2116 2103 2103 2103 2103 2103 2103 2103 2103 2103 2103 2103 2103 2103 2103 2116 2116 2116 2116 2116 2116 2129 2129 2129 2129 2129 2116 2116 2116 2116 2116 2116 2116 2116 2116 2103 2103 2103 2103 2103 2103 2103 2103 2103 2103 2103 2116 2116 2116 2116 2129 2129 2129 2129 2129 2116 2116 2116 2116 2116 2116 2129 2129 2129 2129 2129 2129 2129 2129 2129 2129 2143 2143 2143 2143 2143 2143 2143 2143 2143 2143 2129 2129 2129 2143 2143 2143 2143 2143 2143 2143 2143 2143 2143 2143 2143 2143 2143 2156 2156 2156 2156 2156 2156 2156 2143 2143 2156 2156 2156 2156 2156 2156 2156 2156 2156 2156 2156 2156 2156 2156 2156 2143 2143 2156 2156 2156 2156 2143 2143 2156 2156 2170 1853 1853 1853 1853 1853 1853 1853 1853 1853 1853 1853 1863 1873 1873 1883 1894 1904 1904 1904 1915 1915 1936 1936 1936 1936 1947 1947 2184 2184 2184 2184 2184 2184 2184 2184 2184 2184 2184 2184 2184 2184 2184 2184 2184 2184 2184 2184 2184 2184 2184 2184 2184 2184 2198 2198 2198 2198 2198 2198 2198 2198 2198 2198 2198 2198 2198 2198 2198 2198 2198 2198 1731 1731 1722 1722 1713 1713 1713 1713 1722 1722 1722 1722 1731 1731 1731 1731 1739 1739 2184 2184 2184 2184 2184 2184 2184 2198 2198 2198 2198 2198 2198 2198 2198 2198 2212 2212 2212 2212 2212 2226 2226 1564 1564 1564 1564 1564 1572 1572 1572 1572 1572 1572 1572 1572 1579 1579 1579 1579 1579 1579 1579 2184 2184 2184 2129 2116 2103 2103 2103 2090 2090 2090 2090 2103 2103 2116 2129 2143 2170 2198 2212 2212 2212 2226 2226 2226 1936 1936 1523 1523 1523 1516 1516 1509 1509 1509 1503 1503 1503 1503 1489 1489 1489 1496 1489 1489 1489 1489 1489 1483 1483 1483 1483 1483 1483 1477 1477 1477 1477 1470 1464 1464 1464 1464 1464 1464 1464 1458 1458 1458 1458 1452 1452 1452 1445 1445 1439 1433 1433 1427 1427 1421 1421 1415 1415 1415 1415 1415 1415 1415 1421 1421 1427 1439 1458 1477 1483 1489 1489 1496 1496 1503 1503 1503 1503 1503 2226 2226 2226 2226 2241 2241 2241 2226 2226 2241 2226 2226 2226 2226 2241 2241 2226 2226 2226 2226 2226 1785 1785 1785 1785 1785 1785 1785 1785 1776 1776 1785 1785 1776 1776 2241 2241 2241 2241 2241 2241 2241 2241 2241 2241 2241 2256 2256 2256 2256 2256 2256 2256 2241 2241 2241 2241 2241 2241 2241 2241 1833 1833 1823 1823 1823 1823 1823 1823 1823 1823 1404 1404 1404 1404 1404 1404 1398 1398 1398 1398 1398 1392 1392 1392 1392 1392 1392 1392 1387 1387 1387 1387 1387 1387 1387 1387 1387 1381 1381 1381 1381 1381 1381 1381 1381 1381 2065 2065 2065 2065 2053 2053 2040 2040 2040 2040 2226 2241 2241 2241 2241 2241 2241 2241 2241 2241 2241 2241 2241 2241 2241 2241 2226 2226 2226 2226 2226 2241 2241 2241 2241 2241 2241 2241 2241 2241 2241 2241 2241 2241 2241 2241 2241 2241 2241 2241 2226 2226 2241 2241 2241 2241 2241 2241 2241 2241 2241 2241 2241 2241 2241 2241 2241 2241 2241 2241 2241 2241 2226 2226 2226 2226 2226 2226 2226 2226 2226 2226 2226 2226 2226 2226 2212 2212 2212 2212 2212 2212 2212 2212 2212 2212 2212 2212 2226 2226 2226 2226 2226 2226 2212 2212 2198 2198 2198 2212 2212 2212 2212 2212 2212 2212 2212 2212 2212 0 0 0 0 0 0 0 0 0
0 0 0 0 0 0 0 0 0 0 0 0 0 0 0 0 0 0 0 0 0 0 0 0 0 0 0 0 0 0 0 0 0 0 2103 2103 2103 2103 2103 2103 2103 2090 2090 2090 2103 2103 2103 2103 2090 2090 2103 2103 2103 2116 2116 2116 2116 2116 2116 2116 2116 2116 2116 2116 2116 2103 2103 2103 2103 2116 2090 2090 2090 2090 2103 2103 2103 2103 2103 2103 2103 2103 2103 2103 2116 2116 2116 2116 2116 2116 2116 2116 2103 2103 2116 2116 2116 2116 2116 2116 2116 2116 2116 2129 2129 2129 2129 2129 2129 2129 2143 2143 2129 2129 2129 2129 2129 2129 2129 2129 2129 2143 2143 2143 2143 2143 2143 2143 2143 2143 2143 2143 2143 2143 2143 2143 2156 2156 2143 2143 2143 2143 2143 2143 2143 2143 2143 2156 2156 2156 2156 2156 2156 2156 2156 2156 2156 2143 2143 2143 2143 2143 2143 2143 2143 2143 2143 2143 2156 1853 1843 1843 1843 1843 1843 1853 1853 1853 1863 1863 1873 1883 1894 1894 1894 1904 1904 1904 1915 1926 1936 1936 1936 1947 1947 2170 2170 2184 2184 2184 2184 2170 2170 2170 2170 2184 2184 2184 2184 2170 2170 2170 2170 2170 2170 2170 2170 2184 2184 2184 2184 2184 2184 2184 2184 2198 2198 2198 2198 2198 2198 2198 2198 2198 2198 2198 2198 2198 2198 1731 1731 1722 1722 1713 1713 1713 1713 1722 1722 1722 1731 1731 1731 1731 1739 1739 1739 2170 2184 2184 2184 2184 2184 2184 2184 2184 2184 2184 2184 2184 2198 2198 2198 2198 2212 2212 2212 2212 2226 2226 1564 1564 1564 1564 1564 1572 1572 1572 1572 1572 1572 1572 1579 1579 1579 1579 1579 1579 2184 2184 2184 2184 2184 2170 2129 2116 2116 2103 2103 2103 2103 2103 2103 2116 2116 2129 2156 2170 2198 2212 2212 2212 2212 2212 2212 1936 1936 1936 1926 1926 1936 1936 1509 1509 1947 1503 1503 1503 1503 1489 1489 1489 1489 1496 1496 1489 1489 1489 1489 1483 1483 1483 1483 1483 1477 1477 1477 1477 1470 1464 1464 1464 1464 1464 1464 1464 1458 1458 1458 1452 1452 1452 1452 1445 1445 1439 1439 1439 1433 1427 1421 1421 1415 1415 1415 1415 1415 1415 1415 1421 1421 1427 1439 1464 1483 1483 1489 1489 1489 1496 1503 1496 1496 1496 2226 2226 2226 2226 2226 2226 2226 2241 2226 2226 2226 2226 2226 2226 2226 2226 2241 2226 2226 2226 2226 2226 1785 1785 1785 1785 1785 1785 1785 1785 1776 1776 1785 1785 1776 1776 1785 2226 2226 2226 2226 2226 2226 2226 2226 2226 2226 2241 2241 2241 2256 2256 2256 2256 2241 2241 2226 2226 2226 2226 2226 2226 1833 1833 1833 1833 1823 1823 1823 1823 1823 1823 1404 1404 1404 1404 1404 1404 1404 1404 1398 1398 1398 1398 1398 1392 1392 1392 1392 1392 1392 1392 1387 1387 1387 1387 1387 1387 1387 1381 1381 1381 1381 1381 1381 1381 1381 1381 2065 2065 2065 2065 2053 2053 2040 2040 2040 2040 2212 2226 2226 2226 2226 2226 2226 2226 2226 2226 2226 2226 2226 2226 2226 2226 2226 2226 2226 2226 2226 2226 2226 2241 2241 2241 2241 2241 2241 2241 2226 2226 2241 2241 2241 2241 2241 2241 2226 2226 2226 2226 2226 2226 2226 2226 2226 2226 2241 2241 2241 2241 2241 2241 2241 2241 2241 2226 2226 2226 2226 2226 2212 2212 2212 2212 2212 2212 2212 2212 2212 2212 2212 2212 2212 2212 2212 2212 2212 2212 2212 2212 2212 2212 2198 2198 2212 2212 2212 2226 2226 2198 2198 2198 2198 2198 2198 2198 2198 2198 2198 2212 2212 2212 2212 2212 2212 2212 2212 0 0 0 0 0 0 0 0 0
0 0 0 0 0 0 0 0 0 0 0 0 0 0 0 0 0 0 0 0 0 0 0 0 0 0 0 0 0 0 0 0 0 0 2103 2103 2090 2090 2090 2090 2090 2078 2078 2078 2078 2090 2090 2090 2090 2090 2090 2103 2103 2103 2103 2103 2116 2116 2116 2116 2116 2116 2103 2103 2103 2103 2103 2103 2103 2103 2090 2090 2090 2090 2090 2090 2090 2090 2090 2090 2103 2103 2103 2103 2103 2103 2103 2103 2103 2103 2103 2103 2103 2103 2103 2103 2103 2103 2103 2103 2103 2103 2103 2116 2116 2116 2116 2116 2129 2129 2129 2129 2129 2129 2129 2129 2116 2116 2116 2116 2129 2129 2129 2129 2143 2143 2143 2143 2143 2143 2143 2143 2143 2143 2143 2143 2143 2143 2143 2129 2129 2143 2143 2143 2143 2143 2143 2143 2143 2143 2143 2156 2156 2156 2156 2156 2143 2143 2143 2143 2143 2143 2143 2143 2143 2143 2143 2143 1843 1843 1843 1843 1843 1843 1843 1853 1853 1853 1863 1873 1873 1883 1894 1894 1894 1904 1904 1904 1904 1915 1926 1936 1936 2156 2156 2156 2156 2170 2170 2170 2170 2170 2170 2170 2170 2170 2170 2170 2156 2156 2156 2156 2156 2156 2156 2156 2156 2170 2170 2170 2170 2184 2184 2184 2184 2184 2184 2184 2184 2184 2184 2184 2184 2184 2198 2198 2198 2198 2198 1731 1731 1722 1722 1722 1722 1722 1722 1722 1722 1722 1731 1731 1731 1731 1739 1739 1739 2170 2170 2184 2184 2184 2184 2184 2184 2184 2184 2184 2184 2184 2184 2184 2184 2198 2212 2212 2212 2226 2226 1564 1564 1564 1564 1564 1572 1572 1572 1572 1572 1572 1572 1572 1579 1579 1586 1586 1579 1579 2184 2184 2184 2184 2184 2170 2129 2116 2116 2116 2103 2103 2103 2103 2116 2116 2129 2156 2170 2184 2184 2198 2198 2212 2212 2212 1926 1926 1926 1926 1926 1926 1926 1936 1947 1959 1959 1970 1970 1970 1970 1970 1489 1489 1489 1496 1496 1489 1489 1489 1489 1489 1483 1483 1483 1483 1483 1483 1477 1477 1470 1470 1464 1464 1464 1464 1464 1464 1464 1458 1458 1452 1452 1452 1452 1445 1445 1445 1439 1439 1433 1433 1421 1421 1421 1415 1415 1415 1415 1415 1415 1421 1421 1427 1439 1464 1483 1483 1483 1489 1489 1489 1496 1496 1496 1496 2226 2226 2226 2226 2226 2226 2226 2226 2212 2212 2226 2226 2226 2226 2226 2226 2226 2212 2212 2212 2212 2212 1785 1785 1785 1785 1785 1785 1785 1785 1776 1776 1776 1785 1785 1785 1785 2226 2226 2212 2212 2212 2212 2212 2212 2212 2212 2226 2226 2226 2226 2241 2241 2241 2226 2226 2226 2226 2212 2212 2212 2212 1843 1833 1833 1833 1833 1823 1823 1823 1823 1823 1404 1404 1404 1404 1404 1404 1404 1404 1404 1404 1398 1398 1398 1398 1398 1392 1392 1392 1392 1392 1387 1387 1387 1387 1387 1387 1387 1381 1381 1381 1381 1381 1381 1381 1381 1381 1387 2065 2065 2065 2053 2053 2053 2053 2053 2053 2198 2212 2212 2212 2212 2212 2212 2212 2212 2212 2212 2212 2226 2212 2212 2226 2226 2226 2226 2226 2226 2226 2226 2226 2226 2226 2226 2226 2226 2226 2226 2226 2226 2226 2226 2226 2226 2226 2226 2226 2212 2212 2212 2212 2212 2212 2212 2212 2226 2226 2226 2226 2226 2226 2226 2226 2226 2226 2226 2212 2212 2226 2212 2212 2198 2198 2212 2212 2212 2212 2212 2212 2212 2212 2212 2212 2212 2212 2212 2212 2212 2198 2198 2198 2184 2184 2198 2198 2198 2198 2198 2198 2184 2184 2184 2184 2184 2184 2184 2198 2198 2198 2198 2198 2212 2212 2212 2212 2212 0 0 0 0 0 0 0 0 0
0 0 0 0 0 0 0 0 0 0 0 0 0 0 0 0 0 0 0 0 0 0 0 0 0 0 0 0 0 0 0 0 0 0 2090 2090 2078 2078 2078 2078 2078 2065 2065 2065 2065 2078 2078 2078 2078 2078 2090 2090 2090 2090 2090 2103 2103 2103 2103 2103 2103 2103 2103 2103 2103 2103 2103 2103 2103 2103 2090 2090 2090 2090 2090 2090 2090 2090 2090 2090 2090 2090 2090 2090 2090 2090 2090 2090 2090 2103 2103 2103 2103 2103 2103 2103 2103 2103 2103 2103 2103 2103 2103 2103 2116 2116 2116 2116 2116 2116 2116 2116 2116 2116 2116 2116 2116 2116 2116 2116 2116 2116 2116 2129 2143 2129 2129 2129 2129 2129 2129 2129 2143 2129 2129 2129 2143 2143 2129 2129 2129 2129 2129 2143 2129 2129 2143 2143 2143 2143 2143 2143 2143 2143 2143 2156 2129 2129 2129 2143 2143 2143 2143 2143 2143 2143 2143 2143 1843 1843 1843 1843 1853 1853 1853 1853 1853 1863 1863 1873 1883 1883 1894 1894 1894 1904 1904 1904 1904 1915 1915 1936 2143 2143 2156 2156 2156 2156 2170 2170 2170 2170 2170 2170 2170 2170 2170 2170 2156 2156 2156 2156 2143 2143 2156 2156 2156 2170 2170 2170 2170 2170 2184 2184 2184 2184 2184 2184 2170 2170 2170 2184 2184 2184 2184 2184 2198 2198 2198 1722 1722 1722 1722 1722 1722 1722 1722 1722 1731 1731 1731 1731 1731 1731 1739 1739 1739 2170 2170 2170 2170 2184 2184 2184 2184 2184 2170 2170 2170 2170 2184 2184 2184 2184 2198 2184 2184 2184 1904 1557 1557 1557 1557 1564 1572 1572 1572 1572 1572 1572 1572 1572 1579 1579 1579 1579 1579 1579 1579 2184 2184 2184 2170 2143 2129 2116 2116 2116 2103 2103 2103 2103 2116 2116 2129 2156 2170 2184 2184 2184 2198 2198 2212 1926 1926 1926 1926 1926 1926 1926 1926 1936 1947 1959 1959 1970 1970 1959 1959 1959 1959 1489 1489 1496 1496 1489 1489 1489 1489 1489 1483 1483 1483 1483 1483 1483 1477 1477 1477 1470 1470 1470 1464 1464 1464 1464 1464 1458 1458 1452 1452 1452 1452 1445 1445 1445 1439 1439 1433 1433 1427 1421 1421 1421 1421 1421 1421 1421 1421 1421 1421 1433 1445 1464 1477 1483 1483 1489 1489 1489 1489 1489 1496 1496 2212 2212 2212 2212 2212 2212 2212 2212 2212 2212 2212 2212 2212 2212 2212 2212 2212 2212 2212 2212 2212 2212 1785 1785 1785 1785 1785 1785 1785 1785 1776 1776 1776 1785 1785 1785 1794 2212 2212 2212 2212 2212 2212 2212 2212 2212 2212 2212 2212 2212 2212 2226 2226 2226 2226 2226 2212 2212 2212 2212 2212 2212 1843 1833 1833 1833 1833 1833 1823 1823 1823 1823 1404 1404 1404 1404 1404 1404 1404 1404 1404 1404 1404 1398 1398 1398 1398 1392 1392 1392 1392 1392 1387 1387 1387 1387 1387 1387 1387 1381 1381 1381 1381 1381 1381 1381 1381 1381 1387 2053 2065 2065 2053 2053 2053 2053 2065 2184 2198 2198 2198 2212 2212 2198 2198 2212 2198 2198 2198 2212 2212 2212 2212 2212 2212 2212 2212 2226 2226 2226 2226 2226 2226 2226 2226 2226 2226 2226 2212 2212 2212 2212 2226 2226 2226 2226 2226 2226 2212 2212 2212 2212 2212 2212 2212 2212 2212 2212 2212 2212 2212 2212 2212 2212 2212 2212 2198 2198 2198 2212 2212 2198 2198 2198 2198 2198 2198 2198 2198 2198 2198 2198 2198 2198 2198 2198 2198 2198 2198 2184 2184 2184 2184 2184 2184 2184 2198 2198 2198 2184 2184 2184 2184 2184 2184 2184 2184 2184 2184 2198 2198 2198 2198 2198 2198 2212 2212 0 0 0 0 0 0 0 0 0
0 0 0 0 0 0 0 0 0 0 0 0 0 0 0 0 0 0 0 0 0 0 0 0 0 0 0 0 0 0 0 0 0 0 2090 2090 2078 2078 2078 2065 2065 2065 2065 2065 2065 2065 2065 2065 2078 2078 2078 2090 2090 2090 2090 2090 2090 2090 2090 2090 2090 2090 2090 2090 2090 2090 2090 2090 2090 2090 2090 2090 2090 2090 2090 2090 2090 2090 2090 2090 2090 2090 2090 2090 2090 2090 2090 2090 2090 2090 2090 2090 2090 2090 2103 2103 2090 2090 2103 2103 2103 2103 2103 2103 2103 2103 2116 2116 2116 2116 2116 2103 2103 2103 2103 2103 2103 2103 2103 2103 2103 2103 2103 2116 2129 2129 2116 2116 2116 2116 2116 2116 2116 2116 2116 2129 2129 2129 2116 2116 2116 2116 2129 2129 2129 2129 2129 2129 2143 2143 2143 2143 2143 2143 2143 2143 2129 2129 2129 2129 2129 2143 2143 2129 2129 2129 2143 2143 2143 1843 1843 1843 1853 1853 1853 1853 1853 1863 1863 1873 1883 1883 1894 1894 1894 1904 1904 1904 1904 1915 1915 2143 2143 2143 2143 2143 2143 2156 2156 2156 2156 2156 2156 2156 2156 2156 2156 2156 2156 2156 2156 2156 2143 2143 2143 2143 2156 2156 2156 2156 2156 2170 2170 2170 2170 2170 2170 2170 2170 2170 2170 2170 2170 2184 2184 2184 2184 2198 2198 1722 1722 1722 1722 1722 1722 1722 1722 1722 1731 1731 1731 1731 1731 1731 1739 1739 1748 2170 2170 2170 2170 2170 2170 2170 2170 2170 2170 2170 2170 2170 2170 2170 2184 2184 2184 2184 1904 1904 1904 1904 1557 1557 1557 1564 1572 1572 1572 1572 1572 1572 1572 1572 1579 1579 1579 1579 1586 1579 1579 2184 2184 2184 2170 2143 2129 2116 2116 2116 2116 2116 2103 2103 2116 2116 2129 2156 2156 2170 2184 2184 2184 2184 1915 1915 1915 1926 1926 1926 1926 1926 1926 1936 1947 1959 1959 1970 1970 1959 1959 1959 1959 1959 1496 1489 1489 1489 1489 1489 1489 1483 1483 1483 1483 1483 1483 1477 1477 1477 1477 1470 1470 1470 1464 1464 1464 1464 1464 1458 1458 1458 1458 1452 1452 1452 1445 1445 1439 1439 1433 1433 1427 1421 1421 1421 1421 1421 1421 1421 1421 1427 1427 1433 1445 1458 1477 1483 1483 1489 1489 1489 1489 1489 2212 2212 2212 2212 2212 2212 2212 2212 2212 2212 2212 2198 2198 2198 2198 2198 2212 2198 2198 2198 2198 2198 2198 2198 1794 1794 1785 1785 1785 1785 1785 1785 1785 1785 1785 1785 1785 1785 2212 2212 2212 2212 2212 2212 2212 2212 2212 2212 2212 2212 2212 2212 2212 2212 2212 2212 2212 2212 2212 2212 2212 2212 2212 2212 1843 1833 1833 1833 1833 1833 1833 1823 1823 1823 1404 1404 1404 1404 1404 1404 1404 1404 1404 1404 1404 1398 1398 1398 1398 1398 1392 1392 1392 1392 1387 1387 1387 1387 1387 1387 1387 1381 1381 1381 1381 1381 1381 1381 1387 1387 1392 2053 2065 2065 2053 2053 2065 2065 2103 2184 2184 2198 2198 2198 2198 2198 2198 2198 2198 2198 2198 2198 2198 2198 2212 2212 2212 2212 2212 2212 2212 2212 2212 2212 2212 2212 2212 2212 2212 2212 2198 2198 2198 2198 2212 2212 2212 2212 2212 2212 2212 2212 2212 2198 2198 2198 2198 2198 2198 2198 2198 2212 2212 2212 2212 2212 2212 2198 2198 2198 2198 2198 2198 2184 2184 2184 2184 2184 2184 2184 2184 2198 2198 2198 2198 2198 2198 2198 2198 2184 2184 2184 2184 2184 2184 2184 2184 2184 2184 2184 2184 2184 2170 2170 2170 2170 2170 2170 2184 2184 2184 2184 2184 2184 2184 2198 2198 2212 2212 0 0 0 0 0 0 0 0 0
0 0 0 0 0 0 0 0 0 0 0 0 0 0 0 0 0 0 0 0 0 0 0 0 0 0 0 0 0 0 0 0 0 0 2078 2078 2078 2078 2078 2065 2065 2065 2065 2065 2065 2065 2065 2065 2065 2065 2078 2078 2078 2078 2078 2078 2078 2090 2090 2090 2090 2090 2090 2090 2090 2090 2090 2090 2090 2090 2090 2090 2090 2090 2090 2090 2090 2078 2078 2078 2078 2078 2078 2078 2078 2078 2090 2090 2090 2090 2090 2090 2090 2090 2090 2090 2090 2090 2090 2090 2090 2090 2103 2103 2103 2103 2103 2103 2116 2116 2116 2103 2103 2103 2103 2103 2103 2103 2103 2103 2103 2103 2103 2103 2116 2116 2116 2116 2116 2116 2116 2116 2116 2116 2116 2116 2116 2116 2103 2103 2103 2116 2116 2116 2116 2129 2129 2129 2129 2129 2129 2129 2129 2143 2143 2143 2129 2129 2129 2129 2129 2129 2129 2129 2129 2129 2129 2116 2116 1843 1843 1843 1853 1853 1853 1853 1863 1863 1863 1873 1883 1894 1894 1894 1904 1904 1904 1904 1904 1915 1915 2143 2143 2143 2143 2143 2143 2143 2143 2143 2143 2143 2143 2143 2143 2143 2143 2143 2143 2143 2143 2143 2143 2143 2143 2143 2156 2156 2156 2156 2156 2170 2170 2170 2156 2156 2170 2156 2156 2156 2156 2156 2156 2170 2170 2170 2184 2184 2198 1731 1731 1722 1722 1722 1722 1722 1722 1722 1731 1731 1731 1731 1731 1739 1739 1739 1748 2170 2170 2170 2170 2170 2170 2170 2170 2170 2170 2170 2170 2170 2170 2170 2170 1894 1894 1894 1894 1904 1904 1904 1557 1557 1564 1564 1572 1572 1572 1572 1572 1572 1572 1579 1579 1586 1594 1594 1601 1601 1601 2170 2170 2170 2170 2143 2129 2116 2116 2116 2116 2116 2103 2103 2116 2116 2129 2143 2156 2170 2170 2184 2184 1904 1904 1904 1904 1915 1915 1926 1926 1926 1926 1936 1947 1959 1959 1970 1970 1970 1970 1959 1959 2170 1496 1489 1489 1489 2156 2156 1489 1483 1483 1483 1483 1483 1483 1477 1477 1477 1477 1470 1470 1470 1464 1464 1464 1464 1464 1464 1458 1458 1458 1458 1458 1452 1452 1445 1439 1439 1433 1433 1427 1421 1421 1421 1421 1421 1421 1421 1421 1427 1433 1439 1445 1452 1470 1477 1483 1483 1489 1489 1489 2184 2212 2212 2198 2198 2198 2198 2198 2198 2198 2198 2212 2198 2198 2198 2198 2198 2198 2198 2198 2198 2198 2198 2198 2198 1794 1794 1785 1785 1785 1785 1785 1785 1785 1785 1785 1785 1785 1785 1794 2198 2198 2198 2198 2198 2198 2198 2198 2198 2198 2198 2212 2212 2212 2212 2212 2212 2212 2212 2212 2198 2198 2198 2198 2198 1833 1833 1833 1833 1833 1833 1833 1823 1823 1823 1823 1404 1404 1404 1404 1404 1404 1404 1404 1404 1404 1404 1404 1398 1398 1398 1392 1392 1392 1392 1387 1387 1387 1387 1387 1387 1387 1381 1381 1381 1381 1381 1387 1387 1387 1392 1392 1398 2065 2065 2065 2065 2065 2078 2103 2184 2184 2184 2184 2198 2198 2198 2198 2198 2184 2184 2198 2198 2198 2198 2198 2198 2198 2198 2198 2212 2212 2212 2212 2212 2212 2212 2212 2212 2212 2198 2198 2198 2198 2198 2198 2198 2198 2212 2212 2212 2198 2198 2198 2198 2198 2198 2198 2198 2198 2198 2198 2198 2198 2198 2198 2198 2198 2198 2198 2198 2198 2198 2198 2184 2184 2184 2184 2184 2184 2184 2184 2184 2184 2184 2184 2184 2198 2198 2184 2184 2184 2184 2170 2170 2170 2170 2184 2184 2184 2184 2184 2170 2170 2170 2170 2170 2170 2170 2170 2184 2184 2184 2184 2184 2184 2198 2198 2198 2198 0 0 0 0 0 0 0 0 0
0 0 0 0 0 0 0 0 0 0 0 0 0 0 0 0 0 0 0 0 0 0 0 0 0 0 0 0 0 0 0 0 0 0 2078 2078 2078 2078 2078 2065 2065 2065 2065 2065 2065 2065 2065 2065 2065 2065 2078 2078 2078 2065 2065 2078 2078 2078 2078 2078 2078 2078 2078 2078 2078 2078 2078 2078 2078 2078 2065 2065 2065 2065 2078 2065 2065 2053 2053 2065 2078 2065 2065 2065 2078 2078 2078 2078 2078 2078 2078 2065 2065 2078 2090 2090 2078 2078 2090 2090 2078 2078 2090 2090 2090 2090 2103 2103 2103 2103 2103 2103 2103 2090 2090 2090 2090 2090 2090 2090 2103 2103 2103 2103 2103 2103 2103 2103 2103 2103 2103 2103 2116 2116 2116 2116 2103 2103 2103 2103 2103 2103 2103 2103 2116 2116 2116 2116 2129 2129 2129 2129 2129 2129 2129 2129 2116 2116 2116 2116 2116 2116 2129 2129 2116 2116 2129 2116 2116 1843 1843 1843 1853 1853 1853 1853 1863 1863 1873 1873 1883 1894 1894 1894 1904 1904 1904 1904 1904 1915 2129 2129 2129 2129 2129 2129 2129 2129 2129 2129 2129 2129 2143 2143 2143 2143 2143 2143 2143 2143 2143 2143 2143 2143 2143 2143 2143 2143 2143 2143 2156 2156 2156 2156 2156 2156 2156 2143 2143 2143 2143 2143 2143 2156 2156 2156 2170 2184 2184 1731 1731 1722 1722 1722 1722 1722 1722 1722 1731 1731 1731 1731 1731 1739 1739 1748 1757 2143 2143 2143 2156 2170 2170 2170 2170 2170 2170 2170 2170 2170 2170 2170 2170 1883 1883 1883 1894 1894 1904 1904 1564 1564 1564 1564 1572 1572 1572 1572 1572 1572 1572 1579 1579 1586 1594 1601 1601 1601 1601 2170 2170 2170 2156 2129 2129 2129 2116 2116 2116 2116 2116 2116 2116 2116 2129 2143 2143 2156 2170 2170 2184 1894 1894 1904 1904 1904 1915 1926 1926 1926 1926 1936 1947 1959 1959 1970 1970 1970 1970 1970 2170 2170 2170 2170 2170 2170 2156 2156 2156 2170 1483 1483 1483 1483 1483 1477 1477 1477 1470 1470 1470 1470 1464 1464 1464 1464 1464 1464 1464 1458 1458 1458 1458 1452 1452 1445 1439 1439 1433 1433 1427 1427 1427 1421 1421 1427 1427 1427 1427 1433 1433 1439 1445 1452 1464 1470 1477 1483 1483 1489 2184 2184 2198 2198 2184 2184 2198 2198 2198 2198 2198 2198 2198 2184 2184 2198 2198 2198 2198 2198 2198 2184 2184 2198 2198 2198 1794 1794 1794 1785 1785 1785 1785 1785 1785 1785 1785 1785 1785 1794 1794 2198 2198 2198 2198 2198 2198 2198 2198 2198 2198 2198 2198 2198 2198 2198 2198 2198 2198 2198 2198 2198 2198 2198 2198 2198 1833 1833 1833 1833 1833 1833 1833 1823 1823 1823 1823 1404 1404 1404 1404 1404 1404 1404 1404 1404 1404 1404 1404 1404 1398 1398 1392 1392 1392 1392 1392 1392 1392 1392 1392 1392 1387 1387 1381 1381 1381 1381 1387 1387 1387 1392 1392 1398 2065 2065 2065 2078 2078 2090 2170 2170 2184 2184 2184 2184 2184 2184 2184 2184 2184 2184 2184 2184 2184 2198 2198 2198 2198 2198 2198 2198 2198 2198 2198 2212 2212 2212 2212 2198 2198 2198 2198 2198 2198 2198 2198 2198 2198 2198 2198 2198 2198 2198 2198 2198 2198 2198 2198 2184 2184 2198 2198 2198 2198 2198 2198 2198 2198 2198 2198 2198 2198 2198 2198 2184 2184 2184 2184 2184 2184 2184 2184 2184 2184 2184 2184 2184 2184 2184 2184 2184 2184 2170 2170 2170 2170 2170 2170 2170 2170 2170 2170 2170 2156 2156 2156 2170 2170 2170 2170 2170 2170 2184 2184 2184 2184 2184 2184 2184 2184 0 0 0 0 0 0 0 0 0
0 0 0 0 0 0 0 0 0 0 0 0 0 0 0 0 0 0 0 0 0 0 0 0 0 0 0 0 0 0 0 0 0 0 2065 2065 2065 2065 2065 2065 2065 2065 2065 2065 2065 2065 2065 2065 2065 2065 2065 2065 2065 2065 2065 2065 2078 2065 2065 2065 2078 2078 2078 2078 2078 2078 2078 2065 2065 2065 2053 2053 2053 2065 2065 2053 2053 2053 2053 2053 2065 2065 2065 2065 2065 2065 2078 2065 2065 2065 2065 2065 2065 2065 2065 2078 2078 2078 2078 2078 2078 2078 2090 2090 2090 2090 2090 2090 2090 2090 2090 2090 2090 2090 2090 2090 2090 2090 2090 2090 2090 2090 2090 2090 2090 2090 2090 2090 2090 2103 2103 2103 2103 2103 2103 2103 2103 2103 2103 2103 2103 2103 2103 2103 2103 2103 2116 2116 2116 2116 2116 2116 2116 2116 2116 2116 2116 2103 2103 2116 2116 2116 2116 2116 2116 2116 2116 2103 2103 1853 1853 1853 1853 1853 1853 1863 1863 1863 1873 1883 1883 1894 1894 1904 1904 1904 1915 1915 1915 1915 2129 2129 2129 2129 2129 2129 2129 2129 2129 2129 2129 2129 2129 2129 2129 2129 2143 2143 2143 2143 2143 2143 2129 2129 2143 2143 2143 2143 2143 2143 2143 2156 2156 2156 2143 2143 2156 2143 2143 2143 2143 2143 2143 2156 2156 2156 2156 2170 2170 1731 1731 1731 1731 1722 1722 1722 1722 1722 1731 1731 1731 1731 1739 1739 1739 1748 1757 2129 2143 2143 2143 2143 2156 2156 2156 2156 2156 2156 2170 2170 1863 1863 1863 1863 1873 1883 1894 1894 1904 1915 1572 1564 1564 1572 1572 1572 1572 1572 1572 1572 1572 1579 1579 1586 1594 1601 1601 1601 1601 2170 2170 2143 2129 2129 2129 2116 2116 2116 2116 2116 2116 2116 2116 2129 2129 2143 2143 2143 2156 2156 1894 1894 1894 1904 1904 1904 1915 1915 1926 1926 1926 1936 1947 1959 1970 1970 1970 1970 1970 1970 2170 2170 2170 2170 2170 2156 2156 2156 2156 2156 2156 2156 2156 2156 2156 1477 1477 1477 1470 1470 1470 1470 1470 1464 1464 1464 1464 1464 1464 1458 1458 1458 1458 1458 1452 1445 1439 1439 1433 1433 1427 1427 1427 1427 1427 1427 1427 1427 1427 1433 1433 1439 1445 1452 1458 1470 1477 1483 1483 2170 2170 2184 2184 2184 2184 2184 2184 2184 2184 2184 2184 2184 2198 2184 2184 2184 2184 2184 2184 2184 2184 2184 2184 2184 2184 2184 1794 1794 1794 1785 1785 1785 1785 1785 1785 1785 1785 1794 1794 1794 2184 2198 2198 2198 2198 2198 2198 2198 2184 2184 2184 2184 2184 2184 2184 2184 2184 2184 2184 2184 2184 2184 2184 2184 2184 2184 1833 1833 1833 1833 1833 1833 1833 1823 1823 1823 1833 1833 1404 1404 1404 1404 1404 1410 1410 1404 1404 1404 1404 1404 1404 1398 1398 1398 1398 1398 1392 1392 1392 1392 1392 1392 1387 1387 1381 1381 1381 1381 1387 1387 1392 1398 1398 2065 2065 2065 2078 2078 2090 2116 2170 2170 2184 2184 2184 2184 2184 2184 2184 2184 2184 2184 2184 2184 2184 2184 2198 2198 2198 2198 2198 2198 2198 2198 2198 2198 2198 2198 2198 2198 2198 2198 2184 2184 2184 2184 2184 2184 2184 2184 2198 2198 2198 2198 2198 2198 2184 2184 2184 2184 2184 2184 2184 2198 2198 2198 2198 2198 2198 2184 2184 2184 2184 2184 2184 2170 2170 2170 2184 2184 2184 2184 2184 2184 2170 2170 2170 2170 2170 2170 2170 2170 2170 2170 2170 2170 2170 2170 2170 2170 2170 2170 2170 2156 2156 2156 2156 2156 2170 2170 2170 2170 2170 2170 2170 2170 2170 2184 2184 2170 2170 0 0 0 0 0 0 0 0 0
0 0 0 0 0 0 0 0 0 0 0 0 0 0 0 0 0 0 0 0 0 0 0 0 0 0 0 0 0 0 0 0 0 0 2065 2065 2065 2065 2065 2065 2053 2053 2053 2053 2065 2065 2065 2065 2065 2065 2065 2065 2065 2053 2053 2065 2065 2053 2053 2065 2065 2065 2065 2065 2065 2065 2065 2065 2065 2065 2053 2053 2053 2053 2053 2053 2053 2053 2053 2053 2053 2053 2065 2065 2065 2065 2065 2065 2065 2065 2053 2053 2053 2065 2065 2065 2078 2078 2078 2078 2078 2078 2078 2078 2078 2078 2078 2078 2078 2090 2078 2078 2078 2078 2078 2090 2090 2090 2090 2090 2090 2090 2090 2090 2090 2090 2090 2090 2090 2090 2090 2090 2090 2103 2103 2103 2103 2103 2090 2090 2090 2103 2103 2103 2103 2103 2103 2103 2103 2103 2103 2116 2116 2116 2116 2116 2103 2103 2103 2103 2103 2103 2103 2103 2103 2103 2116 2103 2103 1853 1853 1863 1863 1863 1863 1863 1863 1863 1873 1883 1883 1894 1894 1904 1904 1904 1915 1915 1915 2116 2116 2116 2116 2116 2116 2116 2116 2116 2116 2116 2116 2116 2116 2129 2129 2129 2129 2129 2129 2129 2129 2129 2129 2129 2129 2129 2143 2143 2143 2143 2143 2143 2143 2143 2143 2143 2143 2143 2143 2143 2143 2143 2143 2143 2143 2143 2143 2156 2156 1739 1739 1731 1731 1722 1722 1722 1722 1731 1731 1731 1731 1731 1739 1739 1739 1748 1748 2129 2143 2143 2143 2143 2143 2143 2129 2129 2156 2156 1863 1863 1863 1863 1863 1863 1873 1883 1894 1894 1904 1915 1915 1572 1572 1572 1572 1572 1572 1572 1572 1572 1572 1579 1579 1586 1594 1601 1601 1601 1601 2156 2156 2129 2129 2116 2116 2116 2116 2116 2116 2116 2116 2116 2116 2129 2129 2129 2143 2143 2156 1894 1894 1894 1894 1894 1894 1894 1904 1915 1926 1926 1926 1947 1959 1959 1970 1970 1970 1970 1970 1981 2156 2156 2156 2170 2170 2156 2156 2156 2156 2156 2156 2156 2156 2156 2156 2156 2156 2156 2156 1470 1470 1470 1470 1464 1464 1464 1464 1464 1464 1458 1458 1458 1452 1452 1452 1445 1439 1439 1433 1433 1433 1427 1427 1427 1427 1427 1427 1427 1433 1433 1439 1439 1445 1452 1452 1452 1477 2156 2170 2170 2170 2170 2184 2184 2170 2170 2184 2184 2184 2184 2184 2184 2184 2170 2170 2184 2184 2184 2184 2184 2184 2184 2184 2184 2184 2184 1794 1794 1794 1794 1785 1785 1785 1794 1794 1794 1794 1794 1794 1794 1794 2184 2184 2184 2184 2184 2184 2184 2184 2184 2184 2184 2184 2184 2184 2184 2184 2184 2170 2170 2184 2170 2170 2184 2184 2184 1833 1833 1833 1833 1833 1833 1833 1833 1833 1833 1833 1833 1404 1404 1404 1404 1404 1410 1410 1404 1404 1404 1404 1404 1404 1398 1398 1398 1398 1398 1392 1392 1392 1392 1392 1392 1387 1387 1381 1381 1381 1381 1387 1387 1392 2065 2065 2065 2065 2065 2078 2078 2103 2156 2170 2170 2170 2170 2170 2170 2170 2184 2184 2184 2184 2184 2184 2184 2184 2184 2184 2184 2184 2184 2198 2198 2198 2198 2198 2198 2198 2198 2184 2184 2184 2184 2184 2184 2184 2184 2184 2184 2184 2184 2184 2198 2198 2198 2198 2198 2184 2184 2184 2184 2184 2184 2184 2184 2184 2184 2198 2198 2184 2184 2184 2184 2184 2184 2184 2170 2170 2170 2170 2170 2170 2170 2170 2170 2170 2170 2170 2170 2170 2156 2156 2170 2170 2156 2156 2170 2170 2170 2170 2170 2156 2156 2156 2156 2156 2156 2156 2156 2170 2170 2170 2170 2170 2170 2170 2170 2170 2170 2170 2170 2170 0 0 0 0 0 0 0 0 0
0 0 0 0 0 0 0 0 0 0 0 0 0 0 0 0 0 0 0 0 0 0 0 0 0 0 0 0 0 0 0 0 0 0 2053 2053 2053 2053 2053 2065 2053 2053 2053 2053 2053 2053 2053 2053 2053 2053 2053 2053 2053 2053 2053 2053 2053 2053 2053 2053 2053 2065 2053 2053 2065 2065 2065 2065 2065 2053 2040 2040 2053 2040 2040 2040 2040 2040 2040 2040 2040 2040 2053 2053 2053 2053 2053 2053 2053 2053 2053 2053 2053 2053 2053 2053 2053 2053 2053 2065 2065 2065 2065 2065 2065 2065 2065 2065 2065 2053 2053 2053 2065 2065 2065 2078 2078 2078 2090 2090 2090 2090 2090 2090 2090 2090 2090 2090 2090 2090 2090 2090 2090 2090 2090 2090 2090 2090 2090 2090 2090 2090 2090 2090 2090 2103 2103 2103 2103 2103 2103 2103 2103 2103 2103 2103 2103 2103 2103 2090 2090 2103 2103 2103 2103 2103 2116 2103 1853 1853 1853 1863 1863 1863 1863 1863 1863 1863 1873 1883 1883 1894 1894 1904 1915 1915 1959 2005 2028 2078 2103 2103 2103 2116 2116 2116 2116 2116 2116 2116 2116 2116 2116 2116 2129 2129 2129 2129 2129 2129 2129 2129 2129 2129 2129 2129 2129 2129 2129 2129 2129 2129 2129 2143 2143 2143 2143 2143 2143 2143 2143 2143 2143 2143 2143 2143 2143 2143 2143 1739 1739 1739 1739 1731 1731 1731 1731 1731 1731 1731 1731 1731 1739 1739 1739 1748 1748 2129 2129 2129 2129 2129 2129 2129 2129 2129 1843 1843 1853 1853 1863 1863 1863 1863 1883 1883 1883 1894 1904 1915 1579 1572 1572 1572 1572 1572 1572 1579 1572 1572 1579 1579 1579 1586 1594 1601 1601 1601 1609 2129 2129 2116 2116 2116 2116 2116 2116 2116 2116 2116 2116 2116 2116 2129 2129 2129 2143 2143 2170 1894 1883 1883 1894 1894 1894 1894 1904 1915 1915 1915 1926 1947 1959 1970 1970 1981 1981 1981 1981 2156 2156 2156 2156 2156 2156 2156 2156 2156 2156 2156 2156 2156 2156 2156 2156 2156 2156 2156 2156 2156 2156 2156 2156 1464 1464 1464 1464 1458 1458 1458 1458 1458 1452 1452 1452 1445 1439 1439 1433 1433 1433 1433 1433 1433 1433 1433 1433 1433 1433 1433 1439 1445 1445 1452 1452 1452 2156 2156 2170 2170 2170 2170 2170 2170 2170 2170 2170 2170 2170 2170 2170 2170 2170 2170 2170 2170 2170 2170 2170 2184 2184 2170 2170 2184 2184 2184 1794 1794 1794 1794 1794 1785 1785 1794 1794 1794 1794 1794 1794 1794 1794 2170 2170 2170 2170 2170 2170 2170 2170 2170 2170 2170 2170 2170 2170 2170 2170 2170 2170 2170 2170 2170 2170 2184 2184 2184 1833 1833 1833 1833 1833 1833 1833 1833 1833 1833 1833 1833 1833 1833 1410 1410 1410 1410 1410 1410 1410 1410 1410 1404 1404 1404 1398 1398 1398 1398 1398 1398 1392 1392 1392 1398 1387 1387 1387 1387 1387 1387 1387 1387 2065 2065 2065 2065 2065 2065 2078 2090 2143 2143 2156 2170 2170 2170 2170 2170 2170 2170 2170 2170 2170 2170 2184 2184 2184 2184 2184 2184 2184 2184 2184 2184 2184 2184 2198 2184 2184 2184 2184 2184 2184 2184 2184 2184 2184 2184 2184 2184 2184 2184 2184 2184 2184 2184 2198 2184 2184 2184 2184 2184 2184 2184 2184 2184 2184 2184 2184 2184 2184 2184 2170 2170 2184 2170 2170 2156 2156 2156 2170 2170 2170 2170 2170 2170 2170 2170 2156 2156 2143 2143 2143 2156 2156 2143 2143 2156 2156 2156 2156 2156 2156 2156 2156 2156 2156 2156 2156 2156 2156 2156 2156 2156 2156 2156 2156 2156 2156 2156 2143 2143 2156 0 0 0 0 0 0 0 0 0
0 0 0 0 0 0 0 0 0 0 0 0 0 0 0 0 0 0 0 0 0 0 0 0 0 0 0 0 0 0 0 0 0 0 2040 2040 2040 2040 2053 2053 2053 2053 2053 2053 2053 2053 2040 2040 2053 2053 2053 2053 2053 2053 2053 2053 2053 2053 2053 2053 2053 2053 2053 2053 2053 2053 2065 2065 2065 2053 2040 2040 2040 2028 2028 2028 2028 2028 2040 2040 2040 2040 2040 2040 2040 2040 2040 2040 2040 2040 2040 2040 2040 2040 2040 2040 2040 2053 2053 2053 2053 2053 2053 2053 2053 2053 2053 2065 2053 2053 2053 2053 2053 2065 2065 2065 2065 2065 2065 2078 2078 2078 2078 2078 2078 2078 2078 2078 2078 2078 2078 2090 2078 2078 2078 2078 2065 2065 2078 2078 2078 2090 2090 2090 2090 2090 2090 2103 2090 2090 2103 2103 2103 2103 2103 2103 2090 2090 2090 2090 2090 2090 2090 2090 2090 2103 2103 2103 1853 1853 1853 1863 1863 1863 1863 1863 1863 1863 1873 1883 1894 1894 1904 1915 1915 1947 1981 2016 2040 2065 2078 2090 2090 2103 2103 2103 2103 2103 2103 2103 2103 2103 2116 2116 2116 2116 2129 2129 2129 2129 2129 2129 2116 2116 2129 2129 2129 2129 2129 2129 2129 2129 2129 2129 2129 2129 2129 2129 2129 2143 2143 2129 2129 2129 2129 2143 2143 2143 2143 1739 1739 1739 1739 1731 1731 1731 1731 1731 1731 1731 1731 1731 1739 1739 1739 1748 1748 2129 2129 2129 2116 2116 2129 2129 2129 1843 1843 1843 1853 1853 1853 1863 1873 1873 1883 1883 1883 1883 1894 1894 1579 1572 1572 1579 1579 1579 1579 1579 1579 1579 1579 1579 1579 1586 1594 1601 1601 1601 1601 2129 2129 2116 2116 2116 2116 2116 2116 2116 2116 2116 2116 2116 2116 2129 2129 2129 2143 1883 1883 1883 1883 1883 1883 1894 1894 1894 1894 1915 1915 1915 1926 1947 1959 1970 1970 1981 1981 1981 1981 2156 2156 2156 2156 2156 2156 2156 2156 2156 2156 2156 2156 2156 2156 2156 2156 2156 2156 2156 2143 2143 2143 2143 2143 2156 2143 2143 1464 1458 1452 1452 1452 1452 1452 1452 1452 1445 1439 1439 1433 1433 1433 1433 1433 1433 1433 1433 1433 1433 1433 1433 1439 1445 1445 1445 1452 1452 2156 2170 2170 2170 2170 2170 2170 2170 2170 2170 2170 2170 2170 2170 2170 2170 2170 2170 2170 2170 2170 2170 2170 2170 2170 2170 2170 2170 1804 1804 1794 1794 1794 1794 1794 1794 1794 1794 1794 1794 1794 1794 1794 1794 1794 2156 2156 2170 2170 2170 2170 2170 2170 2156 2156 2156 2156 2156 2156 2156 2156 2156 2156 2156 2156 2156 2170 2170 2170 2170 1833 1833 1833 1833 1833 1833 1833 1833 1833 1833 1833 1833 1833 1843 1843 1410 1410 1410 1410 1410 1410 1410 1410 1410 1404 1404 1404 1404 1404 1404 1404 1404 1404 1398 1398 1398 1392 1392 1387 1387 1387 1387 1387 1387 2065 2065 2065 2065 2065 2065 2078 2090 2116 2143 2143 2143 2156 2156 2156 2156 2156 2156 2156 2156 2156 2156 2156 2156 2156 2170 2184 2184 2184 2184 2184 2184 2184 2184 2184 2184 2184 2170 2170 2170 2170 2170 2170 2170 2184 2170 2170 2170 2170 2170 2184 2184 2184 2184 2184 2184 2184 2170 2170 2170 2170 2170 2170 2184 2184 2184 2184 2184 2184 2170 2170 2170 2170 2170 2170 2156 2156 2156 2156 2156 2156 2156 2156 2156 2156 2156 2156 2143 2129 2129 2143 2143 2143 2129 2129 2143 2143 2143 2143 2143 2143 2143 2143 2143 2143 2143 2143 2143 2156 2156 2156 2156 2156 2156 2156 2156 2156 2143 2143 2143 2143 0 0 0 0 0 0 0 0 0
0 0 0 0 0 0 0 0 0 0 0 0 0 0 0 0 0 0 0 0 0 0 0 0 0 0 0 0 0 0 0 0 0 0 2028 2028 2028 2028 2040 2040 2040 2040 2040 2040 2040 2040 2028 2028 2040 2053 2053 2053 2053 2053 2053 2053 2053 2053 2040 2040 2053 2053 2053 2053 2053 2053 2053 2053 2053 2053 2040 2040 2040 2028 2028 2028 2028 2028 2040 2040 2040 2040 2040 2040 2040 2040 2040 2040 2040 2040 2040 2040 2040 2040 2040 2040 2040 2053 2053 2053 2053 2053 2053 2053 2053 2053 2053 2053 2053 2053 2053 2053 2053 2053 2053 2053 2053 2053 2053 2065 2065 2065 2065 2065 2065 2065 2065 2065 2065 2065 2065 2078 2065 2065 2065 2065 2065 2065 2065 2065 2078 2078 2078 2078 2078 2090 2090 2090 2078 2078 2078 2078 2078 2078 2078 2078 2078 2078 2078 2078 2078 2078 2090 2078 2078 2090 2090 2103 2103 1853 1853 1863 1863 1863 1863 1863 1863 1863 1873 1883 1894 1894 1904 1915 1947 1981 2005 2016 2028 2053 2065 2078 2090 2103 2103 2103 2103 2103 2103 2103 2103 2103 2103 2116 2116 2116 2116 2116 2116 2116 2116 2116 2116 2116 2116 2116 2116 2116 2129 2129 2129 2129 2129 2129 2129 2129 2129 2129 2129 2129 2129 2129 2129 2129 2129 2129 2129 2129 2129 1739 1739 1739 1739 1731 1731 1731 1731 1731 1731 1731 1731 1739 1739 1739 1739 1739 1731 1731 2116 2116 2116 2116 2129 1843 1843 1843 1843 1843 1853 1853 1853 1853 1863 1863 1883 1883 1883 1883 1894 1894 1579 1579 1579 1579 1579 1579 1579 1579 1579 1579 1579 1579 1586 1594 1594 1601 1601 1601 1601 2129 2129 2116 2116 2116 2116 2116 2116 2116 2116 2116 2116 2116 2116 2129 2129 2129 2143 1863 1863 1873 1873 1883 1883 1883 1883 1894 1894 1915 1915 1915 1926 1947 1959 1970 1970 1981 1981 1981 1981 2028 2116 2143 2143 2143 2143 2156 2156 2143 2143 2143 2156 2156 2143 2143 2143 2156 2143 2143 2143 2143 2143 2143 2143 2143 2143 2129 2103 2078 1452 1452 1452 1452 1452 1452 1445 1439 1439 1439 1433 1433 1433 1433 1433 1433 1433 1433 1433 1433 1433 1433 1439 1445 1445 1445 1452 1452 2143 2156 2156 2156 2156 2170 2170 2170 2156 2156 2170 2156 2156 2156 2170 2170 2170 2156 2156 2156 2156 2156 2170 2170 2170 2170 2170 2170 1804 1794 1794 1794 1794 1794 1794 1794 1794 1794 1794 1794 1794 1794 1794 1794 2143 2156 2156 2156 2156 2156 2156 2156 2156 2156 2156 2156 2156 2156 2156 2156 2156 2156 2156 2156 2156 2156 2156 2170 2170 2170 1833 1833 1833 1833 1833 1833 1833 1833 1833 1833 1833 1833 1833 1833 1833 1421 1415 1410 1410 1410 1410 1410 1410 1410 1410 1410 1404 1404 1404 1404 1404 1404 1404 1404 1404 1404 1392 1392 1387 1387 1387 1387 1387 2078 2078 2078 2078 2078 2078 2078 2078 2090 2116 2143 2143 2143 2143 2143 2143 2143 2143 2143 2143 2143 2156 2156 2156 2156 2156 2156 2156 2156 2170 2170 2170 2170 2170 2170 2170 2170 2156 2156 2156 2156 2156 2156 2156 2170 2170 2170 2170 2170 2170 2170 2170 2170 2170 2170 2184 2184 2170 2170 2170 2170 2170 2170 2170 2170 2170 2170 2170 2170 2170 2170 2170 2170 2170 2170 2156 2156 2143 2143 2156 2156 2156 2156 2156 2156 2156 2143 2143 2143 2129 2129 2129 2129 2129 2129 2129 2129 2129 2129 2129 2129 2129 2129 2129 2143 2143 2143 2143 2143 2143 2143 2156 2156 2156 2143 2143 2143 2143 2143 2143 2143 2143 0 0 0 0 0 0 0 0 0
0 0 0 0 0 0 0 0 0 0 0 0 0 0 0 0 0 0 0 0 0 0 0 0 0 0 0 0 0 0 0 0 0 0 2028 2028 2028 2028 2028 2028 2028 2028 2028 2040 2040 2040 2028 2028 2040 2040 2053 2053 2053 2053 2053 2053 2040 2040 2040 2040 2040 2040 2040 2040 2040 2040 2053 2053 2053 2040 2028 2028 2040 2040 2040 2040 2028 2028 2040 2028 2028 2028 2040 2040 2040 2028 2028 2040 2040 2040 2040 2040 2040 2040 2040 2040 2040 2040 2040 2053 2053 2053 2053 2040 2040 2040 2040 2053 2053 2053 2040 2040 2053 2053 2053 2053 2053 2053 2053 2053 2053 2053 2053 2053 2053 2065 2053 2053 2065 2065 2065 2065 2053 2053 2053 2053 2053 2053 2065 2065 2065 2078 2078 2078 2078 2078 2078 2078 2065 2065 2078 2078 2078 2078 2078 2078 2078 2078 2078 2078 2078 2078 2090 2078 2078 2090 2090 2103 2103 1853 1853 1863 1863 1863 1863 1863 1863 1873 1873 1883 1894 1894 1904 1915 1970 1981 2005 2016 2028 2040 2053 2065 2078 2090 2090 2103 2090 2090 2090 2090 2090 2090 2090 2090 2090 2090 2090 2090 2090 2090 2090 2090 2090 2090 2090 2103 2103 2103 2116 2116 2116 2116 2116 2116 2116 2116 2116 2116 2116 2129 2129 2129 2129 2129 2129 2129 2129 2129 2129 1739 1739 1739 1739 1731 1731 1731 1731 1731 1731 1731 1739 1739 1739 1739 1739 1739 1731 1731 2116 2116 2116 2129 2129 1843 1843 1843 1843 1843 1853 1853 1853 1853 1863 1863 1873 1873 1883 1883 1894 1894 1894 1579 1579 1579 1579 1579 1579 1579 1579 1579 1579 1579 1586 1594 1594 1601 1601 1601 1601 2116 2116 2116 2116 2116 2116 2116 2116 2116 2116 2116 2116 2116 2116 2129 2129 2129 1853 1853 1863 1863 1873 1873 1883 1883 1883 1883 1894 1915 1926 1926 1947 1959 1970 1970 1981 1981 1993 1993 1993 2028 2103 2143 2143 2143 2143 2143 2143 2129 2129 2129 2129 2129 2143 2143 2143 2143 2143 2143 2143 2143 2143 2143 2143 2143 2129 2129 2103 2078 2065 2053 2053 2053 2053 2053 1445 1439 1433 1433 1433 1433 1433 1433 1433 1433 1433 1433 1433 1433 1433 1433 1439 1445 1445 1445 1452 1452 2143 2156 2156 2156 2156 2156 2156 2156 2156 2156 2156 2156 2156 2156 2156 2156 2156 2156 2156 2156 2156 2156 2156 2156 2156 2156 2156 2170 1794 1794 1794 1794 1794 1794 1794 1794 1794 1794 1794 1794 1794 1794 1794 1794 2143 2143 2156 2156 2143 2143 2156 2156 2156 2143 2143 2143 2143 2143 2143 2156 2156 2156 2143 2143 2156 2156 2156 2156 2156 2156 1833 1833 1833 1843 1843 1833 1833 1833 1833 1833 1833 1833 1833 1833 1833 1421 1421 1415 1415 1415 1415 1415 1410 1410 1410 1410 1410 1410 1410 1404 1404 1404 1404 1404 1404 1404 1398 1392 1392 1387 1387 1387 2078 2078 2078 2078 2078 2078 2078 2078 2090 2090 2116 2129 2143 2143 2143 2143 2143 2143 2143 2143 2143 2143 2143 2143 2143 2143 2143 2143 2156 2156 2156 2170 2170 2156 2156 2156 2156 2156 2143 2143 2143 2143 2143 2143 2143 2143 2143 2143 2143 2143 2143 2143 2156 2156 2156 2156 2156 2156 2170 2156 2156 2170 2170 2156 2156 2156 2156 2156 2156 2156 2156 2156 2156 2156 2156 2156 2156 2143 2143 2143 2143 2143 2143 2143 2143 2143 2143 2129 2129 2129 2129 2129 2129 2129 2129 2129 2129 2129 2129 2129 2129 2129 2129 2129 2129 2129 2129 2129 2129 2129 2129 2143 2143 2143 2143 2143 2143 2143 2143 2143 2143 2143 2143 0 0 0 0 0 0 0 0 0
0 0 0 0 0 0 0 0 0 0 0 0 0 0 0 0 0 0 0 0 0 0 0 0 0 0 0 0 0 0 0 0 0 0 2016 2016 2016 2016 2016 2016 2016 2016 2028 2028 2028 2028 2016 2016 2028 2040 2040 2040 2040 2040 2040 2040 2028 2028 2028 2028 2028 2028 2028 2028 2028 2016 2016 2040 2028 2028 2016 2016 2028 2028 2028 2028 2028 2028 2028 2028 2028 2028 2028 2028 2028 2028 2028 2028 2028 2028 2028 2028 2028 2028 2040 2040 2040 2040 2040 2040 2040 2040 2040 2040 2040 2040 2040 2040 2040 2040 2040 2040 2040 2040 2040 2040 2040 2040 2053 2053 2053 2053 2053 2053 2053 2053 2053 2053 2053 2053 2053 2053 2053 2053 2053 2053 2053 2053 2053 2053 2065 2065 2065 2065 2065 2065 2065 2065 2065 2065 2065 2065 2078 2078 2078 2078 2078 2078 2078 2078 2078 2078 2078 2078 2078 2090 2090 2103 1853 1853 1853 1863 1863 1863 1863 1863 1863 1873 1873 1883 1894 1904 1904 1970 1981 1993 2005 2016 2028 2040 2053 2065 2078 2090 2090 2090 2090 2090 2090 2090 2090 2090 2090 2090 2090 2090 2090 2090 2090 2090 2090 2090 2090 2090 2090 2103 2103 2103 2103 2103 2103 2103 2103 2090 2090 2090 2090 2090 2090 2103 2103 2103 2103 2103 2116 2103 2103 2116 1739 1739 1739 1739 1739 1731 1731 1731 1731 1731 1731 1731 1739 1739 1739 1739 1739 1739 1739 1739 2116 2116 2116 2129 1843 1843 1843 1853 1853 1853 1853 1863 1863 1863 1863 1873 1873 1873 1883 1883 1894 1894 1894 1586 1579 1579 1579 1579 1579 1579 1579 1579 1579 1579 1586 1594 1594 1601 1601 1601 1601 2116 2116 2116 2116 2116 2116 2116 2116 2116 2116 2116 2116 2116 2129 2129 2129 2129 1853 1853 1853 1853 1863 1863 1873 1883 1883 1883 1894 1904 1926 1926 1959 1970 1970 1981 1981 1993 1993 2005 2005 2053 2090 2103 2129 2116 2116 2143 2143 2129 2129 2129 2129 2129 2129 2129 2129 2143 2143 2143 2129 2129 2129 2129 2129 2129 2129 2116 2103 2078 2065 2065 2053 2053 2053 2053 2053 1439 1433 1433 1433 1433 1433 1433 1433 1433 1433 1433 1433 1433 1433 1439 1439 1445 1445 1445 1445 1445 2129 2143 2143 2156 2156 2156 2156 2156 2156 2156 2156 2156 2156 2156 2156 2156 2156 2143 2143 2143 2143 2143 2156 2156 2156 2156 2156 2156 1794 1794 1794 1794 1794 1794 1794 1794 1794 1794 1794 1794 1794 1794 1794 1794 2143 2143 2143 2143 2143 2143 2143 2143 2143 2143 2143 2143 2143 2143 2143 2143 2143 2143 2143 2143 2143 2143 2143 2143 2143 2143 1833 1833 1843 1843 1843 1833 1833 1833 1833 1833 1833 1833 1833 1833 1833 1421 1421 1415 1415 1415 1415 1415 1415 1410 1410 1410 1410 1410 1410 1410 1410 1404 1404 1404 1404 1404 1398 1398 1392 1392 1387 1387 2078 2078 2090 2078 2078 2078 2078 2090 2090 2103 2103 2116 2129 2129 2129 2129 2129 2129 2129 2129 2129 2129 2129 2129 2143 2143 2143 2143 2143 2143 2143 2156 2156 2143 2143 2143 2143 2143 2143 2143 2143 2143 2143 2143 2143 2143 2143 2143 2143 2143 2143 2143 2143 2143 2143 2143 2143 2143 2143 2143 2143 2143 2143 2143 2143 2143 2143 2143 2143 2143 2143 2143 2143 2143 2143 2143 2143 2129 2129 2129 2129 2129 2129 2129 2129 2129 2129 2129 2129 2129 2129 2129 2129 2129 2129 2129 2129 2116 2116 2116 2116 2116 2129 2129 2129 2129 2129 2129 2129 2129 2129 2129 2129 2129 2143 2129 2129 2143 2143 2129 2129 2129 2129 0 0 0 0 0 0 0 0 0
0 0 0 0 0 0 0 0 0 0 0 0 0 0 0 0 0 0 0 0 0 0 0 0 0 0 0 0 0 0 0 0 0 0 2016 2016 2016 2016 2016 2016 2016 2016 2016 2016 2016 2016 2016 2016 2028 2028 2028 2028 2028 2028 2028 2028 2028 2016 2016 2028 2028 2016 2016 2016 2016 2016 2016 2016 2028 2028 2016 2016 2028 2028 2028 2028 2028 2028 2028 2028 2028 2016 2016 2028 2028 2016 2016 2028 2028 2028 2028 2028 2028 2028 2028 2040 2040 2040 2040 2040 2040 2040 2040 2040 2040 2040 2040 2040 2040 2040 2040 2040 2040 2040 2040 2040 2040 2040 2040 2040 2040 2040 2040 2040 2040 2053 2053 2053 2053 2053 2053 2053 2040 2040 2040 2040 2040 2040 2053 2053 2053 2053 2053 2053 2053 2053 2053 2053 2053 2053 2053 2065 2065 2065 2065 2065 2065 2065 2065 2065 2065 2065 2078 2065 2065 2078 2090 2103 1843 1843 1853 1863 1863 1863 1863 1873 1873 1873 1873 1883 1894 1904 1915 1970 1981 2005 2005 2016 2028 2040 2053 2065 2065 2078 2090 2078 2078 2078 2078 2078 2078 2090 2090 2090 2090 2090 2090 2090 2090 2090 2090 2090 2090 2090 2090 2090 2090 2090 2103 2103 2103 2090 2090 2090 2090 2090 2090 2090 2090 2103 2103 2103 2103 2103 2103 2103 2103 2103 1739 1739 1739 1739 1739 1731 1731 1731 1731 1731 1731 1731 1739 1739 1739 1739 1739 1739 1739 1739 2116 2116 1833 1833 1833 1843 1843 1843 1843 1853 1853 1853 1863 1863 1873 1873 1873 1873 1883 1883 1883 1894 1894 1586 1586 1579 1579 1579 1579 1579 1579 1579 1579 1586 1586 1594 1594 1601 1601 1601 1601 1601 2116 2116 2116 2116 2116 2116 2116 2103 2103 2103 2116 2116 2129 2129 2129 1843 1843 1843 1853 1853 1853 1863 1873 1873 1883 1883 1883 1904 1936 1959 1970 1981 1981 1981 1981 1993 1993 2005 2016 2053 2090 2103 2116 2116 2116 2129 2129 2116 2116 2116 2116 2116 2116 2116 2129 2129 2129 2129 2129 2129 2129 2129 2129 2129 2116 2116 2103 2078 2065 2065 2065 2053 2053 2053 2053 1433 1433 1433 1439 1433 1433 1433 1433 1433 1433 1433 1433 1433 1433 1439 1439 1445 1445 1445 1439 1439 1445 2129 2143 2143 2143 2156 2156 2156 2156 2156 2143 2143 2143 2143 2156 2156 2143 2129 2129 2143 2143 2143 2143 2143 2143 2143 2156 1794 1794 1794 1794 1794 1794 1794 1794 1794 1794 1794 1794 1794 1794 1785 1785 1794 2129 2129 2143 2129 2129 2143 2143 2143 2143 2143 2143 2143 2143 2143 2143 2143 2143 2143 2143 2143 2129 2129 2143 2129 2129 2143 1843 1843 1843 1843 1843 1843 1833 1833 1833 1833 1833 1833 1833 1833 1427 1427 1421 1421 1415 1415 1421 1415 1415 1415 1410 1410 1410 1410 1410 1410 1410 1410 1410 1404 1404 1404 1398 1398 1398 1392 1392 1392 2078 2078 2090 2090 2090 2078 2078 2090 2090 2103 2103 2116 2129 2129 2129 2129 2129 2129 2129 2129 2129 2129 2129 2129 2129 2129 2129 2129 2129 2129 2129 2143 2143 2129 2129 2143 2143 2143 2143 2143 2143 2143 2143 2143 2143 2143 2143 2143 2143 2143 2143 2143 2143 2143 2143 2143 2143 2143 2143 2129 2129 2129 2129 2143 2129 2129 2129 2129 2129 2129 2129 2129 2129 2143 2143 2143 2129 2116 2116 2116 2116 2116 2116 2116 2116 2116 2129 2129 2129 2129 2129 2129 2129 2129 2129 2116 2116 2116 2116 2116 2116 2116 2116 2116 2116 2116 2116 2116 2129 2129 2129 2129 2129 2129 2129 2129 2129 2143 2129 2129 2129 2129 2129 0 0 0 0 0 0 0 0 0
0 0 0 0 0 0 0 0 0 0 0 0 0 0 0 0 0 0 0 0 0 0 0 0 0 0 0 0 0 0 0 0 0 0 2005 2005 2005 2005 2005 2005 2005 2005 2005 2016 2016 2016 2016 2016 2016 2016 2016 2016 2016 2016 2016 2016 2016 2016 2016 2016 2016 2016 2016 2016 2016 2016 2016 2016 2016 2016 2005 2005 2028 2028 2028 2028 2028 2028 2016 2016 2016 2016 2016 2005 2005 2016 2016 2016 2016 2016 2016 2016 2028 2028 2028 2028 2028 2028 2028 2028 2028 2028 2028 2028 2028 2028 2028 2040 2040 2040 2040 2040 2028 2028 2028 2028 2028 2028 2040 2040 2028 2028 2028 2028 2040 2040 2040 2040 2040 2040 2040 2040 2040 2040 2040 2040 2040 2040 2040 2040 2040 2053 2053 2053 2053 2053 2053 2053 2053 2053 2053 2053 2053 2053 2065 2065 2065 2065 2065 2065 2065 2065 2065 2065 2065 2078 2078 2090 1843 1843 1853 1863 1863 1863 1863 1863 1873 1873 1873 1883 1894 1904 1915 1970 1981 2005 2005 2028 2028 2040 2040 2053 2065 2065 2078 2078 2078 2078 2078 2078 2078 2078 2078 2078 2078 2078 2078 2078 2078 2078 2078 2078 2078 2078 2078 2090 2090 2090 2090 2090 2090 2090 2090 2090 2090 2090 2090 2090 2090 2090 2090 2090 2090 2090 2090 2090 2090 2103 1739 1739 1739 1739 1739 1731 1731 1731 1731 1731 1731 1739 1739 1739 1739 1739 1739 1739 1739 1739 1804 1813 1823 1823 1833 1833 1843 1843 1843 1843 1853 1853 1853 1853 1873 1873 1883 1883 1883 1883 1883 1883 1883 1594 1586 1586 1579 1579 1579 1579 1579 1586 1586 1586 1586 1594 1601 1601 1609 1609 1601 1601 2090 2103 2116 2116 2116 2103 2103 2103 2103 2103 2103 2103 2129 1833 1833 1833 1843 1843 1843 1843 1853 1853 1863 1873 1873 1873 1883 1883 1993 1981 1981 1981 1981 1981 1981 1993 1993 2005 2016 2053 2090 2090 2116 2116 2116 2116 2116 2116 2103 2103 2103 2103 2116 2116 2116 2129 2129 2129 2129 2129 2116 2116 2116 2116 2116 2103 2103 2078 2065 2065 2053 2053 2040 2040 2040 1439 1439 1439 1439 1439 1439 1433 1433 1433 1433 1433 1433 1433 1439 1439 1439 1445 1445 1445 1439 1439 1445 2116 2129 2129 2143 2143 2143 2143 2143 2143 2143 2143 2129 2129 2143 2143 2143 2129 2129 2129 2129 2129 2129 2143 2143 2143 2143 1794 1794 1794 1794 1794 1794 1794 1794 1794 1794 1794 1794 1794 1785 1776 1776 2116 2116 2129 2129 2129 2129 2129 2129 2129 2129 2129 2129 2129 2129 2129 2129 2129 2129 2129 2129 2129 2129 2129 2129 2116 2116 2129 1843 1843 1843 1843 1843 1843 1843 1843 1833 1833 1833 1833 1833 1833 1427 1427 1427 1421 1421 1421 1421 1421 1415 1415 1410 1410 1410 1410 1410 1410 1410 1410 1410 1410 1410 1410 1398 1398 1398 1392 1392 1392 2078 2078 2090 2090 2090 2090 2090 2090 2090 2090 2103 2103 2116 2116 2116 2116 2116 2116 2116 2129 2129 2129 2129 2129 2129 2129 2129 2129 2129 2129 2129 2129 2129 2129 2129 2129 2129 2129 2129 2129 2129 2129 2129 2129 2129 2129 2129 2129 2129 2143 2143 2143 2143 2129 2129 2129 2129 2129 2129 2129 2129 2129 2129 2129 2129 2129 2129 2129 2129 2129 2129 2129 2129 2143 2129 2129 2129 2116 2116 2116 2116 2116 2116 2116 2116 2116 2116 2116 2116 2116 2116 2116 2116 2116 2116 2116 2116 2116 2116 2116 2116 2116 2116 2116 2116 2116 2116 2116 2116 2116 2116 2129 2129 2129 2129 2129 2129 2129 2129 2129 2129 2129 2129 0 0 0 0 0 0 0 0 0
0 0 0 0 0 0 0 0 0 0 0 0 0 0 0 0 0 0 0 0 0 0 0 0 0 0 0 0 0 0 0 0 0 0 1993 1993 1993 2005 2005 2005 2005 2005 2005 2005 2005 2005 2005 2005 2016 2016 2016 2016 2016 2016 2016 2016 2016 2005 2005 2016 2016 2016 2016 2016 2016 2016 2016 2016 2016 2016 2005 2005 2016 2016 2016 2016 2016 2016 2005 2005 2005 2005 2005 2005 2005 2005 2005 2016 2016 2016 2016 2016 2016 2016 2028 2028 2028 2028 2028 2028 2028 2028 2028 2028 2028 2028 2028 2028 2028 2028 2016 2016 2016 2016 2016 2028 2028 2028 2028 2028 2028 2028 2028 2028 2028 2028 2028 2028 2028 2040 2040 2040 2040 2040 2040 2040 2040 2040 2040 2040 2040 2040 2053 2053 2053 2053 2053 2053 2053 2040 2040 2053 2053 2053 2053 2053 2053 2053 2053 2053 2053 2065 2053 2053 2053 2053 2040 2040 1843 1843 1853 1863 1863 1863 1863 1863 1873 1873 1873 1883 1894 1904 1915 1970 1981 1993 2005 2016 2016 2028 2040 2040 2053 2053 2065 2065 2065 2065 2065 2065 2078 2078 2078 2078 2078 2078 2078 2078 2078 2078 2078 2078 2078 2078 2078 2090 2090 2090 2090 2090 2090 2090 2078 2078 2078 2078 2078 2078 2078 2090 2090 2090 2090 2090 2090 2090 2090 2090 1739 1739 1739 1739 1739 1731 1731 1731 1731 1731 1731 1739 1739 1739 1739 1748 1748 1757 1766 1785 1804 1813 1823 1823 1833 1833 1843 1843 1843 1843 1853 1853 1853 1853 1863 1873 1883 1883 1883 1883 1883 1883 1883 1601 1586 1586 1579 1579 1579 1579 1579 1586 1586 1586 1594 1594 1601 1601 1609 1609 1609 1609 2090 2090 2103 2103 2103 2103 2090 2090 2090 2090 2090 2090 1823 1823 1833 1833 1843 1843 1843 1843 1853 1853 1853 1853 1873 1873 1883 2028 1993 1993 1993 1993 1993 1993 1993 1993 2005 2016 2040 2065 2090 2090 2103 2103 2103 2103 2103 2103 2103 2103 2103 2103 2116 2116 2116 2116 2116 2116 2116 2116 2116 2116 2116 2116 2103 2103 2090 2078 2078 2065 2053 2053 2040 2040 2040 1439 1439 1439 1439 1439 1439 1433 1433 1433 1433 1433 1433 1433 1439 1439 1439 1445 1445 1445 1445 1445 1445 2116 2116 2129 2129 2143 2143 2143 2143 2143 2129 2129 2129 2129 2129 2129 2129 2116 2116 2116 2116 2116 2116 2116 2143 2143 2143 1794 1794 1794 1794 1794 1794 1794 1794 1794 1794 1794 1794 1794 1785 1776 1776 2116 2116 2129 2129 2129 2129 2129 2129 2129 2129 2129 2129 2116 2116 2129 2129 2129 2129 2129 2129 2129 2116 2116 2116 2116 2116 1853 1853 1853 1853 1853 1853 1853 1843 1843 1843 1843 1833 1833 1843 1427 1427 1421 1421 1421 1421 1421 1421 1421 1415 1415 1410 1410 1410 1410 1410 1410 1410 1410 1410 1410 1410 1410 1398 1398 1398 1392 1392 1392 2078 2078 2090 2090 2090 2090 2090 2090 2090 2090 2103 2103 2103 2103 2103 2103 2103 2103 2116 2116 2116 2129 2129 2129 2129 2129 2129 2129 2129 2129 2129 2129 2129 2129 2129 2129 2129 2129 2129 2129 2129 2129 2129 2129 2129 2129 2129 2129 2129 2129 2129 2129 2129 2129 2129 2129 2129 2129 2129 2129 2129 2129 2129 2129 2129 2129 2129 2129 2129 2129 2129 2129 2129 2129 2129 2129 2129 2116 2116 2116 2116 2116 2103 2103 2103 2103 2103 2103 2103 2103 2116 2116 2116 2116 2116 2116 2116 2116 2103 2103 2103 2103 2103 2103 2090 2090 2090 2090 2090 2090 2090 2116 2116 2116 2116 2116 2129 2129 2129 2129 2129 2129 2116 2116 0 0 0 0 0 0 0 0
0 0 0 0 0 0 0 0 0 0 0 0 0 0 0 0 0 0 0 0 0 0 0 0 0 0 0 0 0 0 0 0 0 0 1993 1993 1993 1993 1993 1993 2005 2005 2005 2005 2005 2005 2005 2005 2016 2016 2016 2016 2016 2016 2016 2005 2005 2005 2005 2005 2005 2005 2005 2005 2005 2005 2005 2016 2016 2016 2005 2005 2005 2005 2005 2016 2005 2005 2005 1993 1993 2005 2005 2005 2005 2005 2005 2005 2016 2016 2016 2016 2016 2016 2016 2016 2016 2016 2016 2016 2016 2028 2028 2028 2028 2028 2028 2016 2016 2016 2016 2016 2016 2016 2016 2016 2016 2028 2028 2028 2028 2028 2016 2016 2028 2028 2016 2016 2028 2028 2028 2028 2028 2028 2028 2028 2040 2040 2028 2028 2040 2040 2040 2040 2040 2040 2040 2040 2040 2040 2040 2053 2053 2053 2053 2053 2053 2053 2053 2053 2053 2053 2053 2040 2040 2040 2040 2040 2040 1863 1863 1863 1863 1863 1863 1863 1873 1873 1873 1883 1894 1904 1915 1970 1981 1981 2005 2016 2016 2028 2028 2040 2040 2040 2053 2053 2053 2053 2053 2065 2065 2065 2065 2065 2065 2065 2065 2065 2065 2065 2065 2065 2065 2065 2078 2078 2078 2078 2078 2078 2078 2078 2078 2078 2078 2078 2078 2078 2078 2078 2078 2078 2078 2078 2090 2090 2090 2090 1739 1739 1739 1739 1739 1731 1731 1731 1731 1731 1731 1739 1739 1739 1748 1748 1757 1766 1776 1794 1804 1813 1823 1823 1833 1833 1833 1843 1843 1843 1853 1853 1853 1853 1863 1873 1873 1883 1883 1883 1883 1883 1609 1601 1586 1586 1586 1579 1579 1579 1579 1586 1586 1586 1594 1601 1601 1601 1609 1609 1609 1609 2078 2090 2090 2090 2090 2090 2090 2078 2078 2078 2090 1823 1823 1823 1833 1833 1833 1843 1843 1843 1843 1853 1853 1853 1853 1873 2040 2028 1993 1993 1993 1993 1993 1993 1993 2005 2005 2016 2040 2053 2065 2065 2103 2103 2103 2103 2090 2090 2090 2090 2090 2103 2103 2103 2103 2103 2116 2116 2116 2116 2116 2116 2116 2116 2103 2103 2090 2078 2078 2065 2065 2053 2040 2040 2040 1433 1433 1433 1439 1439 1439 1433 1433 1433 1433 1433 1433 1439 1439 1439 1439 1445 1445 1445 1439 1439 1439 2116 2116 2116 2116 2129 2129 2129 2129 2129 2129 2129 2129 2129 2129 2129 2129 2116 2116 2116 2116 2116 2116 2116 2116 2116 2116 1794 1794 1794 1794 1804 1794 1794 1794 1794 1794 1794 1794 1785 1785 1776 1776 2103 2103 2116 2116 2116 2116 2116 2116 2116 2116 2116 2116 2116 2116 2116 2116 2116 2116 2116 2116 2116 2116 2116 2116 2116 2116 1853 1853 1853 1853 1853 1853 1853 1853 1843 1843 1843 1833 1833 1833 1427 1427 1421 1421 1421 1421 1421 1421 1421 1421 1415 1410 1410 1410 1410 1410 1410 1410 1410 1410 1410 1410 1410 1398 1398 1398 1392 1392 2078 2078 2078 2078 2090 2090 2090 2090 2090 2090 2090 2090 2103 2103 2103 2103 2103 2103 2103 2103 2116 2116 2116 2116 2116 2116 2116 2116 2116 2116 2116 2116 2116 2116 2116 2116 2116 2129 2129 2129 2129 2129 2129 2129 2129 2129 2129 2129 2129 2129 2129 2129 2129 2129 2129 2129 2129 2129 2129 2116 2116 2116 2116 2116 2116 2116 2116 2116 2116 2129 2116 2116 2116 2116 2116 2116 2116 2116 2103 2103 2103 2103 2103 2103 2103 2103 2103 2103 2103 2103 2103 2103 2103 2103 2103 2103 2103 2103 2103 2103 2103 2090 2090 2103 2090 2090 2090 2078 2078 2078 2078 2078 2090 2090 2090 2090 2090 2090 2090 2090 2103 2103 2090 2090 2103 0 0 0 0 0 0 0 0
0 0 0 0 0 0 0 0 0 0 0 0 0 0 0 0 0 0 0 0 0 0 0 0 0 0 0 0 0 0 0 0 0 0 1993 1993 1993 1993 1993 1993 1993 1993 1993 2005 2005 2005 2005 2005 2005 2005 2005 2005 2005 2005 2005 2005 2005 2005 2005 2005 2005 2005 2005 2005 2005 2005 2005 2005 2005 2005 1993 1993 2005 2005 2005 2005 2005 2005 1993 1993 1993 1993 1993 1993 1993 2005 2005 2005 2005 2005 2005 2005 2005 2005 2016 2016 2005 2005 2005 2016 2016 2016 2016 2016 2016 2016 2016 2005 2005 2005 2005 2005 2005 2005 2005 2005 2005 2016 2016 2016 2016 2016 2016 2016 2028 2028 2016 2016 2016 2016 2028 2028 2028 2028 2028 2028 2028 2028 2028 2028 2028 2040 2040 2040 2040 2040 2040 2040 2040 2040 2040 2040 2040 2040 2040 2040 2040 2040 2040 2040 2040 2040 2040 2040 2040 2040 2040 2040 2040 1863 1863 1863 1863 1863 1863 1863 1873 1873 1873 1883 1894 1904 1926 1970 1981 1981 2005 2016 2016 2028 2028 2040 2040 2040 2040 2040 2040 2040 2040 2040 2053 2053 2065 2065 2065 2065 2065 2065 2065 2065 2065 2065 2065 2065 2065 2065 2078 2078 2078 2078 2078 2065 2065 2065 2065 2065 2065 2065 2078 2078 2078 2078 2078 2078 2078 2078 2078 2090 1739 1739 1739 1739 1739 1731 1731 1731 1731 1731 1739 1739 1739 1739 1748 1748 1757 1766 1785 1794 1804 1804 1813 1813 1823 1823 1833 1833 1843 1843 1843 1853 1853 1853 1863 1873 1873 2078 2078 2090 2090 1609 1609 1594 1586 1586 1586 1579 1579 1586 1586 1586 1586 1594 1594 1601 1601 1609 1609 1609 1609 1609 2078 2078 2078 2078 2078 2090 2078 2078 2078 2078 2078 1823 1823 1823 1833 1833 1833 1843 1843 1843 1843 1843 1853 1853 1853 2053 2028 2028 2005 2005 2005 2005 1993 1993 1993 2005 2005 2028 2040 2053 2065 2065 2090 2090 2090 2090 2078 2078 2090 2090 2090 2090 2090 2090 2103 2103 2103 2103 2103 2103 2078 2078 2103 2090 2090 2090 2078 2078 2078 2065 2065 2053 2053 2053 2053 1433 1433 1433 1439 1439 1439 1433 1433 1433 1433 1433 1433 1439 1439 1439 1439 1445 1445 1445 1439 1439 1439 2103 2103 2116 2116 2116 2116 2116 2116 2129 2129 2129 2129 2129 2129 2116 2116 2103 2103 2103 2103 2103 2103 2103 2116 2116 2116 1794 1794 1794 1804 1804 1794 1794 1794 1794 1794 1794 1785 1785 1776 1766 1766 2103 2103 2103 2103 2103 2103 2103 2103 2103 2103 2103 2103 2103 2103 2103 2103 2103 2103 2103 2103 2103 2103 2116 2103 2103 2103 1853 1853 1853 1853 1853 1853 1853 1853 1853 1843 1843 1843 1843 1427 1427 1427 1427 1427 1427 1421 1421 1421 1421 1421 1415 1415 1410 1410 1410 1410 1410 1410 1410 1410 1410 1410 1410 1398 1398 1398 1398 1398 2078 2078 2078 2078 2090 2090 2090 2090 2090 2090 2090 2090 2090 2090 2090 2090 2090 2103 2103 2103 2103 2116 2116 2116 2116 2116 2116 2116 2116 2116 2116 2103 2103 2103 2103 2103 2116 2116 2116 2116 2116 2116 2116 2116 2116 2116 2116 2116 2129 2129 2116 2116 2129 2129 2116 2116 2116 2116 2116 2116 2116 2103 2103 2103 2103 2103 2103 2103 2116 2116 2116 2116 2116 2116 2116 2116 2116 2116 2103 2090 2090 2090 2103 2103 2103 2090 2090 2090 2090 2090 2090 2103 2090 2090 2103 2090 2090 2090 2090 2090 2090 2078 2078 2090 2078 2078 2078 2078 2078 2078 2078 2078 2078 2078 2090 2090 2090 2090 2090 2090 2090 2090 2090 2090 2090 0 0 0 0 0 0 0 0
0 0 0 0 0 0 0 0 0 0 0 0 0 0 0 0 0 0 0 0 0 0 0 0 0 0 0 0 0 0 0 0 0 0 1981 1981 1981 1981 1993 1993 1993 1993 1993 1993 1993 1993 2005 2005 2005 2005 2005 2005 2005 2005 2005 1993 1993 1993 1993 1993 1993 2005 2005 2005 2005 2005 2005 2005 2005 2005 1981 1981 1993 1993 1993 1993 1993 1993 1993 1993 1993 1993 1993 1993 1993 1993 1993 2005 2005 2005 2005 2005 2005 2005 2005 2005 2005 2005 2005 2005 2005 2005 2016 2016 2005 2005 2005 2005 2005 2005 2005 2005 2005 2005 2005 2005 2005 2005 2005 2016 2016 2016 2016 2016 2016 2016 2005 2005 2016 2016 2016 2016 2016 2016 2028 2028 2028 2028 2016 2016 2028 2028 2028 2040 2040 2040 2040 2040 2040 2028 2028 2040 2040 2040 2040 2040 2040 2040 2040 2040 2040 2040 2040 2040 2028 2028 2028 2028 2028 1863 1863 1863 1863 1863 1863 1863 1873 1873 1873 1883 1894 1904 1915 1926 1981 1981 2005 2016 2016 2028 2028 2040 2040 2040 2040 2040 2040 2040 2040 2040 2040 2040 2053 2053 2053 2053 2053 2053 2053 2053 2053 2065 2053 2053 2065 2065 2065 2065 2065 2065 2065 2053 2053 2065 2065 2053 2053 2053 2065 2065 2078 2078 2078 2078 2078 2078 2078 2090 1739 1739 1739 1739 1739 1739 1731 1731 1731 1739 1739 1739 1739 1739 1748 1766 1766 1776 1785 1794 1804 1804 1813 1813 1823 1823 1833 1833 1843 1843 1843 1853 1853 1853 1853 1883 2065 2065 2065 2078 2078 1609 1609 1586 1586 1586 1586 1586 1586 1586 1586 1586 1594 1594 1594 1601 1601 1609 1609 1609 1609 1609 2065 2065 2078 2078 2078 2078 2078 2078 2078 2078 1813 1813 1813 1823 1823 1823 1833 1833 1833 1843 1843 1843 1853 1853 1853 2053 2028 2028 2005 2005 2005 2005 1993 1993 1993 2005 2016 2016 2028 2053 2053 2065 2065 2065 2065 2078 2078 2078 2078 2078 2078 2078 2078 2078 2090 2090 2090 2090 2090 2103 2078 2078 2090 2090 2078 2078 2078 2078 2065 2065 2065 2053 2053 2053 2053 1433 1433 1433 1439 1439 1439 1439 1433 1433 1433 1433 1433 1439 1439 1445 1445 1445 1452 1452 1445 1445 2103 2103 2103 2103 2116 2116 2116 2116 2116 2116 2116 2116 2116 2116 2116 2116 2116 2103 2103 2103 2103 2103 2103 2103 2103 2103 2103 2103 1794 1794 1804 1804 1794 1794 1794 1794 1794 1794 1785 1785 1776 1766 1766 2090 2090 2103 2103 2103 2103 2103 2103 2103 2103 2103 2103 2103 2103 2103 2103 2103 2103 2103 2103 2103 2103 2103 2103 2103 2103 1853 1853 1853 1853 1853 1853 1853 1853 1853 1843 1843 1843 1843 1427 1427 1427 1427 1427 1427 1427 1427 1427 1427 1421 1421 1415 1410 1410 1410 1410 1410 1410 1410 1410 1410 1410 1410 1404 1404 1398 1398 2078 2090 2078 2078 2078 2090 2090 2090 2090 2090 2090 2090 2090 2090 2090 2090 2090 2090 2090 2103 2103 2103 2103 2103 2103 2103 2103 2103 2103 2103 2103 2103 2103 2103 2103 2103 2103 2103 2103 2103 2103 2103 2103 2103 2103 2103 2103 2103 2103 2116 2116 2116 2116 2116 2116 2116 2116 2116 2116 2116 2116 2103 2103 2103 2103 2103 2103 2103 2103 2103 2103 2103 2103 2103 2103 2103 2103 2103 2103 2090 2090 2090 2090 2090 2090 2090 2090 2090 2090 2090 2090 2090 2090 2090 2090 2090 2090 2090 2090 2078 2078 2078 2078 2078 2078 2078 2078 2078 2078 2078 2078 2078 2078 2078 2078 2078 2078 2078 2078 2078 2078 2078 2078 2078 2078 2078 0 0 0 0 0 0 0 0
0 0 0 0 0 0 0 0 0 0 0 0 0 0 0 0 0 0 0 0 0 0 0 0 0 0 0 0 0 0 0 0 0 0 1981 1981 1981 1981 1981 1981 1981 1993 1993 1993 1993 1993 1993 2005 2005 2005 2005 2005 2005 2005 2005 1993 1993 1993 1993 1993 1993 1993 1993 1993 1993 1993 1993 1993 1993 1993 1981 1981 1981 1981 1981 1981 1981 1981 1981 1993 1993 1993 1993 1993 1993 1993 1993 1993 1993 1993 2005 2005 2005 2005 2005 1993 1993 1993 1993 1993 1993 1993 2005 2005 2005 1993 1993 1993 1993 1993 1993 2005 2005 2005 2005 2005 2005 2005 2005 2005 2005 2005 2016 2016 2005 2005 2005 2005 2005 2005 2016 2016 2016 2016 2016 2016 2016 2016 2005 2005 2016 2016 2016 2028 2028 2028 2028 2040 2028 2028 2028 2028 2028 2016 2016 2028 2028 2028 2028 2028 2028 2028 2028 2028 2028 2028 2028 2028 2028 1873 1873 1873 1873 1863 1863 1873 1873 1873 1883 1883 1894 1904 1915 1926 1981 1993 2005 2016 2028 2028 2028 2028 2028 2040 2040 2040 2040 2040 2040 2040 2040 2040 2040 2040 2040 2053 2053 2053 2053 2053 2053 2053 2053 2053 2053 2053 2053 2053 2053 2053 2053 2053 2053 2053 2053 2053 2053 2053 2065 2065 2065 2065 2065 2065 2078 2078 2078 2078 1739 1739 1739 1739 1739 1739 1739 1731 1731 1739 1739 1739 1739 1739 1748 1766 1766 1776 1785 1794 1804 1804 1813 1813 1823 1823 1833 1833 1843 1843 1843 1853 1853 1853 1853 2053 2053 2053 2053 2065 2065 1609 1609 1586 1586 1586 1586 1586 1586 1586 1586 1586 1594 1594 1601 1601 1601 1609 1609 1609 1616 2065 2065 2065 2078 2078 2078 2078 2078 2078 2078 2078 1813 1813 1813 1823 1823 1823 1823 1833 1833 1843 1843 1843 1843 1843 1843 2053 2040 2028 1993 1993 1993 2005 2005 1993 1993 2005 2005 2016 2028 2040 2053 2053 2065 2065 2065 2065 2065 2065 2065 2065 2078 2078 2065 2065 2078 2078 2078 2065 2065 2078 2078 2065 2065 2078 2065 2065 2065 2065 2065 2065 2053 2053 2053 2053 2053 1439 1439 1439 1439 1439 1439 1439 1439 1439 1439 1433 1433 1439 1439 1445 1452 1452 1452 1458 1452 1445 1445 2103 2103 2103 2103 2103 2103 2103 2103 2103 2103 2103 2103 2103 2103 2103 2103 2090 2090 2090 2090 2090 2090 2103 2103 2103 2103 2103 1794 1794 1794 1804 1794 1794 1794 1794 1794 1794 1785 1785 1776 1757 1757 2090 2090 2090 2090 2090 2103 2103 2103 2103 2103 2103 2103 2103 2103 2103 2090 2090 2103 2103 2103 2103 2103 2103 2103 2103 2103 1863 1863 1853 1853 1853 1853 1853 1853 1853 1843 1843 1843 1843 1427 1427 1427 1427 1427 1427 1427 1427 1427 1427 1421 1421 1415 1410 1410 1410 1410 1410 1410 1410 1410 1410 1410 1410 1404 1404 1398 1398 2078 2078 2078 2078 2078 2090 2090 2090 2090 2090 2090 2090 2090 2090 2090 2090 2090 2090 2090 2090 2090 2090 2103 2103 2103 2103 2103 2090 2090 2090 2090 2090 2090 2090 2090 2090 2090 2090 2090 2090 2090 2090 2090 2090 2090 2090 2090 2090 2090 2103 2103 2116 2116 2116 2116 2116 2116 2116 2103 2103 2103 2103 2090 2090 2090 2090 2090 2090 2090 2090 2103 2103 2103 2090 2090 2090 2090 2103 2103 2090 2078 2078 2078 2078 2078 2078 2078 2078 2078 2078 2078 2078 2078 2078 2078 2078 2078 2078 2078 2065 2065 2065 2065 2065 2065 2065 2065 2065 2065 2065 2065 2065 2078 2078 2078 2065 2065 2065 2065 2065 2078 2078 2078 2078 2078 2078 0 0 0 0 0 0 0 0
0 0 0 0 0 0 0 0 0 0 0 0 0 0 0 0 0 0 0 0 0 0 0 0 0 0 0 0 0 0 0 0 0 0 1981 1981 1981 1981 1981 1981 1981 1981 1981 1981 1981 1981 1981 1993 1993 1993 1993 1993 2005 1993 1993 1970 1970 1981 1981 1993 1993 1993 1993 1993 1993 1993 1993 1981 1981 1981 1970 1970 1970 1970 1970 1981 1981 1981 1981 1981 1981 1981 1981 1981 1981 1993 1993 1993 1993 1993 1993 1993 1993 1993 1993 1981 1981 1981 1993 1993 1981 1981 1993 1993 1993 1993 1981 1981 1993 1993 1993 2005 2005 2005 2005 2005 2005 2005 2005 2005 2005 2005 2005 2005 2005 2005 1993 1993 2005 2005 2005 2005 2005 2016 2016 2016 2016 2016 2005 2005 2016 2016 2016 2016 2016 2016 2028 2028 2028 2028 2028 2028 2028 2016 2016 2016 2005 2005 2016 2016 2016 2016 2028 2028 2028 2028 2028 2028 2028 2028 1873 1873 1863 1863 1863 1863 1873 1873 1883 1883 1894 1904 1915 1936 1970 1993 2005 2016 2028 2028 2028 2028 2028 2040 2040 2040 2040 2028 2028 2040 2040 2040 2040 2040 2040 2040 2040 2040 2040 2040 2040 2040 2040 2040 2040 2040 2040 2053 2053 2053 2053 2053 2053 2053 2053 2053 2053 2053 2053 2053 2053 2065 2065 2065 2065 2065 2065 2065 1739 1739 1739 1739 1739 1739 1739 1739 1739 1739 1739 1739 1739 1748 1766 1766 1766 1776 1785 1794 1804 1804 1813 1813 1813 1823 1833 1833 1833 1843 1843 1843 1843 2053 2053 2053 2053 2053 2053 2053 2053 1609 1609 1586 1586 1586 1586 1586 1586 1586 1586 1586 1594 1594 1601 1601 1601 1609 1609 1609 1616 2065 2065 2065 2065 2065 2065 2078 2078 2078 2078 2078 1813 1813 1813 1813 1823 1823 1823 1833 1833 1833 1843 1843 1843 1843 1843 2053 2040 2028 1993 1993 1993 2005 2005 2005 2005 2005 2005 2016 2016 2028 2040 2053 2053 2065 2065 2065 2065 2065 2065 2065 2065 2065 2065 2065 2065 2065 2065 2065 2065 2065 2065 2065 2065 2065 2065 2065 2065 2065 2065 2065 2053 2053 2053 2053 2053 1439 1439 1439 1439 1439 1439 1439 1439 1439 1439 1439 1439 1445 1445 1452 1452 1458 1458 1458 1458 1445 1445 2090 2090 2103 2103 2103 2103 2103 2103 2103 2103 2103 2103 2103 2103 2103 2103 2090 2090 2090 2090 2090 2090 2090 2090 2090 2090 2090 2090 1794 1794 1804 1794 1794 1794 1794 1794 1794 1785 1785 1776 1757 1757 2090 2090 2090 2090 2090 2090 2090 2090 2090 2090 2103 2103 2090 2090 2090 2090 2090 2090 2090 2090 2090 2090 2090 2090 2090 2103 1863 1863 1853 1853 1853 1853 1853 1853 1853 1843 1843 1843 1843 1427 1427 1427 1427 1427 1427 1427 1427 1427 1427 1421 1421 1415 1415 1415 1410 1410 1410 1410 1410 1410 1410 1410 1410 1404 1404 1404 2078 2078 2078 2078 2078 2078 2078 2078 2090 2090 2078 2078 2090 2090 2090 2090 2078 2078 2078 2090 2090 2090 2090 2090 2090 2090 2090 2090 2078 2078 2090 2090 2090 2090 2090 2090 2090 2090 2090 2090 2090 2090 2090 2090 2090 2090 2090 2090 2090 2090 2090 2090 2103 2103 2103 2103 2103 2103 2103 2103 2103 2090 2090 2090 2090 2090 2090 2090 2090 2090 2090 2090 2090 2090 2090 2090 2090 2090 2090 2090 2078 2078 2078 2078 2078 2078 2078 2078 2065 2065 2078 2078 2078 2065 2065 2065 2078 2065 2065 2065 2065 2065 2065 2065 2065 2065 2065 2065 2065 2065 2065 2065 2065 2065 2065 2065 2065 2065 2065 2065 2065 2065 2078 2078 2078 2078 2078 0 0 0 0 0 0 0 0
0 0 0 0 0 0 0 0 0 0 0 0 0 0 0 0 0 0 0 0 0 0 0 0 0 0 0 0 0 0 0 0 0 0 1970 1970 1970 1970 1970 1981 1981 1981 1981 1981 1981 1981 1981 1981 1981 1981 1981 1981 1993 1970 1970 1970 1970 1970 1970 1981 1981 1981 1970 1970 1981 1981 1981 1981 1981 1981 1959 1959 1970 1970 1970 1970 1970 1970 1970 1981 1981 1981 1981 1981 1981 1981 1981 1993 1981 1981 1981 1981 1981 1981 1981 1981 1981 1981 1981 1981 1981 1981 1981 1981 1981 1981 1981 1981 1981 1993 1993 1993 1993 1993 1993 1993 1993 2005 2005 2005 2005 2005 2005 2005 1993 1993 1993 1993 1993 1993 2005 2005 2005 2005 2005 2005 2016 2016 2005 2005 2005 2016 2016 2016 2016 2005 2005 2016 2016 2016 2016 2028 2016 2005 2005 2016 2005 2005 2005 2005 2005 2016 2016 2016 2016 2016 2016 2016 2016 2028 1863 1863 1863 1863 1863 1863 1873 1873 1883 1883 1894 1904 1915 1926 1970 1993 2005 2016 2016 2028 2028 2028 2028 2028 2028 2028 2028 2028 2028 2040 2040 2040 2040 2040 2040 2040 2040 2040 2040 2040 2040 2040 2040 2028 2028 2028 2028 2040 2040 2040 2040 2040 2040 2053 2053 2053 2040 2040 2040 2053 2053 2053 2053 2053 2053 2053 2065 2053 2053 1739 1739 1739 1739 1739 1739 1739 1739 1739 1739 1739 1739 1748 1748 1766 1776 1776 1785 1794 1804 1804 1813 1813 1813 1813 1813 1813 1813 1833 1833 1843 1843 2053 2053 2053 2053 2053 2053 2053 2053 1601 1601 1586 1586 1586 1586 1586 1586 1586 1586 1586 1594 1601 1601 1601 1601 1609 1609 1609 1616 2053 2053 2053 2053 2065 2065 2065 2078 2078 2078 2078 1813 1813 1813 1813 1813 1813 1813 1813 1833 1833 1833 1833 1833 1833 2040 2040 2028 2016 1993 1993 1993 2005 2005 2005 2005 2005 2005 2016 2016 2028 2040 2040 2053 2065 2065 2065 2065 2065 2065 2065 2065 2065 2065 2065 2065 2065 2065 2065 2065 2065 2065 2065 2065 2065 2065 2065 2065 2065 2065 2065 2053 2053 2053 2053 1439 1439 1439 1439 1439 1439 1439 1439 1439 1439 1439 1439 1439 1445 1452 1458 1458 1458 1458 1458 1458 2078 2078 2090 2090 2090 2090 2090 2090 2090 2090 2090 2090 2090 2090 2103 2103 2103 2103 2090 2090 2090 2090 2090 2090 2090 2090 2078 2078 2078 2078 1804 1804 1804 1804 1794 1794 1794 1794 1794 1785 1785 1776 1757 1757 2078 2078 2078 2078 2078 2078 2090 2090 2090 2090 2090 2090 2090 2090 2090 2090 2090 2090 2090 2090 2090 2090 2090 2090 2090 1863 1863 1863 1853 1853 1853 1853 1853 1853 1853 1843 1843 1843 1843 1427 1427 1427 1427 1427 1427 1427 1427 1427 1427 1421 1421 1415 1415 1415 1410 1410 1410 1410 1410 1410 1410 1410 1410 1404 1404 1404 2078 2078 2078 2078 2078 2078 2078 2078 2078 2078 2078 2078 2078 2078 2078 2078 2078 2078 2078 2078 2078 2078 2078 2078 2078 2078 2078 2078 2078 2078 2078 2078 2078 2078 2078 2090 2090 2090 2090 2090 2090 2090 2090 2090 2090 2090 2078 2078 2078 2078 2078 2090 2090 2090 2103 2103 2090 2090 2090 2090 2090 2090 2090 2090 2090 2090 2090 2090 2090 2090 2090 2090 2090 2090 2090 2090 2090 2090 2090 2090 2078 2078 2078 2078 2078 2078 2078 2065 2065 2065 2065 2065 2065 2065 2065 2065 2065 2065 2065 2065 2065 2065 2065 2065 2065 2065 2053 2053 2053 2065 2065 2065 2065 2065 2065 2065 2065 2065 2065 2065 2065 2065 2065 2065 2065 2065 2065 0 0 0 0 0 0 0 0
0 0 0 0 0 0 0 0 0 0 0 0 0 0 0 0 0 0 0 0 0 0 0 0 0 0 0 0 0 0 0 0 0 0 1970 1970 1970 1970 1970 1970 1981 1981 1970 1970 1970 1970 1970 1970 1970 1970 1970 1970 1970 1970 1970 1970 1970 1970 1970 1981 1981 1981 1970 1970 1981 1981 1970 1970 1970 1970 1959 1959 1959 1959 1959 1970 1970 1970 1970 1970 1970 1970 1970 1970 1970 1970 1970 1970 1970 1970 1970 1970 1981 1981 1981 1970 1970 1970 1970 1970 1981 1981 1981 1981 1981 1981 1981 1981 1981 1981 1981 1993 1993 1993 1993 1993 1993 2005 2005 1993 1993 1993 1993 1993 1993 1993 1993 1993 1993 1993 1993 2005 2005 2005 2005 2005 2005 2005 2005 2005 2005 2005 2005 2005 2005 2005 2005 2005 2005 2005 2005 2016 2005 2005 2005 2005 1993 1993 1993 1993 2005 2005 2016 2005 2005 2005 2005 2005 2005 2005 1863 1863 1863 1863 1863 1863 1873 1873 1883 1883 1894 1904 1915 1926 1970 1981 2005 2005 2016 2016 2028 2028 2028 2028 2028 2028 2028 2028 2028 2028 2028 2028 2028 2028 2028 2040 2040 2040 2040 2040 2040 2028 2028 2028 2028 2028 2028 2040 2040 2040 2040 2040 2040 2040 2040 2040 2040 2040 2040 2040 2040 2040 2040 2040 2053 2053 2053 2053 2053 1739 1739 1739 1748 1739 1739 1739 1739 1739 1739 1739 1739 1748 1748 1766 1776 1776 1794 1794 1804 1804 1813 1813 1804 1804 1813 1813 1813 1833 1833 2028 2040 2053 2040 2040 2040 2040 2040 2040 2040 1601 1601 1586 1586 1586 1586 1586 1586 1586 1586 1594 1594 1601 1601 1601 1601 1609 1609 1609 1616 2040 2040 2040 2040 2053 2065 2065 2065 2065 2065 1804 1804 1804 1804 1813 1813 1813 1813 1813 1833 1833 1833 1833 1833 1833 2040 2040 2028 2016 2005 2005 2005 2005 2005 2005 2005 2005 2005 2016 2016 2028 2028 2040 2053 2053 2053 2053 2053 2065 2065 2065 2065 2065 2065 2065 2065 2053 2053 2053 2053 2053 2053 2065 2065 2065 2065 2065 2065 2065 2065 2053 2053 2053 2053 2053 1439 1439 1439 1439 1439 1439 1439 1439 1439 1439 1445 1445 1445 1445 1452 1458 1458 1464 1464 1458 1458 2078 2078 2078 2078 2078 2090 2078 2078 2090 2078 2078 2078 2078 2078 2078 2078 2090 2090 2078 2078 2078 2078 2078 2078 2078 2078 2078 2078 2078 1804 1804 1804 1804 1804 1794 1794 1794 1794 1794 1794 1785 1776 1776 2065 2065 2065 2065 2078 2078 2078 2078 2078 2078 2090 2090 2090 2090 2078 2078 2078 2078 2078 2065 2065 2078 2078 2078 2078 1863 1863 1863 1863 1853 1853 1853 1853 1843 1843 1853 1853 1853 1853 1853 1427 1427 1427 1427 1427 1427 1427 1427 1427 1427 1427 1421 1421 1421 1415 1415 1415 1410 1410 1410 1410 1410 1410 1410 1404 1404 2065 2065 2078 2078 2078 2078 2078 2065 2065 2065 2065 2065 2065 2078 2078 2078 2078 2078 2078 2078 2078 2078 2078 2078 2078 2078 2078 2065 2065 2065 2065 2065 2065 2078 2078 2078 2078 2090 2090 2090 2090 2090 2078 2078 2078 2078 2078 2078 2078 2078 2078 2078 2078 2078 2078 2078 2078 2078 2078 2078 2078 2078 2078 2078 2090 2090 2090 2090 2090 2090 2090 2090 2090 2090 2090 2090 2090 2090 2090 2090 2090 2078 2078 2078 2065 2065 2065 2065 2065 2065 2065 2065 2065 2065 2065 2065 2065 2065 2065 2065 2065 2065 2065 2065 2065 2053 2053 2053 2053 2053 2053 2053 2053 2053 2053 2053 2065 2065 2065 2065 2065 2065 2065 2065 2065 2065 2065 2065 0 0 0 0 0 0 0 0
0 0 0 0 0 0 0 0 0 0 0 0 0 0 0 0 0 0 0 0 0 0 0 0 0 0 0 0 0 0 0 0 0 0 1970 1959 1959 1970 1970 1970 1970 1970 1970 1970 1970 1970 1970 1970 1970 1970 1970 1970 1959 1959 1959 1959 1970 1970 1970 1970 1970 1970 1970 1970 1970 1970 1970 1970 1970 1970 1959 1959 1959 1959 1959 1959 1959 1959 1959 1959 1959 1970 1970 1970 1970 1970 1970 1959 1959 1959 1959 1959 1970 1970 1970 1970 1970 1970 1970 1970 1970 1970 1970 1970 1970 1970 1970 1970 1981 1981 1981 1981 1981 1993 1993 1993 1993 1993 1993 1993 1993 1993 1993 1993 1993 1993 1993 1993 1993 1993 1993 2005 2005 2005 2005 2005 2005 2005 1993 1993 2005 2005 2005 2005 2005 2005 2005 2005 2005 2005 2005 2005 2005 2005 2005 2005 1993 1993 1993 1993 1993 2005 2005 2005 2005 2005 1993 1993 1993 1993 1873 1873 1873 1863 1863 1873 1873 1873 1883 1894 1894 1904 1915 1915 1959 1981 2005 2005 2016 2016 2016 2016 2016 2028 2028 2028 2028 2028 2028 2028 2028 2028 2028 2028 2028 2028 2028 2028 2028 2040 2028 2028 2028 2028 2028 2028 2028 2028 2040 2040 2040 2040 2040 2040 2040 2040 2028 2028 2028 2040 2040 2040 2040 2040 2040 2040 2040 2040 2040 1731 1731 1739 1748 1739 1739 1739 1739 1739 1739 1739 1739 1748 1748 1766 1776 1776 1794 1794 1804 1804 1804 1813 1804 1804 1813 1823 1823 1833 2028 2028 2040 2040 2028 2028 2028 2028 2028 2040 2040 2040 1601 1594 1586 1586 1586 1586 1594 1586 1586 1594 1594 1601 1601 1601 1601 1609 1609 1609 2028 2028 2028 2028 2040 2040 2053 2053 2065 2065 1794 1794 1804 1804 1804 1813 1813 1813 1813 1813 1823 1823 1823 1833 2065 2053 2040 2040 2028 2028 2005 2005 2005 2005 2005 2005 2005 2005 2005 2016 2016 2028 2028 2040 2040 2053 2053 2053 2053 2053 2053 2053 2053 2053 2053 2053 2053 2053 2053 2053 2053 2053 2053 2053 2053 2065 2053 2053 2053 2053 2053 2053 2053 2053 2053 2053 1439 1439 1439 1439 1439 1439 1439 1439 1445 1445 1445 1445 1445 1452 1452 1458 1458 1464 1464 2065 2065 2065 2065 2065 2078 2078 2065 2065 2065 2078 2065 2065 2065 2065 2065 2065 2065 2078 2078 2078 2078 2078 2078 2078 2078 2065 2065 2065 2065 2065 1804 1804 1804 1804 1804 1804 1804 1794 1794 1794 1794 1794 1794 2065 2065 2065 2065 2065 2065 2065 2065 2078 2078 2078 2078 2078 2078 2078 2065 2065 2065 2065 2065 2053 2053 2065 2078 2078 2078 1863 1863 1863 1863 1853 1853 1853 1853 1843 1843 1853 1853 1853 1853 1427 1427 1427 1427 1427 1427 1427 1427 1427 1427 1427 1427 1427 1421 1421 1421 1415 1415 1415 1410 1410 1410 1410 1410 1410 1404 1404 2065 2065 2065 2065 2065 2065 2065 2053 2053 2053 2053 2053 2065 2065 2065 2078 2078 2078 2078 2078 2078 2078 2065 2065 2065 2065 2065 2053 2053 2053 2053 2065 2065 2065 2078 2078 2078 2078 2078 2078 2078 2078 2078 2078 2078 2078 2078 2078 2078 2078 2078 2078 2078 2078 2078 2065 2065 2065 2065 2078 2078 2078 2078 2078 2078 2078 2078 2078 2078 2078 2078 2078 2078 2078 2078 2078 2078 2078 2078 2078 2078 2065 2065 2065 2065 2065 2065 2065 2065 2053 2053 2065 2053 2053 2053 2053 2053 2053 2053 2053 2053 2053 2053 2053 2053 2053 2040 2040 2040 2040 2053 2053 2053 2053 2053 2053 2053 2053 2053 2053 2053 2053 2065 2065 2065 2065 2065 2065 0 0 0 0 0 0 0 0
0 0 0 0 0 0 0 0 0 0 0 0 0 0 0 0 0 0 0 0 0 0 0 0 0 0 0 0 0 0 0 0 0 0 1959 1959 1959 1959 1959 1959 1936 1936 1959 1959 1959 1959 1959 1959 1959 1959 1959 1947 1947 1959 1959 1959 1959 1959 1959 1959 1959 1959 1959 1959 1959 1959 1959 1959 1959 1959 1947 1947 1947 1947 1947 1947 1947 1947 1947 1959 1959 1959 1959 1959 1959 1959 1959 1959 1959 1959 1959 1959 1959 1959 1959 1959 1959 1959 1959 1959 1959 1959 1970 1970 1970 1970 1959 1959 1959 1959 1959 1981 1981 1981 1993 1993 1993 1993 1993 1981 1981 1981 1970 1970 1970 1981 1993 1993 1981 1981 1981 1993 1993 1993 1993 1993 1993 1993 1993 1993 1993 2005 2005 2005 2005 2005 2005 2005 2005 2005 2005 2005 2005 1993 1993 2005 1993 1993 1993 1993 1993 1993 2005 1993 1993 1993 1993 1993 1981 1981 1894 1883 1883 1873 1873 1873 1883 1883 1883 1894 1894 1904 1915 1915 1959 1981 1993 2005 2005 2005 2005 2005 2016 2016 2016 2016 2028 2028 2028 2028 2028 2028 2028 2028 2028 2028 2028 2028 2028 2028 2028 2016 2016 2016 2016 2016 2028 2028 2028 2040 2040 2040 2040 2040 2040 2028 2028 2028 2028 2028 2028 2028 2028 2028 2028 2028 2028 2028 2028 1731 1731 1739 1748 1739 1739 1739 1739 1739 1739 1739 1739 1748 1748 1766 1776 1785 1785 1794 1804 1804 1804 1804 1804 1813 1813 2040 2028 2028 2028 2028 2028 2028 2028 2028 2028 2016 2016 2028 2028 2028 1601 1594 1594 1594 1594 1594 1594 1594 1594 1594 1594 1601 1601 1609 1609 1609 1609 1609 2028 2028 2028 2028 2028 2028 2040 2040 1785 1785 1785 1794 1794 1794 1804 1804 1813 1813 1813 1813 1813 1823 1823 1833 2053 2040 2028 2028 2028 2028 2005 2005 2005 2005 2005 2005 2005 2005 2005 2016 2016 2016 2028 2028 2040 2040 2053 2053 2053 2053 2053 2053 2053 2053 2053 2053 2053 2053 2053 2053 2053 2053 2053 2053 2053 2053 2053 2053 2053 2053 2053 2053 2053 2053 2053 2053 1445 1445 1445 1439 1439 1439 1439 1439 1445 1445 1445 1445 1445 1452 1458 1458 1464 1464 1464 2053 2053 2053 2065 2065 2065 2065 2065 2065 2065 2065 2065 2065 2065 2065 2065 2065 2065 2065 2078 2065 2065 2053 2053 2065 2065 2065 2065 2065 2065 1785 1785 1794 1804 1804 1804 1804 1804 1804 1804 1804 1804 1794 1794 2053 2053 2053 2053 2053 2053 2053 2065 2065 2065 2065 2065 2065 2078 2065 2065 2065 2065 2065 2053 2053 2053 2065 2065 2078 2078 1863 1863 1863 1863 1853 1853 1853 1853 1853 1853 1853 1853 1853 1853 1427 1427 1427 1427 1427 1427 1427 1427 1427 1427 1427 1427 1427 1421 1421 1421 1421 1415 1415 1415 1415 1410 1410 1410 1410 1410 2078 2053 2053 2065 2065 2053 2053 2053 2053 2053 2053 2053 2053 2053 2053 2053 2065 2065 2065 2065 2065 2065 2053 2053 2053 2053 2053 2053 2040 2040 2040 2053 2053 2053 2065 2065 2065 2078 2078 2078 2078 2078 2078 2078 2078 2078 2078 2078 2078 2078 2078 2078 2078 2065 2065 2065 2053 2053 2053 2053 2053 2065 2065 2078 2078 2078 2078 2078 2078 2078 2065 2065 2065 2078 2078 2078 2078 2078 2065 2065 2078 2065 2053 2053 2065 2053 2053 2065 2065 2065 2053 2053 2053 2053 2053 2053 2053 2053 2053 2053 2053 2053 2053 2053 2040 2040 2040 2040 2040 2040 2040 2040 2040 2040 2040 2040 2040 2040 2040 2040 2053 2040 2040 2040 2053 2053 2053 2053 2053 0 0 0 0 0 0 0 0
0 0 0 0 0 0 0 0 0 0 0 0 0 0 0 0 0 0 0 0 0 0 0 0 0 0 0 0 0 0 0 0 0 0 1947 1947 1947 1947 1959 1959 1926 1926 1936 1959 1959 1959 1959 1959 1959 1959 1959 1947 1947 1959 1959 1959 1959 1959 1959 1959 1959 1959 1959 1959 1959 1959 1959 1959 1959 1959 1947 1947 1947 1947 1947 1947 1947 1947 1947 1947 1947 1959 1959 1947 1947 1947 1947 1947 1947 1947 1947 1947 1947 1947 1947 1947 1947 1947 1947 1947 1947 1959 1959 1959 1959 1959 1959 1947 1947 1959 1959 1959 1970 1970 1981 1981 1981 1970 1959 1959 1959 1970 1959 1959 1959 1959 1970 1981 1981 1981 1981 1993 1993 1993 1993 1993 1993 1993 1993 1993 1993 1993 1993 1993 1993 1993 1993 1993 1993 1993 1993 1993 1993 1993 1993 2005 1981 1981 1993 1993 1993 1993 1993 1993 1993 1993 1993 1981 1970 1970 1904 1894 1883 1873 1873 1883 1883 1883 1883 1894 1894 1904 1915 1915 1947 1981 1993 2005 2005 2005 2005 2005 2005 2005 2005 2016 2016 2016 2016 2016 2016 2028 2028 2028 2028 2016 2016 2028 2028 2016 2016 2005 2005 2016 2016 2016 2016 2028 2028 2028 2028 2028 2028 2028 2028 2028 2028 2028 2028 2028 2028 2028 2028 2028 2028 2028 2028 2028 2028 2040 1739 1739 1748 1739 1739 1739 1739 1739 1739 1739 1748 1748 1766 1766 1776 1776 1785 1794 1794 1804 1804 1804 1804 2040 2040 2028 2028 2028 2028 2028 2028 2028 2028 2028 2028 2016 2016 2028 2028 2028 1609 1594 1594 1594 1594 1594 1594 1594 1594 1594 1594 1601 1601 1609 1609 1609 1609 1609 2016 2016 2016 2016 2016 2028 2028 2028 1785 1785 1785 1785 1794 1794 1794 1804 1804 1813 1804 1804 1813 1813 2040 2040 2040 2028 2028 2028 2028 2028 2005 2005 2005 2005 2005 2005 2005 2005 2016 2016 2016 2016 2016 2028 2028 2040 2040 2040 2040 2040 2040 2040 2040 2040 2040 2040 2040 2040 2040 2053 2053 2053 2053 2053 2053 2053 2053 2053 2053 2053 2053 2053 2053 2053 2053 2053 1445 1445 1445 1445 1445 1445 1445 1445 1445 1445 1445 1452 1452 1452 1458 1458 1464 1470 1470 2053 2053 2053 2053 2053 2053 2053 2065 2065 2065 2053 2053 2065 2065 2065 2065 2065 2065 2065 2065 2053 2053 2053 2053 2053 2053 2065 2065 2065 2065 1785 1785 1794 1794 1804 1804 1804 1804 1804 1804 1813 1813 1813 2053 2053 2053 2053 2053 2053 2053 2053 2053 2053 2053 2053 2053 2065 2065 2053 2053 2053 2053 2053 2053 2053 2053 2053 2053 2053 2078 1863 1863 1863 1863 1853 1853 1853 1853 1853 1853 1853 1853 1853 1853 1427 1427 1427 1427 1427 1427 1427 1433 1433 1427 1427 1427 1427 1427 1427 1421 1421 1421 1415 1415 1415 1415 1410 1410 1410 1410 2078 2053 2053 2040 2040 2040 2040 2040 2040 2040 2040 2040 2040 2040 2040 2040 2040 2040 2040 2040 2053 2053 2053 2040 2040 2040 2040 2040 2040 2040 2040 2040 2053 2053 2053 2053 2053 2065 2065 2065 2065 2065 2065 2065 2065 2065 2065 2065 2065 2065 2065 2078 2065 2065 2053 2053 2053 2053 2040 2040 2053 2053 2053 2065 2065 2078 2078 2065 2065 2065 2065 2053 2053 2053 2053 2053 2053 2053 2053 2053 2053 2053 2040 2040 2040 2040 2040 2053 2053 2053 2053 2053 2040 2040 2040 2040 2040 2040 2040 2040 2040 2040 2040 2040 2040 2040 2040 2040 2040 2040 2040 2040 2040 2040 2040 2040 2040 2040 2040 2040 2040 2040 2040 2040 2040 2040 2040 2040 2040 0 0 0 0 0 0 0 0
0 0 0 0 0 0 0 0 0 0 0 0 0 0 0 0 0 0 0 0 0 0 0 0 0 0 0 0 0 0 0 0 0 0 1936 1926 1926 1926 1947 1926 1926 1926 1926 1947 1947 1959 1959 1959 1959 1959 1947 1947 1947 1947 1947 1947 1947 1947 1947 1959 1947 1947 1947 1947 1947 1947 1947 1947 1959 1959 1947 1947 1947 1947 1947 1947 1947 1947 1947 1947 1947 1947 1947 1947 1947 1947 1947 1947 1947 1947 1947 1947 1947 1947 1947 1947 1947 1947 1947 1947 1947 1947 1959 1959 1959 1959 1959 1947 1947 1959 1959 1959 1959 1970 1970 1970 1970 1959 1959 1959 1959 1959 1959 1959 1959 1959 1959 1970 1970 1970 1970 1981 1981 1993 1981 1981 1981 1981 1981 1981 1981 1981 1981 1981 1981 1981 1981 1981 1981 1981 1981 1993 1993 1993 1993 1993 1981 1981 1981 1981 1981 1981 1981 1981 1981 1981 1981 1981 1970 1915 1904 1894 1894 1883 1883 1883 1883 1883 1894 1894 1904 1904 1915 1915 1947 1981 1981 1993 1993 1993 1993 1993 1993 2005 2005 2005 2005 2005 2016 2016 2016 2016 2016 2016 2016 2016 2016 2016 2016 2016 2005 2005 2005 2005 2005 2005 2016 2016 2028 2028 2028 2028 2028 2028 2028 2028 2028 2028 2028 2028 2028 2028 2028 2016 2016 2028 2028 2028 2028 2028 1748 1748 1748 1739 1739 1739 1739 1739 1739 1739 1748 1748 1766 1766 1776 1776 1785 1794 1794 1794 1794 1804 1804 2028 2028 2016 2016 2028 2016 2016 2028 2028 2016 2016 2028 2016 2016 2028 2028 2028 2028 1594 1594 1594 1594 1594 1594 1594 1594 1594 1601 1601 1601 1609 1609 1609 1609 1609 2016 2016 2016 2005 2005 2016 1776 1776 1776 1776 1776 1785 1785 1794 1794 1794 1804 1804 1804 1804 1813 1813 2040 2028 2028 2028 2028 2028 2028 2028 2005 2005 2005 2005 2005 2005 2005 2016 2016 2016 2016 2016 2016 2028 2028 2028 2040 2040 2040 2040 2040 2040 2040 2040 2040 2040 2040 2040 2040 2040 2040 2040 2040 2040 2040 2040 2053 2040 2040 2040 2040 2053 2040 2040 2053 2053 1445 1445 1445 1445 1445 1445 1445 1445 1445 1445 1445 1452 1452 1452 1458 1458 1464 1470 1470 2028 2040 2053 2053 2053 2053 2053 2053 2053 2065 2053 2053 2053 2053 2053 2053 2053 2053 2065 2065 2053 2040 2040 2040 2053 2053 2053 2053 2065 1785 1785 1785 1794 1794 1794 1804 1804 1804 1813 1813 1813 1813 1813 1823 2040 2040 2040 2040 2053 2053 2053 2053 2053 2053 2053 2053 2053 2053 2053 2053 2053 2053 2053 2040 2040 2040 2040 2053 2040 2040 1863 1863 1863 1863 1853 1853 1853 1853 1853 1853 1853 1853 1853 1853 1427 1427 1427 1427 1427 1427 1427 1433 1433 1433 1427 1427 1427 1427 1427 1421 1421 1421 1415 1415 1415 1415 1410 1410 1410 1410 2065 2040 2040 2028 2028 2028 2028 2040 2040 2040 2040 2040 2040 2040 2040 2040 2040 2040 2040 2040 2040 2040 2040 2040 2040 2040 2028 2028 2028 2028 2040 2040 2040 2040 2053 2053 2053 2065 2053 2053 2053 2053 2053 2065 2065 2065 2065 2065 2065 2065 2065 2065 2065 2053 2053 2053 2040 2040 2040 2040 2040 2053 2053 2053 2065 2065 2065 2053 2053 2053 2053 2053 2053 2040 2040 2040 2053 2053 2053 2053 2053 2053 2040 2040 2040 2040 2040 2040 2040 2040 2040 2040 2040 2040 2040 2040 2040 2040 2040 2040 2040 2040 2040 2040 2028 2028 2028 2028 2028 2028 2028 2028 2028 2028 2028 2028 2028 2028 2028 2028 2028 2040 2040 2040 2040 2040 2040 2040 2040 0 0 0 0 0 0 0 0
