0 0 0 0 0 0 0 0 0 0 0 0 0 0 0 0 0 0 0 0 0 0 0 0 0 0 0 0 0 0 4911 4911 5056 5291 5460 5640 5640 5640 5640 5734 5832 5832 5832 5832 5832 5832 5832 5832 5832 5832 5832 5832 5832 5832 5832 5933 5933 5933 5933 5933 5933 5933 5933 5933 5832 5832 5933 5933 5933 5734 5734 5832 6146 6146 6146 6146 6146 6146 6146 6146 6259 6259 6259 6259 6259 6259 6259 6259 6259 6259 6259 6259 6259 6259 6259 6259 6259 6259 6259 6259 6375 6375 6259 6259 6375 6375 6375 6259 6259 6259 6259 6259 6259 6259 6259 6259 6259 6259 6259 6259 6259 6259 6259 6259 6259 6497 6497 6497 6622 6497 6497 6375 6259 6146 6146 6038 6038 6038 6038 6146 6146 6146 6146 6146 6146 6038 6038 6038 5933 5933 5933 5933 5933 5933 5734 5734 5734 5832 5832 5832 5832 5832 5832 5734 5734 3037 2984 2984 2984 2984 2958 2958 2958 2958 2958 2958 2958 2958 2958 2958 2958 2958 2958 2958 2958 2984 2984 2984 2984 3010 3010 3010 3010 3037 3037 3037 3037 3037 3037 3037 3037 3037 3037 3037 3037 3037 3037 3037 3037 3064 3064 3064 3064 3064 3064 3064 3064 3064 3064 3064 3064 3064 3064 3064 3064 3064 3064 3064 3092 3092 3092 3092 3120 3120 3120 3120 3120 3120 3149 3149 3120 3120 3120 3120 3120 3120 3120 3120 3120 3120 3120 3120 3120 3120 3120 3120 3120 3120 3120 3120 3149 3149 3149 3149 3149 3149 3149 3149 3149 3149 3149 3149 3149 3149 3149 3149 3149 3178 3178 3178 3178 3208 3208 7178 7178 7178 7178 7178 7332 7332 7492 7492 7492 7492 7492 7492 7332 7332 7332 7332 7332 7492 7492 7492 7492 7492 7492 7492 7332 7332 7332 7332 7178 7178 7178 7178 7178 7178 7178 7178 7178 7332 7332 7332 7332 7332 7492 7492 7332 7332 7332 7332 7492 7332 7332 7332 7332 7332 7332 7332 7332 7178 7178 7332 7332 7332 7332 7332 7332 7332 7332 7332 5132 5132 5132 5132 5132 5132 5132 5132 5132 5132 5132 5132 5210 5210 5132 5132 5132 5132 5132 5132 5132 5056 5056 5056 5056 5056 5056 4983 4983 4983 4983 4911 4911 4911 4911 4911 4911 4911 4911 4911 4911 4911 4842 4842 4842 4842 4842 4842 4842 4842 4842 4842 4842 4842 4842 4842 4842 4842 4774 4774 4774 4842 4842 4842 4842 4842 4842 4842 4842 4842 6622 6497 6497 6497 6497 6622 6622 6622 6622 6622 6622 6622 0 0 3503 3503 3468 3468 3503 3468 3468 3468 3468 3468 0 0 0 0 0 0 0 0 0 0 0 0 0 0 0 0 0 0 4089 4089 4089 4089 4089 4089 4089 4139 4139 4139 4139 4139 0 5210 5210 5210 5374 5460 5460 5460 5460 4139 4139 4190 4190 4190 4241 4241 4241 4241 4241 4190 4190 4139 4139 4139 4089 4089 4983 4983 4983 4911 4911 4911 4911 4911 4911 4842 4842 4911 4842 4842 4842 4774 4774 4774 4774 4774 4708 4708 4708 4708 4774 4774 4774 4774 4774 4774 4774 4708 4708 4708 4708 4708 4708 4708 4708 4708 4708 4774 4774 4774 4774 4774 4708 4708 4708 4708 4708 4708 4708 4708 4708 4774 4774 4774 4774 4774 4708 4708 4708 4708 4708 4708 4708 4774 4774 4774 4774 4708 4708 4708 4708 4708 4708 4708 4708 4708 4708 4708 4708 4708 4708 4708 4708 4708 4708 4708 4708 4708 4708 4708 4774 4774 4708 4708 4774 4774 4842 4842 4842 4842 4842 4842 4842 4842 4842 4842 4842 4842 4842 4842 4842 4911 4911 4911 4911 4983 4983 4983 4983 4983 5056 0 0 0 0 0 0 0 0 0 0 0 0 0
0 0 0 0 0 0 0 0 0 0 0 0 0 0 0 0 0 0 0 0 0 0 0 0 0 0 0 0 0 0 4911 4911 5132 5460 5548 5640 5640 5734 5734 5734 5734 5734 5734 5734 5832 5832 5832 5832 5832 5832 5832 5832 5832 5832 5832 5933 5933 5933 5933 5933 5933 5933 5933 5933 5832 5832 5933 5933 5933 5832 5832 6038 6146 6146 6146 6146 6146 6146 6146 6146 6259 6259 6259 6259 6259 6259 6259 6259 6259 6259 6259 6259 6259 6259 6259 6259 6259 6259 6259 6259 6375 6375 6259 6259 6375 6375 6375 6259 6259 6259 6259 6259 6259 6259 6259 6259 6259 6259 6259 6259 6259 6259 6259 6259 6259 6497 6497 6497 6622 6497 6497 6375 6259 6146 6146 6038 6038 6038 6038 6146 6146 6146 6146 6146 6146 6038 6038 5933 5933 5933 5933 5933 5933 5933 5832 5832 5832 5832 5832 5832 5832 5832 5832 5832 5832 3010 2984 2984 2984 2984 2984 2958 2958 2958 2958 2958 2958 2958 2958 2958 2958 2958 2958 2958 2958 2984 2984 2984 2984 3010 3010 3037 3037 3037 3037 3037 3037 3037 3037 3037 3037 3037 3037 3037 3037 3037 3037 3037 3037 3064 3064 3064 3064 3064 3064 3064 3064 3064 3064 3064 3064 3064 3064 3064 3092 3092 3092 3092 3092 3092 3092 3092 3120 3120 3120 3120 3120 3120 3149 3149 3149 3149 3120 3120 3120 3120 3120 3120 3120 3120 3120 3120 3120 3120 3120 3120 3120 3120 3120 3120 3149 3149 3149 3149 3149 3149 3149 3149 3149 3149 3149 3149 3149 3149 3149 3149 3149 3178 3178 3178 3178 3208 3208 7178 7178 7178 7332 7332 7332 7492 7492 7492 7492 7492 7492 7492 7332 7332 7332 7332 7492 7492 7492 7492 7492 7660 7660 7492 7492 7492 7492 7492 7492 7492 7492 7492 7492 7492 7492 7492 7492 7492 7492 7492 7492 7492 7492 7492 7492 7492 7492 7492 7492 7492 7492 7492 7492 7492 7332 7332 7332 7332 7332 7332 7332 7332 7332 7332 7332 7332 7332 7332 5132 5132 5132 5132 5132 5132 5132 5132 5132 5132 5132 5132 5132 5210 5132 5132 5132 5132 5132 5132 5132 5056 5056 5056 5056 5056 5056 4983 4983 4983 4983 4911 4911 4911 4911 4911 4911 4911 4911 4911 4911 4911 4911 4842 4842 4842 4842 4842 4842 4842 4842 4842 4842 4842 4842 4842 4842 4842 4842 4774 4774 4842 4842 4842 4842 4842 6753 6622 6622 6622 6622 6622 6497 6497 6622 6622 6622 6622 6622 6622 6622 6622 6622 0 0 3539 3468 3468 3503 3468 3468 3468 3468 3468 3433 3433 3433 3433 0 0 0 0 0 0 0 0 0 0 0 0 0 0 0 4089 4089 4089 4089 4089 4089 4089 4139 4139 4139 0 0 5210 5210 5210 5374 5460 5460 5460 5460 4190 4190 4190 4190 4241 4241 4241 4241 4241 4241 4190 4190 4190 4190 4139 4139 4139 4983 4983 4983 4983 4983 4911 4911 4911 4911 4842 4842 4842 4842 4842 4774 4774 4774 4774 4774 4774 4708 4708 4708 4774 4774 4774 4774 4774 4774 4774 4774 4708 4708 4708 4708 4708 4708 4708 4708 4708 4774 4774 4774 4774 4774 4774 4708 4708 4708 4708 4708 4708 4708 4708 4708 4774 4774 4774 4774 4774 4708 4708 4708 4708 4708 4708 4708 4774 4774 4774 4774 4708 4708 4708 4708 4708 4708 4708 4708 4708 4708 4708 4708 4708 4774 4774 4708 4708 4708 4708 4708 4708 4708 4708 4774 4708 4708 4774 4774 4774 3010 3010 4842 4842 4842 4842 4842 4842 4842 4774 4774 4774 4774 4842 4842 4911 4911 4911 4983 4983 4983 4983 4983 4983 5056 0 0 0 0 0 0 0 0 0 0 0 0 0
0 0 0 0 0 0 0 0 0 0 0 0 0 0 0 0 0 0 0 0 0 0 0 0 0 0 0 0 0 0 4911 4911 5132 5291 5460 5548 5548 5640 5640 5734 5734 5734 5734 5734 5832 5832 5832 5832 5832 5832 5832 5832 5832 5933 5933 5933 5933 5933 5933 5933 5933 5933 5933 5933 5933 5933 5933 5933 5933 5832 5832 6038 6146 6146 6146 6146 6146 6146 6146 6259 6259 6259 6259 6259 6259 6259 6259 6259 6259 6259 6259 6259 6259 6259 6259 6259 6259 6259 6259 6259 6375 6375 6375 6375 6375 6375 6259 6259 6259 6259 6259 6259 6259 6259 6259 6259 6259 6259 6259 6259 6259 6259 6259 6259 6259 6375 6497 6497 6622 6497 6497 6375 6375 6259 6146 6146 6146 6146 6146 6146 6146 6146 6146 6146 6146 6038 6038 5933 5933 5933 5933 5933 5933 5933 5832 5832 5832 5832 5832 5832 5832 5832 5832 5734 5734 3010 2984 2984 2984 2984 2958 2958 2958 2958 2958 2958 2958 2958 2958 2958 2958 2958 2984 2984 2984 2984 3010 3010 3010 3010 3010 3037 3037 3037 3037 3037 3037 3037 3037 3037 3037 3037 3037 3037 3037 3037 3037 3037 3037 3064 3064 3064 3064 3064 3064 3064 3064 3064 3064 3064 3064 3064 3092 3092 3092 3092 3092 3092 3092 3092 3092 3092 3120 3120 3120 3120 3120 3120 3149 3149 3149 3149 3120 3120 3120 3120 3120 3120 3120 3120 3120 3120 3120 3120 3120 3120 3120 3149 3149 3149 3149 3149 3149 3149 3149 3149 3149 3149 3149 3149 3149 3149 3149 3149 3149 3149 3178 3178 3178 3178 3178 3208 3208 7332 7332 7332 7332 7332 7492 7492 7492 7492 7332 7332 7332 7332 7332 7332 7492 7492 7492 7492 7660 7492 7492 7660 7660 7492 7492 7492 7492 7492 7492 7492 7492 7492 7492 7492 7332 7332 7492 7492 7492 7492 7492 7660 7660 7660 7660 7492 7492 7492 7492 7492 7492 7492 7492 7492 7332 7332 7332 7332 7492 7492 7492 7492 7332 7332 7332 7332 7332 7332 5132 5132 5132 5132 5132 5132 5132 5132 5132 5132 5210 5132 5132 5210 5210 5210 5132 5132 5132 5132 5132 5056 5056 5056 5056 5056 5056 5056 5056 5056 4983 4983 4983 4911 4911 4911 4911 4911 4911 4911 4911 4911 4911 4911 4911 4842 4842 4842 4842 4842 4842 4842 4842 4842 4842 4842 4842 4842 4842 4842 4842 4911 4911 4842 4842 6753 6753 6622 6622 6622 6622 6622 6622 6622 6622 6622 6622 6622 6622 6622 0 6622 0 3539 0 3539 3503 3503 3503 3503 3468 3468 3468 3468 3433 3433 3433 3433 0 0 0 0 0 0 0 0 0 0 0 0 0 0 0 4089 4089 4089 4089 4089 4089 4089 4139 4139 4139 4139 4139 5210 5210 5210 5374 5460 5460 5460 4190 4190 4190 4190 4241 4241 4241 4241 4241 4241 4241 4190 4190 4190 4190 4190 4089 4089 4139 4983 4983 4983 4983 4983 4983 4911 4911 4842 4842 4842 4842 4842 4774 4774 4774 4774 4774 4774 4708 4708 4708 4774 4774 4774 4774 4774 4774 4774 4774 4708 4708 4708 4708 4708 4708 4708 4708 4708 4774 4774 4774 4774 4774 4774 4708 4708 4708 4708 4708 4708 4708 4708 4708 4774 4774 4774 4774 4774 4774 4774 4774 4774 4774 4708 4708 4774 4774 4774 4774 4708 4708 4708 4708 4708 4708 4708 4708 4708 4708 4708 4708 4708 4708 4708 4708 4708 4708 4708 4708 4708 4708 4708 4774 4708 4708 4774 4842 4842 2984 2984 4842 4842 4911 4911 4911 4842 4842 4774 4774 4774 4774 4911 4911 4911 4911 4911 4911 4911 4911 4911 4911 4983 4983 0 0 0 0 0 0 0 0 0 0 0 0 0
0 0 0 0 0 0 0 0 0 0 0 0 0 0 0 0 0 0 0 0 0 0 0 0 0 0 0 0 0 0 4911 4911 5132 5291 5460 5548 5548 5640 5640 5734 5734 5734 5832 5832 5832 5832 5832 5832 5832 5832 5832 5832 5832 5933 5933 5933 5933 5933 5933 5933 5933 5933 5933 5933 5933 5933 5933 5933 5933 5832 5832 6038 6146 6146 6146 6146 6146 6146 6146 6259 6259 6259 6259 6259 6259 6259 6259 6259 6259 6259 6259 6259 6259 6259 6259 6259 6259 6259 6259 6259 6375 6375 6375 6375 6375 6375 6259 6259 6259 6259 6259 6259 6259 6259 6259 6259 6259 6259 6259 6259 6259 6259 6259 6259 6375 6375 6497 6497 6622 6622 6622 6497 6497 6259 6146 6146 6146 6146 6146 6146 6259 6375 6259 6259 6146 6146 6038 6038 5933 5933 5933 5933 5933 5933 5832 5832 5832 5832 5832 5832 5832 5832 5832 5734 5734 5734 2984 2984 2984 2984 2958 2958 2958 2958 2958 2958 2958 2958 2958 2958 2958 2984 2984 2984 2984 2984 3010 3010 3010 3010 3010 3037 3010 3010 3037 3037 3037 3037 3037 3037 3037 3037 3037 3037 3037 3037 3037 3037 3037 3064 3064 3064 3064 3064 3064 3064 3064 3064 3064 3064 3064 3092 3092 3092 3092 3092 3092 3092 3092 3092 3092 3092 3120 3120 3120 3120 3120 3120 3120 3120 3149 3149 3120 3120 3120 3120 3120 3120 3120 3120 3120 3120 3120 3120 3120 3120 3120 3120 3149 3149 3149 3149 3149 3149 3149 3149 3149 3149 3149 3149 3149 3149 3149 3149 3149 3149 3178 3178 3178 3178 3178 3178 3178 7332 7332 7332 7332 7332 7332 7332 7332 7332 7332 7332 7332 7332 7332 7332 7492 7492 7492 7492 7660 7492 7492 7660 7492 7492 7492 7492 7492 7492 7492 7492 7492 7492 7492 7178 7178 7178 7332 7332 7178 7178 7492 7660 7835 7660 7660 7492 7492 7492 7492 7492 7332 7332 7332 7332 7332 7178 7178 7178 7492 7492 0 0 0 0 0 0 0 5291 5210 5210 5132 5132 5132 5210 5132 5132 5132 5132 5210 5210 5210 5210 5210 5210 5132 5132 5132 5132 5132 5132 5056 5056 5056 5056 5056 5056 5056 5056 5056 5056 5056 4983 4983 4911 4911 4911 4911 4911 4911 4911 4911 4911 4911 4911 4911 4911 4842 4842 4842 4842 4842 4842 4842 4842 4911 4842 4842 4911 4911 5056 5056 6889 6753 6753 6753 6622 6622 6622 6622 6622 6622 6622 6622 6622 6622 6622 6622 6622 6622 0 0 3539 3539 3539 3539 3539 3539 3503 3503 3503 3503 3503 3433 0 0 0 0 0 0 0 0 0 0 0 0 0 0 0 0 0 0 0 0 0 4089 4089 4089 4139 4139 4139 4139 4139 4139 5374 5374 5374 5374 5460 5460 5460 4190 4190 4190 4241 4190 4190 4190 4190 4241 4241 4241 4190 4190 4190 4190 4139 4089 4089 4089 4983 4983 4983 4983 4983 4983 4911 4911 4911 4911 4911 4842 4842 4774 4774 4774 4774 4774 4774 4774 4708 4708 4774 4774 4774 4774 4774 4774 4774 4774 4708 4708 4708 4774 4708 4708 4708 4774 4774 4774 4842 4842 4774 4774 4774 4708 4708 4708 4708 4708 4708 4708 4774 4774 4774 4774 4842 4842 4842 4842 4774 4774 4774 4774 4774 4774 4774 4774 4774 4774 4774 4774 4708 4708 4708 4708 4708 4708 4645 4645 4645 4645 4645 4708 4708 4708 4708 4708 4708 4708 4708 4708 4708 4774 4774 4774 4774 4774 2984 2984 2958 2933 2933 4842 4842 4911 4911 4842 4842 4842 4842 4842 4911 4911 4911 4911 4911 4911 4911 4842 4842 4842 4911 4911 0 0 0 0 0 0 0 0 0 0 0 0 0
0 0 0 0 0 0 0 0 0 0 0 0 0 0 0 0 0 0 0 0 0 0 0 0 0 0 0 0 0 0 4911 4911 5210 5291 5548 5548 5640 5640 5640 5734 5734 5734 5832 5832 5832 5832 5832 5832 5832 5933 5933 5933 5933 5933 5933 5933 5933 5933 5933 5933 5933 5933 5933 5933 5933 5933 5933 5933 5933 5832 5832 6038 6146 6146 6146 6146 6146 6259 6259 6259 6259 6259 6259 6259 6259 6259 6259 6259 6259 6259 6259 6259 6259 6259 6259 6259 6259 6259 6259 6259 6375 6375 6375 6375 6375 6375 6259 6259 6259 6259 6259 6259 6259 6259 6259 6259 6259 6259 6259 6259 6259 6259 6259 6259 6259 6497 6497 6497 6622 6622 6622 6497 6497 6375 6259 6259 6146 6146 6146 6259 6259 6497 6375 6259 6259 6146 6146 6038 5933 5933 5832 5832 5832 5832 5734 5734 5734 5832 5832 5734 5734 5734 5734 5734 5734 5734 2984 2984 2984 2984 2984 2958 2958 2958 2958 2958 2958 2958 2958 2958 2984 2984 2984 2984 3010 3010 3010 3010 3010 3010 3010 3037 3010 3010 3037 3037 3037 3037 3037 3037 3037 3037 3037 3037 3037 3037 3037 3037 3037 3064 3064 3064 3064 3064 3064 3064 3064 3064 3064 3064 3092 3092 3092 3092 3092 3092 3092 3092 3092 3092 3092 3120 3120 3120 3120 3120 3120 3120 3120 3120 3149 3149 3120 3120 3120 3120 3120 3120 3120 3120 3120 3120 3120 3120 3120 3120 3120 3120 3120 3149 3149 3149 3149 3149 3149 3149 3149 3149 3149 3149 3149 3149 3149 3149 3149 3149 3178 3178 3178 3208 3208 3178 3178 7332 7332 7178 7178 7178 7178 7178 7332 7178 7178 7178 7178 7332 7332 7492 7492 7492 7492 7492 7492 7492 7492 7492 7492 7492 7492 7492 7492 7492 7492 7492 7660 7835 0 7178 7178 7178 7332 7332 7178 7178 0 0 0 0 0 0 7492 7492 7492 7492 7332 7332 7332 7332 7332 7178 7178 7178 7492 7492 0 0 0 0 0 0 0 5210 5210 5210 5132 5132 5210 5210 5132 5132 5132 5132 5210 5132 5132 5132 5132 5132 5132 5132 5132 5132 5132 5132 5056 5056 5056 5056 5056 5056 5056 5056 5056 5056 5056 4983 4983 4911 4911 4911 4911 4911 4911 4911 4911 4911 4911 4911 4911 4911 4842 4842 4842 4842 4842 4842 4842 4911 4911 4911 4911 4911 4911 5056 5056 6889 6753 6753 6753 6622 6622 6622 6622 6622 6622 6622 6622 6622 6622 6622 6622 6622 6622 0 0 3539 3539 3539 3539 3539 3539 3503 3503 3503 3503 3433 3433 0 0 0 0 0 0 0 0 0 0 0 0 0 0 0 0 0 0 0 0 0 0 4089 4089 4139 4139 4139 4139 4139 4190 4190 5374 5374 5460 5460 5460 5460 4190 4190 4190 4190 4190 4190 4190 4190 4190 4190 4190 4190 4190 4190 4190 4139 4089 4089 4089 5056 5056 5056 4983 4983 4983 4911 4911 4911 4911 4911 4842 4842 4774 4774 4774 4774 4774 4774 4774 4708 4708 4774 4774 4774 4774 4774 4774 4774 4774 4774 4774 4774 4774 4708 4708 4708 4774 4774 4774 4774 4774 4774 4774 4774 4774 4708 4708 4708 4708 4708 4708 4774 4774 4774 4774 4842 4842 4774 4774 4774 4774 4774 4774 4774 4774 4774 4774 4774 4774 4774 4774 4774 4774 4774 4774 4708 4645 4645 4645 4645 4645 4645 2812 2812 4645 4645 4645 4645 4645 4645 4645 4645 4645 4645 4645 4645 2958 2958 2958 2933 2933 2933 4842 4842 4911 4911 4911 4911 4911 4842 4842 4911 4911 4911 4911 4911 4911 4911 4842 4842 4842 4911 4911 0 0 0 0 0 0 0 0 0 0 0 0 0
0 0 0 0 0 0 0 0 0 0 0 0 0 0 0 0 0 0 0 0 0 0 0 0 0 0 0 0 0 0 5210 5210 5548 5548 5640 5640 5640 5640 5640 5734 5734 5734 5832 5832 5832 5832 5832 5832 5933 5832 5832 5933 5933 5933 5933 5933 5933 5933 5933 5933 5933 5933 5933 5933 5933 5933 5933 5933 5933 5832 5832 5832 6146 6146 6146 6146 6146 6259 6259 6259 6259 6259 6259 6259 6259 6259 6259 6259 6259 6259 6259 6259 6259 6375 6259 6259 6259 6259 6259 6259 6375 6259 6259 6375 6375 6375 6259 6259 6259 6259 6259 6259 6259 6259 6259 6259 6259 6259 6259 6259 6259 6259 6259 6259 6259 6497 6497 6497 6622 6622 6497 6497 6497 6497 6375 6375 6375 6375 6375 6375 6375 6497 6497 6375 6259 6259 6146 6038 6038 5832 5832 5832 5832 5832 5734 5734 5734 5734 5832 5734 5734 5734 5734 5734 5734 5734 2984 2984 2984 2958 2958 2958 2958 2958 2958 2958 2958 2958 2958 2958 2984 2984 2984 2984 3010 3010 3010 3010 3010 3010 3010 3010 3037 3037 3037 3037 3037 3037 3037 3037 3037 3037 3037 3037 3037 3037 3037 3064 3064 3064 3064 3064 3064 3064 3064 3064 3064 3064 3064 3092 3092 3092 3092 3092 3092 3092 3092 3092 3092 3092 3092 3092 3120 3120 3120 3120 3120 3120 3120 3120 3149 3149 3120 3120 3120 3120 3120 3120 3120 3120 3120 3120 3120 3120 3120 3120 3120 3120 3120 3149 3149 3149 3149 3149 3149 3149 3149 3149 3149 3149 3149 3149 3149 3149 3149 3149 3178 3178 3178 3208 3208 3178 3178 7332 7332 7178 7030 7030 7030 7030 7030 6889 6889 6889 7178 7178 7492 7492 7492 7492 7492 7332 7332 7332 7332 7492 7332 7332 7492 7492 7492 7492 7492 7492 7660 0 0 0 0 0 0 0 0 0 0 0 0 0 0 0 0 0 0 7492 7492 0 0 7332 7332 0 0 0 0 0 0 0 0 0 0 0 0 5210 5210 5210 5210 5210 5210 5210 5210 5132 5132 5132 5210 5132 5132 5132 5132 5132 5132 5132 5132 5132 5132 5132 5132 5132 5132 5056 5056 5056 5056 5056 5056 5056 5056 5056 4983 4911 4911 4911 4911 4911 4911 4911 4911 4911 4911 4911 4911 4911 4911 4842 4842 4842 4842 4842 4842 4911 4911 4911 4911 4911 4911 5056 5056 6889 6753 6753 6753 6622 6622 6622 6622 6622 6622 6622 6622 6622 6622 6622 6622 6622 6622 0 3576 3576 3576 3576 3576 3539 3539 3503 3503 3503 3468 3433 3433 3468 0 0 0 0 0 0 0 0 0 0 0 0 0 0 0 0 0 0 0 0 0 4089 4089 4139 4139 4139 4139 4139 4139 4139 5460 5460 5460 5460 5460 5460 4190 4190 4190 4190 4190 4190 4190 4190 4190 4190 4190 4190 4190 4190 4139 4139 4089 4089 4089 5056 5056 5056 5056 4983 4983 4983 4983 4983 4911 4911 4842 4842 4842 4842 4774 4774 4774 4774 4774 4708 4708 4774 4774 4774 4774 4774 4774 4774 4774 4774 4774 4774 4774 4708 4708 4708 4774 4774 4774 4774 4774 4774 4774 4774 4774 4708 4708 4708 4708 4708 4774 4774 4774 4774 4774 4842 4774 4774 4774 4774 4774 4774 4774 4774 4774 4774 4774 4774 4774 4774 4774 4774 4774 4774 4774 4708 4645 4645 4645 4645 2812 2812 2812 2812 2812 2812 2812 2835 4582 4582 4582 4645 4645 4645 0 0 0 2933 2933 2933 2933 2933 4842 4842 4842 4911 4911 4911 4983 4911 4911 4911 4983 4911 4911 4911 4911 4911 2812 2835 2835 0 0 0 0 0 0 0 0 0 0 0 0 0 0 0
0 0 0 0 0 0 0 0 0 0 0 0 0 0 0 0 0 0 0 0 0 0 0 0 0 0 0 0 0 0 5460 5460 5548 5640 5640 5640 5640 5640 5640 5734 5734 5734 5832 5832 5832 5832 5832 5832 5832 5832 5832 5832 5832 5832 5832 5933 5933 5933 5933 5933 5933 5933 5832 5832 5832 5832 5832 5933 5933 5832 5832 5832 5832 5832 6146 6146 6146 6259 6259 6259 6259 6259 6259 6259 6259 6259 6259 6259 6259 6259 6259 6259 6259 6259 6259 6259 6259 6259 6259 6259 6375 6259 6259 6375 6375 6259 6259 6375 6375 6259 6259 6259 6259 6259 6259 6259 6259 6259 6259 6259 6259 6259 6375 6375 6375 6497 6497 6497 6497 6622 6497 6497 6497 6497 6497 6497 6497 6497 6622 6497 6497 6497 6497 6375 6259 6259 6146 5933 5832 5832 5832 5832 5832 5832 5734 5734 5734 5734 5734 5734 5734 5734 5734 5734 5734 5734 2984 2984 2984 2958 2958 2958 2958 2958 2984 2984 2984 2984 2984 2984 2984 2984 2984 3010 3010 3010 3010 3010 3010 3010 3010 3010 3010 3037 3037 3037 3037 3037 3037 3037 3037 3037 3037 3037 3037 3037 3037 3037 3037 3064 3064 3064 3064 3064 3064 3064 3064 3092 3092 3092 3064 3064 3092 3092 3092 3092 3092 3092 3092 3092 3092 3092 3120 3120 3120 3120 3120 3120 3149 3149 3149 3149 3120 3120 3120 3120 3120 3120 3120 3120 3120 3120 3120 3120 3120 3120 3120 3120 3149 3149 3149 3149 3149 3149 3149 3149 3149 3149 3149 3149 3149 3149 3149 3178 3149 3149 3178 3178 3208 3208 3208 3208 3208 3208 6497 6497 6497 6622 6622 6753 6753 6497 6497 6497 6497 6497 6497 6497 6497 7492 7492 7030 7030 7030 7178 7332 7332 7332 7332 7332 7492 7492 7492 7492 0 0 0 0 0 0 0 0 0 0 0 0 0 0 0 0 0 0 0 0 0 0 0 0 0 0 0 0 0 0 0 0 0 0 0 0 5548 5291 5210 5210 5210 5210 5210 5210 5210 5132 5132 5132 5210 5132 5132 5132 5210 5210 5132 5132 5132 5132 5132 5132 5132 5132 5132 5132 5132 5056 5056 5056 5056 5056 5056 5056 4983 4911 4911 4911 4911 4911 4911 4911 4911 4911 4911 4911 4911 4911 4911 4842 4842 4842 4842 4911 4911 4911 4911 4983 4983 5056 5132 5132 5210 6889 6889 6753 6753 6622 6622 6622 6622 6622 6622 6622 6622 6622 6622 6622 6622 6622 3614 3576 3576 3576 3576 3576 3576 3539 3539 3539 3539 3539 3468 3468 3468 3468 0 0 0 0 0 0 0 0 0 0 0 0 0 0 0 0 0 0 0 0 0 4089 4089 4139 4139 4139 4139 4139 4089 4089 5460 5460 5460 5460 5460 5460 4190 4190 4139 4139 4139 4139 4190 4190 4139 4139 4139 4139 4139 4139 4089 4089 4041 4041 4041 4041 5056 5056 5056 4983 4983 4983 4983 4983 4911 4911 4842 4842 4842 4842 4774 4774 4774 4774 4774 4774 4774 4774 4774 4774 4774 4774 4774 4774 4774 4774 4774 4774 4708 4708 4708 4708 4774 4774 4774 4774 4774 4774 4774 4774 4774 4774 4774 4774 4774 4774 4774 4774 4774 4774 4774 4774 4774 4774 4774 4774 4774 4774 4774 4774 4774 4774 4774 4708 4708 4774 4774 4774 4774 4774 4774 4774 4708 4708 4708 2812 2812 2812 2812 2812 2812 2812 2812 2835 2835 4582 4582 4645 4645 2789 2789 2789 2812 2933 2933 2933 2933 2908 2908 4842 4842 4911 4911 4911 4983 4983 4983 4983 4983 4911 4911 4911 2812 2812 2812 2835 2835 0 0 0 0 0 0 0 0 0 0 0 0 0 0 0
0 0 0 0 0 0 0 0 0 0 0 0 0 0 0 0 0 0 0 0 0 0 0 0 0 0 0 0 0 0 5460 5460 5640 5640 5640 5640 5640 5640 5640 5734 5734 5734 5734 5832 5832 5832 5832 5832 5832 5832 5832 5832 5832 5832 5832 5832 5832 5933 5933 5933 5832 5832 5832 5832 5832 5832 5832 5832 5832 5734 5734 5832 5832 5832 6146 6146 6259 6259 6259 6259 6259 6259 6259 6259 6259 6259 6259 6259 6259 6259 6259 6259 6259 6259 6259 6259 6259 6259 6259 6259 6375 6375 6375 6375 6375 6259 6259 6375 6375 6259 6259 6259 6259 6259 6259 6259 6259 6375 6375 6375 6375 6375 6375 6375 6375 6497 6497 6497 6497 6622 6497 6497 6497 6497 6497 6497 6497 6497 6497 6497 6497 6375 6375 6259 6259 6146 6038 5933 5832 5734 5734 5734 5734 5734 5640 5640 5640 5640 5734 5734 5734 5734 5734 5832 5832 5832 2984 2958 2958 2958 2958 2958 2958 2984 2984 2984 2984 2984 2984 2984 2984 2984 2984 3010 3010 3010 3010 3010 3010 3010 3010 3010 3010 3037 3037 3037 3037 3037 3037 3037 3037 3037 3037 3037 3037 3037 3037 3037 3037 3064 3064 3064 3064 3064 3064 3064 3064 3064 3064 3092 3064 3064 3092 3092 3092 3092 3092 3092 3092 3092 3092 3092 3120 3120 3120 3120 3120 3120 3120 3120 3149 3149 3120 3120 3120 3120 3120 3120 3120 3120 3120 3120 3120 3120 3120 3120 3120 3120 3120 3149 3149 3149 3149 3149 3149 3149 3149 3149 3149 3149 3149 3149 3149 3178 3178 3178 3178 3178 3208 3208 3208 3178 3178 3178 6497 6497 6497 6375 6375 6497 6497 6375 6375 6375 6375 6375 6375 6375 6497 6622 6622 6622 6622 6753 6889 6889 6889 6889 7030 7178 7178 7178 0 0 0 0 0 0 0 0 0 0 0 0 0 0 0 0 0 0 0 0 0 0 0 0 0 0 0 0 0 0 0 0 0 0 0 0 0 0 5548 5291 5210 5210 5210 5210 5210 5210 5210 5210 5210 5210 5210 5132 5132 5132 5132 5132 5132 5132 5132 5132 5132 5132 5056 5056 5056 5132 5132 5056 5056 5056 5056 5056 4983 4983 4983 4983 4983 4911 4911 4911 4911 4911 4911 4911 4911 4911 4911 4911 4911 4842 4842 4842 4842 4842 4911 4911 4983 4983 4983 5056 5132 5132 5210 5210 6753 6753 6622 6622 6622 6622 6622 6622 6622 6622 6622 6622 6622 6622 6622 6622 3614 3576 3576 3576 3576 3576 3576 3539 3539 3539 3539 3539 3539 3468 3468 3468 0 0 0 0 0 0 0 0 0 0 0 0 0 0 0 0 0 0 0 0 0 0 0 4139 4139 4139 4139 4139 4089 4089 3994 3994 4041 5548 5548 0 4190 4190 4139 4139 4139 4139 4139 4139 4139 4139 4139 4139 4089 4089 4041 4041 3948 3948 3948 3903 3948 3948 0 0 0 0 0 4983 4983 4911 4842 4842 4842 4842 4774 4774 4774 4774 4774 4774 4774 4911 4842 4774 4774 4842 4842 4842 4774 4774 4774 4774 4708 4708 4708 4708 4774 4774 4774 4774 4774 4774 4774 4774 4774 4774 4774 4774 4774 4774 4774 4774 4774 4774 4774 4774 4774 4774 4774 4842 4774 4774 4774 4774 4774 4774 4774 4708 4708 4774 4774 4774 4774 4774 4774 4774 4708 4708 4708 2812 2812 2812 2812 2812 2835 2812 2812 2812 2812 2812 2812 2812 2789 2789 2789 2789 2812 2789 2767 2767 2789 2789 2789 2789 2767 2767 2789 2835 2835 2812 2812 2835 2835 2835 2835 2835 2812 2812 2835 2835 2835 0 0 0 0 0 0 0 0 0 0 0 0 0 0 0
0 0 0 0 0 0 0 0 0 0 0 0 0 0 0 0 0 0 0 0 0 0 0 0 0 0 0 0 0 0 5291 5291 5548 5548 5640 5640 5640 5640 5640 5734 5640 5640 5734 5734 5734 5832 5832 5832 5832 5832 5832 5832 5832 5832 5832 5832 5832 5832 5832 5933 5832 5832 5832 5832 5832 5832 5832 5832 5832 5734 5734 5734 5734 5734 6146 6146 6259 6259 6259 6259 6259 6259 6259 6259 6259 6259 6259 6259 6259 6259 6259 6259 6259 6375 6259 6259 6259 6259 6259 6259 6375 6375 6375 6375 6375 6259 6259 6375 6375 6259 6259 6259 6259 6259 6259 6375 6375 6375 6375 6375 6375 6375 6375 6375 6375 6497 6497 6497 6497 6497 6497 6497 6497 6497 6497 6497 6497 6497 6497 6497 6497 6375 6259 6146 6146 5933 5832 5832 5734 5734 5734 5640 5640 5640 5640 5640 5548 5548 5640 5640 5734 5734 5734 5734 5734 5734 2984 2958 2958 2958 2958 2958 2958 2984 2984 2984 2984 2984 2984 2984 2984 2984 3010 3010 3010 3010 3010 3010 3010 3010 3010 3010 3037 3037 3037 3037 3037 3037 3037 3037 3037 3037 3037 3037 3037 3037 3037 3064 3064 3064 3064 3064 3064 3064 3064 3064 3064 3064 3064 3064 3064 3064 3064 3064 3064 3064 3064 3064 3092 3092 3092 3120 3120 3120 3120 3120 3120 3120 3120 3120 3149 3149 3120 3120 3120 3120 3120 3120 3120 3120 3120 3120 3120 3120 3120 3120 3120 3120 3120 3149 3149 3149 3149 3149 3149 3149 3149 3149 3149 3149 3149 3149 3149 3178 3178 3178 3178 3178 3208 3208 3208 3178 3178 3178 6375 6375 6375 6375 6375 6497 6375 6375 6375 6375 6375 6375 6375 6375 6497 6497 6497 6497 6622 6622 6622 6497 6497 6622 6753 6753 6889 6889 0 0 0 0 0 0 0 0 0 0 0 0 0 0 0 0 0 0 0 0 0 0 0 0 0 0 0 0 0 0 0 0 0 0 0 0 0 0 5548 5291 5291 5210 5210 5210 5210 5210 5210 5210 5210 5210 5210 5132 5132 5132 5056 5056 5056 5056 5056 5056 5056 5056 5056 5056 5056 5132 5132 5056 5056 5056 5056 5056 4983 4983 4983 4983 4983 4911 4911 4911 4911 4911 4911 4911 4911 4911 4911 4911 4842 4842 4842 4842 4842 4842 4911 4911 4983 4983 4983 5056 5056 5132 5132 5132 6753 6753 6622 6622 6622 6622 6622 6622 6622 6622 6622 6622 6622 6622 6622 6622 3614 3576 3576 3576 3576 3576 3576 3539 3539 3539 3539 3503 3503 3503 3503 0 0 0 0 0 0 0 0 0 0 0 0 0 0 0 0 0 0 0 0 0 0 0 0 4139 4139 4139 4089 4089 4089 4089 3994 3994 4041 4041 0 0 0 4190 4190 4139 4089 4089 4139 4139 4139 4139 4139 4089 4089 4041 3994 3994 3948 3903 3903 3903 3948 3948 3994 3994 0 0 0 3859 0 0 4842 4842 4842 4842 4842 4842 4842 4842 4842 4842 4911 4983 4911 4842 4842 4842 4842 4842 4774 4774 4774 0 0 0 0 4774 4774 4774 4774 4774 4774 4774 4774 4774 4774 4774 4774 4774 4774 4774 4774 4774 4774 4774 4774 4774 4774 4774 4774 4774 4774 4774 4774 4774 4774 4774 4774 4774 4774 4774 4774 4774 4774 4774 4774 4774 4708 2859 2835 2835 2835 2835 2812 2812 2835 2835 2835 2812 2812 2812 2812 2812 2789 2789 2789 2789 2812 2789 2767 2767 2789 2789 2789 2789 2767 2767 2789 2812 2812 2812 2812 2812 2835 2835 2835 2835 2835 2835 2835 2835 2835 2835 2812 2812 2812 2812 0 0 0 0 0 0 0 0 0 0
0 0 0 0 0 0 0 0 0 0 0 0 0 0 0 0 0 0 0 0 0 0 0 0 0 0 0 0 0 0 5132 5132 5460 5460 5640 5640 5640 5640 5640 5734 5640 5640 5734 5734 5734 5832 5832 5832 5832 5832 5832 5832 5832 5832 5832 5832 5832 5832 5832 5933 5832 5832 5832 5832 5832 5832 5832 5832 5832 5734 5734 5734 5734 5734 6146 6146 6146 6259 6259 6259 6259 6259 6259 6259 6259 6259 6259 6259 6259 6259 6259 6259 6259 6259 6259 6259 6259 6259 6259 6259 6375 6375 6375 6375 6375 6375 6259 6259 6259 6259 6259 6259 6259 6259 6259 6375 6375 6375 6375 6375 6375 6375 6375 6375 6375 6497 6497 6497 6497 6497 6497 6497 6497 6497 6497 6497 6497 6497 6497 6497 6375 6259 6146 6038 5933 5734 5734 5734 5640 5640 5640 5640 5640 5640 5548 5548 5548 5548 5548 5640 5640 5640 5734 5734 5640 5640 5640 2958 2958 2958 2958 2958 2958 2984 2984 2984 2984 2984 2984 2984 2984 3010 3010 3010 3037 3037 3010 3010 3010 3010 3010 3010 3037 3037 3037 3037 3037 3037 3037 3037 3037 3037 3037 3037 3064 3064 3064 3064 3064 3064 3064 3064 3064 3064 3064 3064 3064 3064 3064 3064 3064 3064 3064 3064 3064 3064 3064 3064 3092 3092 3092 3120 3120 3120 3120 3120 3120 3120 3149 3149 3149 3149 3120 3120 3120 3120 3120 3120 3120 3120 3120 3120 3120 3120 3120 3120 3120 3120 3120 3149 3149 3149 3149 3149 3149 3149 3149 3149 3149 3149 3149 3149 3149 3178 3178 3178 3208 3208 3208 3208 3208 3178 3178 3178 6259 6259 6259 6375 6375 6375 6375 6375 6375 6375 6375 6375 6375 6375 6497 6497 6497 6497 6497 6497 6497 6375 6375 6497 6497 6497 6622 6622 0 0 0 0 0 0 0 0 0 0 0 0 0 0 0 0 0 0 0 0 0 0 0 0 0 0 0 0 0 0 0 0 0 0 0 0 0 0 5548 5210 5210 5210 5210 5210 5210 5210 5210 5210 5210 5210 5210 5132 5132 5132 5056 5056 5056 5056 5056 5056 5056 5056 5056 5056 5056 5056 5132 5056 5056 4983 4983 4983 4983 4983 4983 4983 4911 4911 4911 4911 4911 4911 4911 4911 4911 4911 4911 4911 4842 4842 4842 4842 4842 4911 4911 4911 4911 4911 4911 4983 5056 5056 5132 5132 6753 6753 6622 6622 6622 6622 6622 6622 6622 6622 6622 6622 6622 6622 6622 6622 3614 3576 3576 3576 3576 3576 3576 3539 3539 3539 3503 3503 3503 3468 3468 0 0 0 0 0 0 0 0 0 0 0 0 0 0 0 0 0 0 0 0 0 0 0 0 0 4139 4089 4089 4089 4089 4089 4041 4041 4041 4041 0 0 0 0 0 0 4041 4041 4089 4089 4089 4089 4089 4089 4041 3994 3948 3948 3948 3903 3903 3903 3903 3903 3948 3948 0 0 0 0 0 0 0 3859 3859 3903 3903 3859 3859 3859 4911 4911 4911 4983 4911 4911 4911 4911 4911 4911 4774 4774 4774 0 0 0 0 0 0 4774 4774 0 0 0 0 4774 4774 0 0 0 4774 4774 4774 4842 4774 4774 4774 4774 4774 4774 4774 4774 4774 4774 4774 4774 4774 4774 4774 4774 4774 4708 4708 4774 4774 4708 4708 4774 2883 2859 2835 2835 2835 2835 2812 2812 2835 2812 2812 2812 2812 2812 2812 2789 2789 2789 2789 2812 2812 2789 2767 2767 2789 2789 2789 2789 2789 2789 2789 2789 2812 2812 2812 2812 2812 2812 2812 2835 2835 2835 2835 2859 2835 2812 2812 2812 2812 2812 0 0 0 0 0 0 0 0 0 0
0 0 0 0 0 0 0 0 0 0 0 0 0 0 0 0 0 0 0 0 0 0 0 0 0 0 0 0 0 0 5132 5132 5374 5460 5548 5640 5734 5734 5734 5734 5734 5734 5734 5734 5734 5832 5832 5832 5832 5832 5832 5832 5832 5832 5832 5832 5832 5933 5933 5933 5832 5832 5832 5832 5832 5832 5734 5734 5832 5734 5734 5734 5734 5832 6146 6146 6146 6146 6259 6259 6259 6259 6259 6259 6259 6259 6259 6259 6259 6259 6259 6259 6259 6259 6259 6259 6259 6259 6259 6259 6259 6375 6375 6375 6375 6375 6259 6259 6259 6259 6259 6259 6259 6259 6375 6375 6375 6375 6375 6375 6375 6497 6497 6375 6375 6497 6497 6497 6497 6497 6497 6497 6497 6497 6497 6497 6497 6497 6497 6497 6146 5933 5832 5832 5734 5640 5640 5640 5640 5640 5640 5640 5548 5548 5548 5548 5460 5460 5548 5548 5640 5640 5640 5640 5640 5640 5640 2958 2958 2958 2984 2984 2984 2984 2984 2984 3010 2984 2984 3010 3010 3010 3010 3037 3037 3037 3010 3010 3010 3010 3010 3037 3037 3037 3037 3037 3037 3037 3037 3037 3037 3037 3037 3064 3064 3064 3064 3064 3064 3064 3064 3064 3064 3064 3064 3064 3064 3064 3064 3064 3064 3064 3064 3064 3064 3064 3064 3064 3092 3120 3120 3120 3120 3120 3120 3120 3120 3149 3149 3149 3149 3149 3120 3120 3120 3120 3120 3120 3120 3120 3120 3120 3120 3120 3120 3120 3120 3120 3120 3120 3149 3149 3149 3149 3149 3149 3149 3149 3149 3149 3178 3178 3178 3178 3178 3178 3178 3208 3208 3208 3208 3208 3208 3269 3269 6259 6259 6375 6375 6375 6375 6375 6375 6375 6375 6375 6375 6375 6497 6497 6497 6497 6497 6497 6375 6375 6375 6497 6497 6497 6622 6497 6497 0 0 0 0 0 0 0 0 0 0 0 0 0 0 0 0 0 0 0 0 0 0 0 0 0 0 0 0 0 0 0 0 0 0 0 0 0 5210 5210 5210 5132 5132 5210 5210 5210 5210 5210 5132 5132 5132 5132 5132 5132 5056 5056 5056 5056 5056 4983 4983 4983 4983 5056 5056 5056 5056 4983 4983 4983 4983 4983 4911 4911 4911 4911 4911 4911 4911 4911 4911 4911 4911 4911 4911 4911 4911 4911 4911 4911 4911 4911 4911 4911 4911 4911 4911 4911 4911 4983 5056 5056 5132 5132 6753 6753 6753 6753 6753 6622 6622 6622 6622 6622 6622 6622 6622 6622 6622 6622 3614 3614 3576 3576 3576 3576 3576 3539 3539 3539 3503 3503 3468 3468 3468 0 0 0 0 0 0 0 0 0 0 0 0 0 0 0 0 0 0 0 0 0 0 0 0 0 0 4089 4089 4139 4089 4041 4041 4041 4041 4041 4041 0 0 0 0 0 4041 4041 4089 4089 4089 4089 4089 4041 3994 3948 3948 3903 3903 3859 3859 3903 3903 3903 3948 3948 0 0 0 0 0 0 3859 3859 3859 3859 3859 3859 3859 3859 3859 4911 3859 3859 3859 4983 4983 4983 4983 4983 0 0 0 0 0 0 0 0 0 0 0 0 0 0 0 0 0 0 0 0 4774 4774 4774 0 4774 4774 4774 4774 4774 4774 4774 4774 4774 4774 4774 4774 4774 4774 4774 4774 4774 4708 4708 4774 4774 4708 4708 4708 2883 2883 2835 2835 2835 2835 2812 2812 2835 2812 2812 2812 2812 2812 2812 2789 2789 2789 2789 2812 2812 2789 2789 2789 2789 2789 2789 2789 2789 2789 2789 2789 2789 2812 2812 2812 2812 2812 2812 2835 2835 2835 2835 2835 2835 2812 2812 2812 2812 2812 0 0 0 0 0 0 0 0 0 0
0 0 0 0 0 0 0 0 0 0 0 0 0 0 0 0 0 0 0 0 0 0 0 0 0 0 0 0 0 0 4983 4983 5374 5460 5548 5640 5734 5734 5734 5734 5734 5734 5734 5734 5832 5832 5832 5832 5832 5832 5832 5832 5832 5832 5832 5832 5832 5933 5933 5933 5832 5832 5832 5832 5832 5832 5734 5734 5832 5734 5734 5734 5734 5832 6146 6146 6146 6146 6259 6259 6259 6259 6259 6259 6259 6259 6259 6259 6259 6259 6259 6259 6259 6259 6259 6259 6259 6259 6259 6259 6259 6375 6375 6259 6259 6259 6259 6375 6375 6375 6375 6375 6375 6375 6375 6375 6375 6375 6375 6375 6375 6375 6497 6375 6375 6375 6497 6375 6375 6497 6497 6497 6497 6497 6497 6497 6497 6497 6497 6375 5933 5933 5640 5640 5640 5548 5548 5548 5640 5640 5548 5548 5548 5548 5548 5548 5460 5460 5548 5548 5548 5548 5640 5640 5640 5548 5548 5548 2958 2958 2984 2984 2984 2984 2984 2984 3010 3010 3010 3010 3010 3037 3037 3037 3037 3037 3037 3010 3010 3037 3037 3037 3037 3037 3037 3037 3037 3037 3037 3037 3037 3037 3037 3064 3064 3064 3064 3064 3064 3064 3064 3064 3064 3064 3064 3064 3064 3092 3064 3064 3064 3064 3064 3092 3092 3092 3092 3092 3092 3120 3120 3120 3120 3120 3120 3120 3149 3149 3149 3149 3149 3149 3120 3120 3120 3120 3120 3120 3120 3120 3120 3120 3120 3120 3120 3120 3120 3120 3120 3120 3149 3149 3149 3149 3149 3149 3149 3149 3149 3149 3178 3178 3178 3178 3178 3178 3178 3178 3208 3208 3208 3208 3269 3269 3269 6259 6259 6375 6375 6375 6375 6375 6375 6375 6375 6375 6375 6497 6497 6497 6497 6497 6497 6497 6375 6375 6375 6497 6497 6497 6622 6497 6497 0 0 0 0 0 0 0 0 0 0 0 0 0 0 0 0 0 0 0 0 0 0 0 0 0 0 0 0 0 0 0 0 0 0 0 0 0 5210 5210 5210 5132 5132 5210 5210 5210 5210 5210 5132 5132 5132 5132 5132 5132 5056 5056 5056 4983 4983 4983 4983 4983 4983 4983 4983 5056 5056 4983 4983 4983 4983 4983 4911 4911 4911 4911 4911 4911 4911 4911 4911 4911 4911 4911 4911 4911 4911 4911 4911 4911 4911 4911 4911 4911 4911 4911 4911 4911 4911 4983 5056 5056 5132 5132 6753 6753 6753 6753 6753 6622 6622 6622 6622 6622 6622 6622 6622 6622 6622 6753 3614 3614 3576 3576 3576 3576 3576 3576 3539 3539 3503 3503 3468 3468 3503 3503 3503 0 0 0 0 0 0 0 0 0 0 0 0 0 0 0 0 0 0 0 0 0 0 0 0 0 0 0 4041 4041 4041 4089 4089 4089 3732 0 0 0 0 0 0 0 0 4139 4139 4089 4089 4041 3994 3948 3948 3859 3859 3859 3859 3903 3903 3903 3948 3994 0 0 0 0 0 3859 3859 3859 3859 3859 3859 3859 3859 3816 3816 3816 3816 3859 3859 3859 3859 3859 0 0 0 0 0 0 0 0 0 0 0 0 0 0 0 0 0 0 0 0 0 0 0 0 0 0 0 0 0 0 0 0 0 0 0 0 0 0 0 0 4774 4774 4774 4708 4708 4774 4774 4708 4708 4708 2883 2859 2835 2835 2835 2835 2812 2812 2835 2812 2812 2812 2812 2812 2812 2789 2789 2789 2789 2812 2812 2789 2789 2789 2789 2789 2789 2789 2789 2789 2789 2789 2789 2812 2812 2812 2812 2812 2812 2835 2835 2835 2835 2835 2835 2835 2812 2812 2812 2812 0 0 0 0 0 0 0 0 0 0
0 0 0 0 0 0 0 0 0 0 0 0 0 0 0 0 0 0 0 0 0 0 0 0 0 0 0 0 0 0 4911 4911 4983 5291 5548 5640 5734 5734 5734 5734 5734 5734 5734 5734 5832 5832 5832 5832 5832 5832 5832 5832 5832 5832 5832 5832 5832 5832 5832 5832 5832 5832 5832 5832 5832 5832 5832 5832 5832 5640 5640 5640 5734 5832 6146 6146 6146 6146 6259 6259 6259 6259 6259 6259 6259 6259 6259 6375 6259 6259 6259 6259 6259 6259 6259 6259 6259 6259 6259 6259 6375 6375 6375 6259 6259 6259 6259 6375 6375 6375 6375 6375 6375 6375 6375 6375 6375 6375 6375 6375 6375 6375 6497 6375 6375 6375 6375 6375 6375 6497 6497 6497 6497 6497 6497 6497 6497 6497 6375 6146 5933 5832 5640 5640 5548 5548 5548 5548 5548 5548 5548 5548 5548 5548 5548 5548 5460 5460 5548 5548 5548 5548 5640 5640 5640 5548 5548 5548 2984 2984 2984 2984 2984 2984 2984 2984 2984 3010 3010 3010 3010 3037 3037 3037 3037 3037 3037 3010 3010 3037 3037 3037 3037 3037 3037 3037 3037 3037 3037 3037 3064 3064 3064 3064 3064 3064 3064 3064 3064 3064 3064 3064 3064 3064 3064 3064 3064 3092 3092 3092 3064 3064 3092 3092 3092 3092 3092 3092 3092 3120 3120 3120 3120 3120 3120 3149 3149 3149 3149 3149 3149 3149 3120 3120 3120 3120 3120 3120 3120 3120 3120 3120 3120 3120 3120 3120 3120 3120 3120 3149 3149 3149 3149 3149 3149 3149 3149 3149 3149 3149 3149 3149 3149 3178 3178 3178 3178 3178 3178 3178 3178 3178 3238 3238 6259 6259 6259 6375 6375 6375 6497 6497 6497 6497 6497 6497 6497 6497 6497 6497 6497 6497 6497 6497 6497 6497 6497 6497 6497 6497 6622 6622 6622 0 0 0 0 0 0 0 0 0 0 0 7332 7332 7332 7332 7332 7492 7332 7332 7492 7492 7492 7492 7492 7492 7492 7660 0 0 0 0 0 0 0 0 0 0 5210 5210 5210 5132 5132 5210 5210 5210 5210 5132 5132 5132 5132 5132 5132 5132 5132 5056 5056 4983 4983 4983 4983 4983 4983 4983 4983 4983 4983 4983 4983 4983 4983 4983 4911 4911 4911 4911 4911 4911 4911 4911 4911 4911 4911 4911 4911 4911 4911 4911 4842 4842 4842 4842 4842 4842 4842 4911 4911 4911 4911 4983 5056 5056 5132 5132 6753 6753 6753 6753 6753 6622 6622 6622 6622 6622 6622 6622 6622 6622 6622 6753 6753 6753 3539 3539 3576 3576 3576 3576 3576 3539 3539 3539 3503 3503 3503 3503 3503 0 0 0 3653 3653 3692 3692 0 0 0 0 0 0 0 0 0 0 0 0 0 0 0 0 0 0 0 0 4041 4041 4041 3774 3732 3732 0 0 0 0 0 0 0 0 0 4139 4139 0 0 0 0 0 3732 3732 3774 3816 3816 3816 3816 3859 3859 3994 0 0 0 0 0 3859 3859 3859 3859 3859 3859 3859 3859 3816 3816 3816 3816 3816 3816 3859 3859 0 0 0 0 0 0 0 0 0 0 0 0 0 0 0 0 0 0 0 0 0 0 0 0 0 0 0 0 0 0 0 0 0 0 0 0 0 0 0 0 3732 0 0 4708 4708 4708 4774 4774 4774 4774 2883 2883 2859 2835 2835 2835 2835 2835 2835 2835 2812 2812 2812 2812 2812 2812 2812 2812 2789 2789 2812 2812 2789 2789 2789 2789 2789 2789 2789 2789 2789 2789 2789 2789 2789 2789 2812 2812 2812 2812 2835 2835 2835 2835 2835 2835 2835 2835 2835 2835 2835 0 0 0 0 0 0 0 0 0 0
0 0 0 0 0 0 0 0 0 0 0 0 0 0 0 0 0 0 0 0 0 0 0 0 0 0 0 0 0 0 4911 4911 4983 5210 5548 5640 5734 5640 5640 5734 5734 5734 5734 5734 5832 5832 5832 5832 5832 5832 5832 5832 5832 5832 5832 5832 5832 5832 5832 5832 5832 5832 5832 5832 5832 5832 5832 5832 5832 5640 5640 5640 5832 5832 6146 6146 6146 6146 6259 6259 6259 6259 6259 6259 6259 6259 6259 6259 6259 6259 6259 6259 6259 6259 6259 6259 6259 6259 6259 6259 6375 6375 6375 6375 6375 6375 6375 6375 6375 6375 6375 6375 6375 6375 6375 6375 6375 6375 6375 6375 6375 6375 6497 6375 6375 6375 6375 6375 6375 6497 6497 6497 6497 6497 6497 6497 6497 6497 6375 6146 6146 5832 5640 5640 5548 5548 5548 5548 5548 5548 5548 5548 5548 5548 5460 5460 5460 5460 5548 5548 5548 5548 5548 5640 5640 5548 5548 5640 3010 2984 2984 2984 2984 2984 2984 2984 2984 3010 3010 3010 3010 3037 3037 3037 3037 3037 3037 3037 3037 3037 3037 3037 3037 3037 3037 3037 3037 3037 3037 3037 3037 3037 3037 3064 3064 3064 3064 3064 3064 3064 3064 3064 3064 3064 3064 3064 3064 3092 3092 3092 3092 3092 3092 3120 3120 3120 3120 3120 3120 3149 3149 3149 3149 3149 3149 3149 3149 3149 3149 3149 3149 3149 3120 3120 3120 3120 3120 3120 3120 3120 3120 3120 3149 3149 3149 3149 3149 3149 3120 3120 3149 3149 3149 3149 3149 3149 3149 3149 3149 3149 3149 3149 3149 3149 3178 3178 3178 3178 3178 3178 3178 3178 3238 3269 3269 6375 6375 6375 6497 6497 6622 6622 6622 6622 6622 6622 6622 6622 6622 6497 6497 6622 6497 6497 6497 6497 6497 6497 6497 6497 6622 6622 6622 0 0 0 0 0 0 0 0 0 7492 7332 7332 7332 7332 7332 7332 7492 7332 7332 7492 7492 7492 7492 7492 7492 7492 7492 7332 7332 7332 7332 0 0 7178 7178 7178 7178 5210 5132 5132 5132 5132 5210 5210 5210 5210 5132 5132 5132 5132 5132 5056 5056 5056 4983 4983 4983 4983 4983 4983 4983 4983 4983 4983 4983 4911 4911 4911 4983 4983 4983 4911 4911 4911 4911 4911 4911 4911 4911 4911 4911 4911 4911 4911 4911 4911 4911 4842 4842 4842 4842 4842 4842 4842 4911 4911 4911 4911 4983 5056 5056 5132 6753 6753 6753 6753 6753 6753 6622 6622 6622 6622 6622 6622 6622 6622 6622 6753 6753 6753 6753 3539 3539 3576 3576 3576 3576 3576 3576 3539 3539 3539 3539 3503 3503 3503 3576 0 0 3614 3614 3614 3653 3653 0 0 0 0 0 0 0 0 0 0 0 0 0 0 0 0 0 0 0 0 3816 3774 3774 3732 3732 3732 0 0 0 0 0 0 0 0 0 0 0 0 0 0 0 3732 3732 3732 3774 3774 3653 3653 3653 3859 0 0 0 0 0 0 3859 3859 3859 3859 3816 3816 3816 3816 3774 3774 3774 3774 3774 3774 3816 3816 3576 0 0 0 0 0 0 0 0 0 0 0 0 0 0 0 0 0 0 0 0 0 0 0 0 0 0 0 0 0 0 0 0 0 0 0 0 0 0 0 0 0 0 0 0 0 3692 3692 2883 2883 2883 2883 2859 2835 2835 2835 2835 2835 2835 2835 2812 2812 2812 2812 2789 2789 2789 2789 2789 2789 2812 2812 2789 2789 2789 2812 2812 2812 2789 2789 2789 2812 2789 2789 2789 2789 2812 2812 2812 2812 2812 2812 2835 2835 2835 2835 2835 2835 2835 2835 2835 0 0 0 0 0 0 0 0 0 0
0 0 0 0 0 0 0 0 0 0 0 0 0 0 0 0 0 0 0 0 0 0 0 0 0 0 0 0 0 0 4842 4842 4842 5210 5640 5640 5640 5640 5640 5640 5734 5734 5734 5734 5832 5832 5832 5832 5832 5933 5933 5832 5832 5832 5832 5832 5832 5832 5832 5832 5832 5832 5832 5832 5832 5832 5832 5832 5832 5734 5734 5734 5734 5832 6146 6146 6146 6146 6259 6259 6259 6259 6259 6259 6259 6259 6259 6259 6259 6259 6259 6259 6259 6259 6259 6259 6259 6259 6259 6259 6259 6375 6375 6375 6375 6375 6375 6375 6375 6375 6375 6375 6375 6375 6375 6375 6375 6375 6375 6375 6375 6375 6375 6375 6375 6375 6375 6375 6375 6375 6375 6497 6497 6497 6497 6497 6497 6497 6259 6146 6146 5734 5640 5548 5548 5548 5548 5548 5548 5548 5548 5548 5548 5548 5460 5460 5460 5460 5460 5460 5548 5548 5548 5548 5548 5548 5548 5640 5640 2984 2984 2984 2984 2984 2984 2984 2984 3010 3010 3010 3037 3037 3037 3037 3037 3037 3037 3037 3037 3037 3037 3037 3037 3037 3037 3037 3037 3037 3037 3037 3037 3037 3037 3064 3064 3064 3064 3064 3064 3064 3064 3064 3064 3064 3064 3064 3064 3092 3092 3092 3092 3092 3092 3120 3120 3120 3120 3120 3120 3120 3149 3149 3149 3149 3149 3149 3149 3149 3149 3149 3149 3149 3120 3120 3120 3120 3120 3120 3120 3120 3120 3149 3149 3149 3149 3149 3149 3149 3120 3120 3149 3149 3149 3149 3149 3149 3149 3149 3149 3149 3149 3149 3149 3149 3149 3149 3149 3178 3178 3178 3178 3238 3238 3269 7030 6622 6622 6622 6753 6889 6889 7030 7030 7030 6889 6753 6753 6753 6753 6622 6622 6753 6622 6622 6622 6497 6497 6497 6497 6497 6497 6622 6622 0 0 0 0 0 0 0 0 7660 7492 7332 7332 7332 7332 7332 7332 7492 7492 7492 7492 7492 7492 7492 7492 7492 7492 7492 7332 7332 7332 7332 7332 7178 7178 7178 7178 7178 5132 5132 5132 5132 5210 5210 5132 5132 5132 5132 5132 5132 5132 5132 5056 5056 5056 4983 4983 4983 4983 4983 4983 4983 4983 4983 4983 4983 4911 4911 4911 4983 4983 4983 4911 4911 4911 4911 4911 4911 4911 4911 4911 4911 4911 4911 4911 4911 4911 4911 4911 4911 4842 4842 4842 4842 4842 4911 4911 4911 4911 4983 5056 5056 5056 6889 6753 6753 6753 6753 6622 6622 6622 6622 6622 6622 6622 6622 6622 6753 6753 6753 6622 6622 6622 3614 3576 3576 3576 3576 3576 3576 3576 3576 3576 3576 3576 3576 3576 3576 3576 3614 3614 3614 3614 3614 3614 3653 0 0 0 0 0 0 0 0 0 0 0 0 0 0 0 0 0 0 0 3816 3732 3732 3692 3692 3692 3692 3692 3692 0 0 0 0 0 0 0 0 0 0 0 0 3692 3692 3692 3692 3692 3653 3653 3653 3653 0 0 0 0 0 0 3859 3816 3816 3816 3816 3732 3732 3732 3692 3692 3692 3692 3692 3692 3653 3653 3576 3576 0 0 0 0 0 0 0 0 0 0 0 0 0 0 0 0 0 0 0 0 0 0 0 0 0 0 0 3692 3692 3692 3692 3692 3692 3692 3692 0 0 0 0 0 0 3692 3692 3692 3692 3692 0 2883 2883 2883 2859 2835 2835 2835 2835 2835 2835 2835 2835 2835 2812 2812 2789 2789 2789 2789 2789 2789 2812 2812 2812 2812 2812 2812 2812 2812 2812 2812 2812 2812 2789 2789 2789 2789 2812 2812 2812 2812 2812 2812 2835 2835 2835 2835 2835 2835 2835 2835 2835 0 0 0 0 0 0 0 0 0 0
0 0 0 0 0 0 0 0 0 0 0 0 0 0 0 0 0 0 0 0 0 0 0 0 0 0 0 0 0 0 4774 4774 4774 4774 5640 5640 5640 5640 5640 5640 5734 5734 5734 5734 5832 5832 5832 5933 5933 5832 5832 5832 5832 5832 5832 5832 5832 5832 5832 5832 5832 5832 5832 5832 5832 5832 5832 5832 5832 5734 5734 5734 5734 5832 6146 6146 6146 6146 6146 6146 6259 6259 6259 6259 6259 6259 6259 6259 6259 6259 6259 6259 6259 6259 6259 6259 6259 6259 6259 6259 6259 6375 6375 6375 6375 6375 6375 6375 6375 6375 6375 6375 6375 6375 6375 6375 6375 6375 6375 6375 6375 6375 6375 6375 6375 6375 6375 6375 6375 6375 6375 6497 6497 6497 6497 6497 6497 6375 6259 6038 6038 5734 5548 5548 5548 5548 5548 5548 5548 5548 5548 5548 5548 5548 5460 5460 5460 5460 5460 5460 5548 5548 5548 5548 5548 5548 5548 5640 5640 3010 3010 2984 2984 2984 2984 2984 2984 3010 3010 3037 3037 3037 3037 3037 3037 3037 3037 3037 3037 3037 3037 3037 3037 3037 3037 3037 3037 3037 3037 3037 3037 3064 3064 3064 3064 3064 3064 3064 3064 3064 3064 3064 3092 3092 3092 3092 3092 3092 3120 3120 3092 3092 3120 3120 3120 3120 3120 3120 3120 3120 3149 3149 3149 3149 3149 3149 3149 3149 3149 3149 3149 3149 3120 3120 3120 3120 3120 3120 3120 3120 3120 3120 3120 3149 3149 3149 3149 3149 3149 3149 3149 3149 3149 3149 3149 3149 3149 3149 3149 3149 3149 3149 3149 3149 3149 3149 3149 3178 3178 3178 3178 3238 3238 3238 7030 6889 6889 7030 7030 7178 7178 7332 7332 7332 7030 7030 7030 6889 6889 6753 6753 7030 7030 6753 6622 6497 6497 6497 6497 6497 6497 6622 6889 0 0 0 0 7660 7492 7492 7492 7492 7660 7332 7332 7332 7332 7332 7492 7492 7492 7492 7492 7492 7660 7660 7492 7492 7492 7492 7332 7332 7332 7332 7332 7178 7178 7178 7178 7178 7660 5132 5132 5132 5210 5132 5132 5132 5132 5132 5132 5132 5056 5056 5056 5056 4983 4983 4983 4983 4983 4983 4983 4983 4983 4983 4983 4983 4911 4911 4983 4983 4911 4911 4911 4911 4911 4911 4911 4911 4911 4911 4911 4911 4911 4911 4911 4911 4911 4911 4911 4911 4842 4842 4842 4842 4842 4911 4911 4911 4911 4983 5056 5056 5056 7030 6889 6889 6753 6753 6622 6622 6622 6622 6622 6622 6622 6622 6622 6753 6753 6622 6622 6622 6753 3614 3614 3614 3576 3576 3576 3576 3576 3576 3576 3576 3576 3576 3576 3576 3576 3614 3614 3614 3614 3614 3614 3653 0 0 0 0 0 0 0 0 0 0 0 0 0 0 0 0 0 0 0 3732 3692 3653 3653 3653 3653 3653 3653 3653 3653 0 0 0 0 0 0 0 0 0 0 0 3614 3614 3614 3576 3576 3576 3576 3576 3576 0 0 0 0 0 0 3859 3816 3816 3816 3774 3692 3692 3692 3692 3653 3653 3653 3614 3614 3576 3576 3576 3576 0 0 0 0 0 0 0 0 0 0 0 0 0 0 0 0 0 0 0 0 0 0 0 0 0 0 0 3692 3653 3653 3653 3653 3692 3653 3653 0 0 0 0 0 3732 3692 3692 3692 3692 3692 0 2908 2908 2883 2859 2835 2835 2835 2835 2835 2835 2835 2835 2835 2812 2812 2789 2789 2789 2789 2789 2812 2812 2812 2812 2812 2812 2812 2812 2812 2812 2812 2812 2812 2789 2789 2789 2789 2812 2812 2812 2812 2812 2812 2835 2835 2835 2835 2835 2835 2835 2835 2835 0 0 0 0 0 0 0 0 0 0
0 0 0 0 0 0 0 0 0 0 0 0 0 0 0 0 0 0 0 0 0 0 0 0 0 0 0 0 0 0 4774 4774 4774 4774 5640 5640 5548 5548 5548 5640 5640 5640 5734 5734 5832 5832 5832 5933 5933 5832 5832 5832 5832 5832 5832 5832 5832 5832 5832 5832 5832 5832 5832 5832 5832 5832 5832 5832 5832 5832 5832 5832 5832 5832 6146 6146 6146 6146 6146 6146 6259 6259 6259 6259 6259 6259 6259 6259 6259 6259 6259 6259 6259 6259 6259 6259 6259 6259 6259 6259 6259 6259 6375 6375 6375 6375 6375 6375 6375 6375 6259 6259 6375 6375 6259 6259 6259 6375 6375 6375 6375 6375 6497 6375 6375 6375 6375 6375 6375 6375 6375 6497 6497 6497 6497 6622 6497 6375 6259 5933 5933 5640 5548 5548 5548 5548 5548 5548 5548 5548 5548 5548 5548 5548 5460 5460 5460 5460 5460 5460 5548 5548 5548 5548 5548 5548 5548 5640 5640 3037 3010 3010 3010 3010 3010 2984 2984 3010 3010 3037 3037 3037 3037 3037 3037 3037 3037 3037 3037 3037 3037 3037 3037 3037 3037 3037 3037 3037 3037 3037 3064 3064 3064 3064 3064 3064 3064 3064 3064 3064 3064 3064 3092 3092 3092 3092 3092 3092 3120 3120 3120 3120 3120 3120 3120 3120 3120 3120 3120 3149 3149 3149 3149 3149 3149 3149 3149 3149 3149 3149 3149 3149 3120 3120 3120 3120 3120 3120 3120 3120 3120 3120 3120 3149 3149 3149 3149 3149 3149 3149 3149 3149 3149 3149 3149 3149 3149 3149 3149 3149 3149 3149 3149 3149 3149 3149 3149 3178 3178 3208 3208 3208 3208 3208 7178 7178 7332 7332 7332 7492 7492 7492 7492 7332 7332 7332 7332 7178 7178 7178 7178 7178 7332 7332 7030 6753 6497 6497 6497 6497 6497 6622 6889 0 7492 7492 7492 7492 7492 7492 7492 7492 7660 7492 7492 7492 7492 7492 7492 7492 7492 7660 7660 7660 7660 7660 7492 7492 7492 7492 7332 7332 7332 7332 7332 7178 7178 7178 7178 7178 7492 5132 5132 5132 5132 5132 5132 5132 5132 5132 5132 5056 5056 5056 5056 5056 4983 4983 4983 4983 4983 4983 4983 4983 4983 4983 4983 4983 4911 4911 4983 4911 4911 4911 4911 4911 4911 4911 4911 4911 4911 4911 4911 4911 4911 4911 4911 4911 4911 4911 4911 4911 4842 4842 4842 4842 4842 4911 4911 4911 4911 4983 5056 5056 5056 5132 6753 6753 6753 6753 6622 6622 6622 6622 6622 6622 6622 6622 6622 6622 6622 6622 6622 6622 6622 6622 3614 3614 3576 3576 3576 3576 3576 3576 3576 3576 3576 3576 3576 3576 3576 3614 3614 3614 3614 3576 3576 3614 3614 3614 0 0 0 0 0 0 0 0 0 0 0 0 0 0 0 0 0 3732 3614 3614 3614 3614 3653 3614 3614 3614 3614 3614 0 0 0 0 0 0 0 0 0 0 3576 3576 3576 3539 3539 3539 3539 3503 3503 0 0 0 0 0 0 0 3816 3732 3732 3732 3692 3692 3692 3692 3576 3576 3614 3576 3576 3539 3539 3539 3539 0 0 0 0 0 0 0 0 0 0 0 0 0 0 0 0 0 0 0 0 0 0 0 0 0 0 0 3653 3653 3653 3653 3653 3692 3653 3653 0 0 0 0 0 3732 3692 3692 3692 3692 3692 3503 2908 2908 2883 2859 2835 2835 2835 2835 2835 2835 2835 2835 2835 2835 2812 2812 2812 2789 2789 2789 2812 2812 2812 2812 2812 2812 2812 2812 2812 2812 2812 2812 2812 2812 2812 2812 2812 2812 2812 2835 2835 2812 2812 2835 2812 2812 2835 2835 2835 2835 2835 2835 0 0 0 0 0 0 0 0 0 0
0 0 0 0 0 0 0 0 0 0 0 0 0 0 0 0 0 0 0 0 0 0 0 0 0 0 0 0 0 0 4774 4774 4774 4774 5640 5640 5548 5548 5548 5640 5640 5640 5734 5734 5832 5832 5933 5933 5933 5832 5832 5832 5832 5832 5832 5832 5832 5734 5734 5734 5734 5734 5832 5832 5832 5832 5832 5832 5832 5832 5832 5832 5832 5832 6146 6259 6146 6146 6259 6259 6259 6259 6259 6259 6259 6259 6259 6259 6259 6259 6259 6259 6259 6259 6259 6259 6259 6259 6259 6259 6259 6259 6375 6375 6375 6375 6375 6375 6375 6375 6259 6259 6375 6259 6259 6259 6259 6375 6375 6375 6375 6375 6497 6375 6375 6375 6497 6497 6375 6375 6375 6497 6497 6497 6497 6622 6497 6259 6259 5933 5832 5640 5548 5548 5548 5548 5548 5640 5548 5548 5548 5548 5548 5548 5460 5460 5460 5460 5460 5460 5548 5548 5548 5548 5548 5548 5548 5640 5640 3037 3010 3010 3010 3010 3010 2984 2984 3010 3010 3010 3037 3037 3037 3037 3037 3037 3037 3037 3037 3037 3037 3037 3037 3037 3037 3064 3037 3037 3037 3064 3064 3064 3064 3064 3064 3064 3064 3064 3064 3064 3064 3064 3092 3092 3092 3092 3092 3092 3120 3120 3120 3120 3120 3120 3120 3120 3120 3120 3120 3149 3149 3149 3149 3149 3149 3149 3149 3149 3149 3149 3149 3149 3149 3120 3120 3120 3120 3120 3120 3120 3120 3120 3120 3149 3149 3149 3149 3149 3149 3149 3149 3149 3149 3149 3149 3149 3149 3149 3149 3149 3149 3149 3149 3149 3149 3149 3149 3178 3178 3208 3208 3208 3208 3208 7178 7178 7332 7332 7492 7492 7492 7492 7492 7332 7332 7332 7332 7332 7332 7332 7332 7492 7492 7492 7492 7492 7332 7332 6889 6753 6753 6889 7332 7332 7332 7492 7492 7492 7492 7492 7492 7492 7660 7492 7492 7492 7492 7492 7492 7492 7492 7660 7660 7660 7492 7492 7660 7492 7492 7492 7332 7332 7332 7178 7178 7178 7178 7178 7178 7332 7332 5132 5132 5132 5132 5132 5132 5132 5132 5132 5132 5056 5056 5056 5056 4983 4983 4983 4983 4983 4983 4983 4983 4983 4983 4983 4983 4983 4911 4911 4983 4911 4911 4911 4911 4911 4911 4911 4911 4911 4911 4911 4911 4911 4911 4911 4911 4842 4842 4842 4842 4842 4842 4842 4842 4842 4842 4911 4911 4983 4983 4983 5056 5056 5132 5132 6753 6753 6753 6753 6622 6622 6622 6622 6622 6622 6622 6622 6622 6622 6622 6622 6622 6622 6622 6622 3614 3614 3614 3576 3576 3576 3576 3576 3576 3576 3576 3576 3576 3576 3576 3614 3614 3614 3614 3576 3576 3614 3576 3576 3468 3468 0 0 3468 3433 3399 3399 0 0 0 0 0 0 0 0 0 0 3614 3614 3614 3614 3614 3614 3614 3576 3576 3576 3539 3539 3539 0 0 0 0 0 0 0 3539 3539 3539 3503 3503 3503 3503 3468 3433 3433 0 0 0 0 0 0 0 3732 3732 3732 3692 3692 3692 3539 3539 3539 3576 3539 3539 3539 3539 3539 0 0 0 0 0 0 0 0 0 0 0 0 0 0 0 0 0 0 0 0 0 0 0 0 0 0 0 0 3614 3614 3614 3653 3653 3692 3692 3692 0 0 0 0 0 0 3576 3576 3576 3468 3468 3503 3399 3399 2883 2835 2812 2812 2812 2812 2835 2835 2835 2835 2812 2812 2812 2812 2812 2812 2789 2789 2812 2812 2812 2812 2812 2812 2812 2812 2812 2812 2812 2812 2812 2812 2812 2812 2812 2812 2835 2835 2835 2812 2812 2835 2812 2812 2835 2835 2835 2835 2835 2835 0 0 0 0 0 0 0 0 0 0
0 0 0 0 0 0 0 0 0 0 0 0 0 0 0 0 0 0 0 0 0 0 0 0 0 0 0 0 0 0 0 0 5548 5548 5548 5548 5548 5548 5640 5640 5640 5640 5734 5734 5832 5832 5933 5933 5933 5832 5832 5832 5832 5832 5832 5832 5832 5734 5734 5734 5734 5734 5734 5832 5832 5832 5832 5832 5832 5832 5832 5832 5832 5933 6146 6146 6259 6259 6259 6259 6259 6259 6259 6259 6259 6259 6259 6259 6259 6259 6259 6259 6259 6259 6259 6259 6259 6259 6259 6259 6259 6259 6375 6375 6375 6375 6375 6375 6375 6375 6259 6259 6375 6259 6259 6259 6259 6375 6375 6375 6375 6375 6375 6375 6375 6375 6497 6497 6375 6375 6497 6497 6497 6497 6497 6622 6497 6259 6259 6259 5832 5640 5548 5548 5548 5548 5548 5640 5548 5548 5548 5548 5548 5548 5460 5460 5460 5460 5548 5548 5548 5548 5548 5548 5640 5548 5548 5640 5640 3037 3010 3010 3010 3010 3010 2984 2984 3010 3010 3010 3037 3037 3037 3037 3037 3037 3037 3037 3037 3037 3037 3037 3064 3064 3064 3064 3064 3064 3064 3064 3064 3064 3064 3064 3064 3064 3064 3064 3064 3064 3064 3064 3092 3092 3120 3092 3092 3120 3120 3120 3120 3120 3120 3120 3120 3120 3120 3120 3149 3149 3149 3149 3149 3149 3149 3149 3149 3149 3149 3149 3149 3149 3149 3120 3120 3120 3120 3120 3120 3120 3120 3120 3120 3149 3149 3149 3149 3149 3149 3149 3149 3149 3149 3149 3149 3149 3149 3149 3149 3149 3149 3149 3149 3149 3149 3178 3178 3178 3178 3208 3208 3208 3238 3238 7178 7178 7332 7332 7492 7492 7492 7492 7332 7332 7332 7332 7332 7332 7332 7332 7492 7492 7492 7492 7492 7492 7332 7332 7030 6889 6889 6889 7178 7332 7332 7332 7492 7492 7492 7492 7492 7492 7492 7492 7492 7492 7492 7492 7492 7492 7492 7660 7660 7660 7492 7492 7660 7492 7492 7492 7332 7332 7332 7178 7178 7178 7178 7178 7178 7332 7332 5210 5210 5210 5210 5132 5132 5132 5132 5132 5056 5056 5056 5056 5056 4983 4983 4983 4983 4983 4983 4983 5056 5056 5056 5056 5056 4983 4983 4983 4983 4911 4911 4911 4911 4911 4911 4911 4911 4911 4911 4911 4911 4911 4911 4911 4911 4842 4842 4842 4842 4842 4842 4842 4842 4842 4842 4911 4911 4983 4983 5056 5056 5132 7030 6753 6753 6753 6753 6753 6622 6622 6622 6622 6622 6622 6622 6622 6622 6622 6622 6497 6497 6497 6497 6622 6622 3614 3614 3576 3576 3576 3576 3576 3576 3576 3576 3576 3576 3576 3576 3614 3614 3614 3614 3614 3576 3576 3576 3539 3468 3468 3468 3468 3468 3433 3399 3399 3433 0 0 0 0 0 0 0 0 0 3539 3539 3576 3576 3576 3576 3576 3576 3576 3539 3539 3539 3539 3539 0 0 0 0 0 3503 3503 3539 3503 3503 3468 3468 3468 3468 3433 3433 3433 3433 0 0 0 0 3576 3576 3576 3539 3539 3539 3539 3503 3503 3503 3468 3468 3433 3433 3433 3433 3433 3433 3433 3468 3503 3503 3539 3503 3503 3539 0 3539 3539 3399 3399 3399 3399 3399 3433 3503 3539 3576 3576 3576 3576 3576 3576 3539 3539 3539 3576 3576 3576 3576 3576 3576 0 0 0 0 0 0 3503 3503 3503 3468 3468 3503 3399 3399 3399 2835 2812 2812 2812 2812 2835 2835 2835 2835 2812 2812 2812 2812 2812 2812 2812 2812 2812 2812 2812 2812 2812 2835 2812 2812 2812 2812 2812 2812 2812 2812 2812 2812 2812 2835 2835 2835 2835 2835 2835 2835 2835 2835 2835 2835 2835 2835 2835 2835 0 0 0 0 0 0 0 0 0 0
0 0 0 0 0 0 0 0 0 0 0 0 0 0 0 0 0 0 0 0 0 0 0 0 0 0 0 0 0 0 0 0 5374 5374 5548 5548 5548 5548 5548 5640 5640 5640 5832 5832 5832 5832 5933 5933 5933 5832 5832 5832 5832 5832 5734 5734 5734 5734 5640 5640 5734 5734 5734 5832 5832 5832 5832 5832 5832 5832 5832 5832 5832 5832 5832 6146 6259 6259 6259 6259 6259 6259 6259 6259 6259 6259 6259 6259 6259 6259 6259 6259 6259 6259 6259 6259 6259 6259 6259 6259 6259 6259 6259 6259 6259 6375 6375 6375 6375 6375 6259 6259 6375 6259 6259 6259 6259 6375 6375 6375 6375 6375 6375 6497 6497 6497 6497 6497 6497 6497 6497 6497 6497 6497 6497 6497 6497 6375 6375 6259 6259 5640 5548 5548 5548 5548 5548 5640 5640 5548 5548 5548 5548 5548 5460 5460 5460 5460 5460 5460 5548 5548 5548 5548 5640 5640 5640 5640 5640 3037 3010 3010 3010 3010 3010 3010 3010 3010 3010 3037 3037 3037 3037 3037 3037 3037 3037 3037 3037 3037 3064 3064 3064 3064 3064 3064 3064 3064 3064 3064 3064 3064 3064 3064 3064 3064 3064 3064 3064 3064 3064 3064 3092 3092 3120 3092 3092 3120 3120 3120 3120 3120 3120 3120 3120 3120 3120 3120 3149 3149 3149 3149 3149 3149 3149 3149 3149 3149 3149 3149 3149 3149 3149 3149 3120 3120 3120 3149 3149 3120 3120 3120 3120 3149 3149 3149 3149 3149 3149 3149 3149 3149 3149 3149 3149 3178 3178 3149 3149 3149 3149 3149 3149 3149 3149 3178 3178 3178 3208 3208 3208 3208 3208 3208 3208 7332 7332 7492 7492 7492 7492 7492 7332 7332 7332 7332 7332 7332 7332 7332 7492 7492 7492 7492 7492 7492 7332 7178 6889 6889 6889 6889 7030 7332 7332 7332 7332 7332 7332 7332 7492 7492 7492 7492 7492 7492 7492 7492 7492 7492 7492 7660 7660 7660 7492 7492 7660 7660 7492 7492 7332 7332 7332 7332 7178 7178 7178 7178 7178 7178 7332 5210 5210 5210 5210 5132 5132 5132 5132 5056 5056 5056 5056 5056 5056 4983 4983 4983 4983 4983 4983 5056 5056 5056 5056 5056 5056 4983 4983 4983 4911 4911 4911 4911 4911 4911 4911 4911 4911 4911 4911 4911 4911 4911 4911 4911 4911 4911 4911 4842 4842 4842 4842 4842 4842 4911 4911 4911 4911 4911 4983 5056 5056 5132 5132 6753 6753 6753 6753 6753 6622 6622 6622 6622 6622 6622 6622 6622 6622 6622 6622 6497 6497 6497 6497 6622 6622 3614 3614 3576 3576 3576 3576 3576 3576 3576 3576 3576 3576 3576 3576 3614 3614 3614 3614 3614 3576 3576 3576 3539 3503 3503 3468 3468 3468 3433 3433 3433 3433 3433 3433 0 0 0 0 0 0 0 3539 3539 3576 3576 3576 3539 3503 3503 3503 3539 3503 3503 3503 3539 0 0 0 0 0 3468 3468 3468 3468 3468 3433 3433 3468 3433 3433 3433 3433 3433 3433 0 0 0 3576 3539 3539 3539 3539 3503 3503 3503 3503 3468 3468 3468 3433 3433 3433 3433 3433 3433 3433 3468 3468 3503 3539 3468 3468 3468 3468 3539 3399 3399 3399 3365 3365 3399 3399 3399 3539 3576 3576 3576 3576 3576 3539 3503 3503 3539 3503 3503 3539 3576 3576 0 0 0 0 3399 3399 3433 3433 3433 3433 3433 3468 3468 3433 3433 3433 2835 2812 2812 2812 2812 2835 2835 2835 2835 2812 2812 2812 2812 2812 2812 2812 2812 2812 2835 2835 2835 2835 2835 2835 2835 2835 2835 2835 2835 2835 2835 2835 2835 2835 2835 2835 2835 2835 2835 2835 2835 2835 2835 2835 2835 2835 2835 2859 2859 0 0 0 0 0 0 0 0 0 0
0 0 0 0 0 0 0 0 0 0 0 0 0 0 0 0 0 0 0 0 0 0 0 0 0 0 0 0 0 0 4842 4842 4983 5291 5460 5548 5548 5548 5548 5640 5640 5640 5734 5734 5832 5832 5832 5832 5832 5832 5832 5832 5832 5832 5734 5734 5640 5640 5640 5640 5640 5734 5734 5832 5832 5832 5832 5832 5832 5734 5734 5734 5734 5832 5832 6146 6259 6259 6259 6259 6259 6259 6259 6259 6259 6259 6259 6259 6259 6259 6259 6259 6259 6259 6259 6259 6259 6259 6259 6259 6259 6259 6259 6259 6259 6375 6375 6375 6375 6375 6259 6259 6259 6259 6259 6259 6259 6259 6259 6375 6375 6375 6497 6497 6497 6497 6497 6497 6497 6497 6497 6497 6497 6497 6497 6497 6497 6375 6375 6259 6259 5734 5640 5548 5548 5548 5548 5640 5640 5640 5548 5548 5548 5548 5460 5460 5460 5460 5460 5460 5548 5548 5548 5548 5640 5640 5640 5640 5640 5640 3010 3010 3010 3010 3010 3010 3010 3010 3037 3037 3037 3037 3037 3037 3037 3037 3037 3037 3037 3037 3064 3064 3064 3064 3064 3064 3064 3064 3064 3064 3064 3064 3064 3064 3064 3064 3064 3064 3064 3064 3064 3064 3092 3092 3092 3092 3120 3120 3120 3120 3120 3120 3120 3120 3120 3149 3149 3149 3149 3149 3149 3149 3149 3149 3149 3149 3149 3149 3149 3149 3149 3149 3149 3149 3120 3120 3120 3149 3149 3120 3120 3120 3149 3149 3149 3149 3149 3149 3149 3149 3149 3149 3149 3149 3149 3178 3178 3178 3178 3178 3178 3178 3178 3178 3178 3178 3208 3208 3208 3208 3208 3208 3208 3208 3208 7332 7332 7492 7492 7492 7492 7492 7332 7332 7332 7178 7178 7332 7332 7332 7332 7492 7492 7492 7492 7492 7332 7030 6889 6889 6889 6889 7030 7178 7332 7332 7332 7332 7332 7332 7332 7492 7492 7492 7492 7492 7660 7660 7660 7660 7660 7660 7660 7660 7492 7492 7660 7660 7492 7332 7332 7332 7332 7332 7332 7332 7178 7178 7178 7178 5132 5132 5210 5210 5210 5132 5132 5132 5132 5056 5056 5056 5056 5056 5056 5056 5056 5056 5056 5056 5056 5056 5056 5056 5056 5056 4983 4983 4983 4983 4911 4911 4911 4911 4911 4911 4911 4911 4911 4911 4842 4842 4842 4842 4842 4842 4911 4911 4911 4842 4842 4842 4842 4842 4842 4911 4911 4911 4911 4911 4983 5056 5056 5056 5056 5132 5132 6889 6889 6753 6753 6622 6622 6622 6622 6622 6622 6622 6622 6622 6497 6497 6497 6497 6622 6622 6622 3614 3614 3576 3576 3576 3576 3576 3576 3576 3576 3576 3576 3576 3614 3614 3614 3614 3614 3614 3576 3576 3576 3539 3503 3503 3468 3468 3468 3433 3433 3433 3433 3433 3433 3468 3468 3468 0 0 3468 3468 3468 3503 3539 3539 3539 3468 3468 3433 3433 3468 3433 3433 3433 3365 3333 3333 3333 3333 3365 3365 3399 3433 3433 3433 3433 3433 3433 3433 3433 3433 3433 3399 3399 3399 0 3539 3539 3399 3399 3433 3433 3433 3503 3468 3468 3468 3433 3433 3399 3399 3399 3399 3399 3399 3399 3433 3468 3503 3468 3433 3433 3433 3433 3399 3399 3365 3365 3365 3365 3399 3365 3365 3399 3433 3433 3576 3576 3576 3539 3503 3433 3433 3468 3468 3468 3468 3399 3399 3365 3365 0 3399 3399 3399 3433 3433 3433 3433 3433 3433 3433 3399 3399 3399 2812 2812 2812 2812 2835 2835 2835 2812 2812 2812 2812 2812 2812 2812 2812 2812 2812 2835 2835 2835 2835 2835 2835 2835 2835 2835 2835 2835 2835 2835 2835 2835 2835 2835 2835 2835 2835 2835 2835 2835 2835 2835 2835 2835 2835 2835 2835 2835 0 0 0 0 0 0 0 0 0 0
0 0 0 0 0 0 0 0 0 0 0 0 0 0 0 0 0 0 0 0 0 0 0 0 0 0 0 0 0 0 4842 4842 4983 5291 5460 5460 5548 5548 5548 5640 5640 5640 5734 5734 5734 5832 5832 5832 5832 5832 5832 5832 5832 5832 5734 5734 5640 5640 5640 5640 5640 5734 5734 5832 5832 5832 5832 5832 5832 5734 5734 5734 5734 5832 5832 6146 6259 6259 6259 6259 6259 6259 6259 6259 6259 6259 6259 6259 6259 6259 6259 6259 6259 6259 6259 6259 6259 6259 6259 6259 6259 6259 6259 6259 6259 6375 6375 6375 6375 6375 6375 6375 6259 6259 6259 6259 6259 6259 6259 6375 6375 6375 6497 6497 6497 6497 6497 6497 6497 6497 6497 6497 6497 6622 6622 6622 6622 6497 6497 6497 5933 5832 5640 5548 5548 5548 5640 5640 5640 5640 5640 5548 5548 5548 5460 5460 5460 5460 5460 5460 5548 5548 5640 5640 5640 5640 5640 5640 5734 5734 3037 3010 3010 3010 3010 3037 3037 3037 3037 3037 3037 3037 3037 3037 3037 3037 3037 3037 3037 3064 3064 3064 3064 3064 3064 3064 3064 3064 3064 3064 3064 3064 3064 3064 3064 3064 3064 3064 3064 3064 3064 3064 3092 3092 3092 3092 3120 3120 3120 3120 3120 3120 3120 3120 3149 3149 3149 3149 3149 3149 3149 3149 3149 3149 3149 3149 3149 3149 3149 3149 3149 3149 3149 3149 3149 3149 3149 3149 3149 3120 3120 3120 3149 3149 3149 3149 3149 3149 3149 3149 3149 3149 3149 3149 3149 3178 3178 3178 3178 3178 3178 3178 3178 3178 3178 3208 3208 3208 3208 3238 3208 3208 3208 3208 3208 7332 7492 7492 7492 7492 7492 7492 7332 7332 7332 7178 7178 7332 7332 7332 7332 7492 7492 7492 7492 7492 7332 7030 6889 6889 6889 6889 7030 7178 7332 7332 7332 7332 7332 7332 7332 7492 7492 7492 7492 7492 7660 7660 7660 7660 7660 7660 7660 7660 7492 7492 7492 7492 7492 7332 7332 7332 7332 7332 7332 7332 7332 7332 7332 7332 5132 5132 5210 5210 5210 5132 5132 5132 5132 5056 5056 5056 5056 5056 5056 5056 5056 5056 5056 5056 5056 5056 5056 5056 5056 4983 4983 4983 4983 4983 4911 4911 4911 4911 4911 4911 4911 4911 4911 4911 4842 4842 4842 4842 4842 4842 4842 4842 4911 4842 4842 4842 4842 4911 4911 4911 4911 4911 4911 4911 4983 5056 5056 5056 5056 5132 5132 5132 6889 6753 6753 6622 6622 6622 6622 6622 6622 6622 6622 6622 6497 6497 6497 6497 6622 6622 6622 3614 3614 3576 3576 3576 3576 3576 3576 3576 3576 3576 3576 3576 3614 3614 3614 3614 3614 3614 3576 3576 3576 3539 3539 3539 3468 3468 3468 3433 3433 3433 3433 3433 3433 3433 3433 3468 3468 3433 3433 3468 3468 3468 3468 3468 3468 3433 3433 3399 3399 3399 3399 3399 3365 3365 3333 3300 3300 3300 3333 3333 3365 3399 3399 3399 3399 3399 3399 3399 3399 3399 3399 3399 3399 3399 0 3399 3399 3399 3399 3399 3399 3399 3433 3433 3433 3433 3433 3433 3399 3399 3399 3399 3399 3399 3399 3399 3433 3433 3433 3399 3399 3399 3365 3365 3333 3333 3333 3333 3333 3333 3365 3365 3399 3399 3399 3399 3433 3433 3433 3433 3399 3399 3399 3399 3399 3399 3399 3399 3365 3365 3365 3399 3365 3365 3433 3433 3433 3433 3433 3433 3365 3365 3333 3333 2835 2835 2835 2835 2835 2835 2812 2812 2812 2812 2812 2812 2812 2812 2812 2812 2835 2835 2835 2835 2835 2835 2835 2835 2835 2835 2835 2835 2835 2835 2835 2835 2835 2835 2835 2835 2835 2835 2835 2835 2835 2835 2835 2835 2835 2835 2835 2835 0 0 0 0 0 0 0 0 0 0
0 0 0 0 0 0 0 0 0 0 0 0 0 0 0 0 0 0 0 0 0 0 0 0 0 0 0 0 0 0 4842 4842 4983 5374 5460 5460 5548 5548 5548 5640 5640 5640 5734 5734 5734 5832 5832 5832 5832 5832 5832 5832 5832 5832 5734 5734 5640 5640 5640 5640 5734 5734 5734 5832 5832 5734 5734 5832 5832 5734 5734 5734 5734 5734 5832 6146 6259 6259 6259 6259 6259 6259 6259 6259 6259 6259 6259 6259 6259 6259 6259 6259 6259 6259 6259 6375 6375 6259 6259 6259 6259 6259 6259 6259 6259 6375 6375 6375 6375 6375 6375 6375 6375 6259 6259 6375 6375 6375 6375 6375 6375 6497 6497 6497 6497 6497 6497 6497 6497 6497 6497 6497 6497 6622 6622 6622 6622 6497 6497 6497 5933 5933 5640 5640 5548 5548 5640 5734 5734 5734 5640 5640 5640 5640 5548 5548 5548 5640 5640 5640 5548 5548 5640 5640 5640 5640 5640 5640 5734 5734 3037 3010 3010 3010 3010 3037 3037 3037 3037 3037 3037 3037 3037 3037 3037 3037 3037 3037 3037 3064 3064 3064 3064 3064 3064 3064 3064 3064 3064 3064 3064 3064 3064 3064 3064 3064 3064 3064 3064 3064 3092 3092 3092 3092 3120 3120 3120 3120 3120 3120 3120 3120 3120 3149 3149 3149 3149 3149 3149 3149 3149 3149 3149 3149 3149 3149 3149 3149 3149 3149 3149 3149 3149 3149 3149 3149 3149 3149 3149 3149 3149 3149 3149 3149 3149 3149 3149 3149 3149 3149 3149 3149 3178 3178 3178 3178 3178 3178 3178 3178 3178 3178 3178 3178 3208 3208 3208 3208 3238 3238 3238 3238 3238 3238 3238 7332 7492 7492 7492 7492 7492 7492 7332 7178 7178 7178 7178 7178 7178 7332 7492 7492 7492 7492 7492 7492 7332 7030 6889 6889 6889 6889 7030 7178 7332 7332 7332 7332 7332 7332 7332 7492 7492 7492 7492 7492 7660 7660 7660 7660 7660 7660 7660 7660 7492 7492 7492 7492 7332 7332 7332 7332 7332 7332 7332 7332 7332 7332 7332 7332 5132 5132 5132 5210 5210 5210 5210 5132 5132 5132 5056 5056 5056 5056 5056 5056 5056 5056 5056 5056 5056 5056 5056 4983 4983 4983 4983 4983 4983 4983 4983 4983 4911 4911 4911 4911 4911 4911 4911 4911 4842 4842 4911 4842 4842 4842 4842 4842 4911 4911 4911 4911 4911 4911 4911 4911 4911 4911 4911 4911 4911 5056 5056 5056 5056 5132 5132 5132 5056 5056 6753 6622 6622 6622 6622 6622 6622 6622 6622 6622 6497 6497 6497 6497 6497 6497 6497 3614 3614 3576 3576 3576 3576 3576 3576 3576 3576 3576 3576 3576 3614 3614 3614 3614 3614 3614 3576 3576 3576 3539 3539 3539 3503 3468 3468 3433 3433 3433 3433 3433 3433 3433 3433 3433 3433 3433 3433 3468 3433 3433 3433 3399 3399 3399 3365 3365 3365 3365 3365 3365 3365 3365 3333 3300 3300 3300 3300 3300 3269 3269 3300 3300 3365 3365 3365 3399 3399 3399 3399 3399 3399 3399 3269 3399 3399 3365 3365 3365 3365 3365 3433 3399 3399 3399 3399 3399 3399 3365 3365 3399 3365 3365 3333 3333 3333 3365 3365 3333 3333 3333 3333 3300 3300 3300 3300 3333 3333 3333 3333 3365 3365 3399 3399 3399 3433 3433 3433 3433 3365 3365 3365 3399 3365 3365 3365 3365 3333 3333 3333 3333 3333 3333 3365 3399 3399 3399 3399 3399 3365 3333 3333 3333 3333 2835 2835 2835 2812 2812 2812 2812 2812 2812 2812 2812 2812 2812 2812 2812 2835 2835 2835 2835 2835 2835 2835 2835 2835 2835 2835 2835 2835 2835 2835 2835 2835 2835 2835 2835 2835 2835 2835 2835 2835 2835 2859 2835 2835 2859 2859 2859 0 0 0 0 0 0 0 0 0 0
0 0 0 0 0 0 0 0 0 0 0 0 0 0 0 0 0 0 0 0 0 0 0 0 0 0 0 0 0 0 4911 4911 5056 5374 5460 5460 5548 5548 5640 5640 5640 5734 5734 5734 5734 5832 5832 5832 5832 5832 5832 5832 5832 5832 5832 5734 5640 5640 5640 5640 5734 5734 5734 5832 5832 5734 5734 5832 5832 5734 5734 5734 5734 5734 5832 6146 6259 6259 6259 6259 6259 6259 6259 6259 6259 6259 6259 6259 6259 6259 6259 6259 6259 6259 6259 6259 6375 6259 6259 6259 6259 6259 6259 6259 6375 6375 6375 6375 6375 6375 6375 6375 6375 6375 6375 6375 6375 6375 6375 6375 6375 6497 6497 6497 6497 6497 6497 6497 6497 6497 6497 6622 6622 6622 6622 6622 6622 6622 6622 6622 6038 6038 5734 5640 5640 5640 5640 5734 5734 5734 5734 5734 5734 5734 5640 5640 5734 5832 6497 6497 6497 5734 5734 5734 5734 5734 5734 5734 5734 3064 3010 3010 3010 3010 3010 3037 3037 3037 3037 3037 3037 3037 3037 3037 3037 3037 3037 3064 3064 3064 3064 3064 3064 3064 3064 3064 3064 3064 3064 3064 3064 3064 3064 3064 3064 3064 3064 3064 3064 3064 3092 3092 3092 3120 3120 3120 3120 3120 3120 3120 3120 3120 3120 3149 3149 3149 3149 3149 3149 3149 3149 3149 3149 3149 3149 3149 3149 3149 3149 3149 3149 3149 3149 3149 3149 3149 3149 3149 3149 3149 3149 3149 3149 3149 3149 3149 3149 3149 3149 3149 3149 3149 3178 3178 3178 3178 3178 3178 3178 3178 3208 3208 3208 3208 3208 3238 3238 3238 3238 3238 3238 3238 3238 3238 3269 7332 7492 7492 7492 7492 7492 7492 7332 7178 7178 7178 7178 7178 7178 7332 7492 7492 7492 7492 7492 7492 7332 7030 6889 6889 6889 6889 6889 7332 7492 7492 7332 7332 7332 7332 7492 7492 7492 7492 7492 7660 7660 7660 7660 7660 7660 7660 7660 7660 7660 7492 7492 7492 7178 7178 7178 7178 7178 7332 7332 7332 7332 7332 7332 7332 5132 5132 5132 5210 5210 5210 5210 5210 5132 5132 5132 5132 5132 5132 5056 5056 5132 5132 5132 5132 5132 5056 5056 4983 4983 4983 4983 4983 4983 4983 4983 4983 4911 4911 4911 4911 4911 4911 4911 4911 4842 4842 4911 4911 4911 4911 4842 4842 4911 4911 4911 4911 4911 4911 4911 4911 4911 4911 4911 4911 4911 5056 5056 5056 5056 5132 5132 5132 5056 5056 5056 6622 6622 6622 6622 6622 6622 6622 6622 6622 6497 6497 6497 6497 6497 6497 0 3576 3576 3576 3576 3576 3576 3576 3576 3576 3576 3576 3576 3576 3614 3614 3614 3614 3614 3614 3576 3576 3576 3539 3539 3539 3539 3468 3468 3433 3433 3433 3433 3433 3433 3433 3433 3433 3433 3433 3433 3433 3433 3433 3433 3399 3399 3399 3365 3333 3333 3365 3365 3365 3365 3365 3333 3300 3300 3300 3269 3269 3269 3269 3269 3300 3300 3333 3333 3365 3365 3365 3365 3365 3365 3365 3269 3269 3300 3300 3300 3333 3333 3333 3365 3399 3399 3399 3399 3399 3365 3333 3333 3333 3333 3333 3300 3300 3300 3333 3333 3333 3333 3333 3333 3300 3300 3300 3300 3300 3300 3300 3300 3333 3333 3333 3333 3333 3300 3300 3300 3300 3300 3300 3365 3399 3333 3333 3333 3333 3333 3300 3300 3300 3300 3300 3333 3365 3399 3399 3399 3399 3365 3333 3333 3300 3300 2835 2835 2835 2812 2812 2812 2812 2812 2812 2812 2812 2812 2812 2812 2835 2835 2835 2835 2835 2835 2835 2835 2835 2835 2835 2835 2835 2835 2835 2835 2835 2835 2835 2835 2835 2835 2835 2835 2835 2835 2835 2859 2835 2835 2835 2835 2835 0 0 0 0 0 0 0 0 0 0
0 0 0 0 0 0 0 0 0 0 0 0 0 0 0 0 0 0 0 0 0 0 0 0 0 0 0 0 0 0 4911 4911 5056 5374 5460 5460 5548 5548 5640 5640 5640 5734 5734 5734 5734 5734 5734 5832 5832 5832 5832 5832 5832 5832 5832 5734 5640 5640 5734 5734 5734 5734 5832 5832 5832 5734 5734 5832 5832 5734 5640 5640 5640 5734 5734 6038 6146 6146 6146 6259 6259 6259 6259 6259 6259 6259 6146 6146 6146 6146 6259 6259 6259 6259 6259 6259 6259 6259 6259 6259 6259 6259 6259 6259 6375 6375 6375 6375 6375 6375 6375 6375 6375 6375 6375 6375 6375 6375 6375 6375 6375 6497 6497 6497 6497 6375 6375 6375 6375 6497 6497 6622 6622 6622 6622 6622 6622 6622 6622 6622 6622 6622 5734 5734 5734 5734 5734 5734 5734 5832 5832 5832 5832 5933 5933 5933 6497 6497 6497 6622 6622 6622 6497 5734 5734 5734 5734 6497 6622 3064 3010 3010 3010 3010 3010 3037 3037 3037 3037 3037 3037 3037 3037 3037 3037 3037 3037 3037 3037 3064 3064 3064 3064 3064 3064 3064 3064 3064 3064 3064 3064 3064 3064 3064 3092 3064 3064 3092 3092 3092 3092 3092 3092 3120 3120 3120 3120 3149 3149 3149 3149 3149 3149 3149 3149 3149 3149 3149 3149 3149 3149 3149 3149 3149 3149 3149 3149 3149 3149 3149 3149 3149 3149 3149 3149 3149 3149 3149 3149 3149 3149 3149 3149 3149 3149 3149 3149 3149 3149 3149 3149 3149 3178 3178 3178 3178 3178 3178 3178 3178 3208 3208 3208 3208 3208 3238 3238 3238 3238 3238 3238 3238 3269 3269 3269 7332 7492 7492 7492 7492 7492 7492 7332 7332 7332 7178 7178 7178 7178 7332 7492 7492 7492 7492 7492 7332 7178 6889 6753 6753 6753 6889 6889 7332 7492 7492 7332 7332 7332 7492 7492 7492 7492 7660 7660 7660 7660 7660 7660 7660 7660 7660 7660 7660 7660 7660 7492 7332 7178 7030 7030 7030 7178 7178 7332 7332 7332 7332 7332 7332 7332 5210 5210 5210 5210 5210 5210 5210 5132 5132 5132 5132 5132 5132 5056 5056 5132 5132 5132 5132 5132 5056 5056 4983 4983 4983 4983 4983 4983 4983 4983 4983 4911 4911 4911 4911 4911 4911 4911 4911 4842 4842 4911 4911 4911 4911 4911 4911 4911 4911 4911 4911 4911 4911 4911 4911 4911 4911 4911 4911 4911 5056 5132 5132 5132 5132 5132 5132 5056 5056 5056 6622 6622 6622 6622 6622 6622 6622 6622 6622 6497 6497 6497 6497 6497 6497 0 3576 3576 3576 3576 3576 3576 3576 3576 3576 3576 3576 3614 3614 3653 3653 3614 3614 3614 3614 3576 3576 3576 3576 3576 3539 3503 3503 3468 3433 3433 3433 3433 3433 3433 3433 3433 3433 3433 3399 3399 3433 3399 3399 3399 3399 3365 3333 3333 3333 3333 3333 3333 3333 3333 3333 3333 3300 3300 3300 3269 3269 3269 3269 3269 3269 3300 3300 3300 3333 3333 3333 3300 3269 3269 3269 3269 3269 3300 3300 3300 3300 3269 3208 3208 3300 3300 3399 3365 3365 3333 3333 3333 3333 3300 3300 3300 3300 3300 3300 3300 3300 3300 3300 3333 3300 3300 3300 3300 3300 3300 3300 3300 3333 3333 3333 3300 3300 3300 3269 3269 3269 3269 3269 3269 3300 3300 3300 3300 3300 3300 3300 3300 3300 3300 3300 3300 3365 3399 3399 3365 3365 3333 3333 3269 3269 3010 2835 2835 2835 2835 2835 2812 2812 2812 2812 2812 2812 2812 2835 2835 2835 2835 2835 2835 2835 2835 2835 2835 2835 2835 2835 2835 2835 2835 2835 2835 2835 2835 2835 2835 2835 2835 2835 2835 2835 2835 2835 2835 2835 2835 2835 2835 2835 0 0 0 0 0 0 0 0 0 0
0 0 0 0 0 0 0 0 0 0 0 0 0 0 0 0 0 0 0 0 0 0 0 0 0 0 0 0 0 0 4911 4911 4911 5374 5460 5460 5548 5548 5640 5640 5734 5734 5640 5640 5734 5734 5734 5832 5832 5832 5832 5832 5832 5832 5832 5734 5734 5734 5734 5734 5734 5832 5832 5832 5832 5734 5734 5832 5734 5640 5640 5640 5640 5640 5734 6038 6146 6146 6146 6259 6259 6259 6259 6146 6146 6259 6146 6146 6146 6146 6259 6259 6259 6259 6259 6259 6259 6259 6259 6259 6259 6259 6259 6375 6375 6375 6375 6375 6375 6375 6375 6375 6375 6375 6375 6375 6375 6375 6375 6497 6497 6497 6497 6497 6497 6375 6375 6375 6375 6497 6497 6497 6622 6622 6622 6622 6622 6622 6622 6622 6622 6622 5832 5832 5832 5832 5832 5832 5933 6038 6146 6146 6259 6259 6259 6259 6497 6497 6622 6622 6622 6622 6622 6622 6497 5832 5832 6497 6622 6622 3037 3037 3010 3010 3037 3037 3037 3037 3037 3037 3037 3037 3037 3037 3037 3037 3037 3037 3037 3064 3064 3064 3064 3064 3064 3064 3064 3064 3064 3064 3064 3064 3064 3092 3092 3092 3092 3092 3092 3092 3092 3092 3092 3120 3120 3120 3120 3149 3149 3149 3149 3149 3149 3149 3149 3149 3149 3149 3149 3149 3149 3149 3149 3149 3149 3149 3149 3149 3149 3149 3149 3149 3149 3149 3149 3149 3149 3149 3149 3149 3149 3149 3149 3149 3149 3149 3149 3149 3149 3149 3149 3149 3178 3178 3178 3178 3178 3178 3178 3178 3208 3208 3208 3208 3238 3238 3238 3238 3238 3238 3238 3238 3269 3269 7492 7492 7492 7492 7492 7492 7492 7492 7332 7332 7332 7178 7178 7178 7178 7332 7492 7492 7492 7492 7492 7332 7178 6889 6753 6753 6753 7030 7178 7332 7492 7492 7492 7492 7492 7492 7492 7492 7492 7660 7660 7660 7660 7660 7660 7835 7835 7835 7835 7660 7660 7660 7660 7332 7332 7030 7030 7030 7178 7178 7332 7332 7332 7332 7332 7332 5132 5132 5210 5210 5210 5210 5210 5210 5132 5132 5132 5132 5132 5132 5132 5132 5132 5132 5132 5132 5132 5056 4983 4983 4983 4983 4911 4911 4911 4983 4983 4983 4911 4911 4911 4911 4911 4911 4911 4911 4911 4911 4911 4911 4911 4911 4911 4911 4911 4911 4911 4911 4911 4911 4911 4911 4911 4911 4911 4911 4983 5056 5056 5056 5132 5132 5132 5132 5056 5056 5132 6622 6622 6622 6622 6622 6622 6622 6622 6622 6497 6497 6497 6497 0 0 0 3614 3614 3576 3576 3576 3576 3576 3576 3576 3576 3576 3614 3614 0 3653 3653 3653 3653 3576 3576 3576 3576 3576 3576 3539 3503 3503 3468 3468 3468 3468 3433 3433 3433 3433 3433 3433 3399 3399 3399 3399 3399 3399 3399 3365 3333 3333 3333 3300 3300 3333 3333 3333 3333 3333 3333 3300 3300 3300 3269 3269 3269 3269 3269 3269 3269 3269 3300 3300 3300 3269 3208 3208 3238 3238 3238 3269 3300 3269 3269 3208 3208 3178 3178 3178 3238 3238 3238 3238 3333 3300 3300 3300 3300 3300 3300 3269 3269 3269 3269 3269 3269 3300 3300 3269 3269 3269 3269 3269 3269 3269 3269 3300 3300 3208 3208 3208 3208 3208 3208 3238 3269 3269 3269 3300 3300 3300 3300 3269 3269 3269 3269 3269 3269 3269 3269 3269 3269 3365 3365 3365 3333 3333 3208 3208 3010 2859 2859 2835 2835 2835 2835 2812 2812 2812 2812 2812 2812 2835 2835 2835 2835 2835 2835 2835 2835 2835 2835 2835 2835 2835 2835 2835 2835 2835 2835 2835 2835 2835 2835 2835 2835 2835 2835 2812 2812 2812 2835 2835 2835 2835 2835 2835 0 0 0 0 0 0 0 0 0 0
0 0 0 0 0 0 0 0 0 0 0 0 0 0 0 0 0 0 0 0 0 0 0 0 0 0 0 0 0 0 4842 4842 4911 5374 5460 5460 5548 5548 5640 5640 5734 5734 5640 5640 5640 5640 5640 5734 5832 5832 5832 5832 5832 5832 5832 5832 5734 5734 5832 5832 5832 5832 5832 5832 5832 5832 5832 5832 5734 5640 5640 5640 5640 5640 5734 5832 6038 6146 6146 6146 6146 6146 6146 6146 6146 6146 6146 6146 6146 6259 6259 6259 6259 6259 6259 6259 6259 6259 6259 6259 6259 6259 6259 6375 6375 6375 6375 6375 6375 6375 6375 6497 6375 6375 6375 6375 6375 6375 6375 6375 6375 6375 6375 6375 6375 6375 6375 6375 6375 6497 6497 6497 6622 6622 6622 6622 6622 6622 6622 6622 6622 6622 5933 5933 5933 5933 5933 5933 5933 6146 6259 6259 6375 6259 6259 6259 6497 6497 6622 6622 6622 6622 6622 6622 6622 6622 6622 6622 6622 6622 3037 3037 3037 3037 3037 3037 3037 3037 3037 3037 3037 3037 3037 3037 3037 3037 3037 3037 3037 3064 3064 3064 3064 3064 3064 3064 3064 3064 3064 3064 3064 3064 3092 3092 3092 3092 3092 3092 3092 3092 3092 3092 3092 3120 3120 3120 3120 3149 3149 3149 3149 3149 3149 3149 3149 3149 3149 3149 3149 3149 3149 3149 3149 3149 3149 3149 3178 3149 3149 3149 3149 3149 3120 3120 3120 3149 3149 3149 3149 3149 3149 3149 3149 3149 3149 3149 3149 3149 3149 3178 3178 3178 3178 3208 3208 3178 3178 3178 3178 3178 3208 3208 3208 3208 3238 3238 3238 3238 3238 3238 3238 3238 3269 3269 7332 7332 7492 7492 7492 7492 7492 7492 7332 7332 7332 7332 7178 7178 7178 7332 7332 7492 7492 7492 7492 7332 7030 6889 6889 6889 6889 7030 7178 7332 7492 7660 7492 7492 7492 7492 7492 7492 7492 7660 7660 7660 7835 7835 7835 7835 7835 7835 7835 7660 7660 7660 7660 7492 7492 7492 7178 7178 7178 7332 7332 7332 7332 7332 7332 7332 5132 5132 5210 5210 5210 5210 5210 5210 5210 5132 5132 5132 5132 5132 5132 5132 5132 5132 5132 5132 5132 5056 4983 4983 4983 4983 4911 4911 4911 4911 4911 4983 4911 4911 4911 4911 4911 4911 4911 4911 4911 4911 4911 4842 4842 4911 4842 4842 4911 4842 4842 4911 4842 4842 4911 4911 4911 4911 4911 4983 5056 5056 5056 0 5132 5132 5132 5056 5056 5056 5132 6622 6622 6622 6622 6622 6622 6622 6622 6622 6622 6622 6622 6622 0 0 0 3614 3614 3576 3576 3576 3576 3576 3576 3576 3576 3576 3653 0 0 0 0 3692 3653 3576 3576 3576 3576 3539 3539 3576 3503 3503 3468 3468 3468 3468 3433 3433 3433 3433 3433 3433 3399 3399 3399 3399 3399 3365 3365 3365 3333 3333 3333 3300 3300 3333 3333 3333 3333 3333 3300 3300 3300 3300 3269 3269 3269 3269 3269 3269 3238 3238 3269 3300 3269 3269 3208 3208 3238 3238 3238 3269 3208 3208 3238 3208 3208 3178 3178 3178 3208 3208 3208 3208 3238 3300 3269 3269 3269 3269 3269 3269 3269 3269 3269 3269 3269 3269 3269 3269 3238 3238 3269 3238 3238 3269 3269 3269 3300 3208 3208 3208 3178 3178 3208 3208 3238 3238 3238 3269 3269 3269 3269 3238 3238 3238 3238 3238 3269 3269 3208 3208 3208 3208 3178 3178 3178 3208 3208 3208 3149 3010 2859 2859 2835 2835 2835 2835 2835 2812 2812 2835 2835 2835 2835 2835 2835 2835 2835 2835 2835 2835 2835 2835 2835 2835 2835 2835 2812 2812 2835 2835 2859 2835 2835 2835 2835 2812 2812 2812 2812 2812 2812 2812 2812 2835 2835 2835 0 0 0 0 0 0 0 0 0 0
0 0 0 0 0 0 0 0 0 0 0 0 0 0 0 0 0 0 0 0 0 0 0 0 0 0 0 0 0 0 4842 4842 4911 5210 5460 5460 5548 5640 5734 5734 5734 5734 5640 5640 5640 5640 5640 5734 5832 5832 5832 5832 5832 5832 5832 5832 5832 5832 5832 5832 5832 5832 5832 5832 5832 5832 5832 5832 5734 5640 5640 5640 5640 5734 5734 5832 6038 6146 6146 6146 6146 6146 6146 6146 6146 6146 6146 6146 6146 6259 6259 6259 6259 6259 6259 6259 6259 6259 6259 6259 6259 6375 6375 6375 6375 6375 6375 6375 6375 6375 6375 6497 6375 6375 6375 6375 6375 6375 6375 6375 6375 6375 6375 6375 6375 6375 6375 6375 6375 6497 6497 6622 6622 6622 6622 6622 6622 6622 6622 6622 6622 6497 5933 5832 5832 5832 5832 5933 6038 6146 6259 6259 6375 6259 6259 6259 6375 6497 6622 6622 6622 6622 6622 6622 6622 6622 6753 6753 6753 6753 3037 3037 3037 3037 3037 3037 3037 3037 3037 3037 3037 3037 3037 3037 3037 3037 3037 3037 3037 3064 3064 3064 3064 3064 3064 3064 3064 3064 3064 3064 3092 3092 3092 3092 3092 3092 3092 3092 3092 3092 3092 3092 3092 3120 3120 3120 3120 3149 3149 3149 3149 3149 3149 3149 3149 3149 3149 3149 3149 3149 3149 3149 3149 3178 3178 3178 3178 3149 3149 3149 3149 3149 3120 3120 3120 3149 3149 3149 3149 3149 3149 3149 3149 3149 3149 3149 3149 3149 3149 3178 3178 3178 3178 3208 3208 3208 3178 3178 3178 3178 3208 3208 3208 3208 3238 3238 3238 3238 3238 3238 3238 3238 3269 7030 7178 7178 7332 7492 7492 7492 7492 7492 7332 7332 7332 7332 7178 7178 7178 7332 7332 7492 7492 7492 7492 7332 7030 6889 6889 6889 6889 7030 7178 7332 7492 7660 7492 7492 7492 7492 7492 7492 7492 7660 7660 7660 7660 7660 7835 7835 7660 7660 7660 7660 7660 7660 7660 7492 7492 7492 7332 7332 7332 7332 7332 7332 7332 7332 7332 7332 5132 5132 5210 5210 5210 5210 5210 5210 5210 5210 5210 5132 5132 5132 5132 5132 5132 5132 5132 5132 5132 5132 5056 4983 4983 4983 4983 4911 4911 4911 4911 4911 4911 4911 4911 4911 4911 4911 4911 4911 4911 4911 4911 4842 4842 4842 4842 4842 4911 4842 4842 4842 4842 4842 4911 4911 4911 4911 4911 4983 4983 4983 0 0 5132 5132 5056 5056 5056 5056 5132 6622 6622 6622 6622 2212 2212 2212 2212 6622 6622 6622 6622 6622 6622 0 0 3614 3614 3576 3576 3576 3576 3576 3576 3576 3539 3539 0 0 0 0 0 3692 3692 3576 3539 3539 3576 3539 3539 3539 3539 3503 3468 3468 3468 3468 3468 3468 3433 3433 3433 3433 3433 3399 3399 3399 3365 3365 3365 3365 3333 3333 3333 3333 3333 3333 3333 3333 3333 3333 3300 3300 3300 3300 3269 3269 3269 3269 3238 3238 3238 3238 3269 3269 3269 3238 3208 3208 3238 3238 3238 3238 3208 3208 3208 3178 3178 3178 3178 3178 3208 3208 3208 3208 3238 3238 3238 3238 3238 3238 3238 3269 3238 3238 3238 3269 3269 3269 3238 3208 3208 3208 3208 3208 3208 3208 3238 3238 3178 3178 3178 3178 3178 3178 3178 3178 3178 3208 3208 3208 3208 3208 3238 3208 3208 3208 3178 3178 3208 3208 3208 3208 3208 3208 3208 3178 3178 3178 3178 3178 3149 3149 2883 2859 2835 2835 2835 2835 2835 2835 2835 2835 2835 2835 2835 2835 2835 2835 2835 2835 2835 2835 2835 2835 2835 2835 2835 2812 2812 2812 2812 2859 2859 2859 2835 2835 2835 2812 2812 2812 2812 2812 2812 2812 2812 2812 2835 2835 0 0 0 0 0 0 0 0 0 0
0 0 0 0 0 0 0 0 0 0 0 0 0 0 0 0 0 0 0 0 0 0 0 0 0 0 0 0 0 0 4842 4842 4911 5210 5460 5460 5548 5640 5734 5734 5734 5734 5640 5640 5734 5734 5734 5734 5832 5832 5832 5832 5832 5832 5832 5832 5933 5933 5933 5832 5832 5832 5832 5832 5832 5832 5832 5933 5832 5734 5734 5734 5734 5832 5832 5933 6038 6146 6146 6146 6146 6146 6259 6146 6146 6146 6146 6146 6259 6259 6259 6259 6259 6259 6259 6259 6259 6259 6259 6259 6259 6259 6259 6259 6259 6375 6375 6375 6375 6497 6375 6375 6375 6375 6375 6375 6375 6375 6375 6375 6375 6375 6375 6375 6375 6375 6375 6497 6497 6497 6497 6622 6622 6622 6622 6622 6622 6622 6622 6622 6622 6497 5933 5832 5832 5832 5832 5933 6038 6259 6259 6375 6375 6375 6259 6259 6375 6497 6622 6622 6622 6622 6622 6622 6622 6753 6753 6753 6753 6753 3064 3037 3037 3037 3037 3037 3037 3037 3037 3037 3037 3037 3037 3037 3037 3037 3064 3064 3064 3064 3064 3064 3064 3064 3064 3064 3064 3064 3064 3064 3092 3092 3092 3092 3092 3092 3092 3092 3092 3092 3092 3092 3120 3120 3120 3120 3120 3149 3149 3149 3149 3149 3149 3149 3149 3149 3149 3149 3149 3149 3149 3149 3149 3149 3178 3178 3178 3178 3178 3178 3178 3149 3149 3149 3149 3149 3149 3149 3149 3149 3149 3149 3149 3149 3149 3149 3149 3149 3149 3178 3178 3178 3178 3208 3208 3208 3178 3178 3178 3178 3208 3208 3208 3208 3238 3238 3238 3238 3238 3238 3238 3238 3269 7030 7030 7178 7332 7332 7332 7492 7492 7492 7332 7332 7332 7332 7178 7178 7178 7332 7492 7492 7492 7492 7492 7332 7030 6889 6889 6889 6889 7030 7178 7660 7660 7660 7492 7492 7492 7492 7492 7492 7492 7492 7492 7660 7660 7660 7835 7835 7660 7660 7660 7660 7492 7492 7660 7492 7492 7492 7332 7332 7332 7332 7332 7332 7332 7332 7332 7332 5210 5210 5210 5210 5210 5210 5210 5210 5210 5210 5210 5132 5132 5132 5132 5132 5132 5132 5132 5132 5132 5132 5056 4983 4983 4983 4911 4911 4842 4842 4842 4911 4911 4911 4911 4911 4911 4911 4911 4842 4842 4842 4842 4842 4842 4842 4842 2241 2241 2241 2256 2271 4842 4842 4842 4842 4842 4911 4911 4911 2271 2271 2271 2256 5056 5056 5056 5056 5056 5056 5056 5056 6753 6753 6753 2212 2212 2212 2212 2226 2241 6622 6622 6622 0 0 0 3576 0 3576 3576 3576 3576 3576 3576 3576 3539 3539 0 0 0 0 0 0 0 3576 3539 3539 3539 3539 3539 3539 3539 3503 3468 3468 3468 3468 3468 3468 3433 3433 3433 3433 3433 3399 3399 3399 3365 3365 3365 3365 3333 3333 3333 3333 3333 3333 3333 3333 3333 3333 3333 3333 3300 3300 3269 3269 3269 3269 3238 3238 3208 3208 3238 3238 3238 3208 3208 3208 3238 3238 3208 3208 3178 3178 3208 3178 3178 3178 3178 3178 3208 3178 3178 3208 3208 3208 3208 3208 3208 3208 3238 3208 3208 3208 3208 3208 3208 3208 3208 3208 3208 3208 3208 3208 3208 3208 3208 3208 3178 3178 3178 3178 3178 3178 3178 3178 3178 3178 3178 3178 3178 3178 3178 3178 3178 3178 3178 3178 3178 3178 3178 3178 3178 3178 3178 3178 3178 3178 3178 3178 3149 3149 2835 2835 2835 2835 2835 2835 2835 2835 2835 2835 2835 2835 2859 2835 2835 2835 2835 2859 2859 2859 2859 2859 2859 2859 2835 2812 2812 2812 2812 2812 3433 3433 3433 3433 3433 3468 3503 3503 3539 2812 2812 2812 2812 2812 2835 2835 0 0 0 0 0 0 0 0 0 0
0 0 0 0 0 0 0 0 0 0 0 0 0 0 0 0 0 0 0 0 0 0 0 0 0 0 0 0 0 0 4842 4842 4911 5056 5460 5460 5640 5640 5832 5832 5832 5832 5832 5832 5832 5832 5832 5832 5832 5832 5832 5832 5832 5832 5933 5933 5933 5933 5933 5933 5933 5933 5933 5933 5933 5933 5933 6038 5933 5734 5734 5832 5832 5832 5832 5933 6038 6146 6146 6146 6146 6146 6259 6259 6146 6146 6146 6259 6259 6259 6259 6259 6259 6259 6259 6259 6259 6259 6259 6259 6259 6259 6259 6259 6259 6375 6375 6375 6375 6375 6375 6375 6375 6375 6259 6259 6375 6375 6375 6375 6375 6375 6375 6375 6375 6375 6375 6497 6497 6497 6497 6622 6622 6622 6622 6622 6622 6622 6622 6622 6622 6497 5933 5832 5832 5832 5832 5933 6146 6259 6375 6375 6375 6375 6259 6259 6375 6497 6622 6622 6622 6622 6622 6622 6622 6753 6753 6753 6753 3064 3064 3064 3037 3037 3037 3037 3037 3037 3037 3037 3037 3037 3037 3037 3037 3037 3037 3064 3064 3064 3064 3064 3064 3064 3064 3064 3064 3064 3064 3064 3092 3092 3092 3092 3092 3092 3092 3092 3092 3092 3092 3120 3120 3149 3149 3149 3149 3149 3149 3149 3149 3149 3149 3149 3149 3149 3149 3149 3149 3149 3149 3149 3149 3149 3149 3178 3178 3178 3178 3178 3178 3149 3149 3149 3149 3149 3149 3149 3149 3149 3149 3149 3149 3149 3149 3149 3149 3178 3178 3178 3178 3178 3178 3208 3208 3208 3208 3208 3208 3208 3208 3208 3208 3238 3238 3238 3238 3238 3238 3238 3238 3238 3238 7030 7030 7178 7332 7332 7332 7332 7492 7492 7332 7332 7332 7332 7332 7178 7178 7332 7492 7492 7492 7492 7492 7332 6889 6889 6889 6622 6622 6622 0 0 0 0 0 7492 7492 7492 7492 7492 7492 7492 7332 7332 7660 7492 7492 7492 7660 7492 7492 7492 7492 7492 7492 7492 7492 7492 7332 7332 7332 7332 7332 7332 7178 7178 7332 7332 5210 5210 5210 5210 5210 5210 5210 5210 5210 5210 5210 5210 5210 5210 5210 5210 5132 5132 5132 5132 5132 5056 4983 4983 4983 4911 4911 2212 2212 2212 4842 2226 2226 2241 2241 2241 2241 2241 2271 2286 4842 2241 2241 2226 2226 2226 2226 2226 2241 2241 2256 2271 2271 2271 4842 4842 4842 4911 4911 4911 2271 2271 2271 2256 2256 5056 5056 5056 5056 5056 5056 5056 2256 2256 2256 2226 2226 2226 2226 2226 2241 2256 6622 6622 0 2271 2271 0 0 3576 3576 3576 3576 3576 3576 3576 3539 3539 0 0 0 0 0 0 0 0 0 3539 3539 3539 3539 3539 3539 3539 3468 3468 3468 3468 3468 3468 3433 3433 3433 3433 3433 3399 3399 3399 3365 3365 3365 3365 3333 3333 3333 3333 3333 3333 3333 3333 3333 3333 3333 3333 3333 3333 3269 3269 3269 3269 3238 3238 3208 3208 3238 3238 3238 3208 3208 3208 3238 3238 3208 3208 3178 3178 3208 3178 3178 3178 3208 3208 3208 3178 3178 3208 3208 3208 3178 3178 3178 3178 3208 3208 3208 3178 3178 3208 3208 3208 3178 3178 3178 3178 3178 3178 3178 3208 3208 3208 3178 3178 3178 3178 3178 3149 3149 3149 3149 3178 3178 3178 3178 3178 3178 3149 3149 3178 3149 3149 3149 3149 3149 3149 3149 3149 3149 3149 3149 3178 3149 3149 3120 3120 2835 2835 2835 2835 2835 2835 2835 2835 2835 2835 2859 2859 2859 2835 2835 2835 2859 2835 2835 2835 2835 2835 2859 2859 3208 3238 3238 3238 3269 3269 3300 3365 3433 3503 3503 3503 3503 3503 3539 3539 2812 2812 2812 2835 2859 2859 0 0 0 0 0 0 0 0 0 0
0 0 0 0 0 0 0 0 0 0 0 0 0 0 0 0 0 0 0 0 0 0 0 0 0 0 0 0 0 0 4842 4842 4911 5056 5460 5548 5734 5832 5933 5933 5933 5933 5933 5832 5832 5933 5933 5933 5933 5933 5933 5933 5933 5933 5933 6038 6038 6038 6038 6038 6038 6038 5933 5933 6038 6038 6038 6038 5933 5832 5832 5832 5832 5832 5832 5933 6038 6146 6146 6146 6146 6146 6259 6259 6259 6259 6259 6259 6259 6259 6259 6259 6259 6259 6259 6259 6259 6259 6259 6259 6259 6259 6259 6259 6375 6375 6375 6375 6375 6375 6375 6375 6375 6375 6259 6259 6375 6375 6375 6375 6375 6375 6375 6375 6375 6497 6497 6497 6497 6497 6497 6622 6622 6622 6622 6622 6622 6622 6622 6622 6497 6375 5933 5832 5832 5832 5832 5933 6259 6259 6375 6375 6375 6375 6259 6259 6375 6497 6622 6622 6622 6622 6622 6753 6753 6753 6753 6753 6753 3064 3064 3064 3037 3037 3037 3037 3037 3037 3037 3037 3037 3037 3037 3037 3037 3037 3037 3037 3064 3064 3064 3064 3064 3064 3064 3064 3064 3064 3064 3064 3064 3064 3092 3092 3092 3092 3092 3092 3092 3092 3092 3120 3120 3149 3149 3149 3149 3149 3149 3149 3149 3149 3149 3149 3149 3149 3149 3149 3149 3149 3149 3149 3149 3149 3149 3178 3178 3178 3178 3178 3178 3149 3149 3149 3149 3149 3149 3149 3149 3149 3149 3149 3149 3149 3149 3149 3178 3178 3178 3178 3178 3178 3178 3208 3208 3208 3208 3208 3208 3208 3208 3208 3208 3208 3208 3238 3238 3238 3238 3238 3238 3238 3238 6889 7030 7030 7332 7332 2143 2143 2156 2156 2170 2170 7332 7332 7332 7332 7332 7332 7492 7492 7492 7492 7492 6497 6497 6497 6497 6497 6497 6497 0 0 0 0 0 7492 7492 7492 7492 7492 7492 7492 7332 7332 7492 7492 7492 7492 7492 7492 7492 7492 7332 7332 7492 7492 7492 0 7492 7492 7332 7332 7332 7332 7030 7030 7030 6889 5210 5210 5210 2226 2226 2241 2241 5210 5210 5210 5210 5210 5210 5210 5210 5210 5132 5132 5132 5132 5132 5056 4983 4983 4983 4911 2212 2212 2212 2212 2226 2226 2226 2241 2241 2241 2241 2241 2256 2256 2241 2241 2241 2226 2226 2226 2226 2226 2241 2256 2256 2271 2256 2241 2241 2256 2256 2256 2271 2271 2271 2271 2271 2256 2256 2256 5056 2256 2256 2256 2256 2256 2256 2256 2256 2241 2241 2241 2241 2241 2241 2256 2256 2256 2256 2271 2271 0 0 3576 3576 3576 3576 3576 3576 3576 3576 3576 0 0 0 0 0 0 0 0 0 0 0 3576 3576 3576 3576 3576 3468 3468 3468 3468 3468 3468 3468 3433 3433 3433 3399 3399 3399 3399 3399 3399 3399 3365 3333 3333 3333 3333 3333 3333 3333 3333 3333 3333 3333 3333 3333 3300 3269 3269 3269 3269 3269 3238 3238 3238 3238 3238 3238 3208 3208 3208 3238 3238 3208 3208 3178 3178 3208 3178 3178 3178 3178 3178 3178 3178 3178 3178 3178 3178 3178 3178 3178 3178 3208 3208 3208 3178 3178 3208 3178 3178 3178 3178 3178 3178 3178 3178 3178 3178 3178 3178 3178 3149 3149 3178 3178 3149 3149 3149 3149 3178 3178 3178 3178 3178 3178 3149 3149 3149 3149 3149 3149 3149 3149 3149 3149 3149 3149 3149 3149 3149 3149 3149 3120 3092 2908 2859 2835 2835 2835 2835 2835 2835 2835 2835 2859 2859 2859 2835 2835 2835 2859 2835 2835 2835 2835 2835 2859 3208 3208 3238 3238 3238 3269 3269 3300 3365 3468 3503 3539 3539 3539 3576 3576 3614 2835 2835 2835 2835 2859 2859 0 0 0 0 0 0 0 0 0 0
0 0 0 0 0 0 0 0 0 0 0 0 0 0 0 0 0 0 0 0 0 0 0 0 0 0 0 0 0 0 4911 4911 4911 5056 5460 5640 5832 5933 5933 6038 6038 6038 6038 6038 6038 6038 6038 6038 6146 6146 6038 6038 6038 6038 6038 6146 6146 6038 6038 6038 6038 6038 6038 6038 6038 6038 6146 6146 5933 5933 5832 5832 5832 5832 5832 5933 5933 6038 6038 6146 6146 6146 6259 6259 6259 6259 6259 6259 6259 6259 6259 6259 6259 6259 6259 6259 6259 6259 6259 6259 6259 6259 6259 6259 6375 6375 6375 6375 6375 6497 6497 6375 6375 6375 6259 6259 6375 6375 6375 6375 6375 6375 6375 6375 6375 6497 6497 6497 6497 6497 6622 6622 6622 6622 6622 6622 6622 6622 6497 6497 6497 6146 5832 5832 5832 5832 5832 5933 6038 6146 6259 6259 6375 6375 6259 6259 6375 6497 6622 6622 6622 6622 6622 6753 6753 6753 6753 6753 6753 3064 3064 3064 3064 3037 3037 3037 3037 3037 3037 3037 3037 3037 3037 3037 3037 3037 3037 3037 3064 3064 3064 3064 3064 3064 3064 3064 3064 3064 3064 3064 3064 3064 3092 3092 3092 3092 3092 3092 3092 3120 3120 3120 3120 3149 3149 3149 3149 3149 3149 3149 3149 3149 3149 3149 3149 3149 3149 3149 3149 3149 3149 3149 3149 3149 3149 3178 3178 3178 3178 3178 3178 3149 3149 3149 3149 3149 3149 3149 3149 3149 3149 3149 3178 3178 3178 3178 3178 3178 3208 3178 3178 3178 3178 3178 3178 3178 3208 3208 3208 3208 3208 3208 3208 3208 3208 3208 3238 3238 3238 3238 3238 3238 3238 3238 7030 7030 7030 7332 2143 2143 2143 2143 2156 2156 2156 7492 7492 7492 7492 0 0 0 0 0 0 0 6497 6497 6497 6497 6497 6497 0 0 0 0 0 0 0 7492 7492 7492 7492 7332 7332 7332 7492 7332 7332 7332 7492 7492 7492 7332 7332 7332 7492 7492 7492 0 0 7492 6889 0 6889 6889 6889 6889 6889 6889 6889 2226 2226 2226 2226 2241 2226 2226 2226 2226 2226 2226 5132 5210 5210 5210 5132 5132 5132 5132 5132 5132 2226 2212 2198 2198 2212 2212 2226 2212 2212 2226 2226 2241 2241 2241 2241 2241 2241 2241 2226 2226 2226 2241 2226 2226 2241 2256 2256 2256 2256 2256 2256 2241 2241 2256 2256 2256 2271 2271 2271 2271 2286 2256 2256 2256 2241 2241 2256 2256 2286 2256 2256 2256 2256 2241 2241 2241 2241 2241 2241 2256 2256 2256 2256 2271 2271 0 3576 3576 3576 3576 3576 3576 3576 3576 3539 3539 0 0 0 0 0 0 0 0 0 0 0 0 3576 3576 4139 4089 4089 3503 3503 3468 3468 3468 3468 3433 3433 3433 3399 3399 3399 3399 3399 3399 3365 3365 3333 3333 3333 3333 3333 3333 3333 3333 3333 3333 3333 3333 3333 3300 3300 3269 3269 3269 3269 3238 3238 3238 3238 3238 3238 3208 3208 3208 3238 3238 3238 3208 3178 3178 3208 3178 3178 3178 3178 3178 3178 3178 3178 3178 3178 3178 3178 3178 3178 3178 3178 3178 3178 3178 3178 3178 3178 3178 3178 3178 3178 3178 3178 3178 3178 3178 3178 3178 3178 3149 3149 3178 3178 3178 3149 3149 3149 3178 3178 3178 3149 3149 3178 3149 3149 3149 3149 3149 3149 3149 3149 3149 3149 3149 3149 3149 3149 3149 3149 3149 3092 3092 2933 2908 2835 2835 2835 2835 2835 2835 2835 2835 2859 2859 2859 2835 2835 2835 2835 2835 2835 2835 2835 2835 3208 3208 3238 3238 3238 3269 3269 3300 3300 3399 3503 3503 3539 3503 3503 3539 3539 3539 2835 2835 2835 2859 2883 2883 0 0 0 0 0 0 0 0 0 0
