0 0 0 0 0 0 0 0 0 0 0 0 0 0 0 0 0 0 0 0 0 0 0 0 0 0 0 0 0 0 5832 5832 5832 5832 5933 5933 5933 5933 5933 5933 5933 5933 6038 6038 6038 6038 6038 6038 6146 6146 6146 6146 6259 6259 6259 6259 6259 6259 6146 6146 6259 6146 6146 6146 6038 6038 6146 6038 5933 5832 5832 5933 5933 5933 5933 5933 5933 5734 5734 5640 5548 5548 5548 5460 5460 5548 5460 5460 5460 5460 5460 5460 5460 5548 5548 5548 5548 5548 5548 5640 5460 5460 5460 5460 5548 5548 5548 5548 5548 5548 5548 5548 5548 5548 5640 5548 5548 5548 5548 5548 5548 5640 5640 5734 5832 6146 6146 6259 6259 6375 6375 6497 6497 6375 6375 6375 6375 6375 6375 6622 6622 3365 3333 3333 3208 3178 3178 2984 2958 2958 2958 2958 2958 2933 2933 2958 2933 2933 2908 2908 2908 2908 2908 2908 2908 2883 2883 2908 2908 2908 2908 2908 2908 2908 2908 2908 2908 2908 2908 2908 2908 2933 2908 2908 2908 2908 2908 2908 2908 2908 2933 2933 2933 2958 2958 2958 2958 2958 2958 2958 2958 2958 2958 2958 2984 2984 3010 3010 3037 3037 3037 3037 3037 3010 3010 2984 2984 2984 2984 3010 3010 3010 3010 3010 3037 3037 3037 3037 3037 3037 3037 3037 3037 3064 3064 3064 3064 3064 3064 3064 3064 3064 3064 3064 3064 3092 3092 3092 3092 3120 3120 3120 3120 3120 3120 3120 3120 3120 3120 3120 3149 3149 3149 3149 3178 3178 3178 3178 3208 3208 3208 3238 3238 3238 3238 3269 3269 3300 3300 3333 3333 7660 7660 7660 7492 7492 7492 7492 7492 7492 7492 7492 7492 7492 7492 7492 7492 7332 7332 5291 5291 5374 5374 5374 5374 5291 5291 5291 5291 5291 5291 5291 5291 5291 5291 5291 5291 5291 5291 5291 5291 5291 5210 5210 5132 5132 5132 5132 5132 5132 5132 5132 5132 5132 5132 5132 5132 5056 5056 4983 4983 4983 4983 4983 4983 4983 4983 4983 4983 4911 4911 4911 4983 4983 4983 4983 5056 5132 5132 5132 5132 5132 5132 5132 5210 5210 5132 5132 7332 7332 7332 7332 7332 7332 7332 7332 7332 7178 7178 7178 7178 7030 7030 7030 7030 7030 7030 7030 7030 7178 7178 7332 7332 7332 7332 7332 7332 7332 7492 7332 7332 7332 7332 7332 7332 7332 7332 7332 7178 7178 7332 7332 7332 7178 7178 7332 7332 7492 7492 7835 7835 7835 7835 7835 0 0 0 0 0 0 0 0 0 0 0 0 0 0 0 0 0 7492 7492 7492 7492 7492 7660 7660 7835 7660 7492 7332 7332 7030 6259 6259 6259 6259 6146 5640 5548 5460 5460 5374 5374 5374 5374 5374 5374 5374 5374 5374 5374 5374 5460 5374 5374 5374 5374 5374 5374 5374 5291 5291 5291 5291 5291 8019 8019 8019 8019 8019 8019 7835 7835 7835 7835 7835 7835 8019 8019 8019 8019 8019 8212 8019 8019 8212 8212 8413 8413 8413 8626 8849 8849 8849 8849 8849 8849 8849 8849 8849 8849 8849 8626 8626 8626 8626 8626 8626 8626 8626 8626 8626 8413 8212 8019 8019 8019 8212 8212 8413 8413 8626 8626 8626 8626 8413 8413 8212 8019 8019 7835 7835 7835 7835 8019 8413 8413 8413 8413 8413 8413 8413 8413 8413 8413 8413 8413 8413 8413 8413 8413 8413 8413 8413 8413 8413 8413 8019 8019 8019 8019 8212 8019 8019 8019 8019 8212 8019 8019 8019 8019 7835 7835 7660 7660 7660 7660 7660 7660 7660 7660 7660 7660 7660 7660 7660 7660 7660 7660 7835 7835 8212 8212 8019 8019 8019 8019 8019 7835 7835 8212 8019 7835 7835 0 0 0 0 0 0 0 0 0 0 0 0 0 0
0 0 0 0 0 0 0 0 0 0 0 0 0 0 0 0 0 0 0 0 0 0 0 0 0 0 0 0 0 0 5832 5832 5832 5832 5933 5933 5933 5933 5933 5933 5933 5933 5933 5933 5933 6038 6038 6146 6146 6146 6146 6146 6259 6259 6259 6259 6259 6259 6146 6146 6259 6146 6146 6146 6146 6146 6038 6038 5933 5832 5832 5933 5933 5933 5933 5933 5832 5734 5734 5640 5548 5548 5548 5460 5460 5460 5460 5460 5460 5460 5460 5460 5460 5460 5548 5548 5548 5548 5548 5640 5460 5460 5460 5548 5548 5640 5548 5548 5548 5548 5548 5548 5548 5548 5548 5548 5548 5548 5548 5548 5548 5640 5640 5640 5832 6038 6146 6146 6259 6259 6375 6375 6375 6375 6259 6259 6375 6375 6375 6622 6622 3365 3365 3333 3238 3208 3178 3120 3010 2984 2958 2958 2958 2958 2958 2958 2933 2933 2933 2933 2933 2933 2908 2908 2908 2908 2908 2908 2908 2908 2933 2933 2933 2933 2933 2933 2933 2933 2933 2933 2958 2958 2958 2933 2933 2933 2933 2933 2933 2933 2958 2958 2958 2958 2958 2984 2984 2958 2958 2958 2958 2958 2958 2984 3010 3010 3037 3037 3037 3037 3037 3064 3064 3037 3037 3010 3010 3010 3010 3010 3010 3037 3037 3037 3037 3037 3037 3037 3037 3037 3037 3037 3064 3064 3064 3064 3064 3064 3064 3064 3064 3064 3064 3064 3064 3092 3092 3092 3120 3120 3120 3120 3120 3120 3149 3149 3149 3149 3149 3149 3149 3149 3149 3149 3178 3178 3178 3178 3208 3208 3208 3208 3238 3238 3238 3238 3269 3300 3300 3300 3333 7660 7660 7660 7492 7492 7492 7492 7492 7492 7492 7492 7492 7492 7492 7492 7492 7332 7332 5291 5291 5374 5374 5374 5374 5291 5291 5291 5291 5291 5291 5291 5291 5291 5291 5291 5291 5291 5291 5291 5291 5291 5291 5210 5132 5132 5132 5132 5132 5132 5132 5132 5132 5132 5132 5132 5132 5056 5056 4983 4983 4983 4983 4983 4983 4983 4983 4983 4911 4911 4911 4911 4983 4983 4983 4983 5056 5132 5132 5132 5132 5132 5210 5210 5210 5210 5132 5132 7178 7178 7332 7332 7332 7332 7332 7332 7178 7178 7178 7030 7030 7030 7030 7030 7030 7030 7030 7030 7030 7178 7178 7332 7332 7332 7332 7332 7332 7332 7332 7332 7332 7332 7332 7332 7332 7332 7332 7332 7178 7178 7332 7332 7332 7332 7332 7178 7178 7332 7332 7835 7835 7835 5734 5734 0 0 0 0 0 0 0 0 0 0 0 0 0 0 0 0 0 0 7492 7492 7492 7492 7660 7660 7660 7492 7332 7332 7030 6622 6259 6259 6259 6146 5933 5548 5460 5460 5460 5374 5374 5374 5374 5374 5374 5374 5374 5374 5374 5374 5460 5374 5374 5374 5374 5374 5374 5374 5291 5291 5291 5291 5291 5132 8212 8212 8019 8019 8019 7835 7835 7835 7835 7835 7835 7835 8019 8019 8019 8019 8019 7835 7835 7835 7835 8413 8413 8413 8626 8849 8626 8626 8849 8849 8849 8849 8849 8849 8849 8849 8626 8626 8626 8626 8626 8626 8626 8626 8626 8626 8413 8212 8212 8019 8019 8212 8212 8413 8626 8626 8626 8849 8849 8626 8626 8212 8019 8019 7835 7835 7835 7835 8019 8413 8413 8413 8413 8413 8413 8413 8413 8413 8413 8413 8413 8413 8413 8413 8413 8413 8413 8413 8413 8413 8413 8019 8019 8019 8019 8019 8019 7835 7835 8019 8019 8019 7835 7835 7835 7835 7660 7660 7660 7660 7660 7660 7660 7660 7660 7660 7660 7660 7660 7660 7660 7660 7660 7835 7835 8019 8212 8019 8019 8019 8019 8019 7835 7835 8019 8019 7835 7835 0 0 0 0 0 0 0 0 0 0 0 0 0 0
0 0 0 0 0 0 0 0 0 0 0 0 0 0 0 0 0 0 0 0 0 0 0 0 0 0 0 0 0 0 5832 5832 5832 5933 5933 5933 5933 5933 5933 6038 5933 5933 5933 5933 5933 6038 6038 6146 6146 6146 6146 6146 6259 6259 6259 6259 6259 6259 6259 6259 6146 6146 6146 6146 6038 6038 6038 6038 5933 5832 5832 5933 5933 5832 5832 5832 5832 5734 5734 5640 5640 5548 5548 5460 5460 5460 5460 5460 5460 5460 5460 5460 5460 5460 5548 5548 5548 5548 5548 5640 5548 5548 5548 5460 5460 5640 5548 5548 5548 5548 5640 5548 5548 5548 5548 5548 5548 5460 5460 5548 5548 5640 5640 5640 5832 6038 6146 6146 6259 6259 6259 6375 6375 6259 6259 6259 6259 6259 6259 6622 6622 3365 3333 3300 3238 3238 3178 3120 3037 2984 2984 2984 2984 2958 2958 2958 2933 2933 2933 2933 2933 2933 2933 2933 2933 2908 2908 2908 2933 2933 2933 2933 2933 2933 2933 2933 2933 2933 2958 2958 2958 2958 2958 2958 2958 2958 2958 2958 2958 2958 2958 2984 2984 2984 2984 2984 2984 2984 2984 2958 2958 2984 3010 3010 3037 3037 3037 3064 3064 3064 3064 3064 3064 3064 3064 3064 3064 3037 3037 3037 3037 3037 3037 3037 3037 3037 3037 3037 3037 3037 3064 3064 3064 3064 3064 3064 3064 3064 3064 3064 3092 3092 3064 3064 3092 3120 3120 3120 3120 3120 3120 3120 3120 3120 3149 3149 3149 3149 3149 3149 3149 3178 3178 3178 3178 3178 3178 3178 3208 3208 3208 3208 3208 3208 3238 3238 3300 3300 3300 3300 7660 7660 7660 7660 7492 7492 7492 7492 7492 7492 7492 7492 7492 7492 7492 7492 7492 7492 7492 5291 5291 5374 5374 5374 5374 5291 5291 5291 5291 5291 5291 5291 5291 5291 5291 5291 5291 5291 5291 5210 5210 5210 5210 5210 5132 5132 5132 5132 5132 5132 5132 5132 5132 5132 5132 5132 5132 5056 5056 5056 5056 4983 4983 4983 4983 5056 4983 4983 4911 4911 4911 4911 4983 4983 4983 4983 5056 5132 5132 5132 5132 5210 5210 5210 5210 5210 5210 5210 7178 7178 7332 7332 7332 7332 7178 7178 7030 7030 7030 7030 7030 7030 7030 7030 7030 7030 7030 7030 7030 7178 7178 7332 7332 7332 7332 7332 7332 7332 7332 7332 7332 7332 7332 7332 7332 7332 7332 7332 7332 7332 7332 7332 7332 7332 7332 7178 7178 7178 7332 7332 6146 6146 5734 0 0 0 0 0 0 0 0 0 0 0 0 0 0 0 0 0 0 0 0 7492 7332 7332 7492 7492 7492 7332 7332 7030 6622 6497 6259 6259 6259 6146 5933 5548 5460 5460 5374 5374 5374 5374 5374 5374 5374 5374 5374 5374 5374 5374 5374 5374 5374 5374 5374 5374 5374 5374 5291 5210 5210 5210 5132 5132 5132 5132 8019 8019 8019 7660 7660 7660 7660 7660 7660 7835 8019 8019 8019 8019 8019 7835 7835 7835 7835 8413 8413 8413 8626 8849 8626 8626 8849 8849 8849 8849 8849 8849 8849 8849 8849 8849 8626 8626 8626 8626 8626 8626 8626 8626 8626 8413 8413 8212 8212 8212 8212 8626 8626 8626 8849 9084 9331 8849 8626 8626 8626 8626 8626 8626 8626 8413 8413 8413 8413 8413 8413 8413 8413 8413 8413 8413 8413 8413 8413 8413 8413 8413 8413 8413 8413 8212 8212 8212 8413 8019 8019 8019 8019 8019 8019 7835 7835 8019 8019 8019 7835 7835 7660 7660 7660 7660 7660 7492 7492 7492 7492 7492 7660 7660 7660 7660 7660 7660 7660 7660 7660 7835 7835 8019 8019 8019 8019 8019 7835 7835 7835 7835 7835 7835 7660 7660 0 0 0 0 0 0 0 0 0 0 0 0 0 0
0 0 0 0 0 0 0 0 0 0 0 0 0 0 0 0 0 0 0 0 0 0 0 0 0 0 0 0 0 0 5832 5832 5832 5933 5933 5933 5933 5933 5933 6038 5933 5933 5933 6038 6038 6038 6038 6146 6146 6146 6146 6146 6259 6259 6259 6259 6259 6259 6259 6259 6146 6146 6038 6038 6038 6038 6038 6038 5933 5832 5832 5933 5933 5832 5832 5832 5832 5640 5640 5548 5548 5548 5460 5460 5460 5460 5460 5460 5460 5460 5460 5460 5460 5460 5460 5460 5460 5460 5460 5460 5460 5460 5460 5460 5460 5460 5460 5460 5548 5548 5548 5460 5460 5460 5548 5548 5548 5460 5460 5548 5640 5640 5640 5640 5832 6038 6146 6259 6259 6259 6259 6375 6375 6259 6259 6259 6259 6259 6259 6622 6622 3365 3333 3300 3238 3208 3149 3120 3092 3037 3010 2984 2984 2984 2984 2958 2933 2933 2958 2933 2933 2933 2933 2933 2933 2933 2933 2933 2933 2933 2933 2933 2933 2933 2933 2958 2958 2958 2958 2958 2984 2984 2984 2984 2984 2984 2984 2984 2984 2984 2984 2984 3010 3010 3010 3010 3037 3010 3010 3010 3010 3010 3037 3037 3064 3064 3064 3064 3064 3064 3064 3064 3092 3092 3092 3064 3064 3064 3064 3064 3064 3064 3064 3064 3064 3064 3064 3064 3064 3064 3064 3064 3064 3064 3092 3092 3092 3092 3092 3092 3092 3120 3092 3092 3120 3120 3120 3120 3149 3149 3149 3149 3149 3149 3149 3149 3149 3178 3178 3178 3178 3178 3178 3178 3149 3149 3149 3178 7332 7332 7492 7492 3208 3208 3208 3238 3300 3300 3300 7492 7660 7492 7492 7492 7492 7492 7492 7492 7492 7492 7492 7492 7492 7492 7492 7492 7492 7492 7492 5291 5291 5374 5374 5374 5374 5374 5291 5291 5291 5291 5291 5291 5291 5291 5291 5291 5291 5291 5291 5210 5210 5210 5210 5210 5132 5132 5132 5132 5132 5210 5210 5210 5132 5132 5132 5132 5132 5056 5056 5056 5056 4983 4983 5056 5056 5056 4983 4983 4983 4983 4983 4983 4983 4983 4983 5056 5056 5132 5132 5132 5132 5210 5210 5210 5210 5210 5210 5210 7178 7178 7178 7178 7178 7178 7178 7178 7030 7030 7030 7030 7030 7030 7030 7030 7030 7030 7030 7030 7030 7178 7178 7178 7332 7332 7332 7332 7332 7332 7332 7332 7332 7332 7332 7332 7332 7332 7332 7332 7332 7332 7178 7178 7178 7178 7178 7030 7030 7030 6259 6146 6146 6146 5734 5734 5734 5734 0 0 0 0 0 0 0 0 0 0 0 0 0 0 0 0 0 0 7332 7332 7332 7332 7332 7332 7178 7030 6622 6497 6259 6146 6146 6146 5832 5460 5460 5374 5374 5374 5374 5374 5374 5291 5291 5291 5291 5291 5374 5374 5374 5374 5374 5374 5374 5374 5374 5374 5291 5210 5210 5210 5132 5132 5132 5132 5210 8019 8019 7660 7660 7660 7660 7660 7660 7660 8019 8019 8019 8019 5460 0 0 0 0 0 0 5460 8849 8849 8849 8849 8849 8849 8849 8849 8849 8849 8849 8849 8849 8849 8849 8849 8626 8626 8626 8626 8626 8626 8626 8413 8413 8212 8212 8212 8413 0 0 0 9593 9331 9331 8849 8626 8626 8626 8626 8626 0 0 8626 8626 8413 8413 8413 8413 8413 8413 8413 8413 8413 8413 8413 8413 8413 8413 8413 8413 8413 8413 8212 8212 8212 8413 8019 8019 8019 8019 8019 8019 7835 7835 7835 7835 7835 7660 7660 7660 7660 7660 7492 7492 7492 7492 7492 7492 7492 7660 7660 7660 7660 7660 7660 7660 7660 7660 7835 7835 8019 8019 8019 8019 8019 7835 7660 7660 7660 7660 7660 7492 7492 0 0 0 0 0 0 0 0 0 0 0 0 0 0
0 0 0 0 0 0 0 0 0 0 0 0 0 0 0 0 0 0 0 0 0 0 0 0 0 0 0 0 0 0 5832 5832 5933 5933 5933 5933 5933 5933 5933 6038 5933 5933 5933 6038 6038 6038 6146 6146 6146 6146 6146 6146 6146 6146 6146 6146 6146 6259 6259 6259 6146 6146 6038 6038 6038 6038 6038 5933 5933 5832 5832 5832 5832 5832 5832 5734 5734 5640 5640 5548 5548 5548 5460 5460 5460 5460 5460 5460 5460 5460 5460 5460 5460 5460 5460 5460 5460 5460 5460 5460 5460 5460 5460 5460 5460 5460 5460 5460 5548 5548 5548 5460 5460 5460 5548 5548 5548 5460 5460 5548 5640 5640 5640 5734 5832 5832 6146 6146 6259 6259 6259 6259 6259 6259 6259 6259 6375 6375 6622 6622 3433 3399 3399 3333 3269 3208 3120 3120 3092 3064 3037 3010 2984 2984 2984 2984 2933 2933 2958 2933 2933 2933 2933 2933 2933 2933 2933 2933 2933 2933 2958 2933 2933 2933 2958 2958 2958 2958 2958 2958 2984 2984 3010 3010 3010 3010 3010 3010 3010 3010 3010 3010 3010 3037 3037 3037 3037 3037 3037 3037 3037 3037 3064 3064 3064 3064 3064 3064 3064 3064 3064 3064 3092 3092 3092 3120 3120 3120 3092 3092 3092 3064 3064 3092 3064 3064 3064 3064 3064 3092 3092 3092 3092 3092 3092 3120 3092 3092 3120 3120 3149 3149 3120 3120 3149 3149 3149 3149 3149 3149 3149 3149 3149 3149 3178 3178 3178 3208 3208 3208 3208 3208 3208 3208 3149 3149 3149 3178 7492 7492 7492 7492 7492 3208 3208 3238 7492 7492 7492 7492 7660 7492 7492 7492 7492 7492 7492 7492 7492 7492 7492 7492 7492 7492 7492 7492 7492 7492 7492 7660 5374 5374 5374 5374 5374 5374 5291 5291 5291 5291 5291 5291 5291 5291 5291 5291 5291 5291 5291 5291 5291 5210 5210 5210 5132 5132 5210 5132 5132 5210 5210 5210 5132 5132 5132 5132 5132 5056 5056 5056 5056 5056 5056 5056 5056 5056 4983 4983 4983 4983 4983 4983 4983 4983 5056 5056 5056 5132 5132 5132 5132 5210 5210 5210 5210 5132 5132 7178 7178 7030 7030 7030 7030 7178 7178 7178 7030 7030 7030 7030 7030 7030 7030 7030 7030 7030 7030 7030 7030 7178 7178 7178 7332 7332 7332 7332 7332 7332 7332 7332 7332 7332 7332 7332 7332 7332 7332 7492 7332 7178 7178 7178 7178 7178 7030 7030 7030 6622 6259 6146 5734 5640 5640 5734 5734 0 0 0 0 0 0 0 0 0 0 0 0 0 0 0 0 0 0 0 7492 7332 7332 7332 7332 7332 7178 7030 6753 6146 6146 6038 6038 5933 5460 5460 5460 5374 5374 5374 5374 5374 5291 5291 5210 5210 5210 5210 5291 5291 5291 5374 5374 5374 5374 5374 5374 5374 5291 5210 5210 5210 5132 5132 5132 5210 5210 5460 5460 5460 5460 5460 7660 7660 7660 7660 7660 7660 0 0 0 0 0 0 0 0 0 0 0 0 8849 8849 8849 9084 9084 8849 8849 8849 8849 9084 8849 8849 8849 8849 8626 8626 8626 8626 8626 8626 8626 8413 8413 8212 8212 8413 8413 0 0 0 9593 9593 9593 8849 8849 8849 8849 8849 8849 0 0 0 8626 8626 8626 8626 8413 8413 8413 8413 8413 8413 8413 8413 8413 8413 8413 8413 8413 8413 8413 8212 8212 8212 8413 8019 8019 8019 8019 8019 7835 7835 7835 7835 7835 7835 7660 7660 7660 7660 7660 7492 7492 7492 7492 7332 7332 7332 7332 7492 7660 7660 7660 7660 7660 7660 7660 7835 7835 7835 7835 8019 7835 7835 7835 7660 7660 7660 7660 7492 7492 7492 0 0 0 0 0 0 0 0 0 0 0 0 0 0
0 0 0 0 0 0 0 0 0 0 0 0 0 0 0 0 0 0 0 0 0 0 0 0 0 0 0 0 0 0 5832 5832 5933 5933 5933 5933 5933 5933 5933 5933 5933 5933 5933 6038 6038 6038 6038 6146 6146 6146 6146 6146 6146 6146 6146 6146 6146 6259 6259 6259 6146 6038 6038 6038 5933 5933 5933 5933 5933 5832 5832 5832 5832 5832 5832 5734 5734 5640 5640 5548 5548 5548 5460 5460 5460 5460 5460 5374 5374 5374 5374 5460 5460 5460 5548 5548 5460 5460 5460 5460 5460 5460 5460 5460 5460 5460 5460 5460 5548 5548 5548 5548 5548 5548 5548 5548 5548 5548 5548 5640 5640 5640 5640 5734 5734 5832 6038 6038 6146 6146 6146 6259 6259 6259 6259 6259 6375 6375 6375 6375 3433 3433 3433 3365 3300 3208 3120 3120 3092 3064 3037 3010 3010 2984 2984 2958 2933 2933 2933 2933 2933 2933 2933 2933 2933 2933 2933 2933 2933 2958 2958 2958 2958 2958 2958 2958 2958 2958 2958 2984 2984 2984 3010 3010 3037 3037 3010 3010 3010 3010 3010 3037 3037 3037 3037 3037 3064 3064 3037 3037 3064 3064 3064 3064 3064 3064 3064 3092 3092 3092 3092 3092 3092 3120 3120 3120 3120 3149 3120 3120 3120 3092 3092 3120 3092 3092 3092 3120 3120 3120 3120 3120 3120 3120 3120 3149 3149 3149 3149 3149 3178 3178 3149 3149 3149 3149 3149 3149 3149 3149 3149 3149 3149 3178 3208 3208 3208 3208 3238 3238 3238 3208 3208 3208 3178 3149 3149 7492 7492 7492 7492 7492 7492 7332 7332 7332 7332 7492 7492 7492 7492 7492 7492 7492 7492 7492 7492 7492 7492 7492 7492 7492 7492 7660 7660 7660 7660 7660 7660 7835 5374 5374 5374 5374 5374 5374 5374 5291 5291 5291 5291 5291 5291 5291 5291 5291 5291 5291 5291 5291 5291 5210 5210 5210 5132 5132 5132 5132 5132 5132 5132 5132 5132 5132 5132 5132 5132 5056 5056 5056 5056 5056 5056 5056 5056 5056 4983 4983 4983 4983 4983 4983 4983 4983 5056 5056 5056 5132 5132 5132 5132 5210 5210 5210 5132 5132 5132 7178 7030 7030 7030 7030 7030 7030 7030 7030 7030 7030 7030 7030 7030 7030 7030 7030 7030 7030 7030 7030 7030 7178 7178 7178 7332 7178 7178 7178 7178 7332 7332 7332 7332 7332 7332 7332 7332 7332 7332 7332 7178 7178 7178 7178 7178 7030 6889 6889 6753 6375 6259 6146 5734 5640 5640 5734 5832 0 0 0 0 0 0 0 0 0 0 0 0 0 0 0 0 0 0 0 7492 7492 7332 7332 7332 7332 7178 7030 7030 5640 5640 5734 5734 5734 5460 5460 5460 5374 5374 5374 5374 5374 5291 5291 5210 5210 5210 5210 5291 5291 5291 5374 5374 5374 5374 5374 5374 5291 5210 5210 5210 5210 5132 5132 5132 5210 5460 5460 5460 5460 5374 5374 5374 5291 5291 5291 5291 5291 5291 0 0 0 0 0 0 0 0 0 0 0 5291 9331 9331 9331 9331 9084 9084 8849 8849 9084 9084 8849 8849 8849 8626 8626 8626 8626 8626 8626 8626 8413 8413 8413 8413 8626 8626 8626 0 9593 9593 9593 9593 9593 0 0 0 0 0 0 0 0 9331 8626 8626 8626 8626 8626 8626 8413 8413 8413 8413 8413 8413 8413 8413 8413 8413 8413 8413 8212 8212 8212 8212 8019 8019 8019 8019 8019 7835 7835 7835 7835 7835 7835 7660 7660 7660 7660 7660 7660 7492 7492 7492 7332 7332 7332 7332 7332 7492 7660 7660 7660 7660 7660 7660 7835 7660 7660 7835 8019 7835 7835 7835 7660 7660 7660 7492 7492 7332 7332 0 0 0 0 0 0 0 0 0 0 0 0 0 0
0 0 0 0 0 0 0 0 0 0 0 0 0 0 0 0 0 0 0 0 0 0 0 0 0 0 0 0 0 0 5832 5832 5933 5933 5933 5933 5933 5933 5933 5933 5933 5933 5933 6038 6038 6038 6038 6146 6146 6146 6146 6146 6146 6146 6146 6146 6146 6146 6146 6146 6038 6038 5933 5933 5933 5933 5832 5832 5832 5832 5832 5832 5832 5734 5734 5734 5640 5640 5548 5548 5548 5548 5460 5460 5460 5460 5460 5374 5374 5374 5374 5460 5460 5460 5548 5548 5548 5460 5460 5548 5548 5548 5548 5460 5460 5548 5548 5548 5548 5548 5548 5548 5548 5548 5548 5548 5548 5548 5548 5640 5640 5640 5640 5734 5734 5832 6038 6038 6146 6146 6146 6146 6259 6259 6259 6259 6259 6259 6375 6375 3433 3433 3433 3365 3300 3238 3120 3120 3092 3064 3037 3010 3010 2984 2984 2958 2933 2933 2933 2933 2933 2933 2933 2933 2933 2958 2958 2958 2958 2958 2958 2958 2958 2958 2958 2958 2984 2984 2984 2984 2984 3010 3010 3010 3037 3037 3037 3037 3037 3037 3037 3037 3037 3037 3037 3037 3064 3064 3064 3064 3064 3064 3064 3064 3064 3064 3092 3092 3092 3092 3092 3120 3120 3120 3120 3149 3149 3149 3149 3149 3120 3120 3120 3120 3120 3120 3120 3120 3149 3149 3149 3149 3149 3149 3149 3149 3149 3149 3178 3178 3178 3178 3178 3178 3178 3178 3178 3178 3178 3178 3178 3178 3178 3208 3208 3208 3208 3238 3238 3238 3238 3238 3238 3208 3208 7492 7492 7492 7492 7492 7492 7030 7030 7178 7178 7332 7332 7492 7492 7492 7492 7492 7492 7492 7492 7492 7492 7492 7492 7492 7492 7660 7660 7660 7660 7660 7660 7660 7835 8019 8212 5374 5374 5374 5374 5374 5374 5291 5291 5291 5291 5291 5291 5291 5291 5291 5291 5291 5291 5291 5291 5291 5291 5210 5132 5132 5132 5132 5132 5132 5132 5132 5132 5132 5132 5132 5132 5132 5056 5056 5056 5056 5056 5056 5056 5056 5056 5056 5056 5056 4983 4983 5056 5056 5056 5056 5056 5132 5132 5132 5132 5132 5132 5132 5132 5132 5132 5132 7030 7030 6889 6889 6889 6889 7030 7030 7030 7030 7030 7030 7030 7030 7030 7030 7030 7030 7030 7030 7030 7178 7178 7178 7332 7178 7178 7178 7178 7332 7332 7332 7332 7332 7332 7332 7332 7332 7332 7332 7178 7178 7178 7178 7178 7030 6753 6753 6375 6259 6259 6146 6038 5734 5734 5734 5832 0 0 0 0 0 4582 4582 4582 0 0 0 0 0 0 0 0 0 4522 4522 4582 4645 4645 4645 7660 7660 7178 7178 5460 5460 5548 5548 5460 5460 5460 5374 5374 5374 5374 5291 5291 5374 5374 5291 5291 5291 5210 5210 5291 5291 5291 5374 5374 5374 5374 5374 5374 5291 5210 5210 5210 5210 5210 5210 5210 5291 5460 5460 5460 5460 5374 5374 5374 5291 5291 5291 5291 5291 5291 5210 5210 5460 5460 5374 5374 5460 5460 5460 5374 5291 5291 5291 9331 9331 9331 9084 9084 9084 9084 9084 8849 8849 8849 8849 8626 8626 8626 8626 8626 8626 8626 8413 8413 8413 8413 0 0 0 0 0 9593 0 9593 9593 0 0 0 0 0 0 0 0 9331 9084 8849 8849 8626 8626 8626 8413 8413 8413 8413 8413 8413 8413 8413 8413 8413 8413 8413 8212 8212 8212 8212 7835 7835 7835 7835 8019 7835 7835 7835 7835 7835 7660 7660 7660 7660 7660 7660 7660 7660 7492 7492 7332 7332 7332 7332 7332 7332 7660 7660 7660 7660 7660 7660 7660 7660 7660 7835 7835 5210 5210 7492 7492 7492 7492 7492 7492 7332 7332 0 0 0 0 0 0 0 0 0 0 0 0 0 0
0 0 0 0 0 0 0 0 0 0 0 0 0 0 0 0 0 0 0 0 0 0 0 0 0 0 0 0 0 0 5832 5832 5933 5933 5933 5933 5933 5933 5933 5933 5933 5933 5933 6038 6038 6038 6038 6146 6146 6146 6146 6146 6146 6146 6146 6146 6146 6146 6146 6146 6038 6038 5933 5933 5933 5832 5832 5832 5832 5734 5734 5734 5734 5734 5734 5734 5640 5548 5548 5548 5548 5460 5460 5460 5460 5460 5460 5374 5374 5374 5460 5460 5460 5548 5548 5548 5548 5548 5548 5548 5548 5548 5548 5548 5548 5548 5548 5548 5548 5548 5548 5548 5548 5548 5548 5548 5548 5548 5548 5548 5640 5640 5640 5734 5734 5832 5933 6038 6038 6146 6146 6146 6146 6146 6146 6259 6259 6259 6259 6259 3433 3433 3433 3365 3333 3269 3120 3120 3092 3064 3037 3010 2984 2984 2958 2958 2933 2933 2933 2933 2933 2933 2933 2933 2933 2958 2958 2958 2958 2958 2958 2958 2958 2958 2984 2984 2984 2984 3010 3010 3010 3010 3037 3037 3037 3037 3037 3037 3037 3037 3037 3037 3037 3037 3037 3037 3064 3064 3064 3064 3064 3064 3064 3064 3092 3092 3092 3092 3092 3092 3092 3120 3120 3120 3120 3149 3149 3149 3149 3149 3149 3149 3149 3149 3149 3149 3149 3149 3149 3149 3149 3149 3149 3149 3149 3178 3178 3178 3178 3178 3178 3208 3178 3178 3178 3208 3208 3208 3208 3208 3208 3208 3208 3208 3238 3238 3238 3238 3238 3238 3238 3238 3238 3238 3238 7492 7492 7492 7492 7332 7178 7030 7030 7178 7178 7178 7178 7332 7492 7492 7492 7492 7492 7492 7492 7492 7492 7492 7492 7492 7492 7660 7660 7660 7660 7660 7660 7835 7835 8019 8212 5374 5374 5374 5374 5374 5374 5374 5374 5291 5291 5291 5291 5291 5291 5291 5291 5291 5291 5291 5291 5291 5291 5291 5210 5210 5210 5132 5132 5210 5132 5132 5132 5132 5132 5132 5132 5132 5132 5056 5056 5056 5056 5056 5056 5056 5056 5056 5056 5056 5056 5056 5056 5056 5056 5056 5056 5056 5132 5132 5132 5132 5132 5132 5132 5132 5132 5132 6889 6889 6889 6889 6889 6889 6889 6889 6889 6889 7030 7030 7030 6889 6889 7030 7030 7030 7030 7030 7030 7178 7178 7178 7178 7332 7332 7332 7332 7332 7332 7332 7332 7332 7332 7332 7332 7332 7332 7332 7178 7178 7178 7178 7178 4349 4349 4405 4349 4349 4349 4405 6146 5832 5832 4463 4463 4522 4463 4463 4522 4522 4522 4522 4522 4582 4582 4582 4522 4522 0 0 4522 4522 4522 4522 4582 4645 4645 4645 4774 4774 5460 5460 5460 5460 5460 5460 5460 5460 5460 5374 5374 5374 5374 5291 5291 5291 5291 5291 5291 5291 5291 5291 5291 5291 5291 5374 5374 5374 5374 5374 5374 5291 5291 5210 5210 5210 5291 5291 5291 5374 5374 5460 5460 5460 5374 5374 5374 5291 5291 5291 5291 5291 5210 5210 5210 5374 5374 5374 5374 5374 5374 5460 5374 5291 5291 5291 5374 5374 5291 5291 5291 5291 5291 5291 5291 5291 5291 5374 5374 8626 8626 8626 8626 8626 8626 8849 8849 8849 5640 5548 0 0 0 0 0 0 0 0 0 0 0 0 0 0 0 0 9593 9331 9084 8849 8849 8849 8626 8413 8413 8413 8413 8413 8413 8413 8413 8413 8413 8413 8413 8212 8212 8212 8212 7835 7835 7835 7835 8019 8019 7835 7835 7835 7835 7660 7660 7660 7660 7660 7660 7660 0 0 7660 0 0 7332 7332 7332 7332 7492 7492 7492 7492 7660 7660 7660 7660 5056 5056 5210 5210 5210 7332 7332 7332 7332 7492 7492 7332 7332 0 0 0 0 0 0 0 0 0 0 0 0 0 0
0 0 0 0 0 0 0 0 0 0 0 0 0 0 0 0 0 0 0 0 0 0 0 0 0 0 0 0 0 0 5832 5832 5933 5933 5933 5933 5933 5933 5933 5933 5933 5933 5933 6038 6038 6038 6038 6146 6038 6038 6038 6146 6146 6146 6146 6259 6259 6259 6259 6259 6038 6038 5933 5933 5933 5832 5832 5832 5832 5734 5734 5734 5734 5734 5734 5640 5640 5548 5548 5548 5548 5460 5460 5460 5460 5460 5460 5460 5374 5374 5460 5460 5460 5548 5548 5548 5548 5460 5460 5548 5548 5548 5548 5548 5548 5548 5460 5460 5460 5460 5548 5548 5548 5548 5548 5548 5548 5548 5548 5548 5640 5640 5640 5734 5734 5832 5832 6038 6038 6146 6146 6146 6146 6146 6146 6146 6259 6146 6146 6146 6146 3433 3433 3365 3333 3269 3120 3120 3092 3064 3037 3010 2984 2984 2958 2958 2933 2933 2933 2933 2933 2933 2958 2958 2958 2958 2958 2958 2958 2958 2958 2984 2984 2984 2984 2984 3010 3010 3010 3010 3010 3037 3037 3037 3037 3037 3037 3037 3037 3037 3037 3037 3037 3037 3037 3064 3064 3064 3064 3064 3064 3064 3064 3064 3092 3092 3092 3092 3092 3092 3092 3120 3120 3120 3120 3149 3149 3149 3149 3149 3149 3149 3149 3149 3149 3149 3149 3149 3149 3149 3178 3178 3178 3178 3178 3178 3178 3208 3208 3208 3208 3208 3208 3208 3208 3208 3208 3208 3208 3208 3208 3208 3208 3208 3238 3238 3238 3238 3238 3238 3269 3269 3238 3238 3238 7492 7492 7492 7492 7332 7178 7030 7030 7178 7178 7178 7178 7332 7332 7492 7492 7492 7492 7492 7492 7492 7492 7492 7660 7660 7660 7660 7660 7660 7660 7660 7660 7835 8019 8019 8212 8212 5374 5374 5374 5374 5374 5374 5374 5291 5291 5291 5291 5291 5291 5291 5291 5291 5291 5291 5291 5291 5291 5291 5210 5210 5210 5132 5132 5210 5132 5132 5132 5132 5132 5132 5132 5132 5132 5056 5056 5056 5056 5056 5056 5056 5056 5056 5056 5056 5056 5056 5056 5056 5056 5056 5056 5056 5132 5132 5132 5132 5132 5132 5132 5132 5132 6889 6889 6889 6889 6889 6889 6889 6889 6889 6889 6889 7030 7030 6889 6889 6889 7030 7030 7030 7030 7030 7030 7178 7178 7178 7178 7332 7332 7332 7332 7332 7332 7332 7332 7332 7332 7332 7332 7332 7332 7332 7332 7332 7332 7332 4405 4349 4349 4405 4349 4349 4349 4405 6259 5933 4463 4463 4463 4522 4463 4463 4522 4522 4522 4522 4522 4582 4582 4582 4522 4522 4522 4522 4522 4522 4522 4522 4645 4645 4708 4708 4774 4842 5374 5374 5460 5460 5460 5460 5460 5460 5460 5460 5460 5374 5374 5291 5291 5291 5291 5291 5291 5291 5210 5210 5210 5210 5291 5291 5374 5374 5374 5374 5374 5291 5291 5210 5210 5291 5291 5291 5374 5374 5374 5374 5460 5460 5374 5374 5374 5291 5291 5291 5291 5291 5210 5210 5210 5374 5374 5374 5374 5374 5374 5374 5374 5291 5291 5291 5374 5374 5291 5291 5291 5291 5291 5291 5291 5291 5291 5374 5374 8626 8626 8626 5640 5640 5640 5640 5640 5640 0 0 0 0 5374 0 0 0 0 0 0 0 0 0 0 0 0 0 0 9870 9331 9084 9084 9084 8626 8413 8413 8413 8413 8413 8413 8413 8413 8413 8413 8413 8413 8212 8212 8212 8212 7835 7835 7835 7835 8019 8019 8019 7835 7835 7835 7835 7660 7660 7660 7660 7660 7660 7660 0 0 0 0 7332 7332 7332 7332 7492 7492 7492 7492 7492 7492 7660 7660 5056 5056 5210 5210 5210 7332 7332 7332 7332 7492 7492 7332 7332 0 0 0 0 0 0 0 0 0 0 0 0 0 0
0 0 0 0 0 0 0 0 0 0 0 0 0 0 0 0 0 0 0 0 0 0 0 0 0 0 0 0 0 0 5832 5832 5933 5933 5933 5933 5933 5933 5933 5933 5933 5933 5933 6038 6038 6038 6038 6038 6038 6038 6038 6038 6146 6146 6146 6146 6259 6259 6259 6259 6038 6038 5933 5832 5832 5832 5832 5832 5832 5734 5734 5734 5734 5734 5734 5640 5640 5548 5548 5548 5460 5460 5460 5460 5460 5460 5460 5460 5460 5460 5460 5548 5548 5548 5460 5460 5548 5460 5460 5548 5548 5548 5548 5548 5548 5548 5460 5460 5460 5460 5548 5548 5548 5548 5548 5640 5548 5548 5548 5548 5640 5640 5640 5734 5734 5734 5832 5933 6038 6038 6038 6038 6038 6146 6146 6146 6146 6038 6038 0 0 3433 3433 3399 3333 3300 3178 3120 3064 3037 3010 3010 2984 2984 2958 2958 2933 2933 2933 2933 2933 2933 2958 2958 2958 2958 2958 2958 2958 2958 2958 2984 2984 2984 2984 2984 3010 3010 3010 3010 3010 3037 3037 3037 3037 3037 3037 3037 3037 3037 3037 3037 3064 3064 3064 3064 3064 3064 3064 3064 3064 3064 3064 3064 3092 3092 3092 3092 3092 3092 3120 3120 3120 3149 3149 3149 3149 3149 3149 3149 3149 3149 3149 3149 3149 3149 3149 3149 3149 3178 3178 3178 3178 3178 3178 3208 3208 3208 3208 3208 3208 3208 3208 3208 3208 3208 3208 3208 3208 3208 3208 3208 3208 3208 3238 3238 3238 3238 3238 3238 3269 3238 3238 3238 3238 7492 7492 7492 7492 7492 7332 7178 7178 7178 7178 7332 7178 7178 7332 7332 7332 7332 7332 7332 7492 7492 7492 7492 7492 7660 7660 7660 7660 7660 7660 7660 7660 7835 8019 8212 8212 5291 5291 5374 5374 5374 5374 5374 5374 5291 5291 5291 5374 5291 5291 5291 5291 5291 5291 5291 5291 5291 5291 5291 5210 5210 5132 5132 5132 5132 5132 5132 5132 5132 5132 5132 5132 5132 5132 5056 5056 5056 5056 5056 5056 5056 5056 5056 5056 5056 5056 5056 5056 5056 5056 5056 5056 5056 5132 5132 5132 5132 5132 5132 5132 5132 5132 6753 6889 6889 6889 6889 6889 6889 6889 6889 6889 7030 7030 7030 6889 6889 6889 7030 7030 7030 7030 7030 7030 7178 7030 7030 7178 7332 7332 7332 7332 7332 7332 7332 7332 7332 7332 7332 7332 7332 7332 7332 7332 7332 7332 7332 4349 4349 4405 4405 4405 4405 4405 4405 4463 4522 4463 4463 4522 4522 4522 4522 4522 4522 4582 4582 4582 4582 4582 4582 4522 4522 4522 4522 4522 4522 4522 4522 4582 4645 4708 4708 4774 4842 5374 5374 5374 5460 5460 5460 5460 5460 5460 5460 5374 5374 5291 5291 5291 5291 5291 5291 5291 5291 5210 5210 5210 5210 5291 5291 5374 5374 5374 5374 5291 5291 5291 5210 5210 5291 5291 5291 5291 5374 5374 5374 5374 5374 5374 5374 5374 5291 5291 5374 5291 5291 5291 5291 5291 5374 5374 5374 5374 5374 5374 5374 5374 5374 5374 5374 5374 5374 5374 5374 5291 5291 5374 5291 5291 5291 5291 5374 5374 8849 8849 8849 5548 5548 5548 5640 5640 5640 5374 5548 5548 5374 5374 5374 5374 5374 5374 5374 0 0 0 0 0 0 5640 5640 5640 5640 5640 9331 9331 9084 8849 8626 8626 8413 8413 8413 8626 8626 8626 8626 8626 8626 8413 8413 8212 8212 8212 8019 7835 7835 7835 8019 8019 8019 8019 7835 7835 7835 7660 7660 7835 7835 7835 7835 0 5832 5832 5832 5832 7492 7492 7492 7492 7492 7332 7332 7492 7492 7492 7492 7660 5056 5056 5132 5210 5210 7332 7332 7332 7332 7492 7492 7332 7332 0 0 0 0 0 0 0 0 0 0 0 0 0 0
0 0 0 0 0 0 0 0 0 0 0 0 0 0 0 0 0 0 0 0 0 0 0 0 0 0 0 0 0 0 5832 5832 5933 5933 5933 5933 5933 5933 5933 5933 5933 5933 5933 6038 6038 6038 6038 6038 6038 6038 6038 6038 6146 6146 6146 6146 6259 6259 6259 6259 6146 6038 5933 5832 5832 5832 5832 5832 5832 5734 5734 5734 5734 5734 5734 5734 5640 5548 5548 5548 5460 5460 5460 5460 5460 5460 5460 5460 5460 5460 5460 5460 5548 5548 5460 5460 5460 5460 5460 5548 5548 5548 5548 5548 5548 5548 5460 5460 5460 5460 5548 5548 5548 5548 5548 5548 5548 5548 5548 5640 5640 5640 5640 5734 5734 5734 5832 5933 6038 6038 6038 6038 6038 6146 6146 6146 6146 6038 6038 0 0 6038 3333 0 3333 3238 3178 3120 3064 3037 3010 2984 2984 2984 2958 2958 2958 2958 2933 2933 2933 2933 2958 2958 2958 2958 2984 2984 2984 2984 2984 2984 2984 2984 2984 2984 3010 3010 3010 3010 3010 3037 3037 3037 3037 3037 3037 3037 3037 3037 3037 3037 3064 3064 3064 3064 3064 3064 3064 3064 3064 3064 3064 3064 3092 3092 3092 3120 3120 3120 3120 3120 3149 3149 3149 3149 3149 3149 3178 3178 3178 3149 3149 3149 3149 3149 3149 3149 3178 3178 3178 3178 3178 3178 3208 3208 3208 3208 3208 3208 3208 3208 3208 3208 3208 3208 3208 3208 3208 3208 3208 3208 3208 3238 3238 3238 3238 3238 3238 3238 3269 3238 3238 3238 3238 7492 7492 7332 7332 7332 7332 7178 7178 7178 7178 7178 7178 7178 7178 7178 7178 7178 7332 7332 7492 7492 7492 7492 7492 7492 7492 7660 7660 7660 7660 7660 7835 7835 8019 8212 8413 5291 5291 5374 5374 5374 5374 5374 5374 5291 5291 5291 5374 5291 5291 5291 5291 5291 5291 5291 5291 5291 5291 5291 5210 5210 5132 5132 5132 5132 5132 5132 5132 5132 5132 5132 5132 5132 5132 5132 5132 5056 5056 5056 5056 5056 5056 5056 5056 5056 5056 5056 5056 5056 5056 5056 5056 5056 5132 5132 5132 5132 5132 5132 5132 5056 5056 6753 6889 6889 6889 6889 6889 6889 6889 6889 6889 6889 7030 7030 6889 6889 6889 7030 7030 7030 7030 7030 7030 7178 7030 7030 7178 7332 7332 7332 7332 7332 7332 7332 7332 7332 7332 7332 7332 7332 7332 7332 7332 7332 7332 7332 4349 4349 4405 4405 4405 4463 4463 4463 4463 4522 4463 4463 4522 4522 4522 4522 4522 4522 4582 4522 4522 4582 4582 4582 4522 4522 4522 4522 4522 4522 4582 4582 4582 4645 4708 4708 4774 5291 5374 5374 5374 5374 5374 5374 5374 5374 5374 5374 5374 5374 5291 5291 5291 5291 5291 5291 5291 5210 5210 5210 5210 5210 5210 5291 5374 5291 5291 5291 5291 5291 5291 5210 5210 5291 5291 5291 5291 5374 5374 5374 5374 5374 5374 5374 5374 5291 5291 5291 5291 5291 5291 5291 5291 5374 5374 5374 5374 5374 5374 5460 5374 5374 5374 5374 5374 5374 5374 5374 5291 5291 5374 5374 5374 5374 5374 5374 5374 5374 5374 5460 5460 5460 5548 5640 5640 5640 5374 5374 5374 5374 5374 5374 5374 5374 5374 5374 0 0 0 0 0 5640 5640 5640 5640 5640 5640 5640 9331 5548 5548 5640 5640 5640 5548 8626 8626 5374 5374 8626 8626 8626 8413 8413 8212 8212 8212 8212 5460 5460 5460 8019 8019 8019 8019 8019 7835 7835 7835 7835 7835 8019 8019 8019 5640 5832 5832 5832 5832 5734 7492 7492 7492 7332 7332 7332 7492 7492 7492 7492 5210 5056 5056 5132 5210 5374 5374 7332 7332 7332 7332 7332 7332 7332 0 0 0 0 0 0 0 0 0 0 0 0 0 0
0 0 0 0 0 0 0 0 0 0 0 0 0 0 0 0 0 0 0 0 0 0 0 0 0 0 0 0 0 0 5832 5832 5933 5933 5933 5933 5933 5933 5933 5933 5933 5933 5933 6038 6038 6038 6038 6038 6038 6038 6038 6038 6146 6146 6146 6259 6259 6259 6259 6259 6146 6038 5933 5933 5933 5832 5832 5832 5832 5832 5832 5832 5832 5734 5734 5734 5640 5640 5548 5548 5460 5460 5460 5460 5460 5460 5460 5460 5460 5460 5460 5460 5548 5460 5460 5460 5460 5460 5460 5548 5548 5548 5548 5548 5548 5548 5460 5460 5460 5460 5548 5548 5548 5548 5548 5548 5548 5548 5640 5640 5548 5548 5640 5734 5734 5734 5832 5933 6038 6146 6146 6146 6146 6146 6146 6146 6146 6038 6038 0 0 0 0 0 3333 3208 3178 3120 3064 3010 2984 2984 2984 2984 2958 2958 2958 2958 2958 2958 2958 2958 2958 2958 2958 2958 2984 2984 2984 2984 2984 2984 2984 2984 2984 2984 3010 3010 3010 3037 3037 3037 3037 3037 3037 3037 3037 3037 3037 3064 3064 3064 3064 3064 3064 3064 3064 3064 3064 3064 3064 3064 3064 3092 3092 3092 3092 3120 3120 3120 3120 3120 3120 3149 3149 3149 3149 3149 3178 3178 3178 3149 3149 3149 3149 3149 3149 3149 3178 3178 3178 3178 3178 3178 3208 3208 3208 3208 3178 3178 3208 3208 3178 3178 3208 3208 3208 3208 3208 3208 3208 3208 3208 3238 3238 3238 3238 3238 3238 3238 3269 3269 3238 3238 3238 7492 7492 7332 7332 7332 7332 7178 7030 7030 7030 7030 7030 7030 7030 7030 7030 7030 7178 7178 7332 7332 7492 7492 7492 7492 7492 7660 7660 7660 7660 7660 7660 8019 8019 8212 8413 5291 5291 5291 5374 5374 5374 5374 5374 5374 5374 5374 5374 5374 5374 5374 5374 5291 5291 5291 5291 5291 5291 5291 5210 5210 5210 5132 5132 5132 5132 5132 5132 5132 5132 5132 5132 5132 5132 5132 5132 5132 5056 5056 5056 5056 5056 5056 5056 5056 5056 5056 5056 5056 5056 5056 5056 5132 5132 5132 5132 5132 5132 5132 5056 5056 5056 6753 6889 6889 6889 6889 6889 6889 6889 6889 6889 6889 7030 7030 6889 6889 6889 7030 7030 7030 7030 7030 7030 7178 7030 7030 7178 7332 7332 7332 7332 7492 7492 7492 7332 7332 7332 7332 7332 7332 7332 7332 7332 7332 7332 4349 4349 4349 4463 4463 4463 4463 4463 4463 4522 4522 4522 4522 4522 4522 4522 4522 4522 4522 4522 4522 4522 4522 4522 4522 4522 4522 4522 4522 4582 4582 4582 4645 4645 4645 4708 4708 4842 5291 5374 5374 5374 5374 5374 5374 5374 5374 5374 5374 5374 5374 5291 5291 5291 5291 5291 5291 5210 5210 5210 5210 5210 5210 5210 5210 5291 5291 5291 5291 5291 5291 5291 5291 5291 5374 5291 5291 5374 5374 5374 5374 5374 5374 5374 5374 5291 5291 5291 5291 5291 5291 5291 5291 5291 5374 5374 5374 5374 5374 5374 5374 5374 5374 5374 5374 5374 5374 5374 5374 5374 5374 5374 5374 5374 5374 5374 5374 5374 5374 5374 5374 5374 5374 5374 5374 5374 5291 5291 5374 5374 5374 5374 5374 5374 5374 5374 5374 5374 5640 5640 5640 5640 5640 5640 5640 5640 5548 5548 5640 5548 5548 5548 5548 5548 5548 5548 5640 5460 5374 5374 5460 5374 5374 5374 8626 8626 5640 5640 5640 5460 5374 5374 5374 5291 5291 5291 5291 7835 7835 7835 7835 8413 8413 8413 5640 5640 5640 5640 5640 5734 5734 5548 5548 7332 7332 7332 7332 7492 7492 7492 7492 5132 5132 5132 5210 5210 5291 5291 7332 7332 7332 7332 7332 7332 7332 0 0 0 0 0 0 0 0 0 0 0 0 0 0
0 0 0 0 0 0 0 0 0 0 0 0 0 0 0 0 0 0 0 0 0 0 0 0 0 0 0 0 0 0 5832 5832 5933 5933 5933 5933 5933 5933 5933 5933 5933 6038 6038 6038 6038 6038 6038 6038 6038 6038 6038 6038 6146 6146 6259 6259 6259 6259 6259 6259 6038 6038 5933 5933 5933 5832 5832 5832 5832 5832 5832 5832 5832 5734 5734 5734 5640 5640 5640 5548 5460 5460 5460 5460 5460 5460 5460 5460 5460 5460 5460 5460 5548 5460 5460 5460 5460 5460 5460 5548 5548 5548 5548 5548 5548 5548 5548 5548 5548 5548 5548 5548 5548 5548 5548 5548 5548 5548 5640 5640 5548 5548 5640 5734 5734 5832 5832 6038 6038 6146 6146 6146 6146 6146 6146 6146 6146 6038 6038 0 0 0 0 0 0 3208 3178 3120 3037 3010 2984 2984 2984 2958 2958 2958 2958 2958 2958 2958 2958 2958 2958 2958 2958 2984 2984 2984 2984 2984 2984 3010 2984 2984 3010 3010 3010 3010 3010 3037 3037 3037 3037 3037 3037 3037 3037 3037 3037 3064 3064 3064 3064 3064 3064 3064 3064 3064 3064 3064 3064 3092 3092 3092 3092 3092 3092 3120 3120 3120 3120 3120 3120 3149 3149 3149 3149 3149 3178 3178 3178 3178 3178 3178 3178 3149 3149 3149 3178 3178 3178 3178 3178 3178 3208 3208 3208 3208 3178 3178 3208 3208 3178 3178 3178 3208 3208 3208 3208 3208 3208 3208 3208 3238 3238 3238 3238 3238 3238 3238 3269 3269 3238 3238 3269 7492 7332 7332 7332 7332 7332 7178 7030 7030 7030 7030 7030 7030 7030 7030 7030 7030 7030 7178 7178 7332 7492 7492 7492 7492 7492 7660 7660 7660 7660 7660 7660 7835 8019 8413 5291 5291 5291 5291 5374 5374 5374 5374 5374 5374 5291 5291 5374 5291 5291 5291 5291 5291 5291 5291 5291 5291 5291 5291 5210 5210 5210 5132 5132 5132 5132 5132 5132 5132 5132 5132 5132 5132 5132 5132 5132 5132 5056 5056 5056 5056 5056 5056 5056 5132 5056 5056 5056 5056 5056 5056 5132 5132 5132 5132 5132 5132 5132 5132 5056 5056 5056 6753 6889 6889 6889 6889 6889 6889 6889 6889 6889 6889 7030 7030 7030 7030 7030 7030 7030 7030 7030 7030 7030 7178 7178 7178 7332 7332 7332 7492 7492 7492 7492 7492 7332 7332 7332 7332 7332 7332 7332 7332 7332 7332 7332 4349 4349 4349 4463 4463 4463 4463 4463 4522 4522 4522 4522 4522 4522 4522 4522 4522 4522 4522 4522 4522 4522 4522 4522 4522 4522 4522 4522 4522 4582 4582 4582 4645 4645 4708 4774 4774 4911 5291 5374 5374 5374 5374 5374 5374 5374 5374 5374 5374 5291 5291 5210 5210 5210 5291 5291 5210 5210 5210 5210 5210 5210 5210 5210 5210 5291 5374 5374 5374 5291 5291 5291 5291 5291 5374 5374 5374 5374 5374 5374 5374 5374 5374 5374 5291 5291 5291 5291 5291 5291 5291 5291 5291 5291 5374 5374 5374 5374 5374 5374 5374 5374 5374 5374 5374 5374 5374 5374 5374 5374 5374 5374 5374 5374 5374 5374 5374 5374 5374 5374 5374 5374 5374 5374 5374 5374 5291 5291 5374 5460 5460 5460 5460 5548 5548 5548 5548 5640 5640 5640 5640 5640 5640 5640 5640 5640 5548 5548 5548 5548 5548 5548 5548 5548 5548 5548 5640 5460 5374 5374 5460 5374 5374 5374 5548 5548 5640 5640 5640 5460 5374 5374 5374 5291 5291 5291 5291 5460 5460 8413 5460 5460 5548 5548 5640 5640 5640 5640 5640 5640 5640 5548 5548 5548 7492 7492 7492 7492 5291 5291 5291 5132 5056 5056 5132 5210 5291 5291 7332 7332 7332 7492 7332 7332 7332 0 0 0 0 0 0 0 0 0 0 0 0 0 0
0 0 0 0 0 0 0 0 0 0 0 0 0 0 0 0 0 0 0 0 0 0 0 0 0 0 0 0 0 0 5832 5832 5933 5933 5933 5933 5933 5933 5933 5933 5933 6038 6038 6038 6038 6038 6038 6038 6038 6038 6038 6038 6146 6259 6259 6259 6259 6259 6259 6259 6038 6038 5933 5933 5933 5933 5933 5933 5933 5832 5832 5832 5832 5832 5832 5734 5734 5640 5640 5548 5460 5460 5460 5460 5460 5460 5460 5460 5460 5460 5460 5460 5460 5460 5460 5460 5460 5460 5460 5460 5460 5548 5548 5548 5548 5548 5460 5460 5460 5460 5548 5548 5548 5640 5548 5548 5548 5548 5548 5640 5640 5640 5640 5734 5734 5832 6038 6038 6146 6146 6146 6146 6146 6146 6146 6259 6146 6146 6146 0 0 0 0 0 0 3208 3178 3120 3037 3010 2984 2984 2984 2958 2958 2958 2958 2958 2958 2958 2958 2958 2958 2958 2984 2984 2984 2984 3010 3010 3010 3010 3010 3010 3010 3010 3010 3010 3010 3037 3037 3037 3037 3037 3037 3037 3037 3037 3064 3064 3064 3064 3064 3064 3064 3064 3064 3064 3064 3064 3092 3092 3092 3092 3092 3092 3092 3120 3120 3120 3120 3120 3149 3149 3149 3149 3149 3149 3178 3178 3178 3178 3178 3178 3178 3149 3149 3149 3178 3178 3178 3178 3178 3178 3208 3208 3208 3208 3178 3178 3208 3208 3178 3178 3178 3208 3208 3208 3208 3208 3208 3208 3208 3238 3238 3238 3238 3238 3238 3238 3269 3269 3238 3238 7492 7492 7332 7332 7332 7332 7332 7178 7178 7178 7178 7178 7030 7030 7030 7030 7030 7030 7030 7030 7178 7332 7332 7492 7492 7492 7660 7660 7660 7660 7660 7660 7660 7835 5210 5210 5210 5291 5291 5291 5291 5291 5374 5374 5374 5374 5291 5291 5374 5291 5291 5291 5291 5291 5291 5291 5291 5291 5291 5291 5210 5210 5210 5210 5210 5132 5132 5132 5132 5132 5132 5132 5132 5132 5132 5132 5056 5056 5056 5056 5056 5056 5132 5132 5132 5132 5132 5132 5132 5132 5132 5132 5132 5132 5132 5132 5132 5132 5132 5132 5132 5132 6753 6753 6889 6889 6889 6889 6889 6889 6889 6889 6889 7030 7030 7030 7030 7030 7030 7030 7030 7030 7178 7178 7178 7178 7178 7178 7332 7332 7492 7492 7492 7492 7332 7332 7332 7332 7332 7332 7332 7332 7332 7332 7332 7332 4349 4349 4349 4349 4463 4463 4463 4463 4463 4522 4522 4522 4522 4522 4522 4522 4522 4522 4522 4522 4522 4522 4522 4522 4522 4522 4522 4522 4522 4582 4582 4582 4645 4645 4708 4774 4774 4774 5132 5291 5374 5374 5374 5374 5374 5374 5374 5291 5291 5291 5291 5291 5210 5210 5210 5210 5210 5210 5210 5210 5210 5210 5210 5210 5210 5210 5291 5374 5374 5374 5374 5374 5374 5374 5374 5374 5374 5374 5374 5374 5374 5374 5374 5374 5291 5291 5291 5291 5291 5291 5291 5291 5291 5291 5291 5374 5374 5374 5374 5374 5374 5374 5374 5374 5374 5374 5374 5374 5374 5374 5374 5374 5374 5374 5374 5374 5374 5460 5374 5374 5374 5374 5374 5374 5374 5374 5374 5374 5374 5460 5460 5548 5548 5548 5548 5548 5548 5548 5640 5640 5640 5640 5640 5640 5640 5640 5640 5640 5640 5548 5548 5640 5640 5548 5548 5640 5640 5640 5548 5460 5460 5548 5460 5460 5460 5460 5548 5640 5640 5640 5460 5460 5374 5374 5291 5291 5291 5374 5460 5460 5460 5460 5460 5548 5548 5640 5640 5640 5640 5640 5640 5640 5548 5548 5548 5548 5548 7492 5374 5291 5291 5291 5132 5056 5056 5132 5210 5460 5548 5640 5832 7492 7178 7178 7332 7332 0 0 0 0 0 0 0 0 0 0 0 0 0 0
0 0 0 0 0 0 0 0 0 0 0 0 0 0 0 0 0 0 0 0 0 0 0 0 0 0 0 0 0 0 5832 5832 5933 5933 5933 5933 5933 5933 5933 5933 5933 5933 6038 6038 6038 6038 6038 6038 6038 6038 6038 6038 6146 6146 6259 6259 6259 6259 6259 6259 6146 6038 5933 5933 5933 5933 5933 5933 5933 5832 5832 5832 5832 5832 5832 5734 5734 5640 5640 5548 5460 5374 5374 5374 5374 5374 5374 5374 5460 5460 5460 5460 5460 5460 5460 5460 5460 5460 5460 5460 5460 5460 5460 5548 5548 5548 5460 5460 5460 5460 5548 5548 5548 5548 5548 5548 5548 5548 5548 5548 5548 5640 5640 5832 5832 6038 6038 6146 6146 6146 6146 6146 6146 6259 6259 6259 6146 6146 6146 0 0 0 0 0 0 3208 3178 3149 3037 3010 2984 2984 2984 2984 2958 2958 2958 2958 2958 2958 2958 2958 2958 2958 2984 2984 2984 3010 3010 3010 3010 3010 3010 3010 3010 3010 3010 3010 3010 3037 3037 3037 3037 3037 3037 3037 3037 3037 3064 3064 3064 3064 3064 3064 3064 3064 3092 3064 3064 3064 3092 3092 3092 3092 3092 3092 3092 3120 3120 3120 3120 3120 3149 3149 3149 3149 3149 3149 3178 3178 3178 3178 3178 3178 3178 3149 3149 3149 3178 3178 3178 3178 3178 3178 3208 3208 3208 3178 3178 3178 3208 3208 3178 3178 3178 3208 3208 3208 3208 3208 3208 3208 3208 3238 3238 3238 3238 3238 3238 3238 3269 3269 3238 3238 7492 7492 7492 7492 7332 7332 7332 7332 7178 7178 7178 7178 7030 7030 7030 7030 7030 7030 7030 7030 7178 7332 7332 7492 7492 7492 7660 7660 7660 7660 7660 7660 7660 7835 5210 5210 5210 5291 5291 5291 5291 5291 5374 5374 5374 5374 5291 5291 5374 5291 5291 5291 5291 5291 5291 5291 5291 5291 5291 5291 5210 5210 5210 5210 5210 5132 5132 5132 5132 5132 5132 5132 5132 5132 5132 5132 5056 5056 5056 5056 5056 5056 5132 5132 5132 5132 5132 5132 5132 5132 5132 5132 5132 5132 5132 5132 5132 5132 5132 5132 5132 5132 6889 6889 6889 6889 6889 6889 6889 6889 6889 6889 6889 7030 7030 7030 7030 7030 7030 7030 7030 7030 7178 7178 7178 7178 7332 7332 7332 7332 7492 7492 7492 7492 7332 7332 7332 3816 3774 3774 3774 3816 7332 7492 7492 7492 4349 4349 4349 4463 4463 4463 4463 4463 4522 4522 4522 4522 4522 4522 4522 4522 4522 4522 4522 4522 4522 4522 4522 4522 4522 4522 4522 4522 4582 4582 4582 4645 4645 4645 4708 4774 4842 4842 5132 5291 5374 5374 5374 5374 5374 5374 5291 5291 5291 5291 5291 5291 5210 5210 5210 5210 5210 5210 5132 5132 5132 5132 5210 5210 5210 5210 5374 5374 5374 5374 5374 5374 5374 5374 5374 5374 5374 5374 5374 5374 5374 5374 5374 5374 5291 5291 5291 5291 5291 5291 5291 5291 5291 5291 5291 5374 5374 5374 5374 5374 5374 5374 5374 5374 5374 5374 5374 5374 5374 5374 5374 5460 5460 5374 5374 5460 5460 5460 5460 5374 5374 5374 5374 5374 5374 5374 5374 5460 5460 5460 5460 5548 5548 5548 5548 5548 5548 5640 5548 5548 5548 5548 5548 5548 5640 5640 5640 5640 5640 5548 5548 5640 5548 5548 5548 5640 5640 5640 5548 5548 5548 5548 5460 5460 5460 5460 5548 5640 5640 5640 5548 5548 5460 5374 5374 5374 5374 5374 5460 5460 5460 5460 5460 5548 5548 5640 5640 5640 5640 5640 5640 5640 5548 5548 5548 5548 5640 5640 5374 5291 5291 5291 5210 5132 5132 5210 5210 5291 5460 5640 5734 5734 7178 7178 7332 7332 0 0 0 0 0 0 0 0 0 0 0 0 0 0
0 0 0 0 0 0 0 0 0 0 0 0 0 0 0 0 0 0 0 0 0 0 0 0 0 0 0 0 0 0 5832 5832 5933 5933 5933 5933 5933 5933 5933 5933 5933 5933 6038 6038 6038 6038 6038 6038 6038 6038 6038 6038 6146 6146 6259 6259 6259 6259 6146 6146 6038 6038 6038 5933 5933 5933 5933 5933 5933 5933 5832 5832 5933 5933 5933 5832 5734 5734 5640 5460 5460 5374 5374 5374 5374 5374 5374 5374 5374 5374 5374 5460 5460 5460 5460 5460 5460 5460 5460 5460 5460 5460 5460 5460 5548 5460 5460 5460 5460 5460 5460 5548 5548 5548 5548 5548 5548 5548 5548 5548 5548 5640 5640 5734 5734 5832 6038 6146 6146 6259 6259 6259 6259 6259 6259 6259 6146 6146 6146 6497 0 0 0 0 0 3178 3178 3149 3037 3010 2984 2984 2984 2984 2958 2958 2958 2958 2958 2958 2958 2958 2958 2958 2984 2984 2984 3010 3010 3010 3010 3010 2984 2984 2984 3010 3010 3010 3010 3037 3037 3037 3037 3037 3037 3037 3037 3037 3064 3064 3064 3064 3064 3064 3064 3092 3092 3092 3064 3064 3092 3092 3092 3120 3120 3120 3120 3120 3120 3120 3120 3120 3149 3149 3149 3149 3149 3149 3178 3178 3178 3178 3178 3178 3178 3178 3178 3178 3178 3178 3178 3178 3178 3178 3208 3208 3208 3178 3178 3178 3208 3208 3178 3178 3178 3208 3208 3208 3208 3208 3208 3208 3208 3238 3238 3238 3238 3238 3238 3238 3238 3238 3269 3269 7492 7492 7492 7492 7332 7332 7332 7332 7178 7030 7030 7178 7178 7030 7030 7030 7030 7030 7030 7178 7178 7178 7332 7492 7492 7492 7492 7660 7660 7660 7660 7660 7660 7835 5210 5210 5291 5291 5291 5291 5374 5374 5374 5374 5374 5374 5291 5291 5374 5291 5291 5291 5291 5291 5291 5291 5291 5291 5291 5291 5210 5210 5210 5210 5210 5132 5132 5132 5132 5132 5132 5132 5132 5132 5132 5132 5056 5056 5056 5056 5056 5056 5132 5132 5132 5132 5132 5132 5132 5132 5132 5132 5132 5132 5132 5132 5132 5132 5132 5132 5132 5132 6889 6889 6889 6889 6889 6889 6889 6889 6889 6889 6889 7030 7030 7030 7030 7030 7030 7030 7178 7178 7178 7178 7178 7332 7332 7332 7332 7492 7492 7492 7492 7492 7660 7660 3774 3774 3774 3774 3774 3816 3816 7492 7492 7492 4349 4349 4349 4405 4405 4463 4463 4463 4463 4522 4522 4522 4522 4522 4522 4522 4522 4522 4522 4522 4522 4522 4522 4522 4522 4522 4522 4522 4582 4582 4582 4645 4645 4645 4645 4708 4708 4842 5056 5291 5374 5291 5291 5291 5291 5291 5291 5291 5291 5291 5291 5291 5291 5291 5210 5210 5210 5210 5132 5132 5132 5132 5210 5210 5210 5210 5374 5374 5374 5374 5374 5374 5374 5374 5374 5374 5374 5374 5374 5374 5374 5374 5374 5374 5291 5291 5291 5291 5291 5291 5291 5291 5291 5291 5291 5291 5291 5374 5374 5374 5374 5374 5374 5374 5374 5374 5374 5374 5460 5374 5374 5460 5460 5460 5460 5460 5460 5460 5460 5374 5374 5374 5374 5374 5374 5374 5374 5460 5460 5460 5460 5548 5548 5548 5548 5548 5640 5640 5548 5548 5548 5548 5548 5548 5548 5640 5640 5640 5548 5548 5548 5548 5548 5548 5548 5640 5640 5640 5548 5548 5548 5548 5548 5548 5548 5548 5548 5640 5640 5640 5548 5548 5460 5460 5374 5374 5460 5460 5460 5460 5460 5460 5460 5548 5548 5640 5640 5640 5640 5640 5640 5640 5548 5548 5640 5640 5640 5548 5460 5374 5291 5291 5291 5210 5210 5210 5291 5291 5460 5734 5734 0 0 0 0 0 0 0 0 0 0 0 0 0 0 0 0 0 0 0
0 0 0 0 0 0 0 0 0 0 0 0 0 0 0 0 0 0 0 0 0 0 0 0 0 0 0 0 0 0 5832 5832 5933 5933 5933 5933 5933 5933 5933 5933 5933 5933 6038 6038 6038 6038 6038 6146 6146 6146 6146 6146 6146 6259 6259 6259 6259 6146 6146 6146 6038 6038 6038 5933 5933 5933 5933 5933 5933 5933 5832 5832 5933 5832 5832 5832 5832 5734 5640 5460 5374 5374 5374 5374 5374 5374 5374 5374 5374 5374 5374 5374 5374 5374 5374 5374 5374 5374 5374 5374 5374 5374 5374 5374 5460 5460 5460 5460 5460 5460 5460 5460 5548 5548 5548 5548 5640 5640 5640 5640 5640 5640 5640 5734 5734 5832 6146 6146 6259 6259 6259 6259 6259 6375 6375 6259 6259 6259 6259 6497 0 0 0 0 3208 3178 3178 3178 3064 3037 3010 2984 2984 2984 2984 2984 2958 2958 2958 2958 2958 2958 2958 2958 2984 2984 2984 3010 3010 3010 3010 3010 2984 2984 2984 3010 3010 3010 3010 3037 3037 3037 3037 3037 3064 3037 3037 3064 3064 3064 3064 3064 3064 3064 3064 3092 3092 3092 3092 3092 3092 3092 3092 3120 3120 3120 3120 3120 3120 3120 3120 3120 3149 3149 3149 3149 3149 3149 3178 3178 3178 3178 3178 3178 3178 3178 3178 3178 3178 3178 3178 3178 3178 3178 3208 3208 3208 3178 3178 3208 3208 3208 3178 3178 3208 3208 3208 3208 3208 3208 3208 3208 3208 3238 3238 3238 3238 3238 3238 3238 3238 3238 3269 3269 7492 7492 7492 7492 7332 7332 7332 7332 7178 7030 7030 7178 7178 7178 7030 7030 7030 7030 7030 7178 7178 7178 7332 7492 7492 7492 7492 7660 7660 7660 7660 7660 7660 7835 5291 5291 5291 5291 5291 5374 5374 5374 5374 5374 5374 5374 5291 5291 5374 5291 5291 5291 5291 5291 5291 5291 5291 5291 5291 5291 5210 5210 5210 5210 5210 5132 5132 5132 5132 5132 5132 5132 5132 5132 5132 5132 5056 5056 5056 5056 5056 5056 5132 5132 5132 5132 5132 5132 5132 5132 5132 5132 5132 5132 5132 5132 5132 5132 5132 5132 5132 5132 6889 6889 6889 6889 6889 6889 6889 6889 7030 7030 7030 7030 7030 7178 7178 7178 7178 7178 7178 7178 7178 7178 7332 7332 7332 7332 7332 7492 7492 7492 7492 7492 7492 3732 3732 3774 3774 3774 3774 3816 3816 3859 3859 3859 4405 4405 4405 4405 4405 4463 4463 4463 4463 4522 4522 4522 4522 4522 4522 4522 4522 4522 4522 4522 4522 4522 4522 4522 4522 4522 4522 4582 4582 4582 4582 4582 4645 4645 4645 4708 4708 4842 5056 5291 5291 5291 5291 5291 5291 5291 5210 5210 5210 5210 5210 5210 5210 5210 5210 5210 5210 5210 5210 5210 5210 5210 5210 5210 5374 5374 5374 5374 5374 5374 5374 5374 5374 5374 5374 5374 5374 5374 5374 5374 5374 5374 5374 5374 5291 5291 5291 5291 5291 5291 5291 5291 5291 5291 5291 5291 5291 5374 5374 5374 5374 5374 5374 5374 5374 5374 5374 5374 5460 5374 5374 5460 5460 5460 5460 5460 5460 5460 5460 5460 5374 5374 5374 5374 5460 5460 5460 5460 5460 5460 5460 5548 5548 5548 5548 5548 5548 5640 5548 5548 5548 5548 5548 5548 5548 5548 5548 5548 5548 5548 5548 5548 5548 5548 5548 5640 5640 5640 5640 5640 5640 5640 5548 5548 5548 5548 5548 5640 5640 5640 5548 5548 5548 5548 5460 5460 5460 5460 5460 5460 5548 5548 5548 5548 5640 5640 5640 5548 5548 5548 5548 5548 5640 5640 5640 5640 5548 5460 5291 5291 5210 5210 5210 5210 5210 5291 5210 5210 5210 5734 5832 0 0 0 0 0 0 0 0 0 0 0 0 0 0 0 0 0 0 0
0 0 0 0 0 0 0 0 0 0 0 0 0 0 0 0 0 0 0 0 0 0 0 0 0 0 0 0 0 0 5832 5832 5832 5933 5933 5933 5933 5933 5933 5933 5933 5933 5933 5933 6038 6038 6146 6146 6146 6146 6146 6146 6146 6146 6146 6259 6259 6038 6038 6038 6038 6038 6038 5933 5933 5933 6038 6038 5933 5933 5832 5832 5832 5832 5832 5832 5832 5832 5640 5460 5374 5374 5291 5291 5374 5374 5374 5374 5374 5374 5374 5374 5374 5374 5374 5374 5374 5374 5374 5374 5374 5374 5374 5374 5374 5374 5374 5374 5374 5374 5460 5460 5460 5460 5460 5460 5548 5460 5460 5548 5548 5640 5640 5734 5734 5832 6146 6259 6259 6375 6375 6259 6259 6375 6375 6259 6259 6259 6259 6622 0 0 0 0 3208 3178 3178 3178 3092 3037 3010 3010 2984 2984 2984 2984 2958 2958 2958 2958 2958 2958 2958 2958 2984 2984 2984 2984 3010 3010 3010 3010 3010 3010 3010 3010 3010 3010 3037 3037 3037 3037 3037 3037 3064 3037 3037 3064 3064 3064 3064 3064 3064 3064 3064 3092 3092 3092 3092 3092 3092 3092 3092 3120 3120 3120 3120 3120 3120 3120 3120 3120 3149 3149 3149 3149 3149 3149 3149 3149 3178 3178 3178 3178 3178 3178 3178 3178 3178 3178 3178 3178 3178 3178 3208 3208 3208 3208 3208 3208 3208 3208 3178 3178 3208 3208 3208 3208 3208 3208 3238 3238 3238 3238 3238 3238 3238 3238 3238 3238 3238 3238 3238 3238 7492 7492 7492 7492 7492 7332 7332 7332 7178 7178 7178 7178 7178 7178 7178 7178 7178 7178 7178 7332 7332 7332 7492 7492 7492 7492 7660 7660 7660 7660 7660 7660 7660 7835 5291 5291 5291 5291 5291 5374 5374 5374 5374 5374 5374 5374 5374 5374 5374 5291 5291 5291 5291 5291 5291 5291 5291 5291 5291 5291 5210 5210 5210 5210 5210 5132 5132 5132 5132 5132 5132 5132 5132 5132 5132 5132 5056 5056 5056 5056 5056 5056 5132 5132 5132 5132 5132 5132 5132 5132 5132 5132 5132 5132 5132 5132 5132 5132 5132 5132 5132 5132 6889 6889 6889 6889 6889 6889 6889 6889 7030 7030 7030 7030 7030 7178 7178 7178 7178 7178 7178 7178 7178 7178 7332 7332 7332 7332 7492 7492 7492 7492 7660 7660 3732 3732 3732 3816 3816 3816 3816 3816 3816 3859 3859 4463 4405 4405 4405 4463 4463 4463 4463 4463 4522 4522 4522 4522 4522 4582 4522 4522 4522 4522 4522 4522 4522 4522 4522 4522 4522 4522 4522 4582 4582 4582 4582 4582 4582 4645 4645 4708 4708 4842 5056 5210 5291 5291 5374 5374 5374 5291 5210 5210 5210 5210 5210 5210 5210 5210 5210 5210 5210 5210 5210 5210 5291 5374 5374 5374 5374 5374 5374 5374 5374 5374 5374 5374 5374 5374 5374 5374 5374 5374 5374 5374 5374 5374 5374 5374 5291 5210 5210 5210 5210 5210 5210 5291 5291 5291 5291 5291 5374 5374 5374 5374 5374 5374 5374 5374 5374 5374 5374 5460 5374 5374 5460 5460 5460 5460 5460 5460 5548 5548 5548 5548 5460 5460 5374 5374 5460 5460 5460 5460 5460 5460 5460 5548 5548 5548 5548 5548 5548 5548 5548 5548 5548 5548 5548 5548 5548 5548 5548 5548 5548 5548 5548 5548 5548 5548 5548 5640 5640 5640 5640 5640 5640 5640 5548 5548 5640 5640 5640 5640 5640 5640 5548 5548 5548 5548 5460 5460 5460 5460 5460 5460 5460 5548 5460 5460 5460 5548 5548 5460 5460 5460 5548 5548 5548 5548 5548 5548 5460 5210 5210 5210 5132 5132 5132 5132 5210 5210 5210 5132 5132 5291 0 0 0 0 0 0 0 0 0 0 0 0 0 0 0 0 0 0 0 0
0 0 0 0 0 0 0 0 0 0 0 0 0 0 0 0 0 0 0 0 0 0 0 0 0 0 0 0 0 0 5832 5832 5832 5933 5933 5933 5933 5933 5933 5933 5933 5933 5933 5933 6038 6038 6038 6146 6146 6146 6146 6146 6146 6146 6146 6259 6146 6038 6038 6038 6038 6038 6038 6038 6038 6038 6038 6038 5933 5933 5832 5832 5832 5832 5832 5734 5734 5734 5548 5460 5374 5291 5291 5291 5291 5291 5291 5291 5291 5291 5291 5291 5291 5291 5291 5291 5374 5374 5291 5291 5374 5374 5374 5374 5374 5374 5374 5374 5374 5374 5374 5460 5460 5460 5460 5460 5460 5460 5460 5460 5460 5548 5548 5548 5640 5832 6038 6146 6259 6375 6375 6375 6375 6375 6375 6259 6259 6259 6259 6497 0 6622 0 0 3208 3208 3178 3178 3092 3037 3010 3010 2984 2984 2984 2984 2958 2958 2958 2958 2958 2958 2958 2958 2958 2958 2984 2984 3010 3010 3010 3010 3010 3010 3010 3010 3010 3010 3037 3037 3037 3037 3037 3064 3064 3064 3064 3064 3064 3064 3064 3064 3064 3064 3092 3092 3092 3092 3092 3092 3092 3092 3092 3120 3120 3120 3120 3120 3120 3120 3120 3120 3149 3149 3149 3149 3149 3149 3149 3149 3178 3178 3178 3178 3178 3178 3178 3178 3178 3178 3178 3178 3178 3178 3178 3178 3208 3208 3208 3208 3208 3208 3208 3208 3208 3208 3208 3238 3238 3238 3238 3238 3238 3238 3238 3238 3238 3238 3238 3238 3238 3238 3238 3238 7492 7492 7492 7492 7492 7492 7492 7332 7332 7178 7178 7178 7178 7332 7332 7332 7332 7332 7332 7332 7332 7492 7492 7492 7492 7660 7660 7660 7660 7660 7660 7660 7660 7660 5291 5291 5291 5291 5291 5374 5374 5374 5374 5374 5374 5374 5374 5374 5374 5291 5291 5291 5291 5291 5291 5291 5291 5291 5291 5291 5210 5210 5210 5210 5210 5210 5210 5132 5132 5132 5132 5132 5132 5132 5132 5132 5056 5056 5056 5056 5132 5132 5132 5132 5132 5132 5132 5132 5132 5132 5132 5132 5132 5132 5132 5132 5132 5132 5132 5132 5132 5132 6889 6889 7030 7030 7030 7030 7030 7030 7030 7030 7030 7030 7030 7178 7178 7178 7178 7178 7178 7178 7178 7178 7178 7178 7332 7332 7332 7332 7492 7492 7492 3816 3816 3732 3732 3816 3816 3816 3816 3859 3859 3903 3903 4463 4463 4463 4463 4463 4463 4463 4522 4522 4522 4522 4522 4522 4582 4582 4522 4522 4522 4522 4522 4522 4522 4522 4522 4522 4522 4522 4522 4582 4582 4582 4582 4582 4582 4582 4645 4774 4774 4911 5132 5210 5291 5291 5374 5291 5291 5291 5291 5210 5210 5210 5210 5291 5210 5210 5210 5210 5210 5210 5210 5210 5210 5291 5374 5374 5374 5374 5374 5374 5374 5374 5374 5374 5374 5374 5374 5374 5374 5374 5374 5374 5374 5374 5374 5374 5291 5210 5210 5210 5210 5210 5210 5291 5291 5291 5291 5291 5374 5374 5374 5374 5374 5374 5374 5374 5460 5460 5460 5460 5374 5374 5460 5460 5460 5374 5374 5460 5548 5548 5548 5548 5460 5460 5548 5548 5548 5460 5460 5460 5460 5460 5460 5548 5548 5460 5460 5460 5460 5548 5548 5548 5548 5548 5548 5548 5548 5548 5548 5640 5548 5548 5548 5548 5548 5548 5640 5640 5640 5640 5640 5640 5640 5640 5548 5548 5640 5640 5640 5640 5640 5640 5548 5548 5548 5548 5460 5460 5374 5374 5291 5291 5374 5291 5291 5460 5460 5548 5548 5460 5374 5374 5460 5460 5548 5548 5548 5132 4983 4983 5056 5056 5132 5132 5132 5132 5132 5132 5132 5132 5132 5210 5291 0 0 0 0 0 0 0 0 0 0 0 0 0 0 0 0 0 0 0
0 0 0 0 0 0 0 0 0 0 0 0 0 0 0 0 0 0 0 0 0 0 0 0 0 0 0 0 0 0 5832 5832 5832 5933 5933 5933 5933 5933 5933 5933 5933 5933 5933 5933 6038 6038 6038 6146 6146 6146 6146 6146 6146 6146 6146 6146 6146 6038 6038 6038 6038 6038 6038 6038 5933 5933 6038 6038 5933 5933 5832 5832 5832 5832 5832 5734 5640 5548 5460 5374 5291 5210 5210 5210 5210 5291 5291 5210 5210 5210 5291 5291 5210 5210 5210 5210 5291 5291 5291 5291 5291 5291 5291 5291 5374 5374 5374 5374 5374 5374 5374 5374 5374 5374 5374 5460 5460 5460 5460 5460 5460 5460 5460 5548 5548 5640 5832 6146 6259 6375 6375 6375 6375 6375 6375 6375 6259 6259 6259 6497 6497 6622 0 6622 0 3238 3208 3208 3092 3037 3010 3010 3010 3010 2984 2984 2958 2958 2958 2958 2958 2958 2958 2958 2958 2958 2984 2984 2984 2984 2984 2984 3010 3010 3010 3010 3010 3010 3037 3037 3037 3037 3037 3064 3064 3064 3064 3064 3064 3064 3064 3064 3064 3064 3092 3092 3092 3092 3092 3092 3092 3092 3092 3120 3120 3120 3120 3120 3120 3120 3120 3149 3149 3149 3149 3149 3149 3149 3178 3178 3178 3178 3178 3178 3178 3178 3178 3178 3178 3178 3178 3178 3178 3178 3178 3178 3208 3208 3208 3208 3208 3208 3208 3208 3208 3208 3208 3238 3238 3238 3238 3238 3238 3238 3238 3238 3238 3238 3238 3238 3238 3238 3269 3269 7492 7492 7492 7492 7492 7492 7492 7492 7332 7332 7178 7178 7178 7332 7492 7492 7492 7492 7492 7492 7492 7492 7492 7492 7492 7660 7660 7660 7660 7660 7660 7660 7660 7660 7660 5291 5291 5291 5291 5374 5374 5374 5374 5374 5374 5374 5374 5374 5374 5291 5291 5291 5291 5291 5291 5291 5291 5291 5291 5291 5210 5210 5210 5210 5210 5132 5132 5132 5132 5132 5132 5132 5132 5132 5056 5056 5056 5056 5056 5056 5056 5132 5132 5132 5132 5132 5132 5132 5132 5132 5132 5132 5132 5132 5132 5132 5132 5132 5132 5132 5132 5132 7030 7030 7030 7030 7030 7030 7030 7030 7030 7030 7030 7030 7030 7178 7178 7178 7178 7178 7178 7178 7178 7178 7178 7178 7178 7332 7332 7332 7492 7492 7492 3816 3816 3816 3816 3816 3816 3816 3816 3859 3859 3903 3948 0 4463 4463 4463 4463 4405 4405 4463 4463 4463 4463 4463 4463 4522 4522 4522 4522 4522 4522 4522 4522 4522 4522 4522 4522 4522 4522 4522 4582 4582 4582 4582 4582 4582 4582 4645 4774 4774 4983 5132 5291 5291 5291 5291 5291 5291 5210 5210 5210 5210 5210 5210 5210 5210 5210 5210 5210 5210 5210 5210 5210 5210 5291 5291 5374 5374 5374 5374 5374 5374 5374 5374 5374 5374 5374 5374 5374 5374 5374 5374 5374 5374 5374 5374 5374 5291 5210 5210 5210 5210 5210 5210 5291 5291 5291 5374 5374 5374 5374 5374 5374 5374 5374 5374 5374 5460 5460 5460 5460 5460 5460 5460 5460 5460 5374 5374 5460 5460 5548 5548 5548 5460 5460 5548 5548 5548 5460 5460 5460 5460 5548 5548 5460 5460 5460 5460 5460 5460 5460 5548 5548 5548 5548 5640 5640 5640 5640 5640 5640 5548 5548 5548 5640 5640 5640 5640 5734 5734 5640 5640 5640 5640 5640 5640 5640 5640 5640 5548 5548 5548 5548 5548 5548 5548 5548 5460 5460 5374 5291 5210 5210 5210 5210 5210 5210 5210 4983 5291 5291 5291 5291 5374 5374 5056 4983 4983 4983 4983 4983 4983 5056 5056 5056 5132 5132 5132 5132 5132 5056 5056 5132 5291 0 0 0 0 0 0 0 0 0 0 0 0 0 0 0 0 0 0 0
0 0 0 0 0 0 0 0 0 0 0 0 0 0 0 0 0 0 0 0 0 0 0 0 0 0 0 0 0 0 5832 5832 5832 5832 5933 5933 5933 5933 5933 5933 5933 5933 6038 6038 6038 6038 6146 6146 6146 6146 6146 6146 6146 6146 6146 6146 6146 6038 6038 6038 6038 6038 6038 6038 5933 5933 6038 6038 5933 5933 5832 5832 5832 5832 5734 5640 5548 5460 5374 5291 5210 5210 5132 5132 5132 5210 5210 5210 5210 5210 5210 5210 5210 5210 5210 5210 5291 5291 5291 5291 5291 5291 5291 5291 5291 5291 5374 5374 5374 5374 5374 5374 5374 5374 5374 5374 5374 5460 5460 5460 5460 5460 5460 5460 5548 5548 5734 6038 6146 6259 6259 6375 6375 6375 6497 6622 6375 6375 6497 6497 6497 6622 6622 0 3269 3269 3208 3208 3120 3064 3037 3037 3010 3010 2984 2984 2984 2958 2958 2958 2958 2958 2958 2958 2984 2984 2984 2984 2984 2984 2984 2984 3010 3010 3010 3010 3037 3037 3037 3037 3037 3037 3037 3064 3064 3064 3064 3064 3064 3064 3064 3064 3064 3064 3092 3092 3092 3092 3092 3092 3092 3092 3092 3120 3120 3120 3120 3120 3120 3120 3120 3149 3149 3149 3149 3149 3149 3149 3178 3178 3178 3178 3178 3178 3178 3178 3178 3178 3178 3178 3178 3178 3178 3178 3208 3208 3208 3208 3208 3208 3208 3208 3208 3208 3208 3208 3208 3238 3238 3238 3238 3238 3238 3238 3238 3238 3238 3238 3238 3238 3238 3238 3269 3269 7492 7492 7492 7492 7492 7492 7492 7492 7492 7332 7332 7332 7332 7492 7492 7492 7492 7492 7492 7492 7492 7492 7492 7492 7492 7660 7660 7660 7660 7660 7835 7835 7835 7660 7660 5291 5291 5291 5291 5374 5374 5374 5374 5374 5374 5374 5374 5374 5374 5291 5291 5291 5291 5291 5291 5291 5291 5291 5291 5291 5210 5210 5210 5210 5210 5132 5132 5132 5132 5132 5132 5132 5132 5132 5056 5056 5056 5056 5056 5056 5056 5132 5132 5132 5132 5132 5132 5132 5132 5132 5132 5132 5132 5132 5132 5132 5132 5132 5132 5132 5132 5132 7030 7030 7030 7030 7030 7030 7030 7030 7030 7030 7030 7030 7178 7178 7178 7178 7178 7178 7178 7178 7178 7178 7178 7178 7178 7178 7332 7332 7332 3816 3816 3859 3859 3859 3859 3816 3816 3859 3859 3859 3859 3903 3948 0 0 0 0 0 4405 4405 4463 4463 4463 4463 4463 4463 4522 4522 4522 4522 4522 4522 4522 4522 4522 4522 4522 4522 4522 4522 4522 4522 4522 4522 4522 4582 4582 4582 4582 4708 5056 5056 5210 5374 5291 5291 5291 5291 5291 5210 5210 5210 5210 5210 5210 5210 5210 5210 5210 5210 5210 5210 5210 5210 5210 5291 5291 5291 5291 5374 5374 5374 5374 5374 5374 5374 5460 5460 5374 5374 5374 5374 5374 5374 5374 5374 5374 5374 5291 5210 5210 5210 5210 5210 5291 5291 5291 5374 5374 5374 5374 5374 5374 5460 5460 5374 5374 5460 5374 5374 5460 5460 5460 5460 5460 5460 5460 5374 5374 5460 5460 5548 5548 5548 5548 5548 5548 5548 5548 5548 5548 5548 5548 5548 5548 5460 5460 5460 5460 5460 5460 5460 5548 5548 5548 5640 5640 5640 5640 5640 5640 5640 5548 5548 5640 5640 5640 5640 5640 5734 5640 5640 5640 5640 5640 5640 5640 5640 5640 5548 5548 5548 5548 5548 5548 5548 5548 5548 5548 5548 5374 5291 5132 5056 5056 5056 4983 4983 4983 4983 4983 5291 5291 5291 5374 4983 4983 4911 4911 4911 4983 4983 4983 4983 5056 4983 4983 5056 5132 5056 4983 4983 4983 5056 0 0 0 0 0 0 0 0 0 0 0 0 0 0 0 0 0 0 0 0
0 0 0 0 0 0 0 0 0 0 0 0 0 0 0 0 0 0 0 0 0 0 0 0 0 0 0 0 0 0 5832 5832 5832 5832 5933 5933 5933 5933 5933 5933 5933 5933 6038 6038 6038 6038 6038 6146 6146 6146 6146 6146 6146 6146 6146 6146 6038 5933 5933 5933 5933 5933 6038 6038 6038 6038 6038 6038 6038 5933 5832 5832 5933 5832 5640 5548 5374 5291 5210 5210 5132 5132 5132 5132 5132 5132 5210 5132 5132 5132 5210 5210 5210 5210 5210 5210 5210 5210 5210 5291 5291 5291 5291 5291 5291 5291 5374 5374 5374 5374 5374 5374 5374 5374 5374 5374 5374 5460 5374 5374 5460 5460 5460 5460 5460 5548 5640 6038 6146 6259 6259 6259 6259 6375 6497 6622 6622 6622 6622 6622 6622 6622 6622 0 3333 3208 3208 3208 3149 3064 3064 3064 3037 3010 3010 2984 2984 2958 2958 2958 2958 2958 2958 2958 2984 2984 2984 2984 3010 3010 3010 3010 3010 3010 3010 3010 3037 3037 3037 3037 3037 3064 3064 3064 3064 3064 3064 3064 3064 3064 3064 3064 3064 3064 3064 3064 3092 3064 3064 3092 3092 3092 3092 3120 3120 3120 3120 3120 3120 3120 3120 3149 3149 3149 3149 3149 3149 3149 3178 3178 3178 3178 3178 3178 3178 3178 3178 3178 3178 3178 3178 3178 3178 3178 3208 3208 3238 3238 3238 3238 3238 3208 3208 3208 3208 3208 3208 3238 3238 3238 3238 3238 3238 3238 3238 3238 3238 3238 3238 3238 3238 3269 3269 0 7492 7492 7492 7492 7492 7492 7492 7492 7492 7492 7332 7332 7492 7492 7660 7660 7492 7492 7492 7660 7660 7660 7492 7492 7492 7660 7492 7492 7660 7660 7660 7835 7835 7660 7660 5291 5291 5291 5291 5374 5374 5374 5374 5374 5374 5374 5374 5374 5374 5291 5291 5291 5291 5291 5291 5291 5291 5291 5291 5291 5210 5210 5210 5210 5210 5210 5210 5132 5132 5132 5132 5132 5132 5056 5056 5056 5132 5056 5056 5132 5132 5132 5132 5132 5132 5132 5132 5132 5132 5056 5056 5132 5132 5132 5132 5132 5132 5132 5132 5132 5132 7030 7030 7030 7030 7030 7030 7030 7030 7030 7030 7030 7030 7030 7030 7178 7178 7178 7178 7178 7178 7178 7178 7178 7178 7178 7178 7178 7332 7332 7332 3816 3816 3859 3859 3859 3859 3859 3859 3859 3859 3859 3859 3903 0 0 0 0 0 0 0 4463 4463 4463 4463 4463 4463 4463 4522 4522 4522 4522 4522 4522 4522 4522 4522 4522 4522 4522 4522 4522 4522 4522 4522 4522 4522 4582 4582 4582 4582 4582 5056 5132 5291 5374 5291 5291 5291 5291 5291 5210 5210 5210 5210 5210 5210 5210 5210 5210 5210 5210 5210 5210 5210 5210 5210 5291 5291 5291 5291 5291 5291 5374 5374 5374 5374 5374 5460 5460 5374 5374 5374 5374 5374 5374 5374 5374 5374 5374 5210 5210 5210 5210 5210 5210 5291 5291 5291 5374 5374 5374 5374 5374 5460 5460 5460 5460 5460 5460 5374 5374 5460 5374 5374 5460 5460 5460 5460 5374 5374 5460 5460 5548 5548 5548 5548 5548 5548 5548 5548 5548 5548 5548 5548 5548 5548 5548 5460 5460 5460 5460 5460 5548 5640 5640 5640 5640 5640 5640 5640 5640 5640 5640 5548 5548 5640 5640 5640 5640 5640 5640 5640 5640 5640 5640 5640 5640 5640 5640 5640 5548 5548 5548 5548 5548 5460 5460 5548 5548 5548 5548 5460 5291 5132 4983 4983 4983 4911 4911 4842 4842 4983 5056 4983 4983 4983 4983 4983 4911 4911 4911 4911 4911 4983 4983 5056 4983 4983 5056 5056 4983 4983 4911 4911 4983 0 0 0 0 0 0 0 0 0 0 0 0 0 0 0 0 0 0 0 0
0 0 0 0 0 0 0 0 0 0 0 0 0 0 0 0 0 0 0 0 0 0 0 0 0 0 0 0 0 0 5832 5832 5832 5933 5933 5933 5933 5933 5933 5933 5933 5933 6038 6038 6038 6038 6038 6146 6038 6038 6146 6146 6146 6146 6146 6146 6038 5933 5933 5933 5933 5933 6038 6038 6038 6038 6146 6038 6038 5933 5933 5933 5933 5734 5640 5460 5374 5291 5210 5210 5132 5132 5132 5132 5132 5132 5132 5132 5132 5132 5132 5132 5132 5132 5132 5132 5210 5210 5210 5210 5210 5291 5291 5291 5291 5291 5374 5374 5374 5374 5374 5374 5374 5374 5374 5374 5374 5374 5374 5374 5374 5374 5374 5374 5460 5460 5548 5933 6038 6146 6259 6259 6259 6375 6497 6622 6622 6622 6622 6622 6497 6497 6497 0 3333 3333 3269 3238 3178 3120 3092 3064 3064 3010 3010 3010 2984 2984 2984 2984 2958 2958 2958 2984 2984 2984 2984 2984 3010 3010 3010 3010 3010 3010 3010 3037 3037 3037 3037 3037 3037 3064 3064 3064 3064 3064 3064 3064 3064 3064 3064 3064 3064 3064 3064 3064 3092 3064 3064 3092 3092 3092 3120 3120 3120 3120 3120 3120 3120 3120 3120 3149 3149 3149 3149 3149 3149 3178 3178 3178 3178 3178 3178 3178 3178 3178 3178 3178 3178 3208 3208 3178 3178 3208 3208 3208 3238 3238 3238 3238 3238 3238 3208 3208 3208 3208 3238 3238 3238 3238 3238 3238 3238 3238 3238 3238 3238 3269 3269 3269 3269 3269 3269 3269 3269 7492 7492 7492 7492 7492 7492 7492 7492 7492 7492 7492 7492 7660 7660 7660 7660 7660 7660 7660 7660 7660 7492 7492 7492 7660 7492 7492 7660 7660 7660 7835 7835 7660 7660 5291 5291 5291 5291 5374 5374 5374 5374 5374 5374 5374 5374 5374 5374 5291 5291 5291 5291 5291 5291 5291 5291 5291 5291 5291 5210 5210 5210 5210 5210 5210 5210 5132 5132 5132 5132 5132 5132 5056 5056 5056 5132 5056 5056 5132 5132 5132 5132 5132 5132 5132 5132 5132 5132 5056 5056 5132 5132 5132 5132 5132 5132 5132 5132 5132 5132 7030 7030 7030 7030 7030 7030 7030 7030 7030 7030 7030 7030 7030 7030 7030 7178 7178 7178 7178 7178 7178 7178 7178 7178 7178 7178 7178 7332 7332 3816 3816 3816 3816 3816 3816 3816 3816 3816 3859 3859 3859 3859 3903 0 0 0 0 0 0 0 0 0 4463 4463 4463 4463 4463 4522 4522 4522 4522 4522 4522 4522 4522 4522 4522 4522 4522 4522 4582 4582 4582 4522 4522 4522 4522 4582 4582 4582 4582 5056 5132 5374 5374 5291 5291 5291 5291 5291 5210 5210 5210 5210 5210 5210 5210 5210 5210 5210 5210 5210 5210 5291 5210 5210 5291 5291 5291 5291 5291 5291 5291 5374 5374 5374 5374 5460 5460 5374 5374 5374 5374 5374 5374 5374 5374 5374 5374 5210 5210 5210 5210 5210 5210 5291 5291 5291 5374 5374 5374 5374 5374 5460 5460 5460 5374 5374 5460 5460 5460 5460 5374 5374 5460 5460 5460 5460 5374 5374 5374 5460 5460 5548 5548 5548 5548 5548 5548 5548 5460 5460 5460 5460 5548 5548 5548 5548 5460 5460 5460 5460 5548 5640 5640 5640 5640 5640 5640 5640 5640 5640 5640 5640 5640 5640 5640 5640 5640 5640 5640 5640 5640 5640 5640 5640 5640 5640 5640 5640 5548 5548 5548 5548 5548 5460 5460 5548 5548 5548 5548 5460 5291 5056 4983 4983 4911 4911 4911 4842 4842 4983 4983 4911 4911 4983 4983 4911 4911 4911 4911 4911 4911 4983 4983 4983 4983 4983 4983 5056 4983 4983 4911 4911 4983 5056 5056 0 0 0 0 0 0 0 0 0 0 0 0 0 0 0 0 0 0
0 0 0 0 0 0 0 0 0 0 0 0 0 0 0 0 0 0 0 0 0 0 0 0 0 0 0 0 0 0 5832 5832 5832 5832 5933 5933 5933 5933 5933 5933 5933 6038 6038 6038 6038 6146 6146 6146 6038 6038 6038 6146 6146 6038 6038 6038 6038 6038 5933 5933 6038 6038 6038 6038 6038 6038 6146 6038 5933 5933 5933 5832 5832 5640 5460 5460 5291 5210 5132 5132 5132 5132 5132 5132 5132 5132 5132 5132 5132 5132 5132 5132 5132 5132 5132 5132 5132 5132 5210 5210 5210 5291 5291 5291 5291 5291 5374 5374 5374 5374 5374 5374 5374 5291 5291 5374 5374 5374 5374 5374 5374 5374 5374 5374 5374 5374 5460 5734 5933 6038 6146 6259 6259 6375 6497 6622 6622 6622 6622 6622 6497 6497 6497 3365 3333 3333 3300 3238 3149 3092 3064 3064 3064 3010 3010 3010 2984 2984 2984 2984 2958 2958 2958 2984 2984 2984 2984 2984 3010 3010 3010 3010 3037 3010 3010 3037 3037 3037 3037 3037 3037 3064 3064 3064 3064 3064 3064 3064 3064 3064 3064 3064 3064 3064 3064 3064 3064 3064 3064 3092 3092 3092 3120 3120 3120 3120 3120 3120 3120 3120 3120 3149 3149 3149 3149 3149 3149 3178 3178 3178 3178 3178 3178 3178 3208 3178 3178 3178 3178 3208 3208 3208 3208 3208 3208 3208 3238 3238 3238 3238 3238 3238 3208 3208 3208 3208 3238 3238 3238 3238 3238 3238 3238 3238 3238 3238 3238 3269 3269 3269 3269 3269 3269 3269 0 0 7492 0 7492 7492 7492 7492 7492 7492 7492 7492 7492 7660 7660 7660 7492 7492 7492 7660 7660 7660 7492 7492 7492 7660 7492 7492 7660 7660 7835 7835 7835 7660 7660 5291 5291 5291 5291 5291 5374 5291 5291 5374 5374 5374 5374 5374 5374 5291 5291 5291 5291 5291 5291 5291 5291 5291 5291 5291 5210 5210 5210 5210 5210 5210 5132 5132 5132 5132 5132 5132 5132 5056 5056 5056 5132 5132 5132 5132 5132 5132 5132 5132 5132 5132 5056 5056 5132 5056 5056 5056 5056 5132 5132 5132 5132 5132 5132 5132 7030 7030 7030 7030 7030 7178 7178 7178 7030 7030 7030 7030 6889 6889 7030 7030 7178 7178 7178 7178 7178 7178 7178 7178 7178 7178 7178 7332 7492 7492 3774 3774 3774 3774 3816 3816 3816 3816 3816 3816 3816 3859 3859 3859 0 0 0 0 0 0 0 0 0 0 4463 4463 4463 4463 4522 4522 4522 4522 4522 4522 4522 4522 4522 4522 4522 4522 4522 4582 4582 4522 4522 4522 4522 4522 4522 4522 4582 4983 5132 5374 5374 5374 5374 5374 5291 5291 5291 5210 5210 5210 5210 5210 5210 5210 5210 5210 5210 5210 5210 5210 5210 5210 5210 5210 5210 5210 5210 5210 5291 5291 5374 5374 5374 5374 5460 5460 5374 5374 5374 5374 5374 5374 5374 5291 5291 5291 5291 5210 5210 5291 5291 5291 5291 5291 5291 5374 5374 5374 5374 5374 5374 5374 5374 5374 5374 5374 5460 5460 5460 5460 5374 5374 5374 5374 5374 5374 5374 5374 5374 5460 5460 5460 5460 5548 5548 5548 5460 5460 5460 5460 5460 5548 5548 5548 5548 5548 5460 5460 5548 5548 5640 5640 5640 5640 5640 5640 5640 5640 5640 5640 5640 5640 5640 5640 5640 5640 5640 5640 5640 5640 5640 5640 5640 5640 5640 5640 5640 5548 5548 5548 5548 5548 5548 5548 5548 5548 5548 5548 5460 5291 5056 4911 4911 4911 4842 4842 4842 4842 4842 4911 4774 4774 4774 4911 4911 4911 4911 4911 4911 4911 4911 4983 4983 4983 4983 4983 4983 4983 4983 4911 4911 4983 5056 5056 0 0 0 0 0 0 0 0 0 0 0 0 0 0 0 0 0 0
0 0 0 0 0 0 0 0 0 0 0 0 0 0 0 0 0 0 0 0 0 0 0 0 0 0 0 0 0 0 5832 5832 5832 5832 5933 5933 5933 5933 5933 5933 6038 6038 6038 6038 6038 6038 6038 6038 6038 6038 6038 6146 6146 6038 6038 6038 6038 6038 6038 6038 6038 6038 6038 6038 6038 6038 6146 6038 5933 5933 5933 5832 5832 5640 5374 5374 5291 5132 5132 5132 5132 5132 5132 5132 5132 5132 5132 5132 5132 5132 5132 5132 5132 5132 5132 5132 5132 5132 5132 5210 5210 5210 5210 5210 5291 5291 5291 5291 5291 5291 5374 5291 5291 5291 5291 5291 5291 5291 5291 5291 5374 5374 5374 5374 5374 5374 5460 5548 5832 6038 6146 6259 6259 6375 6497 6622 6622 6622 6622 6622 6622 6622 6622 3365 3365 3333 3300 3238 3149 3092 3064 3064 3064 3037 3010 3010 2984 2984 2984 2984 2984 2984 2984 2984 3010 3010 3010 3010 3010 3010 3010 3010 3037 3010 3010 3037 3037 3037 3037 3037 3037 3064 3064 3064 3064 3064 3064 3064 3064 3064 3064 3064 3064 3092 3064 3064 3064 3064 3064 3092 3092 3092 3120 3120 3120 3120 3120 3120 3149 3120 3120 3149 3149 3149 3149 3149 3149 3178 3178 3178 3178 3178 3178 3178 3208 3208 3208 3208 3208 3208 3208 3208 3208 3208 3208 3238 3238 3238 3238 3238 3238 3238 3208 3208 3208 3208 3238 3238 3238 3238 3238 3238 3238 3238 3238 3238 3269 3269 3269 3269 3269 3269 3269 3269 0 0 0 7492 7492 7492 7492 7492 7492 7492 7492 7492 7492 7492 7492 7492 7492 7492 7492 7492 7492 7492 7492 7492 7492 7492 7492 7492 7660 7660 7660 7660 7660 7660 7660 5291 5291 5291 5291 5291 5374 5291 5291 5291 5374 5374 5374 5374 5374 5291 5291 5291 5291 5291 5291 5291 5291 5291 5291 5291 5210 5210 5210 5210 5210 5210 5132 5132 5132 5132 5132 5132 5132 5056 5056 5132 5132 5132 5132 5132 5132 5132 5132 5132 5132 5132 5056 5056 5132 5056 5056 5056 5056 5056 5132 5132 5132 5132 7030 7030 7030 7030 7030 7030 7030 7178 7178 7178 7030 7030 7030 6889 6889 6889 6889 7030 7030 7030 7178 7178 7178 7178 7178 7178 7178 7178 7178 7178 7178 3774 3774 3774 3774 3774 3816 3816 3816 3816 3816 3816 3816 3816 3859 3859 0 0 0 0 0 0 0 0 0 0 0 0 0 4522 4522 4582 4522 4522 4463 4463 4463 4463 4463 4522 4522 4522 4522 4522 4522 4522 4522 4522 4522 4522 4522 4522 4582 5132 5291 5374 5374 5374 5374 5291 5291 5291 5291 5210 5210 5132 5132 5132 5210 5210 5210 5210 5132 5132 5210 5210 5210 5210 5210 5210 5210 5210 5210 5210 5291 5291 5374 5374 5374 5374 5460 5460 5374 5374 5374 5374 5374 5374 5374 5291 5291 5291 5291 5210 5210 5291 5291 5291 5291 5291 5291 5374 5374 5291 5291 5374 5374 5374 5374 5374 5374 5374 5460 5460 5460 5460 5374 5374 5374 5374 5374 5374 5374 5374 5374 5460 5460 5460 5460 5548 5548 5548 5460 5460 5460 5460 5460 5460 5548 5548 5548 5548 5548 5548 5548 5548 5640 5640 5640 5640 5640 5640 5640 5640 5640 5640 5640 5640 5640 5640 5640 5640 5640 5640 5640 5640 5640 5640 5640 5640 5640 5640 5640 5640 5548 5548 5548 5548 5460 5460 5460 5548 5548 5548 5548 5132 4983 4911 4911 4911 4842 4842 4842 4842 4842 4911 4774 4774 4774 4911 4911 4911 4911 4911 4911 4911 4911 4983 4983 4983 4983 4983 4983 4911 4911 4911 4911 4983 5132 5132 0 0 0 0 0 0 0 0 0 0 0 0 0 0 0 0 0 0
0 0 0 0 0 0 0 0 0 0 0 0 0 0 0 0 0 0 0 0 0 0 0 0 0 0 0 0 0 0 5832 5832 5832 5832 5933 5933 5933 5933 5933 6038 6038 6038 6038 6038 6038 6038 6038 6038 6038 6038 6038 6146 6146 6038 6038 6038 6038 6038 6038 6038 6038 6038 6146 6146 6146 6146 6146 6146 6038 6038 5933 5933 5933 5548 5374 5374 5210 5132 5132 5132 5132 5132 5132 5132 5132 5132 5132 5132 5132 5132 5132 5132 5132 5132 5132 5132 5132 5132 5132 5210 5210 5210 5210 5210 5210 5291 5291 5291 5291 5291 5374 5291 5291 5291 5291 5291 5291 5291 5291 5291 5291 5374 5374 5374 5374 5374 5374 5548 5734 5832 6038 6259 6259 6259 6497 6622 6622 6622 6622 6622 6622 6622 6622 3333 3333 3333 3300 3238 3178 3120 3092 3064 3064 3037 3010 3010 2984 2984 2984 2984 2984 2984 2984 2984 3010 3010 3010 3010 3010 3010 3010 3010 3037 3037 3037 3037 3037 3037 3037 3037 3037 3064 3064 3064 3064 3064 3064 3064 3064 3064 3092 3092 3092 3092 3092 3092 3092 3092 3092 3092 3120 3120 3120 3149 3149 3149 3149 3149 3149 3149 3149 3149 3149 3149 3149 3149 3149 3178 3178 3178 3178 3178 3178 3208 3208 3208 3208 3208 3208 3208 3208 3208 3208 3208 3238 3238 3238 3238 3238 3238 3238 3208 3208 3208 3208 3208 3208 3208 3238 3238 3238 3238 3238 3238 3238 3238 3269 3269 3269 3269 3269 3269 3269 3269 3365 3365 0 0 0 0 7492 0 7492 7492 7492 7492 7492 7492 7492 7492 7332 7332 7332 7492 7492 7492 7492 7332 7332 7492 7492 7492 7492 7660 7660 7660 7660 7660 7660 5291 5291 5291 5291 5291 5291 5291 5291 5291 5291 5291 5291 5291 5291 5291 5291 5291 5291 5291 5291 5291 5291 5291 5291 5291 5210 5210 5210 5210 5210 5210 5132 5132 5132 5132 5132 5132 5132 5056 5056 5132 5132 5132 5132 5056 5056 5132 5056 5056 5132 5056 5056 5056 5132 5056 5056 5056 5056 5056 5132 5132 5132 5132 6889 6889 7030 7030 7030 7030 7030 7178 7178 7178 7030 7030 7030 6889 6889 6889 6889 7030 7030 7030 7030 7030 7030 7030 7030 7178 7178 7178 7178 7178 7332 0 3732 3732 3732 3774 3774 3774 3816 3816 3816 3859 3816 3816 3859 3859 0 0 0 0 0 0 0 0 0 0 0 0 0 0 0 0 0 4522 4463 4463 4463 4463 4463 4522 4522 4522 4522 4522 4522 4522 4522 4522 4522 4522 4522 4582 4645 5210 5374 5374 5374 5374 5374 5291 5291 5291 5210 5132 5132 5132 5132 5132 5132 5132 5132 5210 5132 5132 5210 5210 5210 5210 5210 5210 5291 5210 5210 5210 5291 5291 5374 5374 5374 5374 5374 5374 5460 5374 5374 5374 5374 5374 5374 5291 5291 5291 5291 5210 5210 5291 5291 5291 5291 5291 5291 5374 5374 5291 5291 5374 5374 5374 5374 5374 5374 5374 5460 5460 5460 5374 5374 5374 5374 5374 5374 5374 5374 5374 5374 5460 5460 5460 5460 5548 5548 5460 5460 5460 5460 5460 5460 5460 5548 5548 5548 5548 5548 5548 5548 5640 5640 5640 5640 5734 5734 5640 5640 5640 5640 5640 5640 5640 5640 5640 5640 5640 5640 5640 5640 5640 5640 5640 5640 5640 5640 5640 5640 5640 5548 5548 5548 5548 5460 5460 5460 5548 5548 5548 5548 5132 4983 4911 4911 4842 4842 4842 4842 4842 4911 4911 4911 4911 4911 4983 4983 4911 4911 4911 4911 4911 4911 4983 4983 4983 4983 4983 4983 4911 4911 4911 4911 0 0 0 0 0 0 0 0 0 0 0 0 0 0 0 0 0 0 0 0 0
0 0 0 0 0 0 0 0 0 0 0 0 0 0 0 0 0 0 0 0 0 0 0 0 0 0 0 0 0 0 5832 5832 5832 5832 5933 5933 5933 5933 5933 6038 6038 6038 6038 6038 6038 6038 6038 6038 6038 6038 6038 6038 6038 6038 6038 6038 6038 6038 6038 6038 6038 6038 6146 6146 6146 6146 6146 6146 6038 6038 5933 5933 5933 5548 5374 5374 5210 5132 5132 5132 5132 5132 5132 5132 5132 5132 5132 5132 5132 5132 5132 5132 5132 5132 5132 5132 5132 5132 5132 5210 5210 5210 5210 5210 5210 5291 5291 5291 5291 5291 5291 5291 5291 5291 5291 5291 5291 5291 5291 5291 5291 5374 5374 5374 5374 5374 5374 5460 5548 5734 5933 6146 6259 6259 6375 6497 6622 6622 6622 6622 6622 6622 6622 3365 3333 3300 3300 3208 3149 3120 3092 3092 3064 3037 3037 3010 2984 2984 2984 2984 2984 2984 3010 3010 3010 3010 3010 3010 3010 3010 3010 3010 3037 3037 3037 3037 3037 3037 3037 3037 3037 3037 3037 3037 3064 3064 3064 3064 3064 3064 3092 3092 3092 3092 3092 3092 3092 3092 3092 3092 3120 3120 3149 3149 3149 3149 3149 3149 3149 3149 3149 3149 3149 3149 3149 3149 3149 3178 3178 3178 3178 3178 3208 3208 3208 3208 3208 3208 3208 3208 3208 3208 3208 3208 3208 3238 3238 3238 3238 3238 3238 3208 3208 3208 3208 3208 3208 3208 3238 3238 3238 3238 3238 3238 3238 3269 3269 3269 3269 3269 3300 3300 3300 3365 3365 3365 7835 0 0 0 0 0 0 0 7492 0 7492 7492 6753 6753 6753 6753 7030 7178 7178 7332 7332 7332 7332 7332 7332 7492 7492 7492 7492 7660 7660 7660 7660 5291 5291 5291 5291 5291 5291 5291 5291 5291 5291 5291 5291 5291 5291 5291 5291 5291 5291 5291 5291 5291 5291 5291 5291 5291 5210 5210 5210 5210 5210 5210 5132 5132 5132 5132 5132 5132 5132 5056 5056 5132 5132 5132 5132 5056 5056 5132 5056 5056 5132 5056 5056 5056 5132 5056 5056 5132 5056 5056 5132 5132 6889 6889 6889 6889 7030 7030 7030 7030 7178 7178 7178 7178 7178 7030 7030 6889 6889 6889 6889 7030 7030 7030 7030 7030 7030 7030 7030 7178 7178 7178 7178 7332 7332 0 3732 3732 3732 3774 3774 3774 3816 3816 3816 3859 3816 3816 3816 3816 0 0 0 0 0 0 0 0 0 0 0 0 0 0 0 0 0 0 0 4463 4463 4463 4463 4522 4522 4522 4522 4582 4522 4522 4522 4522 4522 4522 4582 4645 4983 5291 5374 5374 5374 5374 5291 5291 5291 5210 5132 5132 5132 5132 5132 5132 5132 5132 5132 5210 5132 5132 5210 5210 5210 5210 5210 5291 5291 5291 5210 5210 5460 5460 5374 5374 5374 5374 5374 5374 5374 5374 5374 5374 5374 5374 5374 5291 5291 5374 5291 5291 5291 5291 5291 5291 5291 5291 5291 5374 5374 5291 5291 5374 5374 5374 5374 5374 5374 5374 5460 5460 5460 5374 5374 5374 5374 5374 5374 5374 5374 5374 5374 5460 5460 5460 5460 5548 5548 5460 5460 5460 5460 5460 5460 5548 5548 5548 5548 5548 5548 5548 5548 5640 5640 5640 5640 5734 5734 5640 5640 5640 5640 5640 5640 5640 5640 5640 5640 5548 5548 5640 5640 5640 5640 5640 5640 5640 5640 5640 5640 5640 5548 5548 5548 5548 5460 5460 5460 5548 5548 5548 5548 5460 4983 4911 4911 4842 4842 4774 4774 4842 4911 4911 4911 4911 4911 4983 4983 4983 4983 4911 4911 4983 4983 4983 4983 4983 4983 4983 4983 4983 4911 4911 4911 0 0 0 0 0 0 0 0 0 0 0 0 0 0 0 0 0 0 0 0 0
0 0 0 0 0 0 0 0 0 0 0 0 0 0 0 0 0 0 0 0 0 0 0 0 0 0 0 0 0 0 5832 5832 5832 5832 5933 5933 5933 5933 5933 5933 6038 6038 6038 6038 6038 6038 6038 6038 6038 6038 6038 6038 6038 6038 6038 6038 6038 6038 6038 6038 6146 6146 6146 6146 6146 6146 6146 6146 6038 6038 6038 5933 5933 5640 5374 5374 5210 5132 5132 5132 5132 5132 5132 5132 5132 5132 5132 5132 5132 5132 5132 5132 5132 5132 5132 5132 5132 5132 5132 5210 5210 5210 5210 5210 5210 5291 5291 5291 5291 5291 5291 5291 5291 5291 5291 5291 5291 5291 5291 5291 5291 5374 5374 5374 5374 5374 5374 5460 5548 5734 5933 6146 6259 6259 6375 6497 6622 6622 6622 6622 6753 6753 6753 3365 3333 3300 3300 3208 3120 3120 3092 3064 3064 3037 3037 3010 2984 2984 2984 2984 2984 2984 2984 3010 3010 3010 3010 3010 3010 3010 3010 3010 3037 3037 3037 3037 3037 3037 3037 3037 3037 3037 3037 3037 3037 3037 3064 3064 3064 3064 3064 3092 3092 3092 3092 3092 3092 3092 3092 3120 3120 3120 3149 3149 3149 3149 3149 3149 3149 3149 3149 3149 3149 3149 3149 3149 3178 3178 3178 3178 3178 3178 3178 3208 3208 3208 3208 3208 3208 3208 3208 3208 3208 3208 3208 3208 3238 3238 3238 3238 3238 3208 3208 3208 3208 3208 3208 3208 3238 3238 3238 3238 3238 3238 3238 3269 3269 3269 3269 3300 3300 3300 3300 3365 3365 3365 7835 7660 7660 7492 7492 7492 0 0 0 0 0 6497 6497 6622 6622 6753 6889 6889 7030 7030 7178 7332 7332 7332 7332 7492 7492 7492 7492 7492 7660 7660 7660 5374 5291 5291 5374 5374 5291 5291 5291 5291 5291 5291 5291 5291 5291 5291 5291 5291 5291 5291 5291 5291 5291 5291 5291 5291 5210 5210 5210 5210 5210 5210 5132 5132 5132 5132 5132 5132 5132 5132 5132 5132 5132 5132 5132 5056 5056 5132 5056 5056 5056 5056 5056 5056 5132 5132 5132 5132 5132 5132 5132 6753 6889 6889 6889 6889 7030 7030 7030 7030 7178 7178 7178 7178 7178 7030 7030 6889 6889 6889 6889 6889 6889 7030 7030 7030 7030 7030 7178 7178 7178 7178 7332 7332 7332 0 3732 3732 3732 3774 3774 3774 3816 3816 3816 3859 3816 3816 3816 3816 0 0 0 0 0 0 0 0 0 0 0 0 0 0 0 0 0 0 0 0 4463 4463 4463 4522 4522 4522 4522 4582 4522 4522 4522 4522 4522 4522 4582 4645 4983 5291 5374 5374 5374 5374 5291 5291 5291 5210 5132 5132 5132 5132 5132 5132 5132 5210 5210 5210 5210 5210 5210 5210 5210 5210 5210 5210 5291 5291 5291 5291 5291 5374 5374 5374 5374 5374 5374 5374 5374 5374 5374 5374 5374 5374 5374 5291 5291 5374 5291 5291 5291 5291 5291 5291 5291 5291 5291 5374 5374 5291 5291 5374 5374 5374 5374 5374 5374 5374 5374 5374 5374 5374 5374 5374 5374 5374 5374 5374 5374 5374 5374 5460 5460 5460 5460 5548 5548 5460 5460 5460 5460 5460 5460 5548 5548 5548 5548 5548 5548 5548 5548 5640 5640 5640 5640 5734 5734 5640 5640 5640 5640 5640 5640 5640 5640 5640 5640 5548 5548 5640 5640 5640 5640 5640 5640 5640 5640 5640 5640 5640 5548 5548 5548 5548 5548 5548 5548 5548 5548 5548 5548 5548 4983 4911 4911 4842 4842 4774 4774 4911 4911 4911 4911 4911 4911 4983 4983 4983 4983 4983 4983 4983 4983 4983 4983 4983 4983 4983 4983 4983 4911 4911 0 0 0 0 0 0 0 0 0 0 0 0 0 0 0 0 0 0 0 0 0 0
0 0 0 0 0 0 0 0 0 0 0 0 0 0 0 0 0 0 0 0 0 0 0 0 0 0 0 0 0 0 5832 5832 5933 5933 5933 5933 5933 5933 5933 5933 6038 6038 6038 6038 6038 6038 6038 6038 6038 6038 6038 6038 6038 6038 6038 6038 6038 6146 6146 6146 6146 6146 6146 6146 6146 6146 6146 6146 6038 6038 6038 6038 5933 5734 5460 5460 5291 5132 5132 5132 5132 5132 5132 5132 5132 5132 5132 5132 5132 5132 5132 5132 5132 5132 5132 5132 5132 5132 5132 5210 5210 5210 5210 5210 5210 5291 5291 5291 5291 5291 5374 5291 5291 5291 5291 5291 5291 5291 5291 5291 5291 5374 5291 5291 5374 5374 5374 5460 5548 5640 5832 6146 6259 6259 6375 6622 6622 6622 6622 6622 6753 6753 6753 3365 3333 3300 3300 3208 3120 3120 3092 3064 3064 3037 3037 3010 2984 2984 2984 2984 2984 2984 2984 2984 2984 3010 2984 2984 3010 3010 3010 3010 3037 3037 3037 3037 3037 3037 3037 3037 3037 3037 3037 3037 3037 3037 3064 3064 3064 3064 3064 3092 3092 3092 3092 3092 3092 3092 3120 3120 3120 3120 3149 3149 3149 3149 3149 3149 3149 3149 3149 3149 3149 3149 3178 3178 3178 3178 3178 3178 3178 3178 3178 3178 3178 3178 3208 3178 3178 3208 3208 3208 3208 3208 3208 3208 3238 3238 3238 3238 3238 3208 3208 3208 3208 3208 3208 3238 3238 3238 3238 3238 3238 3238 3269 3269 3269 3269 3269 3300 3300 3300 3365 3365 3365 3399 7660 7492 7492 7492 7492 7835 7835 8212 0 0 6497 6497 6497 6622 6622 6753 6889 6889 7030 7030 7178 7332 7332 7332 7332 7492 7492 7492 7492 7492 7492 7492 5374 5374 5374 5374 5374 5374 5291 5291 5291 5291 5291 5291 5291 5291 5291 5291 5291 5291 5291 5291 5291 5291 5291 5291 5291 5291 5210 5210 5210 5210 5132 5132 5132 5132 5132 5132 5132 5132 5132 5132 5132 5132 5132 5132 5132 5056 5056 5132 5056 5056 5056 5056 5056 5056 5132 5132 5132 5132 5132 5132 6753 6753 6889 6889 6889 6889 6889 7030 7030 7030 7178 7178 7178 7178 7178 7030 7030 6889 6889 6889 6889 6889 6889 7030 7030 7030 7030 7030 7178 7178 7178 7332 7332 0 0 0 0 3732 3732 3774 3774 3774 3816 3816 3816 3859 3816 3816 3816 3816 0 0 0 0 0 0 0 0 0 0 0 0 0 0 0 0 0 0 0 0 0 4463 4463 4522 4522 4522 4522 4582 4522 4522 4522 4522 4522 4522 4582 4645 5291 5291 5374 5374 5374 5374 5374 5291 5291 5210 5132 5132 5132 5132 5132 5132 5132 5132 5132 5210 5210 5210 5210 5210 5210 5210 5210 5210 5291 5291 5291 5291 5291 5374 5374 5374 5374 5374 5374 5374 5374 5374 5374 5374 5374 5374 5374 5374 5374 5374 5291 5291 5291 5291 5291 5374 5374 5374 5374 5374 5291 5291 5291 5374 5374 5374 5374 5374 5374 5374 5374 5374 5374 5374 5291 5291 5374 5374 5374 5374 5374 5460 5460 5460 5460 5460 5548 5548 5548 5460 5460 5460 5460 5460 5460 5460 5548 5548 5548 5548 5548 5640 5640 5640 5640 5640 5734 5734 5734 5734 5640 5640 5640 5640 5640 5640 5640 5640 5640 5640 5640 5640 5640 5640 5640 5640 5640 5640 5640 5640 5640 5640 5640 5640 5640 5548 5548 5548 5548 5548 5548 5548 5548 5548 5132 4911 4911 4842 4842 4842 4842 4911 4911 4983 4983 4983 5056 5056 5056 5056 5056 4983 4983 4983 4983 4983 4983 4983 4983 4983 4983 4983 4911 4911 4983 0 0 0 0 0 0 0 0 0 0 0 0 0 0 0 0 0 0 0 0 0
0 0 0 0 0 0 0 0 0 0 0 0 0 0 0 0 0 0 0 0 0 0 0 0 0 0 0 0 0 0 5933 5933 5933 5933 5933 5933 5933 5933 5933 5933 6038 6038 6038 6038 6038 6038 6038 6038 6038 6038 6038 6038 6038 6038 6038 6038 6038 6146 6146 6146 6146 6146 6146 6146 6146 6146 6146 6146 6038 6038 6038 6038 5933 5734 5548 5548 5291 5132 5132 5132 5132 5132 5132 5132 5132 5132 5132 5132 5132 5132 5210 5210 5210 5210 5132 5132 5210 5210 5210 5210 5210 5210 5210 5210 5291 5291 5291 5291 5291 5374 5374 5291 5291 5291 5291 5291 5291 5210 5210 5291 5291 5374 5291 5291 5374 5374 5374 5460 5548 5640 5832 6259 6259 6375 6497 6622 6622 6622 6622 6622 6622 6753 6753 6753 3333 3333 3300 3120 3092 3092 3092 3064 3064 3037 3037 3010 2984 2984 2984 2984 2984 2984 2984 2984 2984 3010 2984 2984 3010 3010 3010 3037 3037 3037 3037 3037 3037 3037 3037 3037 3037 3037 3064 3064 3064 3064 3064 3064 3064 3064 3064 3092 3092 3092 3092 3092 3092 3092 3120 3120 3120 3120 3149 3149 3149 3149 3149 3149 3149 3149 3149 3149 3149 3178 3178 3178 3178 3178 3178 3178 3178 3178 3178 3178 3178 3178 3178 3178 3178 3178 3208 3208 3208 3208 3208 3208 3238 3238 3238 3238 3238 3208 3208 3208 3208 3238 3238 3238 3238 3238 3238 3238 3238 3238 3269 3269 3269 3269 3300 3300 3300 3300 3333 3365 3365 3399 7660 7492 7492 7660 7660 7835 8212 0 0 0 6622 6622 6622 6622 6622 6889 7030 7030 7030 7030 7178 7332 7492 7332 7332 7332 7492 7332 7332 7332 7332 7492 5374 5374 5374 5374 5374 5374 5291 5291 5291 5291 5291 5291 5291 5291 5291 5291 5291 5291 5210 5210 5291 5291 5291 5291 5291 5291 5210 5210 5210 5132 5132 5132 5132 5132 5132 5132 5132 5132 5132 5132 5132 5132 5132 5132 5132 5056 5056 5132 5132 5056 5056 5056 5056 5056 5132 5132 5132 5132 5132 6753 6753 6753 6889 6889 6889 6889 6889 7030 7030 7030 7030 7178 7178 7178 7178 7030 7030 6889 6889 6889 6889 7030 7030 7030 7030 7030 7030 7030 7178 7178 7178 7178 7332 0 0 0 0 3774 3774 3774 3816 3816 3816 3816 3816 3859 3816 3816 3816 3816 0 0 0 0 0 0 0 0 0 0 0 0 0 0 0 0 0 0 0 0 0 4463 4463 4522 4522 4522 4522 4582 4522 4522 4522 4522 4522 4522 4582 4645 5291 5291 5374 5374 5374 5374 5374 5291 5210 5210 5132 5132 5132 5132 5132 5132 5132 5132 5132 5210 5210 5210 5210 5291 5210 5210 5210 5210 5291 5291 5291 5291 5374 5374 5374 5374 5374 5374 5374 5374 5374 5374 5374 5374 5374 5374 5374 5374 5374 5374 5291 5291 5291 5291 5291 5374 5374 5374 5374 5374 5291 5291 5291 5374 5374 5374 5374 5374 5374 5374 5374 5374 5374 5374 5291 5291 5374 5374 5374 5374 5374 5460 5460 5460 5460 5460 5548 5548 5548 5460 5460 5460 5460 5460 5460 5460 5548 5548 5548 5548 5548 5640 5640 5734 5734 5734 5734 5734 5734 5734 5734 5734 5734 5734 5734 5734 5640 5640 5734 5734 5734 5734 5734 5734 5734 5734 5734 5734 5640 5640 5640 5640 5640 5640 5640 5640 5548 5548 5548 5548 5548 5548 5548 5548 5548 4911 4911 4911 4911 4911 4911 4983 4983 5056 5056 5132 5210 5210 5210 5056 5056 4983 4983 4983 4983 4983 4983 4983 4983 4983 4983 4983 4983 4983 4983 0 0 0 0 0 0 0 0 0 0 0 0 0 0 0 0 0 0 0 0 0
0 0 0 0 0 0 0 0 0 0 0 0 0 0 0 0 0 0 0 0 0 0 0 0 0 0 0 0 0 0 5933 5933 5933 5933 5933 5933 5933 5933 5933 6038 6038 6038 6038 6038 6038 6038 6038 6038 6038 6038 6038 6038 6038 6038 6038 6038 6038 6146 6146 6146 6146 6146 6146 6146 6146 6146 6146 6146 6038 6038 6038 6038 6038 5933 5832 5832 5210 5132 5132 5132 5132 5132 5132 5132 5132 5132 5132 5210 5210 5210 5210 5210 5210 5210 5210 5210 5210 5210 5210 5210 5210 5210 5210 5291 5291 5291 5291 5374 5374 5374 5374 5374 5291 5291 5291 5291 5291 5210 5210 5291 5291 5374 5291 5291 5374 5374 5374 5460 5548 5734 5933 6259 6375 6375 6497 6622 6622 6622 6622 6622 6622 6753 6753 6753 6753 3120 3120 3120 3092 3092 3092 3064 3064 3037 3037 3010 2984 2984 2984 2984 2984 2984 3010 3010 3010 3010 3010 3010 3010 3010 3010 3037 3037 3037 3037 3037 3037 3037 3037 3037 3037 3037 3064 3064 3064 3064 3064 3064 3064 3064 3064 3092 3092 3092 3092 3092 3092 3092 3120 3120 3120 3120 3149 3149 3149 3149 3149 3149 3149 3149 3149 3149 3149 3178 3178 3178 3178 3178 3178 3178 3178 3178 3178 3178 3178 3178 3178 3178 3178 3178 3208 3208 3208 3208 3208 3208 3238 3238 3238 3238 3238 3208 3208 3208 3208 3238 3238 3238 3238 3238 3238 3238 3238 3238 3269 3269 3269 3269 3300 3300 3300 3300 3333 3365 3365 3399 7660 7660 7660 7660 7660 7835 8019 0 7835 0 0 0 6889 6753 6753 7030 7030 7030 7030 7178 7178 7332 7492 7332 7332 7332 7332 7332 7178 7178 7178 7332 5291 5291 5291 5374 5374 5374 5291 5291 5291 5291 5291 5291 5291 5291 5291 5291 5291 5291 5210 5210 5291 5291 5291 5291 5291 5291 5210 5210 5132 5132 5132 5132 5132 5132 5132 5132 5132 5132 5132 5132 5132 5132 5132 5132 5132 5132 5056 5056 5132 5132 5132 5056 5056 5056 5132 5132 5132 5210 5210 6753 6753 6753 6889 6889 6889 6889 6889 7030 7030 7030 7030 7030 7030 7030 7030 7030 7030 6889 6889 6889 7030 7030 7030 7030 7030 7030 7030 7030 7030 7178 7178 7178 7332 0 0 0 0 0 3816 3816 3816 3816 3816 3816 3816 3859 3816 3816 3816 0 0 0 0 0 0 0 0 0 0 0 0 0 0 0 0 0 0 0 0 0 0 4463 4463 4522 4522 4522 4522 4582 4522 4522 4522 4522 4522 4522 4582 4582 5291 5291 5374 5374 5374 5374 5374 5291 5210 5210 5132 5132 5132 5132 5132 5132 5132 5132 5132 5132 5210 5210 5210 5291 5210 5210 5210 5210 5291 5291 5291 5291 5374 5374 5374 5374 5374 5374 5374 5374 5374 5374 5374 5374 5374 5374 5374 5374 5374 5374 5374 5374 5374 5374 5374 5374 5374 5374 5374 5374 5374 5291 5291 5374 5374 5374 5374 5374 5374 5374 5374 5374 5374 5374 5291 5291 5374 5374 5374 5374 5374 5460 5460 5548 5548 5548 5548 5548 5548 5548 5548 5548 5548 5548 5548 5548 5548 5548 5548 5548 5548 5640 5640 5734 5734 5734 5832 5832 5832 5832 5734 5734 5734 5734 5734 5734 5734 5734 5734 5832 5832 5832 5832 5832 5832 5734 5734 5734 5734 5640 5640 5640 5640 5640 5640 5640 5548 5548 5548 5548 5548 5548 5548 5548 5210 4911 4911 4911 4911 4911 4911 4983 4983 5056 5056 5210 5291 5291 5210 5056 5056 4983 4983 4983 4983 4983 4983 4983 4983 4983 4911 4911 4983 4983 0 0 0 0 0 0 0 0 0 0 0 0 0 0 0 0 0 0 0 0 0 0
