0 0 0 0 0 0 0 0 0 0 0 0 0 0 0 0 0 0 0 0 0 0 0 0 0 0 0 0 0 0 0 0 0 3994 3994 3948 3948 3948 3994 3994 3994 3994 3994 3994 3994 3994 3994 3994 0 0 0 0 0 0 0 3994 3994 3994 3994 3994 3994 0 0 0 0 0 0 0 3994 3994 3994 3994 3994 4041 4089 4089 4089 4089 4089 4041 4041 0 0 0 0 0 0 0 4139 4139 4089 4089 4089 4089 4089 4139 0 0 4041 0 4089 4089 4089 4089 4089 4139 4139 4139 4139 4139 4139 4139 4139 4139 4190 4190 4190 4139 4139 4139 4139 4241 4241 4241 4241 4241 4139 4139 4190 4190 4190 4190 4139 4139 0 0 4241 4241 4241 4241 4241 4241 4241 4295 4241 4241 4241 4241 4241 4241 4295 4295 0 0 0 4241 4241 4241 4241 4241 4241 0 0 0 0 0 1624 1624 1624 1624 1624 1624 1624 1624 1624 1624 1632 1624 1624 1624 1624 1616 1616 1616 1609 1609 1609 1601 1601 1601 1601 1601 1594 1594 1586 1586 1586 1586 1586 1586 1579 1579 1579 1572 1572 1564 1564 1564 1564 1564 1564 1564 1557 1557 1557 1550 1550 1557 1550 1550 1557 1550 1550 1557 1550 1550 1550 1680 1680 1680 1680 1680 1680 1680 1680 1680 1688 1688 1680 1680 1688 1696 1705 1705 1489 1489 1489 1489 1489 1489 1489 1489 1483 1483 1483 1489 1489 1489 1496 1496 1503 1503 1509 1688 1680 1680 1688 1696 1696 1696 1696 1705 1696 1696 1696 1688 1688 1688 1688 1688 1696 1696 1705 1705 1705 1705 1705 1349 1349 1349 1349 1343 1343 1343 1343 1343 1343 1343 1343 1343 1343 1343 1343 1338 1338 1338 1333 1328 1322 1322 1322 1317 1317 1312 1312 1312 1307 1307 1302 1302 1302 1297 1297 1297 1297 1297 1292 1292 1292 1292 1288 1288 1283 1278 1273 1273 1273 1268 1268 1268 1268 1268 1268 1268 1264 1264 1259 1259 1259 1259 1259 1259 1255 1255 1255 1255 1250 1250 1250 1245 1245 1241 1241 1241 1241 1241 1236 1232 1232 1232 1232 1232 1232 1232 1227 1227 1227 1227 1227 1227 1227 1227 1223 1223 1219 1219 1214 1214 1214 1214 1214 1214 1214 1210 1210 1210 1210 1206 1202 1202 1197 1197 1193 1193 1193 1193 1189 1189 1189 1189 1193 1193 1193 1197 1197 1202 1206 1206 1210 1210 0 1757 1757 1757 1748 1748 1748 1757 1748 1748 1757 1757 1757 1757 1757 1757 1757 1757 1757 1757 1757 1757 1766 1757 1757 1757 1757 1757 1757 1757 1757 1757 1757 1757 1748 1748 1748 1748 1757 1757 1757 1757 1757 1757 1757 1748 1748 1757 1757 1757 1757 1757 1766 1748 1748 1748 1748 1739 1739 1739 1748 1748 1748 1766 1766 1766 1766 1766 1766 1766 1766 1766 1766 1766 1766 1757 1757 1748 1748 1748 1748 1748 1748 1757 1757 1757 1757 1757 1748 1748 1748 1748 1748 1748 1748 1748 1748 1766 1766 1766 1766 1776 1776 1776 1766 1766 1766 1766 1766 1766 1766 1766 1776 1776 1776 1766 1766 1766 1766 1776 1776 1776 1776 1785 1785 1776 1776 1785 1785 1785 1785 1785 1785 1785 1776 1776 1776 1776 1766 1766 1766 1766 1776 1776 1776 1776 1776 1776 1776 1776 1776 1776 1785 1794 1813 1823 0 0 0 0 0 0 0 0 0 4522 4522 4522 4522 4582 4645 4645 4645 4708 4708 4708 4645 4645 4645 4645 4708 4708 4708 0 0 0 0 0 0 0 0 4522 4522 4582 0 0 0 0 0 0 0 0 0 0 0 0 0 0 0 0 0 0 0 0 0 0 0 0 0 0
0 0 0 0 0 0 0 0 0 0 0 0 0 0 0 0 0 0 0 0 0 0 0 0 0 0 0 0 0 0 0 0 0 3994 3994 3948 3948 3948 3948 3994 3994 3994 3994 3994 3994 3994 3994 0 0 0 0 0 0 0 0 3994 3994 3994 3994 3994 3994 0 0 0 0 0 0 0 3994 3994 3994 3994 3994 4041 4041 4089 4041 4041 4089 4089 4089 0 0 0 0 0 0 0 4139 4089 4089 4089 4089 4089 4089 4139 4139 4041 4041 4041 4041 4041 4041 4089 4089 4089 4139 4089 4089 4139 4139 4139 4139 4139 4190 4190 4190 4139 4139 4139 4139 4190 4190 4241 4190 4190 4139 4139 4139 4139 4139 4139 4139 4139 0 0 0 4241 4190 4190 4190 4190 4190 4190 4241 4241 4241 4241 4241 4241 4295 4295 4295 4295 4241 4241 4241 4241 4241 4241 4241 0 0 0 0 0 1624 1624 1624 1624 1624 1624 1624 1632 1632 1632 1632 1632 1624 1624 1624 1616 1616 1616 1609 1609 1609 1601 1601 1601 1601 1601 1594 1594 1594 1586 1586 1586 1586 1586 1579 1579 1579 1579 1572 1572 1572 1564 1564 1564 1564 1564 1557 1557 1557 1550 1550 1557 1550 1550 1550 1550 1550 1550 1550 1550 1550 1550 1680 1680 1680 1680 1680 1680 1680 1680 1680 1680 1671 1671 1680 1680 1680 1705 1489 1489 1489 1489 1489 1489 1489 1489 1489 1489 1489 1489 1489 1489 1496 1496 1503 1509 1509 1516 1671 1671 1680 1688 1688 1688 1688 1696 1688 1680 1680 1680 1680 1671 1671 1671 1680 1688 1696 1696 1705 1705 1705 1349 1349 1349 1349 1349 1349 1349 1349 1343 1343 1343 1343 1343 1343 1343 1349 1343 1343 1343 1333 1333 1328 1328 1322 1322 1317 1312 1312 1312 1307 1307 1302 1302 1302 1302 1297 1297 1297 1297 1292 1292 1292 1292 1288 1288 1283 1283 1278 1273 1273 1273 1273 1268 1268 1273 1268 1268 1268 1264 1259 1259 1259 1259 1259 1259 1255 1255 1259 1255 1250 1250 1250 1245 1245 1245 1245 1245 1245 1241 1236 1236 1236 1236 1236 1232 1232 1232 1232 1232 1227 1227 1227 1227 1227 1227 1227 1227 1219 1219 1223 1219 1214 1214 1214 1214 1214 1214 1214 1210 1210 1206 1202 1202 1197 1197 1193 1193 1193 1193 1189 1189 1189 1189 1193 1193 1193 1197 1197 1202 1206 1206 1210 1210 1210 1739 1739 1739 1739 1739 1739 1748 1739 1739 1748 1748 1748 1748 1748 1748 1748 1739 1739 1748 1748 1748 1748 1748 1748 1748 1748 1748 1748 1748 1739 1739 1739 1739 1739 1739 1731 1731 1739 1748 1739 1739 1731 1731 1739 1739 1731 1731 1731 1739 1748 1748 1748 1731 1731 1739 1739 1731 1731 1731 1739 1739 1739 1748 1748 1748 1748 1748 1757 1757 1757 1757 1757 1757 1757 1757 1748 1739 1739 1739 1739 1739 1739 1739 1739 1739 1748 1748 1739 1739 1748 1748 1748 1748 1748 1748 1748 1757 1757 1766 1766 1766 1776 1766 1757 1757 1757 1757 1757 1748 1748 1757 1766 1766 1757 1757 1757 1757 1757 1757 1757 1757 1757 1766 1776 1766 1766 1766 1776 1776 1776 1776 1776 1776 1776 1766 1766 1766 1766 1766 1766 1766 1766 1766 1766 1766 1766 1766 1766 1766 1766 1766 1776 1785 0 0 0 0 0 0 0 0 0 0 0 4522 4522 4522 4522 4582 4645 4645 4645 4708 4645 4645 4645 4645 4645 4645 4645 4708 4708 0 0 0 4522 4463 4463 4463 4463 4463 4463 4582 0 0 0 0 0 0 0 0 0 0 0 0 0 0 0 0 0 0 0 0 0 0 0 0 0 0
0 0 0 0 0 0 0 0 0 0 0 0 0 0 0 0 0 0 0 0 0 0 0 0 0 0 0 0 0 0 0 0 0 3994 3994 3948 3948 3948 3948 3948 3948 3948 3948 3994 3994 3994 3994 0 0 0 0 0 0 0 3948 3948 3994 3994 3994 3994 3948 3948 0 0 0 0 0 0 0 3994 3994 3948 3948 3994 3994 3994 3994 4041 4041 4041 4041 4041 0 0 0 0 0 0 0 4041 4041 4041 4041 4089 4089 4089 4089 4041 4041 4041 4041 4041 4041 4041 4089 4089 4089 4089 4089 4089 4139 4139 4139 4139 4139 4139 4139 4190 4190 4139 4139 4190 4190 4190 4190 4139 4139 4139 4139 4139 4139 4139 4139 4139 0 0 0 0 4139 4139 4190 4190 4190 4190 4190 4190 4190 4241 4241 4241 4295 4295 4241 4190 4190 4139 4139 4190 4190 4190 4190 0 0 0 0 0 1624 1624 1624 1624 1624 1624 1624 1632 1632 1632 1632 1632 1632 1632 1624 1624 1624 1616 1616 1616 1609 1609 1609 1609 1609 1601 1601 1594 1594 1594 1586 1586 1586 1586 1579 1579 1579 1579 1579 1579 1572 1572 1572 1564 1564 1564 1557 1557 1557 1557 1557 1550 1550 1550 1550 1550 1550 1550 1550 1550 1550 1543 1543 1543 1543 1543 1543 1543 1543 1536 1536 1543 1536 1536 1671 1671 1663 1663 1489 1489 1489 1489 1489 1489 1489 1489 1489 1489 1489 1489 1489 1496 1496 1503 1503 1509 1516 1516 1663 1663 1671 1671 1671 1671 1688 1688 1671 1671 1671 1671 1671 1663 1663 1663 1663 1671 1680 1696 1696 1705 1705 1349 1349 1349 1349 1349 1349 1349 1343 1343 1343 1343 1343 1343 1349 1349 1349 1349 1343 1343 1338 1333 1328 1328 1328 1328 1632 1632 1312 1312 1312 1307 1302 1302 1302 1302 1302 1297 1297 1297 1297 1292 1292 1292 1288 1288 1283 1283 1283 1278 1278 1273 1273 1273 1273 1273 1273 1268 1268 1268 1264 1264 1259 1259 1259 1259 1259 1259 1259 1255 1255 1250 1250 1250 1245 1245 1245 1245 1245 1245 1241 1241 1241 1236 1236 1236 1232 1232 1232 1232 1227 1227 1227 1227 1227 1227 1227 1227 1227 1223 1223 1223 1219 1219 1214 1214 1214 1214 1214 1210 1210 1210 1206 1202 1197 1197 1193 1193 1193 1193 1193 1189 1189 1189 1193 1193 1193 1197 1197 1202 1206 1206 1210 1210 1210 1731 1731 1722 1722 1722 1731 1731 1731 1731 1731 1739 1739 1731 1731 1731 1722 1722 1722 1731 1731 1731 1731 1731 1739 1731 1731 1731 1739 1739 1731 1731 1731 1731 1731 1731 1731 1731 1731 1731 1731 1722 1722 1722 1722 1722 1722 1722 1722 1731 1739 1731 1731 1731 1731 1731 1731 1722 1722 1722 1731 1731 1731 1739 1739 1739 1739 1739 1739 1739 1739 1739 1739 1739 1748 1739 1731 1722 1722 1722 1722 1722 1722 1722 1731 1731 1739 1739 1739 1739 1739 1739 1739 1739 1739 1739 1739 1748 1748 1748 1748 1748 1766 1748 1739 1739 1739 1739 1748 1739 1739 1748 1748 1748 1748 1748 1748 1748 1748 1748 1739 1739 1739 1748 1748 1757 1748 1748 1766 1766 1766 1766 1766 1766 1757 1757 1757 1757 1757 1757 1757 1757 1757 1757 1757 1757 1757 1757 1757 1757 1757 1766 1766 1766 1766 0 0 0 0 0 0 0 0 0 0 4463 4463 4522 4522 4582 4645 4645 4645 4645 4645 4645 4645 4645 4645 4645 4645 4708 4708 0 0 0 4522 4405 4405 4405 4405 4405 4405 4582 0 0 0 0 0 0 0 0 0 0 0 0 0 0 0 0 0 0 0 0 0 0 0 0 0 0
0 0 0 0 0 0 0 0 0 0 0 0 0 0 0 0 0 0 0 0 0 0 0 0 0 0 0 0 0 0 0 0 0 4041 3994 3948 3903 3903 3948 3948 3948 3948 3948 3994 3994 0 0 0 0 0 0 0 0 0 3948 3948 3994 3994 3994 3994 3948 3948 3948 0 0 0 0 0 0 3948 3948 3948 3948 3948 3948 3994 3994 3994 3994 3994 4041 4041 0 0 0 0 0 0 0 4041 4041 4041 4041 4041 4041 4041 4041 4041 4041 4041 4041 4041 4041 4041 4041 4041 4041 4089 4089 4089 4089 4089 4089 4089 4089 4139 4139 4190 4190 4139 4139 4139 4139 4139 4139 4139 4139 4139 4139 4139 4139 4139 4139 4139 0 0 0 0 4139 4139 4139 4139 4139 4139 4190 4190 4190 4190 4190 4190 4241 4241 4241 4139 4139 4089 4089 4139 4139 4139 4190 0 0 0 0 0 1616 1616 1616 1624 1624 1624 1624 1632 1632 1632 1632 1632 1632 1632 1632 1624 1624 1616 1616 1616 1616 1609 1609 1609 1609 1609 1601 1594 1594 1594 1586 1586 1586 1586 1586 1579 1579 1579 1579 1579 1579 1572 1572 1572 1572 1572 1557 1557 1557 1557 1557 1550 1550 1550 1550 1550 1550 1550 1550 1550 1550 1543 1543 1543 1543 1543 1543 1543 1543 1536 1536 1543 1536 1536 1543 1671 1663 1663 1489 1489 1489 1489 1489 1489 1489 1489 1489 1489 1489 1489 1489 1496 1496 1503 1503 1509 1509 1639 1647 1639 1639 1639 1647 1647 1655 1655 1655 1663 1663 1655 1655 1655 1655 1655 1655 1655 1655 1663 1688 1705 1349 1349 1349 1349 1349 1349 1349 1349 1343 1343 1343 1343 1349 1349 1349 1349 1354 1354 1349 1349 1343 1338 1333 1328 1328 1632 1632 1647 1655 1663 1663 1663 1663 1302 1302 1307 1302 1302 1297 1297 1297 1292 1292 1292 1292 1292 1283 1283 1283 1283 1278 1278 1278 1273 1273 1273 1273 1268 1268 1268 1264 1264 1264 1264 1264 1259 1259 1259 1259 1259 1255 1255 1250 1250 1250 1250 1245 1245 1245 1245 1241 1241 1241 1241 1236 1236 1232 1232 1232 1232 1227 1227 1227 1227 1227 1227 1227 1227 1227 1227 1227 1223 1219 1219 1214 1214 1214 1214 1214 1210 1210 1210 1206 1206 1197 1197 1193 1193 1193 1193 1193 1189 1189 1193 1193 1193 1197 1197 1202 1206 1206 1210 1210 1210 1210 1722 1722 1705 1705 1713 1713 1713 1713 1713 1713 1713 1722 1722 1713 1713 1705 1705 1713 1713 1705 1705 1713 1713 1713 1722 1722 1722 1722 1722 1722 1722 1722 1722 1722 1722 1722 1722 1722 1722 1722 1713 1713 1722 1722 1713 1713 1713 1722 1722 1722 1713 1713 1722 1722 1722 1722 1722 1722 1722 1722 1722 1722 1722 1731 1731 1722 1722 1731 1731 1731 1731 1731 1731 1731 1722 1713 1713 1713 1713 1713 1713 1713 1713 1713 1713 1722 1722 1731 1731 1731 1731 1731 1731 1731 1722 1722 1722 1722 1722 1722 1713 1713 1722 1722 1722 1722 1722 1722 1731 1731 1731 1722 1722 1731 1731 1731 1739 1739 1739 1739 1739 1739 1739 1739 1739 1739 1739 1739 1748 1739 1739 1748 1748 1748 1748 1748 1748 1748 1739 1739 1739 1748 1748 1748 1748 1748 1748 1748 1748 1748 1757 1766 1766 1766 0 0 0 0 0 0 0 0 0 0 4463 4463 4522 4582 4582 4645 4645 4645 4645 4645 4645 4645 4645 4645 4582 4582 4582 4582 0 0 0 4405 4405 4405 4405 4405 4405 4405 4463 0 0 0 4645 4645 4645 4645 0 0 4645 4645 0 0 0 0 0 0 0 0 0 0 0 0 0 0 0
0 0 0 0 0 0 0 0 0 0 0 0 0 0 0 0 0 0 0 0 0 0 0 0 0 0 0 0 0 0 0 0 0 0 4041 3994 3903 3903 3948 3948 3948 3948 3948 3948 3948 0 0 0 0 0 0 0 0 3903 3903 3948 3948 3994 3994 3948 3948 3948 3948 0 0 0 0 0 0 3948 3948 3948 3948 3948 3948 3948 3948 3948 3948 3994 3994 3994 0 0 0 0 0 0 0 4041 4041 4041 4041 4041 4041 3994 3948 3948 4041 3903 3903 3948 3994 4041 4041 4041 4041 4041 4041 4041 4089 4089 4089 4089 4089 4089 4089 3994 4089 4089 4089 4089 4089 4089 4089 4089 4089 4139 4139 4139 4139 4139 4139 4139 0 0 0 0 4139 4139 4089 4089 4139 4139 4139 4139 4190 4190 4190 4190 4241 4241 4241 4139 4089 4089 4089 4139 4139 4139 4190 0 0 0 0 0 1616 1616 1616 1624 1624 1624 1624 1632 1632 1639 1639 1639 1639 1639 1632 1632 1624 1624 1624 1616 1616 1616 1616 1609 1609 1609 1601 1601 1601 1601 1594 1586 1586 1586 1586 1579 1579 1579 1579 1579 1579 1579 1579 1572 1572 1572 1557 1557 1557 1557 1557 1557 1550 1550 1550 1550 1550 1550 1550 1550 1550 1550 1550 1543 1543 1543 1543 1543 1543 1536 1536 1536 1536 1536 1536 1536 1529 1516 1496 1496 1489 1489 1489 1489 1489 1489 1489 1489 1489 1489 1489 1496 1496 1503 1503 1509 1509 1639 1639 1632 1632 1632 1624 1624 1616 1616 1632 1632 1639 1639 1639 1639 1639 1639 1639 1639 1639 1639 1632 1632 1349 1349 1349 1349 1349 1349 1349 1349 1349 1349 1343 1343 1349 1349 1349 1354 1354 1354 1354 1354 1349 1338 1333 1333 1639 1639 1639 1647 1655 1655 1663 1663 1655 1655 1647 1647 1647 1647 1647 1647 1647 1292 1292 1292 1292 1292 1288 1283 1283 1283 1283 1283 1283 1278 1278 1278 1273 1273 1268 1268 1264 1264 1264 1264 1264 1264 1259 1259 1259 1259 1255 1255 1250 1250 1250 1250 1245 1245 1245 1245 1245 1241 1241 1241 1241 1236 1232 1232 1232 1232 1232 1232 1232 1232 1227 1227 1227 1227 1227 1227 1227 1223 1223 1223 1223 1214 1214 1214 1214 1214 1210 1210 1206 1206 1202 1197 1193 1193 1193 1193 1193 1193 1193 1193 1193 1193 1197 1197 1202 1206 1210 1210 1210 1210 1214 1705 1696 1696 1696 1696 1705 1696 1696 1705 1705 1705 1705 1705 1696 1696 1696 1696 1696 1705 1696 1696 1696 1696 1705 1705 1705 1705 1713 1713 1713 1713 1713 1713 1713 1713 1713 1713 1713 1713 1713 1713 1713 1713 1713 1713 1705 1705 1705 1705 1696 1696 1696 1705 1713 1713 1713 1722 1722 1722 1722 1722 1713 1713 1713 1713 1713 1713 1722 1722 1722 1722 1713 1713 1713 1713 1705 1705 1705 1705 1705 1705 1705 1705 1705 1713 1713 1713 1722 1722 1722 1722 1722 1722 1722 1713 1713 1713 1713 1713 1713 1713 1713 1713 1713 1713 1713 1713 1713 1722 1713 1713 1713 1713 1713 1722 1722 1731 1731 1731 1739 1731 1731 1731 1722 1722 1722 1722 1722 1722 1722 1722 1722 1722 1722 1731 1731 1731 1722 1722 1722 1722 1731 1731 1731 1739 1739 1748 1739 1739 1739 1748 1748 1748 1748 0 0 0 0 0 0 0 0 0 0 4463 4463 4522 4582 4645 4645 4645 4645 4645 4645 4645 4645 4645 4645 4582 4582 0 0 0 4405 4405 4349 4349 4405 4405 4405 4463 4463 4463 4463 4522 4645 4645 4582 4582 4645 4645 0 4645 4645 0 0 0 0 0 0 0 0 0 0 0 0 0 0 0
0 0 0 0 0 0 0 0 0 0 0 0 0 0 0 0 0 0 0 0 0 0 0 0 0 0 0 0 0 0 0 0 0 0 4041 3994 3994 3994 3948 3948 3903 3903 3903 3903 3903 0 0 0 0 0 0 0 3816 3816 3859 3903 3948 3948 3948 3948 3948 3948 3948 0 0 0 0 0 0 3994 3948 3948 3948 3948 3948 3948 3948 3948 3948 3948 3994 3994 4041 0 0 0 0 0 0 3948 3948 3948 3994 3994 3948 3948 3948 3903 3903 3859 3859 3948 3948 3994 3994 3994 3994 3994 3994 4041 4089 4089 4089 4089 4041 4041 4041 3994 3994 3994 3994 3994 4041 4089 4089 4089 4089 4089 4089 4089 4089 4089 4139 4190 0 0 0 0 0 4089 4089 4089 4089 4139 4139 4139 4139 4190 4190 4190 4241 4241 4241 4139 4089 4089 4089 4041 4041 4139 4139 0 0 0 0 0 1616 1616 1624 1624 1624 1632 1632 1632 1639 1639 1639 1639 1639 1639 1639 1632 1624 1624 1624 1624 1616 1616 1616 1609 1609 1609 1609 1601 1601 1601 1594 1594 1586 1586 1586 1586 1586 1579 1579 1579 1579 1579 1579 1572 1572 1572 1564 1564 1557 1557 1557 1557 1557 1550 1550 1550 1550 1550 1550 1550 1550 1550 1550 1543 1543 1543 1543 1543 1543 1536 1536 1536 1536 1536 1536 1529 1529 1516 1509 1496 1496 1496 1496 1496 1496 1496 1489 1489 1489 1496 1496 1496 1496 1503 1509 1509 1509 1624 1616 1616 1624 1624 1616 1616 1616 1609 1609 1624 1601 1601 1624 1632 1632 1632 1632 1632 1632 1632 1632 1632 1349 1349 1349 1354 1354 1349 1349 1349 1349 1349 1349 1349 1349 1349 1349 1354 1354 1354 1354 1354 1354 1354 1647 1639 1639 1639 1639 1647 1647 1647 1647 1655 1647 1639 1639 1639 1647 1639 1639 1639 1639 1292 1292 1292 1292 1292 1288 1288 1283 1283 1283 1283 1283 1278 1278 1278 1273 1273 1273 1268 1268 1264 1264 1264 1264 1264 1264 1264 1259 1259 1255 1255 1250 1250 1250 1250 1250 1250 1250 1245 1245 1245 1241 1241 1241 1236 1236 1232 1232 1232 1232 1232 1232 1232 1232 1232 1227 1227 1227 1227 1227 1223 1223 1223 1219 1214 1214 1214 1214 1214 1210 1210 1210 1210 1206 1202 1197 1197 1193 1193 1193 1193 1193 1193 1193 1193 1197 1202 1202 1206 1210 1210 1214 1214 1214 1705 1688 1688 1688 1688 1696 1688 1688 1696 1688 1688 1696 1688 1688 1688 1688 1688 1688 1688 1688 1688 1688 1688 1696 1696 1696 1696 1696 1696 1696 1696 1705 1705 1705 1705 1705 1705 1705 1705 1705 1705 1705 1705 1705 1696 1696 1696 1696 1696 1688 1688 1688 1696 1696 1705 1705 1713 1713 1713 1713 1713 1705 1705 1705 1696 1696 1696 1696 1705 1705 1705 1705 1696 1696 1696 1696 1696 1696 1696 1696 1696 1696 1696 1696 1705 1705 1705 1705 1713 1713 1713 1713 1713 1713 1713 1705 1705 1705 1705 1705 1696 1696 1696 1696 1705 1705 1705 1705 1705 1705 1705 1696 1696 1705 1705 1713 1713 1722 1722 1731 1731 1731 1722 1722 1722 1722 1713 1713 1713 1713 1713 1713 1713 1713 1713 1713 1713 1713 1713 1713 1713 1722 1731 1731 1739 1739 1739 1739 1739 1739 1739 1748 1748 1748 0 0 0 0 0 0 0 0 0 0 0 4582 4582 4582 4582 4582 4582 4582 4645 4522 4522 0 4522 4522 0 0 0 0 0 4349 4349 4349 4349 4405 4405 4463 4463 4522 4522 4522 4522 4522 4582 4582 4582 4582 4645 4645 4645 4645 0 0 0 0 0 0 0 0 0 0 0 0 0 0 0
0 0 0 0 0 0 0 0 0 0 0 0 0 0 0 0 0 0 0 0 0 0 0 0 0 0 0 0 0 0 0 0 0 0 0 3948 3948 3994 3948 3948 3859 3859 3903 3903 3903 0 0 0 0 0 0 0 3816 3816 3859 3903 3948 3948 3948 3948 3948 3948 3948 0 0 0 0 0 0 3948 3948 3948 3948 3948 3948 3948 3948 3948 3948 3948 3948 3994 4041 0 0 0 0 0 0 3948 3903 3903 3994 3948 3948 3948 3948 3903 3903 3859 3859 3903 3948 3948 3948 3948 3948 3948 3994 3994 3994 4041 4089 4041 4041 4041 4041 3994 3994 3994 3994 3994 4041 4041 4089 4089 4089 4089 4089 4089 4089 4089 4139 0 0 0 0 0 0 4089 4089 4089 4089 4089 4089 4139 4139 4139 4139 4139 4190 4190 4139 4139 4139 4139 4041 4041 4041 4089 4089 0 0 0 0 0 1632 1632 1632 1632 1632 1632 1632 1639 1639 1639 1639 1639 1639 1639 1639 1632 1624 1624 1624 1624 1616 1616 1616 1616 1616 1609 1609 1601 1601 1601 1601 1594 1594 1586 1586 1586 1586 1586 1579 1579 1579 1579 1579 1579 1572 1572 1572 1572 1564 1564 1557 1557 1557 1557 1557 1557 1557 1550 1550 1550 1550 1550 1550 1550 1550 1543 1543 1543 1543 1536 1536 1536 1536 1536 1536 1529 1529 1523 1516 1503 1496 1496 1496 1496 1496 1496 1496 1496 1496 1496 1496 1496 1496 1503 1509 1516 1516 1624 1609 1609 1609 1609 1609 1609 1609 1609 1609 1601 1601 1601 1616 1616 1624 1624 1624 1624 1624 1624 1616 1616 1616 1349 1349 1354 1354 1354 1349 1349 1349 1349 1349 1349 1349 1349 1349 1354 1354 1354 1354 1354 1354 1647 1639 1639 1639 1639 1639 1639 1639 1632 1632 1639 1639 1639 1639 1639 1639 1639 1639 1639 1639 1639 1632 1632 1292 1292 1288 1288 1283 1283 1283 1283 1283 1283 1283 1283 1273 1273 1273 1268 1268 1264 1264 1264 1264 1264 1264 1264 1264 1259 1259 1255 1250 1250 1250 1250 1250 1250 1250 1250 1250 1245 1245 1245 1241 1241 1236 1236 1232 1232 1232 1232 1232 1232 1232 1232 1232 1232 1227 1227 1227 1227 1223 1223 1219 1219 1219 1214 1214 1214 1210 1210 1210 1210 1206 1206 1197 1197 1197 1197 1193 1193 1193 1193 1193 1193 1197 1202 1202 1206 1210 1210 1214 1214 1214 1680 1671 1671 1680 1680 1680 1680 1680 1688 1688 1688 1688 1680 1680 1680 1671 1671 1671 1671 1671 1671 1671 1680 1680 1680 1680 1680 1680 1680 1688 1688 1680 1680 1680 1680 1688 1680 1680 1688 1688 1688 1688 1688 1688 1688 1688 1680 1680 1680 1680 1680 1680 1688 1688 1696 1696 1705 1705 1705 1705 1696 1696 1688 1688 1688 1688 1688 1688 1696 1696 1696 1696 1688 1688 1688 1688 1688 1688 1696 1688 1688 1688 1688 1688 1688 1696 1696 1696 1696 1696 1696 1696 1696 1696 1705 1705 1696 1696 1696 1696 1688 1688 1688 1688 1696 1696 1696 1696 1696 1688 1688 1688 1688 1688 1688 1688 1696 1696 1705 1713 1713 1705 1705 1705 1705 1705 1696 1696 1696 1705 1705 1705 1705 1705 1705 1705 1705 1705 1705 1705 1713 1713 1722 1722 1731 1731 1731 1731 1731 1731 1739 1748 1748 1748 0 0 0 0 0 0 0 0 0 0 0 4645 4645 4582 4582 4582 4522 4522 4522 4522 4522 0 0 0 0 0 0 4349 4349 4349 4349 4349 4349 4405 4405 4405 4463 4522 4522 4522 4463 4463 4522 4522 4522 4582 4645 4645 4645 4645 0 0 0 0 0 0 0 0 0 0 0 0 0 0 0
0 0 0 0 0 0 0 0 0 0 0 0 0 0 0 0 0 0 0 0 0 0 0 0 0 0 0 0 0 0 0 0 0 0 0 3732 3732 3774 3774 3816 3816 3816 3816 3859 3859 3859 0 0 0 0 0 0 3816 3774 3774 3859 3903 3903 3903 3903 3903 3903 3903 0 0 0 0 0 0 3948 3948 3948 3903 3903 3903 3903 3903 3903 3903 3948 3948 3948 3994 0 0 0 0 0 0 0 3859 3859 3859 3903 3903 3903 3903 3903 3903 3859 3859 3903 3903 3948 3948 3948 3948 3948 3948 3948 3948 3948 4041 3994 3994 3994 3994 3994 3994 3994 3994 3994 3994 4041 4041 4041 4041 4041 4041 4089 4089 4089 4089 0 0 0 0 0 0 0 4041 4041 4089 4089 4089 4089 4089 4089 4089 4089 4139 4139 4139 4139 4139 3903 3994 3994 3948 3948 4041 0 0 0 0 0 1632 1632 1632 1639 1639 1639 1639 1639 1639 1639 1639 1639 1639 1639 1639 1639 1632 1632 1624 1624 1624 1616 1616 1616 1616 1616 1609 1609 1601 1601 1601 1594 1594 1586 1586 1586 1586 1586 1586 1579 1579 1579 1579 1579 1579 1572 1572 1572 1564 1564 1564 1557 1557 1557 1557 1557 1557 1557 1550 1550 1550 1550 1550 1550 1550 1543 1543 1543 1543 1543 1543 1543 1536 1536 1536 1529 1529 1523 1516 1503 1503 1496 1496 1496 1496 1496 1496 1496 1496 1496 1496 1496 1503 1509 1509 1509 1516 1609 1601 1601 1601 1601 1601 1601 1609 1601 1601 1601 1601 1601 1609 1609 1609 1609 1609 1616 1616 1616 1616 1616 1616 1349 1349 1354 1354 1354 1349 1349 1349 1349 1349 1349 1349 1349 1349 1354 1354 1354 1359 1354 1354 1647 1639 1632 1632 1632 1632 1624 1624 1616 1616 1624 1624 1624 1624 1632 1632 1632 1632 1632 1632 1632 1624 1624 1609 1609 1609 1609 1609 1283 1283 1283 1283 1288 1283 1283 1273 1273 1273 1268 1268 1264 1264 1264 1264 1264 1264 1264 1264 1259 1259 1255 1255 1255 1255 1250 1250 1250 1250 1250 1250 1245 1245 1245 1241 1241 1236 1236 1236 1236 1236 1232 1232 1232 1232 1232 1232 1232 1227 1227 1227 1227 1227 1223 1223 1219 1219 1214 1214 1214 1210 1210 1210 1210 1206 1206 1197 1197 1197 1197 1193 1193 1193 1193 1193 1197 1197 1202 1202 1206 1210 1210 1214 1214 1680 1671 1663 1663 1671 1671 1671 1671 1671 1680 1680 1680 1680 1671 1671 1671 1663 1663 1663 1663 1663 1663 1663 1671 1671 1671 1671 1671 1671 1671 1671 1671 1671 1663 1663 1663 1663 1663 1663 1663 1671 1671 1680 1680 1680 1680 1671 1671 1671 1671 1671 1671 1671 1671 1680 1680 1680 1688 1688 1688 1688 1688 1688 1688 1680 1680 1680 1688 1688 1688 1688 1688 1688 1688 1688 1688 1680 1680 1680 1680 1680 1680 1680 1680 1680 1680 1680 1688 1688 1688 1688 1680 1680 1680 1688 1696 1688 1680 1680 1688 1688 1680 1680 1680 1680 1688 1688 1688 1688 1688 1680 1680 1680 1680 1680 1680 1680 1680 1688 1688 1696 1696 1696 1696 1696 1696 1696 1688 1688 1688 1696 1696 1696 1696 1696 1696 1705 1696 1696 1696 1705 1705 1705 1713 1713 1713 1713 1722 1722 1722 1722 1739 1739 1757 1766 0 0 0 0 0 0 0 0 0 0 0 0 4582 4582 4522 4522 4463 4463 4522 4522 0 0 0 0 0 0 4349 4349 4349 4349 4349 4349 4349 4405 4405 4405 4463 4463 4522 4463 4463 4463 4463 4522 4522 4582 4645 4645 4645 4645 0 0 0 0 0 0 0 0 0 0 0 0 0 0 0
0 0 0 0 0 0 0 0 0 0 0 0 0 0 0 0 0 0 0 0 0 0 0 0 0 0 0 0 0 0 0 0 0 0 0 3732 3732 3774 3774 3774 3816 3816 3816 3816 3859 3816 3816 3816 3816 3816 3774 3774 3774 3774 3774 3816 3816 3774 3774 3816 3816 3816 3816 3816 0 0 0 0 0 3994 3948 3948 3903 3903 3903 3903 3903 3903 3903 3903 3903 3903 3948 0 0 0 0 0 0 0 3859 3816 3816 3903 3859 3859 3859 3903 3859 3859 3859 3903 3903 3948 3948 3903 3903 3903 3948 3948 3948 3903 3903 3948 3903 3903 3994 3994 3994 3994 3994 3994 3994 3994 3994 3994 3994 3994 4041 4041 4041 4041 4089 0 0 0 0 0 0 0 4041 4041 4041 4041 4041 4089 4089 4089 4089 4089 4089 4139 3994 3903 3903 3903 3903 3948 3948 3948 3994 0 0 0 0 0 1639 1639 1639 1639 1639 1639 1639 1639 1639 1639 1647 1639 1639 1639 1639 1639 1632 1632 1624 1624 1624 1616 1616 1616 1616 1616 1609 1609 1609 1609 1601 1594 1594 1594 1586 1586 1586 1586 1586 1586 1586 1579 1579 1579 1579 1579 1572 1572 1564 1564 1564 1557 1557 1557 1557 1557 1557 1557 1550 1550 1550 1550 1550 1550 1550 1543 1543 1543 1543 1543 1543 1543 1536 1536 1536 1529 1529 1529 1523 1509 1509 1503 1496 1496 1496 1496 1496 1496 1496 1496 1496 1503 1503 1509 1509 1509 1516 1601 1601 1601 1601 1601 1601 1601 1601 1601 1601 1594 1594 1601 1601 1601 1601 1601 1601 1609 1609 1601 1594 1594 1594 1354 1354 1354 1354 1354 1354 1354 1349 1349 1349 1349 1349 1349 1349 1354 1354 1354 1359 1365 1365 1639 1632 1632 1624 1624 1601 1601 1609 1609 1609 1609 1609 1609 1616 1624 1624 1624 1624 1616 1616 1616 1616 1616 1609 1609 1601 1601 1601 1601 1601 1601 1601 1601 1601 1601 1609 1609 1601 1601 1609 1609 1609 1609 1264 1264 1264 1259 1259 1259 1259 1255 1255 1255 1255 1250 1250 1250 1250 1250 1250 1250 1245 1245 1245 1241 1236 1236 1236 1236 1236 1236 1236 1236 1236 1232 1232 1232 1232 1227 1227 1227 1227 1223 1223 1219 1219 1214 1214 1214 1214 1214 1210 1210 1210 1202 1202 1197 1197 1197 1197 1193 1193 1193 1193 1197 1197 1202 1202 1206 1210 1210 1214 1214 1680 1639 1639 1647 1647 1647 1655 1655 1655 1671 1671 1671 1671 1663 1663 1655 1655 1655 1655 1655 1655 1655 1655 1663 1663 1663 1663 1663 1663 1663 1663 1663 1655 1655 1655 1655 1655 1655 1655 1655 1655 1663 1663 1663 1663 1663 1663 1663 1663 1663 1663 1663 1663 1663 1663 1663 1655 1655 1663 1663 1671 1671 1671 1671 1671 1671 1671 1671 1671 1671 1671 1671 1680 1680 1671 1671 1680 1671 1671 1680 1680 1671 1671 1671 1671 1671 1671 1671 1671 1671 1663 1663 1663 1663 1680 1680 1671 1671 1671 1671 1671 1671 1671 1671 1671 1680 1680 1680 1680 1671 1671 1671 1671 1671 1671 1671 1671 1671 1671 1671 1671 1671 1680 1680 1680 1688 1688 1680 1680 1680 1688 1688 1688 1680 1680 1688 1688 1680 1680 1688 1696 1696 1696 1696 1696 1688 1688 1688 1696 1713 1713 1739 1739 0 0 0 0 0 0 0 0 0 0 0 0 0 0 4645 4645 4463 4463 4463 4463 4463 4522 0 4463 0 0 0 4405 4349 4349 4405 4405 4405 4405 4405 4405 4405 4405 4463 4463 4463 4463 4463 4463 4463 4522 4522 4645 4645 4645 4582 4582 0 0 0 0 0 0 0 0 0 0 0 0 0 0 0
0 0 0 0 0 0 0 0 0 0 0 0 0 0 0 0 0 0 0 0 0 0 0 0 0 0 0 0 0 0 0 0 0 0 0 3732 3732 3732 3732 3774 3774 3774 3816 3816 3816 3816 3816 3816 3816 3816 3774 3774 3774 3774 3816 3816 3816 3774 3774 3774 3774 3774 3774 3774 3774 0 0 0 0 3948 3948 3903 3859 3859 3903 3903 3859 3859 3859 3859 3859 3859 3903 0 0 0 0 0 0 3816 3816 3816 3816 3903 3859 3859 3859 3903 3859 3859 3859 3859 3903 3903 3903 3903 3903 3903 3903 3903 3903 3903 3903 3903 3859 3859 3859 3859 3859 3903 3948 3948 3948 3948 3994 3994 3994 3994 3994 3994 3994 3994 3994 0 0 0 0 0 0 0 3994 3994 3994 3994 4041 4041 4041 4041 4041 4041 4041 4041 3948 3859 3859 3859 3859 3948 3903 3903 3948 3948 0 0 0 0 1639 1639 1639 1639 1639 1639 1639 1639 1639 1639 1647 1639 1639 1639 1639 1639 1639 1632 1632 1624 1624 1616 1616 1616 1616 1616 1609 1609 1609 1609 1609 1601 1601 1594 1594 1586 1586 1586 1586 1586 1586 1579 1579 1579 1579 1572 1572 1572 1564 1564 1564 1564 1564 1557 1557 1557 1557 1557 1550 1550 1550 1550 1550 1550 1550 1543 1543 1543 1543 1543 1543 1543 1536 1536 1536 1529 1529 1529 1523 1516 1509 1503 1503 1496 1496 1496 1496 1496 1496 1503 1503 1503 1503 1509 1516 1516 1516 1601 1601 1601 1601 1601 1601 1601 1601 1601 1601 1594 1594 1594 1601 1594 1586 1586 1594 1594 1586 1586 1586 1586 1586 1354 1354 1354 1354 1354 1354 1354 1354 1349 1349 1349 1349 1349 1349 1354 1354 1359 1359 1359 1365 1370 1632 1609 1609 1609 1601 1601 1594 1594 1594 1594 1594 1601 1609 1609 1616 1616 1616 1609 1609 1609 1609 1609 1601 1601 1601 1594 1594 1594 1594 1594 1594 1594 1594 1594 1594 1594 1594 1594 1601 1601 1601 1601 1601 1601 1601 1259 1259 1259 1259 1259 1255 1255 1250 1250 1250 1250 1250 1250 1250 1250 1250 1250 1245 1245 1241 1241 1236 1236 1236 1236 1236 1236 1236 1236 1232 1232 1232 1232 1232 1227 1227 1227 1223 1219 1219 1219 1214 1214 1214 1214 1210 1210 1210 1202 1202 1197 1197 1197 1197 1197 1193 1193 1193 1197 1197 1202 1206 1210 1210 1210 1214 1214 1609 1609 1624 1632 1632 1632 1632 1632 1632 1632 1632 1632 1632 1632 1632 1639 1632 1632 1632 1639 1639 1639 1639 1639 1639 1639 1639 1639 1639 1639 1639 1639 1639 1639 1639 1639 1639 1639 1639 1639 1639 1639 1639 1647 1647 1647 1647 1647 1655 1655 1655 1655 1647 1647 1647 1647 1639 1639 1647 1647 1647 1655 1655 1663 1663 1663 1663 1663 1663 1663 1663 1663 1663 1663 1663 1663 1663 1663 1663 1663 1663 1663 1663 1655 1655 1655 1647 1647 1647 1647 1639 1624 1624 1647 1655 1655 1655 1655 1655 1663 1663 1663 1663 1663 1663 1671 1671 1671 1663 1663 1663 1671 1671 1663 1663 1663 1663 1663 1655 1655 1663 1663 1663 1671 1663 1663 1671 1671 1671 1671 1671 1671 1671 1671 1663 1663 1671 1671 1671 1680 1680 1680 1680 1680 1680 1671 1671 1671 1680 1696 1705 1731 0 0 0 0 0 0 0 4463 4463 4405 4405 4405 4463 4463 4463 4463 4463 4463 4463 4463 4463 4463 4463 4463 0 0 0 0 4405 4349 4349 4405 4405 4405 4405 4405 4405 4405 4405 4463 4463 4463 4463 4463 4463 4463 4463 4463 0 0 0 4582 4582 0 0 0 0 0 0 0 0 0 0 0 0 0 0 0
0 0 0 0 0 0 0 0 0 0 0 0 0 0 0 0 0 0 0 0 0 0 0 0 0 0 0 0 0 0 0 0 0 0 3816 3732 3732 3732 3732 3732 3732 3732 3774 3774 3816 3816 3774 3774 3816 3816 3816 3732 3732 3732 3774 3774 3774 3774 3774 3774 3732 3732 3732 3732 3774 0 0 0 0 3948 3948 3903 3859 3859 3816 3816 3816 3816 3816 3774 3774 3816 3859 3859 0 0 0 0 0 3816 3816 3816 3859 3903 3903 3903 3903 3859 3816 3816 3816 3859 3859 3903 3903 3903 3903 3903 3903 3903 3903 3903 3903 3859 3774 3774 3859 3859 3859 3859 3903 3903 3948 3948 3948 3948 3948 3948 3994 3994 3948 3948 3948 3948 0 0 0 0 0 0 3994 3994 3994 3994 3994 3994 3994 3994 3994 3994 3994 3994 3903 3816 3816 3816 3816 3859 3859 3903 3903 3903 3903 0 0 0 0 1639 1639 1639 1639 1639 1639 1639 1639 1639 1647 1639 1639 1639 1639 1639 1639 1639 1632 1632 1624 1616 1616 1616 1616 1616 1616 1609 1609 1609 1609 1601 1601 1601 1594 1594 1586 1586 1586 1586 1586 1586 1579 1579 1579 1572 1572 1572 1564 1564 1564 1564 1564 1557 1557 1557 1557 1557 1557 1550 1550 1550 1550 1550 1550 1550 1550 1543 1543 1543 1543 1543 1543 1543 1536 1536 1529 1529 1529 1516 1516 1509 1503 1496 1496 1496 1496 1496 1503 1503 1503 1503 1509 1516 1516 1523 1523 1601 1601 1601 1601 1601 1601 1601 1601 1594 1594 1594 1586 1586 1586 1586 1586 1586 1586 1586 1579 1579 1579 1579 1579 1354 1354 1354 1354 1354 1354 1354 1354 1354 1354 1349 1349 1354 1354 1354 1354 1359 1359 1359 1365 1365 1632 1586 1586 1586 1586 1586 1586 1586 1586 1586 1586 1586 1594 1601 1601 1601 1601 1601 1601 1601 1601 1601 1594 1594 1594 1586 1586 1586 1586 1586 1586 1586 1586 1586 1586 1586 1586 1594 1594 1594 1594 1594 1594 1594 1594 1594 1594 1594 1594 1594 1594 1594 1250 1250 1250 1250 1250 1245 1245 1250 1250 1250 1245 1245 1245 1241 1236 1236 1236 1236 1236 1236 1236 1236 1232 1232 1232 1232 1232 1232 1232 1227 1227 1223 1223 1223 1223 1219 1214 1214 1214 1210 1210 1206 1202 1202 1197 1197 1197 1197 1197 1197 1197 1197 1197 1202 1206 1210 1214 1214 1586 1586 1594 1601 1609 1616 1616 1624 1624 1624 1616 1616 1616 1616 1616 1616 1624 1624 1624 1624 1624 1624 1624 1624 1624 1632 1624 1624 1624 1624 1624 1624 1624 1624 1624 1624 1624 1632 1632 1632 1632 1624 1624 1632 1632 1639 1639 1639 1639 1639 1639 1639 1632 1632 1632 1639 1632 1632 1632 1632 1624 1624 1624 1632 1632 1632 1632 1639 1639 1647 1647 1647 1647 1639 1639 1632 1632 1632 1632 1632 1632 1639 1639 1632 1632 1639 1639 1632 1624 1624 1624 1624 1624 1624 1624 1624 1624 1639 1639 1639 1639 1647 1647 1647 1647 1655 1655 1655 1655 1647 1647 1647 1647 1655 1655 1655 1655 1647 1647 1647 1655 1647 1647 1647 1647 1655 1647 1647 1655 1655 1655 1655 1663 1655 1655 1647 1647 1647 1647 1655 1663 1663 1671 1663 1663 1663 1663 1655 1655 1655 1655 1671 1680 1731 0 0 0 0 0 0 0 4463 4463 4405 4405 4405 4405 4405 4405 4405 4463 4463 4463 4463 4463 4463 4463 4463 0 0 0 0 4349 4349 4349 4405 4405 4405 4405 4405 4405 4405 4405 4405 4405 4463 4463 4463 4463 4463 4463 4463 4463 0 0 0 0 0 0 0 0 0 0 0 0 0 0 0 0 0 0 0
0 0 0 0 0 0 0 0 0 0 0 0 0 0 0 0 0 0 0 0 0 0 0 0 0 0 0 0 0 0 0 0 0 0 3816 3732 3732 3732 3732 3732 3732 3732 3732 3774 3816 3774 3774 3774 3774 3774 0 3732 3732 3732 3774 3774 3774 3774 3732 3732 3732 3732 3732 3732 3732 0 0 0 0 0 3903 3903 3859 3816 3816 3816 3816 3816 3816 3774 3774 3774 3816 3816 0 0 0 0 0 0 3816 3816 3859 3903 3859 3859 3859 3816 3774 3774 3774 3816 3816 3859 3859 3903 3903 3903 3903 3903 3903 3903 3859 3859 3774 3774 3816 3816 3816 3859 3859 3903 3903 3948 3948 3948 3948 3948 3948 3948 3948 3948 3948 3948 0 0 0 0 0 4041 3994 3994 3994 3948 3948 3994 3994 3994 3948 3948 3948 3948 3859 3816 3816 3774 3774 3816 3816 3859 3903 3903 3903 0 0 0 0 0 1639 1639 1639 1647 1639 1639 1639 1639 1647 1647 1647 1647 1647 1639 1639 1639 1632 1632 1624 1624 1616 1616 1616 1616 1616 1616 1616 1609 1609 1609 1609 1601 1594 1594 1586 1586 1586 1586 1586 1586 1579 1579 1579 1572 1572 1572 1572 1564 1564 1564 1564 1564 1557 1557 1557 1557 1557 1557 1550 1550 1550 1550 1550 1550 1550 1550 1543 1543 1543 1543 1543 1543 1536 1536 1529 1529 1529 1516 1516 1509 1509 1503 1496 1496 1496 1496 1503 1503 1503 1509 1509 1516 1516 1523 1523 1601 1601 1601 1594 1594 1594 1594 1601 1594 1594 1594 1586 1586 1586 1579 1579 1579 1579 1579 1579 1579 1579 1579 1579 1354 1354 1354 1354 1354 1354 1354 1354 1354 1354 1354 1354 1354 1354 1354 1354 1359 1359 1365 1365 1365 1550 1550 1572 1579 1579 1579 1579 1579 1586 1586 1579 1579 1586 1594 1601 1579 1579 1579 1594 1594 1594 1594 1586 1586 1586 1586 1579 1579 1579 1579 1572 1572 1572 1572 1572 1572 1572 1579 1586 1586 1586 1594 1594 1586 1586 1586 1586 1586 1594 1594 1594 1572 1572 1572 1572 1250 1250 1245 1245 1250 1250 1250 1245 1245 1579 1579 1236 1236 1236 1236 1236 1572 1241 1236 1236 1232 1232 1232 1232 1232 1232 1232 1227 1227 1223 1223 1219 1219 1214 1214 1210 1210 1210 1206 1206 1202 1202 1202 1197 1197 1197 1197 1197 1197 1197 1202 1206 1210 1214 1214 1579 1579 1594 1594 1601 1601 1601 1609 1609 1616 1616 1609 1609 1601 1601 1609 1609 1609 1609 1609 1609 1616 1616 1616 1616 1616 1616 1616 1616 1609 1609 1616 1616 1616 1616 1616 1616 1616 1616 1616 1624 1616 1616 1624 1624 1624 1624 1624 1624 1624 1624 1624 1624 1624 1624 1624 1624 1624 1616 1616 1616 1616 1624 1624 1624 1624 1624 1632 1632 1639 1639 1632 1632 1632 1632 1624 1624 1624 1624 1624 1632 1632 1632 1624 1624 1632 1632 1624 1616 1616 1616 1616 1616 1616 1616 1616 1616 1616 1616 1616 1616 1616 1616 1616 1624 1624 1624 1616 1616 1616 1624 1616 1616 1616 1624 1624 1632 1632 1632 1639 1639 1632 1632 1639 1632 1632 1632 1632 1632 1632 1639 1639 1639 1639 1639 1639 1639 1639 1639 1639 1639 1639 1639 1639 1639 1647 1647 1647 1647 1655 1655 1655 1663 1663 0 0 0 0 0 0 0 4463 4463 4405 4405 4405 4405 4405 4405 4405 4463 4463 4463 4463 4463 4463 4463 4463 0 4190 0 0 0 4405 4405 4405 4405 4405 4349 4349 4405 4405 4405 4405 4405 4405 4463 4405 4405 4405 4405 4463 4463 0 0 0 0 0 0 0 0 0 0 0 0 0 0 0 0 0 0 0
0 0 0 0 0 0 0 0 0 0 0 0 0 0 0 0 0 0 0 0 0 0 0 0 0 0 0 0 0 0 0 0 0 0 0 3732 3732 3692 3692 3692 3692 3732 3732 3732 3732 3732 3732 3732 3732 0 0 3774 3774 3774 3774 3774 3774 3732 3732 3732 3732 3692 3692 3692 3732 3774 0 0 0 0 0 3774 3774 3774 3774 3774 3774 3774 3774 3774 3774 3774 3774 3774 3774 3774 0 0 0 0 3816 3816 3816 3859 3816 3816 3816 3816 3774 3774 3774 3816 3816 3859 3859 3859 3859 3859 3859 3859 3859 3859 3816 3816 3816 3816 3816 3816 3816 3816 3859 3903 3903 3903 3948 3948 3948 3948 3948 3948 3948 3948 3948 3948 0 0 0 0 0 4041 3994 3948 3948 3948 3948 3948 3948 3948 3948 3948 3948 3948 3859 3816 3816 3774 3774 3816 3816 3859 3859 3903 3903 3903 0 0 0 0 1647 1647 1647 1647 1647 1639 1639 1639 1647 1647 1647 1647 1647 1647 1647 1647 1639 1639 1632 1624 1616 1616 1616 1616 1616 1616 1616 1616 1609 1609 1609 1601 1601 1594 1594 1586 1586 1586 1586 1586 1579 1579 1579 1579 1572 1572 1572 1572 1572 1564 1564 1564 1564 1564 1564 1557 1557 1557 1557 1557 1550 1550 1550 1550 1550 1550 1550 1550 1543 1543 1543 1543 1536 1536 1536 1529 1529 1523 1516 1516 1509 1503 1503 1503 1503 1503 1503 1503 1503 1509 1509 1516 1516 1523 1523 1523 1601 1601 1594 1594 1594 1594 1601 1594 1594 1594 1586 1586 1579 1579 1579 1579 1579 1579 1579 1579 1579 1572 1572 1354 1354 1354 1354 1354 1354 1354 1354 1354 1354 1354 1354 1354 1354 1354 1354 1359 1359 1365 1365 1365 1370 1543 1550 1550 1572 1572 1572 1572 1579 1579 1579 1579 1579 1579 1579 1572 1572 1572 1579 1572 1572 1572 1564 1564 1572 1564 1564 1564 1572 1564 1564 1564 1564 1564 1564 1564 1572 1579 1579 1579 1586 1579 1579 1579 1579 1579 1579 1579 1586 1586 1586 1572 1572 1572 1572 1572 1572 1572 1564 1564 1572 1572 1572 1572 1572 1572 1579 1572 1572 1579 1572 1572 1572 1564 1564 1236 1236 1241 1241 1236 1236 1232 1232 1227 1223 1223 1219 1214 1214 1214 1210 1210 1210 1206 1206 1202 1202 1202 1197 1197 1197 1197 1197 1197 1202 1206 1206 1214 1214 1219 1223 1572 1579 1586 1586 1594 1594 1601 1601 1601 1601 1601 1601 1601 1601 1601 1601 1601 1601 1601 1601 1601 1601 1601 1601 1601 1601 1601 1609 1609 1609 1609 1609 1609 1609 1609 1609 1609 1609 1609 1609 1609 1609 1609 1616 1616 1616 1616 1616 1616 1616 1616 1616 1616 1616 1616 1609 1609 1616 1616 1616 1616 1616 1616 1616 1616 1616 1616 1624 1624 1624 1624 1616 1616 1616 1616 1616 1616 1616 1624 1624 1624 1624 1616 1616 1624 1624 1616 1616 1609 1609 1616 1609 1609 1609 1609 1609 1609 1601 1601 1609 1609 1609 1609 1616 1616 1616 1616 1609 1609 1609 1609 1609 1609 1616 1616 1624 1624 1624 1632 1632 1624 1624 1624 1624 1624 1624 1624 1624 1624 1624 1624 1632 1632 1632 1632 1632 1632 1624 1624 1624 1624 1624 1632 1639 1639 1639 1647 1647 1647 1647 1647 1647 1647 0 0 0 0 0 0 4405 4405 4405 4349 4349 4349 4349 4349 4349 4349 4349 4349 4349 4349 4349 4241 4241 4190 4190 4190 4241 0 0 4349 4349 4405 4349 4349 4349 4349 4349 4349 4349 4349 4349 4349 4405 4349 4349 4405 4405 4405 4405 0 0 0 0 0 0 0 0 0 0 0 0 0 0 0 0 0 0 0
0 0 0 0 0 0 0 0 0 0 0 0 0 0 0 0 0 0 0 0 0 0 0 0 0 0 0 0 0 0 0 0 0 0 0 3692 3692 3692 3692 3692 3692 3692 3692 3732 3732 3692 3692 3692 3692 0 0 3774 3774 3774 3774 3774 3732 3692 3692 3732 3732 3692 3692 3692 3732 3732 3732 0 0 0 3614 3614 3732 3732 3732 3732 3774 3774 3774 3774 3774 3774 3774 3774 3774 3774 3774 0 0 0 3816 3816 3816 3816 3816 3816 3774 3774 3774 3774 3774 3774 3774 3816 3859 3859 3859 3859 3816 3816 3816 3816 3816 3816 3774 3774 3816 3816 3816 3816 3816 3859 3859 3903 3903 3903 3903 3903 3903 3903 3903 3903 3903 3903 3948 0 0 0 0 3994 3994 3948 3948 3948 3948 3948 3948 3948 3948 3948 3948 3948 3903 3859 3816 3816 3816 3816 3816 3859 3859 3859 3859 3859 3859 0 0 0 1647 1647 1647 1647 1647 1639 1639 1647 1647 1647 1647 1647 1647 1647 1647 1655 1647 1647 1639 1624 1624 1624 1624 1616 1616 1616 1616 1616 1609 1609 1609 1609 1601 1594 1594 1586 1586 1586 1586 1586 1579 1579 1579 1579 1579 1579 1579 1572 1572 1572 1572 1572 1564 1564 1564 1564 1557 1557 1557 1557 1550 1550 1550 1550 1550 1550 1550 1550 1550 1550 1543 1543 1543 1536 1536 1536 1529 1523 1523 1516 1516 1509 1503 1503 1503 1503 1503 1503 1509 1509 1509 1516 1516 1523 1523 1523 1601 1601 1601 1601 1601 1601 1601 1601 1594 1594 1586 1586 1579 1579 1579 1579 1579 1579 1579 1572 1572 1572 1572 1572 1354 1354 1354 1354 1359 1359 1359 1354 1354 1354 1354 1354 1354 1354 1359 1359 1365 1370 1370 1370 1370 1543 1550 1550 1550 1550 1564 1564 1572 1572 1572 1572 1572 1564 1564 1550 1550 1557 1572 1564 1564 1564 1557 1557 1557 1557 1557 1557 1557 1557 1557 1564 1564 1564 1564 1564 1564 1572 1572 1572 1572 1579 1579 1572 1572 1572 1572 1564 1564 1564 1564 1564 1564 1564 1564 1572 1572 1564 1564 1564 1564 1564 1572 1572 1572 1572 1572 1572 1572 1572 1572 1572 1572 1564 1564 1564 1564 1564 1564 1564 1564 1564 1564 1564 1572 1572 1219 1214 1214 1214 1210 1210 1210 1206 1206 1202 1202 1202 1202 1202 1202 1202 1202 1202 1202 1206 1210 1214 1219 1219 1219 1572 1579 1586 1586 1586 1586 1594 1601 1601 1601 1594 1594 1594 1594 1594 1594 1594 1594 1594 1594 1594 1594 1594 1594 1594 1594 1594 1594 1601 1601 1601 1601 1601 1601 1594 1594 1601 1601 1601 1601 1601 1601 1601 1609 1601 1601 1601 1609 1609 1609 1609 1609 1609 1609 1609 1601 1601 1601 1601 1601 1601 1601 1609 1609 1609 1609 1609 1616 1616 1609 1609 1609 1609 1609 1609 1609 1609 1609 1616 1616 1616 1616 1609 1609 1609 1609 1601 1601 1601 1601 1609 1601 1601 1601 1601 1601 1601 1601 1601 1609 1609 1609 1609 1609 1616 1616 1609 1601 1601 1601 1601 1601 1601 1609 1609 1616 1616 1616 1616 1616 1616 1616 1616 1616 1616 1616 1616 1616 1616 1616 1616 1616 1616 1616 1616 1616 1616 1616 1616 1616 1616 1616 1616 1624 1624 1624 1632 1639 1639 1639 1639 1639 1639 1647 0 0 4405 4405 4405 4405 4405 4405 4349 4349 4349 4349 4295 4295 4295 4295 4295 4295 4295 4295 4241 4241 4190 4190 4190 4241 4241 4349 4349 4349 4349 4295 4295 4241 4241 4349 4349 4349 4349 4349 4349 4405 4349 4349 4349 4349 4349 0 0 0 0 0 0 0 0 0 0 0 0 0 0 0 0 0 0 0 0
0 0 0 0 0 0 0 0 0 0 0 0 0 0 0 0 0 0 0 0 0 0 0 0 0 0 0 0 0 0 0 0 0 0 0 3653 3653 3653 3653 3653 3653 3692 3692 3692 3692 3653 3653 3653 3653 0 0 0 0 3732 3732 3732 3692 3692 3692 3692 3692 3692 3692 3692 3692 3732 3692 3692 0 0 0 3614 3614 3614 3614 3692 3732 3732 3732 3732 3732 3732 3816 3774 3774 3774 3774 0 0 0 3816 3816 3816 3816 3816 3816 3774 3774 3732 3732 3732 3732 3732 3774 3774 3816 3774 3774 3774 3774 3774 3816 3774 3774 3774 3774 3816 3816 3816 3816 3816 3859 3859 3903 3903 3903 3903 3903 3903 3903 3903 3903 3903 3903 3948 3994 0 3859 0 3994 3994 3948 3903 3903 3903 3903 3903 3903 3903 3903 3903 3903 3903 3859 3816 3774 3774 3774 3774 3816 3859 3859 3859 3859 3859 0 0 0 0 0 1647 1647 1647 1639 1639 1647 1647 1647 1647 1647 1647 1655 1655 1663 1655 1655 1647 1632 1624 1624 1624 1624 1616 1616 1616 1616 1609 1609 1609 1609 1601 1594 1594 1586 1586 1586 1586 1586 1579 1579 1579 1579 1579 1579 1579 1579 1572 1572 1572 1572 1564 1564 1564 1564 1564 1557 1557 1557 1550 1550 1550 1550 1550 1550 1550 1550 1550 1550 1543 1543 1543 1536 1536 1536 1529 1523 1523 1523 1516 1516 1509 1503 1503 1503 1503 1503 1509 1509 1509 1516 1516 1523 1523 1523 1601 1601 1601 1601 1601 1601 1601 1601 1594 1594 1586 1586 1586 1586 1579 1579 1579 1579 1579 1572 1572 1572 1572 1572 1572 1359 1359 1359 1359 1359 1359 1359 1354 1354 1354 1354 1354 1359 1359 1365 1370 1376 1376 1376 1376 1543 1543 1543 1543 1543 1543 1543 1564 1564 1543 1543 1543 1529 1529 1536 1536 1550 1557 1557 1557 1557 1550 1550 1550 1550 1550 1550 1557 1557 1557 1557 1557 1557 1557 1557 1564 1564 1564 1572 1572 1572 1572 1572 1564 1564 1564 1557 1557 1557 1557 1557 1557 1550 1550 1557 1564 1557 1557 1557 1557 1557 1564 1564 1564 1564 1564 1564 1564 1564 1564 1564 1564 1564 1564 1564 1564 1564 1564 1557 1557 1564 1564 1564 1564 1572 1572 1219 1214 1210 1210 1210 1210 1206 1206 1206 1202 1202 1202 1202 1202 1202 1202 1202 1206 1206 1210 1214 1219 1219 1219 1572 1572 1579 1579 1579 1579 1586 1594 1594 1594 1594 1594 1594 1586 1586 1586 1586 1594 1586 1586 1586 1586 1586 1586 1586 1586 1586 1586 1594 1594 1594 1594 1594 1594 1586 1586 1594 1594 1594 1594 1594 1594 1594 1594 1594 1594 1594 1594 1601 1594 1594 1594 1594 1594 1594 1594 1594 1594 1594 1594 1594 1594 1594 1594 1594 1594 1601 1601 1601 1594 1594 1594 1594 1594 1594 1601 1609 1609 1609 1616 1609 1609 1594 1594 1594 1594 1594 1594 1594 1594 1601 1594 1594 1594 1594 1594 1594 1594 1594 1601 1609 1609 1609 1609 1609 1609 1601 1594 1594 1594 1594 1594 1594 1601 1601 1609 1609 1601 1601 1601 1609 1609 1601 1601 1609 1609 1609 1609 1609 1609 1609 1609 1609 1609 1609 1609 1616 1616 1609 1609 1609 1609 1609 1609 1609 1609 1616 1632 1632 1632 1639 1632 1632 1639 0 0 4349 4349 4405 4405 4405 4349 4349 4349 4349 4295 4295 4295 4295 4295 4241 4241 4241 4241 4241 4241 4241 4241 4241 4295 4295 4295 4295 4349 4349 4295 4295 4241 4241 4349 4349 4041 4041 4041 4089 4349 4295 4241 4241 4295 4295 4241 4190 4190 4241 0 0 0 0 0 0 0 0 0 0 0 0 0 0 0 0
0 0 0 0 0 0 0 0 0 0 0 0 0 0 0 0 0 0 0 0 0 0 0 0 0 0 0 0 0 0 0 0 0 0 0 3653 3653 3653 3653 3653 3653 3653 3653 3653 3692 3653 3653 3653 0 0 0 3774 0 3732 3732 3692 3692 3692 3692 3692 3692 3692 3692 3692 3692 3732 3692 3653 3653 0 0 3614 3614 3614 3614 3692 3732 3732 3732 3732 3732 3732 3774 3816 3816 3859 3859 0 0 0 0 3816 3816 3816 3774 3774 3732 3732 3732 3732 3732 3732 3732 3732 3732 3774 3774 3774 3774 3774 3774 3816 3774 3774 3774 3774 3774 3774 3774 3774 3816 3859 3859 3859 3859 3859 3859 3859 3859 3859 3859 3859 3859 3859 3903 3859 3859 3859 3903 3859 3859 3859 3859 3903 3903 3903 3903 3903 3903 3903 3903 3903 3903 3859 3816 3774 3774 3774 3774 3816 3859 3859 3859 3816 3816 3816 3816 0 0 1647 1647 1647 1647 1647 1647 1647 1647 1647 1647 1647 1655 1655 1663 1671 1671 1680 1680 1632 1624 1624 1624 1624 1616 1616 1616 1616 1616 1609 1609 1609 1609 1601 1601 1594 1594 1586 1586 1586 1586 1579 1579 1579 1579 1579 1579 1579 1579 1572 1572 1572 1572 1564 1564 1564 1564 1557 1557 1557 1557 1557 1557 1550 1550 1550 1550 1550 1550 1550 1543 1543 1543 1543 1543 1536 1529 1529 1523 1523 1516 1516 1509 1509 1509 1503 1503 1509 1509 1509 1509 1516 1516 1523 1523 1523 1601 1601 1601 1601 1601 1601 1601 1601 1601 1601 1594 1586 1586 1586 1579 1579 1579 1579 1579 1579 1579 1579 1579 1572 1572 1359 1359 1359 1359 1365 1365 1359 1359 1359 1354 1354 1359 1359 1359 1370 1376 1376 1376 1376 1376 1536 1543 1543 1543 1543 1536 1536 1536 1536 1536 1536 1536 1529 1529 1529 1529 1543 1543 1543 1543 1550 1543 1543 1543 1536 1536 1536 1543 1543 1543 1543 1550 1550 1543 1543 1550 1550 1557 1557 1557 1564 1564 1557 1557 1550 1550 1550 1550 1550 1550 1550 1550 1543 1543 1543 1543 1543 1550 1550 1550 1550 1550 1550 1557 1557 1557 1557 1557 1557 1557 1557 1557 1564 1564 1557 1557 1557 1557 1557 1557 1564 1564 1564 1564 1564 1572 1572 1214 1210 1210 1210 1210 1210 1210 1206 1206 1202 1202 1202 1202 1202 1206 1206 1206 1210 1214 1219 1223 1219 1219 1557 1564 1572 1572 1572 1572 1579 1586 1579 1579 1579 1579 1579 1579 1579 1579 1579 1586 1586 1579 1579 1579 1579 1579 1579 1579 1579 1579 1586 1586 1579 1579 1586 1586 1579 1579 1579 1579 1579 1579 1579 1586 1586 1586 1586 1586 1586 1594 1594 1586 1586 1586 1586 1594 1594 1586 1586 1586 1586 1586 1586 1579 1579 1579 1579 1586 1572 1572 1572 1572 1572 1572 1579 1579 1586 1586 1594 1601 1609 1609 1609 1594 1579 1579 1579 1579 1579 1586 1586 1586 1586 1579 1579 1579 1579 1579 1586 1586 1586 1594 1601 1601 1609 1609 1609 1601 1594 1594 1594 1594 1594 1586 1586 1594 1594 1601 1594 1594 1594 1594 1594 1601 1594 1594 1601 1601 1601 1594 1594 1594 1594 1594 1594 1594 1601 1601 1601 1601 1601 1601 1594 1594 1594 1594 1594 1594 1609 1616 1624 1624 1624 1632 1632 1639 0 0 4349 4349 4349 4349 4349 4349 4295 4295 4295 4295 4241 4241 4241 4241 4241 4241 4190 4190 4190 4190 4190 4190 4190 4190 4190 4190 0 0 0 0 0 0 0 0 4349 4041 4041 4041 4089 4089 4190 4190 4241 4241 4241 4241 4190 4190 4190 0 4241 4241 4241 0 0 0 0 0 0 0 0 0 0 0 0
0 0 0 0 0 0 0 0 0 0 0 0 0 0 0 0 0 0 0 0 0 0 0 0 0 0 0 0 0 0 0 0 0 0 0 3653 3653 3653 3653 3653 3653 3653 3653 3653 3653 3653 3653 3692 3692 3653 0 3774 3774 3732 3732 3692 3692 3692 3692 3692 3653 3653 3653 3653 3692 3692 3692 3614 3614 0 0 0 0 3653 3653 3692 3692 3692 3692 3692 3732 3732 3774 3774 3816 3859 3859 0 0 0 0 3816 3774 3774 3774 3774 3732 3732 3732 3732 3732 3732 3732 3732 3732 3774 3774 3774 3774 3774 3774 3774 3774 3774 3774 3774 3774 3774 3774 3774 3816 3816 3816 3859 3859 3859 3859 3859 3859 3859 3859 3859 3859 3859 3859 3859 3859 3903 3903 3653 3859 3859 3859 3859 3903 3859 3859 3859 3859 3859 3859 3903 3859 3816 3816 3816 3816 3816 3816 3816 3859 3859 3859 3816 3816 3816 0 1655 1655 0 1647 1647 1647 1647 1647 1647 1647 1647 1647 1655 1655 1655 1663 1671 1671 1680 1680 1766 1766 1624 1624 1624 1616 1616 1616 1616 1616 1616 1609 1609 1609 1609 1601 1594 1594 1594 1594 1586 1586 1586 1586 1579 1579 1579 1579 1579 1579 1579 1572 1572 1572 1572 1564 1564 1564 1564 1557 1557 1557 1557 1557 1557 1557 1557 1557 1550 1550 1550 1550 1550 1543 1543 1543 1543 1529 1529 1523 1523 1516 1516 1516 1509 1509 1509 1509 1509 1509 1509 1509 1516 1516 1523 1523 1523 1601 1601 1609 1609 1609 1609 1609 1601 1601 1601 1594 1594 1586 1586 1579 1579 1579 1579 1579 1579 1579 1579 1579 1579 1579 1365 1365 1365 1365 1365 1365 1365 1359 1359 1359 1359 1359 1365 1365 1370 1376 1376 1376 1381 1381 1536 1536 1536 1543 1536 1536 1536 1536 1536 1536 1536 1536 1529 1529 1529 1529 1536 1536 1536 1543 1543 1536 1536 1536 1529 1529 1529 1536 1536 1536 1536 1536 1536 1529 1529 1529 1536 1536 1543 1543 1550 1557 1550 1543 1543 1543 1543 1543 1543 1543 1543 1543 1543 1543 1543 1543 1543 1543 1543 1543 1543 1543 1543 1550 1550 1550 1550 1550 1550 1550 1550 1550 1557 1557 1557 1557 1557 1557 1557 1557 1557 1557 1557 1557 1564 1572 1572 1210 1210 1210 1210 1210 1210 1210 1210 1206 1206 1202 1202 1206 1206 1206 1206 1210 1210 1214 1223 1223 1223 1223 1557 1557 1564 1564 1564 1572 1572 1579 1579 1572 1572 1572 1572 1564 1564 1572 1572 1579 1572 1572 1572 1572 1572 1572 1564 1564 1572 1572 1579 1579 1572 1572 1572 1572 1564 1564 1572 1572 1572 1572 1572 1572 1579 1579 1579 1579 1579 1586 1586 1579 1579 1579 1579 1579 1579 1572 1572 1572 1572 1572 1572 1572 1572 1572 1572 1572 1572 1572 1572 1572 1572 1572 1572 1572 1572 1579 1579 1579 1586 1586 1564 1564 1564 1564 1564 1564 1564 1572 1572 1572 1572 1564 1564 1564 1572 1572 1572 1579 1579 1579 1586 1601 1609 1586 1586 1594 1586 1586 1586 1586 1586 1586 1586 1586 1586 1594 1594 1586 1586 1594 1594 1594 1586 1586 1594 1594 1594 1594 1586 1586 1586 1586 1586 1586 1594 1586 1586 1594 1594 1594 1594 1594 1594 1594 1594 1594 1609 1609 1616 1616 1624 0 0 0 0 0 4295 4295 4295 4295 4295 4295 4241 4241 4241 4241 4241 4241 4241 4241 4241 4190 4190 4190 4190 4190 4190 4190 4190 4190 4190 4190 4190 4190 0 0 0 0 0 4089 4089 4089 4089 4089 4089 4089 4139 4139 4190 4190 4241 4241 4190 4190 4190 4241 4241 4241 4241 0 0 0 0 0 0 0 0 0 0 0 0
0 0 0 0 0 0 0 0 0 0 0 0 0 0 0 0 0 0 0 0 0 0 0 0 0 0 0 0 0 0 0 0 0 0 0 3653 3653 3614 3614 3614 3614 3653 3653 3653 3653 3653 3653 3653 3653 3653 0 3774 3774 3774 3692 3653 3653 3653 3653 3653 3653 3653 3653 3653 3653 3692 3692 3614 3614 0 0 0 0 3653 3653 3653 3653 3692 3653 3653 3653 3692 3732 3774 3774 3859 0 0 0 0 0 0 3732 3732 3732 3732 3692 3692 3692 3692 3692 3692 3692 3732 3732 3732 3732 3732 3774 3774 3774 3774 3774 3774 3774 3774 3774 3774 3774 3774 3774 3774 3774 3816 3816 3816 3816 3816 3816 3816 3816 3816 3816 3816 3816 3816 3774 3614 3614 3653 3653 3653 3692 3774 3774 3816 3816 3816 3816 3816 3816 3859 3859 3816 3816 3816 3816 3816 3816 3816 3816 3816 3816 3816 3816 3816 0 1655 1655 1655 1655 1647 1647 1647 1647 1647 1647 1647 1655 1655 1663 1663 1671 1671 1671 1680 1680 1766 1766 1776 1776 1776 1766 1616 1616 1616 1616 1616 1609 1609 1609 1609 1601 1594 1594 1594 1594 1594 1586 1586 1586 1579 1579 1579 1579 1579 1579 1579 1572 1572 1572 1572 1572 1564 1564 1564 1557 1557 1557 1557 1557 1557 1557 1557 1557 1557 1550 1550 1550 1550 1550 1550 1543 1543 1529 1529 1523 1523 1523 1516 1516 1509 1509 1509 1509 1509 1509 1509 1516 1516 1516 1523 1523 1523 1609 1609 1609 1609 1609 1609 1609 1609 1601 1601 1601 1601 1594 1586 1586 1586 1586 1586 1579 1579 1579 1579 1579 1579 1579 1365 1365 1365 1365 1365 1365 1365 1365 1359 1359 1365 1365 1365 1365 1370 1376 1376 1376 1381 1381 1392 1536 1536 1543 1536 1536 1529 1529 1529 1529 1529 1529 1529 1529 1529 1529 1529 1529 1536 1536 1543 1529 1529 1529 1523 1523 1523 1523 1523 1523 1523 1523 1523 1529 1523 1523 1529 1529 1536 1529 1529 1529 1536 1536 1536 1536 1536 1536 1536 1536 1536 1536 1536 1536 1536 1536 1543 1543 1543 1536 1536 1536 1536 1543 1543 1543 1543 1543 1543 1543 1543 1550 1550 1550 1550 1550 1550 1550 1543 1543 1543 1543 1557 1557 1564 1564 1564 1206 1206 1206 1206 1210 1210 1210 1210 1210 1206 1206 1206 1206 1206 1210 1210 1214 1214 1219 1223 1223 1223 1557 1543 1543 1550 1557 1557 1564 1564 1564 1564 1557 1557 1557 1550 1550 1557 1557 1564 1564 1564 1564 1564 1564 1564 1557 1557 1557 1557 1564 1564 1564 1564 1564 1564 1557 1557 1557 1557 1557 1564 1564 1564 1564 1564 1564 1564 1572 1572 1572 1564 1564 1564 1564 1564 1564 1564 1564 1564 1564 1557 1557 1564 1564 1564 1564 1564 1564 1564 1564 1564 1564 1564 1564 1564 1564 1564 1564 1564 1564 1564 1557 1557 1557 1557 1557 1557 1557 1557 1564 1564 1564 1564 1564 1564 1564 1564 1564 1564 1564 1529 1529 1523 1523 1523 1586 1586 1594 1579 1579 1579 1579 1586 1579 1579 1579 1586 1586 1586 1579 1579 1579 1579 1579 1579 1579 1579 1579 1579 1579 1579 1579 1586 1586 1586 1586 1586 1586 1586 1586 1586 1586 1586 1586 1586 1586 1586 1586 1594 1601 1609 1616 1624 0 0 0 0 0 4295 4241 4241 4295 4295 4295 4241 4241 4241 4241 4241 4241 4190 4190 4190 4190 4139 4139 4190 4190 4190 4190 4190 4190 4190 4139 4139 0 4089 0 0 0 0 0 4089 4089 4089 4089 4089 4089 4139 4139 4139 4190 4190 4190 4139 4139 4190 4190 4190 4190 4241 0 0 0 0 0 0 0 0 0 0 0 0
0 0 0 0 0 0 0 0 0 0 0 0 0 0 0 0 0 0 0 0 0 0 0 0 0 0 0 0 0 0 0 0 0 0 0 3653 3614 3614 3614 3614 3614 3653 3653 3653 3653 3653 3653 3653 3653 3653 3333 3774 3774 3732 3653 3653 3653 3653 3653 3653 3653 3653 3653 3653 3653 3692 3692 3692 0 0 0 0 0 0 3653 3653 3653 3653 3653 3653 3653 3653 3732 3732 3732 3816 0 0 0 0 0 0 3732 3692 3692 3732 3692 3692 3692 3692 3692 3692 3692 3732 3732 3732 3732 3732 3732 3732 3774 3774 3774 3774 3774 3774 3774 3774 3774 3774 3774 3774 3774 3774 3774 3774 3816 3774 3774 3774 3774 3816 3816 3816 3816 3774 3774 3614 3614 3653 3653 3653 3692 3774 3774 3774 3816 3816 3816 3816 3816 3816 3859 3774 3774 3732 3732 3732 3732 3732 3732 3774 3774 3816 3816 3732 0 0 1655 1655 1647 1647 1647 1647 1647 1647 1647 1647 1655 1655 1663 1663 1671 1671 1680 1688 1766 1766 1766 1776 1776 1776 1766 1766 1766 1757 1757 1757 1748 1748 1748 1748 1748 1748 1739 1594 1594 1594 1586 1586 1586 1579 1579 1579 1579 1572 1572 1572 1572 1572 1572 1572 1572 1564 1564 1564 1557 1557 1557 1557 1557 1557 1557 1557 1557 1557 1557 1550 1550 1550 1550 1550 1543 1543 1529 1529 1523 1523 1523 1516 1516 1516 1516 1509 1509 1509 1509 1516 1516 1516 1516 1523 1523 1523 1624 1616 1616 1616 1616 1616 1616 1616 1609 1609 1601 1601 1594 1594 1594 1594 1586 1586 1586 1586 1586 1586 1586 1579 1579 1370 1370 1370 1370 1370 1370 1365 1365 1359 1359 1365 1370 1370 1370 1376 1376 1381 1381 1387 1387 1392 1536 1536 1536 1536 1536 1529 1529 1529 1529 1529 1529 1523 1523 1529 1529 1523 1523 1529 1529 1529 1523 1523 1523 1516 1516 1516 1516 1516 1516 1516 1516 1516 1523 1516 1516 1523 1523 1523 1523 1523 1523 1523 1523 1529 1529 1529 1529 1529 1529 1529 1523 1523 1523 1523 1523 1529 1536 1536 1536 1536 1536 1536 1536 1536 1536 1536 1536 1536 1536 1536 1543 1543 1543 1536 1536 1536 1536 1536 1536 1543 1543 1543 1550 1550 1550 1550 1197 1197 1197 1206 1210 1210 1214 1210 1210 1210 1206 1206 1210 1210 1210 1210 1214 1214 1219 1223 1223 1223 1529 1529 1529 1543 1550 1550 1550 1550 1550 1550 1543 1543 1543 1543 1543 1543 1550 1550 1557 1557 1557 1557 1557 1557 1550 1550 1550 1550 1550 1550 1543 1543 1543 1550 1543 1543 1550 1550 1550 1550 1550 1550 1550 1557 1557 1557 1557 1557 1557 1557 1557 1557 1557 1557 1550 1550 1557 1557 1550 1550 1550 1557 1557 1557 1557 1557 1557 1557 1557 1557 1557 1557 1557 1557 1557 1557 1557 1557 1550 1550 1543 1543 1550 1543 1543 1550 1550 1557 1557 1557 1557 1557 1557 1557 1557 1557 1550 1550 1529 1529 1529 1509 1509 1516 1516 1516 1579 1579 1579 1579 1579 1579 1579 1579 1579 1579 1572 1572 1572 1572 1572 1572 1564 1564 1564 1564 1564 1564 1564 1564 1564 1572 1579 1579 1579 1579 1579 1579 1579 1579 1579 1579 1579 1579 1579 1586 1586 1586 1594 1594 1616 0 0 0 0 0 0 4295 4241 4241 4295 4295 4295 4241 4241 4241 4241 4190 4190 4190 4139 4139 4139 4139 4139 4190 4190 4190 4190 4190 4190 4190 4139 4089 4089 4089 4190 0 0 0 0 4089 4089 4089 4089 4089 4089 4089 4089 4139 4139 4139 4139 4139 4139 4139 4190 4190 4190 4241 0 0 0 0 0 0 0 0 0 0 0 0
0 0 0 0 0 0 0 0 0 0 0 0 0 0 0 0 0 0 0 0 0 0 0 0 0 0 0 0 0 0 0 0 0 0 3653 3653 3614 3614 3614 3614 3614 3614 3614 3614 3614 3614 3614 3614 3614 3614 3333 3333 3333 3333 3614 3614 3614 3614 3614 3614 3614 3653 3653 3653 3653 3653 3692 3653 3653 0 0 0 0 0 0 3614 3614 3614 3614 3614 3614 3653 3653 3653 3653 3732 0 0 0 0 0 0 3732 3653 3653 3692 3653 3653 3653 3653 3653 3692 3692 3692 3732 3732 3732 3732 3732 3732 3732 3732 3732 3732 3732 3732 3732 3732 3732 3732 3732 3774 3774 3774 3774 3774 3774 3774 3774 3774 3774 3774 3774 3774 3774 3774 3732 3614 3614 3653 3653 3692 3692 3732 3774 3774 3774 3774 3774 3774 3774 3774 3774 3732 3732 3732 3692 3692 3732 3692 3692 3732 3732 3732 3732 3732 3732 1655 1655 1655 1647 1647 1647 1655 1655 1655 1655 1655 1655 1663 1663 1671 1671 1671 1680 1688 1739 1739 1766 1766 1776 1776 1776 1766 1766 1766 1766 1757 1748 1748 1748 1748 1748 1748 1748 1748 1748 1748 1586 1586 1586 1579 1579 1579 1572 1564 1564 1564 1564 1564 1564 1564 1564 1564 1564 1557 1557 1557 1557 1557 1564 1557 1557 1557 1557 1557 1557 1557 1550 1550 1550 1550 1550 1543 1529 1529 1523 1523 1523 1523 1516 1516 1516 1509 1509 1516 1516 1516 1516 1516 1523 1523 1523 1523 1632 1624 1616 1616 1616 1616 1616 1616 1609 1609 1609 1601 1601 1594 1594 1594 1594 1594 1586 1586 1586 1586 1586 1579 1579 1370 1370 1370 1370 1370 1370 1365 1365 1359 1359 1365 1365 1370 1370 1376 1381 1381 1381 1387 1392 1392 1536 1536 1536 1536 1536 1529 1529 1529 1529 1529 1529 1523 1523 1529 1523 1523 1523 1529 1529 1529 1516 1516 1516 1509 1509 1509 1509 1509 1509 1509 1509 1509 1516 1516 1516 1516 1516 1509 1509 1509 1516 1516 1516 1523 1523 1529 1529 1529 1523 1516 1516 1516 1516 1516 1516 1516 1523 1523 1523 1523 1523 1523 1523 1523 1523 1523 1523 1529 1529 1529 1536 1536 1536 1536 1536 1536 1536 1536 1536 1536 1536 1536 1536 1543 1543 1543 1193 1193 1193 1210 1214 1214 1214 1214 1214 1210 1210 1210 1210 1210 1210 1210 1214 1219 1219 1223 1223 1223 1529 1516 1516 1516 1523 1536 1523 1523 1536 1536 1536 1529 1529 1536 1536 1536 1536 1536 1543 1543 1543 1543 1550 1550 1543 1543 1543 1543 1543 1536 1536 1536 1536 1543 1536 1536 1543 1543 1543 1536 1536 1536 1536 1543 1543 1543 1543 1543 1543 1543 1543 1543 1543 1536 1536 1536 1543 1543 1543 1543 1543 1543 1550 1543 1543 1550 1550 1550 1550 1550 1550 1550 1550 1550 1550 1550 1543 1543 1543 1543 1543 1543 1543 1536 1536 1543 1543 1550 1550 1550 1550 1550 1550 1550 1550 1550 1543 1543 1529 1523 1509 1509 1509 1509 1509 1509 0 0 0 1579 1579 1579 1579 1579 1579 1579 1572 1557 1557 1557 1557 1557 1557 1557 1557 1550 1550 1550 1550 1557 1557 1557 1564 1572 1572 1572 1572 1572 1572 1572 1572 1572 1572 1572 1579 1579 1579 1579 1586 1594 0 0 0 0 0 0 0 4295 4295 4295 4241 4241 4295 4241 4241 4241 4190 4190 4190 4139 4089 4089 4089 4089 4089 4139 4139 4190 4139 4139 4139 4139 4089 4041 4041 4041 4190 0 0 0 0 0 0 4089 4089 4089 4089 4089 4089 4139 4139 4139 4139 4139 4139 4139 4190 4190 4190 4241 0 0 0 0 0 0 0 0 0 0 0 0
0 0 0 0 0 0 0 0 0 0 0 0 0 0 0 0 0 0 0 0 0 0 0 0 0 0 0 0 0 0 0 0 0 3653 3653 3653 3576 3576 3576 3576 3576 3576 3576 3576 3614 3614 3576 3576 3576 3300 3300 3333 3333 3333 3576 3576 3576 3614 3614 3614 3614 3614 3614 3653 3653 3653 3692 3653 3653 0 0 0 0 0 0 3614 3614 3614 3614 3614 3614 3614 3653 3614 3614 3653 0 0 0 0 0 0 3539 3539 3614 3692 3653 3653 3653 3653 3653 3692 3692 3692 3692 3732 3732 3732 3732 3732 3732 3732 3732 3732 3732 3732 3732 3732 3732 3732 3732 3732 3732 3732 3774 3774 3774 3774 3774 3774 3774 3774 3774 3774 3774 3774 3732 3692 3653 3653 3653 3692 3692 3732 3774 3774 3774 3774 3774 3774 3774 3774 3774 3732 3732 3732 3692 3692 3692 3692 3692 3732 3732 3732 3732 3732 0 3732 1655 1655 1655 1655 1655 1655 1655 1655 1655 1663 1663 1663 1663 1671 1671 1680 1680 1688 1705 1731 1757 1766 1776 1776 1776 1776 1766 1766 1766 1757 1748 1748 1748 1748 1748 1748 1748 1748 1748 1739 1739 1748 1748 1748 1579 1579 1572 1564 1564 1564 1564 1564 1564 1564 1564 1564 1564 1557 1557 1557 1557 1557 1564 1557 1557 1557 1557 1557 1557 1557 1557 1557 1557 1557 1550 1550 1529 1529 1529 1529 1523 1523 1523 1516 1516 1516 1516 1516 1516 1516 1516 1516 1523 1523 1529 1543 1624 1624 1624 1624 1624 1624 1616 1616 1609 1609 1609 1609 1609 1601 1601 1601 1594 1594 1594 1586 1586 1586 1586 1579 1579 1370 1370 1370 1370 1370 1370 1370 1370 1365 1365 1365 1365 1370 1370 1376 1376 1376 1381 1387 1392 1392 1536 1536 1536 1536 1536 1529 1529 1529 1529 1529 1529 1523 1523 1529 1523 1523 1523 1523 1523 1516 1516 1516 1509 1509 1509 1509 1509 1509 1509 1509 1509 1509 1509 1509 1509 1509 1503 1503 1503 1496 1496 1503 1503 1509 1516 1516 1516 1516 1509 1509 1509 1509 1509 1509 1509 1509 1516 1516 1516 1523 1516 1516 1516 1516 1516 1516 1516 1523 1523 1523 1523 1523 1523 1529 1516 1516 1516 1516 1529 1523 1516 1516 1516 1529 1529 1529 1193 1193 1193 1210 1214 1219 1219 1214 1214 1214 1210 1210 1210 1210 1214 1214 1214 1219 1219 1227 1227 1529 1523 1516 1516 1516 1516 1516 1516 1516 1516 1523 1523 1523 1523 1529 1529 1529 1529 1529 1529 1529 1529 1529 1536 1536 1529 1529 1529 1529 1529 1529 1529 1529 1529 1529 1529 1529 1529 1529 1529 1529 1529 1529 1536 1529 1529 1536 1536 1536 1536 1536 1536 1536 1536 1529 1529 1529 1529 1529 1529 1536 1536 1536 1536 1543 1543 1543 1543 1550 1550 1543 1543 1543 1543 1543 1543 1536 1536 1536 1536 1536 1536 1536 1536 1529 1529 1536 1536 1536 1536 1536 1543 1543 1543 1543 1543 1536 1536 1529 1516 1509 1503 1503 1503 1503 1503 1509 0 0 0 0 0 0 0 0 0 0 0 1543 1543 1543 1543 1543 1550 1543 1543 1543 1543 1543 1543 1543 1543 1550 1550 1557 1564 1564 1564 1564 1557 1557 1557 1557 1557 1557 1572 1572 1579 1579 1586 0 0 0 0 0 0 0 0 4241 4241 4241 4241 4241 4241 4190 4190 4190 4139 4139 4139 4089 4041 4041 4041 4041 4041 4089 4089 4139 4139 4139 4139 4089 4089 4041 3994 3994 3994 3994 3994 3994 3994 3994 4139 4089 4041 4041 4089 4089 4089 4139 4139 4139 4139 4139 4139 4190 4190 4139 4139 4190 0 0 0 0 0 0 0 0 0 0 0 0
0 0 0 0 0 0 0 0 0 0 0 0 0 0 0 0 0 0 0 0 0 0 0 0 0 0 0 0 0 0 0 0 0 3653 3653 3653 3539 3539 3539 3539 3539 3539 3539 3576 3576 3576 3539 3539 3539 3300 3300 3333 3333 3365 3468 3539 3539 3576 3576 3576 3614 3614 3614 3614 3614 3653 3653 3653 3653 0 0 0 0 0 0 0 3614 3576 3576 3576 3576 3614 3614 3614 3614 3614 3614 0 3539 0 0 3468 3468 3539 3614 3653 3653 3653 3614 3614 3653 3653 3653 3653 3692 3692 3692 3692 3692 3692 3732 3692 3692 3692 3692 3692 3692 3692 3692 3732 3732 3732 3732 3732 3732 3732 3732 3732 3732 3774 3774 3774 3774 3774 3774 3774 3732 3692 3692 3653 3653 3692 3692 3732 3732 3732 3774 3774 3774 3774 3774 3774 3774 3732 3732 3732 3692 3653 3653 3653 3692 3692 3732 3732 3732 3732 3732 0 0 1655 1655 1655 1655 1655 1655 1655 1663 1663 1663 1663 1663 1671 1671 1671 1680 1688 1705 1731 1757 1766 1776 1776 1776 1776 1766 1766 1766 1757 1757 1757 1748 1748 1748 1748 1748 1748 1748 1739 1739 1739 1739 1739 1748 1748 1748 1748 1739 1572 1557 1557 1557 1557 1557 1564 1557 1557 1550 1550 1557 1557 1557 1557 1557 1557 1557 1557 1557 1557 1557 1557 1550 1550 1550 1543 1529 1529 1523 1523 1523 1523 1523 1523 1516 1516 1516 1516 1516 1516 1523 1523 1523 1529 1536 1543 1624 1616 1616 1624 1624 1624 1624 1624 1624 1616 1616 1609 1609 1601 1601 1601 1601 1601 1594 1594 1586 1586 1594 1586 1586 1370 1370 1370 1370 1370 1370 1370 1370 1370 1370 1370 1370 1370 1370 1376 1376 1376 1381 1387 1387 1392 1543 1543 1543 1536 1536 1536 1529 1529 1529 1529 1529 1523 1523 1529 1523 1523 1523 1523 1523 1516 1509 1509 1509 1509 1509 1503 1503 1503 1503 1503 1509 1509 1503 1503 1496 1496 1496 1496 1496 1496 1496 1496 1496 1503 1509 1509 1509 1509 1503 1503 1503 1503 1503 1503 1503 1503 1509 1509 1509 1509 1509 1509 1509 1509 1509 1509 1509 1516 1516 1516 1516 1516 1516 1516 1516 1509 1509 1509 1509 1503 1503 1496 1496 1509 1529 1529 1529 1214 1214 1214 1219 1219 1219 1219 1219 1214 1214 1214 1214 1214 1214 1214 1219 1223 1223 1227 1227 1529 1516 1509 1509 1509 1509 1509 1509 1509 1516 1516 1516 1516 1523 1523 1523 1523 1516 1516 1516 1516 1516 1523 1523 1523 1523 1523 1523 1523 1523 1523 1523 1523 1523 1523 1523 1523 1523 1523 1516 1516 1516 1523 1523 1523 1523 1516 1516 1529 1523 1523 1523 1523 1523 1523 1523 1523 1523 1523 1523 1529 1529 1529 1529 1536 1536 1536 1536 1536 1536 1536 1536 1529 1529 1529 1529 1529 1529 1529 1523 1523 1529 1529 1529 1529 1523 1523 1523 1523 1523 1523 1536 1536 1536 1536 1536 1529 1529 1516 1509 1503 1503 1503 1503 1503 1503 1509 0 0 0 0 0 0 0 0 0 0 0 1543 1536 1536 1543 1543 1543 1536 1536 1536 1536 1536 1536 1529 1529 1536 1536 1543 1550 1557 1557 1550 1550 1550 1550 1550 1543 1543 1550 1557 1572 1579 0 0 0 0 0 0 0 0 0 4241 4241 4241 4241 4241 4241 4190 4190 4190 4139 4139 4139 4089 4041 4041 4041 4041 4041 4041 4041 4089 4089 4089 4089 4089 4041 3994 3994 3994 3994 3994 3994 3994 3994 4041 4041 4041 4041 4041 4089 4089 4089 4139 4139 4139 4139 4139 4139 4190 4139 4139 4139 4190 0 0 0 0 0 0 0 0 0 0 0 0
0 0 0 0 0 0 0 0 0 0 0 0 0 0 0 0 0 0 0 0 0 0 0 0 0 0 0 0 0 0 0 0 0 3614 3614 3503 3503 3503 3503 3539 3539 3539 3539 3539 3539 3539 3503 3503 3503 3333 3333 3365 3365 3365 3468 3539 3539 3576 3576 3576 3576 3576 3614 3614 3614 3614 3653 3653 3732 0 0 0 0 0 0 0 3576 3576 3576 3576 3576 3576 3614 3614 3614 3614 3539 3539 3539 0 0 3468 3468 3539 3576 3653 3653 3614 3614 3614 3653 3653 3653 3653 3692 3692 3692 3692 3692 3692 3692 3692 3653 3653 3653 3653 3653 3653 3653 3692 3692 3692 3692 3692 3732 3732 3732 3732 3732 3732 3732 3774 3774 3732 3732 3732 3692 3692 3653 3653 3653 3692 3692 3692 3732 3732 3732 3732 3732 3774 3774 3732 3732 3692 3692 3692 3653 3653 3614 3614 3653 3692 3692 3692 3692 3732 3732 0 0 1655 1655 1655 1655 1663 1663 1663 1663 1663 1663 1663 1671 1671 1671 1671 1680 1688 1705 1722 1757 1766 1776 1776 1776 1776 1776 1766 1766 1766 1757 1757 1748 1748 1748 1748 1748 1748 1748 1739 1739 1739 1739 1739 1739 1739 1739 1739 1731 1722 1557 1557 1557 1557 1557 1564 1557 1557 1550 1550 1722 1557 1557 1557 1557 1557 1557 1557 1550 1550 1550 1550 1550 1550 1543 1536 1529 1523 1523 1523 1523 1523 1523 1523 1523 1516 1516 1516 1516 1516 1523 1523 1523 1529 1536 1543 1550 1616 1616 1624 1624 1624 1624 1624 1624 1616 1616 1616 1616 1609 1609 1609 1609 1609 1601 1601 1601 1601 1601 1594 1594 1594 1370 1370 1370 1370 1370 1370 1370 1370 1370 1370 1370 1370 1370 1376 1376 1381 1381 1387 1387 1392 1543 1543 1543 1543 1536 1536 1536 1536 1536 1529 1529 1523 1523 1529 1523 1523 1523 1523 1523 1516 1509 1509 1509 1509 1503 1503 1503 1503 1503 1503 1503 1503 1496 1496 1496 1489 1489 1489 1489 1489 1489 1489 1489 1489 1489 1489 1489 1489 1489 1489 1489 1489 1483 1483 1483 1483 1483 1496 1496 1503 1503 1503 1503 1503 1503 1503 1503 1503 1503 1503 1503 1503 1509 1509 1503 1496 1496 1496 1496 1489 1489 1489 1489 1496 1496 1496 1483 1223 1223 1223 1223 1223 1223 1223 1219 1219 1219 1214 1214 1214 1219 1219 1219 1223 1227 1227 1227 1227 1509 1503 1503 1503 1503 1503 1503 1503 1503 1503 1509 1509 1509 1516 1509 1509 1509 1509 1503 1503 1509 1509 1509 1509 1516 1516 1516 1516 1516 1516 1516 1516 1516 1516 1516 1516 1516 1516 1516 1516 1516 1516 1516 1516 1516 1509 1509 1516 1509 1509 1509 1509 1509 1509 1509 1509 1509 1516 1516 1516 1516 1523 1523 1523 1529 1529 1523 1523 1523 1523 1523 1523 1516 1516 1516 1516 1516 1516 1516 1516 1516 1523 1523 1523 1516 1516 1516 1516 1516 1516 1523 1523 1523 1523 1523 1523 1523 1489 1483 1483 1483 1489 1496 1496 1496 0 0 0 0 0 0 0 0 0 0 0 1536 1536 1536 1503 1503 1503 1509 1523 1523 1523 1529 1529 1529 1529 1529 1529 1529 1536 1543 1550 1550 1543 1543 1536 1536 1536 1529 1529 1529 1529 1572 0 0 0 0 0 0 0 0 0 0 4241 4241 4241 4241 4190 4190 4139 4139 4139 4089 4089 4089 4041 4041 3994 3994 3994 4041 4041 4041 4041 4041 4041 4041 4041 4041 3994 3994 3994 3994 3994 3994 3994 3994 4041 4041 4041 4041 4041 4139 4139 4139 4139 4139 4139 4139 4139 4139 4139 4139 4139 4139 4139 0 0 0 0 0 0 0 0 0 0 0 0
0 0 0 0 0 0 0 0 0 0 0 0 0 0 0 0 0 0 0 0 0 0 0 0 0 0 0 0 0 0 0 3503 3503 3503 3503 3468 3468 3468 3503 3503 3503 3503 3539 3539 3539 3539 3503 3503 3503 3333 3333 3365 3399 3399 3503 3503 3503 3539 3539 3539 3539 3576 3576 3614 3614 3614 3614 3576 3576 0 0 0 0 0 0 3576 3576 3576 3576 3576 3576 3576 3576 3576 3576 3614 3539 3539 3539 0 3468 3468 3468 3539 3539 3614 3614 3614 3614 3614 3614 3653 3653 3653 3653 3692 3692 3692 3692 3692 3653 3653 3653 3653 3653 3653 3653 3653 3653 3692 3692 3692 3692 3692 3692 3692 3692 3692 3692 3732 3732 3732 3732 3732 3692 3692 3692 3653 3653 3653 3653 3653 3692 3692 3692 3732 3732 3732 3732 3732 3732 3732 3732 3692 3692 3692 3653 3653 3614 3614 3653 3653 3653 3653 3653 3692 3692 3692 3653 1663 1663 1655 1655 1663 1663 1663 1663 1663 1663 1663 1671 1671 1671 1671 1680 1688 1696 1713 1739 1766 1776 1776 1785 1776 1776 1776 1776 1766 1757 1757 1748 1748 1748 1748 1748 1748 1748 1739 1739 1739 1739 1739 1739 1739 1731 1731 1731 1722 1722 1722 1713 1713 1713 1713 1713 1713 1713 1713 1713 1713 1713 1557 1557 1557 1550 1550 1550 1550 1550 1550 1550 1543 1543 1529 1529 1523 1523 1523 1523 1523 1523 1523 1523 1523 1516 1516 1516 1523 1523 1523 1523 1529 1536 1543 1550 1616 1616 1624 1624 1624 1624 1624 1624 1616 1616 1616 1616 1609 1609 1609 1609 1609 1601 1601 1601 1601 1601 1601 1601 1601 1376 1376 1376 1376 1376 1376 1376 1370 1370 1370 1370 1370 1376 1376 1376 1376 1381 1387 1392 1392 1550 1550 1550 1550 1543 1543 1543 1543 1536 1536 1536 1536 1536 1536 1529 1529 1529 1523 1523 1523 1509 1509 1509 1509 1503 1503 1503 1503 1503 1503 1496 1496 1496 1496 1489 1489 1489 1489 1489 1489 1489 1489 1489 1489 1489 1489 1489 1483 1483 1483 1483 1483 1483 1483 1477 1477 1477 1483 1483 1483 1483 1483 1489 1489 1489 1489 1489 1489 1489 1483 1483 1483 1483 1483 1477 1477 1477 1477 1477 1477 1477 1477 1477 1477 1477 1483 1483 1223 1223 1223 1223 1223 1223 1223 1223 1223 1219 1219 1219 1219 1219 1219 1223 1227 1227 1227 1227 1227 1496 1496 1496 1496 1483 1483 1483 1483 1489 1489 1489 1496 1496 1496 1496 1496 1496 1496 1489 1489 1496 1496 1496 1496 1496 1496 1503 1503 1503 1503 1503 1503 1509 1509 1509 1509 1509 1509 1503 1503 1509 1509 1509 1509 1509 1503 1503 1509 1503 1503 1503 1503 1509 1509 1509 1509 1509 1509 1509 1516 1516 1516 1516 1516 1523 1516 1509 1509 1509 1509 1509 1509 1509 1509 1509 1509 1509 1509 1516 1516 1516 1516 1516 1516 1509 1509 1509 1509 1509 1509 1509 1509 1509 1503 1503 1477 1477 1477 1470 1470 1477 1483 1483 1483 1489 0 0 0 0 0 0 0 0 0 0 0 0 1483 1496 1496 1489 1489 1489 1503 1516 1516 1516 1516 1523 1523 1523 1523 1523 1523 1529 1536 1536 1529 1529 1523 1523 1523 1523 1523 1529 1529 1529 0 0 0 0 0 0 0 0 0 0 4241 4190 4190 4190 4190 4139 4139 4139 4089 4041 4041 4041 4041 3994 3994 3994 3994 4041 4041 4041 4041 4041 4041 4041 4041 4041 3994 3994 3994 3994 3994 3994 4041 4041 4041 4041 4041 4041 4041 4089 4089 4089 4089 4089 4089 4139 4139 4139 4139 4089 4041 4041 4041 0 0 0 0 0 0 0 0 0 0 0 0
0 0 0 0 0 0 0 0 0 0 0 0 0 0 0 0 0 0 0 0 0 0 0 0 0 0 0 0 0 0 0 3503 3503 3503 3468 3468 3468 3468 3503 3503 3503 3503 3503 3503 3503 3503 3503 3503 3503 3333 3333 3365 3433 3433 3468 3468 3468 3503 3539 3539 3539 3539 3539 3576 3576 3614 3576 3539 3539 0 0 0 0 0 0 3576 3576 3576 3576 3539 3539 3576 3576 3576 3576 3576 3539 3539 3576 3576 3433 3433 3468 3503 3539 3576 3576 3614 3614 3614 3614 3614 3614 3614 3614 3614 3614 3614 3614 3614 3614 3614 3614 3614 3614 3614 3614 3614 3653 3653 3653 3653 3653 3653 3653 3653 3653 3653 3692 3692 3692 3692 3692 3653 3653 3653 3653 3653 3653 3653 3653 3653 3653 3653 3653 3692 3692 3692 3692 3732 3732 3732 3732 3692 3692 3692 3692 3692 3653 3653 3653 3653 3614 3614 3653 3653 3653 3653 0 0 0 1655 1655 1663 1663 1663 1663 1663 1663 1663 1671 1671 1671 1671 1680 1688 1696 1705 1739 1776 1785 1785 1794 1785 1785 1785 1776 1776 1766 1757 1748 1748 1748 1748 1739 1739 1739 1739 1739 1739 1739 1739 1739 1739 1731 1731 1731 1722 1722 1722 1713 1713 1713 1713 1713 1713 1713 1713 1713 1713 1713 1705 1705 1557 1550 1550 1550 1550 1550 1550 1550 1543 1543 1529 1529 1523 1523 1523 1523 1523 1523 1523 1523 1523 1516 1516 1523 1523 1523 1523 1523 1529 1536 1550 1616 1609 1609 1624 1624 1632 1632 1624 1624 1616 1616 1616 1616 1609 1609 1609 1609 1609 1609 1601 1601 1601 1601 1601 1601 1632 1381 1376 1376 1376 1376 1376 1376 1370 1370 1370 1376 1376 1376 1376 1376 1376 1381 1387 1387 1387 1550 1550 1550 1550 1550 1543 1543 1543 1543 1543 1536 1536 1536 1536 1536 1529 1529 1529 1523 1523 1509 1509 1509 1509 1509 1503 1503 1503 1503 1503 1496 1496 1496 1496 1489 1489 1489 1489 1483 1483 1483 1483 1483 1483 1483 1483 1483 1483 1483 1483 1483 1483 1483 1477 1477 1477 1477 1477 1477 1477 1477 1477 1483 1483 1489 1483 1483 1483 1483 1477 1470 1470 1470 1470 1464 1464 1464 1470 1470 1470 1470 1477 1477 1477 1477 1477 1477 1223 1223 1223 1223 1227 1227 1223 1223 1223 1223 1219 1219 1219 1219 1223 1223 1227 1227 1227 1227 1227 1470 1470 1470 1464 1464 1464 1470 1470 1470 1470 1477 1477 1477 1477 1477 1477 1477 1477 1483 1483 1489 1489 1489 1489 1489 1489 1489 1489 1489 1489 1489 1489 1496 1496 1496 1496 1496 1503 1496 1496 1503 1503 1503 1503 1503 1496 1496 1496 1496 1496 1496 1496 1496 1496 1503 1503 1503 1503 1503 1509 1509 1509 1509 1503 1496 1496 1489 1489 1496 1496 1496 1496 1503 1503 1503 1503 1509 1509 1509 1509 1509 1509 1509 1509 1503 1503 1503 1503 1503 1503 1503 1496 1489 1489 1477 1477 1477 1470 1470 1470 1470 1477 1483 1483 1489 0 0 0 0 0 0 0 0 0 0 0 0 0 1483 1483 1483 1483 1483 1483 1483 1483 1503 1509 1516 1509 1509 1509 1509 1516 1516 1503 1503 1503 1503 1509 1509 1516 1516 1523 1523 1523 1523 0 0 0 0 0 0 0 0 0 0 4241 4190 4190 4190 4190 4139 4089 4089 4089 4041 4041 4041 3994 3994 3994 3994 3994 3994 3994 3994 3994 3994 4041 4041 4041 4041 4041 4041 4041 4041 4041 4041 4041 3994 3994 4041 4041 4041 4041 4089 4089 4089 4089 4089 4089 4139 4139 4139 4139 4089 4041 4041 4041 0 0 0 0 0 0 0 0 0 0 0 0
0 0 0 0 0 0 0 0 0 0 0 0 0 0 0 0 0 0 0 0 0 0 0 0 0 0 0 0 0 0 0 3503 3503 3433 3399 3399 3433 3433 3468 3468 3503 3503 3503 3503 3503 3503 3503 3503 3468 3365 3365 3433 3433 3433 3468 3468 3468 3503 3503 3503 3539 3539 3539 3539 3576 3614 3576 3503 3503 3503 0 0 0 0 0 3576 3576 3539 3539 3539 3539 3539 3576 3576 3576 3576 3576 3576 3576 3576 3433 3433 3433 3503 3539 3539 3576 3576 3576 3614 3614 3614 3614 3614 3614 3614 3614 3614 3576 3576 3576 3576 3576 3576 3576 3614 3614 3614 3614 3614 3614 3614 3614 3614 3614 3614 3614 3653 3653 3653 3653 3653 3653 3653 3653 3653 3653 3653 3614 3614 3614 3614 3653 3614 3614 3653 3653 3653 3653 3653 3692 3692 3692 3692 3692 3692 3692 3692 3692 3653 3614 3614 3614 3614 3614 3614 3614 3614 0 0 0 0 1671 1671 1671 1671 1671 1663 1663 1671 1671 1671 1671 1671 1680 1688 1696 1705 1722 1776 1785 1785 1794 1794 1785 1785 1785 1776 1776 1766 1748 1748 1748 1748 1739 1739 1739 1739 1739 1739 1739 1739 1739 1739 1731 1731 1731 1722 1722 1722 1713 1713 1713 1713 1713 1713 1713 1713 1713 1713 1705 1705 1705 1705 1705 1705 1696 1696 1696 1688 1688 1688 1688 1680 1529 1523 1523 1523 1529 1523 1523 1523 1523 1523 1523 1523 1523 1523 1523 1523 1523 1529 1543 1543 1550 1609 1609 1624 1624 1632 1624 1624 1624 1624 1624 1616 1616 1609 1609 1609 1609 1609 1609 1609 1601 1601 1601 1601 1601 1624 1624 1376 1376 1376 1376 1376 1376 1376 1370 1370 1376 1376 1376 1376 1381 1381 1381 1381 1381 1381 1376 1370 1370 1370 1370 1550 1550 1550 1550 1543 1543 1543 1543 1536 1536 1529 1529 1529 1523 1523 1509 1509 1509 1509 1509 1503 1503 1503 1503 1503 1503 1496 1496 1496 1496 1489 1489 1489 1483 1483 1483 1483 1483 1483 1483 1483 1483 1483 1483 1477 1477 1483 1477 1477 1477 1470 1470 1477 1470 1470 1470 1470 1477 1477 1477 1477 1477 1477 1464 1464 1464 1464 1464 1464 1458 1458 1458 1458 1458 1464 1464 1464 1470 1470 1470 1464 1464 1227 1227 1227 1227 1227 1227 1227 1227 1223 1223 1223 1223 1223 1223 1223 1223 1227 1227 1227 1227 1227 1464 1464 1464 1464 1464 1464 1464 1464 1464 1464 1464 1464 1464 1464 1464 1470 1470 1470 1477 1477 1477 1477 1477 1477 1477 1477 1477 1483 1477 1477 1477 1477 1483 1483 1483 1483 1483 1483 1483 1483 1483 1483 1483 1483 1483 1483 1483 1483 1483 1483 1483 1483 1483 1483 1483 1483 1483 1483 1483 1496 1496 1496 1496 1489 1489 1489 1483 1483 1489 1489 1489 1489 1489 1489 1489 1496 1496 1503 1503 1503 1503 1503 1503 1503 1496 1496 1496 1496 1496 1496 1496 1496 1483 1483 1477 1470 1470 1464 1458 1458 1464 1470 1483 1483 0 0 0 0 0 0 0 0 0 0 0 1464 1458 1458 1470 1477 1477 1477 1477 1477 1477 1477 1489 1496 1503 1503 1503 1503 1503 1503 1496 1489 1489 1489 1489 1496 1503 1503 1509 1516 1516 1516 1523 1523 0 0 0 0 0 0 0 0 0 4190 4190 4190 4139 4139 4089 4041 4041 4041 3994 3994 3994 3994 3994 3994 3994 3994 3994 3994 3994 3994 3994 3994 4041 4041 4041 4041 4041 4041 4041 3994 3994 3994 3994 3994 3994 3994 3994 4041 4089 4089 4089 4089 4089 4089 4089 4089 4041 4041 4041 4041 4041 0 0 0 0 0 0 0 0 0 0 0 0 0
0 0 0 0 0 0 0 0 0 0 0 0 0 0 0 0 0 0 0 0 0 0 0 0 0 0 0 0 0 0 0 3468 3468 3365 3333 3333 3365 3399 3433 3468 3468 3468 3503 3503 3503 3503 3503 3503 3468 3433 3433 3468 3468 3468 3468 3468 3468 3503 3503 3503 3503 3503 3539 3539 3539 3539 3539 3468 3468 3468 3468 0 3433 0 0 3539 3468 3468 3503 3503 3503 3503 3503 3503 3503 3503 3503 3503 3503 3503 3433 3433 3433 3503 3503 3539 3539 3576 3576 3576 3576 3614 3614 3614 3576 3576 3576 3576 3539 3539 3539 3539 3539 3576 3576 3576 3576 3576 3614 3614 3614 3614 3614 3614 3614 3614 3614 3614 3614 3614 3614 3614 3653 3614 3614 3653 3653 3653 3614 3614 3614 3614 3614 3614 3614 3614 3614 3614 3653 3653 3653 3692 3692 3653 3653 3653 3653 3653 3653 3614 3614 3614 3614 3614 3614 3614 3614 3614 3614 0 0 1671 1671 1671 1671 1671 1671 1671 1671 1671 1671 1671 1671 1680 1688 1696 1705 1705 1713 1776 1785 1794 1804 1794 1794 1794 1785 1785 1776 1766 1748 1748 1748 1748 1739 1739 1739 1739 1739 1739 1739 1739 1739 1739 1731 1731 1731 1722 1722 1722 1713 1713 1713 1713 1713 1713 1713 1713 1713 1705 1705 1705 1705 1705 1705 1705 1696 1696 1688 1688 1688 1688 1680 1680 1671 1671 1523 1523 1529 1529 1523 1523 1523 1523 1523 1523 1523 1523 1523 1523 1523 1529 1536 1543 1550 1609 1609 1624 1624 1632 1624 1624 1624 1624 1624 1616 1616 1616 1616 1616 1609 1609 1609 1609 1601 1601 1601 1601 1601 1616 1616 1381 1381 1381 1381 1376 1376 1376 1376 1376 1376 1376 1376 1376 1381 1381 1381 1381 1381 1381 1376 1370 1370 1370 1370 1370 1557 1557 1550 1550 1543 1343 1343 1349 1536 1529 1529 1529 1523 1523 1509 1509 1509 1509 1509 1503 1503 1503 1503 1503 1503 1496 1496 1496 1496 1489 1489 1489 1483 1483 1483 1483 1483 1483 1483 1483 1483 1483 1483 1477 1477 1477 1477 1470 1470 1470 1470 1470 1470 1470 1470 1470 1470 1470 1470 1464 1464 1464 1464 1464 1464 1464 1458 1458 1458 1458 1458 1458 1452 1452 1452 1458 1458 1458 1464 1458 1458 1227 1227 1227 1227 1227 1227 1227 1227 1227 1227 1223 1223 1223 1227 1227 1227 1227 1227 1227 1232 1464 1458 1458 1458 1458 1458 1458 1458 1458 1458 1458 1458 1464 1464 1458 1458 1458 1464 1464 1464 1470 1470 1470 1470 1470 1470 1470 1470 1477 1470 1470 1477 1477 1477 1477 1477 1477 1477 1477 1477 1470 1470 1464 1464 1470 1477 1470 1470 1477 1477 1477 1477 1477 1470 1470 1470 1470 1470 1470 1470 1477 1477 1477 1477 1477 1477 1477 1477 1477 1477 1477 1477 1477 1477 1483 1483 1483 1483 1489 1496 1496 1496 1496 1496 1483 1477 1470 1470 1477 1477 1477 1477 1470 1464 1458 1458 1452 1452 1445 1445 1452 1452 1458 1458 1427 0 0 0 0 0 0 0 1433 1433 1433 1439 1445 1452 1452 1458 1464 1470 1470 1470 1470 1470 1477 1483 1483 1489 1496 1496 1496 1496 1483 1483 1477 1477 1477 1477 1483 1483 1489 1496 1509 1509 1509 1516 1523 0 0 0 0 0 0 0 0 4139 4139 4089 4089 4089 4089 4041 3994 3994 3994 3994 3994 3994 3994 3948 3948 3948 3948 3994 3948 3948 3948 3994 3994 3994 3994 4041 4041 4041 4041 3994 3994 3948 3948 3948 3948 3948 3948 3994 3994 4041 4041 4041 4041 4041 4041 4089 4089 3994 3994 3994 3994 3994 3994 0 0 0 0 0 0 0 0 0 0 0 0
0 0 0 0 0 0 0 0 0 0 0 0 0 0 0 0 0 0 0 0 0 0 0 0 0 0 0 0 0 0 0 3468 3468 3365 3333 3333 3333 3333 3399 3433 3468 3468 3468 3468 3468 3468 3468 3468 3468 3433 3433 3433 3433 3433 3433 3433 3468 3468 3468 3468 3503 3503 3503 3503 3503 3503 3503 3433 3433 3468 3433 3433 3433 3468 0 3539 3468 3468 3468 3468 3468 3503 3468 3468 3503 3503 3503 3503 3503 3503 3120 3503 3503 3433 3433 3468 3503 3539 3539 3576 3576 3576 3576 3576 3539 3539 3539 3539 3539 3539 3539 3539 3539 3576 3576 3576 3576 3576 3576 3614 3614 3614 3576 3576 3576 3576 3576 3576 3614 3614 3614 3614 3614 3614 3614 3614 3653 3653 3653 3614 3614 3614 3614 3576 3576 3576 3576 3614 3614 3614 3614 3653 3653 3614 3614 3614 3653 3653 3614 3614 3614 3614 3614 3614 3614 3614 3614 3614 3614 0 0 0 0 1671 1671 1671 1671 1671 1671 1671 1671 1671 1680 1680 1688 1696 1705 1705 1713 1776 1785 1794 1804 1813 1804 1804 1804 1794 1794 1794 1794 1748 1748 1748 1739 1739 1739 1739 1739 1739 1739 1739 1739 1739 1739 1739 1731 1731 1731 1722 1713 1713 1713 1713 1713 1713 1713 1705 1705 1705 1705 1705 1696 1696 1696 1696 1696 1696 1688 1688 1688 1688 1680 1680 1671 1671 1671 1529 1529 1529 1529 1529 1523 1523 1523 1523 1523 1523 1523 1523 1523 1529 1536 1543 1550 1616 1616 1624 1632 1632 1632 1624 1624 1624 1624 1616 1616 1616 1616 1616 1609 1609 1609 1609 1609 1609 1601 1601 1601 1616 1392 1387 1381 1381 1381 1376 1376 1376 1376 1376 1376 1376 1376 1376 1381 1381 1381 1381 1381 1381 1376 1370 1370 1370 1370 1365 1365 1359 1359 1354 1349 1343 1343 1349 1349 1349 1349 1349 1349 1354 1354 1509 1509 1509 1503 1503 1503 1503 1503 1503 1496 1496 1496 1496 1496 1489 1489 1489 1489 1489 1483 1483 1483 1483 1483 1483 1483 1483 1483 1477 1477 1477 1477 1470 1470 1470 1470 1470 1470 1464 1464 1464 1464 1464 1464 1464 1464 1458 1458 1458 1458 1458 1458 1458 1458 1452 1452 1452 1452 1452 1452 1452 1452 1452 1452 1452 1452 1227 1227 1227 1227 1227 1227 1227 1227 1227 1227 1227 1223 1223 1227 1227 1227 1227 1227 1227 1232 1452 1452 1452 1452 1452 1452 1452 1458 1458 1458 1458 1458 1458 1458 1458 1458 1458 1458 1458 1464 1464 1458 1458 1464 1464 1464 1464 1464 1464 1464 1464 1464 1464 1470 1470 1470 1470 1470 1464 1464 1458 1458 1452 1452 1452 1452 1452 1452 1464 1464 1470 1464 1464 1464 1464 1464 1464 1464 1464 1464 1464 1470 1470 1470 1470 1470 1470 1470 1470 1470 1470 1470 1470 1470 1470 1470 1470 1470 1477 1477 1477 1470 1458 1458 1458 1458 1452 1452 1458 1458 1464 1464 1464 1464 1458 1452 1452 1445 1439 1439 1433 1433 1433 1427 1427 1421 1421 1427 1427 0 1439 1439 1433 1433 1433 1439 1445 1445 1445 1445 1452 1458 1458 1458 1458 1458 1464 1470 1470 1470 1477 1477 1470 1464 1458 1458 1458 1458 1458 1458 1470 1470 1477 1489 1496 1496 1503 1516 0 0 0 0 0 0 0 0 0 4089 4089 4089 4089 4089 4041 4041 3994 3994 3948 3903 3903 3948 3948 3948 3948 3948 3948 3948 3948 3948 3948 3948 3948 3948 3994 3994 4041 4041 3994 3994 3948 3948 3903 3903 3903 3903 3903 3948 3948 3994 4041 4041 3994 3994 4041 4089 3948 3948 3948 3948 3948 3903 3903 0 0 0 0 0 0 0 0 0 0 0 0
0 0 0 0 0 0 0 0 0 0 0 0 0 0 0 0 0 0 0 0 0 0 0 0 0 0 0 0 0 0 0 3468 3468 3468 3468 3468 3300 3300 3399 3433 3468 3468 3468 3468 3468 3468 3468 3468 3468 3433 3365 3365 3365 3365 3433 3433 3433 3468 3468 3468 3468 3468 3468 3468 3468 3468 3468 3433 3433 3433 3433 3433 3468 3468 3433 3433 3433 3433 3433 3468 3468 3468 3468 3468 3468 3468 3503 3503 3064 3064 3120 3120 3365 3365 3365 3433 3503 3539 3539 3539 3539 3539 3539 3539 3539 3503 3503 3503 3503 3503 3503 3503 3539 3539 3539 3503 3503 3539 3539 3539 3539 3539 3539 3539 3539 3576 3576 3576 3576 3576 3576 3576 3614 3614 3614 3614 3614 3614 3614 3614 3614 3614 3614 3576 3576 3576 3576 3576 3614 3614 3614 3614 3614 3614 3614 3614 3614 3614 3614 3576 3576 3576 3576 3576 3576 3576 3576 3614 3614 3614 0 0 0 1680 1671 1671 1671 1671 1671 1671 1671 1671 1680 1680 1688 1696 1705 1705 1713 1776 1785 1794 1804 1813 1813 1813 1813 1813 1813 1813 0 3653 3653 1748 1739 1739 1739 1739 1739 1739 1739 1739 1739 1739 1739 1739 1739 1731 1731 1731 1722 1713 1713 1713 1713 1713 1705 1705 1705 1705 1705 1705 1696 1696 1696 1696 1696 1696 1688 1688 1688 1688 1688 1680 1671 1671 1671 1671 1671 1529 1529 1529 1529 1523 1523 1523 1523 1523 1523 1523 1523 1529 1543 1543 1550 1550 1632 1632 1632 1632 1632 1624 1624 1624 1624 1616 1616 1616 1616 1616 1609 1609 1609 1609 1609 1609 1609 1601 1601 1601 1387 1387 1387 1387 1381 1381 1376 1376 1376 1376 1376 1376 1376 1381 1381 1381 1381 1381 1381 1381 1376 1370 1370 1365 1365 1365 1359 1359 1359 1354 1349 1349 1349 1349 1349 1349 1349 1349 1349 1349 1349 1349 1509 1503 1503 1503 1503 1496 1496 1503 1496 1496 1496 1496 1489 1489 1489 1489 1489 1489 1489 1489 1483 1483 1483 1483 1483 1483 1483 1483 1483 1477 1477 1470 1470 1470 1470 1470 1464 1464 1464 1464 1464 1464 1464 1458 1458 1458 1458 1458 1458 1458 1458 1452 1452 1452 1445 1445 1445 1445 1445 1445 1445 1445 1445 1439 1439 1227 1227 1227 1227 1227 1227 1227 1227 1227 1227 1227 1227 1227 1227 1227 1227 1227 1227 1232 1236 1439 1439 1439 1445 1445 1452 1452 1452 1452 1452 1452 1452 1452 1452 1452 1452 1452 1452 1452 1452 1452 1452 1452 1452 1458 1452 1452 1452 1452 1452 1452 1452 1452 1452 1452 1452 1458 1458 1452 1452 1452 1452 1452 1452 1452 1445 1445 1445 1452 1452 1458 1458 1458 1458 1458 1458 1458 1458 1458 1458 1458 1464 1464 1464 1464 1464 1464 1464 1458 1458 1458 1458 1464 1464 1464 1464 1458 1458 1458 1458 1452 1452 1452 1452 1452 1452 1452 1452 1452 1452 1452 1452 1458 1458 1458 1445 1445 1427 1427 1427 1421 1421 1421 1427 1421 1421 1421 1427 1427 1433 1439 1439 1433 1433 1433 1439 1439 1439 1439 1445 1452 1452 1458 1458 1458 1458 1458 1464 1464 1464 1464 1452 1452 1458 1452 1452 1452 1452 1452 1458 1464 1464 1470 1470 1489 1489 1503 0 0 0 0 0 0 0 0 0 0 3994 3994 3994 3994 4041 3994 3994 3948 3903 3903 3859 3859 3859 3903 3903 3903 3903 3903 3903 3903 3903 3903 3903 3903 3903 3903 3994 3994 3994 3994 3994 3948 3903 3903 3859 3859 3903 3903 3903 3903 3948 3994 3994 3994 3948 3948 3948 3859 3859 3903 3903 3903 3859 3859 0 0 0 0 0 0 0 0 0 0 0 0
0 0 0 0 0 0 0 0 0 0 0 0 0 0 0 0 0 0 0 0 0 0 0 0 0 0 0 0 0 0 0 3468 3468 3468 3468 3468 3269 3269 3333 3399 3433 3433 3433 3433 3433 3468 3468 3433 3433 3433 3365 3365 3365 3365 3399 3399 3399 3433 3433 3433 3433 3468 3468 3468 3468 3468 3468 3433 3433 3433 3433 3468 3468 3468 3433 3433 3433 3433 3433 3433 3433 3468 3468 3468 3468 3468 3468 3468 3064 3064 3120 3269 3300 3300 3365 3433 3468 3539 3539 3539 3539 3539 3539 3503 3503 3503 3503 3503 3503 3503 3503 3503 3503 3503 3503 3503 3503 3503 3503 3503 3503 3539 3539 3539 3539 3539 3539 3539 3539 3539 3539 3576 3576 3576 3576 3576 3576 3614 3614 3576 3576 3576 3576 3576 3576 3576 3576 3576 3614 3614 3614 3614 3614 3576 3576 3576 3576 3576 3576 3576 3576 3576 3576 3576 3576 3576 3576 3576 3576 0 0 0 0 1680 1680 1671 1671 1671 1671 1671 1671 1671 1680 1680 1688 1696 1705 1705 1713 1776 1785 1794 1804 1813 1813 1813 1813 1823 1823 1823 3614 3614 3614 3614 1739 1739 1739 1739 3576 3576 3576 3576 1739 1739 1748 1748 1748 1739 1739 1739 1722 1713 1713 1713 1713 1713 1705 1705 1705 1705 1705 1705 1696 1696 1696 1696 1696 1696 1688 1688 1688 1688 1680 1680 1671 1671 1671 1671 1671 1529 1529 1529 1529 1523 1523 1523 1523 1523 1523 1523 1529 1529 1543 1543 1550 1550 1624 1624 1632 1632 1632 1624 1624 1624 1624 1624 1616 1616 1616 1616 1616 1609 1609 1609 1609 1609 1609 1609 1609 1609 1387 1387 1387 1387 1381 1381 1381 1376 1376 1376 1376 1376 1376 1381 1381 1381 1381 1381 1376 1376 1376 1370 1370 1365 1365 1365 1359 1359 1354 1354 1349 1349 1349 1349 1349 1349 1349 1349 1349 1349 1343 1343 1338 1328 1328 1328 1328 1328 1322 1322 1322 1322 1322 1317 1317 1489 1489 1489 1489 1489 1489 1489 1483 1483 1483 1483 1483 1483 1483 1483 1483 1477 1477 1470 1470 1470 1470 1470 1464 1464 1464 1464 1464 1464 1464 1458 1458 1458 1458 1458 1458 1458 1458 1452 1452 1445 1445 1445 1439 1439 1445 1445 1439 1439 1445 1439 1433 1227 1227 1227 1227 1227 1227 1227 1227 1227 1227 1227 1227 1227 1227 1227 1227 1227 1227 1232 1241 1404 1404 1410 1433 1433 1439 1439 1439 1439 1445 1445 1445 1445 1445 1445 1445 1445 1445 1445 1445 1445 1445 1445 1445 1445 1445 1445 1439 1439 1439 1439 1439 1439 1439 1439 1439 1445 1445 1445 1445 1445 1445 1445 1445 1445 1439 1439 1439 1445 1445 1445 1445 1445 1452 1452 1452 1452 1452 1452 1452 1452 1452 1452 1445 1445 1452 1452 1452 1452 1452 1452 1452 1458 1458 1458 1452 1452 1452 1445 1439 1439 1445 1445 1445 1445 1445 1445 1445 1445 1445 1445 1445 1452 1439 1433 1427 1421 1421 1415 1415 1415 1415 1415 1415 1421 1421 1421 1427 1427 1433 1433 1433 1433 1433 1433 1439 1433 1433 1439 1439 1445 1445 1445 1445 1452 1452 1452 1452 1458 1458 1452 1452 1452 1452 1452 1452 1452 1452 1452 1452 1458 1458 1464 1464 1477 1483 1496 0 0 0 0 0 0 0 0 0 0 3948 3948 3948 3948 3994 3994 3948 3948 3903 3903 3859 3859 3859 3859 3859 3859 3859 3859 3859 3859 3859 3859 3859 3859 3859 3859 3903 3903 3903 3903 3859 3859 3859 3816 3816 3859 3859 3859 3859 3903 3903 3903 3903 3948 3903 3903 3903 3859 3859 3859 3859 3859 3859 3859 0 0 0 0 0 0 0 0 0 0 0 0
0 0 0 0 0 0 0 0 0 0 0 0 0 0 0 0 0 0 0 0 0 0 0 0 0 0 0 0 0 0 0 3365 3333 3333 3333 3333 3269 3269 3300 3365 3399 3399 3399 3399 3399 3433 3433 3399 3399 3399 3365 3365 3365 3365 3365 3365 3399 3399 3433 3433 3433 3468 3468 3468 3468 3468 3468 3433 3433 3399 3399 3399 3333 3300 3300 3399 3399 3399 3399 3433 3433 3433 3468 3468 3468 3468 3433 3433 3433 3178 3178 3269 3300 3300 3365 3433 3468 3539 3503 3503 3503 3503 3503 3503 3468 3468 3468 3468 3503 3503 3503 3503 3503 3503 3468 3468 3468 3468 3468 3503 3503 3503 3503 3539 3539 3539 3539 3539 3539 3539 3539 3539 3576 3539 3539 3576 3576 3576 3576 3576 3576 3576 3576 3576 3576 3576 3576 3576 3576 3576 3576 3576 3576 3539 3539 3539 3539 3539 3539 3539 3539 3539 3576 3576 3576 3576 3576 3576 3576 0 0 0 1680 1680 1680 1671 1671 1671 1671 1671 1671 1680 1680 1680 1688 1696 1705 1705 1713 1776 1785 1794 1804 1813 1813 1813 1823 1823 1833 1833 3614 3614 3614 3614 3614 3576 3576 3576 3576 3576 3576 3576 3576 3576 3614 3614 3653 1748 1748 3732 3732 3732 1713 1713 1713 1713 1705 1705 1705 1705 1705 1705 1705 1696 1696 1696 1696 1696 1688 1688 1688 1688 1680 1680 1671 1671 1671 1671 1671 1671 1529 1529 1529 1529 1523 1523 1523 1523 1523 1529 1529 1536 1543 1550 1550 1550 1624 1624 1632 1632 1632 1624 1624 1624 1624 1624 1616 1616 1616 1616 1616 1609 1609 1609 1609 1609 1609 1609 1609 1609 1609 1387 1387 1387 1381 1381 1381 1376 1376 1376 1376 1376 1376 1381 1381 1381 1381 1381 1376 1376 1376 1370 1370 1370 1365 1365 1359 1354 1354 1354 1354 1349 1349 1349 1349 1349 1349 1349 1349 1343 1343 1338 1328 1328 1328 1328 1328 1322 1322 1322 1322 1322 1317 1317 1317 1317 1317 1483 1483 1489 1489 1489 1489 1483 1483 1483 1483 1483 1483 1483 1483 1483 1477 1470 1470 1470 1470 1470 1464 1464 1464 1464 1464 1464 1458 1458 1458 1458 1458 1458 1458 1458 1452 1445 1445 1445 1439 1439 1439 1439 1445 1439 1439 1439 1439 1439 1427 1427 1227 1227 1227 1227 1227 1227 1227 1227 1227 1227 1227 1227 1227 1227 1227 1227 1232 1232 1241 1404 1404 1404 1415 1427 1427 1427 1427 1433 1433 1433 1433 1433 1433 1439 1439 1433 1433 1433 1433 1433 1433 1433 1433 1439 1439 1433 1433 1433 1433 1427 1427 1433 1433 1433 1433 1439 1439 1439 1439 1439 1439 1439 1433 1433 1433 1433 1433 1439 1439 1439 1439 1439 1439 1439 1445 1445 1439 1439 1445 1439 1439 1439 1433 1433 1439 1439 1439 1439 1439 1445 1445 1452 1452 1445 1445 1439 1439 1433 1433 1433 1439 1439 1439 1439 1439 1439 1439 1433 1433 1433 1433 1427 1421 1415 1415 1404 1404 1404 1404 1404 1404 1415 1415 1421 1421 1421 1427 1427 1427 1433 1433 1433 1433 1433 1433 1433 1433 1439 1439 1445 1445 1445 1445 1445 1445 1445 1445 1452 1452 1445 1445 1445 1445 1445 1445 1445 1445 1445 1452 1452 1452 1458 1458 1464 1477 1496 0 0 0 0 0 0 0 0 3859 3859 3903 3903 3903 3948 3948 3948 3948 3948 3859 3859 3859 3859 3859 3859 3859 3859 3859 3859 3859 3859 3859 3859 3859 3859 3859 3859 3903 3903 3903 3859 3859 3816 3816 3816 3816 3816 3816 3816 3859 3859 3903 3903 3903 3903 3903 3903 3903 3859 3859 3859 3859 3859 3859 3859 0 0 0 0 0 0 0 0 0 0 0 0
0 0 0 0 0 0 0 0 0 0 0 0 0 0 0 0 0 0 0 0 0 0 0 0 0 0 0 0 0 0 0 3365 3333 3333 3333 3333 3238 3238 3300 3333 3365 3365 3365 3365 3365 3399 3399 3365 3365 3365 3365 3365 3365 3365 3365 3365 3365 3399 3399 3399 3399 3399 3433 3399 3399 3399 3399 3365 3365 3365 3365 3399 3333 3300 3300 3333 3333 3399 3399 3399 3399 3433 3433 3433 3433 3433 3433 3433 3300 3238 3238 3300 3300 3300 3433 3433 3468 3503 3503 3503 3503 3503 3468 3468 3468 3468 3468 3468 3468 3468 3468 3468 3468 3468 3468 3468 3468 3468 3468 3468 3468 3468 3503 3503 3503 3503 3503 3539 3503 3503 3503 3539 3539 3539 3539 3539 3576 3576 3576 3576 3576 3576 3576 3576 3576 3576 3576 3576 3576 3576 3576 3576 3576 3539 3539 3539 3539 3503 3503 3539 3539 3539 3539 3539 3539 3539 3539 3576 3576 3576 0 0 0 1680 1680 1671 1671 1680 1680 1680 1680 1680 1680 1680 1688 1696 1696 1705 1713 1722 1785 1794 1813 1813 1823 1823 1823 1823 1833 1833 3539 3539 3576 3614 3614 3576 3576 3576 3614 3576 3576 3614 3614 3614 3614 3614 3653 3653 3692 3732 3732 3732 3732 3732 3732 3732 3732 1713 1705 1705 1705 1705 1705 1696 1696 1696 1696 1696 1688 1688 1688 1680 1680 1680 1671 1671 1671 1671 1671 1529 1529 1529 1529 1529 1523 1523 1523 1523 1523 1529 1536 1536 1543 1550 1550 1550 1632 1632 1632 1632 1632 1632 1632 1632 1624 1624 1624 1624 1616 1616 1616 1616 1616 1616 1616 1609 1609 1609 1609 1609 1609 1387 1387 1387 1387 1381 1381 1381 1376 1376 1376 1376 1376 1381 1381 1381 1381 1381 1376 1376 1376 1370 1370 1365 1365 1365 1359 1354 1354 1354 1354 1354 1349 1349 1349 1349 1349 1343 1343 1343 1338 1338 1328 1328 1328 1328 1328 1322 1322 1322 1322 1322 1317 1317 1317 1317 1317 1312 1312 1489 1489 1489 1483 1483 1483 1483 1483 1483 1483 1483 1483 1483 1477 1477 1477 1470 1470 1470 1464 1464 1464 1464 1464 1464 1458 1458 1458 1458 1458 1458 1458 1458 1452 1445 1445 1439 1439 1439 1439 1439 1439 1439 1439 1439 1439 1433 1427 1427 1227 1227 1227 1232 1232 1232 1227 1227 1227 1227 1227 1227 1227 1227 1227 1232 1232 1236 1245 1404 1404 1404 1415 1421 1421 1415 1415 1421 1427 1427 1427 1421 1421 1421 1427 1421 1421 1421 1421 1427 1427 1427 1427 1427 1427 1427 1427 1427 1427 1421 1421 1427 1427 1427 1427 1433 1433 1433 1433 1433 1433 1433 1433 1427 1427 1427 1433 1433 1433 1433 1433 1433 1433 1433 1433 1439 1439 1439 1439 1439 1439 1433 1427 1427 1427 1427 1427 1427 1433 1433 1439 1439 1439 1439 1433 1433 1433 1427 1427 1427 1427 1427 1433 1433 1433 1433 1433 1427 1427 1427 1427 1415 1404 1404 1398 1398 1398 1398 1398 1398 1404 1415 1421 1427 1421 1421 1427 1427 1427 1427 1427 1427 1427 1427 1433 1433 1433 1433 1433 1433 1433 1433 1433 1433 1433 1439 1439 1439 1439 1439 1439 1439 1439 1439 1439 1439 1439 1439 1445 1445 1452 1452 1452 1452 1477 0 0 0 0 0 0 0 0 0 3859 3859 3859 3859 3903 3903 3903 3903 3903 3903 3859 3859 3816 3816 3816 3816 3816 3859 3859 3859 3859 3859 3859 3859 3859 3859 3859 3859 3903 3903 3859 3859 3859 3816 3816 3816 3816 3816 3816 3816 3859 3859 3903 3903 3903 3903 3903 3859 3859 3859 3859 3859 3859 3859 3859 3859 0 0 0 0 0 0 0 0 0 0 0 0
