0 0 0 0 0 0 0 0 0 0 0 0 0 0 0 0 0 0 0 0 0 0 0 0 0 0 0 0 0 0 4645 4645 4645 4582 4582 4645 4645 4645 4645 4645 4708 4708 4708 4708 4708 4708 4708 4645 4645 4708 4708 4708 4708 4645 4645 4645 4645 4645 4645 4645 4645 4645 4645 4582 4582 4582 4582 4582 4582 4582 4582 4582 4582 4582 4645 4645 4645 4645 4708 4645 4645 4645 4582 4582 4582 4582 4582 4582 4582 4582 4582 4582 4582 4582 4582 4645 4645 4645 4645 4582 4582 4522 4463 4405 4349 4349 4349 4405 4405 4463 4463 4522 4522 4582 4645 4708 4708 4774 4774 4774 4774 4708 4708 4708 4708 4645 4645 4645 4582 4582 4582 4582 4582 4582 4645 4708 4708 4708 4774 4774 4774 4774 4774 4774 4774 4774 4842 4842 4842 4911 4911 4983 5056 5056 5132 5210 5291 5291 5374 5374 5374 5374 5374 5374 5374 5374 5374 5460 5460 5460 5460 5460 5548 5548 5640 5640 5734 5832 5832 5832 5933 5933 5933 5933 5933 6038 6146 7492 7492 7492 7492 7492 7492 7332 7332 7178 7178 7332 7332 7178 7178 7332 7332 7332 7178 7178 7332 7492 7492 7492 7660 2198 2198 2198 2198 7492 7492 7332 7332 7178 7178 7178 7178 7178 7178 7178 7332 7332 7332 7492 2156 2156 7492 7492 7660 7660 7492 2198 2198 2184 2184 2170 2170 2184 2184 2184 2184 2198 2198 3238 3238 3238 3238 3238 3269 2170 2170 2170 2184 2170 2170 3269 3269 3269 3269 3300 3300 3300 3269 3269 3269 3269 3269 3269 3269 3269 3269 3269 3269 3269 3238 3238 3238 2170 2170 2170 2170 2170 3238 3269 3269 3269 3269 3269 3269 3269 3269 3269 3269 3269 3269 3269 3269 3269 3269 3269 3269 3269 3269 3238 3238 3238 3269 3269 3269 3269 3269 3269 3269 3269 3269 3269 3269 3269 3269 3269 3238 3238 3238 3238 3208 3208 3208 3208 3208 3208 3208 3208 3208 3208 3238 3238 3238 3238 3238 3300 3333 3433 3468 3503 3539 3539 3539 4582 4582 4522 4522 4522 4582 4582 4582 4582 4582 4582 4582 4582 4582 4582 4582 4645 4645 4645 4708 7332 4842 4842 7332 7332 7332 7332 7332 7332 6889 6497 6375 6375 6259 6259 6259 6375 7178 7332 7332 7492 7492 7492 7332 7332 7332 7332 7332 7332 7178 7178 7332 7332 7332 7332 7332 7332 7332 7332 7332 7332 7332 7332 7178 7178 7332 7332 7178 7178 7332 7332 7332 7332 7332 7332 7332 7332 7332 7332 7178 7178 7178 7178 7332 7178 7178 7178 7030 7030 7030 7030 7030 7178 7178 7178 7178 7178 7178 7178 7178 7178 7178 7178 7178 7178 7178 7178 7178 7178 7178 7332 7332 7332 7332 7178 7178 7178 7178 4774 4774 4774 4774 4774 4774 4774 4774 4774 4774 4708 4708 4708 4708 4708 4708 4708 4645 4645 4582 4582 4582 4582 4582 4582 4582 4582 4582 4463 4463 4463 4463 4463 4463 4463 4463 4463 4463 4463 4463 4463 4463 4463 4405 4405 4405 4405 4405 4405 4349 4349 4349 4349 4349 4349 3300 3269 3269 3238 3178 3178 3178 3178 4522 4405 4405 4463 4522 4582 4645 4645 4645 0 0 0 0 0 0 0 0 0 0 0 0 0 0 0 3178 3178 3178 3178 3178 3208 3208 3208 3208 3238 3269 3269 3269 0 0 0 0 0 0 0 0 0 3178 3178 3178 3238 3238 3149 3149 3365 3365 3300 3300 3333 3365 3365 3333 3333 3333 3333 3333 3300 3300 3333 3333 3365 3365 3365 3300 3300 3300 3300 3300 3300 3300 3300 3300 3333 3365 3365 3365 3365 3365 3333 3333 3333 3333 3333 3333 3333 3333 0 0 0 0 0 0 0 0 0 0 0
0 0 0 0 0 0 0 0 0 0 0 0 0 0 0 0 0 0 0 0 0 0 0 0 0 0 0 0 0 0 4645 4645 4645 4582 4582 4645 4645 4645 4645 4645 4645 4708 4708 4708 4708 4708 4708 4645 4645 4708 4645 4645 4645 4645 4582 4582 4582 4582 4582 4582 4582 4582 4582 4582 4582 4582 4582 4582 4582 4582 4582 4582 4582 4582 4645 4645 4645 4645 4645 4645 4645 4582 4582 4582 4582 4582 4582 4582 4582 4582 4582 4582 4582 4582 4582 4582 4582 4582 4582 4582 4522 4463 4463 4405 4349 4349 4349 4405 4405 4463 4463 4522 4582 4582 4645 4645 4708 4708 4708 4708 4708 4708 4708 4645 4645 4645 4582 4582 4582 4582 4582 4582 4645 4645 4645 4708 4708 4774 4774 4774 4774 4774 4774 4774 4774 4842 4842 4842 4911 4911 4911 4983 5056 5056 5132 5210 5291 5291 5374 5374 5374 5374 5374 5374 5374 5374 5374 5374 5374 5460 5460 5460 5548 5548 5640 5640 5832 5832 5832 5933 5933 5933 5933 5933 5933 6038 6146 7492 7492 7492 7492 7492 7492 7492 7332 7332 7332 7332 7332 7332 7332 7332 7332 7332 7178 7178 7332 7332 7660 7660 2198 2198 2198 2198 2184 2184 7492 7492 7492 7660 7660 2184 2184 2184 2184 2184 2184 2184 2184 2184 2156 2156 2184 2184 2198 2198 2198 2198 2198 2184 2184 2170 2170 2184 2184 2184 2184 2184 2184 2198 2198 2184 2184 2184 2184 2170 2170 2170 2184 2170 2170 2212 3269 3269 3269 3269 3269 3269 3269 3269 3269 3269 3269 3269 3269 3269 3269 3269 3269 3269 3238 2170 2170 2170 2170 2170 2170 2170 2170 2170 2170 3269 3269 3269 3269 3269 3269 3269 3269 3269 3269 3269 3269 3269 3269 3269 3269 3269 3269 3269 3269 3269 3269 3269 3269 3269 3269 3269 3269 3269 3269 3269 3269 3269 3269 3269 3238 3238 3238 3238 3208 3208 3238 3238 3238 3208 3208 3208 3208 3238 3238 3238 3238 3238 3269 3300 3365 3399 3468 3503 3539 3539 3539 4645 4645 4522 2116 2116 2116 2116 4582 4582 4582 4582 4582 4582 4582 4582 4582 4582 4645 4645 4708 7332 7332 7332 7332 7492 7492 7492 7492 7332 7178 6622 6375 6375 6146 6038 6038 6146 7178 7332 7332 7492 7492 7492 7332 7332 7332 7332 7332 7178 7178 7178 7178 7178 7332 7332 7332 7332 7178 7178 7178 7332 7178 7178 7178 7178 7178 7332 7332 7332 7332 7332 7332 7332 7332 7332 7332 7332 7332 7332 7178 7178 7332 7332 7332 7332 7178 7178 7178 7178 7030 7030 7178 7178 7178 7178 7178 7178 7178 7178 7178 7178 7178 7178 7178 7178 7178 7178 7178 7178 7178 7332 7332 7332 7332 7178 7178 7178 7178 4774 4774 4774 4774 4774 4774 4774 4774 4774 4774 4708 4708 4708 4708 4708 4708 4708 4645 4645 4582 4582 4582 4582 4582 4582 4582 4582 4582 4463 4463 4463 4463 4463 4463 4463 4463 4463 4463 4463 4463 4463 4463 4463 4463 4463 4463 4405 4405 4405 4349 4349 4349 4349 4349 4349 4349 3238 3238 3178 3178 3178 3178 3178 4405 4405 4405 4463 0 0 0 0 0 0 0 0 0 0 0 0 0 0 0 0 0 0 0 0 3178 3149 3149 3149 3178 3208 3178 3178 3178 3208 3208 3208 3178 0 0 0 0 0 0 0 0 0 3120 3120 3149 3149 3149 3149 3149 3365 3365 3300 3300 3333 3333 3333 3333 3333 3333 3333 3333 3300 3300 3300 3269 3208 3208 3208 3269 3269 3269 3269 3269 3269 3269 3269 3300 3333 3333 3333 3365 3365 3333 3333 3333 3300 3300 3269 3269 3269 3269 0 0 0 0 0 0 0 0 0 0 0
0 0 0 0 0 0 0 0 0 0 0 0 0 0 0 0 0 0 0 0 0 0 0 0 0 0 0 0 0 0 4645 4645 4645 4645 4645 4582 4582 4645 4645 4645 4645 4645 4645 4645 4645 4708 4708 4645 4645 4645 4645 4645 4645 4645 4582 4582 4582 4582 4582 4582 4582 4582 4582 4582 4582 4582 4582 4582 4582 4582 4582 4582 4582 4582 4645 4645 4645 4645 4645 4645 4582 4582 4582 4582 4582 4522 4522 4522 4522 4522 4522 4522 4582 4582 4582 4582 4582 4582 4582 4522 4522 4463 4463 4405 4349 4349 4349 4405 4405 4463 4463 4522 4582 4582 4582 4645 4708 4708 4708 4708 4708 4708 4708 4645 4645 4645 4582 4582 4582 4582 4582 4582 4645 4645 4645 4708 4708 4774 4774 4774 4774 4842 4842 4842 4842 4842 4842 4911 4911 4911 4911 4983 5056 5056 5132 5132 5210 5291 5291 5374 5374 5374 5374 5374 5374 5374 5374 5374 5374 5460 5460 5460 5548 5548 5640 5640 5832 5832 5933 5933 5933 5933 5933 5933 6038 6038 6146 7492 7492 7492 7492 7492 7660 7492 7492 7332 7332 7492 7332 7332 7332 7332 7332 7332 7332 7332 7332 2184 2184 2184 2184 2184 2184 2184 2184 2184 2184 2184 2184 2184 2184 2184 2184 2184 2184 2184 2184 2184 2184 2184 2170 2170 2184 2184 2184 2184 2198 2198 2198 2184 2184 2170 2170 2170 2184 2184 2184 2184 2184 2184 2184 2184 2184 2184 2184 2184 2170 2170 2184 2184 2184 2184 2198 2184 2170 2170 2170 2170 2170 2170 2170 2170 2170 2170 3269 3269 3269 3269 3269 3269 2170 2170 2170 2170 2170 2170 2170 2170 2170 2170 2170 3269 3269 3269 3269 3269 3269 3269 3269 3269 3269 3269 3269 3269 3269 3269 3269 3269 3269 3269 3269 3269 3269 3269 3269 3269 3269 3269 3269 3269 3269 3269 3269 3269 3269 3269 3238 3238 3238 3238 3208 3208 3208 3238 3238 3208 3208 3208 3208 3238 3238 3238 3238 3269 3269 3333 3365 3399 3468 3503 3503 2116 2116 2116 2116 2116 2116 2116 2116 2116 2116 2116 4582 4582 4582 4582 4582 4582 4582 4582 4645 4645 7332 7332 7332 7332 7332 7492 7492 7492 7492 7492 7332 7178 6375 6259 6146 6038 6038 6146 7332 7332 7492 2143 2143 2143 7332 7332 7332 7332 7178 7178 7178 7178 7178 7178 7332 7332 7332 7332 7178 7178 7178 7332 7178 7178 7178 7178 7178 7332 7332 7332 7332 7332 7332 7332 7332 7492 7492 7332 7332 7332 7332 7332 7332 7332 7332 7332 7332 7178 7178 7178 7030 7030 7178 7178 7178 7178 7030 7030 7178 7178 7178 7178 7178 7178 7178 7178 7178 7178 7178 7178 7178 7332 7332 7332 7332 7178 7178 7178 7178 4774 4774 4774 4842 4842 4774 4774 4774 4774 4774 4708 4708 4708 4708 4708 4645 4645 4645 4645 4582 4582 4582 4582 4582 4582 4582 4582 4582 4522 4463 4463 4463 4463 4463 4463 4463 4463 4463 4463 4463 4463 4463 4463 4463 4463 4463 4405 4405 4405 4349 4349 4349 4349 4349 4349 4405 3238 3178 3149 3149 3149 3178 0 0 0 0 0 0 0 0 0 0 0 0 0 0 0 0 0 0 0 0 0 0 0 0 0 3149 3149 3149 3149 3178 3178 3178 3178 3178 3208 3208 3178 3178 0 0 0 0 0 0 0 0 0 3120 3120 3149 3149 3149 3149 3178 3333 3333 3269 3269 3269 3269 3300 3300 3300 3269 3269 3300 3300 3269 3269 3269 3208 3208 3208 3269 3269 3269 3269 3269 3269 3269 3269 3269 3300 3300 3300 3333 3333 3300 3300 3333 3269 3269 3178 3178 3178 3178 0 0 0 0 0 0 0 0 0 0 0
0 0 0 0 0 0 0 0 0 0 0 0 0 0 0 0 0 0 0 0 0 0 0 0 0 0 0 0 0 0 4645 4645 4645 4645 4645 4582 4582 4645 4645 4645 4645 4645 4645 4645 4645 4708 4645 4645 4645 4645 4645 4645 4645 4645 4582 4582 4582 4582 4582 4582 4582 4582 4582 4582 4582 4582 4582 4582 4582 4582 4582 4582 4582 4582 4645 4645 4645 4645 4582 4582 4582 4582 4582 4582 4582 4522 4522 4522 4522 4522 4522 4522 4582 4582 4582 4582 4582 4582 4582 4522 4522 4463 4405 4405 4349 4349 4349 4405 4405 4463 4463 4522 4582 4582 4582 4645 4645 4645 4708 4708 4645 4645 4645 4645 4645 4645 4645 4645 4645 4645 4582 4582 4645 4645 4645 4708 4708 4774 4774 4774 4774 4842 4842 4842 4842 4842 4911 4911 4911 4911 4911 4983 4983 5056 5056 5132 5210 5210 5291 5291 5291 5374 5374 5374 5374 5374 5374 5460 5460 5460 5460 5460 5548 5548 5640 5640 5832 5832 5933 5933 5933 5933 5933 5933 6038 6038 6146 6146 7332 7332 7492 7492 7492 7492 7492 7492 7492 7492 7492 7492 7492 7492 7492 7492 7492 2184 2184 2184 2184 2184 2184 2184 2184 2184 2184 2184 2184 2184 2184 2184 2184 2184 2184 2184 2184 2184 2184 2184 2184 2184 2184 2184 2184 2184 2184 2184 2198 2198 2198 2184 2184 2170 2170 2170 2184 2184 2184 2184 2184 2184 2184 2184 2184 2184 2170 2170 2170 2170 2184 2184 2184 2184 2184 2170 2170 2170 2170 2170 2170 2170 2170 2170 2170 2170 2170 3269 2170 2170 3269 2156 2156 2156 2170 2170 2170 2170 2170 2170 2170 2170 2170 2184 3269 3269 3269 3269 3269 3269 3269 3269 3269 3269 3269 3269 3269 3269 3269 3269 3269 3269 3269 3269 3269 3269 3269 3269 3269 3269 3269 3269 3269 3269 3269 3269 3269 3269 3238 3238 3238 3238 3208 3208 3208 3238 3238 3238 3208 3208 3238 3238 3238 3238 3238 3269 3269 3333 3365 3399 3399 3399 2116 2116 2116 2116 2116 2116 2116 2116 2116 2116 2116 2116 2129 4582 4582 4582 4582 4582 4582 4582 4645 4645 7492 7492 7492 7492 7492 7492 7492 7660 7492 7492 7492 7332 7332 6259 6146 6038 6038 2156 2156 7492 2143 2129 2129 2129 2116 2116 2116 7332 7178 7030 7030 7030 7030 7030 7178 7332 7332 7332 7178 7178 7178 7332 7332 7332 7178 7178 7332 7332 7332 7332 7332 7332 7332 7332 7332 7332 7332 7332 7332 7332 7332 7332 7332 7332 7332 7332 7332 7332 7178 7178 7178 7178 7178 7178 7178 7178 7030 7030 7178 7178 7178 7178 7178 7178 7332 7332 7332 7332 7332 7332 7332 7332 7332 7332 7332 7178 7178 7178 7178 4774 4774 4842 4842 4842 4774 4774 4774 4774 4774 4774 4708 4708 4708 4708 4645 4645 4645 4645 4582 4582 4582 4582 4582 4582 4582 4582 4522 4463 4463 4463 4463 4463 4463 4463 4463 4463 4463 4463 4463 4463 4463 4463 4463 4463 4405 4405 4405 4405 4349 4349 4349 4405 4405 4405 4405 4405 3178 3149 3149 3149 3178 0 0 0 0 0 0 0 0 0 0 0 0 0 0 0 0 0 0 0 0 0 0 0 0 0 0 3149 3149 3149 3178 3178 3178 3178 3178 3208 3178 3149 3149 3149 0 0 0 0 0 0 0 0 3120 3120 3149 3120 3120 3120 3149 3149 3178 3208 3208 3208 3238 3269 3269 3269 3238 3238 3238 3269 3269 3269 3120 3120 3120 3037 3037 3149 3178 3178 3208 3238 3238 3238 3300 3300 3269 3269 3333 3333 3300 3300 3300 3269 3269 3178 3178 3178 3178 0 0 0 0 0 0 0 0 0 0 0
0 0 0 0 0 0 0 0 0 0 0 0 0 0 0 0 0 0 0 0 0 0 0 0 0 0 0 0 0 0 4645 4645 4645 4645 4645 4582 4582 4645 4645 4645 4645 4645 4645 4645 4645 4645 4645 4645 4645 4645 4645 4645 4645 4645 4582 4582 4582 4582 4645 4582 4582 4582 4582 4582 4582 4582 4582 4582 4582 4582 4582 4582 4582 4582 4582 4582 4582 4582 4582 4582 4582 4582 4582 4582 4582 4582 4582 4582 4582 4582 4582 4582 4582 4582 4582 4582 4582 4582 4582 4522 4522 4463 4405 4405 4405 4405 4405 4405 4463 4463 4463 4522 4522 4582 4582 4645 4645 4645 4645 4708 4645 4645 4645 4645 4645 4645 4645 4645 4645 4645 4582 4582 4645 4645 4645 4708 4708 4774 4774 4774 4774 4842 4842 4842 4842 4842 4911 4911 4911 4911 4911 4983 4983 5056 5056 5056 5132 5210 5210 5291 5291 5374 5374 5374 5374 5374 5460 5460 5460 5460 5460 5460 5460 5460 5548 5640 5832 5933 5933 5933 6038 6038 6038 6038 6038 6038 6038 6146 7178 7332 7492 7492 7492 7492 7492 7492 7660 7660 7492 7332 7332 7332 7492 7492 7492 2184 2184 2184 2184 2184 2184 2184 2184 2184 2184 2184 2184 2184 2184 2184 2198 2184 2184 2184 2184 2198 2198 2198 2198 2198 2184 2184 2198 2198 2184 2184 2184 2198 2184 2184 2184 2170 2170 2184 2184 2184 2184 2184 2184 2184 2184 2184 2184 2184 2170 2170 2170 2170 2184 2184 2184 2184 2184 2170 2170 2170 2170 2170 2170 2170 2170 2170 2170 2170 2170 2170 2170 2170 2156 2156 2156 2156 2170 2170 2170 2170 2170 2170 2170 2170 2170 2170 3269 3269 3269 3269 3269 3269 3269 3269 3269 3269 3269 3269 3269 3269 3269 3269 3269 3269 3269 3269 3269 3269 3269 3269 3269 3269 3269 3269 3269 3269 3269 3269 3269 3238 3208 3208 3208 3238 3238 3238 3238 3238 3238 3238 3238 3238 3238 3238 3238 3238 3238 3269 3300 3300 3365 3365 3333 3333 0 2116 2116 2116 2116 2116 2116 2116 2116 2116 2116 2116 2116 2116 2129 4582 4582 4645 4645 4645 4645 4645 7660 7660 7492 7492 2129 2129 2143 2129 2129 7492 7492 7492 7492 7492 6146 6038 6038 2143 2143 2129 2129 2129 2129 2129 2116 2116 2116 2129 2129 2129 2143 2143 2156 6889 7030 7178 7332 7332 7178 7178 7178 7332 7332 7178 7178 7178 7178 7332 7332 7332 7332 7332 7332 7332 7332 7332 7332 7332 7332 7332 7332 7332 7332 7332 7332 7332 7332 7332 7178 7178 7178 7178 7178 7178 7178 7178 7030 7030 7178 7178 7178 7178 7178 7178 7332 7332 7332 7332 7332 7332 7178 7178 7332 7332 7178 7178 7178 7178 7178 4842 4842 4842 4842 4842 4774 4774 4774 4774 4774 4708 4708 4708 4708 4708 4708 4708 4645 4645 4582 4582 4582 4582 4582 4522 4522 4522 4522 4463 4463 4463 4463 4463 4463 4463 4463 4463 4463 4463 4463 4463 4405 4405 4463 4405 4405 4405 4405 4405 4405 4349 4349 4405 4405 4405 4405 3178 3178 3149 3149 3149 3178 3178 0 0 0 0 0 0 0 0 0 0 0 0 0 0 0 0 3037 3037 3037 3092 3092 3092 3120 3149 3178 3178 3149 3149 3178 3178 3149 3149 3178 3149 3149 3120 3120 3120 3149 0 0 0 0 0 0 0 3092 3092 3120 3120 3120 3120 3149 3149 3149 3149 3149 3178 3178 3238 3238 3238 3238 3238 3238 3269 3269 3120 3120 3120 3092 2984 2984 3149 2958 2958 3208 3238 3238 0 3269 3269 3269 3269 3269 3269 3300 3300 3300 0 0 0 0 0 0 0 0 0 0 0 0 0 0 0 0 0
0 0 0 0 0 0 0 0 0 0 0 0 0 0 0 0 0 0 0 0 0 0 0 0 0 0 0 0 0 0 4645 4645 4645 4645 4645 4582 4582 4645 4645 4645 4645 4645 4645 4645 4645 4645 4645 4645 4645 4645 4645 4582 4582 4645 4582 4582 4582 4645 4645 4645 4582 4582 4582 4582 4582 4582 4582 4582 4582 4582 4582 4582 4582 4582 4582 4582 4582 4582 4582 4582 4582 4582 4582 4582 4582 4582 4522 4522 4582 4582 4582 4582 4582 4582 4582 4582 4582 4582 4582 4522 4522 4463 4463 4405 4405 4405 4405 4405 4463 4463 4463 4522 4522 4582 4582 4645 4645 4645 4645 4645 4708 4645 4645 4645 4645 4645 4645 4645 4645 4645 4645 4645 4645 4645 4645 4708 4708 4774 4774 4774 4774 4842 4842 4842 4842 4911 4911 4983 4983 4983 4983 4983 4983 5056 5056 5056 5132 5132 5210 5291 5291 5291 5291 5374 5374 5374 5460 5460 5460 5460 5460 5460 5460 5460 5548 5640 5933 5933 5933 6038 6038 6038 6038 6038 6038 6038 6038 6038 7178 7332 7492 7492 7492 7660 7492 7492 7660 7660 7492 7332 7332 7332 7332 2170 2170 2184 2184 2184 2184 2184 2184 2184 2184 2184 2184 2184 2184 2184 2184 2198 2198 2198 2184 2184 2184 2184 2184 2198 2198 2198 2198 2198 2198 2198 2184 2184 2184 2198 2184 2184 2184 2184 2184 2184 2184 2184 2184 2184 2184 2184 2184 2184 2184 2184 2184 2184 2184 2184 2184 2184 2184 2184 2184 2184 2170 2170 2170 2170 2170 2170 2170 2170 2170 2170 2170 2170 2170 2170 2156 2156 2156 2156 2156 2170 2170 2170 2170 2170 2170 2170 2170 2170 3269 3269 3269 3269 3269 3269 3269 3269 3269 3269 3269 3269 3269 3269 3269 3269 3269 3269 3269 3269 3269 3269 3269 3269 3269 3269 3269 3269 3269 3269 3269 3269 3269 3238 3208 3208 3208 3238 3238 3238 3238 3238 3238 3238 3238 3238 3238 3238 3238 3238 3238 3269 3269 3300 3333 3333 3333 3333 2103 2116 2116 2116 2116 2116 2116 2116 2116 2129 2116 2116 2116 2116 2129 2129 2129 2129 2143 4645 4645 7660 2129 2129 2129 2129 2129 2129 2143 2129 2116 2116 2116 2116 2116 2143 2143 2143 2143 2143 2143 2129 2129 2129 2129 2129 2129 2129 2129 2129 2129 2129 2143 2143 2156 2143 2143 7178 7332 7332 7178 7178 7178 7332 2143 2129 2129 2129 2116 2116 7178 7178 7178 7332 7332 7332 7332 7332 7332 7332 7332 7332 7332 7332 7332 7332 7332 7332 7332 7332 7332 7332 7178 7178 7178 7178 7178 7178 7030 7030 7178 7178 7178 7178 7178 7332 7332 7332 7332 7332 7332 7332 7178 7178 7332 7332 7178 7178 7178 7178 7178 4842 4842 4842 4842 4842 4774 4774 4774 4774 4774 4708 4708 4708 4708 4708 4645 4645 4645 4645 4582 4582 4582 4582 4582 4522 4522 4522 4522 4463 4463 4463 4463 4463 4463 4463 4463 4463 4463 4463 4463 4463 4405 4405 4405 4405 4405 4405 4405 4405 4405 4405 4405 4405 4405 4405 4405 3178 3149 3149 3149 3149 3178 3178 0 0 0 0 0 0 0 0 0 0 0 0 0 0 0 3064 3037 3037 3037 3064 3092 3092 3092 3092 3149 3149 3120 3120 3149 3149 3149 3149 3149 3149 3092 3092 3092 3092 3092 3092 0 0 0 0 0 0 3092 3064 3064 3064 3092 3092 3092 3120 3120 3120 3120 3149 3178 3208 3208 3208 3149 3149 3149 3149 3149 3064 3064 3064 3064 2984 2984 2958 2933 2933 2958 2958 2958 0 0 2958 0 0 2933 0 0 0 0 0 0 0 0 0 0 0 0 0 0 0 0 0 0 0 0 0
0 0 0 0 0 0 0 0 0 0 0 0 0 0 0 0 0 0 0 0 0 0 0 0 0 0 0 0 0 0 4645 4645 4645 4645 4645 4582 4582 4645 4645 4645 4645 4645 4645 4645 4645 4645 4645 4645 4645 4645 4645 4582 4582 4645 4582 4582 4582 4645 4645 4645 4582 4582 4582 4582 4582 4582 4582 4582 4582 4582 4582 4582 4582 4582 4582 4582 4582 4582 4582 4582 4582 4582 4582 4582 4582 4582 4522 4522 4582 4582 4582 4582 4582 4582 4582 4582 4582 4582 4582 4522 4522 4463 4463 4405 4405 4405 4405 4405 4405 4463 4463 4522 4522 4522 4582 4582 4645 4645 4645 4645 4645 4645 4645 4645 4645 4645 4645 4645 4645 4645 4645 4645 4645 4645 4645 4708 4708 4774 4774 4774 4774 4842 4842 4842 4842 4911 4911 4983 4983 4983 4983 4983 4983 5056 5056 5056 5056 5056 5056 5132 5291 5291 5291 5374 5374 5374 5460 5460 5460 5460 5460 5460 5460 5460 5548 5640 5933 5933 6038 6038 6038 6038 6038 6038 6038 6038 6038 6038 6146 6146 7492 7492 7660 7660 7660 7660 7660 7660 7492 7332 7332 7332 7332 2170 2170 2170 2184 2184 2184 2184 2170 2170 2170 2170 2184 2184 2184 2184 2184 2184 2198 2198 2184 2184 2184 2184 2184 2198 2198 2198 2198 2198 2198 2198 2184 2184 2184 2198 2184 2184 2184 2184 2184 2184 2184 2184 2184 2184 2184 2184 2184 2170 2170 2170 2184 2184 2184 2184 2184 2184 2184 2184 2184 2184 2170 2170 2170 2170 2170 2170 2170 2170 2170 2170 2170 2170 2170 2170 2156 2156 2156 2156 2156 2170 2170 2170 2170 2170 2170 2184 2170 2170 3269 3269 3269 3269 3269 3269 3269 3269 3269 3269 3269 3269 3269 3269 3269 3269 3269 3269 3269 3269 3269 3269 3269 3269 3269 3269 3269 3269 3269 3269 3269 3269 3269 3238 3208 3208 3208 3208 3208 3238 3238 3238 3238 3238 3238 3238 3238 3238 3238 3238 3238 3269 3269 3300 3333 3333 3333 3333 2103 2103 2103 2103 2116 2116 2116 2129 2129 2129 2129 2116 2116 2129 2129 2129 2129 2129 2143 2143 2143 2143 2129 2129 2129 2129 2129 2129 2143 2129 2116 2116 2116 2116 2116 2129 2129 2129 2129 2143 2143 2129 2129 2129 2129 2129 2129 2129 2143 2143 2143 2143 2143 2156 2143 2143 2143 2143 2156 7492 7492 2129 2129 2129 2129 2129 2116 2116 2116 2103 2103 2116 2103 2103 2103 7332 7332 2090 2090 2090 2078 2078 2078 2078 2078 2078 2090 2090 7178 7178 7332 7332 7178 7178 7178 7178 7178 7178 7030 7030 7178 7178 7178 7178 7178 7332 7332 7332 7332 7332 7332 7332 7332 7332 7332 7332 7178 7178 7178 7178 4842 4842 4842 4842 4842 4842 4842 4774 4774 4774 4774 4708 4708 4708 4708 4645 4645 4645 4645 4645 4582 4582 4582 4582 4582 4582 4582 4522 4522 4463 4463 4463 4463 4463 4463 4463 4463 4463 4463 4463 4463 4463 4405 4405 4405 4405 4405 4405 4405 4405 4405 4405 4405 4405 4405 4405 4405 3149 3149 3149 3149 3149 3178 3178 0 0 0 0 0 0 0 0 0 0 0 0 0 0 3037 3037 3037 3037 3037 3064 3092 3092 3092 3092 3149 3120 3120 3120 3092 3064 3064 3064 3092 3092 3064 3064 3064 3092 3092 3092 3064 3064 0 0 0 0 0 3037 3037 3064 3064 3064 3064 3092 3092 3092 3092 3120 3178 3208 3149 3149 3149 3149 3149 3149 0 0 3064 3064 3010 2984 2958 2958 2933 2933 2958 2958 2933 2933 2958 2958 0 2933 2933 0 0 0 0 0 0 0 0 0 0 0 0 0 0 0 0 0 0 0 0 0
0 0 0 0 0 0 0 0 0 0 0 0 0 0 0 0 0 0 0 0 0 0 0 0 0 0 0 0 0 0 4645 4645 4645 4645 4645 4582 4582 4645 4645 4645 4645 4645 4645 4645 4645 4645 4645 4645 4645 4645 4645 4645 4645 4645 4645 4582 4582 4645 4645 4645 4582 4582 4582 4582 4582 4582 4582 4582 4582 4522 4522 4582 4582 4582 4582 4582 4582 4582 4582 4582 4582 4522 4522 4522 4522 4582 4522 4522 4582 4582 4582 4582 4582 4582 4582 4582 4582 4582 4582 4522 4522 4522 4463 4405 4405 4405 4405 4405 4405 4463 4463 4522 4522 4522 4582 4582 4645 4645 4645 4645 4645 4645 4645 4645 4645 4645 4645 4645 4645 4645 4645 4645 4645 4645 4645 4708 4708 4774 4774 4774 4774 4842 4842 4842 4842 4911 4911 4911 4983 4983 4983 4983 4983 5056 5056 5056 5056 5056 4983 4983 5291 5374 5374 5374 5374 5374 5374 5374 5374 5460 5460 5460 5460 5460 5548 5640 5933 5933 6038 6038 6038 6038 6038 6038 6038 6038 5933 5933 6038 6038 3269 3269 3269 3269 7660 7660 7660 7660 7660 7660 7660 2184 2184 2184 2170 2170 2184 2184 2184 2184 2170 2170 2170 2170 2184 2184 2184 2184 2184 2184 2198 2198 2198 2198 2198 2198 2198 2198 2198 2198 2198 2198 2198 2198 2198 2198 2198 2198 2198 2198 2198 2184 2184 2184 2184 2184 2184 2184 2184 2184 2184 2170 2170 2170 2184 2184 2184 2184 2184 2184 2184 2184 2184 2184 2184 2184 2184 2184 2170 2170 2170 2170 2170 2170 2170 2170 2170 2170 2170 2170 2170 2170 2170 2170 2170 2170 2170 2170 2170 2184 2170 2170 2184 3269 3269 3269 3269 3269 3269 3269 3269 3269 3269 3269 3269 3269 3269 3269 3269 3269 3269 3269 3269 3269 3269 3269 3269 3269 3269 3269 3269 3269 3269 3269 3269 3269 3208 3208 3208 3208 3208 3208 3208 3208 3238 3238 3238 3238 3238 3238 3238 3238 3238 3269 3300 3300 3333 3333 3333 3333 2116 2103 2103 2103 2116 2116 2116 2129 2129 2129 2129 2129 2129 2129 2129 2129 2129 2143 2143 2143 2143 2143 2143 2129 2129 2129 2129 2129 2129 2129 2129 2116 2116 2116 2116 2116 2129 2129 2129 2129 2143 2129 2129 2143 2129 2129 2129 2129 2129 2129 2129 2129 2129 2143 2129 2129 2129 2129 2143 2129 2129 2129 2129 2116 2116 2116 2116 2116 2103 2103 2103 2103 2103 2103 2103 2103 2103 2090 2090 2090 2078 2078 2078 2078 2078 2078 2090 2090 2090 2103 2103 7332 7332 7178 7178 7178 7178 7030 6889 6889 7030 7178 7178 7178 7178 7332 7332 7332 7332 7332 7332 7332 7178 7178 7178 7178 7178 7178 7178 7178 4842 4842 4842 4842 4842 4842 4842 4842 4774 4774 4774 4708 4708 4708 4708 4645 4645 4645 4645 4645 4582 4582 4582 4582 4582 4582 4582 4522 4522 4463 4463 4463 4463 4463 4463 4463 4463 4463 4463 4463 4463 4463 4463 4463 4405 4405 4405 4405 4405 4405 4405 4405 4405 4405 4349 4349 4349 3149 3149 3149 3149 3149 3178 3178 0 0 0 0 0 0 0 0 0 0 0 0 0 0 3037 3037 3037 3037 3037 3064 3092 3092 3064 3064 3064 3120 3064 3064 3037 3037 3037 3037 3064 3064 3064 3064 3064 3064 3064 3064 3064 3064 3092 0 0 0 0 2984 2984 3010 3037 3064 3064 3064 3064 3092 3092 3120 3178 0 3149 3149 3149 3120 3120 3120 3037 3037 3037 3010 3010 2958 2958 2958 2933 2933 2958 2958 2933 2933 2958 2958 2933 2933 2933 2933 2933 0 0 0 0 0 0 0 0 0 0 0 0 0 0 0 0 0 0 0
0 0 0 0 0 0 0 0 0 0 0 0 0 0 0 0 0 0 0 0 0 0 0 0 0 0 0 0 0 0 4645 4645 4645 4645 4645 4582 4582 4645 4645 4645 4645 4645 4645 4645 4645 4645 4645 4645 4645 4645 4582 4582 4645 4645 4645 4645 4645 4645 4645 4645 4582 4582 4645 4582 4582 4582 4582 4582 4582 4522 4522 4522 4582 4582 4582 4582 4582 4582 4582 4582 4582 4522 4522 4522 4522 4582 4522 4522 4582 4582 4582 4582 4582 4582 4582 4582 4582 4582 4582 4522 4522 4522 4463 4463 4405 4405 4405 4405 4405 4463 4463 4522 4522 4522 4582 4582 4645 4645 4645 4645 4645 4645 4645 4645 4645 4645 4645 4645 4645 4645 4645 4645 4645 4645 4708 4708 4708 4774 4774 4774 4774 4842 4842 4842 4842 4842 4911 4911 4983 4983 4983 4983 4983 5056 5056 5056 5056 5056 4983 4983 4983 4983 5374 5374 5374 5374 5374 5374 5374 5460 5460 5460 5460 5548 5640 5734 5933 6038 6038 6038 6038 6038 6038 6038 6038 6038 5933 5933 6038 6038 3269 3269 3269 3269 3269 3269 3149 3149 3149 3149 3149 3149 2184 2184 2184 2184 2184 2184 2184 2184 2170 2170 2170 2170 2184 2184 2184 2184 2184 2184 2198 2198 2198 2198 2198 2198 2198 2198 2198 2198 2198 2198 2198 2198 2198 2198 2198 2198 2198 2198 2198 2184 2184 2184 2184 2184 2184 2184 2184 2184 2184 2184 2170 2170 2170 2170 2170 2170 2170 2170 2170 2170 2184 2184 2184 2184 2184 2170 2170 2170 2170 2170 2170 2184 2170 2170 2170 2170 2170 2170 2170 2170 2170 2170 2170 2170 2170 2170 2170 2184 2170 2170 2184 3269 3269 3269 3269 3269 3269 3269 3269 3269 3269 3269 3269 3269 3269 3269 3269 3269 3238 3238 3238 3238 3238 3238 3238 3269 3269 3269 3269 3269 3269 3269 3269 3269 3208 3208 3208 3208 3208 3208 3208 3208 3238 3238 3238 3208 3208 3238 3238 3238 3238 3238 3269 3300 3333 3333 3333 3333 2116 2103 2103 2116 2116 2116 2129 2129 2129 2129 2129 2129 2129 2129 2143 2143 2143 2143 2156 2156 2156 2143 2143 2143 2129 2129 2129 2129 2129 2129 2129 2116 2116 2116 2116 2116 2129 2129 2129 2129 2143 2129 2129 2143 2129 2129 2129 2129 2129 2129 2129 2129 2129 2129 2129 2129 2129 2129 2129 2129 2129 2129 2129 2116 2116 2116 2116 2103 2103 2103 2103 2103 2090 2090 2103 2103 2103 2090 2090 2090 2078 2078 2078 2078 2078 2078 2090 2090 2090 2090 2103 0 0 0 0 0 7178 6753 6753 6889 7030 7178 7178 7178 7178 7332 7332 7332 7332 7332 7332 7332 7178 7178 7178 7178 7178 7178 7178 7178 4842 4842 4842 4842 4842 4842 4842 4842 4774 4774 4774 4708 4708 4708 4708 4708 4645 4645 4645 4645 4582 4582 4582 4582 4582 4582 4582 4582 4582 4463 4463 4463 4463 4463 4463 4463 4463 4463 4463 4463 4463 4463 4463 4463 4463 4463 4463 4463 4463 4405 4405 4405 4405 4405 4349 4349 4349 3149 3149 3149 3149 3149 3178 3178 3208 0 0 0 0 0 0 0 0 0 0 0 0 0 3064 3064 3064 3064 3064 3064 3092 3092 3064 3064 3064 3064 3037 3037 2984 2984 3010 3010 3010 3037 3037 3037 3037 3064 3064 3064 3064 3064 3092 3092 0 0 2984 2984 2984 3010 3037 3037 3064 3037 3037 3092 3092 3120 0 0 0 3149 3064 3064 3037 3037 3037 3037 3037 2958 2933 2933 2958 2958 2933 2933 2958 2933 2908 2908 2933 2958 2883 2883 2908 2933 2958 2958 2984 0 0 0 0 0 0 0 0 0 0 0 0 0 0 0 0 0
0 0 0 0 0 0 0 0 0 0 0 0 0 0 0 0 0 0 0 0 0 0 0 0 0 0 0 0 0 0 4645 4645 4645 4645 4645 4582 4582 4645 4645 4645 4645 4645 4645 4645 4645 4645 4645 4645 4645 4645 4582 4582 4645 4645 4645 4645 4645 4645 4645 4645 4582 4582 4645 4582 4582 4582 4582 4582 4522 4522 4522 4522 4582 4582 4582 4582 4582 4582 4582 4582 4582 4522 4522 4522 4522 4582 4522 4522 4582 4582 4582 4582 4582 4582 4582 4582 4582 4582 4582 4582 4522 4522 4522 4463 4463 4405 4405 4405 4463 4463 4463 4522 4522 4522 4582 4582 4645 4645 4645 4645 4645 4645 4645 4645 4645 4645 4645 4645 4645 4645 4645 4645 4645 4645 4645 4708 4708 4774 4774 4774 4774 4842 4842 4842 4842 4842 4911 4911 4911 4983 4983 4983 4983 5056 5056 5056 5056 5056 4983 4983 4983 4983 5374 5374 5291 5291 5374 5374 5460 5460 5548 5460 5460 5548 5640 5734 5933 6038 6038 6038 6038 6038 6038 6038 6038 6038 6038 6038 6038 6038 3269 3269 3269 3269 3269 0 3149 3149 3149 3149 3120 3120 3149 2184 2184 2184 2184 2184 2184 2184 2184 2184 2184 2184 2184 2184 2184 2184 2184 2184 2198 2198 2198 2198 2198 2198 2198 2198 2198 2198 2198 2198 2198 2198 2198 2184 2184 2198 2198 2198 2198 2184 2184 2184 2184 2184 2184 2184 2184 2184 2184 2184 2170 2170 2170 2170 2170 2170 2170 2170 2170 2170 2184 2184 2184 2184 2170 2170 2170 2170 2170 2170 2170 2184 2184 2184 2184 2170 2170 2170 2170 2170 2170 2170 2170 2170 2184 2184 2184 2184 2184 2184 2184 3269 3269 3269 3269 3269 3269 3269 3269 3269 3269 3269 3269 3269 3269 3269 3238 3238 3238 3238 3208 3208 3208 3208 3238 3238 3238 3269 3269 3269 3269 3269 3238 3238 3208 3208 3208 3208 3208 3208 3208 3208 3208 3208 3208 3208 3208 3208 3208 3208 3208 3208 3238 3269 3300 3300 3333 3333 2116 2116 2116 2116 2116 2116 2129 2129 2129 2129 2129 2129 2129 2129 2143 2143 2143 2143 2156 2156 2143 2143 2143 2143 2143 2129 2129 2129 2129 2129 2129 2116 2116 2116 2129 2129 2129 2129 2129 2129 2129 2129 2129 2143 2129 2129 2129 2143 2129 2129 2129 2129 2129 2129 2129 2129 2129 2129 2129 2129 2129 2129 2129 2116 2116 2116 2116 2103 2103 2103 2103 2103 2090 2090 2103 2090 2090 2090 2090 2090 2090 2090 2090 2078 2078 2090 2090 2090 2090 2090 2103 0 0 0 0 0 0 6753 6622 6622 6753 7030 7178 7178 7178 7332 7332 7332 7332 7332 7332 7332 7332 7178 7178 7178 7178 7178 7178 7332 4842 4842 4842 4842 4842 4842 4842 4774 4774 4774 4774 4708 4708 4708 4708 4708 4645 4645 4645 4645 4582 4582 4582 4582 4582 4582 4582 4582 4582 4463 4463 4463 4463 4463 4463 4463 4463 4463 4463 4463 4463 4463 4463 4463 4463 4463 4463 4463 4463 4405 4405 4405 4405 4405 4349 4349 4349 3149 3149 3149 3149 3149 3178 3178 3178 0 0 0 0 0 0 0 0 0 0 0 0 0 3092 3092 3092 3092 3092 3092 3092 3092 3064 3037 3037 3037 2984 2984 2984 2984 2958 2958 2984 2984 2984 3010 3010 3037 3037 3037 3064 3064 3064 3064 0 0 2958 2958 2958 2984 3010 3037 3037 3037 3037 3037 3037 3037 3037 0 3010 3010 3010 3010 3010 3010 3010 3010 2958 2958 2933 2933 2958 2933 2933 2933 2933 2933 2883 2883 2908 2908 2883 2883 2908 2933 2958 2958 2933 2933 0 0 0 0 0 0 0 0 0 0 0 0 0 0 0 0
0 0 0 0 0 0 0 0 0 0 0 0 0 0 0 0 0 0 0 0 0 0 0 0 0 0 0 0 0 0 4645 4645 4645 4645 4645 4645 4645 4645 4645 4645 4645 4645 4645 4645 4645 4582 4582 4582 4582 4582 4582 4645 4645 4645 4645 4645 4645 4645 4645 4645 4645 4645 4645 4582 4582 4582 4582 4582 4522 4522 4522 4522 4582 4582 4582 4582 4582 4582 4582 4582 4582 4522 4522 4582 4582 4582 4522 4522 4582 4582 4582 4582 4582 4582 4582 4582 4582 4582 4582 4582 4522 4522 4522 4463 4463 4463 4463 4463 4463 4463 4463 4522 4522 4522 4582 4582 4645 4645 4645 4645 4645 4645 4645 4645 4645 4645 4645 4645 4645 4645 4645 4645 4645 4645 4645 4708 4708 4774 4774 4774 4774 4842 4842 4842 4842 4842 4911 4911 4911 4983 4983 4983 4983 5056 5056 5056 5056 4983 4983 4983 4983 4983 5291 5291 5291 5291 5374 5374 5460 5460 5548 5460 5460 5548 5640 5734 6038 6038 6038 6038 5933 5933 5933 5933 5933 5933 6038 6038 6038 6038 3269 3269 3269 3269 3269 3208 3149 3149 3149 3120 3120 3120 3149 3149 2184 2184 2184 2184 2184 2184 2184 2184 2184 2184 2184 2184 2184 2184 2184 2198 2198 2198 2198 2198 2198 2198 2198 2184 2184 2198 2198 2198 2198 2198 2198 2184 2184 2198 2198 2198 2198 2184 2184 2184 2184 2184 2184 2184 2184 2184 2184 2184 2184 2170 2170 2170 2170 2170 2170 2170 2170 2170 2184 2184 2184 2184 2170 2170 2170 2170 2170 2170 2170 2184 2184 2184 2184 2170 2170 2170 2170 2170 2170 2170 2170 2170 2184 2184 2184 2184 2184 2184 3269 3269 3269 3269 3269 3269 3269 3269 3269 3269 3269 3269 3269 3269 3269 3238 3238 3238 3208 3208 3208 3208 3208 3208 3208 3238 3238 3238 3238 3238 3269 3269 3238 3238 3208 3208 3178 3178 3178 3178 3178 3208 3208 3208 3208 3178 3178 3178 3178 3208 3208 3208 3208 3238 3300 3300 3333 3333 2116 2116 2116 2116 2116 2129 2129 2129 2129 2129 2129 2116 2116 2129 2129 2129 2143 2143 2143 2143 2143 2143 2143 2143 2143 2129 2129 2129 2129 2129 2129 2129 2116 2116 2129 2129 2129 2129 2129 2129 2129 2129 2129 2143 2143 2143 2143 2143 2129 2129 2143 2129 2129 2129 2129 2129 2129 2116 2116 2116 2116 2116 2116 2116 2116 2116 2103 2103 2103 2103 2103 2103 2090 2090 2103 2090 2090 2090 2090 2090 2090 2090 2090 2090 2090 2090 2090 2090 2090 2090 2103 0 0 0 0 0 0 0 6622 6622 6753 7030 7178 7178 7178 7332 7332 7332 7178 7178 7332 7332 7332 7178 7178 7178 7178 7178 7178 4911 4842 4842 4842 4842 4842 4842 4842 4774 4774 4774 4774 4708 4708 4708 4708 4708 4645 4645 4645 4645 4582 4582 4582 4582 4582 4582 4582 4582 4582 4463 4463 4463 4463 4463 4463 4463 4463 4463 4463 4463 4463 4463 4463 4463 4463 4463 4463 4463 4463 4405 4405 4405 4405 4405 4349 4295 4295 3149 3149 3149 3149 3149 3178 3178 3178 0 0 0 0 0 0 0 0 0 0 0 3120 3120 3092 3092 3092 3092 3092 3092 3092 3092 3037 3037 3010 3010 2984 2984 2984 2984 2958 2958 2958 2958 2984 2984 2984 3037 3037 3037 3037 3037 3064 3064 2859 2859 2908 2908 2908 2933 2958 2984 3010 3010 3010 2958 0 0 0 0 0 3010 3010 3010 2984 2984 2984 2984 2958 2933 2933 2933 2933 2933 2933 2933 2933 2908 2883 2883 2883 2883 2883 2883 2883 2908 2933 2933 2933 2933 0 0 0 0 0 0 0 0 0 0 0 0 0 0 0 0
0 0 0 0 0 0 0 0 0 0 0 0 0 0 0 0 0 0 0 0 0 0 0 0 0 0 0 0 0 0 4645 4645 4645 4645 4645 4645 4645 4645 4645 4645 4645 4645 4645 4645 4645 4582 4582 4582 4582 4582 4582 4645 4645 4645 4645 4645 4645 4645 4645 4645 4645 4645 4645 4582 4582 4582 4522 4522 4522 4522 4522 4522 4582 4582 4582 4582 4582 4582 4582 4582 4582 4582 4582 4582 4582 4582 4582 4582 4582 4582 4582 4582 4582 4582 4582 4582 4582 4582 4582 4582 4522 4522 4522 4463 4463 4463 4463 4463 4463 4463 4463 4522 4522 4582 4582 4582 4645 4645 4645 4645 4645 4645 4645 4645 4645 4645 4645 4645 4645 4645 4645 4645 4645 4645 4645 4708 4708 4708 4774 4774 4774 4842 4842 4842 4842 4842 4842 4911 4983 4983 4983 4983 4983 5056 5056 5056 5056 4983 4983 4983 4983 0 5374 5374 5374 5374 5374 5374 5460 5460 5548 5548 5548 5640 5734 5933 6038 6038 6038 6038 5933 5933 5933 5933 5933 5933 6038 6038 6038 6038 3269 3269 3269 3238 3208 3208 3178 3149 3149 3120 3120 3120 3149 3149 2184 2184 2184 2184 2184 2184 2184 2184 2184 2184 2184 2184 2184 2184 2198 2198 2198 2184 2184 2184 2184 2184 2184 2184 2184 2198 2198 2198 2198 2198 2198 2184 2184 2198 2198 2198 2198 2184 2184 2184 2184 2184 2184 2184 2184 2184 2184 2184 2170 2170 2170 2170 2170 2170 2170 2170 2170 2184 2184 2184 2184 2184 2170 2170 2170 2170 2170 2170 2170 2184 2184 2184 2184 2170 2170 2170 2170 2170 2170 2170 2170 2170 2184 2184 2184 2184 2198 0 0 2184 0 0 3238 3238 3269 3269 3269 3269 3269 3269 3238 3238 3238 3238 3238 3208 3208 3208 3178 3178 3178 3178 3208 3208 3238 3238 3238 3238 3238 3238 3238 3238 3178 3178 3149 3149 3149 3149 3178 3178 3208 3208 3208 3178 3178 3178 3178 3178 3178 3178 3178 3208 3300 3300 3300 3300 2129 2129 2129 2129 2129 2129 2129 2129 2129 2129 2129 2116 2116 2129 2129 2129 2143 2143 2143 2143 2143 2143 2143 2143 2143 2129 2129 2129 2129 2129 2129 2129 2129 2129 2129 2129 2129 2129 2143 2143 2129 2129 2129 2143 2143 2129 2129 2143 2143 2143 2143 2129 2129 2129 2129 2129 2129 2116 2116 2116 2116 2116 2116 2116 2116 2116 2103 2103 2103 2103 2103 2103 2090 2090 2090 2103 2090 2090 2090 2090 2090 2090 2090 2090 2090 2090 2090 2090 2090 2090 0 0 0 0 0 0 0 0 0 6753 6753 6889 7030 7030 7332 7332 7332 7332 7178 7178 7332 7178 7178 7178 7178 7178 7178 7332 7332 4911 4842 4842 4842 4842 4842 4842 4842 4774 4774 4774 4774 4774 4774 4708 4708 4774 4708 4645 4645 4582 4582 4582 4582 4582 4582 4582 4582 4582 4582 4522 4463 4463 4463 4463 4463 4463 4463 4463 4463 4463 4463 4463 4463 4463 4463 4463 4463 4463 4463 4405 4405 4405 4405 4405 4349 4295 4295 4349 3149 3149 3149 3149 3178 3178 3178 0 0 0 0 0 0 0 0 0 0 0 3120 3120 3092 3092 3120 3092 3092 3092 3092 3064 3037 3010 3010 2984 2984 2984 2984 2984 2958 2958 2958 2958 2984 2984 2984 2984 2984 3010 2984 2984 3064 3064 2859 2859 2859 2859 2883 2883 2908 2933 2933 2933 2958 2958 0 0 0 0 0 0 3010 3010 2984 2958 2958 2958 2933 2933 2933 2933 2933 2933 2908 2908 2908 2908 2883 2883 2859 2835 2835 2859 2859 2859 2933 2933 2933 2933 0 0 0 0 0 0 0 0 0 0 0 0 0 0 0 0
0 0 0 0 0 0 0 0 0 0 0 0 0 0 0 0 0 0 0 0 0 0 0 0 0 0 0 0 0 0 4645 4645 4645 4708 4708 4645 4645 4645 4645 4645 4582 4582 4582 4582 4582 4582 4582 4582 4582 4582 4582 4645 4645 4645 4645 4645 4645 4645 4645 4645 4645 4645 4645 4582 4582 4582 4522 4522 4522 4522 4522 4582 4582 4582 4582 4582 4582 4582 4522 4522 4522 4522 4582 4522 4522 4582 4582 4582 4582 4582 4582 4582 4582 4582 4582 4582 4582 4582 4645 4582 4582 4582 4522 4522 4463 4463 4463 4463 4463 4463 4463 4522 4522 4582 4582 4582 4645 4645 4645 4645 4645 4645 4645 4645 4645 4645 4645 4645 4645 4645 4708 4645 4645 4645 4645 4708 4708 4708 4774 4774 4774 4842 4842 4842 4842 4842 4842 4842 4983 4983 4983 4983 4983 5056 5056 5056 5056 5056 4983 4983 4983 0 0 5374 5374 5374 5374 5374 5460 5460 5548 5548 5640 5734 5832 5933 6038 6038 6038 6038 6038 6038 5933 5933 5933 5933 6038 6038 6038 6038 6038 3269 3238 3208 3178 3178 3149 3149 3120 3120 3120 3120 3149 3149 2198 2198 2184 2184 2184 2184 2184 2184 2184 2184 2184 2184 2184 2184 2198 2198 2198 2184 2184 2184 2184 2184 2184 2198 2198 2198 2198 2198 2198 2198 2198 2198 2198 2198 2198 2198 2198 2184 2184 2184 2184 2184 2184 2184 2184 2184 2184 2184 2170 2170 2170 2170 2170 2170 2170 2170 2170 2170 2184 2170 2170 2184 2170 2170 2170 2170 2170 2170 2170 2184 2184 2184 2184 2170 2170 2170 2170 2170 2170 2170 2170 2170 2184 2184 2184 2184 2198 2198 2184 0 0 0 3238 3238 3269 3269 3269 3269 3269 3269 3238 3238 3238 3208 3208 3208 3208 3208 3178 3178 3178 3178 3208 3208 3238 3208 3208 3238 3238 3208 3208 3208 3178 3178 3149 3149 3149 3149 3178 3178 3178 3208 3178 3178 3178 3149 3149 3149 3149 3149 3149 3178 3300 3300 3300 0 2129 2129 2129 2129 2129 2129 2129 2129 2129 2129 2129 2129 2129 2129 2143 2143 2143 2143 2143 2143 2143 2156 2156 2143 2143 2143 2129 2129 2129 2129 2129 2129 2129 2129 2129 2143 2143 2143 2143 2143 2143 2129 2129 2143 2129 2129 2129 2143 2143 2143 2143 2129 2129 2129 2116 2116 2116 2116 2116 2116 2116 2116 2116 2129 2129 2116 2103 2103 2103 2103 2103 2103 2090 2090 2090 2103 2090 2090 2090 2090 2090 2090 2090 2090 2090 2090 2090 2090 2090 2090 0 0 0 0 0 0 0 0 0 0 6889 6889 7030 7030 7332 7178 7178 7178 7178 7178 7178 7178 7178 7178 7178 7178 7178 7332 7492 4842 4842 4842 4842 4842 4842 4842 4842 4774 4774 4774 4774 4774 4774 4774 4774 4774 4708 4645 4645 4582 4582 4582 4582 4582 4582 4582 4582 4582 4582 4522 4522 4463 4463 4463 4463 4463 4463 4463 4463 4463 4463 4463 4463 4463 4463 4463 4463 4463 4463 4405 4405 4405 4405 4405 4349 4349 4349 4349 4349 3149 3149 3178 3178 3178 3208 0 0 0 0 0 0 0 0 0 0 0 0 3120 3120 3120 3120 3092 3092 3092 3064 3064 3010 3010 2984 2984 2984 2984 2958 2958 2958 2958 2958 2958 2958 2958 2958 2958 2958 2933 2908 2883 2859 2859 2835 2835 2835 2859 2859 2859 2883 2908 2908 2908 2958 2958 0 2835 0 0 0 2767 0 2767 2958 2958 2958 2958 2933 2933 2908 2908 2908 2908 2908 2908 2908 2883 2859 2859 2835 2835 2835 2835 2859 2859 2859 2883 2883 2908 0 0 0 0 0 0 0 0 0 0 0 0 0 0 0 0
0 0 0 0 0 0 0 0 0 0 0 0 0 0 0 0 0 0 0 0 0 0 0 0 0 0 0 0 0 0 4645 4645 4645 4708 4708 4645 4645 4645 4582 4582 4582 4582 4582 4582 4582 4582 4582 4582 4645 4645 4645 4645 4645 4708 4708 4708 4708 4645 4645 4645 4645 4645 4645 4582 4522 4522 4522 4522 4522 4522 4522 4582 4582 4582 4582 4582 4582 4582 4522 4522 4522 4522 4582 4522 4522 4582 4582 4582 4582 4582 4582 4582 4582 4582 4582 4582 4582 4582 4645 4582 4582 4582 4582 4522 4463 4463 4463 4463 4463 4463 4463 4522 4522 4582 4582 4582 4645 4645 4645 4645 4645 4645 4645 4645 4645 4645 4645 4645 4645 4645 4708 4645 4645 4645 4645 4708 4708 4708 4774 4774 4774 4842 4842 4842 4842 4842 4842 4842 4983 4983 4983 4983 4983 5056 5056 5056 5056 5056 5056 5056 5056 5132 5374 5374 5374 5374 5374 5374 5460 5548 5548 5640 5640 5734 5734 5933 6038 6038 6038 6038 6038 6038 5933 5933 5933 5933 5933 5933 6038 6038 6038 3208 3208 3178 3178 3178 3149 3120 3120 3092 3092 3092 3092 3120 3120 2198 2184 2184 2184 2184 2184 2184 2184 2184 2184 2184 2184 2184 2198 2198 2198 2184 2184 2184 2184 2184 2184 2184 2198 2198 2198 2198 2198 2198 2198 2198 2198 2198 2198 2198 2198 2184 2184 2184 2184 2184 2184 2184 2184 2184 2184 2184 2170 2170 2170 2170 2170 2170 2170 2170 2170 2170 2170 2170 2170 2184 2170 2170 2170 2170 2170 2170 2170 2170 2170 2170 2170 2170 2170 2170 2170 2170 2170 2170 2170 2184 2184 2184 2184 2184 2184 2184 2184 0 0 0 0 0 0 3300 3269 3269 3269 3269 3208 3208 3208 3208 3208 3208 3208 3208 3178 3178 3178 3178 3178 3208 3208 3208 3208 3208 3208 3208 3208 3208 3178 3178 3149 3120 3120 3149 3149 3178 3178 3178 3178 3178 3149 3120 3120 3149 3149 3120 3120 3120 3120 3120 3092 0 2129 2129 2129 2129 2129 2129 2129 2129 2129 2129 2129 2129 2129 2129 2143 2143 2156 2156 2156 2143 2143 2156 2156 2143 2143 2143 2143 2129 2129 2129 2129 2129 2129 2129 2129 2143 2143 2143 2143 2143 2143 2129 2129 2143 2129 2129 2129 2129 2129 2129 2129 2129 2129 2129 2116 2116 2116 2116 2116 2116 2116 2116 2116 2116 2116 2116 2103 2103 2103 2103 2103 2103 2103 2103 2103 2103 2090 2090 2090 2090 2090 2090 2090 2090 2090 2090 2090 2090 2090 2090 2103 0 0 0 0 0 0 0 0 0 0 7178 7178 7178 7332 7178 7178 7178 7178 7178 7178 7178 7178 7178 7178 7178 7178 4774 4774 4842 4842 4842 4842 4842 4842 4842 4842 4774 4774 4774 4774 4774 4774 4774 4774 4774 4708 4645 4645 4645 4582 4582 4645 4645 4645 4582 4582 4645 4582 4522 4522 4463 4463 4463 4463 4463 4463 4405 4405 4463 4463 4463 4463 4463 4463 4463 4463 4463 4463 4405 4405 4405 4405 4405 4405 4349 4349 4349 4349 3120 3120 3149 3149 3149 3149 0 0 0 0 0 0 0 0 0 0 0 3149 3120 3120 3120 3120 3092 3092 3064 3064 3064 3010 3010 2984 2958 2958 2984 2958 2958 2958 2958 2958 2958 2958 2958 2933 2933 2933 2908 2908 2883 2859 2859 2835 2835 2835 2835 2835 2835 2835 2835 2835 2835 2835 2835 2835 0 2789 2789 2767 2767 2767 2767 2767 2789 2812 2812 2859 2883 2883 2883 2908 2908 2908 2883 2883 2883 2789 2789 2812 2812 2812 2812 2812 2812 2812 2812 2812 2789 2767 2767 2789 2789 2812 0 0 0 0 0 0 0 0 0 0 0
0 0 0 0 0 0 0 0 0 0 0 0 0 0 0 0 0 0 0 0 0 0 0 0 0 0 0 0 0 0 4645 4645 4708 4708 4708 4708 4645 4645 4582 4582 4582 4582 4582 4582 4582 4582 4582 4582 4645 4645 4645 4708 4708 4774 4774 4774 4774 4708 4708 4645 4645 4645 4645 4582 4522 4522 4522 4522 4522 4522 4522 4582 4582 4582 4582 4582 4582 4582 4522 4522 4522 4522 4582 4582 4582 4582 4582 4582 4582 4582 4582 4582 4582 4582 4582 4582 4645 4645 4645 4582 4582 4582 4582 4522 4463 4463 4463 4463 4463 4463 4463 4522 4522 4582 4582 4582 4582 4645 4645 4645 4645 4645 4645 4645 4645 4645 4645 4645 4645 4645 4708 4645 4645 4645 4645 4708 4708 4708 4774 4774 4774 4842 4842 4842 4842 4842 4983 4983 4983 4983 4983 5056 5056 5056 5056 5056 5132 5056 5056 5056 5132 5132 0 5374 5374 5374 5374 5460 5460 5548 5548 5548 5548 5640 5734 5832 6038 6038 6038 6038 6038 6038 5933 5933 5933 5933 5933 5933 6038 6038 6038 3178 3178 3178 3149 3149 3149 3092 3064 3064 3064 3064 3064 3064 3064 2198 2184 2170 2170 2184 2184 2184 2184 2184 2184 2184 2184 2198 2198 2198 2198 2184 2184 2184 2184 2184 2184 2184 2198 2198 2198 2198 2198 2198 2198 2198 2198 2198 2198 2198 2198 2184 2184 2184 2184 2184 2184 2184 2184 2170 2170 2170 2170 2170 2170 2170 2170 2170 2170 2170 2170 2170 2170 2170 2170 2184 2170 2170 2184 2170 2170 2170 2170 2170 2170 2170 2170 2170 2170 2170 2170 2170 2170 2170 2170 2170 2184 2184 2184 2184 2184 2184 2184 0 0 0 0 0 0 0 3149 0 3149 3149 3149 3149 3149 3149 3149 3178 3178 3178 3178 3178 3178 3178 3178 3178 3178 3178 3178 3208 3208 3178 3178 3208 3178 3178 3149 3120 3120 3149 3149 3178 3178 3178 3178 3178 3120 3120 3092 3092 3092 3092 3092 3092 3092 3092 3092 2143 2129 2129 2129 2129 2129 2129 2129 2129 2129 2129 2129 2129 2129 2129 2143 2143 2143 2143 2143 2143 2143 2143 2156 2143 2143 2143 2143 2143 2129 2129 2129 2129 2129 2129 2143 2143 2143 2143 2143 2143 2143 2143 2143 2143 2143 2129 2129 2129 2129 2129 2129 2129 2129 2129 2116 2116 2116 2116 2116 2116 2116 2116 2116 2116 2116 2116 2103 2103 2103 2103 2103 2103 2103 2103 2103 2103 2090 2090 2090 2090 2090 2090 2090 2090 2090 2090 2090 2090 2090 2090 2103 0 0 0 0 0 0 0 0 0 0 7178 7178 7178 7332 7178 7178 7178 7178 7178 7178 7030 7030 7030 7178 7178 7178 4774 4774 4774 4842 4842 4842 4842 4842 4842 4774 4774 4774 4774 4774 4774 4774 4774 4774 4774 4774 4708 4645 4645 4645 4645 4645 4645 4645 4645 4645 4645 4645 4582 4582 4582 4522 4463 4463 4463 4463 4405 4405 4463 4463 4463 4405 4405 4405 4405 4405 4405 4405 4405 4405 4405 4405 4405 4405 4349 4349 4463 4463 3120 3120 3149 3149 3149 3149 0 0 0 0 0 0 0 0 0 0 0 3149 3120 3120 3120 3120 3120 3092 3064 3064 3064 3010 3010 2984 2958 2958 2984 2958 2958 2958 2958 2958 2958 2933 2933 2933 2908 2908 2908 2908 2883 2859 2859 2835 2835 2835 2835 2835 2835 2835 2835 2835 2835 2812 2812 2835 2789 2789 2789 2767 2767 2767 2767 2767 2789 2767 2744 2723 2723 2744 2883 2859 2859 2883 2835 2835 2835 2767 2767 2789 2789 2812 2789 2789 2789 2789 2767 2767 2767 2744 2744 2767 2789 2812 0 0 0 0 0 0 0 0 0 0 0
0 0 0 0 0 0 0 0 0 0 0 0 0 0 0 0 0 0 0 0 0 0 0 0 0 0 0 0 0 0 4645 4645 4645 4708 4774 4708 4645 4645 4582 4582 0 0 0 0 0 0 0 0 4645 4645 4708 4774 4774 4774 4774 4774 4842 4774 4708 4708 4708 4645 4645 4582 4582 4582 4582 4522 4522 4582 4582 4582 4582 4582 4582 4582 4582 4582 4522 4522 4582 4582 4582 4582 4582 4582 4582 4582 4582 4582 4582 4522 4522 4582 4582 4645 4645 4645 4645 4645 4582 4582 4582 4522 4463 4463 4463 4405 4405 4405 4463 4522 4522 4582 4582 4582 4582 4645 4645 4645 4645 4645 4645 4645 4708 4708 4645 4645 4645 4645 4708 4645 4645 4645 4645 4708 4774 4774 4774 4774 4774 4842 4842 4911 4911 4911 4983 4983 4983 4983 4983 5056 5056 5056 5056 5056 5132 5132 5056 5056 5132 5132 0 5374 5374 5374 5374 5460 5460 5548 5548 5548 5548 5640 5734 5832 5933 6038 6038 6038 6038 6038 5933 5933 5933 5933 5933 5933 6038 6038 6038 3178 3178 3092 3092 3120 3092 3064 3064 3064 3037 3037 3037 3064 3064 2184 2184 2170 2170 2170 2170 2184 2184 2184 2184 2184 2198 2198 2198 2198 2198 2184 2184 2184 2184 2184 2184 2184 2198 2198 2198 2198 2198 2198 2198 2198 2198 2198 2198 2198 2198 2184 2184 2184 2184 2184 2184 2184 2170 2170 2170 2170 2170 2170 2184 2170 2170 2170 2170 2170 2170 2170 2170 2170 2170 2184 2170 2170 2184 2170 2170 2170 2170 2170 2170 2170 2170 2170 2170 2170 2170 2170 2170 2170 2170 2170 2184 2184 2184 2184 2198 2198 0 0 0 0 0 0 0 0 0 0 0 3120 3120 3120 3149 3149 3149 3149 3149 3149 3178 3178 3178 3178 3178 3178 3178 3178 3178 3208 3208 3178 3178 3208 3178 3178 3149 3149 3149 3149 3178 3178 3178 3178 3178 3178 3120 3120 3092 3092 3064 3064 3064 3064 3064 3064 3064 2143 2143 2143 2143 2143 2143 2143 2129 2129 2129 2129 2129 2129 2129 2129 2143 2143 2143 2143 2143 2143 2143 2143 2143 2143 2143 2143 2143 2143 2143 2129 2129 2143 2143 2143 2143 2143 2143 2143 2143 2143 2143 2143 2143 2143 2129 2129 2129 2129 2129 2129 2129 2129 2129 2129 2129 2116 2116 2116 2116 2116 2116 2116 2116 2129 2116 2116 2103 2103 2103 2103 2103 2103 2103 2103 2103 2103 2090 2090 2090 2090 2090 2090 2090 2090 2090 2090 2090 2090 2090 2090 2103 0 0 0 0 0 0 0 0 0 0 7332 7332 7332 7178 7178 7178 7178 7178 7178 7178 7030 7030 7030 7178 7178 4708 4708 4774 4774 4774 4842 4842 4842 4842 4842 4774 4774 4774 4774 4774 4774 4774 4774 4774 4774 4774 4708 4645 4645 4645 4645 4645 4645 4645 4645 4645 4645 4645 4582 4582 4522 4522 4522 4522 4463 4463 4463 4463 4463 4463 4463 4405 4405 4405 4405 4405 4405 4405 4405 4405 4405 4405 4405 4405 4405 4405 4463 4463 3149 3149 3149 3149 3149 3149 0 0 0 0 0 0 0 0 0 0 3178 3120 3120 3120 3120 3120 3120 3092 3092 3064 3064 3010 2984 2984 2958 2958 2958 2958 2958 2984 2958 2958 2958 2933 2933 2933 2908 2908 2908 2908 2883 2883 2859 2859 2859 2835 2835 2835 2835 2835 2835 2835 2835 2812 2812 2812 2767 2767 2767 2767 2767 2744 2744 2744 2767 2744 2744 2723 2723 2744 2789 2789 2789 2789 2789 2789 2789 2744 2744 2744 2744 2789 2767 2744 2744 2744 2744 2744 2744 2744 2744 2767 2789 2767 2767 0 0 0 0 0 0 0 0 0 0
0 0 0 0 0 0 0 0 0 0 0 0 0 0 0 0 0 0 0 0 0 0 0 0 0 0 0 0 0 0 4645 4645 4645 4708 4774 4842 0 0 0 0 0 0 0 0 0 0 0 0 0 4842 4842 4842 4911 4911 4911 4911 4911 4911 4842 4708 4708 4708 4708 4522 4522 4522 4522 4522 4522 4522 4582 4582 4582 4582 4582 4582 4582 4582 4522 4522 4522 4582 4582 4582 4582 4582 4582 4582 4582 4582 4582 4522 4522 4582 4645 4645 4708 4774 4774 4774 4645 4645 4582 4582 4463 4463 4463 4405 4405 4405 4463 4463 4522 4522 4582 4582 4645 4645 4708 4708 4645 4645 4645 4708 4708 4708 4708 4645 4645 4645 4708 4708 4708 4645 4645 4708 4708 4708 4774 4774 4774 4842 4842 4911 4911 4911 4842 4842 4842 5056 5056 5056 5056 5056 5056 5132 5132 5132 5132 5132 5132 5291 5291 0 5460 5460 5460 5460 5460 5460 5460 5548 5640 5640 5734 5832 5933 6038 6038 6038 6038 6038 5933 5933 5933 5933 5933 5933 6038 6038 6146 6146 3092 3092 3092 3092 3092 3064 3064 3037 3037 3037 3037 3037 3037 3037 2156 2156 2156 2170 2170 2184 2184 2184 2184 2184 2198 2198 2198 2198 2198 2184 2184 2184 2184 2184 2184 2184 2184 2198 2198 2198 2198 2198 2198 2198 2198 2198 2198 2198 2198 2184 2184 2184 2184 2184 2184 2170 2170 2170 2170 2170 2170 2170 2184 2170 2170 2170 2170 2170 2170 2170 2170 2170 2170 2184 2184 2184 2184 2184 2170 2170 2170 2933 2933 2170 2170 2170 2170 2170 2170 2170 2170 2170 2170 2170 2184 2184 2184 2184 2198 2198 3010 3010 3064 0 0 0 0 0 0 0 0 3120 3120 3120 3120 3120 3120 3149 3120 3120 3178 3178 3178 3178 3178 3178 3178 3178 3178 3178 3208 3208 3208 3208 3178 3178 3149 3149 3149 3149 3178 3178 3178 3208 3208 3208 3208 3010 3010 3010 3037 3037 3037 3037 3037 3037 3037 3037 2143 2143 2143 2143 2143 2129 2129 2129 2129 2129 2129 2129 2143 2143 2143 2143 2143 2143 2143 2143 2143 2143 2143 2143 2143 2143 2143 2143 2143 2143 2143 2143 2143 2143 2143 2143 2156 2143 2143 2143 2143 2143 2143 2129 2129 2129 2129 2129 2129 2129 2129 2129 2129 2129 2129 2129 2129 2129 2116 2116 2116 2116 2116 2129 2116 2103 2103 2103 2103 2103 2103 2103 2103 2103 2103 2090 2090 2090 2090 2090 2090 2090 2090 2090 2090 2090 2090 2090 2090 2103 2103 0 0 0 0 0 0 0 0 0 0 0 0 7332 7178 7178 0 0 0 0 0 0 0 0 0 4708 4708 4708 4774 4774 4774 4842 4842 4842 4842 4842 4842 4774 4774 4774 4774 4774 4774 4774 4774 4774 4708 4708 4645 4645 4645 4645 4645 4645 4645 4645 4645 4645 4645 4522 4522 4522 4522 4522 4522 4522 4463 4463 4463 4463 4463 4463 4463 4463 4463 4463 4405 4405 4405 4405 4405 4405 4405 4405 4405 4405 4463 4463 4463 4522 4522 3149 3149 3149 3149 0 0 0 0 0 0 0 0 0 0 3178 3120 3120 3120 3120 3120 3120 3092 3064 3064 3037 3010 2984 2984 2958 2958 2958 2958 2958 2984 2958 2958 2958 2933 2933 2933 2908 2908 2908 2908 2883 2883 2859 2859 2859 2835 2835 2835 2835 2835 2835 2835 2835 2812 2812 2789 2767 2767 2767 2767 2767 2744 2744 2744 2744 2744 2744 2744 2744 2744 2767 2744 2744 2744 2744 2744 2744 2723 2723 2701 2701 2723 2723 2723 2723 2723 2723 2723 2723 2723 2723 2744 2767 2767 2767 0 0 0 0 0 0 0 0 0 0
0 0 0 0 0 0 0 0 0 0 0 0 0 0 0 0 0 0 0 0 0 0 0 0 0 0 0 0 0 0 4645 4645 4645 4708 4774 0 0 0 0 0 0 0 0 0 0 0 0 0 0 4911 4911 4911 4911 4911 4911 4983 4983 5056 4983 4911 4842 4842 4842 4522 4522 4522 4522 4522 4522 4522 4582 4582 4582 4582 4582 4582 4522 4522 4522 4522 4522 4522 4522 4582 4582 4582 4582 4582 4582 4582 4582 0 0 0 0 4842 4842 4911 4983 4983 4911 4842 4645 4582 4522 4463 4463 4405 4405 4405 4463 4463 4463 4522 4582 4582 4645 4708 4774 4774 4708 4708 4708 4774 4774 4842 4911 4774 4774 4774 4774 4708 4708 4708 4708 4708 4708 4708 4774 4774 4774 4774 4842 4911 5933 6038 4842 4842 4842 5056 5056 5056 5056 5056 5056 5132 5132 5132 5132 5132 5210 5291 5291 0 5460 5460 5460 5460 5460 5460 5460 5548 5640 5640 5734 5832 6038 6038 6038 6038 6038 6038 5933 5933 5933 5933 5933 5933 6038 6038 6038 6038 3064 3064 3064 3092 3092 3064 3064 3037 3037 3037 2984 2984 2984 0 2156 2156 2156 2170 2170 2184 2184 2184 2184 2198 2198 2198 2198 2198 2198 2184 2184 2184 2184 2184 2184 2184 2184 2198 2198 2198 2198 2212 2198 2198 2198 2198 2198 2198 2198 2184 2184 2184 2184 2184 2184 2170 2170 2170 2170 2170 2170 2170 2184 2170 2170 2170 2170 2170 2170 2156 2156 2170 2170 2184 2184 2184 2933 2933 2933 2933 2933 2933 2933 2958 2984 2170 2170 2170 2170 2170 2170 2170 2170 2170 2184 2184 2184 2184 2198 2198 3010 3010 3064 3037 3037 0 0 0 0 2984 0 2984 3120 3120 3120 3120 3120 3149 3120 3120 2958 2933 2933 2933 2908 2908 3178 3178 3178 3178 3208 3178 3178 3178 3149 3149 3149 3120 3120 3149 3149 3178 3178 3208 3208 3208 2908 2984 2984 2984 3010 3010 3010 3010 3010 3037 3037 3037 2143 2143 2129 2129 2129 2129 2129 2129 2129 2129 2129 2129 2143 2143 2143 2143 2143 2143 2143 2143 2143 2143 2143 2143 2143 2143 2143 2143 2143 2143 2156 2156 2156 2156 2156 2156 2156 2143 2143 2143 2143 2143 2129 2129 2129 2129 2129 2129 2129 2129 2129 2129 2129 2129 2129 2129 2129 2129 2129 2116 2116 2116 2116 2129 2116 2103 2103 2103 2103 2103 2103 2103 2103 2103 2103 2090 2090 2090 2090 2090 2090 2090 2090 2090 2090 2090 2103 2090 2090 2103 2103 0 0 0 0 0 0 0 0 0 0 0 0 0 0 0 0 0 0 0 0 0 0 0 0 4582 4582 4645 4708 4774 4774 4774 4842 4842 4842 4842 4842 4842 4774 4774 4774 4774 4774 4774 4774 4708 4708 4708 4645 4645 4645 4645 4645 4645 4645 4645 4645 4582 4582 4522 4522 4522 4522 4522 4522 4522 4463 4463 4463 4463 4463 4463 4463 4463 4463 4463 4405 4405 4405 4405 4405 4405 4405 4405 4463 4463 4463 4463 4463 4463 4463 4463 3149 3149 3149 0 0 0 0 0 0 0 0 0 0 0 0 3120 3092 3092 3092 3120 3092 3064 3064 3037 3010 2984 2984 2958 2958 2984 2958 2958 2958 2958 2958 2958 2933 2933 2933 2933 2933 2908 2908 2883 2883 2859 2859 2859 2835 2835 2835 2835 2835 2835 2835 2835 2812 2812 2789 2767 2767 2767 2767 2767 2744 2744 2744 2744 2744 2723 2723 2723 2723 2744 2744 2723 2723 2723 2701 2701 2701 2680 2680 2680 2680 2680 2680 2680 2680 2701 2701 2701 2701 2701 2723 2744 2744 2744 0 0 0 0 0 0 0 0 0 0
0 0 0 0 0 0 0 0 0 0 0 0 0 0 0 0 0 0 0 0 0 0 0 0 0 0 0 0 0 0 4645 4645 4645 4708 0 0 0 0 0 0 0 0 0 0 0 0 0 0 0 4911 4911 4983 4983 4983 5056 5056 5056 5132 5132 4911 4911 4911 4842 4842 4522 4522 4522 4522 4522 4522 4582 4582 4582 4582 4582 4582 4522 4522 4522 4522 4522 4522 4522 4582 4582 4582 4645 4645 4645 4645 0 0 0 0 0 5132 4911 4911 4983 4983 4983 4983 4708 4645 4522 4463 4463 4405 4405 4405 4463 4463 4463 4522 4582 4582 4645 4708 4774 4774 4774 4708 4708 5374 5374 5374 5460 4774 4774 4774 4774 4645 4645 4708 4708 4708 4774 4774 4774 4774 4774 4774 4842 5832 5933 6038 5933 5734 5460 5132 5132 5056 5056 5056 5056 5132 5132 5132 5132 5132 5210 5291 5291 5933 5548 5548 5548 5548 5548 5460 5460 5548 5640 5640 5734 5734 5933 5933 6038 6038 6038 6038 6038 6038 6038 6038 6038 6038 6038 6038 6038 6038 3064 3064 3064 3064 3064 3064 3037 3037 2984 2984 2984 2984 2984 2170 2156 2156 2156 2170 2170 2184 2184 2184 2184 2184 2198 2198 2198 2212 2212 2984 2984 3010 3010 3010 3010 3010 2198 2198 2198 2212 2212 2212 2212 2212 2198 2198 2198 2198 2212 2184 2184 3120 3120 3120 3120 2170 2156 2156 2170 2170 2170 2170 2184 2170 2170 2170 2184 2170 2170 2156 2156 2184 2933 2933 2933 2933 2933 2933 2933 2933 2933 2958 2958 2958 2958 2958 2170 2170 2170 2170 2170 2170 2170 2170 2170 2184 2184 2184 2184 2184 3037 3037 3064 3037 3037 3010 2984 2984 2984 0 2984 2984 2984 2984 2984 2984 2984 2958 2958 2958 2933 2933 2933 2908 2908 2908 2908 2908 2933 3178 3208 3149 3149 3149 3149 3149 3120 3120 3120 3120 3120 3178 3178 2933 2908 2908 2908 2933 2933 2958 2984 2984 2984 2984 2984 3010 3037 3037 2143 2143 2129 2129 2129 2129 2129 2129 2129 2129 2143 2143 2143 2143 2143 2143 2143 2143 2143 2143 2143 2143 2143 2156 2156 2156 2156 2156 2143 2143 2143 2143 2143 2143 2143 2143 2156 2143 2143 2143 2143 2143 2129 2129 2129 2129 2129 2129 2129 2129 2129 2129 2129 2129 2129 2129 2129 2129 2129 2116 2116 2116 2116 2116 2116 2103 2103 2103 2103 2103 2103 2103 2103 2103 2103 2090 2090 2090 2090 2090 2090 2090 2090 2090 2090 2090 2103 2103 2103 2103 2103 0 0 0 0 0 0 0 0 0 0 0 0 0 0 0 0 0 0 0 0 0 0 0 0 4582 4582 4645 4708 4774 4774 4774 4842 4842 4842 4842 4842 4774 4774 4774 4774 4774 4774 4774 4708 4708 4708 4708 4645 4645 4645 4645 4645 4645 4645 4645 4645 4582 4582 4522 4522 4522 4522 4522 4522 4522 4463 4463 4463 4463 4463 4463 4405 4405 4463 4463 4463 4405 4405 4405 4405 4405 4405 4463 4463 4463 4463 4463 4463 4463 4463 0 0 3149 3149 0 0 0 0 0 0 0 0 0 0 0 0 0 3064 3064 3092 3092 3120 3120 0 3064 2958 2958 2958 2958 2958 2958 2958 2958 2958 2958 2958 2958 2933 2933 2933 2933 2933 2908 2908 2908 2883 2859 2859 2859 2859 2835 2835 2835 2835 2835 2835 2835 2812 2789 2789 2767 2767 2767 2767 2744 2744 2744 2744 2744 2723 2723 2723 2723 2723 2723 2723 2701 2701 2701 2701 2680 2680 2680 2680 2680 2680 2680 2680 2680 2680 2680 2701 2701 2701 2701 2723 2723 2744 2744 0 0 0 0 0 0 0 0 0 0
0 0 0 0 0 0 0 0 0 0 0 0 0 0 0 0 0 0 0 0 0 0 0 0 0 0 0 0 0 0 4645 4645 4645 4708 0 0 0 0 0 0 0 0 0 0 0 0 0 0 0 0 4983 4983 4983 5056 5056 5056 5132 5132 5132 5056 5056 5056 5056 4582 4582 4582 4582 4582 4582 4582 4582 4582 4582 4582 4582 4582 4582 4582 4582 4522 4522 4582 4582 4582 4582 4645 4645 4645 4645 0 0 0 0 0 0 0 4911 4911 4983 4983 4983 4983 4911 4645 4582 4463 4463 4405 4405 4405 4463 4463 4463 4522 4582 4582 4645 4708 4774 4774 4842 5374 5374 5374 5374 5460 5548 5548 4774 4774 4645 4645 4645 4708 4708 4708 4774 4774 4774 4842 4774 4774 5832 5933 5933 6038 5933 5832 5640 5374 5132 5056 5056 5056 5132 5132 5132 5132 5210 5210 5291 5291 5291 5933 5933 5640 5640 5548 5548 5460 5460 5548 5548 5640 5640 5734 5933 5933 6038 6038 6038 6038 6038 6038 6038 6038 6038 6038 6038 6038 6038 6146 6146 3037 3037 3064 3064 3037 3010 3010 2984 2984 2984 2984 2984 2170 2170 2170 2170 2184 2184 2184 2184 2184 2184 2184 2184 2198 2198 2212 2212 2984 2984 3010 3010 3010 3010 3010 3037 3037 3037 2212 2212 3037 3064 3037 3037 3037 3064 3064 3064 3092 3120 3120 3120 3092 3064 3037 2156 2156 2170 2170 2170 2184 2184 2184 2984 2984 2984 2984 2984 2984 2958 2958 2933 2933 2933 2933 2933 2933 2933 2933 2933 2958 2958 2958 2958 2958 2958 2170 2170 2170 2170 2170 2170 2170 2170 2184 2184 2184 2184 2184 3037 3037 3064 3037 3037 3010 2984 2984 2984 2984 2984 2984 2984 2984 2984 2984 2984 2958 2958 2958 2933 2933 2933 2908 2908 2908 2908 2908 2908 2908 2933 2933 2933 3120 3120 3092 3092 3092 3092 3120 3120 3120 2933 2933 2908 2908 2908 2933 2933 2958 2958 2984 2984 2984 2984 3010 3037 3037 2156 2143 2129 2129 2129 2129 2129 2129 2129 2143 2143 2143 2143 2156 2156 2156 2143 2143 2143 2143 2143 2143 2143 2156 2156 2156 2156 2156 2143 2143 2143 2129 2129 2129 2143 2143 2143 2143 2143 2143 2143 2143 2143 2129 2129 2129 2129 2129 2129 2129 2129 2129 2143 2129 2129 2129 2129 2129 2129 2116 2116 2116 2116 2116 2116 2103 2103 2103 2103 2103 2103 2103 2103 2103 2090 2090 2090 2090 2090 2090 2090 2090 2090 2090 2090 2090 2103 2103 2103 2103 2103 0 0 0 0 0 0 0 0 0 0 0 0 0 0 0 0 0 0 0 0 0 0 0 0 4582 4582 4708 4774 4774 4774 4842 4842 4842 4842 4842 4842 4774 4774 4774 4774 4774 4774 4774 4708 4708 4708 4708 4645 4645 4645 4645 4645 4645 4645 4582 4582 4582 4582 4522 4522 4522 4522 4522 4522 4522 4463 4463 4463 4463 4463 4463 4405 4405 4463 4463 4463 4463 4405 4405 4405 4405 4405 4463 4463 4463 4463 4463 4463 0 0 0 0 0 0 0 0 0 0 0 0 0 0 0 0 0 0 0 3064 3064 3092 3092 3120 0 0 0 2908 2908 2933 2933 2933 2958 2958 2958 2958 2958 2958 2958 2933 2933 2933 2933 2933 2908 2908 2908 2883 2859 2859 2859 2859 2859 2859 2835 2835 2835 2835 2835 2812 2789 2789 2767 2767 2767 2767 2744 2744 2744 2744 2744 2723 2723 2723 2723 2723 2723 2723 2701 2701 2701 2701 2680 2680 2680 2680 2680 2659 2659 2659 2659 2659 2680 2680 2680 2680 2680 2680 2680 2680 2680 0 0 0 0 0 0 0 0 0 0
0 0 0 0 0 0 0 0 0 0 0 0 0 0 0 0 0 0 0 0 0 0 0 0 0 0 0 0 0 0 4645 4645 4582 4582 0 0 0 0 0 0 0 0 0 0 0 0 0 0 0 0 4983 4983 4983 5056 5056 5056 5132 5132 5132 5056 5056 5056 5056 5056 4582 4582 4582 4582 4582 4582 4582 4582 4582 4582 4582 4582 4582 4582 4582 4582 4582 4582 4582 4582 4645 4645 4645 4645 4708 0 0 0 0 0 0 0 4983 4983 4983 4983 4983 4983 4983 4842 4645 4522 4522 4463 4463 4463 4463 4463 4463 4522 4582 4582 4582 4708 5374 5460 5548 5460 5460 5460 5460 5548 5548 5548 5640 5640 4582 4582 4645 4645 4708 4708 4774 4774 4774 4842 4842 5832 5832 5933 6038 6038 5933 5933 5734 5548 5132 5132 5132 5056 5056 5132 5132 5132 5210 5291 5291 5460 5548 5832 5832 5832 5734 5734 5640 5548 5548 5548 5548 5640 5640 5734 5933 5933 5933 5933 6038 6038 6038 6038 6038 6038 6038 6038 6038 6038 6038 6146 6146 3037 3037 3064 3064 3037 3010 3010 2984 2984 2984 2984 2984 2184 2170 2170 2170 2184 2184 2184 2184 2184 2184 2184 2184 2198 2198 2198 3010 3010 3010 3010 3010 3010 3010 3037 3037 3037 3037 3037 3037 3064 3064 3064 3064 3064 3064 3064 3064 3092 3120 3120 3120 3092 3064 3037 3037 3037 3010 3010 3010 3010 3010 3010 2984 2984 2984 2984 2984 2984 2984 2958 2958 2958 2933 2933 2933 2933 2933 2958 2958 2958 2958 2958 2958 2933 2933 2170 2170 2170 2170 2170 2170 2170 2170 2184 2184 2184 2184 2184 3037 3037 3064 3037 3037 3037 3010 2984 2984 2984 2984 2984 2984 2984 2984 2984 2984 2958 2958 2958 2933 2933 2933 2908 2908 2908 2908 2908 2908 2908 2908 2908 2933 2908 2908 2883 2883 2908 2933 2933 2933 2933 2933 2908 2908 2908 2933 2933 2933 2958 2958 2958 2984 2984 2984 3010 3037 2156 2156 2156 2143 2143 2129 2129 2129 2129 2143 2156 2156 2156 2156 2156 2156 2156 2143 2129 2129 2129 2129 2143 2156 2156 2156 2156 2156 2156 2143 2143 2143 2129 2129 2129 2143 2143 2143 2143 2143 2143 2143 2143 2143 2143 2129 2129 2129 2129 2143 2143 2143 2143 2143 2143 2143 2129 2129 2129 2129 2116 2116 2116 2116 2116 2116 2103 2103 2103 2103 2103 2103 2103 2103 2103 2090 2090 2090 2090 2090 2090 2090 2090 2090 2090 2103 2103 2103 2103 2103 2103 2116 0 0 0 0 0 0 0 0 0 0 0 0 0 0 0 0 0 0 0 0 0 0 0 0 0 4774 4774 4774 4774 4774 4842 4842 4842 4842 4842 4842 4774 4774 4774 4774 4774 4774 4774 4708 4708 4708 4708 4645 4645 4645 4645 4645 4582 4582 4582 4582 4582 4582 4522 4522 4522 4522 4522 4522 4522 4463 4463 4463 4463 4463 4463 4463 4463 4463 4463 4463 4463 4463 4463 4463 4463 4405 4405 4405 4405 4463 4463 4463 4463 0 0 0 0 0 0 0 0 0 0 0 0 0 0 0 0 0 0 0 0 0 0 0 0 0 0 2908 2908 2933 2933 2933 2958 2958 2958 2958 2958 2958 2958 2933 2933 2933 2933 2933 2908 2908 2908 2883 2859 2859 2859 2859 2859 2859 2835 2835 2835 2835 2835 2812 2812 2789 2767 2767 2767 2744 2744 2744 2744 2744 2744 2723 2723 2723 2723 2723 2723 2701 2701 2701 2680 2680 2680 2680 2680 2680 2659 2659 2659 2659 2659 2659 2659 2659 2659 2680 2680 2680 2680 2680 2680 0 0 0 0 0 0 0 0 0 0
0 0 0 0 0 0 0 0 0 0 0 0 0 0 0 0 0 0 0 0 0 0 0 0 0 0 0 0 0 0 4582 4582 4582 4582 0 0 0 0 0 0 0 0 0 0 0 0 0 0 0 0 4983 4983 5056 5056 5056 5056 5132 5132 5132 5132 5056 5056 5056 0 4582 4582 4582 4582 4582 4582 4582 4582 4582 4582 4582 4582 4582 4582 4582 4582 4582 4582 4582 4582 4645 4645 4645 4708 0 0 0 0 0 0 0 0 0 5056 5056 5056 4983 4983 4983 4842 4645 4522 4522 4463 4463 4463 4463 4463 4463 4522 4582 4582 4582 5460 5460 5548 5548 5548 5548 5548 5548 5548 5548 5548 5640 5640 4582 4582 4645 4645 4708 4708 4774 4774 4842 4842 4842 5734 5832 5933 5933 6038 6038 6038 5832 5548 5132 5132 5132 5056 5056 5132 5132 5132 5210 5291 5374 5460 5548 5832 5832 5832 5832 5734 5640 5640 5640 5640 5640 5640 5734 5734 5832 5832 5933 5933 6038 6038 6146 6038 6038 6038 6038 6038 6038 6038 6038 6146 6146 3064 3064 3064 3064 3064 3064 3010 3010 3010 3010 3010 3010 2184 2184 2184 2184 2184 2184 2184 2184 2184 2184 2184 2184 2198 2198 2198 3010 3010 3010 3037 3010 3010 3037 3037 3037 3037 3037 3037 3037 3037 3064 3064 3064 3064 3064 3064 3064 3092 3092 3092 3092 3092 3064 3037 3037 3037 3010 3010 3010 3010 3010 3010 2984 2984 2984 2984 2984 2984 2984 2958 2958 2958 2958 2958 2958 2958 2958 2958 2958 2984 2984 2984 2958 2933 2933 2170 2170 2170 2170 2170 2170 2170 2184 2184 2184 2184 2184 2184 3037 3037 3064 3064 3064 3064 3037 3010 3010 2984 2984 2984 2958 2958 2958 2958 2958 2933 2933 2933 2933 2933 2933 2908 2908 2908 2908 2908 2908 2908 2908 2908 2908 2908 2908 2883 2883 2908 2933 2933 2933 2933 2908 2908 2908 2908 2933 2933 2933 2958 2958 2958 2984 2984 2984 2984 2984 2156 2156 2156 2143 2143 2129 2129 2129 2129 2143 2143 2156 2156 2156 2156 2156 2156 2143 2116 2116 2116 2129 2143 2156 2156 2156 2156 2156 2156 2143 2143 0 0 0 0 2156 2156 2143 2143 2143 2143 0 0 0 2143 2143 2143 2143 2143 2143 2143 2143 2143 2143 2143 2129 2129 2129 2129 2129 2129 2129 2116 2116 2116 2116 2103 2103 2103 2103 2103 2103 2090 2090 2090 2090 2090 2090 2090 2090 2090 2090 2090 2103 2103 2103 2103 2103 2103 2103 2103 2116 0 0 0 0 0 0 0 0 0 0 0 0 0 0 0 0 0 0 0 0 0 0 0 0 0 4774 4774 4774 4842 4842 4842 4842 4842 4842 4842 4842 4842 4774 4774 4774 4774 4774 4774 4708 4708 4708 4708 4645 4645 4645 4645 4582 4582 4582 4582 4582 4582 4582 4522 4522 4522 4463 4463 4463 4463 4463 4463 4463 4463 4463 4463 4463 4463 4463 4463 4463 4463 4405 4405 4405 4405 4405 4405 4405 4405 4405 4405 4463 4463 0 0 0 0 0 0 0 0 0 0 0 0 0 0 0 0 0 0 0 0 0 0 0 0 0 0 0 0 2958 2958 2958 2958 2958 2958 2958 2958 2958 2958 2933 2933 2933 2933 2933 2908 2908 2908 2908 2883 2859 2859 2859 2859 2859 2835 2835 2835 2835 2835 2812 2812 2789 2767 2767 2767 2744 2744 2744 2744 2744 2744 2723 2723 2723 2723 2723 2723 2701 2701 2701 2680 2680 2680 2680 2680 2680 2659 2659 2659 2659 2659 2659 2659 2659 2659 2659 2659 2659 2659 2659 2659 0 0 0 0 0 0 0 0 0 0
0 0 0 0 0 0 0 0 0 0 0 0 0 0 0 0 0 0 0 0 0 0 0 0 0 0 0 0 0 0 4582 4522 4522 4522 0 0 0 0 0 0 0 0 0 0 0 0 0 0 0 0 5056 5056 5056 5056 5132 5132 5132 5132 5132 5132 5056 5056 5056 0 4582 4582 4582 4582 4582 4582 4582 4582 4582 4582 4582 4582 4582 4582 4582 4582 4582 4582 4582 4645 4645 4645 4645 4708 0 0 0 0 0 0 0 0 0 5056 5056 5056 4983 4983 4983 4774 4582 4522 4522 4463 4463 4463 4463 4463 4463 4522 4522 4522 5374 5460 5460 5548 5548 5548 5548 5548 5548 5640 5640 5640 5640 5640 4522 4522 4582 4645 4708 4708 4708 4774 4774 4842 4842 5734 5832 5933 5933 6038 6038 6038 5832 5640 5291 5132 5132 5056 5056 5056 5132 5132 5132 5210 5291 5291 5460 5832 5832 5832 5832 5734 5734 5640 5640 5640 5640 5640 5640 5734 5832 5832 5933 5933 6038 6038 6146 6038 6038 6038 6038 6038 6038 6038 6038 6146 6146 3064 3064 3064 3064 3064 3064 3037 3037 3010 3010 3010 3010 2184 2184 2184 2184 2184 2184 2184 2184 2184 2184 2184 2198 2198 2198 2198 2212 3010 3010 3037 3010 3010 3037 3037 3037 3037 3037 3037 3037 3037 3064 3064 3064 3064 3092 3092 3092 3092 3092 3092 3092 3092 3064 3037 3037 3037 3010 3010 3010 3010 3010 3010 2984 2984 2984 2984 2984 2984 2984 2958 2958 2958 2958 2958 2958 2958 2958 2958 2984 2984 2984 2984 2958 2933 2933 2170 2170 2170 2170 2170 2170 2170 2170 2184 2184 2184 2184 2184 3037 3037 3092 3092 3092 3092 3037 3010 3010 2984 2984 2984 2958 2958 2958 2958 2933 2933 2933 2933 2933 2933 2933 2908 2908 2908 2908 2908 2908 2908 2908 2908 2908 2933 2933 2908 2908 2908 2908 2933 2933 2933 2908 2908 2908 2908 2933 2933 2933 2933 2958 2958 2958 2984 2984 2984 2984 2156 2156 2156 2143 2143 2129 2129 2143 2143 2143 2143 2156 2156 2156 2156 2156 2156 2143 2116 2116 2116 0 0 0 0 2170 2170 2156 2156 2156 2156 0 0 0 0 0 0 0 0 0 0 0 0 0 0 0 2156 2143 2143 2143 2143 2143 2143 2143 2143 2129 2129 2129 2143 2143 2143 2143 2116 2116 0 0 0 0 2103 2103 2103 2103 2090 2090 2090 2090 2090 2090 2090 2090 2090 2090 2090 2103 2103 2103 2103 2103 2103 2103 2103 2103 0 0 0 0 0 0 0 0 0 0 0 0 0 0 0 0 0 0 0 0 0 0 0 0 0 4842 4842 4842 4842 4842 4842 4911 4842 4842 4842 4842 4842 4842 4774 4774 4774 4774 4774 4774 4708 4708 4708 4708 4645 4645 4645 4582 4582 4582 4582 4582 4582 4582 4522 4522 4522 4463 4463 4463 4463 4463 4463 4463 4463 4463 4463 4463 4463 4463 4463 4463 4463 4405 4405 4405 4405 4405 4405 4405 4405 4405 4405 4463 4463 0 0 0 0 0 0 0 0 0 0 0 0 0 0 0 0 0 0 0 0 0 0 0 0 0 0 0 0 0 2958 2958 2958 2958 2958 2958 2933 2933 2958 2958 2958 2958 2933 2933 2908 2908 2908 2883 2859 2859 2859 2859 2859 2859 2859 2859 2859 2835 2835 2812 2812 2789 2767 2767 2767 2744 2744 2744 2744 2744 2744 2723 2723 2723 2723 2723 2723 2723 2701 2701 2701 2701 2701 2680 2680 2680 2680 2659 2659 2659 2659 2659 2659 2659 2659 2659 2659 2659 2659 2639 2639 0 0 0 0 0 0 0 0 0 0
0 0 0 0 0 0 0 0 0 0 0 0 0 0 0 0 0 0 0 0 0 0 0 0 0 0 0 0 0 0 4582 4522 4522 4522 0 0 0 0 0 0 0 0 0 0 0 0 0 0 0 0 5132 5132 5132 5132 5132 5132 5132 5132 5132 5132 5210 5210 5210 0 0 4582 4582 4582 4582 4582 4582 4582 4582 4582 4582 4582 4582 4582 4582 4582 4582 4582 4582 4645 4645 4645 4645 4774 0 0 0 0 0 0 0 0 0 5056 5056 5056 4983 4983 4983 4708 4582 4522 4522 4522 4463 4463 4463 4463 4463 4522 4522 4522 5374 5460 5460 5460 5548 5548 5548 5548 5548 5640 5640 5640 5640 5640 4463 4463 4582 4645 4708 4708 4708 4774 4774 4842 4842 5734 5734 5832 5933 6038 6038 6038 6038 5734 5291 5132 5132 5056 5056 5056 5132 5132 5132 5210 5291 5291 5460 5734 5832 5832 5832 5832 5734 5640 5640 5640 5640 5640 5640 5734 5734 5734 5832 5933 6038 6038 6146 6038 6038 6038 6038 6038 6038 6038 6038 6146 6146 3037 3037 3037 3064 3064 3064 3037 3037 3037 3037 3010 3010 2184 2184 2184 2184 2184 2184 2184 2184 2184 2184 2184 2198 2198 2198 2198 2212 3010 3010 3037 3010 3010 3037 3037 3037 3037 3037 3037 3037 3037 3064 3064 3064 3064 3092 3064 3064 3092 3092 3092 3092 3064 3064 3037 3037 3010 3010 3010 3010 3010 3010 3010 3010 2984 2984 2984 2984 2984 2984 2984 2984 2958 2958 2958 2958 2984 2984 2984 2984 3010 3010 2984 2958 2933 2170 2170 2170 2170 2170 2170 2170 2170 2170 2184 2184 2184 2184 2184 3037 3037 3092 3092 3092 3092 3064 3037 3010 3010 2984 2984 2958 2958 2958 2958 2933 2933 2933 2933 2933 2933 2933 2933 2933 2933 2908 2908 2908 2908 2908 2908 2933 2933 2933 2908 2908 2908 2908 2908 2908 2933 2908 2908 2908 2908 2933 2933 2933 2933 2958 2958 2958 2958 2958 2984 2984 2984 2143 2143 2143 2143 2129 2129 2143 2143 2143 2143 2156 2156 2156 2156 2156 0 0 0 0 0 0 0 0 0 0 0 0 0 0 0 0 0 0 0 0 0 0 0 0 0 0 0 0 0 0 2156 2143 2143 2143 2143 2156 2156 2143 2143 0 0 0 0 0 0 0 0 0 0 0 0 0 0 0 0 2103 2090 2090 2090 2090 2090 2090 2090 2090 2090 2090 2090 2103 2103 2103 2103 2103 2103 2103 2103 2103 2103 0 0 0 0 0 0 0 0 0 0 0 0 0 0 0 0 0 0 0 0 0 0 0 0 4842 4842 4842 4842 4842 4911 4911 4842 4842 4842 4842 4842 4842 4774 4774 4774 4774 4774 4774 4708 4708 4708 4708 4645 4645 4645 4645 4582 4582 4582 4582 4582 4582 4522 4522 4522 4463 4463 4463 4463 4463 4463 4463 4463 4463 4463 4463 4463 4463 4463 4463 4463 4463 4405 4405 4405 4405 4405 4405 4405 4405 4405 4405 4463 0 0 0 0 0 0 0 0 0 0 0 0 0 0 0 0 0 0 0 0 0 0 0 0 0 0 0 0 0 0 0 2958 2958 2958 2958 2933 2933 2933 2933 2958 2958 2958 2958 2933 2908 2908 2883 2859 2859 2859 2859 2859 2859 2859 2859 2859 2835 2835 2812 2789 2789 2789 2767 2767 2744 2744 2744 2744 2744 2744 2723 2723 2723 2723 2723 2723 2723 2701 2701 2701 2701 2680 2680 2680 2680 2680 2680 2659 2659 2659 2659 2659 2659 2639 2639 2639 2639 2639 2639 2639 0 0 0 0 0 0 0 0 0 0
0 0 0 0 0 0 0 0 0 0 0 0 0 0 0 0 0 0 0 0 0 0 0 0 0 0 0 0 0 0 4582 4582 4582 0 0 0 0 0 0 0 0 0 0 0 0 0 0 0 0 5210 5210 5132 5132 5132 5132 5132 5132 5132 5132 5132 5291 5291 5291 0 0 4708 4708 4645 4582 4582 4582 4582 4582 4582 4582 4582 4582 4582 4582 4582 4582 4582 4582 4645 4645 4645 4645 4774 4842 0 0 0 0 0 0 0 5056 5056 5056 5056 4911 4911 4911 4708 4582 4522 4522 4522 4522 4463 4463 4463 4463 4522 4522 4522 5374 5374 5460 5460 5460 5548 5548 5548 5548 5548 5640 5548 5548 5548 4463 4463 4582 4645 4708 4708 4708 4774 4774 4842 4842 5640 5734 5832 5933 6038 6038 6038 6038 5832 5374 5132 5132 5056 5056 5056 5132 5132 5132 5210 5291 5291 5460 5734 5832 5832 5832 5640 5640 5640 5548 5548 5548 5548 5640 5734 5734 5734 5832 5933 6038 6038 6038 6038 6038 6038 6038 6038 6038 6038 6038 6146 6146 3037 3037 3037 3064 3064 3064 3037 3037 3037 3010 3010 3010 3010 2184 2184 2184 2184 2184 2184 2184 2184 2184 2184 2198 2198 2198 2212 2212 3010 3010 3037 3037 3037 3037 3037 3037 3037 3064 3064 3037 3037 3064 3064 3064 3064 3092 3064 3064 3092 3092 3092 3092 3064 3064 3037 3037 3010 3010 3010 3010 3010 3010 3010 3010 2984 2984 2984 2984 2984 2984 2984 2984 2984 2984 2984 2984 2984 2984 2984 2984 3010 3010 2984 2958 2933 2170 2170 2170 2170 2170 2170 2170 2170 2170 2170 2184 2184 2184 2184 3037 3064 3092 3092 3092 3092 3092 3037 3010 3010 3010 2984 2958 2958 2958 2958 2958 2933 2933 2933 2933 2933 2933 2933 2933 2933 2933 2933 2908 2908 2933 2933 2933 2933 2933 2908 2908 2908 2908 2908 2908 2933 2908 2908 2908 2908 2933 2933 2933 2933 2958 2958 2958 2958 2958 2984 3010 3010 2129 2129 2129 2129 2129 2129 2143 2143 2156 2156 2156 2156 2156 2156 0 0 0 0 0 0 0 0 0 0 0 0 0 0 0 0 0 0 0 0 0 0 0 0 0 0 0 0 0 0 0 0 2143 2143 2143 2143 2156 0 0 0 0 0 0 0 0 0 0 0 0 0 0 0 0 0 0 0 2103 2090 2090 2090 2090 2090 2090 2090 2090 2090 2090 2090 2103 2103 2103 2103 2103 2103 2103 2103 2090 2090 0 0 0 0 0 0 0 0 0 0 0 0 0 0 0 0 0 0 0 0 0 0 0 0 4842 4842 4911 4911 4911 4911 4911 4911 4911 4842 4842 4842 4842 4774 4774 4774 4774 4774 4774 4774 4774 4774 4708 4708 4645 4645 4645 4582 4582 4582 4582 4582 4582 4522 4522 4522 4522 4522 4463 4463 4463 4463 4463 4463 4463 4463 4463 4463 4463 4463 4463 4463 4463 4405 4405 4405 4405 4405 4405 4405 4405 4405 4405 4463 0 0 0 0 0 0 0 0 0 0 0 0 0 0 0 0 0 0 0 0 0 0 0 0 0 0 0 0 0 0 0 0 0 2984 2984 2933 2933 2933 2933 2958 2958 2958 2958 2933 2908 2908 2883 2859 2859 2859 2859 2859 2859 2859 2859 2859 2835 2835 2812 2789 2789 2789 2789 2767 2767 2744 2744 2744 2744 2744 2723 2723 2723 2723 2723 2723 2723 2701 2701 2701 2701 2680 2680 2680 2680 2680 2680 2680 2659 2639 2639 2639 2639 2639 2639 2639 2639 2639 2639 2639 0 0 0 0 0 0 0 0 0 0
0 0 0 0 0 0 0 0 0 0 0 0 0 0 0 0 0 0 0 0 0 0 0 0 0 0 0 0 0 0 4582 4582 0 0 0 0 0 0 0 0 0 0 0 0 0 0 0 0 0 5210 5210 5210 5132 5132 5132 5132 5132 5132 5132 5132 5291 5291 5291 5460 5460 4774 4774 4708 4645 4645 4582 4582 4582 4582 4582 4582 4582 4582 4582 4582 4582 4582 4582 4645 4645 4645 4645 4708 4774 0 0 0 0 0 0 5210 5056 5056 5056 5056 4911 4911 4911 4708 4582 4522 4522 4522 4522 4463 4463 4463 4463 4522 4522 4522 5374 5374 5374 5460 5460 5460 5460 5460 5460 5548 5548 5548 5548 5548 4522 4522 4582 4645 4708 4708 4708 4774 4774 4842 4842 5640 5734 5832 5933 6038 6038 6038 6146 5933 5933 5056 5056 5056 5056 5132 5132 5132 5132 5210 5291 5374 5548 5734 5832 5832 5640 5640 5640 5640 5548 5548 5548 5548 5640 5640 5734 5734 5734 5832 5933 5933 6038 6038 6038 6038 6038 6038 6038 6038 6038 6146 6146 3037 3037 3037 3064 3064 3064 3064 3037 3037 3010 3010 3010 3037 2184 2184 2184 2184 2184 2184 2184 2184 2184 2184 2198 2198 2212 2212 2212 3010 3037 3037 3037 3037 3037 3037 3037 3037 3064 3064 3064 3064 3064 3064 3064 3064 3092 3064 3064 3092 3092 3092 3092 3064 3037 3037 3037 3010 3010 3010 3010 3010 3010 3010 3010 2984 2984 2984 2984 2984 2984 2984 2984 2984 2984 2984 2984 2984 2984 2984 2984 2984 2984 2984 2958 2933 2170 2170 2170 2170 2170 2170 2170 2170 2170 2170 2184 2184 2184 2184 3037 3064 3092 3120 3120 3120 3092 3064 3037 3010 3010 2984 2984 2958 2958 2958 2958 2933 2933 2933 2933 2933 2933 2933 2933 2933 2933 2933 2908 2908 2933 2933 2933 2933 2933 2908 2908 2908 2908 2908 2908 2933 2908 2908 2908 2933 2933 2933 2933 2933 2958 2958 2984 2958 2958 2984 2984 2984 2129 2129 2129 2129 2143 2143 2143 2143 2156 2156 2143 2143 2156 2156 0 0 0 0 0 0 0 0 0 0 0 0 0 0 0 0 0 0 0 0 0 0 0 0 0 0 0 0 0 0 0 0 0 2156 2156 0 0 0 0 0 0 0 0 0 0 0 0 0 0 0 0 0 0 0 0 0 0 0 0 0 0 2090 2090 2090 2090 2090 2103 2103 2103 2103 2103 2103 2103 2103 2103 2103 2090 2090 0 0 0 0 0 0 0 0 0 0 0 0 0 0 0 0 0 0 0 0 0 0 0 4983 4983 4983 4911 4911 4911 4911 4911 4911 4911 4911 4911 4842 4842 4774 4774 4774 4774 4774 4774 4774 4774 4774 4708 4708 4708 4645 4645 4582 4582 4582 4582 4582 4582 4522 4522 4522 4522 4522 4463 4463 4463 4463 4463 4463 4463 4463 4463 4463 4463 4463 4463 4463 4463 4405 4405 4405 4349 4349 4405 4405 4405 4405 4463 4463 4463 0 0 0 0 0 0 0 0 0 0 0 0 0 0 0 0 0 0 0 0 0 0 0 0 0 0 0 0 0 0 0 0 0 0 0 0 2933 2933 2958 2958 2958 3614 3576 3576 3576 3576 2859 2859 2859 2859 2859 2859 2859 2859 2859 2859 2835 2812 2789 2789 2789 2789 2789 2767 2744 2744 2744 2744 2744 2723 2723 2723 2723 2723 2723 2723 2701 2701 2701 2701 2701 2680 2680 2680 2680 2680 2680 2659 2639 2639 2639 2639 2639 2639 2639 2639 2639 2639 2639 0 0 0 0 0 0 0 0 0 0
0 0 0 0 0 0 0 0 0 0 0 0 0 0 0 0 0 0 0 0 0 0 0 0 0 0 0 0 0 0 4582 4582 4582 0 0 0 0 0 0 0 0 0 0 0 0 0 0 0 0 5210 5210 5210 5210 5132 5132 5132 5132 5132 5132 5132 5460 5460 5460 5460 5460 5460 4842 4774 4708 4645 4645 4645 4645 4582 4582 4582 4582 4582 4582 4582 4582 4582 4582 4645 4645 4645 4645 4645 4645 0 0 0 0 0 0 5210 5132 5056 5056 5056 4983 4983 4911 4708 4582 4522 4522 4522 4463 4463 4463 4463 4463 4522 4522 4522 5374 5374 5374 5460 5460 5460 5460 5460 5460 5548 5548 5548 5548 5548 4582 4582 4645 4645 4708 4708 4774 4774 4774 4774 4842 5734 5734 5832 5933 6038 6038 6146 6146 5933 5933 5056 5056 5056 5056 5056 5056 5056 5132 5210 5210 5291 5460 5640 5734 5734 5640 5640 5640 5640 5548 5548 5548 5548 5640 5640 5640 5640 5734 5734 5832 5933 5933 6038 6038 6038 6038 6038 6038 6146 6146 6146 6146 3037 3037 3037 3037 3037 3064 3064 3064 3037 3037 3037 3037 3037 2184 2184 2184 2184 2184 2184 2184 2184 2198 2198 2198 2212 2212 2212 2212 3037 3037 3037 3037 3064 3037 3037 3037 3064 3064 3064 3064 3064 3064 3064 3064 3064 3120 3092 3092 3092 3092 3092 3092 3064 3037 3037 3037 3010 3010 3010 3010 3010 3010 3010 3010 3010 3010 3010 3010 2984 2984 2984 2984 2984 2984 2984 2984 2984 2984 2984 2984 2984 2984 2984 2958 2958 2170 2156 2156 2170 2170 2170 2170 2170 2170 2170 2184 2184 2184 2184 3037 3064 3092 3120 3120 3120 3120 3092 3037 3037 3010 2984 2958 2958 2958 2958 2958 2933 2933 2933 2933 2933 2933 2933 2933 2933 2933 2933 2933 2933 2933 2933 2933 2933 2933 2908 2908 2908 2933 2933 2933 2933 2908 2908 2908 2933 2933 2933 2933 2933 2958 2958 2984 2958 2958 2984 2984 2984 2143 2143 2143 2143 2143 2143 2143 2143 2156 2156 2143 2143 2143 0 0 0 0 0 0 0 0 0 0 0 0 0 0 0 0 0 0 0 0 0 0 0 0 0 0 0 0 0 0 0 0 0 0 0 0 0 0 0 0 0 0 0 0 0 0 0 0 0 0 0 0 0 0 0 0 0 0 0 0 0 0 2090 2090 2090 2090 2090 2103 2103 2103 2103 2103 2103 2103 2103 2103 2103 2103 2103 0 0 0 0 0 0 0 0 0 0 0 0 0 0 0 0 0 0 0 0 0 0 0 4983 4983 4983 4983 4983 4983 4983 4983 4911 4911 4911 4911 4911 4842 4842 4842 4842 4774 4774 4774 4774 4774 4774 4708 4708 4708 4645 4645 4582 4582 4582 4582 4582 4582 4522 4522 4522 4522 4522 4463 4463 4463 4463 4463 4463 4463 4463 4463 4463 4463 4463 4463 4463 4463 4405 4405 4405 4349 4349 4405 4405 4405 4463 4463 4463 4463 4522 0 0 0 0 0 0 0 0 0 0 0 0 0 0 0 0 0 0 0 0 0 0 0 0 0 0 0 0 0 0 0 0 0 0 0 3653 3653 3653 3614 3614 3614 3576 3576 3576 3576 3614 2859 2859 2859 2859 2859 2859 2859 2859 2859 2835 2812 2789 2789 2789 2789 2767 2767 2744 2744 2744 2744 2744 2723 2723 2723 2723 2723 2723 2723 2701 2701 2701 2701 2701 2680 2680 2680 2680 2680 2680 2659 2659 2659 2659 2659 2639 2639 2659 2639 2639 2639 2639 0 0 0 0 0 0 0 0 0 0
0 0 0 0 0 0 0 0 0 0 0 0 0 0 0 0 0 0 0 0 0 0 0 0 0 0 0 0 0 0 4582 4582 4582 0 0 0 0 0 0 0 0 0 0 0 0 0 0 0 0 5291 5291 5210 5210 5132 5132 5132 5132 5132 5132 5132 5460 5460 5460 5460 5460 5460 5374 4842 4774 4645 4645 4645 4645 4582 4582 4582 4582 4582 4645 4582 4582 4582 4582 4645 4645 4645 4645 4645 4645 0 0 0 0 0 0 5132 5132 5132 5056 5056 4983 4983 4983 4708 4582 4522 4522 4463 4463 4463 4463 4463 4463 4522 4522 4522 4582 5374 5374 5460 5460 5460 5460 5460 5548 5548 5548 5548 5548 5548 4645 4645 4708 4708 4708 4708 4774 4774 4774 4774 4842 4842 5832 5832 5933 5933 6038 6146 6146 6146 6146 5056 5056 5056 5056 5056 5056 5056 5132 5132 5210 5210 5291 5548 5640 5734 5640 5640 5640 5640 5640 5640 5640 5640 5640 5640 5640 5640 5734 5734 5832 5933 5933 6038 6038 6038 6038 6038 6038 6038 6146 6146 6146 3037 3037 3037 3037 3037 3037 3064 3064 3037 3037 3037 3037 3037 2184 2184 2184 2184 2184 2184 2184 2184 2198 2198 2198 2212 2226 2226 2226 3037 3037 3037 3037 3064 3037 3037 3064 3064 3064 3064 3064 3064 3064 3064 3064 3064 3120 3092 3092 3092 3092 3092 3092 3064 3037 3037 3037 3037 3010 3010 3010 3010 3010 3010 3010 3010 3010 3010 2984 2984 2984 2984 2984 2984 2984 2984 2984 2984 2984 2984 2984 3010 3010 3010 3010 3010 3010 2156 2156 2170 2170 2170 2170 2170 2170 2184 2184 2184 2184 2184 3037 3064 3092 3092 3120 3120 3120 3120 3037 3037 3010 2984 2958 2958 2958 2958 2958 2933 2933 2933 2933 2933 2933 2933 2933 2933 2933 2933 2933 2933 2933 2933 2933 2933 2958 2933 2933 2933 2933 2933 2933 2933 2933 2933 2933 2933 2933 2958 2958 2958 2958 2958 2984 2958 2958 2984 2984 2984 2984 2143 2143 2143 2143 2143 2143 2156 2156 2156 2143 2143 2143 2156 0 0 0 0 0 0 0 0 0 0 0 0 0 0 0 0 0 0 0 0 0 0 0 0 0 0 0 0 0 0 0 0 0 0 0 0 0 0 0 0 0 0 0 0 0 0 0 0 0 0 0 0 0 0 0 0 0 0 0 0 0 0 2103 2103 2103 2103 2103 2103 2103 2103 2103 2103 2103 2103 2103 2103 2090 2090 0 0 0 0 0 0 0 0 0 0 0 0 0 0 0 0 0 0 0 0 0 0 0 4983 4983 4983 4983 4983 4983 4983 4983 4911 4911 4911 4911 4911 4911 4842 4842 4842 4774 4774 4774 4774 4774 4774 4708 4708 4708 4645 4645 4582 4582 4582 4582 4582 4582 4522 4522 4522 4522 4522 4522 4463 4463 4463 4463 4463 4463 4463 4463 4463 4463 4463 4463 4463 4463 4405 4405 4405 4349 4349 4405 4405 4463 4463 4463 4463 4463 4522 0 0 0 0 0 0 0 0 0 0 0 0 0 0 0 0 0 0 0 0 0 0 0 0 0 0 0 0 0 0 0 0 0 0 0 3653 3614 3614 3614 3614 3614 3614 3614 3614 3614 3614 3614 3614 3614 2859 2859 2859 2859 2859 3614 2835 2812 2789 2767 2767 2767 2767 2744 2744 2744 2744 2744 2744 2744 2723 2723 2723 2723 2723 2723 2701 2701 2723 2723 2701 2701 2680 2680 2680 2701 2680 2659 2659 2659 2659 2659 2659 2659 2659 2659 2659 2639 2639 0 0 0 0 0 0 0 0 0 0
0 0 0 0 0 0 0 0 0 0 0 0 0 0 0 0 0 0 0 0 0 0 0 0 0 0 0 0 0 0 4645 4645 0 0 0 0 0 0 0 0 0 0 0 0 0 0 0 5210 5132 5132 5291 5210 5210 5210 5132 5132 5132 5132 5132 5132 5374 5374 5374 5374 5374 5374 5291 5132 4842 4774 4708 4645 4645 4645 4645 4645 4645 4645 4645 4582 4582 4582 4582 4582 4582 4582 4645 4645 4645 4774 0 0 0 0 0 5132 5056 5056 5056 5056 4983 4983 4983 4645 4522 4463 4463 4405 4405 4463 4463 4463 4463 4522 4522 4522 4582 5374 5374 5460 5460 5460 5460 5460 5460 5548 5548 5460 5460 5460 4708 4708 4708 4708 4708 4708 4774 4774 4774 4774 4774 4842 4842 5933 5832 5832 5933 6038 6038 6038 6038 5056 5056 5056 5056 5056 5056 5056 5132 5132 5210 5210 5210 5291 5640 5734 5640 5640 5640 5640 5548 5548 5548 5548 5640 5640 5640 5640 5734 5734 5832 5832 5933 5933 6038 6038 6038 6038 6038 6038 6146 6146 6146 3037 3037 3037 3037 3037 3037 3037 3037 3037 3037 3037 3037 3037 2184 2184 2184 2184 2184 2184 2184 2184 2198 2198 2198 2198 2212 2212 2226 3037 3037 3037 3037 3037 3064 3064 3064 3064 3064 3064 3064 3064 3064 3064 3064 3092 3120 3092 3092 3092 3092 3092 3092 3064 3037 3037 3037 3037 3037 3010 3010 3010 3010 3010 3010 3010 3010 3010 2984 2984 2984 2984 3010 3010 3010 3010 2984 2984 2984 2984 2984 3010 3010 3010 3010 3010 3010 2156 2156 2170 2170 2170 2170 2170 2170 2184 2184 2184 2198 2198 3037 3064 3092 3092 3120 3120 3120 3120 3092 3064 3010 2984 2984 2958 2958 2958 2958 2933 2933 2933 2933 2958 2933 2933 2933 2933 2933 2933 2933 2933 2933 2933 2933 2933 2958 2933 2933 2933 2933 2933 2933 2933 2933 2933 2933 2933 2933 2958 2958 2958 2958 2958 2984 2984 2984 2984 2984 2984 2984 2129 2129 2143 2143 2143 2143 2156 2156 2156 2156 2156 2156 2156 0 0 0 0 0 0 0 0 0 0 0 0 0 0 0 0 0 0 0 0 0 0 0 0 0 0 0 0 0 0 0 0 0 0 0 0 0 0 0 0 0 0 0 0 0 0 0 0 0 0 0 0 0 0 0 0 0 0 0 0 0 0 2103 2103 2103 2103 2103 2103 2103 2103 2103 2103 2103 2103 2103 2090 2090 2090 0 0 0 0 0 0 0 0 0 0 0 0 0 0 0 0 0 0 0 0 0 0 0 4983 4983 4983 4983 4983 4983 4983 4911 4911 4911 4911 4911 4911 4842 4842 4842 4842 4774 4774 4774 4774 4708 4708 4708 4708 4708 4645 4645 4645 4582 4582 4582 4582 4582 4522 4522 4522 4522 4522 4522 4463 4463 4463 4463 4463 4463 4463 4463 4463 4463 4463 4463 4463 4463 4405 4405 4405 4405 4405 4405 4463 4463 4463 4463 4522 4522 4522 0 0 0 0 0 0 0 0 0 0 0 0 0 0 0 0 0 0 0 0 0 0 0 0 0 0 0 0 0 0 0 0 0 0 0 3653 3614 3614 3614 3614 3614 3614 3614 3614 3614 3614 3653 3614 3614 3614 3653 2859 2859 3614 3614 3614 3614 2789 2767 2744 2744 2744 2744 2744 2744 2744 2744 2744 2723 2723 2723 2723 2723 2723 2723 2723 2723 2723 2723 2701 2701 2701 2701 2701 2701 2680 2680 2659 2659 2659 2659 2659 2659 2659 2659 2659 2659 2659 0 0 0 0 0 0 0 0 0 0
0 0 0 0 0 0 0 0 0 0 0 0 0 0 0 0 0 0 0 0 0 0 0 0 0 0 0 0 0 0 4645 4645 4708 0 0 0 0 0 0 0 0 0 0 0 0 0 0 5210 5132 5132 5132 5132 5210 5210 5132 5132 5132 5132 5132 5132 5374 5374 5374 5374 5374 5374 5291 5210 5132 4842 4774 4708 4645 4645 4645 4645 4645 4645 4645 4645 4582 4582 4582 4582 4582 4582 4645 4645 4645 4774 0 0 0 0 0 5056 5056 5056 5056 5056 4983 4983 4983 4645 4522 4463 4463 4405 4405 4463 4463 4463 4463 4522 4522 4522 4582 5374 5374 5374 5460 5460 5460 5460 5460 5460 5548 5460 5460 5460 4708 4708 4708 4708 4708 4708 4774 4774 4774 4774 4774 4774 4774 4774 5832 5832 5933 5832 5832 5933 5933 5132 5056 5056 5056 5132 5132 5132 5132 5132 5132 5132 5210 5291 5548 5734 5548 5548 5640 5640 5548 5548 5548 5548 5548 5548 5640 5640 5640 5734 5832 5832 5832 5933 6038 6038 6038 6038 6038 6146 6146 6146 6146 3037 3037 3037 3037 3037 3037 3037 3037 3037 3037 3037 3037 3037 2184 2184 2184 2184 2184 2184 2184 2184 2198 2198 2198 2198 2212 2212 2226 3037 3037 3037 3037 3037 3064 3064 3064 3064 3064 3064 3064 3064 3064 3064 3064 3092 3120 3092 3092 3092 3092 3120 3092 3064 3064 3064 3037 3037 3037 3010 3010 3010 3010 3010 3010 3010 3010 3010 3010 3010 3010 3010 3010 3010 3010 3010 2984 2984 2984 3010 3010 3010 3010 3010 3010 3010 3010 2170 2170 2170 2170 2170 2170 2170 2170 2184 2184 2184 2198 3010 3037 3064 3092 3092 3120 3120 3120 3092 3092 3037 2984 2984 2984 2958 2958 2958 2958 2933 2933 2958 2933 2933 2933 2933 2933 2933 2933 2933 2933 2933 2933 2933 2933 2933 2958 2933 2933 2933 2933 2933 2933 2933 2933 2933 2933 2933 2933 2958 2958 2958 2958 2958 2958 2958 2984 2984 2984 2984 2116 2116 2116 2129 2129 2156 2156 2156 2156 2156 2156 2156 2156 0 0 0 0 0 0 0 0 0 0 0 0 0 0 0 0 0 0 0 0 0 0 0 0 0 0 0 0 0 0 0 0 0 0 0 0 0 0 0 0 0 0 0 0 0 0 0 0 0 0 0 0 0 0 0 0 0 0 0 0 0 0 0 2103 2103 2103 2103 2103 2103 2103 2103 2103 2103 2103 2103 2103 2090 2090 2090 0 0 0 0 0 0 0 0 0 0 0 0 0 0 0 0 0 0 0 0 0 0 0 4983 4983 4983 4983 4983 4983 4983 4911 4911 4911 4911 4911 4911 4842 4842 4842 4842 4774 4774 4708 4708 4708 4708 4708 4708 4708 4708 4645 4645 4582 4582 4582 4582 4582 4522 4522 4522 4522 4522 4522 4463 4463 4463 4463 4463 4463 4463 4463 4463 4463 4463 4463 4463 4463 4405 4405 4405 4405 4405 4405 4463 4463 4522 4522 4522 4522 0 0 0 0 0 0 0 0 0 0 0 0 0 0 0 0 0 0 0 0 0 0 0 0 0 0 0 0 0 0 0 0 0 0 0 0 3614 3576 3576 3576 3576 3614 3614 3614 3614 3614 3614 3614 3614 3614 3614 3653 3653 3653 3614 3614 3614 3614 3576 3576 2744 2744 2744 2744 2744 2744 2744 2744 2723 2723 2723 2723 2723 2723 2744 2723 2723 2744 2744 2723 2723 2701 2701 2701 2701 2701 2680 2680 2659 2659 2659 2659 2659 2659 2659 2659 2659 2639 2639 0 0 0 0 0 0 0 0 0 0
0 0 0 0 0 0 0 0 0 0 0 0 0 0 0 0 0 0 0 0 0 0 0 0 0 0 0 0 0 0 4708 4708 4708 0 0 0 0 0 0 0 0 0 0 0 0 0 5210 5132 5132 5132 5132 5132 5132 5132 5132 5132 5132 5132 5056 5056 5291 5374 5291 5291 5374 5374 5291 5291 5210 4983 4842 4708 4645 4645 4645 4645 4645 4645 4645 4645 4645 4582 4582 4582 4582 4582 4645 4645 4645 0 0 0 0 0 0 5056 5056 5056 5056 5056 4983 4983 4983 4645 4522 4522 4463 4405 4405 4463 4463 4463 4463 4522 4522 4522 4582 5291 5374 5374 5460 5460 5460 5460 5460 5460 5548 5460 5460 5460 4708 4708 4774 4774 4774 4774 4774 4774 4774 4774 4774 4774 4774 4774 4774 5933 5933 5832 5832 5933 5933 5056 5056 5056 5056 5132 5132 5132 5132 5132 5132 5132 5132 5291 5548 5734 5548 5548 5640 5640 5548 5548 5548 5548 5548 5548 5640 5640 5640 5734 5734 5734 5832 5933 6038 6038 6038 6038 6038 6038 6146 6146 6146 3010 3010 3037 3037 3037 3037 3037 3037 3037 3037 3037 3037 2184 2184 2184 2184 2184 2184 2184 2184 2184 2184 2198 2198 2198 2226 2226 3010 3037 3037 3037 3064 3064 3064 3064 3064 3064 3064 3064 3064 3064 3064 3064 3064 3092 3120 3092 3092 3092 3092 3120 3092 3064 3064 3064 3037 3037 3037 3010 3010 3010 3010 3010 3010 3010 3010 3010 3010 3010 3010 3010 3010 3010 3010 3010 2984 2984 2984 3010 3010 3010 3010 3010 3010 3010 3010 2156 2156 2170 2170 2170 2170 2170 2170 2184 2184 2184 2198 3010 3037 3064 3092 3120 3120 3120 3120 3092 3064 3010 2984 2984 2984 2984 2958 2958 2958 2958 2958 2958 2933 2933 2933 2933 2933 2933 2933 2933 2933 2933 2933 2933 2958 2958 2958 2933 2933 2933 2933 2933 2933 2933 2933 2933 2933 2933 2933 2958 2958 2958 2958 2958 2958 2958 2984 2984 2984 2984 2116 2116 2116 2129 2129 2156 2156 2156 2156 2156 2156 2156 2156 0 0 0 0 0 0 0 0 0 0 0 0 0 0 0 0 0 0 0 0 0 0 0 0 0 0 0 0 0 0 0 0 0 0 0 0 0 0 0 0 0 0 0 0 0 0 0 0 0 0 0 0 0 0 0 0 0 0 0 0 0 2143 2143 2103 2103 2103 2103 2103 2103 2103 2103 2103 2103 2103 2103 2103 2090 2090 0 0 0 0 0 0 0 0 0 0 0 0 0 0 0 0 0 0 0 0 0 0 0 0 4983 4983 4983 4983 4983 4983 4983 4983 4983 4983 4911 4911 4911 4911 4842 4842 4842 4774 4774 4708 4708 4708 4708 4708 4708 4708 4708 4708 4645 4645 4582 4582 4582 4582 4522 4522 4522 4522 4522 4522 4522 4522 4463 4463 4463 4463 4463 4463 4463 4463 4463 4463 4463 4463 4463 4463 4405 4405 4405 4405 4463 4463 4522 4522 4522 4522 0 0 0 0 0 0 0 0 0 0 0 0 0 0 0 0 0 0 0 0 0 0 0 0 0 0 0 0 0 0 0 0 0 0 0 0 3576 3576 3576 3576 3576 3576 3614 3614 3614 3614 3614 3614 3614 3614 3653 3653 3653 3653 3614 3614 3614 3614 3576 3576 3614 2744 2744 2744 2744 2744 2744 2744 2723 2723 2723 2723 2723 2723 2744 2744 2744 2744 2744 2723 2723 2701 2701 2701 2701 2701 2680 2680 2659 2659 2659 2659 2659 2659 2659 2659 2659 2639 2639 0 0 0 0 0 0 0 0 0 0
0 0 0 0 0 0 0 0 0 0 0 0 0 0 0 0 0 0 0 0 0 0 0 0 0 0 0 0 0 0 4708 4708 4708 0 0 0 0 0 0 0 0 0 0 0 0 0 5210 5132 5132 5132 5132 5132 5132 5132 5132 5132 5132 5132 5056 5056 5291 5374 5291 5291 5291 5291 5291 5210 5210 5056 4842 4708 4645 4645 4645 4645 4645 4645 4645 4645 4645 4582 4582 4582 4582 4582 4645 4645 4645 4708 4842 4842 0 0 0 5132 5056 5056 5056 5056 5056 5056 5056 4983 4582 4522 4463 4405 4405 4463 4463 4463 4463 4463 4522 4522 4522 5291 5374 5374 5460 5460 5460 5460 5460 5460 5460 5460 5460 4911 4911 4708 4708 4774 4774 4774 4774 4774 4774 4774 4774 4774 4774 4774 4774 4708 5640 5640 5640 5291 5291 5056 5056 5056 5056 5056 5056 5056 5132 5132 5056 5056 5132 5291 5291 5548 5548 5548 5640 5640 5548 5548 5548 5548 5640 5640 5640 5640 5640 5734 5734 5734 5832 5933 6038 6038 6038 6038 6038 6038 6146 6146 3037 3010 3010 3010 3010 3037 3037 3037 3037 3037 3037 3037 3037 2184 2184 2184 2184 2184 2184 2184 2184 2184 2184 2198 2198 2212 2226 2226 3037 3037 3037 3064 3064 3064 3064 3064 3064 3064 3064 3064 3064 3064 3064 3064 3064 3092 3120 3092 3092 3092 3092 3120 3092 3064 3064 3064 3064 3037 3037 3010 3010 3010 3010 3010 3010 3010 3010 3010 3010 3010 2984 2984 2984 2984 2984 2984 2984 2984 2984 3010 3010 3010 3010 3010 3010 3010 3010 2156 2156 2170 2170 2170 2170 2170 2170 2184 2184 2184 2184 3010 3037 3064 3092 3092 3120 3120 3092 3064 3064 3010 2984 2984 2984 2984 2958 2958 2958 2958 2958 2958 2933 2933 2933 2933 2933 2933 2933 2933 2958 2933 2933 2958 2958 2958 2958 2933 2933 2933 2933 2933 2933 2933 2933 2933 2933 2933 2958 2958 2958 2958 2984 2958 2958 2984 2984 2984 2984 2984 2984 2170 2156 2129 2129 2143 2143 2156 2156 2156 2170 2170 2170 0 0 0 0 0 0 0 0 0 0 0 0 0 0 0 0 0 0 0 0 0 0 0 0 0 0 0 0 0 0 0 0 0 0 0 0 0 0 0 0 0 0 0 0 0 0 0 0 0 0 0 0 0 0 0 0 0 0 0 0 0 2143 2103 2103 2090 2090 2103 2103 2103 2103 2103 2103 2103 2103 2103 2103 2103 2103 0 0 0 0 0 0 0 0 0 0 0 0 0 0 0 0 6038 6038 6146 6146 6146 6146 6146 0 5056 4983 4983 4983 4983 4983 4983 4983 4983 4911 4911 4911 4911 4842 4842 4842 4842 4842 4842 4774 4774 4774 4708 4708 4708 4708 4708 4708 4645 4645 4645 4582 4582 4582 4522 4522 4522 4522 4522 4522 4522 4522 4463 4463 4463 4463 4463 4463 4463 4522 4463 4463 4463 4463 4405 4405 4405 4405 4405 4405 4463 4522 4522 4582 4582 4582 4582 4582 0 0 0 0 0 0 0 0 0 0 0 0 0 0 0 0 0 0 0 0 0 0 0 0 0 0 0 0 0 0 0 0 0 0 3576 3576 3576 3576 3576 3576 3614 3614 3614 3614 3614 3614 3653 3653 3653 3653 3653 3614 3614 3614 3576 3576 3576 3539 3539 0 0 0 0 0 2744 2744 2723 2723 2723 2723 2723 2744 2744 2744 2744 2744 2744 2723 2723 2701 2701 2701 2701 2701 2680 2680 2659 2659 2659 2659 2659 2659 2639 2639 2639 2618 2618 0 0 0 0 0 0 0 0 0 0
0 0 0 0 0 0 0 0 0 0 0 0 0 0 0 0 0 0 0 0 0 0 0 0 0 0 0 0 0 0 4708 4708 4708 0 0 0 0 0 0 0 0 0 0 0 0 0 0 5132 5132 5132 5132 5132 5132 5132 5132 5056 5056 5056 5056 5056 5210 5291 5291 5291 5291 5291 5291 5210 5132 4983 4774 4645 4645 4645 4645 4645 4645 4645 4645 4645 4645 4582 4582 4582 4582 4582 4582 4645 4645 4708 4842 4842 0 0 0 5056 5056 5056 5056 5056 5056 5056 5056 4983 4645 4522 4463 4405 4405 4463 4463 4463 4463 4463 4463 4463 4522 4522 5460 5460 5460 5460 5460 5460 5460 5460 5460 5548 5460 4911 4911 4645 4645 4774 4774 4774 4774 4774 4774 4774 4774 4774 4774 4708 4708 4708 5640 5640 5640 5374 5291 5132 5056 5056 5056 5056 5056 5056 5056 5056 5056 5056 5056 5210 5374 5374 5548 5548 5548 5548 5548 5548 5548 5548 5640 5640 5640 5640 5640 5734 5734 5734 5832 5933 5933 6038 5933 5933 5933 5933 5933 3037 3037 3037 3037 3010 3010 3037 3037 3037 3037 3037 3037 3037 3037 2184 2170 2170 2184 2184 2184 2184 2184 2184 2184 2198 2198 2212 2241 2256 3037 3037 3037 3064 3064 3064 3064 3064 3064 3064 3064 3064 3064 3064 3064 3064 3064 3092 3120 3092 3092 3092 3092 3120 3092 3064 3064 3064 3064 3037 3037 3010 3010 3010 3010 3010 3010 3010 3010 3010 3010 2984 2984 2984 2984 2984 2984 2984 2984 2984 2984 3010 3010 3010 3010 3010 3010 3010 3010 2170 2170 2170 2170 2170 2170 2170 2170 2184 2184 2184 2184 3010 3037 3037 3092 3092 3120 3120 3092 3064 3064 3010 2984 2984 2984 2984 2984 2984 2984 2958 2958 2958 2958 2958 2958 2958 2958 2933 2933 2958 2958 2933 2933 2958 2958 2958 2958 2933 2933 2933 2933 2933 2958 2958 2958 2933 2933 2933 2933 2958 2958 2984 2984 2984 2984 2984 2984 2984 2984 2984 2984 2156 2156 2143 2143 2143 2143 2156 2156 2156 2170 2170 2170 0 0 0 0 0 0 0 0 0 0 0 0 0 0 0 0 0 0 0 0 0 0 0 0 0 0 0 0 0 0 0 0 0 0 0 0 0 0 0 0 0 0 0 0 0 0 0 0 0 0 0 0 0 0 0 0 0 0 0 0 0 2129 2103 2103 2090 2090 2103 2103 2103 2103 2103 2103 2103 2103 2103 2103 2103 2103 0 0 0 0 0 0 0 0 0 0 0 0 0 0 0 0 6038 6038 6038 6038 6038 6146 6146 5056 5056 5056 5056 4983 4983 4983 4983 4911 4911 4911 4911 4911 4911 4842 4842 4842 4842 4842 4842 4774 4774 4774 4708 4708 4708 4708 4708 4708 4708 4708 4645 4582 4582 4582 4522 4522 4522 4522 4522 4522 4522 4522 4463 4463 4463 4463 4463 4463 4463 4522 4463 4463 4463 4463 4405 4405 4405 4405 4405 4405 4463 4522 4582 4582 4582 4582 4582 4582 0 0 0 0 0 0 0 0 0 0 0 0 0 0 0 0 0 0 0 0 0 0 0 0 0 0 0 0 0 0 0 0 0 0 3576 3576 3576 3576 3576 3576 3614 3614 3614 3614 3614 3614 3653 3653 3653 3732 3732 3614 3614 3614 3576 3576 3539 3539 3539 0 0 0 0 0 0 2744 2723 2723 2723 2723 2744 2744 2744 2744 2744 2767 2744 2723 2723 2701 2701 2701 2701 2701 2659 2659 2680 2680 2659 2659 2659 2659 2639 2639 2639 2618 2618 0 0 0 0 0 0 0 0 0 0
