0 0 0 0 0 0 0 0 0 0 0 0 0 0 0 0 0 0 0 0 0 0 0 0 0 0 0 0 0 0 0 0 2639 2639 2639 2639 2639 2639 2639 2639 2639 2639 2639 2639 2639 2639 2639 2639 2639 2639 2659 2680 2680 2680 2701 2701 2701 2701 2701 2701 2701 2701 2701 2701 2701 2723 2723 2723 2701 2701 2723 2723 2723 2723 2723 2723 2723 2723 2723 2723 2744 2723 2723 2744 2744 2744 2744 2744 2744 2744 2744 2767 2767 2767 2767 2767 2767 2767 2767 2767 2767 2767 2789 2767 2767 2767 2767 2767 2767 2767 2767 2767 2767 2767 2767 2767 2767 2789 2789 2789 2789 2789 2789 2789 2789 2789 2789 2789 2789 2789 2789 2789 2789 2789 2789 2812 2812 2812 2835 0 1655 1647 1647 1655 1655 1655 1564 1557 1557 1550 1550 1550 1557 1557 1557 1557 1557 1557 1557 1557 1564 1572 1579 1579 1586 1586 1586 2835 2835 2835 2835 2859 2859 2859 1739 1739 1739 1748 1748 1748 1748 1748 1748 1748 1748 1748 1748 1748 1748 1748 1748 1748 1748 1748 1748 1748 1748 1748 1757 1757 1757 1757 1757 1757 1757 1757 1757 1757 1766 1766 1766 1766 1766 1766 1766 1757 1757 1757 1757 1757 1757 1757 1757 1748 1748 1757 1757 1757 1757 1757 1757 1757 1757 1757 1748 1748 1458 1458 1458 1458 1458 1458 1458 1452 1452 1445 1445 1445 1445 1452 1452 1464 1464 1470 1470 1470 1757 1757 1757 1757 1766 1766 1766 1766 1766 1766 1766 1766 1766 1766 1766 1766 1766 1776 1776 1766 1766 1766 1766 1766 1766 1766 1766 1776 1776 1776 1776 1785 1785 1785 1328 1328 1328 1328 1328 1328 1328 1322 1322 1322 1322 1322 1322 1322 1328 1328 1328 1328 1333 1333 1333 1333 1333 1333 1328 1328 1328 1328 1322 1322 1322 1322 1322 1322 1322 1317 1317 1312 1312 1307 1307 1307 1302 1302 1302 1302 1302 1302 1302 1302 1302 1302 1302 1297 1297 1292 1292 1292 1292 1292 1292 1292 1292 1292 1292 1288 1288 1288 1288 1288 1288 1292 2958 2984 2984 3010 3010 3010 1833 1833 1833 1833 1843 1843 1843 1843 1843 1843 1843 1833 1833 1833 1833 1833 1833 1833 1833 1833 1833 1833 1833 1833 1823 1823 1823 1823 1813 1813 1804 1804 1804 1804 1804 1804 1804 1804 1813 1813 1823 1823 1823 0 1219 1219 1219 1219 1219 1219 1210 1210 1210 1210 1206 1206 1206 1206 1206 1210 1210 1210 1210 1210 1785 1785 1785 1785 1785 1785 1794 1794 1794 1794 1794 1785 1785 1794 1785 1785 1785 1785 1794 1794 1785 1785 1794 1794 1794 1794 1794 1794 1794 1794 1794 1794 1794 1794 1794 1794 1794 1794 1794 1794 1794 1794 1794 1794 1794 1794 1794 1794 1794 1794 1794 1785 1785 1785 1785 1785 1785 1785 1785 1794 1794 1794 1794 1317 1317 1317 1317 1317 1317 1317 1317 1312 1312 1312 1312 1302 1302 1297 1297 1297 1297 1297 1297 1297 1297 1297 1297 1297 1297 1297 1297 1297 1297 1297 1297 1297 1297 1297 1292 1292 1292 1292 1292 1292 1288 1288 1283 1283 1283 1283 1283 1283 1283 1283 1283 1283 1278 1278 1278 1278 1273 1273 1273 1268 1268 2933 2933 2933 2933 2933 2933 2933 2933 2933 2933 2958 2958 2958 2958 2958 2958 2958 2933 2933 2958 2958 2958 2958 2958 2958 2958 2933 2933 2933 2908 2908 2908 2933 2933 2933 2933 2933 2933 2933 2933 2933 2933 2933 2933 2933 2933 2933 2908 2908 2908 2908 2908 2883 2883 2908 2908 2908 2908 2908 2908 2908 2908 2908 2908 2883 2883 2883 2883 2883 2859 2859 2859 0 0 0 0 0 0 0 0 0 0 0
0 0 0 0 0 0 0 0 0 0 0 0 0 0 0 0 0 0 0 0 0 0 0 0 0 0 0 0 0 0 0 0 2639 2639 2639 2639 2639 2639 2639 2639 2639 2639 2639 2639 2639 2639 2639 2639 2639 2639 2659 2659 2680 2680 2680 2680 2701 2701 2701 2701 2701 2701 2701 2701 2701 2723 2723 2723 2701 2701 2701 2701 2701 2701 2701 2701 2701 2701 2701 2701 2723 2723 2723 2723 2723 2723 2723 2723 2744 2744 2744 2744 2744 2744 2744 2744 2744 2767 2767 2767 2767 2767 2767 2767 2767 2767 2767 2767 2767 2767 2767 2767 2767 2767 2744 2744 2744 2767 2767 2767 2767 2767 2767 2767 2767 2767 2767 2767 2767 2789 2789 2789 2767 2767 2789 2789 2812 2835 2835 0 1655 1647 1647 1655 1655 1655 1655 1557 1557 1557 1550 1550 1557 1557 1557 1557 1557 1557 1564 1564 1564 1572 1579 1579 1586 1586 2835 2835 2835 2835 2859 1705 1705 1713 1713 1731 1731 1739 1739 1739 1739 1739 1739 1739 1739 1739 1739 1739 1739 1739 1739 1739 1739 1739 1739 1739 1739 1739 1748 1748 1748 1748 1748 1748 1748 1748 1748 1748 1748 1757 1757 1757 1748 1748 1748 1748 1748 1748 1748 1748 1748 1748 1748 1748 1748 1748 1748 1757 1748 1748 1748 1748 1748 1748 1748 1748 1458 1458 1458 1458 1458 1458 1458 1458 1458 1445 1445 1445 1452 1452 1458 1464 1464 1470 1470 1470 1748 1748 1748 1748 1757 1757 1757 1757 1757 1757 1757 1757 1757 1766 1766 1766 1766 1766 1766 1766 1757 1757 1757 1757 1757 1757 1766 1766 1766 1776 1776 1776 1776 1776 1328 1328 1328 1328 1328 1328 1328 1328 1322 1322 1322 1322 1322 1322 1328 1328 1328 1328 1333 1333 1333 1333 1333 1328 1328 1328 1328 1322 1322 1322 1322 1322 1322 1322 1317 1317 1317 1312 1312 1307 1307 1307 1302 1302 1302 1302 1302 1302 1302 1302 1302 1297 1297 1297 1297 1292 1292 1292 1292 1292 1292 1292 1292 1292 1292 1288 1288 1288 1288 1288 1288 1288 1288 1288 1288 1288 1288 1288 1833 1833 1283 1283 1843 1843 1843 1843 1843 1843 1843 1833 1833 1833 1833 1833 1833 1833 1833 1833 1833 1833 1833 1833 1823 1823 1823 1823 1813 1813 1813 1804 1804 1804 1804 1804 1804 1804 1813 1813 1813 1823 1823 0 1223 1223 1223 1223 1223 1219 1214 1210 1210 1210 1206 1206 1210 1210 1210 1210 1210 1210 1210 1210 1776 1776 1776 1785 1785 1785 1785 1785 1785 1785 1785 1776 1776 1776 1776 1776 1776 1785 1785 1785 1785 1785 1785 1785 1785 1785 1785 1785 1785 1785 1785 1785 1785 1785 1785 1785 1785 1785 1785 1785 1785 1785 1785 1785 1785 1785 1785 1785 1785 1785 1785 1785 1785 1785 1785 1785 1785 1785 1785 1785 1794 1794 1794 1794 1317 1317 1317 1317 1317 1317 1317 1312 1312 1312 1312 1302 1302 1297 1297 1297 1297 1297 1297 1297 1297 1297 1297 1297 1297 1297 1297 1297 1297 1297 1297 1297 1297 1297 1297 1297 1292 1292 1292 1292 1288 1288 1283 1283 1283 1283 1283 1283 1283 1283 1283 1283 1278 1278 1278 1278 1273 1273 1273 1268 1268 2933 2933 2908 2908 2908 2933 2933 2933 2933 2933 2933 2933 2933 2933 2933 2933 2933 2933 2933 2933 2933 2933 2933 2933 2933 2933 2908 2908 2908 2908 2908 2908 2908 2908 2908 2908 2908 2908 2908 2908 2908 2908 2883 2883 2883 2883 2883 2883 2883 2883 2883 2883 2883 2883 2883 2883 2883 2908 2908 2908 2883 2883 2883 2883 2883 2883 2883 2859 2859 2835 2835 2835 0 0 0 0 0 0 0 0 0 0 0
0 0 0 0 0 0 0 0 0 0 0 0 0 0 0 0 0 0 0 0 0 0 0 0 0 0 0 0 0 0 0 0 2639 2639 2618 2618 2618 2618 2618 2618 2618 2618 2639 2639 2639 2639 2639 2639 2639 2639 2639 2659 2659 2659 2680 2680 2680 2680 2680 2680 2680 2680 2701 2701 2701 2723 2723 2723 2701 2701 2701 2701 2701 2701 2701 2701 2701 2701 2701 2701 2701 2701 2701 2723 2723 2723 2723 2723 2723 2723 2723 2723 2723 2723 2723 2744 2744 2744 2744 2744 2744 2744 2744 2744 2744 2744 2744 2744 2744 2744 2744 2744 2744 2744 2744 2744 2744 2767 2767 2767 2767 2767 2767 2767 2767 2767 2767 2767 2767 2767 2767 2767 2767 2767 2789 2789 2812 2835 2835 0 1655 1647 1647 1655 1655 1655 1655 1655 1557 1557 1550 1550 1557 1557 1557 1557 1557 1557 1564 1564 1564 1572 1579 1579 1586 1586 1586 1688 1688 1688 1696 1705 1705 1705 1713 1722 1722 1731 1731 1739 1739 1739 1739 1739 1739 1739 1739 1739 1739 1739 1739 1731 1731 1731 1731 1731 1731 1739 1739 1739 1739 1739 1739 1739 1739 1739 1748 1748 1748 1748 1748 1748 1748 1739 1739 1739 1739 1739 1739 1739 1748 1748 1748 1748 1748 1748 1748 1748 1748 1739 1739 1739 1739 1748 1739 1739 1458 1458 1458 1458 1458 1458 1458 1458 1458 1445 1445 1452 1452 1452 1458 1464 1470 1470 1470 1477 1477 1748 1739 1739 1748 1748 1748 1748 1748 1748 1748 1748 1748 1757 1757 1757 1757 1757 1757 1757 1748 1748 1748 1757 1757 1757 1757 1757 1757 1766 1766 1766 1766 1766 1322 1322 1322 1328 1328 1328 1328 1328 1328 1322 1322 1322 1322 1322 1328 1328 1328 1328 1333 1333 1333 1333 1328 1328 1328 1328 1322 1322 1317 1317 1317 1322 1322 1317 1317 1317 1317 1312 1312 1307 1307 1307 1302 1302 1297 1297 1302 1302 1302 1297 1297 1297 1297 1297 1297 1292 1292 1292 1292 1292 1292 1292 1292 1292 1288 1288 1288 1288 1288 1288 1288 1288 1288 1288 1288 1288 1283 1283 1283 1283 1283 1283 1288 1288 1833 1833 1833 1843 1843 1843 1843 1833 1833 1833 1833 1833 1833 1833 1833 1833 1833 1833 1823 1823 1823 1823 1823 1813 1813 1813 1804 1804 1804 1804 1804 1804 1804 1813 1813 1813 1813 0 1227 1227 1227 1227 1227 1223 1219 1214 1214 1210 1210 1210 1210 1210 1210 1210 1210 1210 1210 1214 1776 1776 1776 1776 1776 1776 1776 1776 1776 1776 1766 1766 1766 1766 1766 1766 1766 1766 1776 1776 1776 1776 1776 1776 1776 1776 1776 1776 1776 1776 1776 1785 1785 1785 1785 1785 1785 1785 1785 1776 1776 1776 1776 1776 1776 1776 1776 1776 1776 1785 1785 1785 1785 1776 1776 1776 1776 1776 1785 1785 1785 1785 1794 1794 1317 1317 1312 1312 1317 1317 1317 1312 1312 1317 1981 1981 1981 1297 1297 1297 1970 1297 1297 1947 1947 1947 1947 1297 1297 1297 1297 1297 1297 1297 1297 1297 1297 1297 1297 1297 1297 1292 1292 1292 1288 1288 1288 1288 1283 1283 1283 1283 1283 1283 1283 1283 1278 1278 1278 1278 1273 1273 1268 1250 1241 1241 1241 2908 2908 2908 2908 2908 2908 2908 2933 2933 2933 2933 2933 2933 2933 2933 2933 2933 2933 2933 2933 2933 2933 2933 2933 2908 2908 2908 2883 2883 2883 2883 2883 2908 2883 2883 2908 2908 2908 2883 2883 2883 2883 2883 2883 2859 2859 2859 2859 2859 2859 2859 2859 2859 2835 2835 2859 2859 2859 2859 2859 2859 2859 2859 2859 2859 2859 2835 2835 2835 2835 0 0 0 0 0 0 0 0 0 0 0
0 0 0 0 0 0 0 0 0 0 0 0 0 0 0 0 0 0 0 0 0 0 0 0 0 0 0 0 0 0 0 0 2639 2618 2618 2618 2618 2618 2618 2618 2618 2618 2618 2639 2639 2639 2639 2639 2639 2639 2639 2659 2659 2659 2680 2680 2680 2680 2680 2680 2680 2680 2701 2701 2701 2723 2723 2723 2701 2701 2701 2701 2680 2680 2701 2680 2680 2701 2701 2701 2701 2701 2701 2701 2701 2701 2701 2701 2701 2701 2701 2701 2701 2701 2701 2723 2723 2723 2723 2723 2723 2701 2701 2701 2701 2723 2723 2723 2723 2723 2723 2723 2723 2723 2723 2723 2723 2744 2744 2744 2744 2767 2767 2744 2744 2744 2744 2744 2744 2744 2767 2767 2767 2767 2767 2789 2789 2789 2789 0 1655 1655 1655 1655 1655 1655 1655 1647 1557 1557 1557 1557 1557 1557 1557 1564 1564 1564 1564 1564 1564 1572 1579 1579 1586 1586 1586 1688 1688 1688 1696 1705 1705 1705 1713 1713 1713 1722 1722 1731 1731 1731 1731 1731 1731 1731 1739 1739 1739 1731 1731 1731 1731 1731 1731 1731 1731 1731 1731 1731 1739 1739 1739 1739 1739 1739 1739 1739 1739 1739 1739 1739 1739 1731 1731 1739 1739 1739 1739 1739 1739 1739 1739 1739 1739 1739 1739 1739 1739 1739 1739 1739 1739 1739 1739 1739 1739 1458 1458 1458 1458 1458 1458 1458 1458 1452 1452 1452 1452 1458 1464 1464 1470 1470 1470 1477 1477 1739 1739 1739 1739 1739 1739 1739 1739 1739 1739 1739 1739 1739 1739 1739 1739 1739 1739 1739 1739 1739 1739 1739 1739 1739 1739 1739 1757 1757 1757 1757 1757 1757 1322 1322 1322 1328 1328 1328 1328 1328 1328 1328 1328 1328 1328 1328 1328 1328 1328 1333 1333 1333 1333 1333 1328 1328 1328 1328 1322 1322 1317 1317 1317 1317 1317 1317 1317 1317 1312 1312 1312 1307 1307 1307 1302 1302 1297 1297 1302 1302 1297 1297 1297 1297 1297 1292 1292 1292 1292 1292 1288 1288 1288 1288 1288 1288 1288 1288 1288 1288 1288 1288 1288 1288 1288 1288 1283 1283 1283 1283 1283 1283 1283 1283 1283 1283 1283 1833 1833 1833 1833 1843 1843 1843 1833 1833 1833 1833 1833 1833 1833 1833 1833 1833 1833 1823 1823 1823 1823 1823 1813 1813 1813 1813 1804 1804 1804 1804 1804 1813 1813 1813 1813 1227 1227 1227 1227 1227 1227 1223 1219 1214 1214 1210 1210 1210 1210 1210 1210 1214 1214 1214 1214 1776 1766 1766 1776 1776 1776 1776 1766 1766 1766 1766 1757 1757 1757 1757 1757 1757 1757 1757 1766 1766 1766 1766 1766 1776 1776 1766 1766 1766 1766 1766 1766 1766 1776 1776 1776 1776 1776 1785 1776 1776 1776 1766 1766 1766 1766 1766 1766 1766 1776 1776 1776 1776 1776 1776 1776 1776 1776 1776 1776 1776 1785 1785 1785 1794 1794 2859 1312 1312 1317 1317 1317 1322 1322 1993 1981 1981 1981 1970 1970 1970 1970 1959 1947 1947 1947 1292 1292 1292 1297 1297 1297 1297 1297 1297 1297 1297 1297 1297 1297 1297 1297 1297 1292 1288 1288 1288 1288 1288 1283 1283 1283 1283 1283 1283 1283 1283 1283 1278 1278 1278 1273 1273 1268 1245 1241 1236 1236 2908 2908 2908 2908 2908 2908 2908 2908 2908 2933 2933 2933 2933 2908 2908 2908 2908 2908 2933 2933 2933 2933 2933 2933 2908 2883 2883 2883 2883 2883 2883 2883 2883 2883 2883 2883 2883 2883 2859 2859 2859 2859 2859 2859 2859 2859 2859 2859 2859 2859 2835 2835 2835 2835 2835 2835 2835 2835 2835 2835 2835 2859 2859 2859 2835 2835 2835 2835 2835 2812 2812 0 0 0 0 0 0 0 0 0 0
0 0 0 0 0 0 0 0 0 0 0 0 0 0 0 0 0 0 0 0 0 0 0 0 0 0 0 0 0 0 0 0 2639 2618 2618 2618 2618 2618 2618 2618 2618 2618 2618 2618 2618 2639 2618 2618 2639 2639 2639 2639 2659 2659 2659 2659 2659 2680 2659 2659 2659 2680 2680 2701 2701 2723 2723 2723 2680 2680 2680 2680 2680 2680 2680 2680 2680 2680 2680 2680 2680 2680 2701 2701 2701 2701 2701 2680 2680 2680 2680 2701 2701 2701 2701 2723 2723 2701 2701 2701 2701 2701 2701 2701 2701 2701 2701 2723 2723 2723 2701 2701 2701 2701 2701 2701 2701 2723 2723 2723 2744 2744 2744 2744 2723 2723 2744 2744 2744 2744 2744 2744 2744 2744 2767 2767 2767 2767 0 0 1655 1655 1655 1655 1655 1655 1655 1647 1564 1564 1564 1564 1564 1564 1564 1564 1564 1564 1564 1564 1564 1572 1579 1579 1586 1586 1586 1680 1680 1688 1696 1705 1705 1705 1705 1713 1713 1713 1713 1722 1722 1722 1722 1731 1731 1731 1731 1731 1731 1731 1722 1722 1722 1722 1722 1722 1722 1722 1722 1722 1731 1731 1731 1722 1722 1731 1731 1731 1731 1731 1731 1731 1722 1722 1731 1731 1731 1731 1731 1731 1731 1731 1731 1731 1731 1731 1731 1731 1731 1731 1731 1731 1731 1731 1731 1731 1731 1731 1458 1458 1464 1464 1464 1464 1464 1458 1458 1458 1458 1464 1464 1464 1470 1470 1470 1477 1477 1483 1731 1731 1731 1731 1731 1731 1731 1731 1731 1731 1731 1731 1731 1731 1731 1731 1731 1731 1731 1731 1731 1731 1731 1731 1739 1739 1739 1739 1739 1739 1739 1739 1322 1322 1322 1328 1328 1328 1328 1328 1328 1328 1328 1328 1328 1328 1328 1328 1333 1333 1333 1333 1333 1333 1333 1328 1328 1328 1322 1322 1317 1317 1317 1317 1317 1317 1312 1312 1312 1312 1307 1307 1307 1307 1302 1302 1302 1302 1302 1302 1297 1297 1297 1292 1292 1292 1292 1288 1288 1288 1288 1288 1288 1288 1288 1288 1288 1288 1288 1288 1288 1288 1288 1288 1283 1283 1283 1283 1283 1283 1283 1283 1283 1283 1283 1283 1283 1278 1278 1833 1833 1833 1843 1843 1843 1833 1833 1843 1843 1833 1833 1833 1833 1833 1833 1833 1833 1833 1823 1823 1813 1813 1813 1813 1813 1804 1804 1804 1804 1804 1804 1813 1813 1227 1227 1227 1227 1227 1227 1227 1219 1219 1219 1214 1210 1210 1210 1210 1214 1219 1219 1219 1223 1766 1766 1766 1766 1766 1766 1766 1766 1766 1766 1757 1757 1757 1757 1757 1757 1757 1757 1757 1757 1757 1757 1757 1757 1757 1766 1757 1757 1757 1757 1757 1757 1766 1766 1766 1766 1776 1776 1766 1757 1757 1757 1757 1757 1757 1757 1757 1766 1766 1766 1766 1766 1776 1776 1766 1766 1766 1766 1766 1766 1766 1776 1776 1785 1794 1794 2859 2859 2835 2835 2835 2835 2835 1993 1993 1993 1981 1981 1981 1970 1970 1970 1959 1959 1959 1959 1292 1292 1292 1297 1297 1297 1297 1297 1297 1297 1297 1297 1297 1297 1297 1297 1297 1292 1288 1288 1288 1288 1288 1288 1288 1288 1288 1283 1283 1283 1283 1283 1283 1278 1278 1273 1273 1268 1245 1241 1236 1236 2908 2883 2883 2883 2883 2883 2908 2908 2908 2908 2908 2908 2908 2908 2908 2908 2908 2908 2908 2933 2933 2933 2908 2908 2883 2883 2859 2859 2859 2859 2859 2859 2883 2883 2883 2883 2883 2859 2859 2859 2859 2859 2859 2859 2835 2835 2835 2835 2835 2835 2835 2835 2835 2835 2835 2835 2835 2835 2835 2835 2835 2835 2835 2835 2835 2835 2835 2812 2812 2812 2812 0 0 0 0 0 0 0 0 0 0
0 0 0 0 0 0 0 0 0 0 0 0 0 0 0 0 0 0 0 0 0 0 0 0 0 0 0 0 0 0 0 0 2618 2618 2618 2618 2618 2618 2618 2618 2618 2618 2618 2618 2618 2618 2618 2618 2618 2618 2618 2639 2639 2639 2639 2639 2659 2659 2659 2659 2659 2659 2680 2680 2701 2701 2701 2701 2680 2659 2659 2659 2659 2659 2659 2680 2680 2680 2680 2680 2680 2680 2680 2680 2680 2680 2680 2680 2680 2680 2680 2680 2680 2701 2701 2701 2701 2701 2701 2701 2701 2680 2659 2659 2680 2680 2701 2701 2701 2701 2701 2701 2701 2701 2701 2701 2701 2701 2701 2701 2723 2723 2723 2723 2723 2723 2723 2723 2723 2723 2723 2723 2723 2744 2744 2744 2767 2767 0 1655 1655 1655 1655 1655 1655 1655 1655 1647 1572 1564 1564 1564 1564 1564 1564 1564 1564 1564 1564 1564 1572 1579 1579 1586 1586 1586 1586 1680 1680 1688 1696 1705 1705 1705 1705 1705 1705 1713 1713 1713 1713 1713 1713 1722 1722 1722 1731 1731 1731 1722 1722 1713 1713 1713 1713 1713 1713 1713 1713 1713 1722 1722 1722 1722 1722 1722 1722 1722 1722 1722 1722 1722 1722 1722 1722 1722 1722 1722 1722 1722 1722 1722 1722 1722 1722 1722 1722 1722 1722 1722 1722 1722 1722 1731 1731 1731 1731 1731 1464 1464 1464 1464 1464 1464 1470 1464 1458 1458 1458 1464 1464 1464 1470 1470 1470 1477 1477 1483 1713 1722 1722 1722 1722 1722 1722 1722 1722 1731 1731 1731 1722 1722 1722 1722 1722 1722 1722 1722 1722 1722 1722 1722 1731 1731 1722 1722 1731 1731 1722 1722 1722 1322 1322 1328 1328 1328 1328 1328 1328 1328 1328 1328 1328 1333 1333 1333 1333 1333 1333 1333 1333 1333 1333 1328 1328 1328 1322 1322 1317 1317 1317 1317 1317 1317 1312 1312 1312 1312 1307 1307 1307 1307 1302 1302 1302 1302 1302 1302 1297 1297 1297 1292 1292 1292 1288 1288 1288 1288 1288 1288 1288 1288 1288 1288 1288 1288 1288 1288 1288 1288 1288 1288 1283 1283 1283 1283 1283 1283 1283 1283 1283 1283 1283 1283 1283 1278 1278 1278 1278 1278 1278 1278 1278 1833 1833 1843 1843 1843 1833 1833 1833 1833 1833 1833 1833 1833 1823 1823 1813 1813 1813 1813 1813 1813 1813 1813 1813 1804 1804 1804 1227 1227 1227 1227 1227 1227 1227 1227 1223 1219 1219 1214 1214 1214 1210 1210 1214 1219 1219 1223 1223 1766 1766 1766 1766 1766 1766 1766 1766 1757 1757 1757 1757 1757 1757 1757 1757 1757 1757 1757 1757 1757 1757 1757 1748 1748 1757 1748 1748 1748 1748 1748 1748 1748 1757 1757 1757 1757 1757 1757 1748 1748 1757 1757 1757 1748 1748 1748 1757 1757 1757 1757 1757 1757 1757 1757 1757 1757 1757 1757 1757 1757 1766 1766 1766 1794 1794 1794 2835 2835 2812 2812 2812 2812 1993 1993 1993 1981 1981 1981 1970 1970 1970 1959 1959 1959 0 1292 1292 1292 1297 1297 1297 1297 1297 1297 1297 1297 1297 1297 1297 1297 1292 1292 1292 1292 1292 1292 1288 1288 1288 1288 1288 1288 1288 1288 1288 1288 1283 1283 1283 1278 1273 1273 1268 1250 1241 1241 1241 2883 2883 2859 2859 2859 2859 2883 2883 2883 2883 2883 2883 2883 2883 2883 2883 2883 2908 2908 2908 2908 2908 2908 2883 2859 2859 2835 2835 2835 2835 2859 2859 2859 2859 2859 2859 2859 2835 2835 2835 2835 2835 2835 2835 2835 2835 2835 2835 2835 2835 2835 2835 2835 2835 2812 2812 2812 2812 2835 2835 2835 2835 2835 2835 2835 2812 2812 2812 2812 2812 2812 0 0 0 0 0 0 0 0 0 0
0 0 0 0 0 0 0 0 0 0 0 0 0 0 0 0 0 0 0 0 0 0 0 0 0 0 0 0 0 0 0 0 2618 2618 2598 2598 2618 2618 2618 2618 2618 2618 2618 2618 2618 2618 2618 2618 2618 2618 2618 2639 2639 2639 2639 2639 2639 2659 2659 2659 2659 2659 2659 2680 2680 2680 2680 2680 2659 2659 2659 2639 2639 2639 2659 2659 2659 2680 2680 2680 2680 2680 2680 2680 2680 2680 2680 2680 2680 2680 2680 2680 2680 2680 2701 2701 2701 2701 2701 2701 2680 2680 2659 2659 2659 2680 2680 2680 2680 2701 2701 2701 2701 2701 2701 2701 2701 2701 2701 2701 2701 2701 2723 2701 2701 2701 2701 2701 2701 2701 2701 2701 2723 2723 2723 2723 2744 2744 0 1655 1655 1655 1655 1655 1655 1655 1655 1647 1647 1572 1564 1564 1564 1564 1564 1564 1564 1564 1564 1564 1572 1579 1579 1586 1586 1594 1594 1680 1680 1688 1696 1696 1696 1696 1705 1705 1705 1705 1705 1705 1705 1713 1713 1713 1713 1713 1713 1713 1713 1713 1713 1713 1713 1713 1713 1713 1713 1713 1713 1713 1713 1713 1713 1713 1713 1713 1713 1713 1713 1713 1713 1713 1713 1713 1713 1713 1713 1713 1713 1713 1713 1713 1713 1713 1713 1713 1713 1713 1713 1713 1722 1722 1722 1722 1731 1722 1722 1722 1470 1470 1470 1470 1470 1470 1470 1464 1464 1464 1464 1464 1464 1470 1470 1470 1477 1477 1483 1483 1705 1713 1713 1713 1722 1722 1722 1722 1722 1722 1722 1722 1722 1713 1713 1713 1713 1713 1713 1713 1713 1713 1713 1722 1722 1722 1713 1713 1722 1722 1713 1713 1713 1328 1328 1328 1328 1328 1328 1333 1333 1333 1333 1333 1333 1333 1333 1333 1333 1333 1333 1333 1333 1333 1333 1333 1328 1328 1322 1322 1322 1317 1317 1317 1317 1317 1312 1312 1312 1312 1307 1307 1307 1307 1302 1302 1302 1302 1302 1302 1297 1297 1297 1292 1292 1292 1288 1288 1288 1288 1288 1288 1288 1288 1288 1288 1283 1283 1283 1283 1283 1283 1283 1283 1283 1283 1283 1278 1278 1278 1278 1278 1283 1283 1283 1283 1283 1278 1278 1278 1278 1278 1278 1278 1278 1273 1273 1273 1273 1273 1273 1273 1278 1278 1833 1833 1833 1833 1833 1833 1823 1823 1813 1813 1813 1813 1813 1813 1813 1813 1813 1813 1227 1227 1227 1227 1227 1227 1227 1227 1223 1219 1219 1219 1214 1214 1214 1214 1219 1223 1223 1223 1227 1766 1766 1766 1766 1766 1766 1757 1757 1757 1757 1757 1757 1757 1757 1757 1757 1757 1748 1748 1748 1748 1748 1748 1748 1748 1748 1748 1748 1748 1748 1748 1748 1748 1748 1748 1748 1748 1748 1748 1748 1748 1748 1748 1748 1748 1739 1739 1748 1748 1748 1739 1739 1739 1739 1739 1739 1739 1739 1739 1739 1739 1748 1748 1748 1748 1739 0 2789 2789 2789 2789 2789 2789 1993 1993 1993 1981 1981 1981 1970 1970 1970 1959 1959 1959 0 1292 1292 1292 1292 1297 1297 1297 1297 1297 1297 1297 1297 1292 1292 1292 1292 1292 1292 1292 1292 1292 1288 1288 1288 1288 1288 1288 1288 1288 1288 1288 1283 1283 1283 1278 1273 1273 1268 1268 1268 2859 2859 2859 2859 2859 2859 2859 2859 2859 2859 2859 2859 2859 2859 2859 2859 2859 2883 2883 2883 2883 2883 2883 2883 2883 2859 2835 2835 2835 2835 2835 2835 2835 2835 2835 2859 2859 2859 2835 2835 2835 2835 2835 2835 2835 2812 2812 2812 2812 2835 2835 2835 2835 2835 2835 2835 2812 2812 2812 2812 2835 2835 2835 2835 2835 2835 2812 2812 2812 2812 2812 2789 2789 0 0 0 0 0 0 0 0 0 0
0 0 0 0 0 0 0 0 0 0 0 0 0 0 0 0 0 0 0 0 0 0 0 0 0 0 0 0 0 0 0 0 2598 2598 2598 2598 2598 2598 2618 2618 2618 2618 2618 2598 2598 2618 2618 2618 2618 2618 2618 2639 2639 2639 2639 2639 2639 2659 2639 2639 2659 2659 2659 2659 2659 2659 2680 2680 2639 2639 2639 2639 2618 2618 2639 2639 2639 2659 2659 2659 2659 2659 2659 2659 2659 2659 2680 2680 2659 2659 2680 2680 2680 2680 2680 2680 2680 2680 2680 2680 2680 2659 2659 2659 2659 2680 2680 2680 2680 2680 2680 2680 2680 2680 2680 2680 2680 2701 2701 2701 2701 2701 2701 2701 2701 2701 2701 2701 2701 2701 2701 2701 2701 2701 2701 2723 2723 2723 0 1655 1655 1655 1655 1655 1655 1655 1655 1647 1647 1572 1564 1564 1564 1564 1564 1564 1564 1564 1564 1564 1572 1579 1579 1586 1586 1594 1601 1663 1671 1680 1680 1688 1688 1688 1696 1696 1696 1696 1696 1696 1696 1705 1705 1705 1705 1705 1705 1705 1705 1705 1705 1705 1705 1705 1705 1705 1705 1705 1705 1713 1713 1713 1713 1713 1713 1713 1705 1705 1705 1705 1705 1705 1705 1705 1705 1705 1713 1713 1713 1713 1713 1713 1713 1705 1705 1713 1713 1713 1713 1713 1713 1713 1713 1713 1713 1713 1713 1713 1470 1470 1470 1470 1470 1470 1470 1464 1464 1464 1464 1464 1470 1470 1470 1470 1477 1477 1483 1483 1696 1696 1705 1713 1713 1713 1713 1713 1713 1713 1713 1713 1713 1713 1705 1705 1705 1705 1705 1705 1705 1705 1713 1713 1713 1713 1713 1713 1713 1713 1705 1705 1705 1328 1328 1328 1328 1333 1333 1333 1333 1333 1333 1333 1333 1333 1333 1333 1333 1333 1333 1333 1333 1333 1333 1333 1328 1328 1328 1328 1322 1322 1322 1322 1317 1317 1317 1317 1317 1312 1312 1312 1312 1312 1307 1302 1302 1302 1302 1302 1297 1297 1297 1292 1292 1292 1288 1288 1288 1288 1288 1288 1288 1288 1288 1288 1283 1283 1283 1283 1283 1283 1283 1283 1283 1283 1283 1278 1278 1278 1278 1278 1278 1278 1278 1278 1278 1278 1278 1278 1278 1278 1278 1278 1273 1273 1273 1273 1273 1273 1273 1273 1278 1278 1273 1273 1273 1278 1273 1273 1273 1273 1823 1823 1823 1823 1813 1813 1813 1813 1813 1813 1227 1227 1227 1227 1227 1227 1227 1227 1223 1223 1223 1219 1219 1219 1219 1219 1219 1223 1223 1223 1227 1766 1766 1766 1766 1766 1766 1757 1757 1757 1757 1757 1757 1757 1757 1757 1757 1757 1748 1748 1748 1748 1748 1748 1748 1748 1748 1748 1748 1748 1748 1748 1748 1739 1739 1739 1739 1739 1739 1739 1739 1739 1739 1731 1731 1739 1731 1731 1739 1739 1739 1731 1731 1731 1731 1731 1731 1731 1731 1731 1731 1731 1731 1731 1731 1739 1739 1731 2767 2767 2767 2767 2789 2789 1993 1993 1993 1981 1981 1981 1981 1981 1970 1970 1970 1970 1292 1292 1292 1292 1292 1297 1297 1297 1297 1297 1297 1297 1292 1292 1292 1292 1292 1292 1292 1292 1292 1292 1288 1288 1288 1288 1288 1288 1288 1288 1288 1288 1288 1283 1283 1283 1278 1278 1278 1278 2812 2812 2812 2812 2835 2835 2835 2835 2859 2859 2859 2859 2859 2859 2859 2859 2859 2859 2859 2859 2883 2883 2859 2859 2859 2859 2859 2835 2812 2812 2812 2835 2835 2835 2835 2835 2835 2835 2835 2835 2835 2812 2812 2835 2812 2812 2812 2812 2812 2812 2812 2812 2812 2812 2812 2812 2812 2812 2812 2812 2812 2812 2812 2835 2835 2835 2835 2812 2812 2812 2812 2812 2789 2789 0 0 0 0 0 0 0 0 0 0
0 0 0 0 0 0 0 0 0 0 0 0 0 0 0 0 0 0 0 0 0 0 0 0 0 0 0 0 0 0 0 0 2579 2579 2579 2579 2598 2598 2598 2598 2598 2598 2598 2598 2598 2618 2618 2618 2618 2618 2618 2618 2639 2639 2639 2639 2639 2639 2639 2639 2639 2639 2659 2659 2659 2659 2659 2659 2639 2639 2618 2618 2618 2618 2618 2639 2639 2639 2639 2639 2659 2659 2659 2659 2659 2659 2659 2659 2659 2659 2659 2659 2659 2659 2659 2680 2680 2659 2659 2659 2659 2659 2659 2659 2659 2680 2680 2680 2680 2680 2680 2680 2680 2680 2680 2680 2680 2680 2701 2701 2701 2701 2701 2701 2701 2701 2701 2701 2701 2701 2701 2701 2701 2701 2701 2701 2701 2701 2680 1655 1655 1655 1655 1655 1655 1655 1655 1647 1647 1572 1564 1564 1564 1564 1564 1564 1564 1564 1564 1564 1572 1579 1586 1586 1594 1594 1601 1663 1671 1680 1680 1688 1688 1688 1688 1688 1688 1688 1688 1696 1696 1696 1696 1696 1696 1696 1688 1688 1696 1696 1696 1696 1696 1696 1696 1696 1696 1696 1696 1705 1705 1705 1705 1705 1705 1705 1705 1705 1705 1705 1705 1705 1705 1705 1705 1705 1705 1705 1705 1705 1705 1705 1705 1705 1705 1705 1705 1705 1705 1705 1705 1705 1705 1705 1705 1705 1705 1705 1705 1477 1470 1470 1470 1470 1470 1464 1464 1464 1464 1464 1470 1470 1470 1470 1477 1477 1483 1483 1688 1688 1696 1705 1705 1705 1705 1705 1705 1705 1705 1705 1705 1705 1705 1705 1705 1705 1705 1705 1705 1705 1705 1705 1705 1705 1705 1705 1705 1705 1705 1705 1705 1333 1333 1333 1333 1333 1333 1333 1333 1333 1333 1333 1333 1333 1333 1333 1333 1333 1338 1338 1338 1338 1333 1333 1333 1328 1328 1328 1328 1322 1322 1322 1322 1317 1317 1317 1317 1312 1312 1312 1312 1312 1307 1307 1302 1302 1302 1302 1302 1297 1297 1297 1292 1292 1292 1292 1292 1292 1288 1288 1288 1288 1288 1288 1288 1288 1288 1288 1288 1283 1283 1283 1283 1283 1283 1278 1278 1278 1278 1278 1278 1278 1278 1278 1278 1278 1278 1278 1278 1278 1273 1273 1273 1273 1273 1273 1273 1273 1273 1273 1278 1273 1273 1273 1273 1273 1268 1268 1268 1268 1268 1268 1268 1268 1823 1813 1813 1813 1813 1813 1236 1232 1227 1227 1232 1227 1227 1227 1223 1223 1223 1223 1219 1219 1219 1219 1223 1223 1223 1227 1776 1766 1766 1766 1766 1766 1766 1757 1757 1757 1757 1757 1757 1757 1757 1757 1757 1748 1748 1748 1748 1748 1748 1748 1739 1739 1739 1739 1739 1739 1739 1739 1739 1739 1731 1731 1731 1731 1731 1731 1731 1731 1731 1731 1731 1731 1731 1731 1731 1731 1731 1722 1722 1722 1722 1722 1722 1722 1722 1722 1722 1722 1722 1722 1722 1731 1731 1731 2767 2767 2767 2767 2767 2767 1993 1993 1981 1981 1981 1981 1981 1981 1970 1970 1970 1970 1292 1292 1292 1292 1292 1297 1292 1292 1292 1292 1292 1292 1292 1292 1292 1292 1292 1292 1292 1288 1288 1292 1288 1288 1288 1288 1288 1288 1288 1288 1288 1288 1288 1288 1283 1283 1278 1278 1278 0 0 2767 2767 2767 2789 2812 2835 2835 2835 2835 2835 2835 2835 2859 2859 2859 2859 2859 2859 2859 2859 2859 2835 2835 2835 2835 2835 2812 2812 2812 2812 2812 2835 2835 2835 2835 2835 2835 2835 2835 2835 2812 2812 2812 2812 2812 2812 2812 2812 2812 2812 2812 2812 2812 2812 2789 2789 2789 2789 2812 2812 2812 2812 2812 2812 2812 2812 2812 2812 2789 2789 2789 2767 2767 0 0 0 0 0 0 0 0 0 0
0 0 0 0 0 0 0 0 0 0 0 0 0 0 0 0 0 0 0 0 0 0 0 0 0 0 0 0 0 0 0 0 2579 2560 2560 2560 2579 2579 2579 2579 2598 2598 2598 2598 2598 2618 2618 2618 2618 2618 2618 2618 2618 2618 2618 2639 2639 2639 2639 2639 2639 2639 2639 2639 2639 2639 2639 2639 2618 2618 2618 2618 2618 2618 2618 2618 2618 2618 2618 2618 2639 2639 2639 2639 2639 2639 2639 2639 2639 2639 2639 2639 2639 2639 2639 2659 2659 2659 2659 2659 2659 2659 2659 2659 2659 2659 2659 2659 2659 2659 2680 2680 2680 2680 2680 2680 2680 2680 2680 2680 2680 2680 2701 2680 2680 2680 2701 2680 2680 2680 2680 2680 2680 2680 2680 2680 2680 2680 2680 1655 1655 1655 1655 1655 1655 1655 1655 1647 1647 1572 1564 1564 1564 1564 1564 1564 1564 1564 1564 1564 1572 1579 1586 1586 1594 1594 1601 1663 1671 1680 1680 1680 1680 1680 1680 1680 1688 1688 1688 1688 1688 1688 1696 1688 1680 1680 1680 1680 1680 1680 1680 1680 1688 1688 1688 1688 1688 1688 1688 1696 1696 1696 1696 1696 1705 1705 1696 1696 1696 1696 1696 1705 1705 1705 1705 1705 1705 1696 1696 1705 1705 1705 1705 1705 1705 1705 1705 1705 1696 1696 1696 1696 1696 1696 1705 1705 1705 1705 1705 1477 1477 1470 1470 1470 1470 1464 1464 1464 1464 1464 1470 1470 1470 1477 1477 1477 1483 1483 1688 1688 1688 1696 1696 1696 1696 1696 1696 1696 1705 1705 1705 1705 1696 1696 1696 1696 1696 1696 1696 1696 1705 1705 1705 1705 1705 1705 1705 1705 1705 1705 1705 1705 1338 1333 1333 1338 1333 1333 1333 1333 1333 1333 1333 1333 1333 1333 1333 1333 1338 1338 1338 1338 1333 1333 1333 1328 1328 1328 1328 1328 1328 1328 1322 1322 1317 1317 1317 1312 1312 1312 1312 1312 1307 1307 1307 1302 1302 1302 1302 1302 1297 1297 1292 1292 1292 1292 1292 1292 1292 1288 1288 1288 1288 1288 1288 1288 1288 1288 1288 1283 1283 1283 1283 1283 1283 1283 1283 1278 1278 1278 1278 1278 1278 1278 1278 1273 1273 1273 1273 1278 1273 1273 1273 1273 1273 1273 1273 1273 1273 1273 1273 1273 1273 1268 1268 1268 1268 1268 1268 1268 1268 1268 1268 1264 1264 1268 1264 1264 1259 1250 1236 1232 1232 1232 1232 1232 1227 1227 1223 1223 1223 1223 1219 1219 1223 1223 1223 1223 1223 1227 1776 1757 1757 1757 1757 1757 1757 1757 1757 1757 1757 1757 1757 1757 1757 1757 1757 1748 1748 1748 1748 1748 1748 1748 1739 1739 1739 1739 1739 1739 1739 1739 1739 1731 1731 1722 1722 1722 1722 1722 1722 1722 1722 1722 1722 1722 1722 1722 1722 1722 1722 1713 1713 1722 1713 1713 1722 1713 1713 1722 1722 1722 1722 1722 1722 1722 1731 1739 2767 2767 2767 2767 2767 1993 1993 1993 1981 1981 1981 1981 1981 1981 1970 1970 1970 1970 1292 1292 1292 1292 1292 1292 1292 1292 1292 1292 1292 1292 1292 1292 1292 1292 1292 1292 1292 1288 1288 1292 1288 1288 1288 1288 1288 1288 1288 1288 1288 1288 1288 1288 1288 1288 1288 1288 1288 1292 0 2744 2744 2744 2789 2789 2812 2835 2835 2835 2835 2835 2835 2835 2835 2835 2835 2835 2835 2835 2835 2835 2835 2835 2835 2835 2835 2812 2812 2812 2812 2812 2812 2812 2812 2812 2812 2835 2812 2812 2812 2812 2812 2812 2812 2812 2812 2812 2812 2812 2812 2812 2812 2789 2789 2789 2789 2789 2789 2789 2789 2812 2812 2812 2812 2812 2789 2789 2767 2767 2767 2767 2767 2767 0 0 0 0 0 0 0 0 0 0
0 0 0 0 0 0 0 0 0 0 0 0 0 0 0 0 0 0 0 0 0 0 0 0 0 0 0 0 0 0 0 0 0 2560 2560 2560 2560 2579 2579 2579 2579 2598 2598 2598 2598 2598 2598 2618 2618 2618 2618 2618 2618 2618 2618 2639 2639 2639 2639 2639 2639 2639 2639 2639 2639 2639 2618 2618 2618 2598 2598 2618 2598 2598 2618 2618 2618 2618 2618 2618 2618 2618 2618 2618 2618 2618 2618 2618 2618 2618 2618 2618 2618 2618 2639 2639 2639 2639 2639 2639 2659 2659 2639 2639 2639 2659 2639 2639 2639 2639 2659 2659 2659 2659 2659 2659 2680 2680 2680 2680 2680 2680 2680 2680 2680 2680 2680 2680 2680 2680 2680 2680 2680 2680 2680 2680 2659 2659 2659 1655 1655 1655 1655 1655 1663 1655 1655 1647 1647 1647 1572 1564 1564 1564 1564 1564 1564 1564 1564 1564 1572 1579 1586 1586 1594 1594 1601 1663 1671 1671 1680 1680 1680 1680 1680 1680 1680 1680 1680 1680 1680 1688 1688 1680 1680 1680 1680 1680 1671 1671 1671 1671 1680 1680 1680 1680 1680 1688 1688 1688 1688 1688 1696 1696 1696 1696 1696 1696 1696 1696 1696 1696 1696 1696 1696 1696 1696 1696 1696 1696 1696 1696 1696 1696 1696 1696 1696 1696 1696 1688 1688 1688 1688 1688 1688 1696 1696 1696 1696 1477 1477 1477 1470 1470 1470 1464 1464 1464 1464 1464 1470 1470 1477 1477 1477 1483 1483 1483 1680 1680 1680 1688 1688 1688 1688 1696 1696 1696 1696 1696 1696 1696 1696 1696 1696 1696 1688 1688 1688 1696 1696 1696 1696 1696 1696 1696 1696 1705 1705 1705 1705 1705 1338 1338 1338 1338 1338 1338 1338 1333 1333 1333 1333 1333 1333 1333 1333 1338 1338 1338 1338 1338 1338 1333 1333 1333 1333 1328 1328 1328 1328 1328 1328 1322 1322 1317 1317 1317 1317 1317 1312 1312 1307 1307 1307 1307 1307 1302 1302 1302 1302 1297 1292 1292 1297 1292 1292 1292 1292 1292 1292 1288 1288 1288 1288 1288 1288 1288 1288 1288 1288 1288 1283 1283 1283 1283 1283 1283 1278 1278 1278 1278 1278 1278 1278 1273 1273 1273 1273 1273 1273 1273 1273 1273 1273 1273 1273 1273 1273 1273 1273 1273 1268 1268 1268 1268 1268 1268 1268 1268 1268 1268 1268 1264 1264 1268 1264 1264 1259 1250 1241 1241 1236 1232 1232 1232 1232 1232 1227 1223 1223 1223 1219 1219 1223 1223 1223 1223 1227 1776 1785 1688 1688 1688 1757 1757 1757 1757 1757 1757 1757 1757 1757 1757 1757 1757 1757 1757 1748 1748 1748 1748 1748 1748 1748 1739 1739 1739 1739 1739 1739 1739 1739 1731 1731 1722 1722 1722 1722 1722 1722 1722 1722 1722 1722 1722 1722 1722 1722 1722 1722 1713 1713 1713 1713 1713 1713 1713 1713 1713 1713 1713 1713 1713 1713 1722 1722 1722 1722 2744 2767 2767 2005 1993 1993 1993 1981 1981 1981 1981 1981 1981 1970 1970 1970 1970 1292 1292 1292 1292 1292 1292 1292 1292 1292 1292 1292 1292 1292 1292 1292 1292 1292 1292 1292 1292 1292 1288 1288 1288 1288 1288 1288 1288 1288 1288 1288 1288 1292 1292 1292 1292 1288 1288 1292 1292 0 2744 2744 2744 2767 2789 2789 2812 2835 2835 2835 2835 2812 2812 2812 2812 2812 2812 2812 2812 2835 2835 2812 2812 2812 2835 2835 2812 2812 2812 2812 2812 2812 2812 2812 2812 2812 2812 2812 2812 2812 2812 2812 2812 2812 2812 2812 2812 2812 2812 2812 2789 2789 2789 2789 2767 2767 2789 2789 2767 2767 2789 2789 2789 2789 2767 2767 2767 2767 2767 2767 2744 2744 2744 0 0 0 0 0 0 0 0 0 0
0 0 0 0 0 0 0 0 0 0 0 0 0 0 0 0 0 0 0 0 0 0 0 0 0 0 0 0 0 0 0 0 0 2541 2541 2541 2560 2560 2560 2560 2560 2560 2560 2579 2579 2579 2579 2579 2579 2618 2618 2618 2618 2618 2618 2618 2618 2618 2639 2639 2639 2639 2639 2639 2639 2639 2618 2618 2598 2598 2598 2598 2598 2598 2598 2598 2598 2598 2598 2598 2598 2598 2598 2598 2598 2618 2618 2618 2618 2618 2618 2618 2618 2618 2618 2618 2618 2618 2618 2639 2639 2639 2639 2639 2639 2639 2618 2618 2618 2639 2639 2659 2659 2659 2659 2659 2659 2659 2659 2659 2659 2680 2680 2680 2680 2680 2680 2659 2659 2659 2659 2659 2659 2659 2659 2659 2639 2639 2639 2639 1655 1655 1655 1655 1663 1655 1655 1655 1647 1647 1572 1564 1564 1564 1564 1564 1564 1564 1564 1564 1572 1579 1586 1586 1594 1594 1601 1663 1663 1671 1671 1680 1680 1680 1680 1680 1680 1680 1680 1680 1680 1680 1680 1671 1671 1671 1671 1671 1671 1671 1671 1671 1671 1680 1680 1680 1680 1680 1680 1680 1680 1680 1688 1688 1688 1688 1688 1688 1688 1688 1688 1688 1680 1680 1680 1680 1680 1680 1688 1688 1688 1696 1696 1696 1696 1696 1696 1688 1688 1688 1688 1688 1688 1688 1688 1688 1688 1688 1483 1477 1477 1477 1477 1477 1477 1470 1470 1470 1470 1470 1470 1470 1477 1477 1483 1483 1483 1483 1671 1671 1671 1680 1680 1680 1680 1688 1688 1688 1696 1688 1688 1688 1688 1688 1688 1688 1688 1688 1688 1688 1688 1688 1688 1688 1688 1696 1696 1696 1705 1705 1713 1713 1349 1338 1338 1338 1338 1338 1338 1338 1333 1333 1333 1333 1333 1333 1338 1338 1338 1343 1343 1338 1338 1333 1333 1333 1333 1328 1328 1328 1328 1328 1328 1328 1322 1322 1322 1322 1317 1317 1317 1317 1307 1307 1307 1307 1307 1302 1302 1302 1302 1302 1297 1297 1297 1297 1297 1292 1292 1292 1292 1292 1288 1288 1288 1288 1288 1288 1288 1288 1288 1288 1288 1283 1283 1283 1283 1283 1278 1278 1278 1278 1278 1278 1278 1273 1273 1273 1273 1273 1268 1268 1268 1268 1268 1268 1273 1273 1273 1273 1273 1273 1268 1268 1268 1268 1268 1268 1268 1268 1268 1268 1268 1268 1268 1268 1264 1264 1264 1255 1245 1241 1236 1236 1236 1232 1232 1232 1227 1223 1223 1223 1223 1223 1223 1223 1223 1223 1227 1227 1680 1680 1680 1688 1688 1757 1757 1757 1757 1757 1757 1757 1766 1757 1757 1757 1757 1757 1748 1748 1748 1748 1748 1748 1748 1748 1748 1739 1739 1739 1739 1739 1739 1739 1731 1731 1722 1722 1722 1722 1722 1722 1722 1722 1722 1722 1722 1722 1722 1713 1713 1713 1713 1713 1713 1713 1713 1713 1713 1713 1713 1713 1713 1713 1713 1713 1722 1713 1713 2744 2767 2767 2005 1993 1993 1993 1981 1981 1981 1981 1981 1981 1970 1970 1970 1970 1292 1292 1292 1292 1292 1292 1292 1292 1292 1292 1292 1292 1292 1292 1292 1292 1292 1292 1292 1292 1292 1288 1288 1288 1288 1288 1288 1288 1288 1288 1288 1288 1292 1292 1292 1292 1292 1292 1292 0 0 0 2723 2723 2744 2767 2789 2812 2812 2812 2812 2812 2812 2812 2789 2789 2789 2789 2789 2789 2812 2812 2812 2812 2812 2812 2812 2789 2789 2789 2812 2812 2812 2812 2812 2812 2812 2812 2789 2789 2789 2789 2789 2789 2789 2812 2812 2812 2789 2789 2789 2789 2789 2789 2767 2767 2767 2767 2767 2767 2767 2767 2767 2767 2767 2744 2744 2744 2744 2744 2744 2744 2744 2744 0 0 0 0 0 0 0 0 0 0
0 0 0 0 0 0 0 0 0 0 0 0 0 0 0 0 0 0 0 0 0 0 0 0 0 0 0 0 0 0 0 0 0 2541 2541 2541 2541 2560 2560 2560 2560 2560 2560 2560 2560 2560 2560 2579 2579 2579 2598 2598 2598 2598 2598 2598 2598 2598 2598 2618 2618 2618 2618 2618 2618 2618 2598 2598 2579 2579 2579 2598 2579 2579 2598 2598 2598 2598 2598 2598 2598 2598 2598 2598 2598 2598 2598 2598 2598 2598 2598 2598 2618 2618 2618 2618 2618 2618 2618 2618 2618 2618 2618 2618 2618 2618 2618 2618 2618 2618 2618 2639 2639 2639 2639 2639 2639 2659 2659 2659 2659 2659 2680 2659 2659 2659 2659 2659 2659 2659 2639 2639 2659 2659 2659 2659 2639 2639 2639 0 1663 1663 1663 1663 1663 1655 1655 1655 1647 1647 1647 1572 1564 1564 1564 1564 1564 1564 1564 1572 1572 1579 1586 1586 1594 1594 1601 1647 1663 1671 1671 1671 1671 1671 1671 1671 1671 1671 1671 1671 1671 1671 1671 1671 1671 1671 1671 1671 1671 1671 1671 1671 1671 1671 1671 1671 1680 1680 1680 1680 1680 1680 1680 1680 1680 1680 1680 1680 1680 1680 1680 1680 1680 1680 1680 1680 1680 1680 1680 1680 1680 1688 1688 1688 1688 1688 1688 1680 1680 1680 1680 1680 1680 1680 1680 1680 1680 1688 1483 1477 1477 1477 1477 1477 1477 1470 1470 1470 1470 1470 1470 1477 1477 1483 1483 1483 1483 1671 1671 1671 1671 1671 1671 1671 1671 1680 1680 1688 1680 1680 1680 1680 1680 1680 1680 1680 1680 1680 1680 1680 1680 1680 1688 1688 1688 1696 1696 1696 1705 1705 1705 1349 1349 1343 1343 1343 1343 1338 1338 1338 1338 1338 1333 1333 1338 1338 1338 1338 1343 1343 1343 1343 1338 1333 1333 1333 1333 1333 1333 1328 1328 1328 1328 1328 1322 1322 1322 1322 1322 1317 1317 1317 1312 1312 1307 1307 1307 1307 1307 1302 1302 1302 1302 1302 1297 1297 1297 1297 1297 1292 1292 1292 1292 1292 1288 1288 1288 1288 1288 1288 1288 1288 1288 1283 1283 1283 1283 1283 1278 1278 1278 1278 1278 1278 1278 1278 1273 1273 1273 1273 1268 1268 1268 1268 1268 1268 1273 1273 1268 1268 1273 1268 1268 1268 1268 1268 1268 1268 1268 1268 1268 1268 1268 1268 1268 1264 1264 1264 1259 1255 1250 1245 1241 1236 1236 1232 1232 1232 1227 1227 1227 1223 1223 1223 1223 1223 1223 1223 1227 1663 1680 1680 1680 1680 1680 1680 1757 1757 1757 1757 1757 1766 1766 1766 1766 1757 1757 1757 1757 1757 1748 1748 1748 1748 1748 1748 1748 1748 1748 1748 1748 1748 1739 1739 1731 1731 1722 1722 1722 1722 1722 1722 1722 1722 1722 1722 1722 1722 1713 1713 1713 1713 1713 1713 1713 1713 1713 1713 1713 1713 1705 1705 1705 1713 1713 1713 1713 1713 1713 2744 2744 2744 2744 1993 1993 1993 1993 1981 1981 1981 1981 1981 1970 1970 1970 1970 1292 1292 1292 1292 1292 1292 1292 1292 1292 1292 1292 1292 1292 1292 1292 1292 1292 1292 1292 1292 1292 1292 1288 1288 1288 1288 1288 1288 1288 1288 1288 1288 1288 1288 1288 1292 1292 1292 1292 1292 0 2723 2723 2723 2744 2767 2767 2812 2812 2812 2812 2812 2789 2789 2789 2789 2789 2789 2789 2789 2789 2789 2789 2789 2789 2789 2789 2767 2767 2789 2789 2789 2789 2789 2789 2789 2789 2767 2767 2767 2767 2767 2767 2789 2789 2789 2789 2789 2789 2767 2767 2767 2767 2767 2767 2767 2767 2767 2767 2767 2767 2744 2744 2744 2744 2744 2744 2744 2744 2744 2744 2744 2744 2744 0 0 0 0 0 0 0 0 0 0
0 0 0 0 0 0 0 0 0 0 0 0 0 0 0 0 0 0 0 0 0 0 0 0 0 0 0 0 0 0 0 0 0 2541 2541 2541 2541 2541 2541 2541 2560 2560 2560 2560 2560 2560 2560 2579 2579 2579 2598 2598 2579 2579 2579 2579 2579 2598 2598 2598 2598 2598 2598 2598 2598 2598 2598 2598 2579 2579 2579 2579 2579 2579 2579 2579 2579 2579 2560 2560 2560 2579 2579 2579 2579 2598 2598 2598 2598 2598 2598 2598 2598 2618 2618 2618 2598 2598 2598 2618 2598 2598 2598 2598 2618 2618 2598 2598 2618 2618 2618 2618 2618 2618 2618 2639 2639 2639 2639 2639 2639 2659 2659 2659 2659 2639 2639 2618 2618 2639 2639 2639 2639 2639 2639 2639 2618 2618 2618 0 1663 1663 1663 1663 1663 1655 1655 1655 1647 1632 1632 1572 1564 1564 1564 1564 1564 1564 1564 1572 1579 1579 1586 1586 1594 1594 1601 1639 1655 1663 1663 1663 1663 1663 1663 1663 1663 1663 1663 1663 1663 1655 1655 1663 1663 1663 1663 1663 1663 1663 1663 1671 1671 1663 1663 1671 1671 1671 1671 1671 1671 1671 1671 1671 1671 1671 1671 1671 1671 1671 1671 1680 1671 1671 1671 1671 1671 1671 1671 1671 1680 1680 1680 1680 1680 1680 1680 1671 1671 1671 1671 1671 1671 1671 1671 1671 1680 1680 1680 1477 1477 1477 1477 1477 1477 1470 1470 1470 1470 1470 1470 1477 1477 1483 1483 1483 1483 1671 1671 1671 1671 1671 1671 1671 1671 1671 1671 1671 1671 1671 1671 1671 1671 1671 1671 1671 1671 1671 1671 1671 1671 1680 1680 1688 1688 1696 1696 1696 1705 1705 1705 1349 1349 1343 1343 1343 1343 1343 1343 1343 1343 1338 1338 1338 1338 1338 1343 1343 1343 1343 1343 1343 1343 1338 1333 1333 1333 1333 1333 1333 1333 1328 1328 1328 1328 1328 1328 1328 1322 1322 1322 1322 1312 1312 1312 1307 1307 1307 1307 1307 1307 1302 1302 1302 1302 1302 1302 1297 1297 1297 1297 1292 1292 1292 1292 1292 1288 1288 1288 1288 1288 1288 1288 1288 1283 1283 1283 1283 1283 1283 1278 1278 1278 1278 1278 1278 1273 1273 1273 1273 1273 1268 1268 1268 1273 1273 1273 1268 1268 1268 1268 1268 1268 1268 1268 1268 1268 1268 1268 1268 1268 1268 1268 1268 1268 1264 1264 1264 1259 1255 1250 1245 1241 1236 1236 1236 1232 1232 1227 1227 1227 1223 1223 1223 1227 1227 1223 1223 1227 1663 1671 1671 1671 1671 1671 1671 1680 1757 1757 1757 1757 1766 1766 1766 1766 1766 1757 1757 1757 1748 1748 1748 1748 1748 1748 1748 1748 1748 1748 1748 1748 1748 1748 1739 1731 1731 1731 1731 1722 1722 1722 1722 1722 1722 1722 1722 1722 1722 1713 1713 1713 1713 1713 1713 1713 1713 1713 1713 1713 1713 1705 1705 1705 1705 1705 1705 1713 1713 1713 2744 2744 2744 1993 1993 1993 1993 1981 1981 1981 1981 1981 1981 1970 1970 1970 1970 1297 1297 1292 1292 1297 1292 1292 1292 1292 1292 1292 1292 1292 1292 1292 1292 1292 1292 1292 1292 1292 1292 1288 1288 1288 1288 1288 1288 1288 1288 1288 1288 1288 1288 1288 1292 1292 1292 1292 0 0 2701 2701 2701 2744 2767 2767 2789 2789 2789 2789 2789 2789 2789 2789 2767 2767 2767 2767 2767 2767 2767 2767 2767 2789 2789 2789 2767 2767 2767 2789 2789 2767 2767 2789 2789 2767 2767 2767 2767 2767 2767 2767 2767 2789 2789 2767 2767 2767 2744 2744 2744 2744 2744 2744 2744 2744 2744 2744 2744 2744 2744 2744 2744 2744 2744 2744 2744 2744 2744 2744 2744 2723 2723 0 0 0 0 0 0 0 0 0 0
0 0 0 0 0 0 0 0 0 0 0 0 0 0 0 0 0 0 0 0 0 0 0 0 0 0 0 0 0 0 0 0 0 2541 2541 2541 2541 2541 2541 2541 2541 2541 2541 2541 2541 2541 2560 2560 2560 2560 2560 2579 2579 2579 2579 2579 2579 2579 2579 2579 2579 2598 2598 2598 2598 2598 2598 2579 2579 2560 2560 2579 2560 2560 2560 2560 2560 2560 2560 2560 2560 2560 2560 2560 2579 2579 2579 2579 2579 2579 2598 2598 2598 2598 2598 2598 2598 2598 2598 2598 2598 2579 2579 2598 2598 2598 2598 2598 2598 2598 2598 2598 2618 2618 2618 2618 2618 2618 2618 2618 2618 2618 2639 2618 2618 2598 2598 2598 2598 2618 2618 2618 2618 2618 2618 2618 2598 2598 2598 0 1671 1671 1671 1671 1663 1655 1655 1655 1647 1632 1632 1594 1572 1572 1564 1564 1564 1572 1572 1572 1579 1579 1586 1586 1594 1594 1609 1624 1639 1647 1655 1655 1655 1655 1655 1655 1655 1655 1655 1655 1655 1655 1647 1647 1655 1655 1663 1655 1655 1655 1655 1655 1655 1655 1655 1655 1663 1663 1663 1663 1663 1671 1663 1663 1663 1663 1663 1663 1663 1671 1671 1671 1671 1663 1663 1663 1663 1663 1671 1671 1671 1671 1671 1671 1671 1663 1663 1671 1671 1671 1671 1671 1671 1671 1671 1671 1671 1671 1671 1483 1483 1477 1477 1477 1477 1470 1470 1470 1470 1470 1477 1477 1483 1483 1483 1477 1477 1663 1663 1663 1663 1663 1663 1663 1663 1663 1663 1671 1663 1663 1663 1671 1663 1663 1671 1663 1663 1671 1671 1671 1671 1671 1680 1680 1688 1696 1696 1705 1705 1713 1713 1349 1349 1349 1349 1349 1343 1343 1343 1343 1343 1343 1338 1338 1343 1343 1343 1343 1343 1349 1349 1343 1343 1338 1333 1333 1333 1333 1333 1333 1333 1333 1333 1328 1328 1328 1328 1328 1322 1322 1322 1322 1312 1312 1312 1307 1307 1312 1307 1307 1307 1307 1302 1302 1302 1302 1302 1302 1302 1297 1297 1297 1297 1297 1292 1292 1292 1288 1288 1288 1288 1288 1288 1288 1288 1288 1283 1283 1283 1283 1283 1283 1283 1283 1278 1278 1273 1273 1273 1273 1273 1268 1268 1268 1273 1273 1273 1268 1268 1268 1268 1268 1268 1268 1268 1268 1268 1268 1264 1264 1268 1268 1268 1264 1264 1264 1264 1264 1259 1255 1250 1245 1245 1241 1241 1236 1236 1232 1227 1227 1227 1227 1227 1227 1227 1227 1227 1227 1227 1663 1663 1663 1663 1663 1663 1663 1663 1671 1663 1663 1647 1647 1655 1776 1776 1766 1766 1757 1757 1748 1748 1748 1748 1748 1748 1748 1748 1748 1748 1748 1748 1748 1748 1739 1731 1731 1731 1731 1731 1731 1731 1731 1731 1722 1722 1722 1722 1722 1722 1713 1713 1713 1713 1713 1713 1713 1713 1713 1713 1713 1705 1705 1705 1705 1705 1705 1705 1705 1705 2723 2744 2744 1993 1993 1993 1993 1981 1981 1981 1981 1981 1981 1981 1981 1981 1981 1297 1297 1297 1297 1297 1292 1292 1292 1292 1292 1292 1292 1292 1292 1292 1292 1292 1292 1292 1292 1292 1292 1288 1288 1288 1288 1288 1288 1288 1288 1288 1292 1292 1288 1288 1292 1292 1292 1292 0 0 2701 2701 2701 2744 2744 2767 2789 2789 2789 2789 2789 2789 2789 2767 2767 2767 2767 2767 2767 2767 2767 2767 2767 2767 2767 2767 2744 2744 2767 2767 2767 2767 2767 2767 2767 2767 2744 2744 2744 2767 2744 2744 2744 2744 2744 2744 2744 2744 2744 2744 2744 2744 2744 2744 2744 2744 2744 2744 2744 2723 2723 2723 2723 2723 2723 2723 2723 2723 2723 2744 2723 2723 2723 0 0 0 0 0 0 0 0 0 0
0 0 0 0 0 0 0 0 0 0 0 0 0 0 0 0 0 0 0 0 0 0 0 0 0 0 0 0 0 0 0 0 0 2522 2522 2522 2522 2522 2522 2541 2541 2541 2541 2541 2541 2541 2541 2560 2560 2560 2560 2560 2560 2560 2560 2560 2560 2560 2560 2579 2579 2579 2579 2579 2579 2579 2579 2579 2579 2541 2541 2560 2560 2560 2560 2560 2560 2560 2541 2541 2541 2560 2560 2560 2560 2560 2560 2579 2579 2579 2598 2598 2598 2598 2598 2598 2598 2579 2579 2579 2560 2560 2579 2579 2579 2579 2579 2598 2598 2598 2598 2598 2598 2598 2618 2618 2618 2618 2618 2618 2618 2618 2618 2618 2618 2598 2598 2598 2598 2598 2598 2618 2618 2618 2618 2618 2598 2598 2598 0 1671 1671 1671 1671 1663 1663 1663 1655 1647 1639 1639 1586 1572 1572 1572 1572 1572 1572 1572 1572 1579 1579 1586 1586 1594 1601 1609 1609 1624 1632 1647 1647 1647 1655 1655 1655 1655 1647 1647 1647 1647 1647 1647 1647 1647 1647 1655 1647 1647 1647 1655 1655 1655 1655 1655 1655 1655 1655 1655 1663 1663 1663 1663 1663 1655 1655 1663 1663 1663 1663 1663 1663 1655 1655 1655 1655 1655 1655 1663 1663 1663 1663 1663 1663 1663 1655 1655 1663 1663 1663 1663 1663 1663 1663 1663 1663 1663 1663 1663 1483 1483 1477 1477 1477 1477 1470 1470 1470 1470 1477 1477 1477 1483 1489 1483 1477 1477 1663 1663 1663 1663 1663 1663 1663 1663 1663 1663 1663 1663 1663 1663 1663 1663 1663 1663 1663 1663 1663 1663 1663 1671 1671 1671 1680 1688 1696 1696 1705 1705 1722 1731 1731 1354 1349 1349 1349 1349 1349 1343 1343 1343 1343 1343 1343 1343 1343 1349 1349 1349 1349 1349 1349 1343 1338 1338 1338 1333 1333 1333 1333 1333 1333 1333 1328 1328 1328 1328 1328 1322 1322 1322 1322 1312 1312 1312 1307 1307 1312 1307 1307 1307 1307 1307 1307 1302 1302 1302 1302 1302 1302 1297 1297 1297 1297 1297 1292 1292 1292 1292 1288 1288 1288 1288 1288 1288 1288 1288 1283 1283 1283 1283 1283 1283 1283 1278 1278 1278 1273 1273 1273 1273 1273 1273 1273 1273 1273 1273 1273 1273 1273 1268 1268 1268 1268 1268 1268 1268 1268 1264 1264 1268 1268 1268 1264 1264 1264 1264 1264 1259 1255 1255 1250 1245 1241 1241 1236 1236 1236 1232 1227 1227 1227 1227 1227 1227 1227 1227 1227 1227 1655 1655 1655 1655 1655 1655 1663 1663 1663 1663 1663 1647 1647 1655 1655 1655 1655 1655 1655 1655 1663 1663 1688 1748 1748 1748 1748 1748 1748 1748 1748 1748 1748 1748 1748 1739 1739 1739 1731 1731 1731 1731 1731 1731 1731 1722 1722 1722 1722 1722 1713 1713 1713 1713 1713 1713 1713 1713 1713 1713 1713 1705 1705 1705 1705 1705 1696 1696 1705 1705 2723 2744 2744 1993 1993 1993 1981 1981 1981 1981 1981 1981 1981 1981 1981 1981 1981 1302 1297 1297 1297 1297 1292 1292 1292 1292 1292 1292 1292 1292 1292 1292 1292 1292 1292 1292 1292 1292 1292 1292 1288 1288 1292 1292 1288 1288 1292 1292 1292 1292 1292 1292 1292 1292 1292 1292 2680 2680 2701 2701 2701 2723 2744 2744 2767 2767 2767 2767 2767 2767 2767 2767 2767 2767 2767 2767 2767 2767 2744 2744 2744 2744 2767 2767 2744 2744 2744 2744 2744 2744 2744 2744 2744 2744 2744 2744 2744 2744 2744 2744 2744 2744 2744 2723 2723 2723 2723 2723 2723 2723 2723 2723 2723 2723 2723 2723 2723 2723 2723 2723 2723 2723 2701 2701 2701 2701 2701 2723 2723 2723 2723 0 0 0 0 0 0 0 0 0 0
0 0 0 0 0 0 0 0 0 0 0 0 0 0 0 0 0 0 0 0 0 0 0 0 0 0 0 0 0 0 0 0 0 2522 2522 2522 2522 2522 2522 2522 2541 2541 2541 2541 2541 2541 2541 2541 2541 2541 2541 2541 2541 2560 2560 2560 2560 2560 2560 2560 2560 2560 2579 2579 2579 2579 2579 2579 2560 2541 2541 2560 2560 2560 2541 2541 2541 2541 2541 2541 2541 2541 2541 2541 2541 2541 2541 2560 2560 2560 2579 2579 2579 2579 2579 2579 2579 2579 2579 2560 2560 2560 2560 2560 2579 2579 2579 2579 2598 2598 2598 2598 2598 2598 2598 2598 2598 2598 2618 2618 2618 2618 2618 2618 2618 2598 2598 2598 2598 2598 2598 2598 2598 2598 2618 2618 2598 2598 0 1680 1671 1671 1671 1663 1663 1663 1663 1655 1647 1639 1639 1586 1579 1572 1572 1572 1572 1572 1572 1572 1579 1579 1586 1586 1594 1601 1609 1609 1616 1624 1632 1632 1632 1632 1632 1639 1639 1639 1639 1639 1639 1639 1639 1639 1639 1639 1639 1639 1639 1639 1639 1639 1639 1639 1639 1639 1647 1647 1647 1647 1647 1655 1655 1655 1655 1655 1655 1655 1655 1655 1655 1655 1655 1647 1647 1647 1647 1647 1647 1647 1647 1647 1655 1655 1655 1655 1655 1655 1655 1655 1663 1655 1655 1655 1655 1655 1655 1655 1655 1483 1483 1477 1477 1477 1477 1470 1470 1470 1477 1477 1477 1483 1483 1489 1489 1483 1483 1489 1655 1655 1655 1655 1655 1655 1655 1655 1655 1655 1655 1655 1655 1655 1655 1655 1655 1655 1655 1655 1663 1663 1663 1671 1671 1680 1688 1696 1696 1705 1713 1731 1731 1731 1349 1349 1349 1349 1349 1349 1343 1343 1343 1343 1343 1343 1343 1343 1349 1349 1349 1349 1349 1349 1343 1338 1338 1338 1338 1333 1333 1333 1333 1333 1333 1328 1328 1328 1328 1328 1328 1328 1322 1322 1317 1312 1312 1312 1312 1312 1307 1307 1307 1307 1307 1307 1302 1302 1302 1302 1302 1302 1302 1302 1302 1297 1297 1292 1292 1292 1292 1292 1292 1292 1292 1288 1288 1288 1288 1283 1283 1283 1283 1283 1283 1283 1283 1278 1278 1278 1278 1278 1278 1273 1273 1273 1273 1273 1273 1273 1273 1273 1268 1268 1268 1268 1268 1268 1268 1268 1264 1264 1268 1268 1264 1264 1264 1264 1264 1264 1259 1255 1255 1250 1245 1241 1241 1241 1236 1236 1232 1232 1232 1227 1227 1227 1227 1232 1232 1232 1236 1236 1647 1647 1655 1655 1655 1655 1663 1663 1663 1655 1655 1655 1647 1647 1647 1647 1647 1655 1655 1655 1655 1663 1680 1748 1748 1748 1748 1757 1757 1757 1748 1748 1748 1748 1739 1739 1739 1739 1739 1739 1739 1739 1739 1731 1731 1722 1722 1722 1722 1722 1713 1713 1713 1713 1713 1713 1713 1713 1713 1713 1705 1705 1705 1705 1705 1696 1696 1705 1705 2723 2723 2723 1993 1993 1981 1981 1981 1981 1981 1981 1981 1981 1981 1981 1981 1302 1302 1302 1297 1297 1297 1297 1292 1292 1292 1292 1292 1292 1292 1292 1292 1292 1292 1292 1292 1292 1292 1292 1292 1292 1292 1292 1292 1292 1292 1292 1292 1292 1292 1292 1292 1292 1292 1292 1292 2680 2680 2680 2680 2680 2701 2701 2723 2723 2744 2744 2744 2744 2744 2744 2744 2744 2744 2744 2744 2744 2744 2744 2744 2744 2744 2744 2744 2723 2723 2744 2723 2723 2723 2723 2723 2723 2723 2723 2723 2723 2744 2723 2723 2723 2723 2723 2701 2701 2701 2701 2701 2701 2701 2701 2701 2701 2701 2723 2723 2701 2701 2701 2701 2701 2701 2680 2680 2701 2701 2701 2701 2701 2701 2723 0 0 0 0 0 0 0 0 0 0
0 0 0 0 0 0 0 0 0 0 0 0 0 0 0 0 0 0 0 0 0 0 0 0 0 0 0 0 0 0 0 0 0 2503 2503 2503 2522 2522 2522 2522 2522 2541 2541 2541 2541 2541 2541 2541 2541 2541 2541 2541 2541 2541 2541 2560 2560 2560 2560 2560 2560 2560 2541 2541 2541 2541 2560 2560 2560 2541 2541 2541 2541 2541 2541 2541 2541 2541 2541 2541 2541 2541 2522 2522 2541 2541 2541 2541 2560 2560 2560 2560 2579 2579 2579 2560 2560 2560 2560 2541 2541 2541 2560 2560 2560 2560 2560 2579 2579 2579 2579 2598 2598 2598 2598 2598 2598 2598 2598 2598 2598 2598 2598 2598 2598 2598 2598 2598 2598 2598 2598 2598 2598 2598 2598 2598 2598 2598 0 1680 1680 1671 1671 1663 1663 1663 1663 1655 1655 1647 1647 1594 1586 1579 1579 1579 1579 1579 1572 1572 1579 1579 1586 1594 1594 1601 1601 1609 1609 1616 1624 1624 1624 1624 1624 1632 1632 1632 1632 1632 1632 1639 1639 1639 1632 1632 1632 1632 1632 1632 1632 1632 1632 1639 1639 1639 1639 1639 1639 1639 1639 1639 1639 1639 1639 1639 1647 1647 1647 1647 1647 1647 1647 1647 1639 1639 1639 1639 1639 1639 1639 1639 1639 1639 1639 1639 1639 1647 1647 1647 1655 1647 1647 1655 1647 1647 1647 1647 1647 1483 1483 1483 1483 1483 1483 1477 1477 1477 1477 1477 1483 1483 1489 1489 1489 1489 1489 1489 1655 1655 1647 1647 1647 1647 1647 1647 1647 1647 1647 1647 1647 1647 1655 1655 1647 1647 1655 1655 1655 1655 1663 1671 1671 1680 1688 1696 1705 1705 1713 1731 1731 1731 1349 1349 1349 1349 1349 1349 1349 1349 1343 1343 1343 1343 1349 1349 1349 1349 1349 1354 1354 1349 1349 1338 1338 1338 1338 1338 1338 1333 1333 1333 1333 1328 1328 1328 1328 1328 1328 1328 1328 1322 1317 1317 1317 1312 1312 1312 1312 1307 1307 1307 1307 1307 1307 1302 1302 1302 1302 1302 1302 1302 1302 1297 1297 1297 1297 1292 1292 1292 1292 1292 1292 1292 1288 1288 1288 1288 1283 1283 1283 1283 1283 1283 1283 1283 1283 1278 1278 1278 1278 1278 1278 1273 1273 1273 1273 1273 1273 1273 1273 1273 1268 1268 1268 1268 1268 1268 1264 1264 1268 1268 1264 1264 1264 1264 1264 1264 1259 1259 1255 1250 1245 1245 1245 1241 1241 1236 1232 1232 1232 1232 1227 1227 1232 1232 1232 1232 1236 1236 1647 1647 1647 1647 1647 1655 1655 1655 1655 1655 1655 1647 1647 1647 1647 1647 1647 1647 1655 1655 1655 1663 1663 1748 1748 1748 1757 1757 1757 1757 1757 1748 1748 1748 1739 1739 1739 1739 1739 1739 1739 1739 1739 1731 1731 1731 1722 1722 1722 1722 1722 1713 1713 1722 1713 1713 1713 1713 1713 1713 1713 1705 1705 1705 1705 1696 1696 1705 1705 2701 2701 2701 1993 1981 1981 1981 1981 1981 1981 1981 1981 1981 1981 1981 1981 1302 1302 1302 1297 1297 1297 1297 1292 1292 1292 1292 1292 1292 1292 1292 1292 1297 1292 1292 1292 1292 1292 1292 1292 1292 1292 1292 1292 1292 1292 1292 1292 1292 1292 1292 1292 1292 1292 1292 1292 2701 2680 2680 2680 2680 2701 2701 2701 2723 2723 2723 2723 2723 2744 2744 2744 2744 2744 2744 2744 2744 2723 2723 2723 2723 2723 2723 2723 2723 2723 2723 2723 2723 2723 2723 2723 2723 2723 2723 2723 2723 2723 2723 2723 2701 2680 2680 2680 2680 2680 2659 2659 2680 2680 2680 2680 2680 2680 2701 2701 2701 2701 2701 2701 2701 2701 2680 2680 2680 2680 2680 2680 2680 2701 2701 0 0 0 0 0 0 0 0 0 0
0 0 0 0 0 0 0 0 0 0 0 0 0 0 0 0 0 0 0 0 0 0 0 0 0 0 0 0 0 0 0 0 0 2503 2503 2503 2503 2503 2503 2522 2522 2541 2541 2541 2541 2541 2541 2522 2522 2522 2522 2522 2541 2541 2541 2541 2541 2560 2541 2541 2541 2541 2541 2541 2541 2541 2541 2541 2541 2522 2522 2541 2541 2541 2541 2541 2541 2541 2522 2522 2522 2522 2522 2522 2522 2541 2541 2541 2541 2541 2560 2560 2560 2560 2560 2541 2541 2541 2541 2541 2541 2541 2541 2541 2541 2541 2541 2560 2560 2560 2579 2579 2579 2579 2598 2598 2598 2598 2598 2579 2579 2579 2579 2579 2579 2579 2579 2579 2598 2598 2598 2598 2598 2598 2598 2598 2598 2598 0 1680 1680 1680 1671 1663 1663 1663 1663 1663 1655 1655 1655 1594 1586 1579 1579 1579 1579 1579 1579 1579 1579 1586 1586 1594 1594 1601 1601 1609 1609 1616 1616 1624 1624 1624 1624 1624 1624 1624 1624 1624 1624 1632 1632 1632 1632 1632 1624 1624 1624 1624 1624 1624 1624 1632 1632 1632 1632 1632 1632 1632 1632 1632 1632 1639 1639 1639 1639 1639 1639 1639 1639 1639 1639 1639 1639 1632 1632 1632 1632 1632 1632 1632 1639 1639 1639 1639 1639 1639 1639 1639 1639 1639 1639 1639 1639 1639 1639 1639 1647 1647 1483 1483 1483 1483 1483 1477 1477 1477 1477 1477 1483 1483 1489 1489 1489 1489 1489 1489 1639 1639 1639 1639 1639 1639 1639 1639 1639 1639 1639 1639 1639 1639 1639 1647 1647 1647 1647 1647 1647 1647 1663 1671 1671 1680 1688 1696 1705 1713 1722 1731 1731 1739 1739 1349 1349 1349 1349 1349 1349 1349 1349 1349 1349 1349 1349 1349 1349 1354 1354 1354 1354 1354 1349 1343 1338 1338 1338 1338 1338 1338 1338 1333 1333 1328 1328 1328 1328 1328 1328 1328 1328 1328 1317 1317 1317 1312 1312 1312 1312 1312 1312 1307 1307 1307 1307 1307 1307 1302 1302 1302 1302 1302 1302 1302 1297 1297 1297 1292 1292 1292 1292 1292 1292 1292 1288 1288 1288 1288 1288 1283 1283 1283 1283 1283 1283 1283 1283 1283 1283 1278 1278 1278 1278 1278 1278 1278 1278 1273 1273 1273 1273 1273 1273 1268 1268 1268 1268 1268 1268 1268 1268 1268 1264 1264 1264 1264 1264 1264 1259 1259 1259 1250 1250 1245 1245 1241 1241 1241 1236 1232 1232 1232 1232 1232 1232 1232 1232 1232 1236 1236 1639 1639 1639 1639 1647 1647 1647 1647 1655 1647 1647 1647 1647 1647 1647 1647 1647 1647 1647 1647 1647 1655 1655 1655 1748 1748 1757 1757 1757 1757 1757 1748 1748 1748 1748 1748 1748 1739 1739 1739 1739 1739 1739 1731 1731 1731 1731 1722 1722 1722 1722 1722 1722 1722 1722 1722 1722 1713 1713 1713 1713 1705 1705 1705 1705 1696 1696 2680 2680 2680 2680 2680 2680 1981 1981 1981 1981 1981 1981 1981 1981 1981 1981 1981 1981 1302 1302 1302 1297 1297 1297 1297 1292 1292 1292 1292 1292 1292 1297 1297 1297 1297 1297 1292 1292 1292 1292 1292 1292 1292 1292 1297 1297 1297 1297 1292 1292 1292 1292 1292 1292 1292 1292 1292 1292 2680 2680 2680 2659 2659 2680 2680 2701 2701 2701 2701 2701 2723 2723 2723 2723 2723 2723 2744 2723 2723 2701 2701 2701 2701 2701 2701 2723 2701 2701 2701 2701 2701 2701 2701 2701 2701 2701 2701 2701 2701 2701 2680 2680 2659 2659 2659 2659 2659 2659 2659 2659 2659 2659 2659 2659 2659 2659 2680 2680 2701 2680 2680 2680 2680 2680 2680 2680 2680 2680 2680 2659 2659 2659 2680 0 0 0 0 0 0 0 0 0 0
0 0 0 0 0 0 0 0 0 0 0 0 0 0 0 0 0 0 0 0 0 0 0 0 0 0 0 0 0 0 0 0 0 2503 2503 2503 2503 2503 2503 2503 2522 2522 2522 2522 2522 2522 2522 2503 2503 2503 2503 2503 2522 2541 2541 2541 2541 2541 2541 2541 2522 2522 2522 2522 2503 2503 2522 2522 2522 2522 2522 2522 2522 2522 2522 2522 2522 2522 2522 2522 2522 2522 2503 2503 2522 2522 2522 2522 2541 2541 2541 2541 2541 2541 2541 2541 2541 2541 2541 2522 2522 2522 2541 2541 2541 2541 2541 2541 2560 2560 2560 2560 2579 2579 2579 2579 2579 2598 2579 2579 2560 2560 2560 2560 2560 2560 2579 2579 2579 2579 2579 2579 2579 2579 2579 2598 2579 2579 2579 1680 1680 1680 1671 1663 1663 1663 1663 1663 1655 1655 1655 1594 1594 1586 1586 1586 1586 1586 1579 1579 1579 1586 1586 1594 1594 1601 1601 1609 1609 1609 1609 1616 1616 1616 1616 1616 1616 1616 1616 1616 1624 1624 1624 1624 1624 1624 1624 1616 1616 1616 1616 1624 1624 1624 1624 1624 1624 1624 1624 1624 1624 1624 1624 1624 1624 1632 1639 1639 1639 1632 1632 1632 1632 1632 1632 1632 1632 1632 1632 1632 1632 1632 1632 1632 1632 1632 1632 1639 1639 1632 1632 1632 1632 1632 1632 1632 1632 1632 1639 1639 1483 1483 1483 1483 1483 1477 1477 1477 1477 1477 1483 1489 1489 1496 1496 1496 1496 1496 1632 1632 1632 1632 1632 1632 1632 1632 1632 1632 1632 1632 1632 1632 1632 1632 1632 1639 1639 1639 1639 1647 1647 1663 1671 1680 1696 1705 1713 1722 1731 1739 1739 1739 1739 1349 1349 1349 1349 1349 1349 1349 1349 1349 1349 1349 1349 1349 1354 1354 1354 1354 1354 1354 1354 1343 1343 1343 1343 1343 1343 1343 1343 1338 1338 1333 1333 1328 1328 1328 1328 1328 1328 1328 1317 1317 1317 1317 1317 1317 1312 1312 1312 1312 1307 1307 1307 1307 1307 1302 1302 1302 1302 1302 1302 1302 1302 1302 1297 1297 1297 1292 1292 1297 1297 1292 1292 1292 1288 1288 1288 1288 1283 1283 1283 1283 1283 1283 1283 1283 1283 1283 1283 1283 1283 1283 1278 1278 1278 1278 1278 1273 1273 1273 1273 1268 1268 1268 1268 1268 1268 1268 1268 1268 1264 1264 1264 1264 1264 1264 1264 1264 1259 1255 1250 1250 1245 1245 1241 1241 1236 1236 1236 1232 1232 1232 1232 1236 1236 1236 1241 1241 1639 1639 1639 1639 1639 1647 1647 1647 1647 1647 1647 1639 1639 1647 1639 1639 1639 1647 1647 1647 1647 1647 1647 1647 1647 1748 1748 1757 1757 1757 1757 1748 1748 1748 1748 1748 1748 1748 1748 1748 1748 1748 1739 1739 1739 1731 1731 1731 1722 1722 1722 1722 1722 1722 1722 1722 1722 1713 1713 1713 1713 1713 1705 1705 1705 1705 2680 2680 2680 2680 2680 2680 2680 1993 1981 1981 1981 1981 1981 1981 1981 1981 1981 1981 1981 1302 1302 1302 1297 1297 1297 1297 1292 1292 1292 1292 1297 1297 1297 1297 1297 1297 1297 1292 1292 1292 1292 1297 1297 1297 1297 1297 1297 1297 1297 1292 1292 1292 1292 1292 1292 1292 1292 1292 1292 2680 2680 2680 2639 2639 2680 2680 2680 2680 2680 2701 2701 2701 2701 2723 2723 2723 2723 2723 2701 2701 2701 2701 2701 2701 2680 2680 2701 2680 2680 2680 2680 2680 2680 2680 2680 2680 2680 2680 2680 2680 2680 2659 2659 2659 2659 2659 2659 2659 2659 2659 2659 2659 2659 2659 2659 2639 2639 2639 2639 2639 2659 2659 2659 2659 2659 2659 2659 2659 2659 2659 2659 2659 2659 2659 0 0 0 0 0 0 0 0 0 0
0 0 0 0 0 0 0 0 0 0 0 0 0 0 0 0 0 0 0 0 0 0 0 0 0 0 0 0 0 0 0 0 2485 2485 2485 2485 2485 2485 2485 2485 2503 2503 2503 2503 2503 2503 2503 2503 2503 2503 2485 2485 2503 2522 2522 2522 2541 2541 2522 2522 2522 2503 2503 2503 2503 2503 2503 2522 2522 2503 2503 2503 2522 2522 2522 2522 2522 2522 2522 2522 2522 2503 2503 2503 2503 2522 2522 2522 2522 2541 2541 2541 2541 2541 2522 2522 2541 2541 2522 2522 2522 2522 2541 2541 2522 2522 2522 2541 2541 2541 2560 2560 2560 2579 2579 2579 2579 2560 2560 2560 2541 2541 2541 2541 2541 2560 2560 2560 2579 2579 2579 2579 2579 2579 2579 2579 2579 2579 2579 2579 1671 1671 1671 1663 1663 1671 1671 1671 1663 1663 1663 1594 1594 1586 1586 1586 1586 1586 1579 1579 1579 1579 1586 1594 1594 1601 1601 1609 1609 1609 1609 1609 1609 1609 1609 1609 1609 1616 1616 1616 1616 1616 1616 1616 1616 1616 1616 1616 1616 1616 1616 1616 1616 1616 1616 1616 1616 1616 1616 1616 1616 1616 1624 1624 1624 1624 1632 1632 1632 1632 1632 1632 1632 1632 1624 1624 1624 1624 1624 1624 1624 1624 1632 1632 1632 1624 1624 1632 1632 1624 1624 1624 1624 1624 1624 1624 1624 1624 1632 1632 1632 1632 1489 1489 1489 1483 1483 1483 1477 1477 1483 1489 1489 1496 1496 1496 1503 1503 1624 1624 1624 1624 1624 1624 1624 1624 1624 1624 1624 1624 1624 1632 1632 1632 1632 1632 1639 1639 1639 1647 1647 1663 1671 1688 1696 1705 1713 1722 1731 1739 1739 1739 1739 1354 1354 1354 1349 1349 1349 1349 1349 1349 1349 1349 1349 1349 1354 1354 1354 1359 1359 1354 1354 1349 1343 1343 1349 1349 1349 1349 1349 1343 1338 1338 1338 1338 1328 1328 1328 1328 1328 1328 1322 1322 1317 1317 1317 1312 1312 1312 1312 1312 1312 1312 1307 1307 1307 1307 1307 1302 1302 1302 1302 1302 1302 1302 1302 1297 1297 1297 1297 1297 1297 1292 1292 1292 1292 1288 1288 1288 1288 1288 1283 1283 1283 1283 1283 1283 1283 1283 1283 1283 1283 1283 1283 1283 1283 1278 1278 1278 1278 1273 1273 1273 1273 1273 1268 1268 1268 1268 1268 1268 1268 1268 1268 1268 1264 1264 1264 1264 1259 1255 1255 1250 1245 1245 1245 1245 1236 1236 1236 1232 1232 1232 1232 1236 1236 1236 1241 1241 1632 1632 1632 1632 1632 1639 1639 1639 1639 1639 1639 1639 1639 1639 1632 1632 1632 1639 1639 1639 1639 1639 1639 1639 1639 1748 1748 1757 1757 1757 1757 1748 1748 1748 1748 1748 1748 1748 1748 1748 1748 1748 1739 1739 1739 1739 1739 1731 1731 1722 1722 1722 1722 1722 1722 1722 1722 1722 1722 1713 1713 1713 1705 1705 1705 1705 2680 2659 2659 2659 2659 2659 2659 1981 1981 1981 1981 1981 1981 1981 1981 1981 1981 1981 0 1297 1297 1297 1297 1297 1297 1297 1297 1297 1297 1297 1297 1297 1297 1297 1297 1297 1297 1297 1297 1297 1297 1297 1297 1297 1297 1297 1297 1297 1297 1297 1292 1292 1292 1292 1292 1292 1292 1292 1292 2680 2659 2659 2639 2639 2659 2659 2680 2680 2680 2680 2680 2680 2701 2701 2701 2701 2701 2701 2701 2701 2701 2701 2680 2680 2680 2680 2680 2659 2659 2659 2659 2659 2659 2659 2659 2659 2659 2659 2659 2659 2659 2659 2659 2659 2659 2659 2659 2659 2659 2659 2659 2639 2639 2639 2639 2639 2639 2618 2618 2639 2639 2639 2639 2639 2659 2639 2639 2639 2639 2639 2618 2618 2618 2618 0 0 0 0 0 0 0 0 0 0
0 0 0 0 0 0 0 0 0 0 0 0 0 0 0 0 0 0 0 0 0 0 0 0 0 0 0 0 0 0 0 0 2485 2467 2467 2485 2485 2485 2485 2485 2485 2503 2503 2503 2503 2503 2503 2485 2485 2485 2485 2485 2485 2503 2503 2503 2522 2522 2522 2503 2503 2485 2485 2485 2485 2485 2503 2503 2503 2503 2503 2503 2522 2522 2522 2522 2522 2522 2522 2503 2503 2503 2503 2503 2503 2503 2522 2522 2522 2522 2522 2522 2522 2522 2522 2522 2522 2522 2522 2522 2522 2522 2522 2522 2522 2522 2522 2541 2541 2541 2541 2541 2541 2560 2560 2560 2560 2541 2541 2541 2541 2541 2541 2541 2541 2541 2541 2560 2560 2560 2560 2579 2579 2579 2579 2579 2579 2579 2579 0 1671 1671 1671 1663 1663 1671 1671 1671 1671 1671 1663 1647 1594 1586 1586 1586 1586 1586 1579 1579 1579 1579 1586 1586 1594 1594 1601 1601 1601 1601 1601 1609 1609 1609 1609 1609 1609 1609 1609 1609 1609 1616 1616 1616 1609 1609 1609 1609 1609 1609 1609 1609 1609 1609 1609 1609 1609 1609 1616 1616 1616 1616 1616 1616 1616 1616 1624 1624 1624 1624 1624 1624 1624 1624 1624 1624 1616 1616 1616 1616 1616 1616 1616 1616 1616 1616 1616 1616 1616 1616 1616 1616 1616 1616 1616 1616 1616 1616 1624 1624 1624 1632 1489 1489 1489 1483 1483 1483 1483 1483 1483 1489 1489 1496 1496 1503 1503 1503 1616 1616 1616 1616 1616 1616 1616 1616 1616 1616 1616 1616 1624 1624 1624 1632 1632 1632 1639 1639 1639 1647 1647 1671 1680 1696 1705 1713 1722 1731 1731 1739 1739 1748 1748 1354 1354 1354 1354 1349 1349 1349 1349 1349 1349 1349 1349 1354 1354 1354 1359 1359 1359 1359 1359 1359 1601 1601 1349 1349 1349 1349 1349 1609 1609 1338 1338 1338 1338 1333 1333 1328 1328 1328 1322 1322 1317 1317 1317 1312 1312 1312 1312 1312 1312 1312 1307 1307 1307 1307 1307 1302 1302 1302 1302 1302 1302 1302 1302 1302 1302 1297 1297 1297 1297 1297 1297 1292 1292 1292 1288 1288 1288 1288 1283 1283 1283 1283 1283 1283 1283 1283 1283 1283 1283 1283 1283 1283 1283 1283 1283 1278 1278 1278 1278 1273 1273 1273 1268 1268 1268 1268 1268 1268 1268 1268 1268 1268 1268 1268 1264 1264 1264 1259 1255 1250 1250 1245 1245 1245 1241 1236 1236 1236 1232 1232 1236 1241 1241 1241 1245 1245 1245 1624 1624 1624 1624 1632 1632 1632 1632 1632 1632 1624 1624 1624 1624 1624 1624 1624 1624 1632 1632 1632 1632 1632 1632 1748 1757 1757 1757 1757 1757 1757 1757 1748 1748 1748 1748 1748 1748 1748 1748 1748 1748 1739 1739 1739 1739 1739 1731 1731 1722 1722 1722 1722 1722 1722 1722 1722 1722 1713 1713 1713 1705 1705 1705 1705 2680 2659 2659 2659 2659 2659 2659 1981 1981 1981 1981 1981 1981 1981 1981 1981 1993 1993 0 1297 1297 1297 1297 1297 1297 1297 1297 1297 1297 1297 1297 1297 1297 1297 1297 1297 1297 1297 1297 1297 1297 1297 1297 1297 1297 1297 1297 1297 1297 1297 1292 1292 1292 1292 1292 1292 1283 1283 1283 2659 2659 2659 2639 2639 2659 2659 2659 2659 2659 2680 2680 2680 2680 2680 2701 2701 2701 2701 2680 2680 2680 2680 2680 2680 2680 2680 2680 2659 2659 2659 2659 2639 2639 2639 2639 2639 2659 2659 2659 2659 2659 2659 2639 2639 2639 2639 2639 2639 2639 2639 2639 2639 2639 2639 2639 2639 2639 2618 2618 2618 2639 2639 2639 2639 2639 2639 2639 2639 2639 2639 2618 2618 2618 2618 0 0 0 0 0 0 0 0 0 0
0 0 0 0 0 0 0 0 0 0 0 0 0 0 0 0 0 0 0 0 0 0 0 0 0 0 0 0 0 0 0 0 0 2467 2467 2467 2485 2485 2485 2485 2485 2485 2485 2485 2485 2485 2485 2485 2485 2485 2485 2485 2485 2485 2485 2503 2503 2503 2503 2503 2485 2485 2485 2485 2485 2485 2485 2503 2503 2485 2485 2503 2522 2522 2522 2522 2522 2522 2503 2485 2485 2485 2485 2485 2485 2503 2503 2522 2522 2522 2522 2522 2522 2522 2503 2503 2503 2503 2522 2503 2503 2503 2522 2522 2522 2522 2522 2522 2541 2541 2541 2541 2541 2541 2541 2541 2541 2541 2522 2522 2541 2541 2541 2541 2541 2541 2541 2541 2560 2560 2560 2560 2560 2560 2560 2579 2579 2579 2579 2560 1680 1680 1671 1671 1671 1671 1671 1671 1671 1671 1663 1655 1594 1586 1586 1586 1586 1586 1579 1579 1579 1579 1586 1586 1594 1594 1594 1601 1601 1594 1594 1601 1601 1601 1601 1601 1609 1609 1609 1609 1609 1609 1609 1609 1609 1609 1601 1601 1601 1601 1601 1609 1609 1609 1609 1609 1609 1609 1609 1609 1609 1609 1609 1609 1609 1616 1616 1616 1616 1616 1616 1616 1624 1624 1616 1616 1616 1616 1616 1616 1616 1616 1616 1616 1616 1616 1616 1616 1616 1616 1609 1609 1609 1609 1609 1609 1609 1616 1616 1616 1624 1496 1496 1496 1496 1489 1489 1483 1483 1483 1483 1489 1489 1496 1503 1503 1503 1509 1609 1609 1609 1609 1609 1609 1609 1609 1616 1609 1609 1609 1616 1616 1616 1624 1624 1632 1639 1639 1639 1647 1671 1680 1688 1696 1705 1713 1722 1731 1739 1739 1739 1748 1748 1359 1354 1354 1354 1354 1354 1349 1349 1349 1349 1354 1354 1354 1354 1359 1365 1370 1370 1370 1370 1594 1594 1594 1594 1601 1601 1609 1609 1609 1609 1609 1609 1609 1609 1609 1609 1333 1333 1333 1322 1322 1322 1317 1317 1317 1312 1312 1312 1312 1312 1307 1307 1307 1307 1302 1302 1302 1302 1302 1302 1302 1302 1302 1302 1302 1302 1297 1297 1297 1297 1297 1297 1297 1292 1292 1292 1288 1288 1288 1288 1288 1283 1283 1288 1288 1283 1283 1288 1283 1283 1283 1283 1283 1283 1283 1283 1283 1283 1278 1278 1278 1273 1273 1273 1273 1268 1268 1268 1268 1268 1268 1268 1268 1268 1268 1268 1264 1264 1264 1259 1255 1250 1250 1245 1245 1241 1241 1236 1236 1236 1236 1236 1241 1241 1241 1241 1241 1245 1616 1616 1616 1616 1624 1624 1624 1624 1624 1624 1624 1624 1624 1624 1624 1624 1624 1624 1624 1624 1624 1624 1624 1624 1624 1757 1757 1757 1757 1757 1757 1757 1748 1748 1748 1748 1748 1748 1748 1748 1748 1748 1739 1739 1739 1739 1739 1731 1731 1731 1722 1722 1722 1722 1722 1722 1722 1722 1722 1713 1713 1705 1705 1705 2659 2659 2659 2659 2659 2659 2659 2659 1981 1981 1981 1981 1993 1993 1993 1993 1993 1993 1993 0 1297 1297 1297 1297 1297 1297 1297 1297 1297 1297 1297 1297 1297 1297 1297 1297 1297 1297 1297 1297 1297 1297 1297 1297 1297 1297 1297 1297 1297 1297 1297 1292 1292 1292 1292 1292 1292 1283 1283 2659 2659 2639 2618 2618 2618 2618 2639 2639 2659 2659 2659 2659 2659 2680 2680 2680 2680 2680 2680 2680 2680 2680 2680 2680 2659 2659 2659 2680 2659 2659 2639 2639 2639 2639 2639 2639 2639 2639 2639 2639 2639 2639 2639 2639 2639 2639 2639 2639 2639 2639 2639 2639 2639 2639 2639 2639 2618 2618 2618 2618 2618 2618 2618 2618 2618 2639 2639 2639 2639 2639 2639 2618 2618 2618 2618 0 0 0 0 0 0 0 0 0 0
0 0 0 0 0 0 0 0 0 0 0 0 0 0 0 0 0 0 0 0 0 0 0 0 0 0 0 0 0 0 0 0 0 2467 2467 2467 2467 2467 2485 2485 2485 2485 2485 2485 2467 2467 2467 2485 2467 2467 2467 2467 2485 2485 2485 2485 2485 2503 2485 2485 2485 2485 2485 2485 2485 2485 2485 2485 2485 2467 2467 2485 2503 2503 2503 2503 2503 2503 2485 2485 2485 2485 2485 2485 2485 2503 2503 2503 2522 2522 2522 2503 2503 2503 2503 2485 2485 2485 2503 2503 2503 2503 2522 2522 2522 2522 2522 2522 2522 2522 2522 2522 2522 2522 2522 2522 2522 2522 2522 2522 2522 2522 2541 2541 2541 2541 2541 2541 2541 2541 2541 2560 2560 2560 2560 2560 2560 2560 2560 2560 2560 1680 1671 1671 1671 1671 1671 1671 1671 1671 1671 1655 1594 1586 1586 1586 1586 1586 1579 1579 1579 1579 1586 1586 1586 1594 1594 1594 1594 1594 1594 1594 1594 1594 1594 1601 1601 1601 1601 1601 1601 1601 1601 1601 1594 1594 1594 1594 1601 1601 1601 1601 1601 1601 1601 1601 1601 1601 1601 1601 1601 1601 1609 1609 1609 1609 1609 1609 1609 1616 1616 1616 1616 1616 1616 1616 1616 1616 1616 1609 1609 1609 1609 1609 1609 1609 1609 1609 1609 1609 1609 1609 1601 1601 1601 1609 1609 1609 1609 1616 1616 1496 1496 1496 1496 1489 1489 1489 1483 1483 1489 1489 1489 1496 1503 1503 1503 1509 1601 1601 1609 1609 1609 1609 1609 1609 1609 1609 1609 1609 1609 1609 1616 1624 1624 1632 1639 1639 1647 1663 1671 1688 1688 1696 1705 1722 1731 1731 1739 1739 1739 1739 1359 1359 1354 1354 1354 1354 1354 1354 1354 1354 1354 1354 1354 1354 1359 1359 1370 1370 1370 1370 1370 1594 1594 1594 1594 1601 1601 1601 1609 1609 1609 1609 1609 1609 1609 1609 1601 1601 1594 1594 1594 1594 1594 1594 1317 1317 1317 1317 1317 1317 1312 1307 1307 1307 1307 1302 1302 1302 1302 1302 1302 1302 1302 1302 1302 1302 1302 1302 1297 1297 1302 1297 1297 1297 1297 1297 1292 1292 1292 1292 1288 1288 1288 1288 1288 1288 1288 1288 1288 1288 1288 1288 1288 1283 1283 1283 1283 1283 1283 1283 1283 1278 1278 1278 1278 1273 1273 1273 1268 1268 1273 1268 1268 1268 1268 1268 1268 1264 1264 1264 1259 1255 1250 1250 1245 1245 1241 1241 1241 1241 1241 1241 1241 1241 1241 1241 1241 1241 1609 1609 1609 1616 1616 1616 1616 1616 1624 1624 1616 1616 1616 1616 1616 1616 1616 1616 1616 1616 1616 1616 1624 1624 1624 1624 1624 1624 1757 1757 1757 1757 1757 1748 1748 1748 1748 1748 1748 1748 1748 1748 1748 1748 1748 1748 1739 1739 1739 1739 1731 1722 1722 1722 1722 1722 1722 1722 1722 1722 1713 1713 1705 1705 2639 2639 2659 2639 2639 2659 2659 2659 1981 1981 1981 1981 1993 1993 1993 1993 1993 1993 1993 0 0 0 1297 1297 1297 1297 1297 1297 1297 1297 1297 1297 1297 1297 1302 1302 1302 1302 1302 1297 1297 1297 1297 1297 1297 1297 1297 1297 1297 1297 1297 1297 1292 1292 1292 1292 1292 1292 1292 1292 2659 2639 2639 2618 2598 2598 2618 2618 2618 2639 2639 2659 2659 2659 2659 2659 2680 2680 2680 2680 2659 2659 2659 2659 2659 2659 2659 2659 2659 2639 2639 2639 2639 2639 2639 2639 2618 2618 2618 2618 2618 2639 2639 2639 2639 2618 2618 2618 2618 2618 2618 2618 2639 2618 2618 2618 2618 2598 2598 2598 2598 2598 2598 2598 2598 2598 2618 2639 2639 2639 2639 2639 2618 2618 2598 2598 0 0 0 0 0 0 0 0 0 0
0 0 0 0 0 0 0 0 0 0 0 0 0 0 0 0 0 0 0 0 0 0 0 0 0 0 0 0 0 0 0 0 0 2467 2467 2467 2467 2467 2467 2467 2467 2467 2467 2467 2467 2467 2467 2467 2467 2467 2467 2467 2485 2485 2485 2485 2485 2485 2485 2485 2485 2485 2485 2485 2485 2485 2485 2485 2485 2467 2467 2467 2467 2467 2467 2485 2485 2485 2485 2467 2467 2485 2485 2485 2485 2503 2503 2503 2522 2503 2503 2503 2485 2485 2485 2485 2485 2485 2485 2485 2503 2503 2503 2503 2503 2503 2503 2503 2503 2503 2522 2522 2522 2522 2522 2522 2522 2522 2522 2522 2522 2522 2522 2522 2522 2541 2541 2541 2541 2541 2541 2541 2541 2541 2541 2541 2541 2541 2541 2541 2541 1671 1671 1671 1671 1671 1680 1680 1671 1671 1671 1655 1594 1594 1586 1586 1586 1586 1579 1579 1579 1579 1579 1586 1586 1586 1586 1586 1586 1586 1586 1586 1586 1586 1594 1594 1601 1601 1601 1601 1594 1594 1594 1594 1586 1586 1586 1594 1594 1594 1594 1594 1601 1594 1594 1594 1594 1594 1594 1594 1594 1594 1594 1601 1601 1609 1609 1609 1609 1609 1609 1609 1609 1609 1609 1609 1609 1609 1609 1609 1601 1601 1601 1601 1601 1594 1594 1594 1594 1601 1601 1601 1601 1601 1601 1601 1601 1609 1609 1616 1616 1496 1496 1496 1496 1489 1489 1489 1489 1489 1489 1489 1496 1496 1503 1503 1509 1516 1601 1601 1601 1601 1601 1601 1601 1601 1609 1609 1609 1609 1609 1609 1616 1624 1624 1632 1639 1647 1647 1671 1688 1696 1696 1705 1705 1713 1722 1731 1739 1739 1739 1739 1359 1359 1359 1354 1354 1354 1354 1354 1354 1354 1354 1354 1354 1354 1359 1359 1370 1370 1376 1376 1376 1594 1594 1594 1594 1601 1601 1601 1601 1601 1601 1601 1601 1601 1609 1601 1601 1601 1594 1594 1594 1594 1594 1594 1594 1594 1594 1601 1601 1601 1312 1307 1307 1307 1307 1302 1302 1302 1302 1302 1302 1302 1302 1302 1302 1302 1302 1302 1297 1297 1302 1297 1297 1297 1297 1297 1297 1292 1292 1292 1288 1288 1288 1288 1288 1288 1288 1288 1288 1288 1288 1288 1288 1283 1283 1288 1288 1283 1283 1283 1283 1283 1278 1278 1278 1278 1273 1273 1273 1273 1273 1273 1273 1273 1273 1268 1268 1268 1264 1264 1259 1255 1255 1250 1250 1245 1241 1241 1241 1241 1241 1241 1241 1241 1241 1241 1241 1241 1601 1601 1601 1609 1609 1609 1609 1609 1616 1616 1616 1616 1616 1616 1616 1616 1616 1616 1616 1616 1616 1616 1616 1616 1616 1616 1624 1624 1757 1757 1757 1757 1748 1748 1748 1748 1748 1748 1748 1748 1748 1748 1748 1748 1748 1748 1739 1739 1739 1739 1731 1731 1722 1722 1722 1722 1722 1722 1722 1722 1713 1713 1713 1713 2639 2639 2659 2639 2639 2659 2659 2659 1981 1981 1981 1993 1993 1993 1993 1993 1993 1993 1993 0 0 0 1302 1302 1302 1302 1297 1297 1302 1297 1297 1297 1302 1302 1302 1302 1302 1302 1302 1302 1302 1302 1297 1297 1297 1297 1297 1297 1297 1297 1297 1297 1297 1297 1292 1292 1297 1292 1292 1292 2659 2639 2618 2618 2598 2598 2618 2618 2618 2618 2618 2639 2639 2639 2639 2659 2659 2659 2659 2659 2659 2659 2659 2659 2659 2639 2639 2639 2639 2618 2618 2618 2618 2618 2618 2618 2618 2618 2618 2618 2618 2618 2639 2639 2618 2618 2618 2618 2618 2618 2618 2618 2618 2618 2618 2618 2618 2598 2598 2598 2598 2598 2598 2579 2579 2579 2598 2618 2618 2618 2618 2618 2598 2598 2598 2598 0 0 0 0 0 0 0 0 0 0
0 0 0 0 0 0 0 0 0 0 0 0 0 0 0 0 0 0 0 0 0 0 0 0 0 0 0 0 0 0 0 0 0 2450 2450 2467 2467 2467 2467 2467 2467 2467 2450 2450 2450 2450 2450 2467 2467 2467 2467 2467 2467 2467 2467 2467 2467 2485 2467 2467 2485 2485 2485 2485 2467 2467 2485 2485 2485 2467 2467 2467 2467 2467 2467 2467 2467 2467 2467 2467 2467 2467 2467 2485 2485 2485 2503 2503 2503 2485 2485 2485 2485 2485 2485 2485 2485 2485 2485 2485 2503 2503 2503 2503 2503 2503 2503 2503 2503 2503 2503 2503 2503 2503 2503 2522 2522 2522 2522 2522 2522 2522 2522 2522 2522 2522 2541 2541 2522 2522 2522 2522 2522 2522 2541 2541 2541 2541 2541 2541 2541 1671 1671 1671 1671 1680 1680 1680 1680 1680 1680 1680 1594 1594 1586 1586 1586 1586 1579 1579 1579 1579 1579 1586 1586 1586 1586 1586 1586 1586 1586 1586 1586 1586 1586 1586 1594 1594 1594 1594 1586 1586 1586 1586 1586 1586 1586 1586 1586 1586 1586 1586 1594 1594 1594 1594 1586 1586 1586 1586 1586 1586 1586 1594 1594 1601 1601 1601 1601 1601 1601 1601 1601 1601 1601 1601 1601 1601 1601 1601 1594 1594 1594 1594 1594 1594 1594 1594 1594 1594 1594 1594 1594 1594 1594 1601 1601 1601 1609 1609 1616 1496 1496 1496 1496 1489 1489 1489 1489 1489 1489 1489 1496 1496 1503 1503 1509 1516 1586 1594 1594 1594 1594 1594 1601 1601 1601 1601 1601 1601 1601 1609 1609 1616 1624 1632 1639 1647 1663 1680 1688 1696 1696 1705 1705 1713 1713 1731 1731 1739 1739 1739 1365 1359 1359 1359 1354 1354 1354 1354 1354 1354 1354 1354 1354 1354 1359 1365 1370 1370 1376 1376 1572 1579 1579 1586 1586 1594 1594 1594 1594 1601 1601 1601 1601 1601 1601 1601 1601 1601 1594 1594 1594 1594 1594 1594 1594 1586 1586 1586 1586 1586 1586 1594 1594 1594 1594 1594 1302 1302 1302 1307 1307 1302 1302 1302 1302 1302 1302 1302 1302 1302 1302 1302 1302 1302 1302 1302 1302 1297 1297 1297 1292 1292 1292 1292 1292 1292 1288 1288 1288 1288 1288 1288 1288 1288 1288 1288 1288 1288 1288 1283 1283 1283 1283 1283 1278 1278 1278 1273 1273 1273 1273 1273 1273 1273 1273 1273 1268 1268 1264 1264 1264 1259 1255 1250 1250 1250 1245 1245 1241 1241 1241 1241 1241 1241 1241 1241 1241 1241 1586 1586 1594 1594 1594 1594 1594 1594 1601 1601 1609 1609 1601 1601 1601 1601 1609 1609 1609 1609 1609 1609 1616 1616 1616 1616 1616 1616 1757 1757 1748 1748 1748 1748 1748 1748 1748 1739 1739 1739 1739 1739 1739 1739 1748 1748 1748 1739 1739 1739 1731 1731 1722 1722 1722 1722 1722 1722 1722 1722 1722 1713 1713 1713 2618 2618 2639 2639 2639 2659 2659 2659 1981 1981 1993 1993 1993 1993 1993 1993 1993 1993 1993 1993 0 1307 1307 1307 1307 1302 1302 1302 1302 1302 1302 1302 1302 1302 1302 1302 1302 1302 1302 1302 1302 1302 1297 1297 1297 1297 1297 1297 1297 1297 1297 1297 1297 1297 1297 1297 1297 1292 1292 1292 2639 2639 2618 2598 2598 2598 2598 2598 2598 2598 2598 2639 2639 2639 2639 2659 2659 2659 2659 2659 2639 2639 2639 2639 2639 2639 2639 2618 2618 2618 2598 2598 2618 2598 2598 2598 2598 2598 2598 2618 2618 2618 2618 2618 2618 2618 2598 2598 2598 2598 2598 2618 2618 2598 2598 2598 2598 2598 2598 2598 2579 2579 2579 2579 2579 2579 2598 2598 2598 2598 2598 2598 2579 2579 2579 2579 0 0 0 0 0 0 0 0 0 0
0 0 0 0 0 0 0 0 0 0 0 0 0 0 0 0 0 0 0 0 0 0 0 0 0 0 0 0 0 0 0 0 0 2432 2432 2450 2467 2467 2467 2467 2467 2450 2450 2450 2450 2450 2450 2450 2450 2467 2467 2467 2467 2467 2467 2467 2467 2467 2467 2467 2467 2467 2467 2467 2467 2467 2467 2467 2467 2450 2450 2450 2467 2467 2467 2467 2467 2467 2467 2467 2467 2467 2467 2467 2467 2467 2485 2485 2485 2485 2467 2467 2467 2467 2467 2467 2467 2467 2467 2467 2467 2467 2467 2485 2485 2467 2467 2467 2467 2467 2467 2485 2485 2503 2503 2503 2503 2503 2503 2522 2522 2522 2522 2522 2522 2522 2522 2522 2522 2522 2522 2522 2522 2522 2522 2522 2522 2522 2541 2541 2541 1680 1680 1671 1671 1680 1680 1680 1680 1680 1680 1594 1594 1594 1586 1586 1586 1586 1579 1579 1579 1579 1579 1586 1586 1586 1586 1586 1586 1586 1586 1586 1586 1586 1586 1586 1586 1586 1586 1586 1586 1586 1586 1579 1579 1579 1579 1586 1586 1586 1586 1586 1586 1586 1586 1586 1586 1586 1586 1586 1586 1586 1586 1586 1586 1594 1594 1594 1594 1594 1594 1594 1586 1586 1586 1586 1586 1586 1586 1586 1586 1586 1586 1586 1586 1586 1586 1586 1586 1586 1586 1586 1586 1586 1594 1594 1594 1594 1594 1601 1609 1503 1496 1496 1496 1489 1489 1489 1489 1489 1489 1489 1496 1496 1503 1509 1509 1523 1579 1579 1586 1586 1586 1586 1594 1594 1594 1601 1601 1601 1601 1609 1609 1616 1624 1639 1647 1663 1671 1680 1688 1696 1696 1705 1705 1713 1713 1731 1731 1739 1739 1359 1359 1359 1359 1359 1359 1359 1359 1354 1354 1354 1354 1354 1354 1359 1359 1365 1370 1376 1376 1376 1572 1579 1579 1579 1586 1594 1594 1594 1594 1594 1594 1594 1594 1594 1601 1601 1601 1601 1594 1594 1594 1594 1594 1594 1594 1586 1579 1579 1579 1586 1586 1586 1586 1586 1594 1594 1594 1302 1302 1307 1307 1307 1307 1307 1307 1307 1302 1302 1302 1302 1302 1302 1302 1302 1302 1302 1297 1297 1297 1297 1297 1292 1292 1292 1292 1292 1288 1288 1288 1288 1288 1288 1288 1288 1288 1288 1288 1288 1288 1288 1288 1283 1283 1283 1283 1278 1278 1278 1278 1278 1278 1278 1278 1278 1278 1278 1273 1268 1268 1264 1264 1259 1255 1250 1250 1250 1245 1245 1241 1241 1241 1241 1241 1241 1241 1241 1241 1241 1586 1586 1586 1594 1594 1594 1594 1594 1594 1594 1594 1594 1594 1594 1594 1594 1594 1594 1594 1594 1601 1601 1601 1609 1609 1609 1609 1609 1757 1757 1748 1748 1748 1748 1748 1739 1739 1739 1739 1739 1739 1739 1739 1739 1739 1739 1739 1739 1739 1739 1731 1731 1731 1731 1722 1722 1722 1722 1722 1722 1722 1713 1705 1705 1713 2618 2639 2618 2618 2639 2639 2639 1981 1981 1993 1993 1993 1993 1993 1993 1993 1993 1993 1993 0 1307 1307 1307 1307 1307 1302 1302 1307 1302 1302 1302 1302 1307 1307 1307 1302 1302 1302 1302 1302 1302 1297 1297 1297 1297 1297 1297 1297 1297 1297 1297 1297 1297 1297 1297 1297 1297 1297 1297 2618 2618 2598 2598 2598 2598 2598 2598 2598 2598 2598 2618 2618 2618 2618 2618 2618 2618 2618 2618 2618 2618 2618 2618 2618 2618 2618 2618 2598 2598 2598 2598 2598 2598 2598 2598 2598 2598 2598 2598 2598 2598 2598 2598 2598 2598 2598 2598 2598 2598 2598 2598 2618 2598 2598 2598 2598 2579 2579 2579 2579 2579 2579 2579 2579 2579 2579 2579 2579 2598 2579 2579 2579 2579 2579 2579 0 0 0 0 0 0 0 0 0 0
0 0 0 0 0 0 0 0 0 0 0 0 0 0 0 0 0 0 0 0 0 0 0 0 0 0 0 0 0 0 0 0 0 2432 2432 2450 2450 2450 2450 2450 2450 2450 2432 2432 2432 2450 2450 2450 2450 2450 2467 2467 2467 2467 2467 2467 2467 2467 2467 2467 2467 2467 2467 2467 2467 2467 2467 2467 2467 2450 2450 2450 2450 2450 2450 2450 2450 2450 2450 2450 2450 2450 2450 2450 2450 2467 2467 2467 2467 2467 2467 2450 2450 2450 2450 2450 2450 2467 2467 2467 2467 2467 2467 2467 2467 2467 2467 2467 2467 2467 2467 2467 2485 2485 2485 2503 2503 2503 2503 2503 2503 2503 2503 2503 2522 2522 2522 2522 2522 2522 2503 2503 2503 2503 2503 2503 2503 2503 2503 2503 1680 1680 1680 1680 1680 1680 1680 1680 1671 1671 1671 1594 1594 1594 1586 1586 1586 1586 1579 1579 1579 1579 1579 1586 1586 1586 1586 1586 1586 1586 1586 1586 1586 1586 1586 1586 1586 1586 1586 1586 1579 1579 1579 1579 1579 1579 1579 1579 1586 1586 1579 1579 1579 1579 1579 1579 1579 1579 1579 1579 1579 1579 1579 1579 1586 1586 1586 1586 1586 1586 1586 1586 1579 1579 1579 1579 1579 1579 1579 1586 1586 1586 1586 1586 1586 1586 1586 1586 1579 1579 1586 1586 1586 1586 1586 1586 1586 1586 1586 1594 1509 1503 1503 1503 1496 1496 1496 1489 1489 1489 1489 1496 1496 1503 1503 1509 1516 1523 1564 1572 1579 1579 1586 1586 1586 1586 1594 1594 1594 1601 1601 1609 1616 1624 1632 1639 1647 1663 1671 1688 1688 1696 1696 1705 1705 1705 1713 1731 1731 1739 1739 1365 1359 1359 1365 1365 1359 1359 1359 1354 1354 1354 1354 1354 1354 1359 1359 1365 1370 1376 1376 1376 1376 1572 1572 1579 1579 1579 1579 1579 1579 1586 1586 1586 1586 1586 1594 1594 1594 1594 1586 1586 1586 1586 1586 1586 1586 1579 1579 1579 1579 1579 1579 1579 1586 1586 1594 1586 1586 1594 1586 1586 1579 1579 1579 1586 1579 1579 1302 1302 1302 1302 1302 1302 1302 1302 1302 1302 1297 1297 1297 1297 1297 1292 1292 1292 1292 1292 1292 1292 1288 1288 1288 1288 1288 1288 1288 1288 1288 1288 1288 1288 1288 1288 1288 1283 1283 1283 1278 1278 1278 1278 1278 1278 1278 1278 1278 1278 1278 1273 1268 1268 1264 1264 1259 1255 1250 1250 1245 1245 1245 1245 1245 1245 1245 1245 1241 1241 1241 1579 1579 1586 1586 1586 1586 1586 1586 1586 1586 1586 1586 1586 1586 1586 1586 1586 1594 1594 1594 1594 1594 1601 1601 1601 1601 1601 1601 1601 2598 2598 1748 1748 1748 1748 1739 1739 1739 1731 1722 1722 1731 1739 1739 1739 1739 1739 1739 1739 1739 1739 1731 1731 1731 1731 1722 1722 1722 1722 1722 1722 1722 1713 1705 1705 1713 2618 2618 2598 2598 2618 2618 2618 1981 1981 1993 1993 1993 1993 1993 1993 1993 1993 1993 1993 0 0 1307 1307 1307 1307 1307 1307 1307 1307 1307 1307 1307 1307 1307 1307 1307 1307 1302 1302 1302 1302 1297 1297 1297 1297 1297 1297 1297 1297 1297 1297 1297 1297 1297 1297 1297 1297 1297 1297 2598 2598 2598 2579 2579 2579 2579 2579 2598 2598 2598 2598 2598 2598 2598 2598 2618 2618 2598 2598 2598 2618 2598 2598 2598 2598 2598 2598 2598 2579 2579 2579 2579 2579 2579 2579 2579 2579 2579 2579 2579 2579 2579 2579 2579 2579 2598 2598 2598 2598 2598 2598 2598 2579 2579 2579 2579 2579 2579 2579 2579 2579 2579 2579 2560 2560 2579 2579 2579 2579 2579 2579 2579 2579 2579 2579 0 0 0 0 0 0 0 0 0 0
0 0 0 0 0 0 0 0 0 0 0 0 0 0 0 0 0 0 0 0 0 0 0 0 0 0 0 0 0 0 0 0 0 2415 2415 2415 2415 2415 2432 2432 2432 2415 2415 2415 2432 2432 2415 2415 2432 2432 2450 2450 2450 2450 2450 2450 2450 2450 2450 2432 2432 2432 2432 2450 2450 2450 2450 2450 2450 2432 2432 2432 2432 2432 2432 2450 2450 2450 2450 2450 2450 2450 2450 2450 2450 2450 2450 2467 2467 2467 2450 2450 2450 2450 2450 2450 2450 2450 2450 2450 2450 2450 2467 2450 2450 2450 2450 2450 2450 2467 2467 2467 2467 2485 2485 2485 2485 2485 2485 2503 2503 2503 2503 2503 2503 2503 2522 2522 2503 2503 2485 2485 2485 2485 2485 2485 2485 2485 2503 2503 1680 1680 1680 1680 1680 1680 1680 1680 1671 1671 1671 1601 1594 1594 1594 1586 1586 1586 1579 1579 1579 1579 1579 1586 1586 1586 1586 1586 1586 1586 1586 1586 1579 1579 1579 1586 1586 1586 1579 1579 1579 1579 1579 1579 1579 1579 1579 1579 1579 1579 1579 1579 1579 1579 1579 1579 1579 1579 1579 1579 1579 1579 1579 1579 1579 1579 1579 1579 1579 1579 1579 1579 1579 1579 1579 1579 1579 1579 1579 1579 1579 1579 1579 1579 1579 1579 1579 1579 1579 1579 1579 1579 1579 1579 1579 1579 1579 1579 1579 1579 1509 1503 1503 1503 1496 1496 1496 1489 1489 1489 1489 1496 1496 1503 1503 1516 1516 1523 1557 1564 1572 1572 1579 1579 1586 1586 1586 1594 1594 1601 1609 1609 1616 1624 1639 1647 1663 1671 1671 1688 1688 1696 1696 1696 1705 1705 1705 1722 1731 1731 1365 1365 1365 1365 1365 1365 1365 1359 1359 1354 1354 1354 1354 1354 1354 1359 1359 1365 1370 1376 1376 1376 1376 1564 1564 1572 1572 1572 1572 1572 1572 1579 1579 1579 1579 1579 1579 1579 1579 1579 1579 1579 1579 1579 1579 1586 1579 1579 1572 1572 1572 1572 1572 1572 1579 1579 1586 1579 1579 1586 1579 1579 1579 1579 1579 1579 1579 1572 1572 1572 1572 1572 1572 1572 1572 1302 1302 1302 1297 1297 1297 1297 1297 1297 1297 1297 1297 1297 1292 1292 1288 1288 1288 1288 1288 1288 1288 1288 1288 1288 1288 1288 1288 1288 1288 1288 1283 1283 1283 1283 1283 1283 1283 1283 1283 1283 1283 1278 1278 1273 1268 1268 1268 1264 1259 1255 1250 1250 1245 1245 1245 1245 1245 1245 1245 1245 1241 1241 1241 1572 1579 1579 1579 1586 1586 1586 1579 1579 1579 1579 1579 1579 1579 1579 1579 1579 1586 1586 1586 1594 1594 1594 1594 1601 1594 1594 1594 1601 2598 2598 2598 2618 2618 2618 1739 1739 1739 1731 1722 1722 1731 2143 2143 2143 2143 2156 1739 1739 1739 1731 1731 1731 1731 1731 1722 1722 1722 1722 1722 1722 1722 1722 1713 1713 1713 2598 2618 2598 2598 2598 2618 2618 1993 1993 1993 1993 1993 1993 1993 1993 1993 1993 1993 1993 1981 0 1312 1307 1307 1307 1307 1307 1307 1307 1307 1307 1307 1307 1307 1307 1307 1307 1307 1307 1302 1302 1302 1297 1297 1297 1297 1297 1297 1297 1297 1297 1297 1297 1297 1297 1297 1297 1297 1297 2579 2579 2579 2579 2579 2579 2579 2579 2579 2579 2598 2598 2579 2579 2598 2598 2598 2598 2598 2598 2598 2598 2598 2598 2598 2598 2598 2598 2598 2579 2579 2579 2579 2579 2579 2579 2579 2579 2579 2579 2579 2579 2579 2579 2579 2579 2579 2579 2579 2579 2579 2579 2579 2579 2579 2579 2579 2579 2579 2579 2560 2560 2560 2560 2560 2560 2560 2560 2560 2560 2560 2560 2560 2560 2560 2560 0 0 0 0 0 0 0 0 0 0
0 0 0 0 0 0 0 0 0 0 0 0 0 0 0 0 0 0 0 0 0 0 0 0 0 0 0 0 0 0 0 0 0 2415 2415 2415 2415 2415 2415 2415 2415 2415 2415 2415 2432 2432 2415 2415 2415 2415 2432 2432 2432 2432 2432 2432 2432 2432 2432 2432 2432 2415 2415 2432 2432 2432 2432 2432 2432 2432 2432 2432 2432 2415 2415 2432 2432 2432 2432 2415 2415 2432 2432 2432 2432 2432 2450 2450 2450 2432 2432 2432 2432 2450 2450 2450 2450 2450 2450 2450 2450 2450 2450 2450 2450 2450 2450 2450 2450 2450 2450 2467 2467 2467 2467 2485 2485 2467 2467 2485 2485 2485 2467 2467 2485 2485 2503 2503 2503 2503 2485 2485 2485 2467 2467 2467 2467 2467 2485 2485 1688 1688 1680 1680 1680 1680 1680 1680 1671 1671 1671 1601 1594 1594 1594 1594 1586 1586 1579 1579 1586 1586 1586 1586 1586 1586 1586 1586 1586 1586 1586 1579 1579 1579 1579 1586 1586 1586 1579 1579 1579 1579 1579 1579 1579 1579 1579 1579 1579 1579 1579 1579 1579 1579 1579 1572 1572 1572 1572 1572 1572 1572 1572 1572 1572 1572 1572 1564 1564 1572 1572 1572 1572 1572 1572 1572 1572 1572 1572 1572 1579 1579 1579 1579 1579 1572 1572 1572 1572 1572 1572 1572 1579 1579 1572 1572 1572 1572 1572 1543 1509 1509 1503 1503 1496 1496 1496 1496 1496 1496 1496 1496 1503 1503 1509 1516 1523 1536 1550 1564 1564 1572 1579 1579 1579 1579 1586 1586 1594 1601 1609 1609 1624 1632 1639 1647 1663 1671 1680 1688 1688 1696 1696 1696 1696 1705 1705 1713 1731 1731 1370 1370 1365 1365 1365 1365 1365 1365 1365 1359 1359 1359 1359 1359 1359 1359 1365 1370 1370 1376 1376 1381 1381 1564 1564 1572 1572 1572 1572 1572 1572 1579 1579 1579 1579 1579 1579 1579 1579 1579 1572 1572 1572 1572 1579 1579 1572 1572 1572 1572 1572 1572 1572 1572 1572 1572 1579 1572 1572 1579 1572 1572 1572 1572 1572 1579 1579 1572 1572 1572 1572 1572 1572 1572 1572 1572 1579 1579 1297 1297 1297 1297 1297 1297 1297 1297 1297 1297 1297 1292 1292 1292 1288 1288 1288 1288 1288 1288 1288 1288 1288 1288 1288 1288 1288 1288 1288 1283 1283 1283 1283 1283 1283 1283 1283 1283 1283 1283 1278 1278 1273 1268 1268 1264 1259 1255 1255 1250 1245 1245 1245 1245 1245 1245 1245 1245 1245 1245 1245 1564 1572 1572 1572 1579 1579 1579 1572 1572 1572 1572 1572 1572 1572 1572 1572 1572 1579 1579 1586 1586 1586 1594 1594 1594 1594 1594 1594 1594 2598 2598 2598 2598 2598 2618 2618 2618 2156 2156 2143 2143 2143 2143 2143 2143 2156 2156 2170 1739 1739 1731 1731 1731 1731 1731 1722 1722 1722 1722 1722 1731 1731 1722 1722 1722 2598 2598 2598 2579 2579 2579 2579 2579 1993 1993 1993 1993 1993 1993 1993 1981 1981 1981 1981 1981 1981 0 1312 1312 1312 1307 1307 1307 1307 1307 1307 1307 1307 1307 1307 1307 1302 1302 1302 1302 1302 1302 1302 1302 1302 1302 1302 1297 1297 1297 1297 1297 1297 1297 1297 1297 1297 1297 1297 1297 2579 2579 2579 2579 2579 2579 2579 2579 2579 2579 2579 2579 2579 2579 2579 2598 2598 2579 2579 2579 2598 2598 2598 2598 2579 2579 2598 2598 2598 2579 2579 2579 2579 2579 2579 2579 2579 2560 2560 2560 2560 2579 2560 2560 2560 2579 2579 2579 2579 2579 2560 2560 2560 2560 2560 2560 2560 2560 2560 2560 2560 2560 2560 2560 2541 2541 2541 2541 2541 2541 2541 2541 2560 2560 2560 2560 0 0 0 0 0 0 0 0 0 0
0 0 0 0 0 0 0 0 0 0 0 0 0 0 0 0 0 0 0 0 0 0 0 0 0 0 0 0 0 0 0 0 0 2398 2398 2398 2398 2398 2415 2415 2415 2415 2415 2415 2415 2415 2415 2398 2398 2415 2415 2415 2415 2415 2415 2432 2415 2415 2415 2415 2415 2415 2415 2432 2432 2432 2432 2432 2432 2432 2415 2415 2415 2398 2398 2398 2415 2415 2415 2415 2415 2415 2415 2432 2432 2432 2432 2432 2432 2432 2432 2432 2432 2432 2432 2432 2432 2432 2432 2432 2432 2432 2432 2432 2432 2432 2432 2432 2432 2450 2450 2450 2450 2450 2450 2467 2467 2467 2467 2467 2467 2467 2467 2467 2467 2467 2467 2467 2467 2485 2467 2467 2467 2467 2467 2467 2467 2467 2467 2467 2467 1688 1680 1680 1680 1680 1680 1680 1680 1680 1680 1601 1594 1594 1594 1594 1594 1594 1586 1586 1586 1586 1586 1586 1586 1586 1586 1586 1586 1586 1586 1579 1579 1579 1579 1586 1586 1586 1579 1579 1579 1579 1579 1579 1579 1579 1579 1579 1579 1579 1579 1572 1572 1572 1572 1572 1572 1572 1572 1572 1572 1572 1572 1564 1564 1564 1564 1557 1557 1564 1564 1564 1564 1564 1564 1564 1564 1564 1564 1564 1564 1572 1572 1572 1572 1564 1564 1564 1564 1564 1564 1564 1564 1564 1572 1564 1564 1564 1557 1536 1536 1509 1509 1503 1496 1496 1496 1496 1496 1496 1496 1496 1503 1509 1516 1516 1523 1543 1550 1557 1564 1564 1572 1572 1579 1579 1579 1586 1586 1609 1609 1609 1632 1639 1647 1655 1671 1671 1680 1680 1688 1696 1696 1696 1696 1696 1705 1705 1705 1370 1370 1370 1365 1365 1365 1365 1365 1365 1365 1365 1359 1359 1359 1359 1359 1365 1365 1370 1370 1376 1376 1381 1381 1564 1564 1564 1564 1564 1564 1564 1572 1572 1572 1572 1572 1572 1572 1572 1572 1572 1564 1564 1564 1564 1572 1572 1572 1572 1564 1564 1572 1572 1564 1564 1564 1564 1572 1572 1572 1572 1572 1572 1572 1572 1572 1572 1572 1572 1572 1572 1572 1572 1572 1572 1572 1572 1572 1572 1572 1572 1297 1297 1297 1297 1297 1297 1297 1297 1297 1292 1292 1292 1292 1288 1283 1283 1288 1288 1283 1283 1288 1288 1288 1288 1288 1288 1288 1283 1283 1283 1283 1283 1283 1283 1283 1283 1283 1283 1278 1278 1273 1268 1268 1264 1264 1259 1259 1255 1250 1245 1245 1245 1245 1245 1245 1245 1245 1245 1245 1557 1564 1564 1564 1564 1572 1572 1572 1572 1572 1572 1572 1564 1564 1564 1564 1572 1572 1579 1579 1586 1586 1586 1586 1586 1586 1586 1586 1594 2579 2579 2579 2598 2598 2598 2598 2618 2156 2156 2143 2143 2143 2143 2143 2143 2156 2156 2170 2170 1739 1731 1731 1731 1731 1731 1722 1722 1722 1722 1722 1731 1731 1731 1731 1731 2598 2598 2598 2579 2579 2579 2579 2579 1993 1993 2005 1993 1993 1993 1993 1981 1981 1981 1981 1981 1981 1312 1312 1312 1307 1307 1307 1307 1307 1307 1307 1307 1307 1307 1307 1307 1302 1302 1302 1302 1302 1302 1302 1302 1302 1302 1302 1297 1297 1297 1297 1297 1297 1297 1297 1297 1297 1297 1297 1297 2579 2579 2579 2579 2579 2579 2579 2579 2579 2579 2579 2579 2579 2579 2579 2579 2579 2579 2579 2579 2598 2579 2579 2579 2579 2579 2579 2579 2579 2579 2560 2560 2560 2560 2560 2560 2560 2560 2560 2560 2560 2560 2560 2560 2560 2560 2560 2560 2560 2560 2541 2541 2541 2541 2541 2541 2541 2560 2560 2560 2560 2541 2541 2541 2522 2522 2522 2541 2522 2522 2522 2541 2541 2541 2541 2541 0 0 0 0 0 0 0 0 0 0
