0 0 0 0 0 0 0 0 0 0 0 0 0 0 0 0 0 0 0 0 0 0 0 0 0 0 0 0 0 0 0 0 0 2767 2767 2789 2767 2767 2767 2767 2789 2789 2789 2789 2812 2812 2812 2835 2835 2835 2859 2859 2883 2883 2883 2908 2908 2908 2933 2933 2958 2984 3010 3037 3037 3037 3010 3010 2984 2984 2984 2984 2984 2984 2984 3010 3010 3010 3037 3037 3037 3064 3064 3064 3064 3064 3064 3092 3092 3092 3092 3092 3092 3092 3149 3149 3178 3178 3178 3178 3208 3208 3208 3208 3208 3208 3208 3208 3238 3238 3238 3300 3300 3300 3300 3333 3333 3333 3333 3333 3365 0 0 0 0 0 0 0 0 0 0 0 0 0 0 0 0 0 0 0 0 0 0 0 0 0 0 0 0 0 0 0 0 0 1572 1572 1572 1572 1572 1564 1564 1564 1564 1564 1564 1564 1564 1564 1557 1557 1550 1543 1536 1536 1536 1529 1529 1529 1529 1529 1529 1529 1529 1529 1529 1523 1523 1523 1523 1516 1516 1509 1503 1503 1503 1503 1503 1503 1503 1503 1503 1496 1496 1496 1496 1496 1496 1496 1496 1496 1489 1489 1489 1483 1477 1477 1483 1477 1477 1477 1477 1470 1470 1470 1470 1470 1470 1470 1464 1464 1464 1464 1464 1464 1458 1458 1452 1452 1445 1445 1445 1439 1439 1439 1439 1433 1433 1433 1439 1439 1439 1445 1445 1452 1452 1452 1452 0 2053 0 2116 2078 2078 2116 2103 2103 2103 2103 2103 2103 2103 2116 2103 2103 2116 2116 2116 2129 2129 2129 2129 1312 1312 1312 1312 1312 1312 1307 1307 1307 1307 1307 1307 1307 1307 1312 1312 1317 1317 1328 1328 1328 1328 2129 2129 2129 2129 2129 2129 2129 2116 2116 2116 2116 2116 2129 2129 2129 2129 2129 2129 2129 2129 2129 2129 2129 2143 2129 2129 2129 2143 2156 2156 2156 2156 2156 2156 2156 2143 2129 2129 2143 2143 2156 2156 2156 2156 2170 2170 2170 2170 2170 2170 2170 2170 2156 2156 2156 2170 2170 2198 2170 2170 2170 2226 2226 2170 2170 2170 2198 2212 2226 2226 2256 2256 2256 2271 2271 2271 2271 2271 2271 2271 2271 2271 2271 3120 2116 2116 3092 3092 3092 3092 3092 3092 3092 3092 3092 3092 3092 3120 3120 3120 3120 3120 3120 3120 3120 3120 3120 3120 3092 3092 3092 3092 3092 3092 3120 3120 3120 3092 3092 3064 3064 3010 2984 2984 2984 2984 2984 2984 2984 2984 2958 2958 2958 2958 2958 2958 2958 2958 2958 2958 2958 2143 2143 2143 2129 2129 2143 2143 2143 2143 2143 2143 2129 2129 2116 2103 2103 2129 2933 2933 2933 2933 2908 2908 2908 2908 2908 2908 2908 2908 2933 2933 2958 2984 2984 3433 3433 3468 3468 3468 3503 3539 3539 3576 3576 3614 3653 3692 3692 3692 3732 3732 4349 4349 4349 4349 4349 4349 4295 4295 4295 4295 4295 4295 4295 4349 4295 4295 4295 4295 4295 4295 4295 4295 4295 4295 0 0 0 1981 1981 1981 1981 1981 1981 1981 1981 1970 1970 1970 1970 1981 0 0 0 0 0 0 0 6375 6375 6375 6497 6497 6497 6497 6375 6375 5832 5832 5734 5734 5734 5734 5734 5832 0 0 0 0 0 0 6375 6259 6146 6146 6038 6038 6038 5933 5933 5933 5933 5933 6038 6038 6146 6146 6146 6038 6038 5933 5933 0 0 0 0 0 0 0 0 6038 6038 5933 5933 5933 5933 5933 5832 5832 5933 5933 6038 6038 6038 6038 6038 5933 5933 5933 5832 5832 5374 5210 5132 5132 5132 5132 5210 5210 6038 6038 5933 5933 0 0 0 0 0 0 0 0 0 0 0 0 0
0 0 0 0 0 0 0 0 0 0 0 0 0 0 0 0 0 0 0 0 0 0 0 0 0 0 0 0 0 0 0 0 0 2767 2767 2789 2789 2789 2789 2789 2789 2789 2789 2789 2812 2812 2812 2835 2835 2835 2859 2883 2883 2883 2883 2908 2908 2933 2933 2933 2958 2984 3010 3010 3037 3037 3010 3010 2984 2984 2984 2984 2984 2984 2984 3010 3010 3037 3037 3037 3064 3064 3064 3064 3064 3064 3064 3092 3092 3092 3092 3092 3120 3120 3149 3178 3178 3178 3178 3178 3208 3208 3208 3208 3208 3208 3208 3238 3238 3238 0 0 0 3300 3300 3333 3333 3333 3333 3333 0 0 0 0 0 0 0 0 0 0 0 0 0 0 0 0 0 0 0 0 0 0 0 0 0 0 0 0 0 0 0 0 0 0 1586 1579 1579 1579 1579 1572 1572 1572 1564 1564 1564 1564 1572 1572 1572 1572 1557 1550 1536 1536 1536 1529 1529 1529 1529 1529 1529 1529 1529 1529 1529 1523 1523 1523 1523 1516 1516 1509 1509 1509 1509 1503 1503 1503 1503 1503 1503 1503 1503 1503 1503 1503 1496 1496 1496 1496 1496 1496 1489 1477 1477 1477 1477 1477 1477 1477 1477 1477 1470 1470 1470 1470 1470 1470 1470 1464 1464 1464 1458 1458 1458 1458 1458 1452 1452 1445 1445 1439 1439 1439 1439 1433 1433 1433 1439 1439 1445 1445 1445 1452 1452 1452 1452 2028 2053 2053 2053 2065 2065 2078 2078 2078 2090 2090 2090 2090 2078 2078 2078 2078 2078 2078 2103 2103 2116 2116 0 1312 1312 1312 1312 1312 1312 1307 1307 1307 1307 1307 1307 1307 1307 1312 1312 1317 1317 1322 1328 1328 1328 2116 2116 2116 2129 2129 2129 2129 2116 2116 2116 2116 2116 2116 2116 2116 2116 2116 2116 2116 2116 2116 2116 2116 2129 2129 2103 2103 2116 2129 2129 2129 2116 2116 2129 2129 2129 2116 2116 2129 2129 2129 2129 2129 2129 2156 2156 2156 2156 2156 2156 2156 2143 2143 2143 2143 2129 2129 2156 2156 2156 2156 2156 2156 2156 2156 2156 2170 2184 2184 2226 2256 2256 2256 2271 2256 2256 2271 2271 2271 2271 2271 2116 2116 2116 2116 2116 3092 3092 3092 3092 3092 3092 3092 3092 3092 3120 3120 3120 3120 3120 3120 3120 3120 3120 3120 3120 3120 3120 3092 3092 3092 3092 3092 3092 3120 3120 3120 3092 3092 3064 3064 3010 3010 2984 2984 2984 2984 2984 2984 2984 2958 2958 2958 2958 2958 2958 2958 2933 2933 2958 2958 2143 2143 2143 2143 2143 2143 2143 2143 2143 2143 2143 2129 2129 2116 2103 2103 2116 2116 2116 2116 2116 2116 2116 2116 2116 2103 2103 2103 2103 2103 2078 2078 2078 2090 2090 2090 2090 2090 2090 2090 2090 3539 3576 3576 3614 3653 3692 3692 3732 3774 3774 4349 4349 4295 4295 4349 4349 4295 4295 4295 4295 4295 4295 4295 4349 4295 4295 4295 4295 4295 4295 4295 4295 4295 4295 0 0 0 1981 1981 1981 1981 1981 1981 1981 1981 1970 1970 1970 1970 1981 0 0 0 0 0 0 6259 6259 6259 6375 6375 6375 6375 6497 6375 6259 5933 5832 5832 5734 5734 5734 5734 5734 0 0 0 0 0 0 6375 6259 6146 6038 6038 6038 6038 5933 5933 5933 5933 5933 6038 6146 6146 6038 6038 5933 5933 5933 5933 0 0 0 0 0 0 0 0 6038 6038 5933 5933 5933 5933 5933 5832 5832 5933 5933 6038 6038 6038 5933 5933 5933 5933 5933 5832 5640 5291 5210 5132 5132 5132 5132 5210 0 0 6038 5933 5933 0 0 0 0 0 0 0 0 0 0 0 0 0
0 0 0 0 0 0 0 0 0 0 0 0 0 0 0 0 0 0 0 0 0 0 0 0 0 0 0 0 0 0 0 0 0 2767 2767 2789 2789 2789 2789 2789 2789 2789 2789 2789 2812 2812 2812 2835 2835 2835 2859 2883 2883 2908 2908 2908 2908 2908 2908 2933 2958 2984 3010 3010 3037 3037 3010 3010 2984 2984 2984 2984 2984 2984 3010 3010 3037 3037 3037 3037 3064 3064 3064 3064 3064 3064 3064 3092 3092 3092 3092 3092 3092 3092 3149 3149 3178 3178 3178 3178 3208 3208 3208 3208 3208 3208 3208 3238 0 0 0 0 0 0 0 0 0 0 0 0 0 0 0 0 0 0 0 0 0 0 0 0 0 0 0 0 0 0 0 0 0 0 0 0 0 0 0 0 0 0 0 0 0 1594 1586 1586 1579 1579 1579 1572 1572 1572 1572 1572 1572 1572 1579 1579 1579 1579 1572 1564 1557 1550 1543 1536 1536 1536 1536 1536 1529 1529 1529 1529 1523 1523 1523 1523 1523 1523 1516 1516 1509 1509 1509 1503 1503 1503 1503 1503 1503 1503 1503 1503 1503 1503 1496 1496 1496 1496 1496 1496 1483 1477 1477 1477 1477 1477 1477 1477 1477 1477 1477 1470 1470 1470 1470 1470 1470 1464 1464 1464 1458 1458 1458 1458 1452 1452 1452 1445 1445 1439 1439 1439 1439 1433 1433 1433 1439 1439 1445 1445 1445 1452 1458 1458 1458 2028 2028 2028 2040 2040 2040 2040 2053 2053 2053 2078 2090 2078 2078 2078 2078 2078 2065 2065 2078 2078 2116 2116 0 1312 1312 1312 1312 1312 1307 1307 1307 1307 1302 1302 1307 1307 1307 1312 1312 1317 1317 1322 1322 1328 1328 2103 2103 2103 2116 2116 2116 2129 2116 2116 2103 2103 2103 2103 2103 2103 2103 2103 2103 2103 2103 2103 2103 2103 2103 2103 2078 2078 2090 2103 2103 2103 2103 2103 2116 2116 2116 2116 2116 2116 2116 2116 2116 2116 2116 2116 2116 2116 2116 2116 2116 2116 2116 2116 2116 2116 2129 2129 2129 2129 2143 2143 2143 2143 2143 2143 2143 2116 2116 2116 2065 2065 2065 2065 2065 2065 2256 2271 2271 2116 2116 2116 2116 2116 2116 2116 2116 2116 2116 2103 2103 2103 2103 3092 3092 3092 3120 3120 3120 3120 3120 3120 3120 3120 3120 3120 3120 3120 3120 3092 3092 3092 3092 3092 3120 3120 3120 3120 3092 3092 3064 3037 3010 3010 2984 2984 2984 2984 2984 2984 2984 2958 2958 2958 2958 2958 2958 2958 2933 2933 2958 2143 2143 2143 2143 2143 2143 2143 2143 2143 2143 2143 2143 2129 2129 2116 2103 2103 2116 2116 2116 2116 2116 2116 2116 2116 2116 2103 2103 2103 2103 2090 2078 2078 2078 2090 2090 2090 2090 2090 2090 2090 2090 2090 2090 2078 2065 2065 2078 2078 2053 2053 2078 2078 4405 4295 4295 4295 4295 4295 4295 4295 4295 4295 4295 4295 4349 4295 4295 4295 4295 4295 4295 4295 4295 4295 4295 0 0 0 1981 1981 1981 1981 1981 1981 1981 1970 1970 1970 1970 1959 1959 0 0 0 0 0 0 6259 6259 6259 6259 6259 6259 6146 6038 6038 5933 5832 5832 5832 5734 5734 5734 5734 5734 0 0 0 0 0 0 0 6038 5933 5933 5832 5832 5832 5734 5734 5734 5832 5832 5933 6038 6038 5933 5933 5933 5933 5832 5832 5832 0 0 0 0 0 0 0 0 0 5933 5933 5933 5933 5933 5933 5933 5933 5933 6038 6038 6038 5933 5933 5933 5933 5832 5734 5548 5291 5210 5132 5132 5132 5132 5132 0 0 0 0 0 0 0 0 0 0 0 0 0 0 0 0 0 0
0 0 0 0 0 0 0 0 0 0 0 0 0 0 0 0 0 0 0 0 0 0 0 0 0 0 0 0 0 0 0 0 0 2767 2767 2789 2789 2789 2789 2789 2789 2789 2789 2789 2812 2812 2812 2835 2835 2859 2883 2883 2908 2908 2908 2908 2908 2908 2908 2933 2958 2984 3010 3010 3037 3010 3010 3010 2984 2984 2984 2984 2984 2984 2984 3010 3037 3037 3037 3037 3064 3064 3064 3064 3064 3064 3092 3092 3092 3092 3092 3092 3092 3092 3149 3149 3178 3178 3178 3208 3208 3208 3208 3238 0 0 0 0 0 0 0 0 0 0 0 0 0 0 0 0 0 0 0 0 0 0 0 0 0 0 0 0 0 0 0 0 0 0 0 0 0 0 0 0 0 0 0 0 0 0 0 0 0 1594 1586 1586 1586 1586 1579 1572 1572 1572 1564 1564 1564 1579 1579 1579 1579 1586 1586 1564 1564 1550 1550 1550 1550 1550 1529 1529 1529 1529 1529 1529 1523 1523 1523 1523 1523 1523 1516 1516 1509 1509 1509 1503 1503 1503 1503 1503 1503 1503 1503 1503 1503 1503 1503 1503 1496 1496 1489 1489 1483 1477 1477 1477 1477 1477 1477 1477 1477 1477 1477 1470 1470 1470 1470 1470 1470 1470 1464 1464 1464 1464 1464 1458 1452 1452 1452 1452 1445 1445 1439 1439 1439 1439 1439 1439 1439 1445 1445 1445 1452 1452 1452 1452 2005 2028 2028 2028 2028 2028 2028 2028 2028 2040 2040 2040 2040 2065 2065 2065 2053 2053 2040 2040 2053 2078 2078 2078 1312 1312 1307 1307 1307 1307 1307 1307 1307 1302 1302 1302 1302 1302 1307 1307 1312 1312 1312 1317 1317 1317 1312 2103 2103 2103 2116 2116 2116 2129 2116 1297 1297 1297 2103 2090 2090 2090 2103 2103 2103 2090 2090 2090 2090 2090 2090 2090 2078 2078 2078 2078 2078 2090 2090 2090 2103 2103 2116 2103 2103 2103 2103 2103 2103 2103 2103 2103 2103 2103 2103 2103 2103 2103 2103 2103 2103 2103 2103 2103 2103 2103 2116 2116 2116 2116 2116 2116 2116 2103 2103 2065 2065 2065 2065 2065 2065 2065 2116 2116 2116 2116 2116 2116 2116 2116 2116 2116 2116 2116 2116 2103 2103 2103 2103 2103 2103 3092 3120 3120 3120 3120 3120 3120 3120 3120 3120 3120 3120 3120 3120 3092 3092 3092 3120 3120 3120 3120 3120 3120 3092 3092 3064 3037 3010 3010 2984 2984 2984 2984 2984 2984 2984 2958 2958 2958 2958 2958 2958 2958 2933 2933 2143 2143 2143 2143 2143 2143 2143 2143 2143 2143 2143 2143 2143 2129 2129 2116 2116 2116 2116 2116 2103 2103 2103 2103 2103 2103 2103 2103 2103 2090 2090 2090 2090 2078 2078 2078 2078 2090 2090 2090 2090 2090 2090 2090 2090 2078 2065 2065 2065 2065 2053 2053 2065 2065 2078 2053 2053 2040 2040 2040 4295 4295 4295 4295 4295 4295 4349 4349 4349 4295 4295 4349 4349 4295 4295 4295 4295 0 0 0 1981 1981 1981 1981 1981 1981 1981 1970 1970 1970 1959 1959 1959 0 0 0 0 0 0 0 6259 6259 6259 6259 6146 6038 5933 5832 5832 5734 5734 5734 5734 5734 5734 5832 5832 0 0 0 0 0 0 0 6038 5933 5933 5832 5832 5734 5734 5734 5734 5734 5734 5832 5933 5933 5832 5832 5832 5832 5832 5832 5832 0 0 0 0 0 0 0 0 0 5933 5933 5933 5933 5933 5933 5933 5933 5933 6038 6038 5734 5832 5832 5832 5832 5640 5548 5460 5374 5210 5210 5210 5210 5210 5291 0 0 0 0 0 0 0 0 0 0 0 0 0 0 0 0 0 0
0 0 0 0 0 0 0 0 0 0 0 0 0 0 0 0 0 0 0 0 0 0 0 0 0 0 0 0 0 0 0 0 2789 2767 2767 2789 2789 2789 2789 2789 2812 2812 2812 2812 2812 2812 2812 2835 2835 2859 2883 2883 2908 2908 2908 2908 2908 2908 2908 2908 2933 2958 3010 3010 3010 3010 3010 3010 2984 2984 2984 2984 2984 2984 2984 3010 3037 3037 3037 3037 3064 3064 3064 3064 3064 3064 3092 3092 3092 3092 3092 3092 3092 3120 0 0 0 0 0 0 0 0 0 0 0 0 0 0 0 0 0 0 0 0 0 0 0 0 0 0 0 0 0 0 0 0 0 0 0 0 0 0 0 0 0 0 0 0 0 0 0 0 0 0 0 0 0 0 0 0 0 0 0 0 1594 1586 1586 1586 1579 1572 1572 1572 1564 1564 1564 1579 1579 1586 1586 1586 1586 1586 1586 1586 1639 1647 1663 0 0 1529 1529 1529 1529 1529 1523 1523 1523 1523 1523 1523 1516 1516 1509 1509 1509 1509 1503 1503 1503 1503 1503 1503 1503 1503 1503 1496 1496 1496 1496 1496 1489 1489 1483 1483 1483 1483 1483 1477 1477 1477 1477 1477 1477 1470 1470 1470 1470 1470 1470 1470 1470 1470 1470 1464 1464 1464 1458 1458 1452 1452 1452 1445 1439 1439 1439 1439 1439 1439 1439 1445 1445 1445 1452 1452 1452 1458 2005 2005 2005 2005 2016 2016 2016 2016 2028 2028 2028 2028 2028 2028 2028 2028 2028 2028 2028 2028 2028 2028 2028 0 1312 1312 1307 1307 1307 1307 1307 1307 1307 1302 1302 1302 1302 1302 1307 1307 1312 1312 1312 1312 1312 1312 1312 1312 1312 2116 2116 2116 2116 1292 1292 1292 1292 1292 1292 1292 2090 2090 2103 2103 2103 2090 2090 2078 2078 2090 1283 1283 2078 2078 2078 2078 2078 2078 2078 2078 2090 2090 2103 2103 2103 2103 2103 2090 2090 2090 2090 2090 2090 2103 2103 2103 2103 2103 2090 2090 2090 2090 2090 2078 2078 2078 2090 2090 2090 2090 2103 2103 2103 2065 2065 2065 2065 2065 2065 2065 2065 2065 2103 2103 2103 2103 2103 2103 2103 2103 2103 2103 2103 2103 2103 2103 2103 2103 2103 2103 2103 2103 2103 2103 2103 2103 2103 2103 3120 3120 3092 3092 3120 3120 2116 2116 2116 2116 3092 3120 3120 3120 3149 3120 3092 3092 3064 3037 3010 3010 2984 2984 2984 2984 2984 2984 2984 2984 2984 2984 2958 2958 2958 2933 2933 2933 2143 2143 2143 2143 2143 2143 2143 2143 2143 2143 2143 2129 2129 2129 2129 2129 2116 2116 2116 2116 2103 2103 2103 2103 2103 2103 2103 2103 2103 2090 2090 2090 2090 2090 2090 2078 2078 2090 2090 2090 2090 2090 2090 2090 2078 2078 2065 2065 2065 2065 2053 2053 2065 2065 2065 2053 2053 2040 2040 2040 2040 2040 2040 2040 2040 2028 2028 4349 4349 4349 4349 4349 4349 4295 4295 4295 4295 4295 0 1981 1981 1981 1981 1981 1981 1981 1981 1970 1970 1970 1959 1947 1947 0 0 0 0 0 0 0 0 0 0 0 6038 5832 5734 5734 5734 5734 5734 5734 5734 5734 5734 5548 5548 0 0 0 0 0 0 0 0 5832 5734 5734 5734 5734 5640 5640 5640 5640 5640 5640 5640 5933 5832 5832 5832 5832 5832 5832 5832 5933 0 0 0 0 0 0 0 0 0 5933 5734 5734 5933 5640 5640 5933 5933 6038 6038 5734 5734 5734 5832 5734 5640 5548 5460 5374 5210 5210 5210 5210 5210 5291 0 0 0 0 0 0 0 0 0 0 0 0 0 0 0 0 0 0
0 0 0 0 0 0 0 0 0 0 0 0 0 0 0 0 0 0 0 0 0 0 0 0 0 0 0 0 0 0 0 0 2789 2789 2767 2767 2789 2789 2789 2812 2812 2812 2812 2812 2812 2812 2835 2835 2835 2859 2883 2883 2883 2908 2908 2908 2908 2908 2908 2908 2933 2958 3010 3010 3010 3010 3010 3010 2984 2984 2984 3010 3010 2984 2984 3010 3037 3037 3037 3037 3064 3064 3064 3064 3064 3064 3064 3064 3092 3092 3092 3092 3092 0 0 0 0 0 0 0 0 0 0 0 0 0 0 0 0 0 0 0 0 0 0 0 0 0 0 0 0 0 0 0 0 0 0 0 0 0 0 0 0 0 0 0 0 0 0 0 0 0 0 0 0 0 0 0 0 0 0 0 0 0 1586 1586 1586 1586 1586 1572 1572 1572 1572 1572 1579 1579 1579 1579 1586 1586 1594 1594 1594 1632 1639 1647 1663 1671 1671 0 1529 1529 1529 1529 1523 1523 1523 1523 1523 1523 1516 1516 1516 1509 1509 1509 1509 1509 1509 1503 1503 1503 1496 1496 1496 1496 1496 1496 1496 1496 1496 1489 1489 1483 1483 1483 1483 1483 1477 1477 1477 1477 1477 1477 1477 1477 1477 1470 1470 1470 1470 1470 1470 1470 1464 1464 1458 1458 1458 1452 1452 1445 1445 1445 1445 1439 1439 1439 1439 1445 1445 1445 1452 1452 1452 1458 2005 1993 1993 1993 2005 2005 2005 2016 2016 2016 2016 2016 2016 2016 2016 2016 2016 2016 2016 2016 2016 2016 2016 0 1307 1307 1307 1307 1307 1307 1307 1307 1307 1302 1302 1302 1302 1302 1307 1307 1312 1312 1312 1312 1307 1307 1307 1302 1302 1302 1292 1292 1292 1292 1292 1292 1292 1292 1288 1288 1283 1283 1283 2103 2103 1278 1278 1278 1283 1278 1273 1273 1278 1278 2078 2065 2065 2065 2065 2078 2078 2078 2090 2090 2090 2090 2090 2090 2078 2065 2065 2065 2078 2078 2078 2078 2090 2090 2078 2078 2078 2078 2078 2078 2078 2078 2078 2078 2078 2078 2078 2090 2090 2065 2065 2065 2065 2065 2065 2065 2065 2065 2090 2090 2090 2090 2090 2090 2090 2090 2090 2103 2103 2103 2103 2090 2090 2090 2090 2090 2090 2078 2078 2078 2078 2078 2090 2078 2078 2078 2103 2116 2116 2103 2103 2103 2116 2090 2090 2103 3120 2078 2053 2053 2040 2040 2053 2053 3010 3010 2984 2984 3010 3010 2984 2984 2984 2984 2984 2958 2958 2958 2958 2933 2933 2143 2143 2143 2143 2143 2143 2156 2143 2143 2143 2143 2129 2129 2129 2129 2129 2129 2116 2116 2116 2116 2103 2103 2103 2103 2103 2103 2103 2103 2103 2103 2103 2103 2090 2090 2090 2090 2090 2090 2090 2090 2090 2090 2090 2090 2078 2078 2065 2065 2065 2065 2053 2053 2065 2065 2065 2053 2053 2040 2040 2040 2028 2028 2028 2028 2028 2028 2016 2016 4349 4295 4295 4349 4349 4295 4295 4295 4295 4295 0 1981 1981 1981 1981 1981 1981 1981 1970 1970 1970 1970 1959 1947 1947 0 0 0 0 0 0 0 0 0 0 0 5933 5832 5734 5734 5734 5734 5734 5734 5734 5734 5640 5548 5548 0 0 0 0 0 0 0 0 5832 5734 5640 5640 5640 5640 5640 5640 5548 5548 5548 5548 5933 5832 5640 5640 5832 5933 5734 5734 5734 0 0 0 0 0 0 0 0 5548 5640 5640 5640 5734 5640 5640 5933 5933 5933 5734 5734 5734 5734 5832 5734 5548 5548 5460 5374 5210 5210 5210 5210 5210 0 0 0 0 0 0 0 0 0 0 0 0 0 0 0 0 0 0 0
0 0 0 0 0 0 0 0 0 0 0 0 0 0 0 0 0 0 0 0 0 0 0 0 0 0 0 0 0 0 0 0 2789 2789 2767 2767 2767 2789 2789 2789 2789 2812 2812 2812 2812 2812 2835 2835 2859 2859 2883 2883 2883 2908 2908 2908 2908 2908 2908 2908 2933 2958 2958 3010 3010 3010 3010 3010 2984 2984 2984 3010 3010 2984 2984 3010 3037 3037 3037 3037 3037 3037 3037 3037 3037 3037 3064 3064 3064 3092 3092 3092 3092 0 0 0 0 0 0 0 0 0 0 0 0 0 0 0 0 0 0 0 0 0 0 0 0 0 0 0 0 0 0 0 0 0 0 0 0 0 0 0 0 0 0 0 0 0 0 0 0 0 0 0 0 0 0 0 0 0 0 0 0 0 1586 1586 1586 1586 1579 1572 1572 1572 1572 1572 1579 1579 1579 1579 1586 1586 1594 1594 1609 1632 1639 1647 1663 1671 1671 0 0 0 1529 1529 1523 1523 1516 1516 1523 1523 1523 1523 1516 1509 1509 1516 1516 1509 1509 1503 1503 1503 1496 1496 1496 1496 1496 1496 1496 1496 1496 1489 1489 1489 1489 1483 1483 1477 1477 1477 1477 1477 1477 1477 1477 1477 1477 1477 1477 1470 1470 1470 1470 1470 1464 1464 1458 1458 1458 1452 1452 1445 1445 1445 1445 1439 1439 1439 1439 1445 1445 1445 1452 1452 1458 1458 1458 1981 1981 1981 1981 1993 1981 1981 1993 1981 1981 1970 1970 1970 1970 1970 1970 1981 2016 2005 2005 2005 2005 1307 1307 1307 1307 1307 1307 1307 1307 1307 1307 1302 1302 1302 1302 1302 1307 1307 1307 1307 1307 1307 1307 1302 1302 1297 1297 1297 1292 1292 1288 1288 1288 1288 1288 1288 1288 1283 1283 1283 1273 1273 1273 1273 1273 1273 1278 1273 1273 1273 1273 1273 1259 1259 1255 1255 2065 2065 2065 2078 2065 2065 2065 2065 1250 1250 2065 2053 2053 2053 2053 2053 2065 2065 2065 2078 2065 2065 2065 2065 2065 2065 2065 2065 2065 2065 2065 2065 2065 2065 2065 2065 2065 2053 2053 2053 2065 2065 2065 2065 2078 2078 2078 2078 2078 2078 2090 2090 2090 2090 2090 2103 2103 2090 2090 2090 2090 2078 2078 2065 2065 2065 2078 2078 2078 2078 2078 2078 2090 2103 2103 2103 2103 2103 2103 2090 2090 2090 2078 2078 2053 2053 2040 2040 2053 2053 2065 3010 3010 3010 3010 3010 3010 3010 2984 2984 2984 2958 2958 2958 2958 2958 2958 2143 2143 2143 2143 2143 2143 2143 2143 2143 2143 2143 2129 2129 2129 2129 2129 2129 2116 2116 2116 2116 2116 2116 2103 2103 2103 2103 2103 2103 2103 2103 2103 2103 2090 2090 2090 2090 2090 2090 2090 2090 2090 2090 2090 2090 2078 2078 2078 2078 2065 2065 2065 2065 2065 2065 2065 2053 2053 2040 2040 2040 2028 2028 2028 2028 2028 2028 2016 2016 2016 4295 4295 4295 4295 4295 4295 4295 4295 4295 0 1981 1981 1981 1981 1981 1981 1981 1970 1970 1970 1970 1959 1959 1959 0 0 0 0 0 0 0 0 0 0 0 5933 5832 5832 5832 5734 5734 5734 5734 5734 5734 5640 5460 5460 5460 0 0 0 0 0 0 0 5734 5734 5640 5640 5640 5640 5640 5640 5548 5548 5548 5548 5548 5832 5640 5640 5832 5832 5734 5734 5734 5734 5933 5933 0 0 0 0 5548 5548 5460 5460 5640 5640 5640 5640 5640 5640 0 0 5832 5832 5832 5832 5832 5548 5548 5548 5374 5291 5291 5291 0 0 0 0 0 0 0 0 0 0 0 0 0 0 0 0 0 0 0 0 0
0 0 0 0 0 0 0 0 0 0 0 0 0 0 0 0 0 0 0 0 0 0 0 0 0 0 0 0 0 0 0 0 2789 2767 2767 2767 2767 2789 2789 2789 2789 2812 2812 2812 2835 2835 2835 2859 2859 2859 2908 2908 2908 2933 2908 2908 2908 2908 2908 2933 2933 2958 2958 3010 3010 3037 3010 3010 2984 2984 2984 2984 2984 2984 2984 3010 3010 3064 3064 0 3037 3037 3037 3037 3037 3037 3064 3064 3064 3092 0 0 0 0 0 0 0 0 0 0 0 0 0 0 0 0 0 0 0 0 0 0 0 0 0 0 0 0 0 0 0 0 0 0 4774 4774 4842 4842 4842 4774 4774 4842 4842 4842 4842 0 0 0 0 0 0 0 0 0 0 0 0 0 0 0 0 0 0 0 0 1586 1586 1579 1579 1572 1572 1572 1572 1579 1579 1579 1579 1586 1586 1586 1594 1594 1609 1616 1632 1639 1663 1671 1671 0 0 0 0 0 0 1523 1516 1516 1523 1523 1523 1523 1523 1523 1516 1516 1516 1516 1516 1503 1503 1503 1496 1496 1496 1489 1489 1496 1496 1496 1496 1489 1489 1489 1489 1483 1477 1477 1477 1477 1477 1477 1477 1477 1477 1477 1477 1477 1477 1470 1470 1470 1470 1470 1464 1464 1458 1458 1458 1452 1452 1445 1445 1445 1445 1439 1439 1439 1439 1445 1445 1452 1452 1452 1458 1458 1458 1981 1970 1970 1970 1970 1970 1970 1981 1970 1970 1959 1959 1959 1959 1970 1970 1981 2005 2005 2005 2005 2005 1307 1307 1307 1307 1307 1307 1307 1307 1307 1307 1307 1302 1302 1307 1307 1307 1307 1307 1307 1307 1302 1302 1302 1302 1297 1297 1297 1292 1292 1288 1288 1288 1288 1288 1288 1288 1283 1283 1278 1268 1268 1268 1268 1268 1273 1273 1268 1268 1268 1268 1268 1259 1259 1250 1250 1250 1250 1250 1250 1250 2053 1245 1245 1245 1245 2065 2053 2040 2040 2040 2040 2040 2053 2053 2065 2053 2053 2053 2053 2065 2065 2065 2065 2065 2065 2065 2065 2053 2053 2065 2040 2040 2040 2040 2040 2053 2053 2065 2065 2065 2078 2065 2065 2065 2065 2065 2065 2065 2078 2078 2090 2090 2090 2090 2090 2090 2078 2078 2065 2065 2065 2065 2065 2078 2078 2078 2078 2078 2090 2090 2090 2090 2103 2103 2065 2065 2078 2065 2065 2053 2053 2053 2053 2053 2053 2065 2065 3037 3010 3010 3010 3010 3010 3010 2984 2984 2958 2958 2958 2958 2958 2958 2143 2143 2143 2143 2143 2143 2143 2143 2143 2143 2143 2129 2129 2129 2129 2129 2116 2116 2116 2116 2116 2116 2116 2103 2103 2103 2103 2103 2103 2103 2103 2103 2103 2103 2090 2090 2090 2090 2090 2090 2090 2090 2090 2090 2090 2078 2078 2078 2065 2065 2065 2065 2065 2065 2065 2065 2053 2053 2040 2040 2040 2028 2028 2028 2028 2016 2016 2016 2016 2005 2005 2005 2005 4190 4241 4241 4241 4241 4241 1981 1981 1981 1981 1981 1981 1981 1981 1981 1981 1970 1970 1959 1959 1959 0 0 0 0 0 0 0 0 0 0 0 5832 5832 5832 5832 5734 5734 5734 5734 5734 5734 5640 5460 5460 5460 5734 0 0 0 0 0 0 5734 5640 5640 5640 5640 5640 5640 5640 5548 5548 5548 5640 5832 5832 5832 5832 5832 5832 5734 5734 5734 5734 5933 5933 5832 5548 5548 5548 5548 5548 5460 5460 5548 5548 5640 5734 0 5374 5374 5460 5832 5832 5832 5832 5734 5640 5548 5460 5374 5291 5291 5291 5374 0 0 0 0 0 0 0 0 0 0 0 0 0 0 0 0 0 0 0 0
0 0 0 0 0 0 0 0 0 0 0 0 0 0 0 0 0 0 0 0 0 0 0 0 0 0 0 0 0 0 0 0 2767 2767 2767 2767 2767 2789 2789 2789 2789 2812 2812 2812 2835 2835 2835 2859 2859 2859 2883 2908 2908 2933 2933 2933 2908 2908 2908 2933 2933 2933 2933 3010 3037 3010 3010 3010 2958 2958 2958 2984 2958 2958 2958 0 0 0 0 0 0 0 0 0 0 0 0 0 0 0 0 0 0 0 0 0 0 0 0 0 0 0 0 0 0 0 0 0 0 0 0 0 0 0 0 0 0 0 0 0 0 0 0 0 4774 4774 4774 4774 4774 4708 4708 4842 4774 4774 4774 0 0 0 0 0 0 0 0 0 0 0 0 0 0 0 0 0 0 0 0 1586 1579 1579 1579 1572 1572 1572 1572 1579 1579 1579 1586 1586 1586 1594 1594 1601 1609 1616 1632 1639 1663 1663 1671 0 0 0 0 0 0 0 0 0 0 0 0 1523 1523 1523 1523 1516 1516 1516 1516 1503 1503 1503 1496 1496 1496 1489 1489 1496 1496 1496 1496 1489 1489 1489 1489 1483 1477 1477 1477 1477 1477 1477 1477 1477 1477 1477 1477 1477 1477 1477 1477 1477 1470 1470 1470 1470 1464 1458 1458 1458 1452 1452 1445 1445 1452 1439 1439 1439 1439 1445 1445 1452 1452 1452 1458 1458 1458 1970 1970 1970 1970 1970 1970 1970 1959 1959 1959 1947 1947 1947 1959 1959 1970 1981 1993 1993 1993 1993 1993 1307 1307 1307 1307 1307 1307 1307 1307 1307 1307 1307 1307 1307 1307 1307 1307 1307 1307 1307 1307 1302 1302 1302 1302 1297 1297 1297 1292 1288 1288 1288 1288 1283 1283 1283 1283 1283 1278 1278 1268 1268 1268 1268 1268 1268 1268 1264 1264 1264 1264 1259 1255 1255 1250 1250 1245 1245 1245 1245 1245 1245 1245 1245 1245 1245 1250 2053 2028 2028 2028 2028 2028 2040 1236 1236 2040 2040 2040 2053 2053 2053 2053 2053 2065 2065 2053 2053 2053 2028 2028 2028 2028 2028 2028 2028 2028 2040 2053 2053 2053 2065 2053 2053 2053 2053 2053 2053 2053 2053 2053 2065 2078 2065 2065 2065 2065 2065 2065 2065 2065 2065 2065 2065 2065 2065 2065 2065 2065 2078 2078 2078 2078 2090 2078 2053 2053 2053 2053 2053 2053 2053 2053 2053 2053 2053 2053 2053 2053 3010 3010 3010 3010 3010 3010 2984 2984 2958 2958 2958 2958 2958 2958 2129 2129 2143 2143 2143 2143 2143 2143 2143 2129 2129 2129 2116 2116 2116 2116 2116 2116 2116 2116 2116 2103 2103 2103 2103 2116 2116 2103 2103 2103 2103 2103 2103 2103 2090 2090 2090 2090 2090 2090 2090 2090 2090 2090 2090 2078 2078 2078 2065 2065 2065 2065 2065 2053 2053 2053 2053 2053 2040 2040 2040 2028 2028 2028 2028 2016 2016 2016 2016 2005 2005 2005 2005 2005 4241 4241 4241 4241 4241 1981 1981 1981 1981 1981 1981 1981 1981 1981 1981 1970 1970 1970 1970 0 0 0 0 0 0 0 0 0 0 0 0 5832 5832 5832 5832 5734 5734 5734 5734 5734 5734 5640 5548 5548 5734 5640 5640 5640 0 0 5832 5832 5734 5640 5640 5640 5640 5640 5640 5640 5640 5548 5548 5640 5734 5734 5832 5832 5832 5832 5734 5734 5734 5734 5832 5832 5734 5548 5548 5548 5548 5548 5460 5460 5548 5548 5548 5291 5374 5374 5374 5460 5460 5460 5460 5640 5640 5548 5548 5460 5374 5291 5291 5291 5374 0 0 0 0 0 0 0 0 0 0 0 0 0 0 0 0 0 0 0 0
0 0 0 0 0 0 0 0 0 0 0 0 0 0 0 0 0 0 0 0 0 0 0 0 0 0 0 0 0 0 0 0 2767 2767 2767 2767 2767 2767 2789 2789 2789 2812 2812 2835 2835 2835 2859 2859 2859 2859 2883 2908 2908 2933 2933 2933 2908 2908 2908 2933 2933 2933 2933 0 0 3010 3010 2984 2958 2958 2958 2984 2958 2958 2958 0 0 0 0 0 0 0 0 0 0 0 0 0 0 0 0 0 0 0 0 0 0 0 0 0 0 0 0 0 0 0 0 0 0 0 0 0 0 0 0 0 0 0 0 0 0 0 0 0 4774 4774 4774 4774 4774 4708 4708 4774 4774 4774 4774 4842 4842 0 0 0 0 0 0 0 0 0 0 0 0 0 0 0 0 0 0 0 1579 1579 1579 1572 1572 1572 1579 1579 1579 1579 1586 1586 1586 1586 1594 1601 1601 1609 1624 1663 1663 1663 1671 0 0 0 0 0 0 0 0 0 0 0 1843 1853 1853 1853 1853 1853 1853 1853 1853 1853 1863 1863 1863 1863 1873 1873 1496 1496 1496 1496 1496 1496 1489 1489 1489 1483 1470 1470 1477 1470 1470 1470 1477 1477 1477 1477 1477 1477 1477 1477 1470 1470 1470 1470 1464 1464 1464 1458 1458 1458 1458 1452 1452 1452 1452 1439 1439 1439 1445 1445 1445 1452 1452 1458 1458 1458 1458 1970 1959 1926 1926 1947 1947 1947 1947 1947 1947 1936 1936 1947 1947 1947 1947 1970 1970 1970 1981 1981 1302 1307 1307 1307 1307 1307 1307 1307 1307 1307 1307 1307 1307 1307 1307 1307 1307 1302 1302 1307 1302 1302 1302 1302 1302 1297 1297 1292 1292 1288 1288 1288 1288 1283 1283 1283 1283 1278 1278 1273 1273 1268 1268 1268 1268 1268 1264 1264 1264 1264 1259 1259 1255 1255 1250 1250 1245 1245 1245 1245 1245 1245 1245 1245 1245 1245 1241 1241 1241 1236 1236 1232 1232 1232 1236 1236 1236 1236 2028 2040 2040 2053 2053 2053 2065 2065 2053 2040 2028 2016 2016 2016 2016 2016 2028 2028 2028 2040 2040 2040 2040 2040 2053 2040 2040 2040 2040 2040 2040 2028 2028 2040 2053 2053 2040 2040 2053 2053 2053 2053 2053 2053 2053 2053 2053 2065 2053 2053 2065 2065 2065 2065 2065 2065 2065 2040 2040 2040 2040 2040 2040 2040 2040 2053 2053 2053 2053 2053 2053 2053 2065 2065 2040 2040 2040 2984 2958 2958 2958 2958 2958 2958 2958 2129 2129 2129 2129 2129 2143 2143 2129 2129 2129 2129 2116 2103 2103 2103 2103 2103 2103 2103 2103 2116 2103 2103 2103 2103 2103 2103 2103 2103 2103 2103 2103 2103 2103 2103 2090 2090 2090 2090 2090 2090 2090 2090 2090 2090 2090 2078 2078 2065 2065 2065 2065 2065 2053 2053 2053 2053 2053 2040 2040 2028 2028 2028 2028 2028 2028 2028 2016 2016 2016 2005 2005 2005 2005 2005 1993 1993 1993 1981 1981 1981 1981 1981 1981 1981 1981 1981 1981 1981 1970 1970 1970 1970 0 0 0 0 0 0 0 0 0 0 0 0 0 0 5832 5832 5734 5734 5734 5832 5832 5734 5640 5640 5640 5640 5640 5548 5548 5734 5734 5734 5734 5734 5734 5640 5640 5640 5640 5640 5640 5640 5640 5640 5640 5640 5734 5734 5734 5734 5832 5734 5734 5640 5640 5640 5640 5640 5640 5640 5640 5548 5548 5548 5548 5548 5548 0 5291 5291 5291 5374 5374 5374 5374 5374 5548 5548 5548 5548 5460 5374 5374 5291 5291 5374 0 0 0 0 0 0 0 0 0 0 0 0 0 0 0 0 0 0 0 0
0 0 0 0 0 0 0 0 0 0 0 0 0 0 0 0 0 0 0 0 0 0 0 0 0 0 0 0 0 0 0 0 2789 2789 2767 2767 2767 2767 2789 2789 2789 2812 2835 2835 2835 2835 2859 2883 2883 2883 2883 2908 2908 2933 2958 2958 2908 2908 2908 2933 0 0 0 0 0 0 3010 2984 2958 2958 2958 2958 2958 2958 2958 0 0 0 0 0 0 0 0 0 0 0 0 0 0 0 0 0 0 0 0 0 0 0 0 0 0 0 0 0 0 0 0 0 0 0 0 0 0 0 0 0 0 0 0 0 0 0 0 0 4774 4774 4774 4774 4774 4708 4708 4774 4774 4774 4774 4774 4842 0 0 0 0 0 0 0 0 0 0 0 0 0 0 0 0 0 0 0 1594 1586 1586 1579 1579 1579 1579 1579 1579 1579 1586 1586 1586 1586 1594 1594 1601 1609 1624 1624 1663 1663 1671 0 0 0 0 0 0 0 0 0 0 0 1843 1843 1843 1843 1853 1853 1853 1853 1853 1853 1863 1863 1863 1863 1863 1863 1863 1894 1883 1883 1883 1883 1873 1873 1863 1863 1470 1470 1470 1470 1470 1470 1477 1477 1477 1477 1477 1483 1483 1477 1470 1470 1470 1470 1464 1458 1458 1458 1458 1458 1458 1452 1452 1452 1452 1439 1439 1445 1445 1445 1445 1452 1452 1458 1458 1458 1458 1970 1959 1926 1926 1915 1915 1915 1915 1915 1936 1936 1936 1936 1936 1936 1936 1936 1947 1947 1981 1981 1302 1302 1302 1307 1307 1312 1312 1312 1312 1307 1307 1307 1307 1307 1307 1307 1307 1302 1302 1307 1302 1302 1302 1302 1297 1297 1297 1292 1292 1288 1288 1288 1283 1283 1283 1278 1278 1273 1273 1273 1268 1268 1268 1268 1268 1268 1264 1264 1264 1264 1259 1259 1255 1255 1250 1250 1245 1245 1245 1245 1245 1245 1245 1245 1245 1241 1241 1241 1236 1236 1232 1232 1232 1232 1236 1232 1232 1227 1227 2028 2028 2040 2040 2053 2053 2053 2053 2040 2016 2016 2016 2016 2016 2016 2016 2016 2028 2028 2028 2028 2028 2028 2028 2016 2016 2016 2016 2016 2016 2016 2016 2028 2016 2016 2028 2028 2016 2005 2005 2028 2016 2016 2040 2053 2053 2053 2040 2040 2053 2053 2053 2053 2053 2053 2053 2028 2028 2028 2028 2040 2040 2040 2040 2040 2053 2053 2053 2053 2053 2040 2040 2028 2028 2028 2016 2016 2028 2028 2016 2016 2040 2040 2040 2040 2053 2129 2129 2129 2129 2129 2129 2129 2129 2129 2116 2103 2090 2090 2103 2103 2103 2090 2090 2103 2103 2103 2103 2103 2103 2103 2103 2103 2103 2103 2090 2090 2090 2090 2090 2090 2090 2090 2090 2090 2090 2090 2090 2090 2090 2078 2078 2065 2065 2065 2065 2065 2053 2053 2053 2053 2053 2040 2040 2028 2028 2028 2028 2028 2028 2028 2028 2028 2016 2016 2016 2016 2005 2005 1993 1993 1993 1981 1981 1993 1993 1993 1993 1981 1981 1981 1981 1981 1981 1981 1981 1981 0 0 0 0 0 0 0 0 0 0 0 0 0 0 5832 5832 5832 5832 5832 5832 5832 5734 5734 5640 5640 5640 5640 5548 5548 5734 5734 5734 5734 5734 5640 5640 5640 5640 5640 5640 5640 5640 5548 5548 5640 5640 5734 5640 5640 5734 5734 5734 5640 5640 5640 5640 5640 5640 5548 5548 5548 5548 0 0 0 0 0 0 5210 5210 5291 5291 5374 5374 5374 5374 5548 5548 5548 5548 5460 5374 5374 5291 5291 5374 0 0 0 0 0 0 0 0 0 0 0 0 0 0 0 0 0 0 0 0
0 0 0 0 0 0 0 0 0 0 0 0 0 0 0 0 0 0 0 0 0 0 0 0 0 0 0 0 0 0 0 0 2789 2789 2789 2767 2767 2789 2789 2789 2789 2812 2812 2835 2835 2835 2859 2883 2883 2883 2883 2883 2908 2933 2958 2958 2908 2908 2958 0 0 0 0 0 0 0 0 2984 2958 2958 2958 2958 2958 2958 2958 0 0 0 0 0 0 0 0 0 0 0 0 0 0 0 0 0 0 0 0 0 0 0 0 0 0 0 0 0 0 0 0 0 0 0 0 0 0 0 0 0 0 0 0 0 0 0 0 0 4708 4708 4708 4708 4708 4708 4708 4708 4708 4708 4774 4774 0 0 0 0 0 0 0 0 0 0 0 0 0 0 0 0 0 0 0 0 1594 1594 1586 1579 1579 1579 1579 1579 1579 1579 1586 1586 1586 1586 1594 1594 1601 1609 1616 0 0 0 0 0 0 0 0 0 0 0 0 0 0 1823 1833 1833 1833 1833 1833 1833 1833 1833 1833 1833 1833 1863 1853 1853 1853 1853 1863 1873 1873 1873 1873 1873 1873 1873 1863 1863 1863 1863 1470 1470 1470 1470 1477 1483 1483 1477 1477 1883 1883 1883 1873 1873 1863 1863 1458 1458 1458 1458 1452 1452 1458 1458 1452 1452 1452 1445 1445 1445 1445 1445 1445 1452 1458 1458 1458 1458 1458 1894 1894 1894 1883 1883 1883 1894 1894 1894 1894 1904 1904 1904 1904 1894 1894 1894 1894 1894 1894 1894 1894 1302 1302 1307 1307 1312 1312 1312 1312 1307 1307 1307 1307 1307 1307 1307 1307 1302 1302 1307 1302 1302 1302 1302 1297 1297 1292 1292 1292 1288 1288 1288 1283 1278 1278 1278 1273 1273 1273 1273 1268 1268 1268 1264 1264 1264 1264 1259 1259 1259 1255 1255 1255 1255 1250 1245 1245 1245 1245 1245 1245 1245 1241 1241 1241 1241 1236 1236 1236 1232 1232 1232 1232 1232 1232 1232 1232 1227 1227 1219 1219 1219 1219 1223 2053 1227 1227 1227 1232 2005 2005 2005 2005 2005 2016 2016 2016 2016 2016 2016 2016 2016 2016 2005 2005 2005 2005 2005 2005 2005 2005 2005 2005 2005 2005 2005 2005 2005 2005 2016 2016 2016 2040 2040 2040 2040 2040 2040 2040 2040 2040 2040 2040 2040 2028 2005 2005 2005 2005 2016 2016 2028 2028 2028 2040 2040 2040 2040 2028 2028 2028 2016 2016 2016 2016 2016 2016 2016 2016 2016 2016 2016 2028 2040 2040 2040 2040 2016 2016 2129 2053 2053 2053 2053 2053 2040 2040 2040 2053 2065 2078 2078 2078 2090 2103 2090 2090 2090 2103 2103 2090 2090 2090 2090 2078 2078 2078 2078 2090 2090 2090 2090 2090 2090 2090 2090 2090 2090 2090 2078 2078 2065 2065 2065 2065 2053 2053 2053 2053 2053 2053 2040 2040 2040 2040 2028 2028 2028 2028 2028 2028 2028 2016 2016 2016 2016 2005 2005 2005 2005 1993 1993 1993 1993 1993 1993 1993 1981 1981 1981 1981 1981 1981 1981 1981 1981 0 0 0 0 0 0 0 0 0 0 0 0 0 0 0 5832 5832 5832 5832 5832 5832 5734 5640 5548 5548 5548 5548 5374 5374 5374 5640 5640 5640 5640 5640 5640 5640 5640 5640 5640 5640 5640 5548 5548 5548 5734 5640 5640 5640 5640 5640 5640 5640 5548 5548 5548 5640 5548 5548 5548 5548 5548 0 0 0 0 0 0 5210 5210 5291 5291 5374 5460 5460 5460 5548 5548 5548 5460 5291 5291 5210 5210 5210 5210 5210 0 0 0 0 0 0 0 0 0 0 0 0 0 0 0 0 0 0 0
0 0 0 0 0 0 0 0 0 0 0 0 0 0 0 0 0 0 0 0 0 0 0 0 0 0 0 0 0 0 0 0 2789 2789 2789 2789 2789 2812 2812 2812 2812 2812 2812 2835 2835 2859 2859 2883 2859 2859 2883 2883 2883 2933 2958 2984 0 0 0 0 0 0 0 0 0 0 0 0 2958 2958 2958 2958 2958 2958 2958 0 0 0 0 0 0 0 0 0 0 0 0 0 0 0 0 0 0 0 0 0 0 0 0 0 0 0 0 0 0 0 0 0 0 0 0 0 0 0 0 0 0 0 0 0 0 0 0 0 4708 4708 4708 4645 4645 4645 4645 4645 4645 4708 4774 4774 4842 0 0 0 0 0 0 0 0 0 0 0 0 0 0 0 0 0 0 0 1594 1594 1586 1579 1579 1579 1579 1579 1586 1586 1586 1586 1586 1586 1594 1594 1601 1609 1616 0 0 0 0 0 0 0 0 0 0 0 0 0 0 1823 1823 1823 1833 1833 1833 1833 1833 1833 1833 1833 1833 1833 1833 1843 1843 1843 1853 1853 1853 1863 1853 1853 1853 1853 1863 1863 1863 1863 1863 1863 1863 1863 1863 1863 1863 1873 1873 1873 1873 1873 1873 1873 1863 1863 1863 1458 1452 1452 1452 1452 1452 1452 1452 1452 1452 1445 1445 1445 1445 1452 1452 1458 1458 1458 1464 1464 1464 1894 1894 1883 1873 1873 1873 1883 1883 1883 1883 1894 1894 1894 1883 1883 1883 1883 1883 1883 1873 1873 1873 1883 1883 1307 1307 1312 1312 1312 1312 1312 1312 1307 1307 1307 1307 1307 1307 1302 1302 1307 1302 1302 1302 1302 1297 1297 1292 1292 1292 1288 1288 1288 1283 1278 1278 1273 1273 1273 1273 1273 1268 1268 1268 1264 1264 1259 1259 1259 1259 1259 1255 1255 1255 1255 1250 1245 1245 1245 1245 1245 1241 1241 1241 1241 1241 1236 1236 1236 1236 1232 1232 1227 1227 1227 1232 1232 1227 1227 1227 1219 1219 1219 1219 1223 1223 1223 1223 1223 1223 1223 1970 2005 2005 2005 2016 2016 2016 2016 2005 2005 2005 2005 2005 1993 1993 1993 1993 1981 1981 1993 1993 1993 1993 1993 1993 1993 1993 2005 2005 2016 2016 2016 2040 2040 2028 2028 2028 2028 1181 1181 2028 2028 2028 1185 1185 2005 2005 2005 2005 2005 2005 2005 2005 2005 2016 2016 2005 2005 2005 2005 2005 2005 2005 2005 2005 2005 2005 2005 2005 2005 2016 2016 2016 2016 2005 2005 2005 2005 2005 2005 2016 2016 2016 2016 2016 2016 2016 2016 2016 2016 2028 2053 2040 2040 2090 2090 2090 2090 2090 2090 2090 2078 2078 2005 2005 2040 2040 2065 2078 2078 2078 2078 2090 2090 2090 2090 2090 2090 2090 2078 2078 2065 2065 2065 2065 2053 2053 2053 2053 2053 2053 2040 2040 2040 2040 2028 2028 2028 2028 2028 2028 2028 2016 2016 2016 2016 2005 2005 2005 2005 1993 1993 1993 1993 1993 1993 1993 1981 1981 1981 1981 1981 1981 1981 1981 0 0 0 0 0 0 0 0 0 0 0 0 0 0 0 0 0 5832 5832 5832 5832 5734 5640 5640 5548 5460 5374 5374 5374 5374 5374 5640 5640 5640 5548 5548 5640 5640 5640 5640 5640 5640 5640 0 5640 0 5734 5640 5640 5640 5640 5640 5640 5640 5548 5548 5548 5640 5548 5548 5548 5548 5548 0 0 0 0 0 0 0 0 0 0 0 0 0 5548 5548 5548 5548 5374 5291 5210 5210 5210 5210 5210 5056 5056 0 0 0 0 0 0 0 0 0 0 0 0 0 0 0 0 0 0
0 0 0 0 0 0 0 0 0 0 0 0 0 0 0 0 0 0 0 0 0 0 0 0 0 0 0 0 0 0 0 0 2789 2789 2789 2789 2789 2812 2812 2812 2812 2812 2812 2835 2859 2859 2859 2883 2859 2859 2883 2883 2883 2933 2933 0 0 0 0 0 0 0 0 0 0 0 0 0 2958 2958 2958 2958 2958 2958 2958 0 0 0 0 0 0 0 0 0 0 0 0 0 0 0 0 0 0 0 0 0 0 0 0 0 0 0 0 0 0 0 0 0 0 0 0 0 0 0 0 0 0 0 0 0 0 0 0 0 0 4645 4582 4582 4582 4582 4582 4582 4582 4645 4774 4774 4842 0 0 0 0 0 0 0 0 0 0 4645 4645 4708 4774 0 0 0 0 0 1594 1594 1586 1579 1579 1579 1579 1579 1586 1586 1586 1586 1586 1586 1594 1594 1601 1609 1609 0 0 0 0 0 0 0 0 0 0 0 0 0 0 1823 1813 1813 1823 1823 1823 1833 1833 1833 1833 1823 1823 1823 1823 1823 1813 1813 1823 1843 1843 1843 1833 1833 1833 1843 1843 1853 1853 1853 1853 1853 1863 1863 1863 1853 1853 1863 1863 1863 1863 1863 1863 1863 1853 1853 1853 1853 1452 1452 1452 1452 1452 1452 1452 1452 1452 1445 1445 1445 1445 1452 1452 1458 1458 1464 1464 1470 1470 1873 1873 1873 1863 1863 1863 1863 1863 1873 1873 1873 1873 1873 1873 1873 1873 1873 1873 1873 1863 1863 1863 1873 1873 1312 1312 1312 1312 1312 1312 1312 1312 1312 1312 1307 1307 1307 1307 1302 1302 1307 1307 1302 1302 1297 1297 1292 1292 1292 1292 1292 1292 1288 1283 1278 1278 1273 1273 1273 1273 1273 1268 1268 1268 1264 1264 1259 1259 1259 1259 1259 1255 1255 1255 1255 1245 1245 1245 1245 1245 1241 1241 1241 1241 1241 1241 1236 1236 1236 1232 1227 1227 1227 1227 1227 1227 1227 1227 1227 1227 1219 1219 1219 1219 1219 1219 1223 1219 1219 1219 1219 1219 1219 1214 1214 1214 2005 2005 2005 1993 1993 1993 1993 1993 1993 1993 1993 1981 1981 1981 1981 1981 1981 1981 1981 1993 1993 1993 1993 1993 2005 2016 2016 2040 2040 1181 1181 1181 1181 1181 1181 1181 1181 1181 1181 1185 1185 1993 1993 1993 2005 2005 2005 2005 2005 2005 1993 1993 1993 1993 1993 1993 1993 1993 2005 1993 1993 1993 2005 1993 1993 1993 1993 2005 1993 1993 1981 1981 1981 1981 1993 1993 2005 1993 1993 1993 2005 2005 2005 1993 1993 2005 2016 2005 2005 2005 2005 2005 2005 2005 2005 2005 2005 2005 2005 2005 2016 2016 2016 2028 2078 2078 2078 2078 2078 2090 2090 2090 2090 2078 2078 2078 2065 2053 2053 2065 2065 2053 2053 2053 2053 2053 2040 2040 2040 2028 2028 2028 2028 2028 2028 2028 2028 2016 2016 2016 2005 2005 2005 2005 2005 1993 1993 1993 1993 1993 1993 1993 1993 1981 1981 1981 1981 1981 1981 0 0 0 0 0 0 0 0 0 0 0 0 0 0 0 0 0 0 5832 5832 5832 5832 5734 5640 5548 5460 5460 5374 5374 5374 5374 5374 5640 5640 5548 5460 5460 5548 5640 5640 5640 5640 5640 0 0 0 0 5640 5640 5640 5640 5640 5640 5640 5640 5548 5548 5548 5640 5640 5548 5548 5548 5548 0 0 0 0 0 0 0 0 0 0 0 0 0 0 5548 5548 5548 5291 5210 5210 5210 5210 5210 5132 5056 5056 0 0 0 0 0 0 0 0 0 0 0 0 0 0 0 0 0 0
0 0 0 0 0 0 0 0 0 0 0 0 0 0 0 0 0 0 0 0 0 0 0 0 0 0 0 0 0 0 0 0 2789 2789 2789 2789 2789 2812 2812 2812 2812 2835 2835 2883 2859 2859 2859 2859 2883 2883 2883 2883 2883 2933 2933 0 0 0 0 0 0 0 0 0 0 0 0 0 2958 2958 3037 2984 2958 2958 3064 0 0 0 0 0 0 0 0 0 0 0 0 0 0 0 0 0 4349 4349 0 0 0 0 0 0 0 0 0 0 0 0 0 0 0 0 0 0 0 0 0 0 0 0 0 0 0 0 0 0 0 4582 4522 4522 4522 4522 4582 4582 4582 4582 4708 4708 4842 0 0 0 0 0 0 0 0 0 4774 4582 4582 4582 4645 0 0 0 0 0 0 1594 1586 1579 1579 1579 1579 1579 1586 1586 1586 1586 1586 1586 1594 1594 1601 1609 1609 0 0 0 0 0 0 0 0 0 0 0 1785 1785 1785 1794 1794 1804 1813 1823 1823 1823 1823 1833 1833 1823 1823 1823 1823 1813 1804 1804 1794 1794 1813 1823 1813 1813 1833 1833 1833 1833 1843 1843 1843 1853 1853 1853 1853 1853 1853 1853 1863 1853 1853 1853 1843 1843 1833 1833 1833 1833 1445 1445 1452 1452 1452 1452 1452 1452 1452 1445 1445 1445 1445 1452 1452 1458 1458 1464 1464 1470 1470 1843 1843 1853 1843 1843 1843 1853 1853 1853 1853 1853 1853 1853 1853 1863 1853 1853 1863 1853 1853 1853 1853 1863 1863 1317 1317 1317 1317 1317 1312 1312 1312 1312 1312 1312 1307 1307 1307 1307 1307 1307 1302 1302 1302 1297 1297 1292 1292 1292 1292 1292 1292 1288 1283 1283 1283 1278 1273 1273 1273 1273 1273 1268 1268 1268 1268 1264 1264 1259 1259 1259 1259 1255 1255 1255 1245 1245 1245 1245 1245 1241 1241 1241 1241 1241 1236 1236 1236 1232 1232 1227 1227 1227 1227 1227 1227 1227 1227 1227 1227 1223 1223 1219 1219 1219 1219 1219 1219 1219 1219 1219 1214 1214 1214 1214 1214 1214 1214 1214 1214 1219 1219 1223 1223 1227 1227 1981 1981 1970 1210 1210 1202 1202 1970 1970 1959 1959 1981 1993 1993 2005 2016 2016 2016 1177 1177 1181 1181 1181 1181 1181 1181 1181 1181 1181 1181 1181 1185 1993 1993 1993 1993 1993 1993 1993 1993 1981 1981 1981 1981 1981 1981 1981 1993 1993 1993 1993 1993 1993 1993 1993 1981 1981 1993 1981 1981 1970 1970 1970 1970 1981 1981 1981 1981 1981 1981 1981 1981 1981 1981 1981 1993 1993 1993 1993 1993 1993 1993 1981 1981 1993 1993 1993 1993 1993 1993 2005 2005 2005 2005 2016 2016 2053 2078 2078 2078 2090 2078 2078 2065 2065 2065 2053 2053 2053 2053 2065 2053 2053 2053 2053 2053 2040 2040 2028 2028 2028 2028 2028 2028 2028 2028 2028 2016 2016 2016 2005 2005 2005 2005 2005 1993 1993 1993 1993 1993 1993 1993 1993 1981 1981 1993 1993 1981 1981 0 0 0 0 0 0 0 0 0 0 0 0 0 0 0 0 0 0 0 0 0 0 0 5640 5460 5374 5374 5374 5374 5374 5460 5460 5548 5548 5548 5460 5460 5548 5640 5640 5640 5640 0 0 0 0 0 5640 5640 5640 5640 5640 5640 5640 5640 5640 5548 5548 5548 5548 5640 0 0 0 0 0 0 0 0 0 0 0 0 0 0 0 0 0 0 5734 5291 5210 5210 5210 5210 5210 5210 5132 4983 4983 4983 4983 0 0 0 0 0 0 0 0 0 0 0 0 0 0 0 0
0 0 0 0 0 0 0 0 0 0 0 0 0 0 0 0 0 0 0 0 0 0 0 0 0 0 0 0 0 0 0 0 2789 2789 2789 2789 2789 2812 2812 2835 2835 2835 2835 2883 2859 2859 2859 2859 2883 2883 2883 2883 2883 2933 0 0 0 0 0 0 0 0 0 0 0 0 0 0 2984 2984 2984 3010 2984 2984 3064 0 0 0 0 0 0 0 0 0 0 0 0 0 0 0 0 4349 4349 4349 4349 4349 0 0 0 0 0 0 0 0 0 0 0 0 0 0 0 0 0 0 0 0 0 0 0 0 0 0 0 0 0 4522 4463 4463 4522 4522 4522 4522 4522 4522 4645 4645 4645 0 0 0 0 0 0 0 0 0 4582 4582 4582 4582 4645 4645 0 0 0 0 0 1594 1594 1579 1579 1586 1586 1586 1586 1586 1586 1586 1586 1586 1594 1594 1601 1601 1609 0 0 0 0 0 0 0 0 0 0 0 1776 1776 1785 1785 1785 1794 1794 1804 1804 1804 1813 1813 1823 1813 1813 1813 1813 1813 1794 1794 1794 1794 1794 1804 1813 1813 1823 1823 1823 1833 1833 1833 1833 1833 1833 1833 1833 1833 1833 1843 1843 1823 1823 1823 1823 1823 1823 1823 1833 1833 1445 1445 1452 1452 1452 1458 1458 1458 1452 1452 1445 1445 1445 1452 1458 1458 1464 1464 1470 1477 1477 1843 1843 1843 1833 1833 1843 1843 1843 1843 1843 1843 1853 1853 1853 1853 1853 1853 1853 1843 1843 1853 1853 1853 1853 1322 1322 1317 1317 1317 1317 1317 1317 1312 1312 1312 1307 1307 1307 1307 1307 1307 1302 1302 1302 1297 1297 1297 1292 1292 1292 1292 1292 1292 1288 1283 1283 1278 1278 1273 1273 1273 1273 1273 1268 1268 1268 1268 1264 1264 1259 1259 1259 1259 1255 1255 1245 1245 1245 1245 1245 1241 1241 1236 1236 1236 1236 1236 1232 1232 1232 1227 1227 1227 1227 1227 1227 1227 1227 1223 1223 1223 1223 1219 1219 1219 1219 1219 1219 1219 1219 1219 1214 1214 1214 1214 1214 1214 1214 1214 1214 1219 1219 1219 1214 1214 1214 1214 1210 1210 1210 1210 1202 1202 1202 1202 1959 1959 1981 1993 1993 1189 1189 1181 1177 1177 1177 1181 1181 1177 1177 1181 1177 1177 1181 1181 1181 1181 1181 1189 1981 1981 1981 1959 1959 1947 1947 1947 1959 1959 1970 1959 1959 1970 1970 1981 1981 1981 1981 1993 1981 1981 1970 1970 1970 1970 1970 1959 1959 1970 1970 1970 1970 1970 1981 1970 1970 1970 1970 1970 1970 1970 1970 1970 1981 1981 1970 1970 1981 1970 1970 1981 1981 1981 1981 1981 1981 1993 1993 1993 1981 1981 1970 1970 1981 2016 2040 2005 2005 2040 2040 2040 2040 2053 2053 2053 2053 2053 2053 2053 2053 2053 2040 2028 2028 2028 2028 2028 2028 2028 2028 2028 2028 2028 2016 2016 2016 2016 2005 2005 2005 2005 2005 1993 1993 1993 1993 1993 1993 1981 1981 1981 1993 1993 1981 1981 0 0 0 0 0 0 0 0 0 0 0 0 0 0 0 0 0 0 0 0 0 0 0 0 5460 5374 5374 5374 5374 5374 5374 5460 5548 5548 5548 5548 5548 5640 5640 5640 5640 0 0 0 0 0 0 5548 5548 5548 5548 5548 5548 5548 5548 5640 5548 5548 5548 5548 0 0 0 0 0 0 0 0 0 0 0 0 0 0 0 0 0 0 0 0 5291 5210 5210 5210 5210 5210 5210 5210 4983 4983 4983 4983 0 0 0 0 0 0 0 0 0 0 0 0 0 0 0 0
0 0 0 0 0 0 0 0 0 0 0 0 0 0 0 0 0 0 0 0 0 0 0 0 0 0 0 0 0 0 0 0 2789 2789 2767 2744 2744 2789 2812 2835 2835 2859 0 0 0 0 2859 2859 2883 2883 2883 2908 2908 2984 0 0 0 0 0 0 0 0 0 0 0 0 0 0 2984 2984 2984 3010 3010 3010 3037 0 0 0 0 0 0 0 0 0 0 0 0 0 0 0 0 4349 4349 4349 4349 4349 0 0 0 0 0 0 0 0 0 0 0 0 0 0 0 0 0 0 4405 4405 4463 4463 4522 4463 4463 0 0 0 4405 4405 4405 4405 4463 4463 4463 4463 4463 4522 4522 4522 4522 4522 0 0 0 0 0 0 0 0 4582 4582 4522 4522 4522 4582 0 0 0 0 0 0 1601 1586 1586 1586 1586 1586 1586 1586 1586 1586 1586 1586 1594 1594 1601 1601 1609 0 1757 1757 1757 1766 0 0 0 0 0 0 1776 1776 1776 1785 1785 1785 1785 1785 1785 1785 1794 1804 1813 1804 1804 1804 1804 1794 1785 1785 1785 1785 1785 1794 1794 1794 1813 1813 1813 1813 1813 1823 1823 1823 1823 1813 1813 1813 1813 1813 1804 1804 1804 1804 1804 1813 1823 1823 1823 1823 1833 1452 1452 1452 1452 1458 1458 1458 1452 1452 1445 1445 1445 1452 1458 1458 1464 1464 1464 1477 1477 1833 1833 1823 1823 1823 1823 1823 1833 1833 1833 1833 1833 1843 1843 1843 1843 1843 1843 1833 1833 1843 1843 1853 1853 1853 1317 1317 1317 1317 1317 1317 1317 1317 1312 1312 1307 1307 1307 1307 1307 1307 1302 1302 1302 1297 1297 1297 1292 1292 1292 1292 1292 1292 1288 1283 1283 1278 1278 1278 1278 1273 1273 1273 1273 1268 1268 1268 1268 1264 1264 1264 1259 1259 1255 1255 1245 1245 1245 1245 1245 1241 1241 1236 1236 1236 1236 1236 1232 1232 1232 1232 1232 1227 1227 1227 1227 1227 1227 1223 1223 1223 1223 1219 1219 1219 1219 1219 1214 1214 1214 1214 1214 1214 1214 1214 1214 1214 1214 1214 1214 1214 1214 1214 1210 1210 1210 1210 1206 1206 1206 1206 1202 1202 1202 1202 1202 1981 1202 1202 1189 1189 1189 1181 1177 1177 1177 1177 1177 1177 1177 1177 1177 1177 1177 1177 1181 1181 1181 1189 1981 1981 1981 1936 1936 1926 1926 1926 1936 1936 1936 1936 1936 1926 1926 1926 1926 1926 1915 1915 1936 1947 1947 1947 1947 1947 1947 1947 1947 1947 1947 1947 1947 1947 1959 1959 1947 1947 1947 1947 1947 1947 1947 1947 1959 1959 1959 1947 1947 1947 1947 1970 1970 1970 1970 1970 1970 1981 1970 1970 1959 1959 1959 1947 1947 1947 1947 1959 1970 2005 1993 1993 2005 2005 2028 2028 2040 2040 2040 2053 2053 2040 2040 2028 2028 2028 2028 2028 2028 2028 2028 2028 2028 2016 1993 1947 1947 1993 2005 2005 2005 2005 1993 1993 1993 1993 1993 1981 1981 1981 1981 1981 1993 1993 1981 1981 0 0 0 0 0 0 0 0 0 0 0 0 0 0 0 0 0 0 0 0 0 0 0 0 0 5374 5374 5374 5374 5374 5374 5374 5374 5374 0 0 0 0 0 0 0 0 0 0 0 0 0 5460 5460 5460 5460 5548 5548 5548 5548 5548 5548 5548 0 0 0 0 0 0 0 0 0 0 0 0 0 0 0 0 0 0 0 0 0 0 5291 5210 5210 5210 5210 5210 5210 5210 5210 5210 0 0 0 0 0 0 0 0 0 0 0 0 0 0 0 0 0 0
0 0 0 0 0 0 0 0 0 0 0 0 0 0 0 0 0 0 0 0 0 0 0 0 0 0 0 0 0 0 0 0 2789 2767 2744 2723 2723 2789 0 0 0 0 0 0 0 0 0 0 0 2908 2908 2933 2933 2984 0 0 0 0 0 0 0 0 0 0 0 0 0 0 0 3010 3010 3010 3010 3037 3037 0 0 0 0 0 0 0 0 0 0 0 0 0 0 0 0 4349 4349 4349 4349 4349 0 0 0 0 0 0 0 0 0 0 0 0 0 0 0 0 4349 4349 4349 4405 4463 4463 4463 4463 4463 4463 0 4349 4349 4349 4349 4405 4405 4463 4463 4463 4463 4463 4522 4522 4522 4522 0 0 0 0 0 0 0 0 4522 4522 4463 4463 4463 4522 4522 0 0 0 0 0 1601 1586 1586 1586 1586 1586 1586 1586 1586 1586 1586 1586 1594 1601 1609 1609 1609 0 1748 1748 1748 1748 1757 1757 1757 1766 0 0 1766 1766 1766 1766 1776 1776 1766 1766 1766 1766 1776 1776 1794 1794 1794 1794 1794 1785 1785 1776 1776 1776 1776 1785 1785 1785 1794 1804 1804 1804 1804 1804 1804 1804 1804 1804 1794 1794 1794 1794 1794 1794 1794 1794 1794 1794 1804 1813 1813 1813 1813 1452 1452 1452 1458 1458 1458 1458 1458 1452 1452 1452 1452 1458 1458 1458 1464 1464 1464 1477 1477 1813 1813 1813 1813 1813 1813 1813 1813 1813 1823 1823 1833 1833 1833 1833 1833 1833 1843 1833 1833 1833 1833 1853 1853 0 1322 1322 1317 1317 1317 1317 1317 1317 1312 1312 1307 1307 1307 1307 1307 1307 1307 1302 1302 1297 1297 1297 1292 1292 1292 1292 1292 1292 1288 1288 1283 1283 1278 1278 1278 1278 1273 1273 1273 1273 1268 1268 1268 1268 1268 1268 1264 1259 1255 1255 1250 1250 1245 1245 1245 1241 1241 1236 1236 1236 1236 1236 1236 1236 1232 1232 1232 1232 1227 1227 1227 1227 1227 1223 1223 1223 1223 1219 1219 1219 1219 1214 1214 1214 1214 1214 1214 1214 1214 1210 1210 1210 1210 1210 1214 1214 1210 1210 1210 1210 1210 1210 1206 1206 1206 1206 1202 1202 1202 1202 1197 1197 1197 1193 1189 1189 1185 1181 1177 1177 1177 1177 1177 1177 1177 1177 1177 1177 1177 1177 1181 1181 1185 1189 1193 1193 1193 1936 1936 1904 1904 1904 1915 1915 1915 1915 1915 1915 1915 1915 1915 1915 1904 1904 1904 1915 1915 1926 1926 1926 1936 1936 1936 1936 1936 1936 1936 1947 1947 1947 1936 1936 1936 1936 1936 1936 1936 1936 1936 1947 1947 1936 1936 1936 1936 1936 1936 1936 1936 1947 1947 1947 1947 1947 1947 1947 1947 1936 1936 1936 1936 1936 1936 1936 1936 1947 1936 1936 1936 1947 1959 1959 1959 1959 1959 1947 1926 1926 1947 1915 1915 1947 1947 1947 1947 1981 1947 1936 1936 1936 1936 1947 1970 1981 2005 2005 1993 1981 1981 1981 1981 1981 1981 1981 1981 1981 1981 1981 1981 1981 0 0 0 0 0 0 0 0 0 0 0 0 0 0 0 0 0 0 0 0 0 0 0 0 5374 5374 5374 5374 5374 5374 5374 5374 5374 5374 0 0 0 0 0 0 0 0 0 0 0 0 0 5460 5460 5460 5460 5548 5548 5548 5548 5548 5548 0 0 0 0 0 5210 5210 5210 5210 0 0 0 0 0 0 0 0 0 0 0 0 0 0 0 5210 5210 5210 5210 5210 5210 5210 5210 5210 0 0 0 0 0 0 0 0 0 0 0 0 0 0 0 0 0 0
0 0 0 0 0 0 0 0 0 0 0 0 0 0 0 0 0 0 0 0 0 0 0 0 0 0 0 0 0 0 0 0 2789 2767 2744 2723 2723 0 0 0 0 0 0 0 0 0 0 0 0 2908 2908 2933 2933 2958 2958 0 0 0 0 0 0 0 0 0 0 0 0 0 0 0 2984 2984 2984 3010 3010 0 0 0 0 0 0 0 0 0 0 0 0 0 0 0 0 4349 4349 4295 4295 4295 4295 0 0 0 0 0 0 0 0 0 0 0 0 0 0 4349 4349 4349 4349 4405 4405 4405 4405 4463 4463 4463 0 4349 4349 4349 4349 4349 4405 4405 4405 4405 4405 4463 4463 4522 4522 4522 4582 0 0 0 0 0 0 4522 4522 4463 4463 4463 4463 4463 4463 0 0 0 0 1616 1609 1594 1594 1594 1594 1594 1594 1594 1594 1594 1594 1594 1594 1601 1609 1609 1609 1609 1739 1739 1739 1739 1748 1748 1748 1757 1757 1757 1748 1748 1748 1748 1757 1757 1748 1748 1748 1748 1748 1748 1748 1748 1776 1776 1776 1776 1776 1766 1766 1766 1776 1776 1776 1776 1785 1785 1785 1785 1785 1785 1785 1785 1776 1776 1776 1776 1785 1785 1785 1785 1785 1785 1785 1785 1794 1794 1794 1794 1794 1458 1458 1458 1464 1464 1464 1464 1464 1452 1452 1452 1452 1458 1458 1458 1464 1464 1464 1470 1470 1813 1813 1804 1804 1813 1813 1813 1813 1813 1813 1813 1813 1813 1823 1823 1813 1813 1813 1813 1823 1823 1823 1823 1823 0 1322 1322 1322 1322 1317 1317 1317 1317 1312 1312 1307 1307 1307 1307 1307 1307 1307 1307 1302 1302 1297 1297 1297 1297 1292 1292 1292 1292 1288 1288 1288 1283 1283 1278 1278 1278 1278 1273 1273 1273 1273 1273 1268 1268 1268 1268 1268 1264 1255 1255 1250 1250 1245 1245 1245 1245 1241 1236 1236 1241 1236 1236 1236 1236 1236 1232 1232 1232 1232 1232 1227 1227 1227 1223 1223 1223 1223 1223 1219 1219 1219 1214 1214 1214 1214 1214 1214 1214 1210 1210 1210 1210 1210 1210 1214 1210 1210 1210 1210 1210 1210 1210 1206 1206 1206 1202 1202 1197 1197 1197 1197 1197 1197 1193 1189 1189 1185 1181 1177 1177 1177 1177 1177 1177 1177 1177 1173 1173 1177 1177 1177 1181 1185 1189 1193 1193 1193 1873 1883 1883 1883 1883 1883 1894 1904 1904 1904 1915 1915 1904 1904 1904 1894 1894 1894 1894 1894 1894 1894 1894 1915 1904 1904 1894 1894 1904 1915 1926 1926 1926 1926 1926 1926 1915 1915 1915 1915 1926 1926 1936 1936 1926 1926 1926 1926 1926 1926 1926 1926 1926 1926 1926 1926 1926 1926 1926 1926 1915 1915 1926 1926 1936 1926 1926 1926 1926 1926 1926 1926 1926 1926 1926 1926 1926 1926 1926 1926 1926 1915 1915 1915 1915 1915 1936 1936 1947 1915 1915 1915 1915 1926 1926 1926 1926 1947 1947 1947 1936 1936 1947 1959 1970 1970 1970 1970 1970 1981 1981 1959 1959 0 0 0 0 0 0 0 0 0 0 0 0 0 0 0 0 0 0 0 0 0 0 0 5291 5291 5291 5291 5291 5374 5374 5374 5374 5374 5460 0 0 0 0 0 0 0 0 0 0 0 0 0 5460 5374 5374 5460 5460 5548 5548 5548 5640 5640 0 0 0 0 5374 5210 5210 5210 5210 5291 0 0 0 0 0 0 0 0 0 0 0 0 0 0 5210 5210 5210 5210 5210 5210 5210 5210 5210 0 0 0 0 0 0 0 0 0 0 0 0 0 0 0 0 0 0
0 0 0 0 0 0 0 0 0 0 0 0 0 0 0 0 0 0 0 0 0 0 0 0 0 0 0 0 0 0 0 0 2789 2789 0 0 0 0 0 0 0 0 0 0 0 0 0 0 0 2933 2933 2933 2933 2908 2908 2933 0 0 0 4139 4139 4139 4139 0 0 0 0 0 0 2984 2984 2984 2984 3010 3010 0 0 0 4295 4295 0 4139 4139 0 0 0 0 0 0 0 0 4349 4295 4295 4241 4241 4241 0 0 0 0 0 0 0 0 0 0 0 0 0 4295 4295 4349 4349 4349 4349 4349 4349 4349 4405 4463 4463 0 4349 4349 4349 4349 4349 4349 4405 4405 4405 4405 4463 4463 4463 4463 4463 4522 0 0 0 0 0 0 4463 4463 4463 4463 4405 4405 4463 4405 4349 4349 0 0 1616 1616 1594 1594 1594 1594 1594 1594 1594 1594 1594 1594 1594 1601 1609 1609 1616 1616 1616 1731 1731 1739 1739 1739 1739 1748 1748 1739 1739 1739 1739 1739 1748 1748 1748 1739 1739 1739 1739 1739 1739 1748 1748 1757 1757 1766 1766 1766 1766 1766 1766 1766 1776 1776 1776 1776 1766 1757 1757 1757 1757 1757 1757 1757 1757 1757 1766 1776 1766 1766 1776 1776 1776 1766 1766 1776 1776 1776 1785 1785 1464 1464 1470 1464 1464 1464 1464 1464 1458 1458 1458 1458 1458 1458 1458 1464 1464 1464 1470 1477 1477 1794 1794 1794 1794 1794 1794 1794 1794 1804 1794 1794 1794 1813 1813 1813 1804 1804 1804 1813 1813 1813 1813 0 1317 1317 1322 1322 1322 1317 1317 1317 1317 1312 1312 1312 1312 1312 1312 1307 1307 1307 1307 1307 1302 1297 1297 1297 1297 1292 1292 1292 1292 1288 1288 1288 1288 1283 1283 1283 1283 1278 1273 1273 1273 1273 1273 1273 1273 1268 1268 1268 1264 1259 1259 1250 1250 1250 1250 1250 1245 1245 1245 1241 1241 1241 1241 1236 1236 1236 1236 1232 1232 1232 1232 1227 1227 1227 1223 1223 1223 1223 1223 1219 1219 1219 1214 1214 1214 1214 1214 1214 1210 1210 1210 1210 1210 1210 1210 1210 1210 1210 1210 1210 1210 1206 1206 1206 1202 1202 1202 1197 1197 1197 1197 1197 1197 1197 1193 1189 1189 1185 1181 1177 1177 1177 1177 1177 1177 1173 1173 1173 1173 1173 1173 1177 1181 1185 1189 1193 1193 1193 1873 1873 1873 1873 1873 1873 1873 1883 1894 1894 1904 1904 1894 1894 1894 1894 1883 1883 1883 1883 1873 1873 1883 1883 1883 1883 1883 1883 1883 1883 1894 1894 1894 1915 1904 1904 1904 1904 1904 1904 1904 1904 1915 1904 1904 1904 1904 1904 1915 1915 1915 1915 1915 1915 1915 1915 1904 1904 1904 1904 1915 1915 1915 1915 1915 1926 1926 1926 1926 1926 1915 1915 1915 1915 1915 1915 1915 1915 1915 1915 1915 1904 1904 1904 1904 1904 1915 1926 1915 1904 1904 1904 1904 1904 1904 1883 1883 1873 1873 1873 1894 1904 1915 1926 1926 1936 1959 1970 1970 1970 1970 1904 1904 1904 0 0 0 0 0 0 0 0 0 0 0 0 0 0 0 0 0 0 0 0 0 0 5291 5291 5291 5291 5291 5291 5291 5291 5291 5374 5374 5374 0 0 0 0 0 0 0 0 0 0 0 0 5374 5374 5291 5291 5291 5548 5548 5548 5640 5640 0 0 0 0 5291 5291 5291 5291 5291 5291 5291 0 0 0 0 0 0 0 0 0 0 5210 5210 5210 5210 5210 5210 5210 5210 5210 5210 5291 5291 0 0 0 0 0 0 0 0 0 0 0 0 0 0 0 0 0 0
0 0 0 0 0 0 0 0 0 0 0 0 0 0 0 0 0 0 0 0 0 0 0 0 0 0 0 0 0 0 0 0 0 0 0 0 0 0 0 0 0 0 0 0 0 0 0 0 0 0 2958 2933 2933 2908 2908 2908 2908 0 3994 3994 4089 4089 4139 4139 4190 0 0 0 0 0 3064 3064 3064 3037 3037 3037 4295 4295 4295 4241 4089 4089 4089 4089 0 0 0 0 0 0 4241 4241 4295 4241 4241 4190 4190 0 0 0 0 0 0 0 0 0 0 0 0 0 4295 4295 4295 4295 4349 4349 4349 4349 4349 4349 4349 4349 4349 4349 4349 4349 4349 4349 4349 4349 4349 4349 4349 4349 4405 4405 4405 4405 4405 4463 0 0 0 0 0 4463 4463 4405 4405 4405 4405 4405 4405 4295 4295 0 0 1601 0 1601 1601 1594 1594 1594 1594 1594 1594 1594 1594 1594 1601 1609 1609 1616 1616 1616 1731 1731 1739 1739 1739 1739 1739 1739 1739 1731 1731 1739 1739 1739 1739 1739 1739 1739 1739 1731 1731 1731 1731 1739 1739 1748 1748 1748 1748 1748 1748 1748 1748 1748 1757 1757 1748 1748 1739 1739 1748 1748 1748 1748 1748 1757 1757 1757 1757 1757 1757 1757 1757 1757 1757 1757 1757 1757 1766 1766 1766 1776 1470 1470 1470 1464 1464 1464 1464 1458 1458 1458 1458 1458 1458 1458 1464 1464 1464 1470 1477 1477 1776 1776 1776 1776 1776 1776 1776 1776 1785 1776 1776 1776 1776 1776 1776 1785 1785 1785 1794 1794 1794 1794 0 1317 1317 1317 1317 1322 1317 1317 1317 1317 1317 1312 1312 1312 1312 1312 1312 1312 1312 1307 1307 1302 1297 1297 1297 1297 1297 1297 1297 1292 1292 1292 1288 1288 1288 1283 1283 1283 1283 1273 1273 1273 1273 1273 1273 1273 1273 1273 1268 1264 1259 1259 1250 1250 1250 1250 1250 1250 1250 1245 1245 1241 1241 1241 1236 1236 1236 1236 1236 1236 1232 1232 1232 1232 1227 1227 1223 1223 1223 1223 1219 1219 1219 1219 1214 1214 1214 1214 1214 1210 1210 1210 1210 1210 1210 1210 1210 1210 1206 1206 1206 1206 1206 1202 1202 1202 1197 1197 1197 1197 1197 1197 1197 1197 1197 1193 1189 1189 1185 1181 1177 1177 1177 1177 1173 1173 1173 1173 1173 1173 1173 1173 1177 1181 1185 1189 1193 1193 1193 1863 1863 1863 1863 1863 1863 1863 1873 1873 1883 1894 1894 1883 1883 1883 1883 1873 1873 1873 1873 1873 1873 1873 1873 1873 1873 1873 1873 1883 1883 1883 1883 1883 1883 1883 1894 1883 1883 1883 1883 1883 1883 1883 1883 1883 1894 1894 1894 1894 1894 1894 1894 1904 1894 1894 1894 1894 1894 1883 1883 1894 1894 1894 1904 1904 1915 1915 1915 1915 1915 1904 1904 1904 1894 1894 1894 1894 1904 1904 1904 1904 1904 1904 1904 1894 1894 1904 1904 1894 1894 1894 1883 1883 1873 1873 1873 1873 1873 1873 1873 1883 1894 1915 1915 1915 1926 1936 1959 1959 1904 1894 1894 1894 1894 1894 0 0 0 0 0 0 0 0 0 0 0 0 0 0 0 0 0 0 0 0 0 5291 5291 5291 5210 5210 5291 5291 5291 5291 5291 5291 5374 0 0 0 0 0 0 0 0 0 0 0 0 5374 5374 5210 5210 5210 5210 5548 5548 0 0 0 0 0 0 5291 5291 5291 5291 5291 5210 5132 5132 0 0 0 0 0 0 0 0 0 5210 5210 5210 5210 5210 5210 5210 5291 5291 5291 5291 5291 0 0 0 0 0 0 0 0 0 0 0 0 0 0 0 0 0 0
0 0 0 0 0 0 0 0 0 0 0 0 0 0 0 0 0 0 0 0 0 0 0 0 0 0 0 0 0 0 0 0 0 0 0 0 0 0 0 0 0 0 0 0 0 0 0 0 0 0 0 2933 2933 2908 2908 2908 2908 2908 3994 3994 4089 4089 4089 4041 4041 4089 4190 4190 0 3092 3064 3064 3064 3037 3037 3037 4241 4241 4241 4139 4089 4089 4089 4089 0 0 0 0 0 0 4241 4241 4241 4241 4241 4190 4190 4139 4139 4139 0 0 0 0 0 0 0 0 0 0 4241 4241 4295 4295 4295 4295 4295 4295 4295 4349 4349 4349 4349 4349 4349 4349 4349 4295 4295 4295 4349 4349 4349 4349 4349 4349 4405 4405 4405 4463 4522 4582 0 0 4405 4405 4405 4349 4349 4349 4349 4349 4295 4295 4295 0 0 0 0 1601 1601 1601 1594 1594 1601 1601 1594 1594 1594 1601 1601 1609 1609 1616 1616 1616 1731 1731 1731 1731 1731 1731 1731 1722 1722 1722 1722 1722 1722 1731 1731 1731 1731 1739 1739 1731 1731 1731 1731 1731 1731 1731 1739 1739 1739 1739 1739 1739 1739 1739 1739 1731 1731 1731 1731 1731 1731 1731 1739 1739 1739 1748 1748 1748 1748 1748 1748 1748 1748 1748 1748 1748 1748 1748 1748 1748 1757 1470 1470 1470 1470 1470 1470 1470 1470 1464 1458 1458 1458 1464 1464 1464 1464 1464 1464 1470 1477 1483 1483 1776 1766 1766 1766 1766 1766 1766 1766 1766 1766 1766 1776 1766 1766 1776 1776 1766 1766 1766 1794 1794 0 1317 1317 1317 1317 1322 1317 1317 1317 1317 1317 1312 1312 1312 1312 1312 1312 1312 1312 1307 1307 1307 1302 1302 1302 1302 1297 1297 1297 1292 1292 1292 1288 1288 1288 1288 1288 1283 1283 1278 1278 1273 1273 1273 1273 1273 1273 1273 1268 1264 1259 1259 1255 1250 1250 1250 1250 1250 1250 1245 1245 1245 1241 1241 1241 1241 1241 1241 1236 1236 1236 1236 1232 1232 1232 1227 1227 1227 1227 1223 1219 1219 1219 1219 1214 1214 1214 1214 1214 1214 1210 1210 1210 1210 1210 1210 1210 1210 1206 1206 1206 1202 1202 1202 1202 1197 1197 1197 1197 1197 1197 1197 1197 1197 1193 1193 1189 1189 1185 1185 1181 1177 1177 1177 1173 1173 1173 1173 1173 1173 1173 1173 1177 1181 1185 1189 1193 1193 1193 1863 1863 1863 1863 1863 1863 1863 1863 1873 1873 1883 1883 1873 1873 1883 1873 1863 1863 1863 1863 1873 1873 1873 1873 1873 1873 1863 1863 1873 1873 1863 1863 1863 1873 1873 1873 1873 1873 1883 1883 1883 1873 1873 1873 1873 1873 1873 1883 1883 1883 1883 1883 1883 1883 1883 1883 1883 1883 1873 1873 1883 1883 1883 1883 1883 1894 1894 1894 1894 1894 1894 1894 1883 1883 1883 1883 1883 1894 1894 1904 1904 1894 1894 1894 1883 1883 1873 1873 1873 1873 1873 1873 1873 1873 1873 1863 1863 1863 1863 1863 1873 1883 1894 1894 1894 1904 1904 1915 1904 1883 1883 1883 1883 1883 1873 1863 1863 1863 0 0 0 0 0 0 1863 1863 1863 1863 1873 0 1863 1863 0 0 0 0 5210 5210 5210 5210 5210 5291 5291 5291 5291 5291 5291 5374 0 0 0 0 0 0 0 0 0 0 0 0 0 0 5132 5132 5210 5210 0 0 0 0 0 0 0 0 0 0 0 5291 5291 5210 5132 5132 0 0 0 0 0 0 0 0 0 5210 5210 5210 5291 5291 5291 5210 5210 5291 5374 5374 5374 5210 5210 5291 0 0 0 0 0 0 0 0 0 0 0 0 0 0 0
0 0 0 0 0 0 0 0 0 0 0 0 0 0 0 0 0 0 0 0 0 0 0 0 0 0 0 0 0 0 0 0 0 4139 4139 4139 4139 0 0 0 0 0 0 0 0 0 0 0 0 0 0 2933 2933 2908 2908 2908 2908 2958 4041 4041 4041 4089 4089 4041 4041 4041 4041 4041 4041 3092 3092 3092 3092 3037 3037 4405 4349 4241 4241 4139 4089 4089 4139 4089 4089 0 0 0 0 0 4190 4190 4241 4241 4241 4241 4190 4139 4139 4139 4139 0 0 0 0 0 0 4139 4139 4190 4190 4241 4241 4295 4295 4295 4295 4295 4295 4349 4349 4349 4349 4349 4349 4349 4295 4295 4295 4295 4295 4295 4295 4295 4349 4349 4349 4349 4405 4405 4463 4582 4582 0 4405 4405 4349 4349 4349 4349 4349 4349 4241 4241 0 0 0 0 0 1601 1601 1601 1601 1601 1601 1601 1601 1594 1594 1601 1601 1609 1609 1609 1609 1609 1731 1731 1722 1722 1722 1722 1722 1722 1722 1722 1722 1722 1722 1731 1731 1731 1731 1731 1731 1731 1731 1731 1731 1731 1731 1731 1731 1731 1731 1731 1722 1722 1722 1722 1722 1722 1713 1713 1722 1713 1713 1722 1731 1731 1731 1739 1739 1739 1739 1739 1739 1739 1739 1739 1739 1739 1739 1739 1739 1748 1748 1464 1464 1470 1470 1470 1470 1470 1470 1464 1464 1464 1464 1464 1464 1464 1464 1464 1464 1470 1470 1477 1477 1748 1748 1748 1748 1748 1748 1766 1757 1757 1757 1757 1757 1757 1757 1757 1757 1748 1748 1739 1739 1739 1722 1722 1722 1317 1317 1317 1317 1317 1317 1317 1317 1317 1317 1317 1317 1312 1312 1312 1312 1312 1312 1307 1307 1307 1307 1302 1302 1302 1297 1292 1292 1292 1292 1292 1288 1288 1288 1283 1283 1278 1278 1278 1278 1273 1273 1273 1273 1273 1268 1268 1264 1264 1255 1255 1250 1250 1255 1250 1250 1245 1245 1245 1245 1245 1241 1241 1241 1241 1241 1241 1236 1236 1236 1236 1232 1232 1227 1227 1227 1223 1219 1219 1219 1223 1214 1214 1214 1219 1214 1214 1214 1210 1210 1210 1210 1210 1210 1210 1206 1206 1206 1202 1202 1202 1202 1197 1197 1197 1197 1197 1197 1197 1197 1197 1193 1193 1189 1189 1185 1185 1181 1177 1177 1177 1173 1173 1169 1169 1169 1169 1173 1173 1177 1181 1185 1189 1193 1193 1193 1193 1843 1843 1843 1853 1843 1843 1843 1853 1863 1863 1853 1853 1863 1863 1853 1853 1853 1853 1853 1863 1863 1863 1863 1863 1863 1863 1863 1863 1863 1853 1853 1853 1853 1863 1863 1863 1863 1873 1873 1873 1863 1863 1863 1863 1863 1863 1863 1873 1873 1873 1873 1873 1873 1873 1873 1873 1873 1873 1873 1873 1873 1883 1873 1873 1883 1883 1883 1883 1883 1883 1873 1873 1863 1863 1873 1873 1873 1883 1883 1883 1894 1883 1883 1873 1863 1863 1863 1863 1863 1863 1863 1863 1863 1863 1863 1863 1853 1853 1863 1863 1863 1873 1873 1873 1883 1883 1883 1883 1873 1873 1883 1883 1883 1873 1863 1863 1863 1873 1863 1863 1863 1863 1863 1863 1863 1863 1863 1853 1853 1863 1863 1853 1853 1853 1853 1843 1843 1833 1823 1823 1823 1823 5291 5291 5291 5291 0 0 0 0 0 0 0 0 0 0 0 0 0 0 0 5132 5132 0 0 0 0 0 0 0 0 0 0 0 0 0 0 0 5132 5132 5132 0 0 0 0 0 0 0 0 0 0 0 4983 5056 5210 5210 5210 5210 5291 5374 5291 5210 5210 5210 5210 0 0 0 0 0 0 0 0 0 0 0 0 0 0 0
0 0 0 0 0 0 0 0 0 0 0 0 0 0 0 0 0 0 0 0 0 0 0 0 0 0 0 0 0 0 0 4190 4190 4139 4139 4139 4139 0 0 0 0 0 0 0 0 0 0 0 0 0 0 2908 2908 2908 2908 2883 2883 2933 4041 4041 4041 4041 4041 4041 4041 4041 3994 3948 3948 3948 3092 3092 3092 3037 3037 4349 4295 4241 4190 4139 4089 4089 4089 4089 4089 0 0 0 0 4190 4139 4139 4190 4190 4190 4190 4190 4139 4139 4139 4139 4190 0 0 0 0 4139 4139 4139 4139 4139 4190 4190 4241 4241 4241 4241 4241 4241 4295 4295 4405 4405 4405 4405 4349 4295 4295 4295 4295 4295 4295 4295 4295 4295 4295 4349 4349 4349 4349 4349 4349 4295 4349 4349 4349 4349 4349 4349 4349 4349 4349 4241 4241 0 0 0 0 0 1601 1601 1609 1601 1601 1601 1601 1601 1594 1594 1601 1601 1601 1609 1609 1609 1609 1609 1731 1713 1713 1722 1722 1722 1579 1579 1722 1722 1722 1557 1557 1557 1557 1572 1731 1731 1722 1722 1731 1731 1722 1713 1713 1713 1713 1713 1713 1705 1705 1705 1705 1705 1705 1705 1705 1705 1705 1705 1713 1713 1713 1722 1731 1731 1731 1731 1731 1731 1731 1731 1731 1731 1731 1731 1739 1739 1739 1739 1464 1464 1477 1470 1470 1470 1470 1470 1464 1464 1464 1464 1464 1464 1464 1464 1464 1470 1470 1470 1477 1477 1739 1739 1739 1739 1739 1739 1748 1748 1748 1748 1748 1739 1739 1739 1739 1739 1739 1739 1731 1722 1722 1722 1722 1722 1722 1317 1317 1317 1317 1317 1317 1317 1317 1317 1317 1317 1317 1317 1317 1312 1312 1312 1312 1307 1307 1307 1302 1302 1302 1297 1297 1292 1292 1292 1292 1288 1288 1288 1288 1283 1278 1278 1278 1278 1278 1273 1273 1273 1273 1268 1268 1264 1264 1259 1259 1259 1255 1255 1255 1250 1250 1250 1245 1245 1245 1245 1245 1245 1241 1241 1241 1241 1236 1236 1236 1232 1232 1227 1227 1227 1223 1223 1223 1223 1223 1219 1219 1219 1219 1219 1214 1214 1214 1214 1214 1210 1210 1210 1210 1210 1210 1210 1206 1202 1202 1202 1202 1197 1197 1197 1197 1197 1197 1197 1197 1193 1193 1193 1189 1189 1185 1181 1177 1177 1177 1173 1173 1169 1169 1169 1169 1173 1173 1177 1185 1189 1189 1193 1193 1193 1193 1843 1843 1843 1833 1833 1833 1843 1843 1843 1843 1843 1843 1843 1833 1833 1833 1833 1843 1843 1853 1853 1853 1853 1853 1853 1843 1843 1843 1843 1843 1843 1843 1843 1843 1853 1853 1853 1853 1863 1853 1853 1853 1853 1853 1853 1853 1853 1853 1853 1863 1863 1863 1863 1863 1863 1863 1863 1863 1863 1863 1863 1863 1863 1863 1873 1873 1873 1873 1863 1863 1863 1853 1853 1853 1863 1863 1863 1863 1863 1863 1863 1853 1853 1853 1853 1853 1853 1853 1853 1863 1863 1863 1853 1853 1853 1853 1853 1853 1853 1853 1863 1863 1863 1863 1863 1863 1873 1873 1863 1863 1873 1873 1873 1873 1863 1863 1863 1863 1863 1863 1853 1853 1853 1853 1853 1853 1853 1843 1843 1853 1853 1843 1843 1853 1853 1843 1843 1833 1823 1823 1823 1823 1853 1853 1853 5291 0 0 0 0 0 0 0 0 0 0 0 0 0 0 0 0 0 0 0 0 0 0 0 0 0 0 0 0 0 0 0 0 5056 4983 4983 4983 0 0 0 0 0 0 0 0 0 0 4983 5056 5132 5210 5132 5132 5132 5132 5132 5056 5056 5056 5132 5132 0 0 0 0 0 0 0 0 0 0 0 0 0 0
0 0 0 0 0 0 0 0 0 0 0 0 0 0 0 0 0 0 0 0 0 0 0 0 0 0 0 0 0 0 0 4190 4190 4139 4139 4139 0 0 0 0 0 0 0 0 0 0 0 0 0 0 0 2908 2908 2908 2908 2883 2883 2883 3994 3994 4041 4041 4041 3994 3994 3994 3994 3903 3903 3948 3092 3092 3092 3037 3037 4349 4295 4190 4190 4139 4089 4089 4089 4089 4041 4041 4041 3948 4139 4139 4139 4139 4139 4139 4190 4190 4139 4139 4139 4190 4190 4190 4190 0 0 0 4089 4089 4089 4139 4139 4190 4190 4190 4190 4190 4190 4190 4190 4241 4241 4405 4463 4405 4405 4295 4241 4190 4190 4190 4241 4241 4295 4295 4295 4295 4295 4295 4295 4295 4295 4295 4295 4295 4295 4295 4295 4295 4295 4295 4295 4295 4295 4295 4295 0 0 0 0 1601 1601 1609 1601 1601 1601 1601 1601 1601 1601 1601 1601 1601 1601 1609 1609 1609 1586 1586 1579 1579 1579 1579 1579 1572 1572 1572 1572 1572 1557 1557 1557 1557 1572 1572 1572 1572 1572 1731 1731 1722 1713 1713 1696 1696 1696 1688 1688 1688 1688 1688 1688 1688 1688 1688 1688 1688 1688 1688 1696 1696 1696 1705 1705 1713 1713 1713 1713 1713 1713 1713 1713 1722 1722 1722 1722 1731 1731 1470 1470 1477 1477 1470 1470 1470 1470 1464 1464 1464 1464 1464 1464 1464 1464 1464 1470 1470 1470 1477 1477 1722 1722 1722 1731 1731 1731 1731 1731 1739 1739 1731 1731 1731 1731 1722 1722 1722 1731 1722 1713 1713 1722 1722 1722 1722 1317 1317 1317 1322 1322 1317 1317 1317 1317 1317 1317 1317 1317 1317 1317 1317 1312 1312 1307 1307 1307 1307 1307 1307 1297 1297 1297 1292 1292 1292 1288 1288 1288 1288 1283 1283 1283 1278 1278 1278 1273 1273 1273 1273 1273 1268 1268 1268 1259 1259 1259 1259 1259 1255 1255 1250 1250 1250 1245 1245 1245 1245 1245 1245 1241 1241 1241 1241 1241 1236 1232 1232 1232 1227 1227 1227 1223 1223 1223 1223 1223 1219 1219 1219 1219 1219 1214 1214 1214 1214 1210 1210 1210 1210 1210 1210 1210 1206 1206 1206 1202 1202 1197 1197 1197 1197 1197 1197 1197 1197 1193 1193 1193 1189 1189 1185 1181 1181 1177 1177 1173 1173 1169 1169 1173 1173 1177 1177 1181 1185 1189 1189 1193 1193 1197 1197 1776 1794 1794 1794 1813 1823 1823 1833 1823 1823 1823 1823 1823 1823 1813 1813 1823 1833 1833 1843 1843 1833 1833 1833 1833 1833 1833 1833 1833 1823 1823 1833 1833 1833 1833 1833 1833 1833 1843 1843 1833 1833 1833 1843 1843 1843 1843 1843 1843 1843 1843 1843 1843 1843 1853 1853 1853 1853 1853 1853 1853 1853 1853 1853 1853 1863 1853 1853 1843 1843 1843 1843 1843 1843 1843 1843 1853 1853 1843 1843 1823 1823 1823 1823 1833 1833 1833 1843 1843 1853 1853 1853 1853 1853 1853 1843 1843 1843 1843 1843 1853 1853 1843 1843 1843 1853 1853 1853 1853 1863 1863 1873 1873 1873 1863 1863 1863 1863 1853 1853 1853 1853 1853 1853 1853 1853 1853 1843 1843 1843 1843 1843 1843 1843 1843 1843 1843 1833 1833 1823 1823 1823 1833 1853 1853 1863 1863 0 0 0 0 0 0 0 0 0 0 0 0 0 0 0 0 0 0 0 0 0 0 0 0 0 0 0 0 0 0 0 4983 4983 4911 4911 0 0 0 0 0 0 0 0 0 4983 4983 5056 5132 5210 4983 4983 5056 5056 5056 5056 5056 5056 5056 5056 0 0 0 0 0 0 0 0 0 0 0 0 0 0
0 0 0 0 0 0 0 0 0 0 0 0 0 0 0 0 0 0 0 0 0 0 0 0 0 0 0 0 0 0 0 4139 4139 4139 4139 4139 0 0 0 0 0 0 0 0 0 0 0 0 0 0 0 2908 2908 2883 2883 2883 2883 2835 2835 3994 3994 3994 3994 3994 3994 3994 3994 3903 3903 3948 3948 3092 3092 3092 3092 4349 4295 4190 4139 4089 4089 4089 4089 4041 3994 3903 3903 3948 3948 4041 4139 4139 4139 4139 4139 4139 4139 4139 4139 4190 4190 4190 4190 0 0 4089 4089 4089 4089 4139 4139 4139 4139 4139 4139 4139 4139 4139 4139 4190 4190 4349 4463 4405 4349 4241 4190 4190 4190 4190 4190 4241 4241 4295 4295 4295 4295 4295 4241 4241 4241 4295 4295 4295 4295 4241 4241 4295 4295 4295 4295 4295 4241 4241 4295 0 0 0 0 0 1609 1609 1601 1601 1601 1601 1601 1601 1601 1601 1601 1601 1601 1609 1609 1601 1586 1586 1579 1579 1579 1579 1579 1572 1572 1572 1572 1572 1564 1564 1564 1572 1572 1572 1572 1572 1564 1564 1557 1550 1550 1550 1550 1550 1696 1688 1688 1688 1688 1688 1688 1688 1688 1688 1688 1688 1688 1688 1688 1688 1696 1696 1696 1696 1696 1696 1696 1696 1696 1688 1688 1688 1688 1688 1688 1696 1696 1470 1470 1470 1470 1470 1470 1470 1470 1464 1464 1464 1464 1464 1464 1464 1470 1470 1470 1477 1477 1483 1483 1713 1713 1713 1713 1722 1722 1722 1722 1722 1722 1722 1722 1722 1722 1713 1713 1713 1713 1722 1705 1705 1713 1713 1722 1722 1322 1322 1322 1322 1322 1322 1322 1322 1322 1322 1317 1317 1322 1317 1317 1317 1317 1312 1312 1312 1307 1307 1307 1307 1302 1302 1297 1297 1292 1292 1288 1288 1292 1288 1288 1283 1283 1283 1283 1278 1273 1273 1273 1273 1273 1273 1268 1268 1264 1259 1259 1259 1259 1255 1255 1250 1250 1250 1250 1250 1245 1245 1245 1245 1241 1241 1241 1241 1241 1236 1236 1232 1232 1227 1227 1227 1223 1223 1223 1223 1223 1219 1219 1219 1219 1219 1219 1214 1214 1214 1214 1214 1214 1210 1210 1210 1210 1206 1206 1206 1202 1202 1197 1197 1197 1197 1197 1197 1197 1197 1193 1193 1193 1193 1189 1189 1185 1181 1181 1177 1177 1173 1173 1173 1173 1177 1177 1177 1181 1185 1189 1189 1193 1193 1197 1197 1776 1776 1776 1785 1794 1813 1823 1823 1823 1823 1813 1813 1804 1804 1794 1794 1804 1804 1813 1823 1823 1823 1823 1823 1823 1823 1823 1823 1823 1813 1813 1813 1823 1823 1813 1813 1813 1804 1804 1813 1813 1813 1823 1823 1823 1823 1823 1823 1833 1833 1833 1833 1833 1833 1843 1843 1843 1843 1843 1843 1843 1843 1833 1833 1833 1833 1843 1843 1833 1833 1833 1833 1833 1833 1833 1833 1833 1833 1823 1823 1813 1813 1813 1813 1823 1823 1823 1833 1843 1853 1853 1853 1843 1843 1843 1843 1833 1833 1833 1833 1843 1843 1833 1833 1833 1833 1833 1833 1843 1843 1853 1863 1863 1863 1853 1853 1853 1843 1843 1843 1843 1843 1843 1843 1853 1843 1843 1833 1833 1833 1833 1833 1833 1833 1833 1833 1843 1833 1833 1823 1823 1823 1833 1853 1853 1863 1863 0 0 0 0 0 0 0 0 0 0 0 0 0 0 0 0 0 0 0 0 0 0 0 0 0 0 0 0 0 0 0 4983 4911 4911 4911 4911 4911 4911 4911 0 0 4911 4911 4911 4911 4911 4911 4911 4911 4911 4911 4983 4983 4983 5056 5056 5056 5056 4983 4983 0 0 0 0 0 0 0 0 0 0 0 0 0
0 0 0 0 0 0 0 0 0 0 0 0 0 0 0 0 0 0 0 0 0 0 0 0 0 0 0 0 0 0 0 4089 4089 4089 4089 4139 0 0 0 0 0 0 0 0 0 0 0 0 0 0 0 0 2908 2883 2883 2883 2883 2835 2835 3994 3994 3994 3994 3994 3994 3994 3994 3948 3948 3948 3994 3994 4139 4139 4405 4405 4295 4139 4089 4089 4089 4041 4041 4041 3994 3903 3903 3948 3948 3994 4089 4089 4089 4089 4089 4139 4139 4139 4139 4139 4139 4139 4139 4139 4139 4139 4139 4139 4139 4139 4139 4139 4139 4139 4139 4139 4139 4139 4139 4139 4190 4190 4295 4349 4349 4241 4190 4190 4190 4190 4190 4190 4241 4241 4241 4241 4241 4241 4241 4241 4241 4241 4139 4139 4139 4190 4190 4241 4241 4241 4241 4295 4241 4241 4241 0 0 0 0 0 1609 1609 1609 1601 1601 1601 1601 1601 1601 1601 1601 1601 1601 1609 1609 1601 1594 1586 1586 1586 1586 1586 1579 1579 1579 1572 1572 1572 1564 1564 1564 1572 1572 1572 1572 1564 1564 1564 1557 1550 1550 1550 1550 1550 1550 1550 1550 1550 1688 1688 1680 1680 1680 1680 1680 1680 1680 1688 1688 1688 1688 1680 1680 1680 1680 1680 1680 1680 1680 1680 1680 1680 1680 1680 1680 1680 1688 1470 1470 1470 1470 1470 1470 1470 1470 1464 1464 1464 1464 1464 1464 1464 1470 1470 1470 1477 1477 1483 1483 1688 1688 1688 1688 1688 1688 1688 1696 1696 1696 1696 1705 1705 1705 1705 1705 1705 1705 1713 1705 1705 1713 1713 1722 1722 1322 1322 1322 1322 1322 1322 1322 1322 1322 1322 1322 1322 1322 1322 1322 1322 1317 1312 1312 1312 1312 1307 1307 1307 1302 1302 1297 1297 1292 1292 1288 1288 1292 1288 1288 1288 1283 1283 1283 1278 1273 1273 1273 1273 1273 1273 1268 1268 1264 1264 1264 1259 1259 1259 1255 1255 1250 1250 1250 1250 1245 1245 1245 1245 1241 1241 1241 1241 1241 1241 1241 1236 1232 1232 1227 1227 1227 1227 1227 1227 1227 1223 1223 1223 1219 1219 1219 1219 1214 1214 1214 1214 1214 1214 1210 1210 1210 1206 1206 1206 1206 1202 1202 1202 1202 1202 1197 1197 1197 1197 1197 1197 1193 1193 1193 1189 1189 1185 1181 1181 1177 1173 1173 1177 1177 1177 1177 1181 1185 1185 1189 1189 1193 1193 1197 1197 1766 1766 1766 1766 1785 1804 1813 1813 1813 1813 1804 1794 1794 1794 1785 1785 1794 1794 1794 1804 1813 1813 1813 1813 1813 1804 1804 1804 1804 1804 1804 1804 1813 1813 1804 1804 1804 1804 1794 1794 1804 1804 1804 1813 1813 1813 1813 1813 1823 1813 1813 1813 1813 1813 1823 1823 1823 1823 1823 1823 1823 1823 1823 1813 1813 1813 1823 1823 1823 1823 1823 1823 1823 1823 1823 1823 1823 1823 1813 1813 1804 1804 1804 1804 1813 1813 1813 1823 1833 1843 1843 1843 1833 1833 1823 1823 1813 1813 1813 1823 1823 1833 1823 1823 1823 1823 1823 1823 1823 1833 1843 1843 1843 1843 1843 1833 1833 1833 1833 1833 1833 1833 1833 1833 1833 1833 1833 1823 1823 1823 1823 1823 1823 1833 1833 1833 1843 1833 1833 1823 1823 1823 1823 1843 1853 1853 1853 0 0 0 0 0 0 0 0 0 0 0 0 0 0 0 0 0 0 0 0 0 0 0 0 0 0 0 0 0 0 0 4911 4911 4911 4911 4842 4842 4842 4842 0 0 4774 4774 4774 4774 4774 4842 4911 4911 4911 4911 4911 4983 4983 4983 4983 4983 5056 4983 4983 0 0 0 0 0 0 0 0 0 0 0 0 0
0 0 0 0 0 0 0 0 0 0 0 0 0 0 0 0 0 0 0 0 0 0 0 0 0 0 0 0 0 0 0 4041 4041 4041 4089 0 0 0 0 0 0 0 0 0 0 0 0 0 0 0 0 0 0 2908 2908 2883 2883 2883 3948 3948 3948 3994 3994 3994 3994 3994 4041 3948 3948 3948 3994 4089 4139 4139 4139 4041 4041 4041 4041 4089 4041 4041 4041 4041 3994 3948 3948 3948 3948 3948 4041 4041 4089 4089 4089 4089 4089 4089 4089 4139 4139 4139 4139 4139 4139 4139 4089 4089 4139 4139 4139 4139 4139 4139 4139 4139 4139 4139 4139 4139 4139 4139 4190 4139 4139 4241 4190 4139 4139 4190 4190 4190 4241 4241 4241 4241 4241 4241 4241 4190 4190 4139 4139 4139 4139 4190 4190 4190 4190 4190 4241 4241 4241 4241 4241 4295 0 0 0 0 1609 1609 1609 1609 1609 1601 1601 1601 1601 1601 1601 1609 1609 1609 1601 1601 1594 1594 1594 1586 1586 1586 1586 1579 1579 1572 1572 1572 1564 1564 1564 1572 1572 1572 1572 1564 1564 1564 1557 1550 1550 1550 1550 1550 1550 1550 1550 1550 1550 1550 1680 1680 1680 1680 1680 1680 1680 1688 1680 1680 1680 1671 1671 1671 1671 1671 1671 1671 1671 1671 1671 1671 1671 1671 1671 1671 1671 1680 1470 1470 1477 1470 1470 1470 1470 1464 1464 1464 1464 1464 1464 1470 1477 1477 1477 1483 1483 1489 1489 1680 1680 1680 1680 1680 1680 1680 1688 1688 1688 1688 1696 1696 1696 1696 1696 1696 1696 1696 1696 1688 1688 1696 1722 1722 1328 1328 1328 1328 1322 1322 1322 1322 1322 1322 1322 1322 1322 1322 1322 1328 1322 1317 1312 1312 1312 1307 1307 1307 1302 1302 1297 1297 1297 1292 1292 1292 1292 1288 1288 1288 1283 1283 1283 1278 1278 1273 1273 1273 1273 1273 1268 1268 1264 1264 1264 1259 1259 1259 1259 1255 1255 1250 1250 1250 1250 1245 1245 1245 1245 1245 1245 1245 1245 1241 1241 1236 1232 1232 1232 1232 1232 1227 1227 1227 1227 1223 1223 1223 1219 1219 1219 1219 1219 1219 1214 1214 1214 1214 1210 1210 1210 1206 1206 1206 1206 1202 1202 1202 1202 1202 1202 1202 1197 1197 1197 1197 1193 1193 1189 1189 1189 1185 1185 1181 1181 1177 1177 1177 1177 1177 1181 1181 1185 1185 1189 1189 1193 1193 1197 1197 1757 1757 1766 1766 1776 1785 1794 1794 1804 1804 1794 1794 1785 1785 1785 1785 1785 1785 1785 1785 1785 1794 1794 1794 1794 1794 1794 1785 1785 1785 1785 1794 1794 1794 1794 1794 1794 1794 1785 1785 1794 1794 1794 1804 1804 1804 1804 1804 1804 1794 1794 1804 1804 1804 1804 1804 1804 1813 1804 1804 1804 1804 1804 1804 1804 1804 1813 1813 1813 1813 1813 1813 1813 1813 1804 1804 1804 1804 1804 1804 1794 1794 1794 1794 1804 1804 1804 1804 1813 1823 1823 1823 1813 1813 1813 1804 1794 1794 1804 1804 1804 1813 1813 1813 1813 1813 1813 1813 1813 1813 1823 1813 1813 1794 1785 1785 1794 1804 1813 1823 1823 1823 1823 1823 1823 1823 1823 1813 1813 1813 1813 1813 1813 1823 1823 1823 1833 1833 1823 1823 1813 1813 1823 1833 1843 1853 1853 0 0 0 0 0 0 0 0 0 0 0 0 0 0 0 0 0 0 0 0 0 0 0 0 0 0 0 0 0 0 0 4842 4842 4842 4842 4842 4842 4774 4774 4708 4708 4708 4708 4774 4774 4774 4774 4911 4911 4911 4911 4911 4983 4983 4983 4983 4983 4983 4983 4983 0 0 0 0 0 0 0 0 0 0 0 0 0
0 0 0 0 0 0 0 0 0 0 0 0 0 0 0 0 0 0 0 0 0 0 0 0 0 0 0 0 0 0 0 4041 3994 3994 4041 0 0 0 0 0 0 0 0 0 0 0 0 0 0 3948 3948 0 0 0 2933 2908 2908 2908 0 3948 3948 3994 3948 3948 3994 3994 3994 3994 3994 3994 4041 4089 4139 4139 0 4089 4041 4041 4041 4041 4041 3994 3994 3994 3948 3903 3903 3903 3903 3948 4041 4041 4041 4089 4089 4089 4089 4089 4089 4089 4089 4089 4089 4089 4089 4089 4089 4089 4089 4139 4139 4139 4139 4139 4139 4139 4139 4139 4139 4089 4089 4139 4139 4089 4089 4190 4190 4139 4139 4139 4139 4190 4190 4190 4190 4190 4190 4190 4190 4190 4190 4139 4139 4139 4139 4139 4139 4139 4190 4190 4241 4241 4241 4241 4295 4295 0 0 0 0 0 1609 1609 1609 1609 1601 1601 1601 1601 1601 1601 1609 1609 1609 1601 1601 1594 1594 1594 1586 1586 1586 1586 1586 1579 1572 1572 1572 1572 1572 1572 1572 1572 1572 1572 1564 1564 1564 1557 1550 1550 1550 1550 1550 1550 1550 1550 1550 1550 1543 1536 1529 1523 1523 1523 1516 1516 1688 1680 1680 1680 1671 1671 1671 1671 1671 1663 1663 1663 1663 1663 1663 1663 1663 1655 1655 1655 1663 1470 1470 1470 1470 1470 1470 1470 1470 1470 1470 1470 1470 1470 1470 1470 1477 1483 1489 1489 1489 1489 1680 1671 1671 1671 1671 1671 1671 1671 1680 1680 1680 1688 1688 1688 1680 1680 1688 1680 1680 1680 1671 1671 1671 1671 1671 1328 1328 1328 1328 1328 1322 1322 1322 1322 1322 1322 1322 1322 1328 1328 1328 1328 1328 1333 1312 1312 1307 1307 1302 1302 1302 1297 1297 1292 1292 1292 1292 1288 1288 1288 1288 1288 1283 1283 1283 1278 1273 1273 1273 1273 1273 1268 1268 1264 1264 1264 1264 1259 1259 1259 1255 1255 1255 1250 1250 1250 1245 1245 1245 1245 1245 1245 1245 1245 1241 1241 1236 1232 1232 1232 1232 1232 1232 1227 1227 1227 1223 1223 1223 1223 1223 1223 1219 1219 1219 1219 1214 1214 1214 1210 1210 1210 1210 1206 1206 1206 1206 1206 1206 1206 1206 1202 1202 1202 1197 1197 1197 1193 1193 1189 1189 1189 1189 1185 1181 1181 1177 1177 1177 1177 1181 1181 1185 1185 1189 1189 1193 1193 1193 1197 1197 1748 1748 1757 1757 1766 1766 1776 1785 1785 1785 1785 1785 1785 1785 1776 1776 1776 1776 1776 1776 1776 1785 1785 1785 1785 1785 1785 1776 1776 1776 1776 1785 1785 1785 1785 1785 1785 1776 1776 1776 1776 1776 1785 1785 1785 1785 1785 1785 1785 1785 1785 1785 1785 1785 1785 1785 1785 1794 1794 1794 1794 1794 1794 1794 1794 1794 1804 1804 1804 1804 1794 1794 1794 1794 1794 1794 1794 1794 1794 1794 1785 1785 1785 1785 1794 1794 1794 1794 1794 1794 1794 1794 1794 1794 1794 1794 1794 1794 1794 1794 1794 1804 1804 1804 1813 1813 1813 1804 1804 1804 1804 1794 1794 1794 1785 1785 1794 1804 1813 1813 1813 1813 1813 1813 1813 1813 1813 1813 1813 1813 1804 1804 1804 1813 1823 1823 1833 1833 1823 1813 1813 1813 1813 1813 1843 1843 1843 0 0 0 0 0 0 0 0 0 0 0 0 0 0 0 0 0 0 0 0 0 0 0 0 0 0 0 0 0 0 4774 4774 4774 4774 4774 4708 4708 4708 4645 4645 4645 4708 4708 4774 4774 4774 4774 4842 4842 4842 4842 4842 4911 4911 4983 4983 4911 4911 4911 4911 0 0 0 0 0 0 0 0 0 0 0 0 0
0 0 0 0 0 0 0 0 0 0 0 0 0 0 0 0 0 0 0 0 0 0 0 0 0 0 0 0 0 0 0 3948 3948 3948 3948 3948 0 0 0 0 0 0 0 0 0 0 0 0 0 3903 3903 3903 0 0 0 0 3948 0 0 3948 3948 3948 3948 3948 3994 3994 3994 3994 3994 3994 4089 4089 4139 4139 0 4089 4089 4041 4041 3994 3994 3994 3994 3994 3948 3903 3903 3903 3903 3948 3994 4041 4041 4041 4041 4089 4089 4089 4089 4089 4089 4089 4089 4089 4089 4089 4089 4089 4089 4139 4139 4089 4089 4089 4089 4089 4089 4089 4089 4089 4089 4089 4089 4041 4041 4089 4139 4139 4139 4139 4139 4139 4190 4190 4190 4190 4190 4190 4190 4139 4139 4139 4139 4139 4139 4139 4139 4139 4139 4139 4190 4190 4241 4241 4295 4295 0 0 0 0 0 1609 1609 1609 1609 1609 1609 1601 1601 1601 1609 1609 1609 1609 1609 1601 1601 1594 1594 1586 1586 1586 1586 1586 1579 1579 1572 1572 1572 1572 1572 1572 1572 1564 1564 1564 1564 1564 1557 1557 1550 1550 1550 1550 1550 1550 1543 1543 1543 1536 1536 1529 1523 1523 1523 1516 1516 1523 1523 1523 1516 1516 1663 1663 1663 1663 1647 1647 1647 1647 1647 1647 1647 1647 1647 1647 1647 1647 1470 1470 1470 1470 1470 1470 1470 1470 1470 1470 1470 1470 1470 1470 1470 1477 1483 1489 1489 1489 1489 1671 1663 1663 1663 1663 1663 1663 1671 1671 1671 1671 1671 1680 1680 1671 1671 1671 1671 1671 1671 1671 1671 1671 1671 1671 1333 1328 1328 1328 1328 1328 1328 1328 1328 1328 1328 1328 1328 1333 1333 1333 1338 1338 1343 1647 1647 1312 1307 1302 1302 1302 1297 1297 1292 1288 1288 1288 1288 1288 1288 1288 1288 1283 1283 1283 1278 1273 1273 1273 1273 1273 1273 1268 1264 1264 1264 1264 1264 1259 1259 1259 1255 1255 1255 1250 1250 1245 1245 1245 1245 1245 1245 1245 1245 1241 1241 1236 1236 1236 1232 1232 1232 1232 1232 1227 1227 1223 1223 1223 1223 1223 1223 1223 1219 1219 1219 1219 1219 1214 1214 1210 1210 1210 1210 1210 1210 1206 1206 1206 1206 1206 1202 1202 1202 1202 1197 1197 1193 1193 1193 1193 1189 1189 1189 1185 1185 1181 1181 1181 1181 1181 1181 1185 1189 1189 1189 1193 1193 1193 1193 1748 1748 1748 1748 1748 1757 1757 1757 1757 1757 1766 1766 1776 1776 1766 1766 1757 1757 1757 1757 1757 1757 1766 1766 1776 1776 1766 1766 1757 1757 1766 1766 1766 1766 1766 1766 1776 1776 1776 1776 1766 1766 1766 1766 1766 1766 1766 1766 1766 1766 1766 1766 1766 1766 1776 1776 1766 1766 1776 1776 1785 1785 1785 1785 1785 1785 1785 1785 1785 1794 1785 1785 1785 1785 1776 1776 1776 1785 1785 1785 1785 1776 1776 1776 1776 1776 1785 1785 1776 1776 1776 1776 1776 1776 1785 1785 1785 1785 1785 1785 1785 1785 1794 1794 1794 1794 1794 1804 1804 1794 1785 1785 1785 1785 1785 1785 1785 1785 1785 1794 1804 1804 1804 1804 1804 1804 1804 1804 1804 1804 1804 1794 1794 1794 1804 1813 1823 1823 1823 1804 1804 1794 1794 1794 1785 1785 1785 1843 0 0 0 0 0 0 0 0 0 0 0 0 0 0 0 0 0 0 0 0 0 0 0 0 0 0 0 0 0 0 4708 4708 4708 4708 4708 4708 4708 4645 4645 4645 4645 4708 4708 4774 4842 4774 4774 4774 4842 4842 4842 4842 4911 4911 4983 4983 4911 4842 4842 4911 0 0 0 0 0 0 0 0 0 0 0 0 0
0 0 0 0 0 0 0 0 0 0 0 0 0 0 0 0 0 0 0 0 0 0 0 0 0 0 0 0 0 0 0 3948 3859 3859 3859 3948 0 0 0 0 0 0 0 0 0 0 0 0 3859 3859 3859 3903 3903 0 0 0 0 0 0 0 3948 3948 3948 3948 3948 3948 3994 3948 3948 3948 3948 3994 4041 4041 0 4041 4041 3994 3994 3994 3994 3948 3948 3948 3948 3903 3903 3903 3903 3903 3994 3994 3994 4041 4041 4041 4041 4041 4041 4041 4041 4089 4089 4089 4089 4089 4089 4089 4089 4089 4089 4089 4089 4089 4089 4089 4089 4089 4089 4089 4089 4089 4089 4041 4041 4041 4089 4089 4089 4089 4139 4139 4139 4139 4139 4139 4139 4139 4139 4139 4139 4139 4139 4139 4139 4139 4139 4139 4139 4139 4190 4190 4241 4190 4190 4295 0 0 0 0 0 1609 1609 1609 1609 1609 1609 1609 1601 1601 1609 1609 1609 1609 1609 1601 1601 1594 1594 1586 1586 1586 1586 1586 1579 1579 1572 1572 1572 1572 1572 1572 1572 1564 1564 1557 1557 1557 1557 1557 1550 1550 1550 1550 1550 1550 1543 1543 1543 1536 1536 1529 1523 1523 1523 1523 1523 1523 1523 1523 1516 1516 1516 1516 1516 1647 1639 1639 1639 1639 1639 1639 1639 1647 1647 1639 1639 1639 1639 1470 1470 1470 1470 1477 1477 1470 1470 1470 1470 1470 1470 1470 1477 1477 1483 1489 1489 1489 1489 1663 1655 1655 1655 1655 1655 1655 1655 1663 1663 1655 1655 1655 1655 1655 1647 1647 1655 1655 1663 1663 1663 1663 1663 1663 1333 1333 1333 1333 1333 1333 1333 1328 1328 1328 1328 1328 1333 1333 1333 1338 1343 1349 1349 1354 1647 1655 1647 1647 1655 1655 1663 1663 1292 1288 1288 1288 1288 1288 1288 1288 1288 1283 1283 1283 1278 1273 1273 1273 1273 1273 1273 1273 1268 1268 1264 1264 1264 1264 1259 1259 1255 1255 1255 1250 1250 1245 1245 1245 1245 1245 1245 1245 1245 1245 1241 1241 1241 1236 1236 1236 1236 1232 1232 1232 1232 1227 1227 1223 1223 1223 1223 1223 1223 1223 1219 1219 1219 1214 1214 1214 1214 1210 1210 1210 1210 1206 1206 1206 1206 1206 1206 1206 1202 1202 1197 1197 1197 1193 1193 1193 1189 1189 1189 1185 1185 1181 1181 1181 1181 1181 1185 1189 1189 1189 1193 1193 1197 1197 1197 1731 1731 1731 1739 1739 1739 1739 1722 1722 1731 1731 1731 1739 1748 1748 1739 1739 1739 1731 1731 1731 1739 1739 1748 1739 1739 1748 1748 1748 1748 1748 1757 1757 1757 1757 1757 1766 1766 1766 1766 1757 1757 1757 1757 1757 1757 1757 1757 1757 1757 1757 1757 1757 1757 1766 1757 1757 1757 1757 1766 1766 1776 1776 1776 1785 1785 1776 1776 1776 1776 1776 1776 1766 1766 1766 1766 1766 1776 1776 1776 1776 1776 1776 1776 1776 1776 1776 1776 1776 1776 1776 1776 1766 1766 1757 1757 1766 1766 1766 1766 1766 1766 1776 1776 1776 1785 1785 1785 1785 1785 1776 1776 1776 1785 1776 1776 1776 1785 1785 1794 1794 1794 1794 1794 1794 1794 1794 1794 1794 1785 1785 1785 1785 1785 1785 1794 1794 1794 1794 1794 1785 1785 1785 1785 1785 1785 1785 1785 0 0 0 0 0 0 0 0 0 0 0 0 0 0 0 0 0 0 0 0 0 0 0 0 0 0 0 0 0 0 4708 4708 4708 4708 4708 4708 4645 4645 4582 4582 4645 4708 4708 4708 4774 4774 4774 4774 4842 4842 4842 4774 4774 4774 0 0 0 4774 4774 4842 0 0 0 0 0 0 0 0 0 0 0 0 0
0 0 0 0 0 0 0 0 0 0 0 0 0 0 0 0 0 0 0 0 0 0 0 0 0 0 0 0 0 0 0 3948 3859 3859 3859 0 0 0 0 0 3816 3816 3816 3816 3816 3816 3816 3859 3859 3859 3859 3859 3859 3859 0 0 0 0 0 0 3948 3948 3948 3948 3948 3948 3948 3903 3859 3859 3903 3948 3948 0 0 0 4041 3948 3948 3948 3948 3948 3948 3948 3948 3903 3903 3903 3903 3903 3903 3903 3948 3994 3994 3994 3994 3994 3994 3994 3994 3994 4041 4041 4089 4089 4089 4089 4041 4041 4041 4041 4041 4041 4041 4041 4041 4041 4041 4041 4041 4041 3994 3948 3948 3948 4089 4089 4089 4089 4089 4089 4139 4139 4139 4139 4139 4139 4139 4089 4089 4139 4139 4139 4139 4139 4139 4139 4139 4139 4139 4190 4190 4190 4190 4241 0 0 0 0 0 1609 1609 1609 1609 1609 1609 1609 1609 1609 1609 1609 1609 1609 1609 1601 1601 1594 1594 1594 1586 1586 1586 1586 1586 1579 1579 1579 1579 1572 1572 1572 1572 1564 1564 1557 1557 1557 1557 1557 1550 1550 1550 1550 1550 1550 1543 1543 1543 1543 1536 1536 1529 1529 1529 1529 1529 1529 1529 1523 1523 1516 1516 1516 1516 1516 1516 1639 1632 1632 1639 1639 1639 1639 1639 1639 1639 1632 1632 1470 1470 1477 1477 1477 1477 1470 1470 1470 1470 1470 1470 1470 1477 1477 1483 1489 1489 1489 1655 1647 1639 1639 1647 1647 1647 1647 1647 1647 1647 1639 1639 1639 1639 1639 1639 1639 1639 1647 1647 1655 1655 1655 1655 1655 1333 1333 1333 1333 1333 1333 1333 1333 1328 1328 1328 1328 1333 1333 1338 1338 1343 1349 1354 1354 1639 1639 1639 1639 1647 1655 1655 1655 1663 1663 1288 1288 1288 1288 1288 1288 1283 1283 1283 1278 1273 1273 1273 1273 1273 1273 1273 1273 1268 1268 1264 1264 1264 1264 1264 1259 1259 1259 1255 1255 1250 1250 1250 1250 1250 1250 1245 1245 1245 1245 1241 1241 1241 1241 1236 1236 1236 1236 1236 1236 1236 1232 1232 1232 1223 1223 1223 1223 1223 1223 1223 1219 1219 1214 1214 1214 1214 1214 1214 1214 1210 1206 1206 1206 1206 1206 1206 1206 1206 1206 1202 1197 1197 1193 1193 1193 1193 1189 1189 1189 1189 1185 1185 1181 1181 1185 1185 1189 1189 1189 1189 1193 1193 1193 1705 1705 1713 1713 1713 1713 1713 1713 1713 1713 1713 1713 1713 1713 1713 1713 1713 1713 1731 1722 1722 1731 1731 1731 1731 1731 1731 1739 1739 1739 1739 1739 1748 1748 1748 1748 1748 1748 1748 1748 1748 1748 1748 1748 1748 1757 1748 1748 1748 1748 1748 1748 1748 1748 1748 1748 1748 1748 1748 1748 1757 1757 1757 1766 1776 1776 1776 1766 1766 1757 1757 1757 1748 1748 1748 1748 1748 1748 1757 1766 1766 1766 1766 1766 1766 1766 1766 1766 1766 1766 1766 1766 1766 1757 1757 1757 1757 1757 1748 1748 1757 1757 1757 1766 1766 1766 1776 1766 1766 1776 1766 1766 1766 1766 1776 1776 1776 1776 1776 1776 1785 1785 1785 1785 1785 1785 1776 1776 1776 1785 1776 1776 1776 1776 1776 1766 1748 1748 1757 1757 1766 1766 1766 1766 1766 1776 1776 1776 1776 0 0 0 0 0 0 0 0 0 0 0 0 0 0 0 0 0 0 0 0 0 0 0 0 0 0 0 0 0 0 4774 4774 4708 4708 4708 4708 4645 4645 4582 4582 4645 4708 4708 4708 4708 4774 4774 4774 4774 4774 4774 4774 4774 4774 0 0 0 4774 4774 4842 0 0 0 0 0 0 0 0 0 0 0 0 0
0 0 0 0 0 0 0 0 0 0 0 0 0 0 0 0 0 0 0 0 0 0 0 0 0 0 0 0 0 0 0 3948 3948 3948 3948 0 0 0 0 0 3816 3816 3816 3816 3816 3816 3816 3859 3859 3859 3859 3859 3859 3859 0 0 0 0 0 0 3948 3948 3948 3948 3903 3903 3948 3903 3859 3859 3859 3903 3948 0 0 3948 3948 3948 3948 3948 3948 3948 3948 3948 3903 3903 3903 3903 3903 3903 3903 3903 3948 3948 3948 3948 3948 3994 3994 3994 3994 3994 3994 4041 4089 4089 4089 3994 3994 3994 3994 3994 3994 3994 4041 4041 3994 3994 3994 4041 4041 3994 3994 3948 3948 3948 3994 3994 4089 4089 4089 4089 4089 4089 4089 4089 4089 4089 4089 4089 4089 4089 4089 4089 4089 4089 4089 4089 4089 4139 4139 4139 4139 4139 4139 4190 0 0 0 0 0 1601 1601 1601 1609 1609 1609 1609 1609 1609 1609 1616 1609 1609 1609 1609 1601 1601 1594 1594 1594 1586 1586 1586 1586 1579 1579 1579 1579 1572 1572 1572 1572 1564 1564 1564 1564 1557 1557 1557 1557 1550 1550 1550 1550 1550 1543 1543 1543 1543 1543 1536 1529 1529 1529 1529 1529 1529 1529 1529 1523 1523 1523 1523 1516 1516 1516 1523 1523 1529 1632 1639 1639 1639 1632 1632 1639 1632 1632 1632 1477 1477 1477 1477 1477 1470 1470 1470 1470 1470 1470 1470 1477 1477 1483 1483 1489 1489 1632 1632 1639 1639 1639 1639 1639 1639 1639 1639 1632 1632 1632 1632 1632 1632 1632 1632 1632 1639 1639 1639 1639 1647 1647 1647 1647 1333 1333 1333 1333 1333 1333 1333 1333 1333 1333 1333 1333 1333 1338 1343 1343 1349 1354 1354 1639 1639 1639 1639 1647 1647 1655 1655 1655 1655 1655 1647 1647 1647 1288 1288 1283 1283 1283 1268 1268 1268 1268 1273 1273 1273 1273 1273 1268 1264 1264 1264 1264 1264 1264 1259 1259 1259 1255 1255 1255 1250 1250 1250 1250 1250 1250 1250 1245 1245 1245 1241 1241 1241 1241 1236 1236 1236 1236 1236 1236 1232 1232 1232 1227 1227 1227 1227 1227 1223 1223 1223 1223 1219 1219 1219 1214 1214 1214 1214 1214 1210 1210 1210 1210 1210 1210 1210 1206 1206 1206 1202 1197 1193 1193 1193 1193 1193 1193 1189 1189 1189 1185 1185 1185 1185 1185 1189 1189 1189 1189 1193 1193 1193 1705 1705 1705 1705 1713 1705 1705 1705 1705 1705 1705 1705 1705 1705 1705 1705 1696 1696 1696 1705 1713 1713 1713 1713 1722 1722 1722 1722 1722 1722 1722 1722 1731 1731 1731 1731 1731 1731 1731 1731 1731 1731 1731 1731 1731 1739 1731 1731 1731 1731 1731 1731 1722 1722 1722 1722 1722 1739 1739 1739 1748 1748 1748 1748 1748 1748 1748 1748 1739 1739 1739 1739 1731 1731 1731 1731 1739 1739 1739 1748 1748 1757 1748 1748 1748 1748 1748 1748 1757 1757 1757 1757 1757 1748 1748 1748 1739 1739 1739 1748 1748 1748 1748 1748 1748 1748 1748 1748 1748 1757 1757 1757 1757 1757 1766 1766 1766 1766 1776 1776 1766 1766 1766 1757 1757 1757 1757 1757 1766 1766 1766 1757 1757 1766 1757 1757 1748 1748 1748 1757 1757 1757 1757 1757 1766 1766 1776 1776 1776 1785 0 0 0 0 0 0 0 0 0 0 0 4708 4708 0 0 0 0 0 0 0 0 0 0 0 0 0 0 0 0 0 0 4774 4645 4645 4645 4708 4645 4645 4645 4645 4645 4645 4645 4645 4645 4645 4645 4708 4708 4774 4774 0 0 0 0 0 0 0 0 0 0 0 0 0 0 0 0 0 0 0 0 0
