0 0 0 0 0 0 0 0 0 0 0 0 0 0 0 0 0 0 0 0 0 0 0 0 0 0 0 0 0 0 0 0 0 2226 2226 2226 2226 2226 2226 2226 2226 2226 2226 2226 2226 2212 2212 2226 2226 2226 2226 2241 2241 2241 2241 2241 2241 2241 2241 2241 2241 2241 2241 2241 2241 2256 2256 2256 2256 2241 2241 2241 2212 2212 2212 2212 2212 2212 2212 2212 2226 2226 2226 2241 2241 2241 2241 2241 2241 2241 2241 2241 2241 2241 2241 2241 2241 2241 2241 2241 2241 2256 2256 2256 2256 2256 2256 2256 2256 2256 2256 2256 2256 2256 2256 2256 2256 2256 2256 2256 2256 2256 2256 2256 2256 2256 2256 2256 2256 2256 2256 2271 2271 2271 2271 2271 2271 2271 2271 2271 2271 2271 2271 2271 2271 2271 2271 2271 2271 2271 2271 2271 2271 2271 2286 2286 2301 2286 2271 2271 2271 2271 2271 2271 2256 2256 2256 2271 2271 2256 2241 2241 2212 2198 2198 2198 2198 2198 2198 2212 2212 2212 2226 2241 2256 2256 2256 2256 2256 2256 0 1516 1509 1496 1496 1496 1496 1496 1496 1496 1503 1503 1503 1503 1503 1503 1509 1509 1509 1509 1516 1523 1572 1572 1572 1579 1579 1529 1523 1523 1523 1523 1516 1516 1477 1464 1464 1464 1464 1464 1464 1470 1477 1477 1483 1483 1489 1496 1503 1503 1509 1516 1523 1523 1523 1523 1516 1516 1516 1516 1516 1516 1516 1516 1516 1516 1516 1516 1516 1516 1523 1523 1523 1523 1523 1523 1523 1529 1529 1529 1529 1529 1529 1536 1536 1543 1543 1543 1543 1543 1543 1550 1550 1550 1550 1550 1550 1550 1550 1557 1557 1557 1564 1564 1572 1572 1572 1579 1579 1579 1579 1579 1586 1586 1594 1594 1594 1594 1594 1601 1601 1601 1601 1601 1601 1609 1609 1609 1609 1609 1609 1609 1609 1609 1609 1609 1609 1609 1609 1609 1609 1609 1609 1609 1609 1616 1616 2241 2226 2226 2170 2170 2170 2170 2170 2170 2184 2198 2198 2212 2226 2256 2286 2301 2317 2317 2317 2333 2317 2317 2333 2333 2333 2333 2333 2333 2349 2333 2333 2333 2333 2333 2333 2333 2333 2333 2333 2349 2349 2349 1647 1647 1647 1632 1632 1632 1632 1632 1632 1624 1624 1624 1632 1632 1632 1632 1639 1639 1639 1647 1647 1639 1639 1647 1647 1655 1647 1647 2212 2198 2170 2170 2170 2156 2156 2156 2156 2143 2129 2129 2116 2103 2090 2078 2078 2078 2078 2065 2065 2065 2065 2333 2333 2333 2333 2333 2333 2333 2333 2333 2333 2333 2333 2333 2333 2333 2333 2317 2317 2333 2333 2333 2333 2333 2333 2333 2333 2333 2333 2333 1757 1757 1757 1757 1748 1748 1739 1739 1739 1739 1739 1739 1739 1739 1739 1739 1739 1739 1739 1739 1748 2317 2317 2317 2317 2317 2317 2317 2317 2317 2317 2317 2317 2005 2005 2005 2005 1993 1981 1981 1970 1970 1959 1959 1959 1959 1959 1959 1959 1970 1970 1981 1981 1970 1970 2301 2301 2301 2301 2301 2301 2301 2301 2301 2301 2301 2301 2301 2301 2301 2317 2301 2301 2301 2301 2301 2301 2301 2301 2301 2301 2301 2301 2317 2317 2317 2317 2317 2317 2317 2317 2317 2317 2317 2317 2317 2317 2317 2317 2317 2301 2301 2301 2301 2301 2301 2301 2301 2317 2317 2317 2317 2317 2317 2301 2301 2301 2301 2301 2301 2301 2301 2301 2286 2286 2271 2271 2286 2286 2286 2286 2286 2286 2286 2286 2286 2286 2286 2286 2286 2286 2286 2286 2286 2286 2286 2286 2286 2286 2286 2286 2286 2286 2286 2286 2271 2271 2271 2271 2271 2271 2271 2271 2271 2271 2271 2271 2271 2271 2271 2286 0 0 0 0 0 0 0 0 0
0 0 0 0 0 0 0 0 0 0 0 0 0 0 0 0 0 0 0 0 0 0 0 0 0 0 0 0 0 0 0 0 0 2226 2226 2226 2226 2226 2226 2226 2226 2226 2212 2212 2212 2212 2212 2212 2212 2212 2226 2226 2226 2226 2226 2226 2241 2241 2241 2241 2241 2241 2241 2241 2241 2241 2241 2241 2241 2241 2241 2226 2212 2212 2212 2212 2212 2212 2212 2212 2212 2226 2226 2226 2226 2226 2226 2226 2226 2226 2226 2226 2226 2226 2226 2226 2226 2226 2226 2226 2226 2241 2241 2241 2256 2256 2256 2256 2241 2241 2256 2256 2256 2256 2256 2256 2256 2256 2256 2256 2256 2256 2256 2256 2256 2256 2256 2256 2256 2256 2256 2256 2256 2256 2256 2256 2256 2271 2271 2271 2271 2271 2271 2271 2271 2271 2271 2271 2271 2271 2271 2271 2271 2271 2286 2286 2286 2271 2271 2271 2256 2256 2256 2256 2256 2256 2256 2256 2271 2256 2241 2226 2212 2198 2198 2198 2198 2198 2198 2212 2212 2226 2226 2241 2241 2241 2241 2241 2241 2241 2241 1509 1509 1496 1496 1496 1496 1496 1496 1496 1503 1503 1503 1503 1503 1503 1509 1509 1509 1509 1516 1523 1572 1572 1579 1586 1586 1529 1523 1523 1523 1516 1509 1496 1477 1470 1470 1470 1464 1464 1470 1470 1477 1477 1483 1483 1489 1496 1503 1503 1509 1516 1516 1516 1516 1516 1516 1516 1516 1516 1516 1516 1516 1516 1516 1516 1516 1516 1516 1516 1516 1523 1523 1523 1523 1523 1523 1529 1529 1529 1529 1529 1529 1536 1536 1543 1543 1543 1543 1543 1543 1550 1550 1550 1550 1550 1550 1557 1557 1557 1557 1564 1564 1572 1572 1572 1579 1579 1579 1579 1586 1586 1586 1594 1594 1601 1601 1601 1601 1601 1601 1601 1601 1601 1601 1609 1609 1609 1609 1609 1609 1609 1609 1609 1609 1609 1609 1609 1609 1609 1616 1609 1609 1616 1616 1624 1624 2241 2241 2226 2170 2170 2170 2170 2170 2184 2184 2198 2198 2212 2241 2256 2271 2286 2301 2317 2317 2317 2317 2317 2317 2317 2333 2317 2317 2317 2333 2333 2333 2317 2317 2333 2317 2317 2317 2317 2317 2333 2333 2333 1655 1655 1647 1639 1632 1632 1632 1632 1632 1624 1624 1624 1632 1632 1632 1632 1639 1639 1639 1647 1647 1639 1639 1647 1647 2317 2301 2241 2212 2184 2170 2170 2170 2156 2156 2156 2156 2143 2129 2129 2116 2090 2090 2078 2078 2078 2078 2065 2065 2065 2053 2053 2333 2333 2333 2333 2333 2333 2333 2333 2333 2317 2317 2317 2317 2317 2317 2317 2317 2317 2317 2317 2317 2317 2317 2317 2317 2317 2317 2317 1766 1766 1757 1757 1748 1748 1739 1739 1739 1739 1739 1739 1739 1739 1739 1748 1748 1739 1739 1739 2301 2301 2301 2317 2317 2317 2317 2317 2317 2317 2301 2301 2317 2005 2005 2005 2005 1993 1981 1981 1981 1970 1959 1959 1959 1959 1959 1970 1970 1970 1981 1981 1981 1981 1981 2301 2301 2301 2301 2301 2301 2301 2286 2286 2286 2286 2286 2286 2301 2301 2301 2301 2301 2301 2301 2301 2301 2301 2301 2301 2301 2301 2301 2301 2301 2317 2317 2317 2317 2301 2301 2301 2301 2301 2301 2301 2301 2317 2317 2301 2301 2301 2301 2301 2301 2301 2301 2301 2301 2301 2301 2301 2301 2301 2301 2301 2301 2301 2301 2286 2286 2286 2286 2271 2271 2271 2271 2271 2271 2271 2271 2271 2271 2271 2271 2271 2286 2286 2286 2286 2286 2286 2271 2271 2271 2271 2271 2271 2271 2271 2271 2271 2286 2286 2271 2271 2271 2256 2256 2256 2256 2256 2256 2256 2271 2271 2271 2271 2271 2271 2271 0 0 0 0 0 0 0 0 0
0 0 0 0 0 0 0 0 0 0 0 0 0 0 0 0 0 0 0 0 0 0 0 0 0 0 0 0 0 0 0 0 0 2226 2226 2212 2212 2212 2212 2212 2212 2212 2212 2212 2212 2212 2198 2198 2212 2212 2212 2226 2226 2226 2226 2226 2226 2226 2226 2226 2226 2226 2226 2226 2226 2226 2241 2241 2241 2241 2226 2226 2212 2212 2212 2212 2212 2212 2212 2212 2212 2212 2212 2212 2212 2212 2212 2212 2212 2226 2226 2226 2226 2226 2226 2212 2212 2212 2212 2226 2226 2226 2241 2241 2241 2241 2241 2241 2241 2241 2241 2256 2256 2256 2256 2256 2256 2241 2241 2241 2241 2241 2241 2241 2241 2241 2241 2241 2241 2241 2241 2256 2256 2256 2256 2256 2256 2256 2256 2256 2256 2256 2271 2271 2271 2271 2256 2256 2256 2271 2271 2271 2271 2271 2271 2271 2271 2256 2256 2256 2256 2256 2256 2256 2256 2256 2256 2256 2256 2256 2241 2226 2212 2198 2198 2198 2198 2198 2198 2212 2212 2226 2226 2241 2241 2241 2241 2241 2241 2241 2241 1509 1509 1496 1496 1496 1496 1496 1496 1503 1503 1503 1503 1503 1503 1509 1509 1509 1509 1516 1516 1523 1523 1586 1586 1586 1586 1594 1523 1523 1516 1509 1503 1489 1477 1477 1470 1470 1470 1470 1470 1470 1477 1477 1483 1483 1489 1496 1503 1503 1509 1509 1509 1509 1509 1516 1516 1516 1516 1516 1516 1516 1516 1516 1516 1516 1516 1516 1516 1516 1516 1523 1523 1523 1523 1523 1523 1529 1529 1529 1529 1536 1536 1543 1543 1543 1543 1543 1543 1543 1543 1550 1550 1550 1550 1550 1557 1557 1564 1564 1564 1572 1572 1572 1579 1579 1579 1579 1579 1579 1586 1586 1594 1594 1594 1601 1601 1601 1601 1601 1601 1601 1601 1601 1601 1601 1609 1609 1609 1609 1609 1609 1609 1609 1609 1609 1609 1609 1609 1609 1616 1616 1616 1624 1624 1624 1632 2241 2241 2241 2198 2184 2184 2184 2184 2184 2184 2198 2198 2212 2226 2241 2271 2286 2301 2301 2301 2317 2317 2317 2317 2317 2317 2317 2317 2317 2317 2317 2317 2317 2317 2317 2317 2301 2301 2301 2301 2317 2317 2317 1655 1655 1655 1639 1632 1632 1632 1632 1632 1624 1624 1632 1632 1632 1632 1632 1639 1639 1639 1639 1639 1639 1639 1647 1647 2317 2301 2226 2184 2184 2170 2170 2170 2156 2156 2156 2156 2143 2129 2129 2116 2090 2090 2078 2065 2065 2065 2053 2053 2053 2040 2040 2040 2317 2317 2317 2317 2317 2317 2317 2317 2317 2317 2317 2317 2317 2317 2317 2301 2301 2301 2301 2301 2301 2301 2301 2301 2301 2301 1776 1766 1766 1766 1757 1757 1748 1748 1748 1739 1739 1739 1739 1739 1739 1748 1748 1748 1748 1748 1748 2286 2301 2301 2301 2301 2301 2301 2301 2301 2301 2301 2301 2301 2005 2005 2005 2005 1993 1981 1981 1981 1970 1970 1970 1970 1970 1970 1970 1970 1970 1981 1981 1981 1970 1970 2301 2301 2301 2286 2286 2286 2286 2286 2286 2286 2286 2286 2286 2286 2286 2286 2286 2286 2286 2286 2286 2301 2301 2301 2301 2301 2301 2301 2301 2301 2301 2301 2301 2301 2301 2301 2301 2301 2301 2301 2301 2301 2301 2301 2301 2301 2301 2301 2301 2286 2286 2301 2301 2301 2286 2286 2301 2301 2301 2301 2301 2286 2286 2286 2286 2286 2271 2271 2271 2271 2271 2271 2271 2271 2271 2271 2271 2271 2271 2271 2271 2271 2271 2271 2271 2271 2271 2271 2256 2256 2256 2256 2256 2256 2256 2271 2271 2271 2271 2271 2256 2256 2241 2241 2241 2241 2256 2256 2256 2256 2256 2256 2256 2256 2256 2271 0 0 0 0 0 0 0 0 0
0 0 0 0 0 0 0 0 0 0 0 0 0 0 0 0 0 0 0 0 0 0 0 0 0 0 0 0 0 0 0 0 0 2212 2212 2212 2212 2212 2212 2212 2212 2212 2198 2198 2198 2198 2198 2198 2212 2212 2212 2226 2226 2226 2226 2226 2226 2226 2226 2226 2226 2226 2226 2226 2226 2226 2226 2226 2226 2226 2226 2226 2212 2212 2212 2212 2212 2212 2198 2198 2212 2212 2212 2212 2212 2212 2212 2212 2212 2212 2212 2212 2212 2212 2212 2212 2212 2212 2212 2226 2226 2226 2226 2226 2226 2226 2241 2241 2241 2241 2241 2241 2241 2241 2241 2241 2241 2226 2226 2226 2241 2226 2226 2226 2241 2241 2226 2226 2226 2226 2241 2241 2241 2256 2256 2256 2256 2256 2256 2256 2256 2256 2256 2256 2256 2256 2256 2256 2256 2256 2256 2256 2256 2256 2271 2271 2271 2256 2256 2256 2256 2256 2256 2256 2256 2256 2256 2256 2256 2241 2241 2226 2212 2198 2198 2198 2198 2198 2198 2212 2212 2226 2241 2241 2241 2241 2241 2241 2241 2241 2241 2241 1503 1503 1503 1496 1496 1496 1503 1503 1503 1503 1503 1503 1509 1509 1509 1516 1516 1516 1516 1523 1523 1586 1586 1594 1594 1594 1594 1523 1516 1509 1503 1489 1477 1477 1470 1470 1470 1470 1470 1470 1477 1483 1483 1489 1489 1496 1503 1503 1503 1509 1509 1509 1509 1516 1509 1509 1509 1516 1516 1516 1516 1516 1516 1516 1516 1516 1516 1516 1516 1523 1523 1523 1523 1523 1523 1529 1529 1529 1536 1536 1543 1543 1543 1543 1550 1550 1550 1550 1550 1550 1550 1550 1550 1557 1557 1557 1564 1564 1564 1572 1572 1579 1579 1579 1579 1579 1579 1586 1586 1586 1594 1594 1594 1601 1601 1601 1601 1601 1601 1601 1601 1601 1601 1601 1609 1609 1609 1609 1609 1609 1609 1609 1609 1609 1609 1609 1609 1616 1616 1616 1616 1624 1624 1632 1632 1632 2226 2241 2212 2198 2198 2198 2198 2198 2198 2198 2212 2212 2226 2241 2271 2286 2286 2301 2301 2301 2301 2301 2301 2301 2301 2301 2301 2301 2301 2301 2301 2301 2301 2317 2301 2301 2301 2301 2301 2301 2317 2317 1671 1663 1663 1647 1639 1639 1632 1632 1632 1624 1624 1632 1632 1632 1632 1632 1639 1639 1632 1632 1639 2301 2301 2317 2317 2317 2301 2226 2184 2184 2170 2170 2170 2156 2156 2156 2156 2156 2143 2143 2116 2090 2078 2065 2065 2053 2053 2053 2053 2040 2040 2040 2028 2028 2317 2317 2317 2317 2317 2317 2317 2301 2301 2301 2301 2301 2301 2301 2301 2301 2301 2301 2301 2286 2286 2301 2301 2301 2301 1776 1776 1766 1766 1757 1757 1748 1748 1748 1739 1739 1739 1739 1739 1748 1748 1748 1748 1748 1748 1748 2286 2286 2286 2286 2286 2286 2301 2301 2286 2286 2286 2286 2286 2005 2005 2005 2005 1993 1981 1981 1981 1981 1970 1970 1970 1970 1970 1970 1970 1970 1970 1981 1970 1970 1970 2286 2286 2286 2286 2286 2271 2271 2271 2271 2271 2271 2271 2271 2271 2271 2271 2271 2271 2271 2286 2286 2286 2286 2286 2286 2301 2301 2301 2301 2301 2301 2301 2301 2301 2301 2301 2301 2286 2286 2286 2286 2286 2301 2301 2286 2286 2286 2286 2286 2286 2286 2286 2286 2286 2271 2271 2271 2286 2286 2286 2286 2286 2286 2286 2271 2256 2256 2256 2256 2256 2256 2256 2256 2256 2256 2256 2271 2271 2271 2271 2271 2271 2271 2271 2271 2271 2271 2256 2256 2241 2241 2256 2256 2256 2256 2256 2256 2256 2256 2241 2241 2241 2241 2241 2241 2241 2241 2241 2241 2241 2256 2256 2256 2256 2256 2256 0 0 0 0 0 0 0 0 0
0 0 0 0 0 0 0 0 0 0 0 0 0 0 0 0 0 0 0 0 0 0 0 0 0 0 0 0 0 0 0 0 0 2212 2212 2212 2212 2212 2212 2212 2212 2212 2198 2198 2198 2198 2212 2212 2212 2212 2212 2212 2212 2212 2212 2212 2212 2212 2212 2212 2212 2212 2212 2212 2212 2226 2226 2226 2226 2226 2226 2226 2198 2198 2198 2198 2198 2198 2198 2198 2198 2212 2212 2198 2198 2198 2198 2212 2212 2212 2212 2212 2212 2212 2212 2212 2212 2212 2212 2212 2226 2226 2226 2226 2226 2212 2212 2226 2226 2226 2241 2241 2241 2241 2226 2226 2226 2226 2226 2226 2226 2226 2226 2226 2226 2226 2226 2226 2226 2226 2241 2241 2241 2256 2256 2256 2256 2256 2256 2241 2241 2241 2241 2241 2256 2241 2241 2241 2256 2256 2256 2256 2256 2256 2256 2256 2256 2241 2241 2241 2241 2241 2241 2241 2241 2241 2241 2241 2256 2241 2226 2212 2212 2198 2198 2198 2198 2198 2198 2212 2212 2226 2241 2241 2241 2241 2241 2241 2241 2241 2241 2241 1496 1496 1496 1503 1503 1503 1503 1503 1503 1503 1503 1509 1509 1509 1516 1516 1516 1516 1523 1529 1529 1594 1594 1594 1594 1594 1594 1529 1523 1509 1503 1489 1483 1477 1477 1470 1470 1470 1470 1477 1477 1483 1483 1489 1489 1496 1496 1503 1503 1503 1503 1503 1509 1516 1509 1509 1509 1516 1516 1516 1516 1516 1516 1516 1516 1516 1516 1523 1523 1523 1523 1523 1529 1529 1529 1529 1529 1529 1536 1536 1543 1543 1543 1543 1550 1550 1550 1550 1550 1550 1557 1557 1557 1557 1564 1564 1564 1572 1572 1572 1579 1579 1579 1579 1586 1586 1586 1586 1586 1586 1594 1594 1601 1601 1601 1601 1601 1601 1601 1601 1601 1601 1601 1601 1609 1609 1609 1609 1609 1609 1609 1609 1609 1609 1609 1609 1609 1616 1616 1616 1616 1624 1624 1632 1632 1632 2226 2241 2226 2212 2198 2198 2198 2198 2198 2198 2212 2212 2241 2256 2271 2286 2286 2286 2286 2286 2286 2286 2286 2301 2301 2286 2286 2286 2286 2286 2286 2301 2301 2301 2301 2301 2301 2301 2301 2301 2301 1671 1671 1663 1663 1655 1647 1639 1632 1632 1632 1632 1632 1632 1632 1632 1632 1632 1639 1639 1632 1632 2301 2301 2301 2301 2286 2286 2271 2226 2184 2184 2170 2170 2170 2156 2156 2170 2170 2170 2170 2184 2116 2090 2065 2065 2053 2053 2053 2053 2053 2040 2040 2040 2028 2028 2028 2301 2301 2301 2301 2301 2286 2286 2286 2301 2286 2286 2301 2301 2301 2301 2286 2286 2286 2286 2286 2301 2301 2301 2301 1776 1776 1776 1766 1757 1757 1748 1748 1748 1748 1739 1739 1739 1748 1748 1748 1748 1748 1757 1757 2271 2286 2286 2286 2286 2286 2286 2286 2286 2271 2271 2271 2271 2286 2005 2005 2005 2005 1993 1981 1981 1981 1981 1970 1970 1970 1970 1970 1970 1970 1970 1970 1970 1970 1970 1970 2286 2286 2286 2286 2286 2271 2271 2271 2271 2271 2271 2271 2271 2271 2271 2271 2271 2271 2271 2271 2271 2286 2286 2271 2271 2286 2286 2286 2286 2286 2301 2301 2301 2301 2286 2286 2286 2286 2286 2286 2286 2286 2286 2286 2271 2271 2271 2271 2271 2271 2271 2271 2271 2271 2271 2271 2271 2271 2271 2271 2271 2271 2271 2271 2256 2256 2256 2256 2241 2241 2241 2241 2256 2256 2256 2256 2256 2256 2256 2256 2256 2256 2271 2271 2271 2256 2256 2256 2241 2241 2241 2241 2241 2241 2241 2241 2241 2241 2241 2241 2226 2226 2226 2241 2241 2241 2241 2241 2241 2241 2241 2241 2241 2241 2241 2256 0 0 0 0 0 0 0 0 0
0 0 0 0 0 0 0 0 0 0 0 0 0 0 0 0 0 0 0 0 0 0 0 0 0 0 0 0 0 0 0 0 0 2212 2212 2212 2212 2212 2212 2212 2198 2198 2198 2198 2198 2198 2198 2198 2198 2212 2212 2212 2212 2212 2212 2212 2212 2212 2212 2212 2212 2212 2212 2212 2212 2212 2212 2212 2212 2226 2212 2212 2198 2198 2198 2198 2198 2198 2198 2198 2198 2198 2198 2198 2198 2198 2198 2198 2198 2198 2198 2198 2198 2198 2212 2212 2212 2212 2212 2212 2212 2212 2212 2212 2212 2212 2212 2212 2226 2226 2226 2226 2226 2226 2226 2226 2212 2212 2212 2212 2212 2212 2212 2212 2212 2212 2212 2212 2212 2212 2226 2226 2226 2241 2241 2241 2241 2241 2241 2226 2226 2226 2226 2226 2241 2241 2226 2226 2241 2241 2256 2256 2256 2256 2256 2256 2256 2241 2241 2241 2241 2241 2241 2241 2241 2241 2241 2241 2241 2226 2226 2212 2212 2198 2198 2198 2198 2198 2212 2212 2226 2226 2241 2241 2241 2241 2241 2241 2241 2241 2241 2241 1496 1496 1496 1503 1503 1503 1503 1503 1503 1503 1509 1509 1509 1516 1516 1516 1516 1523 1523 1529 1529 1594 1594 1594 1594 1594 1594 1594 1529 1509 1503 1489 1483 1483 1477 1470 1470 1470 1470 1477 1477 1483 1483 1483 1489 1496 1496 1503 1503 1503 1503 1503 1509 1509 1509 1509 1509 1516 1516 1516 1516 1516 1516 1516 1516 1523 1523 1523 1523 1523 1523 1523 1529 1529 1529 1536 1536 1536 1536 1536 1543 1543 1543 1550 1550 1550 1550 1550 1550 1557 1557 1557 1557 1557 1564 1564 1572 1572 1572 1572 1572 1579 1579 1586 1586 1586 1586 1586 1586 1586 1594 1594 1601 1601 1601 1601 1601 1601 1601 1594 1594 1594 1594 1594 1601 1601 1609 1609 1609 1609 1609 1609 1609 1609 1609 1609 1609 1616 1616 1616 1624 1624 1624 1632 1632 1632 2226 2226 2226 2212 2212 2198 2198 2198 2198 2198 2212 2212 2241 2256 2271 2271 2286 2286 2286 2286 2286 2286 2286 2286 2286 2286 2286 2286 2286 2286 2286 2286 2286 2286 2286 2286 2286 2286 2286 2286 2286 1671 1671 1663 1663 1655 1647 1639 1639 1639 1632 1632 1632 1632 1632 1632 1639 1639 1639 1639 1639 1639 2286 2286 2286 2286 2286 2286 2271 2241 2212 2198 2184 2184 2184 2170 2170 2170 2170 2184 2184 2212 2241 2103 2065 2065 2053 2053 2053 2053 2053 2040 2040 2040 2028 2028 2028 2286 2286 2301 2286 2286 2286 2286 2286 2286 2286 2286 2286 2286 2286 2286 2271 2271 2271 2271 2271 2286 2286 2286 2286 2286 1776 1766 1766 1757 1757 1757 1748 1748 1748 1748 1748 1748 1748 1748 1748 1748 1748 1757 2271 2271 2271 2271 2271 2271 2271 2271 2271 2271 2271 2271 2271 2271 2271 1993 1993 2005 1993 1993 1981 1981 1981 1981 1981 1970 1970 1970 1970 1981 1981 1970 1970 1970 1970 1970 2286 2271 2271 2271 2271 2271 2271 2271 2256 2256 2256 2256 2256 2256 2256 2256 2256 2271 2271 2271 2256 2256 2271 2271 2271 2271 2271 2271 2286 2286 2286 2286 2286 2286 2286 2286 2286 2286 2286 2286 2286 2271 2271 2271 2271 2271 2271 2271 2271 2271 2271 2271 2271 2271 2271 2256 2256 2256 2256 2271 2271 2271 2271 2271 2271 2256 2256 2256 2256 2241 2241 2241 2241 2241 2241 2241 2256 2256 2256 2256 2256 2256 2256 2256 2256 2256 2256 2241 2241 2241 2241 2241 2241 2241 2241 2241 2241 2241 2241 2226 2226 2226 2226 2226 2226 2226 2226 2241 2241 2241 2241 2241 2241 2241 2241 2241 2241 0 0 0 0 0 0 0 0 0
0 0 0 0 0 0 0 0 0 0 0 0 0 0 0 0 0 0 0 0 0 0 0 0 0 0 0 0 0 0 0 0 0 2184 2184 2198 2198 2198 2198 2198 2198 2198 2184 2184 2184 2184 2184 2198 2198 2198 2198 2198 2198 2198 2198 2198 2212 2212 2212 2198 2198 2212 2212 2212 2212 2212 2212 2212 2212 2212 2198 2198 2184 2184 2198 2198 2198 2198 2198 2198 2198 2198 2198 2198 2198 2198 2198 2198 2198 2198 2198 2198 2198 2198 2198 2198 2198 2198 2212 2212 2212 2212 2212 2212 2212 2212 2212 2212 2212 2212 2212 2212 2212 2212 2212 2212 2212 2212 2212 2212 2212 2212 2212 2212 2212 2212 2212 2212 2212 2212 2212 2212 2212 2226 2226 2226 2241 2226 2226 2226 2226 2226 2226 2226 2226 2226 2226 2226 2241 2241 2241 2241 2241 2241 2256 2256 2256 2241 2241 2241 2241 2241 2241 2241 2241 2241 2241 2241 2241 2226 2226 2212 2212 2198 2198 2198 2198 2198 2212 2212 2226 2226 2226 2241 2241 2241 2241 2241 2241 2241 2241 2241 1503 1503 1503 1503 1503 1503 1503 1503 1509 1509 1509 1509 1516 1516 1523 1523 1523 1523 1523 1529 1529 1904 1594 1594 1594 1594 1601 1601 1529 1529 1503 1489 1483 1483 1477 1477 1470 1470 1470 1477 1483 1483 1483 1483 1489 1496 1496 1503 1503 1503 1503 1503 1509 1509 1509 1509 1509 1516 1516 1516 1516 1516 1516 1516 1516 1523 1523 1523 1523 1523 1529 1529 1529 1529 1529 1536 1536 1536 1536 1543 1543 1543 1550 1550 1550 1557 1557 1557 1557 1557 1557 1557 1557 1557 1564 1564 1572 1572 1572 1572 1572 1579 1579 1586 1586 1579 1579 1579 1594 1594 1594 1594 1601 1601 1601 1601 1601 1601 1601 1594 1586 1586 1594 1594 1601 1601 1609 1609 1609 1616 1616 1609 1609 1609 1609 1609 1609 1616 1616 1616 1624 1624 1624 1624 1624 1624 2226 2226 2226 2212 2212 2212 2198 2198 2198 2212 2212 2212 2226 2241 2256 2271 2271 2271 2286 2286 2286 2286 2286 2286 2286 2286 2286 2286 2286 2286 2286 2271 2271 2286 2286 2286 2286 2286 2286 2286 2286 1671 1671 1663 1655 1655 1647 1639 1639 1639 1639 1632 1632 1632 1632 1639 1639 1639 1639 1639 1639 2301 2286 2286 2286 2286 2286 2271 2271 2241 2212 2198 2184 2184 2184 2170 2170 2170 2184 2198 2198 2226 2241 2256 2256 2053 2053 2053 2053 2040 2040 2040 2040 2040 2028 2028 2016 2016 2028 2286 2286 2286 2271 2271 2271 2271 2286 2271 2271 2286 2271 2271 2271 2271 2271 2271 2271 2271 2271 2271 2286 2286 1766 1766 1766 1757 1757 1757 1748 1748 1748 1748 1748 1748 1748 1748 1748 1748 1748 1748 2271 2271 2271 2271 2271 2271 2271 2271 2271 2271 2271 2271 2271 2271 1993 1993 1993 2005 1993 1993 1981 1981 1981 1981 1981 1981 1981 1981 1981 1981 1981 1970 1970 1970 1970 1970 2271 2256 2256 2271 2271 2256 2256 2256 2256 2256 2256 2256 2256 2256 2256 2256 2256 2256 2256 2256 2256 2256 2271 2271 2256 2256 2271 2271 2271 2271 2271 2271 2271 2271 2286 2271 2271 2271 2271 2271 2271 2271 2271 2271 2271 2256 2256 2271 2256 2256 2271 2271 2256 2256 2256 2256 2256 2256 2256 2256 2256 2256 2256 2256 2256 2256 2256 2256 2256 2226 2226 2241 2241 2241 2241 2241 2241 2241 2241 2256 2241 2241 2256 2256 2241 2241 2241 2241 2241 2241 2241 2241 2241 2241 2241 2241 2241 2226 2226 2226 2226 2226 2226 2226 2226 2226 2226 2226 2241 2241 2241 2241 2241 2226 2226 2226 2226 0 0 0 0 0 0 0 0 0
0 0 0 0 0 0 0 0 0 0 0 0 0 0 0 0 0 0 0 0 0 0 0 0 0 0 0 0 0 0 0 0 0 2184 2184 2198 2198 2184 2184 2184 2184 2184 2170 2170 2170 2170 2184 2184 2184 2184 2184 2184 2184 2184 2184 2184 2198 2198 2198 2184 2184 2184 2184 2198 2198 2198 2198 2198 2198 2184 2184 2170 2170 2170 2170 2184 2198 2198 2198 2198 2184 2184 2184 2184 2184 2184 2184 2184 2184 2184 2184 2184 2184 2184 2198 2198 2198 2198 2198 2212 2212 2212 2212 2198 2198 2198 2198 2198 2198 2212 2212 2212 2212 2212 2198 2198 2212 2212 2212 2212 2212 2212 2212 2212 2198 2198 2198 2198 2198 2198 2198 2198 2212 2212 2212 2212 2226 2226 2212 2212 2212 2212 2226 2226 2212 2212 2212 2212 2226 2226 2226 2226 2226 2226 2241 2241 2241 2226 2226 2241 2241 2241 2241 2226 2226 2226 2226 2226 2226 2226 2226 2212 2212 2198 2198 2198 2198 2198 2212 2212 2212 2226 2226 2226 2226 2226 2241 2241 2241 2241 2241 2241 1503 1503 1503 1503 1503 1503 1503 1503 1509 1509 1516 1516 1523 1523 1523 1523 1523 1523 1523 1529 1529 1904 1904 1594 1594 1586 1586 1557 1543 1543 1503 1489 1483 1483 1477 1477 1470 1470 1477 1477 1483 1483 1483 1489 1489 1496 1496 1503 1503 1509 1509 1509 1509 1516 1509 1509 1509 1516 1516 1516 1516 1523 1523 1523 1523 1523 1523 1529 1529 1529 1529 1529 1536 1536 1536 1543 1543 1543 1543 1543 1550 1550 1550 1550 1557 1557 1557 1557 1557 1564 1564 1564 1564 1564 1564 1564 1572 1572 1572 1572 1579 1579 1579 1586 1586 1579 1579 1579 1586 1594 1594 1594 1601 1601 1609 1609 1601 1601 1609 1594 1586 1586 2241 1601 1601 1601 1609 1609 1609 1616 1616 1616 1616 1609 1609 1609 1609 1616 1616 1616 1624 1624 1624 1624 1624 1624 1624 2226 2226 2226 2212 2212 2212 2198 2198 2212 2212 2212 2226 2241 2256 2256 2271 2271 2271 2271 2271 2271 2271 2271 2271 2271 2286 2271 2271 2271 2271 2271 2271 2271 2271 2271 2271 2271 2286 2286 2286 1663 1663 1663 1655 1647 1647 1647 1639 1639 1639 1639 1639 1639 1639 1639 1639 1639 1639 1639 1639 2286 2286 2286 2286 2286 2271 2271 2271 2256 2226 2198 2198 2184 2184 2170 2170 2170 2184 2198 2198 2241 2241 2256 2256 2053 2053 2040 2040 2040 2040 2028 2028 2028 2028 2016 2005 2005 2005 2005 2271 2271 2271 2271 2271 2271 2271 2271 2271 2271 2271 2271 2271 2271 2271 2271 2271 2271 2271 2271 2271 2271 1766 1766 1766 1766 1757 1757 1757 1748 1748 1748 1748 1748 1748 1748 1748 1748 1748 1748 1748 2271 2271 2256 2256 2271 2271 2271 2271 2271 2256 2256 2271 2271 1993 1993 2005 2005 1993 1993 1981 1981 1981 1981 1981 1981 1981 1981 1981 1981 1981 1970 1970 1970 1970 1970 2271 2256 2256 2256 2271 2256 2256 2256 2256 2256 2256 2256 2256 2256 2256 2256 2256 2256 2256 2256 2256 2256 2256 2256 2256 2256 2256 2256 2271 2271 2271 2271 2271 2271 2256 2256 2256 2256 2256 2256 2256 2256 2256 2256 2256 2256 2256 2256 2256 2256 2271 2256 2256 2256 2256 2256 2256 2256 2256 2256 2256 2256 2256 2256 2256 2256 2241 2241 2256 2226 2226 2226 2226 2241 2241 2241 2241 2241 2241 2241 2241 2241 2241 2241 2241 2241 2241 2241 2241 2241 2226 2226 2226 2241 2226 2226 2226 2226 2226 2226 2226 2226 2226 2226 2226 2226 2226 2226 2226 2226 2226 2226 2226 2226 2226 2226 2226 0 0 0 0 0 0 0 0 0
0 0 0 0 0 0 0 0 0 0 0 0 0 0 0 0 0 0 0 0 0 0 0 0 0 0 0 0 0 0 0 0 0 2170 2170 2184 2184 2184 2170 2170 2170 2170 2170 2170 2170 2170 2170 2170 2170 2170 2170 2184 2184 2184 2184 2184 2184 2184 2184 2184 2184 2184 2184 2184 2184 2184 2184 2184 2184 2184 2184 2170 2156 2156 2170 2170 2170 2170 2170 2170 2170 2170 2170 2170 2170 2156 2156 2170 2170 2170 2170 2170 2170 2170 2184 2184 2184 2184 2184 2184 2184 2198 2198 2198 2198 2198 2198 2198 2198 2198 2198 2198 2198 2198 2198 2198 2198 2198 2198 2198 2198 2198 2198 2198 2198 2198 2198 2198 2198 2198 2198 2198 2212 2212 2212 2212 2212 2212 2212 2212 2212 2212 2212 2212 2212 2212 2212 2212 2226 2226 2226 2226 2226 2226 2241 2241 2241 2226 2226 2226 2226 2226 2226 2226 2226 2226 2226 2226 2226 2226 2226 2212 2212 2212 2212 2212 2212 2212 2212 2212 2212 2212 2226 2226 2226 2226 2241 2241 2241 2241 2241 2241 1503 1503 1503 1503 1503 1503 1503 1503 1509 1509 1516 1516 1523 1523 1523 1523 1523 1523 1523 1529 1529 1529 1904 1904 1594 1586 1586 1557 1543 1543 1509 1489 1489 1483 1477 1477 1477 1477 1477 1477 1483 1489 1489 1489 1496 1496 1503 1503 1503 1509 1509 1509 1516 1516 1516 1516 1516 1516 1516 1516 1516 1523 1523 1523 1523 1529 1529 1529 1529 1536 1536 1536 1543 1536 1536 1543 1543 1543 1543 1543 1550 1550 1550 1550 1557 1557 1557 1557 1557 1564 1564 1564 1564 1564 1564 1572 1572 1572 1572 1579 1579 1579 1586 1586 1586 1579 1579 1586 1586 1594 1594 1594 1601 1609 1609 2170 2184 2212 2226 2241 2241 2256 2241 2241 2241 1609 1609 1616 1616 1616 1616 1616 1616 1616 1609 1609 1616 1624 1616 1616 1624 1624 1624 1624 1624 1624 1624 2226 2226 2226 2212 2212 2212 2198 2198 2212 2212 2212 2226 2241 2256 2256 2271 2271 2271 2271 2271 2271 2271 2271 2271 2271 2271 2271 2271 2271 2271 2271 2271 2271 2271 2271 2271 2271 2271 2271 2271 2271 1663 1663 1655 1647 1647 1647 1639 1639 1639 1639 1639 1639 1639 1639 1639 1639 1639 1639 1639 2286 2286 2286 2286 2271 2271 2271 2256 2256 2226 2212 2198 2198 2198 2184 2184 2184 2198 2198 2226 2241 2241 2256 2256 2256 2256 2040 2040 2040 2028 2028 2028 2028 2016 2016 2005 2005 2005 2005 2271 2271 2256 2256 2256 2256 2256 2256 2256 2271 2271 2271 2271 2271 2256 2256 2256 2256 2256 2256 2271 2271 1766 1766 1766 1766 1757 1757 1757 1757 1748 1748 1748 1748 1748 1748 1748 1748 1748 1748 1748 2256 2256 2256 2256 2256 2256 2256 2256 2256 2256 2256 2271 2271 2005 2005 2005 2005 2005 1993 1981 1981 1981 1981 1981 1981 1981 1981 1981 1981 1981 1981 1970 1970 1970 1970 2256 2256 2256 2256 2256 2256 2256 2256 2256 2256 2256 2241 2241 2241 2256 2256 2256 2256 2256 2256 2256 2256 2256 2256 2256 2256 2256 2256 2256 2256 2256 2256 2256 2256 2256 2256 2256 2256 2256 2256 2256 2256 2256 2256 2256 2256 2256 2256 2256 2256 2256 2256 2256 2256 2256 2256 2256 2241 2241 2256 2256 2256 2256 2256 2256 2256 2241 2241 2256 2226 2226 2226 2226 2226 2241 2241 2241 2241 2241 2241 2241 2241 2241 2226 2226 2212 2212 2226 2226 2226 2226 2226 2226 2226 2226 2226 2226 2226 2226 2226 2226 2226 2226 2226 2226 2226 2226 2226 2226 2226 2226 2226 2226 2212 2212 2212 2212 0 0 0 0 0 0 0 0 0
0 0 0 0 0 0 0 0 0 0 0 0 0 0 0 0 0 0 0 0 0 0 0 0 0 0 0 0 0 0 0 0 0 2156 2156 2170 2170 2170 2170 2170 2170 2170 2170 2170 2170 2170 2170 2170 2170 2170 2170 2170 2170 2170 2184 2184 2184 2184 2170 2170 2170 2170 2170 2170 2170 2170 2170 2184 2184 2170 2170 2170 2156 2156 2156 2156 2156 2156 2156 2156 2156 2156 2156 2156 2156 2156 2156 2156 2156 2156 2156 2156 2170 2170 2170 2170 2170 2170 2170 2170 2170 2170 2170 2170 2170 2170 2184 2184 2184 2198 2198 2198 2198 2198 2198 2198 2198 2184 2184 2184 2198 2198 2198 2198 2198 2198 2198 2198 2198 2198 2198 2198 2198 2198 2212 2212 2198 2198 2198 2198 2198 2198 2212 2212 2212 2212 2212 2212 2212 2212 2212 2212 2212 2226 2226 2226 2226 2212 2212 2226 2226 2226 2226 2226 2212 2212 2212 2212 2212 2212 2212 2212 2212 2212 2212 2212 2212 2212 2212 2212 2212 2212 2212 2212 2212 2226 2226 2226 2241 2241 2241 2198 1503 1503 1503 1503 1503 1503 1503 1509 1509 1509 1516 1516 1523 1523 1523 1523 1523 1523 1523 1529 1529 1529 1904 1904 1904 1915 1915 1557 1557 1557 1557 1489 1489 1483 1477 1477 1477 1477 1477 1477 1483 1489 1489 1496 1496 1503 1503 1503 1509 1509 1509 1509 1516 1523 1516 1516 1516 1516 1516 1523 1523 1523 1523 1523 1523 1529 1529 1529 1536 1536 1536 1543 1543 1543 1543 1543 1543 1543 1543 1543 1550 1550 1550 1550 1557 1557 1564 1564 1564 1564 1564 1564 1564 1564 1564 1572 1572 1572 1579 1579 1579 1579 1586 1586 1586 1579 1579 1586 1586 1594 1601 1601 1601 2129 2143 2170 2184 2212 2226 2226 2241 2241 2241 2241 2241 2241 1616 1616 1624 1624 1624 1616 1616 1616 1616 1616 1616 1624 1616 1616 1616 1616 1624 1624 1624 1624 1624 2241 2241 2226 2212 2212 2212 2198 2198 2212 2212 2212 2226 2241 2256 2256 2256 2271 2271 2271 2271 2256 2256 2271 2271 2271 2271 2271 2271 2271 2271 2256 2256 2256 2271 2271 2271 2271 2271 2271 2271 2271 1655 1655 1655 1655 1647 1647 1647 1647 1639 1639 1639 1639 1639 1639 1639 1639 1639 1639 1639 2271 2271 2286 2271 2271 2271 2271 2256 2256 2241 2212 2212 2198 2198 2184 2184 2184 2198 2198 2226 2226 2241 2256 2256 2256 2256 2040 2040 2028 2028 2016 2016 2016 2005 2005 2005 2005 2005 2005 1993 1993 2256 2256 2256 2256 2256 2256 2256 2271 2256 2256 2256 2256 2256 2256 2256 2256 2256 2256 2256 2256 1766 1766 1766 1766 1757 1757 1757 1757 1748 1748 1748 1748 1748 1748 1748 1748 1748 1748 1748 2241 2241 2241 2241 2256 2256 2256 2256 2256 2256 2256 2271 2005 2005 2005 2005 2005 2005 2005 1993 1993 1981 1981 1993 1993 1981 1981 1981 1981 1981 1981 1970 1970 1970 2256 2241 2241 2241 2241 2241 2241 2241 2241 2241 2241 2241 2241 2226 2226 2241 2241 2241 2241 2241 2241 2241 2241 2256 2256 2256 2256 2256 2256 2256 2256 2256 2256 2256 2241 2241 2241 2241 2241 2241 2241 2241 2256 2256 2256 2256 2256 2256 2256 2256 2256 2256 2256 2256 2256 2256 2241 2241 2241 2241 2241 2241 2256 2256 2256 2256 2256 2241 2241 2241 2226 2226 2226 2226 2226 2226 2226 2226 2241 2241 2241 2226 2226 2226 2226 2212 2212 2212 2212 2212 2212 2212 2212 2226 2226 2226 2226 2212 2212 2212 2212 2212 2212 2212 2226 2226 2226 2226 2226 2226 2226 2226 2226 2212 2212 2198 2198 2198 0 0 0 0 0 0 0 0 0
0 0 0 0 0 0 0 0 0 0 0 0 0 0 0 0 0 0 0 0 0 0 0 0 0 0 0 0 0 0 0 0 0 2156 2156 2156 2156 2156 2170 2170 2170 2170 2170 2170 2170 2170 2170 2156 2156 2156 2156 2170 2170 2170 2170 2184 2170 2170 2170 2170 2170 2170 2170 2170 2170 2156 2156 2170 2170 2170 2170 2170 2156 2156 2156 2156 2156 2156 2156 2156 2156 2156 2156 2156 2156 2156 2156 2156 2156 2156 2156 2156 2156 2156 2156 2156 2156 2156 2156 2156 2170 2170 2170 2170 2170 2170 2170 2184 2184 2198 2184 2184 2184 2184 2184 2184 2184 2170 2170 2184 2184 2184 2184 2184 2184 2184 2184 2198 2198 2198 2198 2198 2198 2198 2198 2198 2198 2198 2198 2198 2198 2198 2198 2198 2198 2198 2198 2198 2212 2198 2198 2198 2198 2198 2198 2198 2212 2198 2198 2198 2198 2198 2198 2198 2198 2198 2198 2198 2198 2198 2198 2212 2212 2212 2212 2212 2212 2212 2212 2212 2212 2212 2212 2212 2212 2212 2212 2226 2226 2198 2198 2198 1503 1503 1503 1503 1503 1509 1509 1509 1509 1516 1516 1523 1523 1523 1523 1523 1523 1523 1523 1529 1529 1529 1915 1915 1915 1926 1926 1557 1557 1543 1543 1496 1489 1483 1477 1477 1477 1477 1477 1477 1483 1489 1489 1496 1496 1503 1503 1503 1509 1516 1516 1516 1523 1523 1516 1516 1516 1516 1523 1523 1523 1523 1523 1529 1529 1536 1536 1536 1536 1536 1543 1543 1543 1543 1543 1543 1543 1543 1543 1543 1550 1550 1550 1557 1557 1557 1564 1564 1564 1564 1564 1564 1564 1564 1564 1572 1572 1572 1579 1579 1579 1579 1586 1586 1594 1586 1586 1594 1594 2129 2129 2129 2129 2143 2156 2156 2170 2198 2226 2226 2241 2241 2241 2241 2241 2241 1624 1624 1632 1624 1624 1624 1616 1616 1616 1616 1616 1624 1616 1616 1616 1616 1624 1624 1624 1624 1993 1993 2241 2226 2212 2212 2212 2198 2198 2212 2212 2212 2226 2226 2241 2241 2256 2256 2256 2256 2256 2256 2256 2256 2256 2256 2256 2256 2256 2256 2271 2241 2241 2256 2256 2256 2256 2271 2271 2271 2271 2271 2271 1655 1655 1655 1655 1647 1647 1647 1647 1639 1639 1639 1647 1647 1647 1639 1639 1639 1639 2271 2271 2271 2271 2271 2271 2256 2256 2256 2226 2226 2212 2212 2212 2198 2198 2198 2198 2212 2212 2226 2241 2241 2256 2256 2256 2256 2040 2028 2028 2016 2016 2005 2005 2005 2005 1993 1993 1993 1993 1993 2256 2256 2256 2256 2256 2256 2256 2256 2256 2256 2256 2256 2256 2256 2241 2241 2241 2241 2241 2241 1766 1766 1766 1766 1757 1757 1757 1757 1757 1748 1748 1748 1748 1748 1748 1748 1748 1748 2241 2241 2226 2226 2241 2241 2256 2256 2256 2256 2256 2256 2256 2005 2005 2005 2005 2005 2005 2005 1993 1993 1993 1993 1993 1993 1993 1993 1993 1993 1981 1981 1981 1981 1981 2241 2241 2226 2226 2241 2241 2241 2241 2241 2241 2226 2226 2226 2226 2226 2226 2226 2226 2241 2241 2241 2241 2241 2241 2241 2241 2241 2241 2241 2241 2241 2241 2241 2241 2226 2226 2226 2226 2226 2226 2241 2241 2241 2241 2241 2241 2241 2241 2241 2241 2241 2241 2241 2241 2241 2241 2241 2241 2241 2241 2241 2241 2241 2241 2241 2241 2241 2241 2241 2241 2226 2226 2226 2226 2226 2226 2226 2226 2226 2226 2226 2226 2226 2226 2212 2212 2198 2198 2198 2198 2198 2198 2212 2212 2226 2226 2226 2212 2212 2212 2212 2212 2212 2212 2212 2212 2226 2212 2212 2212 2212 2212 2212 2212 2198 2198 2198 2198 0 0 0 0 0 0 0 0 0
0 0 0 0 0 0 0 0 0 0 0 0 0 0 0 0 0 0 0 0 0 0 0 0 0 0 0 0 0 0 0 0 0 2143 2143 2143 2143 2143 2156 2156 2156 2170 2156 2156 2170 2170 2170 2156 2156 2156 2156 2156 2156 2170 2170 2170 2170 2170 2170 2170 2170 2170 2170 2170 2156 2156 2156 2156 2170 2156 2156 2156 2156 2156 2156 2156 2156 2156 2156 2156 2156 2156 2156 2156 2156 2156 2156 2156 2156 2156 2156 2156 2156 2156 2156 2156 2156 2156 2156 2156 2156 2156 2156 2156 2156 2156 2170 2170 2170 2184 2170 2170 2184 2170 2170 2170 2170 2170 2170 2170 2184 2184 2184 2184 2184 2184 2184 2184 2184 2184 2184 2184 2184 2184 2184 2184 2184 2184 2184 2198 2198 2198 2198 2198 2198 2198 2198 2198 2198 2198 2198 2198 2198 2198 2198 2198 2198 2198 2198 2198 2198 2198 2198 2198 2198 2198 2198 2198 2198 2198 2198 2212 2212 2198 2198 2198 2198 2198 2198 2198 2198 2198 2212 2198 2198 2212 2212 2212 2212 2198 2198 2198 1503 1503 1503 1503 1503 1509 1509 1509 1509 1516 1523 1523 1523 1523 1523 1523 1523 1523 1529 1529 1529 1529 1529 1926 1926 1926 1926 1550 1550 1536 1536 1523 1489 1483 1483 1483 1477 1477 1477 1477 1483 1489 1496 1496 1503 1503 1503 1509 1509 1516 1516 1523 1523 1523 1523 1523 1523 1523 1523 1523 1523 1523 1523 1529 1536 1536 1536 1536 1536 1543 1543 1543 1543 1543 1543 1543 1543 1543 1543 1550 1550 1550 1550 1557 1557 1557 1564 1564 1564 1564 1564 1564 1564 1564 1564 1564 1572 1572 1572 1579 1579 1579 1586 2040 1993 1981 1981 1981 1981 2129 2129 2129 2129 2129 2143 2156 2170 2198 2226 2226 2241 2241 2241 2241 2241 2241 1624 1624 1632 1632 1632 1624 1624 1616 1616 1616 1616 1624 1616 1616 1616 1616 1624 1616 1616 1970 1970 1959 1959 2226 2212 2212 2212 2198 2198 2212 2212 2212 2226 2226 2226 2241 2241 2256 2256 2256 2256 2241 2241 2241 2241 2241 2241 2241 2241 2226 2226 2226 2226 2241 2241 2256 2256 2256 2256 2271 2271 2271 2271 1655 1655 1655 1655 1655 1655 1647 1647 1647 1647 1647 1647 1647 1647 1639 1639 1647 1680 2256 2256 2271 2271 2271 2271 2256 2256 2256 2226 2226 2226 2212 2212 2198 2198 2198 2198 2212 2212 2226 2226 2241 2241 2241 2256 2241 2241 2016 2016 2005 2005 2005 2005 2005 2005 1993 1993 1993 1993 1993 1993 2256 2256 2256 2256 2241 2241 2256 2241 2241 2241 2241 2241 2241 2241 2241 2241 2241 2241 2241 1766 1766 1766 1766 1757 1757 1757 1757 1748 1748 1748 1748 1748 1748 1748 1748 1748 1748 2226 2226 2226 2226 2226 2241 2241 2241 2241 2256 2256 2256 2256 2005 2005 2005 2005 2005 2005 2005 1993 1993 1993 1993 1993 1993 1993 1993 1993 1993 1993 1981 1981 1981 1981 2241 2226 2226 2226 2226 2226 2226 2226 2226 2226 2226 2226 2226 2212 2212 2212 2212 2226 2226 2226 2226 2226 2226 2241 2241 2241 2241 2241 2241 2241 2241 2226 2226 2226 2226 2226 2226 2226 2212 2212 2212 2226 2226 2241 2241 2241 2241 2241 2241 2241 2241 2241 2241 2241 2241 2241 2241 2241 2241 2241 2241 2241 2241 2241 2241 2241 2241 2241 2241 2241 2226 2226 2226 2212 2212 2212 2212 2226 2226 2226 2226 2226 2212 2212 2212 2198 2198 2198 2198 2198 2198 2198 2198 2198 2198 2212 2212 2212 2212 2212 2212 2212 2212 2212 2212 2212 2212 2212 2212 2212 2212 2212 2212 2198 2198 2198 2198 2198 0 0 0 0 0 0 0 0 0
0 0 0 0 0 0 0 0 0 0 0 0 0 0 0 0 0 0 0 0 0 0 0 0 0 0 0 0 0 0 0 0 0 2143 2143 2143 2129 2129 2143 2143 2156 2156 2156 2156 2156 2156 2156 2156 2156 2156 2156 2156 2156 2156 2156 2156 2156 2156 2156 2156 2156 2156 2156 2156 2156 2156 2156 2156 2156 2156 2156 2156 2143 2143 2156 2156 2156 2156 2156 2156 2156 2143 2143 2143 2156 2143 2143 2143 2143 2156 2156 2156 2156 2156 2156 2156 2156 2156 2156 2156 2156 2156 2156 2156 2156 2156 2156 2170 2170 2170 2170 2170 2170 2156 2156 2156 2156 2156 2156 2170 2170 2170 2170 2170 2170 2170 2170 2170 2170 2170 2170 2170 2170 2170 2170 2170 2170 2170 2184 2184 2184 2198 2198 2198 2198 2198 2198 2198 2198 2198 2198 2198 2198 2198 2198 2198 2198 2198 2198 2198 2198 2198 2198 2198 2198 2198 2198 2198 2198 2198 2198 2198 2198 2198 2198 2198 2198 2198 2198 2198 2198 2198 2198 2198 2198 2198 2198 2198 2198 2198 2198 2198 1503 1503 1503 1503 1509 1509 1509 1509 1516 1516 1523 1523 1523 1523 1523 1523 1523 1523 1529 1529 1529 1529 1529 1936 1936 1926 1926 1550 1543 1536 1529 1523 1496 1483 1483 1483 1483 1483 1483 1483 1489 1489 1496 1496 1503 1503 1503 1509 1509 1516 1523 1523 1523 1523 1523 1523 1523 1523 1523 1523 1523 1523 1523 1529 1536 1536 1536 1536 1536 1543 1543 1543 1543 1543 1543 1543 1550 1550 1550 1550 1550 1550 1557 1557 1557 1557 1557 1557 1557 1557 1564 1564 1564 1564 1564 1564 1572 1572 1572 1579 1579 1579 2040 2028 1993 1981 1981 1981 1981 1981 2103 2103 2116 2129 2143 2143 2170 2198 2212 2226 2226 2241 2241 2241 2241 2241 1624 1624 1632 1632 1632 1624 1624 1616 1616 1616 1624 1624 1616 1616 1624 1624 1624 1616 1616 1970 1970 1959 1959 1959 1959 2212 2212 2198 2198 2212 2212 2212 2226 2226 2226 2226 2226 2241 2241 2241 2241 2241 2241 2241 2241 2226 2226 2226 2226 2226 2226 2226 2226 2241 2241 2241 2241 2241 2256 2256 2256 2256 2271 2271 1655 1655 1655 1655 1655 1647 1647 1647 1647 1647 1647 1647 1647 1647 1647 1655 1680 2256 2256 2256 2256 2256 2256 2256 2256 2241 2226 2226 2212 2212 2212 2198 2198 2198 2198 2212 2212 2212 2226 2226 2241 2241 2241 2241 2241 2016 2016 2005 2005 2005 1993 1993 1993 1993 1993 1993 1993 1981 1981 1981 2241 2241 2241 2241 2241 2241 2241 2241 2241 2241 2241 2241 2226 2226 2226 2226 2226 2226 1766 1766 1766 1766 1757 1757 1757 1757 1748 1748 1748 1748 1748 1748 1748 1748 1748 1748 2226 2226 2212 2212 2226 2226 2241 2241 2241 2241 2241 2241 2241 2016 2016 2005 2005 2005 2005 2005 1993 1993 1993 1993 1993 1993 1993 1993 1993 1993 1993 1993 1993 2241 2226 2226 2212 2212 2212 2212 2212 2226 2226 2226 2212 2212 2212 2212 2198 2198 2212 2212 2212 2212 2212 2226 2226 2226 2226 2226 2226 2226 2241 2241 2241 2226 2226 2226 2226 2226 2226 2226 2226 2212 2212 2212 2212 2226 2226 2226 2226 2226 2226 2241 2226 2226 2226 2226 2226 2226 2226 2226 2241 2241 2226 2226 2226 2226 2226 2212 2212 2226 2241 2241 2241 2226 2226 2212 2212 2212 2212 2212 2212 2198 2198 2198 2212 2212 2198 2198 2198 2198 2198 2198 2198 2198 2198 2198 2198 2198 2198 2198 2198 2198 2212 2212 2212 2212 2212 2212 2212 2212 2198 2198 2198 2198 2198 2198 2198 2198 2198 2184 2184 0 0 0 0 0 0 0 0 0
0 0 0 0 0 0 0 0 0 0 0 0 0 0 0 0 0 0 0 0 0 0 0 0 0 0 0 0 0 0 0 0 0 2129 2129 2129 2129 2129 2129 2143 2156 2156 2156 2156 2156 2156 2156 2143 2143 2143 2143 2143 2143 2143 2156 2156 2156 2156 2156 2156 2156 2156 2156 2156 2156 2156 2156 2156 2143 2143 2156 2156 2143 2143 2143 2143 2156 2156 2156 2156 2143 2143 2143 2143 2143 2143 2143 2143 2143 2143 2143 2143 2156 2143 2143 2143 2143 2143 2143 2143 2143 2143 2143 2156 2156 2156 2156 2170 2170 2170 2170 2170 2156 2156 2156 2156 2156 2156 2156 2156 2156 2170 2170 2170 2170 2170 2170 2170 2170 2170 2170 2170 2170 2170 2170 2170 2170 2170 2170 2170 2170 2184 2184 2184 2184 2184 2184 2184 2184 2184 2184 2184 2184 2198 2198 2198 2198 2184 2184 2184 2198 2198 2198 2198 2184 2184 2198 2198 2198 2198 2198 2198 2198 2198 2198 2198 2198 2198 2198 2198 2198 2198 2198 2198 2198 2198 2198 2198 2198 2184 2184 2184 1503 1503 1509 1509 1509 1509 1516 1516 1516 1523 1523 1523 1523 1523 1523 1523 1523 1529 1529 1529 1529 1529 1529 1936 1936 1936 1926 1926 1543 1543 1529 1523 1496 1483 1483 1483 1483 1483 1483 1483 1489 1489 1496 1496 1503 1503 1509 1509 1516 1516 1523 1523 1523 1523 1523 1523 1523 1523 1523 1523 1523 1523 1529 1529 1536 1536 1536 1536 1543 1543 1543 1543 1543 1550 1550 1550 1550 1550 1550 1550 1550 1557 1557 1550 1550 1550 1550 1557 1557 1557 1564 1564 1564 1564 1564 1564 1572 1572 1579 1579 2040 2028 2028 2016 2005 1981 1981 1981 1970 1970 2103 2103 2116 2129 2143 2143 2170 2184 2212 2226 2226 2226 2226 2226 2241 2241 1624 1624 1632 1632 1632 1624 1624 1624 1624 1624 1624 1624 1624 1624 1624 1624 1624 1624 1624 1959 1959 1959 1959 1959 1959 2212 2198 2198 2198 2198 2212 2212 2212 2226 2226 2226 2226 2241 2241 2241 2241 2241 2241 2226 2226 2226 2226 2226 2226 2226 2226 2226 2226 2226 2226 2226 2226 2226 2241 2241 2241 2241 2241 2271 1655 1655 1655 1647 1647 1647 1647 1647 1647 1647 1647 1647 1647 1655 1655 1647 1647 2226 2241 2241 2256 2256 2256 2256 2241 2241 2226 2212 2212 2212 2212 2198 2198 2198 2198 2212 2212 2212 2212 2226 2226 2241 2241 2241 2241 2241 2226 2005 1993 1993 1993 1993 1993 1993 1993 1981 1981 1981 1981 1981 1981 2241 2241 2226 2226 2241 2226 2226 2226 2226 2226 2226 2212 2212 2212 2212 2226 2226 1766 1766 1766 1766 1757 1757 1757 1757 1748 1748 1748 1748 1748 1748 1748 1757 1748 1748 2226 2212 2212 2212 2226 2226 2226 2226 2226 2226 2226 2226 2226 2016 2016 2016 2016 2005 2005 2005 1993 1993 1993 1993 1993 2005 2005 1993 1993 1993 1993 1993 1993 2226 2226 2212 2212 2212 2198 2198 2212 2226 2226 2212 2212 2212 2212 2198 2198 2198 2198 2198 2212 2212 2212 2212 2212 2212 2212 2212 2212 2212 2226 2226 2226 2226 2226 2226 2226 2212 2212 2212 2212 2212 2212 2212 2212 2212 2212 2226 2226 2226 2226 2226 2226 2212 2212 2212 2212 2212 2212 2212 2226 2226 2226 2212 2212 2212 2212 2212 2212 2226 2226 2226 2226 2212 2212 2212 2198 2198 2184 2184 2184 2184 2184 2198 2198 2198 2198 2198 2198 2198 2198 2198 2184 2184 2184 2184 2184 2184 2198 2198 2198 2198 2198 2212 2198 2198 2212 2198 2198 2198 2198 2198 2198 2198 2198 2198 2198 2198 2198 2184 2184 0 0 0 0 0 0 0 0 0
0 0 0 0 0 0 0 0 0 0 0 0 0 0 0 0 0 0 0 0 0 0 0 0 0 0 0 0 0 0 0 0 0 2129 2129 2129 2116 2116 2129 2129 2143 2156 2156 2156 2156 2143 2143 2143 2129 2129 2129 2129 2129 2129 2129 2143 2143 2143 2143 2143 2156 2156 2156 2143 2143 2143 2143 2143 2143 2143 2143 2156 2143 2143 2143 2143 2156 2156 2143 2143 2143 2143 2143 2143 2143 2143 2143 2143 2143 2143 2143 2143 2143 2143 2143 2143 2143 2143 2143 2143 2143 2143 2143 2143 2156 2156 2156 2156 2156 2156 2156 2156 2156 2156 2156 2156 2156 2156 2156 2156 2156 2156 2156 2156 2156 2156 2156 2156 2156 2156 2156 2156 2170 2170 2156 2156 2156 2170 2170 2170 2170 2184 2184 2184 2184 2184 2184 2184 2184 2184 2184 2184 2184 2184 2184 2184 2184 2184 2184 2184 2184 2184 2184 2184 2184 2184 2184 2184 2184 2184 2198 2198 2184 2184 2184 2184 2184 2184 2184 2184 2184 2184 2184 2184 2198 2184 2184 2184 2184 2170 2170 2170 1509 1509 1509 1509 1516 1516 1516 1516 1523 1523 1523 1523 1523 1523 1523 1523 1523 1529 1529 1529 1529 1529 1529 1947 1936 1936 1926 1926 1926 1543 1543 1543 1496 1489 1483 1483 1483 1483 1489 1489 1489 1496 1496 1503 1503 1503 1509 1516 1516 1523 1523 1523 1529 1529 1523 1523 1523 1523 1523 1523 1523 1529 1529 1529 1536 1536 1536 1543 1543 1543 1543 1543 1543 1550 1550 1550 1550 1550 1550 1557 1550 1550 1550 1550 1550 1550 1550 1557 1557 1557 1564 1564 1564 1564 1564 1564 1572 1572 1579 2028 2028 2028 2016 2016 1993 1981 1970 1970 1959 1947 1947 1947 2116 2129 2143 2143 2170 2184 2198 2212 2212 2212 2226 2226 2226 2226 1632 1632 1632 1632 1632 1632 1624 1624 1624 1624 1624 1632 1624 1624 1624 1624 1624 1624 1624 1959 1959 1959 1959 1959 1959 2212 2198 2198 2198 2198 2198 2212 2212 2212 2212 2226 2226 2226 2226 2241 2226 2226 2226 2226 2226 2226 2212 2212 2226 2226 2226 2226 2226 2226 2226 2226 2226 2226 2226 2241 2241 2241 2241 2256 2256 1655 1655 1647 1647 1647 1647 1647 1647 1647 1647 1647 1647 1655 1655 1647 1647 2226 2226 2241 2241 2241 2256 2241 2241 2226 2226 2212 2212 2212 2212 2198 2198 2198 2198 2212 2212 2212 2212 2212 2226 2226 2226 2226 2226 2241 2226 2226 1993 1993 1993 1993 1993 1981 1981 1981 1981 1981 1981 1981 1981 1981 2226 2226 2226 2226 2226 2226 2226 2226 2226 2226 2212 2212 2212 2212 2212 2226 1766 1766 1766 1757 1757 1757 1757 1757 1748 1748 1748 1748 1748 1748 1748 1757 1757 1757 2212 2212 2212 2212 2212 2226 2212 2212 2212 2212 2212 2212 2226 2016 2016 2016 2016 2005 2005 2005 1993 1993 1993 1993 1993 1993 1993 1993 1993 1993 1993 1993 1993 2212 2212 2212 2212 2212 2198 2198 2212 2212 2212 2212 2198 2198 2212 2198 2198 2198 2198 2198 2198 2198 2198 2198 2198 2198 2198 2212 2212 2212 2212 2226 2226 2212 2212 2212 2212 2212 2212 2212 2212 2198 2198 2198 2212 2212 2212 2212 2212 2212 2212 2212 2212 2212 2212 2212 2212 2212 2198 2198 2198 2212 2212 2212 2212 2212 2212 2212 2212 2212 2212 2212 2226 2212 2198 2198 2198 2198 2184 2184 2184 2184 2184 2184 2184 2184 2184 2184 2184 2184 2184 2184 2184 2184 2184 2184 2184 2184 2184 2184 2184 2198 2198 2198 2198 2198 2198 2198 2198 2198 2198 2198 2198 2198 2198 2198 2198 2184 2184 2184 2184 0 0 0 0 0 0 0 0 0
0 0 0 0 0 0 0 0 0 0 0 0 0 0 0 0 0 0 0 0 0 0 0 0 0 0 0 0 0 0 0 0 0 2129 2116 2116 2116 2116 2116 2129 2143 2143 2143 2143 2143 2143 2143 2129 2129 2129 2129 2129 2129 2129 2129 2129 2129 2143 2143 2143 2143 2143 2143 2143 2143 2143 2143 2129 2129 2129 2143 2143 2143 2143 2143 2143 2143 2143 2143 2143 2143 2143 2143 2143 2143 2143 2143 2143 2143 2143 2143 2143 2143 2143 2143 2143 2143 2143 2143 2143 2143 2143 2143 2143 2143 2156 2156 2156 2156 2156 2156 2143 2143 2143 2143 2143 2143 2143 2143 2156 2156 2156 2156 2156 2156 2156 2156 2156 2156 2156 2156 2156 2156 2156 2156 2156 2156 2156 2156 2156 2156 2170 2170 2184 2170 2170 2170 2184 2184 2184 2170 2170 2170 2184 2184 2184 2184 2184 2184 2184 2184 2184 2184 2184 2184 2184 2184 2184 2184 2184 2184 2184 2184 2184 2184 2184 2184 2184 2184 2184 2184 2184 2184 2184 2184 2184 2184 2184 2170 2170 2170 2170 1509 1509 1509 1509 1516 1516 1516 1516 1523 1523 1523 1523 1523 1523 1523 1523 1523 1529 1529 1529 1529 1529 1529 1947 1936 1936 1936 1936 1936 1936 1496 1496 1496 1489 1483 1483 1489 1489 1489 1496 1496 1496 1496 1503 1503 1509 1516 1516 1516 1523 1523 1523 1529 1529 1523 1523 1529 1529 1529 1529 1529 1529 1536 1536 1536 1536 1536 1543 1543 1543 1543 1543 1543 1543 1550 1550 1557 1557 1557 1557 1550 1550 1550 1550 1550 2184 2184 2184 2184 2184 2184 2184 2184 2184 2184 2198 2040 2040 2040 2028 2028 2028 2016 2016 1993 1970 1970 1959 1947 1947 1947 1947 1947 2129 2143 2143 2170 2184 2184 2198 2198 2198 2198 2198 2198 2198 2198 1632 1632 1632 1632 1632 1632 1632 1632 1632 1632 1632 1624 1624 1624 1624 1624 1624 1624 1970 1970 1959 1959 1959 1959 1970 2212 2212 2198 2198 2198 2212 2212 2212 2212 2212 2226 2226 2226 2226 2226 2226 2226 2212 2212 2212 2212 2212 2212 2212 2212 2212 2212 2226 2226 2226 2226 2226 2226 2226 2226 2226 2241 2256 1655 1655 1655 1647 1647 1647 1647 1647 1647 1647 1647 1647 1647 1655 1655 1655 1655 2226 2226 2226 2226 2226 2241 2241 2226 2226 2226 2212 2212 2212 2212 2198 2198 2198 2198 2212 2212 2212 2212 2212 2212 2212 2212 2226 2226 2226 2226 2226 1993 1993 1981 1981 1981 1981 1981 1981 1981 1970 1970 1981 1970 1970 1970 2226 2226 2226 2226 2226 2226 2212 2212 2212 2212 2212 2212 2212 2212 2212 1776 1766 1766 1757 1757 1757 1757 1757 1748 1748 1748 1748 1748 1748 1748 1757 1757 1757 2212 2212 2212 2212 2212 2212 2212 2212 2212 2212 2212 2212 2212 2028 2016 2016 2016 2005 2005 2005 1993 1993 1993 1993 1993 1993 1993 1993 1993 1993 1993 1993 1993 2212 2212 2212 2198 2198 2198 2198 2198 2198 2198 2198 2198 2198 2198 2198 2198 2198 2198 2198 2198 2198 2198 2198 2198 2198 2198 2198 2198 2198 2198 2198 2198 2198 2198 2198 2198 2212 2198 2198 2198 2198 2198 2198 2198 2198 2198 2198 2212 2212 2212 2212 2212 2212 2212 2212 2198 2198 2198 2198 2198 2212 2198 2198 2198 2198 2212 2212 2212 2212 2212 2212 2198 2198 2184 2184 2184 2184 2184 2184 2170 2170 2184 2184 2170 2170 2184 2184 2184 2184 2184 2184 2184 2184 2184 2184 2184 2184 2184 2184 2184 2184 2184 2184 2184 2184 2184 2184 2184 2184 2184 2184 2184 2184 2184 2184 2184 2184 2184 2184 2184 0 0 0 0 0 0 0 0 0
0 0 0 0 0 0 0 0 0 0 0 0 0 0 0 0 0 0 0 0 0 0 0 0 0 0 0 0 0 0 0 0 0 0 2116 2116 2116 2116 2116 2116 2129 2129 2129 2129 2129 2129 2129 2129 2129 2129 2129 2129 2129 2129 2116 2116 2129 2129 2129 2129 2143 2143 2143 2143 2129 2129 2129 2129 2129 2129 2129 2143 2129 2129 2143 2143 2143 2143 2143 2129 2129 2129 2129 2129 2129 2129 2129 2143 2129 2129 2143 2143 2143 2143 2129 2129 2129 2129 2129 2143 2143 2129 2129 2143 2143 2156 2156 2156 2143 2143 2143 2143 2143 2143 2143 2143 2143 2143 2143 2156 2156 2156 2156 2156 2156 2156 2156 2156 2143 2143 2143 2143 2156 2156 2156 2156 2156 2156 2156 2156 2156 2156 2170 2170 2156 2156 2156 2170 2170 2170 2170 2170 2170 2184 2184 2184 2184 2170 2170 2170 2170 2170 2170 2170 2170 2170 2170 2170 2170 2170 2170 2170 2170 2170 2170 2170 2170 2170 2170 2170 2170 2184 2184 2184 2184 2184 2184 2170 2170 2156 2156 2156 2156 1516 1516 1516 1516 1516 1516 1516 1516 1523 1523 1523 1523 1523 1523 1523 1523 1529 1529 1529 1529 1529 1529 1947 1936 1936 1936 1936 1936 1936 1496 1496 1496 1489 1489 1489 1489 1489 1489 1496 1496 1496 1496 1503 1503 1509 1516 1516 1523 1523 1523 1523 1529 1529 1523 1523 1529 1529 1529 1529 1529 1536 1543 1543 1543 1543 1543 1543 1543 1543 1536 1536 1536 1543 1550 1550 1557 1550 1550 1550 1564 2170 2170 2170 2170 2184 2184 2184 2184 2184 2184 2184 2184 2184 2184 2184 2040 2040 2040 2028 2028 2028 2028 2028 1993 1970 1947 1947 1947 1936 1936 1947 1947 1947 2143 2156 2170 2184 2184 2198 2198 2198 2198 2198 2198 2198 2198 1632 1632 1632 1632 1632 1632 1632 1632 1632 1632 1632 1624 1624 1624 1624 1624 1624 1959 1959 1959 1959 1959 1959 1959 1959 1947 1947 1926 1926 2212 2212 2212 2212 2212 2212 2212 2212 2212 2212 2212 2212 2212 2212 2212 2212 2198 2198 2212 2212 2212 2212 2212 2212 2212 2212 2212 2212 2212 2226 2226 2226 2226 2226 1655 1655 1655 1655 1647 1647 1647 1647 1647 1647 1647 1647 1647 1655 1655 1655 1655 2198 2212 2212 2226 2226 2226 2226 2226 2226 2226 2212 2212 2212 2212 2198 2198 2198 2198 2212 2212 2212 2212 2212 2212 2212 2212 2212 2212 2212 2212 2212 2212 2212 1981 1981 1981 1981 1970 1970 1970 1970 1970 1970 1970 1970 1959 1959 2212 2212 2212 2212 2212 2212 2212 2212 2212 2212 2212 2212 2212 2212 1785 1766 1766 1757 1757 1757 1757 1757 1757 1748 1748 1748 1748 1748 1748 1757 1748 1748 2212 2212 2212 2212 2212 2212 2212 2212 2212 2212 2198 2198 2212 2028 2028 2016 2016 2005 2005 2005 1993 1993 1993 1993 1993 1993 1993 1993 1993 1993 1993 1993 2212 2198 2198 2198 2198 2198 2198 2198 2198 2198 2198 2198 2198 2198 2198 2198 2198 2198 2198 2198 2198 2198 2184 2184 2184 2184 2198 2198 2198 2198 2198 2198 2198 2198 2198 2198 2198 2198 2198 2198 2198 2198 2198 2198 2198 2198 2198 2198 2198 2198 2198 2198 2198 2198 2198 2198 2198 2198 2198 2198 2198 2198 2198 2198 2198 2198 2198 2198 2198 2198 2198 2198 2198 2198 2184 2184 2184 2184 2170 2170 2170 2170 2170 2170 2170 2170 2170 2184 2184 2184 2184 2184 2184 2184 2184 2170 2170 2170 2170 2170 2184 2170 2170 2170 2170 2170 2170 2170 2170 2170 2170 2170 2170 2170 2170 2170 2170 2170 2170 2170 2170 0 0 0 0 0 0 0 0 0
0 0 0 0 0 0 0 0 0 0 0 0 0 0 0 0 0 0 0 0 0 0 0 0 0 0 0 0 0 0 0 0 0 0 2116 2116 2116 2116 2116 2116 2116 2116 2116 2116 2116 2116 2116 2116 2116 2116 2116 2116 2116 2116 2116 2116 2129 2129 2129 2129 2129 2129 2129 2129 2129 2129 2129 2129 2129 2129 2129 2116 2116 2116 2129 2143 2129 2129 2129 2129 2129 2129 2116 2116 2116 2129 2129 2129 2129 2129 2129 2129 2129 2129 2129 2129 2129 2129 2129 2129 2129 2129 2129 2143 2143 2143 2143 2143 2143 2143 2143 2143 2143 2143 2143 2129 2129 2129 2143 2143 2143 2156 2156 2156 2156 2156 2156 2156 2143 2143 2143 2143 2156 2156 2156 2156 2156 2156 2156 2156 2156 2156 2156 2156 2156 2156 2156 2170 2170 2170 2156 2156 2156 2170 2170 2170 2170 2170 2170 2156 2156 2156 2156 2156 2156 2156 2156 2156 2156 2156 2156 2156 2170 2170 2156 2156 2156 2156 2156 2156 2156 2170 2170 2170 2170 2170 2170 2156 2156 2156 2156 2156 2156 1523 1523 1516 1516 1516 1516 1516 1516 1523 1523 1523 1523 1523 1523 1529 1529 1529 1529 1529 1529 1529 1529 1947 1947 1936 1936 1936 1936 1936 1496 1496 1496 1496 1489 1489 1489 1489 1496 1496 1496 1496 1496 1503 1503 1509 1516 1523 1523 1523 1523 1529 1529 1529 1523 1523 1529 1529 1529 1536 1536 1536 1543 1543 1543 1536 1536 1543 1543 1543 1536 1536 1536 1536 1543 1550 1557 1550 1550 1550 2170 2170 2170 2184 2184 2170 2170 2184 2184 2184 2184 2184 2184 2184 2184 2184 2241 2040 2040 2028 2028 2028 2028 2028 2005 1970 1947 1947 1947 1936 1936 1936 1936 1947 2170 2170 2184 2184 2184 2184 2184 2184 2184 2184 2184 2198 2198 1639 1632 1632 1632 1632 1632 1632 1632 1632 1632 1632 1632 1632 1632 1624 1624 1624 1632 1959 1959 1959 1947 1947 1947 1947 1936 1926 1926 1926 1926 1926 2212 2212 2212 2212 2212 2212 2198 2198 2184 2184 2198 2184 2184 2184 2198 2198 2198 2198 2212 2212 2212 2212 2212 2212 2212 2198 2198 2212 2212 2212 2226 2226 1655 1655 1655 1655 1655 1647 1647 1647 1647 1647 1647 1647 1647 1655 1655 1655 1663 2198 2212 2212 2212 2212 2212 2212 2212 2212 2212 2226 2226 2226 2212 2198 2198 2198 2198 2198 2198 2198 2212 2212 2212 2212 2212 2212 2212 2212 2212 2212 2212 2212 2212 1970 1970 1970 1970 1970 1970 1959 1959 1959 1959 1959 1959 1959 1959 2212 2212 2212 2212 2212 2212 2212 2198 2198 2198 2198 2212 2212 1785 1776 1766 1766 1757 1757 1757 1757 1757 1757 1757 1757 1757 1757 1757 1757 1748 1748 2198 2198 2198 2212 2212 2212 2212 2198 2198 2198 2198 2198 2198 2040 2028 2028 2016 2016 2005 2005 1993 1993 1993 1993 1993 1993 1993 1993 1993 2005 1993 1993 2212 2198 2198 2198 2198 2198 2198 2198 2198 2198 2184 2184 2184 2184 2184 2184 2184 2184 2184 2184 2184 2184 2184 2184 2184 2184 2184 2184 2184 2184 2184 2184 2198 2198 2198 2198 2198 2198 2198 2198 2198 2198 2198 2198 2198 2198 2198 2198 2198 2198 2198 2198 2198 2198 2198 2198 2198 2198 2198 2198 2198 2198 2198 2198 2198 2198 2198 2198 2198 2198 2198 2198 2184 2184 2170 2170 2170 2170 2170 2170 2170 2170 2170 2170 2170 2170 2170 2170 2170 2184 2184 2184 2184 2184 2170 2170 2170 2170 2170 2170 2170 2170 2170 2170 2156 2156 2156 2156 2156 2156 2156 2156 2156 2156 2156 2156 2156 2156 2170 2156 2156 0 0 0 0 0 0 0 0 0
0 0 0 0 0 0 0 0 0 0 0 0 0 0 0 0 0 0 0 0 0 0 0 0 0 0 0 0 0 0 0 0 0 0 2103 2103 2103 2103 2103 2103 2103 2103 2103 2103 2103 2116 2116 2116 2116 2116 2116 2116 2116 2116 2116 2116 2116 2116 2116 2116 2129 2129 2129 2129 2129 2129 2129 2129 2116 2116 2116 2116 2116 2116 2116 2116 2116 2116 2116 2116 2116 2116 2116 2116 2116 2116 2116 2116 2129 2116 2116 2116 2129 2129 2129 2116 2116 2129 2129 2129 2129 2129 2129 2143 2143 2143 2143 2129 2129 2129 2129 2143 2143 2143 2143 2129 2129 2129 2143 2143 2143 2143 2143 2143 2156 2156 2143 2129 2129 2129 2143 2143 2143 2143 2143 2143 2156 2156 2143 2143 2156 2156 2156 2156 2156 2156 2156 2156 2156 2156 2156 2156 2156 2170 2170 2156 2156 2156 2156 2143 2143 2156 2156 2143 2143 2143 2143 2143 2143 2143 2143 2143 2156 2156 2143 2143 2143 2143 2156 2156 2156 2156 2156 2170 2170 2170 2170 2156 2156 2143 2143 2156 2156 1523 1523 1523 1523 1523 1516 1516 1523 1523 1523 1523 1523 1523 1529 1529 1529 1529 1529 1529 1529 1529 1529 1947 1947 1947 1947 1947 1947 1947 1496 1496 1496 1496 1496 1496 1496 1496 1496 1496 1496 1496 1503 1503 1503 1509 1516 1523 1523 1523 1529 1529 1529 1529 1529 1529 1536 1536 1536 1536 1536 1543 1543 1543 1543 1536 1536 1543 1543 1536 1536 1536 1536 1536 1543 2170 2170 2170 2170 2170 2170 2170 2170 2170 2170 2170 2170 2170 2170 2170 2170 2170 2170 2170 2184 2184 2184 2040 2040 2028 2028 2028 2028 2028 2016 1970 1947 1947 1936 1936 1936 1936 1936 1936 2184 2184 2184 2184 2184 2184 2184 2184 2184 2184 2184 2184 2184 2184 1632 1632 1632 1632 1632 1632 1632 1632 1632 1639 1632 1632 1632 1624 1624 1624 1624 1959 1959 1959 1947 1947 1947 1947 1936 1926 1926 1926 1926 1926 1936 2198 2198 2198 2198 2198 2198 2198 2184 2184 2184 2184 2184 2184 2184 2184 2184 2198 2198 2198 2198 2198 2198 2198 2198 2198 2198 2198 2198 2198 2198 2198 1663 1655 1655 1647 1647 1647 1647 1647 1647 1647 1655 1655 1655 1655 1655 1647 1647 1655 2198 2198 2198 2212 2212 2212 2212 2212 2212 2212 2212 2212 2212 2198 2198 2198 2198 2198 2198 2198 2198 2198 2198 2198 2198 2212 2212 2212 2212 2198 2198 2198 2198 1970 1970 1959 1959 1959 1959 1959 1959 1959 1959 1959 1959 1947 1947 2212 2212 2198 2198 2198 2198 2198 2198 2198 2198 2198 2212 2212 1785 1776 1766 1766 1757 1757 1757 1757 1757 1757 1757 1757 1757 1757 1757 1757 1748 1748 2198 2198 2198 2198 2198 2198 2198 2198 2198 2198 2198 2198 2198 2040 2040 2028 2028 2016 2005 2005 1993 1993 1993 1993 1993 1993 1993 1993 1993 2005 1993 1993 2198 2198 2198 2198 2198 2198 2184 2184 2184 2184 2184 2184 2184 2184 2184 2184 2184 2184 2184 2184 2184 2184 2184 2184 2184 2184 2184 2184 2184 2184 2184 2184 2184 2184 2184 2184 2184 2184 2184 2184 2184 2184 2184 2184 2184 2184 2184 2184 2184 2184 2198 2198 2184 2184 2198 2198 2198 2198 2184 2184 2184 2198 2198 2198 2198 2198 2198 2198 2184 2184 2184 2184 2184 2184 2170 2170 2170 2170 2170 2170 2170 2156 2156 2170 2156 2156 2156 2170 2170 2170 2170 2170 2170 2184 2170 2170 2156 2156 2156 2156 2156 2156 2156 2156 2156 2143 2143 2143 2143 2143 2156 2156 2143 2143 2143 2143 2143 2156 2143 2143 2143 0 0 0 0 0 0 0 0 0
0 0 0 0 0 0 0 0 0 0 0 0 0 0 0 0 0 0 0 0 0 0 0 0 0 0 0 0 0 0 0 0 0 0 2103 2103 2103 2103 2103 2090 2090 2090 2090 2103 2103 2116 2116 2116 2116 2116 2116 2116 2116 2103 2103 2103 2103 2103 2116 2116 2116 2116 2116 2116 2116 2129 2129 2116 2116 2116 2116 2116 2103 2103 2103 2116 2116 2116 2116 2116 2103 2103 2103 2103 2103 2103 2103 2116 2116 2116 2103 2103 2116 2116 2116 2116 2116 2103 2103 2103 2116 2103 2103 2129 2129 2129 2129 2129 2129 2129 2129 2143 2143 2143 2143 2143 2143 2143 2143 2143 2143 2143 2143 2143 2143 2143 2129 2129 2116 2116 2129 2143 2143 2143 2143 2143 2143 2143 2143 2143 2143 2143 2143 2143 2156 2156 2156 2156 2156 2156 2143 2143 2143 2156 2156 2156 2156 2143 2143 2129 2129 2143 2143 2143 2143 2143 2143 2143 2143 2143 2143 2143 2143 2143 2143 2143 2143 2143 2143 2143 2143 2143 2143 2143 2143 2156 2156 2156 2143 2143 2143 2156 2156 1529 1529 1523 1523 1523 1523 1523 1523 1523 1523 1523 1529 1529 1529 1529 1529 1529 1529 1536 1536 1529 1529 1947 1947 1959 1959 1959 1981 1981 1503 1503 1496 1496 1496 1496 1496 1496 1496 1496 1496 1503 1503 1503 1503 1509 1516 1523 1523 1523 1529 1529 1529 1536 1529 1529 1536 1536 1536 1536 1536 1543 1543 1543 1543 1536 1536 1536 1536 1536 1536 2170 2170 2170 2170 2170 2170 2170 2170 2170 2170 2170 2170 2170 2170 2170 2170 2170 2170 2170 2170 2170 2170 2170 2184 2184 2184 2040 2040 2028 2028 2040 2040 2040 2028 1970 1936 1936 1936 1926 1926 1936 1936 1936 1936 2184 2184 2184 2184 2184 2184 2184 2184 2184 2184 2184 2184 2184 1639 1632 1632 1632 1632 1632 1632 1632 1639 1639 1632 1632 1632 1624 1624 1624 1624 1647 1936 1936 1936 1936 1936 1936 1926 1926 1926 1926 1926 1926 1926 1936 2184 2184 2184 2184 2184 2184 2170 2170 2184 2170 2170 2170 2170 2170 2184 2184 2184 2198 2198 2198 2198 2198 2198 2184 2184 2198 2198 2198 2198 2198 1663 1655 1655 1647 1647 1647 1647 1647 1647 1647 1655 1655 1655 1655 1655 1647 1647 1655 2184 2184 2184 2198 2198 2198 2198 2198 2198 2212 2212 2212 2212 2198 2198 2198 2198 2198 2198 2198 2198 2198 2198 2198 2198 2198 2198 2198 2198 2198 2198 2198 2198 1970 1959 1959 1959 1959 1959 1959 1959 1947 1947 1947 1947 1947 1947 1947 2212 2198 2198 2198 2184 2184 2198 2198 2198 2198 2198 2198 1785 1776 1776 1766 1757 1757 1757 1757 1757 1757 1757 1757 1757 1757 1757 1757 1757 1757 2184 2198 2198 2184 2184 2198 2198 2198 2198 2198 2184 2184 2184 2040 2040 2028 2028 2016 2005 2005 1993 1993 1993 1993 1993 1993 1993 1993 1993 2005 1993 1993 2198 2184 2184 2184 2184 2184 2184 2184 2184 2184 2170 2170 2170 2170 2170 2170 2170 2184 2184 2184 2184 2184 2170 2170 2170 2170 2170 2184 2184 2184 2170 2170 2184 2184 2184 2184 2184 2184 2184 2184 2184 2184 2184 2170 2170 2184 2184 2184 2184 2184 2184 2184 2184 2184 2184 2184 2184 2184 2184 2184 2184 2184 2184 2184 2184 2184 2184 2184 2184 2184 2184 2184 2184 2184 2170 2170 2170 2170 2156 2156 2156 2156 2156 2156 2156 2156 2156 2156 2156 2170 2170 2170 2170 2170 2156 2156 2156 2156 2156 2156 2143 2143 2143 2143 2143 2143 2143 2129 2129 2143 2143 2143 2143 2143 2143 2143 2143 2143 2143 2143 2143 0 0 0 0 0 0 0 0 0
0 0 0 0 0 0 0 0 0 0 0 0 0 0 0 0 0 0 0 0 0 0 0 0 0 0 0 0 0 0 0 0 0 0 2103 2103 2103 2103 2090 2090 2090 2090 2090 2103 2103 2103 2103 2103 2116 2116 2116 2116 2116 2103 2103 2090 2090 2103 2103 2103 2103 2103 2103 2103 2116 2116 2116 2116 2116 2116 2116 2103 2103 2103 2103 2103 2103 2103 2103 2103 2103 2103 2103 2103 2103 2103 2103 2116 2116 2103 2103 2103 2103 2103 2103 2103 2103 2103 2103 2103 2103 2103 2103 2103 2103 2116 2129 2129 2116 2116 2116 2129 2129 2129 2129 2129 2129 2129 2129 2129 2129 2129 2129 2129 2129 2129 2116 2116 2116 2116 2129 2129 2143 2143 2143 2143 2143 2143 2143 2143 2143 2143 2143 2143 2143 2143 2143 2156 2156 2143 2143 2143 2143 2156 2143 2143 2143 2143 2129 2129 2129 2129 2129 2129 2143 2143 2143 2143 2143 2143 2143 2143 2143 2143 2143 2143 2143 2143 2143 2143 2143 2143 2143 2143 2143 2143 2143 2143 2143 2143 2143 2156 2156 1529 1529 1523 1523 1523 1523 1523 1523 1523 1523 1529 1529 1529 1529 1529 1529 1529 1536 1536 1536 1543 1947 1959 1959 1959 1959 1981 1981 1981 1503 1503 1496 1496 1496 1496 1496 1496 1503 1503 1503 1503 1503 1503 1509 1509 1516 1523 1523 1523 1529 1529 1536 1536 1529 1529 1536 1536 1536 1536 1536 1536 1543 1543 1543 2156 1536 1536 1536 2156 2156 2170 2170 2170 2170 2170 2170 2170 2170 2170 2170 2170 2170 2170 2170 2156 2156 2156 2170 2170 2170 2170 2170 2170 2170 2170 2170 2028 2028 2040 2040 2040 2040 2040 2053 2065 1936 1936 1936 1926 1926 1926 1926 1926 1926 1926 2184 2184 2170 2170 2170 2184 2184 2184 2184 2184 2184 2184 1639 1632 1632 1632 1632 1624 1624 1632 1639 1639 1632 1632 1632 1624 1624 1624 1624 1632 1926 1926 1926 1926 1926 1926 1926 1926 1926 1926 1926 1926 1926 1926 2184 2184 2184 2170 2170 2170 2170 2170 2170 2170 2170 2170 2170 2170 2184 2170 2170 2184 2198 2184 2184 2198 2198 2184 2184 2198 2198 2198 2198 1671 1663 1655 1655 1655 1655 1647 1647 1647 1655 1655 1655 1655 1655 1655 1655 1647 1647 1655 2170 2184 2184 2184 2184 2184 2198 2198 2198 2198 2212 2212 2212 2198 2198 2198 2198 2184 2184 2184 2184 2184 2184 2184 2184 2184 2184 2184 2184 2184 2184 2184 2184 2184 1959 1959 1959 1959 1959 1947 1947 1947 1947 1947 1936 1936 1936 1936 2212 2198 2184 2184 2184 2184 2184 2184 2184 2184 2198 1785 1785 1776 1776 1766 1757 1757 1757 1757 1757 1757 1757 1757 1757 1757 1757 1757 1757 1757 2184 2184 2184 2170 2170 2184 2184 2184 2184 2184 2170 2156 2156 2040 2040 2040 2028 2016 2016 2016 1993 1993 1993 1993 1993 1993 1993 2005 2005 2005 2005 2005 2184 2184 2170 2170 2170 2170 2170 2170 2170 2170 2170 2170 2170 2170 2170 2170 2170 2170 2170 2170 2170 2170 2170 2170 2156 2156 2170 2170 2170 2170 2170 2170 2184 2184 2170 2170 2170 2170 2170 2170 2170 2170 2170 2170 2170 2170 2170 2170 2170 2184 2184 2184 2184 2184 2184 2184 2184 2184 2184 2184 2184 2184 2184 2184 2184 2184 2184 2184 2184 2170 2170 2170 2170 2184 2156 2156 2156 2156 2156 2143 2143 2143 2143 2143 2143 2143 2143 2156 2156 2156 2156 2156 2156 2156 2143 2143 2143 2143 2143 2143 2143 2143 2129 2129 2129 2129 2129 2129 2129 2129 2129 2129 2143 2129 2129 2143 2143 2143 2143 2129 2129 0 0 0 0 0 0 0 0 0
0 0 0 0 0 0 0 0 0 0 0 0 0 0 0 0 0 0 0 0 0 0 0 0 0 0 0 0 0 0 0 0 0 0 2090 2090 2090 2090 2090 2090 2090 2090 2090 2103 2103 2103 2103 2103 2103 2103 2103 2103 2103 2103 2103 2090 2090 2103 2103 2103 2103 2103 2103 2103 2116 2116 2116 2116 2103 2103 2103 2103 2090 2090 2090 2090 2090 2090 2103 2103 2103 2103 2103 2103 2103 2103 2103 2103 2103 2103 2090 2090 2103 2103 2103 2103 2103 2103 2103 2103 2103 2090 2090 2103 2103 2103 2103 2103 2103 2116 2116 2116 2116 2103 2103 2103 2103 2103 2103 2116 2116 2116 2116 2129 2129 2116 2116 2116 2116 2116 2116 2116 2129 2129 2129 2143 2143 2143 2143 2143 2143 2143 2143 2143 2143 2143 2143 2143 2143 2143 2143 2143 2143 2143 2143 2143 2143 2129 2129 2129 2129 2129 2129 2129 2129 2129 2129 2129 2143 2143 2143 2143 2143 2143 2143 2143 2129 2129 2143 2143 2143 2143 2143 2143 2143 2143 2143 2143 2143 2143 2143 2143 2143 1529 1529 1529 1523 1523 1523 1523 1523 1523 1529 1529 1529 1529 1529 1529 1529 1536 1536 1536 1543 1543 1959 1959 1970 1981 1981 1981 1993 1993 1503 1503 1503 1503 1503 1503 1503 1503 1503 1503 1503 1503 1503 1503 1509 1509 1516 1516 1523 1523 1529 1536 1536 1536 1529 1529 1536 1536 1536 1536 1536 1536 1543 2143 2143 2143 2156 2156 2156 2156 2156 2156 2156 2156 2156 2156 2156 2156 2170 2170 2156 2156 2156 2156 2156 2156 2156 2156 2156 2156 2170 2156 2156 2170 2170 2156 2156 2028 2028 2040 2040 2040 2053 2053 2065 2065 2065 1936 1926 1926 1926 1926 1926 1926 1926 1926 2184 2184 2170 2170 2170 2170 2170 2170 2170 2170 2170 2170 1639 1632 1632 1632 1632 1624 1624 1632 1632 1639 1632 1632 1632 1632 1632 1632 1632 1632 1926 1926 1926 1926 1926 1926 1926 1926 1926 1926 1926 1926 1926 1926 1926 2170 2170 2170 2170 2170 2170 2170 2170 2170 2170 2170 2170 2170 2170 2170 2170 2170 2184 2184 2184 2184 2184 2170 2170 2170 2170 2184 2184 1671 1663 1655 1655 1655 1655 1655 1655 1655 1655 1655 1655 1655 1655 1655 1655 1655 1655 1655 2170 2170 2170 2184 2184 2184 2184 2184 2184 2198 2198 2198 2212 2198 2198 2198 2184 2184 2184 2184 2184 2170 2170 2170 2170 2184 2184 2184 2184 2184 2184 2184 2170 2170 1970 1959 1959 1959 1959 1947 1947 1936 1936 1936 1926 1926 1926 1926 1926 2184 2170 2156 2156 2156 2170 2170 2170 2184 2184 1785 1785 1785 1776 1766 1766 1757 1757 1757 1757 1757 1757 1757 1757 1757 1757 1757 1757 1757 2170 2170 2170 2170 2170 2170 2170 2170 2170 2170 2156 2129 2053 2040 2040 2040 2028 2016 2016 2016 1993 1993 1993 1993 1993 1993 1993 2005 2005 2005 2005 2005 2170 2156 2156 2156 2156 2156 2156 2156 2156 2170 2156 2156 2156 2156 2156 2170 2170 2170 2170 2170 2170 2170 2156 2156 2143 2143 2156 2170 2170 2170 2170 2170 2170 2170 2170 2170 2170 2170 2170 2170 2170 2156 2156 2156 2156 2156 2170 2170 2170 2170 2184 2170 2170 2170 2170 2170 2170 2170 2170 2170 2170 2170 2170 2170 2170 2170 2170 2170 2170 2170 2170 2170 2170 2170 2156 2156 2143 2143 2143 2129 2129 2129 2143 2143 2143 2143 2143 2143 2156 2156 2143 2143 2143 2143 2143 2129 2129 2143 2143 2143 2143 2143 2129 2129 2129 2129 2129 2129 2129 2129 2129 2129 2129 2129 2129 2129 2129 2129 2129 2129 2129 0 0 0 0 0 0 0 0 0
0 0 0 0 0 0 0 0 0 0 0 0 0 0 0 0 0 0 0 0 0 0 0 0 0 0 0 0 0 0 0 0 0 0 2078 2078 2090 2090 2090 2090 2090 2090 2090 2103 2103 2103 2103 2103 2103 2103 2103 2103 2103 2090 2090 2103 2103 2103 2103 2103 2103 2103 2103 2103 2103 2103 2103 2103 2103 2103 2103 2103 2090 2090 2090 2090 2090 2090 2090 2090 2090 2090 2090 2090 2090 2090 2090 2090 2090 2090 2090 2090 2090 2103 2103 2090 2090 2103 2103 2103 2103 2090 2090 2103 2103 2103 2103 2103 2103 2103 2103 2116 2116 2103 2103 2103 2103 2103 2103 2103 2103 2103 2116 2116 2116 2116 2116 2116 2103 2103 2116 2116 2116 2129 2129 2129 2129 2129 2129 2129 2129 2143 2143 2143 2143 2143 2143 2143 2129 2129 2129 2129 2129 2143 2129 2129 2143 2129 2129 2129 2129 2129 2129 2129 2129 2129 2129 2129 2129 2129 2129 2143 2129 2129 2129 2129 2129 2129 2129 2129 2129 2143 2143 2143 2143 2143 2143 2143 2143 2129 2129 2143 2143 1529 1529 1529 1529 1529 1523 1523 1529 1529 1529 1529 1529 1529 1529 1529 1536 1536 1536 1543 1543 1543 1959 1959 1981 1981 1981 1981 1981 1981 1503 1503 1503 1503 1503 1503 1503 1503 1503 1503 1503 1503 1503 1503 1503 1509 1509 1509 1516 1523 1536 1536 1536 1536 1529 1529 1543 2129 2129 2129 2129 2129 2143 2143 2143 2143 2156 2156 2143 2143 2143 2143 2143 2143 2156 2156 2156 2156 2156 2156 2156 2156 2156 2156 2156 2143 2143 2143 2143 2156 2156 2156 2156 2156 2170 2156 2156 2078 2065 2040 2040 2053 2065 2065 2065 2065 2065 1936 1915 1915 1915 1915 1915 1926 1915 1915 2170 2170 2170 2170 2170 2170 2170 2170 2170 2170 2170 1639 1639 1632 1632 1632 1632 1624 1624 1632 1632 1639 1632 1632 1632 1632 1632 1632 1632 1639 1915 1915 1915 1926 1926 1926 1926 1926 1926 1926 1926 1926 1926 1926 1926 1926 2156 2170 2170 2170 2156 2156 2156 2170 2170 2170 2170 2170 2170 2170 2170 2170 2170 2170 2170 2170 2184 2170 2170 2170 2170 2170 2170 2170 1663 1655 1655 1655 1655 1655 1655 1655 1655 1655 1655 1655 1655 1655 1655 1655 1655 1655 2170 2170 2170 2170 2170 2170 2170 2170 2170 2184 2184 2184 2198 2184 2184 2184 2184 2170 2170 2170 2170 2170 2170 2170 2170 2170 2170 2170 2170 2170 2170 2170 2170 2170 2170 2170 1959 1947 1947 1947 1936 1936 1936 1926 1926 1926 1926 1926 1915 1915 1915 1915 2156 2156 2156 2156 2156 2156 2156 1785 1785 1785 1776 1766 1766 1766 1757 1757 1757 1757 1757 1757 1757 1757 1757 1766 1766 1766 2156 2170 2170 2156 2156 2156 2156 2156 2156 2156 2143 2053 2053 2053 2040 2040 2040 2016 2016 2016 1993 1993 1993 1993 1993 2005 2005 2005 2005 2005 2005 2016 2143 2143 2143 2143 2156 2156 2143 2143 2156 2156 2143 2143 2143 2143 2156 2156 2156 2156 2156 2156 2156 2156 2143 2143 2143 2143 2156 2156 2156 2170 2170 2170 2170 2170 2170 2170 2170 2156 2156 2156 2156 2156 2156 2156 2156 2156 2156 2156 2156 2156 2170 2156 2156 2156 2156 2170 2170 2170 2170 2170 2170 2170 2156 2156 2156 2156 2170 2170 2170 2156 2156 2170 2170 2170 2143 2143 2143 2129 2129 2129 2129 2129 2129 2129 2129 2129 2129 2143 2129 2129 2143 2143 2143 2129 2129 2129 2129 2129 2143 2143 2129 2129 2129 2129 2129 2116 2116 2129 2116 2116 2129 2129 2129 2129 2129 2129 2129 2129 2129 2129 2129 0 0 0 0 0 0 0 0 0
0 0 0 0 0 0 0 0 0 0 0 0 0 0 0 0 0 0 0 0 0 0 0 0 0 0 0 0 0 0 0 0 0 0 2078 2078 2090 2090 2090 2090 2090 2090 2090 2090 2090 2090 2090 2090 2090 2090 2090 2090 2103 2090 2090 2090 2103 2103 2103 2103 2103 2103 2103 2103 2103 2103 2103 2103 2103 2103 2103 2090 2090 2090 2090 2090 2090 2090 2090 2090 2090 2090 2090 2090 2090 2090 2090 2090 2090 2090 2090 2090 2090 2090 2090 2090 2090 2090 2090 2090 2090 2090 2090 2090 2090 2103 2103 2103 2103 2103 2103 2103 2116 2116 2116 2116 2103 2103 2103 2103 2103 2103 2103 2103 2116 2116 2103 2103 2103 2103 2103 2116 2116 2116 2116 2116 2116 2129 2129 2129 2129 2129 2143 2143 2129 2129 2129 2129 2129 2129 2129 2129 2129 2129 2129 2129 2129 2129 2116 2116 2116 2116 2116 2116 2116 2116 2129 2129 2129 2129 2129 2129 2129 2129 2129 2129 2129 2129 2129 2129 2129 2129 2129 2129 2129 2129 2129 2143 2143 2129 2129 2143 2143 1529 1529 1529 1529 1529 1529 1529 1529 1529 1529 1529 1529 1536 1536 1536 1536 1536 1543 1543 1543 1543 1981 1981 1981 1981 1981 1981 1981 1993 1993 1503 1503 1503 1503 1503 1503 1503 1503 1503 1503 1503 1503 1503 1503 1509 1509 1509 1516 1523 1536 1536 1536 1543 2143 2143 2129 2129 2129 2129 2129 2129 2129 2129 2143 2143 2143 2143 2143 2143 2143 2143 2143 2143 2143 2143 2143 2143 2143 2156 2143 2143 2143 2143 2143 2143 2129 2129 2143 2143 2143 2143 2143 2156 2156 2156 2156 2090 2065 2040 2040 2053 2065 2065 2065 2065 2065 2078 1915 1915 1915 1904 1904 1904 1894 1894 2170 2170 2170 2156 2156 2170 2170 2170 2170 2156 2156 1639 1639 1632 1632 1632 1632 1632 1632 1632 1632 1639 1632 1632 1639 1632 1632 1632 1632 1639 1915 1915 1915 1915 1915 1926 1926 1926 1926 1926 1915 1915 1915 1915 1915 1915 2156 2156 2156 2170 2156 2156 2156 2156 2156 2156 2170 2170 2156 2156 2156 2170 2156 2156 2170 2170 2184 2170 2170 2170 2170 2170 2170 2170 1655 1655 1655 1655 1655 1655 1655 1655 1655 1655 1655 1655 1655 1655 1655 1655 1655 1655 2156 2156 2156 2170 2170 2170 2170 2170 2170 2170 2170 2170 2184 2170 2170 2170 2170 2170 2170 2156 2156 2156 2156 2156 2156 2156 2156 2156 2170 2170 2170 2156 2156 2156 2156 2156 1959 1947 1947 1947 1936 1926 1926 1926 1926 1926 1926 1915 1915 1915 1915 1915 2143 2143 2143 2143 2143 2143 2143 1785 1785 1785 1776 1776 1766 1766 1757 1757 1757 1757 1757 1757 1757 1757 1757 1766 1766 1766 2156 2156 2156 2156 2156 2156 2156 2156 2143 2143 2129 2053 2053 2053 2040 2040 2040 2028 2016 2016 2005 1993 1993 1993 1993 2005 2005 2005 2005 2016 2016 2040 2129 2143 2143 2143 2143 2143 2143 2143 2143 2143 2143 2143 2143 2143 2143 2143 2143 2156 2156 2156 2156 2156 2143 2143 2143 2143 2143 2156 2156 2156 2170 2170 2170 2170 2170 2156 2156 2156 2156 2156 2156 2156 2156 2156 2156 2156 2156 2156 2156 2156 2156 2143 2143 2143 2156 2156 2156 2156 2156 2156 2156 2156 2143 2143 2143 2156 2156 2156 2156 2156 2156 2156 2156 2156 2129 2129 2129 2129 2129 2129 2129 2129 2129 2129 2129 2129 2129 2129 2129 2129 2129 2129 2129 2129 2129 2129 2129 2129 2129 2129 2129 2129 2129 2129 2129 2116 2116 2116 2116 2116 2116 2116 2116 2116 2116 2116 2116 2129 2129 2129 2129 0 0 0 0 0 0 0 0 0
0 0 0 0 0 0 0 0 0 0 0 0 0 0 0 0 0 0 0 0 0 0 0 0 0 0 0 0 0 0 0 0 0 0 2078 2078 2078 2090 2090 2090 2090 2090 2078 2078 2078 2078 2078 2065 2065 2078 2078 2078 2078 2078 2078 2090 2090 2090 2090 2090 2090 2078 2078 2078 2090 2090 2090 2090 2090 2090 2090 2090 2078 2078 2078 2078 2078 2065 2065 2078 2078 2065 2065 2078 2090 2090 2090 2090 2078 2078 2078 2078 2090 2090 2090 2090 2090 2090 2090 2090 2090 2090 2090 2090 2090 2090 2090 2090 2090 2090 2090 2103 2090 2090 2103 2090 2090 2090 2090 2090 2090 2103 2103 2103 2103 2103 2103 2103 2103 2103 2103 2103 2103 2116 2116 2116 2116 2116 2116 2116 2116 2116 2129 2129 2129 2129 2129 2116 2116 2116 2116 2116 2116 2129 2116 2116 2129 2129 2103 2103 2103 2116 2116 2116 2116 2116 2116 2116 2129 2129 2129 2129 2129 2129 2129 2129 2129 2129 2116 2116 2129 2129 2129 2129 2129 2129 2129 2129 2129 2129 2116 2116 2116 1529 1529 1529 1529 1529 1529 1529 1529 1529 1529 1529 1536 1536 1536 1536 1536 1543 1543 1543 1543 1550 1550 1981 1981 1981 1981 1981 1981 1993 1993 1503 1503 1503 1503 1503 1503 1503 1503 1503 1503 1503 1503 1509 1509 1509 1509 1516 1516 1523 1523 1550 2143 2143 2143 2143 2129 2129 2129 2129 2129 2129 2129 2129 2129 2143 2143 2129 2129 2129 2129 2129 2129 2129 2143 2143 2143 2143 2143 2143 2129 2129 2129 2129 2129 2129 2129 2129 2129 2143 2143 2143 2143 2143 2156 2129 2129 2103 2078 2040 2040 2065 2065 2065 2065 2065 2065 2078 1904 1904 1904 1904 1904 1904 1894 1894 2170 2170 2170 2156 2156 2170 2156 2156 2156 2156 2156 2156 1639 1632 1632 1632 1632 1632 1632 1632 1639 1639 1639 1639 1639 1639 1639 1639 1639 1639 2156 2156 1915 1915 1915 1915 1915 1915 1915 1915 1915 1915 1915 1915 1904 1904 1904 2156 2156 2156 2170 2156 2156 2156 2156 2156 2156 2156 2156 2156 2156 2156 2156 2156 2170 2170 2170 2170 2170 2156 2156 2170 2170 2170 1655 1655 1655 1655 1655 1655 1655 1655 1655 1655 1655 1655 1655 1663 1655 1655 1655 1655 2156 2156 2156 2156 2156 2156 2156 2156 2156 2170 2170 2170 2170 2156 2156 2156 2156 2156 2156 2156 2156 2156 2156 2156 2156 2156 2156 2156 2156 2156 2156 2156 2156 2156 2156 2156 2156 1947 1947 1936 1936 1926 1926 1926 1926 1926 1915 1915 1915 1915 1904 1904 1904 2143 2143 2143 2143 2143 2143 1794 1794 1785 1776 1776 1766 1766 1766 1757 1757 1757 1757 1757 1757 1757 1766 1766 1766 1766 2156 2156 2156 2156 2156 2143 2143 2143 2143 2129 2116 2103 2053 2053 2040 2040 2040 2028 2028 2016 2005 2005 1993 1993 2005 2005 2005 2005 2005 2016 2028 2129 2129 2143 2143 2143 2143 2143 2143 2143 2143 2143 2143 2143 2143 2143 2143 2143 2143 2143 2143 2143 2143 2143 2129 2129 2129 2129 2143 2143 2156 2156 2156 2156 2156 2156 2156 2143 2143 2156 2156 2156 2156 2143 2143 2143 2143 2143 2143 2143 2143 2143 2143 2143 2143 2143 2143 2143 2143 2156 2156 2156 2143 2143 2143 2143 2143 2143 2143 2143 2143 2143 2143 2143 2143 2143 2129 2129 2116 2116 2116 2116 2116 2116 2129 2129 2129 2129 2129 2129 2129 2129 2129 2129 2129 2129 2116 2116 2129 2129 2129 2129 2129 2129 2129 2129 2116 2116 2116 2116 2116 2116 2116 2116 2116 2116 2116 2116 2116 2116 2116 2116 2116 2116 0 0 0 0 0 0 0 0
0 0 0 0 0 0 0 0 0 0 0 0 0 0 0 0 0 0 0 0 0 0 0 0 0 0 0 0 0 0 0 0 0 2065 2065 2065 2065 2078 2078 2090 2090 2090 2078 2078 2078 2065 2065 2065 2065 2065 2065 2078 2078 2078 2078 2090 2090 2078 2078 2078 2078 2078 2078 2078 2078 2078 2078 2078 2078 2090 2090 2090 2078 2078 2078 2065 2065 2065 2065 2065 2065 2065 2065 2065 2065 2065 2065 2065 2065 2065 2065 2065 2065 2065 2065 2065 2078 2078 2078 2078 2078 2078 2078 2078 2078 2078 2078 2090 2090 2090 2090 2090 2090 2090 2103 2090 2090 2090 2090 2090 2090 2090 2090 2090 2103 2103 2103 2103 2103 2103 2103 2103 2103 2103 2103 2103 2103 2103 2116 2116 2116 2116 2116 2116 2116 2116 2116 2116 2103 2103 2103 2103 2116 2116 2116 2116 2116 2116 2103 2103 2103 2103 2103 2103 2103 2103 2116 2116 2116 2116 2116 2116 2116 2129 2116 2116 2116 2116 2116 2116 2116 2116 2129 2116 2116 2116 2116 2129 2129 2116 2116 2116 2116 1529 1529 1529 1529 1529 1529 1529 1529 1529 1536 1536 1536 1536 1543 1543 1543 1543 1550 1550 1550 1550 1550 1981 1981 1981 1981 1981 1981 1993 1993 1503 1503 1503 1503 1503 1503 1503 1503 1503 1503 1503 1503 1503 1503 1503 1503 1516 1516 1516 1523 2129 2129 2129 2129 2143 2129 2129 2129 2129 2129 2129 2129 2129 2129 2129 2129 2129 2129 2129 2129 2129 2129 2129 2129 2129 2129 2143 2143 2143 2129 2129 2129 2129 2129 2129 2129 2129 2129 2129 2129 2143 2143 2143 2143 2129 2129 2103 2078 2053 2053 2065 2065 2065 2065 2065 2065 2078 1904 1894 1894 1894 1894 1894 1894 1894 2170 2156 2156 2156 2156 2170 2156 2156 2156 2156 2170 1647 1639 1639 1639 1639 1639 1632 1632 1639 1639 1639 1639 1639 1639 1639 1647 1647 1647 1647 2143 2143 2143 1915 1915 1915 1915 1915 1915 1915 1915 1915 1915 1915 1904 1904 1904 2156 2156 2156 2170 2170 2156 2156 2156 2156 2156 2156 2156 2156 2156 2156 2156 2156 2156 2156 2156 2156 2156 2156 2156 2156 2170 2170 1647 1647 1655 1655 1655 1655 1655 1655 1655 1663 1663 1663 1663 1663 1663 1663 2156 2156 2156 2156 2156 2156 2156 2156 2156 2156 2156 2170 2170 2170 2170 2156 2143 2143 2156 2156 2156 2156 2156 2156 2156 2156 2156 2156 2156 2156 2156 2156 2156 2156 2156 2156 2143 2143 2143 2143 1947 1936 1936 1926 1926 1926 1915 1915 1915 1915 1915 1915 1904 1904 1894 1894 2143 2143 2143 2143 1823 1794 1794 1785 1776 1776 1766 1766 1766 1757 1757 1757 1757 1757 1757 1766 1766 1766 1766 2143 2143 2156 2143 2143 2143 2143 2143 2143 2129 2129 2103 2103 2065 2053 2040 2040 2040 2028 2028 2016 2005 2005 1993 1993 2005 2005 2005 2005 2016 2028 2040 2116 2129 2129 2129 2143 2143 2143 2143 2129 2129 2129 2129 2129 2129 2129 2129 2129 2129 2129 2129 2129 2129 2129 2129 2129 2129 2129 2129 2143 2143 2143 2143 2143 2143 2143 2143 2143 2143 2143 2143 2143 2143 2143 2143 2143 2143 2143 2143 2143 2143 2143 2143 2143 2143 2143 2143 2143 2143 2143 2143 2143 2143 2143 2143 2143 2143 2143 2129 2129 2143 2143 2143 2143 2143 2143 2129 2116 2116 2116 2116 2116 2116 2116 2116 2116 2116 2116 2129 2129 2116 2116 2116 2116 2116 2116 2116 2116 2116 2116 2116 2116 2116 2129 2129 2116 2116 2116 2116 2116 2116 2103 2103 2103 2103 2116 2116 2116 2116 2116 2116 2116 2116 2116 0 0 0 0 0 0 0 0
0 0 0 0 0 0 0 0 0 0 0 0 0 0 0 0 0 0 0 0 0 0 0 0 0 0 0 0 0 0 0 0 0 2065 2065 2065 2065 2065 2065 2078 2078 2065 2065 2065 2065 2065 2065 2065 2065 2065 2065 2065 2065 2065 2065 2065 2078 2065 2065 2078 2065 2065 2065 2065 2065 2065 2065 2078 2078 2078 2078 2078 2065 2053 2053 2053 2053 2065 2065 2065 2065 2053 2053 2065 2065 2065 2053 2053 2065 2053 2053 2065 2065 2065 2065 2065 2065 2065 2065 2065 2065 2078 2078 2065 2065 2078 2078 2065 2065 2090 2090 2090 2090 2090 2090 2090 2090 2090 2090 2090 2090 2090 2090 2090 2090 2090 2090 2090 2103 2103 2103 2103 2103 2103 2090 2090 2090 2103 2103 2103 2103 2103 2103 2103 2103 2103 2103 2103 2103 2103 2103 2103 2103 2103 2103 2103 2103 2103 2090 2090 2090 2090 2090 2090 2090 2090 2090 2103 2103 2116 2116 2116 2116 2116 2116 2103 2103 2103 2103 2103 2103 2116 2116 2116 2116 2116 2116 2116 2116 2103 2103 2103 2116 2116 1529 1529 1529 1529 1529 1529 1536 1536 1536 1536 1536 1543 1543 1543 1543 1543 1550 1550 1550 1550 1557 1564 1981 1981 1981 1981 1981 1993 1993 1503 1503 1503 1503 1503 1503 1503 1503 1503 1503 1503 1503 1503 1503 1503 1503 1516 1516 1516 2129 2129 2116 2116 2116 2129 2129 2129 2129 2129 2129 2129 2116 2116 2129 2129 2129 2129 2129 2129 2129 2129 2129 2129 2129 2129 2129 2129 2129 2129 2129 2129 2129 2129 2129 2129 2129 2129 2129 2129 2129 2129 2143 2143 2143 2129 2129 2103 2078 2065 2065 2065 2065 2065 2065 2078 2078 2078 2090 1883 1883 1894 1894 1894 1894 1883 1883 2156 2143 2143 2156 2156 2143 2143 2143 2143 2143 1647 1647 1639 1639 1639 1639 1639 1639 1639 1639 1639 1632 1632 1639 1647 1655 1655 1647 1647 1655 2129 2129 2129 1915 1915 1915 1915 1915 1915 1915 1915 1915 1915 1894 1894 1883 1883 2156 2156 2170 2170 2156 2156 2143 2143 2156 2156 2143 2143 2143 2143 2156 2156 2156 2156 2156 2156 2156 2156 2156 2156 2170 2170 1647 1647 1655 1655 1655 1655 1655 1655 1655 1663 1663 1663 1663 1663 1663 1663 2143 2156 2156 2156 2156 2156 2156 2156 2156 2156 2156 2156 2156 2156 2156 2143 2143 2143 2143 2143 2143 2143 2143 2143 2143 2143 2143 2143 2143 2143 2143 2143 2143 2143 2143 2143 2143 2143 2143 2143 2143 2143 1936 1926 1926 1915 1915 1915 1915 1915 1904 1904 1904 1904 1894 1894 2129 2129 2129 2129 1813 1804 1804 1794 1776 1776 1766 1766 1766 1757 1757 1757 1757 1757 1757 1766 1766 1766 1766 2143 2143 2143 2143 2143 2143 2143 2143 2129 2129 2116 2103 2090 2078 2053 2053 2040 2040 2028 2028 2028 2005 2005 2005 2005 2005 2016 2016 2028 2028 2053 2090 2103 2116 2129 2129 2129 2129 2129 2129 2129 2129 2129 2129 2129 2129 2129 2129 2129 2129 2129 2129 2129 2129 2116 2116 2129 2129 2129 2129 2143 2143 2143 2143 2143 2143 2143 2143 2129 2129 2129 2143 2143 2143 2143 2143 2143 2143 2143 2143 2143 2143 2129 2129 2129 2129 2129 2143 2143 2143 2143 2143 2143 2129 2129 2129 2129 2129 2129 2129 2129 2129 2129 2129 2129 2129 2129 2116 2116 2116 2116 2116 2116 2116 2116 2116 2116 2116 2116 2116 2116 2116 2116 2116 2116 2116 2116 2116 2116 2116 2116 2116 2116 2116 2116 2116 2116 2116 2116 2116 2116 2103 2103 2103 2103 2103 2103 2116 2116 2116 2116 2116 2116 2116 2116 0 0 0 0 0 0 0 0
0 0 0 0 0 0 0 0 0 0 0 0 0 0 0 0 0 0 0 0 0 0 0 0 0 0 0 0 0 0 0 0 0 2053 2053 2053 2053 2053 2053 2065 2053 2053 2053 2053 2065 2065 2065 2053 2053 2065 2065 2065 2065 2065 2065 2065 2065 2065 2065 2065 2065 2065 2065 2065 2065 2065 2065 2065 2065 2065 2065 2065 2065 2053 2053 2053 2053 2053 2053 2053 2053 2053 2053 2053 2053 2053 2053 2053 2053 2053 2053 2053 2053 2053 2065 2065 2065 2065 2065 2065 2065 2065 2065 2065 2065 2065 2065 2065 2065 2078 2078 2090 2090 2090 2090 2090 2078 2078 2078 2078 2078 2078 2078 2078 2078 2078 2090 2090 2090 2090 2090 2090 2090 2090 2090 2090 2090 2090 2090 2090 2090 2090 2090 2090 2090 2090 2103 2090 2090 2090 2090 2090 2103 2103 2103 2103 2103 2103 2090 2090 2090 2090 2078 2078 2090 2090 2090 2090 2090 2090 2090 2103 2103 2103 2103 2103 2090 2090 2090 2090 2090 2103 2103 2103 2090 2090 2090 2103 2090 2090 2090 2103 2116 2116 1529 1529 1529 1529 1529 1529 1536 1536 1536 1536 1543 1543 1543 1543 1550 1550 1550 1550 1550 1557 1557 1564 1981 1981 1981 1981 1981 1993 1993 1503 1503 1503 1503 1503 1503 1509 1509 1509 1509 1509 1509 1509 1503 1503 1503 1503 2129 2116 2116 2116 2116 2116 2116 2116 2116 2116 2116 2116 2116 2116 2116 2116 2116 2116 2116 2129 2129 2129 2116 2116 2116 2116 2129 2129 2129 2129 2129 2129 2129 2129 2129 2116 2116 2116 2116 2116 2129 2129 2129 2129 2129 2129 2129 2129 2116 2116 2090 2065 2065 2065 2065 2065 2078 2078 2078 2078 2090 1883 1883 1883 1883 1883 1883 1883 1883 1883 2143 2143 2143 2143 2143 2129 2129 2129 2129 1647 1647 1639 1639 1639 1639 1639 1639 1639 1639 1639 1632 1632 1639 1647 1655 1655 1655 1655 1655 2116 2116 2116 2129 1915 1904 1904 1915 1915 1915 1915 1904 1904 1894 1894 1883 1883 2156 2156 2156 2156 2156 2156 2143 2143 2143 2143 2143 2129 2129 2143 2129 2129 2143 2143 2143 2156 2156 2156 2156 2156 2156 2156 1655 1655 1655 1655 1655 1655 1655 1655 1655 1663 1663 1663 1663 1663 1663 1663 2143 2143 2143 2143 2143 2143 2143 2143 2143 2156 2156 2156 2156 2156 2156 2143 2143 2143 2143 2143 2143 2143 2143 2143 2143 2143 2143 2143 2143 2143 2143 2143 2143 2143 2143 2143 2143 2143 2156 2143 2143 2143 2143 1926 1915 1915 1915 1915 1904 1904 1904 1904 1894 1894 1894 1883 1863 1853 1843 1843 1804 1804 1804 1794 1785 1776 1776 1776 1766 1766 1757 1757 1757 1766 1766 1766 1757 1757 1757 2143 2143 2143 2143 2143 2143 2143 2129 2129 2129 2116 2103 2090 2065 2053 2053 2040 2028 2028 2028 2028 2005 2005 2005 2005 2005 2016 2016 2028 2040 2078 2090 2103 2103 2116 2129 2129 2129 2129 2129 2129 2129 2129 2129 2129 2129 2129 2129 2116 2116 2116 2116 2116 2116 2116 2116 2116 2129 2129 2129 2129 2129 2129 2129 2129 2129 2129 2129 2129 2129 2129 2129 2129 2129 2143 2143 2143 2143 2143 2129 2129 2129 2129 2129 2129 2129 2129 2129 2129 2129 2129 2129 2129 2129 2129 2129 2129 2129 2129 2129 2129 2129 2129 2129 2129 2129 2129 2116 2116 2116 2116 2116 2103 2103 2103 2103 2116 2116 2116 2116 2116 2116 2116 2116 2116 2116 2116 2116 2116 2116 2103 2103 2103 2103 2103 2116 2103 2103 2103 2103 2103 2103 2090 2090 2090 2103 2103 2103 2103 2103 2103 2116 2116 2116 2116 0 0 0 0 0 0 0 0
0 0 0 0 0 0 0 0 0 0 0 0 0 0 0 0 0 0 0 0 0 0 0 0 0 0 0 0 0 0 0 0 0 2053 2053 2053 2040 2040 2040 2040 2040 2040 2040 2053 2053 2053 2053 2053 2053 2065 2065 2053 2053 2053 2053 2065 2065 2065 2065 2065 2053 2053 2053 2053 2053 2053 2053 2065 2065 2065 2065 2065 2053 2053 2053 2053 2053 2053 2053 2053 2053 2053 2053 2053 2053 2053 2053 2053 2053 2053 2053 2053 2053 2053 2053 2065 2053 2053 2065 2065 2065 2065 2065 2065 2065 2065 2065 2065 2065 2078 2078 2078 2078 2078 2065 2065 2065 2078 2065 2065 2078 2078 2078 2078 2078 2078 2090 2090 2090 2090 2078 2078 2078 2078 2078 2078 2078 2090 2090 2090 2090 2090 2090 2090 2090 2090 2090 2090 2090 2090 2090 2090 2090 2090 2090 2090 2090 2090 2078 2078 2078 2078 2078 2078 2078 2078 2078 2078 2078 2090 2090 2090 2090 2090 2090 2090 2090 2090 2090 2090 2090 2090 2090 2090 2090 2090 2090 2090 2090 2090 2090 2090 2103 2116 2116 1529 1529 1529 1529 1536 1536 1536 1536 1536 1543 1550 1543 1543 1550 1550 1550 1550 1557 1557 1557 1564 1981 1981 1981 1981 1993 2005 2005 1503 1503 1503 1503 1509 1509 1509 1509 1509 1509 1509 1509 1509 1503 1503 1503 1503 2103 2103 2103 2116 2116 2116 2116 2116 2116 2116 2116 2116 2116 2116 2116 2116 2116 2116 2116 2116 2116 2116 2116 2116 2116 2116 2116 2116 2116 2129 2129 2129 2129 2116 2116 2116 2116 2116 2116 2116 2116 2116 2116 2116 2129 2129 2129 2116 2116 2116 2090 2078 2065 2065 2065 2065 2078 2078 2078 2078 2090 2090 1883 1883 1883 1883 1883 1883 1883 1883 1883 2156 2143 2143 2129 2129 2116 2116 2116 1647 1647 1639 1639 1639 1639 1639 1639 1639 1639 1639 1639 1639 1647 1647 1655 1655 1655 1655 2116 2116 2116 2116 2116 2116 1904 1904 1915 1915 1915 1915 1904 1904 1894 1883 1883 1883 1873 1873 2156 2156 2156 2156 2156 2143 2143 2143 2143 2116 2116 2129 2116 2116 2129 2129 2129 2129 2129 2143 2143 2156 2156 1663 1655 1655 1663 1663 1655 1655 1655 1655 1655 1663 1663 1663 1663 1671 1671 1671 2129 2129 2129 2129 2129 2129 2129 2129 2129 2143 2143 2143 2143 2143 2143 2129 2129 2129 2129 2129 2129 2129 2129 2143 2143 2143 2143 2143 2143 2143 2129 2129 2129 2129 2143 2143 2143 2143 2143 2143 2143 2129 2129 2129 1915 1915 1904 1904 1904 1904 1894 1894 1883 1883 1883 1873 1863 1853 1843 1843 1804 1804 1794 1794 1785 1776 1776 1776 1766 1766 1757 1757 1757 1766 1766 1757 1757 1757 1757 2129 2129 2129 2129 2129 2129 2129 2129 2129 2129 2103 2090 2078 2065 2053 2040 2040 2028 2028 2028 2028 2005 2005 2005 2005 2005 2016 2016 2028 2040 2078 2090 2090 2103 2116 2116 2116 2116 2116 2116 2129 2129 2129 2129 2129 2129 2129 2116 2116 2116 2116 2116 2116 2116 2116 2116 2116 2116 2116 2129 2129 2129 2129 2129 2129 2129 2129 2129 2129 2129 2129 2116 2116 2129 2129 2129 2129 2129 2129 2116 2116 2116 2116 2116 2116 2129 2129 2129 2129 2129 2129 2129 2129 2116 2116 2129 2129 2129 2116 2116 2116 2116 2116 2116 2116 2116 2116 2103 2103 2103 2103 2103 2090 2090 2090 2103 2103 2116 2103 2103 2116 2116 2116 2116 2116 2103 2103 2103 2103 2103 2103 2090 2090 2090 2090 2103 2090 2090 2090 2090 2090 2090 2078 2078 2090 2090 2090 2090 2090 2103 2103 2103 2103 2103 2103 0 0 0 0 0 0 0 0
0 0 0 0 0 0 0 0 0 0 0 0 0 0 0 0 0 0 0 0 0 0 0 0 0 0 0 0 0 0 0 0 0 2053 2040 2040 2028 2028 2028 2028 2028 2028 2028 2040 2053 2053 2053 2053 2053 2053 2053 2053 2053 2053 2053 2053 2053 2053 2053 2053 2053 2053 2053 2053 2040 2040 2053 2053 2053 2065 2065 2053 2053 2040 2040 2040 2040 2040 2040 2053 2053 2053 2053 2053 2053 2053 2053 2053 2053 2053 2053 2053 2053 2053 2053 2065 2053 2053 2065 2065 2065 2065 2065 2065 2053 2053 2053 2053 2053 2053 2053 2053 2065 2065 2065 2065 2065 2065 2065 2065 2078 2078 2078 2065 2065 2078 2078 2078 2078 2065 2065 2065 2065 2078 2078 2078 2078 2078 2078 2078 2078 2090 2078 2078 2078 2090 2090 2090 2090 2090 2090 2090 2090 2090 2090 2090 2090 2090 2078 2078 2078 2078 2078 2078 2078 2078 2078 2078 2078 2078 2078 2078 2078 2090 2090 2090 2090 2090 2090 2090 2090 2090 2090 2090 2078 2078 2078 2090 2090 2078 2078 2090 2103 2116 2116 1529 1529 1529 1529 1536 1536 1536 1543 1543 1543 1550 1550 1550 1550 1550 1550 1557 1557 1557 1557 1564 1981 1981 1981 1981 1993 2016 2016 1509 1509 1503 1503 1509 1509 1509 1509 1509 1509 1509 1516 1509 1509 1509 1516 1516 2090 2078 2078 2090 2090 2103 2103 2103 2103 2103 2103 2103 2103 2103 2103 2103 2103 2103 2103 2103 2103 2103 2103 2103 2103 2103 2103 2116 2116 2116 2116 2116 2116 2116 2116 2116 2116 2116 2116 2116 2116 2116 2116 2116 2116 2116 2116 2116 2116 2103 2090 2078 2065 2065 2078 2078 2078 2078 2090 2090 2090 2090 1883 1883 1883 1883 1883 1883 1883 1883 1883 1883 2143 2129 2116 2116 2116 2103 2103 2103 1647 1639 1639 1639 1639 1639 1639 1639 1639 1647 1639 1639 1647 1647 1655 1655 1655 1655 2103 2116 2116 2116 2116 2116 1904 1904 1915 1915 1915 1915 1904 1894 1894 1883 1883 1883 1873 1873 1873 2156 2156 2156 2156 2143 2143 2143 2129 2116 2116 2116 2116 2116 2116 2116 2116 2116 2116 2129 2143 2143 2143 1663 1663 1663 1663 1663 1663 1655 1655 1655 1655 1663 1663 1663 1663 1671 1671 1671 2129 2129 2129 2129 2129 2129 2129 2129 2129 2143 2143 2143 2143 2143 2143 2129 2129 2129 2116 2116 2116 2129 2129 2129 2129 2129 2129 2129 2143 2129 2116 2116 2129 2129 2129 2116 2116 2129 2129 2129 2129 2129 2129 2129 2129 1915 1904 1904 1904 1894 1894 1894 1883 1883 1873 1873 1863 1853 1853 1833 1804 1804 1794 1794 1785 1776 1776 1776 1766 1766 1766 1757 1757 1766 1766 1757 1757 1757 1757 2116 2116 2116 2116 2116 2116 2129 2116 2116 2116 2103 2090 2078 2053 2053 2040 2040 2028 2028 2028 2028 2005 2005 2005 2005 2016 2016 2028 2040 2065 2065 2078 2090 2090 2103 2103 2103 2116 2116 2116 2116 2116 2116 2116 2116 2116 2116 2116 2116 2116 2116 2116 2103 2103 2103 2116 2116 2116 2116 2116 2116 2116 2116 2116 2116 2116 2116 2116 2116 2116 2116 2116 2116 2116 2116 2129 2116 2116 2116 2116 2103 2103 2116 2116 2116 2116 2116 2116 2116 2116 2116 2116 2116 2103 2103 2116 2116 2116 2116 2116 2116 2116 2116 2103 2103 2116 2103 2090 2090 2090 2090 2090 2090 2090 2090 2090 2103 2103 2103 2103 2103 2103 2103 2103 2103 2103 2090 2090 2090 2090 2090 2090 2090 2090 2090 2090 2078 2078 2078 2078 2078 2078 2078 2078 2078 2078 2090 2090 2090 2090 2090 2090 2090 2090 2090 0 0 0 0 0 0 0 0
0 0 0 0 0 0 0 0 0 0 0 0 0 0 0 0 0 0 0 0 0 0 0 0 0 0 0 0 0 0 0 0 0 0 2016 2016 2028 2028 2016 2016 2028 2028 2028 2040 2053 2053 2040 2040 2053 2053 2053 2053 2053 2053 2053 2053 2053 2053 2053 2053 2040 2040 2040 2053 2040 2040 2053 2040 2040 2053 2053 2053 2053 2040 2040 2040 2040 2040 2040 2040 2040 2040 2040 2053 2053 2053 2053 2053 2040 2040 2040 2040 2040 2040 2040 2053 2053 2053 2053 2053 2053 2053 2053 2053 2053 2053 2053 2053 2053 2053 2053 2053 2053 2053 2053 2053 2053 2053 2065 2065 2065 2065 2065 2065 2065 2078 2078 2078 2078 2065 2065 2065 2065 2065 2078 2078 2078 2078 2065 2065 2078 2078 2078 2078 2078 2078 2078 2090 2078 2078 2090 2090 2090 2090 2090 2090 2090 2090 2078 2078 2078 2078 2065 2065 2065 2065 2065 2065 2065 2078 2078 2078 2078 2078 2078 2078 2078 2078 2078 2090 2090 2090 2078 2078 2078 2078 2078 2078 2078 2078 2078 2090 2090 2116 2116 1536 1536 1536 1536 1536 1536 1543 1543 1543 1543 1550 1550 1550 1550 1550 1550 1557 1557 1557 1557 1564 1993 1993 1993 2005 2065 2078 2078 1509 1509 1509 1509 1509 1509 1509 1509 1509 1509 1509 1516 1516 1516 1516 1523 1523 2078 2078 2078 2090 2090 2090 2090 2103 2103 2103 2103 2103 2103 2103 2103 2090 2090 2090 2103 2103 2103 2103 2103 2103 2103 2090 2090 2090 2090 2090 2103 2103 2103 2103 2103 2103 2103 2103 2103 2103 2103 2103 2103 2103 2103 2103 2103 2103 2103 2103 2090 2078 2078 2078 2078 2078 2078 2090 2090 2090 2090 2090 1883 1883 1883 1883 1883 1883 1883 1883 1883 1883 2129 2129 2116 2116 2103 2090 2090 2090 1655 1647 1647 1639 1639 1639 1639 1639 1639 1647 1639 1639 1647 1655 1655 1655 1655 1655 2103 2116 2116 2116 2116 2116 2116 2116 1904 1904 1904 1904 1894 1894 1883 1883 1883 1883 1883 1873 1873 1883 2156 2156 2129 2116 2116 2116 2116 2116 2116 2116 2116 2116 2116 2116 2116 2116 2116 2116 2129 2129 2129 1663 1663 1663 1663 1663 1663 1655 1655 1655 1663 1663 1663 1663 1663 1671 1671 1671 2116 2116 2116 2116 2116 2116 2116 2116 2129 2129 2129 2143 2143 2129 2129 2129 2116 2116 2116 2103 2103 2116 2116 2116 2116 2116 2116 2116 2129 2116 2116 2116 2116 2116 2116 2116 2116 2116 2116 2116 2116 2116 2116 2116 2116 2129 1904 1904 1894 1894 1894 1883 1873 1873 1873 1873 1863 1863 1853 1833 1813 1804 1794 1785 1785 1776 1776 1776 1766 1766 1766 1766 1766 1766 1766 1766 1766 1766 1766 2116 2116 2103 2103 2116 2116 2116 2116 2116 2116 2103 2090 2078 2053 2053 2040 2040 2028 2028 2028 2028 2016 2016 2016 2016 2016 2028 2028 2040 2065 2065 2078 2078 2090 2090 2090 2103 2103 2103 2103 2103 2103 2103 2103 2103 2116 2103 2103 2103 2103 2103 2103 2103 2103 2103 2103 2103 2103 2116 2116 2116 2116 2103 2103 2103 2103 2103 2103 2103 2103 2103 2103 2103 2103 2116 2116 2103 2103 2103 2103 2103 2103 2103 2103 2103 2103 2103 2103 2103 2103 2103 2103 2103 2103 2103 2103 2116 2103 2103 2103 2103 2103 2103 2103 2103 2103 2090 2090 2078 2078 2078 2078 2090 2090 2090 2090 2090 2103 2090 2090 2090 2103 2103 2090 2090 2090 2090 2090 2090 2090 2090 2078 2078 2078 2078 2078 2078 2078 2078 2078 2078 2078 2078 2078 2078 2078 2078 2090 2090 2090 2090 2090 2078 2078 2078 0 0 0 0 0 0 0 0
