0 0 0 0 0 0 0 0 0 0 0 0 0 0 0 0 0 0 0 0 0 0 0 0 0 0 0 0 0 0 0 0 0 0 0 0 1477 1477 1477 1483 1483 1483 1483 1483 1483 1483 1483 1483 1483 1483 1483 1483 1483 1483 1483 1483 1483 1483 1483 1489 1489 1489 1489 1489 1489 1489 1489 1489 1489 1489 1489 1496 1483 1483 1483 1483 1483 1483 1483 1483 1483 1483 1489 1489 1489 1489 1489 1496 1489 1489 1489 1489 1489 1489 1489 1489 1489 1496 1496 1503 1496 1496 1496 1496 1496 1496 1496 1489 1489 1489 1489 1496 1496 1489 1489 1496 1496 1503 1503 1503 1503 1496 1496 1496 1496 1496 1496 1496 1496 1503 1503 1503 1503 1503 1503 1496 1496 1496 1496 1496 1496 1496 1496 1503 1503 1503 1509 1509 1509 1509 1509 1509 1509 1509 1509 1509 1509 1509 1503 1503 1503 1503 1503 1503 1503 1503 1503 1509 1509 1509 1509 1509 1509 1516 1509 1509 1509 1509 1509 1509 1509 1509 1509 1516 1516 1516 1516 1516 1516 1516 1516 1516 1523 1523 1523 1523 1523 1523 1523 1523 1523 1523 1523 1523 1523 1523 1523 1523 1523 1523 1523 1523 1523 1529 1529 1529 1529 1529 1529 1529 1529 1529 1529 1529 1529 1529 1529 1529 1529 1529 1529 1529 1529 1529 1529 1529 1529 1529 1529 1529 1536 1536 1529 1529 1523 1523 1523 1529 1529 1529 1536 1536 1536 1536 1536 1536 1536 1536 1536 1543 1543 1543 1543 1543 1543 1543 1543 1543 1543 1543 1543 1543 1543 1543 1543 1550 1550 1543 1543 1543 1543 1543 1543 1543 1543 1543 1543 1543 1543 1543 1543 1543 1543 1543 1543 1543 1543 1543 1550 1550 1543 1543 1543 1543 1543 1550 1550 1550 1550 1550 1550 1550 1550 1550 1550 1550 1550 1550 1550 1550 1550 1550 1550 1557 1557 1557 1557 1557 1557 1557 1550 1550 1550 1543 1543 1543 1543 1543 1543 1543 1543 1543 1550 1550 1543 1543 1543 1550 1550 1550 1550 1550 1550 1550 1550 1550 1550 1550 1550 1557 1557 1557 1557 1564 1564 1564 1564 1564 1564 1564 1564 1564 1564 1564 1564 1564 1564 1564 1564 1564 1564 1557 1557 1557 1557 1557 1557 1564 1564 1564 1564 1564 1564 1564 1564 1572 1564 1564 1557 1557 1564 1564 1564 1564 1564 1572 1572 1572 1572 1572 1564 1564 1564 1564 1572 1564 1564 1564 1564 1564 1564 1564 1564 1564 1564 1564 1564 1564 1564 1572 1572 1572 1572 1572 1572 1572 1572 1564 1564 1564 1564 1564 1564 1564 1564 1564 1564 1572 1564 1564 1564 1572 1572 1572 1572 1572 1572 1572 1572 1572 1579 1572 1572 1564 1564 1572 1572 1564 1564 1579 1579 1579 1579 1579 1579 1579 1579 1579 1579 1579 1579 1579 1586 1586 1579 1579 1579 1579 1579 1579 1579 1579 1586 1586 1579 1579 1586 1586 1586 1586 1586 1579 1579 1579 1579 1579 1572 1572 1579 1579 1579 1572 1572 1572 1572 1572 1572 1572 1572 1579 1579 1579 1579 1579 1579 1579 1579 1579 1579 1579 1586 1586 1579 1579 1579 1579 1579 1579 1579 1579 1586 1586 1586 1586 1586 1586 1586 1586 1586 1586 1586 1586 1586 1586 1586 1586 1586 1586 1586 1586 1586 1586 1586 1586 1586 1586 1586 1586 1586 1579 1579 1579 1579 1579 1579 1579 1579 1579 1586 1586 1586 1586 1586 1594 1594 1586 1586 1579 1579 1579 1579 1579 1579 1579 1579 1579 1579 1579 1586 1586 1579 1579 1579 1579 1579 1579 1586 1586 1586 1586 1594 1594 1594 1594 1594 1601 1601 1594 1594 1594 1594 1601 1601 1601 1601 1601 1601 1601 1601 1601 1601 1601 1609 1609 0 0 0 0 0 0
0 0 0 0 0 0 0 0 0 0 0 0 0 0 0 0 0 0 0 0 0 0 0 0 0 0 0 0 0 0 0 0 0 0 0 0 1470 1470 1470 1470 1477 1477 1477 1477 1477 1477 1477 1483 1483 1483 1483 1483 1483 1483 1483 1483 1483 1483 1483 1489 1489 1489 1489 1489 1489 1489 1483 1483 1483 1489 1489 1489 1483 1483 1483 1483 1483 1483 1483 1483 1483 1483 1483 1483 1483 1483 1489 1489 1489 1483 1483 1483 1489 1489 1489 1489 1489 1489 1489 1489 1489 1489 1489 1489 1489 1489 1489 1489 1489 1489 1489 1496 1489 1489 1489 1496 1496 1496 1496 1496 1496 1496 1496 1496 1496 1496 1496 1496 1496 1503 1503 1503 1503 1503 1503 1496 1496 1496 1496 1489 1489 1489 1496 1496 1496 1496 1503 1503 1509 1509 1503 1503 1503 1503 1503 1503 1503 1503 1503 1503 1503 1503 1503 1503 1503 1503 1503 1503 1503 1503 1503 1503 1503 1509 1509 1509 1509 1503 1503 1503 1509 1509 1509 1509 1509 1509 1509 1516 1516 1516 1516 1516 1516 1516 1523 1523 1523 1523 1523 1523 1523 1523 1516 1516 1516 1523 1523 1523 1523 1523 1523 1523 1523 1523 1529 1523 1523 1523 1523 1523 1523 1529 1529 1529 1529 1529 1529 1529 1529 1529 1529 1529 1529 1523 1523 1523 1529 1529 1529 1529 1529 1529 1529 1529 1523 1523 1523 1523 1523 1529 1529 1529 1529 1529 1529 1529 1529 1536 1536 1536 1536 1536 1536 1536 1536 1536 1543 1543 1543 1543 1543 1543 1543 1543 1543 1543 1543 1543 1543 1543 1543 1543 1543 1543 1543 1543 1543 1543 1543 1543 1543 1543 1543 1543 1543 1543 1543 1543 1543 1543 1543 1543 1543 1543 1543 1543 1543 1543 1543 1550 1550 1550 1543 1543 1543 1543 1543 1543 1550 1550 1550 1550 1550 1550 1550 1550 1550 1550 1550 1550 1543 1543 1543 1543 1543 1543 1543 1543 1543 1543 1543 1543 1543 1543 1543 1543 1543 1543 1543 1543 1543 1543 1543 1543 1543 1543 1543 1543 1543 1550 1550 1550 1557 1557 1557 1557 1557 1557 1564 1564 1564 1564 1564 1564 1564 1564 1557 1557 1557 1557 1550 1550 1550 1550 1557 1557 1557 1557 1557 1564 1564 1564 1564 1557 1557 1557 1557 1557 1557 1557 1564 1564 1564 1564 1564 1564 1564 1564 1564 1564 1564 1564 1564 1564 1564 1557 1557 1557 1557 1557 1557 1557 1557 1557 1557 1564 1564 1564 1564 1564 1564 1564 1564 1564 1564 1564 1564 1564 1564 1564 1564 1564 1564 1564 1564 1564 1564 1564 1564 1564 1564 1564 1564 1564 1564 1564 1572 1572 1572 1572 1572 1572 1572 1564 1564 1572 1572 1564 1564 1572 1579 1579 1579 1579 1579 1579 1572 1572 1572 1579 1579 1579 1579 1579 1572 1572 1572 1572 1572 1572 1579 1579 1579 1579 1579 1579 1579 1579 1579 1579 1579 1579 1579 1572 1572 1572 1572 1572 1579 1579 1572 1572 1572 1572 1572 1572 1572 1572 1572 1579 1579 1579 1579 1579 1579 1579 1579 1579 1579 1579 1579 1579 1579 1579 1579 1579 1579 1579 1579 1579 1579 1579 1579 1579 1586 1586 1579 1579 1579 1579 1579 1579 1579 1579 1579 1579 1579 1579 1579 1579 1579 1579 1579 1579 1579 1579 1579 1586 1579 1579 1579 1579 1579 1579 1579 1579 1579 1579 1579 1586 1586 1586 1586 1586 1586 1586 1579 1572 1572 1572 1572 1579 1579 1579 1579 1579 1579 1579 1579 1579 1579 1579 1572 1572 1572 1572 1572 1579 1579 1579 1579 1586 1586 1586 1594 1594 1594 1594 1594 1594 1594 1594 1594 1594 1601 1601 1601 1601 1601 1601 1601 1601 1601 1609 0 0 0 0 0 0
0 0 0 0 0 0 0 0 0 0 0 0 0 0 0 0 0 0 0 0 0 0 0 0 0 0 0 0 0 0 0 0 0 0 0 0 1464 1464 1464 1464 1470 1470 1470 1470 1470 1470 1470 1477 1477 1477 1477 1483 1483 1483 1483 1483 1483 1483 1483 1483 1483 1483 1483 1483 1483 1483 1483 1483 1483 1483 1483 1489 1483 1483 1483 1483 1483 1483 1483 1483 1483 1483 1483 1483 1483 1483 1483 1483 1483 1483 1483 1483 1483 1483 1483 1483 1483 1483 1483 1483 1483 1483 1483 1483 1483 1483 1483 1483 1489 1483 1483 1483 1483 1483 1483 1489 1489 1489 1489 1489 1489 1489 1489 1489 1489 1489 1489 1489 1489 1496 1496 1496 1496 1496 1496 1496 1496 1489 1489 1489 1489 1489 1496 1496 1496 1496 1496 1503 1503 1503 1503 1503 1503 1503 1503 1503 1503 1503 1496 1496 1496 1496 1496 1496 1496 1496 1496 1496 1496 1503 1503 1503 1503 1503 1503 1503 1503 1503 1503 1503 1503 1503 1503 1509 1503 1503 1503 1509 1509 1509 1509 1509 1516 1516 1516 1516 1516 1516 1516 1516 1516 1516 1516 1516 1516 1516 1516 1516 1516 1516 1516 1523 1523 1523 1523 1523 1523 1523 1523 1523 1523 1523 1523 1523 1523 1529 1529 1523 1523 1523 1523 1523 1523 1523 1523 1523 1523 1529 1529 1529 1529 1529 1529 1529 1523 1523 1523 1523 1523 1523 1523 1523 1523 1523 1529 1523 1523 1529 1529 1536 1536 1529 1529 1536 1529 1529 1536 1536 1536 1543 1543 1543 1543 1543 1543 1543 1543 1536 1536 1536 1536 1536 1543 1543 1543 1543 1536 1536 1543 1543 1543 1543 1543 1543 1543 1543 1543 1543 1543 1543 1543 1543 1536 1536 1536 1536 1543 1543 1543 1543 1543 1543 1543 1543 1543 1543 1543 1543 1543 1550 1550 1550 1550 1550 1550 1550 1550 1543 1543 1550 1543 1543 1543 1543 1543 1543 1543 1543 1543 1543 1543 1543 1543 1543 1543 1543 1543 1543 1543 1543 1543 1543 1543 1543 1543 1543 1543 1543 1543 1543 1543 1543 1550 1550 1550 1557 1557 1557 1557 1557 1557 1557 1564 1564 1557 1557 1550 1550 1550 1550 1543 1543 1550 1550 1550 1550 1550 1557 1557 1557 1557 1557 1557 1557 1557 1557 1557 1557 1550 1550 1557 1557 1557 1557 1557 1564 1564 1564 1564 1564 1557 1557 1557 1557 1557 1550 1550 1557 1557 1557 1557 1557 1557 1557 1557 1557 1557 1557 1557 1557 1557 1557 1564 1564 1564 1564 1564 1564 1564 1564 1564 1557 1557 1564 1564 1564 1564 1564 1564 1564 1564 1564 1564 1564 1564 1564 1564 1564 1564 1564 1564 1564 1564 1564 1564 1564 1564 1564 1564 1572 1572 1564 1564 1572 1572 1572 1572 1572 1572 1572 1572 1572 1572 1572 1564 1564 1564 1564 1564 1564 1564 1564 1572 1572 1572 1572 1579 1579 1579 1579 1579 1572 1572 1572 1572 1572 1572 1579 1579 1579 1572 1564 1564 1572 1572 1572 1564 1564 1572 1572 1572 1572 1579 1579 1579 1579 1579 1579 1579 1579 1579 1579 1579 1572 1572 1572 1572 1572 1572 1579 1579 1579 1579 1579 1579 1579 1579 1579 1579 1579 1579 1572 1572 1572 1579 1579 1579 1579 1579 1579 1579 1579 1579 1579 1579 1579 1579 1579 1579 1579 1579 1572 1572 1572 1572 1579 1579 1579 1579 1579 1586 1586 1586 1586 1586 1579 1579 1572 1572 1572 1572 1572 1572 1572 1572 1572 1579 1579 1572 1572 1572 1572 1572 1572 1572 1572 1572 1572 1572 1579 1579 1579 1579 1586 1586 1586 1586 1586 1586 1586 1586 1586 1594 1594 1601 1601 1601 1601 1601 1601 1601 1601 1601 1601 0 0 0 0 0 0
0 0 0 0 0 0 0 0 0 0 0 0 0 0 0 0 0 0 0 0 0 0 0 0 0 0 0 0 0 0 0 0 0 0 0 0 1464 1464 1464 1464 1464 1464 1464 1464 1464 1464 1464 1470 1470 1470 1470 1477 1477 1483 1483 1483 1483 1483 1483 1483 1483 1483 1483 1483 1483 1483 1477 1477 1477 1477 1483 1483 1477 1477 1477 1483 1483 1483 1477 1477 1483 1483 1477 1477 1477 1477 1477 1477 1477 1483 1483 1483 1483 1483 1483 1483 1483 1483 1483 1483 1483 1483 1483 1483 1483 1483 1483 1483 1489 1483 1483 1483 1483 1483 1483 1489 1489 1489 1489 1489 1489 1489 1489 1489 1489 1483 1483 1483 1483 1489 1483 1483 1483 1489 1489 1489 1489 1489 1489 1489 1489 1489 1496 1489 1489 1489 1496 1496 1503 1503 1503 1503 1503 1503 1503 1503 1503 1503 1496 1496 1496 1496 1496 1496 1496 1496 1496 1496 1496 1496 1503 1503 1503 1503 1503 1503 1503 1503 1503 1503 1503 1503 1503 1503 1503 1503 1503 1503 1503 1503 1503 1509 1509 1509 1509 1509 1509 1509 1509 1516 1516 1509 1509 1509 1509 1509 1509 1509 1509 1509 1509 1516 1516 1523 1509 1509 1509 1516 1523 1516 1516 1523 1523 1523 1523 1523 1523 1523 1523 1523 1523 1523 1523 1523 1523 1523 1523 1523 1523 1523 1529 1523 1523 1523 1516 1516 1516 1523 1523 1523 1523 1523 1523 1523 1523 1523 1523 1523 1523 1523 1529 1523 1523 1529 1529 1523 1523 1529 1529 1536 1536 1536 1536 1536 1536 1536 1536 1536 1536 1536 1536 1536 1536 1536 1536 1536 1529 1529 1536 1536 1536 1536 1536 1536 1536 1543 1543 1543 1543 1543 1543 1543 1536 1536 1536 1536 1536 1536 1536 1543 1536 1536 1536 1536 1536 1536 1536 1536 1543 1543 1543 1543 1543 1543 1543 1543 1543 1543 1543 1543 1536 1536 1536 1536 1536 1536 1536 1543 1543 1543 1543 1543 1543 1543 1536 1536 1536 1536 1536 1536 1536 1543 1543 1543 1536 1536 1543 1543 1543 1543 1543 1543 1543 1550 1550 1543 1543 1543 1543 1543 1543 1543 1543 1543 1543 1543 1543 1543 1543 1543 1543 1543 1543 1543 1543 1543 1550 1550 1550 1557 1557 1557 1557 1557 1550 1550 1564 1550 1550 1550 1550 1550 1557 1550 1550 1557 1557 1557 1557 1564 1557 1557 1557 1557 1557 1550 1550 1550 1550 1550 1550 1550 1550 1550 1550 1550 1557 1557 1557 1557 1557 1557 1557 1557 1557 1557 1557 1557 1557 1550 1550 1550 1550 1557 1550 1550 1550 1557 1557 1557 1557 1557 1557 1564 1564 1564 1564 1564 1564 1564 1564 1564 1564 1564 1564 1564 1564 1557 1557 1564 1564 1564 1564 1572 1572 1572 1572 1572 1572 1572 1572 1572 1572 1564 1564 1564 1564 1564 1564 1564 1564 1564 1572 1572 1572 1572 1572 1572 1572 1572 1572 1564 1564 1572 1572 1572 1572 1572 1572 1572 1564 1564 1564 1564 1564 1564 1564 1564 1564 1564 1564 1564 1564 1572 1572 1572 1572 1572 1572 1579 1579 1579 1579 1572 1572 1572 1572 1572 1572 1572 1572 1572 1572 1572 1572 1572 1572 1572 1572 1579 1572 1572 1572 1572 1572 1572 1572 1572 1572 1572 1572 1579 1579 1579 1572 1572 1572 1572 1572 1564 1564 1564 1564 1564 1572 1572 1572 1572 1579 1579 1579 1579 1579 1579 1579 1572 1572 1572 1564 1564 1564 1572 1572 1572 1572 1572 1572 1572 1572 1572 1572 1564 1564 1572 1572 1572 1572 1572 1572 1572 1572 1579 1579 1579 1579 1579 1579 1579 1579 1579 1579 1579 1579 1586 1586 1594 1594 1594 1601 1601 1594 1594 1601 1601 0 0 0 0 0 0
0 0 0 0 0 0 0 0 0 0 0 0 0 0 0 0 0 0 0 0 0 0 0 0 0 0 0 0 0 0 0 0 0 0 0 0 1464 1464 1464 1464 1464 1464 1464 1464 1464 1464 1464 1464 1464 1470 1470 1470 1470 1477 1477 1477 1477 1477 1477 1483 1483 1483 1483 1483 1477 1477 1477 1477 1477 1477 1483 1483 1477 1477 1477 1477 1477 1477 1477 1477 1477 1477 1477 1477 1477 1477 1477 1477 1477 1477 1483 1483 1483 1483 1483 1483 1477 1477 1477 1477 1477 1477 1477 1483 1483 1483 1483 1483 1489 1483 1483 1483 1483 1483 1483 1483 1483 1483 1483 1483 1483 1483 1483 1483 1483 1483 1483 1483 1483 1483 1483 1483 1483 1483 1483 1483 1483 1483 1483 1483 1483 1489 1489 1489 1489 1489 1489 1489 1496 1496 1496 1496 1503 1503 1496 1496 1496 1503 1496 1496 1496 1496 1496 1496 1496 1489 1489 1496 1496 1496 1496 1496 1496 1503 1503 1503 1503 1496 1496 1496 1503 1503 1503 1503 1503 1503 1503 1503 1503 1503 1503 1503 1503 1503 1503 1503 1503 1503 1509 1509 1509 1503 1503 1503 1503 1503 1509 1503 1503 1503 1509 1509 1509 1516 1503 1503 1503 1509 1509 1516 1516 1516 1516 1523 1523 1523 1523 1523 1523 1523 1523 1523 1523 1523 1523 1523 1523 1523 1523 1523 1523 1523 1523 1523 1516 1516 1516 1516 1516 1516 1516 1523 1523 1523 1523 1523 1523 1523 1523 1523 1523 1523 1523 1523 1523 1523 1523 1523 1523 1529 1529 1529 1529 1529 1529 1529 1529 1529 1529 1529 1529 1529 1529 1529 1529 1529 1529 1529 1529 1529 1529 1536 1529 1529 1529 1536 1536 1536 1536 1536 1536 1536 1536 1536 1529 1529 1536 1536 1536 1536 1536 1529 1529 1529 1529 1529 1529 1529 1536 1536 1543 1543 1543 1543 1543 1543 1543 1543 1543 1543 1536 1536 1536 1536 1536 1536 1536 1536 1543 1543 1536 1536 1536 1536 1536 1536 1536 1536 1536 1536 1536 1536 1536 1536 1536 1536 1536 1536 1536 1536 1536 1536 1543 1543 1543 1543 1543 1543 1543 1543 1543 1543 1543 1543 1543 1536 1536 1543 1543 1543 1543 1543 1543 1543 1543 1543 1543 1543 1550 1550 1550 1550 1550 1550 1550 1550 1550 1550 1543 1543 1543 1550 1550 1550 1550 1550 1550 1550 1550 1550 1550 1550 1550 1550 1550 1543 1543 1543 1543 1543 1543 1543 1543 1543 1543 1550 1550 1550 1550 1550 1550 1550 1550 1550 1557 1557 1550 1550 1557 1550 1550 1550 1550 1557 1550 1550 1550 1550 1550 1557 1557 1557 1557 1557 1557 1557 1557 1557 1557 1557 1557 1557 1557 1557 1557 1557 1557 1557 1557 1564 1564 1564 1564 1564 1564 1564 1564 1564 1564 1564 1564 1564 1564 1564 1564 1564 1564 1564 1564 1564 1564 1564 1564 1564 1564 1564 1564 1564 1564 1564 1564 1564 1564 1564 1564 1557 1557 1557 1557 1557 1557 1557 1557 1557 1557 1557 1557 1557 1564 1564 1564 1564 1564 1564 1564 1564 1572 1572 1572 1572 1572 1572 1572 1564 1564 1564 1564 1564 1564 1564 1564 1564 1564 1564 1572 1564 1564 1572 1572 1572 1572 1564 1564 1564 1564 1564 1564 1564 1564 1572 1572 1572 1579 1579 1572 1572 1572 1564 1564 1564 1564 1564 1564 1564 1564 1564 1572 1572 1572 1572 1579 1579 1579 1572 1572 1572 1564 1564 1564 1564 1564 1564 1564 1572 1572 1572 1572 1572 1572 1564 1564 1564 1564 1564 1564 1564 1564 1564 1572 1572 1572 1572 1572 1572 1572 1579 1579 1579 1579 1579 1579 1579 1579 1586 1586 1586 1594 1594 1594 1594 1594 1594 1594 1601 0 0 0 0 0 0
0 0 0 0 0 0 0 0 0 0 0 0 0 0 0 0 0 0 0 0 0 0 0 0 0 0 0 0 0 0 0 0 0 0 0 0 1464 1464 1464 1464 1458 1458 1464 1464 1464 1464 1464 1464 1464 1464 1464 1464 1470 1470 1470 1470 1477 1477 1477 1477 1483 1483 1483 1477 1477 1477 1477 1477 1477 1483 1483 1483 1477 1477 1477 1477 1477 1477 1477 1477 1477 1477 1477 1477 1477 1477 1477 1477 1477 1477 1477 1477 1477 1477 1477 1477 1477 1477 1477 1477 1477 1477 1477 1483 1483 1483 1483 1483 1483 1483 1483 1483 1483 1483 1483 1483 1483 1483 1483 1483 1483 1483 1483 1483 1483 1483 1477 1477 1477 1483 1483 1483 1483 1483 1483 1483 1483 1483 1483 1483 1483 1483 1483 1483 1483 1483 1489 1489 1489 1496 1496 1496 1496 1496 1496 1496 1496 1496 1489 1489 1489 1489 1496 1489 1489 1489 1489 1489 1489 1489 1489 1496 1496 1496 1496 1496 1496 1496 1496 1496 1496 1496 1496 1496 1496 1496 1496 1503 1503 1503 1503 1503 1503 1496 1496 1496 1503 1503 1503 1503 1503 1503 1503 1503 1503 1503 1503 1503 1503 1503 1503 1503 1503 1503 1503 1503 1503 1503 1503 1503 1509 1509 1516 1516 1516 1523 1516 1516 1516 1516 1516 1516 1516 1516 1516 1523 1523 1523 1523 1523 1523 1523 1523 1523 1516 1516 1516 1516 1516 1516 1516 1516 1516 1516 1523 1523 1523 1523 1523 1523 1516 1516 1516 1516 1516 1516 1523 1523 1523 1523 1523 1523 1523 1523 1523 1523 1529 1523 1523 1529 1523 1523 1529 1529 1529 1529 1523 1523 1529 1529 1529 1529 1523 1523 1529 1529 1529 1529 1529 1529 1529 1529 1529 1529 1529 1529 1529 1529 1529 1529 1529 1529 1529 1529 1529 1529 1529 1529 1529 1536 1536 1536 1536 1543 1543 1543 1543 1543 1543 1543 1536 1536 1536 1536 1536 1536 1536 1536 1536 1536 1536 1529 1529 1536 1529 1529 1529 1529 1529 1529 1529 1529 1536 1536 1536 1536 1536 1536 1536 1536 1536 1536 1536 1536 1536 1543 1543 1550 1550 1550 1543 1543 1543 1543 1543 1536 1536 1536 1536 1536 1536 1543 1543 1543 1536 1536 1543 1543 1543 1543 1543 1550 1550 1550 1550 1543 1543 1543 1543 1543 1543 1543 1543 1543 1543 1543 1543 1543 1543 1543 1543 1543 1543 1543 1543 1536 1536 1536 1536 1536 1543 1543 1543 1543 1543 1543 1543 1543 1543 1550 1543 1543 1543 1543 1543 1543 1543 1543 1543 1543 1543 1543 1543 1557 1557 1543 1543 1543 1543 1550 1550 1550 1550 1557 1557 1557 1557 1557 1557 1557 1550 1550 1550 1550 1557 1557 1557 1557 1557 1557 1557 1557 1557 1557 1557 1557 1557 1564 1557 1557 1557 1557 1557 1557 1557 1557 1557 1564 1564 1564 1564 1564 1564 1564 1564 1564 1564 1564 1564 1564 1564 1557 1557 1557 1557 1557 1557 1557 1557 1550 1550 1550 1557 1557 1557 1557 1557 1557 1557 1557 1557 1557 1557 1564 1564 1564 1564 1564 1564 1564 1564 1564 1564 1564 1564 1564 1564 1564 1564 1564 1564 1564 1564 1564 1564 1564 1564 1564 1564 1564 1564 1564 1564 1564 1564 1564 1564 1564 1564 1572 1572 1572 1572 1572 1564 1564 1564 1564 1564 1564 1564 1564 1564 1557 1557 1564 1564 1564 1572 1572 1572 1572 1572 1572 1564 1564 1557 1557 1557 1557 1557 1564 1564 1564 1572 1572 1572 1572 1564 1564 1564 1564 1564 1564 1564 1564 1564 1564 1564 1557 1557 1557 1557 1564 1564 1564 1564 1572 1572 1579 1579 1579 1579 1579 1579 1586 1586 1586 1586 1594 1586 1586 1594 1594 0 0 0 0 0 0
0 0 0 0 0 0 0 0 0 0 0 0 0 0 0 0 0 0 0 0 0 0 0 0 0 0 0 0 0 0 0 0 0 0 0 0 1458 1458 1458 1458 1458 1458 1458 1458 1458 1458 1458 1458 1464 1464 1464 1464 1464 1470 1470 1470 1470 1470 1470 1470 1477 1477 1477 1470 1470 1477 1477 1477 1477 1477 1477 1477 1477 1477 1470 1470 1477 1477 1477 1477 1477 1477 1477 1477 1477 1470 1470 1470 1470 1470 1477 1477 1477 1477 1477 1477 1477 1477 1477 1477 1477 1477 1477 1477 1477 1477 1477 1477 1477 1477 1483 1483 1477 1477 1483 1483 1483 1483 1483 1483 1483 1483 1477 1477 1477 1477 1477 1477 1477 1483 1483 1477 1477 1483 1483 1483 1483 1483 1483 1483 1483 1483 1477 1477 1477 1477 1477 1483 1483 1489 1489 1489 1489 1489 1489 1489 1489 1489 1483 1483 1489 1489 1489 1483 1483 1483 1483 1489 1483 1483 1489 1489 1489 1489 1489 1496 1496 1496 1496 1496 1496 1496 1496 1496 1496 1496 1496 1496 1496 1496 1496 1496 1503 1496 1496 1496 1496 1503 1503 1496 1496 1496 1496 1496 1496 1496 1496 1503 1496 1496 1496 1496 1496 1496 1496 1496 1496 1503 1503 1503 1509 1509 1509 1516 1516 1516 1516 1509 1509 1516 1516 1516 1516 1516 1516 1516 1516 1516 1523 1523 1523 1516 1516 1516 1516 1509 1509 1509 1509 1516 1516 1516 1516 1516 1516 1516 1516 1516 1516 1516 1516 1516 1516 1516 1516 1516 1516 1516 1516 1516 1523 1523 1523 1523 1523 1523 1523 1523 1523 1523 1523 1523 1523 1523 1523 1523 1523 1523 1523 1523 1523 1523 1523 1523 1523 1523 1523 1523 1523 1523 1529 1529 1523 1523 1523 1523 1529 1523 1523 1529 1529 1529 1529 1523 1523 1523 1523 1523 1523 1523 1523 1523 1523 1536 1536 1536 1536 1536 1536 1536 1529 1529 1529 1529 1529 1529 1536 1536 1536 1529 1529 1523 1523 1529 1529 1529 1529 1529 1529 1529 1529 1529 1536 1536 1536 1536 1536 1536 1536 1536 1536 1536 1529 1529 1536 1536 1536 1536 1536 1536 1536 1536 1536 1536 1536 1536 1536 1536 1536 1536 1536 1536 1536 1536 1536 1536 1543 1543 1543 1543 1543 1543 1543 1543 1543 1543 1543 1543 1543 1543 1543 1543 1543 1543 1543 1543 1543 1543 1543 1543 1543 1543 1543 1543 1543 1536 1536 1536 1536 1536 1536 1536 1536 1536 1543 1543 1543 1543 1543 1543 1543 1543 1543 1536 1536 1536 1536 1543 1536 1536 1543 1543 1543 1543 1536 1536 1536 1536 1536 1543 1543 1543 1550 1550 1550 1550 1550 1550 1550 1550 1550 1550 1550 1550 1550 1550 1550 1550 1550 1550 1550 1550 1550 1550 1550 1557 1557 1557 1557 1557 1557 1557 1557 1557 1550 1550 1557 1557 1564 1564 1564 1564 1564 1564 1564 1564 1564 1564 1564 1564 1564 1557 1557 1557 1557 1550 1550 1550 1550 1550 1550 1550 1550 1557 1557 1557 1557 1557 1557 1557 1557 1557 1557 1557 1557 1557 1557 1557 1557 1557 1557 1557 1564 1557 1557 1557 1557 1564 1564 1564 1564 1564 1557 1557 1557 1557 1557 1557 1557 1557 1564 1557 1557 1557 1557 1557 1557 1557 1557 1564 1564 1572 1572 1572 1564 1564 1564 1557 1557 1557 1557 1557 1557 1557 1557 1557 1557 1564 1564 1572 1564 1564 1564 1564 1564 1557 1557 1557 1557 1557 1557 1557 1557 1564 1564 1564 1564 1564 1564 1564 1564 1564 1564 1564 1564 1564 1564 1564 1564 1557 1557 1557 1557 1564 1564 1564 1564 1572 1572 1572 1579 1579 1579 1579 1579 1579 1586 1586 1586 1586 1586 1586 1586 1586 0 0 0 0 0 0
0 0 0 0 0 0 0 0 0 0 0 0 0 0 0 0 0 0 0 0 0 0 0 0 0 0 0 0 0 0 0 0 0 0 0 0 1458 1458 1458 1458 1458 1458 1458 1458 1458 1458 1458 1458 1458 1458 1458 1464 1464 1464 1464 1464 1464 1464 1470 1470 1470 1470 1470 1470 1470 1470 1470 1470 1470 1477 1477 1477 1477 1470 1470 1470 1470 1470 1470 1470 1470 1470 1470 1470 1470 1470 1470 1470 1470 1470 1477 1477 1477 1477 1477 1477 1477 1477 1477 1477 1477 1477 1477 1477 1477 1477 1477 1470 1470 1464 1464 1477 1477 1477 1477 1477 1477 1477 1477 1477 1477 1477 1477 1477 1477 1477 1477 1477 1477 1477 1477 1477 1477 1477 1477 1477 1477 1477 1483 1483 1483 1483 1477 1477 1477 1477 1477 1483 1483 1483 1483 1483 1483 1483 1483 1483 1483 1483 1483 1483 1483 1483 1483 1483 1483 1483 1483 1483 1483 1483 1483 1483 1483 1489 1489 1489 1496 1496 1496 1496 1489 1489 1489 1489 1489 1489 1489 1496 1496 1496 1496 1496 1496 1496 1496 1489 1489 1489 1496 1496 1496 1496 1496 1496 1496 1496 1496 1496 1496 1496 1496 1496 1496 1496 1496 1496 1496 1496 1503 1503 1503 1509 1509 1509 1509 1509 1509 1509 1509 1509 1509 1509 1509 1509 1509 1509 1509 1509 1516 1509 1509 1509 1516 1516 1509 1509 1509 1509 1509 1509 1509 1509 1509 1509 1516 1509 1509 1516 1516 1509 1509 1516 1516 1516 1516 1516 1516 1516 1516 1516 1516 1516 1516 1516 1516 1516 1516 1516 1516 1516 1516 1516 1516 1523 1523 1523 1523 1523 1523 1523 1523 1523 1516 1516 1523 1523 1523 1523 1523 1523 1529 1523 1523 1523 1523 1523 1523 1523 1523 1523 1523 1523 1523 1523 1523 1523 1523 1523 1523 1523 1523 1523 1523 1523 1523 1536 1529 1529 1529 1529 1523 1523 1529 1529 1529 1529 1536 1536 1529 1523 1523 1523 1523 1523 1523 1523 1523 1523 1523 1523 1523 1523 1529 1529 1529 1529 1529 1529 1529 1529 1529 1536 1523 1523 1529 1536 1536 1536 1536 1536 1536 1536 1536 1536 1536 1529 1529 1536 1536 1536 1536 1536 1536 1536 1536 1536 1536 1536 1536 1536 1536 1543 1543 1543 1543 1543 1543 1543 1543 1543 1536 1536 1536 1536 1536 1536 1536 1536 1543 1543 1543 1543 1543 1543 1543 1536 1536 1536 1536 1536 1536 1536 1536 1536 1536 1536 1536 1536 1543 1536 1536 1536 1536 1536 1536 1536 1536 1536 1536 1536 1536 1536 1536 1536 1536 1536 1536 1536 1536 1536 1543 1543 1543 1550 1550 1550 1550 1543 1543 1543 1543 1543 1543 1543 1550 1543 1543 1543 1543 1543 1543 1543 1543 1543 1543 1550 1557 1557 1550 1550 1550 1550 1557 1557 1550 1550 1550 1550 1557 1557 1550 1550 1557 1557 1557 1557 1557 1557 1557 1557 1557 1550 1550 1550 1550 1550 1550 1550 1550 1550 1550 1550 1550 1550 1550 1550 1550 1557 1557 1557 1557 1557 1557 1557 1557 1557 1557 1557 1557 1557 1557 1557 1557 1557 1557 1557 1557 1557 1557 1557 1557 1557 1557 1557 1557 1557 1557 1557 1557 1557 1557 1557 1557 1557 1557 1557 1557 1557 1557 1557 1564 1564 1564 1564 1557 1557 1557 1557 1557 1557 1557 1557 1557 1557 1557 1557 1557 1557 1564 1564 1564 1564 1557 1557 1557 1557 1557 1557 1550 1550 1550 1557 1557 1557 1564 1564 1564 1564 1557 1557 1557 1557 1557 1557 1557 1557 1557 1557 1557 1557 1557 1550 1550 1557 1557 1557 1564 1564 1572 1572 1572 1572 1572 1572 1579 1579 1579 1579 1579 1586 1579 1579 1586 1586 0 0 0 0 0 0
0 0 0 0 0 0 0 0 0 0 0 0 0 0 0 0 0 0 0 0 0 0 0 0 0 0 0 0 0 0 0 0 0 0 0 0 1445 1445 1445 1445 1452 1452 1452 1452 1452 1452 1458 1458 1458 1458 1458 1458 1458 1458 1458 1458 1464 1464 1464 1464 1464 1464 1464 1464 1464 1464 1464 1464 1464 1464 1470 1470 1470 1470 1464 1464 1464 1458 1458 1458 1458 1458 1458 1458 1464 1464 1464 1464 1464 1464 1464 1464 1470 1470 1470 1470 1470 1470 1470 1470 1464 1464 1464 1464 1464 1464 1464 1464 1464 1464 1464 1464 1464 1464 1470 1470 1470 1470 1470 1470 1470 1470 1470 1470 1470 1470 1470 1470 1477 1477 1477 1477 1477 1477 1477 1477 1477 1477 1477 1477 1477 1477 1470 1470 1470 1470 1477 1477 1477 1477 1477 1483 1483 1483 1483 1483 1483 1483 1477 1477 1477 1477 1477 1477 1477 1477 1477 1483 1483 1483 1483 1483 1477 1477 1477 1477 1477 1483 1483 1483 1483 1483 1483 1483 1483 1483 1483 1483 1483 1489 1489 1489 1496 1489 1489 1489 1489 1489 1489 1489 1489 1489 1496 1496 1489 1489 1489 1489 1496 1496 1496 1496 1496 1496 1496 1496 1496 1496 1503 1503 1503 1503 1503 1503 1503 1503 1503 1503 1503 1503 1503 1503 1503 1503 1503 1503 1503 1503 1503 1503 1503 1503 1509 1509 1509 1509 1509 1509 1509 1509 1509 1509 1509 1509 1509 1509 1509 1503 1503 1503 1503 1509 1509 1516 1516 1516 1516 1516 1516 1509 1509 1516 1509 1509 1509 1509 1516 1509 1509 1516 1516 1516 1516 1516 1516 1516 1516 1516 1516 1516 1516 1516 1516 1516 1516 1523 1523 1523 1523 1523 1523 1523 1523 1523 1523 1523 1523 1523 1523 1523 1523 1523 1523 1523 1523 1523 1523 1523 1523 1523 1523 1523 1523 1523 1523 1523 1523 1523 1523 1529 1516 1516 1523 1523 1523 1529 1529 1529 1523 1516 1516 1516 1516 1516 1516 1516 1516 1516 1516 1523 1523 1523 1523 1523 1523 1523 1523 1523 1529 1529 1529 1523 1523 1523 1529 1529 1529 1529 1536 1536 1536 1536 1529 1529 1529 1529 1529 1536 1536 1536 1536 1529 1529 1529 1529 1529 1529 1529 1536 1536 1536 1536 1536 1536 1536 1536 1536 1536 1536 1536 1536 1536 1536 1536 1536 1536 1536 1536 1536 1536 1536 1536 1536 1536 1536 1529 1529 1529 1529 1529 1529 1529 1529 1529 1536 1536 1536 1536 1536 1536 1536 1536 1529 1529 1529 1536 1536 1536 1536 1536 1536 1536 1536 1536 1529 1529 1529 1529 1529 1536 1536 1536 1536 1543 1543 1543 1543 1543 1543 1543 1536 1536 1543 1543 1543 1543 1543 1543 1543 1543 1543 1543 1543 1543 1543 1543 1550 1550 1550 1550 1550 1550 1550 1550 1550 1550 1550 1550 1550 1550 1550 1550 1550 1557 1557 1550 1550 1550 1557 1557 1550 1550 1550 1543 1543 1543 1543 1543 1543 1543 1543 1543 1550 1550 1550 1550 1550 1550 1557 1557 1557 1550 1550 1550 1550 1550 1550 1557 1550 1550 1550 1550 1557 1557 1557 1557 1557 1557 1557 1557 1557 1557 1557 1557 1557 1557 1557 1557 1557 1557 1557 1557 1557 1557 1557 1557 1557 1557 1557 1557 1557 1557 1557 1557 1557 1557 1557 1557 1557 1557 1557 1557 1557 1557 1557 1557 1557 1557 1557 1557 1557 1557 1557 1557 1557 1557 1557 1557 1550 1550 1550 1550 1550 1557 1557 1557 1557 1557 1557 1557 1550 1550 1557 1557 1557 1557 1557 1557 1550 1550 1550 1550 1550 1557 1557 1557 1557 1564 1564 1572 1572 1572 1572 1572 1572 1579 1579 1579 1579 1579 1579 1579 1586 1594 0 0 0 0 0 0
0 0 0 0 0 0 0 0 0 0 0 0 0 0 0 0 0 0 0 0 0 0 0 0 0 0 0 0 0 0 0 0 0 0 0 0 1439 1439 1439 1439 1445 1445 1445 1452 1452 1452 1452 1452 1458 1458 1458 1458 1458 1458 1458 1458 1458 1458 1464 1458 1458 1464 1458 1458 1458 1464 1464 1464 1464 1464 1464 1464 1464 1458 1458 1458 1458 1452 1452 1452 1452 1458 1458 1458 1458 1464 1464 1458 1458 1458 1458 1458 1458 1458 1458 1458 1464 1464 1464 1464 1464 1464 1458 1458 1458 1464 1464 1458 1458 1464 1464 1464 1464 1458 1458 1464 1464 1464 1464 1464 1464 1464 1464 1464 1470 1470 1470 1470 1477 1477 1477 1477 1477 1477 1470 1470 1470 1470 1477 1477 1470 1470 1470 1470 1470 1470 1477 1470 1470 1477 1477 1477 1477 1477 1477 1477 1477 1477 1470 1470 1470 1470 1470 1470 1477 1477 1477 1477 1477 1477 1477 1477 1477 1477 1477 1477 1477 1477 1477 1477 1477 1477 1477 1477 1477 1477 1477 1483 1483 1483 1477 1477 1477 1477 1477 1483 1483 1483 1483 1489 1483 1483 1483 1483 1483 1483 1483 1483 1483 1483 1489 1496 1496 1496 1496 1496 1496 1496 1496 1496 1496 1496 1496 1496 1503 1503 1503 1503 1503 1503 1503 1503 1503 1503 1503 1503 1503 1503 1503 1503 1503 1503 1503 1503 1496 1496 1496 1496 1503 1503 1503 1503 1503 1509 1509 1503 1503 1503 1503 1503 1503 1503 1503 1509 1509 1509 1509 1509 1509 1509 1509 1509 1509 1509 1509 1509 1509 1509 1509 1509 1516 1516 1516 1516 1516 1516 1516 1516 1516 1516 1516 1516 1516 1516 1516 1516 1516 1516 1516 1516 1523 1516 1516 1516 1516 1523 1523 1516 1516 1523 1523 1523 1523 1523 1516 1516 1516 1516 1516 1516 1523 1523 1523 1516 1516 1523 1523 1523 1523 1523 1516 1516 1516 1516 1516 1523 1523 1523 1516 1516 1516 1516 1516 1516 1516 1516 1516 1516 1516 1516 1516 1516 1516 1516 1523 1523 1523 1523 1523 1523 1523 1523 1523 1523 1523 1523 1523 1523 1523 1529 1529 1529 1529 1529 1529 1529 1529 1529 1529 1529 1529 1529 1523 1523 1523 1523 1529 1529 1529 1529 1529 1529 1536 1536 1536 1536 1536 1536 1536 1536 1536 1536 1536 1536 1536 1536 1536 1529 1529 1536 1536 1536 1536 1536 1536 1529 1529 1529 1529 1529 1529 1529 1529 1529 1529 1529 1529 1529 1529 1529 1529 1529 1529 1529 1529 1529 1536 1536 1529 1529 1536 1536 1536 1529 1529 1529 1529 1529 1529 1529 1529 1529 1536 1536 1536 1536 1536 1536 1536 1536 1536 1536 1536 1543 1543 1536 1536 1536 1536 1536 1536 1536 1536 1536 1543 1543 1543 1543 1543 1543 1543 1543 1543 1550 1550 1550 1550 1550 1550 1550 1550 1550 1550 1550 1550 1550 1550 1550 1550 1550 1543 1543 1543 1543 1536 1536 1543 1536 1536 1536 1536 1543 1543 1543 1543 1543 1543 1550 1550 1550 1550 1550 1550 1550 1550 1550 1550 1550 1550 1550 1550 1550 1550 1550 1550 1550 1550 1550 1550 1550 1557 1550 1550 1550 1550 1550 1550 1550 1550 1550 1550 1557 1557 1557 1557 1557 1550 1550 1550 1550 1557 1557 1557 1557 1557 1557 1557 1550 1550 1550 1550 1550 1557 1557 1557 1557 1557 1557 1557 1557 1557 1557 1557 1557 1557 1557 1557 1550 1550 1550 1550 1550 1550 1550 1550 1550 1550 1550 1550 1550 1550 1550 1550 1557 1557 1557 1557 1557 1550 1550 1550 1550 1550 1550 1557 1557 1557 1564 1564 1564 1564 1564 1564 1572 1572 1572 1572 1579 1579 1579 1579 1579 1594 1594 0 0 0 0 0 0
0 0 0 0 0 0 0 0 0 0 0 0 0 0 0 0 0 0 0 0 0 0 0 0 0 0 0 0 0 0 0 0 0 0 0 0 1433 1433 1433 1433 1439 1439 1439 1439 1445 1445 1452 1452 1452 1452 1458 1458 1458 1458 1458 1458 1458 1458 1458 1458 1458 1458 1458 1458 1458 1458 1458 1458 1458 1464 1464 1464 1458 1458 1452 1452 1452 1452 1452 1452 1452 1452 1452 1458 1458 1458 1458 1458 1458 1452 1452 1458 1458 1458 1458 1458 1458 1464 1464 1458 1458 1458 1458 1458 1458 1458 1458 1458 1458 1458 1458 1458 1458 1458 1458 1458 1458 1458 1458 1458 1458 1464 1464 1464 1464 1464 1464 1464 1470 1470 1470 1470 1470 1470 1470 1470 1470 1470 1470 1470 1470 1464 1464 1464 1470 1470 1464 1464 1464 1470 1470 1470 1470 1470 1470 1470 1470 1470 1464 1464 1464 1470 1470 1470 1470 1470 1470 1470 1477 1477 1477 1477 1477 1477 1477 1470 1470 1477 1477 1470 1470 1470 1477 1477 1477 1477 1477 1477 1477 1477 1477 1477 1477 1477 1477 1483 1483 1483 1483 1483 1483 1483 1483 1483 1483 1483 1483 1483 1483 1483 1483 1483 1483 1483 1483 1483 1483 1489 1489 1489 1489 1489 1489 1496 1496 1489 1489 1496 1496 1496 1496 1496 1496 1496 1496 1496 1496 1496 1496 1496 1496 1496 1496 1496 1489 1489 1489 1489 1496 1496 1496 1503 1503 1503 1503 1503 1503 1503 1503 1503 1503 1503 1503 1509 1509 1509 1509 1509 1509 1509 1509 1503 1503 1509 1503 1503 1509 1509 1509 1509 1509 1509 1509 1516 1516 1509 1509 1516 1516 1509 1509 1516 1516 1516 1516 1516 1516 1516 1516 1516 1516 1516 1516 1516 1516 1516 1516 1516 1516 1516 1516 1516 1516 1516 1516 1516 1516 1516 1516 1516 1516 1516 1516 1516 1516 1516 1516 1516 1516 1516 1509 1509 1509 1509 1509 1523 1516 1509 1509 1509 1509 1509 1509 1509 1516 1516 1516 1516 1516 1516 1516 1516 1516 1516 1516 1516 1516 1516 1516 1516 1516 1516 1516 1523 1523 1523 1523 1523 1523 1523 1523 1523 1523 1523 1529 1529 1529 1529 1529 1529 1529 1523 1523 1523 1523 1523 1523 1523 1523 1523 1529 1529 1536 1536 1529 1529 1529 1529 1529 1529 1529 1529 1529 1529 1529 1529 1529 1529 1529 1529 1529 1529 1536 1536 1536 1529 1529 1529 1529 1529 1529 1529 1529 1529 1529 1529 1529 1529 1529 1529 1529 1529 1529 1529 1529 1529 1529 1529 1529 1529 1529 1529 1529 1529 1529 1529 1529 1529 1529 1529 1529 1529 1529 1536 1536 1536 1536 1536 1536 1536 1536 1536 1536 1536 1536 1536 1536 1536 1536 1536 1536 1536 1536 1536 1536 1536 1543 1543 1543 1543 1543 1543 1543 1543 1543 1543 1543 1543 1543 1543 1543 1543 1550 1550 1550 1550 1550 1550 1543 1543 1543 1536 1536 1536 1536 1536 1536 1536 1536 1536 1536 1536 1543 1543 1543 1543 1543 1543 1536 1536 1543 1543 1543 1543 1543 1543 1543 1550 1550 1550 1550 1550 1550 1550 1550 1550 1550 1550 1550 1550 1550 1550 1550 1550 1550 1550 1550 1550 1550 1550 1550 1550 1550 1550 1550 1550 1550 1550 1550 1550 1550 1550 1550 1550 1550 1550 1550 1550 1550 1550 1550 1550 1550 1550 1550 1550 1557 1557 1557 1557 1550 1550 1557 1557 1557 1557 1557 1550 1550 1550 1550 1550 1550 1550 1550 1550 1550 1550 1550 1550 1550 1550 1550 1550 1550 1550 1550 1550 1550 1550 1550 1550 1550 1550 1550 1557 1557 1557 1564 1564 1564 1564 1564 1564 1564 1564 1572 1572 1572 1579 1572 1572 1572 1572 0 0 0 0 0 0
0 0 0 0 0 0 0 0 0 0 0 0 0 0 0 0 0 0 0 0 0 0 0 0 0 0 0 0 0 0 0 0 0 0 0 0 1427 1427 1427 1433 1433 1433 1433 1433 1439 1439 1445 1445 1445 1452 1452 1452 1452 1452 1452 1452 1458 1458 1458 1458 1458 1458 1458 1458 1458 1458 1458 1458 1458 1458 1458 1452 1452 1452 1452 1452 1452 1452 1452 1452 1452 1452 1452 1452 1452 1452 1458 1458 1452 1452 1452 1452 1452 1452 1452 1452 1458 1464 1458 1458 1458 1458 1458 1452 1452 1458 1458 1458 1458 1458 1458 1458 1458 1458 1458 1458 1458 1458 1458 1458 1458 1458 1458 1458 1458 1458 1458 1464 1470 1470 1470 1470 1470 1470 1470 1464 1464 1464 1470 1470 1464 1458 1458 1464 1464 1464 1464 1464 1464 1464 1464 1470 1464 1464 1464 1464 1464 1470 1464 1464 1464 1464 1464 1464 1470 1470 1470 1470 1470 1470 1470 1470 1470 1470 1470 1470 1470 1470 1470 1470 1470 1470 1470 1470 1477 1477 1477 1477 1477 1477 1477 1477 1477 1477 1477 1477 1477 1483 1483 1483 1483 1477 1477 1477 1477 1477 1477 1483 1477 1477 1483 1483 1483 1483 1483 1483 1483 1483 1483 1483 1489 1489 1489 1489 1489 1489 1489 1489 1489 1489 1496 1496 1496 1496 1496 1496 1496 1496 1496 1489 1489 1496 1496 1496 1489 1489 1489 1489 1496 1489 1489 1489 1489 1496 1496 1496 1496 1496 1496 1496 1496 1496 1496 1496 1496 1496 1496 1496 1496 1496 1496 1496 1496 1496 1496 1496 1496 1503 1503 1503 1503 1503 1503 1503 1503 1503 1503 1503 1509 1509 1509 1509 1509 1509 1516 1509 1509 1509 1509 1509 1516 1516 1516 1516 1516 1516 1516 1516 1516 1516 1516 1516 1516 1516 1516 1516 1516 1516 1516 1516 1516 1516 1516 1516 1516 1509 1509 1516 1516 1516 1509 1509 1509 1509 1509 1503 1503 1503 1503 1503 1509 1509 1509 1509 1509 1509 1509 1509 1509 1509 1509 1509 1509 1516 1516 1516 1516 1516 1516 1516 1516 1516 1516 1516 1516 1516 1516 1516 1516 1516 1516 1516 1523 1523 1523 1529 1529 1529 1529 1529 1529 1523 1516 1516 1523 1523 1523 1523 1523 1523 1523 1523 1523 1529 1529 1529 1529 1529 1529 1529 1529 1529 1529 1523 1523 1523 1523 1523 1523 1523 1523 1523 1529 1529 1529 1529 1529 1523 1523 1523 1529 1523 1523 1523 1523 1529 1529 1523 1523 1523 1523 1529 1523 1523 1523 1523 1529 1529 1529 1529 1529 1529 1529 1529 1529 1529 1529 1529 1529 1529 1529 1529 1529 1529 1529 1529 1529 1529 1529 1529 1529 1536 1529 1529 1536 1529 1529 1529 1529 1536 1536 1536 1536 1536 1536 1536 1536 1536 1536 1536 1536 1536 1536 1536 1536 1536 1536 1536 1536 1536 1536 1536 1536 1536 1536 1536 1536 1536 1536 1536 1536 1529 1529 1529 1529 1529 1536 1536 1536 1536 1536 1536 1536 1536 1536 1536 1543 1543 1536 1536 1536 1536 1543 1543 1543 1543 1543 1543 1543 1543 1543 1543 1543 1536 1536 1543 1543 1550 1550 1550 1550 1550 1550 1550 1550 1550 1550 1550 1550 1550 1550 1543 1543 1543 1543 1543 1543 1543 1543 1543 1543 1543 1543 1543 1543 1543 1543 1543 1543 1543 1550 1550 1550 1550 1550 1550 1550 1557 1550 1550 1550 1550 1550 1550 1550 1550 1550 1550 1543 1543 1543 1543 1543 1543 1543 1550 1550 1550 1543 1543 1543 1543 1543 1543 1543 1543 1543 1543 1550 1550 1550 1550 1550 1550 1550 1550 1550 1557 1557 1557 1557 1557 1557 1557 1557 1557 1564 1564 1564 1564 1564 1564 1564 1564 0 0 0 0 0 0
0 0 0 0 0 0 0 0 0 0 0 0 0 0 0 0 0 0 0 0 0 0 0 0 0 0 0 0 0 0 0 0 0 0 0 0 1427 1427 1427 1433 1433 1433 1433 1433 1433 1439 1433 1433 1433 1439 1439 1452 1452 1452 1452 1452 1452 1452 1452 1458 1458 1458 1458 1458 1458 1458 1452 1452 1452 1452 1452 1452 1445 1445 1445 1445 1445 1445 1445 1445 1452 1452 1452 1452 1452 1452 1452 1452 1452 1452 1452 1452 1452 1452 1452 1452 1458 1458 1452 1452 1452 1452 1452 1452 1452 1452 1452 1452 1452 1452 1452 1452 1452 1458 1458 1452 1452 1452 1452 1458 1452 1452 1452 1452 1452 1458 1458 1458 1464 1464 1464 1470 1464 1464 1464 1464 1464 1464 1464 1464 1464 1458 1458 1458 1464 1464 1464 1458 1458 1464 1464 1464 1464 1464 1464 1464 1464 1464 1458 1458 1458 1458 1464 1464 1464 1464 1464 1464 1464 1464 1470 1470 1470 1470 1470 1470 1470 1470 1470 1470 1470 1470 1470 1470 1470 1470 1470 1470 1470 1470 1477 1477 1477 1477 1477 1477 1477 1477 1477 1483 1477 1477 1477 1477 1477 1477 1477 1477 1477 1477 1477 1477 1477 1477 1483 1477 1477 1483 1483 1483 1489 1483 1483 1489 1489 1483 1483 1483 1489 1489 1489 1489 1489 1489 1489 1489 1489 1489 1489 1489 1489 1489 1489 1489 1483 1483 1489 1489 1489 1489 1489 1489 1489 1489 1489 1489 1489 1496 1496 1496 1489 1489 1489 1489 1489 1489 1489 1496 1496 1496 1496 1496 1496 1496 1496 1496 1496 1496 1496 1496 1496 1496 1496 1496 1496 1496 1496 1496 1496 1496 1496 1496 1496 1503 1503 1496 1496 1496 1496 1496 1503 1503 1509 1509 1509 1516 1516 1509 1509 1509 1516 1503 1503 1503 1503 1509 1509 1509 1509 1509 1509 1509 1509 1516 1516 1509 1509 1509 1509 1509 1503 1503 1503 1503 1503 1496 1496 1503 1503 1503 1503 1503 1503 1503 1509 1509 1509 1509 1509 1509 1509 1509 1509 1509 1509 1509 1509 1516 1516 1516 1516 1516 1516 1516 1516 1516 1516 1516 1516 1516 1516 1516 1516 1516 1516 1523 1523 1523 1523 1523 1523 1516 1516 1516 1516 1516 1523 1523 1523 1523 1523 1523 1523 1529 1529 1523 1523 1529 1523 1523 1523 1523 1523 1523 1523 1523 1523 1516 1516 1523 1523 1523 1523 1523 1529 1529 1529 1516 1516 1523 1523 1516 1516 1516 1516 1516 1516 1516 1523 1523 1523 1529 1523 1523 1523 1523 1523 1523 1523 1523 1523 1523 1529 1523 1523 1529 1529 1529 1529 1529 1529 1529 1529 1529 1529 1529 1529 1529 1529 1529 1529 1529 1529 1529 1529 1529 1529 1529 1529 1529 1529 1529 1536 1536 1536 1536 1536 1536 1536 1536 1536 1536 1536 1536 1536 1536 1536 1536 1536 1536 1536 1536 1536 1536 1536 1529 1529 1536 1536 1536 1536 1529 1529 1529 1529 1529 1529 1529 1529 1529 1529 1536 1529 1529 1536 1536 1536 1529 1529 1529 1536 1536 1536 1536 1536 1536 1536 1536 1536 1536 1536 1536 1536 1536 1536 1536 1536 1536 1536 1536 1536 1536 1536 1536 1536 1536 1543 1543 1543 1543 1536 1536 1536 1536 1543 1543 1543 1536 1536 1536 1536 1536 1536 1536 1543 1536 1536 1536 1536 1543 1543 1543 1550 1550 1550 1550 1550 1550 1550 1550 1550 1550 1550 1550 1550 1550 1550 1550 1543 1543 1543 1543 1543 1543 1543 1543 1543 1543 1543 1543 1543 1543 1543 1543 1536 1536 1543 1543 1543 1543 1543 1550 1550 1550 1550 1550 1550 1550 1550 1550 1550 1550 1557 1557 1557 1557 1557 1564 1564 1564 1557 1557 1564 1564 0 0 0 0 0 0
0 0 0 0 0 0 0 0 0 0 0 0 0 0 0 0 0 0 0 0 0 0 0 0 0 0 0 0 0 0 0 0 0 0 0 0 1427 1427 1427 1433 1433 1433 1433 1433 1433 1439 1433 1433 1433 1433 1439 1445 1445 1445 1452 1452 1452 1452 1452 1452 1452 1452 1452 1452 1452 1452 1452 1452 1452 1452 1452 1445 1445 1445 1445 1445 1445 1445 1445 1445 1452 1445 1445 1445 1452 1452 1452 1445 1445 1445 1445 1452 1445 1445 1452 1452 1452 1452 1452 1452 1452 1452 1452 1452 1452 1452 1452 1452 1452 1452 1452 1452 1452 1452 1452 1452 1452 1452 1452 1452 1445 1445 1452 1452 1452 1452 1452 1458 1458 1458 1458 1464 1458 1458 1458 1458 1458 1458 1458 1464 1464 1452 1452 1458 1458 1458 1464 1458 1458 1464 1464 1464 1464 1458 1458 1464 1464 1464 1458 1458 1458 1458 1458 1458 1458 1458 1458 1458 1458 1458 1458 1464 1464 1464 1464 1464 1464 1464 1464 1464 1470 1470 1464 1464 1464 1464 1470 1464 1464 1470 1470 1470 1470 1470 1470 1477 1477 1477 1477 1477 1477 1477 1477 1477 1477 1477 1477 1477 1470 1470 1477 1477 1477 1477 1477 1477 1477 1477 1477 1477 1483 1483 1483 1483 1483 1483 1483 1483 1489 1489 1489 1489 1489 1489 1489 1489 1489 1489 1489 1489 1489 1489 1489 1489 1483 1483 1483 1483 1489 1489 1489 1483 1483 1489 1489 1489 1489 1489 1489 1489 1489 1489 1489 1489 1489 1489 1489 1496 1489 1489 1489 1489 1489 1489 1489 1489 1496 1489 1489 1496 1496 1496 1496 1496 1496 1496 1496 1496 1496 1496 1496 1496 1496 1496 1496 1496 1496 1496 1496 1496 1496 1496 1503 1503 1503 1503 1503 1503 1503 1503 1496 1496 1496 1496 1496 1496 1496 1496 1503 1503 1503 1503 1503 1509 1509 1509 1509 1503 1503 1503 1496 1496 1496 1496 1496 1496 1496 1496 1496 1496 1503 1503 1503 1503 1503 1503 1503 1503 1503 1503 1503 1509 1509 1509 1509 1509 1509 1509 1516 1509 1509 1509 1509 1509 1516 1509 1509 1509 1509 1509 1509 1509 1509 1509 1509 1516 1516 1516 1516 1516 1516 1516 1516 1516 1516 1516 1516 1516 1516 1516 1516 1523 1523 1523 1523 1523 1523 1523 1523 1523 1523 1523 1523 1523 1523 1523 1523 1516 1516 1523 1523 1523 1523 1523 1523 1529 1529 1516 1516 1516 1516 1516 1516 1516 1516 1516 1516 1516 1516 1516 1516 1523 1523 1516 1516 1516 1516 1516 1516 1516 1516 1523 1523 1523 1523 1523 1523 1523 1529 1523 1523 1523 1523 1523 1523 1529 1523 1523 1529 1529 1529 1529 1529 1529 1529 1529 1529 1523 1523 1523 1529 1529 1529 1529 1529 1536 1536 1536 1536 1536 1536 1536 1536 1536 1536 1536 1536 1536 1536 1536 1529 1529 1536 1529 1529 1529 1529 1536 1536 1536 1536 1529 1529 1529 1529 1529 1529 1529 1529 1529 1529 1529 1529 1529 1529 1529 1529 1529 1529 1529 1536 1536 1536 1536 1536 1536 1536 1529 1529 1529 1529 1529 1529 1529 1529 1529 1529 1536 1536 1536 1536 1536 1536 1536 1536 1536 1536 1536 1536 1529 1529 1529 1529 1529 1536 1536 1536 1536 1536 1536 1529 1529 1529 1529 1536 1536 1536 1536 1536 1536 1536 1543 1543 1543 1543 1543 1543 1543 1543 1543 1543 1543 1543 1543 1543 1543 1543 1543 1536 1536 1536 1536 1536 1543 1543 1543 1543 1543 1543 1543 1543 1536 1536 1536 1536 1536 1536 1536 1536 1543 1543 1550 1550 1550 1550 1550 1550 1550 1550 1550 1550 1550 1550 1550 1550 1550 1550 1557 1557 1557 1557 1557 1557 1557 0 0 0 0 0 0
0 0 0 0 0 0 0 0 0 0 0 0 0 0 0 0 0 0 0 0 0 0 0 0 0 0 0 0 0 0 0 0 0 0 0 0 1421 1421 1427 1433 1433 1433 1433 1433 1433 1433 1433 1433 1433 1433 1439 1439 1439 1439 1445 1445 1445 1445 1445 1445 1445 1452 1445 1445 1445 1452 1445 1445 1445 1445 1452 1445 1445 1445 1445 1445 1445 1445 1445 1445 1445 1445 1445 1445 1445 1445 1445 1445 1445 1445 1445 1445 1445 1445 1445 1445 1452 1452 1452 1445 1445 1445 1445 1445 1452 1452 1452 1452 1452 1452 1452 1452 1452 1452 1452 1452 1452 1452 1452 1452 1445 1445 1445 1445 1452 1452 1452 1452 1452 1452 1458 1458 1458 1458 1458 1458 1458 1458 1458 1458 1452 1452 1452 1452 1458 1458 1458 1458 1458 1458 1458 1464 1464 1458 1458 1458 1458 1458 1452 1452 1452 1452 1458 1458 1458 1458 1458 1458 1458 1458 1458 1458 1464 1464 1464 1464 1464 1464 1458 1458 1464 1464 1458 1458 1458 1458 1464 1464 1464 1464 1464 1464 1464 1470 1470 1470 1470 1477 1477 1477 1477 1477 1470 1470 1477 1477 1477 1477 1470 1470 1477 1477 1477 1477 1477 1477 1477 1477 1477 1477 1477 1477 1477 1477 1477 1477 1477 1477 1483 1483 1483 1483 1483 1483 1483 1483 1483 1483 1483 1483 1483 1483 1483 1483 1483 1477 1477 1483 1483 1483 1483 1483 1483 1483 1489 1483 1483 1489 1489 1489 1489 1489 1489 1489 1489 1489 1489 1489 1489 1489 1489 1489 1489 1489 1489 1489 1489 1489 1489 1489 1496 1496 1496 1489 1489 1496 1489 1489 1496 1496 1496 1496 1496 1496 1496 1496 1496 1496 1489 1489 1496 1496 1496 1503 1503 1503 1503 1496 1496 1496 1496 1496 1496 1496 1496 1496 1496 1496 1496 1496 1496 1496 1496 1496 1503 1503 1503 1503 1503 1503 1496 1496 1489 1489 1489 1489 1489 1489 1489 1489 1489 1496 1496 1503 1503 1503 1503 1503 1503 1503 1503 1503 1503 1509 1509 1509 1509 1509 1509 1509 1509 1509 1509 1509 1509 1509 1509 1509 1509 1509 1509 1509 1509 1509 1509 1509 1509 1509 1509 1509 1516 1516 1516 1516 1516 1516 1516 1516 1516 1516 1516 1516 1516 1516 1516 1516 1516 1523 1516 1516 1516 1516 1516 1516 1516 1516 1516 1516 1516 1516 1516 1516 1516 1516 1516 1516 1516 1509 1509 1509 1516 1516 1509 1509 1509 1509 1509 1509 1509 1509 1516 1516 1516 1509 1509 1509 1509 1516 1516 1516 1516 1516 1516 1516 1516 1516 1516 1516 1523 1523 1523 1523 1523 1523 1523 1523 1523 1523 1523 1523 1523 1523 1523 1523 1523 1523 1523 1523 1523 1523 1523 1529 1529 1529 1529 1529 1529 1529 1529 1529 1529 1529 1529 1529 1529 1529 1529 1529 1529 1529 1529 1529 1529 1529 1529 1529 1529 1536 1529 1529 1536 1529 1529 1529 1529 1529 1529 1529 1529 1529 1529 1529 1529 1523 1523 1523 1523 1523 1523 1523 1523 1529 1529 1529 1529 1536 1529 1529 1529 1529 1523 1523 1523 1523 1529 1529 1529 1529 1529 1529 1529 1529 1529 1529 1529 1529 1529 1529 1529 1529 1529 1529 1529 1529 1529 1523 1523 1523 1523 1523 1523 1523 1523 1529 1529 1536 1529 1529 1536 1536 1536 1536 1536 1536 1536 1536 1536 1536 1536 1536 1536 1536 1543 1543 1543 1536 1536 1536 1529 1529 1529 1536 1536 1536 1536 1543 1543 1543 1536 1536 1536 1536 1529 1529 1529 1529 1529 1529 1529 1536 1543 1543 1543 1550 1550 1550 1550 1550 1543 1543 1543 1550 1550 1550 1550 1550 1550 1550 1550 1550 1550 1550 1557 1557 0 0 0 0 0 0
0 0 0 0 0 0 0 0 0 0 0 0 0 0 0 0 0 0 0 0 0 0 0 0 0 0 0 0 0 0 0 0 0 0 0 0 1421 1421 1427 1427 1433 1433 1433 1433 1433 1433 1433 1433 1433 1433 1439 1439 1439 1439 1445 1445 1445 1439 1439 1445 1445 1445 1445 1439 1439 1445 1439 1439 1445 1445 1445 1445 1439 1439 1439 1439 1439 1439 1439 1439 1439 1439 1439 1439 1439 1439 1445 1445 1445 1445 1445 1445 1445 1445 1445 1445 1452 1452 1452 1445 1445 1445 1445 1445 1445 1445 1445 1445 1445 1452 1445 1445 1445 1445 1445 1452 1445 1445 1445 1445 1445 1445 1445 1445 1445 1452 1452 1452 1452 1452 1452 1452 1452 1452 1458 1458 1458 1458 1458 1458 1452 1452 1452 1452 1452 1452 1458 1458 1458 1458 1458 1458 1458 1458 1458 1458 1458 1458 1452 1452 1452 1452 1452 1452 1452 1452 1452 1452 1452 1452 1452 1458 1458 1458 1458 1464 1464 1458 1458 1458 1458 1458 1458 1458 1458 1458 1458 1458 1458 1464 1464 1464 1464 1464 1464 1470 1470 1470 1470 1470 1470 1470 1470 1470 1470 1470 1470 1470 1470 1470 1470 1470 1470 1470 1470 1470 1470 1477 1477 1477 1477 1477 1470 1470 1470 1470 1477 1477 1477 1477 1483 1483 1483 1483 1483 1483 1483 1483 1483 1477 1477 1483 1483 1483 1477 1477 1477 1477 1477 1477 1477 1477 1477 1477 1483 1483 1483 1483 1483 1483 1483 1483 1483 1483 1483 1489 1489 1489 1489 1489 1489 1489 1489 1489 1489 1489 1489 1489 1489 1489 1489 1489 1489 1489 1489 1489 1489 1489 1489 1489 1489 1489 1489 1496 1489 1489 1489 1496 1489 1489 1489 1489 1496 1496 1496 1496 1496 1496 1496 1496 1496 1496 1496 1496 1496 1496 1496 1496 1496 1496 1496 1496 1496 1496 1496 1496 1496 1496 1496 1496 1489 1489 1489 1489 1489 1489 1489 1489 1489 1489 1489 1489 1489 1496 1496 1496 1496 1496 1496 1496 1496 1496 1496 1496 1503 1503 1503 1503 1509 1509 1509 1509 1509 1509 1509 1509 1509 1509 1509 1503 1503 1503 1503 1503 1503 1509 1509 1509 1509 1509 1509 1509 1509 1509 1509 1509 1509 1509 1509 1509 1516 1516 1516 1516 1516 1516 1516 1516 1516 1516 1516 1516 1516 1516 1516 1516 1516 1516 1516 1516 1516 1516 1516 1516 1516 1516 1509 1509 1509 1509 1509 1509 1509 1509 1509 1509 1509 1509 1509 1509 1509 1509 1509 1509 1509 1509 1509 1509 1509 1509 1509 1516 1516 1516 1516 1509 1509 1516 1516 1516 1516 1516 1516 1516 1516 1516 1523 1523 1523 1523 1523 1523 1523 1516 1516 1516 1516 1516 1516 1516 1523 1523 1523 1523 1523 1529 1529 1529 1529 1529 1529 1529 1529 1529 1529 1529 1529 1529 1529 1529 1529 1529 1529 1529 1529 1529 1529 1529 1529 1529 1536 1529 1529 1529 1523 1523 1523 1523 1523 1523 1523 1523 1523 1523 1523 1523 1523 1523 1516 1516 1523 1523 1529 1529 1529 1529 1523 1523 1523 1523 1523 1516 1516 1523 1523 1523 1523 1529 1529 1529 1529 1529 1529 1529 1529 1529 1529 1529 1529 1529 1523 1523 1523 1523 1523 1523 1523 1523 1523 1523 1523 1523 1523 1523 1523 1529 1529 1529 1529 1529 1529 1529 1529 1529 1536 1529 1529 1536 1536 1536 1536 1536 1536 1536 1536 1536 1536 1536 1529 1529 1529 1529 1529 1536 1536 1536 1536 1536 1536 1529 1529 1529 1529 1529 1529 1529 1529 1529 1529 1529 1536 1543 1543 1543 1543 1543 1543 1543 1543 1543 1543 1543 1543 1543 1543 1543 1543 1550 1550 1550 1550 1550 1550 1550 0 0 0 0 0 0
0 0 0 0 0 0 0 0 0 0 0 0 0 0 0 0 0 0 0 0 0 0 0 0 0 0 0 0 0 0 0 0 0 0 0 0 1421 1421 1421 1427 1427 1427 1427 1427 1433 1433 1427 1427 1433 1433 1433 1433 1433 1433 1439 1439 1439 1439 1439 1439 1439 1439 1439 1439 1439 1439 1439 1439 1439 1439 1439 1439 1433 1433 1433 1433 1433 1433 1433 1433 1433 1433 1433 1433 1439 1439 1439 1439 1439 1439 1445 1445 1445 1445 1445 1445 1452 1452 1452 1452 1452 1445 1445 1445 1439 1439 1445 1445 1445 1445 1445 1445 1445 1445 1445 1445 1445 1445 1445 1445 1439 1439 1439 1439 1445 1445 1445 1445 1445 1445 1445 1445 1445 1445 1452 1452 1458 1452 1452 1452 1452 1452 1452 1452 1452 1452 1452 1452 1452 1458 1458 1458 1458 1452 1452 1452 1452 1452 1452 1452 1452 1452 1452 1452 1452 1452 1452 1452 1452 1452 1452 1452 1452 1452 1452 1458 1458 1452 1452 1452 1452 1452 1452 1452 1458 1458 1458 1458 1458 1458 1458 1458 1458 1458 1458 1458 1458 1458 1464 1464 1470 1470 1464 1464 1464 1470 1470 1470 1470 1470 1470 1470 1470 1470 1470 1470 1470 1470 1470 1470 1470 1470 1470 1464 1464 1470 1470 1477 1477 1477 1477 1477 1477 1477 1477 1477 1477 1477 1477 1477 1477 1483 1483 1483 1477 1470 1470 1470 1470 1470 1470 1470 1470 1470 1470 1477 1477 1477 1477 1477 1477 1477 1477 1483 1483 1483 1489 1489 1483 1483 1483 1483 1483 1483 1483 1483 1483 1483 1483 1489 1489 1489 1489 1489 1489 1489 1489 1489 1489 1489 1489 1489 1489 1489 1489 1489 1489 1489 1489 1489 1489 1489 1489 1496 1496 1496 1496 1496 1496 1496 1496 1496 1496 1496 1496 1496 1489 1489 1496 1496 1496 1496 1496 1496 1496 1496 1496 1496 1496 1496 1489 1489 1489 1489 1489 1489 1489 1489 1489 1489 1489 1489 1489 1489 1489 1489 1489 1489 1489 1489 1489 1489 1489 1489 1496 1503 1503 1503 1503 1503 1503 1503 1503 1503 1503 1503 1503 1496 1496 1496 1496 1496 1496 1496 1496 1503 1503 1503 1503 1503 1509 1509 1509 1509 1509 1509 1509 1509 1509 1509 1509 1509 1509 1516 1516 1509 1509 1516 1516 1516 1516 1509 1509 1509 1509 1509 1509 1509 1509 1509 1509 1509 1509 1516 1516 1516 1509 1503 1503 1509 1509 1509 1509 1509 1509 1509 1509 1509 1509 1509 1509 1509 1509 1509 1509 1509 1509 1509 1509 1509 1509 1509 1509 1509 1509 1509 1509 1509 1509 1509 1509 1509 1516 1516 1516 1516 1516 1516 1516 1516 1516 1516 1516 1516 1516 1516 1516 1516 1516 1516 1516 1523 1523 1523 1523 1523 1523 1523 1523 1523 1529 1529 1523 1523 1529 1523 1523 1523 1523 1523 1523 1523 1523 1523 1529 1523 1523 1529 1529 1529 1529 1529 1523 1523 1523 1523 1523 1523 1523 1523 1523 1523 1523 1523 1523 1523 1516 1516 1516 1516 1523 1523 1523 1523 1529 1529 1523 1516 1516 1516 1516 1516 1516 1516 1523 1523 1523 1523 1523 1523 1529 1529 1529 1523 1523 1523 1523 1523 1523 1523 1523 1523 1523 1523 1523 1516 1516 1523 1523 1523 1523 1523 1523 1523 1523 1523 1523 1523 1523 1523 1523 1523 1523 1523 1523 1523 1529 1529 1529 1529 1529 1529 1529 1536 1536 1529 1529 1529 1529 1529 1523 1523 1523 1523 1523 1529 1529 1529 1529 1529 1529 1529 1529 1523 1523 1523 1529 1529 1529 1529 1536 1536 1536 1536 1543 1536 1536 1536 1536 1536 1543 1543 1543 1543 1543 1543 1543 1550 1550 1550 1550 1550 1550 1550 0 0 0 0 0 0
0 0 0 0 0 0 0 0 0 0 0 0 0 0 0 0 0 0 0 0 0 0 0 0 0 0 0 0 0 0 0 0 0 0 0 0 1415 1415 1415 1421 1421 1421 1427 1427 1427 1427 1427 1427 1427 1427 1427 1433 1427 1427 1427 1427 1433 1433 1433 1433 1439 1439 1439 1433 1433 1433 1439 1439 1439 1439 1439 1439 1433 1433 1433 1433 1433 1433 1433 1433 1433 1433 1433 1433 1433 1433 1433 1433 1433 1439 1439 1439 1439 1439 1445 1445 1445 1445 1445 1445 1445 1439 1439 1439 1433 1433 1439 1439 1439 1439 1439 1445 1445 1445 1445 1445 1445 1445 1439 1439 1439 1439 1439 1439 1439 1439 1439 1439 1439 1439 1439 1439 1439 1439 1452 1452 1452 1452 1452 1452 1452 1452 1445 1445 1452 1452 1452 1452 1452 1452 1452 1452 1452 1452 1452 1452 1452 1452 1445 1445 1445 1452 1452 1452 1452 1452 1452 1452 1452 1452 1452 1452 1452 1452 1452 1452 1452 1452 1452 1452 1452 1452 1452 1452 1452 1452 1452 1458 1458 1458 1458 1452 1452 1452 1452 1458 1458 1458 1458 1464 1464 1464 1464 1464 1464 1470 1470 1470 1470 1470 1470 1470 1470 1470 1470 1470 1470 1470 1470 1470 1470 1470 1464 1464 1464 1464 1470 1470 1470 1470 1477 1477 1477 1477 1477 1477 1477 1477 1477 1477 1477 1477 1477 1477 1470 1470 1470 1470 1470 1470 1470 1470 1470 1470 1470 1470 1470 1470 1470 1470 1477 1477 1477 1477 1477 1477 1483 1483 1483 1483 1483 1483 1483 1477 1477 1477 1477 1477 1483 1483 1483 1483 1489 1489 1489 1489 1489 1489 1489 1489 1489 1489 1489 1489 1489 1489 1489 1489 1489 1489 1489 1489 1489 1489 1489 1496 1496 1496 1496 1489 1489 1489 1489 1496 1489 1489 1489 1489 1489 1489 1489 1489 1489 1489 1496 1496 1496 1496 1496 1496 1489 1489 1489 1489 1489 1489 1489 1489 1489 1489 1489 1489 1489 1489 1489 1489 1489 1489 1489 1489 1489 1489 1489 1489 1489 1496 1496 1496 1496 1503 1503 1503 1496 1496 1496 1496 1496 1496 1496 1496 1496 1496 1496 1496 1496 1496 1496 1503 1503 1503 1503 1503 1503 1503 1496 1496 1503 1503 1503 1503 1503 1503 1509 1509 1509 1509 1509 1509 1509 1509 1509 1509 1509 1509 1509 1509 1509 1509 1509 1509 1509 1509 1509 1509 1509 1509 1503 1503 1503 1503 1503 1503 1503 1503 1509 1509 1509 1509 1503 1503 1503 1503 1503 1503 1503 1503 1503 1509 1509 1509 1509 1509 1509 1509 1509 1509 1509 1509 1509 1509 1509 1509 1509 1509 1509 1509 1516 1516 1516 1516 1516 1516 1516 1509 1509 1509 1509 1509 1509 1516 1516 1516 1516 1516 1523 1516 1516 1523 1523 1523 1523 1523 1523 1523 1523 1516 1516 1516 1516 1516 1516 1516 1516 1523 1523 1523 1523 1523 1529 1529 1529 1529 1516 1516 1516 1509 1509 1516 1516 1516 1516 1516 1516 1516 1516 1516 1509 1509 1509 1509 1516 1523 1523 1523 1523 1523 1516 1516 1509 1509 1509 1509 1509 1516 1516 1523 1523 1523 1523 1523 1523 1523 1523 1523 1523 1523 1523 1523 1523 1523 1523 1523 1523 1523 1516 1516 1516 1516 1516 1516 1523 1523 1523 1523 1523 1523 1523 1523 1523 1523 1523 1523 1523 1523 1523 1523 1523 1523 1529 1529 1529 1529 1529 1529 1529 1529 1529 1529 1523 1523 1523 1523 1523 1523 1523 1523 1523 1523 1523 1523 1523 1523 1523 1523 1523 1523 1523 1529 1529 1529 1529 1529 1529 1536 1536 1536 1536 1536 1536 1536 1536 1536 1536 1543 1543 1543 1543 1543 1550 1543 1543 1543 1550 1550 0 0 0 0 0 0
0 0 0 0 0 0 0 0 0 0 0 0 0 0 0 0 0 0 0 0 0 0 0 0 0 0 0 0 0 0 0 0 0 0 0 0 1410 1410 1415 1415 1415 1421 1421 1421 1421 1421 1427 1427 1427 1427 1427 1427 1427 1427 1427 1427 1433 1433 1433 1433 1433 1433 1433 1433 1433 1433 1433 1439 1439 1439 1439 1439 1433 1433 1433 1433 1433 1427 1427 1427 1433 1433 1433 1433 1433 1433 1433 1433 1433 1433 1433 1433 1433 1433 1439 1439 1439 1439 1445 1439 1439 1433 1433 1433 1433 1433 1433 1433 1433 1439 1439 1439 1439 1439 1439 1439 1439 1433 1433 1439 1439 1439 1433 1433 1439 1439 1439 1439 1439 1439 1439 1439 1439 1439 1445 1452 1452 1445 1445 1445 1445 1439 1439 1445 1445 1445 1445 1445 1445 1452 1452 1452 1452 1445 1445 1445 1445 1445 1445 1445 1445 1445 1452 1452 1452 1452 1452 1445 1445 1452 1452 1452 1452 1452 1452 1452 1452 1452 1452 1445 1445 1452 1452 1452 1452 1452 1452 1452 1452 1452 1452 1452 1452 1452 1452 1452 1452 1452 1458 1458 1458 1464 1464 1464 1464 1464 1464 1464 1470 1470 1470 1464 1464 1464 1470 1470 1470 1464 1464 1464 1464 1464 1464 1458 1458 1458 1464 1470 1470 1470 1470 1477 1477 1470 1470 1470 1470 1470 1470 1470 1470 1477 1477 1477 1470 1464 1464 1470 1470 1470 1470 1470 1470 1470 1470 1470 1470 1470 1470 1470 1470 1470 1470 1477 1477 1477 1483 1483 1483 1483 1477 1477 1477 1477 1477 1477 1477 1477 1483 1483 1483 1483 1483 1483 1483 1483 1483 1483 1483 1483 1483 1489 1489 1489 1489 1483 1483 1489 1483 1483 1483 1489 1489 1489 1489 1489 1489 1496 1489 1489 1489 1489 1489 1496 1489 1489 1489 1489 1489 1489 1489 1489 1489 1489 1489 1496 1496 1496 1496 1496 1489 1483 1483 1483 1483 1489 1489 1489 1489 1489 1489 1489 1489 1489 1489 1489 1489 1489 1489 1489 1489 1489 1489 1489 1489 1489 1496 1496 1496 1496 1496 1489 1489 1489 1489 1489 1489 1489 1489 1489 1489 1489 1489 1489 1489 1496 1496 1496 1496 1496 1496 1496 1503 1496 1496 1496 1496 1496 1496 1496 1496 1503 1503 1503 1503 1503 1503 1503 1503 1503 1496 1496 1496 1503 1503 1503 1503 1509 1509 1509 1509 1509 1509 1509 1509 1509 1503 1503 1503 1503 1503 1503 1503 1503 1503 1503 1503 1509 1503 1503 1503 1503 1503 1503 1503 1503 1503 1503 1503 1503 1503 1503 1509 1509 1503 1503 1503 1503 1503 1509 1509 1509 1509 1509 1509 1509 1509 1509 1516 1516 1509 1509 1509 1509 1509 1509 1509 1509 1509 1509 1509 1516 1516 1516 1516 1509 1509 1509 1516 1516 1516 1509 1509 1516 1516 1509 1509 1516 1516 1516 1516 1516 1516 1516 1516 1516 1516 1523 1523 1523 1523 1523 1509 1509 1509 1509 1509 1509 1509 1509 1509 1509 1509 1509 1509 1509 1509 1509 1509 1509 1509 1516 1516 1516 1516 1516 1509 1509 1509 1509 1509 1509 1509 1509 1516 1516 1523 1523 1516 1516 1516 1516 1516 1516 1516 1516 1516 1516 1516 1516 1523 1523 1516 1516 1516 1516 1516 1516 1509 1509 1516 1516 1516 1516 1516 1523 1523 1523 1523 1523 1523 1523 1523 1523 1523 1523 1523 1523 1523 1523 1523 1523 1523 1523 1529 1523 1523 1523 1516 1516 1516 1516 1516 1516 1516 1523 1523 1523 1523 1523 1523 1523 1523 1523 1523 1523 1523 1523 1523 1523 1523 1523 1523 1529 1529 1529 1529 1529 1529 1529 1529 1536 1536 1543 1543 1543 1543 1543 1543 1543 1543 1543 1543 1543 0 0 0 0 0 0
0 0 0 0 0 0 0 0 0 0 0 0 0 0 0 0 0 0 0 0 0 0 0 0 0 0 0 0 0 0 0 0 0 0 0 0 1404 1404 1410 1410 1415 1415 1415 1415 1415 1415 1415 1415 1415 1415 1421 1421 1427 1427 1427 1427 1433 1433 1433 1433 1433 1433 1433 1433 1433 1433 1433 1433 1433 1433 1433 1433 1427 1427 1427 1427 1427 1427 1427 1427 1427 1427 1427 1427 1427 1427 1433 1433 1433 1433 1433 1433 1433 1433 1433 1439 1439 1439 1439 1433 1433 1433 1433 1433 1427 1427 1433 1433 1433 1433 1433 1439 1439 1439 1439 1439 1433 1433 1433 1433 1433 1433 1433 1433 1433 1433 1433 1433 1439 1433 1433 1433 1433 1439 1439 1439 1439 1439 1445 1445 1433 1433 1439 1439 1439 1439 1439 1445 1445 1445 1445 1445 1445 1445 1445 1445 1445 1439 1439 1439 1445 1445 1445 1445 1445 1445 1445 1445 1445 1445 1445 1445 1445 1452 1452 1445 1445 1445 1445 1445 1445 1445 1445 1445 1452 1452 1452 1452 1452 1452 1452 1452 1445 1445 1452 1452 1452 1452 1452 1452 1458 1458 1458 1458 1464 1464 1464 1464 1464 1464 1464 1464 1464 1464 1464 1464 1464 1458 1458 1458 1458 1464 1458 1458 1458 1452 1452 1458 1458 1464 1470 1470 1470 1470 1470 1470 1470 1464 1464 1470 1470 1470 1470 1470 1470 1464 1464 1464 1464 1470 1470 1470 1470 1470 1464 1464 1470 1464 1464 1464 1470 1470 1470 1470 1470 1477 1477 1477 1477 1477 1477 1477 1477 1470 1470 1470 1477 1477 1477 1477 1477 1477 1477 1477 1477 1477 1477 1477 1483 1477 1477 1483 1483 1483 1483 1483 1483 1483 1483 1483 1483 1483 1483 1489 1489 1483 1483 1489 1489 1489 1489 1489 1489 1489 1489 1489 1483 1483 1489 1489 1489 1489 1489 1489 1489 1489 1489 1489 1489 1489 1483 1483 1483 1483 1483 1483 1483 1483 1483 1483 1489 1489 1489 1489 1489 1483 1483 1483 1483 1483 1483 1483 1483 1483 1489 1489 1489 1489 1489 1489 1489 1489 1489 1489 1489 1489 1489 1489 1489 1489 1489 1489 1489 1489 1489 1489 1489 1489 1496 1496 1496 1496 1496 1496 1496 1489 1489 1489 1489 1496 1496 1496 1496 1503 1503 1503 1503 1503 1496 1496 1496 1496 1496 1496 1496 1496 1503 1503 1503 1503 1503 1503 1503 1503 1503 1503 1496 1496 1496 1503 1503 1503 1503 1503 1503 1503 1503 1503 1503 1503 1503 1503 1503 1503 1503 1503 1503 1503 1503 1503 1503 1503 1503 1503 1503 1503 1503 1503 1503 1509 1509 1509 1509 1509 1509 1509 1509 1509 1509 1509 1509 1509 1509 1509 1509 1509 1509 1509 1509 1509 1509 1509 1509 1509 1516 1509 1509 1509 1509 1509 1509 1509 1509 1509 1509 1509 1509 1509 1509 1509 1516 1509 1509 1516 1516 1516 1516 1516 1516 1523 1516 1516 1509 1509 1503 1503 1503 1503 1503 1503 1509 1509 1509 1509 1509 1509 1509 1509 1503 1503 1509 1509 1509 1509 1509 1509 1503 1503 1503 1503 1509 1509 1509 1509 1509 1516 1516 1516 1516 1516 1516 1509 1509 1509 1509 1509 1509 1516 1516 1516 1516 1516 1516 1516 1509 1509 1509 1509 1509 1509 1509 1509 1509 1516 1516 1516 1516 1516 1516 1516 1516 1516 1516 1516 1516 1516 1523 1523 1523 1516 1516 1516 1523 1523 1523 1523 1523 1523 1516 1516 1516 1516 1516 1516 1516 1516 1516 1516 1523 1523 1523 1523 1523 1523 1523 1523 1523 1523 1523 1523 1523 1523 1523 1523 1523 1523 1523 1523 1523 1523 1523 1529 1529 1536 1543 1543 1543 1543 1543 1543 1543 1543 1543 1543 0 0 0 0 0 0
0 0 0 0 0 0 0 0 0 0 0 0 0 0 0 0 0 0 0 0 0 0 0 0 0 0 0 0 0 0 0 0 0 0 0 0 1404 1404 1404 1410 1410 1410 1415 1415 1415 1415 1415 1415 1415 1415 1421 1421 1427 1427 1427 1427 1427 1427 1427 1433 1433 1433 1433 1433 1433 1433 1433 1433 1433 1433 1433 1433 1427 1427 1427 1427 1427 1427 1427 1427 1427 1427 1427 1427 1427 1427 1427 1427 1427 1433 1433 1433 1433 1433 1433 1433 1433 1433 1433 1433 1433 1427 1427 1427 1427 1427 1427 1427 1433 1433 1433 1433 1433 1433 1439 1433 1433 1433 1433 1433 1433 1433 1433 1433 1433 1433 1433 1433 1433 1433 1433 1433 1433 1439 1433 1433 1433 1433 1439 1439 1433 1433 1433 1433 1439 1433 1433 1439 1439 1445 1439 1439 1445 1439 1439 1439 1439 1439 1439 1439 1439 1445 1445 1445 1445 1445 1445 1445 1445 1445 1445 1445 1445 1445 1445 1445 1445 1445 1445 1445 1445 1445 1445 1445 1445 1445 1445 1452 1445 1445 1452 1445 1445 1445 1445 1445 1452 1452 1452 1452 1458 1458 1458 1458 1458 1458 1458 1458 1458 1458 1464 1464 1458 1458 1458 1458 1458 1458 1458 1458 1458 1458 1458 1458 1458 1452 1452 1458 1458 1458 1464 1464 1470 1470 1464 1464 1470 1464 1464 1464 1464 1464 1470 1470 1464 1464 1464 1464 1464 1464 1464 1464 1464 1464 1464 1464 1464 1464 1464 1464 1470 1470 1470 1470 1470 1470 1470 1470 1470 1470 1470 1470 1470 1470 1470 1470 1470 1470 1477 1470 1470 1470 1470 1470 1470 1470 1470 1470 1477 1477 1477 1477 1477 1477 1477 1477 1477 1477 1483 1483 1483 1483 1483 1489 1489 1477 1477 1483 1483 1483 1483 1489 1483 1483 1483 1483 1483 1483 1483 1483 1483 1483 1483 1483 1489 1489 1489 1489 1489 1489 1483 1483 1483 1483 1483 1483 1483 1483 1483 1483 1483 1483 1483 1483 1483 1483 1483 1483 1483 1483 1483 1483 1483 1483 1483 1489 1489 1489 1489 1489 1489 1483 1483 1483 1483 1483 1483 1483 1483 1489 1489 1489 1489 1489 1489 1489 1489 1489 1489 1489 1489 1489 1489 1489 1489 1489 1489 1489 1489 1489 1496 1496 1496 1503 1496 1496 1496 1496 1489 1489 1489 1489 1489 1489 1496 1496 1496 1496 1496 1496 1496 1496 1496 1496 1496 1496 1489 1489 1489 1489 1489 1489 1489 1489 1496 1496 1496 1496 1496 1496 1496 1496 1503 1496 1496 1496 1503 1503 1503 1503 1503 1503 1503 1503 1503 1503 1503 1503 1503 1503 1503 1503 1503 1509 1509 1503 1503 1509 1509 1509 1509 1509 1509 1509 1509 1509 1509 1509 1509 1509 1509 1509 1509 1509 1509 1509 1509 1509 1509 1509 1509 1503 1503 1503 1503 1503 1503 1503 1509 1509 1509 1509 1509 1516 1516 1509 1509 1509 1516 1516 1516 1516 1503 1503 1503 1503 1503 1503 1503 1503 1503 1503 1503 1503 1503 1503 1503 1503 1503 1503 1503 1503 1503 1509 1509 1509 1503 1503 1503 1503 1503 1503 1503 1503 1509 1509 1509 1509 1509 1509 1509 1503 1503 1503 1503 1503 1509 1509 1509 1509 1509 1516 1509 1509 1509 1503 1503 1503 1503 1503 1509 1509 1509 1509 1509 1516 1509 1509 1509 1509 1509 1509 1509 1509 1516 1516 1516 1516 1516 1516 1509 1509 1509 1509 1516 1516 1516 1516 1509 1509 1509 1509 1509 1509 1516 1516 1516 1516 1516 1516 1516 1516 1516 1516 1516 1523 1523 1523 1523 1523 1523 1523 1523 1523 1523 1523 1523 1523 1523 1523 1523 1523 1523 1536 1536 1543 1543 1543 1543 1543 1543 1543 1543 1543 0 0 0 0 0 0
0 0 0 0 0 0 0 0 0 0 0 0 0 0 0 0 0 0 0 0 0 0 0 0 0 0 0 0 0 0 0 0 0 0 0 0 1398 1398 1404 1410 1410 1410 1410 1410 1410 1410 1410 1410 1415 1415 1415 1415 1421 1421 1421 1421 1427 1427 1427 1427 1427 1433 1433 1433 1433 1433 1433 1433 1427 1427 1427 1427 1427 1427 1427 1427 1427 1427 1427 1427 1427 1427 1427 1427 1427 1421 1421 1427 1427 1427 1427 1427 1427 1427 1433 1433 1433 1433 1433 1433 1427 1427 1427 1427 1427 1427 1427 1427 1427 1427 1427 1427 1433 1433 1433 1433 1433 1433 1433 1433 1433 1433 1433 1433 1433 1433 1433 1433 1433 1433 1433 1433 1433 1433 1433 1433 1433 1433 1439 1433 1433 1433 1433 1433 1433 1433 1433 1433 1439 1439 1439 1439 1439 1439 1439 1439 1433 1433 1433 1427 1427 1439 1439 1445 1445 1445 1445 1445 1445 1445 1445 1439 1439 1445 1445 1445 1439 1433 1433 1439 1439 1439 1439 1439 1445 1445 1445 1452 1445 1445 1452 1445 1445 1445 1445 1445 1445 1445 1452 1452 1452 1452 1452 1452 1452 1452 1452 1452 1452 1452 1458 1458 1458 1458 1458 1458 1458 1452 1452 1452 1452 1458 1452 1452 1452 1452 1452 1452 1452 1458 1464 1464 1464 1464 1464 1464 1464 1464 1458 1458 1464 1464 1464 1464 1464 1458 1458 1464 1464 1464 1464 1464 1464 1464 1464 1464 1464 1464 1464 1464 1470 1470 1470 1470 1470 1470 1470 1470 1470 1470 1470 1470 1470 1464 1464 1470 1470 1470 1470 1470 1470 1470 1470 1470 1470 1464 1464 1470 1470 1470 1470 1470 1470 1470 1470 1470 1470 1477 1477 1477 1477 1470 1470 1470 1470 1477 1477 1477 1477 1477 1477 1483 1483 1477 1477 1483 1483 1483 1477 1477 1477 1483 1483 1483 1483 1483 1483 1483 1483 1483 1477 1477 1477 1483 1483 1483 1483 1483 1483 1483 1483 1483 1483 1483 1483 1483 1483 1483 1483 1483 1483 1483 1483 1483 1483 1483 1483 1483 1483 1483 1477 1477 1483 1483 1483 1483 1483 1483 1483 1483 1483 1483 1483 1483 1483 1483 1483 1483 1489 1489 1489 1489 1489 1489 1489 1489 1489 1489 1489 1489 1489 1489 1489 1496 1496 1489 1489 1489 1489 1489 1489 1489 1489 1489 1489 1489 1489 1496 1496 1496 1496 1489 1489 1489 1489 1496 1483 1483 1483 1483 1483 1483 1483 1483 1496 1496 1496 1496 1496 1496 1496 1496 1489 1489 1489 1489 1489 1496 1496 1496 1496 1496 1496 1503 1503 1503 1503 1503 1503 1503 1503 1503 1503 1503 1503 1503 1503 1503 1503 1503 1503 1503 1509 1503 1503 1503 1503 1503 1509 1503 1503 1503 1509 1509 1509 1503 1503 1503 1503 1503 1503 1503 1496 1496 1503 1503 1503 1503 1503 1503 1509 1509 1509 1509 1509 1503 1503 1509 1509 1509 1509 1509 1503 1503 1503 1503 1503 1503 1503 1503 1503 1503 1503 1503 1503 1503 1503 1503 1503 1503 1503 1503 1503 1503 1503 1503 1503 1503 1503 1503 1503 1503 1503 1503 1503 1509 1509 1509 1503 1503 1503 1503 1503 1503 1503 1503 1503 1509 1509 1509 1509 1509 1503 1503 1503 1503 1503 1503 1503 1503 1503 1503 1509 1509 1509 1509 1509 1509 1509 1509 1509 1509 1509 1509 1509 1516 1516 1516 1509 1509 1509 1509 1509 1509 1509 1509 1509 1509 1509 1503 1503 1503 1503 1509 1509 1509 1509 1509 1509 1509 1509 1509 1509 1516 1516 1516 1516 1516 1516 1516 1523 1523 1523 1523 1523 1523 1516 1516 1516 1523 1523 1523 1523 1529 1536 1536 1543 1543 1543 1543 1543 1543 1543 1543 0 0 0 0 0 0
0 0 0 0 0 0 0 0 0 0 0 0 0 0 0 0 0 0 0 0 0 0 0 0 0 0 0 0 0 0 0 0 0 0 0 0 1398 1398 1398 1404 1404 1410 1410 1410 1410 1410 1410 1410 1410 1410 1410 1410 1410 1415 1415 1421 1421 1421 1421 1427 1427 1427 1427 1427 1427 1427 1427 1427 1421 1421 1427 1427 1421 1421 1421 1421 1427 1427 1427 1421 1421 1421 1421 1421 1421 1421 1421 1421 1421 1427 1427 1427 1427 1427 1427 1427 1427 1427 1427 1427 1427 1427 1427 1427 1427 1427 1427 1427 1427 1427 1427 1427 1427 1427 1433 1433 1433 1433 1433 1433 1433 1427 1427 1427 1427 1427 1427 1433 1433 1433 1433 1433 1433 1433 1433 1433 1433 1433 1433 1433 1433 1433 1433 1433 1433 1433 1433 1433 1433 1433 1433 1433 1433 1433 1433 1433 1433 1433 1427 1427 1427 1427 1427 1433 1439 1439 1439 1439 1439 1439 1439 1433 1433 1439 1439 1439 1433 1433 1433 1439 1439 1439 1439 1439 1439 1445 1445 1452 1445 1445 1445 1445 1439 1439 1439 1445 1445 1445 1445 1445 1452 1452 1452 1452 1452 1452 1452 1452 1452 1452 1452 1452 1452 1452 1452 1452 1452 1452 1452 1452 1452 1452 1452 1452 1452 1452 1452 1452 1452 1458 1458 1458 1464 1464 1464 1464 1464 1458 1458 1452 1452 1458 1458 1458 1458 1458 1458 1458 1458 1458 1458 1458 1464 1458 1458 1458 1458 1458 1458 1464 1464 1464 1464 1464 1464 1464 1464 1464 1464 1464 1464 1464 1464 1464 1464 1464 1464 1464 1464 1464 1464 1464 1464 1464 1464 1464 1464 1470 1470 1470 1470 1470 1470 1470 1470 1470 1470 1470 1470 1470 1470 1470 1470 1470 1470 1470 1470 1470 1470 1477 1470 1470 1477 1477 1477 1477 1470 1470 1470 1470 1470 1477 1477 1477 1477 1477 1477 1477 1477 1483 1477 1477 1477 1477 1477 1483 1483 1483 1483 1483 1483 1483 1483 1477 1477 1483 1483 1477 1477 1477 1477 1477 1477 1477 1477 1477 1477 1477 1477 1477 1477 1477 1477 1477 1477 1477 1483 1477 1477 1483 1483 1483 1483 1483 1483 1483 1483 1483 1483 1483 1483 1483 1483 1483 1483 1483 1483 1483 1483 1489 1489 1489 1489 1489 1489 1489 1489 1489 1489 1489 1489 1489 1489 1489 1489 1489 1489 1489 1489 1489 1489 1489 1489 1489 1489 1489 1483 1483 1483 1483 1483 1483 1483 1483 1489 1489 1489 1489 1489 1483 1483 1483 1483 1483 1489 1489 1489 1489 1489 1489 1489 1496 1496 1496 1496 1496 1496 1496 1496 1496 1496 1489 1489 1489 1496 1489 1489 1503 1503 1496 1496 1496 1503 1503 1503 1503 1503 1503 1503 1503 1503 1503 1503 1503 1503 1503 1503 1503 1503 1503 1503 1503 1496 1496 1496 1496 1496 1503 1503 1503 1503 1503 1503 1503 1503 1503 1503 1503 1503 1509 1509 1509 1503 1503 1503 1503 1503 1503 1503 1503 1503 1503 1503 1503 1503 1496 1496 1496 1496 1496 1496 1496 1503 1503 1503 1503 1503 1503 1503 1503 1503 1503 1503 1503 1503 1503 1503 1503 1503 1503 1503 1503 1503 1503 1503 1503 1503 1503 1503 1509 1509 1509 1503 1503 1503 1503 1503 1503 1503 1503 1503 1503 1503 1503 1503 1503 1503 1503 1503 1503 1503 1503 1503 1503 1509 1509 1509 1516 1509 1509 1509 1509 1503 1503 1503 1503 1503 1503 1503 1503 1503 1503 1503 1503 1503 1503 1509 1509 1509 1509 1509 1503 1503 1509 1509 1516 1516 1516 1516 1516 1516 1516 1516 1516 1516 1523 1516 1516 1516 1523 1516 1516 1523 1523 1529 1529 1523 1523 1529 1543 1543 1543 1543 1543 0 0 0 0 0 0
0 0 0 0 0 0 0 0 0 0 0 0 0 0 0 0 0 0 0 0 0 0 0 0 0 0 0 0 0 0 0 0 0 0 0 0 1398 1398 1398 1398 1404 1404 1404 1410 1410 1410 1404 1404 1410 1410 1410 1410 1410 1410 1410 1415 1415 1415 1415 1415 1421 1421 1421 1421 1421 1427 1421 1421 1421 1415 1415 1421 1421 1415 1415 1421 1421 1421 1421 1421 1415 1415 1415 1415 1415 1415 1415 1415 1421 1427 1427 1427 1427 1427 1427 1421 1421 1421 1421 1421 1421 1421 1421 1427 1421 1421 1427 1427 1421 1421 1421 1421 1427 1427 1427 1427 1427 1427 1427 1427 1427 1427 1421 1421 1427 1427 1427 1427 1427 1427 1427 1427 1433 1433 1433 1433 1433 1433 1433 1433 1433 1433 1433 1433 1433 1433 1433 1433 1433 1433 1433 1433 1433 1433 1433 1433 1433 1433 1427 1427 1427 1427 1427 1427 1433 1427 1427 1433 1433 1433 1433 1427 1427 1433 1433 1433 1433 1433 1433 1433 1433 1433 1433 1433 1439 1439 1445 1445 1445 1445 1445 1445 1439 1439 1439 1439 1439 1439 1445 1445 1445 1445 1445 1445 1445 1445 1445 1445 1452 1452 1452 1452 1452 1452 1452 1452 1452 1452 1452 1452 1452 1452 1452 1452 1452 1452 1452 1452 1452 1452 1452 1452 1458 1458 1458 1458 1458 1458 1458 1452 1452 1458 1458 1452 1452 1452 1452 1452 1452 1458 1458 1458 1452 1452 1458 1458 1458 1452 1452 1452 1452 1464 1464 1458 1458 1464 1464 1464 1458 1458 1458 1458 1464 1464 1464 1464 1464 1464 1464 1464 1464 1464 1464 1464 1464 1464 1464 1464 1464 1464 1464 1464 1464 1464 1470 1470 1470 1470 1470 1470 1470 1470 1470 1470 1470 1470 1470 1470 1470 1470 1470 1470 1470 1470 1470 1470 1470 1470 1470 1470 1470 1470 1470 1470 1470 1470 1470 1470 1477 1477 1470 1470 1470 1470 1464 1464 1464 1477 1477 1477 1477 1477 1477 1477 1477 1470 1470 1470 1470 1470 1470 1470 1470 1470 1470 1470 1470 1477 1477 1477 1477 1477 1477 1477 1477 1477 1477 1477 1477 1477 1477 1483 1483 1483 1483 1483 1483 1483 1483 1483 1483 1483 1483 1483 1483 1483 1483 1483 1483 1483 1483 1489 1489 1489 1489 1489 1489 1489 1483 1483 1483 1483 1483 1483 1483 1489 1489 1489 1489 1489 1489 1489 1489 1489 1489 1489 1483 1483 1483 1483 1483 1483 1483 1483 1483 1483 1489 1483 1483 1483 1483 1483 1483 1483 1483 1483 1483 1489 1489 1483 1483 1489 1489 1489 1489 1496 1496 1489 1489 1489 1489 1483 1483 1483 1489 1489 1489 1489 1489 1489 1483 1483 1489 1489 1489 1489 1489 1503 1503 1496 1496 1496 1496 1496 1496 1496 1496 1496 1496 1496 1496 1496 1489 1489 1489 1489 1489 1496 1496 1496 1503 1503 1503 1496 1496 1496 1496 1503 1503 1503 1503 1503 1496 1496 1496 1496 1496 1496 1496 1496 1496 1496 1496 1496 1496 1496 1496 1496 1496 1496 1496 1496 1496 1503 1503 1503 1496 1496 1496 1496 1496 1496 1496 1496 1496 1503 1503 1503 1503 1503 1503 1503 1503 1503 1503 1503 1503 1503 1503 1503 1503 1503 1503 1503 1503 1503 1503 1503 1503 1503 1503 1503 1503 1503 1503 1503 1503 1503 1503 1503 1503 1503 1503 1503 1503 1509 1509 1509 1509 1503 1503 1503 1503 1503 1503 1503 1503 1503 1496 1496 1503 1503 1503 1503 1503 1503 1503 1503 1503 1503 1503 1503 1503 1509 1509 1509 1509 1509 1516 1516 1516 1516 1516 1516 1516 1516 1516 1516 1516 1516 1516 1516 1516 1523 1523 1529 1516 1516 1523 1536 1543 1543 1543 1543 0 0 0 0 0 0
0 0 0 0 0 0 0 0 0 0 0 0 0 0 0 0 0 0 0 0 0 0 0 0 0 0 0 0 0 0 0 0 0 0 0 0 1398 1398 1398 1398 1404 1404 1404 1404 1404 1404 1404 1404 1410 1410 1410 1410 1410 1410 1410 1410 1415 1415 1415 1415 1415 1415 1421 1421 1421 1421 1421 1415 1415 1415 1415 1421 1410 1410 1415 1415 1415 1415 1415 1415 1415 1415 1410 1410 1415 1415 1415 1415 1415 1421 1421 1421 1421 1421 1421 1415 1415 1415 1415 1415 1421 1421 1421 1421 1421 1421 1421 1421 1421 1421 1415 1415 1421 1421 1427 1427 1427 1427 1427 1427 1427 1421 1421 1421 1421 1421 1427 1427 1427 1427 1427 1427 1427 1427 1427 1433 1433 1433 1433 1433 1433 1433 1433 1433 1433 1427 1427 1427 1427 1427 1427 1427 1427 1427 1427 1427 1427 1427 1421 1421 1427 1427 1427 1427 1427 1427 1427 1427 1427 1427 1427 1427 1427 1427 1427 1427 1427 1427 1427 1427 1427 1427 1427 1433 1433 1433 1439 1439 1445 1445 1439 1439 1433 1433 1439 1439 1439 1439 1439 1439 1445 1439 1439 1439 1439 1445 1445 1445 1445 1445 1445 1445 1445 1445 1445 1445 1452 1452 1452 1452 1452 1452 1452 1452 1452 1445 1445 1452 1452 1452 1452 1452 1452 1452 1452 1452 1452 1452 1452 1452 1452 1452 1452 1452 1445 1445 1445 1452 1452 1452 1452 1452 1452 1452 1452 1452 1452 1445 1445 1452 1452 1458 1458 1458 1458 1458 1458 1452 1452 1452 1452 1452 1458 1458 1458 1458 1458 1458 1464 1464 1464 1464 1464 1464 1464 1464 1464 1464 1464 1464 1464 1464 1464 1464 1464 1464 1464 1464 1464 1464 1464 1464 1464 1470 1470 1464 1464 1464 1464 1470 1470 1470 1470 1470 1470 1470 1470 1470 1470 1470 1470 1470 1470 1470 1470 1470 1470 1470 1470 1470 1464 1464 1464 1464 1464 1464 1464 1464 1464 1464 1477 1477 1477 1470 1470 1470 1464 1464 1464 1464 1464 1464 1464 1470 1470 1470 1470 1470 1470 1470 1470 1470 1477 1477 1477 1477 1477 1477 1477 1477 1477 1477 1477 1477 1477 1477 1477 1477 1477 1477 1483 1483 1483 1483 1483 1483 1483 1483 1483 1483 1483 1483 1483 1483 1483 1483 1483 1483 1483 1483 1483 1483 1483 1483 1483 1483 1483 1483 1483 1483 1483 1483 1483 1489 1489 1489 1483 1483 1483 1483 1477 1477 1477 1477 1477 1477 1477 1477 1477 1477 1477 1483 1483 1483 1483 1483 1483 1483 1483 1483 1483 1483 1483 1483 1483 1483 1489 1483 1483 1483 1483 1483 1483 1483 1483 1483 1489 1489 1489 1483 1483 1483 1483 1483 1483 1483 1483 1489 1496 1496 1489 1489 1489 1489 1489 1489 1489 1496 1489 1489 1489 1496 1489 1489 1489 1489 1489 1496 1496 1496 1496 1496 1496 1496 1496 1496 1496 1496 1496 1496 1496 1503 1496 1496 1496 1496 1496 1496 1496 1496 1496 1496 1496 1496 1496 1496 1496 1496 1496 1496 1496 1496 1496 1496 1496 1496 1496 1496 1496 1496 1496 1496 1496 1496 1496 1496 1496 1496 1496 1496 1496 1496 1496 1496 1503 1503 1503 1503 1503 1503 1503 1503 1503 1503 1496 1496 1496 1496 1496 1496 1496 1496 1496 1496 1496 1496 1496 1496 1496 1496 1496 1503 1503 1503 1503 1503 1503 1503 1503 1503 1503 1503 1503 1496 1496 1496 1496 1503 1496 1496 1496 1496 1496 1496 1496 1496 1496 1496 1496 1496 1496 1496 1496 1503 1503 1503 1503 1503 1509 1509 1516 1516 1516 1516 1516 1516 1516 1516 1516 1516 1516 1516 1516 1516 1516 1523 1516 1516 1516 1523 1523 1523 1536 1536 0 0 0 0 0 0
0 0 0 0 0 0 0 0 0 0 0 0 0 0 0 0 0 0 0 0 0 0 0 0 0 0 0 0 0 0 0 0 0 0 0 0 1392 1392 1392 1398 1398 1398 1398 1404 1404 1404 1404 1404 1404 1404 1404 1404 1404 1410 1410 1410 1410 1410 1410 1415 1415 1415 1415 1415 1415 1415 1415 1415 1415 1415 1415 1415 1410 1410 1410 1410 1410 1410 1410 1410 1410 1410 1410 1410 1410 1410 1415 1415 1415 1415 1421 1415 1415 1415 1415 1415 1410 1410 1415 1415 1421 1421 1421 1421 1421 1421 1421 1415 1415 1415 1415 1415 1415 1415 1421 1421 1421 1421 1421 1421 1421 1415 1415 1415 1415 1421 1421 1427 1427 1427 1421 1421 1427 1427 1427 1427 1427 1433 1433 1433 1433 1433 1433 1433 1433 1427 1427 1427 1427 1427 1427 1427 1427 1427 1427 1427 1427 1427 1421 1421 1421 1421 1421 1421 1421 1421 1421 1421 1421 1421 1427 1427 1427 1427 1427 1427 1427 1427 1427 1427 1427 1427 1427 1427 1427 1433 1433 1439 1439 1433 1433 1433 1427 1427 1427 1433 1433 1433 1433 1433 1439 1433 1433 1433 1433 1439 1439 1439 1439 1439 1445 1445 1445 1445 1445 1445 1445 1445 1445 1445 1445 1445 1445 1445 1445 1445 1445 1445 1452 1452 1452 1452 1452 1452 1452 1452 1452 1452 1452 1452 1452 1452 1452 1452 1445 1445 1445 1445 1445 1445 1445 1452 1452 1452 1452 1452 1452 1445 1445 1445 1452 1452 1452 1452 1452 1458 1452 1452 1452 1452 1452 1452 1452 1452 1452 1452 1458 1458 1464 1458 1458 1458 1458 1458 1458 1464 1458 1458 1464 1464 1464 1464 1464 1464 1464 1464 1464 1464 1464 1464 1464 1464 1464 1464 1464 1464 1464 1464 1464 1464 1464 1464 1464 1470 1470 1470 1470 1464 1464 1470 1470 1470 1470 1470 1470 1470 1470 1470 1470 1470 1458 1458 1464 1464 1464 1464 1464 1464 1464 1464 1470 1470 1470 1470 1470 1470 1464 1464 1464 1464 1464 1464 1464 1470 1470 1464 1464 1464 1464 1464 1470 1470 1470 1470 1470 1477 1477 1470 1470 1470 1470 1477 1470 1470 1477 1477 1477 1477 1477 1477 1477 1477 1477 1477 1477 1477 1477 1477 1477 1477 1477 1483 1483 1483 1483 1483 1483 1483 1483 1483 1483 1477 1477 1483 1477 1477 1477 1483 1483 1483 1483 1483 1483 1483 1483 1483 1477 1477 1477 1477 1477 1477 1477 1477 1477 1477 1477 1477 1477 1477 1477 1477 1477 1483 1483 1483 1483 1483 1483 1483 1483 1483 1483 1477 1477 1483 1483 1483 1483 1483 1483 1483 1483 1483 1483 1483 1483 1483 1483 1483 1483 1483 1483 1483 1483 1483 1483 1483 1489 1483 1483 1483 1483 1483 1483 1483 1483 1483 1483 1483 1483 1483 1483 1483 1483 1483 1483 1489 1489 1489 1489 1489 1489 1483 1483 1483 1489 1489 1489 1489 1489 1496 1489 1489 1489 1489 1489 1489 1489 1489 1489 1489 1496 1496 1496 1496 1496 1496 1489 1489 1489 1489 1489 1489 1496 1496 1496 1489 1489 1489 1489 1489 1489 1489 1489 1496 1496 1496 1496 1496 1496 1496 1496 1496 1496 1496 1496 1496 1496 1496 1496 1496 1496 1496 1496 1496 1496 1496 1496 1496 1496 1496 1496 1496 1496 1496 1496 1496 1496 1496 1496 1496 1496 1503 1503 1503 1503 1503 1503 1496 1496 1496 1496 1496 1496 1496 1496 1496 1496 1496 1496 1496 1496 1496 1496 1496 1496 1496 1496 1496 1496 1496 1496 1496 1496 1496 1496 1503 1503 1503 1509 1509 1509 1509 1509 1509 1509 1509 1509 1516 1509 1509 1509 1516 1516 1523 1509 1509 1516 1516 1523 1523 1536 1536 0 0 0 0 0 0
0 0 0 0 0 0 0 0 0 0 0 0 0 0 0 0 0 0 0 0 0 0 0 0 0 0 0 0 0 0 0 0 0 0 0 0 1392 1392 1392 1392 1392 1398 1398 1398 1398 1398 1398 1398 1404 1404 1404 1404 1404 1404 1410 1410 1410 1410 1410 1410 1410 1410 1410 1410 1410 1410 1410 1410 1410 1415 1415 1415 1410 1410 1410 1410 1410 1410 1410 1410 1410 1410 1410 1410 1410 1410 1410 1410 1415 1415 1415 1415 1415 1415 1410 1410 1410 1410 1415 1415 1415 1415 1415 1421 1421 1421 1415 1415 1415 1410 1410 1410 1410 1415 1415 1415 1415 1415 1415 1415 1415 1415 1415 1415 1415 1421 1421 1421 1421 1421 1421 1421 1421 1421 1427 1427 1427 1427 1427 1433 1433 1433 1433 1433 1433 1427 1427 1427 1427 1421 1421 1421 1421 1421 1421 1421 1427 1421 1421 1421 1421 1421 1421 1421 1421 1421 1421 1421 1421 1421 1427 1427 1427 1427 1427 1427 1427 1427 1427 1427 1427 1427 1427 1427 1427 1427 1427 1433 1427 1427 1427 1427 1427 1427 1427 1427 1427 1427 1427 1427 1433 1427 1427 1433 1433 1433 1433 1439 1439 1439 1439 1439 1439 1439 1439 1439 1445 1445 1445 1445 1445 1445 1445 1445 1445 1445 1445 1445 1445 1452 1445 1445 1445 1445 1445 1445 1445 1445 1445 1445 1445 1445 1452 1452 1439 1439 1445 1439 1439 1439 1445 1445 1445 1445 1445 1445 1445 1445 1445 1445 1445 1445 1452 1452 1452 1452 1452 1452 1445 1445 1445 1445 1445 1445 1445 1445 1452 1452 1458 1452 1452 1452 1458 1458 1458 1458 1458 1458 1458 1458 1458 1458 1458 1458 1458 1464 1464 1464 1464 1464 1464 1464 1464 1464 1464 1464 1464 1464 1464 1464 1464 1464 1464 1464 1464 1470 1464 1464 1464 1464 1464 1464 1464 1464 1464 1464 1464 1470 1464 1464 1458 1458 1464 1458 1458 1464 1464 1464 1464 1464 1464 1470 1470 1470 1470 1470 1464 1464 1464 1464 1464 1464 1464 1464 1464 1464 1464 1464 1464 1464 1470 1470 1470 1470 1470 1470 1470 1470 1470 1470 1470 1470 1470 1470 1470 1470 1470 1470 1477 1477 1477 1477 1477 1477 1477 1477 1477 1477 1477 1477 1477 1470 1470 1477 1477 1477 1477 1477 1477 1477 1477 1470 1470 1477 1477 1470 1470 1477 1477 1477 1483 1483 1483 1483 1483 1483 1477 1477 1477 1477 1477 1477 1470 1470 1470 1470 1470 1470 1477 1477 1477 1477 1477 1477 1477 1483 1483 1477 1477 1477 1477 1483 1483 1477 1477 1477 1483 1477 1477 1483 1483 1483 1477 1477 1483 1483 1483 1483 1483 1483 1483 1483 1483 1483 1483 1483 1483 1483 1483 1483 1483 1483 1483 1483 1483 1483 1483 1483 1477 1477 1477 1483 1483 1483 1483 1483 1483 1483 1483 1483 1483 1483 1483 1483 1483 1483 1483 1489 1489 1489 1489 1489 1483 1483 1483 1483 1483 1483 1489 1489 1489 1489 1489 1489 1489 1489 1489 1489 1489 1489 1489 1489 1489 1489 1496 1496 1489 1489 1489 1489 1483 1483 1489 1489 1489 1489 1489 1489 1489 1489 1489 1496 1496 1496 1496 1496 1496 1489 1489 1489 1496 1496 1496 1496 1496 1496 1496 1496 1496 1496 1496 1496 1489 1489 1496 1496 1496 1496 1496 1496 1496 1496 1496 1496 1496 1496 1496 1496 1496 1496 1496 1496 1496 1496 1496 1496 1496 1496 1489 1489 1489 1489 1496 1489 1489 1489 1489 1489 1489 1489 1489 1496 1496 1496 1496 1496 1496 1496 1496 1496 1503 1503 1503 1503 1503 1509 1503 1503 1503 1509 1503 1503 1503 1509 1516 1516 1509 1509 1509 1516 1529 1529 1536 1536 0 0 0 0 0 0
0 0 0 0 0 0 0 0 0 0 0 0 0 0 0 0 0 0 0 0 0 0 0 0 0 0 0 0 0 0 0 0 0 0 0 0 1387 1387 1387 1392 1392 1392 1392 1392 1392 1392 1392 1398 1398 1398 1398 1398 1398 1404 1404 1404 1404 1404 1404 1404 1404 1404 1404 1404 1404 1410 1410 1410 1410 1410 1410 1410 1404 1404 1404 1404 1404 1404 1404 1404 1404 1410 1410 1410 1410 1410 1410 1410 1410 1410 1410 1410 1410 1410 1410 1410 1410 1410 1410 1410 1415 1415 1415 1415 1415 1415 1410 1410 1410 1410 1410 1410 1410 1410 1410 1410 1410 1410 1410 1410 1410 1410 1410 1410 1410 1415 1415 1415 1415 1415 1415 1415 1415 1415 1421 1421 1421 1421 1421 1421 1421 1421 1421 1421 1427 1421 1421 1421 1421 1421 1421 1415 1415 1410 1410 1415 1415 1415 1415 1415 1415 1415 1415 1415 1415 1415 1415 1421 1421 1421 1421 1421 1421 1427 1427 1427 1421 1421 1421 1421 1421 1421 1421 1421 1421 1427 1427 1427 1427 1427 1427 1427 1427 1427 1427 1427 1427 1427 1427 1427 1427 1427 1427 1427 1427 1427 1433 1433 1433 1433 1433 1439 1439 1439 1439 1439 1439 1445 1445 1445 1439 1439 1445 1445 1445 1445 1445 1445 1445 1445 1445 1445 1445 1445 1439 1439 1433 1433 1439 1439 1445 1445 1445 1445 1439 1439 1439 1439 1439 1439 1439 1439 1439 1439 1445 1445 1445 1445 1445 1445 1445 1445 1445 1445 1445 1445 1445 1445 1445 1445 1445 1445 1445 1445 1445 1445 1445 1452 1452 1452 1452 1452 1452 1452 1452 1458 1458 1458 1458 1452 1452 1458 1458 1452 1452 1458 1458 1458 1458 1458 1458 1458 1458 1458 1458 1458 1458 1464 1464 1464 1464 1464 1464 1464 1464 1464 1464 1464 1464 1464 1464 1464 1464 1464 1464 1464 1464 1464 1464 1464 1458 1458 1458 1458 1458 1458 1458 1458 1458 1464 1464 1464 1464 1464 1464 1464 1464 1464 1464 1464 1464 1464 1464 1464 1464 1464 1464 1464 1464 1464 1470 1470 1470 1464 1464 1470 1470 1464 1464 1470 1464 1464 1464 1464 1470 1470 1470 1470 1470 1470 1470 1477 1477 1477 1477 1470 1470 1470 1470 1464 1464 1470 1470 1470 1470 1470 1470 1470 1470 1470 1470 1470 1470 1470 1470 1470 1470 1477 1477 1477 1477 1477 1477 1477 1477 1483 1477 1477 1477 1477 1477 1477 1470 1470 1470 1470 1470 1470 1470 1470 1470 1477 1477 1477 1477 1477 1477 1477 1477 1477 1477 1477 1477 1477 1477 1477 1477 1477 1477 1477 1477 1477 1477 1477 1483 1477 1477 1483 1483 1483 1483 1483 1483 1483 1483 1483 1483 1483 1483 1483 1483 1483 1483 1477 1477 1477 1477 1477 1477 1477 1477 1477 1477 1477 1477 1483 1483 1483 1483 1483 1483 1483 1483 1483 1483 1483 1483 1483 1483 1483 1483 1483 1477 1477 1477 1477 1477 1477 1483 1483 1483 1483 1489 1483 1483 1483 1483 1483 1483 1483 1483 1483 1489 1489 1489 1489 1489 1483 1483 1483 1483 1483 1483 1483 1483 1489 1489 1489 1489 1489 1489 1489 1489 1489 1489 1489 1489 1483 1483 1489 1489 1489 1496 1496 1496 1496 1496 1496 1496 1489 1489 1489 1489 1489 1489 1489 1496 1496 1489 1489 1489 1489 1489 1489 1489 1496 1496 1496 1496 1496 1496 1496 1496 1496 1496 1496 1496 1496 1489 1489 1489 1489 1489 1489 1489 1489 1489 1489 1489 1489 1489 1489 1489 1489 1489 1489 1489 1496 1496 1496 1496 1496 1496 1496 1496 1503 1496 1496 1503 1503 1503 1503 1496 1496 1509 1516 1503 1503 1509 1509 1529 1523 1523 1529 0 0 0 0 0 0
0 0 0 0 0 0 0 0 0 0 0 0 0 0 0 0 0 0 0 0 0 0 0 0 0 0 0 0 0 0 0 0 0 0 0 0 1381 1381 1381 1381 1381 1381 1381 1381 1387 1387 1392 1392 1392 1392 1392 1398 1398 1404 1404 1404 1404 1404 1398 1398 1398 1398 1398 1404 1404 1404 1404 1410 1410 1410 1410 1410 1404 1404 1404 1404 1404 1404 1404 1404 1404 1404 1404 1404 1404 1404 1404 1404 1410 1410 1410 1410 1410 1410 1410 1410 1410 1410 1410 1410 1410 1410 1410 1410 1410 1410 1410 1410 1410 1410 1410 1410 1410 1410 1410 1410 1410 1410 1410 1410 1410 1410 1410 1410 1410 1415 1415 1415 1410 1410 1410 1410 1415 1415 1415 1415 1415 1415 1415 1415 1415 1415 1415 1415 1415 1415 1415 1415 1415 1415 1415 1415 1415 1410 1410 1415 1415 1415 1415 1415 1415 1415 1415 1410 1410 1415 1415 1415 1415 1415 1421 1421 1421 1421 1421 1421 1421 1421 1421 1421 1421 1421 1421 1421 1421 1421 1421 1421 1421 1421 1421 1421 1421 1421 1421 1421 1421 1421 1421 1421 1421 1421 1421 1421 1421 1421 1427 1427 1427 1427 1427 1433 1433 1433 1427 1427 1433 1433 1433 1433 1433 1433 1433 1433 1439 1439 1439 1439 1445 1445 1445 1445 1445 1439 1433 1433 1433 1433 1433 1439 1439 1439 1439 1439 1439 1439 1439 1439 1439 1439 1439 1439 1439 1439 1439 1439 1439 1439 1439 1439 1439 1445 1445 1445 1445 1445 1445 1445 1445 1445 1445 1445 1439 1439 1445 1445 1445 1445 1445 1452 1452 1452 1452 1452 1452 1452 1452 1452 1452 1452 1452 1452 1452 1445 1445 1458 1458 1452 1452 1452 1452 1452 1452 1452 1458 1458 1458 1458 1458 1464 1464 1464 1464 1464 1464 1464 1464 1464 1464 1458 1458 1458 1464 1464 1464 1464 1464 1464 1458 1458 1452 1452 1458 1452 1452 1458 1458 1458 1458 1458 1458 1458 1464 1464 1464 1464 1464 1464 1464 1464 1464 1464 1458 1458 1464 1458 1458 1458 1458 1464 1464 1464 1464 1464 1464 1464 1464 1464 1464 1464 1464 1464 1464 1464 1464 1464 1464 1464 1464 1464 1464 1470 1470 1470 1470 1470 1470 1470 1464 1464 1464 1464 1464 1470 1470 1470 1470 1470 1470 1470 1470 1470 1464 1464 1470 1470 1470 1470 1470 1477 1470 1470 1470 1470 1470 1477 1470 1470 1470 1470 1470 1470 1470 1464 1464 1464 1464 1464 1464 1464 1464 1470 1470 1470 1477 1477 1477 1477 1477 1477 1477 1477 1477 1477 1470 1470 1477 1477 1477 1477 1477 1477 1477 1477 1477 1477 1477 1477 1477 1477 1477 1477 1483 1483 1483 1483 1483 1483 1483 1483 1477 1477 1483 1477 1477 1477 1477 1470 1470 1470 1477 1470 1470 1477 1477 1477 1477 1483 1483 1483 1483 1483 1483 1483 1483 1477 1477 1483 1483 1483 1483 1483 1477 1477 1477 1477 1477 1477 1477 1477 1477 1477 1483 1483 1483 1483 1477 1477 1483 1483 1483 1483 1483 1483 1483 1483 1483 1483 1483 1483 1483 1483 1483 1483 1483 1483 1483 1483 1483 1483 1483 1483 1483 1483 1483 1483 1483 1483 1483 1483 1483 1489 1489 1489 1489 1489 1489 1489 1489 1483 1483 1483 1483 1483 1489 1489 1483 1483 1483 1483 1489 1483 1483 1489 1489 1489 1489 1489 1489 1496 1489 1489 1489 1489 1489 1489 1489 1489 1483 1483 1483 1483 1483 1483 1483 1483 1483 1483 1483 1483 1483 1489 1489 1489 1489 1489 1489 1489 1489 1489 1489 1489 1489 1489 1496 1496 1496 1496 1503 1503 1496 1496 1496 1496 1496 1496 1496 1496 1509 1509 1523 1523 1523 1523 1523 0 0 0 0 0
0 0 0 0 0 0 0 0 0 0 0 0 0 0 0 0 0 0 0 0 0 0 0 0 0 0 0 0 0 0 0 0 0 0 0 0 1376 1376 1376 1376 1376 1381 1381 1381 1381 1387 1387 1392 1392 1392 1392 1398 1398 1398 1404 1398 1398 1398 1398 1398 1398 1398 1398 1398 1404 1404 1404 1410 1410 1410 1410 1410 1404 1404 1404 1404 1404 1404 1404 1404 1404 1404 1404 1404 1404 1404 1404 1404 1404 1404 1404 1404 1404 1404 1404 1404 1404 1404 1404 1410 1404 1404 1404 1404 1404 1410 1404 1404 1404 1404 1404 1404 1410 1410 1410 1410 1410 1404 1404 1404 1404 1404 1404 1404 1404 1410 1410 1410 1410 1410 1410 1410 1410 1410 1410 1415 1415 1415 1415 1415 1415 1415 1415 1410 1410 1410 1415 1415 1415 1415 1415 1415 1415 1410 1410 1415 1415 1410 1410 1404 1404 1410 1404 1404 1404 1410 1415 1415 1415 1415 1415 1415 1415 1415 1421 1415 1415 1415 1415 1415 1415 1415 1415 1415 1415 1421 1421 1415 1415 1421 1421 1421 1421 1421 1421 1421 1421 1421 1421 1421 1421 1421 1421 1421 1421 1421 1421 1421 1421 1421 1427 1427 1427 1427 1427 1427 1433 1433 1433 1427 1427 1427 1427 1427 1427 1427 1427 1427 1439 1439 1439 1439 1439 1433 1433 1433 1433 1427 1427 1433 1433 1439 1439 1439 1433 1433 1433 1433 1433 1433 1433 1433 1433 1433 1433 1433 1439 1439 1439 1439 1439 1439 1439 1439 1439 1439 1439 1445 1439 1439 1439 1439 1439 1439 1439 1439 1439 1445 1445 1445 1445 1445 1445 1445 1445 1445 1445 1445 1445 1445 1445 1445 1445 1445 1445 1445 1445 1445 1445 1445 1445 1445 1452 1452 1452 1452 1452 1452 1452 1458 1458 1458 1458 1458 1458 1458 1458 1458 1458 1458 1458 1458 1458 1458 1458 1458 1458 1458 1458 1458 1452 1452 1452 1452 1452 1452 1452 1452 1458 1458 1458 1458 1458 1458 1458 1458 1458 1464 1458 1458 1458 1458 1458 1458 1458 1458 1458 1458 1458 1458 1464 1464 1464 1464 1464 1464 1458 1458 1458 1458 1458 1464 1464 1464 1464 1464 1464 1464 1464 1464 1464 1464 1464 1464 1464 1464 1464 1464 1464 1464 1464 1464 1464 1464 1464 1464 1464 1470 1464 1464 1464 1470 1464 1464 1464 1470 1470 1470 1470 1470 1470 1470 1464 1464 1464 1470 1464 1464 1464 1464 1464 1464 1464 1464 1464 1464 1464 1464 1464 1464 1464 1464 1464 1470 1470 1470 1470 1477 1477 1470 1470 1470 1470 1470 1470 1470 1470 1470 1470 1470 1477 1477 1477 1477 1477 1477 1477 1470 1470 1477 1477 1477 1477 1477 1477 1477 1477 1477 1477 1477 1477 1477 1477 1477 1477 1477 1470 1470 1464 1464 1470 1470 1470 1470 1477 1477 1477 1483 1483 1483 1477 1477 1477 1477 1477 1477 1477 1477 1477 1477 1477 1477 1470 1470 1470 1470 1470 1470 1470 1477 1477 1477 1477 1477 1477 1477 1477 1477 1477 1477 1477 1477 1477 1477 1477 1477 1483 1477 1477 1477 1477 1477 1477 1477 1477 1483 1483 1483 1483 1483 1483 1483 1477 1477 1477 1477 1477 1477 1477 1477 1483 1483 1483 1483 1483 1483 1483 1477 1477 1483 1483 1477 1477 1477 1483 1483 1483 1483 1483 1483 1489 1483 1483 1483 1483 1489 1489 1489 1489 1489 1489 1489 1489 1483 1483 1483 1483 1489 1477 1477 1483 1483 1483 1477 1477 1477 1477 1477 1477 1477 1477 1483 1489 1489 1483 1483 1489 1483 1483 1483 1489 1483 1483 1483 1496 1496 1496 1496 1496 1496 1496 1496 1496 1496 1496 1496 1496 1496 1503 1503 1523 1516 1516 1516 1516 0 0 0 0 0
0 0 0 0 0 0 0 0 0 0 0 0 0 0 0 0 0 0 0 0 0 0 0 0 0 0 0 0 0 0 0 0 0 0 0 0 1376 1376 1376 1376 1376 1376 1376 1376 1381 1387 1387 1387 1392 1392 1392 1392 1392 1398 1398 1392 1392 1398 1392 1392 1392 1392 1392 1392 1398 1398 1398 1404 1404 1404 1404 1410 1404 1404 1404 1404 1404 1404 1404 1404 1398 1398 1404 1404 1404 1404 1404 1404 1398 1398 1398 1398 1404 1404 1404 1404 1404 1404 1404 1404 1404 1404 1404 1404 1404 1404 1404 1404 1404 1404 1404 1404 1404 1404 1404 1410 1404 1404 1404 1404 1404 1404 1404 1404 1404 1404 1404 1410 1404 1404 1410 1410 1410 1410 1410 1410 1410 1410 1410 1410 1410 1410 1410 1404 1404 1410 1410 1410 1410 1410 1410 1410 1410 1410 1410 1410 1410 1410 1410 1404 1404 1404 1404 1404 1404 1410 1410 1410 1410 1410 1415 1415 1410 1410 1415 1410 1410 1410 1410 1410 1410 1410 1415 1415 1415 1415 1415 1415 1415 1415 1415 1415 1421 1421 1421 1421 1421 1421 1421 1421 1421 1421 1421 1421 1421 1421 1421 1421 1421 1421 1421 1421 1421 1421 1421 1421 1427 1427 1427 1427 1427 1427 1427 1427 1427 1427 1427 1427 1433 1433 1433 1433 1433 1433 1427 1427 1427 1427 1427 1427 1433 1433 1433 1433 1433 1427 1427 1433 1427 1427 1427 1427 1427 1427 1433 1433 1433 1433 1439 1439 1439 1439 1439 1439 1439 1439 1439 1439 1439 1439 1439 1439 1433 1433 1439 1439 1439 1439 1439 1439 1439 1439 1439 1439 1439 1445 1445 1445 1439 1439 1439 1445 1445 1445 1445 1445 1445 1445 1445 1445 1445 1445 1445 1445 1445 1445 1445 1445 1445 1452 1452 1458 1458 1458 1458 1458 1458 1452 1452 1452 1452 1452 1452 1452 1458 1452 1452 1458 1452 1452 1445 1445 1445 1445 1445 1445 1445 1445 1445 1445 1445 1445 1445 1445 1452 1452 1458 1458 1458 1458 1458 1458 1458 1458 1458 1458 1458 1458 1458 1458 1458 1458 1458 1458 1458 1458 1458 1452 1452 1458 1458 1458 1458 1458 1464 1458 1458 1458 1458 1458 1458 1464 1458 1458 1464 1464 1464 1464 1458 1458 1464 1464 1464 1464 1464 1464 1464 1464 1464 1464 1464 1464 1464 1464 1464 1464 1464 1464 1470 1464 1464 1464 1464 1464 1464 1464 1458 1458 1464 1464 1464 1464 1458 1458 1458 1458 1458 1458 1458 1458 1458 1464 1458 1458 1464 1464 1464 1470 1477 1470 1470 1464 1464 1470 1464 1464 1464 1464 1464 1464 1470 1470 1470 1477 1477 1477 1470 1470 1470 1477 1477 1477 1477 1477 1477 1477 1477 1477 1477 1477 1477 1477 1477 1470 1470 1470 1470 1464 1464 1464 1470 1470 1470 1470 1477 1477 1477 1477 1483 1477 1477 1477 1477 1477 1477 1470 1470 1470 1477 1477 1477 1477 1470 1470 1470 1470 1470 1470 1470 1470 1477 1477 1477 1477 1477 1477 1477 1470 1470 1470 1470 1470 1470 1470 1470 1470 1470 1470 1470 1477 1477 1477 1477 1477 1477 1477 1477 1477 1477 1477 1477 1477 1477 1477 1477 1477 1477 1477 1477 1477 1477 1483 1477 1477 1477 1477 1477 1477 1477 1477 1477 1477 1477 1477 1477 1477 1477 1477 1477 1483 1483 1483 1483 1483 1483 1483 1483 1489 1489 1483 1483 1483 1483 1483 1483 1483 1483 1483 1477 1477 1477 1477 1477 1477 1470 1470 1470 1470 1470 1470 1470 1483 1483 1483 1483 1483 1489 1483 1483 1483 1483 1483 1483 1483 1483 1489 1489 1489 1489 1489 1496 1496 1496 1496 1496 1496 1496 1496 1496 1496 1503 1516 1516 1516 1516 0 0 0 0 0
