0 0 0 0 0 0 0 0 0 0 0 0 0 0 0 0 0 0 0 0 0 0 0 0 0 0 0 0 0 0 0 0 0 0 2170 2170 2170 2170 2170 2170 2170 2170 2170 2170 2184 2184 2198 2198 2198 2212 2212 2212 2212 2212 2212 2198 2198 2198 2198 2198 2198 2198 2198 2198 2198 2198 2198 2212 2212 2212 2198 2198 2198 2198 2198 2198 2198 2198 2198 2198 2212 2212 2212 2212 2212 2212 2212 2212 2212 2212 2212 2212 2212 2212 2212 2212 2212 2212 2212 2212 2212 2212 2212 2212 2212 2212 2212 2226 2226 2226 2226 2241 2226 2226 2226 2241 2241 2241 2256 2256 2256 2256 2256 2256 2256 2256 2256 2256 2256 1785 1785 1785 1785 1785 1785 1785 1785 1794 1794 1794 1794 1804 1804 1823 1843 1904 1915 1926 1926 2271 2271 2271 2271 2271 2271 2256 2256 2256 2256 2271 2271 2271 2271 2286 2301 2301 1981 1981 1981 1993 1993 2005 2016 2016 2028 2028 2028 2028 2028 2028 2040 2301 2301 2301 2301 2301 2301 2301 2286 2271 2256 2241 2212 2212 2198 2198 2212 2198 2198 2198 2198 2198 2198 2198 1680 1671 1671 1680 1680 1680 1680 1680 1680 1680 1688 1688 1696 1696 1696 1705 1705 1705 2349 2349 2333 2333 2333 2333 2333 2333 2333 2333 2333 2333 2333 2333 2333 2333 2333 2333 2333 2333 2333 1536 1536 1536 1536 1529 1529 1529 1523 1523 1523 1523 1523 1523 1529 1529 1529 1529 1529 1529 1529 1529 1523 1523 1523 1523 1523 1523 1523 1516 1516 1516 1516 1509 1509 1496 1496 1496 1496 1489 1489 1489 1489 1489 1489 1489 1483 1483 1483 1483 1483 1483 1483 1483 1483 1477 1477 1477 1477 1477 1477 1470 1470 1470 1477 1477 1470 1470 1477 1477 1477 1477 1477 1483 1477 1477 1477 1477 1477 1477 1477 1477 1477 1477 1477 1477 1477 1477 1477 1477 1477 1477 1477 1483 1483 1483 1483 1483 1483 1376 1376 1381 1387 1387 1387 1381 1381 1387 1387 1387 1387 1392 1392 1404 1410 1464 1464 1470 1483 1483 1483 1489 1489 1489 1489 1496 1496 1503 1509 1509 1509 1516 1516 1536 1543 1557 1572 1579 1586 1594 1601 1609 1616 1632 1632 1632 2415 2415 1766 1766 1766 1766 1766 1766 1766 1766 1766 1776 1776 1776 1776 1776 1776 1785 1794 2467 2467 2467 2467 2467 2450 2450 2450 2450 2450 2450 2450 2450 2450 2450 2450 2450 2450 2450 2450 2450 2450 2450 2450 2467 2467 2467 1823 1823 1823 1823 1823 1823 1823 1823 1398 1398 1398 1398 1398 1398 1398 1398 1392 1392 1392 1392 1392 1387 1387 1387 1387 1387 1387 1387 1387 1387 1387 1387 1387 1387 1387 1381 1381 1381 1381 1381 1381 1981 1981 1981 2028 2065 2065 2078 2078 2078 2078 2078 2078 2467 2467 2467 2467 2467 2467 2467 2467 2467 2467 2467 2450 2450 2450 2450 2450 2450 2450 2450 2450 2450 2450 2450 2450 2450 2450 2450 2450 2450 2450 2450 2450 2450 2450 2450 2450 2450 2450 2450 2450 2450 2450 2467 2467 2467 2467 2467 2467 2467 2467 2467 2467 2467 2467 2450 2450 2467 2467 2467 2467 2467 2467 2467 2485 2485 2503 2503 2503 2503 2503 2503 2485 2485 2485 2485 2485 2485 2485 2485 2485 2485 2485 2485 2485 2503 2485 2485 2503 2503 2503 2503 2503 2503 2503 2503 2503 2503 2485 2485 2485 2485 2485 2485 2485 2485 2485 2485 2485 2467 2467 2467 2467 2467 2467 2467 2467 2467 2467 2467 2467 2485 2485 2485 2467 2467 2467 2467 2467 2467 2467 2467 2467 2467 2485 2485 2485 2485 2485 2485 2485 2467 2467 2485 0 0 0 0 0 0 0 0 0 0
0 0 0 0 0 0 0 0 0 0 0 0 0 0 0 0 0 0 0 0 0 0 0 0 0 0 0 0 0 0 0 0 0 0 2170 2170 2170 2170 2170 2170 2170 2170 2170 2170 2170 2170 2184 2184 2198 2198 2198 2212 2212 2198 2198 2198 2198 2198 2184 2184 2184 2184 2184 2198 2198 2198 2198 2198 2212 2212 2184 2184 2184 2184 2184 2184 2184 2198 2198 2198 2198 2198 2198 2198 2184 2184 2198 2198 2198 2198 2198 2212 2212 2212 2212 2212 2212 2212 2212 2212 2212 2212 2212 2212 2212 2212 2212 2226 2226 2226 2226 2226 2226 2226 2226 2226 2226 2226 2226 2226 2241 2241 2241 2241 2256 2256 2256 2256 1785 1785 1785 1794 1794 1794 1794 1794 1794 1794 1794 1794 1804 1804 1804 1823 1853 1904 1915 1915 1926 2256 2256 2271 2271 2271 2271 2256 2256 2256 2256 2271 2271 2271 2271 2301 1970 1970 1981 1981 1981 1993 1993 2005 2005 2016 2016 2016 2016 2016 2016 2028 2286 2286 2286 2286 2286 2301 2301 2301 2286 2271 2256 2241 2226 2226 2212 2212 2212 2212 2212 2198 2198 2198 2198 1680 1680 1671 1671 1680 1680 1680 1680 1680 1680 1680 1688 1688 1688 1696 1696 1705 1705 1705 2349 2333 2317 2317 2317 2317 2317 2317 2317 2317 2317 2317 2317 2317 2317 2317 2317 2317 2333 2333 2333 1536 1536 1536 1536 1536 1529 1529 1529 1523 1523 1529 1529 1529 1529 1529 1536 1536 1536 1536 1536 1529 1529 1523 1523 1523 1523 1523 1523 1523 1516 1516 1516 1516 1509 1503 1503 1496 1496 1496 1496 1489 1489 1489 1489 1489 1483 1483 1483 1483 1483 1483 1483 1483 1477 1477 1477 1477 1477 1477 1477 1470 1470 1470 1470 1470 1470 1470 1470 1470 1470 1470 1470 1470 1470 1470 1470 1470 1470 1470 1470 1470 1470 1470 1470 1477 1477 1477 1470 1470 1477 1470 1470 1477 1477 1477 1477 1470 1387 1381 1381 1387 1387 1387 1387 1387 1387 1387 1387 1387 1392 1392 1398 1404 1415 1458 1464 1470 1477 1477 1483 1483 1483 1483 1489 1489 1489 1496 1509 1509 1509 1516 1516 1550 1557 1564 1572 1579 1586 1594 1601 1609 1616 1632 2415 2415 2415 2415 2415 1766 1766 1766 1766 1766 1766 1776 1776 1776 1776 1776 1776 1776 1776 1785 2450 2450 2432 2432 2432 2450 2432 2432 2432 2432 2432 2450 2450 2450 2432 2432 2432 2432 2432 2432 2432 2432 2432 2432 2432 2450 2450 2450 1823 1823 1823 1823 1823 1823 1823 1823 1398 1398 1398 1398 1398 1398 1398 1398 1398 1398 1392 1392 1392 1392 1387 1387 1387 1387 1387 1387 1387 1387 1387 1387 1387 1387 1387 1387 1387 1381 1381 1387 1387 1387 2078 2078 2078 2078 2078 2078 2078 2078 2078 2078 2078 2450 2450 2450 2450 2450 2450 2467 2467 2467 2467 2467 2450 2450 2450 2450 2450 2450 2450 2450 2432 2432 2432 2432 2432 2432 2432 2432 2432 2432 2450 2450 2432 2432 2450 2450 2450 2450 2450 2450 2450 2450 2450 2450 2450 2450 2450 2450 2450 2450 2450 2450 2450 2450 2450 2450 2450 2450 2467 2467 2467 2467 2467 2467 2485 2485 2485 2485 2485 2485 2485 2485 2467 2467 2467 2467 2467 2467 2467 2467 2467 2467 2467 2467 2467 2485 2485 2485 2485 2485 2485 2485 2503 2503 2503 2503 2485 2485 2467 2467 2467 2467 2467 2467 2467 2485 2485 2467 2467 2467 2467 2467 2450 2450 2450 2450 2450 2450 2450 2450 2450 2467 2467 2467 2467 2467 2467 2467 2450 2450 2450 2450 2467 2467 2467 2467 2467 2467 2467 2467 2467 2467 2467 2467 0 0 0 0 0 0 0 0 0 0
0 0 0 0 0 0 0 0 0 0 0 0 0 0 0 0 0 0 0 0 0 0 0 0 0 0 0 0 0 0 0 0 0 0 2170 2170 2156 2156 2170 2170 2170 2156 2156 2156 2170 2170 2170 2170 2184 2184 2184 2198 2198 2184 2184 2184 2184 2184 2184 2184 2184 2184 2184 2184 2184 2184 2184 2198 2198 2198 2184 2170 2170 2170 2170 2170 2170 2184 2198 2198 2198 2198 2198 2198 2184 2184 2184 2184 2198 2198 2198 2198 2198 2198 2198 2212 2212 2212 2212 2212 2212 2212 2212 2212 2212 2212 2212 2212 2212 2212 2212 2212 2212 2212 2212 2212 2212 2212 2226 2226 2226 2226 2226 2241 2241 2241 2241 2241 1785 1785 1785 1794 1794 1794 1794 1794 1794 1794 1794 1794 1794 1804 1804 1823 1853 1904 1915 1915 1926 2241 2256 2271 2271 2271 2271 2256 2256 2256 2271 2271 2271 2271 1959 1959 1970 1970 1981 1981 1981 1993 1993 2005 2005 2016 2016 2016 2016 2016 2016 2271 2271 2271 2271 2271 2286 2286 2286 2286 2286 2256 2256 2241 2226 2226 2212 2212 2212 2212 2212 2212 2212 2212 2212 1680 1680 1680 1680 1680 1680 1680 1680 1680 1680 1680 1688 1688 1688 1696 1696 1705 1705 2349 2333 2317 2317 2301 2301 2301 2301 2301 2301 2301 2317 2317 2317 2317 2317 2317 2317 2317 2317 2317 2317 1543 1543 1543 1543 1543 1536 1536 1529 1529 1529 1529 1529 1529 1529 1529 1536 1536 1536 1536 1536 1536 1529 1529 1529 1523 1523 1523 1523 1523 1523 1516 1516 1516 1516 1503 1503 1503 1503 1496 1496 1496 1489 1489 1489 1489 1489 1489 1489 1483 1483 1483 1483 1483 1477 1477 1477 1477 1477 1477 1477 1470 1470 1470 1470 1470 1470 1470 1470 1470 1470 1470 1470 1470 1464 1464 1464 1464 1464 1464 1464 1464 1464 1470 1470 1470 1470 1470 1464 1464 1464 1464 1464 1470 1470 1464 1464 1464 1387 1387 1392 1387 1387 1387 1387 1387 1387 1387 1387 1387 1392 1392 1398 1404 1415 1458 1458 1464 1470 1470 1470 1477 1477 1483 1483 1483 1489 1496 1503 1509 1509 1516 1557 1557 1564 1572 1572 1579 1586 1594 1601 1609 1616 2415 2415 2415 2415 2415 2415 1766 1766 1766 1776 1776 1776 1776 1776 1776 1776 1776 1776 1785 1785 2450 2432 2432 2432 2432 2432 2432 2415 2415 2415 2415 2415 2415 2415 2415 2415 2398 2398 2398 2398 2398 2398 2398 2398 2398 2398 2398 2415 2415 1823 1823 1823 1823 1823 1823 1823 1398 1398 1398 1398 1398 1398 1398 1398 1398 1398 1398 1392 1392 1392 1392 1392 1392 1387 1387 1387 1387 1387 1387 1387 1387 1387 1387 1387 1387 1387 1381 1381 1387 1387 2078 2078 2078 2078 2078 2078 2078 2078 2078 2078 2078 2432 2432 2432 2450 2450 2450 2450 2450 2450 2450 2450 2450 2432 2432 2432 2432 2432 2432 2432 2432 2432 2432 2432 2432 2432 2432 2432 2432 2432 2432 2432 2432 2432 2432 2432 2432 2450 2450 2450 2450 2450 2432 2432 2450 2450 2450 2450 2450 2450 2450 2450 2450 2450 2450 2450 2450 2450 2450 2450 2450 2450 2450 2450 2450 2467 2467 2467 2467 2467 2467 2467 2467 2450 2450 2467 2467 2467 2450 2450 2450 2467 2467 2450 2450 2450 2467 2467 2467 2467 2467 2485 2485 2485 2485 2485 2485 2485 2467 2450 2450 2450 2450 2450 2467 2467 2467 2467 2467 2467 2450 2450 2450 2450 2450 2450 2450 2450 2450 2450 2432 2432 2450 2450 2450 2450 2450 2450 2467 2450 2450 2450 2450 2450 2450 2467 2450 2450 2450 2450 2450 2450 2450 2450 2450 0 0 0 0 0 0 0 0 0 0
0 0 0 0 0 0 0 0 0 0 0 0 0 0 0 0 0 0 0 0 0 0 0 0 0 0 0 0 0 0 0 0 0 0 2156 2156 2156 2156 2156 2156 2156 2156 2156 2156 2156 2170 2170 2170 2170 2170 2170 2184 2184 2170 2170 2170 2170 2170 2170 2170 2170 2170 2170 2184 2184 2184 2184 2184 2198 2198 2170 2170 2170 2170 2170 2170 2170 2184 2184 2198 2198 2198 2198 2198 2184 2184 2170 2170 2184 2198 2198 2198 2198 2198 2198 2198 2198 2212 2212 2212 2212 2212 2212 2212 2212 2198 2198 2212 2212 2212 2212 2212 2212 2212 2212 2212 2212 2212 2212 2212 2212 2226 2226 2226 2226 2226 2226 2226 2226 1794 1794 1794 1794 1794 1794 1794 1794 1794 1794 1794 1794 1804 1804 1823 1843 1904 1926 1926 1926 2241 2241 2256 2256 2256 2256 2256 2256 2256 2256 2271 2271 1947 1947 1959 1970 1970 1981 1981 1981 1993 1993 1993 2005 2005 2005 2005 2016 2016 2256 2256 2256 2256 2256 2271 2271 2271 2271 2271 2271 2256 2256 2241 2241 2226 2226 2212 2212 2212 2212 2212 2212 2212 1680 1680 1680 1680 1680 1680 1680 1680 1680 1680 1680 1680 1688 1688 1696 1696 1696 1705 1705 2349 2317 2317 2301 2301 2301 2301 2301 2301 2301 2301 2301 2301 2301 2301 2301 2317 2317 2317 2317 2301 2301 2301 1543 1543 1543 1543 1536 1536 1529 1529 1529 1529 1529 1529 1529 1536 1536 1543 1543 1543 1536 1536 1529 1529 1529 1529 1523 1523 1523 1523 1523 1523 1523 1516 1516 1509 1509 1503 1503 1503 1496 1496 1496 1496 1496 1489 1489 1489 1489 1489 1489 1489 1483 1483 1483 1483 1483 1477 1477 1477 1477 1470 1470 1470 1470 1470 1464 1464 1464 1464 1464 1464 1464 1464 1464 1464 1464 1464 1464 1464 1464 1464 1464 1464 1464 1464 1464 1464 1464 1464 1464 1464 1464 1464 1464 1458 1458 1458 1427 1392 1392 1392 1392 1387 1387 1387 1387 1387 1387 1392 1392 1392 1398 1410 1421 1458 1458 1464 1470 1470 1470 1477 1477 1477 1483 1483 1489 1489 1503 1509 1516 1557 1564 1564 1572 1572 1579 1579 1586 1594 1601 1609 1624 1624 1624 2415 2415 2415 2415 2415 1776 1776 1776 1776 1776 1776 1776 1776 1785 1785 1785 1794 1794 1804 2432 2432 2432 2432 2432 2432 2415 2415 2415 2398 2398 2398 2398 2398 2398 2398 2398 2398 2398 2398 2398 2398 2398 2398 2398 2398 2398 2398 1823 1823 1823 1823 1823 1823 1823 1398 1398 1398 1398 1398 1404 1404 1404 1404 1398 1398 1398 1392 1392 1392 1392 1392 1387 1387 1387 1387 1387 1387 1387 1387 1387 1387 1387 1387 1387 1387 1387 1387 1387 2078 2078 2078 2078 2078 2078 2078 2078 2078 2078 2078 2432 2432 2432 2450 2450 2450 2450 2450 2450 2450 2450 2450 2432 2432 2432 2432 2432 2415 2415 2415 2432 2415 2415 2415 2415 2415 2415 2415 2432 2432 2432 2432 2432 2432 2432 2432 2432 2432 2432 2432 2432 2432 2432 2432 2432 2432 2432 2432 2450 2450 2450 2432 2432 2432 2432 2432 2432 2432 2450 2450 2450 2450 2450 2450 2467 2467 2467 2467 2450 2450 2467 2450 2450 2450 2450 2450 2450 2450 2450 2450 2450 2450 2450 2450 2450 2450 2450 2450 2450 2450 2467 2467 2467 2467 2467 2467 2467 2467 2450 2450 2450 2450 2450 2450 2450 2450 2467 2467 2467 2450 2450 2450 2450 2450 2432 2432 2432 2432 2432 2432 2432 2432 2450 2450 2450 2450 2450 2450 2450 2450 2432 2432 2432 2432 2432 2432 2432 2432 2432 2432 2432 2450 2432 2432 0 0 0 0 0 0 0 0 0 0
0 0 0 0 0 0 0 0 0 0 0 0 0 0 0 0 0 0 0 0 0 0 0 0 0 0 0 0 0 0 0 0 0 0 2156 2156 2156 2156 2156 2156 2156 2143 2143 2143 2143 2156 2156 2156 2156 2156 2170 2170 2170 2170 2156 2156 2170 2170 2170 2170 2170 2170 2170 2170 2170 2170 2170 2170 2184 2184 2170 2170 2170 2170 2170 2170 2170 2184 2184 2184 2184 2184 2184 2184 2170 2170 2170 2170 2170 2184 2184 2184 2184 2184 2198 2198 2198 2198 2198 2198 2198 2198 2198 2198 2198 2198 2198 2198 2198 2212 2212 2212 2212 2212 2212 2212 2212 2212 2212 2212 2212 2212 2212 2212 2212 2212 2212 2212 2212 1794 1794 1794 1794 1794 1794 1794 1794 1794 1794 1794 1804 1804 1804 1823 1843 1904 1926 1926 1936 2241 2241 2256 2256 2256 2256 2256 2256 2256 1947 1947 1947 1947 1947 1959 1970 1970 1981 1981 1981 1981 1981 1993 2005 2005 2005 2005 2256 2241 2241 2256 2256 2256 2256 2256 2256 2256 2271 2256 2256 2241 2241 2241 2241 2226 2226 2226 2226 2226 2226 2212 2212 2212 1680 1680 1680 1680 1680 1680 1680 1680 1680 1680 1680 1680 1688 1688 1696 1696 1696 1696 1705 2333 2301 2301 2301 2301 2301 2301 2301 2301 2301 2301 2301 2301 2301 2301 2301 2301 2301 2301 2301 2286 2286 2286 1543 1543 1543 1543 1536 1536 1536 1529 1529 1529 1536 1536 1536 1536 1543 1543 1543 1543 1536 1536 1529 1529 1529 1529 1529 1523 1523 1523 1523 1523 1523 1523 1516 1516 1509 1509 1509 1509 1503 1503 1496 1496 1496 1496 1496 1489 1489 1489 1489 1489 1489 1489 1489 1483 1483 1477 1477 1477 1477 1470 1470 1470 1470 1470 1464 1464 1464 1464 1464 1464 1458 1458 1458 1458 1458 1458 1458 1458 1458 1458 1458 1458 1458 1458 1464 1464 1458 1458 1458 1458 1458 1458 1458 1452 1452 1452 1427 1392 1392 1392 1392 1392 1387 1387 1387 1387 1387 1392 1392 1392 1398 1410 1421 1458 1458 1464 1464 1464 1470 1470 1477 1477 1483 1483 1489 1489 1503 1509 1557 1557 1564 1572 1572 1579 1579 1586 1594 1594 1609 1609 1624 1624 1624 2398 2415 2415 2415 2415 1776 1776 1776 1776 1776 1776 1776 1776 1785 1785 1785 1794 1794 1804 2432 2432 2415 2415 2415 2415 2398 2398 2398 2398 2398 2398 2398 2398 2398 2398 2398 2398 2398 2398 2398 2398 2398 2398 2398 2398 2398 2398 1823 1823 1823 1823 1823 1823 1823 1398 1398 1404 1398 1398 1404 1404 1404 1404 1398 1398 1398 1398 1392 1392 1392 1392 1387 1387 1387 1387 1387 1387 1387 1387 1387 1387 1387 1387 1387 1387 1387 1387 2090 2090 2078 2078 2090 2090 2078 2078 2078 2078 2078 2078 2415 2415 2415 2432 2432 2450 2450 2450 2450 2450 2450 2450 2432 2432 2432 2432 2432 2415 2415 2415 2415 2415 2415 2415 2415 2415 2415 2415 2415 2415 2432 2432 2432 2432 2432 2432 2432 2432 2432 2432 2432 2432 2432 2432 2432 2415 2415 2432 2432 2432 2432 2432 2432 2432 2432 2432 2432 2432 2432 2432 2432 2450 2432 2432 2450 2450 2450 2450 2450 2450 2450 2450 2450 2450 2450 2450 2450 2450 2450 2450 2450 2450 2450 2450 2450 2450 2450 2450 2450 2450 2450 2450 2450 2450 2467 2467 2450 2450 2432 2432 2432 2432 2432 2432 2432 2432 2450 2450 2450 2450 2450 2450 2450 2432 2432 2432 2432 2432 2432 2432 2432 2432 2432 2432 2432 2432 2450 2450 2432 2432 2432 2432 2432 2432 2415 2415 2415 2432 2432 2432 2432 2432 2432 2432 0 0 0 0 0 0 0 0 0 0
0 0 0 0 0 0 0 0 0 0 0 0 0 0 0 0 0 0 0 0 0 0 0 0 0 0 0 0 0 0 0 0 0 0 2156 2156 2156 2156 2156 2156 2143 2129 2129 2129 2129 2143 2143 2143 2143 2143 2156 2156 2156 2156 2156 2156 2156 2156 2156 2156 2170 2170 2170 2170 2156 2156 2156 2156 2170 2170 2156 2156 2156 2156 2156 2156 2156 2156 2156 2170 2170 2170 2170 2156 2156 2156 2156 2156 2156 2170 2170 2170 2184 2184 2184 2184 2184 2198 2198 2198 2198 2198 2198 2198 2198 2198 2198 2198 2198 2198 2198 2198 2198 2198 2198 2198 2198 2198 2198 2198 2198 2212 2212 2212 2212 2212 2212 2212 2212 1794 1794 1794 1794 1794 1794 1794 1794 1794 1794 1804 1804 1813 1813 1833 1873 1915 1926 1926 1936 1936 2241 2241 2256 2256 2256 2256 2256 2256 1947 1947 1947 1947 1959 1959 1970 1970 1970 1981 1981 1981 1981 1993 2005 2005 2241 2241 2241 2241 2241 2256 2256 2256 2256 2256 2256 2256 2256 2256 2256 2241 2241 2241 2241 2241 2226 2226 2226 2226 2226 2241 2241 2241 1680 1680 1680 1680 1680 1680 1680 1680 1680 1680 1680 1680 1688 1688 1696 1696 1696 1696 1705 2333 2301 2286 2286 2286 2286 2286 2286 2286 2286 2286 2286 2301 2301 2301 2301 2301 2301 2301 2301 2271 2271 2271 2271 1543 1543 1543 1536 1536 1536 1529 1529 1529 1536 1536 1536 1543 1543 1543 1543 1543 1536 1536 1529 1529 1529 1529 1529 1523 1523 1523 1523 1523 1523 1523 1516 1516 1516 1516 1509 1509 1509 1503 1503 1503 1496 1496 1496 1496 1496 1489 1489 1489 1489 1489 1489 1489 1483 1483 1483 1477 1477 1477 1470 1470 1470 1470 1464 1464 1464 1464 1464 1458 1458 1458 1458 1458 1458 1458 1452 1452 1458 1458 1458 1458 1452 1452 1458 1458 1458 1452 1452 1452 1452 1452 1452 1452 1452 1445 1427 1410 1398 1392 1392 1392 1392 1392 1387 1387 1392 1392 1392 1398 1404 1415 1421 1445 1452 1458 1464 1464 1464 1470 1477 1477 1483 1483 1489 1496 1503 1516 1557 1564 1564 1572 1572 1579 1579 1586 1594 1594 1609 1609 2398 2398 2398 2398 2398 2415 2415 2415 1776 1776 1776 1776 1776 1776 1776 1776 1785 1785 1785 1776 1776 2415 2415 2415 2415 2415 2415 2415 2398 2398 2398 2398 2398 2398 2398 2398 2398 2381 2381 2398 2398 2398 2398 2398 2398 2398 2381 2381 2398 1833 1833 1833 1823 1823 1823 1823 1404 1404 1404 1404 1404 1404 1404 1404 1404 1404 1398 1398 1398 1398 1398 1392 1392 1398 1392 1392 1392 1392 1392 1392 1392 1392 1387 1387 1392 1392 1392 1392 1392 1398 1398 2090 2090 2090 2090 2090 2090 2090 2078 2078 2078 2078 2398 2398 2398 2398 2398 2398 2398 2398 2415 2415 2415 2432 2415 2415 2415 2415 2415 2398 2398 2398 2398 2398 2398 2398 2398 2398 2398 2398 2415 2415 2415 2415 2415 2415 2415 2415 2432 2432 2432 2432 2432 2415 2415 2415 2415 2415 2415 2415 2432 2432 2432 2415 2415 2415 2415 2432 2432 2432 2432 2432 2432 2432 2432 2432 2432 2432 2432 2432 2432 2450 2450 2450 2432 2432 2450 2450 2450 2432 2432 2450 2450 2450 2450 2450 2450 2450 2450 2450 2450 2450 2450 2450 2450 2450 2450 2450 2450 2450 2432 2432 2432 2432 2432 2432 2432 2432 2432 2432 2432 2432 2432 2432 2450 2432 2432 2432 2432 2432 2432 2415 2415 2432 2432 2432 2432 2432 2432 2432 2432 2432 2432 2432 2415 2415 2415 2415 2415 2415 2415 2415 2415 2432 2432 2432 0 0 0 0 0 0 0 0 0 0
0 0 0 0 0 0 0 0 0 0 0 0 0 0 0 0 0 0 0 0 0 0 0 0 0 0 0 0 0 0 0 0 0 0 2156 2143 2143 2156 2156 2143 2143 2129 2129 2129 2129 2129 2129 2129 2129 2143 2143 2143 2156 2156 2143 2143 2156 2156 2156 2156 2156 2156 2156 2156 2156 2156 2156 2156 2156 2156 2156 2156 2156 2156 2156 2156 2156 2156 2156 2156 2156 2156 2156 2156 2156 2156 2156 2156 2156 2156 2156 2170 2170 2170 2170 2170 2170 2170 2170 2170 2184 2184 2184 2184 2184 2184 2184 2184 2184 2198 2198 2198 2198 2198 2198 2198 2198 2198 2198 2198 2198 2198 2198 2212 2212 2212 2212 2212 2212 1794 1794 1794 1794 1794 1794 1794 1794 1794 1804 1804 1804 1813 1813 1843 1873 1904 1926 1936 1936 1936 1947 2241 2256 2256 2256 2256 2256 1947 1947 1947 1947 1947 1959 1959 1970 1970 1970 1981 1981 1981 1981 1993 2005 2226 2241 2241 2241 2241 2241 2241 2241 2241 2241 2256 2256 2256 2256 2256 2241 2241 2241 2241 2241 2241 2226 2226 2226 2226 2241 2241 2241 2241 2241 1688 1688 1680 1680 1680 1680 1680 1680 1680 1680 1680 1688 1688 1696 1696 1696 1705 1713 2301 2286 2271 2271 2286 2286 2286 2286 2286 2286 2286 2286 2286 2286 2286 2286 2286 2286 2301 2301 2271 2271 2271 2271 1543 1543 1543 1543 1543 1536 1536 1536 1536 1536 1536 1536 1543 1543 1543 1543 1543 1536 1536 1529 1529 1529 1529 1529 1523 1523 1523 1523 1523 1523 1523 1523 1516 1516 1516 1516 1509 1509 1509 1509 1503 1503 1496 1496 1496 1496 1496 1496 1496 1489 1489 1489 1489 1489 1483 1483 1483 1477 1477 1477 1470 1470 1470 1464 1464 1464 1464 1458 1458 1458 1452 1452 1452 1452 1452 1452 1452 1452 1452 1452 1452 1452 1452 1458 1452 1452 1445 1445 1445 1445 1445 1445 1445 1445 1439 1427 1410 1398 1398 1392 1392 1392 1392 1387 1387 1392 1392 1398 1398 1404 1415 1427 1439 1452 1458 1458 1458 1464 1464 1470 1477 1483 1489 1496 1496 1509 1543 1557 1564 1564 1572 1572 1579 1586 1586 1594 1601 2381 2381 2381 2381 2398 2398 2398 2415 2415 2415 1785 1785 1785 1785 1776 1776 1776 1785 1785 1785 1776 1776 1776 2398 2398 2398 2398 2398 2398 2398 2381 2381 2381 2381 2381 2381 2381 2381 2381 2381 2381 2381 2381 2381 2381 2381 2381 2381 2381 2381 2381 1833 1833 1833 1823 1813 1813 1813 1404 1404 1404 1404 1404 1404 1404 1404 1404 1404 1404 1404 1404 1398 1398 1398 1398 1398 1398 1398 1392 1392 1392 1392 1392 1392 1392 1392 1392 1392 1392 1392 1392 1398 1398 2090 2090 2090 2090 2090 2090 2090 2090 2078 2078 2398 2381 2381 2398 2398 2398 2398 2398 2398 2398 2398 2398 2415 2398 2398 2398 2398 2398 2381 2381 2381 2381 2381 2381 2381 2381 2381 2398 2398 2398 2398 2398 2398 2398 2398 2398 2398 2398 2398 2398 2398 2415 2398 2398 2398 2415 2415 2415 2415 2415 2415 2415 2415 2415 2415 2415 2415 2415 2415 2415 2415 2415 2415 2415 2415 2415 2415 2415 2432 2432 2432 2432 2432 2432 2432 2450 2450 2450 2432 2432 2450 2450 2450 2450 2450 2450 2450 2432 2432 2432 2432 2432 2432 2450 2450 2450 2450 2450 2450 2415 2415 2415 2415 2415 2415 2415 2415 2432 2432 2432 2432 2432 2432 2432 2432 2432 2432 2432 2415 2415 2415 2415 2415 2415 2415 2415 2432 2432 2432 2415 2415 2415 2415 2415 2398 2398 2398 2415 2415 2415 2415 2415 2415 2415 2415 0 0 0 0 0 0 0 0 0 0
0 0 0 0 0 0 0 0 0 0 0 0 0 0 0 0 0 0 0 0 0 0 0 0 0 0 0 0 0 0 0 0 0 0 2143 2143 2143 2129 2129 2129 2129 2116 2116 2129 2129 2129 2129 2129 2129 2143 2143 2143 2143 2143 2143 2143 2143 2143 2143 2143 2143 2156 2156 2156 2156 2156 2156 2156 2156 2156 2156 2143 2143 2143 2143 2143 2156 2143 2143 2156 2156 2156 2156 2156 2156 2156 2156 2156 2156 2156 2156 2156 2170 2170 2170 2170 2170 2170 2170 2170 2170 2170 2170 2170 2170 2170 2184 2184 2184 2184 2184 2184 2184 2184 2184 2184 2184 2184 2184 2184 2198 2198 2198 2198 2198 2198 2198 2198 2198 1794 1794 1794 1794 1794 1794 1794 1794 1794 1804 1804 1813 1823 1823 1843 1863 1904 1926 1926 1936 1936 1947 2241 2241 2241 2241 2256 2256 1947 1947 1947 1947 1947 1959 1959 1970 1970 1981 1981 1981 1981 1981 1993 2226 2226 2226 2226 2226 2241 2241 2241 2241 2241 2241 2256 2256 2256 2241 2241 2241 2241 2241 2241 2241 2241 2241 2241 2241 2241 2241 2241 2241 2256 2256 1680 1680 1688 1680 1680 1688 1688 1688 1680 1680 1688 1688 1688 1696 1696 1696 1705 2301 2286 2271 2271 2271 2271 2286 2286 2286 2286 2286 2286 2286 2286 2286 2271 2271 2271 2271 2286 2286 2271 2271 2271 2271 1543 1543 1543 1543 1543 1543 1536 1536 1543 1543 1543 1543 1543 1550 1543 1543 1543 1543 1536 1529 1529 1529 1529 1529 1523 1523 1523 1523 1523 1523 1523 1523 1516 1516 1516 1516 1516 1509 1509 1509 1509 1503 1503 1496 1496 1496 1496 1496 1496 1489 1489 1489 1489 1489 1483 1483 1483 1483 1477 1477 1477 1470 1470 1470 1464 1464 1464 1458 1458 1458 1452 1452 1452 1452 1452 1452 1452 1452 1452 1452 1452 1452 1452 1452 1452 1452 1439 1439 1439 1439 1439 1439 1439 1439 1433 1421 1415 1410 1398 1398 1398 1392 1392 1392 1392 1392 1392 1398 1404 1404 1415 1427 1439 1445 1452 1458 1458 1458 1464 1470 1477 1483 1489 1503 1509 1523 1550 1557 1564 1564 1572 1572 1579 1586 1586 2365 2365 2365 2381 2365 2365 2381 2381 2398 2398 2415 1794 1785 1785 1785 1785 1785 1785 1785 1785 1785 1785 1776 1776 1776 2398 2398 2398 2398 2398 2398 2398 2381 2381 2381 2381 2381 2381 2381 2381 2381 2381 2381 2381 2381 2381 2381 2381 2381 2381 2381 2381 1843 1833 1833 1823 1823 1813 1813 1813 1404 1404 1404 1404 1404 1404 1404 1404 1404 1404 1404 1404 1404 1404 1398 1398 1398 1398 1398 1398 1392 1392 1392 1392 1392 1392 1392 1392 1392 1392 1392 1392 1392 1410 1410 2090 2090 2090 2090 2090 2090 2090 2090 2078 2078 2381 2381 2381 2381 2381 2381 2381 2398 2398 2398 2398 2398 2398 2381 2381 2381 2381 2381 2381 2381 2381 2381 2381 2381 2381 2381 2381 2381 2381 2381 2381 2398 2398 2398 2398 2398 2381 2381 2398 2398 2398 2398 2398 2398 2398 2398 2398 2398 2398 2398 2398 2398 2398 2398 2398 2398 2398 2398 2398 2398 2398 2398 2398 2398 2398 2398 2398 2398 2415 2415 2432 2432 2432 2432 2432 2432 2432 2432 2432 2432 2432 2450 2450 2450 2450 2450 2450 2432 2432 2432 2432 2432 2432 2432 2432 2432 2432 2432 2432 2415 2415 2415 2415 2415 2415 2415 2415 2415 2415 2415 2415 2432 2432 2432 2415 2415 2415 2415 2415 2415 2415 2415 2415 2415 2415 2415 2415 2415 2415 2415 2415 2415 2415 2398 2398 2398 2398 2415 2415 2415 2398 2398 2415 2415 2415 0 0 0 0 0 0 0 0 0 0
0 0 0 0 0 0 0 0 0 0 0 0 0 0 0 0 0 0 0 0 0 0 0 0 0 0 0 0 0 0 0 0 0 0 2129 2129 2129 2129 2116 2116 2116 2116 2116 2116 2116 2116 2116 2116 2116 2129 2129 2129 2129 2143 2143 2143 2143 2143 2143 2143 2143 2143 2143 2156 2156 2143 2143 2156 2156 2156 2143 2143 2143 2143 2143 2143 2143 2143 2143 2143 2156 2156 2156 2156 2156 2156 2156 2156 2156 2156 2156 2156 2156 2156 2156 2156 2156 2156 2156 2156 2156 2156 2156 2156 2170 2170 2170 2170 2170 2170 2184 2170 2170 2184 2184 2184 2184 2184 2184 2184 2184 2198 2198 2198 2184 2184 2156 2143 2143 1794 1794 1794 1794 1794 1794 1794 1794 1804 1804 1804 1813 1823 1833 1843 1853 1915 1926 1926 1936 1936 1947 2226 2241 2226 2226 2241 1936 1936 1947 1947 1947 1947 1959 1959 1970 1970 1981 1981 1981 1981 1981 2212 2212 2212 2212 2226 2226 2226 2226 2241 2241 2241 2241 2241 2241 2241 2241 2241 2241 2241 2226 2226 2241 2241 2241 2241 2241 2241 2241 2241 2256 2256 2256 1680 1680 1688 1688 1688 1688 1688 1688 1680 1680 1688 1688 1688 1696 1696 1696 1705 2301 2256 2256 2256 2256 2271 2271 2271 2271 2271 2271 2271 2271 2271 2271 2271 2271 2271 2271 2271 2271 2256 2256 2256 1543 1543 1543 1543 1543 1543 1543 1543 1543 1543 1543 1543 1543 1550 1550 1550 1543 1543 1529 1529 1529 1536 1536 1529 1529 1523 1523 1523 1523 1523 1523 1523 1523 1516 1516 1516 1516 1516 1516 1516 1509 1509 1509 1503 1503 1496 1496 1496 1496 1496 1496 1496 1496 1489 1489 1489 1489 1483 1483 1477 1477 1477 1470 1470 1470 1470 1464 1464 1464 1458 1458 1458 1452 1452 1452 1452 1452 1452 1452 1452 1452 1445 1445 1445 1445 1445 1445 1439 1439 1439 1439 1439 1439 1439 1433 1427 1421 1415 1410 1404 1398 1398 1392 1392 1392 1392 1392 1398 1398 1404 1410 1421 1427 1439 1445 1452 1452 1458 1458 1464 1470 1483 1489 1503 1516 1523 1543 1550 1557 1564 1572 1572 1579 1579 2365 2365 2365 2365 2365 2365 2365 2365 2365 2381 2381 2398 2398 1794 1794 1785 1785 1785 1785 1785 1785 1794 1794 1794 1794 1794 2381 2381 2381 2398 2398 2398 2398 2398 2381 2381 2381 2381 2381 2381 2381 2381 2381 2381 2381 2381 2381 2381 2381 2381 2381 2381 2381 2381 1843 1843 1843 1823 1823 1813 1813 1813 1404 1404 1404 1404 1404 1404 1404 1404 1404 1404 1404 1404 1404 1404 1404 1404 1398 1398 1398 1398 1398 1398 1398 1398 1392 1392 1392 1392 1392 1392 1392 1392 1398 1410 1410 2090 2090 2090 2090 2090 2090 2090 2090 2078 2078 2381 2381 2381 2381 2381 2381 2381 2381 2381 2381 2381 2381 2398 2381 2381 2381 2381 2381 2381 2365 2365 2365 2381 2381 2381 2381 2381 2381 2381 2381 2381 2398 2381 2381 2381 2381 2381 2381 2381 2398 2398 2381 2381 2381 2381 2398 2381 2381 2381 2398 2398 2398 2398 2398 2398 2398 2398 2398 2398 2398 2398 2398 2398 2381 2381 2381 2381 2381 2381 2398 2398 2415 2415 2432 2432 2432 2432 2432 2432 2432 2432 2432 2432 2432 2432 2432 2432 2432 2432 2432 2432 2432 2432 2432 2432 2432 2432 2432 2432 2415 2415 2415 2415 2398 2398 2398 2398 2415 2415 2415 2415 2415 2415 2415 2415 2415 2415 2398 2398 2398 2398 2398 2398 2398 2415 2415 2415 2415 2415 2415 2398 2398 2398 2398 2381 2381 2381 2398 2398 2398 2398 2398 2415 2415 2415 0 0 0 0 0 0 0 0 0 0
0 0 0 0 0 0 0 0 0 0 0 0 0 0 0 0 0 0 0 0 0 0 0 0 0 0 0 0 0 0 0 0 0 0 2129 2116 2116 2116 2116 2116 2116 2116 2116 2116 2116 2116 2116 2116 2116 2116 2116 2116 2129 2129 2129 2129 2129 2129 2129 2129 2129 2143 2143 2143 2143 2143 2143 2156 2156 2156 2143 2143 2129 2129 2129 2143 2129 2129 2129 2143 2143 2143 2143 2143 2143 2156 2156 2143 2143 2156 2156 2156 2156 2156 2156 2156 2156 2156 2156 2156 2156 2156 2156 2156 2156 2156 2156 2156 2156 2156 2156 2156 2156 2170 2170 2170 2170 2170 2170 2184 2184 2184 2184 2184 2184 2184 2156 2143 2143 2143 1794 1794 1804 1794 1794 1794 1794 1804 1813 1813 1813 1823 1833 1843 1853 1926 1936 1936 1936 1936 1936 1947 2241 2226 1936 1936 1936 1936 1936 1947 1947 1947 1959 1959 1970 1970 1981 1981 1981 1981 1981 2212 2198 2198 2198 2198 2198 2198 2212 2226 2226 2226 2226 2226 2226 2226 2226 2226 2226 2226 2226 2226 2226 2226 2241 2241 2241 2241 2241 2241 2256 2256 2256 1688 1688 1688 1688 1688 1688 1688 1688 1688 1688 1688 1696 1696 1696 1705 1705 1705 1705 2256 2256 2256 2256 2256 2256 2256 2256 2256 2256 2256 2256 2256 2256 2256 2256 2256 2256 2271 2271 2241 2241 2256 2256 1550 1550 1543 1543 1543 1543 1543 1543 1543 1543 1543 1543 1550 1550 1550 1543 1536 1529 1529 1529 1536 1529 1529 1529 1529 1529 1523 1523 1523 1523 1523 1523 1523 1523 1516 1516 1516 1516 1516 1509 1509 1509 1503 1503 1503 1503 1496 1496 1496 1496 1496 1496 1489 1489 1489 1489 1483 1483 1483 1483 1477 1477 1477 1470 1470 1470 1470 1464 1464 1458 1458 1458 1458 1452 1452 1452 1452 1452 1452 1452 1445 1445 1445 1445 1445 1445 1433 1433 1433 1433 1433 1439 1439 1433 1427 1421 1415 1410 1404 1398 1398 1392 1392 1392 1392 1398 1398 1404 1404 1410 1421 1427 1439 1445 1452 1452 1458 1458 1464 1470 1489 1503 1509 1523 1529 1550 1550 1557 1564 1572 1572 1579 1579 2349 2349 2349 2349 2349 2349 2349 2349 2365 2365 2381 2381 2398 1794 1794 1794 1785 1785 1785 1785 1785 1794 1794 1794 1804 1804 2381 2381 2365 2365 2365 2365 2365 2365 2365 2365 2365 2365 2365 2365 2365 2365 2365 2365 2365 2365 2365 2365 2365 2365 2365 2365 2381 1863 1853 1853 1853 1833 1823 1813 1813 1410 1404 1404 1404 1404 1410 1410 1410 1404 1404 1404 1404 1404 1404 1404 1404 1404 1404 1404 1404 1404 1398 1398 1398 1398 1398 1392 1392 1392 1392 1392 1392 1392 1398 1410 1427 2090 2090 2090 2090 2090 2090 2090 2090 2078 2078 2365 2365 2365 2365 2381 2381 2381 2381 2381 2381 2381 2381 2398 2381 2365 2365 2365 2365 2365 2365 2365 2365 2365 2365 2365 2381 2381 2381 2381 2381 2381 2381 2381 2381 2381 2381 2381 2381 2381 2381 2381 2381 2381 2381 2381 2381 2381 2381 2381 2381 2381 2381 2381 2381 2381 2381 2381 2381 2381 2381 2381 2381 2398 2381 2381 2381 2381 2381 2381 2381 2398 2398 2398 2415 2415 2415 2432 2415 2415 2415 2415 2432 2415 2415 2415 2415 2415 2398 2398 2398 2415 2415 2415 2415 2398 2398 2415 2415 2398 2381 2381 2381 2381 2381 2381 2398 2398 2398 2398 2398 2415 2415 2398 2398 2398 2398 2398 2381 2381 2381 2381 2381 2381 2381 2398 2398 2398 2415 2398 2398 2398 2398 2381 2381 2365 2365 2365 2381 2398 2398 2398 2398 2398 2398 2398 0 0 0 0 0 0 0 0 0 0
0 0 0 0 0 0 0 0 0 0 0 0 0 0 0 0 0 0 0 0 0 0 0 0 0 0 0 0 0 0 0 0 0 0 2116 2116 2116 2116 2116 2116 2116 2116 2116 2116 2116 2116 2116 2116 2116 2116 2116 2116 2116 2116 2129 2129 2129 2129 2129 2129 2129 2129 2129 2143 2143 2143 2143 2143 2143 2143 2129 2129 2116 2116 2116 2116 2129 2129 2129 2129 2143 2143 2143 2143 2143 2143 2143 2143 2143 2143 2143 2143 2143 2156 2156 2156 2143 2143 2143 2143 2143 2143 2143 2143 2156 2156 2156 2156 2156 2156 2156 2156 2156 2156 2156 2156 2156 2156 2170 2170 2170 2170 2170 2170 2170 2170 2156 2156 2156 1833 1794 1794 1804 1804 1794 1794 1794 1804 1813 1813 1823 1823 1833 1843 1863 1936 1936 1936 1936 1936 1936 1936 2241 1926 1926 1936 1926 1926 1936 1936 1947 1959 1959 1970 1981 1981 1981 1981 1981 1981 2212 2198 2198 2198 2198 2198 2198 2198 2212 2212 2212 2212 2212 2212 2212 2212 2212 2212 2212 2212 2212 2212 2226 2226 2226 2226 2226 2226 2241 2241 2241 2241 2241 1688 1688 1688 1688 1688 1688 1688 1688 1688 1688 1696 1696 1696 1696 1705 1705 1705 2241 2241 2241 2241 2241 2256 2256 2256 2256 2256 2256 2256 2256 2241 2241 2256 2256 2256 2256 2256 2256 2241 2241 2241 2241 1550 1550 1550 1550 1543 1543 1543 1543 1543 1543 1543 1543 1550 1550 1550 1550 1536 1529 1529 1529 1536 1529 1529 1523 1523 1529 1523 1523 1523 1523 1523 1523 1523 1523 1523 1516 1516 1516 1516 1516 1516 1509 1509 1503 1503 1503 1496 1496 1496 1496 1496 1496 1489 1489 1489 1489 1483 1483 1483 1483 1483 1483 1477 1477 1470 1470 1470 1464 1464 1458 1458 1458 1458 1452 1452 1452 1452 1452 1452 1452 1445 1445 1445 1445 1445 1445 1433 1433 1433 1433 1433 1433 1433 1433 1427 1421 1415 1410 1404 1404 1404 1398 1398 1392 1392 1398 1398 1404 1404 1410 1427 1433 1439 1445 1445 1452 1458 1458 1470 1483 1496 1503 1516 1523 1536 1543 1550 1557 1564 1564 1572 1572 2333 2333 2333 2333 2349 2349 2349 2333 2333 2349 2349 2365 2381 2381 1794 1794 1794 1794 1794 1794 1794 1794 1794 1794 1804 1804 1804 2381 2365 2365 2365 2365 2365 2365 2365 2349 2349 2349 2349 2349 2349 2349 2349 2349 2349 2349 2349 2349 2349 2365 2349 2349 2365 2365 1863 1853 1853 1853 1833 1823 1823 1823 1410 1410 1410 1410 1410 1410 1410 1410 1404 1404 1404 1404 1404 1404 1404 1404 1404 1404 1404 1404 1404 1404 1398 1398 1398 1398 1392 1392 1392 1392 1392 1392 1392 1398 1410 1427 2090 2090 2090 2090 2090 2090 2103 2090 2078 2078 2365 2365 2365 2365 2365 2365 2365 2365 2381 2381 2381 2381 2381 2365 2365 2365 2365 2365 2365 2365 2365 2365 2365 2365 2365 2365 2365 2381 2365 2365 2365 2365 2365 2365 2365 2365 2365 2381 2381 2381 2381 2381 2381 2381 2381 2381 2381 2381 2381 2381 2381 2381 2381 2381 2381 2381 2381 2381 2381 2381 2381 2381 2381 2381 2381 2381 2381 2381 2381 2381 2381 2381 2381 2398 2398 2398 2398 2398 2398 2398 2398 2398 2398 2398 2398 2398 2398 2398 2398 2398 2398 2398 2398 2398 2398 2398 2398 2398 2398 2381 2365 2365 2381 2381 2381 2381 2381 2381 2381 2381 2381 2381 2365 2365 2365 2365 2365 2365 2365 2365 2365 2365 2365 2381 2381 2381 2398 2398 2381 2381 2381 2381 2381 2365 2365 2365 2365 2381 2381 2381 2381 2381 2381 2381 2381 0 0 0 0 0 0 0 0 0 0
0 0 0 0 0 0 0 0 0 0 0 0 0 0 0 0 0 0 0 0 0 0 0 0 0 0 0 0 0 0 0 0 0 0 2116 2103 2103 2103 2103 2103 2103 2103 2103 2116 2116 2116 2116 2116 2116 2116 2116 2116 2116 2116 2116 2116 2116 2116 2116 2116 2116 2129 2129 2143 2143 2129 2129 2129 2129 2129 2116 2116 2103 2103 2103 2103 2116 2116 2116 2116 2129 2143 2143 2129 2129 2129 2129 2129 2129 2129 2143 2143 2143 2143 2143 2143 2143 2143 2143 2143 2143 2143 2143 2143 2143 2143 2156 2156 2156 2156 2156 2143 2143 2156 2156 2156 2156 2156 2156 2156 2156 2156 2156 2156 2156 2156 2143 2143 2143 1813 1804 1804 1804 1804 1794 1794 1794 1804 1813 1823 1823 1833 1833 1843 1863 1936 1936 1936 1936 1936 1936 1926 1926 1926 1926 1936 1926 1926 1936 1936 1947 1947 1959 1970 1981 1981 1981 2212 2198 2198 2198 2198 2198 2198 2198 2198 2198 2198 2198 2198 2198 2198 2198 2212 2212 2198 2198 2198 2198 2212 2212 2212 2212 2226 2226 2226 2226 2226 2226 2226 2226 2241 2241 1688 1688 1688 1688 1696 1688 1688 1688 1688 1688 1696 1696 1696 1696 1705 1705 1705 1705 2241 2241 2241 2241 2241 2241 2241 2241 2241 2241 2241 2241 2241 2241 2241 2241 2241 2256 2241 2241 2226 2226 2241 2241 1550 1550 1550 1550 1550 1550 1543 1543 1543 1543 1550 1550 1550 1550 1557 1557 1536 1536 1536 1536 1543 1536 1529 1523 1523 1529 1523 1523 1523 1523 1523 1523 1516 1516 1516 1516 1516 1516 1516 1516 1516 1509 1509 1503 1503 1503 1496 1496 1496 1496 1496 1496 1489 1489 1489 1489 1489 1483 1483 1483 1483 1483 1477 1477 1477 1470 1470 1470 1464 1464 1464 1458 1458 1458 1458 1452 1452 1452 1452 1452 1445 1445 1445 1445 1445 1445 1433 1433 1433 1433 1433 1433 1433 1433 1427 1421 1415 1415 1410 1404 1404 1398 1398 1398 1398 1398 1404 1404 1410 1410 1427 1433 1439 1445 1445 1452 1458 1464 1477 1489 1503 1509 1516 1529 1536 1543 1550 1550 1557 1564 1564 2301 2333 2333 2333 2333 2333 2333 2333 2333 2333 2333 2349 2349 2349 2349 1794 1794 1794 1794 1794 1794 1794 1794 1794 1794 1804 1804 2349 2349 2365 2349 2349 2349 2349 2349 2349 2349 2349 2349 2349 2349 2349 2349 2349 2333 2333 2333 2333 2333 2333 2349 2349 2349 2349 2349 1863 1853 1853 1853 1853 1823 1823 1823 1410 1410 1410 1410 1410 1410 1410 1410 1410 1410 1410 1404 1404 1404 1404 1404 1404 1404 1404 1404 1404 1404 1404 1404 1398 1398 1398 1392 1392 1392 1392 1392 1392 1404 1410 1427 2090 2090 2090 2090 2090 2090 2103 2090 2090 2365 2365 2365 2365 2365 2365 2365 2365 2365 2381 2381 2381 2381 2381 2365 2365 2365 2365 2365 2365 2365 2365 2365 2365 2365 2365 2365 2365 2365 2365 2365 2365 2365 2365 2365 2365 2365 2365 2365 2365 2365 2381 2381 2365 2365 2365 2365 2365 2365 2365 2365 2365 2381 2381 2381 2381 2381 2381 2381 2365 2365 2381 2381 2381 2381 2381 2381 2381 2381 2381 2381 2381 2381 2381 2381 2381 2381 2398 2398 2398 2398 2398 2398 2398 2381 2381 2381 2381 2381 2381 2381 2381 2398 2398 2398 2381 2381 2381 2381 2381 2365 2365 2365 2365 2365 2365 2365 2365 2365 2365 2381 2365 2365 2365 2365 2365 2365 2365 2365 2365 2365 2365 2365 2365 2365 2365 2365 2365 2365 2365 2365 2365 2365 2365 2365 2365 2365 2365 2365 2365 2365 2365 2381 2381 2381 2365 2365 0 0 0 0 0 0 0 0 0
0 0 0 0 0 0 0 0 0 0 0 0 0 0 0 0 0 0 0 0 0 0 0 0 0 0 0 0 0 0 0 0 0 0 2103 2103 2103 2103 2103 2103 2103 2103 2103 2103 2103 2103 2116 2103 2103 2116 2116 2116 2116 2116 2116 2116 2116 2116 2116 2116 2116 2129 2129 2129 2129 2129 2129 2129 2116 2116 2116 2103 2103 2103 2103 2103 2103 2103 2103 2116 2116 2129 2129 2129 2129 2116 2116 2116 2116 2129 2129 2129 2143 2143 2143 2143 2143 2129 2129 2129 2129 2129 2129 2129 2143 2143 2143 2143 2143 2143 2143 2143 2143 2143 2143 2156 2156 2156 2156 2156 2156 2156 2156 2156 2156 2143 2143 2143 2143 1813 1804 1804 1804 1804 1794 1794 1794 1804 1813 1823 1823 1833 1833 1843 1843 1915 1926 1926 1936 1936 1936 1926 1926 1926 1926 1936 1926 1926 1936 1936 1936 1947 1959 1981 1981 2184 2184 2184 2184 2184 2184 2184 2184 2198 2198 2184 2184 2184 2198 2198 2198 2198 2198 2198 2198 2198 2198 2198 2198 2212 2212 2212 2212 2212 2226 2226 2226 2226 2226 2226 2226 2226 2226 1696 1696 1688 1688 1696 1688 1688 1696 1696 1696 1696 1705 1705 1705 1705 1713 1705 1705 1705 2241 2241 2241 2241 2241 2241 2241 2241 2241 2241 2241 2241 2241 2241 2241 2241 2241 2241 2241 2226 2226 2226 1550 1550 1550 1550 1550 1550 1550 1543 1543 1543 1543 1550 1550 1550 1557 1564 1572 1572 1572 1572 2241 2241 1523 1523 1523 1523 1529 1523 1523 1523 1523 1523 1516 1516 1516 1516 1516 1516 1516 1516 1516 1516 1516 1509 1509 1509 1509 1503 1503 1496 1496 1496 1496 1489 1489 1489 1489 1489 1489 1489 1489 1483 1483 1483 1477 1477 1470 1470 1470 1464 1464 1464 1464 1464 1458 1458 1458 1458 1458 1452 1452 1452 1452 1452 1445 1445 1445 1433 1433 1433 1433 1433 1433 1433 1433 1427 1421 1415 1415 1410 1404 1404 1398 1398 1398 1398 1404 1404 1410 1410 1415 1427 1433 1439 1445 1445 1452 1458 1464 1489 1503 1509 1516 1523 1529 1536 1543 1550 1550 1557 1557 2301 2301 2317 2317 2317 2333 2333 2333 2333 2333 2333 2333 2333 2333 2333 2333 1794 1794 1794 1794 1794 1794 1794 1794 1794 1804 1804 1813 2349 2349 2349 2349 2349 2349 2349 2349 2349 2333 2333 2333 2333 2333 2333 2333 2333 2333 2333 2333 2333 2333 2333 2333 2333 2333 2349 2349 1863 1853 1853 1853 1853 1823 1823 1823 1410 1410 1410 1410 1410 1410 1410 1410 1410 1410 1410 1404 1404 1404 1404 1404 1404 1404 1404 1404 1404 1404 1404 1404 1404 1398 1398 1392 1392 1392 1392 1392 1392 1404 1415 1421 2078 2090 2090 2090 2090 2090 2103 2090 2090 2365 2349 2349 2349 2349 2349 2349 2365 2365 2365 2365 2365 2365 2381 2349 2349 2349 2349 2349 2349 2349 2349 2349 2349 2349 2349 2349 2349 2349 2365 2349 2349 2349 2349 2349 2365 2365 2365 2365 2365 2365 2365 2365 2365 2365 2365 2365 2365 2365 2365 2365 2365 2365 2365 2365 2365 2365 2365 2365 2365 2365 2365 2365 2365 2365 2365 2365 2365 2365 2365 2365 2365 2365 2381 2381 2381 2381 2381 2381 2381 2381 2381 2381 2381 2381 2381 2381 2381 2381 2381 2381 2381 2381 2381 2381 2381 2381 2381 2381 2381 2365 2349 2349 2365 2365 2365 2365 2365 2365 2365 2365 2365 2365 2365 2365 2365 2365 2349 2349 2349 2349 2349 2349 2365 2365 2365 2365 2349 2349 2365 2349 2349 2349 2365 2365 2365 2365 2365 2365 2365 2365 2365 2365 2365 2365 2365 2365 0 0 0 0 0 0 0 0 0
0 0 0 0 0 0 0 0 0 0 0 0 0 0 0 0 0 0 0 0 0 0 0 0 0 0 0 0 0 0 0 0 0 0 2103 2103 2103 2103 2103 2103 2103 2103 2103 2103 2103 2103 2103 2103 2103 2103 2103 2103 2116 2116 2116 2116 2103 2103 2103 2103 2103 2116 2116 2129 2116 2116 2116 2116 2116 2116 2103 2103 2103 2103 2103 2103 2103 2103 2103 2103 2103 2116 2116 2116 2116 2116 2116 2116 2116 2116 2116 2129 2129 2143 2143 2129 2129 2129 2116 2116 2116 2116 2129 2129 2129 2129 2129 2129 2129 2129 2129 2129 2129 2143 2143 2143 2143 2143 2143 2156 2143 2143 2143 2156 2156 2143 2143 2143 2143 1813 1813 1804 1804 1804 1794 1794 1794 1804 1813 1813 1823 1823 1833 1833 1843 1883 1915 1915 1926 1926 1926 1926 1926 1926 1926 1936 1926 1926 1936 1936 1936 1947 2184 2184 2184 2184 2184 2184 2184 2184 2184 2184 2184 2184 2184 2184 2184 2184 2184 2184 2184 2184 2184 2198 2198 2198 2198 2198 2198 2198 2198 2198 2198 2212 2212 2212 2212 2212 2212 2212 2212 2212 2212 1696 1696 1696 1696 1696 1696 1696 1696 1696 1696 1705 1705 1705 1705 1713 1713 1705 1705 1705 1705 2226 2226 2226 2226 2226 2226 2226 2226 2226 2226 2226 2226 2226 2226 2241 2241 2226 2226 2226 2226 2226 1550 1550 1550 1550 1550 1550 1550 1550 1550 1550 1550 1550 1550 1557 1564 1572 1579 1579 1579 0 0 2241 2241 1523 1523 1523 1529 1529 1523 1523 1523 1523 1516 1516 1516 1516 1516 1516 1516 1516 1509 1509 1516 1509 1509 1509 1509 1503 1503 1496 1496 1496 1496 1489 1489 1489 1489 1489 1489 1489 1489 1489 1483 1483 1483 1483 1477 1477 1477 1470 1470 1470 1464 1464 1464 1464 1464 1458 1458 1458 1458 1458 1452 1452 1452 1445 1445 1439 1433 1433 1433 1433 1433 1433 1427 1427 1421 1415 1415 1410 1404 1404 1398 1398 1398 1398 1404 1404 1410 1410 1415 1427 1433 1439 1445 1445 1452 1458 1470 1503 1509 1509 1516 1523 1529 1536 1550 1550 2286 2286 2286 2286 2286 2301 2301 2317 2333 2333 2333 2333 2317 2317 2333 2333 2333 2333 2333 1794 1794 1794 1794 1794 1794 1794 1794 1804 1804 1804 1813 2333 2333 2333 2333 2333 2333 2333 2333 2349 2333 2333 2333 2333 2333 2333 2333 2333 2317 2317 2317 2317 2317 2333 2333 2333 2333 2333 2333 1863 1853 1853 1853 1853 1823 1823 1410 1410 1410 1410 1410 1410 1410 1410 1410 1410 1410 1410 1404 1404 1410 1404 1404 1404 1404 1404 1404 1404 1404 1404 1404 1404 1398 1398 1398 1398 1392 1392 1392 1398 1404 1410 1421 2078 2090 2090 2090 2090 2103 2103 2103 2103 2333 2333 2333 2333 2349 2349 2349 2349 2349 2365 2365 2365 2365 2365 2349 2349 2333 2333 2333 2333 2333 2333 2333 2333 2333 2333 2349 2349 2349 2349 2333 2333 2349 2333 2333 2349 2349 2349 2349 2349 2349 2365 2365 2349 2349 2349 2349 2349 2349 2349 2349 2349 2365 2365 2365 2365 2365 2365 2365 2349 2349 2349 2365 2365 2365 2365 2365 2365 2365 2365 2365 2365 2365 2365 2365 2365 2365 2381 2365 2365 2365 2365 2365 2365 2365 2365 2365 2365 2365 2365 2365 2365 2381 2381 2381 2381 2381 2381 2365 2365 2349 2349 2349 2349 2349 2365 2365 2365 2365 2365 2365 2365 2365 2365 2365 2365 2349 2349 2349 2349 2349 2349 2349 2349 2365 2349 2349 2349 2349 2349 2349 2349 2349 2365 2365 2365 2365 2365 2365 2365 2365 2365 2349 2349 2349 2349 2349 0 0 0 0 0 0 0 0 0
0 0 0 0 0 0 0 0 0 0 0 0 0 0 0 0 0 0 0 0 0 0 0 0 0 0 0 0 0 0 0 0 0 0 2103 2103 2103 2103 2090 2090 2090 2090 2090 2090 2090 2090 2090 2090 2103 2103 2103 2103 2103 2103 2103 2103 2103 2103 2103 2103 2103 2116 2116 2116 2116 2116 2116 2103 2103 2103 2090 2090 2090 2090 2090 2103 2103 2103 2103 2103 2103 2103 2103 2103 2103 2103 2103 2103 2103 2103 2116 2116 2116 2129 2129 2129 2116 2116 2103 2103 2116 2116 2116 2116 2116 2129 2129 2116 2116 2116 2116 2129 2129 2129 2129 2143 2143 2143 2143 2143 2143 2143 2143 2143 2143 2143 2129 2129 2129 1823 1813 1804 1804 1804 1794 1794 1794 1804 1813 1813 1823 1823 1833 1833 1843 1883 1904 1915 1926 1926 1926 1926 1926 1926 1936 1936 1926 1926 1936 1936 1947 2156 2156 2156 2156 2156 2184 2184 2184 2184 2184 2184 2184 2184 2184 2184 2184 2184 2184 2170 2170 2170 2170 2184 2184 2184 2184 2184 2198 2198 2198 2198 2198 2198 2212 2198 2198 2212 2212 2212 2212 2212 1705 1705 1696 1696 1696 1696 1696 1696 1696 1696 1696 1705 1705 1705 1705 1713 1713 1705 1705 1705 1705 2212 2212 2212 2212 2212 2212 2212 2226 2226 2226 2226 2226 2226 2226 2241 2241 2226 2226 2226 2226 2226 1550 1550 1550 1550 1550 1550 1550 1550 1550 1550 1550 1550 1550 1557 1572 1572 1579 1579 1579 0 2226 2241 2241 2241 2241 2065 2065 1536 1536 2078 2078 2078 2078 2078 2090 2103 1516 1516 1516 1516 1509 1509 1516 1509 1509 1509 1509 1503 1503 1496 1496 1496 1496 1496 1496 1496 1496 1489 1489 1489 1489 1489 1489 1489 1483 1483 1477 1477 1477 1470 1470 1470 1464 1464 1464 1464 1464 1464 1464 1458 1458 1458 1458 1452 1452 1445 1445 1439 1433 1433 1433 1433 1433 1433 1427 1427 1421 1415 1415 1410 1410 1410 1404 1404 1404 1404 1410 1410 1410 1415 1415 1433 1439 1439 1452 1452 1458 1464 1483 1503 1509 1509 1516 1523 1523 1536 1536 2286 2286 2286 2286 2286 2286 2301 2301 2301 2317 2317 2317 2317 2317 2317 2317 2317 2317 2333 1804 1794 1794 1794 1794 1794 1794 1794 1794 1804 1804 1804 1813 2333 2333 2333 2333 2333 2333 2333 2333 2333 2333 2317 2317 2317 2317 2317 2317 2317 2317 2317 2317 2317 2317 2333 2333 2333 2333 2333 2333 1863 1853 1853 1853 1853 1853 1853 1410 1410 1410 1410 1410 1410 1410 1410 1410 1410 1410 1410 1410 1410 1410 1404 1404 1404 1404 1404 1404 1404 1404 1404 1404 1404 1398 1398 1398 1398 1398 1398 1398 1398 1404 1410 2078 2078 2090 2090 2090 2103 2103 2103 2103 2317 2317 2317 2333 2333 2333 2333 2333 2333 2333 2349 2349 2349 2349 2349 2333 2333 2333 2317 2317 2317 2317 2333 2333 2333 2333 2333 2333 2333 2333 2333 2333 2333 2333 2333 2333 2333 2333 2333 2333 2333 2333 2333 2333 2333 2333 2333 2333 2333 2349 2349 2349 2349 2349 2349 2349 2349 2349 2349 2333 2333 2333 2333 2349 2349 2349 2349 2349 2349 2349 2349 2349 2349 2349 2365 2365 2365 2365 2365 2365 2365 2365 2365 2365 2365 2365 2365 2365 2365 2365 2365 2365 2365 2365 2365 2365 2365 2365 2365 2365 2365 2349 2349 2349 2349 2349 2349 2349 2349 2349 2349 2365 2349 2349 2349 2349 2349 2333 2333 2349 2349 2349 2349 2349 2349 2349 2349 2349 2349 2349 2349 2349 2349 2349 2365 2365 2365 2365 2365 2349 2349 2349 2349 2349 2349 2349 2333 2333 0 0 0 0 0 0 0 0 0
0 0 0 0 0 0 0 0 0 0 0 0 0 0 0 0 0 0 0 0 0 0 0 0 0 0 0 0 0 0 0 0 0 0 2103 2090 2090 2090 2090 2078 2078 2078 2078 2090 2078 2078 2090 2090 2090 2103 2103 2103 2103 2103 2103 2103 2103 2103 2103 2103 2103 2103 2103 2116 2116 2116 2103 2103 2103 2103 2090 2090 2090 2090 2090 2090 2090 2090 2090 2090 2090 2103 2103 2103 2103 2103 2103 2103 2103 2103 2103 2116 2116 2116 2129 2116 2116 2103 2103 2103 2103 2103 2103 2103 2103 2103 2116 2116 2116 2116 2116 2116 2116 2116 2129 2129 2129 2129 2129 2143 2143 2143 2143 2143 2143 2143 2129 2129 2143 1823 1813 1813 1804 1804 1804 1804 1804 1813 1813 1813 1823 1823 1833 1833 1843 1883 1894 1904 1915 1915 1915 1926 1926 1926 1936 1936 1936 1936 1936 1936 2143 2143 2156 2156 2156 2156 2170 2170 2170 2184 2184 2184 2184 2184 2184 2170 2170 2170 2170 2170 2170 2170 2170 2170 2184 2184 2184 2184 2184 2198 2198 2198 2198 2198 2198 2198 2198 2198 2198 2212 2212 2212 1705 1705 1696 1696 1696 1696 1696 1696 1696 1696 1696 1705 1705 1705 1713 1713 1713 1705 1705 1705 2212 2212 2212 2212 2212 2212 2212 2212 2212 2212 2212 2226 2226 2226 2226 2226 2226 2226 2212 2212 2212 2212 1550 1550 1550 1550 1550 1550 1550 1550 1550 1550 1550 1550 1557 1557 1572 1572 1579 1579 1579 2226 2226 2226 2226 2241 2241 2065 2065 1543 1543 2078 2078 2078 2090 2090 2103 2103 2129 2170 1516 1516 1523 1529 1523 1523 1509 1509 1509 1509 1503 1496 1496 1496 1496 1496 1496 1496 1496 1489 1489 1489 1489 1489 1489 1489 1489 1489 1483 1483 1483 1477 1470 1470 1470 1470 1464 1464 1464 1464 1464 1464 1464 1458 1458 1458 1452 1452 1445 1439 1439 1439 1433 1433 1433 1433 1433 1427 1421 1415 1415 1410 1410 1410 1404 1404 1410 1410 1410 1410 1415 1415 1427 1433 1439 1445 1452 1458 1464 1477 1503 1503 1509 1516 1516 1523 1523 1536 2286 2286 2286 2286 2286 2286 2286 2301 2301 2301 2317 2317 2317 2317 2301 2301 2317 2301 2301 2317 1804 1804 1804 1804 1794 1794 1794 1794 1794 1804 1804 1804 1813 2333 2317 2317 2317 2317 2317 2317 2333 2333 2317 2317 2317 2317 2317 2317 2317 2317 2317 2317 2317 2317 2317 2317 2317 2317 2333 2333 2333 1853 1853 1853 1853 1853 1853 1853 1410 1410 1410 1410 1410 1410 1410 1410 1410 1410 1410 1410 1410 1410 1410 1404 1404 1410 1410 1410 1404 1404 1404 1404 1404 1404 1404 1404 1398 1398 1398 1398 1398 1398 1404 1410 2090 2090 2090 2090 2103 2103 2103 2103 2103 2301 2301 2317 2317 2317 2317 2333 2333 2333 2333 2333 2333 2333 2333 2333 2317 2317 2317 2317 2317 2317 2317 2317 2317 2317 2317 2317 2317 2317 2317 2317 2317 2317 2317 2317 2317 2317 2317 2317 2317 2317 2317 2317 2317 2333 2317 2317 2333 2333 2333 2333 2333 2333 2349 2349 2349 2333 2333 2333 2333 2317 2317 2317 2333 2333 2333 2333 2333 2333 2349 2333 2333 2349 2349 2349 2349 2349 2349 2365 2349 2349 2349 2349 2349 2349 2349 2349 2349 2349 2349 2349 2349 2349 2365 2365 2365 2365 2365 2365 2365 2349 2333 2333 2349 2349 2349 2349 2349 2349 2349 2349 2365 2349 2349 2349 2333 2333 2333 2333 2333 2333 2333 2333 2333 2349 2349 2333 2333 2333 2333 2349 2349 2349 2349 2349 2349 2349 2349 2349 2349 2349 2349 2349 2349 2333 2333 2333 2333 0 0 0 0 0 0 0 0 0
0 0 0 0 0 0 0 0 0 0 0 0 0 0 0 0 0 0 0 0 0 0 0 0 0 0 0 0 0 0 0 0 0 0 2090 2090 2090 2090 2078 2065 2065 2065 2078 2078 2078 2078 2078 2078 2078 2090 2103 2103 2103 2103 2103 2103 2103 2103 2090 2090 2103 2090 2090 2103 2103 2103 2103 2103 2103 2103 2090 2090 2090 2090 2090 2090 2090 2090 2090 2090 2090 2090 2090 2103 2090 2090 2090 2103 2103 2103 2103 2103 2103 2103 2103 2103 2103 2103 2103 2103 2103 2103 2103 2103 2103 2103 2103 2103 2103 2103 2103 2116 2116 2116 2116 2116 2116 2129 2129 2129 2129 2129 2143 2143 2143 2143 2129 2129 2143 2143 1813 1813 1813 1804 1804 1813 1813 1813 1813 1823 1823 1823 1833 1833 1843 1853 1883 1894 1904 1915 1915 1915 1915 1915 1926 1936 1936 1936 1936 1936 2143 2143 2143 2143 2156 2156 2156 2170 2170 2170 2170 2170 2170 2170 2170 2170 2156 2156 2156 2170 2156 2156 2170 2170 2170 2184 2184 2184 2184 2184 2184 2184 2184 2198 2198 2198 2198 2198 2198 2198 2198 2212 2212 1705 1696 1696 1696 1696 1696 1696 1696 1696 1696 1705 1705 1713 1713 1713 1713 1705 1705 1705 2212 2198 2198 2198 2212 2212 2212 2212 2212 2212 2212 2212 2212 2212 2212 2212 2212 2212 2212 2212 2212 2212 1550 1550 1550 1550 1550 1550 1550 1550 1550 1550 1550 1557 1557 1564 1572 1572 1579 1579 2226 2226 2226 2226 2226 2226 2226 2078 2078 2078 2078 2078 2078 2090 2090 2090 2103 2103 2129 2170 2198 2226 2226 2226 2226 2241 2241 2226 1503 1503 1503 1496 1496 1496 1496 1496 1496 1496 1496 1489 1489 1489 1489 1489 1489 1489 1489 1489 1483 1483 1483 1477 1477 1477 1470 1470 1470 1470 1470 1470 1464 1464 1464 1464 1464 1464 1464 1458 1458 1452 1445 1445 1439 1439 1439 1439 1433 1433 1427 1421 1415 1415 1410 1410 1410 1410 1410 1410 1410 1410 1415 1421 1427 1433 1439 1445 1458 1464 1477 1483 1503 1509 1509 1516 1516 1523 2256 2256 2271 2271 2271 2286 2286 2286 2286 2286 2286 2286 2286 2286 2286 2301 2301 2301 2301 2286 2286 2301 1804 1804 1804 1804 1804 1794 1794 1804 1804 1804 1804 1804 1813 2317 2317 2301 2301 2301 2301 2317 2317 2333 2317 2301 2301 2301 2301 2301 2301 2301 2301 2317 2317 2317 2317 2317 2317 2317 2317 2317 2317 1853 1853 1853 1853 1843 1843 1843 1410 1410 1415 1415 1415 1410 1410 1410 1410 1410 1410 1410 1410 1410 1410 1404 1404 1410 1410 1410 1404 1404 1404 1404 1404 1404 1404 1404 1398 1398 1398 1398 1398 1398 1404 2090 2090 2090 2090 2090 2103 2103 2103 2103 2103 2301 2301 2301 2317 2317 2317 2317 2317 2317 2317 2333 2333 2333 2333 2333 2317 2317 2301 2301 2301 2301 2301 2317 2317 2317 2317 2317 2317 2317 2317 2317 2317 2317 2317 2317 2317 2317 2317 2317 2301 2301 2317 2317 2317 2317 2317 2317 2317 2317 2317 2317 2317 2333 2333 2333 2333 2333 2333 2333 2317 2317 2317 2317 2317 2317 2317 2317 2317 2317 2333 2333 2333 2333 2333 2333 2349 2349 2349 2349 2349 2349 2349 2349 2349 2333 2333 2349 2333 2333 2333 2333 2349 2349 2349 2349 2349 2349 2349 2349 2349 2349 2333 2333 2333 2333 2333 2349 2349 2349 2349 2349 2349 2333 2333 2333 2333 2333 2333 2333 2333 2333 2333 2333 2333 2333 2333 2333 2333 2333 2333 2333 2333 2333 2349 2349 2349 2349 2349 2349 2349 2349 2333 2333 2333 2333 2333 2317 2317 0 0 0 0 0 0 0 0 0
0 0 0 0 0 0 0 0 0 0 0 0 0 0 0 0 0 0 0 0 0 0 0 0 0 0 0 0 0 0 0 0 0 0 2078 2078 2078 2078 2065 2065 2065 2065 2065 2065 2065 2065 2078 2078 2078 2090 2090 2090 2090 2090 2090 2090 2090 2090 2078 2078 2090 2090 2090 2090 2090 2090 2090 2090 2090 2090 2078 2078 2078 2078 2078 2090 2090 2090 2090 2090 2090 2090 2090 2090 2090 2090 2090 2103 2103 2103 2103 2103 2103 2103 2103 2103 2103 2103 2103 2103 2103 2103 2103 2103 2103 2103 2103 2103 2103 2103 2103 2103 2103 2103 2116 2116 2116 2116 2116 2129 2129 2129 2129 2143 2143 2129 2129 2129 2129 2129 1823 1823 1813 1813 1813 1813 1813 1813 1813 1823 1823 1823 1833 1833 1833 1843 1873 1894 1894 1904 1904 1915 1915 1915 1926 1936 1936 1936 1936 2143 2143 2143 2143 2143 2143 2143 2156 2156 2156 2156 2156 2156 2156 2156 2156 2156 2156 2156 2156 2156 2156 2156 2156 2156 2170 2170 2170 2170 2184 2184 2184 2184 2184 2184 2184 2184 2184 2184 2184 2198 2198 2198 2212 2212 1696 1696 1696 1696 1696 1696 1696 1696 1705 1705 1713 1713 1713 1713 1713 1705 1705 2198 2198 2198 2198 2198 2198 2198 2198 2198 2198 2212 2212 2212 2212 2212 2212 2212 2212 2212 2212 2198 2198 2198 1550 1550 1550 1550 1550 1550 1550 1550 1550 1550 1550 1557 1557 1564 1572 1579 1579 1579 2212 2212 2226 2226 2226 2226 2226 2078 2078 2078 2078 2078 2078 2090 2090 2090 2090 2103 2143 2184 2198 2226 2226 2226 2226 2226 2226 2226 2226 1509 1509 1496 1496 1496 1496 1496 1496 1496 1496 1496 1496 1496 1489 1489 1489 1489 1489 1489 1489 1483 1483 1483 1483 1477 1477 1470 1470 1470 1470 1470 1470 1464 1464 1464 1464 1464 1458 1458 1458 1452 1452 1445 1445 1439 1439 1439 1433 1433 1427 1421 1421 1415 1415 1415 1410 1410 1410 1410 1415 1415 1415 1421 1433 1439 1445 1445 1464 1470 1483 1489 1503 1509 1516 1516 1516 2256 2256 2256 2271 2271 2271 2271 2286 2286 2286 2286 2286 2286 2286 2286 2286 2286 2286 2286 2286 2286 2286 2286 1804 1804 1804 1804 1804 1804 1804 1804 1804 1804 1804 1804 1823 2286 2286 2286 2286 2286 2286 2286 2301 2301 2301 2301 2301 2301 2301 2301 2301 2301 2301 2301 2301 2301 2301 2317 2317 2317 2317 2317 2317 1853 1853 1853 1853 1843 1843 1421 1415 1415 1421 1421 1415 1415 1415 1410 1410 1410 1410 1410 1410 1410 1410 1410 1410 1410 1410 1410 1404 1404 1404 1404 1404 1404 1404 1404 1404 1404 1398 1398 1398 1398 1398 2090 2090 2090 2090 2103 2103 2103 2103 2103 2103 2301 2301 2301 2301 2317 2317 2317 2317 2317 2317 2317 2317 2317 2317 2317 2301 2301 2301 2301 2301 2301 2301 2301 2301 2301 2301 2301 2301 2301 2301 2301 2301 2301 2301 2301 2301 2301 2301 2301 2301 2301 2301 2317 2317 2317 2317 2317 2317 2317 2317 2317 2317 2317 2317 2317 2333 2317 2317 2317 2317 2317 2317 2317 2317 2317 2317 2317 2317 2317 2317 2317 2317 2317 2317 2333 2333 2333 2333 2333 2333 2333 2333 2333 2333 2333 2333 2333 2333 2333 2317 2317 2333 2333 2333 2333 2333 2333 2349 2349 2349 2349 2333 2333 2333 2333 2333 2333 2333 2333 2333 2333 2333 2317 2317 2333 2317 2317 2333 2333 2333 2333 2333 2317 2317 2317 2317 2317 2317 2317 2317 2317 2333 2333 2333 2333 2333 2349 2349 2349 2333 2333 2333 2333 2317 2317 2317 2301 2301 0 0 0 0 0 0 0 0 0
0 0 0 0 0 0 0 0 0 0 0 0 0 0 0 0 0 0 0 0 0 0 0 0 0 0 0 0 0 0 0 0 0 0 2078 2078 2078 2078 2065 2065 2065 2065 2065 2065 2065 2065 2065 2065 2078 2090 2090 2090 2090 2090 2090 2090 2078 2078 2078 2078 2078 2078 2078 2090 2090 2090 2078 2078 2078 2078 2065 2065 2065 2065 2065 2078 2078 2078 2078 2078 2078 2078 2078 2090 2090 2090 2090 2090 2090 2090 2090 2090 2090 2090 2090 2090 2090 2090 2090 2090 2090 2090 2103 2090 2090 2103 2103 2090 2090 2103 2103 2103 2103 2103 2103 2103 2103 2103 2116 2116 2116 2116 2116 2129 2129 2129 2129 2116 2116 2116 1823 1823 1823 1813 1813 1813 1813 1813 1813 1823 1823 1823 1833 1833 1833 1843 1853 1883 1894 1894 1904 1915 1915 1915 1926 1936 1936 1936 2129 2129 2129 2143 2143 2143 2143 2143 2143 2143 2156 2156 2156 2156 2156 2143 2143 2143 2143 2143 2143 2143 2143 2143 2143 2156 2156 2156 2170 2170 2170 2170 2170 2184 2170 2170 2170 2170 2170 2184 2184 2184 2184 2198 2212 1705 1696 1696 1696 1696 1696 1705 1705 1705 1705 1705 1713 1713 1713 1713 1713 1713 1713 2184 2198 2198 2198 2198 2198 2198 2198 2198 2198 2198 2198 2198 2198 2198 2198 2198 2198 2198 2198 2198 2198 2198 1557 1550 1550 1550 1550 1550 1550 1550 1550 1550 1550 1557 1557 1564 1572 1579 1579 1579 2198 2198 2212 2212 2212 2198 2198 2156 2078 2078 2078 2078 2078 2090 2090 2090 2090 2103 2143 2198 2198 2212 2212 2212 2212 2226 2226 2226 2226 1926 1926 1936 1503 1503 1496 1496 1496 1496 1496 1496 1489 1489 1489 1489 1489 1489 1489 1489 1489 1483 1483 1483 1483 1477 1477 1470 1470 1470 1470 1470 1470 1470 1470 1464 1464 1464 1458 1458 1458 1452 1452 1445 1445 1445 1439 1439 1439 1433 1433 1427 1421 1415 1415 1415 1410 1410 1410 1410 1415 1415 1421 1427 1433 1439 1445 1452 1464 1477 1483 1503 1503 1509 1509 1516 1516 2256 2256 2256 2271 2271 2271 2271 2271 2271 2271 2286 2271 2271 2271 2271 2271 2286 2286 2286 2286 2286 2286 2286 1804 1804 1804 1804 1804 1804 1804 1804 1804 1804 1804 1804 1823 2286 2286 2286 2286 2286 2286 2286 2286 2301 2286 2286 2286 2286 2286 2286 2286 2286 2286 2286 2286 2286 2286 2286 2286 2286 2286 2286 2286 1853 1853 1853 1853 1853 1853 1421 1421 1421 1421 1421 1421 1415 1415 1415 1415 1415 1410 1410 1410 1410 1410 1410 1410 1410 1410 1410 1410 1410 1410 1410 1410 1404 1404 1404 1404 1404 1398 1398 1398 1398 1398 2090 2090 2103 2103 2103 2103 2103 2103 2103 2286 2286 2286 2301 2301 2301 2317 2317 2317 2317 2317 2317 2317 2317 2317 2317 2301 2301 2286 2286 2286 2286 2286 2286 2286 2301 2286 2286 2301 2301 2301 2301 2301 2301 2301 2301 2301 2301 2301 2301 2301 2301 2301 2301 2301 2301 2301 2301 2317 2317 2317 2317 2317 2317 2317 2317 2317 2317 2317 2317 2301 2301 2301 2301 2317 2317 2317 2317 2317 2317 2317 2317 2317 2317 2317 2317 2317 2317 2317 2333 2317 2317 2317 2317 2317 2317 2317 2317 2317 2317 2317 2317 2333 2333 2333 2333 2317 2317 2333 2333 2333 2333 2317 2317 2317 2317 2317 2317 2317 2333 2317 2317 2317 2317 2317 2333 2317 2317 2333 2333 2317 2317 2333 2317 2317 2301 2301 2301 2301 2317 2317 2317 2317 2317 2333 2333 2333 2333 2333 2333 2333 2317 2317 2317 2301 2301 2301 2286 2286 0 0 0 0 0 0 0 0 0
0 0 0 0 0 0 0 0 0 0 0 0 0 0 0 0 0 0 0 0 0 0 0 0 0 0 0 0 0 0 0 0 0 0 2065 2065 2065 2065 2065 2065 2065 2065 2065 2065 2065 2065 2065 2065 2078 2078 2078 2078 2078 2078 2078 2078 2065 2065 2065 2065 2065 2065 2078 2078 2078 2078 2078 2078 2078 2078 2065 2065 2065 2065 2065 2065 2065 2065 2065 2065 2065 2078 2078 2078 2090 2090 2090 2090 2090 2090 2090 2090 2090 2090 2078 2078 2090 2090 2090 2090 2090 2090 2090 2090 2090 2090 2090 2090 2090 2090 2090 2090 2090 2090 2103 2103 2103 2103 2103 2116 2116 2116 2116 2129 2129 2129 2116 2116 2116 2116 1823 1823 1823 1823 1823 1823 1823 1823 1823 1823 1823 1823 1823 1833 1843 1843 1853 1883 1894 1894 1904 1915 1915 1926 1936 1936 1947 2129 2129 2129 2129 2129 2129 2143 2143 2143 2143 2143 2143 2143 2143 2143 2143 2143 2143 2143 2143 2143 2143 2143 2143 2143 2143 2143 2156 2156 2156 2156 2156 2156 2156 2170 2156 2156 2156 2156 2156 2170 2170 2184 2184 2198 2198 1705 1705 1696 1696 1696 1705 1705 1705 1705 1705 1705 1713 1713 1713 1713 1713 1713 1713 2184 2184 2184 2184 2184 2198 2198 2198 2198 2198 2198 2198 2198 2198 2198 2198 2198 2198 2198 2198 2198 2198 2198 1557 1557 1550 1550 1550 1550 1550 1550 1550 1557 1557 1557 1564 1572 1572 1579 1579 1579 2184 2184 2184 2184 2198 2184 2184 2156 2090 2078 2078 2078 2090 2090 2090 2090 2103 2129 2143 2184 2198 2198 2198 2212 2198 2198 2212 2212 1926 1926 1926 1936 1936 1936 1947 1947 1496 1496 1496 1496 1489 1489 1489 1489 1489 1489 1489 1489 1489 1489 1483 1483 1483 1477 1477 1477 1477 1470 1470 1470 1470 1470 1470 1470 1464 1464 1464 1464 1458 1458 1452 1452 1452 1445 1445 1439 1439 1433 1433 1427 1421 1421 1415 1415 1415 1415 1415 1415 1415 1415 1427 1433 1439 1445 1452 1458 1464 1477 1483 1496 1503 1509 1509 1516 1529 2256 2256 2256 2271 2271 2271 2271 2271 2271 2271 2271 2271 2271 2271 2271 2271 2271 2271 2271 2271 2286 2286 2286 1804 1804 1804 1804 1804 1804 1804 1804 1804 1804 1804 1804 2286 2271 2271 2286 2286 2286 2286 2286 2286 2286 2286 2271 2271 2271 2271 2271 2271 2271 2271 2271 2271 2271 2271 2271 2286 2286 2271 2271 2271 1843 1843 1853 1853 1863 1863 1421 1421 1421 1421 1421 1421 1415 1415 1415 1415 1415 1410 1410 1410 1410 1410 1410 1410 1410 1410 1410 1410 1410 1410 1410 1410 1404 1404 1404 1404 1404 1398 1398 1392 1392 1392 2090 2090 2090 2103 2103 2103 2103 2116 2116 2271 2271 2286 2286 2286 2301 2301 2301 2301 2301 2301 2301 2301 2301 2301 2301 2286 2286 2271 2271 2286 2286 2286 2286 2286 2286 2286 2286 2286 2301 2301 2301 2301 2301 2301 2301 2286 2286 2301 2286 2286 2286 2301 2301 2301 2301 2301 2301 2301 2301 2301 2301 2301 2317 2317 2317 2317 2301 2301 2301 2301 2301 2301 2301 2301 2301 2301 2301 2301 2301 2301 2301 2301 2301 2301 2317 2317 2317 2317 2317 2317 2317 2317 2317 2317 2317 2317 2317 2317 2317 2317 2317 2317 2317 2317 2317 2317 2317 2333 2333 2333 2333 2317 2317 2317 2317 2317 2317 2317 2317 2317 2317 2317 2317 2317 2317 2317 2317 2317 2317 2317 2317 2317 2317 2317 2301 2301 2301 2301 2301 2301 2317 2317 2317 2317 2317 2317 2317 2317 2317 2317 2301 2301 2301 2301 2301 2286 2286 2286 0 0 0 0 0 0 0 0 0
0 0 0 0 0 0 0 0 0 0 0 0 0 0 0 0 0 0 0 0 0 0 0 0 0 0 0 0 0 0 0 0 0 0 2053 2053 2053 2053 2053 2053 2053 2053 2053 2053 2053 2053 2065 2065 2065 2065 2065 2065 2065 2065 2065 2065 2065 2065 2065 2065 2065 2065 2065 2078 2078 2078 2065 2065 2065 2065 2053 2053 2053 2053 2053 2065 2065 2065 2065 2065 2065 2065 2065 2065 2078 2078 2078 2078 2078 2078 2078 2078 2078 2078 2078 2078 2090 2090 2090 2090 2090 2090 2090 2090 2090 2090 2090 2090 2090 2090 2090 2090 2090 2090 2103 2103 2103 2103 2103 2103 2116 2116 2116 2116 2116 2116 2116 2116 2116 2116 1823 1823 1823 1823 1823 1823 1823 1823 1823 1823 1823 1823 1823 1833 1843 1843 1873 1883 1883 1894 1904 1904 1915 1915 1915 1947 1947 2116 2116 2116 2129 2129 2129 2129 2129 2129 2143 2143 2143 2143 2143 2143 2143 2143 2143 2143 2143 2143 2143 2143 2143 2143 2143 2143 2143 2143 2143 2143 2143 2143 2156 2156 2143 2143 2156 2156 2156 2156 2156 2170 2184 2198 2198 1705 1705 1705 1705 1705 1705 1705 1705 1705 1705 1705 1713 1713 1713 1713 1713 1713 1713 2184 2184 2184 2184 2184 2198 2198 2198 2198 2198 2198 2184 2184 2198 2198 2198 2198 2198 2198 2198 2198 1894 1894 1557 1557 1550 1550 1550 1550 1550 1557 1557 1557 1557 1557 1564 1572 1572 1579 1579 1579 2170 2170 2184 2184 2184 2184 2184 2143 2103 2090 2078 2078 2090 2090 2090 2103 2103 2129 2143 2170 2184 2184 2198 2198 2198 2198 2198 2198 1915 1915 1926 1926 1926 1936 1936 1936 1959 1970 1496 1496 1489 1489 1496 1496 1483 1483 1489 1489 1489 1489 1483 1483 1483 1483 1477 1477 1477 1470 1470 1470 1470 1470 1470 1470 1470 1464 1464 1464 1458 1458 1458 1452 1452 1445 1445 1439 1439 1433 1433 1427 1421 1421 1415 1415 1415 1415 1415 1415 1415 1427 1427 1433 1439 1445 1452 1458 1470 1483 1489 1496 1503 1509 1509 1523 2241 2256 2256 2256 2256 2256 2256 2256 2271 2271 2271 2271 2271 2271 2271 2271 2271 2271 2271 2271 2271 2271 2271 2271 1804 1804 1804 1804 1804 1804 1804 1804 1804 1804 1804 1804 2271 2271 2271 2271 2271 2271 2271 2286 2286 2286 2286 2271 2271 2271 2271 2271 2271 2271 2271 2271 2271 2271 2271 2271 2271 2271 2271 2271 2271 1843 1843 1853 1853 1863 1863 1427 1427 1427 1421 1421 1421 1421 1421 1415 1415 1415 1415 1410 1410 1410 1410 1410 1410 1410 1410 1410 1410 1410 1410 1410 1410 1410 1410 1404 1404 1404 1404 1398 1392 1392 1392 2090 2090 2090 2103 2103 2103 2116 2116 2116 2256 2271 2271 2286 2286 2286 2286 2286 2301 2301 2301 2301 2301 2301 2301 2301 2286 2286 2271 2271 2271 2271 2271 2271 2271 2271 2271 2271 2271 2286 2286 2286 2286 2286 2286 2286 2286 2286 2286 2286 2286 2286 2286 2286 2301 2286 2286 2286 2301 2301 2301 2301 2301 2301 2301 2301 2301 2301 2301 2301 2301 2301 2286 2286 2286 2286 2286 2301 2301 2301 2301 2301 2301 2301 2301 2301 2301 2317 2317 2317 2317 2317 2317 2317 2317 2317 2317 2317 2317 2317 2317 2317 2317 2317 2317 2317 2317 2317 2317 2317 2317 2317 2317 2317 2317 2317 2317 2301 2301 2317 2301 2301 2301 2301 2317 2317 2317 2317 2317 2317 2317 2317 2317 2301 2301 2301 2301 2301 2301 2301 2301 2301 2301 2301 2301 2301 2301 2301 2301 2301 2301 2301 2301 2301 2286 2286 2286 2271 2271 0 0 0 0 0 0 0 0 0
0 0 0 0 0 0 0 0 0 0 0 0 0 0 0 0 0 0 0 0 0 0 0 0 0 0 0 0 0 0 0 0 0 0 2053 2053 2053 2053 2053 2053 2053 2053 2053 2053 2053 2053 2053 2053 2053 2053 2065 2053 2053 2053 2053 2053 2053 2053 2053 2053 2053 2053 2053 2053 2053 2053 2053 2053 2053 2053 2040 2040 2053 2053 2053 2053 2053 2053 2053 2053 2053 2065 2065 2065 2065 2078 2078 2078 2078 2078 2078 2065 2065 2078 2065 2065 2078 2078 2078 2078 2078 2090 2090 2090 2090 2090 2090 2090 2090 2090 2090 2090 2090 2090 2090 2090 2103 2103 2103 2103 2103 2103 2103 2103 2103 2103 2103 2103 2103 2103 1813 1813 1823 1823 1823 1823 1823 1823 1823 1823 1823 1823 1823 1833 1843 1853 1873 1883 1883 1894 1904 1904 1904 1904 1915 2116 2116 2116 2116 2116 2116 2116 2129 2129 2129 2129 2129 2129 2129 2143 2143 2143 2143 2143 2129 2129 2129 2129 2143 2143 2129 2129 2143 2143 2143 2143 2143 2143 2143 2143 2143 2143 2143 2143 2143 2143 2143 2156 2156 2156 2156 2198 2198 1705 1705 1705 1705 1705 1705 1705 1705 1705 1705 1713 1713 1713 1713 1713 1713 1713 1722 2184 2184 2184 2184 2184 2184 2184 2184 2184 2184 2184 2184 2184 2184 2184 2184 2184 2184 2198 2198 1894 1894 1894 1557 1557 1550 1550 1550 1550 1550 1557 1557 1557 1557 1564 1564 1572 1579 1579 1579 1579 2156 2156 2170 2170 2170 2170 2170 2129 2103 2090 2078 2078 2090 2090 2090 2103 2103 2129 2143 2170 2184 2184 2198 2198 2198 2198 2198 1915 1915 1915 1926 1926 1926 1936 1936 1936 1947 1959 1959 1970 1496 1496 1496 1496 1483 1483 1483 1489 1489 1489 1483 1483 1483 1483 1477 1477 1477 1477 1477 1470 1470 1470 1470 1470 1470 1464 1464 1464 1458 1458 1458 1452 1452 1445 1445 1439 1439 1439 1433 1427 1427 1421 1421 1415 1415 1415 1415 1415 1421 1427 1433 1433 1439 1445 1452 1458 1470 1483 1489 1496 1503 1509 1509 1529 2226 2241 2241 2241 2241 2241 2256 2256 2256 2256 2256 2256 2256 2256 2256 2256 2256 2256 2256 2256 2256 2271 2271 2271 1804 1804 1804 1804 1804 1804 1804 1804 1804 1804 1804 1804 2271 2271 2271 2271 2271 2271 2271 2271 2271 2271 2286 2256 2256 2271 2271 2271 2256 2256 2256 2271 2256 2256 2256 2271 2271 2271 2256 2256 1863 1853 1853 1853 1853 1863 1863 1427 1427 1421 1421 1421 1421 1421 1415 1415 1415 1415 1415 1415 1415 1415 1415 1410 1410 1410 1410 1410 1410 1410 1410 1410 1410 1410 1410 1410 1404 1404 1404 1398 1398 1392 1392 2090 2090 2090 2103 2103 2103 2116 2116 2116 2256 2256 2271 2271 2271 2271 2271 2271 2271 2271 2271 2286 2271 2271 2286 2286 2271 2271 2271 2271 2271 2271 2271 2256 2256 2271 2271 2271 2271 2271 2286 2286 2286 2286 2286 2286 2271 2271 2286 2286 2286 2286 2286 2286 2286 2286 2286 2286 2286 2286 2286 2286 2286 2301 2301 2301 2301 2301 2286 2286 2286 2286 2286 2286 2286 2286 2286 2286 2286 2286 2286 2286 2286 2301 2301 2301 2301 2317 2317 2317 2317 2317 2317 2301 2301 2301 2301 2301 2301 2301 2301 2301 2317 2317 2317 2317 2317 2317 2317 2317 2317 2317 2301 2301 2317 2301 2301 2301 2301 2301 2301 2301 2301 2301 2301 2301 2301 2301 2301 2301 2301 2301 2301 2301 2301 2286 2286 2301 2301 2301 2301 2301 2301 2301 2301 2301 2301 2301 2301 2301 2301 2301 2301 2286 2286 2286 2286 2271 2271 0 0 0 0 0 0 0 0 0
0 0 0 0 0 0 0 0 0 0 0 0 0 0 0 0 0 0 0 0 0 0 0 0 0 0 0 0 0 0 0 0 0 0 2040 2040 2040 2040 2040 2053 2053 2053 2053 2053 2053 2053 2053 2053 2053 2053 2053 2053 2053 2040 2040 2040 2053 2053 2053 2053 2053 2053 2053 2040 2040 2053 2053 2053 2053 2053 2040 2040 2040 2053 2053 2053 2053 2053 2053 2053 2053 2053 2053 2053 2053 2065 2065 2065 2065 2065 2065 2065 2065 2065 2065 2065 2065 2065 2065 2065 2065 2065 2078 2078 2078 2078 2078 2078 2078 2078 2078 2090 2090 2090 2090 2090 2103 2103 2103 2103 2103 2103 2103 2103 2103 2103 2103 2103 2103 2103 1813 1813 1823 1823 1823 1823 1823 1823 1823 1823 1823 1823 1833 1843 1843 1853 1873 1883 1883 1894 1894 1904 1904 1904 2116 2116 2103 2103 2116 2116 2116 2116 2116 2116 2116 2116 2129 2129 2129 2129 2129 2129 2129 2129 2129 2129 2129 2129 2129 2129 2129 2129 2129 2129 2129 2143 2143 2143 2143 2143 2143 2143 2143 2143 2143 2143 2143 2143 2156 2156 2156 2156 1713 1705 1705 1705 1705 1705 1705 1705 1705 1705 1705 1713 1713 1713 1713 1713 1713 1713 1722 2170 2170 2170 2184 2184 2184 2184 2184 2184 2184 2184 2184 2184 2184 2184 2184 2184 2184 2184 2184 1894 1894 1894 1894 1557 1557 1557 1557 1557 1557 1557 1557 1557 1557 1564 1564 1579 1579 1579 1586 1586 1601 2143 2156 2170 2170 2170 2156 2129 2116 2090 2078 2078 2090 2090 2090 2103 2103 2129 2143 2170 2184 2184 2184 2184 2198 1915 1915 1915 1915 1915 1926 1926 1926 1936 1936 1936 1947 1959 1959 1970 1970 1970 1970 1496 1483 1483 1483 1489 1489 1489 1489 1489 1483 1483 1477 1477 1477 1477 1477 1477 1477 1470 1470 1470 1470 1470 1464 1464 1458 1458 1458 1458 1452 1452 1452 1439 1439 1439 1433 1433 1427 1427 1421 1421 1415 1415 1415 1421 1421 1427 1433 1433 1439 1445 1452 1464 1470 1483 1489 1496 1503 1509 2226 2226 2226 2226 2241 2241 2241 2241 2241 2241 2241 2241 2241 2241 2241 2241 2241 2256 2241 2241 2241 2256 2256 2256 2271 1804 1804 1804 1804 1804 1804 1804 1804 1804 1804 1804 1813 1813 1843 2256 2256 2271 2271 2271 2271 2271 2271 2271 2271 2256 2256 2256 2256 2256 2256 2256 2256 2256 2256 2256 2256 2256 2256 2256 2256 2256 1863 1863 1863 1863 1863 1863 1863 1427 1427 1421 1421 1421 1421 1421 1415 1415 1415 1415 1415 1415 1415 1415 1415 1415 1410 1410 1410 1410 1410 1410 1410 1410 1410 1410 1410 1410 1404 1404 1404 1404 1404 1404 1410 2090 2090 2103 2103 2103 2103 2116 2116 2143 2241 2256 2256 2256 2256 2256 2256 2256 2271 2271 2271 2271 2271 2271 2271 2271 2256 2256 2256 2256 2256 2256 2256 2256 2256 2256 2256 2256 2256 2256 2256 2256 2256 2256 2256 2271 2271 2271 2271 2271 2271 2286 2286 2286 2286 2286 2271 2271 2271 2271 2271 2271 2271 2286 2286 2286 2286 2286 2286 2286 2271 2271 2286 2286 2286 2286 2271 2271 2271 2271 2271 2271 2271 2286 2301 2301 2301 2301 2301 2317 2301 2301 2301 2301 2301 2301 2301 2301 2301 2301 2301 2301 2301 2301 2317 2301 2301 2317 2317 2317 2317 2317 2301 2301 2301 2301 2301 2301 2301 2301 2301 2301 2301 2301 2301 2301 2301 2301 2301 2301 2301 2301 2301 2301 2301 2286 2286 2301 2301 2301 2301 2301 2286 2286 2286 2286 2286 2286 2286 2286 2286 2286 2286 2286 2286 2271 2271 2256 2256 0 0 0 0 0 0 0 0 0
0 0 0 0 0 0 0 0 0 0 0 0 0 0 0 0 0 0 0 0 0 0 0 0 0 0 0 0 0 0 0 0 0 0 2028 2028 2028 2028 2028 2040 2040 2040 2040 2040 2040 2040 2040 2040 2040 2040 2040 2040 2040 2040 2040 2040 2040 2053 2053 2053 2040 2040 2040 2040 2040 2040 2040 2040 2053 2053 2040 2040 2040 2040 2040 2040 2040 2040 2040 2040 2040 2053 2053 2053 2053 2053 2053 2053 2053 2053 2053 2053 2053 2065 2053 2053 2053 2053 2053 2053 2053 2053 2065 2065 2065 2065 2065 2065 2065 2065 2065 2078 2078 2078 2078 2090 2090 2090 2090 2090 2090 2090 2090 2078 2078 2078 2090 2090 2090 2090 1813 1813 1823 1823 1823 1823 1823 1823 1823 1823 1823 1833 1833 1843 1853 1863 1873 1883 1883 1894 1894 1904 1904 1904 2103 2103 2103 2103 2103 2103 2103 2116 2116 2116 2116 2116 2116 2116 2129 2129 2116 2116 2116 2116 2116 2116 2116 2116 2129 2129 2129 2129 2129 2129 2129 2129 2129 2129 2129 2129 2143 2143 2143 2143 2143 2143 2143 2143 2143 2143 2143 2143 1713 1713 1713 1705 1705 1705 1705 1705 1705 1705 1705 1713 1713 1713 1713 1713 1722 1722 1731 2143 2170 2170 2170 2170 2170 2170 2170 2170 2170 2170 2170 2170 2184 2184 2184 2184 2184 1904 1904 1904 1894 1894 1894 1557 1557 1557 1557 1557 1557 1557 1557 1564 1564 1572 1572 1579 1579 1586 1586 1594 1601 2143 2156 2156 2156 2156 2156 2129 2116 2090 2078 2078 2090 2090 2090 2103 2116 2129 2143 2170 2170 2184 2184 2184 1894 1894 1904 1904 1904 1915 1926 1926 1926 1936 1936 1936 1947 1959 1970 1970 1970 1970 1970 2184 1483 1483 2184 1489 1489 1489 1489 1489 1489 1483 1477 1470 1470 1477 1477 1470 1470 1477 1477 1470 1470 1470 1470 1464 1458 1458 1458 1452 1452 1452 1445 1439 1439 1439 1433 1433 1427 1427 1427 1427 1421 1415 1415 1421 1427 1427 1433 1439 1439 1445 1452 1464 1470 1483 1489 1489 2212 2212 2212 2212 2226 2226 2226 2226 2226 2226 2226 2226 2226 2226 2226 2226 2226 2226 2226 2241 2241 2241 2241 2241 2241 2241 2241 1804 1804 1804 1804 1804 1804 1804 1804 1804 1804 1804 1804 1833 1843 2256 2256 2256 2256 2256 2256 2256 2271 2271 2271 2256 2256 2256 2241 2241 2241 2241 2241 2241 2256 2241 2241 2256 2256 2256 2241 2241 1863 1863 1863 1863 1863 1863 1863 1863 1427 1421 1421 1421 1421 1421 1415 1415 1415 1421 1421 1421 1415 1415 1415 1415 1410 1410 1415 1410 1410 1410 1410 1410 1410 1410 1410 1410 1410 1410 1410 1404 1404 1404 1410 1410 1404 1404 1404 2103 2116 2116 2129 2143 2241 2241 2256 2256 2256 2256 2256 2256 2256 2271 2271 2271 2256 2256 2271 2271 2256 2256 2256 2256 2256 2256 2256 2256 2256 2256 2256 2256 2256 2256 2256 2256 2256 2256 2256 2256 2256 2256 2256 2256 2256 2271 2271 2271 2271 2256 2256 2256 2256 2256 2256 2256 2256 2256 2271 2256 2256 2271 2256 2256 2256 2256 2271 2271 2271 2271 2271 2271 2271 2256 2256 2256 2271 2271 2286 2286 2301 2301 2301 2301 2301 2301 2301 2301 2301 2301 2301 2301 2301 2301 2301 2301 2301 2301 2301 2301 2301 2301 2317 2301 2301 2301 2301 2301 2286 2286 2286 2286 2286 2286 2286 2286 2286 2286 2286 2286 2286 2286 2286 2286 2286 2286 2286 2286 2286 2286 2301 2301 2301 2286 2286 2286 2286 2286 2286 2286 2286 2286 2286 2286 2286 2286 2286 2286 2286 2271 2271 2256 2256 0 0 0 0 0 0 0 0 0
0 0 0 0 0 0 0 0 0 0 0 0 0 0 0 0 0 0 0 0 0 0 0 0 0 0 0 0 0 0 0 0 0 0 2016 2016 2016 2016 2016 2028 2028 2028 2028 2028 2040 2040 2028 2028 2028 2028 2028 2028 2028 2028 2028 2040 2040 2040 2040 2040 2040 2040 2028 2028 2028 2028 2040 2040 2040 2053 2040 2040 2040 2040 2040 2040 2040 2040 2040 2040 2040 2040 2040 2040 2053 2053 2053 2053 2053 2053 2053 2053 2053 2053 2053 2053 2053 2053 2053 2053 2053 2053 2053 2053 2065 2065 2065 2065 2065 2065 2065 2065 2078 2078 2078 2078 2078 2078 2078 2078 2078 2090 2090 2078 2078 2078 2078 2090 2090 2090 1813 1813 1823 1823 1823 1823 1823 1823 1823 1823 1823 1833 1833 1843 1853 1863 1873 1883 1883 1894 1904 1904 1915 2090 2090 2103 2103 2103 2103 2090 2090 2103 2103 2090 2090 2090 2090 2090 2103 2103 2103 2103 2116 2116 2116 2116 2116 2116 2116 2129 2129 2129 2129 2129 2129 2129 2129 2129 2129 2129 2129 2129 2129 2129 2129 2129 2129 2129 2143 2143 2143 2143 1713 1713 1713 1713 1713 1713 1713 1705 1705 1705 1713 1713 1713 1713 1713 1713 1722 1731 1776 2143 2143 2143 2170 2156 2156 2156 2156 2156 2156 2170 2170 2170 2184 2184 2184 2184 1883 1883 1894 1894 1894 1894 1894 1564 1557 1557 1564 1557 1557 1564 1564 1564 1564 1572 1579 1579 1586 1586 1594 1601 1601 2156 2156 2156 2156 2156 2156 2129 2116 2090 2078 2078 2090 2090 2090 2103 2116 2129 2156 2170 2170 2184 1894 1894 1894 1894 1904 1904 1904 1915 1926 1926 1926 1936 1936 1936 1947 1959 1970 1981 1970 1970 1970 2170 2170 2170 2184 2170 2170 2184 2184 2170 2170 2170 2170 1470 1470 1470 1470 1470 1470 1477 1477 1470 1470 1470 1470 1464 1458 1458 1458 1452 1452 1452 1445 1439 1439 1439 1433 1433 1427 1427 1427 1427 1421 1421 1421 1421 1427 1433 1433 1439 1445 1445 1458 1470 1477 1483 1489 1489 2198 2198 2212 2212 2212 2226 2226 2226 2226 2226 2226 2226 2226 2212 2212 2212 2226 2226 2226 2226 2226 2226 2226 2226 2226 2226 2226 1794 1794 1804 1804 1804 1804 1804 1804 1804 1804 1804 1804 1823 1833 2256 2256 2256 2256 2256 2256 2256 2256 2256 2256 2241 2241 2241 2226 2226 2226 2226 2226 2241 2241 2241 2241 2241 2256 2241 2241 2241 1853 1853 1863 1863 1863 1863 1863 1863 1863 1863 1421 1421 1421 1421 1415 1415 1421 1421 1421 1421 1415 1415 1415 1415 1415 1415 1415 1415 1415 1415 1410 1410 1410 1410 1410 1410 1410 1410 1410 1410 1410 1410 1410 1404 1404 1404 1404 2103 2116 2116 2143 2184 2241 2241 2256 2256 2256 2256 2256 2256 2256 2256 2256 2256 2256 2256 2256 2256 2241 2241 2241 2241 2241 2241 2241 2241 2241 2241 2241 2241 2241 2241 2241 2241 2256 2256 2256 2256 2256 2256 2256 2256 2256 2256 2256 2256 2256 2256 2256 2256 2256 2256 2256 2256 2256 2256 2256 2256 2256 2256 2256 2256 2256 2256 2256 2256 2256 2256 2256 2256 2256 2256 2256 2256 2256 2256 2271 2271 2271 2271 2286 2301 2301 2301 2301 2301 2301 2301 2301 2301 2301 2301 2286 2286 2301 2301 2301 2301 2301 2301 2301 2301 2301 2301 2286 2286 2286 2286 2286 2286 2286 2286 2286 2286 2286 2286 2286 2286 2286 2271 2271 2271 2271 2271 2271 2271 2286 2286 2286 2286 2286 2286 2286 2286 2286 2271 2271 2271 2286 2286 2286 2286 2286 2286 2286 2286 2271 2271 2271 2256 2256 0 0 0 0 0 0 0 0 0
0 0 0 0 0 0 0 0 0 0 0 0 0 0 0 0 0 0 0 0 0 0 0 0 0 0 0 0 0 0 0 0 0 0 2016 2016 2016 2016 2016 2016 2016 2016 2016 2016 2016 2016 2016 2016 2016 2016 2016 2016 2016 2016 2016 2028 2040 2040 2040 2040 2028 2028 2016 2016 2016 2028 2028 2028 2040 2040 2040 2040 2040 2028 2028 2040 2040 2040 2040 2040 2040 2040 2040 2040 2040 2040 2040 2040 2040 2040 2040 2053 2053 2053 2053 2053 2053 2053 2053 2053 2053 2053 2053 2053 2053 2053 2053 2053 2053 2065 2065 2065 2065 2065 2078 2078 2078 2065 2065 2065 2065 2078 2065 2065 2065 2065 2078 2078 2078 2078 1823 1823 1823 1823 1823 1823 1823 1823 1823 1823 1833 1833 1833 1843 1853 1873 1873 1883 1883 1894 1904 1915 2078 2078 2090 2103 2090 2090 2090 2090 2090 2090 2090 2090 2090 2090 2090 2090 2090 2090 2090 2090 2090 2103 2103 2103 2103 2090 2090 2103 2103 2103 2103 2103 2116 2116 2116 2116 2116 2116 2116 2116 2116 2116 2129 2116 2116 2116 2129 2129 2129 2129 1713 1713 1713 1713 1713 1713 1713 1713 1713 1713 1713 1713 1713 1713 1713 1722 1722 1731 1731 2129 2129 2129 2143 2143 2143 2143 2143 2143 2143 2156 2156 2156 2170 1873 1873 1873 1873 1883 1894 1894 1894 1894 1894 1564 1564 1564 1564 1564 1564 1564 1564 1572 1572 1572 1579 1579 1586 1586 1586 1594 1601 2143 2143 2156 2156 2156 2143 2129 2116 2090 2090 2090 2090 2090 2090 2103 2116 2129 2156 2156 2170 2170 1894 1894 1894 1894 1894 1894 1904 1904 1915 1926 1936 1936 1936 1947 1959 1970 1970 1981 1981 1981 2170 2170 2170 2170 2170 2170 2170 2184 2184 2170 2170 2170 2170 2170 1477 1470 1470 1470 1470 1477 1477 1470 1470 1470 1470 1470 1458 1458 1458 1458 1458 1452 1452 1445 1439 1439 1433 1433 1427 1427 1427 1427 1421 1421 1421 1427 1427 1433 1433 1439 1445 1445 1458 1464 1470 1483 1489 1489 2198 2198 2212 2212 2212 2212 2226 2226 2226 2226 2226 2212 2212 2212 2212 2212 2212 2212 2212 2226 2226 2226 2226 2212 2212 2212 2212 1794 1794 1804 1804 1804 1813 1804 1804 1804 1804 1804 1804 1813 1813 2241 2241 2241 2241 2241 2241 2241 2241 2241 2241 2226 2226 2226 2226 2226 2226 2226 2226 2226 2226 2226 2226 2241 2241 2226 2226 2226 1853 1853 1863 1863 1863 1863 1863 1863 1863 1863 1863 1421 1421 1421 1421 1421 1421 1427 1427 1421 1421 1421 1421 1421 1415 1415 1415 1415 1415 1415 1410 1410 1410 1410 1410 1410 1410 1410 1410 1410 1410 1410 1404 1404 1404 1404 1404 2116 2116 2129 2156 2198 2241 2241 2241 2256 2256 2256 2256 2256 2256 2256 2256 2256 2256 2256 2256 2256 2241 2241 2241 2241 2241 2241 2241 2241 2241 2241 2241 2241 2241 2241 2241 2241 2241 2241 2241 2241 2256 2256 2256 2256 2256 2256 2256 2241 2241 2241 2241 2241 2241 2256 2256 2256 2256 2256 2256 2256 2256 2256 2256 2256 2256 2256 2256 2256 2256 2256 2256 2256 2256 2256 2256 2256 2256 2256 2256 2256 2256 2256 2256 2256 2271 2271 2271 2271 2271 2286 2286 2286 2286 2286 2271 2271 2286 2286 2286 2286 2286 2286 2286 2286 2286 2286 2271 2271 2286 2271 2271 2271 2271 2271 2271 2271 2271 2271 2271 2271 2271 2256 2256 2256 2256 2256 2256 2256 2271 2271 2286 2271 2271 2271 2271 2271 2271 2271 2256 2256 2271 2256 2256 2271 2271 2271 2271 2271 2256 2256 2256 2241 2241 0 0 0 0 0 0 0 0 0
0 0 0 0 0 0 0 0 0 0 0 0 0 0 0 0 0 0 0 0 0 0 0 0 0 0 0 0 0 0 0 0 0 0 2005 2005 2005 2016 2016 2016 2016 2016 2016 2016 2016 2016 2016 2016 2016 2016 2016 2016 2016 2016 2016 2028 2028 2028 2028 2028 2016 2016 2016 2016 2016 2016 2028 2028 2040 2040 2040 2040 2028 2028 2028 2028 2028 2028 2028 2028 2028 2028 2040 2040 2040 2040 2040 2040 2040 2040 2040 2040 2040 2040 2053 2053 2053 2053 2040 2040 2040 2040 2040 2040 2053 2053 2053 2053 2053 2053 2053 2065 2065 2065 2065 2078 2078 2065 2053 2053 2053 2065 2065 2053 2053 2053 2065 2065 2065 1833 1823 1823 1823 1823 1823 1823 1823 1823 1823 1823 1833 1833 1843 1853 1863 1873 1873 1883 1894 1904 1959 2040 2053 2065 2078 2090 2090 2090 2090 2090 2090 2090 2090 2090 2090 2090 2090 2090 2090 2090 2090 2090 2090 2090 2090 2090 2090 2090 2090 2090 2090 2090 2103 2103 2103 2103 2103 2103 2103 2103 2103 2103 2103 2116 2116 2116 2116 2116 2116 2116 2116 2116 1713 1713 1713 1713 1713 1713 1713 1713 1713 1713 1713 1713 1713 1713 1713 1722 1731 1731 1731 2103 2116 2116 2129 2129 2129 2143 2143 2143 2143 2143 2129 2129 1863 1863 1873 1873 1873 1883 1894 1894 1894 1894 1894 1564 1564 1564 1564 1564 1564 1564 1564 1564 1572 1572 1579 1579 1586 1586 1586 1594 1601 2129 2143 2143 2143 2143 2143 2129 2116 2103 2090 2090 2090 2090 2090 2103 2116 2143 2156 2156 2170 2170 1883 1883 1883 1894 1894 1894 1904 1904 1915 1926 1936 1936 1947 1947 1959 1970 1981 1981 1981 1981 2170 2170 2170 2170 2170 2170 2170 2184 2170 2170 2170 2170 2170 2156 2156 2156 1477 1470 1470 1483 1477 1470 1470 1470 1470 1470 1458 1458 1458 1452 1452 1452 1452 1445 1445 1439 1433 1433 1427 1427 1427 1427 1427 1421 1421 1427 1427 1433 1433 1439 1445 1452 1452 1464 1470 1483 1489 1489 2198 2198 2198 2198 2212 2212 2212 2212 2212 2212 2212 2212 2212 2212 2212 2212 2212 2212 2212 2212 2212 2212 2212 2198 2198 2198 2198 1794 1794 1804 1804 1804 1813 1804 1804 1804 1804 1804 1804 1813 1813 1813 2226 2226 2226 2226 2226 2226 2226 2226 2241 2226 2226 2226 2212 2212 2212 2212 2212 2212 2212 2212 2226 2241 2241 2226 2226 2226 1863 1863 1863 1863 1863 1863 1863 1863 1863 1863 1863 1421 1421 1421 1421 1421 1421 1427 1427 1427 1421 1421 1421 1421 1421 1421 1421 1415 1415 1415 1410 1410 1410 1410 1410 1410 1410 1410 1415 1415 1410 1404 1404 1404 1404 1404 1404 2116 2129 2129 2156 2198 2226 2226 2241 2241 2241 2241 2241 2241 2241 2256 2256 2256 2241 2241 2241 2256 2241 2241 2241 2241 2241 2241 2241 2241 2241 2241 2241 2241 2241 2241 2241 2226 2226 2241 2241 2241 2256 2256 2256 2256 2241 2241 2241 2241 2241 2241 2241 2241 2241 2241 2241 2256 2241 2241 2256 2241 2241 2241 2241 2241 2241 2241 2241 2256 2256 2256 2256 2256 2256 2256 2256 2256 2256 2256 2256 2256 2256 2256 2256 2256 2256 2256 2256 2256 2271 2271 2271 2271 2271 2271 2271 2271 2271 2271 2271 2271 2271 2271 2271 2271 2271 2286 2271 2271 2271 2271 2271 2271 2256 2256 2256 2271 2271 2271 2271 2256 2256 2256 2241 2241 2241 2241 2241 2256 2256 2256 2256 2256 2256 2256 2256 2256 2256 2256 2256 2256 2256 2256 2256 2256 2256 2256 2271 2256 2256 2256 2241 2241 2241 0 0 0 0 0 0 0 0 0
0 0 0 0 0 0 0 0 0 0 0 0 0 0 0 0 0 0 0 0 0 0 0 0 0 0 0 0 0 0 0 0 0 0 2005 2005 2005 2005 2005 2016 2016 2016 2016 2016 2005 2005 2005 2005 2005 2005 2005 2016 2016 2016 2016 2016 2028 2028 2028 2016 2016 2016 2016 2016 2016 2016 2016 2028 2028 2040 2028 2028 2028 2016 2016 2016 2016 2016 2016 2016 2016 2016 2028 2028 2028 2028 2016 2016 2028 2028 2028 2028 2040 2040 2040 2040 2040 2040 2040 2040 2040 2040 2040 2040 2040 2040 2040 2040 2053 2053 2053 2053 2053 2053 2053 2065 2065 2053 2053 2053 2053 2053 2053 2053 2053 2053 2053 2065 2065 1833 1823 1823 1823 1823 1823 1823 1823 1823 1823 1823 1833 1833 1843 1853 1863 1873 1873 1883 1904 1915 1959 2005 2053 2065 2078 2090 2078 2078 2078 2078 2078 2090 2078 2078 2078 2078 2078 2078 2090 2090 2090 2090 2090 2090 2090 2090 2090 2090 2090 2090 2090 2090 2090 2090 2103 2103 2103 2103 2103 2103 2103 2103 2103 2103 2116 2103 2103 2116 2116 2103 2103 2103 1722 1713 1713 1713 1713 1713 1713 1713 1713 1713 1713 1713 1713 1722 1722 1722 1731 1731 1739 2103 2103 2116 2129 2129 2129 2129 2129 2129 2143 1863 1863 1863 1863 1863 1863 1873 1873 1873 1883 1883 1883 1883 1883 1557 1557 1564 1564 1564 1564 1564 1564 1564 1572 1572 1579 1579 1586 1586 1594 1601 1601 2116 2129 2129 2129 2129 2129 2129 2116 2103 2090 2090 2090 2090 2090 2103 2116 2143 2143 2156 2156 2170 1883 1883 1883 1883 1894 1894 1894 1904 1915 1926 1936 1936 1947 1959 1970 1970 1981 1993 1981 1981 2156 2156 2156 2170 2170 2170 2170 2170 2170 2170 2170 2170 2170 2156 2156 2156 2156 1483 1483 1483 1483 1470 1470 1470 1470 1470 1458 1458 1458 1452 1452 1452 1452 1445 1445 1439 1439 1433 1433 1427 1427 1427 1427 1427 1427 1427 1433 1433 1433 1439 1439 1445 1452 1464 1483 1483 2170 2170 2170 2184 2184 2198 2198 2198 2198 2212 2212 2212 2212 2198 2198 2198 2198 2198 2198 2198 2198 2198 2198 2198 2198 2184 2184 2184 2184 1804 1804 1804 1813 1813 1813 1804 1804 1813 1813 1813 1813 1813 1813 1813 1833 2212 2212 2212 2226 2226 2226 2226 2226 2212 2212 2212 2212 2212 2212 2212 2212 2212 2212 2212 2212 2226 2226 2226 2226 2226 1863 1863 1863 1863 1873 1863 1863 1863 1863 1863 1863 1863 1427 1427 1421 1421 1421 1427 1427 1427 1427 1427 1427 1427 1421 1421 1421 1415 1415 1415 1410 1410 1410 1410 1410 1410 1410 1410 1415 2116 2116 1404 1404 1404 1404 1404 2129 2129 2129 2143 2156 2198 2226 2226 2226 2241 2241 2241 2241 2241 2241 2256 2241 2241 2241 2241 2241 2241 2226 2226 2226 2226 2226 2226 2226 2226 2241 2241 2241 2241 2226 2226 2226 2226 2226 2226 2226 2226 2241 2241 2241 2241 2241 2241 2241 2226 2226 2226 2241 2241 2241 2241 2241 2241 2241 2241 2241 2241 2241 2241 2241 2241 2241 2241 2241 2241 2241 2241 2241 2241 2241 2241 2241 2241 2241 2241 2241 2241 2241 2241 2241 2241 2241 2256 2256 2256 2256 2256 2256 2256 2256 2256 2256 2256 2256 2256 2256 2256 2256 2256 2256 2256 2256 2271 2256 2256 2256 2256 2256 2256 2256 2256 2256 2256 2256 2241 2241 2241 2241 2241 2241 2241 2241 2241 2241 2241 2256 2241 2241 2256 2256 2241 2241 2256 2256 2256 2256 2256 2256 2256 2256 2256 2256 2256 2256 2256 2256 2256 2241 2226 2226 0 0 0 0 0 0 0 0 0
0 0 0 0 0 0 0 0 0 0 0 0 0 0 0 0 0 0 0 0 0 0 0 0 0 0 0 0 0 0 0 0 0 0 2005 2005 2005 2005 2005 2005 2005 2005 2005 2005 1993 1993 1993 1993 1993 1993 2005 2005 2005 2016 2016 2016 2016 2016 2016 2016 2016 2005 2005 2005 2016 2016 2016 2016 2016 2028 2016 2016 2016 2016 2005 2005 2016 2005 2005 2005 2005 2005 2016 2016 2016 2016 2016 2016 2016 2016 2028 2028 2028 2028 2028 2040 2028 2028 2028 2028 2028 2028 2028 2028 2040 2040 2040 2040 2040 2053 2053 2053 2053 2053 2053 2053 2053 2040 2040 2040 2040 2053 2053 2053 2053 2053 2053 2053 2053 1833 1823 1823 1823 1823 1823 1823 1823 1823 1823 1823 1833 1833 1853 1863 1863 1873 1883 1904 1936 1947 1970 2005 2040 2053 2065 2078 2078 2078 2078 2078 2078 2078 2078 2078 2078 2078 2078 2078 2078 2078 2078 2078 2090 2090 2090 2090 2090 2090 2090 2090 2090 2090 2090 2090 2090 2090 2090 2090 2090 2090 2090 2090 2090 2090 2103 2103 2103 2103 2103 2090 2090 2090 1722 1713 1713 1713 1713 1713 1713 1713 1713 1713 1713 1722 1722 1722 1722 1722 1731 1739 1748 2103 2103 2116 2116 2129 2129 2129 2129 2129 1863 1863 1863 1863 1863 1863 1863 1873 1873 1873 1883 1883 1883 1883 1883 1557 1557 1564 1564 1564 1564 1564 1572 1572 1572 1579 1579 1586 1586 1586 1594 1601 1601 2116 2116 2129 2129 2129 2129 2116 2116 2103 2103 2103 2103 2103 2103 2116 2116 2129 2143 2143 2143 1873 1873 1873 1883 1883 1883 1894 1894 1904 1915 1926 1936 1936 1947 1959 1970 1981 1981 2005 2005 2005 2129 2129 2143 2156 2170 2170 2170 2170 2170 2170 2170 2170 2170 2156 2156 2156 2156 2156 1483 1483 1483 1477 1470 1470 1470 1470 1458 1458 1452 1452 1452 1452 1452 1445 1445 1439 1439 1439 1433 1433 1433 1433 1427 1427 1427 1427 1433 1433 1433 1439 1439 1445 1452 1464 1464 2184 2170 2170 2170 2170 2184 2184 2198 2198 2198 2198 2198 2198 2198 2198 2198 2198 2198 2198 2198 2198 2198 2198 2198 2198 2198 2184 2184 2184 2198 1804 1804 1804 1813 1813 1813 1813 1813 1813 1813 1823 1823 1823 1823 1823 1823 2212 2212 2212 2212 2212 2226 2226 2226 2212 2212 2212 2212 2212 2212 2212 2212 2212 2212 2212 2212 2226 2226 2226 2226 2226 1873 1873 1863 1863 1873 1873 1863 1863 1863 1863 1863 0 1433 1433 1427 1427 1427 1427 1427 1427 1427 1427 1427 1427 1427 1421 1421 1415 1415 1415 1410 1410 1410 1410 1410 1410 1415 1415 1415 2116 2116 1404 1404 2116 2116 2116 2129 2129 2143 2143 2170 2198 2212 2212 2226 2226 2226 2226 2226 2226 2241 2241 2241 2241 2226 2226 2226 2226 2212 2212 2226 2226 2226 2226 2226 2226 2226 2226 2226 2226 2226 2212 2212 2212 2212 2212 2226 2226 2241 2241 2241 2241 2226 2226 2226 2212 2212 2226 2226 2226 2226 2241 2241 2241 2241 2241 2241 2241 2241 2241 2241 2226 2226 2241 2241 2241 2241 2241 2241 2241 2241 2241 2241 2241 2241 2241 2241 2226 2226 2241 2241 2241 2241 2241 2241 2241 2241 2241 2256 2256 2241 2241 2241 2241 2256 2256 2256 2256 2256 2256 2256 2256 2256 2256 2241 2241 2241 2241 2241 2241 2241 2241 2241 2241 2241 2241 2241 2241 2241 2241 2241 2241 2241 2241 2241 2241 2241 2241 2241 2241 2241 2241 2241 2241 2241 2241 2241 2241 2241 2241 2241 2241 2241 2241 2241 2241 2241 2241 2241 2226 2226 0 0 0 0 0 0 0 0 0
0 0 0 0 0 0 0 0 0 0 0 0 0 0 0 0 0 0 0 0 0 0 0 0 0 0 0 0 0 0 0 0 0 0 2005 2005 2005 2005 2005 2005 2005 2005 1993 1993 1981 1981 1981 1981 1981 1981 1993 1993 2005 2005 2005 2016 2016 2016 2005 2005 2005 2005 2005 2005 2005 2016 2016 2016 2016 2016 2016 2016 2005 2005 2005 2005 2016 2005 2005 2005 2005 2005 2016 2016 2016 2016 2016 2016 2016 2016 2016 2016 2028 2028 2028 2028 2016 2016 2016 2016 2028 2028 2028 2028 2028 2040 2040 2040 2040 2053 2053 2053 2053 2053 2053 2040 2040 2040 2040 2040 2040 2040 2040 2040 2040 2053 2053 2053 2053 1833 1833 1833 1823 1823 1823 1823 1823 1823 1823 1833 1833 1833 1843 1863 1873 1883 1915 1936 1947 1970 1993 2005 2040 2053 2065 2078 2065 2065 2065 2065 2078 2078 2065 2065 2078 2078 2078 2078 2078 2078 2078 2078 2078 2078 2078 2090 2090 2078 2078 2090 2090 2090 2090 2090 2090 2090 2090 2090 2090 2090 2090 2090 2090 2090 2090 2090 2090 2090 2090 2090 2090 2090 2090 1713 1713 1713 1713 1713 1713 1713 1713 1713 1722 1722 1722 1731 1731 1731 1739 1739 1748 2103 2103 2103 2116 2116 2116 2116 2129 1853 1853 1853 1853 1863 1863 1863 1863 1863 1873 1873 1883 1883 1883 1883 1579 1564 1564 1572 1564 1564 1564 1564 1572 1572 1572 1579 1579 1586 1586 1586 1594 1601 2116 2116 2116 2116 2116 2116 2116 2116 2116 2103 2103 2103 2103 2103 2103 2116 2116 2129 2143 2143 1863 1863 1863 1873 1873 1883 1883 1894 1894 1894 1894 1926 1936 1936 1947 1970 1970 1981 1981 2005 2005 2028 2090 2103 2116 2143 2156 2156 2156 2170 2170 2170 2170 2156 2156 2156 2156 2156 2156 2156 2143 2143 2143 2156 1477 1470 1470 1470 1458 1458 1452 1452 1452 1452 1452 1445 1445 1439 1439 1439 1433 1433 1433 1433 1433 1427 1427 1427 1433 1433 1433 1439 1439 1452 1458 1464 1464 2184 2170 2170 2170 2170 2184 2184 2198 2198 2198 2198 2198 2198 2198 2198 2198 2184 2184 2184 2184 2184 2184 2184 2184 2184 2198 2184 2184 2184 2198 2198 1813 1813 1813 1813 1813 1813 1813 1813 1823 1823 1823 1813 1813 1813 1813 2198 2198 2198 2212 2212 2212 2212 2212 2198 2198 2198 2198 2198 2198 2198 2212 2212 2212 2212 2212 2212 2212 2212 2212 2226 1873 1873 1863 1863 1873 1873 1873 1863 1863 1873 1873 0 1433 1433 1427 1427 1427 1427 1427 1427 1427 1427 1427 1427 1427 1427 1421 1421 1421 1415 1415 1415 1415 1415 1415 1415 1415 1415 2129 2116 2116 1404 1404 2116 2116 2116 2129 2129 2143 2156 2170 2198 2212 2212 2226 2226 2226 2226 2226 2226 2226 2241 2226 2226 2226 2226 2226 2212 2212 2212 2212 2212 2212 2212 2212 2212 2212 2212 2226 2226 2226 2212 2212 2212 2212 2212 2212 2212 2212 2212 2212 2212 2212 2212 2212 2212 2212 2212 2226 2226 2226 2226 2226 2241 2226 2226 2241 2226 2226 2241 2226 2226 2226 2226 2226 2226 2226 2226 2241 2241 2241 2226 2226 2241 2226 2226 2226 2226 2226 2226 2226 2226 2226 2241 2241 2241 2241 2241 2241 2241 2241 2241 2241 2241 2241 2241 2256 2241 2241 2241 2241 2241 2241 2241 2241 2226 2226 2226 2226 2226 2241 2241 2241 2241 2241 2241 2241 2226 2226 2226 2226 2226 2226 2226 2241 2241 2241 2241 2241 2241 2241 2226 2226 2226 2226 2226 2226 2226 2241 2241 2241 2241 2241 2241 2226 2226 2226 2226 2226 2212 2212 0 0 0 0 0 0 0 0 0
0 0 0 0 0 0 0 0 0 0 0 0 0 0 0 0 0 0 0 0 0 0 0 0 0 0 0 0 0 0 0 0 0 0 1993 1993 1993 1993 2005 2005 1993 1993 1993 1993 1981 1981 1981 1970 1970 1970 1981 1981 1993 1993 2005 2005 2005 2005 2005 2005 2005 2005 2005 2005 2005 2005 2005 2005 2005 2016 2005 2005 2005 2005 2005 2005 2005 2005 2005 2005 2005 2005 2005 2005 2005 2005 2005 2005 2005 2016 2016 2016 2016 2016 2016 2016 2005 2005 2005 2005 2016 2016 2016 2016 2028 2028 2028 2028 2040 2040 2040 2040 2040 2040 2040 2040 2040 2040 2040 2040 2040 2040 2040 2040 2040 2040 2040 2040 2053 2053 1833 1833 1823 1823 1823 1823 1823 1823 1823 1833 1833 1833 1843 1863 1873 1883 1936 1947 1959 1981 1993 2016 2040 2053 2065 2065 2065 2065 2065 2065 2065 2065 2065 2065 2065 2065 2065 2065 2065 2078 2078 2078 2078 2078 2078 2078 2078 2078 2078 2078 2078 2078 2078 2078 2090 2078 2078 2078 2078 2078 2078 2078 2078 2090 2090 2090 2090 2090 2078 2078 2078 2078 2078 1713 1713 1713 1713 1713 1713 1713 1713 1713 1722 1722 1731 1731 1731 1731 1739 1739 2103 2103 2103 2103 2116 2116 2116 2116 2129 1833 1833 1853 1853 1853 1863 1863 1863 1863 1873 1873 1883 1883 1883 1883 1579 1572 1572 1572 1564 1564 1564 1564 1572 1572 1572 1579 1579 1586 1586 1594 1594 1601 2103 2103 2116 2116 2116 2116 2116 2116 2116 2103 2103 2103 2103 2103 2116 2116 2129 2129 2143 1843 1843 1853 1853 1863 1873 1883 1883 1894 1894 1894 1894 1926 1936 1947 1959 1970 1981 1981 1981 2005 2016 2028 2090 2103 2116 2129 2143 2143 2156 2156 2156 2143 2143 2143 2156 2143 2143 2143 2143 2156 2143 2143 2143 2143 2156 2143 2143 2143 2143 2143 1452 1452 1452 1458 1445 1445 1445 1439 1439 1439 1433 1433 1433 1433 1433 1427 1427 1427 1433 1433 1439 1439 1445 1452 1458 1464 1464 2170 2170 2170 2170 2170 2170 2170 2184 2184 2184 2184 2184 2184 2184 2184 2184 2184 2184 2184 2184 2184 2184 2184 2184 2184 2184 2184 2184 2184 2198 1813 1813 1813 1813 1813 1813 1813 1813 1823 1823 1823 1823 1813 1813 1813 1813 2184 2184 2184 2198 2198 2212 2212 2212 2198 2198 2198 2198 2198 2198 2198 2198 2198 2198 2198 2212 2212 2212 2212 2212 2212 1873 1873 1873 1873 1873 1873 1873 1863 1863 1873 1873 0 1433 1433 1433 1433 1433 1433 1427 1427 1427 1427 1427 1427 1427 1427 1427 1421 1421 1421 1415 1415 1415 1415 1415 1415 1415 2129 2129 2129 2116 2116 2116 2129 2129 2129 2143 2143 2156 2156 2170 2198 2212 2212 2212 2212 2212 2212 2212 2212 2212 2226 2212 2212 2212 2212 2212 2212 2212 2198 2198 2198 2212 2212 2212 2212 2212 2212 2212 2212 2212 2212 2212 2212 2198 2198 2212 2212 2212 2212 2212 2212 2212 2212 2212 2212 2212 2212 2212 2212 2212 2212 2212 2226 2212 2212 2226 2212 2212 2226 2226 2212 2212 2226 2226 2226 2226 2226 2226 2226 2226 2226 2226 2226 2226 2212 2212 2212 2212 2226 2226 2226 2226 2241 2241 2241 2241 2241 2241 2241 2241 2241 2241 2241 2241 2241 2241 2241 2241 2241 2241 2241 2241 2241 2226 2212 2212 2212 2226 2226 2226 2226 2226 2241 2241 2226 2226 2226 2226 2226 2226 2226 2226 2226 2226 2226 2226 2226 2226 2226 2226 2226 2226 2226 2226 2226 2226 2226 2226 2226 2226 2241 2226 2226 2226 2226 2226 2226 2226 2212 2212 0 0 0 0 0 0 0 0 0
