0 0 0 0 0 0 0 0 0 0 0 0 0 0 0 0 0 0 0 0 0 0 0 0 0 0 0 0 0 0 0 0 6375 6375 6375 6259 6259 6375 6259 6259 6259 6259 6259 6375 6497 6497 6497 6622 6622 6622 6622 6753 6753 6753 6753 6753 6753 6753 6753 6753 6753 6753 6622 6622 6622 6622 6622 6622 6622 6622 6622 6497 6497 6497 6497 6622 6622 6622 6622 6622 6622 6622 6622 6622 6622 6622 6622 6622 6622 6622 6622 6497 6375 6375 6375 6375 6375 6375 6497 6497 6497 6497 6622 6622 6622 6622 6622 6622 6622 6622 6622 6497 6497 6622 6497 6497 6622 6622 6622 6622 6622 6622 6622 6622 6622 6622 6622 6622 6622 6622 6622 6622 6622 6622 6622 6622 6622 6622 6622 6753 6753 6753 0 3120 3120 3092 3092 3092 3092 3092 3092 3064 3064 3064 3064 3064 3064 3064 3064 3064 3064 3064 3064 3064 3064 3064 3064 3064 3064 3064 3064 3064 3064 3064 3064 3064 3064 3064 3064 3064 3064 3064 3037 3037 3064 3064 3037 3037 3064 3064 3064 3064 3064 3092 3092 3092 3092 3092 3120 3120 3120 3120 3120 3120 3120 3120 3120 3120 3120 3149 3120 3120 3120 3149 3149 3149 3120 3120 3120 3149 3149 3149 3149 3149 3149 3149 3149 3149 3149 3149 3149 3149 3149 3149 3178 3178 3178 3178 3178 3178 3178 3178 3178 3208 3238 3208 3208 3238 3238 3238 3238 3238 3238 3238 3238 3269 3238 3238 3238 3238 3178 3178 3208 3238 3238 3269 3269 3269 3269 3269 3333 7030 7030 7030 6889 6889 6889 6889 6889 6889 6889 6889 6889 6889 7030 7030 7030 7030 7030 7030 7030 7030 7030 7030 7030 7030 7030 7178 0 0 0 0 1883 1883 1883 1894 1894 1894 1894 1894 1894 1894 1894 1894 1894 1894 1894 1894 1894 1894 1894 1894 1894 1894 1894 1894 1894 1894 1894 1883 1883 1883 1883 1883 1883 1883 1883 1883 1894 1894 1894 1894 1894 1894 1894 1894 1904 1904 1904 1904 1904 1904 1904 1894 1894 1894 1894 1894 1894 1894 1894 1904 1904 1904 1915 1915 1915 1915 1904 1904 1904 1904 1904 1915 1915 1915 1915 1915 0 0 0 0 4842 4842 4774 4774 4774 4774 4774 4774 4842 4774 4708 4708 4708 4645 4645 4645 4645 4708 4708 4708 4645 4645 4645 4645 4645 4645 4645 4645 4645 4582 4582 4582 4582 4645 4645 4708 4708 4708 4708 4708 4774 4842 4842 4842 4911 4911 4983 4983 4842 4842 4842 4842 7660 7492 7492 7660 7492 7332 7332 7492 7492 7492 7492 7492 7492 7492 7492 7492 7660 7660 7492 7492 7492 7492 7492 7492 7660 7660 7660 7660 7660 7660 7660 7492 7492 7492 7492 7492 7492 7492 7492 7492 7492 7660 7660 7835 7835 7835 7835 7835 7835 7660 7660 7660 7492 7492 7332 7332 7332 7332 7332 7332 7332 7492 7492 7492 7492 7332 7332 7332 7332 7332 7492 7332 7332 7332 7332 7332 7332 7332 7332 7332 7332 7332 7332 7492 7492 7492 7492 7492 7492 7492 7332 7332 7332 7332 7332 7332 7332 7332 7332 7332 7332 7332 7332 7332 7332 7332 7332 7492 7332 7332 7492 7332 7332 7332 7332 7332 7332 7332 7332 7492 7332 7332 7332 7332 7332 7332 7332 7332 7332 7492 7492 7492 7332 7332 7332 7332 7332 7492 7492 7492 7492 7492 7492 7492 7332 7332 7332 7332 7332 7492 7492 7178 7178 7178 7178 7178 7030 7030 7030 7178 7492 7492 7332 7332 7332 7332 7332 7332 7332 7492 7492 7660 7660 8019 8019 8212 8212 8212 8019 7835 7835 7835 7835 8019 8019 8019 8212 8413 8626 8626 8626 8626 0 0 0 0 0 0 0 0 0 0 0 0 0 0
0 0 0 0 0 0 0 0 0 0 0 0 0 0 0 0 0 0 0 0 0 0 0 0 0 0 0 0 0 0 0 0 6375 6375 6375 6259 6259 6375 6259 6259 6259 6259 6259 6375 6375 6375 6375 6375 6622 6622 6622 6622 6753 6753 6753 6753 6753 6753 6753 6753 6753 6753 6622 6622 6622 6622 6622 6622 6622 6622 6622 6497 6497 6497 6497 6622 6622 6622 6622 6622 6622 6622 6622 6622 6622 6622 6622 6622 6622 6497 6497 6497 6497 6497 6375 6375 6375 6375 6497 6497 6497 6497 6622 6622 6622 6622 6622 6622 6622 6622 6622 6497 6497 6622 6497 6497 6622 6622 6622 6622 6622 6622 6622 6622 6622 6622 6622 6622 6622 6622 6622 6753 6622 6622 6622 6622 6622 6622 6622 6753 6753 6753 0 3092 3092 3092 3092 3092 3092 3092 3092 3064 3064 3064 3064 3064 3064 3064 3064 3064 3064 3064 3064 3064 3064 3064 3064 3064 3064 3064 3064 3064 3064 3064 3064 3064 3064 3064 3064 3064 3064 3064 3064 3064 3064 3064 3037 3037 3064 3064 3064 3064 3064 3092 3092 3092 3092 3092 3120 3120 3120 3120 3120 3120 3120 3120 3120 3120 3120 3149 3149 3120 3120 3149 3149 3149 3149 3149 3149 3149 3149 3149 3149 3149 3149 3149 3149 3149 3149 3149 3149 3149 3149 3178 3178 3178 3178 3208 3208 3178 3178 3178 3178 3208 3238 3208 3208 3238 3238 3238 3238 3238 3238 3238 3238 3269 3238 3238 3238 3238 3178 3178 3208 3238 3238 3269 3269 3269 7178 7030 7030 7030 7030 7030 6889 6889 6753 6753 6889 6889 6889 6889 6889 6889 7030 7030 7030 7030 7030 7030 7030 7030 7030 7030 7030 7030 7030 0 0 0 0 0 1883 1883 1894 1894 1894 1894 1894 1894 1894 1894 1894 1894 1894 1894 1894 1894 1894 1894 1894 1894 1894 1894 1894 1894 1894 1894 1894 1883 1883 1883 1883 1883 1883 1894 1883 1883 1894 1894 1894 1894 1894 1894 1894 1904 1904 1904 1904 1904 1904 1904 1904 1904 1894 1894 1894 1894 1894 1894 1904 1904 1915 1915 1915 1915 1915 1915 1915 1915 1915 1915 1915 1915 1915 1915 1915 1915 0 0 0 4842 4842 4842 4774 4774 4842 4774 4774 4842 4842 4774 4774 4774 4708 4645 4645 4645 4645 4708 4708 4708 4645 4645 4645 4645 4645 4645 4645 4645 4645 4645 4645 4645 4645 4645 4645 4708 4708 4708 4708 4708 4774 4842 4842 4842 4911 4911 4983 4983 4842 4842 4842 4842 7492 7492 7492 7492 7492 7492 7492 7492 7492 7492 7492 7492 7492 7660 7660 7660 7660 7660 7492 7492 7492 7492 7492 7492 7492 7492 7492 7660 7660 7660 7660 7660 7660 7492 7492 7660 7660 7492 7492 7492 7492 7835 7835 7835 7660 7660 7835 7835 7660 7660 7660 7660 7492 7492 7332 7332 7332 7332 7492 7492 7492 7492 7492 7492 7492 7332 7332 7332 7332 7332 7492 7492 7492 7332 7332 7332 7332 7332 7332 7332 7332 7332 7332 7492 7492 7492 7492 7492 7492 7492 7492 7332 7332 7332 7332 7332 7332 7332 7332 7332 7332 7332 7332 7332 7492 7492 7492 7492 7332 7332 7492 7332 7332 7332 7332 7332 7332 7332 7332 7492 7332 7332 7332 7332 7332 7332 7332 7332 7492 7492 7492 7492 7492 7492 7492 7492 7492 7492 7492 7492 7492 7492 7492 7492 7332 7332 7332 7332 7332 7332 7492 7332 7332 7332 7178 7178 7178 7178 7332 7492 7492 7492 7492 7332 7332 7332 7332 7332 7332 7492 7660 7660 7835 8019 8019 8212 8212 8212 8019 8019 8019 8019 8212 8413 8212 8212 8413 8413 8626 8626 8626 8626 0 0 0 0 0 0 0 0 0 0 0 0 0 0
0 0 0 0 0 0 0 0 0 0 0 0 0 0 0 0 0 0 0 0 0 0 0 0 0 0 0 0 0 0 0 0 4582 4582 6375 6375 6375 6375 6375 6259 6259 6259 6259 6375 6375 6375 6375 6375 6622 6622 6622 6622 6753 6753 6753 6753 6753 6753 6753 6753 6753 6753 6622 6622 6622 6622 6622 6622 6622 6622 6622 6497 6497 6497 6497 6622 6622 6622 6622 6622 6622 6622 6622 6622 6622 6622 6622 6622 6622 6497 6497 6497 6497 6497 6497 6375 6375 6375 6497 6497 6497 6497 6497 6622 6622 6622 6622 6622 6622 6622 6622 6622 6497 6497 6497 6497 6497 6497 6497 6622 6622 6497 6497 6497 6622 6622 6622 6622 6622 6622 6753 6753 6753 6622 6622 6622 6622 6622 6622 6622 6753 6753 0 3064 3064 3064 3064 3092 3092 3092 3092 3064 3064 3064 3064 3064 3064 3064 3064 3064 3064 3064 3064 3064 3064 3064 3064 3064 3064 3064 3064 3064 3064 3064 3064 3064 3064 3064 3064 3064 3064 3064 3064 3037 3037 3064 3064 3064 3064 3064 3064 3064 3064 3092 3092 3092 3092 3092 3120 3120 3120 3149 3149 3149 3149 3149 3149 3149 3149 3149 3149 3149 3149 3149 3149 3149 3149 3149 3149 3149 3149 3149 3149 3149 3149 3149 3149 3149 3149 3149 3149 3149 3149 3178 3178 3178 3178 3208 3208 3178 3178 3178 3178 3208 3238 3238 3238 3238 3238 3238 3238 3269 3269 3238 3238 3269 3269 3269 3238 3238 3208 3208 3238 3238 3238 3269 3269 3269 7178 7030 7030 7030 7030 7030 7030 6889 6753 6753 6889 6889 6889 6889 6889 6889 6889 6889 6889 6889 6889 6889 6889 6889 6889 7030 7030 7030 7030 7030 0 0 0 0 1894 1894 1894 1894 1894 1894 1894 1894 1894 1894 1894 1894 1894 1894 1894 1894 1894 1894 1894 1894 1904 1904 1894 1894 1894 1894 1894 1883 1883 1883 1883 1883 1883 1894 1894 1894 1894 1894 1904 1904 1894 1894 1904 1904 1904 1904 1915 1915 1915 1915 1904 1904 1904 1904 1894 1894 1894 1904 1904 1904 1904 1904 1915 1915 1915 1915 1915 1915 1915 1915 1915 1915 1915 1915 1915 1915 0 0 0 4774 4774 4842 4842 4842 4842 4842 4842 4842 4842 4774 4774 4774 4774 4708 4708 4708 4708 4708 4708 4708 4708 4708 4708 4708 4645 4645 4645 4645 4645 4645 4645 4645 4645 4645 4645 4708 4708 4708 4708 4708 4774 4842 4842 4911 4911 4983 5056 5056 7332 7332 7332 7492 7492 7492 7492 7492 7492 7492 7492 7492 7492 7492 7660 7492 7492 7660 7660 7660 7660 7492 7492 7492 7492 7492 7492 7492 7492 7492 7492 7660 7660 7660 7660 7492 7492 7492 7492 7492 7660 7660 7660 7660 7660 7835 7835 7835 7660 7660 7835 7835 7660 7660 7660 7660 7660 7492 7492 7492 7492 7492 7492 7492 7492 7660 7492 7492 7492 7492 7332 7332 7332 7492 7492 7492 7492 7332 7332 7332 7332 7332 7332 7332 7332 7332 7332 7492 7492 7492 7492 7492 7660 7492 7492 7492 7492 7492 7492 7332 7332 7332 7332 7332 7332 7332 7332 7332 7492 7492 7492 7492 7492 7492 7492 7492 7492 7492 7492 7492 7492 7492 7492 7492 7332 7332 7332 7492 7492 7492 7492 7492 7492 7492 7492 7492 7492 7492 7492 7492 7492 7492 7492 7492 7492 7492 7492 7492 7492 7492 7492 7332 7332 7332 7492 7332 7332 7332 7332 7332 7332 7332 7492 7492 7492 7492 7492 7492 7492 7332 7332 7492 7492 7492 7660 7660 7835 8019 8019 8212 8212 8212 8212 8212 8019 8019 8413 8413 8212 8212 8413 8413 8413 8413 8626 8626 0 0 0 0 0 0 0 0 0 0 0 0 0 0
0 0 0 0 0 0 0 0 0 0 0 0 0 0 0 0 0 0 0 0 0 0 0 0 0 0 0 0 0 0 4582 4582 4582 4582 4582 4582 4582 4645 4774 4842 4842 4983 4983 4983 4983 6259 6259 6259 6375 6375 6497 6622 6622 6753 6753 6753 6622 6622 6622 6753 6753 6622 6622 6497 6497 6622 6622 6497 6497 6497 6497 6497 6497 6497 6497 6497 6622 6622 6622 6622 6622 6622 6497 6497 6497 6497 6497 6622 6622 6497 6497 6622 6497 6497 6497 6375 6375 6375 6497 6497 6497 6497 6497 6622 6622 6622 6622 6622 6622 6622 6622 6622 6497 6497 6497 6497 6497 6497 6497 6622 6622 6497 6497 6497 6622 6622 6622 6622 6622 6753 6753 6753 6753 6622 6622 6622 6622 6622 6622 6622 6622 6622 0 3064 3064 3064 3064 3092 3092 3092 3092 3064 3064 3064 3064 3064 3064 3064 3064 3064 3064 3064 3064 3064 3064 3064 3064 3064 3064 3064 3064 3064 3064 3064 3064 3064 3064 3064 3064 3064 3064 3064 3064 3037 3037 3064 3064 3064 3064 3064 3064 3064 3092 3092 3092 3092 3092 3092 3149 3149 3149 3149 3149 3149 3149 3149 3149 3149 3149 3149 3149 3149 3149 3149 3149 3149 3149 3149 3149 3149 3149 3149 3149 3149 3149 3149 3149 3149 3149 3149 3149 3149 3149 3178 3178 3178 3178 3208 3238 3208 3208 3208 3208 3238 3238 3238 3238 3238 3238 3238 3238 3269 3269 3269 3269 3269 3269 3269 3238 3238 3238 3238 3238 3238 3269 3269 3269 3269 7030 6889 6889 6889 6889 6889 6889 6889 6753 6753 6753 6889 6889 6889 6889 6889 6889 6889 6889 6889 6889 6889 6889 6889 6889 6889 6889 6889 6889 6889 0 0 0 0 0 1894 1894 1894 1894 1894 1894 1894 1894 1894 1894 1894 1894 1894 1894 1894 1894 1894 1894 1894 1904 1904 1894 1894 1894 1894 1894 1883 1883 1883 1883 1883 1883 1894 1894 1894 1894 1894 1904 1904 1904 1904 1904 1915 1915 1915 1915 1915 1915 1915 1915 1904 1904 1904 1894 1894 1894 1904 1904 1904 1904 1904 1904 1915 1915 1915 1915 1915 1915 1915 1915 1915 1915 1915 1926 1926 1926 0 4774 4774 4774 4842 4842 4842 4842 4842 4842 4842 4774 4708 4708 4708 4708 4708 4708 4708 4708 4708 4708 4708 4708 4708 4708 4708 4645 4645 4645 4645 4708 4645 4645 4645 4645 4645 4708 4708 4708 4708 4774 4774 4774 4842 4842 4911 4911 4983 5132 7332 7332 7332 7332 7492 7492 7492 7492 7492 7492 7492 7492 7492 7492 7492 7660 7660 7660 7660 7660 7660 7660 7492 7492 7492 7492 7492 7492 7492 7492 7492 7492 7492 7492 7492 7492 7492 7492 7492 7492 7492 7492 7492 7660 7660 7660 7660 7835 7835 7660 7660 7835 7835 7835 7660 7660 7660 7492 7492 7492 7492 7492 7492 7492 7492 7492 7660 7492 7492 7492 7492 7492 7332 7332 7492 7492 7492 7492 7332 7332 7332 7332 7332 7332 7332 7332 7332 7332 7492 7492 7492 7492 7660 7660 7660 7492 7492 7492 7492 7492 7332 7332 7332 7332 7332 7332 7332 7332 7332 7492 7492 7492 7492 7332 7332 7492 7492 7492 7492 7492 7492 7492 7492 7492 7332 7332 7332 7332 7332 7332 7492 7492 7492 7492 7492 7492 7660 7660 7660 7492 7492 7492 7492 7492 7492 7492 7492 7492 7492 7332 7332 7492 7332 7332 7660 7660 7492 7492 7332 7332 7492 7492 7492 7492 7660 7660 7660 7660 7660 7492 7492 7492 7492 7492 7660 7660 7660 7835 7835 8019 8019 8212 8212 8212 8212 8212 8212 8413 8626 8626 8413 8413 8413 8413 8413 8413 8413 0 0 0 0 0 0 0 0 0 0 0 0 0 0
0 0 0 0 0 0 0 0 0 0 0 0 0 0 0 0 0 0 0 0 0 0 0 0 0 0 0 0 0 0 4582 4582 4582 4582 4582 4582 4582 4645 4774 4842 4911 4983 4983 4983 4983 5056 5210 6259 6375 6375 6375 6375 6375 6622 6622 6622 6622 6622 6622 6622 6622 6622 6497 6497 6497 6497 6497 6497 6497 6497 6497 6497 6497 6497 6497 6497 6497 6497 6497 6497 6497 6497 6497 6375 6375 6375 6375 6497 6622 6497 6497 6622 6497 6375 6375 6259 6259 6375 6497 6497 6497 6497 6497 6622 6622 6622 6622 6622 6622 6622 6622 6497 6497 6497 6497 6497 6497 6497 6622 6622 6622 6622 6622 6622 6622 6622 6622 6622 6622 6753 6753 6753 6753 6753 6753 6753 6753 6753 6753 6753 6753 6889 3092 3064 3064 3064 3064 3092 3092 3092 3092 3064 3064 3064 3064 3064 3064 3064 3064 3064 3064 3064 3064 3064 3064 3064 3064 3064 3064 3064 3064 3064 3064 3064 3064 3064 3064 3064 3064 3064 3064 3064 3064 3037 3037 3064 3064 3064 3064 3064 3064 3064 3092 3092 3092 3092 3092 3092 3149 3149 3149 3149 3149 3149 3149 3149 3149 3149 3149 3149 3149 3149 3149 3149 3149 3149 3149 3149 3149 3149 3149 3149 3149 3149 3149 3149 3149 3149 3149 3149 3149 3149 3149 3178 3178 3178 3178 3208 3238 3238 3238 3238 3238 3238 3238 3238 3269 3269 3269 3269 3269 3269 3269 3269 3269 3300 3269 3269 3269 3269 3269 3238 3238 3269 3269 3269 3269 7030 7030 6889 6889 6889 6889 6889 6889 6889 6753 6753 6753 6889 6889 6889 6889 6889 6889 6889 6889 6889 6889 6889 6889 6889 6889 6889 6889 6889 6889 6889 0 0 0 0 0 1894 1894 1894 1894 1894 1894 1904 1904 1894 1894 1894 1894 1894 1894 1894 1894 1894 1894 1904 1904 1904 1904 1894 1894 1894 1894 1883 1883 1883 1883 1883 1883 1894 1894 1894 1894 1894 1894 1904 1904 1904 1904 1915 1915 1915 1915 1915 1915 1915 1915 1904 1904 1904 1904 1904 1904 1904 1904 1904 1904 1904 1904 1904 1904 1904 1904 1915 1915 1915 1915 1915 1915 1915 1915 1915 1915 0 4774 4774 4774 4842 4842 4842 4842 4842 4842 4842 4774 4708 4708 4708 4708 4708 4708 4708 4708 4774 4708 4708 4708 4708 4708 4708 4708 4708 4708 4708 4708 4645 4645 4645 4708 4708 4708 4708 4708 4774 4774 4774 4842 4842 4842 4911 4911 4911 7492 7492 7492 7492 7492 7492 7492 7492 7492 7492 7492 7492 7492 7660 7660 7660 7660 7660 7660 7660 7660 7660 7660 7660 7492 7492 7660 7660 7492 7492 7492 7492 7492 7492 7492 7492 7492 7492 7492 7492 7492 7492 7492 7492 7660 7660 7660 7660 7660 7660 7660 7660 7835 7835 7660 7660 7660 7492 7492 7492 7492 7492 7492 7492 7492 7492 7492 7660 7492 7492 7492 7492 7492 7332 7332 7492 7492 7492 7492 7332 7332 7332 7492 7492 7492 7492 7332 7332 7492 7332 7332 7492 7492 7660 7660 7492 7492 7492 7492 7492 7492 7492 7492 7492 7492 7492 7492 7332 7332 7492 7492 7492 7492 7492 7332 7332 7332 7492 7492 7492 7492 7492 7492 7492 7492 7332 7332 7332 7332 7332 7332 7492 7492 7492 7492 7492 7660 7660 7492 7492 7660 7660 7492 7492 7492 7492 7332 7332 7332 7332 7332 7332 7492 7492 7492 7660 7660 7492 7492 7332 7332 7332 7332 7492 7492 7660 7660 7660 7660 7660 7660 7660 7492 7492 7660 7660 7660 7660 7835 7835 8019 8019 8212 8212 8212 8212 8212 8413 8413 8413 8413 8413 8413 8413 8413 8413 8413 8413 0 0 0 0 0 0 0 0 0 0 0 0 0 0
0 0 0 0 0 0 0 0 0 0 0 0 0 0 0 0 0 0 0 0 0 0 0 0 0 0 0 0 0 0 4582 4582 4582 4582 4582 4582 4582 4645 4842 4842 4911 4911 4911 4983 4983 5056 5132 5291 5460 6375 6038 6038 6259 6622 6622 6622 6622 6622 6622 6622 6622 6497 6375 6375 6375 6375 6375 6375 6375 6375 6375 6375 6375 6375 6375 6375 6375 6375 6375 6259 6259 6259 6375 6375 6375 6375 6375 6497 6497 6259 6259 6259 6259 6146 6146 6146 6146 6259 6375 6259 6259 6375 6375 6622 6622 6622 6622 6622 6622 6622 6497 6497 6497 6497 6497 6497 6497 6497 6622 6622 6622 6622 6622 6622 6622 6622 6622 6622 6622 6753 6753 6753 6753 6753 6753 6753 6753 6753 6753 6753 6889 6889 3092 3092 3092 3064 3064 3092 3092 3092 3092 3064 3064 3064 3064 3064 3064 3064 3064 3064 3064 3064 3064 3064 3064 3064 3064 3064 3064 3064 3064 3064 3064 3064 3064 3064 3064 3064 3064 3064 3064 3064 3064 3064 3064 3064 3064 3064 3064 3064 3064 3064 3092 3092 3092 3092 3092 3120 3120 3149 3149 3149 3149 3149 3149 3149 3149 3149 3149 3149 3149 3149 3149 3149 3149 3149 3149 3149 3149 3149 3149 3149 3149 3149 3149 3149 3149 3149 3149 3149 3149 3149 3149 3178 3178 3178 3208 3208 3269 3238 3238 3238 3238 3238 3238 3238 3269 3269 3269 3269 3269 3300 3300 3269 3269 3269 3269 3269 3238 3238 3238 3238 3238 3238 3269 3269 3269 7030 7030 7030 6889 6889 6889 6889 6889 6889 6753 6753 6753 6889 6889 6889 6889 6889 6889 6889 6889 6889 6889 6889 6889 6889 6889 6889 6889 6889 6889 6889 0 0 0 0 0 1894 1894 1894 1894 1894 1904 1904 1904 1904 1894 1894 1894 1894 1894 1894 1894 1894 1894 1904 1904 1904 1904 1894 1894 1894 1894 1894 1883 1883 1883 1894 1894 1894 1883 1883 1894 1894 1894 1894 1904 1904 1904 1904 1904 1915 1915 1915 1915 1915 1915 1904 1904 1915 1915 1904 1904 1904 1904 1904 1894 1894 1894 1904 1904 1904 1904 1915 1915 1915 1915 1915 1915 1915 1915 1915 1915 0 4774 4774 4774 4842 4842 4842 4842 4842 4842 4842 4842 4774 4774 4842 4842 4774 4708 4708 4708 4774 4708 4708 4708 4708 4708 4708 4708 4708 4708 4708 4708 4645 4645 4645 4708 4708 4708 4708 4708 4774 4774 4774 4774 4842 4842 4911 4911 4911 7492 7332 7332 7492 7492 7492 7492 7492 7492 7492 7492 7492 7660 7660 7660 7660 7660 7835 7660 7660 7660 7660 7660 7660 7660 7660 7660 7660 7492 7492 7492 7492 7492 7492 7492 7492 7492 7492 7492 7492 7492 7492 7660 7660 7660 7660 7660 7660 7660 7660 7660 7660 7835 7835 7660 7660 7660 7492 7492 7492 7492 7492 7492 7492 7492 7492 7660 7660 7492 7492 7492 7492 7492 7492 7492 7492 7492 7492 7492 7332 7332 7332 7492 7492 7492 7492 7492 7492 7492 7332 7332 7492 7492 7492 7660 7492 7492 7492 7492 7492 7492 7332 7332 7492 7492 7492 7492 7492 7492 7492 7492 7492 7660 7492 7332 7332 7332 7492 7492 7492 7492 7492 7492 7492 7492 7332 7332 7332 7332 7332 7332 7492 7492 7492 7492 7492 7660 7492 7492 7492 7492 7492 7492 7332 7332 7332 7332 7332 7332 7332 7332 7332 7332 7492 7492 7492 7492 7492 7332 7332 7332 7332 7332 7492 7492 7660 7660 7660 7660 7660 7660 7492 7492 7660 7660 7660 7660 7835 7835 7835 8019 8019 8019 8212 8212 8212 8212 8413 8413 8413 8413 8413 8413 8413 8413 8413 8413 8413 0 0 0 0 0 0 0 0 0 0 0 0 0 0
0 0 0 0 0 0 0 0 0 0 0 0 0 0 0 0 0 0 0 0 0 0 0 0 0 0 0 0 0 0 4582 4582 4582 4582 4582 4582 4582 4645 4842 4842 4911 4911 4911 4983 4983 5056 5132 5210 5291 5291 6038 6038 6259 6622 6622 6622 6622 6622 6622 6497 6497 6375 6259 6259 6259 6259 6259 6259 6259 6375 6375 6375 6375 6375 6375 6375 6375 6375 6375 6259 6259 6259 6259 6375 6375 6375 6375 6375 6375 6259 6146 6146 6146 6146 6146 6146 6146 6146 6146 6146 6146 6259 6259 6375 6497 6497 6497 6497 6622 6622 6497 6497 6497 6497 6497 6497 6497 6497 6622 6622 6622 6622 6622 6622 6622 6622 6622 6622 6622 6622 6622 6753 6753 6753 6753 6753 6753 6753 6889 6889 6889 6889 3092 3092 3092 3064 3064 3092 3092 3092 3092 3064 3064 3064 3064 3064 3064 3064 3064 3064 3064 3064 3064 3064 3064 3064 3064 3064 3064 3064 3064 3064 3064 3064 3064 3064 3064 3064 3064 3064 3064 3064 3064 3064 3064 3064 3064 3064 3092 3064 3064 3064 3092 3092 3092 3092 3120 3120 3120 3120 3120 3120 3149 3149 3149 3149 3149 3149 3149 3149 3149 3149 3149 3149 3149 3149 3149 3149 3149 3149 3149 3149 3149 3149 3149 3149 3149 3149 3149 3149 3149 3149 3149 3178 3178 3178 3208 3238 3269 3238 3238 3238 3238 3238 3238 3238 3269 3269 3269 3269 3269 3300 3300 3269 3269 3269 3269 3269 3238 3238 3238 3238 3238 3238 3269 3269 3269 7030 7030 7030 6889 6889 6889 6889 6889 6889 6753 6753 6889 6889 6889 6889 6889 6889 6889 6889 6889 7030 7030 7030 7030 7030 7030 7030 7030 7030 7030 7030 0 0 0 0 0 1894 1894 1904 1904 1904 1904 1904 1904 1904 1904 1894 1894 1894 1894 1894 1894 1894 1894 1894 1904 1904 1904 1904 1904 1904 1904 1894 1894 1894 1894 1894 1894 1894 1883 1883 1894 1894 1894 1894 1894 1904 1904 1904 1904 1915 1915 1915 1904 1904 1915 1915 1915 1915 1915 1904 1904 1904 1904 1894 1894 1894 1894 1904 1904 1904 1904 1915 1915 1915 1915 1915 1904 1904 1915 1915 1915 4983 4842 4842 4842 4842 4842 4842 4842 4842 4842 4842 4842 4774 4774 4774 4774 4708 4708 4708 4708 4708 4708 4708 4708 4708 4708 4708 4708 4645 4645 4708 4708 4708 4708 4708 4708 4708 4708 4708 4708 4774 4774 4774 4774 4842 4842 4911 4911 4911 7492 7332 7332 7492 7492 7492 7492 7492 7660 7660 7660 7660 7660 7835 7835 7835 7835 7835 7660 7660 7660 7660 7660 7660 7492 7492 7660 7660 7660 7660 7492 7492 7492 7492 7492 7492 7492 7492 7492 7492 7492 7660 7660 7660 7660 7660 7660 7660 7660 7660 7660 7660 7835 7835 7660 7660 7660 7492 7492 7492 7492 7492 7492 7492 7492 7492 7660 7660 7492 7492 7492 7492 7492 7492 7492 7492 7492 7492 7492 7492 7492 7492 7492 7492 7492 7492 7492 7492 7492 7492 7660 7492 7492 7492 7660 7492 7492 7492 7492 7492 7492 7332 7332 7332 7492 7492 7492 7492 7492 7492 7492 7492 7492 7332 7332 7332 7332 7332 7332 7332 7332 7492 7492 7492 7492 7332 7332 7332 7332 7332 7332 7332 7492 7492 7492 7492 7492 7492 7492 7492 7492 7492 7492 7332 7332 7332 7332 7332 7332 7332 7332 7332 7332 7492 7492 7492 7492 7492 7332 7332 7332 7492 7492 7492 7492 7660 7835 7660 7660 7660 7660 7492 7492 7660 7660 7660 7835 7835 7835 7835 8019 8019 8019 8212 8212 8212 8212 8413 8413 8413 8413 8413 8413 8413 8413 8413 8413 8413 0 0 0 0 0 0 0 0 0 0 0 0 0 0
0 0 0 0 0 0 0 0 0 0 0 0 0 0 0 0 0 0 0 0 0 0 0 0 0 0 0 0 0 0 4582 4522 4522 4582 4582 4582 4582 4774 4842 4842 4911 4911 4911 4983 5056 5056 5132 5132 5210 5210 6375 6375 6375 6622 6622 6622 6622 6622 6622 6497 6375 6375 6259 6259 6259 6259 6259 6259 6259 6259 6375 6375 6375 6375 6375 6375 6259 6259 6259 6259 6259 6259 6259 6259 6259 6259 6375 6375 6375 6259 6146 6146 6146 6146 6146 6146 6146 6146 6146 6146 6146 6146 6259 6259 6375 6497 6497 6497 6497 6497 6375 6375 6375 6375 6375 6497 6497 6497 6622 6622 6622 6622 6622 6622 6622 6622 6622 6622 6622 6622 6622 6622 6753 6753 6753 6753 6753 6753 6753 6889 6622 6622 6622 3092 3064 3064 3064 3064 3092 3092 3092 3064 3064 3064 3064 3064 3064 3064 3064 3064 3064 3037 3037 3064 3064 3064 3064 3064 3064 3064 3064 3064 3064 3064 3064 3064 3064 3064 3064 3064 3064 3064 3064 3064 3064 3064 3064 3064 3092 3064 3064 3064 3092 3120 3092 3092 3120 3120 3120 3120 3120 3120 3149 3149 3149 3149 3149 3149 3149 3149 3149 3149 3149 3149 3149 3149 3149 3149 3149 3149 3149 3149 3149 3149 3149 3149 3149 3149 3149 3149 3149 3149 3149 3178 3178 3178 3208 3238 3269 3238 3238 3238 3238 3238 3238 3238 3269 3269 3269 3269 3269 3269 3300 3269 3269 3269 3269 3269 3238 3238 3269 3238 3238 3238 3269 3269 0 7030 7030 7030 7030 7030 7030 7030 6889 6889 6889 6889 6889 6889 6889 6889 6889 6889 7030 7030 7030 7030 7030 7178 7178 7178 7178 7178 7178 7178 7178 7178 0 7332 7332 0 0 1894 1894 1904 1904 1904 1904 1904 1904 1904 1904 1894 1894 1894 1894 1894 1894 1894 1894 1894 1904 1904 1904 1904 1904 1904 1904 1894 1894 1894 1894 1894 1894 1883 1883 1883 1883 1883 1894 1894 1894 1904 1904 1904 1904 1904 1904 1904 1904 1904 1915 1915 1915 1915 1915 1904 1904 1904 1904 1894 1894 1904 1904 1904 1904 1904 1904 1915 1915 1915 1915 1904 1904 1904 1915 4983 4983 4983 4911 4842 4842 4842 4842 4842 4842 4842 4842 4842 4842 4774 4774 4774 4774 4708 4645 4645 4708 4708 4708 4708 4645 4645 4708 4645 4645 4645 4645 4708 4708 4645 4645 4708 4708 4708 4708 4708 4708 4774 4774 4774 4774 4842 4842 4911 4911 7332 7332 7332 7332 7492 7660 7492 7492 7492 7660 7660 7660 7660 7660 7660 7660 7660 7660 7660 7660 7660 7660 7660 7660 7660 7492 7492 7492 7492 7492 7492 7492 7492 7492 7492 7492 7492 7492 7492 7492 7492 7492 7492 7492 7492 7492 7492 7660 7660 7660 7660 7660 7660 7660 7660 7660 7660 7660 7492 7492 7492 7492 7492 7492 7492 7492 7660 7660 7660 7660 7660 7492 7492 7492 7492 7492 7492 7492 7492 7492 7492 7492 7492 7492 7492 7492 7492 7492 7492 7492 7492 7332 7332 7492 7492 7660 7492 7492 7492 7492 7492 7492 7332 7332 7332 7332 7492 7492 7492 7492 7492 7332 7332 7332 7332 7332 7332 7332 7332 7332 7332 7332 7492 7492 7492 7492 7332 7332 7332 7332 7332 7332 7332 7492 7492 7492 7492 7492 7492 7492 7492 7492 7492 7492 7492 7492 7492 7332 7332 7332 7332 7332 7332 7492 7492 7492 7492 7492 7332 7332 7332 7332 7492 7492 7660 7660 7660 7835 7660 7660 7660 7660 7492 7492 7492 7660 7835 7835 7835 7835 7835 8019 8019 8019 8212 8212 8212 8212 8413 8413 8413 8212 8212 8212 8212 8212 8212 8212 8212 0 0 0 0 0 0 0 0 0 0 0 0 0 0
0 0 0 0 0 0 0 0 0 0 0 0 0 0 0 0 0 0 0 0 0 0 0 0 0 0 0 0 0 0 4582 4522 4522 4582 4582 4645 4645 4774 4774 4842 4911 4911 4911 4983 5056 5056 5132 5132 5210 5210 6375 6375 6497 6622 6622 6622 6622 6622 6622 6497 6375 6375 6259 6259 6259 6259 6259 6259 6259 6259 6375 6375 6375 6375 6375 6375 6259 6259 6259 6259 6259 6259 6259 6259 6259 6259 6375 6375 6497 6375 6375 6375 6259 6259 6259 6259 6259 6146 6146 6146 6146 6146 6259 6259 6375 6375 6375 6375 6375 6375 6259 6259 6259 6259 6259 6375 6375 6497 6622 6622 6622 6622 6622 6622 6622 6622 6622 6622 6622 6622 6622 6622 6622 6753 6753 6622 6622 6622 6753 6753 6622 6622 6622 3064 3064 3064 3064 3064 3092 3092 3092 3064 3064 3064 3064 3064 3064 3064 3064 3064 3064 3037 3037 3037 3037 3064 3064 3064 3064 3064 3064 3064 3064 3064 3064 3064 3064 3064 3064 3064 3064 3064 3064 3064 3064 3092 3092 3092 3092 3092 3092 3092 3120 3120 3092 3092 3092 3092 3120 3120 3120 3120 3149 3149 3149 3149 3149 3149 3149 3149 3149 3149 3149 3149 3149 3149 3149 3149 3149 3149 3149 3149 3149 3149 3149 3149 3149 3149 3149 3149 3149 3149 3178 3178 3178 3178 3208 3269 3300 3269 3269 3269 3269 3269 3238 3238 3269 3269 3269 3269 3269 3269 3269 3269 3269 3269 3269 3269 3269 3269 3269 3269 3269 3269 3269 3269 0 6889 6889 6889 6889 6889 6889 6889 7030 6889 6889 6889 6889 7030 7030 7030 7030 7030 7030 7030 7030 7030 7030 7178 7332 7178 7178 7332 7332 7332 7332 7332 7332 7332 7332 0 0 1894 1894 1904 1904 1904 1904 1904 1904 1904 1904 1894 1894 1894 1894 1894 1883 1883 1894 1894 1894 1904 1904 1904 1904 1904 1904 1894 1894 1894 1894 1894 1894 1883 1883 1883 1883 1883 1883 1894 1894 1904 1904 1894 1894 1894 1904 1904 1894 1894 1904 1915 1915 1915 1915 1904 1904 1904 1904 1894 1894 1894 1894 1894 1904 1904 1904 1915 1915 1904 1904 1904 1904 1904 4983 4983 4983 4983 4911 4842 4842 4842 4842 4842 4842 4842 4842 4842 4842 4842 4842 4842 4774 4708 4645 4645 4708 4708 4645 4645 4645 4645 4708 4645 4645 4645 4645 4708 4708 4645 4645 4708 4708 4708 4708 4708 4708 4774 4774 4774 4774 4842 4842 4983 4983 7332 7332 7332 7332 7492 7660 7492 7492 7660 7660 7660 7660 7660 7660 7660 7660 7660 7660 7660 7660 7660 7660 7660 7660 7660 7492 7492 7492 7492 7492 7492 7492 7492 7492 7492 7492 7492 7492 7492 7492 7492 7492 7492 7492 7492 7492 7492 7492 7492 7660 7660 7660 7660 7660 7660 7660 7660 7660 7492 7492 7492 7492 7492 7660 7660 7660 7660 7660 7660 7660 7660 7492 7492 7492 7492 7492 7492 7492 7492 7492 7492 7492 7492 7492 7492 7492 7492 7492 7492 7492 7492 7332 7332 7492 7492 7660 7492 7492 7492 7492 7492 7492 7332 7332 7332 7332 7492 7492 7492 7492 7492 7332 7332 7332 7178 7178 7178 7178 7178 7178 7332 7332 7492 7492 7492 7492 7332 7332 7332 7332 7332 7332 7332 7492 7492 7492 7492 7492 7492 7332 7332 7492 7492 7492 7332 7332 7332 7332 7178 7178 7332 7332 7332 7332 7332 7332 7492 7492 7332 7332 7332 7332 7492 7492 7660 7660 7660 7835 7835 7835 7660 7660 7660 7492 7492 7660 7835 7835 7835 7835 7835 8019 8019 8019 8212 8212 8212 0 0 0 0 8212 8212 8212 8212 8212 8212 8212 8212 0 0 0 0 0 0 0 0 0 0 0 0 0 0
0 0 0 0 0 0 0 0 0 0 0 0 0 0 0 0 0 0 0 0 0 0 0 0 0 0 0 0 0 0 4582 4582 4582 4582 4582 4645 4645 4708 4774 4842 4911 4911 4983 5056 5056 5056 5132 5132 5210 5210 6497 6622 6622 6622 6622 6622 6622 6622 6622 6375 6375 6375 6259 6259 6259 6259 6259 6259 6375 6375 6375 6375 6375 6375 6259 6259 6375 6259 6259 6375 6259 6259 6259 6259 6259 6375 6375 6375 6497 6375 6375 6375 6375 6375 6375 6259 6259 6259 6259 6259 6259 6259 6259 6259 6259 6259 6259 6375 6259 6259 6259 6259 6259 6259 6259 6375 6375 6497 6622 6622 6622 6622 6622 6622 6622 6622 6622 6622 6622 6622 6622 6622 6622 6622 6622 6622 6622 6622 6753 6753 6753 6622 6622 6622 3064 3064 3064 3092 3092 3092 3092 3064 3064 3064 3064 3064 3064 3064 3064 3064 3064 3064 3037 3037 3037 3064 3064 3064 3064 3064 3064 3064 3064 3064 3064 3064 3064 3064 3064 3064 3064 3064 3064 3064 3064 3092 3092 3120 3092 3092 3092 3092 3120 3120 3092 3092 3092 3092 3120 3120 3120 3120 3120 3120 3149 3149 3149 3149 3149 3149 3149 3149 3149 3149 3149 3149 3149 3149 3149 3149 3149 3149 3149 3149 3149 3149 3149 3149 3149 3149 3149 3149 3178 3178 3178 3178 3208 3269 3300 3269 3269 3269 3269 3269 3269 3269 3269 3269 3269 3269 3269 3269 3269 3269 3269 3238 3238 3269 3269 3269 3269 3269 3269 3269 3300 3300 0 6753 6753 6753 6889 6889 6889 6889 6889 6889 6889 6889 6889 6889 6889 7030 7030 7030 7178 7178 7178 7178 7178 7332 7332 7332 7332 7332 7332 7332 7332 7332 7332 7332 0 7030 7030 6889 1904 1904 1904 1904 1904 1904 1904 1915 1915 1894 1894 1894 1894 1894 1883 1883 1894 1894 1894 1904 1904 1904 1904 1904 1926 1904 1894 1894 1894 1894 1883 1883 1883 1883 1873 1873 1883 1883 1883 1904 1904 1894 1894 1894 1904 1904 1883 1883 1894 1915 1915 1915 1915 1915 1915 1915 1904 1894 1894 1894 1894 1894 1904 1904 1904 1915 1915 1904 1904 1904 1904 1904 4983 4983 4983 4983 4911 4911 4911 4911 4842 4842 4842 4842 4842 4842 4842 4842 4842 4842 4774 4708 4708 4708 4645 4645 4645 4645 4645 4645 4708 4645 4645 4645 4645 4708 4708 4645 4645 4645 4708 4708 4708 4708 4774 4774 4774 4774 4842 4842 4911 4983 4983 4983 7332 7332 7332 7492 7492 7660 7660 7660 7660 7660 7660 7660 7660 7660 7660 7660 7660 7835 7835 7835 7835 7835 7660 7660 7492 7492 7492 7492 7492 7492 7492 7492 7492 7492 7492 7492 7492 7492 7332 7332 7332 7492 7492 7492 7492 7492 7492 7492 7660 7660 7660 7660 7660 7660 7660 7660 7660 7492 7492 7660 7660 7660 7660 7660 7660 7660 7835 7660 7660 7660 7660 7492 7492 7492 7492 7492 7492 7492 7492 7660 7492 7492 7492 7492 7492 7492 7492 7332 7332 7492 7492 7492 7492 7492 7492 7492 7492 7492 7332 7332 7332 7332 7332 7332 7332 7332 7492 7492 7332 7332 7178 7178 7178 7178 7178 7178 7178 7178 7178 7332 7178 7178 7492 7332 7332 7332 7332 7332 7178 7178 7332 7332 7332 7332 7492 7492 7492 7332 7332 7332 7332 7332 7332 7332 7332 7332 7332 7178 7178 7178 7178 7332 7332 7332 7332 7492 7492 7332 7178 7178 7332 7492 7492 7492 7660 7660 7835 7835 7835 8019 7660 7492 7492 7492 7660 7660 7835 7835 7835 7835 8019 8019 8019 8212 0 0 0 0 0 0 8212 8212 8212 8413 8413 8413 8413 8413 0 0 0 0 0 0 0 0 0 0 0 0 0 0
0 0 0 0 0 0 0 0 0 0 0 0 0 0 0 0 0 0 0 0 0 0 0 0 0 0 0 0 0 0 4582 4582 4582 4582 4582 4645 4645 4708 4774 4842 4911 4911 4983 5056 5056 5132 5132 5132 5132 6622 6622 6622 6622 6622 6622 6622 6622 6622 6622 6375 6375 6375 6259 6259 6259 6259 6259 6259 6375 6375 6375 6375 6375 6375 6259 6259 6375 6259 6259 6375 6259 6259 6375 6375 6375 6375 6497 6497 6497 6375 6375 6375 6375 6375 6375 6375 6375 6375 6375 6259 6259 6259 6259 6259 6259 6259 6259 6259 6259 6259 6259 6259 6259 6259 6259 6375 6375 6497 6622 6622 6622 6622 6622 6622 6622 6622 6622 6622 6622 6622 6622 6622 6622 6622 6622 6622 6622 6622 6622 6622 6753 6622 6622 6622 3092 3092 3092 3092 3064 3064 3064 3064 3064 3064 3064 3064 3064 3064 3064 3064 3064 3064 3037 3037 3037 3064 3064 3064 3064 3064 3064 3064 3064 3064 3064 3064 3064 3064 3064 3064 3064 3064 3064 3064 3064 3092 3092 3120 3092 3092 3092 3092 3120 3120 3120 3120 3120 3120 3120 3120 3120 3120 3120 3120 3149 3149 3149 3149 3149 3149 3149 3149 3149 3149 3149 3149 3149 3149 3149 3149 3149 3149 3149 3149 3149 3149 3149 3149 3149 3149 3149 3149 3178 3178 3178 3208 3238 3300 3300 3300 3269 3269 3269 3269 3269 3269 3269 3269 3269 3269 3269 3269 3269 3269 3269 3238 3238 3269 3269 3269 3269 3269 3269 3300 3300 3300 0 6753 6753 6753 6889 6889 6889 6889 6889 6889 6889 6889 6889 6889 6889 7030 7178 7178 7178 7332 7332 7332 7332 7332 7332 7332 7332 7332 7332 7332 7332 7178 7178 7178 7030 7030 7030 6889 6889 1904 1904 1904 1904 1904 1904 1915 1915 1894 1894 1894 1894 1894 1894 1894 1894 1894 1904 1904 1915 1915 1915 1915 1926 1915 1894 1894 1894 1894 1883 1883 7178 7332 1873 1873 1883 1883 1883 7030 6889 6889 6889 6889 6889 1883 1883 1883 1894 1904 1915 1915 1915 1915 1915 1915 1904 1883 1883 1894 1894 1894 1904 1904 1904 1915 1915 1904 1904 4911 4983 4983 4983 4983 4983 4983 4911 4911 4911 4911 4842 4842 4842 4842 4842 4842 4842 4842 4842 4842 4774 4708 4708 4708 4645 4645 4645 4645 4645 4645 4708 4645 4645 4645 4645 4708 4708 4645 4645 4645 4645 4708 4708 4708 4774 4774 4774 4774 4842 4842 4911 4911 4983 4983 7332 7332 7332 7332 7492 7492 7492 7660 7660 7660 7660 7660 7660 7660 7660 7660 7660 7660 7660 7660 7835 7660 7660 7492 7492 7492 7492 7492 7492 7492 7492 7660 7660 7492 7492 7492 7492 7492 7332 7332 7332 7492 7492 7492 7492 7492 7660 7660 7660 7660 7660 7660 7660 7660 7660 7660 7660 7492 7492 7660 7660 7660 7660 7660 7660 7660 7835 7660 7660 7660 7660 7492 7492 7492 7492 7492 7492 7492 7492 7660 7492 7492 7332 7332 7492 7492 7332 7332 7332 7492 7492 7492 7492 7492 7492 7492 7492 7492 7332 7332 7332 7332 7332 7332 7332 7332 7492 7492 7332 7332 7178 7030 7030 7030 7030 7178 7178 7178 7178 7178 7178 7178 7332 7178 7178 7332 7332 7332 7178 7178 7332 7332 7332 7332 7332 7332 7332 7332 7178 7178 7178 7178 7178 7332 7332 7178 7178 7178 7178 7178 7178 7332 7332 7332 7332 7492 7492 7332 7178 7178 7332 7492 7492 7492 7492 7660 7835 7835 7835 8019 7660 7492 7492 7492 7660 7660 7835 7835 8019 8019 8212 8212 0 0 0 0 0 0 0 0 8212 8212 8413 8413 8413 8413 8413 8413 0 0 0 0 0 0 0 0 0 0 0 0 0 0
0 0 0 0 0 0 0 0 0 0 0 0 0 0 0 0 0 0 0 0 0 0 0 0 0 0 0 0 0 0 4582 4582 4582 4582 4645 4708 4708 4774 4842 4911 4911 4911 4983 5056 5056 5132 5132 5132 5132 6622 6622 6622 6622 6622 6753 6622 6622 6622 6622 6375 6375 6375 6259 6259 6259 6259 6259 6259 6375 6375 6375 6375 6375 6375 6375 6375 6375 6259 6259 6375 6375 6375 6375 6375 6375 6375 6497 6497 6497 6375 6375 6375 6375 6375 6375 6375 6375 6375 6375 6259 6259 6259 6146 6146 6146 6259 6259 6259 6259 6259 6259 6259 6259 6259 6259 6375 6375 6375 6375 6375 6375 6497 6497 6622 6622 6622 6622 6622 6622 6622 6497 6497 6622 6622 6497 6497 6497 6497 6497 6497 6622 6497 6497 6622 6622 3092 3092 3092 3064 3064 3064 3037 3037 3037 3064 3064 3064 3064 3064 3064 3064 3064 3064 3064 3064 3064 3037 3037 3064 3064 3064 3064 3064 3064 3064 3064 3064 3064 3064 3064 3064 3064 3064 3064 3092 3092 3092 3149 3120 3120 3120 3120 3120 3120 3120 3120 3120 3120 3120 3120 3120 3120 3120 3120 3149 3149 3149 3149 3149 3149 3149 3149 3149 3149 3149 3149 3149 3149 3149 3149 3149 3149 3149 3149 3149 3149 3149 3149 3149 3149 3149 3149 3178 3178 3178 3208 3269 3300 3300 3300 3269 3269 3269 3269 3269 3269 3269 3269 3269 3269 3269 3269 3269 3269 3269 3269 3269 3269 3269 3269 3269 3300 3300 3300 3300 3300 0 6753 6753 6753 6889 6889 6889 6889 6889 6889 6889 6889 6889 6889 6889 7030 7178 7178 7332 7332 7332 7332 7332 7332 7332 7332 7332 7332 7332 7178 7178 7178 7178 7030 7030 7030 6889 6889 6889 6889 6889 1904 1904 1915 7030 7030 7030 7178 7178 7178 7030 6889 6889 6889 1894 1894 1904 1904 1915 1915 1915 1936 1936 1926 1926 7332 1904 1904 7178 7178 7178 7332 7332 7332 7332 7492 7178 6889 6753 6753 6753 6889 6889 7030 7030 1904 1904 1904 1915 1915 1915 1915 1915 1915 1904 1883 1883 1894 5056 5056 4983 4983 4983 4983 4983 4911 4911 4911 4983 4983 4983 4983 4983 4983 4983 4911 4911 4911 4842 4842 4842 4842 4842 4842 4842 4774 4774 4774 4774 4708 4645 4645 4645 4645 4645 4645 4645 4645 4645 4645 4645 4708 4708 4708 4708 4645 4645 4645 4645 4708 4708 4708 4774 4774 4774 4774 4842 4842 4911 4911 4983 5056 7332 7332 7332 7332 7492 7492 7492 7492 7660 7660 7660 7492 7492 7660 7660 7660 7660 7660 7660 7660 7835 7660 7660 7492 7492 7492 7492 7492 7492 7492 7492 7660 7660 7660 7492 7492 7660 7660 7492 7492 7492 7492 7492 7492 7492 7492 7492 7492 7492 7660 7660 7660 7660 7835 7835 7660 7660 7492 7492 7492 7492 7660 7660 7660 7660 7835 7835 7660 7660 7660 7660 7660 7660 7660 7660 7660 7660 7660 7660 7660 7492 7492 7332 7332 7492 7492 7332 7332 7492 7492 7492 7492 7492 7492 7492 7492 7492 7492 7492 7332 7332 7332 7332 7332 7332 7332 7332 7332 7178 7178 7030 7030 7030 7030 7030 7178 7178 7178 7178 7178 7178 7178 7178 7178 7178 7178 7178 7178 7178 7178 7332 7332 7332 7332 7332 7332 7332 7178 7178 7178 7178 7178 7178 7178 7178 7178 7178 7178 7178 7178 7178 7332 7332 7332 7332 7332 7332 7178 7178 7178 7332 7332 7332 7332 7492 7660 7835 7835 7835 7660 7660 7492 7492 7492 7492 7660 7660 7835 7835 8212 8212 8212 0 0 0 0 0 0 0 0 8212 8212 8413 8413 8413 8413 8413 8413 0 0 0 0 0 0 0 0 0 0 0 0 0 0
0 0 0 0 0 0 0 0 0 0 0 0 0 0 0 0 0 0 0 0 0 0 0 0 0 0 0 0 0 0 4582 4582 4582 4645 4645 4708 4708 4842 4842 4911 4911 4911 4983 5056 5056 5132 5132 5132 4911 4842 4842 6622 6753 6753 6753 6622 6622 6753 6753 6622 6497 6497 6375 6375 6375 6375 6375 6375 6375 6375 6375 6375 6375 6375 6375 6375 6375 6375 6375 6375 6375 6375 6375 6497 6497 6497 6497 6497 6497 6497 6497 6497 6497 6497 6497 6497 6497 6497 6375 6259 6259 6259 6146 6146 6146 6259 6259 6375 6375 6375 6375 6375 6259 6259 6375 6375 6375 6259 6259 6375 6375 6375 6497 6497 6497 6497 6622 6622 6622 6497 6497 6497 6497 6622 6497 6497 6497 6497 6497 6497 6622 6497 6497 6622 6622 3092 3092 3092 3064 3064 3064 3037 3037 3037 3064 3064 3064 3064 3064 3064 3064 3064 3064 3064 3064 3064 3037 3037 3064 3064 3064 3064 3064 3064 3064 3064 3064 3064 3064 3064 3064 3064 3064 3092 3092 3120 3120 3149 3120 3120 3120 3120 3120 3120 3120 3120 3149 3149 3149 3120 3120 3120 3120 3120 3149 3149 3149 3149 3149 3149 3149 3149 3149 3149 3149 3149 3149 3149 3149 3149 3178 3149 3149 3149 3149 3149 3149 3149 3149 3149 3149 3178 3178 3178 3178 3208 3208 3300 3300 3300 3300 3269 3269 3269 3269 3269 3269 3269 3269 3269 3269 3269 3269 3269 3269 3269 3269 3300 3269 3269 3269 3300 3300 3300 3300 3300 0 0 6753 6753 6889 6889 6889 6889 6889 6889 6889 6753 6753 6889 6889 7030 7030 7030 7178 7178 7178 7178 7178 7178 7178 7178 7178 7178 7178 7178 7178 7030 7030 7030 6889 6889 6889 6889 6889 6889 6889 6889 7030 7030 7030 7178 7178 7332 7178 7178 7030 6889 6889 7030 7030 7030 7030 7030 1915 1915 1915 1947 7030 7178 7178 7178 7178 7178 7178 7178 7178 7332 7332 7332 7332 7332 7178 6889 6753 6753 6753 6889 6889 7030 7030 7030 7030 7030 5056 1926 1926 1915 1915 1915 1915 4983 4983 4983 4983 4983 4983 4911 4911 4983 4911 4911 4983 4983 4983 4983 4983 4983 4983 4983 4911 4911 4911 4911 4842 4842 4842 4842 4774 4774 4774 4774 4774 4774 4774 4708 4645 4645 4645 4645 4645 4645 4645 4645 4645 4645 4645 4708 4708 4708 4708 4645 4645 4645 4645 4708 4708 4708 4774 4774 4774 4774 4842 4842 4983 4983 4983 5056 7492 7332 7332 7332 7492 7492 7492 7492 7492 7660 7660 7492 7492 7492 7660 7660 7660 7660 7660 7660 7835 7660 7660 7492 7492 7492 7492 7492 7492 7492 7492 7660 7660 7660 7492 7492 7660 7492 7492 7492 7492 7492 7492 7492 7492 7492 7492 7492 7492 7492 7660 7660 7660 7660 7660 7492 7492 7492 7492 7492 7492 7660 7660 7660 7660 7660 7660 7660 7660 7660 7492 7492 7492 7660 7660 7660 7660 7660 7660 7492 7492 7492 7492 7332 7332 7332 7332 7332 7332 7492 7492 7492 7492 7492 7660 7660 7492 7492 7492 7492 7332 7332 7332 7332 7332 7332 7332 7332 7178 7178 6889 6889 6889 7030 7030 7030 7030 7030 7030 7030 7030 7030 7030 7030 7030 7030 7178 7178 7178 7178 7332 7332 7178 7178 7178 7178 7178 7178 7178 7030 7030 7178 7178 7178 7178 7178 7178 7178 7178 7178 7178 7178 7178 7178 7178 7332 7332 7178 7178 7178 7332 7332 7332 7332 7492 7492 7492 7492 7332 7332 7332 7332 7492 7492 7492 7492 7660 7835 7835 8019 8212 8212 0 0 0 0 0 0 0 0 8212 8212 8413 8413 8413 8413 8212 8212 0 0 0 0 0 0 0 0 0 0 0 0 0 0
0 0 0 0 0 0 0 0 0 0 0 0 0 0 0 0 0 0 0 0 0 0 0 0 0 0 0 0 0 0 4645 4645 4645 4645 4645 4708 4774 4842 4842 4842 4911 4911 4983 5056 5056 5132 5056 5056 4911 4842 4842 6753 6753 6753 6753 6753 6753 6753 6753 6753 6622 6622 6497 6497 6497 6497 6497 6497 6497 6497 6497 6375 6375 6375 6375 6375 6375 6375 6375 6497 6375 6375 6375 6497 6497 6497 6497 6497 6497 6497 6497 6497 6497 6497 6497 6622 6497 6497 6497 6375 6375 6375 6259 6259 6259 6259 6375 6375 6375 6375 6375 6375 6375 6375 6375 6375 6375 6259 6259 6259 6259 6259 6375 6375 6375 6375 6497 6497 6622 6497 6497 6497 6497 6622 6497 6497 6497 6497 6497 6497 6622 6622 6622 6622 3092 3092 3092 3092 3064 3064 3064 3037 3037 3037 3037 3037 3037 3064 3064 3064 3064 3064 3064 3064 3064 3064 3064 3064 3064 3064 3064 3064 3064 3064 3064 3064 3064 3064 3064 3064 3064 3064 3064 3092 3092 3120 3120 3120 3120 3120 3120 3120 3120 3120 3120 3120 3149 3149 3149 3149 3149 3149 3149 3149 3149 3149 3149 3149 3149 3149 3149 3149 3149 3149 3149 3149 3149 3149 3149 3178 3178 3178 3178 3178 3178 3178 3149 3149 3178 3178 3178 3178 3178 3178 3178 3178 3208 3269 3300 3300 3269 3269 3269 3269 3269 3269 3269 3269 3269 3269 3269 3269 3300 3300 3300 3300 3300 3300 3300 3300 3300 3300 3300 3333 3333 3333 3300 0 6753 6753 6889 6889 6889 6889 6889 6889 6889 6753 6753 6753 6889 7030 7030 7030 7178 7178 7178 7178 7178 7178 7178 7178 7178 7178 7178 7178 7178 7030 7030 7030 6889 6889 6889 6889 6889 6889 6889 6889 7030 7030 7030 7332 7492 7492 7332 7178 7030 7030 7030 7030 7030 7030 7030 7030 7030 7030 7030 7178 7178 7178 7178 7178 7178 7178 7178 7178 7178 7332 7332 7332 7332 7178 7178 6889 6889 6753 6753 6889 6889 7030 7030 7030 7030 7030 5056 5056 5132 5132 5132 5056 5056 4983 4983 4983 4983 4983 4983 4911 4911 4983 4911 4911 4983 4983 4983 4983 4983 4983 4983 4911 4911 4911 4911 4911 4842 4842 4842 4842 4774 4774 4774 4774 4774 4774 4774 4708 4645 4645 4645 4645 4645 4645 4645 4645 4645 4645 4708 4708 4708 4708 4708 4708 4708 4645 4645 4708 4708 4708 4774 4774 4774 4774 4842 4842 4842 4842 4842 4983 4983 7332 7332 7332 7332 7332 7332 7332 7492 7492 7492 7492 7492 7492 7660 7660 7660 7660 7660 7660 7660 7835 7660 7492 7492 7492 7492 7492 7492 7492 7492 7660 7492 7492 7492 7492 7660 7492 7492 7492 7332 7332 7492 7492 7492 7492 7332 7332 7332 7492 7492 7492 7492 7660 7660 7492 7332 7332 7492 7492 7492 7660 7660 7660 7660 7660 7660 7660 7660 7660 7492 7492 7492 7660 7660 7660 7660 7660 7492 7492 7492 7492 7332 7332 7332 7332 7332 7332 7332 7492 7492 7492 7492 7492 7660 7492 7492 7492 7492 7492 7332 7332 7332 7332 7332 7178 7178 7178 7178 7178 6753 6753 6889 6889 7030 7030 7030 7030 7030 6889 6889 6889 6889 7030 7030 7030 7178 7178 7178 7178 7178 7178 7178 7178 7178 7178 7178 7178 7030 7030 7030 7030 7030 7178 7178 7178 7178 7030 7030 7030 7030 7178 7178 7178 7178 7332 7332 7178 7178 7178 7332 7332 7332 7492 7492 7492 0 0 0 7332 7332 7332 7332 7332 7492 7492 7660 7660 7835 8019 8212 8212 0 0 0 0 0 0 0 0 8212 8212 8212 8212 8212 8212 8212 8212 0 0 0 0 0 0 0 0 0 0 0 0 0 0
0 0 0 0 0 0 0 0 0 0 0 0 0 0 0 0 0 0 0 0 0 0 0 0 0 0 0 0 0 0 4645 4645 4645 4645 4708 4708 4774 4842 4842 4842 4911 4911 4911 4983 5056 5056 5056 5056 4911 4911 6753 6753 6753 6753 6753 6753 6753 6753 6753 6753 6753 6753 6622 6622 6497 6497 6497 6622 6497 6497 6497 6497 6497 6497 6497 6497 6497 6497 6497 6497 6497 6497 6497 6497 6497 6497 6497 6497 6497 6497 6497 6497 6497 6497 6497 6622 6497 6497 6497 6497 6375 6375 6375 6375 6259 6259 6375 6497 6375 6375 6497 6497 6497 6375 6375 6375 6375 6259 6259 6259 6259 6259 6259 6259 6259 6259 6497 6497 6622 6622 6497 6497 6622 6622 6497 6497 6497 6497 6622 6622 6622 6622 6622 0 3092 3092 3092 3092 3064 3064 3064 3037 3037 3037 3037 3037 3037 3064 3064 3064 3064 3064 3064 3064 3064 3064 3064 3064 3064 3064 3064 3064 3064 3064 3064 3064 3064 3064 3064 3064 3064 3064 3092 3092 3092 3120 3120 3120 3120 3120 3120 3120 3120 3120 3120 3120 3149 3149 3149 3149 3149 3149 3149 3149 3149 3149 3149 3149 3149 3149 3149 3149 3149 3149 3149 3149 3149 3149 3149 3178 3178 3149 3149 3149 3178 3178 3149 3149 3178 3178 3178 3178 3178 3178 3178 3178 3208 3269 3300 3269 3269 3269 3269 3269 3269 3269 3269 3269 3269 3269 3300 3300 3300 3300 3300 3300 3333 3300 3300 3300 3300 3300 3300 3333 3300 3300 3300 6622 6622 6622 6753 6889 6889 6889 6889 6753 6753 6622 6622 6753 6753 6889 7030 7030 7030 7030 7178 7178 7178 7178 7178 7178 7178 7178 7178 7178 7178 7030 7030 7030 6889 6889 6889 6889 6889 6889 6889 6889 6889 7030 7030 7178 7492 7492 7492 7332 7178 7030 7030 7030 7030 7030 7030 7030 6889 6889 6889 6889 7030 7178 7178 7178 7178 7178 7178 7178 7332 7332 7332 7332 7332 7178 7030 6889 6889 6753 6753 6889 6889 6889 6889 6889 7030 7178 5132 5132 5132 5132 5132 5056 5056 5056 5056 4983 4983 4983 4983 4983 4983 4983 4911 4911 4911 4983 4983 4983 4983 4983 4983 4911 4911 4911 4911 4842 4842 4842 4842 4842 4774 4774 4774 4774 4774 4774 4774 4774 4708 4708 4645 4645 4645 4645 4645 4645 4645 4645 4708 4708 4708 4708 4708 4708 4708 4708 4708 4708 4708 4774 4774 4842 4842 4842 4842 4911 4842 4842 4842 4911 4911 7492 7332 7332 7332 7178 7178 7178 7332 7332 7332 7332 7492 7492 7492 7492 7660 7660 7660 7660 7660 7660 7492 7492 7492 7492 7492 7492 7332 7332 7492 7492 7492 7492 7492 7492 7492 7492 7492 7492 7332 7332 7492 7492 7492 7492 7332 7332 7332 7492 7492 7332 7332 7332 7332 7332 7332 7332 7332 7492 7492 7492 7492 7660 7660 7660 7660 7660 7660 7660 7492 7492 7492 7660 7660 7660 7660 7660 7492 7492 7492 7492 7332 7332 7332 7332 7332 7332 7332 7332 7492 7492 7492 7492 7492 7492 7492 7492 7492 7492 7332 7332 7332 7332 7178 7030 7030 7030 7030 6889 6622 6622 6753 6753 6889 6889 7030 7030 7030 6889 6889 6889 6889 7030 7030 7030 7178 7178 7178 7178 7178 7178 7178 7178 7178 7178 7178 7178 7030 7030 7030 7030 7030 7030 7030 7030 7030 7030 7030 7030 7030 7178 7178 7332 7332 7332 7332 7030 7030 7030 7332 7332 7178 7178 7178 6889 6889 6889 6889 6889 7332 7332 7332 7332 7492 7492 7660 7660 7660 7835 8019 8019 0 0 0 0 0 0 0 0 8626 8212 8212 8212 8212 8212 8413 0 0 0 0 0 0 0 0 0 0 0 0 0 0 0
0 0 0 0 0 0 0 0 0 0 0 0 0 0 0 0 0 0 0 0 0 0 0 0 0 0 0 0 0 0 4645 4645 4645 4645 4645 4708 4708 4774 4842 4842 4842 4911 4911 4983 5056 5056 5056 5056 5132 6753 6753 6753 6753 6753 6753 6753 6753 6753 6753 6753 6753 6753 6622 6622 6622 6497 6497 6497 6497 6497 6497 6497 6497 6497 6497 6497 6497 6497 6497 6497 6497 6497 6497 6497 6497 6497 6497 6497 6497 6497 6497 6497 6622 6622 6622 6622 6622 6622 6622 6497 6497 6497 6375 6375 6375 6375 6375 6375 6375 6375 6622 6497 6497 6146 6146 6375 6375 6146 6146 6259 6259 6259 6259 6259 6259 6259 6497 0 0 0 0 0 0 0 0 0 0 0 0 0 0 2958 3037 3037 3064 3064 3064 3064 3064 3064 3064 3037 3037 3037 3037 3037 3037 3037 3064 3064 3064 3064 3064 3064 3064 3064 3064 3064 3064 3064 3064 3064 3064 3064 3064 3092 3092 3092 3092 3064 3064 3064 3092 3092 3092 3120 3120 3120 3120 3120 3120 3120 3120 3120 3120 3120 3149 3149 3149 3149 3149 3149 3149 3149 3149 3149 3149 3149 3149 3149 3149 3149 3149 3149 3149 3149 3149 3149 3149 3178 3178 3149 3149 3149 3178 3178 3149 3149 3178 3178 3178 3178 3178 3178 3178 3208 3238 3269 3269 3269 3269 3269 3269 3269 3269 3269 3300 3300 3300 3300 3300 3300 3333 3300 3300 3300 3333 3300 3269 3269 3269 3300 3300 3333 3300 3300 3300 6622 6622 6622 6753 6889 6889 6889 6889 6753 6753 6622 6622 6622 6753 6889 7030 7030 7030 7030 7178 7178 7178 7178 7178 7178 7178 7178 7178 7030 7030 7030 7030 6889 6889 6889 6889 6889 6889 6889 6889 6889 6889 7030 7030 7178 7492 7492 7492 7332 7332 7178 7178 7030 7030 7030 7030 7030 6889 6889 6889 6889 7030 7178 7178 7178 7332 7332 7332 7332 7332 7332 7332 7332 7332 7178 7030 6889 6889 6753 6753 6889 6889 6889 6889 6889 7030 7178 5132 5132 5132 5132 5056 5056 5056 5056 5056 4983 4983 4983 4983 4983 4983 4983 4911 4911 4911 4983 4983 4911 4911 4911 4911 4911 4911 4911 4911 4842 4842 4842 4842 4842 4774 4774 4774 4774 4774 4774 4774 4774 4774 4708 4645 4645 4645 4645 4708 4645 4645 4708 4708 4708 4708 4774 4774 4708 4708 4708 4708 4708 4708 4774 4774 4842 4842 4842 4842 4842 4911 4842 4842 4842 4842 7030 7030 7030 7030 7030 7030 7178 7178 7178 7178 7178 7332 7332 7332 7332 7332 7492 7660 7660 7660 7660 7492 7492 7492 7492 7492 7492 7332 7332 7332 7492 7492 7492 7492 7492 7492 7492 7492 7332 7332 7332 7332 7492 7492 7492 7332 7332 7332 7492 7492 7332 7332 7332 7332 7332 7332 7332 7332 7332 7492 7492 7492 7492 7492 7492 7492 7492 7492 7492 7492 7492 7492 7492 7660 7660 7660 7660 7660 7660 7492 7492 7492 7332 7332 7332 7332 7178 7178 7332 7332 7492 7492 7492 7492 7492 7492 7492 7492 7492 7332 7332 7178 7178 7030 7030 6889 6889 7030 6889 6622 6622 6753 6753 6889 6889 6889 6889 6889 6889 6889 6889 7030 7030 7030 7030 7178 7178 7178 7178 6889 6889 6889 6889 7030 7030 7030 7030 7030 7030 7030 7030 7030 7030 7030 7030 7030 7030 7030 7030 7178 7178 7178 7332 7332 7332 7332 7030 7030 7030 7178 7178 7178 7030 6889 6889 6889 6889 6889 6889 6889 6889 7030 7178 7178 7332 7492 7492 7660 7660 7835 0 0 0 0 0 0 8413 8413 8626 8626 8626 8413 8413 8413 8413 8413 0 0 0 0 0 0 0 0 0 0 0 0 0 0 0
0 0 0 0 0 0 0 0 0 0 0 0 0 0 0 0 0 0 0 0 0 0 0 0 0 0 0 0 0 0 4645 4645 4645 4645 4645 4708 4708 4774 4842 4842 4842 4842 4911 4983 4983 5056 5056 5132 5210 6753 6753 6753 6753 6753 6753 6753 6753 6753 6753 6753 6753 6753 6622 6622 6622 6497 6497 6497 6497 6497 6497 6497 6497 6497 6497 6497 6497 6497 6497 6497 6497 6497 6497 6497 6497 6497 6497 6497 6497 6497 6497 6497 6622 6622 6622 6622 6622 6622 6622 6497 6497 6497 6375 6375 6375 6375 6375 6375 6375 6375 6622 6497 6497 6146 6146 6146 6497 2984 2984 6259 6259 6259 6259 6259 6259 6259 6259 6259 0 0 0 0 0 0 0 0 0 0 0 0 0 0 0 3037 3037 3037 3037 3064 3064 3064 3064 3037 3037 3037 3037 3037 3037 3037 3037 3064 3064 3037 3037 3064 3037 3037 3064 3064 3064 3064 3064 3064 3064 3064 3064 3092 3092 3092 3092 3064 3064 3092 3092 3092 3120 3120 3120 3120 3120 3120 3120 3120 3120 3120 3120 3120 3149 3149 3149 3149 3149 3149 3149 3149 3149 3149 3149 3149 3149 3149 3149 3149 3149 3178 3178 3178 3178 3178 3178 3178 3178 3178 3178 3178 3178 3178 3178 3178 3178 3178 3178 3178 3178 3178 3178 3208 3238 3269 3269 3269 3269 3269 3269 3269 3300 3300 3300 3300 3300 3300 3300 3333 3333 3333 3333 3333 3333 3300 3269 3269 3269 3269 3269 3300 3300 3300 3300 3149 6753 6753 6753 6889 6889 6889 6889 6753 6753 6622 6622 6622 6622 6889 7030 7030 7030 7178 7178 7178 7178 7178 7178 7178 7178 7178 7178 7030 7030 7030 7030 6889 6889 6889 6753 6753 6889 6889 6889 6889 6889 7030 7030 7178 7492 7492 7492 7492 7332 7178 7178 7030 7030 7030 7030 6889 6889 6889 6889 7030 7030 7332 7332 7332 7332 7332 7332 7332 7332 7332 7492 7332 7332 7178 7030 6889 6889 6753 6753 6889 6889 6889 6889 6889 7030 5132 5132 5132 5132 5132 5056 5056 5056 5056 5056 4983 4983 5056 4983 4983 4983 4983 4983 4911 4911 4983 4983 4911 4911 4911 4911 4911 4911 4911 4911 4842 4842 4842 4842 4842 4842 4774 4774 4842 4774 4774 4774 4774 4774 4708 4708 4645 4645 4645 4708 4708 4708 4708 4708 4708 4708 4708 4774 4708 4708 4708 4708 4774 4774 4774 4774 4774 4842 4842 4842 4842 4911 4842 4842 4842 4842 6753 6753 6753 6753 6753 6889 6889 7030 7030 7030 7030 7030 7178 7332 7332 7332 7332 7492 7492 7492 7492 7332 7332 7332 7332 7332 7332 7332 7332 7332 7332 7332 7332 7332 7332 7332 7332 7332 7332 7332 7332 7332 7332 7332 7332 7332 7332 7332 7332 7332 7332 7332 7332 7332 7332 7178 7178 7178 7332 7332 7332 7332 7332 7332 7332 7332 7332 7332 7332 7332 7332 7332 7492 7492 7492 7492 7492 7492 7492 7492 7492 7332 7332 7332 7332 7332 7178 7178 7178 7178 7332 7178 7178 7332 7492 7492 7492 7332 7332 7178 7178 7178 7178 7030 7030 6889 6889 6889 6889 6753 6753 6753 6753 6889 6889 6889 6889 6889 6889 6889 6889 7030 7030 7030 7178 7178 7178 7178 6753 6753 6753 6889 6889 6889 6889 7030 7030 7030 7030 7030 7030 7030 7030 7030 7030 7030 7030 7030 7030 7030 7178 7178 7332 7178 7178 7332 7178 7030 7030 7178 7178 7178 7030 6889 6889 6889 6889 6889 6889 6889 6889 7030 7178 7178 7332 7492 7492 7492 7492 7492 7660 7660 7835 7835 7835 8019 8212 8413 8413 8413 0 8413 8413 8413 8019 8019 0 0 0 0 0 0 0 0 0 0 0 0 0 0 0
0 0 0 0 0 0 0 0 0 0 0 0 0 0 0 0 0 0 0 0 0 0 0 0 0 0 0 0 0 0 4645 4645 4645 4645 4645 4708 4708 4774 4842 4842 4842 4842 4911 4983 4983 5056 5132 5132 5210 5291 6753 6753 6753 6753 6753 6753 6753 6753 6753 6753 6753 6753 6622 6622 6622 6497 6497 6497 6497 6497 6497 6497 6497 6497 6497 6497 6497 6497 6497 6497 6497 6497 6497 6497 6497 6375 6375 6497 6497 6497 6497 6497 6622 6622 6622 6622 6622 6622 6622 6497 6497 6497 6497 6497 6497 6497 6497 6497 6497 6497 6622 6622 6622 6622 6753 2984 2984 2984 2984 2984 6146 6259 6259 6375 6375 6375 0 0 0 0 0 0 0 0 0 0 0 0 0 0 0 2958 0 3010 3010 3010 3037 3064 3064 3064 3064 3037 3037 3037 3037 3037 3037 3037 3037 3037 3037 3037 3037 3037 3037 3037 3064 3064 3064 3064 3064 3064 3064 3064 3064 3064 3092 3092 3092 3064 3064 3092 3092 3092 3092 3092 3092 3120 3120 3120 3120 3120 3120 3120 3149 3149 3149 3149 3149 3149 3149 3149 3149 3149 3149 3149 3149 3149 3149 3149 3149 3149 3149 3178 3178 3178 3178 3178 3178 3178 3178 3178 3178 3178 3178 3178 3178 3178 3178 3178 3178 3178 3178 3178 3178 3208 3208 3238 3269 3269 3269 3269 3269 3269 3300 3300 3300 3300 3300 3300 3333 3333 3333 3333 3333 3333 3333 3300 3269 3269 3269 3269 3269 3269 3269 3269 3208 3149 3149 3149 3178 6889 6889 6889 6889 6753 6753 6622 6622 6622 6622 6889 7030 7030 7030 7178 7178 7178 7178 7178 7178 7178 7178 7178 7178 7178 7178 7030 7030 6889 6889 6889 6753 6753 6753 6753 6889 6889 6889 7030 7030 7178 7492 7492 7492 7492 7332 7178 7178 7030 7030 7030 7030 6889 6889 6889 6889 7030 7178 7332 7332 7332 7332 7332 7332 7332 7492 7492 7492 7332 7332 7178 7030 6889 6889 6753 6753 6889 6889 6889 6889 6889 5210 5132 5132 5132 5132 5132 5132 5056 5056 5056 5056 5056 5056 5056 4983 4983 4983 4983 4983 4983 4983 4983 4983 4911 4911 4911 4911 4911 4911 4911 4842 4842 4842 4842 4842 4842 4842 4842 4842 4842 4842 4774 4774 4774 4708 4708 4708 4708 4708 4708 4708 4708 4708 4708 4708 4708 4708 4708 4774 4774 4708 4708 4708 4774 4774 4774 4774 4774 4842 4842 4842 4842 4911 4842 4842 4842 6497 6497 6497 6622 6622 6622 6753 6753 6753 6753 6753 6753 6889 7030 7178 7178 7178 7178 7178 7332 7332 7332 7178 7178 7332 7332 7332 7332 7178 7178 7178 7332 7332 7332 7332 7332 7332 7332 7332 7332 7178 7178 7178 7332 7332 7332 7332 7332 7332 7332 7332 7332 7332 7332 7332 7178 7178 7178 7178 7178 7332 7332 7332 7332 7178 7178 7178 7332 7178 7178 7332 6889 6889 7030 7030 7178 7178 7492 7492 7492 7492 7332 7332 7332 7332 7178 7178 7030 7030 7030 7030 7030 7030 7030 7178 7332 7492 7492 7332 7332 7178 7030 7030 7030 7030 6889 6753 6753 6889 6889 6753 6753 6753 6753 6889 6889 6889 6889 6889 6889 6889 6889 7030 4645 4582 4582 4582 4582 4522 4463 4463 6753 6753 6753 6753 6753 6889 6889 6889 6889 6889 7030 6889 6889 6889 6889 6889 7030 7030 7030 7030 7178 7178 7178 7178 7178 7332 6753 6753 6889 7030 7030 7030 6889 6889 6889 6889 6889 6889 6889 6889 6889 7332 7332 7492 7332 7332 7332 7492 7492 7332 6889 6889 7835 7835 7835 8019 8212 8212 8413 8413 7030 7030 7030 8019 8019 8019 0 0 0 0 0 0 0 0 0 0 0 0 0 0 0
0 0 0 0 0 0 0 0 0 0 0 0 0 0 0 0 0 0 0 0 0 0 0 0 0 0 0 0 0 0 4645 4645 4645 4645 4708 4708 4708 4774 4842 4842 4842 4842 4911 4983 5056 5132 5132 5132 5210 5291 6038 6038 6622 6622 6753 6753 6753 6753 6753 6753 6753 6753 6622 6622 6622 6497 6497 6497 6497 6497 6375 6375 6375 6497 6497 6497 6497 6497 6497 6497 6375 6375 6375 6375 6375 6375 6375 6375 6497 6497 6497 6497 6622 6622 6622 6622 6622 6622 6622 6497 6497 6497 6497 6497 6622 6622 6622 6622 6622 6622 6622 6622 6622 6622 6622 2984 2984 2984 2984 2984 2984 2984 2984 3092 3037 3037 0 2984 2984 0 0 0 0 0 0 2984 2958 2958 2958 2958 2958 2958 2958 2984 2984 3010 3037 3037 3037 3037 3037 3037 3037 3037 3037 3037 3037 3037 3037 3037 3037 3037 3037 3037 3037 3037 3064 3064 3064 3064 3064 3064 3064 3064 3064 3064 3092 3092 3092 3092 3092 3092 3092 3092 3092 3092 3092 3092 3120 3120 3120 3120 3120 3120 3149 3149 3149 3149 3149 3149 3149 3149 3149 3149 3149 3149 3149 3149 3178 3149 3149 3178 3178 3178 3178 3178 3178 3178 3178 3178 3178 3178 3178 3178 3178 3178 3178 3178 3178 3178 3178 3178 3178 3178 3178 3208 3208 3238 3269 3269 3269 3269 3269 3269 3300 3300 3300 3333 3333 3333 3333 3333 3333 3333 3300 3300 3300 3300 3269 3238 3238 3238 3238 3238 3238 3238 3208 3208 3149 3149 3178 6889 6889 6889 6889 6889 6889 6889 6622 6622 6753 6889 7030 7030 7030 7178 7178 7178 7178 7178 7178 7178 7178 7178 7178 7178 7178 7178 7030 6889 6889 6889 6753 6753 6753 6753 6889 6889 6889 7030 7030 7332 7492 7492 7492 7492 7492 7178 7178 7030 7030 7030 7030 7030 6889 6889 7030 7178 7178 7332 7492 7492 7492 7492 7492 7492 7492 7492 7492 7332 7332 7332 7178 6889 6889 6753 6753 6889 6889 6889 6889 6889 5210 5132 5132 5132 5132 5132 5132 5056 5056 5056 5056 5056 5056 5056 4983 4983 4983 4983 4983 4983 4983 4983 4983 4911 4911 4911 4911 4911 4911 4911 4842 4842 4842 4842 4842 4842 4842 4842 4842 4842 4842 4774 4774 4774 4708 4708 4708 4708 4645 4645 4708 4708 4708 4708 4708 4708 4708 4708 4774 4774 4708 4708 4708 4774 4774 4774 4774 4774 4842 4842 4842 4842 4983 4983 5056 5056 6497 6497 6497 6622 6622 6622 6753 6753 6622 6622 6622 6622 6753 6753 6889 6889 6753 6753 7030 7178 6753 6753 6889 6889 7030 7332 7332 7332 7178 7178 7178 7178 7178 7178 7178 7178 7178 7178 7178 7178 7178 7178 7178 7178 7178 7178 7178 7332 7332 7332 7332 7178 7178 7332 7332 7178 7030 7030 7030 7030 7178 7178 7178 7178 7030 7030 7030 7030 7030 7030 6889 6889 6889 6889 6889 7030 7030 7030 7492 7332 7332 7332 7332 7332 7332 7178 7178 6889 6889 6889 6889 6889 6889 6753 6753 7332 7492 7492 7492 6753 6753 6753 6753 7030 6889 6889 6753 6753 6753 6753 6622 6622 6889 6889 6889 6889 6889 6889 6889 6889 6889 4708 4708 4645 4582 4582 4582 4582 4522 4463 4463 4463 4405 4405 6753 6753 6889 6889 6889 6889 6889 7030 6889 6889 6889 6889 6889 6889 6889 7030 7030 7030 7030 7178 7178 7178 7178 6753 6753 6889 7030 6889 6889 6889 6889 6889 6889 6889 6889 6889 6889 7030 7492 7492 7178 7178 7178 7332 7332 7332 7332 6889 6889 6889 6889 7492 7835 8019 7660 6889 6889 7030 7030 7030 7030 7178 7178 7178 0 0 0 0 0 0 0 0 0 0 0 0 0 0
0 0 0 0 0 0 0 0 0 0 0 0 0 0 0 0 0 0 0 0 0 0 0 0 0 0 0 0 0 0 4708 4708 4708 4708 4708 4708 4708 4774 4842 4842 4842 4842 4911 4983 5056 5132 5132 5132 5210 5291 5548 5832 6038 6375 6622 6753 6753 6753 6753 6753 6753 6753 6622 6622 6622 6497 6497 6497 6497 6375 6375 6375 6375 6497 6497 6497 6497 6497 6497 6497 6375 6375 6375 6375 6375 6375 6375 6375 6497 6375 6375 6497 6497 6622 6622 6497 6497 6497 6497 6497 6497 6497 6497 6497 6622 6622 6622 6622 6622 6622 6622 6622 6753 6753 3037 2984 2984 3010 3010 2984 2984 2984 3092 3092 3037 3037 0 0 2984 2984 3010 3010 3010 3010 2984 2984 2958 2958 2958 2958 2958 2958 2958 2984 2984 2984 3010 3010 3010 3010 3037 3037 3010 3010 3010 3037 3037 3037 3010 3010 3010 3010 3037 3037 3037 3037 3037 3064 3064 3064 3064 3064 3064 3064 3064 3064 3092 3092 3092 3092 3092 3064 3064 3064 3064 3064 3064 3064 3092 3092 3120 3120 3120 3120 3149 3149 3149 3149 3149 3149 3149 3149 3149 3149 3149 3149 3149 3149 3149 3149 3149 3149 3178 3178 3178 3178 3178 3178 3178 3178 3178 3149 3149 3149 3149 3178 3149 3149 3178 3178 3178 3178 3178 3178 3208 3208 3238 3238 3269 3238 3238 3238 3269 3269 3269 3300 3300 3300 3300 3269 3269 3269 3238 3208 3208 3208 3208 3208 3208 3208 3208 3208 3208 3238 3238 3238 3208 3208 3178 3178 3238 3238 3269 3269 3333 3365 3333 3333 3365 7030 7030 7030 7030 7030 7178 7178 7178 7178 7178 7178 7178 7178 7332 7332 7332 7332 7332 7332 7178 7030 7030 6889 6753 6753 6753 6753 6889 6889 6889 7030 7030 7178 7492 7492 7492 7492 7492 7332 7178 7030 7030 7030 7030 7030 7030 7030 7030 7332 7332 7332 7492 7492 7492 7492 7492 7492 7492 7492 7492 7332 7332 7332 7178 6889 6889 6753 6753 6889 6889 6889 6889 7030 7030 5132 5132 5132 5132 5132 5132 5056 5056 5056 5056 5056 5056 5056 5056 4983 4983 5056 5056 4983 4983 4983 4983 4911 4911 4911 4911 4911 4911 4911 4911 4842 4842 4842 4842 4842 4842 4842 4842 4842 4842 4842 4774 4774 4774 4708 4708 4708 4645 4645 4708 4708 4708 4708 4708 4708 4708 4774 4774 4774 4708 4708 4708 4708 4774 4708 4708 4774 4774 4842 4842 4842 4983 5056 5056 5056 6622 6622 6622 6622 6622 6622 6622 6753 6622 6497 6497 6497 6622 6622 6753 6753 6622 6622 6753 6622 6622 6622 6753 6753 6753 7332 7332 7332 7178 7178 7178 7178 7178 7178 7178 7178 7178 7178 7178 7178 7030 7030 6889 6889 6889 6889 7030 7178 7178 7178 7178 7178 7178 7332 7178 7178 6889 6889 6889 7030 7030 7178 7178 7178 7030 6889 6889 6889 6889 6753 6753 6622 6622 6753 6889 6889 6889 6889 7178 7178 7178 7178 7178 7178 7332 7030 7030 6889 6753 6753 6889 6889 6889 6753 6753 6753 6753 6889 6889 6889 6753 6753 6753 6889 6889 6889 6753 6753 6753 6753 6622 6622 6889 6889 7030 7030 7030 7030 7030 4708 4708 4708 4708 4645 4645 4645 4582 4522 4522 4522 4463 4463 4405 4405 6622 6622 6622 6753 6753 6753 6753 6753 6622 6622 6622 6753 6753 6889 6889 6889 7030 6889 6889 7030 7030 7030 7030 6889 6889 6889 7030 6889 6889 6889 6889 6889 6889 6889 6889 6889 6889 7030 7030 7030 7030 7178 7178 7178 7178 7178 7030 7030 7030 6889 6889 7178 7178 7332 6889 6889 6889 6889 6889 6889 6889 6889 7030 7030 7030 0 0 0 0 0 0 0 0 0 0 0 0 0
0 0 0 0 0 0 0 0 0 0 0 0 0 0 0 0 0 0 0 0 0 0 0 0 0 0 0 0 0 0 4708 4708 4708 4708 4708 4708 4708 4774 4842 4842 4842 4842 4911 4983 5056 5132 5210 5210 5291 5374 5548 5832 5933 6038 6375 6622 6622 6753 6753 6753 6753 6753 6622 6622 6622 6375 6375 6259 6259 6259 6375 6259 6259 6375 6497 6497 6497 6497 6497 6497 6375 6375 6375 6375 6375 6375 6375 6375 6375 6375 6375 6375 6497 6622 6622 6497 6497 6497 6497 6497 6375 6375 6375 6375 6497 6622 6622 6622 6622 6375 6375 6622 6622 3037 3037 3037 3064 3064 3064 3064 3064 2984 2984 3037 3037 3037 2984 2984 2984 2984 2984 2984 2958 2958 2984 2984 2958 2958 2958 2958 2958 2958 2958 2984 2984 2984 2984 3010 3010 3010 3037 3010 3010 2984 2984 3010 3010 3010 2984 2984 2984 2984 3010 3010 3010 3037 3037 3064 3064 3064 3064 3064 3064 3064 3064 3064 3064 3064 3092 3092 3064 3037 3037 3037 3037 3037 3064 3064 3064 3064 3092 3092 3092 3120 3120 3120 3149 3149 3149 3120 3120 3120 3120 3120 3120 3120 3120 3149 3149 3149 3149 3149 3178 3178 3178 3149 3149 3178 3178 3149 3149 3149 3149 3149 3149 3149 3149 3149 3149 3178 3178 3178 3178 3178 3208 3208 3208 3208 3238 3238 3238 3238 3238 3269 3269 3269 3300 3300 3149 3149 3149 3178 3178 3178 3178 3208 3208 3208 3208 3178 3178 3208 3208 3238 3238 3238 3238 3238 3238 3238 3238 3238 3269 3269 3333 3365 3333 3333 3365 3365 3365 7030 7030 7178 7178 7178 7332 7332 7332 7332 7332 7332 7332 7332 7332 7492 7492 7492 7332 7030 7030 7030 6889 6889 6889 6889 6889 6889 6889 7030 7030 7178 7178 7492 7492 7492 7492 7332 7178 7030 7030 7030 7030 7030 7030 7030 7030 7332 7332 7492 7492 7492 7492 7492 7492 7660 7660 7660 7492 7492 7492 7332 7332 7030 6889 6889 6889 6889 6889 7030 7030 7030 7030 5132 5132 5132 5132 5132 5056 5056 5056 5056 5056 5056 5056 5056 5056 5056 5056 5056 5056 5056 4983 4983 4983 4911 4911 4911 4911 4911 4911 4911 4911 4842 4842 4842 4842 4842 4842 4842 4842 4842 4842 4842 4774 4774 4774 4774 4708 4708 4708 4708 4708 4708 4708 4708 4774 4774 4774 4774 4774 4774 4708 4708 4708 4708 4774 4708 4708 4774 4774 4842 4842 4842 4983 5056 5056 6622 6622 6622 6622 6622 6622 6622 6622 6622 6622 6497 6497 6497 6497 6622 6622 6622 6622 6622 6753 6622 6622 6622 6753 6753 6753 7178 7178 7178 7178 7178 7178 7030 7030 7178 7178 7178 7178 7178 7178 7178 6889 6889 6753 6753 6753 6753 6753 6889 6889 7030 7030 7178 7178 7178 7178 6889 6753 6753 6753 6889 6889 7030 7030 7178 7030 6753 6753 6753 6753 6753 6622 6622 6622 6622 6622 6622 6622 6622 6753 7030 7030 7178 7178 7178 7178 7030 7030 6753 6622 6622 6622 6753 6889 6753 6753 6753 6622 6622 6753 6753 6622 6622 6622 6622 6753 6753 6753 6753 6753 6753 6753 6753 7178 7178 7030 7030 7178 4645 4645 4708 4708 4708 4708 4645 4645 4645 4582 4522 4522 4522 4463 4463 4463 4463 4463 6622 6622 6622 6497 6497 6497 6497 6497 6497 6497 6622 6622 6753 6753 6889 7030 6889 6889 7030 7030 7030 7030 6889 6889 6889 7030 6889 6889 6889 6889 6889 6889 6753 6753 6889 6889 6889 6889 6889 6889 7030 7030 7030 7030 7030 7030 7030 7030 6889 6889 6889 6889 6889 6889 6753 6753 6753 6753 6753 6889 6889 7030 7030 7030 0 0 0 0 0 0 0 0 0 0 0 0 0
0 0 0 0 0 0 0 0 0 0 0 0 0 0 0 0 0 0 0 0 0 0 0 0 0 0 0 0 0 0 4708 4708 4708 4708 4708 4708 4708 4774 4842 4842 4911 4911 4983 5056 5056 5210 5210 5210 5291 5374 5640 5832 5933 6038 6375 6375 6375 6497 6753 6753 6622 6497 6375 6375 6375 6259 6259 6259 6038 6038 6146 6146 6259 6259 6375 6375 6375 6375 6375 6375 6259 6259 6259 6259 6259 6259 6259 6259 6259 6259 6259 6259 6375 6497 6497 6497 6497 6497 6497 6497 6375 6375 6375 6375 6497 6622 6622 6497 6497 6375 6375 6753 6753 3037 3037 3037 3064 3064 3064 3064 3064 2984 2984 3037 3010 3010 2984 2984 2984 2984 2984 2984 2958 2958 2984 2984 2958 2958 2958 2958 2958 2958 2958 2958 2958 2984 2984 2984 2984 2984 3010 3010 2984 2984 2984 2984 2984 2958 2958 2958 2958 2958 2958 2984 2984 3010 3010 3037 3037 3064 3064 3064 3064 3064 3064 3064 3064 3064 3064 3064 3064 3037 3010 3010 3037 3037 3037 3037 3064 3064 3064 3064 3064 3092 3120 3120 3120 3120 3120 3120 3092 3092 3092 3092 3092 3092 3120 3120 3149 3149 3149 3149 3178 3178 3178 3149 3149 3149 3178 3149 3149 3149 3149 3149 3149 3149 3149 3149 3149 3178 3178 3178 3178 3178 3178 3178 3178 3178 3208 3208 3208 3208 3178 3178 3178 3208 3208 3149 3149 3149 3149 3149 3149 3149 3149 3178 3178 3178 3178 3178 3178 3208 3208 3238 3238 3238 3238 3238 3238 3238 3238 3238 3269 3269 3333 3365 3333 3333 3365 3365 3365 7178 7178 7178 7178 7178 7178 7332 7332 7332 7492 7492 7332 7332 7332 7332 7332 7332 7332 7178 7030 7030 6889 6889 6889 6889 6889 6889 6889 7030 7030 7178 7178 7492 7492 7492 7492 7332 7332 7178 7030 7030 6889 6889 6889 6889 7030 7178 7332 7492 7492 7660 7660 7660 7660 7660 7660 7660 7492 7492 7492 7332 7332 7030 6889 6889 6889 6889 7030 7030 7030 7030 7030 7030 5132 5132 5132 5132 5056 5056 5056 5056 5056 5056 5056 5056 5056 5056 5056 5056 5132 5132 4983 4911 4911 4911 4911 4911 4911 4911 4911 4911 4911 4842 4842 4842 4842 4842 4911 4842 4842 4842 4842 4842 4774 4774 4774 4774 4708 4708 4708 4708 4708 4708 4708 4708 4774 4774 4774 4774 4774 4774 4708 4708 4708 4708 4708 4774 4774 4774 4774 4842 4842 4842 4983 4983 6622 6622 6622 6622 6622 6622 6622 6622 6622 6622 6497 6497 6497 6497 6497 6497 6497 6497 6497 6622 6622 6622 6622 6622 6622 6753 6753 7178 7178 7178 7178 7178 7178 7030 7030 7178 7030 7030 7030 7178 7178 7030 6753 6753 6622 6622 6622 6622 6622 6753 6889 6889 7030 7030 7030 7178 7178 6889 6753 6753 6753 6753 6753 7030 7030 6889 6753 6753 6753 6622 6622 6622 6497 6375 6375 6497 6497 6497 6497 6622 6622 7030 6622 6622 7178 7178 7178 5056 6753 6753 6622 6622 6622 6753 7030 6889 6889 6889 6622 6622 6622 6622 6622 6622 6622 6622 6622 6753 6753 6753 6753 6753 6753 6753 6753 4645 4645 4708 4708 4645 4645 4708 4708 4708 4708 4708 4645 4645 4582 4582 4582 4522 4522 4463 4463 4463 4463 6497 6497 6497 6497 6497 6375 6375 6375 6497 6497 6622 6622 6753 6753 6889 7030 7030 7030 7030 7030 7030 7030 6889 6889 6889 6889 6753 6753 6889 6889 6889 6753 6622 6622 6753 6753 6753 6753 6753 6753 6889 7030 7030 7030 7030 7030 6889 6889 6889 6889 6889 6889 6889 6889 6753 6753 6753 6753 6753 6753 6889 6889 7030 7030 0 0 0 0 0 0 0 0 0 0 0 0 0
0 0 0 0 0 0 0 0 0 0 0 0 0 0 0 0 0 0 0 0 0 0 0 0 0 0 0 0 0 0 4774 4708 4708 4708 4774 4774 4774 4842 4842 4842 4911 4911 4983 5056 5132 5132 5210 5210 5291 5374 5832 5832 6038 6146 6259 6259 6259 6375 6497 6622 6622 6497 6375 6375 6375 6259 6038 6038 6038 6038 6146 6146 6146 6146 6146 6259 6038 5933 5933 5933 5933 6038 6259 6259 6259 6259 6259 6259 6259 6259 6259 6259 6375 6497 6497 6497 6497 6497 6497 6497 6497 6497 6497 6497 6622 6622 6622 6497 6497 6497 6497 6753 6753 3010 3010 3010 3037 3037 3037 3037 3037 2984 2984 2984 2984 3010 2984 2984 2984 2984 2984 2984 2958 2958 2984 2984 2958 2958 2958 2958 2958 2958 2958 2958 2958 2958 2958 2958 2958 2958 2984 2984 2984 2958 2958 2958 2958 2958 2933 2933 2933 2958 2958 2958 2958 2984 3010 3037 3037 3037 3037 3037 3037 3037 3037 3037 3037 3037 3037 3037 3037 3037 3010 3010 3010 3010 3010 3010 3037 3037 3037 3037 3037 3064 3092 3064 3064 3092 3092 3064 3064 3064 3064 3064 3064 3064 3064 3064 3120 3120 3120 3120 3149 3149 3149 3149 3149 3149 3149 3149 3120 3120 3120 3120 3120 3120 3120 3120 3120 3149 3149 3149 3149 3149 3178 3178 3178 3178 3178 3178 3178 3178 3120 3120 3120 3149 3149 3120 3120 3120 3149 3149 3149 3149 3149 3178 3178 3178 3178 3178 3178 3208 3208 3238 3238 3238 3238 3238 3269 3269 3269 3269 3269 3333 3333 3365 3365 3365 3365 3365 3365 6889 6889 7030 7030 7178 7178 7178 7332 7332 7332 7332 7332 7332 7332 7332 7332 7178 7178 7030 7030 7030 6889 6889 6889 6889 6889 6889 6889 7030 7030 7178 7492 7492 7492 7492 7492 7332 7332 7178 7030 7030 6889 6889 6889 6889 7030 7178 7332 7492 7492 7492 7492 7660 7660 7660 7660 7660 7492 7492 7492 7332 7332 7030 6889 6889 6889 6889 7030 7030 7030 7030 7178 7178 5132 5132 5132 5132 5132 5056 5056 5132 5056 5056 5056 5056 5132 5056 5056 5132 5132 5132 4983 4911 4911 4911 4911 4911 4911 4911 4911 4911 4911 4842 4842 4842 4842 4842 4911 4911 4842 4842 4842 4842 4774 4774 4774 4774 4708 4708 4708 4708 4708 4708 4708 4708 4708 4774 4774 4774 4774 4774 4774 4774 4774 4708 4708 4774 4774 4774 4774 4842 4842 4842 4983 4983 6622 6622 6622 6622 6753 6622 6622 6622 6622 6622 6497 6497 6375 6375 6375 6497 6375 6375 6497 6497 6622 6622 6497 6497 6622 6622 6753 6753 6753 6753 6753 6753 6753 6497 6497 6889 6375 6375 6753 7030 6889 6497 6497 6622 6622 6497 6497 6622 6622 6753 6753 6889 6889 7030 7030 7030 7030 6889 6889 6753 6753 6753 6753 6889 6753 6753 6753 6753 6622 6622 6622 6622 6497 6375 6375 6497 6497 6497 6497 6622 6622 6497 6497 6497 6497 5056 5056 5056 5132 5210 5210 6753 6753 6753 7030 6753 6753 6753 6497 6497 6497 6497 6497 6622 6622 6622 6622 6622 6622 6622 6753 4708 4708 4708 4708 4645 4645 4645 4645 4708 4708 4708 4708 4708 4708 4645 4645 4645 4582 4582 4582 4522 4522 4463 4463 4463 4463 6497 6375 6375 6375 6375 6375 6375 6375 6497 6497 6497 6497 6622 6622 6889 6889 7030 7030 7030 7030 7030 7030 6889 6889 6889 6889 6753 6753 6889 6753 6753 6753 6622 6622 6622 6622 6622 6622 6753 6753 6889 6889 6889 6889 7030 6889 6622 6622 6889 6889 6889 6753 6753 6753 6753 6753 6753 6753 6753 6753 6753 6889 7030 7030 0 0 0 0 0 0 0 0 0 0 0 0 0
0 0 0 0 0 0 0 0 0 0 0 0 0 0 0 0 0 0 0 0 0 0 0 0 0 0 0 0 0 0 4708 4708 4774 4774 4774 4774 4842 4842 4842 4911 4911 4911 4983 5056 5132 5132 5210 5210 5210 5210 5832 5832 6038 6146 6146 6146 6146 6259 6497 6622 6622 6375 6375 6259 6259 6146 6038 6038 6038 6038 6146 6146 6146 6146 6146 6146 6038 5933 5933 5933 5933 5933 5933 6038 6038 6146 6146 6146 6146 6146 6259 6259 6259 6375 6497 6497 6497 6497 6497 6497 6497 6497 6497 6497 6622 6622 6622 6497 6497 6497 6497 6753 6753 6753 3010 3010 3037 3037 3037 3037 3037 2984 2984 2984 2984 2984 2984 2984 2984 2984 2984 2984 2984 2984 2984 2984 2958 2958 2958 2984 2984 2984 2984 2984 2984 2958 2958 2958 2958 2958 2958 2958 2958 2958 2958 2958 2958 2958 2933 2933 2933 2933 2933 2933 2958 2958 2984 2984 2984 2984 2984 2984 2984 2984 3010 3010 3010 3010 3037 3037 3037 3010 2984 2984 2984 2984 2984 2984 2984 2984 3010 3010 3010 3037 3037 3037 3037 3037 3037 3037 3010 3010 3010 3037 3037 3037 3037 3064 3064 3092 3092 3092 3120 3149 3120 3120 3120 3120 3120 3120 3092 3092 3092 3092 3092 3092 3092 3092 3092 3120 3120 3120 3120 3149 3149 3149 3149 3149 3149 3149 3149 3149 3120 3120 3120 3149 3149 3120 3120 3120 3149 3149 3149 3149 3149 3149 3149 3149 3178 3178 3178 3208 3208 3238 3238 3238 3238 3238 3238 3269 3269 3269 3269 3333 3333 3365 3365 3365 3365 3399 7030 6889 6889 7030 7030 7178 7178 7178 7332 7332 7332 7332 7332 7332 7178 7178 7178 7178 7178 7030 7030 7030 6889 6889 6889 6889 6889 6889 6889 7030 7030 7178 7492 7492 7492 7492 7492 7492 7332 7178 7030 7030 7030 7030 7030 7030 7178 7332 7332 7492 7492 7492 7492 7660 7660 7660 7660 7492 7492 7332 7332 7332 7178 7030 6889 6889 6889 6889 6889 7030 6889 6889 7030 7030 5132 5132 5132 5132 5132 5132 5132 5132 5056 5056 5056 5056 5132 5132 5132 5132 5132 5132 4983 4983 4983 4911 4911 4911 4911 4911 4911 4911 4911 4911 4842 4842 4911 4911 4911 4911 4842 4842 4842 4842 4842 4774 4774 4774 4708 4708 4708 4708 4708 4708 4708 4708 4708 4774 4774 4774 4774 4774 4774 4774 4774 4774 4774 4774 4774 4774 4774 4842 4842 4983 4983 5056 5056 6622 6622 6622 6753 6622 6622 6622 6497 6497 6497 6375 6375 6375 6375 6497 6375 6375 6497 6497 6497 6497 6497 6497 6497 6622 6622 6622 6622 6622 6753 6259 6259 6259 6259 6259 6259 6259 6375 6259 6259 6375 6375 6375 6375 6497 6497 6497 6497 6622 6753 6753 6889 6889 6889 6889 6889 6889 6889 6753 6753 6753 6753 6753 6753 6753 6753 6622 6622 6622 6497 6497 6497 6375 6375 6497 6497 6375 6375 6497 6497 6497 6375 6375 6497 5056 5056 5056 5132 5132 5210 5210 7030 7030 7030 6753 6753 6622 6497 6497 6497 6497 6497 6622 6622 6622 6622 6622 6622 6622 6889 4645 4645 4708 4645 4645 4645 4645 4645 4645 4708 4645 4645 4645 4708 4645 4645 4645 4582 4582 4582 4522 4522 4463 4463 4463 4463 4582 4582 6375 6375 6375 6375 6375 6375 6497 6375 6259 6259 6497 6622 6889 6889 7030 7030 7030 7030 7030 7178 6889 6889 6889 6889 6889 6889 6889 6753 6753 6622 6497 6497 6497 6497 6497 6497 6497 6497 6889 6889 6889 6889 7030 6889 6622 6622 6889 6889 6889 6753 6753 6753 6622 6622 6622 6622 6622 6622 6753 6889 7030 7030 0 0 0 0 0 0 0 0 0 0 0 0 0
0 0 0 0 0 0 0 0 0 0 0 0 0 0 0 0 0 0 0 0 0 0 0 0 0 0 0 0 0 0 4708 4708 4774 4774 4774 4774 4842 4842 4842 4911 4911 4911 4983 5056 5132 5132 5210 5210 5210 5210 5832 5832 6038 6146 6146 6146 6146 6259 6375 6497 6497 6259 6146 6146 6146 6146 6038 6038 6038 6038 6146 6146 6146 6038 6038 5933 5933 5832 5832 5832 5832 5832 5933 5933 6038 6038 6038 6038 6146 6146 6146 6146 6146 6259 6375 6375 6497 6497 6497 6497 6497 6497 6497 6497 6497 6622 6622 6622 6753 6753 6622 6622 6622 6622 6622 3037 3037 3037 3037 3037 3037 2984 2984 2958 2958 2984 2984 2984 2984 2984 2984 2984 2984 2984 2958 2958 2958 2958 2958 2958 2984 2984 2984 2984 2984 2958 2958 2958 2958 2958 2958 2958 2958 2933 2933 2958 2933 2933 2933 2933 2933 2933 2933 2933 2933 2958 2958 2958 2958 2958 2984 2958 2958 2958 2984 2984 2984 2984 2984 2984 2984 2984 2958 2958 2958 2958 2958 2958 2958 2958 2984 2984 2984 3010 2984 2984 3010 3010 3010 3010 3010 3010 3010 3010 3010 3010 3037 3037 3037 3037 3037 3037 3064 3064 3092 3092 3092 3092 3092 3092 3092 3064 3064 3064 3064 3064 3064 3064 3064 3092 3092 3092 3092 3120 3120 3149 3149 3149 3149 3120 3120 3120 3120 3120 3120 3120 3120 3120 3120 3120 3149 3149 3149 3149 3149 3149 3149 3149 3149 3149 3178 3208 3208 3238 3238 3238 3238 3238 3238 3269 3269 3269 3269 3333 3333 3365 3365 3365 3399 3399 7030 7030 7030 7030 7178 7178 7178 7178 7332 7332 7332 7332 7332 7332 7178 7178 7178 7178 7178 7030 7030 7030 6889 6889 6889 6889 6889 6889 6889 7030 7030 7332 7492 7492 7492 7492 7492 7492 7332 7332 7178 7030 7030 7030 7178 7178 7178 7332 7332 7492 7492 7492 7492 7660 7492 7492 7492 7492 7492 7332 7332 7332 7178 7030 6889 6889 6889 6889 6889 6889 6889 6889 7030 7030 5132 5132 5132 5132 5132 5132 5132 5132 5132 5132 5132 5132 5132 5132 5132 5132 5132 5132 5056 4983 4983 4911 4911 4911 4911 4911 4911 4911 4911 4911 4911 4911 4911 4911 4911 4911 4842 4842 4842 4842 4842 4774 4774 4774 4774 4708 4708 4708 4708 4708 4708 4708 4708 4774 4774 4774 4774 4774 4774 4774 4774 4774 4774 4774 4774 4774 4774 4842 4842 4911 4911 4911 4911 6753 6753 6753 6753 6622 6622 6622 6497 6497 6497 6375 6375 6375 6497 6497 6497 6497 6497 6497 6497 6497 6497 6497 6497 6497 6497 6497 6497 6497 6375 6259 6259 6259 6146 6146 6146 6259 6259 6259 6259 6259 6259 6375 6375 6375 6375 6375 6375 6375 6622 6622 6753 6753 6622 6622 6753 6753 6753 6753 6753 6753 6753 6753 5460 5460 5374 5374 5374 5374 6497 6497 6497 6375 6375 6497 6497 6375 6375 6375 6375 6375 6375 6375 5056 5056 5056 5056 5056 5056 5132 5056 5056 5056 7030 7030 6622 6622 6497 6497 6497 6497 6497 6497 6622 6622 6622 6622 4582 4582 4582 4645 4645 4645 4645 4645 4645 4645 4645 4645 4708 4645 4645 4645 4645 4645 4645 4582 4582 4582 4582 4522 4522 4463 4463 4463 4463 4582 4582 4582 4582 6497 6375 6375 6375 6497 6375 6259 6259 6497 6622 0 0 7030 7030 0 0 0 0 0 0 0 0 0 0 0 0 0 6622 6497 6375 6375 6375 6375 6375 6497 6497 0 0 0 0 0 0 0 0 0 0 0 0 0 0 6622 6622 6622 6622 6622 6622 6753 6889 7030 0 0 0 0 0 0 0 0 0 0 0 0 0 0
0 0 0 0 0 0 0 0 0 0 0 0 0 0 0 0 0 0 0 0 0 0 0 0 0 0 0 0 0 0 4708 4708 4774 4774 4774 4842 4842 4842 4842 4842 4911 4911 4983 5056 5132 5132 5210 5210 5210 5210 5933 5933 6038 6146 6146 6146 6146 6146 6259 6375 6375 6259 6146 6146 6146 6146 6038 6038 6038 6038 6146 6038 6038 6038 6038 5933 5933 5832 5832 5832 5832 5832 5933 5933 6038 6038 6038 6038 6146 6146 6146 6146 6146 6259 6259 6375 6497 6375 6375 6497 6497 6497 6497 6497 6497 6622 6622 6622 6622 6622 6622 6622 6622 6622 6622 6622 6622 6622 3037 3037 6622 6622 2984 2933 2933 2958 2958 2984 2984 2984 2984 2984 2958 2958 2958 2958 2958 2958 2958 2958 2984 2984 2984 2984 2984 2984 2984 2958 2958 2958 2958 2958 2933 2933 2933 2933 2933 2933 2933 2933 2933 2933 2933 2933 2933 2933 2933 2933 2933 2958 2958 2958 2958 2958 2958 2958 2958 2958 2958 2958 2958 2958 2958 2958 2958 2958 2958 2958 2958 2958 2958 2958 2958 2984 2984 2984 3010 3010 3010 3010 2984 2984 3010 3010 3010 3010 3037 3037 3037 3010 3010 3037 3037 3037 3037 3037 3064 3064 3064 3064 3064 3064 3064 3064 3064 3064 3064 3064 3064 3064 3064 3064 3092 3092 3120 3120 3120 3120 3120 3120 3120 3120 3120 3120 3120 3120 3120 3120 3120 3120 3120 3149 3149 3149 3149 3149 3149 3149 3149 3149 3178 3208 3238 3238 3238 3238 3238 3238 3269 3269 3269 3269 3300 3333 3365 3365 3365 3399 3399 3399 7030 7030 7030 7030 7178 7178 7178 7178 7332 7332 7332 7332 7332 7332 7332 7332 7178 7178 7178 7030 7030 7030 6889 6889 6889 6889 6889 6889 6889 7030 7178 7492 7492 7492 7492 7492 7492 7492 7492 7332 7178 7030 7030 7030 7030 7030 7178 7178 7178 7492 7492 7492 7492 7660 7492 7492 7492 7492 7492 7332 7332 7332 7178 7030 6889 6889 6889 6889 6889 6889 6889 6889 7030 7030 5132 5132 5132 5132 5132 5132 5132 5132 5132 5056 5056 5056 5132 5132 5132 5056 5056 5056 4983 4983 4983 4911 4911 4911 4911 4911 4911 4911 4911 4911 4911 4911 4911 4911 4911 4911 4842 4842 4842 4842 4842 4774 4774 4774 4774 4774 4708 4708 4708 4708 4708 4708 4708 4774 4774 4774 4774 4774 4774 4774 4774 4774 4774 4774 4774 4774 4842 4842 4842 4911 4911 4911 4911 6622 6622 6622 6497 6497 6497 6497 6375 6375 6375 6497 6497 6497 6497 6497 6497 6497 6497 6497 6497 6497 6497 6497 6497 6497 6497 6497 6497 6497 6375 6259 6259 6146 6146 6146 6146 6259 6259 6259 6259 6259 6259 6259 6259 6259 6259 6375 6375 6375 6497 6622 6622 6622 6622 6622 6622 6753 6753 6622 6622 6622 6753 6753 5374 5374 5374 5374 5374 5374 5374 5374 5460 5460 5374 6497 6497 6497 6497 6375 6375 6375 6375 5056 5056 5056 5056 5056 5056 5056 5056 4983 4983 4983 7030 7030 6622 6622 6622 6497 6497 6497 6497 6497 6497 6497 6622 6622 4582 4582 4582 4645 4708 4645 4645 4645 4645 4645 4645 4708 4708 4645 4645 4645 4645 4645 4645 4582 4582 4582 4582 4522 4522 4522 4522 4522 4522 4582 4582 4582 4582 4645 4645 4708 4708 4645 4645 4645 4645 4645 0 0 0 0 0 0 0 0 0 0 0 0 0 0 0 0 0 0 0 0 6375 6375 6375 6375 6375 0 0 0 0 0 0 0 0 0 0 0 0 0 0 0 0 0 0 0 0 0 0 0 0 0 0 0 0 0 0 0 0 0 0 0 0 0 0 0
0 0 0 0 0 0 0 0 0 0 0 0 0 0 0 0 0 0 0 0 0 0 0 0 0 0 0 0 0 0 4708 4708 4708 4774 4774 4774 4842 4842 4842 4842 4911 4911 4983 5056 5132 5132 5210 5210 5210 5210 6038 6038 6038 6146 6146 6146 6146 6146 6259 6259 6259 6259 6146 6146 6146 6146 6038 6038 6038 6038 6146 6038 6038 6038 5933 5933 5933 5832 5832 5832 5832 5832 5933 5933 5933 5933 5933 6038 6146 6146 6146 6146 6146 6259 6259 6375 6497 6375 6375 6497 6497 6497 6497 6497 6622 6622 6622 6622 6622 6622 6622 6622 6622 6622 6622 6622 6622 6622 6622 6622 6497 6375 6375 2933 2933 2958 2958 2984 2984 2984 2984 2984 2958 2958 2958 2958 2958 2958 2958 2958 2984 2984 2984 2984 2984 2984 2984 2984 2958 2958 2958 2958 2933 2933 2933 2933 2933 2933 2933 2933 2933 2933 2933 2933 2933 2933 2933 2933 2933 2933 2933 2958 2933 2933 2958 2958 2958 2958 2958 2958 2958 2958 2958 2958 2958 2958 2958 2958 2958 2958 2958 2958 2958 2984 2984 2984 3010 3010 3010 2984 2984 2984 2984 2984 2984 2984 3010 2984 2984 2984 2984 3010 3010 3010 3010 3010 3037 3064 3064 3037 3037 3037 3037 3037 3037 3037 3037 3037 3037 3064 3064 3064 3064 3092 3092 3092 3092 3120 3120 3120 3120 3120 3120 3120 3120 3120 3120 3120 3120 3120 3120 3120 3120 3120 3120 3149 3149 3149 3149 3149 3178 3208 3238 3238 3238 3238 3238 3269 3269 3269 3269 3269 3333 3365 3365 3399 3399 3399 7030 7030 7030 7030 7030 7030 7178 7178 7178 7178 7332 7332 7332 7332 7332 7332 7332 7332 7178 7178 7178 7030 7030 7030 6889 6889 6889 6889 6889 6889 7030 7030 7332 7492 7492 7492 7492 7492 7492 7492 7492 7332 7178 7030 7030 7030 7030 7030 7178 7178 7178 7492 7492 7660 7660 7660 7660 7660 7492 7492 7492 7332 7332 7332 7178 7030 7030 6889 6889 6889 6889 6889 6889 6889 7030 7030 5210 5210 5210 5132 5132 5132 5132 5132 5132 5056 5056 5056 5132 5132 5132 5056 5056 5056 4983 4983 4983 4911 4911 4911 4911 4911 4911 4911 4911 4911 4911 4911 4911 4911 4911 4911 4842 4842 4842 4842 4774 4774 4774 4774 4774 4774 4774 4774 4774 4774 4774 4774 4774 4774 4774 4842 4842 4774 4774 4774 4774 4774 4774 4774 4842 4842 4842 4842 4842 4983 5056 5056 5056 6497 6497 6497 6375 6375 6375 6375 6375 6375 6375 6375 6375 6497 6497 6497 6497 6497 6497 6497 6497 6497 6497 6497 6497 6497 6497 6497 6375 6375 6259 6259 6259 6146 6146 6146 6146 6259 6259 6259 6259 6259 6259 6259 6259 6259 6259 6375 6375 6497 6497 6622 6622 6622 6622 6622 6622 6753 6753 6622 6622 6622 6622 6622 5374 5374 5291 5291 5291 5374 5374 5460 5460 5374 0 0 0 5132 4911 4911 4983 5056 5056 5056 5056 5056 5056 5056 5056 5056 5056 4983 4983 4983 4983 6753 6753 6753 6622 6622 6622 6622 6622 6622 4463 4463 6622 6753 4645 4645 4708 4708 4708 4708 4645 4645 4645 4645 4645 4708 4708 4708 4708 4708 4708 4645 4645 4582 4582 4582 4582 4522 4522 4522 4522 4522 4522 4582 4582 4582 4582 4645 4645 4645 4645 4645 4645 4645 4645 0 0 0 0 0 0 0 0 0 0 0 0 0 0 0 0 0 0 0 0 0 6375 6375 6497 0 0 0 0 0 0 0 0 0 0 0 0 0 0 0 0 0 0 0 0 0 0 0 0 0 0 0 0 0 0 0 0 0 0 0 0 0 0 0 0 0
0 0 0 0 0 0 0 0 0 0 0 0 0 0 0 0 0 0 0 0 0 0 0 0 0 0 0 0 0 0 4708 4708 4708 4774 4774 4774 4842 4842 4842 4842 4911 4911 4983 5056 5132 5132 5132 5132 5132 5132 6038 6038 6146 6146 6146 6146 6146 6146 6259 6259 6259 6259 6146 6146 6146 6146 6146 6146 6146 6146 6146 6038 6038 6038 5933 5933 5933 5933 5933 5832 5832 5832 5933 5933 5933 5933 5933 6038 6146 6146 6259 6259 6259 6375 6375 6375 6497 6497 6497 6497 6497 6622 6622 6622 6622 6622 6622 6622 6622 6622 6622 6622 6622 6622 6622 6622 6497 6497 6622 6497 6497 6375 6375 6497 6497 6497 6497 6497 6497 6497 6622 6497 6497 6622 6622 2958 2958 2958 2958 2958 2984 2984 2984 2984 2984 2984 2984 2984 2958 2958 2958 2958 2933 2933 2933 2933 2933 2933 2933 2933 2933 2933 2933 2933 2933 2933 2933 2933 2933 2933 2933 2933 2933 2933 2933 2933 2933 2958 2958 2958 2958 2958 2958 2958 2958 2958 2958 2958 2958 2958 2958 2984 2984 2984 2984 2984 3010 3010 3010 2984 2984 2984 2984 2984 2984 2984 3010 2984 2984 2984 2984 2984 2984 2984 2984 2984 3037 3037 3037 3037 3037 3037 3037 3037 3037 3037 3037 3037 3037 3064 3064 3064 3064 3092 3092 3092 3092 3120 3120 3120 3120 3120 3120 3120 3120 3120 3120 3120 3120 3120 3120 3120 3120 3120 3120 3149 3149 3149 3149 3149 3178 3238 3238 3238 3269 3269 3269 3269 3269 3300 3300 3300 6753 6889 6889 6889 6889 6889 7030 7030 7030 7030 7030 7030 7178 7178 7178 7178 7332 7332 7332 7332 7332 7332 7332 7332 7332 7178 7178 7030 7030 7030 6889 6889 6889 6889 6889 7030 7030 7030 7332 7492 7492 7492 7492 7660 7492 7492 7492 7492 7492 7030 7030 7030 7030 7030 7178 7332 7332 7492 7492 7492 7492 7492 7492 7492 7492 7492 7492 7332 7332 7332 7178 7030 7030 7030 6889 6889 6889 6889 6889 6889 6889 6889 5210 5210 5210 5132 5132 5132 5132 5132 5132 5132 5132 5132 5132 5132 5132 5056 5056 5056 4983 4983 4983 4983 4911 4911 4911 4911 4911 4911 4911 4911 4911 4911 4911 4911 4911 4911 4842 4842 4842 4842 4774 4774 4774 4774 4774 4774 4774 4774 4774 4774 4774 4774 4774 4774 4774 4774 4774 4774 4774 4774 4774 4774 4774 4774 4842 4842 4842 4842 4983 4983 5056 5056 5056 6375 6375 6375 6375 6375 6375 6375 6375 6375 6375 6375 6375 6375 6375 6497 6497 6497 6497 6497 6497 6497 6497 6497 6497 6497 6375 6375 6375 6375 6259 6259 6259 6259 6259 6259 6259 6259 6259 6259 6259 6259 6259 6259 6259 6259 6259 6375 6375 6497 6497 6622 6622 6622 6622 6622 6622 6753 6622 6497 6497 6497 6497 6497 5374 5374 5291 5291 5291 5210 5210 5374 5374 5374 5132 5132 5132 0 4911 4911 4983 4983 4983 5056 5056 5056 5056 5056 5056 5056 5056 4983 4983 4983 4983 6753 6753 6753 6622 6622 6622 6622 6622 4522 4463 4463 6622 4774 4708 4708 4708 4708 4708 4708 4708 4708 4645 4645 4708 4708 4708 4708 4708 4708 4708 4645 4645 4582 4582 4582 4522 4522 4522 4522 4522 4522 4522 4522 4582 4582 4582 4645 4645 4645 4645 4645 4645 4645 4645 0 0 0 0 0 0 0 0 0 0 0 0 0 0 0 0 0 0 0 0 4708 4842 4842 4842 4842 4708 0 0 0 0 0 0 0 0 0 0 0 0 0 0 0 0 0 0 0 0 0 0 0 0 0 0 0 0 0 0 0 0 0 0 0 0 0 0 0
0 0 0 0 0 0 0 0 0 0 0 0 0 0 0 0 0 0 0 0 0 0 0 0 0 0 0 0 0 0 4645 4645 4708 4774 4774 4842 4842 4842 4842 4842 4842 4911 4911 5056 5056 5132 5132 5132 5132 5132 6146 6146 6146 6146 6146 6146 6146 6146 6259 6259 6259 6259 6146 6146 6146 6146 6146 6146 6146 6146 6146 6038 6038 6038 5933 5933 5933 5933 5933 5933 5832 5832 5933 5933 5933 5933 5933 5933 6146 6146 6259 6259 6259 6375 6375 6375 6497 6497 6497 6497 6497 6622 6622 6622 6622 6622 6622 6622 6622 6622 6497 6497 6622 6622 6622 6622 6497 6497 6497 6497 6497 6375 6375 6497 6497 6497 6497 6497 6497 6622 6622 6497 6497 6622 6622 6622 6622 2958 2958 2984 2984 3010 3010 3010 3010 3010 3010 3010 2984 2984 2984 2984 2958 2933 2933 2933 2933 2933 2933 2933 2933 2933 2933 2933 2933 2958 2933 2933 2933 2933 2933 2933 2933 2933 2933 2933 2933 2958 2933 2933 2958 2958 2958 2958 2958 2958 2958 2958 2958 2984 2984 2984 3010 3010 3010 3010 3010 3010 3010 2984 2984 2984 2984 2984 2984 3010 3010 2984 2984 2984 2984 2984 2984 2984 2984 2984 3037 3037 3037 3037 3037 3037 3037 3037 3037 3037 3037 3037 3037 3037 3064 3064 3064 3092 3120 3120 3120 3120 3120 3120 3120 3120 3149 3149 3149 3149 3149 3149 3149 3149 3149 3149 3149 3149 3149 3149 3149 3149 3149 3149 3178 3238 3238 3238 3269 3269 3269 3269 3269 3300 3300 6753 6889 6889 6889 6889 6889 6889 7030 7030 7178 7030 7030 7178 7178 7178 7178 7332 7332 7332 7332 7332 7332 7332 7332 7332 7332 7332 7178 7178 7178 7030 6889 6889 6889 6889 7030 7030 7030 7178 7332 7492 7492 7492 7660 7660 7492 7492 7492 7492 7492 7492 7030 7030 7030 7030 7178 7332 7332 7492 7492 7492 7492 7492 7492 7492 7492 7492 7492 7332 7332 7332 7332 7178 7178 7030 6889 6889 6889 6889 6889 6889 6889 6889 5210 5210 5210 5210 5210 5132 5132 5132 5132 5132 5056 5056 5056 5056 5132 5056 5056 5056 5056 4983 4983 4983 4911 4911 4911 4911 4911 4911 4911 4911 4911 4911 4911 4911 4911 4911 4842 4842 4842 4842 4774 4774 4774 4774 4774 4774 4774 4774 4774 4774 4774 4774 4774 4774 4774 4774 4774 4774 4774 4774 4774 4774 4774 4774 4842 4842 4842 4842 4983 5056 5056 5056 6375 6375 6375 6375 6375 6375 6375 6375 6375 6375 6375 6375 6375 6375 6375 6375 6497 6497 6497 6497 6497 6497 6375 6375 6375 6375 6375 6375 6259 6259 6259 6259 6259 6259 6259 6259 6375 6375 6259 6259 6259 6259 6259 6259 6259 6259 6259 6375 6375 6497 6497 6497 6622 6622 6497 6497 6622 6622 6375 6375 6375 6375 6375 6375 6375 5291 5291 5210 5210 5210 5210 5210 5291 5291 5132 5132 5132 5056 4911 4911 4911 4983 4983 4983 4983 5056 5056 5056 5056 5056 4983 4983 4983 4911 4911 4911 6753 6753 6753 6622 6622 4911 4774 4522 4522 4582 4645 4708 4708 4708 4708 4708 4708 4708 4708 4708 4708 4708 4708 4708 4708 4708 4708 4708 4708 4645 4645 4582 4522 4522 4522 4522 4522 4522 4522 4522 4522 4522 4582 4582 4645 4645 4708 4708 4708 4645 4645 4645 4645 4708 4708 0 0 0 0 0 0 0 0 0 0 0 0 0 0 0 0 0 0 0 4708 4708 4708 4708 0 0 0 0 0 0 0 0 0 0 0 0 0 0 0 0 0 0 0 0 0 0 0 0 0 0 0 0 0 0 0 0 0 0 0 0 0 0 0 0
0 0 0 0 0 0 0 0 0 0 0 0 0 0 0 0 0 0 0 0 0 0 0 0 0 0 0 0 0 0 4645 4645 4708 4708 4774 4842 4842 4842 4842 4842 4842 4911 4911 5056 5056 5132 5132 5132 5210 5210 5933 5933 6038 6038 6038 6038 6038 6146 6259 6259 6259 6259 6146 6146 6146 6146 6146 6146 6146 6146 6146 6038 6038 6038 5933 5933 5933 5933 5933 5933 5832 5832 5933 5933 5933 5933 5933 5933 6146 6259 6259 6259 6259 6375 6375 6375 6375 6375 6375 6497 6497 6622 6622 6622 6622 6622 6622 6622 6497 6497 6497 6497 6497 6622 6622 6497 6497 6497 6497 6497 6497 6497 6497 6497 6497 6497 6497 6497 6622 6622 6622 6622 6622 6622 6622 6622 6889 6889 2984 2984 2984 3010 3010 3010 3010 3010 3010 3037 2984 2984 2984 2984 2984 2933 2933 2933 2933 2933 2933 2933 2933 2933 2958 2958 2958 2958 2958 2958 2958 2933 2933 2958 2933 2933 2933 2933 2933 2958 2933 2933 2958 2958 2958 2958 2958 2958 2958 2984 2984 3010 3010 3037 3037 3037 3037 3037 3037 3037 3010 3010 3010 3010 3010 2984 2984 3010 3010 3010 3010 3010 3010 3010 3010 3010 3010 3037 3064 3064 3064 3064 3064 3037 3037 3037 3037 3037 3037 3037 3037 3037 3064 3064 3064 3092 3120 3120 3120 3120 3149 3120 3120 3149 3149 3149 3149 3149 3149 3178 3149 3149 3149 3149 3149 3149 3149 3149 3149 4405 4405 4405 3238 3238 3238 6497 6497 6753 6889 7030 7030 7030 7030 7030 7030 7030 7030 7030 7030 7030 7030 7178 7178 7178 7178 7178 7332 7332 7332 7332 7332 7332 7332 7332 7332 7332 7332 7332 7332 7332 7332 7178 7178 7178 7030 7030 7030 7030 7030 7030 7030 7178 7332 7492 7492 7492 7660 7660 7492 7492 7332 7332 7332 7030 6889 6889 7030 7030 7178 7332 7332 7492 7492 7492 7492 7492 7492 7492 7492 7492 7492 7492 7332 7332 7332 7178 7178 7178 7030 7030 7030 7030 7030 7030 7030 5210 5210 5210 5210 5132 5132 5132 5132 5132 5132 5132 5056 5056 5056 5056 5056 5056 5056 5056 5056 5056 4983 4983 4911 4911 4911 4911 4911 4911 4911 4911 4911 4911 4911 4911 4911 4842 4842 4842 4842 4842 4774 4774 4774 4708 4708 4708 4774 4774 4774 4774 4774 4774 4774 4774 4774 4842 4842 4774 4774 4774 4774 4774 4774 4774 4842 4842 4842 4842 4983 5056 5056 5056 6259 6259 6375 6375 6375 6375 6375 6375 6375 6375 6375 6375 6375 6375 6375 6375 6497 6497 6497 6497 6497 6497 6375 6375 6375 6375 6375 6375 6259 6259 6259 6259 6259 6259 6259 6259 6375 6375 6259 6259 6259 6259 6259 6259 6259 6259 6259 6375 6375 6375 6375 6497 6497 6497 6497 6497 6497 6497 6375 6375 6375 6259 6259 6259 6259 5291 5291 5210 5210 5210 5210 5210 5291 5210 5132 5056 5056 5056 4983 4911 4911 4911 4911 4983 4983 4983 4983 4983 4983 4983 4983 4983 4911 4911 4911 4911 4911 4911 4645 4645 4645 4911 4774 4645 4645 4645 4645 4645 4645 4645 4645 4708 4708 4708 4708 4708 4708 4645 4645 4645 4645 4645 4645 4645 4645 4645 4582 4582 4522 4522 4522 4522 4522 4522 4522 4522 4522 4522 4582 4582 4645 4645 4708 4708 4708 4645 4645 4645 4708 4708 4708 4708 4774 4774 0 0 0 0 0 0 0 0 0 0 0 0 0 0 0 4645 4645 4645 4645 4645 4645 0 0 0 0 0 0 0 0 0 0 0 0 0 0 0 0 0 0 0 0 0 0 0 0 0 0 0 0 0 0 0 0 0 0 0 0 0 0 0
0 0 0 0 0 0 0 0 0 0 0 0 0 0 0 0 0 0 0 0 0 0 0 0 0 0 0 0 0 0 4645 4645 4708 4708 4774 4774 4774 4774 4842 4842 4911 4911 4983 5056 5056 5132 5132 5132 5210 5210 5933 5933 6038 6038 6038 6038 6038 6146 6146 6146 6259 6259 6146 6146 6146 6146 6146 6146 6038 6038 6038 6038 6038 5933 5933 5933 5933 5933 5933 5933 5933 5933 5933 5933 5933 5933 5933 6038 6146 6259 6259 6259 6259 6375 6375 6375 6375 6375 6375 6497 6497 6497 6497 6622 6622 6497 6497 6622 6497 6497 6497 6497 6497 6497 6622 6497 6497 6497 6497 6497 6497 6497 6497 6497 6497 6497 6497 6497 6622 6622 6622 6622 6622 6622 6622 6622 6622 6622 3010 3010 3010 3010 3037 3037 3037 3037 3037 3037 3010 3010 3010 2984 2984 2933 2933 2933 2933 2958 2958 2958 2958 2958 2958 2958 2984 2984 2984 2984 2958 2958 2958 2958 2958 2958 2958 2958 2958 2958 2958 2958 2958 2958 2984 2958 2958 2984 2984 3010 3037 3037 3064 3064 3064 3092 3092 3064 3064 3037 3037 3037 3037 3037 3037 3010 3010 3037 3037 3037 3037 3037 3037 3037 3037 3037 3064 3064 3092 3092 3092 3092 3092 3064 3064 3064 3064 3064 3064 3064 3064 3064 3064 3092 3092 3120 3149 3149 3149 3149 3149 3149 3149 3149 3149 3178 3178 3178 3178 3208 3178 3178 3178 3178 3178 3149 3149 4463 4405 4405 4405 4405 4405 6497 6497 6497 6497 6753 6889 7030 7178 7178 7178 7178 7178 7178 7030 7030 7030 7030 7030 7178 7178 7178 7178 7332 7332 7332 7492 7492 7492 7492 7492 7492 7492 7492 7492 7492 7492 7492 7492 7332 7332 7178 7030 7030 7030 7030 7030 7030 7178 7332 7492 7492 7492 7492 7660 7492 7492 7492 7332 7332 7030 6889 6889 6889 7030 7030 7178 7332 7492 7492 7492 7492 7492 7660 7492 7492 7492 7492 7492 7492 7332 7332 7332 7332 7332 7332 7332 7332 7332 7332 7492 7492 7492 5210 5210 5210 5210 5132 5132 5132 5132 5132 5132 5132 5056 5056 5056 5056 5056 5056 5056 5056 5056 4983 4983 4983 4911 4911 4911 4911 4911 4911 4911 4911 4911 4911 4842 4842 4842 4842 4842 4842 4842 4842 4774 4774 4774 4708 4708 4708 4708 4774 4774 4774 4774 4774 4774 4842 4842 4842 4842 4774 4774 4774 4774 4774 4774 4774 4842 4842 4842 4842 5056 5056 5056 5056 6259 6259 6375 6375 6375 6375 6375 6375 6375 6375 6375 6375 6375 6375 6375 6375 6375 6375 6497 6497 6497 6375 6375 6375 6375 6259 6259 6259 6259 6259 6259 6259 6375 6259 6259 6375 6375 6375 6259 6259 6375 6375 6375 6375 6375 6375 6375 6375 6375 6375 6375 6375 6497 6497 6497 6497 6497 6497 6375 6375 6375 6259 6259 6259 6259 3774 3774 3774 5291 5210 5210 5210 5210 5132 5132 5056 5056 5056 4983 4983 4911 4911 4911 4983 4983 4983 4983 4983 4983 4983 4911 4911 4911 4842 4842 4842 4774 4708 4645 4645 4645 4708 4708 4645 4645 4645 4645 4645 4645 4645 4645 4708 4708 4708 4708 4645 4645 4645 4645 4645 4645 4645 4645 4645 4645 4645 4582 4582 4522 4522 4522 4522 4522 4522 4522 4522 4522 4522 4582 4582 4645 4645 4708 4708 4708 4645 4645 4645 4645 4708 4708 4645 4645 4708 4774 0 4522 4522 4522 4522 0 4582 4582 4582 0 0 0 4582 4582 4582 4522 4522 4582 4582 4582 4582 0 0 0 0 0 0 0 4645 4645 4708 0 0 0 0 0 0 0 0 0 0 0 0 0 0 0 0 0 0 0 0 0 0 0 0 0 0 0 0
