0 0 0 0 0 0 0 0 0 0 0 0 0 0 0 0 0 0 0 0 0 0 0 0 0 0 0 0 0 0 0 0 0 0 0 1594 1594 1594 1594 1601 1601 1601 1601 1601 1601 1609 1609 1609 1609 1609 1609 1609 1609 1609 1624 1624 1624 1624 1616 1616 1616 1616 1624 1624 1624 1624 1624 1624 1624 1624 1624 1616 1616 1616 1616 1616 1616 1616 1616 1616 1616 1616 1616 1616 1616 1616 1616 1616 1616 1616 1624 1624 1624 1624 1616 1616 1624 1624 1624 1624 1616 1616 1616 1616 1616 1624 1624 1624 1616 1616 1616 1624 1624 1624 1624 1624 1624 1624 1624 1624 1624 1624 1616 1616 1616 1616 1616 1616 1616 1616 1616 1616 1616 1624 1624 1624 1624 1624 1624 1624 1624 1632 1624 1624 1624 1624 1624 1616 1616 1616 1616 1624 1624 1624 1624 1624 1624 1616 1616 1616 1616 1616 1624 1616 1616 1616 1616 1632 1632 1624 1624 1624 1624 1624 1624 1624 1632 1632 1632 1632 1632 1632 1624 1624 1624 1632 1632 1632 1632 1632 1632 1632 1632 1632 1632 1639 1639 1639 1632 1632 1639 1639 1639 1639 1639 1639 1639 1639 1639 1639 1639 1639 1647 1639 1639 1647 1647 1647 1639 1639 1647 1639 1639 1639 1639 1639 1639 1639 1639 1639 1639 1647 1647 1647 1647 1647 1647 1647 1647 1647 1647 1647 1655 1647 1647 1647 1647 1639 1639 1639 1639 1647 1647 1647 1647 1647 1647 1647 1647 1647 1647 1647 1655 1655 1655 1655 1655 1663 1655 1655 1655 1655 1655 1663 1663 1663 1663 1663 1663 1663 1663 1663 1663 1663 1663 1663 1655 1655 1655 1663 1663 1663 1663 1663 1663 1663 1655 1655 1655 1655 1655 1639 1609 1609 1609 1601 1594 1594 1586 1586 1586 1586 1586 1586 1586 1601 1624 1632 1647 1663 1663 1663 1663 1663 1663 1663 1663 1663 1663 1655 1655 1655 1655 1655 1655 1655 1655 1663 1663 1663 1663 1663 1663 1663 1663 1663 1655 1655 1655 1655 1655 1663 1663 1663 1663 1663 1663 1663 1663 1663 1663 1663 1663 1663 1663 1663 1663 1663 1663 1663 1663 1663 1663 1663 1663 1663 1663 1663 1663 1663 1663 1663 1663 1663 1663 1663 1663 1663 1663 1663 1663 1663 1663 1671 1671 1671 1671 1671 1671 1433 1433 1433 1433 1433 1427 1427 1427 1427 1427 1421 1421 1427 1427 1415 1415 1470 1464 1464 1470 1470 1477 1483 1671 1671 1671 1671 1671 1671 1671 1671 1663 1663 1663 1663 1663 1671 1671 1671 1671 1671 1671 1671 1680 1680 1680 1680 1671 1671 1680 1671 1671 1680 1680 1680 1680 1680 1680 1680 1671 1671 1680 1671 1671 1671 1680 1680 1680 1680 1680 1680 1680 1680 1680 1680 1680 1680 1680 1680 1680 1680 1680 1680 1680 1671 1671 1671 1671 1671 1671 1671 1680 1680 1680 1680 1680 1688 1680 1680 1680 1680 1680 1671 1663 1663 1663 1663 1663 1663 1421 1421 1415 1410 1410 1410 1410 1410 1410 1404 1404 1404 1404 1398 1398 1398 1398 1398 1398 1398 1392 1392 1647 1655 1663 1671 1671 1671 1671 1671 1671 1671 1671 1671 1671 1671 1671 1671 1671 1671 1671 1671 1671 1671 1671 1671 1671 1671 1671 1671 1671 1671 1671 1671 1671 1671 1671 1671 1671 1671 1671 1671 1671 1671 1671 1671 1671 1671 1671 1671 1671 1671 1680 1680 1680 1680 1671 1671 1680 1663 1663 1663 1663 1663 1663 1663 1663 1663 1663 1663 1663 1663 1671 1671 1671 1671 1671 1671 1671 1671 1680 1680 1680 1671 1671 1671 1680 1680 1680 1688 1688 1688 1688 1688 1688 1688 1688 1696 1696 1696 1696 1696 1696 1696 1688 1688 0 0 0 0 0 0
0 0 0 0 0 0 0 0 0 0 0 0 0 0 0 0 0 0 0 0 0 0 0 0 0 0 0 0 0 0 0 0 0 0 0 1594 1594 1594 1594 1594 1594 1594 1601 1601 1601 1601 1601 1601 1601 1601 1601 1609 1609 1609 1609 1609 1609 1624 1609 1609 1609 1609 1616 1616 1616 1616 1624 1624 1624 1624 1624 1616 1616 1616 1616 1616 1616 1616 1616 1616 1616 1616 1616 1609 1609 1609 1609 1609 1616 1616 1616 1616 1616 1616 1616 1616 1616 1624 1624 1624 1616 1616 1616 1609 1609 1616 1616 1616 1616 1616 1616 1616 1616 1616 1616 1624 1624 1624 1624 1624 1624 1624 1616 1616 1616 1616 1616 1616 1616 1616 1616 1616 1616 1616 1616 1616 1616 1616 1624 1624 1624 1624 1624 1624 1616 1616 1616 1616 1616 1616 1616 1616 1624 1624 1624 1624 1624 1616 1616 1616 1616 1616 1616 1616 1616 1616 1616 1632 1624 1624 1624 1624 1616 1616 1616 1624 1624 1624 1624 1624 1624 1624 1624 1624 1624 1624 1632 1632 1632 1632 1632 1632 1632 1632 1632 1632 1632 1632 1632 1632 1632 1632 1632 1632 1639 1639 1639 1639 1639 1639 1639 1639 1639 1639 1639 1639 1639 1647 1639 1639 1639 1639 1639 1639 1639 1639 1639 1639 1639 1639 1639 1639 1647 1647 1647 1647 1639 1639 1639 1639 1647 1647 1647 1639 1639 1639 1639 1639 1639 1639 1639 1639 1639 1639 1639 1639 1639 1639 1639 1639 1639 1639 1647 1647 1655 1655 1655 1655 1655 1655 1655 1647 1647 1647 1647 1647 1647 1647 1655 1655 1655 1655 1655 1647 1647 1647 1647 1647 1647 1647 1655 1655 1655 1655 1655 1655 1655 1655 1655 1655 1647 1639 1609 1601 1601 1601 1594 1594 1586 1586 1586 1586 1586 1586 1586 1601 1616 1632 1639 1647 1655 1655 1655 1655 1663 1663 1663 1663 1663 1655 1655 1655 1655 1655 1655 1655 1655 1655 1655 1655 1655 1655 1655 1655 1655 1655 1655 1655 1655 1655 1655 1655 1655 1655 1655 1655 1655 1655 1663 1663 1663 1663 1655 1655 1655 1655 1655 1655 1663 1663 1663 1663 1663 1663 1663 1663 1663 1655 1655 1655 1663 1663 1655 1655 1663 1663 1655 1655 1663 1663 1663 1663 1663 1663 1663 1671 1671 1671 1671 1433 1433 1433 1433 1433 1433 1433 1427 1427 1427 1421 1421 1427 1433 1439 1464 1464 1464 1464 1464 1470 1477 1655 1655 1655 1655 1655 1663 1655 1655 1655 1655 1655 1655 1655 1655 1663 1663 1663 1671 1671 1671 1671 1671 1671 1671 1671 1671 1671 1671 1671 1671 1671 1671 1671 1680 1680 1680 1680 1671 1671 1671 1671 1671 1671 1680 1680 1680 1671 1671 1680 1680 1671 1671 1671 1680 1680 1680 1671 1671 1671 1671 1671 1671 1671 1671 1671 1671 1671 1671 1671 1671 1671 1680 1680 1680 1680 1680 1671 1671 1671 1671 1663 1663 1663 1663 1663 1663 1427 1421 1421 1421 1415 1410 1410 1410 1410 1410 1404 1404 1404 1404 1398 1398 1398 1398 1398 1398 1398 1398 1398 1647 1655 1663 1663 1663 1663 1671 1671 1671 1671 1663 1663 1671 1663 1663 1663 1671 1671 1671 1671 1671 1671 1671 1671 1663 1663 1663 1663 1663 1671 1671 1671 1671 1671 1671 1671 1671 1671 1671 1671 1671 1671 1671 1671 1671 1671 1671 1671 1671 1671 1671 1671 1671 1671 1671 1671 1671 1663 1663 1663 1663 1663 1655 1655 1655 1663 1663 1663 1663 1663 1663 1663 1663 1663 1663 1663 1663 1663 1671 1671 1671 1671 1671 1671 1680 1680 1680 1680 1680 1680 1680 1680 1680 1688 1688 1696 1696 1696 1696 1696 1696 1696 1696 1696 0 0 0 0 0 0
0 0 0 0 0 0 0 0 0 0 0 0 0 0 0 0 0 0 0 0 0 0 0 0 0 0 0 0 0 0 0 0 0 0 0 1586 1579 1579 1586 1586 1586 1594 1594 1594 1601 1601 1594 1594 1601 1601 1601 1601 1601 1601 1601 1601 1601 1609 1609 1609 1609 1609 1609 1616 1616 1616 1616 1624 1624 1624 1616 1609 1609 1609 1609 1609 1609 1609 1616 1616 1616 1616 1609 1609 1609 1609 1609 1609 1609 1609 1616 1616 1616 1616 1616 1616 1616 1616 1616 1616 1616 1616 1616 1609 1609 1616 1616 1616 1616 1616 1616 1616 1616 1616 1616 1616 1616 1616 1616 1616 1616 1616 1616 1616 1616 1616 1616 1616 1616 1616 1616 1616 1616 1616 1616 1616 1616 1616 1616 1616 1616 1616 1616 1616 1616 1616 1616 1616 1616 1616 1616 1616 1616 1624 1624 1624 1624 1616 1609 1609 1609 1609 1616 1616 1609 1609 1616 1624 1624 1616 1616 1616 1616 1616 1616 1616 1616 1616 1616 1616 1616 1616 1616 1616 1616 1624 1624 1624 1632 1632 1632 1632 1632 1624 1624 1624 1624 1624 1624 1624 1624 1624 1624 1632 1632 1632 1632 1632 1632 1632 1632 1632 1639 1639 1639 1639 1639 1639 1639 1639 1639 1639 1639 1639 1639 1639 1639 1639 1639 1639 1639 1639 1639 1639 1639 1639 1639 1639 1639 1639 1639 1639 1647 1639 1639 1639 1639 1639 1639 1639 1639 1639 1639 1639 1632 1632 1639 1639 1639 1639 1639 1639 1639 1647 1647 1647 1647 1647 1647 1647 1647 1639 1639 1639 1639 1639 1639 1639 1647 1647 1647 1647 1647 1639 1639 1639 1639 1639 1639 1639 1647 1647 1647 1647 1647 1655 1647 1647 1647 1647 1639 1632 1609 1601 1601 1601 1594 1594 1594 1586 1586 1586 1594 1594 1594 1609 1616 1632 1639 1647 1655 1655 1655 1655 1655 1655 1655 1663 1663 1655 1655 1655 1655 1655 1655 1655 1655 1655 1655 1655 1655 1655 1655 1655 1655 1655 1655 1655 1655 1655 1655 1655 1655 1655 1655 1655 1655 1655 1655 1655 1655 1655 1655 1655 1655 1655 1655 1655 1655 1655 1655 1655 1655 1655 1655 1655 1655 1655 1655 1655 1655 1655 1655 1655 1655 1663 1655 1655 1655 1663 1663 1663 1663 1663 1663 1663 1663 1663 1663 1433 1433 1433 1433 1433 1433 1433 1427 1427 1427 1421 1421 1427 1433 1439 1458 1464 1458 1458 1464 1464 1477 1647 1655 1647 1647 1655 1655 1655 1655 1655 1655 1655 1655 1655 1655 1655 1655 1655 1655 1655 1655 1655 1655 1663 1663 1671 1671 1671 1671 1671 1671 1671 1663 1663 1671 1663 1663 1671 1671 1671 1671 1663 1663 1663 1671 1671 1671 1671 1671 1671 1671 1671 1671 1671 1671 1671 1671 1671 1663 1663 1671 1671 1671 1663 1663 1663 1663 1663 1663 1663 1663 1671 1671 1671 1671 1680 1671 1671 1663 1663 1671 1655 1655 1655 1655 1655 1655 1427 1421 1421 1421 1421 1410 1410 1410 1404 1404 1404 1404 1404 1404 1398 1398 1398 1398 1398 1398 1398 1398 1398 1647 1655 1655 1663 1663 1663 1663 1663 1663 1663 1655 1655 1663 1663 1663 1663 1663 1671 1671 1671 1663 1663 1663 1663 1655 1655 1655 1655 1663 1663 1663 1671 1671 1671 1671 1671 1671 1671 1663 1663 1663 1663 1663 1663 1663 1663 1663 1663 1663 1663 1663 1663 1663 1663 1663 1663 1663 1655 1655 1655 1655 1655 1655 1655 1655 1655 1655 1655 1663 1663 1663 1663 1663 1663 1663 1663 1663 1663 1663 1663 1663 1671 1671 1671 1671 1671 1671 1680 1680 1680 1680 1680 1680 1680 1680 1688 1696 1696 1696 1696 1696 1696 1696 1696 0 0 0 0 0 0
0 0 0 0 0 0 0 0 0 0 0 0 0 0 0 0 0 0 0 0 0 0 0 0 0 0 0 0 0 0 0 0 0 0 0 1579 1579 1579 1579 1579 1586 1586 1586 1594 1594 1594 1594 1594 1594 1594 1594 1594 1594 1594 1594 1594 1601 1601 1601 1601 1601 1601 1609 1616 1616 1601 1601 1616 1624 1616 1609 1601 1601 1609 1609 1609 1601 1601 1609 1609 1609 1609 1601 1601 1601 1601 1601 1609 1601 1601 1609 1609 1609 1609 1609 1609 1609 1616 1609 1609 1609 1609 1601 1601 1609 1616 1616 1616 1616 1616 1616 1609 1609 1609 1609 1616 1616 1616 1616 1616 1616 1616 1616 1616 1616 1609 1609 1609 1609 1616 1616 1616 1616 1616 1616 1616 1616 1616 1616 1616 1616 1616 1616 1616 1616 1609 1609 1616 1616 1616 1616 1616 1616 1616 1616 1616 1616 1609 1609 1609 1609 1609 1609 1609 1609 1609 1616 1616 1616 1616 1616 1616 1616 1609 1609 1609 1616 1616 1616 1616 1616 1616 1616 1616 1616 1616 1616 1624 1624 1624 1624 1624 1624 1616 1616 1616 1616 1616 1616 1616 1616 1624 1624 1624 1624 1624 1624 1624 1624 1624 1624 1624 1632 1632 1632 1639 1639 1639 1639 1639 1639 1639 1639 1639 1639 1639 1639 1639 1639 1639 1639 1639 1639 1639 1639 1639 1639 1639 1639 1639 1639 1639 1639 1632 1632 1632 1632 1632 1632 1639 1639 1639 1639 1639 1632 1632 1639 1639 1639 1639 1639 1639 1639 1639 1639 1639 1639 1639 1639 1639 1632 1632 1639 1639 1639 1639 1639 1639 1639 1639 1639 1639 1639 1639 1639 1639 1639 1639 1639 1639 1639 1639 1639 1639 1639 1639 1639 1639 1639 1639 1632 1624 1609 1601 1601 1601 1594 1594 1594 1586 1586 1586 1594 1594 1594 1609 1616 1632 1639 1639 1647 1647 1647 1647 1655 1655 1655 1655 1655 1647 1647 1647 1647 1647 1647 1655 1655 1655 1655 1655 1655 1647 1647 1647 1647 1647 1647 1655 1655 1647 1647 1647 1647 1647 1647 1647 1647 1647 1647 1647 1647 1647 1647 1647 1647 1647 1647 1655 1655 1655 1655 1655 1655 1655 1655 1655 1655 1655 1655 1655 1655 1655 1655 1655 1655 1655 1655 1655 1655 1655 1655 1655 1663 1663 1663 1663 1663 1663 1663 1433 1433 1433 1433 1433 1433 1433 1427 1427 1427 1427 1427 1427 1433 1439 1458 1458 1458 1458 1464 1464 1647 1647 1647 1647 1647 1647 1647 1647 1647 1647 1647 1647 1647 1647 1647 1655 1655 1655 1655 1655 1655 1655 1655 1655 1663 1663 1655 1655 1663 1655 1655 1655 1655 1655 1655 1663 1655 1655 1663 1663 1663 1663 1663 1663 1663 1671 1671 1671 1671 1671 1663 1663 1663 1663 1663 1663 1663 1663 1663 1663 1663 1663 1663 1663 1655 1655 1655 1655 1663 1663 1663 1663 1663 1663 1671 1671 1663 1663 1663 1663 1663 1655 1655 1655 1655 1655 1655 1421 1421 1421 1421 1421 1410 1410 1410 1404 1404 1404 1404 1404 1404 1404 1404 1404 1398 1398 1398 1398 1404 1404 1647 1647 1647 1655 1655 1655 1655 1655 1655 1655 1655 1655 1655 1663 1663 1663 1663 1671 1671 1663 1663 1663 1663 1655 1655 1647 1647 1655 1655 1655 1663 1663 1663 1663 1663 1663 1663 1663 1663 1663 1655 1655 1655 1655 1655 1663 1663 1663 1663 1663 1663 1663 1663 1663 1655 1655 1663 1647 1647 1647 1647 1647 1647 1647 1647 1655 1655 1655 1655 1655 1655 1655 1655 1655 1655 1663 1663 1663 1663 1663 1663 1663 1663 1663 1671 1671 1671 1671 1671 1671 1671 1680 1680 1680 1680 1688 1696 1688 1688 1696 1688 1688 1688 1688 0 0 0 0 0 0
0 0 0 0 0 0 0 0 0 0 0 0 0 0 0 0 0 0 0 0 0 0 0 0 0 0 0 0 0 0 0 0 0 0 0 1572 1572 1572 1572 1579 1579 1579 1586 1586 1586 1594 1594 1594 1594 1586 1586 1586 1594 1594 1594 1594 1594 1594 1601 1601 1601 1601 1601 1609 1609 1601 1601 1601 1616 1601 1601 1594 1594 1601 1601 1601 1601 1601 1601 1601 1601 1601 1601 1594 1594 1594 1601 1601 1601 1601 1601 1609 1609 1609 1601 1601 1609 1609 1601 1601 1601 1601 1601 1601 1601 1616 1609 1601 1601 1601 1609 1609 1601 1601 1601 1609 1609 1609 1616 1616 1616 1616 1609 1609 1609 1609 1609 1609 1609 1609 1609 1609 1609 1609 1616 1616 1616 1616 1616 1616 1616 1616 1616 1609 1609 1609 1609 1609 1609 1609 1609 1609 1609 1616 1616 1616 1616 1609 1601 1601 1601 1601 1601 1609 1609 1609 1609 1616 1616 1616 1609 1609 1609 1609 1609 1609 1609 1609 1609 1609 1609 1616 1616 1616 1616 1616 1616 1616 1616 1616 1624 1616 1616 1616 1616 1616 1616 1616 1616 1616 1616 1616 1616 1616 1616 1616 1616 1616 1616 1616 1624 1624 1624 1624 1624 1632 1632 1632 1632 1632 1632 1632 1632 1632 1632 1632 1632 1632 1632 1632 1632 1632 1639 1639 1639 1639 1639 1639 1632 1632 1639 1639 1639 1632 1632 1632 1632 1632 1632 1632 1632 1632 1632 1632 1632 1632 1632 1632 1632 1632 1632 1632 1632 1632 1632 1639 1639 1639 1639 1639 1632 1632 1632 1632 1632 1639 1639 1639 1639 1639 1639 1639 1639 1639 1639 1639 1639 1639 1639 1639 1639 1639 1639 1639 1639 1639 1639 1639 1639 1639 1632 1624 1624 1601 1601 1601 1601 1594 1594 1594 1594 1594 1594 1594 1594 1609 1616 1624 1632 1639 1639 1647 1647 1647 1647 1647 1647 1655 1647 1647 1647 1647 1639 1639 1639 1647 1647 1647 1647 1647 1647 1647 1647 1647 1647 1647 1647 1639 1639 1639 1639 1639 1639 1639 1639 1639 1639 1639 1647 1647 1639 1639 1639 1639 1647 1639 1639 1647 1647 1647 1647 1647 1647 1647 1647 1647 1647 1647 1647 1647 1647 1647 1647 1647 1655 1655 1655 1647 1647 1655 1655 1655 1655 1655 1655 1663 1663 1433 1433 1433 1433 1433 1433 1433 1433 1433 1427 1427 1427 1427 1427 1427 1433 1439 1452 1452 1458 1458 1639 1639 1639 1639 1639 1639 1639 1647 1647 1647 1647 1647 1647 1647 1647 1647 1647 1647 1647 1647 1647 1655 1655 1655 1655 1655 1655 1655 1655 1655 1655 1647 1647 1647 1647 1655 1655 1655 1655 1655 1655 1655 1655 1655 1655 1655 1655 1655 1663 1655 1655 1663 1663 1655 1655 1655 1655 1655 1655 1655 1655 1655 1655 1655 1655 1655 1655 1655 1655 1655 1655 1655 1655 1655 1655 1655 1663 1663 1655 1655 1655 1655 1655 1647 1647 1655 1655 1655 1663 1421 1421 1421 1421 1421 1415 1415 1415 1404 1404 1404 1404 1404 1404 1404 1404 1404 1404 1404 1404 1404 1404 1404 1647 1647 1647 1647 1647 1647 1647 1647 1647 1647 1647 1647 1647 1647 1655 1663 1663 1663 1663 1663 1663 1655 1655 1655 1647 1647 1647 1647 1647 1647 1655 1655 1655 1663 1655 1655 1655 1655 1655 1655 1655 1655 1655 1655 1655 1655 1655 1655 1655 1655 1663 1655 1655 1655 1655 1655 1655 1647 1647 1647 1647 1647 1647 1647 1647 1655 1647 1647 1647 1647 1647 1647 1655 1655 1655 1655 1655 1655 1655 1655 1655 1663 1663 1655 1655 1663 1663 1671 1671 1671 1671 1671 1671 1671 1671 1671 1680 1680 1688 1688 1688 1688 1688 1688 0 0 0 0 0 0
0 0 0 0 0 0 0 0 0 0 0 0 0 0 0 0 0 0 0 0 0 0 0 0 0 0 0 0 0 0 0 0 0 0 0 1572 1572 1572 1572 1572 1579 1579 1579 1579 1586 1586 1594 1586 1586 1586 1586 1586 1594 1594 1594 1594 1594 1594 1594 1594 1594 1594 1601 1601 1601 1594 1594 1594 1601 1601 1594 1594 1594 1594 1594 1594 1594 1594 1594 1594 1594 1594 1594 1594 1594 1594 1594 1601 1601 1594 1594 1601 1601 1601 1594 1594 1601 1601 1594 1594 1601 1594 1594 1594 1594 1609 1594 1594 1594 1601 1601 1601 1594 1594 1601 1601 1594 1594 1609 1609 1609 1609 1609 1609 1609 1609 1609 1609 1609 1609 1609 1609 1609 1609 1609 1609 1609 1609 1609 1609 1609 1609 1609 1609 1601 1601 1601 1601 1601 1609 1609 1609 1609 1609 1616 1609 1609 1601 1601 1601 1594 1594 1601 1601 1601 1601 1601 1609 1609 1609 1609 1609 1609 1609 1609 1609 1609 1609 1609 1609 1609 1609 1609 1609 1609 1609 1609 1616 1609 1609 1616 1616 1616 1609 1609 1609 1609 1609 1609 1609 1609 1616 1616 1616 1609 1609 1616 1616 1616 1616 1616 1616 1616 1624 1624 1624 1624 1624 1624 1624 1632 1624 1624 1632 1624 1624 1632 1624 1624 1632 1632 1632 1632 1632 1632 1632 1639 1639 1632 1632 1632 1639 1639 1632 1632 1632 1632 1632 1632 1632 1632 1632 1632 1632 1624 1624 1632 1632 1624 1624 1624 1632 1632 1632 1632 1632 1632 1632 1632 1632 1624 1624 1632 1632 1632 1632 1632 1632 1632 1632 1632 1632 1632 1632 1632 1632 1632 1632 1632 1632 1632 1632 1632 1632 1632 1632 1639 1639 1639 1632 1624 1624 1609 1609 1609 1601 1601 1601 1594 1594 1594 1601 1601 1601 1601 1609 1616 1624 1632 1632 1632 1639 1639 1639 1647 1639 1639 1639 1639 1639 1639 1632 1632 1639 1639 1632 1632 1632 1632 1639 1647 1647 1647 1639 1639 1639 1639 1639 1632 1632 1632 1639 1632 1632 1639 1639 1639 1639 1639 1639 1639 1639 1639 1639 1639 1639 1639 1639 1639 1639 1639 1647 1647 1647 1647 1647 1647 1647 1647 1647 1647 1647 1647 1647 1647 1647 1647 1647 1647 1655 1655 1655 1655 1655 1655 1655 1655 1433 1433 1433 1433 1433 1433 1433 1433 1433 1427 1427 1427 1427 1427 1433 1439 1445 1445 1445 1452 1639 1639 1639 1639 1639 1639 1639 1639 1639 1639 1639 1639 1647 1639 1639 1647 1647 1647 1647 1647 1647 1647 1647 1647 1647 1655 1655 1655 1655 1655 1655 1647 1647 1647 1647 1647 1647 1647 1647 1647 1655 1647 1647 1647 1647 1647 1647 1655 1655 1647 1647 1655 1655 1655 1655 1647 1647 1655 1655 1655 1655 1655 1655 1655 1655 1655 1655 1655 1655 1655 1655 1655 1655 1655 1655 1655 1655 1655 1655 1655 1655 1655 1655 1655 1647 1647 1647 1647 1655 1663 1427 1427 1421 1421 1421 1415 1415 1415 1410 1410 1404 1404 1404 1404 1404 1404 1404 1404 1404 1404 1404 1398 1398 1639 1647 1647 1647 1647 1647 1647 1647 1647 1647 1647 1647 1647 1647 1655 1655 1655 1663 1663 1663 1655 1655 1647 1647 1647 1647 1647 1647 1647 1647 1647 1647 1647 1655 1655 1647 1647 1647 1647 1647 1647 1647 1647 1647 1647 1647 1647 1655 1655 1647 1647 1647 1647 1647 1647 1647 1647 1639 1639 1639 1639 1647 1647 1647 1647 1647 1639 1639 1639 1639 1639 1639 1647 1647 1647 1647 1647 1647 1647 1647 1647 1655 1655 1655 1655 1663 1663 1663 1663 1663 1671 1671 1671 1663 1663 1663 1671 1671 1671 1680 1680 1680 1688 1688 0 0 0 0 0 0
0 0 0 0 0 0 0 0 0 0 0 0 0 0 0 0 0 0 0 0 0 0 0 0 0 0 0 0 0 0 0 0 0 0 0 1564 1564 1564 1564 1572 1572 1572 1572 1579 1579 1586 1586 1586 1586 1586 1586 1586 1586 1586 1586 1586 1594 1594 1594 1594 1594 1594 1594 1601 1594 1594 1594 1594 1594 1594 1594 1586 1586 1594 1594 1594 1594 1594 1594 1594 1594 1594 1594 1594 1594 1594 1594 1594 1594 1594 1594 1594 1594 1594 1594 1594 1594 1594 1594 1594 1594 1594 1594 1594 1594 1609 1594 1594 1594 1594 1594 1594 1594 1594 1594 1594 1594 1594 1594 1601 1601 1601 1601 1601 1601 1601 1601 1601 1601 1609 1609 1609 1601 1601 1601 1601 1601 1601 1601 1609 1601 1601 1601 1601 1601 1601 1601 1601 1601 1601 1601 1601 1601 1609 1609 1609 1609 1601 1594 1594 1594 1594 1594 1594 1594 1594 1594 1594 1601 1601 1594 1594 1601 1601 1601 1601 1609 1609 1609 1609 1609 1609 1609 1609 1609 1609 1609 1609 1609 1609 1609 1609 1609 1609 1609 1609 1609 1609 1601 1601 1601 1609 1609 1609 1609 1609 1609 1609 1616 1616 1616 1616 1616 1616 1616 1616 1616 1616 1624 1624 1624 1624 1624 1624 1624 1624 1624 1624 1624 1624 1624 1624 1632 1632 1632 1632 1632 1624 1624 1624 1624 1632 1632 1624 1624 1624 1624 1624 1624 1624 1624 1624 1624 1624 1616 1616 1624 1624 1624 1624 1624 1624 1624 1624 1624 1624 1624 1624 1624 1624 1616 1616 1624 1632 1632 1632 1632 1632 1632 1632 1632 1632 1632 1632 1632 1632 1632 1632 1632 1632 1632 1632 1632 1632 1632 1632 1632 1632 1632 1632 1624 1624 1609 1609 1609 1601 1601 1601 1594 1594 1601 1601 1601 1601 1601 1609 1616 1624 1632 1632 1632 1639 1639 1639 1639 1639 1639 1639 1639 1632 1632 1632 1632 1632 1632 1632 1632 1632 1632 1632 1639 1632 1632 1632 1632 1632 1632 1632 1632 1632 1632 1632 1632 1632 1632 1632 1632 1632 1639 1632 1632 1632 1639 1639 1639 1639 1639 1639 1639 1639 1639 1639 1639 1639 1639 1639 1639 1647 1647 1647 1639 1639 1639 1639 1639 1639 1639 1639 1647 1647 1647 1647 1647 1647 1647 1647 1655 1433 1433 1433 1433 1433 1433 1433 1433 1427 1427 1427 1427 1427 1427 1433 1439 1439 1439 1445 1452 1632 1632 1632 1632 1632 1632 1632 1632 1639 1639 1639 1639 1639 1639 1639 1639 1639 1639 1639 1647 1647 1647 1647 1647 1647 1647 1647 1647 1647 1647 1647 1647 1647 1647 1647 1647 1647 1647 1647 1647 1647 1647 1647 1647 1647 1647 1647 1647 1647 1647 1647 1647 1647 1655 1647 1647 1647 1647 1647 1647 1647 1647 1647 1647 1647 1647 1647 1647 1647 1647 1647 1647 1655 1647 1647 1655 1655 1655 1655 1647 1647 1655 1655 1655 1647 1647 1647 1647 1647 1647 1421 1421 1421 1421 1421 1415 1415 1415 1410 1410 1410 1410 1404 1404 1404 1404 1404 1404 1404 1398 1398 1398 1398 1639 1639 1639 1639 1647 1647 1647 1647 1647 1647 1647 1647 1647 1647 1647 1655 1655 1655 1655 1655 1647 1647 1647 1647 1647 1639 1639 1647 1647 1647 1647 1647 1647 1647 1647 1647 1647 1647 1647 1647 1647 1647 1647 1647 1647 1647 1647 1647 1647 1647 1647 1647 1647 1647 1647 1647 1647 1639 1639 1639 1639 1639 1639 1639 1639 1639 1639 1639 1639 1639 1639 1639 1647 1647 1647 1647 1647 1647 1647 1647 1647 1647 1655 1647 1647 1655 1663 1663 1655 1655 1663 1663 1663 1663 1655 1655 1663 1671 1671 1671 1671 1680 1688 1688 0 0 0 0 0 0
0 0 0 0 0 0 0 0 0 0 0 0 0 0 0 0 0 0 0 0 0 0 0 0 0 0 0 0 0 0 0 0 0 0 0 1564 1564 1564 1564 1564 1572 1572 1572 1572 1572 1579 1579 1579 1579 1579 1586 1586 1586 1579 1579 1586 1594 1586 1586 1586 1586 1586 1594 1594 1594 1594 1594 1594 1594 1594 1594 1586 1586 1586 1586 1594 1594 1594 1594 1586 1586 1586 1586 1586 1586 1586 1594 1594 1594 1594 1594 1594 1594 1594 1594 1594 1594 1594 1594 1594 1594 1594 1594 1594 1594 1594 1594 1594 1594 1594 1594 1594 1594 1594 1594 1586 1586 1594 1594 1594 1594 1594 1601 1601 1601 1601 1594 1594 1601 1601 1601 1601 1601 1601 1594 1594 1601 1601 1601 1601 1601 1601 1601 1601 1601 1594 1594 1594 1594 1594 1594 1594 1594 1601 1601 1601 1601 1594 1594 1594 1586 1586 1594 1594 1594 1594 1594 1594 1594 1594 1594 1594 1601 1601 1601 1601 1609 1609 1609 1609 1609 1601 1601 1601 1601 1601 1601 1601 1601 1601 1609 1609 1609 1601 1601 1601 1601 1601 1601 1601 1601 1601 1609 1609 1609 1609 1609 1609 1609 1609 1609 1609 1616 1616 1616 1616 1616 1616 1616 1616 1616 1616 1616 1624 1624 1624 1624 1624 1624 1624 1624 1624 1632 1624 1624 1624 1624 1616 1616 1616 1624 1624 1624 1616 1616 1624 1624 1624 1616 1616 1616 1616 1624 1624 1616 1616 1624 1624 1616 1616 1616 1624 1624 1616 1616 1616 1616 1616 1616 1616 1616 1616 1624 1624 1624 1624 1624 1624 1624 1624 1624 1624 1624 1624 1632 1632 1632 1632 1632 1632 1632 1632 1632 1632 1632 1632 1632 1632 1632 1632 1624 1616 1609 1609 1609 1601 1601 1601 1594 1594 1601 1601 1601 1601 1601 1609 1616 1624 1632 1632 1632 1632 1632 1632 1632 1632 1632 1639 1639 1632 1632 1632 1632 1632 1632 1632 1632 1632 1632 1632 1632 1632 1632 1632 1632 1632 1632 1632 1624 1624 1632 1632 1632 1632 1632 1632 1632 1632 1632 1632 1632 1632 1639 1639 1632 1632 1632 1632 1639 1632 1632 1639 1639 1639 1639 1639 1639 1639 1639 1639 1639 1639 1639 1639 1639 1639 1639 1639 1639 1639 1639 1639 1639 1639 1639 1639 1639 1433 1433 1433 1433 1433 1433 1433 1433 1427 1427 1427 1427 1427 1427 1433 1439 1439 1439 1439 1632 1632 1632 1632 1632 1632 1632 1632 1632 1632 1632 1632 1632 1632 1632 1632 1639 1639 1639 1639 1639 1639 1647 1647 1647 1647 1647 1647 1647 1647 1647 1639 1639 1639 1647 1647 1647 1647 1647 1647 1647 1647 1647 1647 1647 1647 1647 1647 1647 1647 1647 1647 1647 1647 1647 1647 1647 1647 1647 1647 1647 1647 1647 1647 1639 1639 1639 1639 1639 1639 1647 1647 1647 1647 1647 1647 1647 1647 1647 1647 1647 1647 1647 1647 1647 1639 1639 1639 1647 1647 1647 1421 1421 1421 1421 1421 1415 1415 1415 1415 1415 1410 1410 1404 1404 1404 1404 1404 1404 1404 1398 1398 1404 1404 1639 1639 1639 1639 1639 1639 1639 1639 1639 1639 1639 1639 1639 1639 1647 1647 1647 1647 1647 1647 1647 1639 1639 1639 1639 1639 1639 1639 1639 1639 1639 1639 1639 1639 1639 1639 1639 1639 1639 1639 1639 1639 1639 1639 1647 1647 1639 1639 1639 1639 1639 1639 1647 1647 1647 1647 1647 1639 1639 1639 1639 1639 1639 1639 1639 1632 1632 1632 1632 1632 1639 1639 1639 1639 1639 1639 1639 1639 1639 1639 1639 1647 1647 1647 1647 1655 1655 1655 1655 1655 1655 1663 1655 1655 1655 1655 1663 1671 1671 1671 1671 1680 1688 1688 0 0 0 0 0 0
0 0 0 0 0 0 0 0 0 0 0 0 0 0 0 0 0 0 0 0 0 0 0 0 0 0 0 0 0 0 0 0 0 0 0 1557 1557 1564 1564 1564 1564 1564 1564 1572 1572 1572 1572 1572 1572 1579 1579 1579 1579 1579 1579 1586 1586 1586 1586 1586 1586 1586 1586 1579 1579 1586 1586 1586 1586 1586 1586 1586 1586 1586 1586 1586 1586 1586 1586 1586 1586 1586 1586 1586 1586 1586 1586 1586 1586 1586 1586 1586 1586 1586 1594 1594 1594 1586 1586 1586 1586 1586 1586 1586 1586 1586 1586 1586 1586 1586 1586 1586 1586 1586 1586 1586 1586 1586 1586 1586 1586 1586 1586 1586 1586 1586 1594 1594 1594 1594 1594 1594 1594 1594 1594 1594 1594 1594 1594 1594 1594 1594 1594 1594 1594 1594 1594 1594 1594 1594 1594 1594 1594 1594 1594 1594 1594 1586 1586 1586 1586 1586 1586 1586 1586 1586 1586 1594 1594 1594 1594 1594 1594 1601 1601 1601 1601 1601 1601 1601 1601 1601 1601 1601 1601 1594 1594 1601 1601 1601 1601 1601 1601 1601 1601 1601 1601 1601 1594 1594 1594 1601 1601 1601 1601 1601 1601 1609 1609 1609 1609 1609 1609 1609 1609 1609 1609 1609 1616 1616 1616 1616 1616 1616 1616 1616 1624 1616 1616 1624 1624 1624 1624 1616 1616 1616 1624 1616 1616 1616 1624 1624 1624 1616 1616 1616 1616 1616 1616 1609 1609 1609 1616 1616 1609 1609 1616 1616 1616 1616 1616 1616 1616 1616 1616 1616 1616 1609 1609 1616 1609 1609 1616 1616 1616 1616 1616 1616 1616 1616 1616 1616 1624 1624 1624 1624 1624 1632 1632 1624 1624 1624 1632 1632 1632 1632 1632 1632 1632 1624 1624 1616 1609 1609 1609 1601 1601 1601 1601 1601 1601 1601 1601 1601 1609 1609 1616 1624 1624 1632 1632 1632 1632 1632 1632 1632 1632 1632 1632 1632 1632 1624 1624 1624 1624 1624 1624 1624 1624 1624 1624 1624 1624 1624 1624 1624 1624 1632 1624 1624 1632 1632 1632 1632 1632 1632 1632 1632 1632 1632 1632 1632 1632 1632 1632 1632 1632 1632 1632 1632 1632 1632 1632 1632 1632 1632 1632 1632 1639 1639 1639 1632 1632 1632 1632 1632 1632 1632 1632 1632 1632 1632 1632 1632 1632 1632 1632 1639 1433 1433 1433 1433 1433 1433 1433 1433 1433 1427 1427 1427 1433 1433 1439 1439 1439 1439 1624 1624 1624 1624 1632 1632 1632 1632 1632 1632 1632 1632 1632 1632 1632 1632 1632 1632 1632 1632 1639 1639 1639 1639 1647 1647 1639 1639 1639 1632 1632 1639 1632 1632 1632 1639 1639 1639 1639 1639 1639 1639 1639 1647 1647 1647 1647 1647 1647 1647 1647 1639 1639 1647 1647 1647 1647 1647 1647 1639 1639 1639 1639 1639 1632 1632 1632 1639 1639 1639 1639 1639 1647 1647 1647 1647 1647 1647 1639 1639 1647 1647 1647 1647 1647 1639 1639 1639 1639 1639 1647 1427 1427 1427 1421 1421 1421 1421 1415 1415 1415 1410 1410 1410 1404 1404 1404 1404 1404 1404 1404 1404 1404 1404 1632 1639 1639 1639 1639 1639 1639 1639 1639 1639 1639 1639 1639 1639 1639 1639 1639 1639 1639 1639 1639 1639 1639 1639 1639 1639 1639 1639 1639 1639 1639 1639 1639 1639 1639 1639 1639 1639 1639 1639 1639 1639 1639 1639 1639 1639 1639 1639 1639 1639 1639 1639 1639 1639 1639 1639 1647 1639 1639 1632 1632 1632 1632 1632 1632 1632 1632 1632 1632 1632 1632 1639 1639 1639 1639 1639 1639 1639 1639 1639 1639 1639 1639 1647 1647 1647 1655 1655 1647 1647 1655 1655 1655 1655 1655 1655 1663 1663 1671 1671 1671 1680 1688 1688 0 0 0 0 0 0
0 0 0 0 0 0 0 0 0 0 0 0 0 0 0 0 0 0 0 0 0 0 0 0 0 0 0 0 0 0 0 0 0 0 0 1550 1550 1557 1557 1557 1557 1557 1557 1557 1557 1557 1564 1564 1564 1572 1572 1572 1572 1572 1572 1579 1586 1579 1579 1579 1579 1579 1579 1579 1579 1579 1586 1586 1586 1586 1586 1579 1579 1579 1579 1586 1586 1586 1586 1586 1579 1579 1579 1579 1579 1579 1579 1579 1579 1586 1586 1586 1586 1586 1586 1586 1586 1586 1586 1579 1579 1586 1579 1579 1579 1579 1579 1579 1579 1579 1586 1586 1586 1586 1586 1586 1586 1586 1579 1579 1579 1586 1586 1586 1586 1586 1586 1594 1594 1594 1586 1586 1586 1586 1586 1586 1586 1586 1586 1594 1594 1594 1594 1594 1594 1586 1586 1586 1594 1594 1594 1594 1594 1594 1594 1586 1586 1586 1586 1586 1586 1586 1586 1586 1586 1586 1586 1586 1586 1586 1586 1586 1586 1586 1586 1594 1594 1594 1594 1594 1586 1586 1586 1586 1594 1586 1586 1594 1594 1594 1594 1594 1594 1594 1594 1594 1594 1594 1594 1594 1594 1594 1594 1594 1586 1586 1594 1594 1594 1601 1601 1601 1601 1609 1609 1609 1609 1609 1609 1609 1609 1601 1601 1609 1609 1616 1616 1616 1616 1616 1616 1616 1616 1616 1616 1616 1616 1616 1616 1616 1616 1616 1616 1609 1609 1609 1609 1609 1609 1609 1609 1609 1609 1609 1609 1609 1609 1609 1616 1609 1609 1609 1609 1609 1609 1609 1609 1609 1609 1609 1609 1609 1616 1616 1609 1609 1616 1616 1616 1616 1616 1616 1624 1624 1624 1624 1624 1624 1624 1624 1624 1624 1624 1624 1624 1624 1624 1632 1632 1624 1616 1616 1609 1609 1609 1609 1601 1601 1601 1601 1601 1601 1601 1609 1609 1609 1616 1616 1624 1624 1624 1624 1624 1632 1632 1632 1632 1632 1632 1624 1624 1624 1624 1624 1624 1624 1624 1624 1624 1624 1616 1616 1616 1624 1624 1624 1624 1624 1624 1624 1624 1624 1624 1624 1624 1624 1624 1624 1632 1632 1624 1624 1632 1632 1632 1632 1632 1632 1632 1632 1632 1632 1632 1632 1632 1632 1632 1632 1632 1632 1632 1632 1632 1632 1632 1632 1632 1632 1632 1632 1632 1632 1632 1632 1632 1632 1632 1632 1433 1433 1439 1439 1433 1433 1433 1433 1433 1427 1427 1427 1433 1433 1439 1439 1439 1439 1624 1624 1624 1624 1624 1624 1624 1624 1624 1624 1624 1624 1624 1624 1624 1624 1624 1632 1632 1632 1632 1632 1632 1639 1639 1639 1639 1632 1632 1632 1632 1624 1624 1624 1632 1632 1632 1639 1639 1639 1639 1639 1639 1639 1639 1639 1639 1639 1639 1639 1639 1639 1639 1639 1639 1639 1639 1639 1639 1639 1639 1639 1632 1632 1632 1632 1632 1632 1632 1632 1639 1639 1639 1639 1639 1639 1639 1639 1639 1639 1647 1639 1639 1639 1639 1632 1632 1632 1639 1427 1427 1421 1421 1421 1421 1421 1421 1415 1415 1415 1415 1410 1410 1410 1410 1404 1404 1404 1404 1404 1404 1404 1404 1410 1632 1632 1632 1632 1639 1639 1639 1639 1639 1639 1639 1639 1639 1639 1632 1632 1632 1632 1632 1632 1632 1632 1632 1632 1632 1632 1632 1639 1632 1632 1632 1632 1632 1632 1632 1632 1632 1632 1632 1632 1632 1632 1632 1632 1632 1639 1639 1632 1632 1632 1632 1639 1639 1639 1639 1639 1639 1632 1632 1632 1632 1624 1624 1624 1624 1624 1624 1624 1624 1632 1632 1632 1639 1639 1639 1639 1639 1639 1639 1639 1639 1639 1639 1639 1647 1647 1647 1647 1647 1647 1647 1647 1647 1647 1647 1647 1647 1655 1663 1663 1671 1671 1680 1680 0 0 0 0 0 0
0 0 0 0 0 0 0 0 0 0 0 0 0 0 0 0 0 0 0 0 0 0 0 0 0 0 0 0 0 0 0 0 0 0 0 1543 1543 1550 1550 1550 1550 1550 1557 1557 1557 1557 1564 1564 1564 1564 1572 1572 1572 1572 1572 1572 1579 1579 1579 1579 1579 1579 1579 1572 1572 1579 1579 1586 1586 1579 1579 1579 1579 1572 1572 1579 1579 1579 1579 1579 1579 1579 1579 1579 1579 1579 1579 1579 1579 1586 1586 1586 1586 1586 1586 1579 1579 1579 1579 1579 1579 1579 1579 1579 1579 1579 1579 1579 1579 1579 1579 1586 1579 1579 1579 1586 1579 1579 1579 1572 1572 1579 1579 1579 1586 1586 1586 1586 1586 1586 1586 1586 1586 1586 1586 1586 1586 1586 1586 1594 1586 1586 1594 1586 1586 1586 1586 1586 1586 1586 1586 1586 1586 1586 1586 1586 1586 1586 1586 1586 1586 1579 1579 1579 1579 1579 1579 1579 1579 1579 1579 1579 1586 1586 1586 1586 1586 1586 1586 1586 1586 1586 1586 1586 1586 1586 1586 1586 1586 1586 1586 1586 1594 1594 1594 1594 1586 1586 1586 1586 1586 1586 1586 1586 1586 1586 1586 1586 1586 1594 1594 1594 1594 1601 1609 1601 1601 1609 1609 1609 1609 1601 1601 1601 1601 1601 1601 1601 1601 1609 1609 1609 1616 1609 1609 1609 1609 1609 1609 1609 1616 1616 1616 1601 1601 1601 1601 1601 1601 1601 1601 1601 1601 1601 1601 1601 1601 1609 1609 1609 1609 1609 1609 1609 1609 1609 1609 1609 1609 1609 1609 1609 1609 1609 1609 1609 1609 1609 1609 1609 1609 1609 1616 1616 1616 1616 1616 1616 1616 1616 1616 1616 1616 1624 1624 1624 1624 1624 1624 1616 1616 1609 1609 1609 1609 1609 1601 1601 1601 1601 1601 1601 1601 1609 1609 1609 1616 1616 1616 1624 1624 1624 1624 1624 1632 1632 1632 1632 1632 1624 1624 1616 1616 1616 1616 1616 1616 1616 1616 1616 1609 1609 1616 1616 1616 1616 1624 1624 1624 1624 1624 1624 1624 1624 1624 1624 1624 1624 1624 1624 1624 1624 1624 1624 1624 1624 1624 1624 1624 1624 1624 1624 1632 1632 1632 1632 1632 1632 1624 1624 1632 1632 1632 1632 1632 1632 1632 1632 1624 1624 1632 1632 1632 1632 1624 1624 1632 1632 1433 1433 1439 1439 1439 1439 1433 1433 1433 1433 1433 1433 1433 1439 1439 1445 1439 1439 1616 1624 1624 1624 1624 1624 1624 1624 1624 1624 1624 1624 1624 1624 1624 1624 1624 1624 1624 1624 1624 1632 1632 1632 1632 1632 1632 1624 1624 1624 1624 1624 1624 1624 1624 1624 1632 1632 1632 1639 1639 1632 1632 1632 1632 1632 1632 1632 1632 1632 1632 1632 1632 1632 1639 1639 1639 1639 1632 1632 1632 1632 1624 1624 1624 1624 1624 1632 1632 1632 1632 1639 1639 1639 1639 1639 1639 1639 1639 1639 1639 1639 1639 1639 1639 1624 1624 1624 1421 1421 1427 1421 1421 1421 1421 1421 1421 1415 1415 1415 1415 1415 1410 1410 1410 1404 1404 1404 1404 1404 1398 1398 1404 1404 1624 1624 1632 1632 1632 1632 1632 1632 1632 1632 1632 1632 1632 1632 1624 1624 1624 1624 1624 1624 1624 1624 1624 1632 1624 1624 1624 1632 1632 1624 1624 1624 1624 1624 1624 1632 1632 1624 1624 1632 1632 1632 1632 1632 1632 1632 1632 1632 1632 1632 1632 1639 1639 1639 1639 1639 1639 1624 1624 1624 1624 1624 1624 1616 1616 1616 1616 1616 1616 1624 1624 1632 1632 1639 1639 1632 1632 1632 1639 1639 1639 1639 1639 1639 1639 1647 1647 1647 1647 1647 1647 1647 1647 1647 1647 1647 1647 1639 1639 1663 1663 1663 1680 1680 0 0 0 0 0 0
0 0 0 0 0 0 0 0 0 0 0 0 0 0 0 0 0 0 0 0 0 0 0 0 0 0 0 0 0 0 0 0 0 0 0 1543 1543 1543 1543 1543 1550 1550 1550 1550 1550 1550 1557 1557 1564 1564 1564 1572 1564 1564 1572 1572 1579 1572 1572 1572 1572 1572 1572 1572 1572 1572 1579 1579 1579 1572 1572 1572 1572 1572 1572 1579 1579 1579 1579 1579 1579 1579 1572 1572 1572 1572 1579 1579 1579 1579 1579 1579 1579 1579 1579 1579 1579 1579 1579 1579 1579 1579 1579 1579 1579 1579 1579 1579 1579 1579 1579 1579 1579 1579 1579 1579 1579 1579 1579 1572 1572 1572 1572 1579 1579 1579 1579 1586 1586 1586 1586 1586 1586 1586 1586 1586 1586 1586 1586 1586 1586 1586 1586 1586 1586 1579 1579 1579 1586 1579 1579 1586 1586 1586 1586 1579 1579 1579 1579 1579 1579 1579 1579 1579 1579 1579 1579 1579 1579 1579 1579 1579 1579 1579 1579 1579 1586 1586 1586 1586 1586 1586 1586 1586 1586 1579 1579 1586 1586 1586 1586 1586 1586 1586 1586 1586 1586 1586 1586 1586 1586 1586 1586 1586 1586 1586 1586 1586 1586 1586 1586 1586 1586 1594 1594 1601 1601 1601 1601 1601 1601 1586 1586 1594 1594 1594 1594 1594 1594 1601 1601 1601 1601 1609 1609 1609 1609 1609 1609 1609 1609 1609 1609 1601 1601 1601 1601 1601 1594 1594 1601 1594 1594 1594 1594 1594 1601 1601 1601 1601 1609 1609 1609 1609 1609 1609 1609 1601 1601 1609 1601 1601 1609 1601 1601 1601 1601 1601 1601 1601 1609 1609 1609 1609 1609 1609 1616 1616 1609 1609 1609 1609 1609 1616 1616 1616 1616 1624 1609 1609 1609 1609 1609 1609 1609 1609 1601 1601 1601 1601 1601 1601 1601 1609 1609 1609 1609 1609 1609 1616 1616 1624 1624 1624 1624 1624 1624 1632 1632 1624 1616 1616 1616 1616 1616 1609 1609 1609 1609 1609 1609 1609 1609 1609 1609 1616 1616 1616 1616 1616 1616 1624 1624 1624 1624 1624 1624 1624 1624 1624 1624 1624 1624 1624 1624 1624 1616 1616 1616 1616 1616 1616 1624 1624 1624 1624 1624 1624 1624 1624 1624 1624 1624 1624 1624 1624 1624 1624 1624 1624 1624 1624 1624 1624 1624 1624 1624 1624 1433 1433 1439 1439 1433 1433 1433 1433 1433 1433 1433 1433 1439 1439 1445 1445 1445 1616 1616 1616 1616 1616 1616 1616 1624 1624 1624 1624 1624 1624 1616 1616 1624 1624 1624 1624 1624 1624 1624 1624 1624 1624 1632 1632 1624 1624 1624 1624 1624 1624 1624 1624 1624 1624 1624 1624 1624 1632 1632 1632 1632 1632 1632 1632 1632 1632 1624 1624 1632 1632 1632 1632 1632 1632 1632 1632 1632 1632 1632 1624 1624 1624 1624 1624 1624 1624 1624 1624 1632 1632 1639 1632 1632 1639 1639 1639 1639 1639 1639 1632 1632 1624 1624 1616 1616 1616 1421 1421 1427 1427 1421 1421 1421 1421 1421 1421 1421 1421 1415 1415 1410 1410 1404 1404 1404 1404 1404 1398 1398 1398 1404 1404 1624 1624 1624 1624 1624 1624 1624 1624 1624 1632 1632 1632 1632 1624 1624 1624 1624 1624 1616 1616 1616 1624 1624 1624 1624 1624 1624 1624 1624 1624 1624 1624 1624 1624 1624 1624 1624 1624 1624 1624 1624 1632 1632 1632 1632 1632 1632 1632 1632 1624 1624 1632 1632 1632 1632 1632 1632 1624 1616 1616 1616 1616 1616 1616 1616 1616 1616 1616 1616 1616 1616 1624 1632 1632 1632 1632 1632 1632 1632 1639 1639 1639 1639 1639 1639 1632 1632 1639 1639 1639 1639 1639 1639 1639 1647 1639 1639 1639 1639 1655 1663 1663 1671 1671 0 0 0 0 0 0
0 0 0 0 0 0 0 0 0 0 0 0 0 0 0 0 0 0 0 0 0 0 0 0 0 0 0 0 0 0 0 0 0 0 0 1543 1543 1543 1543 1543 1550 1550 1550 1550 1550 1550 1557 1557 1564 1564 1564 1564 1564 1564 1564 1564 1564 1564 1564 1572 1572 1572 1572 1572 1572 1572 1579 1579 1579 1572 1572 1564 1564 1564 1564 1572 1579 1579 1572 1572 1572 1572 1572 1572 1572 1572 1572 1572 1572 1579 1579 1579 1579 1579 1579 1572 1572 1572 1572 1579 1579 1579 1579 1579 1579 1579 1579 1579 1579 1572 1572 1579 1572 1572 1579 1572 1572 1572 1572 1572 1572 1572 1564 1564 1572 1572 1572 1579 1579 1579 1579 1579 1579 1579 1579 1579 1586 1586 1586 1586 1586 1586 1586 1586 1579 1572 1572 1579 1579 1579 1579 1579 1579 1579 1579 1579 1579 1572 1572 1579 1579 1579 1579 1579 1579 1579 1579 1579 1579 1579 1579 1579 1579 1572 1572 1572 1579 1579 1579 1579 1579 1579 1579 1579 1579 1579 1579 1579 1579 1579 1579 1579 1579 1579 1579 1579 1579 1579 1586 1586 1586 1586 1586 1586 1586 1586 1586 1586 1586 1586 1586 1586 1586 1586 1586 1586 1586 1586 1586 1586 1586 1586 1586 1586 1586 1586 1586 1586 1586 1594 1594 1594 1594 1601 1601 1601 1609 1609 1609 1609 1609 1609 1609 1594 1594 1594 1594 1594 1594 1594 1586 1586 1594 1594 1586 1586 1594 1594 1594 1601 1601 1601 1601 1609 1601 1601 1609 1601 1601 1601 1601 1601 1601 1601 1594 1594 1601 1601 1601 1601 1601 1601 1601 1609 1601 1601 1601 1601 1601 1601 1601 1601 1609 1609 1609 1601 1601 1601 1601 1601 1601 1609 1609 1609 1601 1601 1601 1601 1601 1601 1601 1601 1601 1609 1609 1609 1609 1609 1609 1616 1616 1616 1616 1616 1616 1616 1616 1624 1624 1616 1616 1609 1609 1609 1609 1609 1609 1601 1601 1601 1601 1601 1609 1609 1609 1609 1616 1616 1616 1616 1616 1616 1616 1616 1616 1624 1616 1616 1624 1616 1616 1616 1616 1616 1616 1616 1609 1609 1609 1609 1609 1609 1609 1616 1624 1624 1624 1616 1616 1616 1616 1616 1624 1624 1624 1624 1624 1616 1616 1616 1616 1616 1624 1624 1624 1624 1624 1624 1433 1433 1439 1433 1433 1433 1433 1433 1433 1433 1433 1433 1433 1439 1439 1439 1439 1616 1616 1616 1616 1616 1616 1616 1616 1616 1616 1616 1616 1616 1616 1616 1616 1616 1616 1616 1616 1616 1624 1616 1616 1624 1616 1616 1616 1616 1616 1616 1616 1616 1616 1616 1624 1624 1624 1624 1624 1624 1624 1616 1616 1624 1624 1624 1624 1624 1624 1624 1624 1624 1624 1624 1624 1624 1624 1624 1624 1624 1624 1624 1624 1616 1616 1616 1624 1624 1624 1624 1624 1624 1632 1624 1624 1632 1632 1632 1632 1632 1632 1632 1624 1624 1624 1616 1616 1616 1421 1421 1427 1427 1421 1421 1421 1421 1421 1421 1421 1421 1421 1415 1410 1410 1404 1404 1404 1404 1404 1398 1398 1398 1404 1404 1616 1616 1616 1616 1616 1616 1616 1616 1616 1616 1616 1624 1624 1624 1616 1616 1616 1616 1616 1616 1616 1616 1616 1616 1616 1616 1616 1616 1616 1616 1616 1616 1616 1616 1616 1616 1616 1616 1616 1624 1624 1624 1632 1632 1624 1624 1624 1624 1624 1624 1624 1624 1632 1632 1632 1632 1624 1616 1616 1616 1616 1616 1616 1616 1616 1609 1609 1609 1616 1616 1616 1624 1624 1632 1632 1632 1632 1632 1632 1632 1632 1632 1632 1632 1632 1632 1632 1632 1632 1632 1639 1639 1639 1639 1639 1639 1639 1632 1632 1655 1663 1663 1671 1671 0 0 0 0 0 0
0 0 0 0 0 0 0 0 0 0 0 0 0 0 0 0 0 0 0 0 0 0 0 0 0 0 0 0 0 0 0 0 0 0 0 1536 1536 1543 1543 1543 1543 1543 1543 1543 1550 1550 1550 1550 1557 1564 1564 1564 1564 1564 1564 1564 1564 1564 1564 1564 1564 1564 1564 1564 1564 1564 1564 1572 1572 1572 1572 1564 1564 1557 1557 1564 1564 1564 1564 1564 1564 1564 1564 1564 1564 1564 1564 1564 1564 1572 1572 1572 1572 1572 1572 1572 1572 1572 1572 1572 1572 1579 1579 1579 1579 1579 1579 1572 1572 1572 1572 1572 1572 1572 1572 1572 1564 1564 1564 1564 1564 1564 1564 1564 1564 1564 1564 1572 1572 1572 1572 1572 1572 1579 1579 1579 1579 1579 1579 1586 1586 1586 1586 1586 1579 1572 1572 1579 1579 1579 1579 1579 1579 1579 1579 1572 1572 1572 1572 1572 1572 1572 1572 1572 1572 1579 1579 1579 1572 1572 1572 1572 1572 1564 1564 1564 1564 1572 1572 1572 1572 1572 1579 1579 1579 1579 1579 1579 1579 1579 1579 1579 1579 1579 1579 1579 1579 1579 1579 1586 1586 1586 1586 1586 1579 1579 1579 1579 1579 1579 1586 1579 1579 1586 1579 1579 1586 1586 1586 1586 1586 1586 1586 1586 1586 1586 1586 1586 1586 1586 1586 1586 1594 1594 1594 1594 1601 1601 1601 1601 1601 1601 1601 1594 1586 1586 1586 1586 1586 1586 1586 1586 1586 1586 1586 1586 1594 1594 1594 1594 1601 1601 1601 1601 1601 1601 1601 1601 1601 1601 1601 1601 1601 1601 1594 1594 1594 1594 1601 1601 1601 1601 1601 1601 1601 1601 1601 1601 1601 1601 1601 1601 1601 1609 1609 1601 1601 1601 1601 1601 1601 1601 1601 1601 1601 1601 1601 1601 1601 1601 1601 1601 1601 1601 1601 1609 1609 1601 1601 1609 1609 1609 1609 1609 1609 1609 1609 1616 1616 1616 1609 1609 1601 1601 1601 1601 1601 1601 1601 1601 1601 1601 1601 1609 1609 1609 1616 1616 1616 1616 1616 1616 1616 1616 1616 1616 1616 1616 1616 1616 1616 1609 1609 1609 1609 1609 1609 1601 1601 1601 1601 1601 1601 1601 1609 1609 1609 1609 1609 1609 1609 1609 1609 1609 1609 1609 1616 1616 1616 1609 1609 1609 1616 1616 1616 1624 1624 1624 1433 1433 1439 1433 1433 1433 1433 1433 1433 1433 1433 1433 1433 1439 1439 1439 1439 1609 1609 1609 1609 1609 1609 1609 1616 1616 1616 1616 1616 1616 1616 1616 1616 1616 1616 1616 1616 1616 1616 1616 1616 1616 1616 1616 1616 1616 1616 1616 1616 1616 1616 1616 1616 1616 1616 1616 1616 1624 1624 1616 1616 1624 1624 1624 1624 1624 1624 1624 1616 1616 1624 1624 1624 1624 1624 1624 1624 1624 1624 1624 1616 1616 1616 1616 1616 1616 1624 1624 1624 1624 1624 1624 1624 1624 1624 1624 1624 1624 1624 1624 1616 1616 1616 1609 1609 1609 1421 1421 1427 1427 1421 1421 1421 1421 1421 1421 1421 1421 1421 1415 1410 1410 1404 1404 1404 1404 1404 1404 1404 1398 1398 1609 1616 1616 1616 1616 1616 1616 1616 1616 1616 1616 1609 1609 1616 1616 1616 1616 1616 1616 1616 1616 1616 1616 1616 1616 1616 1616 1616 1616 1616 1616 1616 1616 1616 1616 1616 1616 1616 1616 1616 1616 1616 1616 1624 1624 1616 1616 1624 1624 1624 1616 1616 1624 1624 1624 1624 1624 1624 1609 1609 1609 1609 1609 1616 1616 1616 1609 1609 1609 1609 1609 1609 1609 1624 1632 1632 1624 1624 1632 1632 1632 1632 1632 1632 1632 1632 1632 1632 1632 1632 1632 1632 1632 1632 1632 1632 1632 1624 1624 1632 1655 1655 1663 1663 1663 0 0 0 0 0 0
0 0 0 0 0 0 0 0 0 0 0 0 0 0 0 0 0 0 0 0 0 0 0 0 0 0 0 0 0 0 0 0 0 0 0 1536 1536 1536 1536 1536 1543 1543 1543 1543 1543 1543 1543 1550 1550 1557 1557 1557 1564 1564 1557 1557 1564 1564 1564 1564 1564 1564 1564 1557 1557 1557 1557 1564 1564 1564 1564 1564 1564 1550 1550 1557 1557 1557 1564 1564 1564 1564 1564 1564 1564 1564 1564 1564 1564 1564 1564 1564 1564 1564 1564 1564 1564 1564 1564 1572 1572 1572 1572 1572 1572 1572 1572 1564 1564 1564 1564 1564 1564 1564 1564 1564 1564 1564 1564 1564 1564 1564 1564 1564 1564 1564 1564 1564 1564 1564 1564 1564 1564 1572 1572 1572 1579 1579 1579 1579 1579 1579 1579 1579 1579 1572 1572 1572 1572 1572 1572 1572 1572 1572 1572 1572 1572 1572 1564 1557 1557 1557 1557 1564 1564 1572 1572 1572 1572 1572 1564 1564 1564 1564 1564 1564 1564 1572 1572 1572 1572 1572 1572 1572 1572 1572 1572 1572 1572 1572 1572 1572 1572 1572 1579 1572 1572 1579 1579 1579 1579 1579 1579 1579 1579 1579 1579 1579 1579 1579 1579 1579 1579 1579 1579 1579 1579 1579 1579 1586 1579 1579 1579 1579 1579 1579 1579 1579 1579 1586 1586 1586 1586 1586 1586 1586 1594 1594 1594 1594 1601 1601 1601 1586 1579 1579 1579 1579 1579 1579 1579 1579 1586 1586 1586 1586 1586 1586 1586 1594 1601 1601 1601 1594 1594 1601 1601 1601 1601 1601 1601 1601 1601 1601 1594 1594 1594 1594 1594 1594 1594 1594 1601 1601 1594 1594 1601 1601 1601 1601 1601 1601 1601 1601 1601 1601 1601 1601 1601 1601 1601 1601 1601 1601 1601 1601 1601 1601 1601 1601 1601 1601 1601 1601 1601 1601 1601 1601 1601 1601 1601 1601 1609 1609 1609 1601 1601 1609 1609 1601 1601 1601 1601 1601 1601 1601 1601 1601 1601 1601 1601 1601 1601 1601 1601 1609 1609 1609 1609 1609 1609 1609 1609 1609 1609 1609 1609 1609 1609 1609 1609 1609 1609 1609 1609 1601 1601 1601 1601 1601 1601 1601 1601 1601 1601 1601 1609 1609 1609 1609 1609 1609 1609 1601 1601 1601 1609 1609 1609 1609 1609 1609 1609 1609 1609 1616 1624 1433 1433 1433 1439 1433 1433 1439 1439 1433 1433 1439 1433 1433 1439 1439 1439 1445 1445 1601 1601 1601 1609 1609 1609 1609 1609 1616 1616 1609 1609 1609 1609 1609 1609 1609 1609 1609 1609 1609 1609 1609 1609 1609 1616 1609 1609 1609 1609 1616 1616 1616 1616 1616 1616 1616 1616 1616 1616 1616 1616 1616 1616 1616 1616 1616 1616 1616 1616 1616 1616 1616 1616 1616 1616 1616 1616 1616 1624 1616 1616 1616 1616 1616 1616 1616 1616 1616 1616 1616 1616 1616 1616 1616 1616 1616 1616 1616 1616 1616 1616 1616 1616 1616 1616 1609 1601 1601 1601 1427 1427 1427 1427 1427 1421 1421 1421 1421 1421 1421 1421 1415 1410 1410 1404 1404 1404 1404 1404 1398 1398 1398 1398 1609 1609 1616 1616 1609 1609 1616 1609 1609 1609 1609 1609 1609 1609 1609 1609 1609 1609 1609 1609 1616 1616 1616 1616 1616 1616 1616 1616 1616 1616 1609 1609 1609 1609 1609 1609 1609 1609 1609 1609 1616 1616 1616 1616 1616 1609 1609 1616 1616 1616 1616 1616 1616 1616 1616 1616 1616 1616 1609 1609 1609 1609 1609 1609 1609 1609 1609 1609 1609 1609 1609 1609 1609 1616 1616 1616 1616 1624 1624 1624 1632 1632 1632 1632 1624 1624 1632 1632 1632 1632 1632 1632 1632 1632 1632 1632 1632 1624 1624 1632 1647 1647 1655 1663 1663 0 0 0 0 0 0
0 0 0 0 0 0 0 0 0 0 0 0 0 0 0 0 0 0 0 0 0 0 0 0 0 0 0 0 0 0 0 0 0 0 0 1523 1523 1529 1529 1536 1536 1536 1543 1543 1543 1543 1543 1543 1543 1550 1550 1550 1550 1550 1557 1557 1557 1557 1564 1557 1557 1557 1557 1557 1557 1557 1557 1564 1564 1564 1564 1557 1557 1550 1550 1557 1557 1557 1557 1557 1557 1557 1564 1557 1557 1557 1557 1557 1557 1564 1564 1564 1564 1564 1564 1564 1564 1564 1564 1564 1564 1564 1564 1564 1564 1564 1564 1564 1564 1564 1564 1564 1564 1564 1564 1564 1564 1564 1564 1557 1557 1557 1557 1564 1564 1564 1564 1564 1564 1564 1564 1564 1564 1564 1564 1572 1572 1572 1572 1572 1579 1579 1579 1579 1579 1572 1572 1564 1564 1564 1564 1564 1564 1564 1564 1564 1564 1564 1564 1557 1557 1557 1557 1564 1564 1564 1564 1564 1564 1564 1564 1564 1564 1564 1564 1564 1564 1572 1572 1572 1572 1572 1572 1564 1564 1572 1572 1564 1564 1564 1564 1572 1564 1564 1564 1564 1564 1564 1572 1572 1572 1572 1579 1579 1579 1579 1579 1579 1579 1579 1579 1579 1579 1579 1579 1579 1579 1579 1579 1579 1579 1579 1579 1579 1579 1579 1579 1579 1579 1579 1579 1579 1579 1586 1586 1586 1586 1586 1594 1594 1594 1594 1594 1579 1579 1579 1579 1579 1579 1579 1579 1579 1579 1579 1586 1586 1586 1586 1586 1586 1594 1594 1594 1594 1594 1594 1594 1601 1601 1601 1594 1594 1594 1594 1594 1594 1586 1586 1586 1594 1586 1586 1586 1586 1586 1586 1594 1594 1594 1601 1601 1601 1601 1594 1594 1594 1594 1594 1594 1594 1594 1601 1601 1601 1601 1601 1601 1601 1601 1601 1601 1601 1601 1601 1601 1601 1601 1601 1601 1601 1601 1601 1601 1601 1601 1594 1594 1601 1601 1594 1594 1594 1594 1594 1594 1594 1594 1594 1594 1594 1594 1594 1594 1594 1594 1594 1594 1594 1594 1594 1594 1594 1594 1594 1601 1601 1601 1601 1594 1594 1594 1601 1601 1601 1601 1601 1601 1601 1601 1601 1601 1601 1601 1601 1601 1601 1601 1601 1601 1601 1601 1601 1601 1601 1601 1601 1609 1601 1601 1601 1601 1609 1609 1609 1609 1616 1616 1433 1433 1433 1439 1439 1439 1439 1433 1433 1439 1439 1433 1433 1439 1439 1439 1445 1445 1601 1601 1601 1601 1601 1601 1601 1609 1609 1609 1609 1609 1609 1609 1609 1601 1601 1601 1601 1601 1601 1601 1601 1594 1594 1601 1601 1601 1601 1609 1609 1609 1609 1609 1609 1609 1609 1616 1616 1616 1616 1616 1616 1616 1616 1616 1616 1616 1616 1616 1609 1609 1609 1609 1616 1609 1609 1609 1609 1616 1616 1616 1609 1609 1616 1616 1609 1609 1609 1609 1616 1616 1616 1616 1616 1616 1616 1609 1609 1609 1609 1609 1616 1609 1609 1609 1601 1594 1594 1594 1427 1427 1427 1427 1427 1421 1421 1421 1421 1421 1415 1415 1415 1410 1410 1404 1404 1404 1404 1404 1398 1398 1398 1609 1609 1609 1609 1609 1609 1609 1609 1601 1601 1609 1609 1601 1601 1609 1609 1609 1609 1609 1609 1609 1609 1609 1609 1609 1609 1609 1609 1609 1609 1609 1609 1609 1609 1609 1609 1609 1609 1609 1609 1609 1609 1609 1609 1609 1609 1609 1609 1616 1616 1616 1609 1609 1609 1609 1616 1616 1609 1609 1609 1609 1609 1609 1609 1609 1609 1609 1609 1609 1609 1609 1609 1609 1609 1616 1616 1609 1609 1616 1616 1624 1624 1624 1624 1624 1624 1624 1624 1624 1624 1624 1632 1624 1624 1632 1632 1632 1632 1632 1632 1632 1639 1639 1647 1647 1655 0 0 0 0 0 0
0 0 0 0 0 0 0 0 0 0 0 0 0 0 0 0 0 0 0 0 0 0 0 0 0 0 0 0 0 0 0 0 0 0 0 1516 1516 1523 1523 1529 1529 1536 1536 1536 1536 1536 1543 1543 1543 1543 1543 1543 1543 1543 1543 1543 1550 1550 1550 1550 1550 1550 1550 1550 1550 1550 1550 1557 1557 1557 1557 1557 1557 1550 1550 1557 1557 1557 1557 1557 1557 1557 1550 1550 1557 1557 1557 1557 1557 1564 1564 1564 1564 1564 1564 1564 1564 1564 1564 1564 1564 1564 1564 1564 1564 1564 1564 1564 1564 1564 1564 1564 1564 1564 1564 1557 1557 1557 1557 1557 1557 1557 1557 1557 1557 1557 1557 1557 1557 1557 1564 1564 1564 1564 1564 1572 1572 1572 1564 1564 1564 1564 1564 1572 1564 1564 1564 1564 1564 1564 1564 1564 1564 1564 1564 1564 1564 1564 1564 1557 1557 1564 1564 1557 1557 1557 1557 1564 1557 1557 1564 1564 1564 1564 1564 1564 1564 1564 1564 1564 1564 1572 1564 1564 1564 1564 1564 1564 1564 1564 1564 1564 1564 1564 1564 1564 1564 1564 1564 1564 1564 1572 1572 1579 1579 1579 1579 1579 1572 1572 1572 1572 1572 1579 1572 1572 1572 1572 1572 1579 1579 1579 1579 1579 1579 1579 1579 1579 1579 1579 1579 1579 1579 1579 1586 1586 1586 1586 1586 1586 1586 1586 1586 1579 1579 1579 1579 1579 1579 1579 1572 1572 1579 1579 1579 1579 1579 1579 1586 1586 1594 1586 1586 1586 1586 1586 1594 1594 1594 1594 1594 1594 1594 1594 1594 1594 1586 1586 1586 1586 1586 1586 1586 1586 1586 1586 1586 1594 1594 1594 1594 1594 1594 1586 1586 1586 1594 1594 1594 1594 1594 1601 1601 1601 1594 1594 1594 1594 1594 1601 1601 1601 1601 1594 1594 1601 1601 1594 1594 1594 1594 1601 1594 1594 1594 1586 1586 1594 1594 1586 1586 1594 1594 1594 1594 1594 1594 1594 1594 1594 1594 1594 1594 1594 1594 1594 1594 1594 1594 1594 1594 1594 1594 1594 1594 1594 1594 1594 1594 1594 1594 1594 1594 1594 1594 1594 1594 1594 1594 1594 1594 1594 1594 1601 1594 1594 1601 1601 1601 1601 1601 1601 1601 1601 1601 1601 1601 1601 1601 1601 1601 1601 1601 1609 1609 1433 1433 1433 1433 1433 1433 1439 1439 1439 1433 1433 1439 1439 1433 1433 1439 1439 1439 1445 1445 1594 1594 1594 1601 1601 1601 1601 1601 1609 1609 1601 1601 1601 1601 1601 1601 1601 1601 1601 1594 1594 1601 1594 1594 1594 1594 1594 1594 1594 1594 1601 1601 1601 1601 1609 1609 1609 1609 1609 1609 1609 1609 1609 1609 1616 1616 1609 1609 1616 1616 1609 1601 1601 1609 1616 1601 1601 1601 1601 1609 1609 1609 1609 1609 1609 1609 1601 1601 1601 1601 1609 1609 1609 1609 1609 1609 1609 1601 1601 1601 1601 1609 1609 1609 1609 1601 1594 1594 1594 1594 1427 1427 1427 1427 1427 1421 1421 1421 1421 1421 1415 1415 1415 1410 1410 1404 1404 1404 1404 1404 1404 1398 1398 1601 1601 1609 1609 1609 1609 1601 1601 1601 1601 1601 1601 1601 1601 1601 1601 1609 1609 1609 1609 1609 1609 1609 1609 1609 1609 1609 1609 1609 1609 1609 1601 1601 1609 1601 1601 1601 1601 1601 1601 1601 1601 1601 1609 1601 1601 1601 1601 1609 1601 1601 1601 1601 1609 1609 1609 1609 1609 1609 1601 1601 1601 1601 1601 1601 1601 1601 1601 1601 1601 1601 1601 1609 1609 1609 1609 1609 1609 1609 1609 1609 1616 1624 1624 1624 1624 1624 1624 1624 1624 1624 1624 1624 1624 1632 1632 1632 1632 1632 1632 1632 1639 1639 1647 1647 1647 0 0 0 0 0 0
0 0 0 0 0 0 0 0 0 0 0 0 0 0 0 0 0 0 0 0 0 0 0 0 0 0 0 0 0 0 0 0 0 0 0 1516 1516 1516 1516 1523 1523 1529 1536 1536 1536 1536 1536 1536 1543 1543 1543 1543 1543 1543 1543 1543 1543 1543 1550 1550 1550 1543 1543 1543 1543 1543 1543 1550 1550 1557 1557 1550 1550 1543 1543 1550 1550 1557 1557 1550 1550 1550 1550 1550 1550 1550 1550 1550 1550 1557 1564 1564 1564 1564 1557 1557 1557 1557 1557 1557 1557 1557 1564 1564 1564 1564 1564 1564 1564 1557 1557 1557 1557 1557 1557 1557 1557 1557 1557 1557 1557 1557 1557 1557 1557 1557 1557 1557 1557 1557 1557 1557 1557 1564 1564 1557 1557 1557 1557 1557 1557 1557 1557 1564 1564 1564 1564 1557 1557 1557 1557 1564 1564 1557 1557 1557 1557 1557 1557 1550 1550 1557 1557 1557 1557 1557 1557 1557 1557 1557 1557 1557 1557 1557 1557 1564 1557 1557 1557 1557 1557 1557 1557 1557 1557 1564 1564 1564 1564 1557 1557 1557 1557 1557 1564 1557 1557 1557 1564 1564 1564 1564 1572 1572 1572 1572 1572 1572 1572 1572 1572 1572 1572 1572 1572 1572 1572 1572 1572 1572 1572 1572 1579 1579 1579 1579 1579 1572 1572 1572 1572 1579 1579 1579 1579 1579 1579 1579 1586 1586 1586 1586 1586 1579 1579 1579 1579 1572 1572 1572 1572 1572 1572 1572 1572 1572 1579 1579 1579 1579 1586 1586 1586 1579 1579 1586 1586 1586 1594 1594 1594 1594 1594 1594 1586 1586 1579 1579 1579 1579 1579 1579 1579 1579 1579 1586 1586 1586 1586 1594 1586 1586 1586 1586 1586 1586 1586 1586 1586 1586 1586 1594 1594 1594 1594 1594 1594 1594 1594 1594 1594 1594 1594 1594 1594 1594 1594 1594 1594 1586 1586 1594 1594 1586 1586 1586 1586 1586 1586 1579 1579 1579 1579 1586 1586 1586 1586 1586 1594 1594 1594 1586 1586 1594 1594 1594 1586 1586 1586 1586 1586 1586 1586 1594 1594 1594 1594 1586 1586 1586 1586 1586 1586 1586 1594 1586 1586 1594 1594 1594 1594 1594 1594 1594 1594 1594 1594 1594 1594 1594 1594 1594 1594 1594 1594 1594 1594 1594 1594 1594 1594 1601 1601 1601 1601 1433 1433 1433 1433 1433 1433 1439 1439 1439 1439 1439 1439 1439 1439 1439 1439 1439 1439 1594 1594 1594 1594 1594 1594 1594 1594 1594 1594 1601 1601 1601 1601 1594 1594 1594 1594 1594 1594 1594 1594 1594 1601 1594 1594 1594 1594 1594 1594 1594 1594 1594 1594 1594 1594 1594 1601 1601 1609 1609 1609 1609 1609 1609 1609 1609 1609 1601 1601 1609 1609 1601 1601 1601 1601 1601 1594 1594 1594 1601 1601 1601 1601 1601 1601 1601 1601 1601 1601 1601 1601 1601 1601 1601 1601 1601 1601 1601 1601 1601 1601 1601 1609 1609 1601 1601 1601 1594 1594 1594 1594 1427 1427 1427 1421 1421 1421 1421 1421 1421 1421 1415 1415 1415 1410 1410 1404 1404 1404 1404 1404 1404 1404 1404 1601 1601 1609 1609 1609 1601 1601 1601 1594 1594 1594 1594 1594 1594 1601 1601 1601 1601 1601 1601 1601 1601 1601 1601 1601 1601 1601 1601 1601 1601 1601 1601 1601 1601 1601 1601 1601 1601 1601 1594 1594 1594 1594 1594 1594 1594 1594 1594 1594 1594 1601 1601 1601 1601 1609 1609 1609 1609 1609 1601 1601 1601 1601 1601 1601 1601 1601 1601 1601 1601 1601 1601 1601 1601 1601 1601 1601 1601 1609 1601 1601 1609 1616 1616 1624 1624 1624 1624 1616 1616 1616 1616 1616 1624 1624 1624 1632 1632 1632 1632 1632 1639 1639 1639 1639 1639 0 0 0 0 0 0
0 0 0 0 0 0 0 0 0 0 0 0 0 0 0 0 0 0 0 0 0 0 0 0 0 0 0 0 0 0 0 0 0 0 0 1509 1509 1516 1516 1516 1516 1523 1529 1529 1529 1529 1536 1536 1536 1536 1536 1536 1536 1536 1536 1536 1543 1543 1543 1550 1550 1543 1543 1543 1543 1543 1543 1550 1550 1550 1550 1543 1543 1543 1543 1543 1543 1550 1550 1550 1550 1550 1543 1543 1543 1543 1543 1543 1550 1550 1557 1557 1557 1557 1557 1557 1557 1557 1557 1557 1557 1557 1557 1557 1557 1557 1557 1557 1557 1557 1557 1557 1557 1557 1557 1557 1557 1557 1557 1557 1557 1557 1557 1557 1557 1557 1557 1557 1557 1557 1557 1557 1557 1557 1557 1557 1557 1557 1557 1557 1557 1557 1557 1564 1564 1564 1557 1557 1557 1557 1557 1557 1564 1557 1557 1557 1557 1557 1557 1550 1550 1557 1557 1557 1557 1550 1550 1557 1557 1550 1550 1550 1550 1557 1557 1557 1557 1557 1557 1557 1557 1557 1557 1557 1557 1557 1557 1557 1557 1557 1557 1557 1557 1557 1557 1557 1557 1557 1557 1557 1557 1557 1564 1564 1564 1564 1564 1572 1572 1564 1564 1564 1564 1564 1564 1564 1557 1557 1564 1564 1572 1572 1572 1572 1572 1572 1572 1572 1572 1572 1572 1572 1579 1579 1579 1579 1579 1579 1579 1579 1579 1579 1579 1579 1572 1572 1572 1572 1572 1572 1572 1572 1572 1572 1572 1572 1572 1579 1579 1579 1579 1579 1579 1579 1579 1579 1579 1579 1579 1586 1586 1586 1579 1579 1586 1586 1579 1579 1579 1579 1579 1579 1579 1579 1579 1579 1579 1579 1579 1586 1586 1586 1586 1586 1586 1586 1586 1586 1586 1586 1586 1586 1586 1586 1586 1586 1594 1586 1586 1586 1586 1586 1586 1586 1586 1586 1586 1586 1594 1586 1586 1586 1586 1579 1579 1579 1579 1579 1579 1572 1572 1572 1572 1586 1586 1586 1586 1586 1586 1586 1586 1586 1586 1586 1586 1586 1586 1579 1579 1579 1586 1579 1579 1586 1586 1586 1579 1579 1579 1579 1579 1579 1579 1586 1586 1586 1586 1586 1586 1594 1594 1594 1594 1594 1594 1594 1594 1594 1594 1594 1594 1594 1594 1586 1586 1594 1594 1586 1586 1594 1594 1594 1594 1594 1594 1433 1433 1433 1433 1433 1439 1439 1439 1439 1439 1439 1439 1439 1433 1433 1439 1439 1439 1594 1594 1586 1586 1586 1594 1594 1594 1594 1586 1586 1594 1586 1586 1594 1594 1594 1594 1594 1594 1594 1594 1594 1594 1594 1594 1594 1594 1594 1594 1594 1594 1594 1594 1594 1594 1594 1601 1601 1601 1601 1601 1601 1609 1609 1609 1601 1594 1594 1594 1594 1594 1594 1594 1594 1594 1594 1594 1594 1594 1594 1601 1601 1601 1601 1601 1601 1594 1594 1594 1594 1594 1601 1601 1601 1601 1601 1601 1601 1601 1601 1601 1609 1609 1601 1601 1601 1601 1594 1594 1594 1594 1427 1427 1427 1421 1421 1421 1421 1421 1421 1421 1415 1415 1415 1410 1410 1404 1404 1404 1404 1404 1404 1404 1404 1594 1594 1601 1594 1594 1594 1594 1594 1586 1586 1586 1586 1594 1594 1594 1594 1594 1594 1601 1601 1594 1594 1594 1594 1594 1594 1594 1594 1594 1594 1594 1594 1594 1594 1594 1594 1594 1594 1594 1594 1594 1594 1594 1594 1586 1586 1586 1586 1594 1594 1594 1594 1594 1594 1601 1601 1601 1601 1601 1594 1594 1594 1594 1594 1594 1594 1594 1594 1601 1601 1601 1601 1601 1601 1601 1601 1601 1601 1601 1601 1601 1601 1609 1616 1616 1624 1624 1616 1609 1609 1609 1616 1616 1616 1624 1624 1624 1624 1624 1624 1632 1632 1632 1639 1639 1639 0 0 0 0 0 0
0 0 0 0 0 0 0 0 0 0 0 0 0 0 0 0 0 0 0 0 0 0 0 0 0 0 0 0 0 0 0 0 0 0 0 1509 1509 1516 1516 1516 1516 1523 1523 1529 1529 1529 1529 1536 1536 1536 1536 1536 1536 1536 1536 1536 1536 1543 1543 1543 1543 1543 1543 1543 1543 1543 1543 1550 1550 1550 1550 1543 1543 1536 1536 1543 1543 1550 1543 1543 1543 1543 1543 1543 1536 1536 1536 1543 1543 1543 1550 1550 1557 1557 1557 1557 1557 1557 1557 1550 1550 1550 1550 1550 1550 1550 1550 1550 1550 1550 1550 1550 1550 1550 1550 1550 1550 1550 1550 1550 1550 1550 1550 1550 1550 1550 1550 1550 1557 1557 1557 1557 1557 1557 1557 1557 1557 1557 1557 1557 1557 1557 1557 1557 1557 1557 1557 1557 1557 1557 1557 1557 1557 1557 1557 1557 1557 1557 1550 1543 1543 1550 1550 1550 1550 1550 1550 1550 1550 1543 1543 1550 1550 1550 1550 1550 1550 1557 1557 1550 1550 1550 1557 1557 1557 1557 1557 1557 1557 1557 1557 1557 1557 1557 1557 1557 1557 1557 1557 1557 1557 1557 1557 1564 1564 1557 1557 1572 1572 1564 1564 1557 1557 1564 1557 1557 1557 1557 1557 1564 1564 1572 1572 1572 1564 1564 1572 1572 1564 1564 1564 1572 1572 1572 1572 1572 1572 1572 1572 1579 1579 1579 1579 1572 1572 1572 1572 1572 1572 1572 1564 1564 1572 1572 1572 1572 1572 1572 1572 1579 1579 1572 1572 1572 1572 1579 1572 1572 1579 1579 1579 1579 1579 1579 1579 1579 1579 1579 1579 1579 1579 1572 1572 1572 1572 1579 1579 1579 1579 1579 1579 1579 1579 1579 1579 1579 1579 1579 1579 1579 1579 1579 1586 1586 1586 1586 1586 1586 1586 1586 1586 1579 1579 1586 1586 1579 1579 1579 1586 1586 1586 1579 1579 1579 1579 1579 1579 1579 1579 1572 1572 1572 1572 1572 1579 1579 1579 1579 1579 1586 1586 1579 1579 1579 1579 1579 1579 1579 1579 1579 1579 1579 1579 1579 1579 1579 1579 1579 1579 1579 1579 1579 1579 1579 1586 1579 1579 1586 1586 1586 1586 1594 1594 1586 1586 1594 1594 1594 1594 1594 1594 1594 1586 1586 1586 1586 1586 1586 1586 1586 1586 1586 1586 1586 1594 1594 1433 1433 1439 1439 1439 1439 1439 1439 1439 1439 1439 1439 1433 1433 1439 1594 1594 1586 1586 1586 1586 1586 1594 1586 1586 1586 1586 1586 1586 1586 1586 1586 1586 1594 1594 1594 1594 1594 1586 1586 1586 1586 1586 1586 1586 1594 1586 1586 1586 1586 1586 1594 1594 1594 1601 1601 1601 1601 1601 1601 1601 1601 1601 1594 1594 1594 1594 1594 1594 1594 1594 1594 1594 1594 1594 1594 1594 1594 1594 1594 1594 1594 1594 1594 1594 1594 1594 1594 1594 1594 1594 1594 1594 1594 1601 1601 1594 1594 1601 1609 1609 1601 1594 1594 1601 1594 1586 1586 1594 1427 1421 1421 1427 1427 1421 1421 1421 1421 1421 1421 1421 1415 1410 1410 1410 1410 1404 1404 1404 1404 1404 1586 1586 1586 1594 1594 1594 1594 1586 1586 1586 1586 1586 1586 1586 1586 1586 1586 1594 1594 1594 1594 1586 1586 1586 1586 1586 1586 1586 1586 1586 1586 1586 1586 1594 1594 1586 1586 1594 1594 1594 1586 1586 1586 1586 1586 1586 1586 1586 1586 1586 1586 1586 1594 1594 1594 1594 1594 1594 1594 1594 1579 1579 1579 1579 1586 1586 1586 1586 1594 1594 1594 1594 1594 1601 1601 1594 1594 1594 1594 1594 1594 1594 1601 1601 1601 1609 1609 1609 1609 1609 1609 1609 1609 1609 1616 1616 1616 1616 1616 1624 1624 1632 1632 1632 1632 1632 1639 0 0 0 0 0 0
0 0 0 0 0 0 0 0 0 0 0 0 0 0 0 0 0 0 0 0 0 0 0 0 0 0 0 0 0 0 0 0 0 0 0 1509 1509 1509 1516 1516 1516 1516 1523 1523 1529 1529 1529 1529 1536 1536 1529 1529 1529 1529 1529 1529 1536 1536 1536 1543 1543 1536 1536 1543 1543 1543 1543 1543 1543 1550 1550 1543 1543 1536 1536 1543 1543 1543 1543 1543 1543 1543 1536 1536 1536 1536 1536 1536 1543 1543 1543 1543 1543 1550 1550 1550 1550 1550 1550 1550 1550 1550 1543 1543 1543 1550 1550 1550 1550 1550 1550 1550 1550 1550 1550 1550 1550 1550 1550 1550 1550 1550 1550 1550 1550 1550 1550 1550 1550 1550 1557 1557 1557 1557 1557 1550 1550 1550 1550 1550 1550 1550 1557 1557 1557 1557 1550 1550 1550 1550 1550 1557 1557 1557 1557 1557 1557 1557 1550 1536 1536 1550 1550 1550 1550 1550 1550 1550 1550 1543 1543 1543 1543 1550 1550 1550 1550 1550 1550 1550 1550 1550 1550 1557 1557 1557 1557 1550 1550 1550 1550 1557 1557 1557 1557 1550 1550 1550 1550 1550 1550 1550 1557 1557 1557 1557 1557 1557 1557 1557 1557 1557 1557 1557 1557 1557 1557 1557 1557 1557 1557 1564 1564 1564 1564 1564 1564 1564 1564 1564 1564 1564 1564 1564 1572 1572 1572 1564 1564 1572 1572 1572 1572 1572 1572 1572 1564 1564 1564 1564 1564 1564 1564 1572 1572 1572 1572 1572 1572 1572 1572 1572 1572 1572 1572 1572 1572 1572 1572 1572 1572 1572 1572 1572 1579 1579 1572 1572 1572 1572 1572 1572 1572 1572 1572 1572 1572 1572 1572 1579 1579 1579 1579 1579 1579 1579 1579 1579 1579 1579 1579 1579 1579 1579 1586 1586 1586 1586 1579 1579 1579 1579 1579 1579 1586 1579 1579 1579 1579 1579 1579 1579 1579 1579 1579 1572 1572 1579 1579 1572 1572 1572 1572 1572 1572 1579 1579 1579 1579 1579 1579 1572 1572 1579 1579 1579 1579 1579 1579 1579 1579 1579 1579 1579 1579 1579 1579 1579 1579 1579 1579 1579 1572 1572 1586 1572 1572 1579 1579 1586 1586 1586 1586 1586 1586 1586 1586 1586 1586 1579 1579 1579 1579 1579 1586 1579 1579 1579 1579 1586 1586 1579 1579 1579 1586 1586 1439 1439 1439 1445 1445 1445 1445 1439 1439 1439 1439 1439 1439 1439 1439 1594 1586 1586 1586 1579 1579 1586 1579 1572 1572 1579 1572 1572 1579 1579 1579 1586 1586 1586 1586 1586 1586 1586 1586 1586 1586 1586 1586 1586 1586 1586 1586 1579 1579 1586 1586 1586 1586 1586 1594 1594 1594 1594 1594 1594 1594 1594 1594 1594 1586 1586 1586 1586 1586 1586 1586 1594 1594 1594 1594 1594 1594 1594 1594 1594 1594 1594 1594 1594 1594 1594 1594 1594 1594 1594 1594 1594 1594 1594 1594 1594 1594 1594 1594 1594 1594 1594 1594 1594 1594 1586 1586 1586 1594 1427 1421 1421 1427 1427 1421 1421 1421 1421 1421 1421 1421 1415 1415 1415 1410 1410 1410 1410 1410 1404 1404 1586 1586 1586 1586 1586 1586 1586 1586 1586 1586 1586 1586 1586 1586 1586 1586 1586 1586 1586 1586 1586 1586 1586 1586 1586 1579 1579 1586 1586 1586 1586 1579 1579 1586 1586 1586 1586 1586 1586 1586 1586 1586 1586 1586 1586 1586 1586 1586 1586 1586 1586 1586 1586 1586 1586 1586 1586 1586 1586 1586 1579 1579 1579 1579 1579 1579 1579 1579 1586 1586 1586 1586 1586 1594 1594 1586 1586 1594 1594 1594 1594 1594 1601 1601 1601 1601 1601 1601 1601 1609 1609 1609 1609 1609 1609 1609 1616 1616 1616 1624 1624 1624 1624 1632 1632 1632 1632 0 0 0 0 0 0
0 0 0 0 0 0 0 0 0 0 0 0 0 0 0 0 0 0 0 0 0 0 0 0 0 0 0 0 0 0 0 0 0 0 0 1509 1509 1509 1509 1509 1509 1509 1516 1516 1523 1523 1523 1529 1529 1529 1529 1529 1529 1529 1523 1523 1529 1529 1529 1536 1536 1536 1536 1536 1543 1543 1543 1543 1543 1543 1543 1536 1536 1536 1536 1536 1536 1543 1543 1543 1543 1543 1536 1536 1536 1536 1536 1536 1543 1543 1543 1543 1543 1543 1543 1543 1543 1543 1550 1550 1543 1543 1543 1543 1543 1543 1543 1543 1543 1550 1543 1543 1550 1550 1550 1550 1550 1543 1543 1550 1543 1543 1543 1543 1543 1543 1543 1543 1550 1550 1550 1550 1550 1550 1550 1550 1550 1550 1550 1550 1550 1550 1550 1550 1550 1543 1543 1543 1550 1550 1550 1550 1550 1550 1550 1550 1550 1550 1543 1536 1536 1543 1543 1543 1543 1543 1543 1543 1536 1536 1536 1536 1536 1543 1543 1543 1543 1550 1550 1550 1550 1550 1550 1550 1550 1557 1557 1550 1550 1550 1550 1550 1550 1550 1550 1550 1550 1550 1550 1550 1550 1550 1550 1557 1557 1557 1550 1550 1550 1557 1557 1557 1557 1557 1557 1557 1557 1557 1557 1557 1557 1557 1557 1557 1557 1564 1564 1557 1557 1557 1557 1557 1564 1564 1564 1564 1564 1557 1557 1564 1564 1564 1564 1564 1564 1557 1557 1557 1557 1557 1557 1557 1557 1564 1564 1564 1564 1564 1564 1564 1564 1564 1564 1564 1564 1564 1564 1564 1572 1572 1572 1572 1572 1572 1572 1572 1572 1572 1572 1572 1572 1572 1572 1572 1572 1572 1572 1572 1572 1572 1572 1572 1564 1564 1572 1572 1572 1572 1572 1572 1579 1579 1579 1579 1579 1579 1586 1579 1579 1579 1579 1579 1579 1579 1579 1579 1579 1579 1579 1579 1579 1579 1572 1572 1572 1572 1572 1579 1579 1572 1572 1572 1572 1572 1572 1572 1572 1572 1572 1572 1572 1572 1572 1572 1572 1572 1572 1572 1572 1572 1572 1572 1572 1572 1572 1579 1572 1572 1572 1572 1572 1572 1572 1572 1586 1572 1572 1579 1579 1579 1579 1579 1579 1572 1572 1572 1572 1572 1572 1572 1572 1572 1572 1572 1579 1572 1572 1572 1579 1579 1579 1572 1572 1579 1579 1439 1439 1439 1439 1445 1445 1445 1445 1439 1439 1439 1439 1439 1439 1439 1439 1586 1586 1579 1579 1579 1579 1579 1579 1572 1572 1572 1572 1572 1572 1572 1572 1579 1579 1579 1579 1572 1572 1572 1572 1572 1572 1572 1572 1572 1579 1586 1579 1579 1579 1579 1579 1586 1586 1586 1586 1586 1594 1594 1586 1586 1586 1586 1586 1586 1586 1586 1586 1586 1586 1586 1586 1586 1586 1586 1586 1586 1586 1586 1586 1586 1594 1594 1586 1586 1586 1586 1586 1586 1586 1586 1586 1586 1586 1586 1594 1594 1594 1594 1594 1594 1594 1594 1594 1594 1594 1586 1586 1586 1594 1427 1427 1427 1427 1427 1427 1427 1427 1421 1421 1421 1421 1415 1415 1415 1410 1410 1410 1410 1410 1410 1586 1586 1586 1586 1586 1586 1586 1586 1586 1579 1579 1579 1579 1579 1579 1579 1579 1579 1579 1586 1579 1579 1579 1579 1579 1579 1579 1579 1579 1579 1579 1579 1579 1579 1586 1579 1579 1579 1579 1579 1579 1579 1586 1586 1586 1579 1579 1579 1579 1579 1579 1579 1579 1586 1586 1586 1586 1586 1586 1586 1586 1579 1579 1579 1579 1579 1579 1579 1579 1579 1579 1579 1579 1579 1579 1579 1579 1586 1586 1594 1594 1594 1594 1594 1594 1601 1601 1601 1601 1601 1601 1601 1609 1609 1609 1609 1609 1609 1609 1616 1624 1624 1624 1624 1624 1632 1632 1632 0 0 0 0 0 0
0 0 0 0 0 0 0 0 0 0 0 0 0 0 0 0 0 0 0 0 0 0 0 0 0 0 0 0 0 0 0 0 0 0 0 1509 1503 1503 1509 1509 1509 1509 1509 1516 1516 1523 1523 1529 1529 1529 1529 1529 1523 1523 1523 1523 1529 1529 1529 1536 1536 1536 1536 1536 1536 1536 1536 1536 1536 1536 1536 1529 1529 1529 1529 1536 1536 1543 1543 1543 1536 1536 1536 1536 1536 1536 1536 1536 1536 1536 1536 1536 1536 1543 1543 1543 1543 1543 1543 1543 1543 1543 1536 1536 1536 1536 1536 1536 1536 1543 1543 1543 1543 1543 1536 1536 1536 1536 1536 1543 1536 1536 1536 1543 1543 1543 1543 1543 1550 1550 1550 1550 1550 1550 1550 1543 1543 1543 1543 1543 1543 1543 1543 1543 1543 1543 1543 1543 1543 1543 1543 1550 1543 1543 1550 1550 1550 1550 1536 1529 1529 1536 1536 1536 1536 1536 1536 1543 1536 1536 1536 1536 1536 1536 1536 1536 1536 1543 1550 1543 1543 1543 1550 1550 1550 1550 1550 1543 1543 1550 1550 1550 1550 1550 1550 1550 1550 1550 1550 1550 1550 1550 1550 1550 1550 1550 1550 1550 1550 1550 1550 1550 1550 1550 1557 1557 1557 1557 1550 1550 1557 1557 1557 1557 1557 1557 1557 1557 1557 1557 1557 1557 1557 1557 1557 1557 1557 1557 1557 1557 1557 1557 1564 1564 1564 1557 1557 1557 1557 1557 1557 1550 1550 1557 1557 1557 1557 1557 1557 1557 1557 1557 1557 1557 1557 1564 1564 1564 1564 1572 1572 1572 1572 1572 1572 1572 1572 1572 1572 1572 1564 1564 1564 1564 1564 1572 1564 1564 1572 1572 1572 1572 1564 1564 1572 1572 1572 1572 1572 1572 1572 1572 1572 1579 1579 1579 1579 1579 1579 1579 1579 1572 1572 1572 1572 1572 1572 1572 1572 1572 1572 1572 1572 1572 1572 1572 1572 1572 1572 1572 1564 1564 1572 1572 1572 1572 1572 1572 1572 1564 1564 1564 1564 1564 1564 1564 1564 1572 1572 1572 1572 1572 1572 1572 1572 1572 1572 1572 1572 1572 1572 1572 1572 1572 1572 1572 1572 1572 1579 1579 1579 1572 1572 1572 1572 1572 1572 1572 1572 1572 1572 1572 1572 1572 1572 1572 1572 1572 1572 1572 1572 1572 1572 1572 1579 1439 1439 1439 1445 1445 1445 1439 1439 1439 1439 1439 1439 1439 1439 1439 1439 1439 1586 1579 1579 1572 1572 1572 1572 1572 1564 1564 1564 1564 1564 1564 1564 1572 1572 1572 1572 1572 1572 1572 1572 1572 1572 1572 1572 1572 1579 1579 1572 1572 1572 1579 1579 1579 1579 1579 1579 1586 1586 1586 1586 1586 1586 1579 1579 1579 1579 1579 1579 1579 1579 1579 1586 1586 1586 1586 1586 1586 1586 1586 1586 1586 1586 1586 1586 1586 1586 1586 1586 1586 1586 1586 1586 1586 1586 1586 1586 1586 1586 1586 1586 1586 1586 1586 1586 1586 1594 1586 1586 1586 1586 1433 1427 1427 1427 1427 1427 1427 1427 1421 1421 1421 1421 1421 1415 1415 1410 1410 1410 1410 1404 1404 1579 1579 1579 1579 1579 1579 1579 1579 1579 1579 1579 1579 1579 1579 1579 1579 1579 1579 1579 1579 1579 1579 1579 1579 1579 1579 1579 1579 1579 1579 1579 1579 1579 1579 1579 1579 1572 1572 1579 1579 1579 1579 1579 1579 1579 1579 1579 1579 1579 1579 1579 1579 1579 1579 1579 1579 1579 1579 1579 1579 1579 1579 1579 1579 1579 1579 1579 1579 1579 1579 1579 1579 1579 1579 1579 1579 1579 1579 1579 1586 1586 1586 1586 1586 1586 1594 1594 1594 1594 1594 1594 1594 1601 1601 1601 1609 1609 1609 1609 1609 1616 1616 1616 1616 1624 1624 1624 1624 0 0 0 0 0 0
0 0 0 0 0 0 0 0 0 0 0 0 0 0 0 0 0 0 0 0 0 0 0 0 0 0 0 0 0 0 0 0 0 0 0 1509 1503 1503 1509 1509 1509 1509 1509 1516 1516 1523 1523 1529 1529 1529 1529 1529 1523 1523 1523 1523 1529 1529 1536 1536 1536 1536 1536 1536 1536 1536 1536 1536 1536 1536 1536 1529 1529 1529 1529 1536 1536 1543 1543 1543 1536 1536 1536 1536 1536 1536 1536 1536 1536 1536 1536 1536 1536 1543 1543 1543 1543 1543 1543 1543 1543 1543 1536 1536 1536 1536 1536 1536 1536 1543 1543 1543 1543 1543 1536 1536 1536 1536 1536 1543 1536 1536 1536 1543 1543 1543 1543 1543 1550 1550 1550 1550 1550 1550 1550 1543 1543 1543 1543 1543 1543 1543 1543 1543 1543 1543 1543 1543 1543 1543 1543 1550 1543 1543 1550 1550 1550 1550 1536 1529 1529 1536 1536 1536 1536 1536 1536 1543 1536 1536 1536 1536 1536 1536 1536 1536 1536 1543 1550 1543 1543 1543 1550 1550 1550 1550 1550 1543 1543 1550 1550 1550 1550 1550 1550 1550 1550 1550 1550 1550 1550 1550 1550 1550 1550 1550 1550 1550 1550 1550 1550 1550 1550 1550 1557 1557 1557 1557 1550 1550 1557 1557 1557 1557 1557 1557 1557 1557 1557 1557 1557 1557 1557 1557 1557 1557 1557 1557 1557 1557 1557 1557 1564 1564 1564 1557 1557 1557 1557 1557 1557 1550 1550 1557 1557 1557 1557 1557 1557 1557 1557 1557 1557 1557 1557 1564 1564 1564 1564 1572 1572 1572 1572 1572 1572 1572 1572 1572 1572 1572 1564 1564 1564 1564 1564 1572 1564 1564 1572 1572 1572 1572 1564 1564 1572 1572 1572 1572 1572 1572 1572 1572 1572 1579 1579 1579 1579 1579 1579 1579 1579 1572 1572 1572 1572 1572 1572 1572 1572 1572 1572 1572 1572 1572 1572 1572 1572 1572 1572 1572 1564 1564 1572 1572 1572 1572 1572 1572 1572 1564 1564 1564 1564 1564 1564 1564 1564 1572 1572 1572 1572 1572 1572 1572 1572 1572 1572 1572 1572 1572 1572 1572 1572 1572 1572 1572 1572 1572 1579 1579 1579 1572 1572 1572 1572 1572 1572 1572 1572 1572 1572 1572 1572 1572 1572 1572 1572 1572 1572 1572 1572 1572 1572 1572 1579 1445 1445 1445 1445 1445 1445 1439 1439 1439 1439 1439 1439 1439 1439 1439 1439 1439 1586 1579 1579 1572 1572 1572 1572 1572 1564 1564 1564 1564 1564 1564 1564 1572 1572 1572 1572 1572 1572 1572 1572 1572 1572 1572 1572 1572 1579 1579 1572 1572 1572 1579 1579 1579 1579 1579 1579 1586 1586 1586 1579 1579 1586 1572 1572 1579 1579 1579 1579 1579 1579 1579 1579 1579 1579 1579 1579 1579 1579 1579 1579 1579 1586 1586 1579 1579 1586 1579 1579 1579 1579 1579 1579 1579 1586 1586 1586 1586 1586 1586 1586 1586 1586 1586 1586 1586 1586 1586 1586 1586 1586 1433 1421 1421 1427 1427 1427 1427 1427 1421 1421 1421 1421 1421 1415 1415 1415 1410 1410 1410 1404 1404 1579 1579 1579 1579 1579 1579 1579 1579 1579 1579 1579 1579 1579 1579 1572 1572 1572 1572 1572 1579 1579 1579 1579 1579 1579 1579 1579 1579 1579 1579 1579 1579 1579 1579 1579 1579 1572 1572 1572 1572 1572 1572 1572 1579 1579 1579 1579 1579 1579 1579 1579 1579 1579 1579 1579 1579 1579 1579 1579 1579 1579 1572 1572 1572 1572 1572 1579 1572 1572 1572 1572 1572 1572 1572 1572 1572 1572 1579 1579 1579 1579 1586 1586 1586 1586 1586 1586 1586 1579 1579 1579 1579 1601 1601 1601 1609 1609 1609 1609 1609 1616 1609 1609 1616 1616 1616 1624 1624 0 0 0 0 0 0
0 0 0 0 0 0 0 0 0 0 0 0 0 0 0 0 0 0 0 0 0 0 0 0 0 0 0 0 0 0 0 0 0 0 0 0 0 0 0 0 0 0 0 0 0 0 0 0 0 0 0 0 0 0 0 0 0 0 0 0 0 0 0 0 0 0 0 0 0 0 0 0 0 0 0 0 0 0 0 0 0 0 0 0 0 0 0 0 0 0 0 0 0 0 0 0 0 0 0 0 0 0 0 0 0 0 0 0 0 0 0 0 0 0 0 0 0 0 0 0 0 0 0 0 0 0 0 0 0 0 0 0 0 0 0 0 0 0 0 0 0 0 0 0 0 0 0 0 0 0 0 0 0 0 0 0 0 0 0 0 0 0 0 0 0 0 0 0 0 0 0 0 0 0 0 0 0 0 0 0 0 0 0 0 0 0 0 0 0 0 0 0 0 0 0 0 0 0 0 0 0 0 0 0 0 0 0 0 0 0 0 0 0 0 0 0 0 0 0 0 0 0 0 0 0 0 0 0 0 0 0 0 0 0 0 0 0 0 0 0 0 0 0 0 0 0 0 0 0 0 0 0 0 0 0 0 0 0 0 0 0 0 0 0 0 0 0 0 0 0 0 0 0 0 0 0 0 0 0 0 0 0 0 0 0 0 0 0 0 0 0 0 0 0 0 0 0 0 0 0 0 0 0 0 0 0 0 0 0 0 0 0 0 0 0 0 0 0 0 0 0 0 0 0 0 0 0 0 0 0 0 0 0 0 0 0 0 0 0 0 0 0 0 0 0 0 0 0 0 0 0 0 0 0 0 0 0 0 0 0 0 0 0 0 0 0 0 0 0 0 0 0 0 0 0 0 0 0 0 0 0 0 0 0 0 0 0 0 0 0 0 0 0 0 0 0 0 0 0 0 0 0 0 0 0 0 0 0 0 0 0 0 0 0 0 0 0 0 0 0 0 0 0 0 0 0 0 0 0 0 0 0 0 0 0 0 0 0 0 0 0 0 0 0 0 0 0 0 0 0 1586 1586 1586 1586 1579 1579 1586 1572 1572 1579 1579 1579 1579 1579 1579 1579 1579 1579 1579 1579 1579 1579 1579 1579 1579 1579 1586 1586 1579 1579 1586 1579 1579 1579 1579 1579 1579 1579 1586 1586 1586 1586 1586 1586 1586 1586 1586 1586 1586 1586 1586 1586 1586 1586 1586 1433 1421 1421 1427 1427 1427 1427 1427 1421 1421 1421 1421 1421 1421 1415 1415 1410 1410 1410 1404 1404 1579 1579 1579 1579 1579 1579 1579 1579 1579 1579 1579 1579 1579 1579 1572 1572 1572 1572 1572 1579 1579 1579 1579 1579 1579 1579 1579 1579 1579 1579 1579 1579 1579 1579 1579 1579 1572 1572 1572 1572 1572 1572 1572 1579 1579 1579 1579 1579 1579 1579 1579 1579 1579 1579 1579 1579 1579 1579 1579 1579 1579 1572 1572 1572 1572 1572 1579 1572 1572 1572 1572 1572 1572 1572 1572 1572 1572 1579 1579 1579 1579 1586 1586 1586 1586 1586 1586 1586 1579 1579 1579 1579 1586 1601 1601 1601 1601 1601 1601 1601 1609 1601 1601 1609 1609 1609 1616 1616 0 0 0 0 0 0
0 0 0 0 0 0 0 0 0 0 0 0 0 0 0 0 0 0 0 0 0 0 0 0 0 0 0 0 0 0 0 0 0 0 0 0 0 0 0 0 0 0 0 0 0 0 0 0 0 0 0 0 0 0 0 0 0 0 0 0 0 0 0 0 0 0 0 0 0 0 0 0 0 0 0 0 0 0 0 0 0 0 0 0 0 0 0 0 0 0 0 0 0 0 0 0 0 0 0 0 0 0 0 0 0 0 0 0 0 0 0 0 0 0 0 0 0 0 0 0 0 0 0 0 0 0 0 0 0 0 0 0 0 0 0 0 0 0 0 0 0 0 0 0 0 0 0 0 0 0 0 0 0 0 0 0 0 0 0 0 0 0 0 0 0 0 0 0 0 0 0 0 0 0 0 0 0 0 0 0 0 0 0 0 0 0 0 0 0 0 0 0 0 0 0 0 0 0 0 0 0 0 0 0 0 0 0 0 0 0 0 0 0 0 0 0 0 0 0 0 0 0 0 0 0 0 0 0 0 0 0 0 0 0 0 0 0 0 0 0 0 0 0 0 0 0 0 0 0 0 0 0 0 0 0 0 0 0 0 0 0 0 0 0 0 0 0 0 0 0 0 0 0 0 0 0 0 0 0 0 0 0 0 0 0 0 0 0 0 0 0 0 0 0 0 0 0 0 0 0 0 0 0 0 0 0 0 0 0 0 0 0 0 0 0 0 0 0 0 0 0 0 0 0 0 0 0 0 0 0 0 0 0 0 0 0 0 0 0 0 0 0 0 0 0 0 0 0 0 0 0 0 0 0 0 0 0 0 0 0 0 0 0 0 0 0 0 0 0 0 0 0 0 0 0 0 0 0 0 0 0 0 0 0 0 0 0 0 0 0 0 0 0 0 0 0 0 0 0 0 0 0 0 0 0 0 0 0 0 0 0 0 0 0 0 0 0 0 0 0 0 0 0 0 0 0 0 0 0 0 0 0 0 0 0 0 0 0 0 0 0 0 0 0 0 0 0 0 0 0 0 0 0 0 0 0 0 0 0 0 0 0 0 0 0 0 0 0 0 0 0 0 0 0 0 0 0 0 0 0 0 0 0 0 0 0 0 0 0 0 0 0 0 0 0 0 0 0 0 0 0 0 0 0 0 0 0 0 0 0 0 0 0 0 0 0 0 0 0 0 0 0 0 0 0 0 0 0 0 0 0 0 0 0 0 0 0 0 0 0 0 0 0 0 0 0 0 0 0 0 0 0 0 0 0 0 0 0 0 0 0 0 0 0 0 0 0 0 0 0 0 0 0 0 0 0 0 0 0 0 0 0 0 0 0 0 0 0 0 0 0 0 0 0 0 0 0 0 0 0 0 0 0 0 0 0 0 0 0 0 0 0 0 0 0 0 1579 1579 1586 1601 1601 1601 1601 1601 1601 1601 1609 1601 1601 1609 1609 1609 1616 1616 0 0 0 0 0 0
0 0 0 0 0 0 0 0 0 0 0 0 0 0 0 0 0 0 0 0 0 0 0 0 0 0 0 0 0 0 0 0 0 0 0 0 0 0 0 0 0 0 0 0 0 0 0 0 0 0 0 0 0 0 0 0 0 0 0 0 0 0 0 0 0 0 0 0 0 0 0 0 0 0 0 0 0 0 0 0 0 0 0 0 0 0 0 0 0 0 0 0 0 0 0 0 0 0 0 0 0 0 0 0 0 0 0 0 0 0 0 0 0 0 0 0 0 0 0 0 0 0 0 0 0 0 0 0 0 0 0 0 0 0 0 0 0 0 0 0 0 0 0 0 0 0 0 0 0 0 0 0 0 0 0 0 0 0 0 0 0 0 0 0 0 0 0 0 0 0 0 0 0 0 0 0 0 0 0 0 0 0 0 0 0 0 0 0 0 0 0 0 0 0 0 0 0 0 0 0 0 0 0 0 0 0 0 0 0 0 0 0 0 0 0 0 0 0 0 0 0 0 0 0 0 0 0 0 0 0 0 0 0 0 0 0 0 0 0 0 0 0 0 0 0 0 0 0 0 0 0 0 0 0 0 0 0 0 0 0 0 0 0 0 0 0 0 0 0 0 0 0 0 0 0 0 0 0 0 0 0 0 0 0 0 0 0 0 0 0 0 0 0 0 0 0 0 0 0 0 0 0 0 0 0 0 0 0 0 0 0 0 0 0 0 0 0 0 0 0 0 0 0 0 0 0 0 0 0 0 0 0 0 0 0 0 0 0 0 0 0 0 0 0 0 0 0 0 0 0 0 0 0 0 0 0 0 0 0 0 0 0 0 0 0 0 0 0 0 0 0 0 0 0 0 0 0 0 0 0 0 0 0 0 0 0 0 0 0 0 0 0 0 0 0 0 0 0 0 0 0 0 0 0 0 0 0 0 0 0 0 0 0 0 0 0 0 0 0 0 0 0 0 0 0 0 0 0 0 0 0 0 0 0 0 0 0 0 0 0 0 0 0 0 0 0 0 0 0 0 0 0 0 0 0 0 0 0 0 0 0 0 0 0 0 0 0 0 0 0 0 0 0 0 0 0 0 0 0 0 0 0 0 0 0 0 0 0 0 0 0 0 0 0 0 0 0 0 0 0 0 0 0 0 0 0 0 0 0 0 0 0 0 0 0 0 0 0 0 0 0 0 0 0 0 0 0 0 0 0 0 0 0 0 0 0 0 0 0 0 0 0 0 0 0 0 0 0 0 0 0 0 0 0 0 0 0 0 0 0 0 0 0 0 0 0 0 0 0 0 0 0 0 0 0 0 0 0 0 0 0 0 0 0 0 0 0 0 0 0 0 0 0 0 0 0 0 0 0 0 0 0 0 0 0 0 0 0 0 0 0 0 0 0 0 0 0 0 0 0 0 0 0 0 0 0 0 0 0 0 0 0 0 0 0 0 0 0 0 0
0 0 0 0 0 0 0 0 0 0 0 0 0 0 0 0 0 0 0 0 0 0 0 0 0 0 0 0 0 0 0 0 0 0 0 0 0 0 0 0 0 0 0 0 0 0 0 0 0 0 0 0 0 0 0 0 0 0 0 0 0 0 0 0 0 0 0 0 0 0 0 0 0 0 0 0 0 0 0 0 0 0 0 0 0 0 0 0 0 0 0 0 0 0 0 0 0 0 0 0 0 0 0 0 0 0 0 0 0 0 0 0 0 0 0 0 0 0 0 0 0 0 0 0 0 0 0 0 0 0 0 0 0 0 0 0 0 0 0 0 0 0 0 0 0 0 0 0 0 0 0 0 0 0 0 0 0 0 0 0 0 0 0 0 0 0 0 0 0 0 0 0 0 0 0 0 0 0 0 0 0 0 0 0 0 0 0 0 0 0 0 0 0 0 0 0 0 0 0 0 0 0 0 0 0 0 0 0 0 0 0 0 0 0 0 0 0 0 0 0 0 0 0 0 0 0 0 0 0 0 0 0 0 0 0 0 0 0 0 0 0 0 0 0 0 0 0 0 0 0 0 0 0 0 0 0 0 0 0 0 0 0 0 0 0 0 0 0 0 0 0 0 0 0 0 0 0 0 0 0 0 0 0 0 0 0 0 0 0 0 0 0 0 0 0 0 0 0 0 0 0 0 0 0 0 0 0 0 0 0 0 0 0 0 0 0 0 0 0 0 0 0 0 0 0 0 0 0 0 0 0 0 0 0 0 0 0 0 0 0 0 0 0 0 0 0 0 0 0 0 0 0 0 0 0 0 0 0 0 0 0 0 0 0 0 0 0 0 0 0 0 0 0 0 0 0 0 0 0 0 0 0 0 0 0 0 0 0 0 0 0 0 0 0 0 0 0 0 0 0 0 0 0 0 0 0 0 0 0 0 0 0 0 0 0 0 0 0 0 0 0 0 0 0 0 0 0 0 0 0 0 0 0 0 0 0 0 0 0 0 0 0 0 0 0 0 0 0 0 0 0 0 0 0 0 0 0 0 0 0 0 0 0 0 0 0 0 0 0 0 0 0 0 0 0 0 0 0 0 0 0 0 0 0 0 0 0 0 0 0 0 0 0 0 0 0 0 0 0 0 0 0 0 0 0 0 0 0 0 0 0 0 0 0 0 0 0 0 0 0 0 0 0 0 0 0 0 0 0 0 0 0 0 0 0 0 0 0 0 0 0 0 0 0 0 0 0 0 0 0 0 0 0 0 0 0 0 0 0 0 0 0 0 0 0 0 0 0 0 0 0 0 0 0 0 0 0 0 0 0 0 0 0 0 0 0 0 0 0 0 0 0 0 0 0 0 0 0 0 0 0 0 0 0 0 0 0 0 0 0 0 0 0 0 0 0 0 0 0 0 0 0 0 0 0 0 0 0 0 0 0 0 0 0 0 0 0 0 0 0
0 0 0 0 0 0 0 0 0 0 0 0 0 0 0 0 0 0 0 0 0 0 0 0 0 0 0 0 0 0 0 0 0 0 0 0 0 0 0 0 0 0 0 0 0 0 0 0 0 0 0 0 0 0 0 0 0 0 0 0 0 0 0 0 0 0 0 0 0 0 0 0 0 0 0 0 0 0 0 0 0 0 0 0 0 0 0 0 0 0 0 0 0 0 0 0 0 0 0 0 0 0 0 0 0 0 0 0 0 0 0 0 0 0 0 0 0 0 0 0 0 0 0 0 0 0 0 0 0 0 0 0 0 0 0 0 0 0 0 0 0 0 0 0 0 0 0 0 0 0 0 0 0 0 0 0 0 0 0 0 0 0 0 0 0 0 0 0 0 0 0 0 0 0 0 0 0 0 0 0 0 0 0 0 0 0 0 0 0 0 0 0 0 0 0 0 0 0 0 0 0 0 0 0 0 0 0 0 0 0 0 0 0 0 0 0 0 0 0 0 0 0 0 0 0 0 0 0 0 0 0 0 0 0 0 0 0 0 0 0 0 0 0 0 0 0 0 0 0 0 0 0 0 0 0 0 0 0 0 0 0 0 0 0 0 0 0 0 0 0 0 0 0 0 0 0 0 0 0 0 0 0 0 0 0 0 0 0 0 0 0 0 0 0 0 0 0 0 0 0 0 0 0 0 0 0 0 0 0 0 0 0 0 0 0 0 0 0 0 0 0 0 0 0 0 0 0 0 0 0 0 0 0 0 0 0 0 0 0 0 0 0 0 0 0 0 0 0 0 0 0 0 0 0 0 0 0 0 0 0 0 0 0 0 0 0 0 0 0 0 0 0 0 0 0 0 0 0 0 0 0 0 0 0 0 0 0 0 0 0 0 0 0 0 0 0 0 0 0 0 0 0 0 0 0 0 0 0 0 0 0 0 0 0 0 0 0 0 0 0 0 0 0 0 0 0 0 0 0 0 0 0 0 0 0 0 0 0 0 0 0 0 0 0 0 0 0 0 0 0 0 0 0 0 0 0 0 0 0 0 0 0 0 0 0 0 0 0 0 0 0 0 0 0 0 0 0 0 0 0 0 0 0 0 0 0 0 0 0 0 0 0 0 0 0 0 0 0 0 0 0 0 0 0 0 0 0 0 0 0 0 0 0 0 0 0 0 0 0 0 0 0 0 0 0 0 0 0 0 0 0 0 0 0 0 0 0 0 0 0 0 0 0 0 0 0 0 0 0 0 0 0 0 0 0 0 0 0 0 0 0 0 0 0 0 0 0 0 0 0 0 0 0 0 0 0 0 0 0 0 0 0 0 0 0 0 0 0 0 0 0 0 0 0 0 0 0 0 0 0 0 0 0 0 0 0 0 0 0 0 0 0 0 0 0 0 0 0 0 0 0 0 0 0 0 0 0 0 0 0 0 0 0 0 0 0 0 0 0 0
0 0 0 0 0 0 0 0 0 0 0 0 0 0 0 0 0 0 0 0 0 0 0 0 0 0 0 0 0 0 0 0 0 0 0 0 0 0 0 0 0 0 0 0 0 0 0 0 0 0 0 0 0 0 0 0 0 0 0 0 0 0 0 0 0 0 0 0 0 0 0 0 0 0 0 0 0 0 0 0 0 0 0 0 0 0 0 0 0 0 0 0 0 0 0 0 0 0 0 0 0 0 0 0 0 0 0 0 0 0 0 0 0 0 0 0 0 0 0 0 0 0 0 0 0 0 0 0 0 0 0 0 0 0 0 0 0 0 0 0 0 0 0 0 0 0 0 0 0 0 0 0 0 0 0 0 0 0 0 0 0 0 0 0 0 0 0 0 0 0 0 0 0 0 0 0 0 0 0 0 0 0 0 0 0 0 0 0 0 0 0 0 0 0 0 0 0 0 0 0 0 0 0 0 0 0 0 0 0 0 0 0 0 0 0 0 0 0 0 0 0 0 0 0 0 0 0 0 0 0 0 0 0 0 0 0 0 0 0 0 0 0 0 0 0 0 0 0 0 0 0 0 0 0 0 0 0 0 0 0 0 0 0 0 0 0 0 0 0 0 0 0 0 0 0 0 0 0 0 0 0 0 0 0 0 0 0 0 0 0 0 0 0 0 0 0 0 0 0 0 0 0 0 0 0 0 0 0 0 0 0 0 0 0 0 0 0 0 0 0 0 0 0 0 0 0 0 0 0 0 0 0 0 0 0 0 0 0 0 0 0 0 0 0 0 0 0 0 0 0 0 0 0 0 0 0 0 0 0 0 0 0 0 0 0 0 0 0 0 0 0 0 0 0 0 0 0 0 0 0 0 0 0 0 0 0 0 0 0 0 0 0 0 0 0 0 0 0 0 0 0 0 0 0 0 0 0 0 0 0 0 0 0 0 0 0 0 0 0 0 0 0 0 0 0 0 0 0 0 0 0 0 0 0 0 0 0 0 0 0 0 0 0 0 0 0 0 0 0 0 0 0 0 0 0 0 0 0 0 0 0 0 0 0 0 0 0 0 0 0 0 0 0 0 0 0 0 0 0 0 0 0 0 0 0 0 0 0 0 0 0 0 0 0 0 0 0 0 0 0 0 0 0 0 0 0 0 0 0 0 0 0 0 0 0 0 0 0 0 0 0 0 0 0 0 0 0 0 0 0 0 0 0 0 0 0 0 0 0 0 0 0 0 0 0 0 0 0 0 0 0 0 0 0 0 0 0 0 0 0 0 0 0 0 0 0 0 0 0 0 0 0 0 0 0 0 0 0 0 0 0 0 0 0 0 0 0 0 0 0 0 0 0 0 0 0 0 0 0 0 0 0 0 0 0 0 0 0 0 0 0 0 0 0 0 0 0 0 0 0 0 0 0 0 0 0 0 0 0 0 0 0 0 0 0 0 0 0 0 0
0 0 0 0 0 0 0 0 0 0 0 0 0 0 0 0 0 0 0 0 0 0 0 0 0 0 0 0 0 0 0 0 0 0 0 0 0 0 0 0 0 0 0 0 0 0 0 0 0 0 0 0 0 0 0 0 0 0 0 0 0 0 0 0 0 0 0 0 0 0 0 0 0 0 0 0 0 0 0 0 0 0 0 0 0 0 0 0 0 0 0 0 0 0 0 0 0 0 0 0 0 0 0 0 0 0 0 0 0 0 0 0 0 0 0 0 0 0 0 0 0 0 0 0 0 0 0 0 0 0 0 0 0 0 0 0 0 0 0 0 0 0 0 0 0 0 0 0 0 0 0 0 0 0 0 0 0 0 0 0 0 0 0 0 0 0 0 0 0 0 0 0 0 0 0 0 0 0 0 0 0 0 0 0 0 0 0 0 0 0 0 0 0 0 0 0 0 0 0 0 0 0 0 0 0 0 0 0 0 0 0 0 0 0 0 0 0 0 0 0 0 0 0 0 0 0 0 0 0 0 0 0 0 0 0 0 0 0 0 0 0 0 0 0 0 0 0 0 0 0 0 0 0 0 0 0 0 0 0 0 0 0 0 0 0 0 0 0 0 0 0 0 0 0 0 0 0 0 0 0 0 0 0 0 0 0 0 0 0 0 0 0 0 0 0 0 0 0 0 0 0 0 0 0 0 0 0 0 0 0 0 0 0 0 0 0 0 0 0 0 0 0 0 0 0 0 0 0 0 0 0 0 0 0 0 0 0 0 0 0 0 0 0 0 0 0 0 0 0 0 0 0 0 0 0 0 0 0 0 0 0 0 0 0 0 0 0 0 0 0 0 0 0 0 0 0 0 0 0 0 0 0 0 0 0 0 0 0 0 0 0 0 0 0 0 0 0 0 0 0 0 0 0 0 0 0 0 0 0 0 0 0 0 0 0 0 0 0 0 0 0 0 0 0 0 0 0 0 0 0 0 0 0 0 0 0 0 0 0 0 0 0 0 0 0 0 0 0 0 0 0 0 0 0 0 0 0 0 0 0 0 0 0 0 0 0 0 0 0 0 0 0 0 0 0 0 0 0 0 0 0 0 0 0 0 0 0 0 0 0 0 0 0 0 0 0 0 0 0 0 0 0 0 0 0 0 0 0 0 0 0 0 0 0 0 0 0 0 0 0 0 0 0 0 0 0 0 0 0 0 0 0 0 0 0 0 0 0 0 0 0 0 0 0 0 0 0 0 0 0 0 0 0 0 0 0 0 0 0 0 0 0 0 0 0 0 0 0 0 0 0 0 0 0 0 0 0 0 0 0 0 0 0 0 0 0 0 0 0 0 0 0 0 0 0 0 0 0 0 0 0 0 0 0 0 0 0 0 0 0 0 0 0 0 0 0 0 0 0 0 0 0 0 0 0 0 0 0 0 0 0 0 0 0 0 0 0 0 0 0
0 0 0 0 0 0 0 0 0 0 0 0 0 0 0 0 0 0 0 0 0 0 0 0 0 0 0 0 0 0 0 0 0 0 0 0 0 0 0 0 0 0 0 0 0 0 0 0 0 0 0 0 0 0 0 0 0 0 0 0 0 0 0 0 0 0 0 0 0 0 0 0 0 0 0 0 0 0 0 0 0 0 0 0 0 0 0 0 0 0 0 0 0 0 0 0 0 0 0 0 0 0 0 0 0 0 0 0 0 0 0 0 0 0 0 0 0 0 0 0 0 0 0 0 0 0 0 0 0 0 0 0 0 0 0 0 0 0 0 0 0 0 0 0 0 0 0 0 0 0 0 0 0 0 0 0 0 0 0 0 0 0 0 0 0 0 0 0 0 0 0 0 0 0 0 0 0 0 0 0 0 0 0 0 0 0 0 0 0 0 0 0 0 0 0 0 0 0 0 0 0 0 0 0 0 0 0 0 0 0 0 0 0 0 0 0 0 0 0 0 0 0 0 0 0 0 0 0 0 0 0 0 0 0 0 0 0 0 0 0 0 0 0 0 0 0 0 0 0 0 0 0 0 0 0 0 0 0 0 0 0 0 0 0 0 0 0 0 0 0 0 0 0 0 0 0 0 0 0 0 0 0 0 0 0 0 0 0 0 0 0 0 0 0 0 0 0 0 0 0 0 0 0 0 0 0 0 0 0 0 0 0 0 0 0 0 0 0 0 0 0 0 0 0 0 0 0 0 0 0 0 0 0 0 0 0 0 0 0 0 0 0 0 0 0 0 0 0 0 0 0 0 0 0 0 0 0 0 0 0 0 0 0 0 0 0 0 0 0 0 0 0 0 0 0 0 0 0 0 0 0 0 0 0 0 0 0 0 0 0 0 0 0 0 0 0 0 0 0 0 0 0 0 0 0 0 0 0 0 0 0 0 0 0 0 0 0 0 0 0 0 0 0 0 0 0 0 0 0 0 0 0 0 0 0 0 0 0 0 0 0 0 0 0 0 0 0 0 0 0 0 0 0 0 0 0 0 0 0 0 0 0 0 0 0 0 0 0 0 0 0 0 0 0 0 0 0 0 0 0 0 0 0 0 0 0 0 0 0 0 0 0 0 0 0 0 0 0 0 0 0 0 0 0 0 0 0 0 0 0 0 0 0 0 0 0 0 0 0 0 0 0 0 0 0 0 0 0 0 0 0 0 0 0 0 0 0 0 0 0 0 0 0 0 0 0 0 0 0 0 0 0 0 0 0 0 0 0 0 0 0 0 0 0 0 0 0 0 0 0 0 0 0 0 0 0 0 0 0 0 0 0 0 0 0 0 0 0 0 0 0 0 0 0 0 0 0 0 0 0 0 0 0 0 0 0 0 0 0 0 0 0 0 0 0 0 0 0 0 0 0 0 0 0 0 0 0 0 0 0 0 0 0 0 0 0 0 0 0 0
