0 0 0 0 0 0 0 0 0 0 0 0 0 0 0 0 0 0 0 0 0 0 0 0 0 0 0 0 0 0 0 3614 3614 3614 3614 3614 3614 3614 3614 3614 3614 3614 3614 3576 3576 3576 3576 3614 3614 3614 3614 3614 3614 3614 3614 3614 3614 3614 3614 3614 3614 3653 3653 3614 3614 3614 3614 0 0 0 0 0 0 0 1292 1292 1292 1292 1297 1297 1297 1297 1297 1302 1302 1302 1302 1302 1307 1307 1307 1307 1307 1317 1322 1322 1557 1557 1557 1557 1273 1273 1273 1273 1564 1557 1557 1564 1564 1564 1564 1557 1557 1557 1550 1550 1550 1550 1557 1557 1557 1557 1557 1557 1564 1564 1564 1564 1564 1564 1572 1572 1572 1572 1572 1572 1572 1572 1572 1572 1572 1564 1564 1564 1557 1557 1557 1557 1564 1557 1557 1288 1283 1283 1283 1278 1278 1283 1572 1564 1564 1564 1564 1564 1564 1273 1273 1278 1278 1278 1278 1278 1278 1564 1564 1564 1564 1564 1564 1564 1572 1572 1564 1564 1572 1572 1572 1572 1572 1572 1572 1572 1572 1273 1273 1273 1273 1273 1273 1273 1273 1273 1273 1273 1273 1278 1278 1278 1278 1283 1292 1297 1601 1586 1586 1579 1579 1579 1579 1579 1579 1579 1586 1586 1579 1579 1579 1579 1579 1579 1579 1579 1579 1586 1586 1586 1586 1586 1579 1579 1586 1586 1579 1572 1572 1572 1572 1572 1572 1572 1572 1579 1579 1579 1579 1579 1586 1586 1586 1193 1193 1193 1193 1193 1193 1193 1193 1189 1189 1189 1189 1189 1189 1189 1189 1189 1193 1197 1193 1193 1193 1193 1189 1189 1185 1185 1185 1185 1185 1185 1185 1185 1185 1185 1185 1185 1185 1185 1185 1185 1185 1181 1181 1181 1181 1181 1181 1181 1181 1181 1181 1181 1177 1177 1177 1177 1177 1177 1177 1177 1177 1177 1177 1177 1177 1173 1173 1173 1173 1173 1173 1173 1173 1173 1169 1169 1165 1165 1165 1165 1165 1165 1165 1165 1165 1165 1165 1165 1165 1165 1165 1165 1165 1165 1165 1165 1165 1165 1165 1165 1165 1165 1165 1165 1165 1165 1165 1165 1165 1165 1165 1165 1165 1165 1165 1165 1165 1165 1165 1165 1165 1165 1165 1165 1165 1165 1165 1165 1165 1165 1165 1165 1165 1165 1161 1161 1161 1161 1161 1161 1157 1157 1157 1157 1157 1157 1157 1157 1157 1157 1157 1157 1157 1157 1157 1594 1594 1594 1594 1594 1594 1594 1594 1601 1601 1601 1601 1601 1601 1601 1601 1609 1601 1601 1601 1601 1601 1601 1601 1594 1594 1594 1594 1601 1601 1594 1594 1594 1609 1609 1609 1616 1616 1616 1616 1616 1609 1609 1601 1594 1586 1579 1572 1572 1572 1572 1572 1572 1572 1579 1586 1586 1594 1594 1594 1586 1586 1586 1586 1586 1586 1594 1601 1601 1609 1609 1609 1609 1609 1609 1609 1601 1601 1594 1594 1594 0 1572 0 0 0 3903 3859 3859 3859 3903 3903 3903 3948 3948 3948 3948 0 0 0 0 0 0 0 0 3948 3948 3948 3948 3948 3903 3903 3903 3903 3903 3859 3859 3859 0 0 0 0 0 0 0 0 0 0 0 0 0 0 0 0 0 3774 3774 3774 3774 3774 3774 3774 3774 3774 0 0 0 0 0 0 0 0 0 0 0 0 0 0 0 0 0 0 0 3333 3333 3300 3300 3333 3333 3333 3333 3300 3269 3269 3269 3269 3238 3208 3208 3208 3149 3178 3178 3178 3178 3238 3238 3208 3208 3178 3178 3178 3178 3178 3178 3178 3178 3178 3120 3120 3092 2933 2933 2883 2859 2859 2835 2835 2812 2812 2789 2744 2723 2723 2723 0 0 0 0 0 0 0 0 0 0
0 0 0 0 0 0 0 0 0 0 0 0 0 0 0 0 0 0 0 0 0 0 0 0 0 0 0 0 0 0 0 3614 3614 3576 3576 3614 3614 3576 3576 3576 3576 3576 3576 3576 3576 3576 3576 3576 3576 3576 3576 3576 3576 3576 3576 3576 3576 3576 3576 3576 3576 3614 3614 3614 3576 3576 3614 3614 0 0 0 0 0 0 1292 1292 1292 1292 1297 1297 1297 1297 1297 1302 1302 1302 1302 1302 1307 1307 1307 1312 1312 1317 1317 1317 1543 1543 1543 1543 1543 1543 1550 1543 1543 1543 1550 1550 1557 1557 1557 1550 1550 1557 1550 1550 1550 1550 1550 1557 1557 1557 1557 1557 1564 1564 1564 1564 1564 1564 1564 1564 1564 1564 1564 1564 1564 1564 1564 1564 1557 1557 1557 1557 1557 1557 1557 1557 1557 1557 1557 1557 1557 1564 1564 1564 1564 1564 1564 1557 1557 1557 1557 1557 1557 1557 1557 1557 1557 1557 1557 1557 1557 1557 1557 1557 1564 1564 1564 1564 1564 1564 1564 1564 1564 1564 1564 1564 1564 1564 1564 1572 1572 1273 1273 1273 1273 1273 1273 1273 1273 1273 1273 1273 1278 1278 1278 1278 1278 1283 1292 1594 1594 1586 1579 1572 1572 1572 1572 1579 1579 1572 1572 1572 1572 1572 1564 1564 1564 1572 1572 1572 1572 1572 1572 1572 1572 1572 1572 1572 1579 1579 1572 1564 1564 1564 1564 1564 1564 1564 1564 1564 1572 1572 1572 1572 1579 1579 1579 1197 1197 1193 1193 1193 1193 1193 1193 1193 1193 1189 1189 1189 1189 1189 1189 1193 1197 1197 1197 1197 1197 1193 1193 1189 1189 1189 1189 1189 1185 1185 1185 1185 1185 1185 1185 1185 1185 1185 1185 1185 1185 1185 1181 1181 1181 1181 1181 1181 1181 1181 1181 1181 1181 1181 1177 1177 1177 1177 1177 1177 1177 1177 1177 1177 1177 1177 1177 1177 1177 1177 1177 1177 1177 1177 1169 1169 1169 1169 1169 1165 1165 1165 1165 1165 1165 1165 1165 1165 1165 1165 1165 1165 1165 1165 1169 1165 1165 1165 1165 1165 1165 1165 1165 1165 1165 1165 1165 1165 1165 1165 1169 1169 1169 1169 1165 1165 1169 1165 1165 1165 1165 1165 1165 1165 1165 1169 1169 1169 1169 1169 1169 1165 1165 1165 1165 1165 1165 1165 1165 1161 1161 1161 1161 1161 1161 1161 1157 1157 1157 1161 1161 1161 1165 1165 1165 1586 1586 1579 1579 1579 1586 1586 1586 1594 1594 1594 1594 1594 1594 1594 1594 1594 1594 1594 1594 1594 1594 1594 1586 1586 1586 1586 1586 1586 1586 1586 1586 1586 1594 1601 1601 1601 1601 1601 1594 1594 1586 1586 1586 1572 1572 1564 1564 1564 1564 1564 1564 1564 1564 1564 1572 1572 1564 1564 1564 1564 1564 1572 1572 1564 1564 1572 1586 1594 1594 1601 1594 1594 1601 1594 1594 1594 1586 1586 1586 1579 1572 1572 0 0 0 0 3859 3859 3859 3859 3903 3903 3903 3948 3948 3948 0 0 0 0 0 0 0 0 3948 3948 3903 3903 3903 3903 3903 3903 3859 3859 3859 3859 3859 3859 3859 0 0 0 0 0 0 0 0 0 0 0 0 0 0 0 3774 3774 3774 3774 3774 3774 3774 3816 3859 3859 3859 3859 0 0 0 0 0 0 0 0 0 0 0 0 0 0 0 3300 3300 3300 3300 3300 3300 3300 3333 3300 3300 3269 3269 3269 3269 3238 3178 3149 3149 3149 3149 3149 3149 3178 3208 3208 3208 3208 3178 3178 3178 3178 3149 3149 3178 3149 3149 3120 3092 2933 2908 2908 2883 2859 2859 2835 2835 2812 2812 2789 2744 2723 2723 2723 0 0 0 0 0 0 0 0 0 0
0 0 0 0 0 0 0 0 0 0 0 0 0 0 0 0 0 0 0 0 0 0 0 0 0 0 0 0 0 0 0 3576 3576 3576 3576 3576 3576 3539 3539 3539 3539 3576 3539 3539 3539 3539 3539 3539 3539 3539 3539 3539 3539 3539 3576 3576 3576 3576 3576 3576 3576 3576 3614 3576 3576 3576 3576 3614 0 0 0 0 0 0 1297 1292 1292 1292 1297 1297 1297 1297 1302 1302 1302 1302 1302 1302 1307 1312 1312 1312 1312 1317 1317 1317 1543 1536 1536 1536 1536 1536 1536 1536 1536 1536 1536 1536 1543 1543 1543 1543 1543 1543 1543 1543 1543 1543 1543 1543 1543 1550 1557 1557 1557 1557 1564 1564 1564 1564 1564 1564 1557 1557 1557 1550 1550 1550 1550 1550 1550 1550 1550 1550 1550 1550 1550 1550 1550 1550 1550 1557 1557 1557 1557 1557 1550 1550 1550 1550 1550 1550 1550 1550 1550 1550 1550 1550 1550 1557 1557 1557 1557 1557 1557 1557 1557 1557 1557 1557 1557 1557 1557 1557 1557 1557 1557 1564 1564 1564 1564 1572 1572 1273 1273 1273 1273 1273 1273 1273 1273 1273 1273 1273 1278 1278 1278 1283 1283 1283 1292 1594 1594 1579 1572 1564 1564 1564 1564 1572 1564 1564 1557 1557 1557 1557 1557 1557 1557 1564 1572 1564 1564 1564 1564 1564 1564 1564 1564 1564 1564 1572 1572 1557 1557 1557 1557 1557 1557 1557 1557 1557 1557 1557 1557 1564 1572 1579 1579 1193 1193 1193 1193 1193 1193 1193 1193 1193 1193 1189 1189 1189 1189 1189 1193 1193 1197 1197 1197 1197 1197 1197 1193 1193 1189 1189 1189 1189 1189 1189 1189 1189 1189 1189 1185 1185 1185 1185 1185 1185 1185 1185 1185 1181 1181 1185 1181 1181 1181 1181 1181 1181 1181 1181 1181 1181 1181 1181 1181 1181 1181 1181 1177 1177 1177 1177 1177 1177 1177 1177 1177 1177 1177 1177 1169 1169 1169 1169 1169 1169 1169 1169 1169 1169 1169 1165 1165 1165 1165 1165 1169 1165 1165 1169 1169 1169 1169 1169 1169 1169 1169 1165 1165 1165 1165 1165 1169 1169 1169 1169 1169 1169 1169 1169 1169 1169 1169 1169 1169 1169 1169 1169 1169 1169 1169 1169 1169 1169 1169 1169 1169 1169 1165 1165 1165 1165 1165 1165 1161 1161 1161 1161 1161 1161 1161 1161 1161 1161 1161 1161 1161 1165 1165 1165 1165 1564 1564 1564 1564 1564 1572 1579 1579 1586 1586 1586 1579 1579 1579 1579 1586 1586 1586 1586 1586 1586 1586 1586 1586 1579 1579 1572 1572 1572 1579 1579 1579 1579 1586 1586 1586 1586 1586 1586 1586 1586 1579 1579 1572 1564 1564 1557 1557 1557 1557 1557 1557 1557 1557 1564 1564 1564 1564 1550 1550 1550 1557 1557 1564 1564 1564 1564 1579 1579 1579 1586 1586 1586 1586 1579 1579 1572 1564 1564 1564 1564 1564 1564 0 0 0 0 0 3859 3859 3859 3859 3903 3903 3948 3948 3948 0 0 0 0 0 0 0 3903 3903 3903 3903 3903 3903 3903 3903 3859 3859 3859 3859 3859 3859 3859 3859 3859 3859 0 0 0 0 0 0 0 0 0 0 0 0 0 0 3774 3774 3774 3774 3774 3774 3816 3859 3859 3859 3859 3903 0 0 0 0 0 0 0 0 0 0 0 0 3269 3269 3269 3269 3269 3269 3269 3300 3300 3300 3300 3300 3269 3269 3269 3238 3208 3178 3149 3120 3120 3120 3120 3120 3149 3178 3208 3178 3178 3178 3178 3178 3178 3149 3149 3178 3149 3149 3120 3092 2933 2908 2908 2883 2859 2835 2835 2835 2835 2835 2812 2789 2744 2723 2723 0 0 0 0 0 0 0 0 0 0
0 0 0 0 0 0 0 0 0 0 0 0 0 0 0 0 0 0 0 0 0 0 0 0 0 0 0 0 0 0 0 3539 3539 3539 3539 3576 3576 3539 3539 3539 3539 3539 3539 3539 3539 3539 3539 3539 3539 3539 3539 3539 3539 3539 3539 3539 3539 3539 3539 3539 3539 3576 3576 3576 3576 3576 3576 3576 3576 0 0 0 0 0 1297 1297 1297 1297 1297 1297 1297 1302 1302 1302 1302 1302 1302 1302 1307 1312 1312 1312 1312 1317 1317 1317 1516 1516 1516 1516 1516 1516 1516 1523 1523 1523 1523 1529 1529 1529 1523 1516 1516 1516 1529 1529 1529 1529 1536 1536 1536 1543 1550 1550 1550 1550 1557 1557 1557 1557 1557 1550 1550 1543 1543 1543 1543 1543 1543 1543 1543 1543 1543 1543 1543 1543 1543 1550 1550 1550 1550 1550 1550 1550 1550 1543 1536 1536 1536 1536 1543 1536 1536 1543 1543 1543 1543 1536 1536 1543 1543 1543 1550 1550 1550 1550 1550 1550 1550 1550 1550 1550 1550 1550 1557 1557 1557 1557 1557 1557 1557 1557 1278 1273 1273 1273 1273 1273 1278 1278 1278 1273 1273 1273 1278 1278 1278 1283 1283 1292 1292 1297 1594 1278 1278 1543 1550 1550 1550 1550 1550 1550 1550 1550 1543 1543 1550 1550 1550 1557 1557 1557 1557 1557 1557 1557 1550 1550 1550 1550 1550 1550 1550 1550 1550 1550 1550 1550 1550 1550 1543 1543 1543 1550 1550 1550 1557 1557 1557 1193 1193 1193 1193 1193 1193 1193 1193 1193 1193 1193 1193 1193 1193 1193 1193 1193 1197 1197 1197 1197 1197 1197 1197 1193 1193 1193 1193 1193 1189 1189 1189 1189 1189 1189 1185 1185 1185 1185 1185 1185 1185 1185 1185 1185 1185 1185 1185 1185 1185 1181 1181 1181 1181 1181 1181 1181 1181 1181 1181 1181 1181 1181 1181 1181 1181 1177 1177 1177 1177 1177 1181 1181 1181 1181 1173 1173 1173 1173 1173 1169 1169 1169 1173 1169 1169 1169 1169 1169 1169 1169 1169 1169 1169 1169 1169 1169 1169 1169 1169 1169 1169 1169 1169 1169 1169 1169 1169 1169 1169 1173 1173 1173 1173 1169 1169 1169 1169 1169 1169 1169 1169 1169 1173 1169 1169 1169 1169 1173 1173 1169 1169 1169 1169 1169 1169 1165 1165 1165 1161 1161 1161 1161 1161 1161 1161 1161 1161 1161 1161 1161 1161 1165 1165 1165 1165 1557 1557 1557 1557 1557 1564 1572 1572 1579 1579 1579 1572 1572 1572 1572 1572 1572 1572 1579 1579 1579 1572 1572 1572 1572 1572 1564 1564 1564 1564 1564 1564 1564 1572 1579 1579 1579 1572 1572 1572 1572 1572 1564 1564 1557 1557 1557 1557 1557 1557 1557 1557 1557 1557 1557 1557 1550 1550 1550 1543 1543 1543 1550 1557 1557 1557 1557 1564 1572 1572 1579 1579 1572 1572 1572 1564 1564 1564 1564 1564 1564 1564 1564 1564 0 0 0 0 0 3859 3859 3859 3903 3903 3948 3948 3994 0 0 0 0 3903 3903 3903 3903 3903 3903 3903 3903 3903 3859 3859 3859 3859 3859 3859 3859 3859 3859 3859 3859 3859 3903 0 0 0 0 0 0 0 0 0 0 0 3859 3816 3774 3774 3774 3774 3816 3816 3816 3859 3859 3859 3859 3903 3903 3903 0 0 0 0 0 3300 3300 3300 3269 3269 3269 3269 3269 3269 3269 3269 3269 3269 3300 3269 3269 3269 3238 3238 3238 3238 3208 3178 3149 3120 3120 3120 3120 3120 3149 3178 3208 3178 3178 3178 3178 3178 3178 3149 3149 3178 3149 3149 3120 3092 2933 2908 2908 2859 2859 2835 2835 2835 2835 2835 2835 2835 2789 2767 2767 0 0 0 0 0 0 0 0 0 0
0 0 0 0 0 0 0 0 0 0 0 0 0 0 0 0 0 0 0 0 0 0 0 0 0 0 0 0 0 0 0 3503 3503 3539 3539 3539 3539 3503 3503 3539 3539 3539 3539 3539 3539 3539 3503 3503 3503 3503 3539 3539 3539 3539 3539 3539 3539 3539 3539 3539 3539 3539 3576 3539 3539 3539 3539 3539 3539 0 0 0 0 0 0 1297 1297 1297 1297 1302 1302 1302 1302 1302 1302 1307 1307 1307 1312 1312 1312 1317 1317 1322 1322 1322 1338 1338 1338 1338 1516 1516 1516 1516 1523 1523 1523 1523 1523 1523 1516 1516 1516 1516 1516 1516 1516 1516 1523 1523 1523 1523 1529 1529 1529 1529 1529 1536 1536 1523 1523 1523 1523 1523 1536 1536 1536 1536 1536 1536 1536 1536 1536 1543 1543 1536 1536 1543 1543 1543 1543 1543 1543 1543 1543 1543 1536 1536 1536 1536 1536 1536 1536 1536 1536 1536 1536 1536 1536 1536 1536 1536 1543 1543 1550 1550 1543 1543 1543 1543 1543 1543 1543 1543 1550 1550 1550 1550 1550 1543 1543 1543 1278 1273 1273 1278 1278 1278 1278 1278 1278 1278 1278 1278 1278 1278 1278 1283 1283 1283 1292 1297 1302 1278 1278 1529 1536 1536 1536 1536 1536 1536 1536 1536 1536 1536 1536 1543 1543 1543 1543 1543 1550 1550 1543 1543 1543 1543 1543 1543 1536 1536 1543 1543 1543 1543 1543 1543 1543 1543 1536 1536 1536 1536 1536 1536 1543 1543 1543 1197 1197 1197 1193 1193 1193 1197 1197 1193 1193 1193 1193 1193 1193 1193 1193 1193 1197 1197 1197 1197 1197 1197 1197 1197 1193 1193 1193 1193 1193 1193 1193 1193 1193 1193 1189 1189 1185 1185 1185 1185 1185 1185 1185 1185 1185 1185 1185 1185 1185 1185 1185 1185 1185 1181 1181 1181 1181 1181 1181 1181 1181 1181 1181 1181 1181 1181 1177 1177 1177 1177 1181 1181 1181 1181 1173 1173 1173 1173 1173 1173 1173 1173 1173 1173 1173 1173 1169 1169 1173 1173 1173 1173 1173 1173 1173 1173 1173 1173 1173 1173 1173 1173 1173 1169 1169 1173 1173 1173 1173 1173 1173 1173 1173 1173 1169 1169 1169 1173 1173 1169 1169 1173 1173 1169 1169 1169 1169 1173 1173 1173 1173 1173 1169 1169 1169 1169 1169 1165 1165 1165 1161 1161 1161 1161 1161 1161 1161 1161 1161 1161 1161 1165 1165 1165 1165 1543 1543 1550 1550 1550 1557 1564 1564 1564 1564 1564 1564 1564 1564 1564 1564 1564 1564 1564 1564 1572 1564 1564 1564 1564 1564 1564 1557 1557 1557 1557 1557 1557 1557 1557 1564 1564 1564 1564 1564 1564 1564 1564 1557 1557 1557 1557 1550 1550 1543 1543 1543 1543 1550 1543 1543 1543 1543 1543 1543 1543 1543 1543 1550 1557 1557 1557 1557 1564 1564 1564 1564 1564 1564 1564 1564 1564 1564 1557 1557 1557 1557 1557 1557 0 0 0 0 0 0 0 0 0 0 0 0 0 0 0 0 0 3903 3903 3903 3859 3859 3903 3859 3859 3859 3859 3859 3859 3859 3859 3859 3859 3859 3859 3859 3859 3859 3903 0 0 0 0 0 0 0 0 0 0 0 3816 3816 3774 3774 3774 3774 3816 3816 3816 3859 3859 3859 3859 3859 3859 3903 0 0 3333 3300 3300 3300 3300 3300 3269 3269 3269 3269 3269 3269 3269 3269 3269 3269 3269 3269 3269 3269 3238 3238 3238 3238 3208 3178 3149 3120 3120 3120 3120 3149 3149 3178 3208 3178 3178 3178 3178 3178 3178 3178 3178 3178 3149 3149 3120 3092 2908 2908 2883 2859 2859 2859 2859 2859 2859 2859 2859 2859 2933 2933 0 0 0 0 0 0 0 0 0 0 0
0 0 0 0 0 0 0 0 0 0 0 0 0 0 0 0 0 0 0 0 0 0 0 0 0 0 0 0 0 0 0 3503 3503 3503 3503 3503 3539 3503 3503 3539 3539 3539 3503 3503 3503 3503 3503 3503 3503 3503 3503 3503 3503 3503 3503 3503 3503 3503 3503 3503 3503 3503 3539 3539 3503 3503 3503 3503 3503 3503 0 0 0 0 0 1302 1302 1302 1302 1302 1302 1302 1302 1302 1307 1307 1307 1307 1312 1312 1317 1317 1322 1322 1328 1328 1338 1338 1338 1338 1509 1509 1509 1516 1516 1523 1523 1523 1523 1523 1516 1516 1509 1509 1509 1509 1509 1516 1516 1516 1516 1516 1516 1516 1516 1516 1516 1516 1516 1516 1516 1516 1516 1516 1523 1529 1529 1529 1529 1529 1529 1529 1529 1529 1529 1529 1529 1529 1529 1529 1529 1529 1529 1536 1543 1536 1529 1529 1529 1529 1529 1529 1529 1529 1529 1529 1529 1529 1529 1529 1529 1529 1529 1536 1536 1536 1536 1529 1529 1529 1529 1536 1536 1536 1543 1543 1543 1543 1536 1529 1529 1529 1278 1278 1278 1278 1278 1278 1278 1278 1278 1278 1278 1278 1278 1278 1283 1283 1283 1283 1288 1297 1302 1283 1283 1523 1523 1529 1529 1529 1529 1529 1536 1529 1529 1529 1536 1536 1536 1536 1536 1536 1536 1536 1536 1536 1536 1536 1536 1543 1536 1536 1536 1543 1543 1543 1543 1543 1543 1536 1529 1529 1529 1529 1529 1529 1529 1529 1529 1529 1197 1197 1197 1197 1197 1197 1197 1197 1197 1193 1193 1193 1193 1193 1193 1193 1197 1197 1197 1197 1202 1197 1197 1197 1197 1197 1197 1197 1193 1193 1193 1193 1193 1193 1189 1189 1185 1185 1185 1185 1185 1185 1185 1185 1185 1185 1185 1185 1185 1185 1185 1185 1185 1185 1181 1181 1181 1181 1181 1181 1181 1181 1181 1181 1181 1181 1181 1181 1181 1181 1181 1181 1181 1181 1177 1177 1177 1177 1177 1173 1173 1173 1173 1173 1173 1173 1173 1173 1173 1173 1173 1173 1173 1173 1173 1173 1173 1173 1173 1173 1173 1173 1173 1173 1173 1173 1173 1173 1173 1173 1173 1173 1173 1173 1173 1173 1173 1173 1173 1173 1173 1173 1173 1173 1173 1173 1173 1173 1173 1173 1173 1173 1173 1173 1173 1169 1169 1165 1165 1165 1161 1161 1161 1161 1161 1161 1161 1161 1161 1161 1165 1165 1165 1165 1169 1181 1185 1543 1543 1543 1550 1550 1550 1557 1557 1557 1557 1557 1557 1557 1557 1557 1557 1557 1557 1557 1557 1557 1557 1557 1557 1557 1557 1550 1550 1550 1550 1550 1550 1550 1550 1557 1557 1557 1557 1557 1557 1557 1550 1550 1550 1550 1543 1543 1536 1536 1536 1536 1536 1536 1536 1536 1536 1543 1536 1536 1536 1536 1543 1543 1543 1543 1543 1550 1550 1550 1550 1550 1550 1550 1550 1550 1550 1557 1557 1557 1557 1557 1557 1557 0 0 0 0 0 0 0 0 0 0 0 0 0 0 0 3903 3903 3859 3859 3816 3816 3859 3859 3859 3859 3859 3859 3859 3859 3816 3816 3816 3859 3859 3859 3859 3859 3903 0 0 0 0 0 0 0 0 0 0 0 3816 3816 3774 3774 3774 3774 3816 3816 3816 3859 3859 3859 3859 3859 3859 3903 3903 3300 3300 3300 3300 3300 3300 3300 3269 3269 3269 3269 3269 3269 3269 3269 3269 3269 3269 3269 3269 3269 3238 3238 3238 3238 3178 3178 3149 3149 3120 3120 3120 3120 3149 3178 3208 3208 3208 3178 3178 3178 3178 3178 3178 3178 3149 3149 3120 2933 2908 2883 2883 2859 2859 2859 2859 2859 2859 2859 2883 2908 3010 3010 0 0 0 0 0 0 0 0 0 0 0
0 0 0 0 0 0 0 0 0 0 0 0 0 0 0 0 0 0 0 0 0 0 0 0 0 0 0 0 0 0 0 3468 3468 3468 3503 3503 3503 3503 3503 3503 3539 3539 3503 3503 3503 3503 3503 3468 3468 3468 3503 3503 3503 3503 3503 3503 3503 3503 3503 3503 3503 3503 3503 3503 3503 3468 3468 3503 3503 3503 0 0 0 0 0 0 1302 1302 1302 1307 1307 1307 1302 1302 1307 1307 1307 1307 1312 1312 1317 1317 1322 1322 1328 1333 1338 1338 1338 1338 1509 1509 1509 1509 1516 1516 1516 1516 1516 1516 1509 1509 1509 1509 1503 1503 1503 1509 1509 1509 1509 1509 1509 1509 1509 1509 1509 1509 1509 1509 1509 1509 1509 1509 1516 1523 1523 1523 1523 1523 1529 1529 1523 1523 1523 1523 1523 1523 1523 1523 1523 1529 1529 1529 1529 1529 1523 1523 1523 1523 1523 1523 1523 1523 1516 1516 1516 1516 1516 1516 1516 1516 1516 1516 1509 1509 1516 1523 1523 1523 1523 1523 1523 1529 1529 1536 1529 1529 1523 1516 1516 1516 1278 1278 1278 1278 1278 1278 1278 1283 1283 1278 1278 1278 1278 1283 1283 1283 1283 1283 1288 1292 1292 1283 1283 1516 1516 1523 1523 1523 1523 1523 1529 1529 1529 1529 1529 1529 1529 1523 1523 1523 1523 1529 1529 1529 1529 1529 1529 1529 1523 1523 1523 1529 1529 1529 1529 1529 1529 1523 1523 1523 1523 1523 1523 1516 1516 1523 1523 1523 1197 1197 1197 1197 1197 1197 1197 1197 1197 1197 1197 1193 1193 1193 1197 1197 1197 1202 1202 1202 1202 1202 1202 1197 1197 1197 1197 1197 1197 1197 1197 1193 1193 1193 1193 1193 1189 1185 1185 1185 1185 1185 1185 1185 1185 1185 1185 1185 1185 1185 1185 1185 1185 1185 1181 1181 1181 1181 1181 1181 1181 1181 1181 1181 1181 1181 1181 1181 1181 1181 1181 1181 1181 1181 1177 1177 1177 1177 1177 1177 1177 1177 1173 1173 1173 1173 1173 1173 1173 1173 1173 1173 1173 1173 1177 1173 1173 1173 1173 1173 1173 1173 1173 1173 1173 1173 1177 1177 1177 1177 1177 1177 1177 1173 1173 1173 1177 1177 1173 1173 1177 1177 1173 1173 1173 1173 1173 1177 1177 1177 1177 1177 1177 1177 1173 1173 1173 1169 1165 1165 1165 1165 1165 1165 1165 1161 1161 1161 1161 1165 1165 1165 1165 1165 1169 1181 1181 1543 1536 1536 1543 1543 1543 1543 1550 1550 1550 1550 1550 1550 1550 1543 1543 1543 1550 1550 1550 1550 1550 1550 1550 1550 1550 1550 1543 1543 1543 1543 1543 1543 1543 1543 1550 1550 1550 1550 1550 1543 1543 1543 1543 1543 1536 1536 1529 1529 1529 1529 1529 1529 1529 1536 1536 1536 1536 1536 1536 1536 1536 1536 1536 1536 1536 1536 1536 1536 1536 1536 1536 1536 1536 1543 1543 1543 1550 1550 1550 1550 1550 1550 0 0 0 0 0 0 0 0 0 0 0 0 0 0 0 3859 3859 3816 3774 3774 3774 3774 3774 3774 3816 3816 3816 3816 3816 3816 3816 3816 3816 3816 3816 3816 3816 0 0 0 0 0 0 0 0 0 0 3859 3859 3816 3816 3816 3816 3816 3816 3816 3816 3816 3859 3859 3859 3859 3859 3816 3816 3816 3300 3300 3300 3300 3300 3300 3269 3269 3269 3269 3269 3269 3269 3269 3269 3269 3269 3269 3269 3269 3269 3238 3238 3238 3238 3178 3178 3149 3149 3120 3120 3120 3120 3149 3178 3208 3208 3208 3208 3208 3178 3178 3178 3178 3178 3149 3149 3120 2933 2908 2883 2883 2859 2859 2859 2859 2859 2859 2859 2883 2908 3010 3010 0 0 0 0 0 0 0 0 0 0 0
0 0 0 0 0 0 0 0 0 0 0 0 0 0 0 0 0 0 0 0 0 0 0 0 0 0 0 0 0 0 0 3468 3468 3468 3468 3468 3468 3468 3503 3503 3503 3503 3503 3468 3468 3468 3468 3468 3468 3468 3468 3468 3468 3468 3468 3468 3468 3468 3468 3468 3503 3503 3503 3503 3468 3468 3468 3468 3468 3503 0 0 0 0 0 0 1307 1307 1307 1307 1307 1307 1307 1307 1307 1307 1307 1307 1312 1312 1317 1317 1322 1328 1328 1333 1338 1343 1343 1343 1503 1503 1503 1503 1509 1509 1509 1509 1503 1503 1503 1503 1503 1503 1503 1503 1503 1503 1503 1503 1503 1503 1509 1503 1503 1503 1503 1503 1503 1503 1503 1503 1503 1509 1509 1509 1516 1516 1516 1516 1523 1523 1516 1516 1516 1516 1516 1523 1523 1516 1516 1523 1516 1516 1516 1516 1516 1516 1516 1516 1516 1516 1516 1516 1509 1509 1509 1509 1509 1509 1509 1509 1509 1509 1503 1503 1509 1509 1503 1503 1509 1509 1509 1509 1509 1509 1509 1503 1503 1503 1503 1503 1278 1278 1278 1278 1283 1283 1283 1283 1283 1283 1278 1278 1283 1283 1288 1288 1288 1288 1288 1292 1292 1292 1509 1509 1509 1516 1516 1516 1516 1516 1523 1523 1523 1523 1523 1523 1523 1516 1516 1516 1516 1523 1523 1523 1523 1529 1529 1523 1523 1523 1523 1523 1509 1509 1516 1516 1516 1516 1516 1516 1516 1516 1516 1516 1509 1509 1509 1509 1197 1197 1197 1197 1197 1197 1197 1197 1197 1197 1197 1197 1197 1197 1197 1197 1197 1202 1202 1202 1202 1202 1202 1202 1197 1197 1197 1197 1197 1197 1197 1197 1197 1193 1193 1193 1189 1189 1189 1189 1189 1189 1189 1185 1185 1189 1189 1189 1189 1185 1185 1185 1185 1185 1185 1185 1185 1185 1185 1181 1181 1181 1181 1181 1181 1181 1181 1181 1181 1181 1181 1181 1181 1181 1177 1177 1177 1177 1177 1177 1177 1177 1177 1177 1177 1177 1177 1177 1177 1177 1177 1177 1177 1177 1177 1177 1177 1177 1177 1177 1177 1177 1177 1177 1177 1177 1177 1177 1177 1177 1177 1177 1177 1177 1177 1177 1177 1177 1177 1177 1177 1177 1177 1177 1177 1177 1177 1177 1177 1177 1177 1177 1177 1177 1177 1173 1173 1169 1165 1165 1165 1165 1165 1165 1165 1161 1161 1165 1165 1165 1165 1165 1165 1165 1165 1169 1169 1177 1177 1536 1536 1536 1536 1536 1543 1543 1543 1543 1543 1543 1536 1536 1536 1536 1536 1536 1536 1543 1543 1543 1543 1543 1536 1536 1536 1536 1536 1536 1536 1536 1536 1536 1543 1543 1543 1543 1543 1543 1536 1536 1536 1536 1529 1523 1516 1516 1516 1516 1516 1516 1516 1523 1529 1536 1529 1529 1529 1529 1536 1529 1523 1523 1529 1529 1523 1523 1523 1529 1536 1536 1536 1536 1536 1536 1536 1536 1536 1536 1536 1536 0 0 0 0 0 0 0 0 0 0 0 0 0 0 3903 3859 3859 3816 3774 3774 3774 3774 3774 3774 3774 3816 3816 3816 3816 3774 3774 3774 3774 3774 3774 3774 3816 0 0 0 0 0 0 0 0 0 3859 3859 3816 3816 3816 3816 3774 0 3859 3859 3859 3859 3859 3816 3816 3816 3816 3816 3816 3300 3300 3300 3300 3300 3300 3300 3269 3269 3269 3269 3269 3269 3238 3238 3269 3269 3269 3269 3269 3269 3269 3238 3238 3238 3238 3208 3208 3178 3149 3149 3149 3120 3120 3149 3178 3208 3208 3208 3208 3208 3208 3208 3178 3178 3178 3149 3149 3120 2933 2908 2883 2883 2859 2859 2859 2859 2859 2859 2859 2883 2933 3037 3037 0 0 0 0 0 0 0 0 0 0 0
0 0 0 0 0 0 0 0 0 0 0 0 0 0 0 0 0 0 0 0 0 0 0 0 0 0 0 0 0 0 0 3433 3433 3468 3468 3468 3468 3468 3468 3468 3468 3468 3468 3468 3468 3468 3468 3433 3433 3468 3468 3468 3468 3468 3468 3468 3433 3433 3433 3468 3468 3468 3468 3468 3433 3433 3468 3468 3468 3468 0 0 0 0 0 0 1307 1307 1307 1307 1307 1307 1307 1307 1307 1307 1307 1307 1312 1312 1317 1317 1322 1328 1333 1333 1338 1343 1343 1343 1489 1489 1489 1496 1496 1496 1496 1496 1496 1496 1496 1496 1496 1496 1496 1496 1496 1496 1496 1496 1496 1496 1503 1503 1503 1496 1496 1496 1496 1503 1503 1503 1503 1503 1503 1503 1503 1503 1503 1503 1503 1503 1496 1496 1496 1496 1489 1489 1503 1496 1496 1496 1483 1483 1489 1496 1496 1496 1503 1503 1503 1503 1503 1503 1503 1503 1503 1503 1503 1503 1503 1503 1503 1503 1503 1503 1503 1503 1496 1496 1503 1503 1503 1503 1503 1503 1503 1503 1503 1496 1496 1503 1503 1278 1278 1278 1283 1283 1283 1283 1283 1288 1283 1283 1283 1288 1288 1292 1292 1292 1292 1307 1307 1503 1503 1503 1503 1503 1503 1503 1503 1503 1509 1516 1516 1516 1509 1509 1509 1509 1509 1509 1509 1516 1516 1516 1523 1523 1523 1523 1516 1516 1516 1509 1503 1503 1503 1503 1503 1509 1509 1509 1509 1509 1509 1509 1503 1503 1503 1503 1197 1197 1197 1197 1197 1197 1197 1197 1197 1197 1197 1197 1197 1197 1197 1197 1202 1202 1202 1202 1202 1202 1202 1202 1197 1197 1197 1197 1197 1197 1197 1197 1197 1197 1197 1197 1193 1189 1189 1189 1189 1189 1189 1189 1189 1189 1189 1189 1189 1189 1185 1185 1185 1185 1185 1185 1185 1185 1185 1185 1185 1185 1185 1185 1185 1185 1185 1185 1181 1181 1181 1181 1181 1181 1177 1177 1177 1177 1177 1177 1177 1177 1177 1177 1177 1177 1177 1177 1177 1177 1177 1177 1177 1177 1177 1177 1177 1177 1177 1177 1177 1177 1177 1177 1177 1177 1177 1177 1177 1177 1177 1177 1177 1177 1177 1177 1177 1177 1177 1177 1177 1177 1177 1177 1177 1177 1177 1177 1177 1177 1177 1177 1177 1177 1177 1173 1173 1169 1165 1165 1165 1165 1165 1165 1165 1165 1165 1165 1165 1165 1165 1165 1165 1165 1165 1165 1169 1177 1177 1529 1529 1529 1536 1536 1536 1536 1536 1536 1536 1536 1536 1529 1529 1529 1529 1529 1529 1529 1529 1523 1523 1529 1529 1523 1523 1523 1529 1529 1529 1529 1529 1529 1536 1536 1536 1536 1536 1536 1536 1536 1529 1529 1523 1509 1503 1503 1503 1503 1503 1509 1509 1516 1516 1523 1523 1529 1529 1529 1529 1516 1516 1516 1516 1516 1509 1509 1509 1516 1523 1523 1529 1529 1529 1523 1516 1516 1516 1516 1516 1516 1516 0 0 0 0 0 0 0 0 0 0 0 0 0 3859 3859 3816 3816 3774 3774 3774 3774 3774 3774 3774 3816 3816 3816 3774 3774 3774 3774 3732 3732 3732 3732 0 0 0 0 0 0 0 0 0 0 3859 3859 3816 3816 3774 3774 3774 3732 0 0 0 0 3859 3816 3816 3816 3816 3816 3300 3300 3300 3300 3300 3300 3300 3300 3300 3269 3269 3269 3269 3269 3238 3238 3269 3269 3269 3269 3269 3269 3269 3238 3238 3238 3238 3208 3208 3178 3149 3149 3120 3120 3120 3120 3178 3208 3208 3208 3208 3208 3208 3208 3178 3178 3178 3149 3149 3149 2933 2908 2883 2883 2883 2859 2859 2883 2883 2908 2933 3010 3010 3037 3037 0 0 0 0 0 0 0 0 0 0 0
0 0 0 0 0 0 0 0 0 0 0 0 0 0 0 0 0 0 0 0 0 0 0 0 0 0 0 0 0 0 0 3433 3433 3433 3433 3433 3433 3433 3468 3468 3468 3468 3468 3433 3433 3433 3433 3433 3433 3433 3468 3468 3468 3433 3433 3433 3433 3433 3433 3433 3399 3399 3433 3433 3433 3433 3433 3433 3468 3468 0 0 0 0 0 0 1312 1312 1312 1312 1312 1312 1312 1312 1312 1312 1307 1307 1312 1317 1317 1317 1322 1328 1333 1338 1343 1343 1343 1343 1483 1483 1483 1483 1483 1483 1483 1483 1483 1483 1489 1489 1489 1489 1489 1489 1496 1489 1489 1489 1489 1489 1489 1489 1496 1489 1489 1489 1496 1496 1496 1496 1496 1496 1496 1496 1496 1496 1496 1489 1489 1489 1489 1489 1489 1489 1489 1489 1489 1489 1489 1489 1483 1483 1483 1489 1483 1483 1483 1483 1496 1496 1489 1489 1489 1496 1496 1496 1496 1496 1496 1496 1496 1496 1496 1496 1496 1496 1496 1496 1496 1496 1496 1496 1496 1496 1496 1496 1496 1496 1496 1496 1496 1496 1283 1283 1283 1283 1288 1288 1288 1288 1283 1283 1288 1288 1292 1292 1297 1297 1302 1307 1312 1312 1496 1496 1496 1496 1503 1503 1503 1503 1503 1503 1496 1496 1496 1496 1496 1496 1496 1496 1496 1503 1503 1503 1503 1503 1503 1503 1496 1496 1496 1496 1489 1489 1489 1489 1496 1496 1503 1503 1496 1496 1496 1503 1496 1496 1503 1503 1503 1202 1202 1202 1197 1197 1197 1197 1197 1197 1197 1197 1197 1197 1197 1197 1202 1202 1202 1202 1202 1202 1202 1202 1197 1197 1197 1197 1197 1197 1197 1197 1197 1197 1197 1197 1193 1193 1193 1193 1193 1193 1193 1189 1189 1193 1193 1193 1189 1189 1189 1185 1185 1185 1185 1185 1185 1185 1185 1185 1185 1185 1185 1185 1185 1185 1185 1185 1185 1181 1181 1181 1181 1185 1177 1177 1181 1181 1177 1177 1177 1177 1177 1177 1177 1177 1177 1177 1177 1177 1177 1177 1177 1177 1177 1177 1177 1177 1177 1177 1177 1177 1177 1177 1177 1177 1177 1177 1181 1177 1177 1177 1177 1177 1177 1177 1177 1177 1177 1177 1177 1177 1177 1177 1177 1177 1177 1177 1177 1177 1177 1177 1177 1177 1177 1177 1177 1173 1165 1165 1165 1165 1165 1165 1165 1165 1165 1165 1165 1165 1165 1165 1165 1165 1165 1165 1523 1523 1523 1523 1523 1523 1523 1529 1523 1523 1529 1529 1529 1523 1523 1523 1529 1523 1523 1523 1523 1523 1516 1516 1516 1516 1516 1516 1516 1516 1516 1523 1523 1523 1523 1523 1523 1523 1523 1523 1523 1523 1523 1523 1523 1509 1503 1496 1496 1496 1496 1496 1496 1496 1503 1503 1503 1503 1509 1523 1523 1516 1516 1509 1509 1509 1509 1509 1503 1503 1503 1509 1516 1516 1516 1516 1523 1516 1509 1509 1516 1516 1516 1516 1516 1516 0 0 0 0 0 0 0 0 0 0 0 0 3859 3816 3816 3774 3774 3774 3774 3774 3732 3732 3774 3774 3816 3816 3774 3774 3774 3774 3732 3732 3732 3732 0 0 0 0 0 0 0 0 0 0 3859 3816 3816 3774 3774 3732 3732 3732 3692 0 0 0 0 0 0 0 0 0 3300 3300 3300 3300 3300 3300 3300 3300 3300 3269 3269 3269 3269 3269 3269 3269 3269 3269 3269 3269 3269 3269 3269 3238 3238 3238 3238 3208 3208 3178 3149 3149 3120 3120 3120 3120 3178 3208 3208 3208 3208 3208 3208 3208 3208 3208 3208 3178 3149 3092 2933 2908 2908 2908 2883 2883 2883 2883 2908 2933 3010 3010 3037 3037 3037 0 0 0 0 0 0 0 0 0 0 0
0 0 0 0 0 0 0 0 0 0 0 0 0 0 0 0 0 0 0 0 0 0 0 0 0 0 0 0 0 0 0 3399 3399 3399 3399 3399 3399 3399 3433 3433 3433 3433 3399 3399 3399 3399 3399 3399 3399 3399 3433 3433 3433 3433 3433 3433 3433 3399 3399 3399 3399 3399 3399 3399 3399 3399 3433 3433 3468 3468 0 0 0 0 0 0 1312 1312 1312 1312 1312 1312 1312 1312 1312 1312 1312 1312 1312 1317 1317 1317 1328 1333 1338 1338 1343 1343 1343 1343 1477 1477 1477 1477 1477 1477 1470 1470 1477 1477 1477 1477 1477 1483 1483 1483 1477 1477 1477 1477 1477 1483 1477 1477 1483 1483 1483 1483 1483 1489 1489 1489 1489 1489 1489 1489 1489 1489 1489 1483 1483 1483 1483 1483 1483 1483 1483 1483 1483 1483 1483 1483 1483 1477 1477 1483 1477 1477 1477 1477 1483 1483 1483 1477 1477 1483 1483 1483 1489 1489 1489 1489 1489 1489 1489 1489 1489 1489 1489 1489 1489 1489 1483 1483 1489 1489 1489 1496 1496 1489 1489 1489 1489 1489 1288 1288 1288 1288 1288 1288 1288 1288 1288 1288 1288 1292 1292 1297 1297 1302 1307 1312 1312 1312 1489 1489 1489 1489 1496 1496 1496 1496 1496 1496 1489 1489 1489 1489 1489 1489 1489 1496 1496 1496 1496 1496 1496 1496 1496 1496 1489 1489 1489 1489 1483 1483 1489 1489 1489 1489 1489 1489 1483 1483 1489 1489 1489 1489 1489 1496 1496 1202 1202 1202 1202 1202 1202 1202 1202 1202 1202 1202 1202 1202 1202 1202 1202 1202 1202 1202 1202 1202 1202 1202 1197 1197 1197 1197 1197 1197 1197 1193 1193 1193 1197 1197 1193 1193 1193 1193 1193 1193 1193 1193 1193 1193 1193 1193 1193 1189 1189 1185 1185 1185 1185 1185 1185 1185 1185 1185 1185 1185 1185 1185 1185 1185 1185 1185 1185 1185 1185 1185 1185 1185 1181 1181 1181 1181 1181 1181 1181 1181 1177 1177 1181 1181 1181 1181 1181 1177 1177 1177 1177 1177 1177 1177 1177 1177 1177 1181 1181 1181 1177 1177 1177 1181 1181 1181 1181 1181 1181 1181 1177 1177 1177 1177 1177 1177 1177 1177 1177 1177 1177 1177 1177 1177 1177 1181 1181 1181 1181 1181 1181 1181 1181 1177 1177 1173 1169 1169 1165 1165 1165 1165 1165 1165 1165 1165 1165 1165 1165 1165 1165 1165 1165 1509 1509 1516 1516 1516 1516 1516 1516 1516 1516 1516 1516 1516 1516 1516 1516 1516 1523 1516 1516 1516 1516 1516 1516 1509 1509 1509 1509 1509 1509 1509 1509 1516 1523 1516 1516 1516 1516 1516 1516 1509 1509 1516 1516 1509 1509 1503 1496 1496 1489 1489 1489 1483 1483 1483 1489 1489 1483 1483 1483 1503 1503 1509 1509 1503 1503 1503 1503 1503 1496 1496 1496 1503 1509 1509 1509 1509 1516 1509 1509 1509 1509 1509 1509 1509 1509 1516 1516 0 0 0 0 0 0 0 0 0 0 0 3816 3816 3774 3774 3774 3732 3732 3732 3732 3732 3732 3774 3816 3774 3774 3774 3732 3732 3732 3732 3732 3732 0 0 0 0 0 0 0 0 0 3816 3816 3774 3774 3732 3732 3732 3692 3692 3692 0 0 0 0 0 0 0 0 0 3269 3269 3269 3269 3269 3269 3269 3300 3269 3269 3269 3269 3269 3269 3269 3269 3269 3269 3269 3269 3269 3269 3269 3238 3238 3238 3238 3238 3208 3178 3149 3149 3149 3120 3120 3149 3178 3208 3208 3208 3238 3238 3238 3208 3208 3208 3208 3178 3149 3092 2933 2908 2908 2908 2883 2883 2883 2908 2933 2984 3010 3010 3037 3037 3037 0 0 0 0 0 0 0 0 0 0 0
0 0 0 0 0 0 0 0 0 0 0 0 0 0 0 0 0 0 0 0 0 0 0 0 0 0 0 0 0 0 0 3399 3399 3399 3399 3399 3399 3399 3399 3399 3399 3399 3399 3365 3365 3365 3365 3365 3365 3399 3433 3433 3433 3399 3399 3399 3399 3399 3399 3399 3399 3399 3399 3399 3365 3365 3399 3433 3468 3468 0 0 0 0 0 0 0 1312 1312 1312 1312 1312 1312 1312 1312 1312 1312 1312 1312 1317 1317 1322 1328 1333 1338 1338 1343 1343 1343 1343 1470 1470 1470 1470 1464 1464 1464 1464 1470 1470 1470 1470 1470 1470 1470 1470 1464 1464 1464 1464 1470 1477 1470 1470 1477 1477 1477 1477 1477 1483 1483 1483 1483 1483 1483 1477 1477 1477 1477 1477 1477 1477 1477 1477 1477 1477 1477 1477 1477 1477 1477 1477 1477 1477 1477 1477 1470 1470 1477 1477 1477 1477 1470 1470 1470 1477 1477 1477 1477 1483 1483 1483 1483 1483 1483 1483 1483 1483 1477 1477 1483 1483 1477 1477 1483 1483 1483 1483 1483 1483 1477 1477 1477 1477 1288 1288 1288 1288 1288 1288 1288 1288 1288 1288 1288 1292 1292 1297 1297 1302 1307 1312 1312 1477 1477 1477 1483 1483 1489 1489 1489 1489 1489 1483 1483 1483 1483 1483 1483 1483 1483 1489 1489 1489 1489 1483 1483 1483 1483 1483 1483 1483 1483 1483 1477 1477 1483 1483 1483 1483 1483 1483 1477 1477 1483 1477 1477 1477 1483 1489 1489 1202 1202 1202 1202 1202 1202 1202 1202 1202 1202 1202 1202 1202 1202 1202 1202 1206 1206 1206 1202 1202 1197 1197 1197 1197 1197 1197 1197 1197 1197 1193 1193 1193 1193 1193 1193 1193 1193 1193 1193 1193 1193 1193 1193 1193 1193 1193 1193 1189 1189 1185 1185 1185 1185 1185 1185 1185 1185 1185 1185 1185 1185 1185 1185 1185 1185 1185 1185 1185 1185 1185 1185 1185 1181 1181 1181 1181 1181 1181 1181 1181 1181 1181 1181 1181 1181 1181 1181 1181 1181 1177 1177 1177 1177 1177 1177 1177 1181 1181 1181 1181 1181 1181 1181 1181 1181 1181 1181 1181 1181 1181 1177 1177 1177 1181 1181 1181 1181 1181 1181 1177 1177 1177 1177 1181 1181 1181 1181 1181 1181 1181 1181 1181 1181 1177 1177 1177 1173 1169 1169 1169 1169 1165 1165 1165 1165 1165 1165 1165 1165 1165 1165 1165 1165 1496 1496 1503 1503 1503 1509 1509 1509 1509 1503 1503 1509 1503 1503 1503 1509 1509 1509 1509 1509 1509 1509 1509 1509 1509 1509 1503 1503 1503 1503 1503 1509 1509 1509 1516 1509 1509 1509 1509 1509 1509 1509 1509 1509 1509 1509 1503 1489 1489 1489 1483 1483 1477 1477 1477 1477 1477 1470 1470 1470 1470 1483 1489 1489 1489 1496 1489 1489 1496 1489 1489 1489 1496 1503 1496 1496 1503 1503 1503 1503 1503 1503 1509 1509 1509 1509 1509 1509 1509 0 0 0 0 0 0 0 0 0 0 3774 3774 3774 3732 3732 3732 3732 3732 3732 3732 3732 3774 3774 3774 3732 3732 3732 3732 3692 3692 3692 3692 3732 0 0 0 0 0 0 0 0 3774 3774 3774 3774 3732 3732 3732 3692 3692 3653 3653 0 0 0 0 0 0 0 3269 3269 3269 3269 3269 3269 3269 3269 3269 3269 3269 3269 3269 3269 3269 3269 3269 3269 3269 3269 3300 3269 3269 3269 3238 3238 3238 3238 3238 3208 3208 3178 3149 3149 3149 3149 3149 3208 3208 3208 3238 3238 3238 3238 3238 3208 3208 3208 3178 3149 2933 2933 2908 2908 2908 2908 2908 2908 2933 2933 3010 3010 3037 3037 3037 3037 0 0 0 0 0 0 0 0 0 0 0
0 0 0 0 0 0 0 0 0 0 0 0 0 0 0 0 0 0 0 0 0 0 0 0 0 0 0 0 0 0 0 3365 3365 3365 3365 3365 3365 3365 3399 3399 3365 3365 3365 3365 3365 3365 3365 3365 3365 3365 3399 3399 3399 3399 3399 3399 3399 3399 3399 3365 3365 3399 3365 3365 3365 3365 3399 3433 3468 0 0 0 0 0 0 0 1307 1307 1312 1312 1312 1312 1312 1312 1312 1312 1312 1312 1312 1317 1317 1322 1328 1333 1338 1343 1343 1349 1349 1349 1464 1464 1464 1464 1458 1458 1458 1458 1464 1464 1464 1464 1464 1464 1464 1464 1464 1464 1464 1464 1464 1470 1470 1470 1470 1470 1477 1477 1477 1470 1470 1477 1470 1470 1470 1464 1464 1470 1470 1470 1470 1470 1470 1470 1470 1470 1470 1470 1470 1470 1470 1470 1470 1470 1470 1477 1470 1470 1470 1470 1470 1464 1458 1458 1464 1464 1464 1464 1464 1470 1470 1470 1477 1477 1477 1477 1477 1470 1470 1470 1470 1470 1470 1470 1477 1477 1477 1477 1470 1470 1470 1470 1470 1470 1470 1292 1292 1292 1292 1292 1292 1292 1292 1292 1292 1292 1292 1297 1297 1302 1312 1317 1317 1452 1470 1470 1477 1477 1483 1483 1483 1483 1483 1477 1477 1477 1477 1477 1477 1477 1477 1477 1477 1477 1477 1470 1470 1470 1470 1470 1477 1477 1477 1477 1477 1477 1477 1477 1477 1483 1477 1470 1470 1470 1470 1470 1470 1470 1470 1470 1470 1202 1202 1202 1202 1202 1202 1202 1202 1202 1202 1202 1202 1206 1206 1206 1210 1206 1206 1206 1202 1202 1197 1197 1197 1197 1197 1193 1193 1193 1193 1193 1193 1193 1193 1193 1193 1470 1477 1193 1193 1197 1193 1193 1193 1197 1197 1193 1193 1189 1189 1189 1185 1185 1185 1185 1185 1185 1189 1189 1189 1189 1185 1185 1185 1185 1185 1185 1185 1185 1185 1185 1185 1185 1181 1181 1181 1181 1181 1181 1181 1181 1181 1181 1181 1181 1181 1181 1181 1181 1181 1181 1177 1177 1177 1177 1177 1177 1181 1181 1181 1181 1181 1181 1181 1181 1181 1181 1181 1181 1181 1181 1181 1181 1181 1181 1181 1181 1181 1181 1181 1181 1181 1181 1181 1181 1181 1181 1181 1181 1181 1181 1181 1181 1181 1181 1177 1177 1173 1173 1169 1169 1169 1169 1165 1165 1165 1165 1165 1165 1165 1165 1165 1165 1496 1496 1496 1496 1496 1496 1496 1503 1496 1496 1496 1496 1496 1496 1489 1489 1496 1503 1503 1503 1503 1503 1503 1503 1503 1503 1503 1503 1503 1503 1496 1496 1496 1496 1496 1496 1503 1503 1503 1503 1503 1503 1503 1503 1503 1503 1503 1489 1483 1483 1483 1477 1477 1477 1470 1470 1464 1464 1458 1458 1458 1458 1458 1464 1477 1477 1489 1483 1483 1489 1483 1483 1489 1489 1489 1489 1489 1489 1489 1496 1496 1496 1496 1503 1503 1503 1503 1503 1503 1503 0 0 0 0 0 0 0 0 0 0 3774 3774 3732 3732 3732 3732 3732 3732 3732 3732 3732 3732 3732 3732 3732 3732 3732 3692 3692 3692 3692 3692 3692 0 0 0 0 0 0 0 0 3774 3774 3774 3732 3732 3732 3732 3692 3692 3653 3653 0 0 0 0 0 0 0 0 3238 3238 3238 3269 3269 3269 3269 3269 3269 3269 3269 3269 3269 3269 3269 3269 3269 3269 3269 3300 3269 3269 3269 3238 3238 3238 3238 3238 3208 3208 3208 3149 3149 3120 3120 3149 3208 3238 3238 3238 3238 3238 3238 3208 3208 3178 3178 3178 3149 2933 2908 2908 2908 2908 2908 2908 2908 2933 2984 3010 3037 3037 3037 3037 3037 0 0 0 0 0 0 0 0 0 0 0
0 0 0 0 0 0 0 0 0 0 0 0 0 0 0 0 0 0 0 0 0 0 0 0 0 0 0 0 0 0 0 3365 3365 3365 3365 3365 3365 3365 3365 3365 3365 3365 3365 3365 3365 3365 3365 3365 3365 3365 3365 3365 3365 3365 3365 3365 3365 3365 3365 3365 3365 3365 3365 3365 3333 3333 3365 3468 0 0 0 0 0 0 0 0 1307 1307 1312 1312 1312 1312 1312 1312 1312 1312 1312 1312 1312 1317 1317 1322 1328 1333 1338 1343 1343 1349 1349 1349 1458 1458 1452 1452 1452 1452 1452 1452 1452 1458 1458 1464 1458 1458 1464 1464 1458 1458 1464 1464 1464 1464 1458 1458 1458 1464 1464 1464 1464 1464 1464 1464 1464 1464 1464 1464 1464 1464 1464 1464 1470 1464 1464 1464 1464 1464 1470 1464 1458 1458 1464 1464 1464 1464 1464 1470 1464 1464 1464 1464 1464 1464 1458 1458 1458 1458 1458 1458 1458 1458 1458 1458 1458 1458 1464 1464 1464 1458 1458 1458 1464 1464 1464 1464 1464 1464 1464 1458 1458 1458 1464 1464 1464 1464 1464 1292 1292 1292 1292 1292 1292 1292 1292 1292 1292 1292 1297 1297 1302 1302 1312 1317 1317 1317 1458 1464 1464 1470 1470 1477 1477 1477 1477 1477 1470 1470 1470 1470 1470 1464 1464 1464 1464 1458 1458 1458 1458 1458 1458 1464 1464 1470 1470 1470 1470 1470 1470 1470 1470 1470 1470 1470 1470 1464 1464 1470 1464 1464 1464 1470 1202 1202 1202 1202 1202 1202 1206 1206 1206 1206 1206 1206 1206 1206 1206 1206 1210 1210 1214 1214 1214 1214 1470 1470 1470 1470 1470 1193 1193 1193 1193 1464 1464 1464 1464 1464 1464 1470 1470 1470 1470 1464 1464 1197 1197 1197 1197 1193 1193 1189 1189 1189 1185 1185 1185 1185 1185 1185 1185 1185 1185 1189 1185 1185 1185 1185 1185 1185 1181 1181 1185 1185 1185 1185 1181 1181 1181 1181 1181 1181 1181 1181 1181 1181 1181 1181 1181 1181 1181 1181 1181 1181 1177 1177 1177 1177 1181 1181 1181 1181 1181 1181 1181 1181 1181 1181 1181 1181 1181 1181 1181 1181 1181 1181 1181 1181 1181 1181 1181 1181 1181 1181 1181 1181 1181 1181 1181 1181 1181 1181 1181 1181 1181 1181 1181 1177 1177 1177 1177 1173 1173 1169 1169 1169 1169 1169 1169 1169 1169 1169 1169 1169 1165 1165 1496 1496 1489 1489 1489 1489 1489 1489 1489 1489 1489 1483 1483 1483 1483 1483 1489 1489 1489 1489 1496 1496 1496 1503 1496 1496 1503 1496 1496 1496 1496 1496 1489 1489 1489 1489 1496 1496 1496 1496 1496 1496 1496 1496 1496 1496 1489 1483 1483 1477 1477 1470 1470 1464 1464 1458 1458 1458 1458 1458 1452 1452 1458 1458 1464 1470 1483 1477 1477 1483 1483 1483 1483 1483 1483 1483 1483 1483 1483 1489 1489 1489 1489 1496 1496 1496 1496 1496 1489 1489 0 0 0 0 0 0 0 0 0 0 3732 3732 3732 3732 3692 3692 3692 3692 3692 3692 3732 3732 3732 3692 3692 3692 3692 3692 3692 3692 3692 3692 3692 0 3178 3178 3178 0 0 0 0 0 3774 3774 3732 3732 3732 3732 3692 3692 3653 3653 0 0 0 0 0 0 0 0 0 3238 3238 3269 3269 3269 3269 3269 3269 3269 3269 3269 3269 3269 3269 3269 3269 3269 3300 3300 3269 3269 3300 3269 3269 3269 3269 3238 3238 3238 0 0 0 3120 3120 3120 3208 3238 3238 3238 3238 3238 3238 3208 3208 3178 3178 3149 3092 2933 2908 2908 2908 2908 2908 2908 2933 2958 2984 3037 3037 3037 3037 3010 3010 0 0 0 0 0 0 0 0 0 0 0
0 0 0 0 0 0 0 0 0 0 0 0 0 0 0 0 0 0 0 0 0 0 0 0 0 0 0 0 0 0 0 3365 3365 3365 3365 3365 3365 3365 3365 3365 3365 3365 3365 3365 3365 3333 3333 3333 3333 3333 3365 3365 3365 3365 3365 3365 3365 3365 3365 3365 3365 3365 3365 3365 3333 3333 3333 0 0 0 0 0 0 1433 1433 1433 1307 1307 1312 1312 1312 1317 1317 1317 1317 1317 1317 1317 1317 1317 1317 1322 1328 1338 1338 1343 1343 1343 1343 1343 1452 1452 1452 1452 1452 1452 1452 1452 1452 1452 1452 1458 1458 1458 1458 1458 1458 1458 1458 1458 1458 1458 1458 1452 1452 1452 1458 1458 1458 1458 1458 1458 1458 1458 1458 1458 1458 1458 1458 1458 1458 1458 1458 1458 1458 1458 1458 1458 1452 1452 1458 1452 1452 1458 1458 1458 1458 1458 1458 1458 1458 1458 1452 1452 1452 1452 1452 1452 1452 1452 1452 1452 1458 1452 1452 1458 1458 1452 1452 1452 1452 1452 1452 1458 1458 1458 1458 1458 1458 1458 1458 1458 1458 1464 1464 1292 1292 1292 1292 1292 1292 1292 1292 1292 1292 1292 1297 1297 1302 1302 1312 1312 1317 1317 1458 1458 1458 1464 1464 1464 1464 1464 1464 1464 1464 1464 1464 1464 1464 1458 1458 1458 1458 1458 1458 1458 1452 1452 1452 1452 1452 1458 1458 1458 1464 1464 1464 1458 1458 1458 1458 1458 1458 1458 1458 1464 1458 1458 1458 1458 1202 1202 1202 1202 1202 1202 1206 1206 1206 1206 1206 1206 1206 1206 1206 1210 1210 1214 1214 1214 1439 1439 1458 1458 1458 1458 1458 1458 1458 1458 1458 1458 1458 1464 1464 1464 1464 1464 1464 1458 1458 1458 1458 1452 1452 1197 1197 1197 1193 1193 1458 1458 1458 1185 1185 1185 1185 1185 1185 1185 1185 1464 1464 1464 1458 1458 1458 1458 1181 1181 1185 1185 1185 1185 1181 1181 1181 1181 1181 1185 1181 1181 1181 1181 1185 1185 1185 1185 1181 1181 1181 1181 1177 1177 1177 1177 1181 1181 1181 1181 1181 1181 1181 1181 1181 1181 1181 1181 1181 1181 1181 1181 1181 1181 1181 1181 1181 1181 1181 1181 1177 1177 1177 1177 1181 1181 1181 1181 1181 1181 1181 1181 1181 1181 1181 1177 1177 1177 1177 1173 1173 1173 1169 1169 1169 1169 1169 1169 1173 1169 1169 1169 1169 1489 1489 1489 1489 1489 1483 1483 1483 1483 1477 1477 1477 1477 1477 1477 1477 1477 1483 1483 1483 1483 1489 1489 1489 1496 1489 1489 1496 1496 1489 1483 1483 1483 1483 1483 1483 1483 1483 1483 1483 1483 1489 1489 1489 1489 1489 1489 1483 1483 1477 1470 1470 1464 1464 1464 1458 1452 1452 1452 1452 1452 1452 1452 1452 1452 1452 1452 1470 1470 1470 1470 1470 1470 1470 1470 1470 1477 1470 1470 1477 1477 1477 1477 1477 1483 1483 1483 1489 1483 1483 1483 1483 0 0 0 0 0 0 0 0 3732 3692 3692 3692 3692 3692 3692 3653 3653 3653 3692 3692 3692 3653 3653 3692 3692 3692 3653 3653 3653 3653 3692 3692 3692 3178 3178 3178 0 0 0 0 3732 3732 3732 3732 3732 3732 3732 3732 3692 3653 3653 0 0 0 0 0 0 0 0 0 3238 3238 3269 3269 3269 3269 3269 3269 3269 3269 3269 3269 3269 3269 3269 3269 3269 3300 3300 3269 3269 3300 3269 3269 3269 3238 3208 3208 0 0 0 0 0 3120 3120 3208 3238 3238 3238 3238 3238 3238 3208 3208 3178 3178 3149 3092 2933 2908 2908 2908 2908 2908 2933 2933 2984 3010 3037 3037 3037 3037 3010 3010 0 0 0 0 0 0 0 0 0 0 0
0 0 0 0 0 0 0 0 0 0 0 0 0 0 0 0 0 0 0 0 0 0 0 0 0 0 0 0 0 0 0 3333 3333 3333 3333 3333 3333 3333 3365 3365 3365 3365 3365 3365 3333 3333 3333 3333 3333 3333 3333 3333 3365 3365 3365 3365 3365 3365 3365 3333 3333 3365 3333 3333 3333 3333 3333 0 0 0 0 0 1433 1433 1433 1433 1312 1312 1312 1312 1312 1317 1317 1317 1317 1317 1317 1317 1317 1317 1317 1322 1328 1338 1338 1343 1343 1343 1343 1343 1445 1445 1445 1445 1445 1445 1445 1445 1445 1445 1445 1445 1445 1452 1452 1445 1445 1452 1452 1452 1452 1452 1452 1452 1445 1445 1445 1445 1445 1445 1445 1452 1452 1452 1452 1452 1452 1452 1452 1452 1452 1452 1452 1452 1452 1452 1452 1452 1452 1452 1445 1445 1452 1452 1452 1452 1452 1445 1445 1445 1445 1445 1445 1445 1445 1445 1445 1445 1445 1445 1445 1452 1452 1452 1452 1452 1452 1452 1445 1445 1452 1452 1452 1452 1452 1452 1452 1452 1452 1452 1452 1452 1458 1458 1297 1292 1292 1292 1292 1297 1292 1292 1292 1292 1292 1297 1297 1297 1302 1302 1312 1312 1312 1452 1452 1452 1452 1452 1452 1452 1452 1458 1458 1452 1452 1458 1458 1458 1458 1452 1452 1452 1452 1452 1452 1452 1452 1452 1452 1452 1452 1452 1452 1452 1458 1458 1452 1452 1452 1452 1452 1452 1452 1452 1452 1452 1458 1452 1452 1452 1202 1202 1202 1202 1202 1206 1206 1206 1210 1206 1206 1206 1206 1206 1206 1210 1210 1214 1214 1214 1439 1439 1445 1445 1445 1452 1452 1458 1458 1458 1458 1458 1458 1458 1458 1464 1458 1458 1458 1458 1452 1452 1452 1452 1452 1452 1452 1452 1452 1458 1458 1458 1452 1452 1452 1452 1452 1452 1458 1458 1458 1458 1458 1458 1458 1458 1458 1458 1458 1458 1452 1452 1445 1185 1181 1181 1185 1181 1181 1452 1452 1452 1452 1452 1445 1445 1445 1445 1445 1181 1181 1181 1181 1181 1181 1181 1181 1452 1181 1181 1181 1181 1181 1181 1181 1181 1181 1181 1181 1181 1181 1181 1181 1181 1181 1181 1181 1181 1181 1181 1177 1177 1177 1177 1181 1181 1181 1181 1181 1181 1181 1181 1181 1181 1181 1177 1177 1177 1177 1177 1173 1173 1173 1173 1173 1173 1173 1173 1173 1169 1169 1169 1169 1483 1483 1483 1477 1477 1470 1470 1470 1470 1464 1464 1464 1470 1470 1470 1470 1470 1477 1477 1477 1477 1477 1483 1483 1489 1483 1483 1483 1483 1477 1477 1477 1477 1477 1477 1477 1477 1477 1477 1477 1477 1483 1483 1483 1483 1483 1483 1477 1477 1477 1470 1464 1464 1464 1458 1452 1445 1445 1445 1445 1445 1445 1445 1445 1445 1445 1445 1445 1458 1458 1464 1464 1464 1470 1470 1470 1470 1470 1470 1464 1464 1464 1464 1464 1470 1477 1477 1477 1470 1470 1470 1470 0 0 0 0 0 0 0 0 3732 3692 3653 3653 3653 3653 3653 3653 3653 3653 3653 3653 3653 3614 3614 3653 3653 3653 3653 3653 3614 3614 3653 3653 3653 3178 3178 3178 3178 0 0 3732 3732 3732 3732 3732 3732 3732 3732 3692 3692 3692 3692 0 0 0 3300 3300 3269 3269 3269 3269 3238 3238 3238 3269 3269 3269 3269 3269 3269 3269 3269 3269 3269 3269 3269 3269 3269 3300 3300 3300 3300 3300 3269 3269 3269 3238 3208 3208 0 0 0 0 0 0 3238 3238 3269 3269 3269 3269 3269 3238 3238 3208 3178 3178 3149 2933 2933 2908 2908 2908 2908 2908 2933 2958 2984 3010 3037 3037 3037 3010 3010 3010 0 0 0 0 0 0 0 0 0 0 0
0 0 0 0 0 0 0 0 0 0 0 0 0 0 0 0 0 0 0 0 0 0 0 0 0 0 0 0 0 0 0 3300 3300 3333 3300 3300 3333 3333 3333 3333 3333 3333 3333 3333 3333 3333 3333 3300 3300 3300 3300 3333 3333 3365 3365 3365 3365 3365 3365 3333 3333 3333 3333 3333 3300 3300 3333 0 0 0 0 1421 1421 1433 1433 1439 1439 1452 1312 1312 1312 1317 1317 1317 1317 1317 1317 1317 1317 1317 1322 1322 1333 1338 1338 1343 1343 1343 1343 1439 1439 1439 1439 1439 1439 1439 1439 1439 1445 1439 1439 1445 1445 1445 1445 1445 1445 1445 1445 1452 1445 1445 1445 1445 1439 1439 1439 1439 1439 1439 1439 1445 1445 1445 1445 1445 1445 1452 1445 1445 1445 1445 1445 1445 1445 1445 1445 1445 1439 1439 1439 1439 1439 1439 1445 1445 1445 1439 1439 1439 1439 1439 1439 1439 1439 1439 1439 1439 1439 1439 1439 1445 1445 1445 1445 1445 1445 1445 1445 1445 1445 1445 1445 1445 1445 1445 1445 1445 1452 1452 1452 1452 1452 1452 1297 1297 1292 1292 1292 1297 1297 1297 1292 1292 1292 1297 1297 1297 1302 1302 1312 1312 1312 1445 1445 1445 1439 1439 1439 1445 1445 1445 1445 1445 1445 1445 1445 1445 1445 1445 1445 1445 1445 1445 1445 1445 1445 1445 1439 1439 1445 1445 1445 1445 1445 1445 1445 1439 1439 1445 1445 1445 1445 1445 1445 1445 1445 1445 1445 1445 1445 1202 1202 1202 1202 1206 1206 1210 1210 1210 1206 1206 1206 1206 1206 1210 1210 1214 1219 1223 1439 1439 1439 1439 1439 1445 1445 1445 1452 1452 1452 1452 1452 1458 1458 1458 1452 1452 1452 1452 1452 1452 1445 1445 1445 1452 1452 1452 1452 1452 1452 1452 1452 1452 1452 1452 1452 1452 1445 1445 1452 1452 1452 1458 1458 1458 1452 1452 1452 1452 1452 1452 1445 1445 1445 1439 1439 1445 1445 1445 1445 1445 1452 1452 1445 1445 1445 1445 1445 1445 1439 1439 1439 1452 1452 1452 1452 1452 1452 1452 1452 1181 1181 1181 1181 1181 1181 1452 1452 1445 1445 1445 1445 1181 1181 1181 1181 1181 1181 1181 1458 1452 1452 1452 1185 1185 1185 1181 1181 1181 1181 1452 1181 1181 1181 1177 1177 1177 1177 1177 1177 1177 1177 1177 1177 1173 1173 1173 1173 1173 1173 1173 1173 1458 1458 1464 1470 1470 1464 1464 1464 1464 1458 1458 1458 1458 1458 1458 1458 1458 1458 1458 1464 1464 1464 1464 1470 1464 1464 1464 1464 1464 1458 1458 1464 1464 1464 1464 1464 1464 1464 1458 1458 1458 1458 1458 1458 1477 1477 1477 1477 1477 1470 1464 1464 1458 1452 1445 1439 1439 1439 1439 1439 1439 1439 1439 1439 1439 1439 1439 1439 1452 1452 1458 1458 1458 1464 1464 1464 1464 1464 1464 1458 1458 1458 1458 1458 1464 1464 1464 1464 1464 1464 1458 1452 1445 1445 0 0 0 0 0 0 0 3653 3614 3614 3653 3614 3614 3614 3614 3614 3614 3614 3614 3614 3614 3614 3614 3614 3614 3614 3614 3614 3653 3653 3653 3178 3178 3178 3178 0 3433 3399 3399 3732 3732 3732 3732 3732 3732 3692 3692 3692 3399 3399 3333 3300 3300 3300 3269 3238 3238 3238 3238 3238 3238 3269 3269 3269 3269 3269 3269 3300 3269 3269 3300 3300 3269 3269 3300 3300 3300 3300 3333 3333 3269 3269 3269 3269 0 0 0 0 0 0 0 0 0 3300 3269 3269 3300 3300 3269 3238 3238 3208 3208 3208 3149 2933 2908 2908 2908 2908 2908 2908 2933 2958 2984 3010 3037 3037 3037 3010 3010 3010 0 0 0 0 0 0 0 0 0 0 0
0 0 0 0 0 0 0 0 0 0 0 0 0 0 0 0 0 0 0 0 0 0 0 0 0 0 0 0 0 0 0 3300 3300 3300 3300 3300 3300 3300 3333 3333 3333 3333 3333 3333 3300 3300 3300 3300 3269 3269 3300 3300 3333 3333 3333 3333 3333 3333 3333 3333 3333 3300 3300 3300 3300 3300 0 0 0 0 1427 1421 1421 1433 1433 1439 1439 1452 1452 1317 1317 1317 1317 1317 1317 1317 1317 1317 1317 1322 1322 1322 1333 1338 1338 1338 1343 1343 1343 1359 1433 1433 1439 1439 1439 1439 1439 1439 1439 1439 1439 1439 1439 1439 1439 1439 1439 1445 1445 1445 1445 1445 1439 1439 1433 1433 1433 1433 1433 1433 1439 1439 1445 1445 1445 1445 1445 1445 1445 1439 1439 1439 1439 1439 1439 1439 1439 1439 1439 1439 1439 1439 1439 1439 1439 1439 1439 1439 1433 1433 1439 1439 1439 1439 1433 1433 1433 1433 1433 1433 1439 1439 1439 1439 1439 1439 1433 1433 1439 1439 1439 1439 1439 1439 1445 1445 1445 1445 1445 1445 1445 1445 1439 1439 1297 1297 1297 1297 1297 1297 1297 1297 1297 1297 1297 1297 1297 1297 1302 1307 1312 1312 1312 1433 1433 1433 1433 1433 1433 1439 1439 1439 1439 1439 1439 1439 1439 1439 1439 1439 1439 1439 1439 1439 1439 1439 1439 1439 1439 1439 1439 1439 1439 1439 1433 1433 1433 1433 1433 1433 1439 1439 1439 1439 1439 1439 1445 1445 1445 1445 1445 1445 1202 1202 1206 1206 1206 1210 1210 1210 1206 1206 1206 1206 1210 1210 1214 1219 1219 1223 1433 1433 1433 1433 1433 1439 1439 1439 1439 1445 1445 1445 1445 1445 1445 1445 1445 1445 1445 1445 1445 1445 1439 1439 1445 1445 1445 1445 1445 1445 1445 1445 1439 1439 1439 1445 1445 1445 1439 1439 1452 1452 1452 1452 1452 1452 1452 1452 1452 1452 1452 1445 1439 1439 1439 1439 1439 1439 1439 1445 1445 1445 1445 1445 1439 1439 1439 1439 1439 1439 1439 1439 1439 1439 1439 1445 1445 1445 1452 1445 1445 1452 1452 1452 1452 1452 1445 1445 1452 1445 1445 1445 1445 1445 1445 1445 1445 1445 1445 1452 1452 1452 1445 1445 1445 1445 1445 1452 1452 1452 1452 1452 1452 1181 1181 1177 1177 1177 1177 1177 1177 1177 1177 1177 1177 1177 1177 1177 1177 1177 1177 1177 1177 1458 1445 1445 1452 1452 1452 1452 1452 1452 1458 1452 1452 1452 1452 1452 1452 1452 1452 1452 1452 1458 1458 1458 1458 1458 1458 1458 1458 1452 1452 1458 1458 1458 1458 1458 1458 1458 1458 1452 1452 1452 1452 1452 1452 1452 1452 1458 1458 1458 1458 1452 1445 1439 1433 1433 1427 1427 1427 1427 1427 1427 1427 1427 1433 1427 1427 1427 1427 1427 1427 1433 1433 1439 1445 1445 1452 1452 1452 1452 1458 1452 1452 1452 1452 1452 1458 1458 1458 1458 1458 1452 1445 1445 1433 1433 1433 0 0 0 0 0 3653 3614 3614 3614 3614 3576 3576 3576 3576 3576 3576 3576 3576 3576 3576 3576 3576 3576 3614 3614 3614 3614 3653 3653 3178 3178 3178 3178 3208 3433 3399 3399 3433 3468 3468 3732 3732 3732 3732 3269 3269 3300 3300 3300 3300 3300 3300 3269 3238 3238 3238 3238 3238 3269 3269 3269 3269 3269 3300 3300 3300 3333 3333 3333 3300 3300 3333 3333 3333 3333 3333 3365 3365 3399 3399 3468 3503 0 0 0 0 0 0 0 0 0 0 0 0 3468 3433 3399 3300 3269 3238 3208 3208 3208 2933 2908 2908 2908 2908 2908 2908 2933 2958 2984 3010 3037 3037 3037 3010 3010 3010 0 0 0 0 0 0 0 0 0 0 0
0 0 0 0 0 0 0 0 0 0 0 0 0 0 0 0 0 0 0 0 0 0 0 0 0 0 0 0 0 0 0 3300 3269 3269 3269 3269 3269 3269 3269 3300 3300 3300 3300 3300 3269 3269 3269 3269 3269 3269 3269 3269 3300 3300 3333 3333 3333 3333 3300 3300 3300 3300 3300 3300 3300 3300 0 0 0 0 1427 1427 1427 1433 1433 1439 1439 1445 1445 1317 1317 1317 1317 1317 1322 1322 1322 1322 1322 1322 1322 1322 1333 1338 1338 1338 1343 1343 1343 1354 1433 1433 1439 1439 1439 1439 1439 1439 1439 1439 1439 1439 1439 1439 1439 1439 1439 1439 1439 1439 1439 1439 1433 1433 1433 1433 1433 1433 1433 1433 1433 1439 1439 1439 1439 1439 1445 1445 1439 1439 1439 1439 1439 1439 1439 1439 1439 1439 1439 1433 1433 1433 1433 1439 1439 1439 1439 1433 1433 1433 1433 1433 1433 1433 1433 1433 1433 1433 1433 1433 1433 1433 1433 1433 1433 1433 1433 1433 1433 1433 1433 1439 1439 1439 1439 1439 1439 1439 1439 1439 1439 1439 1433 1433 1439 1297 1297 1297 1297 1297 1297 1297 1297 1297 1297 1297 1297 1302 1302 1307 1312 1312 1312 1433 1433 1427 1427 1427 1427 1433 1433 1433 1433 1433 1433 1433 1433 1433 1433 1433 1433 1433 1433 1433 1433 1433 1433 1433 1433 1433 1433 1433 1433 1433 1427 1427 1427 1427 1427 1427 1427 1421 1421 1433 1433 1439 1439 1439 1439 1445 1445 1445 1445 1206 1206 1210 1210 1210 1214 1214 1210 1210 1210 1210 1210 1210 1214 1219 1223 1227 1427 1427 1427 1427 1427 1427 1427 1433 1433 1439 1439 1439 1439 1439 1439 1439 1439 1439 1439 1439 1439 1439 1439 1439 1439 1439 1439 1439 1439 1439 1439 1433 1433 1433 1433 1433 1433 1433 1433 1433 1439 1439 1439 1439 1439 1439 1445 1445 1445 1445 1445 1445 1439 1439 1439 1439 1439 1439 1439 1439 1439 1439 1439 1439 1439 1439 1439 1439 1433 1433 1433 1433 1433 1439 1439 1439 1439 1439 1445 1439 1439 1445 1445 1445 1445 1439 1439 1439 1445 1439 1439 1439 1445 1445 1445 1445 1445 1445 1445 1445 1445 1445 1445 1445 1445 1445 1445 1445 1445 1445 1445 1445 1445 1452 1452 1177 1177 1177 1177 1177 1177 1177 1177 1177 1177 1177 1177 1177 1177 1177 1177 1177 1177 1181 1433 1439 1445 1445 1439 1439 1445 1445 1452 1452 1452 1452 1452 1452 1445 1445 1445 1445 1445 1452 1445 1445 1445 1452 1452 1445 1445 1452 1452 1452 1452 1452 1452 1452 1452 1452 1452 1445 1445 1445 1439 1439 1445 1445 1445 1452 1452 1452 1452 1445 1439 1433 1433 1427 1427 1421 1421 1421 1421 1421 1427 1427 1427 1427 1427 1421 1421 1415 1415 1415 1421 1427 1433 1433 1433 1433 1439 1439 1445 1445 1445 1445 1445 1445 1445 1445 1445 1445 1445 1445 1439 1433 1427 1427 1421 1421 1421 0 0 0 3576 3576 3576 3576 3576 3576 3576 3576 3576 3576 3576 3576 3576 3576 3576 3576 3576 3576 3614 3576 3576 3614 3614 3614 3149 3149 3178 3178 3208 3333 3399 3399 3365 3333 3333 3333 3300 3300 3269 3269 3269 3300 3300 3300 3300 3300 3300 3300 3269 3269 3238 3238 3269 3269 3269 3269 3269 3300 3333 3365 3365 3433 3433 3399 3365 3365 3365 3365 3365 3365 3365 3399 3399 3468 3468 3468 3503 0 0 0 0 0 0 0 0 0 0 0 0 0 3433 3433 3365 3300 3238 3208 3208 3208 2908 2908 2908 2908 2908 2908 2908 2933 2958 2984 3010 3037 3037 3037 3010 3010 3010 0 0 0 0 0 0 0 0 0 0 0
0 0 0 0 0 0 0 0 0 0 0 0 0 0 0 0 0 0 0 0 0 0 0 0 0 0 0 0 0 0 0 0 3238 3238 3238 3238 3238 3238 3238 3269 3238 3238 3269 3269 3238 3238 3238 3238 3269 3269 3269 3269 3269 3300 3300 3300 3300 3300 3300 3269 3269 3269 3269 3300 3300 3300 3300 0 0 1433 1433 1433 1433 1439 1439 1439 1439 1445 1445 1317 1317 1317 1317 1317 1322 1322 1322 1322 1322 1322 1322 1322 1333 1338 1338 1338 1343 1343 1338 1338 1343 1338 1338 1433 1433 1433 1439 1439 1439 1439 1439 1439 1433 1433 1433 1433 1433 1433 1433 1433 1433 1433 1433 1427 1427 1427 1427 1427 1333 1333 1333 1333 1333 1439 1439 1439 1439 1439 1433 1433 1433 1439 1439 1439 1433 1433 1439 1433 1433 1433 1433 1433 1433 1433 1433 1433 1433 1427 1427 1433 1433 1433 1433 1433 1427 1427 1427 1427 1427 1427 1427 1433 1433 1433 1427 1427 1433 1433 1433 1433 1433 1433 1433 1433 1433 1433 1427 1427 1427 1427 1433 1433 1433 1433 1433 1297 1297 1297 1297 1297 1302 1302 1297 1297 1297 1302 1302 1302 1302 1307 1312 1312 1312 1427 1427 1427 1427 1427 1427 1427 1427 1427 1427 1427 1427 1427 1427 1427 1427 1427 1427 1427 1427 1427 1427 1427 1427 1427 1427 1427 1427 1427 1427 1427 1421 1421 1421 1421 1421 1421 1421 1421 1421 1427 1427 1427 1433 1433 1433 1433 1439 1445 1197 1197 1206 1210 1210 1210 1214 1214 1210 1210 1210 1210 1210 1214 1219 1219 1223 1227 1427 1427 1421 1421 1421 1421 1421 1427 1427 1427 1433 1433 1433 1433 1433 1439 1433 1433 1433 1433 1433 1433 1433 1433 1433 1433 1433 1433 1433 1427 1427 1427 1427 1427 1427 1427 1427 1427 1427 1427 1433 1427 1427 1433 1433 1433 1433 1433 1439 1439 1439 1439 1433 1433 1433 1433 1433 1433 1433 1433 1433 1433 1433 1433 1433 1433 1433 1433 1433 1433 1433 1433 1433 1433 1433 1433 1433 1439 1439 1439 1439 1439 1439 1439 1439 1439 1433 1433 1439 1433 1433 1439 1439 1439 1439 1439 1439 1439 1445 1445 1439 1439 1439 1439 1439 1439 1439 1439 1445 1445 1445 1445 1445 1452 1452 1177 1177 1177 1177 1177 1177 1177 1177 1177 1177 1177 1177 1177 1177 1177 1177 1181 1181 1181 1433 1433 1439 1439 1439 1439 1439 1439 1445 1445 1445 1439 1439 1445 1445 1445 1439 1439 1439 1439 1439 1439 1439 1439 1445 1445 1445 1445 1445 1445 1445 1445 1445 1445 1445 1439 1439 1433 1433 1433 1433 1433 1433 1439 1439 1439 1445 1445 1445 1433 1427 1427 1427 1421 1421 1415 1415 1415 1415 1415 1415 1415 1415 1415 1415 1415 1415 1415 1415 1415 1415 1421 1421 1415 1415 1421 1427 1427 1433 1439 1433 1433 1439 1439 1439 1439 1439 1439 1433 1433 1433 1427 1427 1427 1421 1421 1415 1415 0 0 0 3576 3576 3576 3576 3539 3539 3539 3539 3539 3539 3539 3539 3539 3539 3539 3539 3539 3539 3539 3576 3576 3576 3576 3149 3149 3178 3178 3238 3269 3365 3365 3333 3300 3300 3300 3300 3300 3269 3269 3300 3300 3300 3300 3300 3300 3300 3300 3269 3269 3269 3269 3269 3269 3269 3300 3300 3399 3468 3433 3433 3468 3468 3433 3399 3399 3399 3399 3399 3399 3399 3433 3433 3468 3468 3468 3503 0 0 0 0 0 0 0 0 0 0 0 0 3468 3433 3433 3399 3365 3269 3238 3208 3208 2908 2908 2908 2908 2908 2908 2908 2933 2958 2984 3010 3037 3037 3010 3010 3010 3010 0 0 0 0 0 0 0 0 0 0 0
0 0 0 0 0 0 0 0 0 0 0 0 0 0 0 0 0 0 0 0 0 0 0 0 0 0 0 0 0 0 0 0 3238 3238 3238 3238 3238 3238 3238 3238 3208 3208 3238 3238 3238 3238 3238 3238 3238 3238 3238 3238 3269 3269 3269 3269 3269 3269 3269 3238 3238 3238 3238 3269 3238 3238 3238 3208 0 1433 1433 1433 1433 1439 1439 1439 1439 1445 1445 1445 1322 1322 1322 1322 1322 1322 1322 1322 1322 1322 1322 1333 1333 1338 1338 1338 1343 1343 1338 1338 1343 1338 1338 1338 1333 1333 1343 1338 1338 1343 1343 1433 1433 1433 1433 1433 1433 1433 1343 1343 1338 1338 1333 1333 1333 1328 1328 1328 1328 1328 1328 1328 1333 1333 1333 1328 1328 1328 1333 1433 1433 1439 1439 1439 1433 1433 1439 1433 1433 1433 1433 1433 1433 1433 1433 1433 1433 1427 1427 1427 1427 1427 1427 1427 1427 1427 1427 1427 1427 1427 1427 1427 1427 1427 1427 1427 1427 1427 1427 1427 1427 1427 1427 1427 1427 1427 1427 1427 1427 1427 1427 1427 1427 1427 1433 1297 1297 1297 1297 1302 1302 1302 1302 1302 1302 1302 1302 1302 1307 1307 1312 1312 1312 1427 1427 1427 1427 1427 1427 1427 1427 1427 1427 1427 1427 1427 1427 1427 1427 1427 1427 1427 1421 1421 1421 1421 1421 1421 1421 1421 1421 1421 1421 1421 1415 1415 1415 1415 1415 1415 1415 1415 1421 1421 1421 1421 1421 1427 1427 1427 1433 1433 1197 1197 1206 1210 1210 1214 1214 1214 1214 1214 1214 1214 1214 1214 1219 1219 1223 1421 1421 1421 1421 1421 1421 1421 1421 1421 1421 1421 1421 1421 1421 1427 1427 1427 1427 1427 1427 1427 1427 1427 1427 1427 1427 1427 1427 1427 1427 1421 1421 1421 1421 1421 1421 1421 1421 1421 1421 1421 1421 1427 1427 1421 1421 1427 1427 1427 1433 1433 1433 1433 1427 1427 1427 1427 1427 1427 1427 1427 1427 1427 1427 1427 1427 1427 1427 1427 1427 1427 1427 1427 1427 1427 1427 1427 1427 1427 1433 1433 1433 1433 1433 1433 1433 1433 1433 1433 1433 1433 1433 1433 1433 1433 1439 1439 1439 1439 1439 1439 1439 1439 1433 1433 1433 1433 1433 1439 1439 1433 1433 1439 1439 1452 1181 1177 1177 1177 1177 1181 1181 1181 1181 1181 1181 1181 1177 1177 1177 1177 1177 1181 1181 1181 1427 1433 1433 1439 1433 1433 1433 1433 1433 1427 1427 1427 1427 1433 1433 1433 1433 1433 1433 1433 1439 1433 1433 1439 1439 1439 1439 1433 1433 1433 1433 1433 1433 1433 1433 1433 1427 1427 1427 1427 1427 1427 1427 1427 1427 1433 1433 1433 1433 1427 1421 1421 1421 1415 1415 1410 1410 1410 1410 1404 1404 1404 1410 1404 1404 1410 1410 1410 1410 1410 1410 1410 1410 1410 1410 1410 1415 1421 1421 1427 1427 1433 1433 1433 1433 1433 1433 1427 1427 1427 1427 1427 1421 1421 1421 1421 1415 1415 0 0 0 3614 3614 3576 3576 3539 3503 3503 3503 3503 3503 3539 3503 3503 3503 3503 3503 3503 3503 3503 3503 3539 3576 3576 3178 3178 3208 3208 3269 3269 3333 3333 3333 3300 3300 3300 3300 3300 3269 3269 3300 3300 3300 3300 3300 3300 3300 3300 3269 3269 3269 3269 3269 3269 3300 3300 3333 3399 3433 3468 3468 3468 3433 3433 3399 3399 3399 3399 3399 3399 3433 3433 3468 3468 3468 3468 3468 3468 3468 0 0 0 0 0 0 0 0 0 3433 3433 3433 3433 3433 3365 3333 3300 3269 2883 2883 2883 2883 2908 2908 2908 2908 2908 2933 2958 2984 3010 3010 3010 3010 3010 3010 0 0 0 0 0 0 0 0 0 0 0
0 0 0 0 0 0 0 0 0 0 0 0 0 0 0 0 0 0 0 0 0 0 0 0 0 0 0 0 0 0 0 0 3208 3208 3208 3208 3208 3208 3208 3208 3208 3208 3208 3208 3238 3238 3238 3238 3238 3238 3238 3238 3238 3238 3238 3238 3269 3269 3238 3238 3238 3238 3238 3238 3208 3208 3208 3208 3178 3178 1433 1433 1433 1439 1439 1439 1445 1445 1445 1445 1322 1322 1322 1322 1322 1322 1328 1328 1328 1328 1328 1333 1333 1338 1338 1343 1343 1343 1343 1343 1343 1343 1338 1338 1333 1333 1343 1338 1338 1338 1338 1338 1338 1338 1433 1433 1433 1338 1338 1338 1338 1338 1333 1333 1333 1328 1328 1328 1328 1328 1328 1328 1333 1333 1333 1328 1328 1328 1328 1328 1328 1328 1328 1322 1322 1322 1322 1322 1322 1322 1322 1322 1322 1322 1322 1322 1328 1322 1317 1317 1317 1317 1317 1317 1421 1421 1421 1317 1317 1317 1421 1421 1427 1427 1427 1427 1427 1427 1427 1427 1427 1427 1427 1421 1421 1421 1421 1421 1421 1421 1427 1427 1427 1427 1433 1302 1302 1302 1302 1307 1307 1307 1307 1307 1307 1307 1307 1307 1307 1307 1312 1307 1307 1427 1421 1421 1421 1421 1421 1427 1427 1427 1427 1427 1427 1427 1427 1421 1421 1421 1421 1421 1421 1421 1421 1415 1415 1415 1415 1415 1415 1421 1421 1421 1415 1415 1415 1415 1410 1410 1410 1410 1415 1415 1415 1415 1415 1415 1415 1415 1410 1410 1202 1202 1210 1210 1210 1214 1214 1214 1214 1214 1214 1214 1214 1214 1219 1219 1219 1421 1415 1415 1415 1415 1415 1415 1415 1415 1415 1415 1410 1410 1410 1415 1415 1421 1421 1421 1421 1421 1421 1421 1421 1421 1421 1421 1421 1421 1421 1421 1421 1421 1421 1421 1421 1415 1415 1421 1415 1415 1415 1415 1415 1415 1415 1421 1421 1421 1427 1427 1427 1427 1421 1421 1421 1421 1421 1421 1421 1421 1421 1421 1421 1421 1421 1421 1421 1421 1421 1421 1421 1421 1421 1421 1421 1421 1421 1421 1427 1427 1427 1427 1427 1427 1427 1427 1427 1427 1421 1421 1427 1427 1427 1427 1433 1433 1427 1427 1433 1433 1433 1433 1427 1427 1427 1427 1427 1427 1427 1421 1421 1427 1433 1433 1181 1177 1177 1181 1181 1181 1181 1181 1181 1181 1181 1181 1181 1181 1181 1181 1181 1181 1181 1181 1427 1427 1433 1433 1427 1427 1427 1421 1421 1421 1421 1415 1415 1415 1421 1421 1427 1427 1427 1433 1433 1433 1433 1433 1433 1433 1433 1427 1427 1427 1427 1427 1427 1421 1421 1421 1421 1421 1421 1415 1415 1421 1421 1421 1421 1421 1421 1421 1421 1421 1421 1415 1415 1410 1410 1410 1404 1404 1404 1404 1398 1398 1398 1398 1398 1398 1398 1398 1404 1404 1404 1404 1404 1404 1404 1404 1404 1410 1410 1415 1421 1427 1427 1427 1427 1427 1427 1421 1421 1421 1421 1421 1421 1415 1415 1415 1410 1404 1404 0 0 0 0 0 3503 3503 3503 3503 3503 3503 3503 3503 3468 3468 3468 3468 3468 3503 3468 3468 3468 3539 3064 3064 3064 3208 3208 3269 3333 3333 3333 3333 3333 3300 3300 3300 3300 3300 3300 3300 3300 3300 3300 3300 3300 3300 3300 3300 3269 3269 3269 3269 3269 3269 3300 3333 3365 3433 3433 3468 3468 3433 3433 3433 3399 3399 3399 3399 3399 3399 3433 3433 3433 3468 3468 3468 3468 3433 3433 3365 3365 0 0 0 0 0 0 0 3433 3433 3433 3433 3399 3399 3365 3365 3365 2883 2883 2883 2883 2883 2883 2908 2908 2908 2933 2958 2984 3010 3010 3010 3010 3010 3010 0 0 0 0 0 0 0 0 0 0 0
0 0 0 0 0 0 0 0 0 0 0 0 0 0 0 0 0 0 0 0 0 0 0 0 0 0 0 0 0 0 0 0 3208 3208 3208 3208 3208 3208 3208 3208 3208 3208 3208 3208 3208 3208 3208 3208 3208 3238 3208 3208 3238 3238 3238 3238 3238 3269 3238 3238 3238 3238 3238 3238 3208 3208 3178 3178 3178 3178 0 1445 1445 1445 1445 1445 1445 1452 1452 1452 1464 1328 1328 1328 1328 1328 1328 1328 1328 1328 1333 1333 1333 1338 1338 1343 1343 1343 1343 1343 1343 1343 1338 1338 1338 1338 1338 1338 1338 1338 1338 1338 1338 1338 1338 1338 1338 1338 1338 1338 1338 1338 1338 1338 1333 1328 1328 1328 1328 1333 1333 1333 1328 1328 1333 1333 1333 1328 1328 1328 1328 1328 1328 1322 1322 1322 1322 1322 1322 1322 1322 1322 1322 1322 1322 1322 1328 1322 1317 1317 1317 1317 1317 1317 1317 1322 1317 1317 1317 1317 1317 1322 1322 1333 1333 1333 1333 1333 1333 1333 1333 1333 1333 1333 1421 1421 1421 1421 1421 1421 1421 1427 1427 1427 1427 1312 1312 1307 1307 1307 1307 1307 1307 1307 1307 1307 1307 1307 1307 1307 1312 1307 1307 1427 1421 1421 1421 1421 1421 1421 1421 1421 1421 1421 1421 1421 1421 1421 1421 1421 1421 1421 1415 1415 1415 1415 1415 1415 1415 1415 1415 1415 1415 1415 1410 1410 1415 1410 1410 1410 1410 1410 1410 1410 1410 1410 1410 1404 1404 1404 1404 1404 1404 1404 1214 1214 1214 1214 1214 1219 1214 1214 1214 1214 1214 1214 1219 1219 1219 1421 1415 1415 1410 1410 1410 1410 1410 1410 1410 1410 1404 1404 1404 1410 1410 1410 1410 1415 1415 1415 1415 1415 1415 1415 1415 1415 1415 1415 1415 1415 1415 1415 1415 1415 1415 1415 1415 1415 1415 1415 1410 1410 1415 1410 1410 1415 1415 1415 1421 1415 1410 1410 1410 1410 1404 1404 1404 1404 1410 1410 1410 1415 1415 1415 1415 1415 1415 1415 1415 1415 1415 1415 1415 1415 1410 1410 1410 1415 1415 1415 1415 1421 1421 1421 1421 1415 1415 1415 1415 1415 1415 1415 1421 1421 1421 1421 1421 1421 1427 1427 1427 1427 1421 1421 1421 1421 1421 1421 1421 1415 1415 1415 1421 1421 1181 1181 1181 1181 1181 1181 1181 1181 1181 1181 1181 1181 1181 1181 1181 1181 1181 1181 1181 1181 1421 1427 1427 1433 1427 1421 1421 1415 1415 1415 1415 1410 1410 1410 1415 1415 1421 1421 1427 1427 1427 1427 1427 1427 1427 1427 1427 1421 1421 1421 1415 1415 1415 1415 1415 1410 1410 1415 1415 1410 1410 1415 1415 1415 1415 1415 1415 1415 1415 1415 1415 1415 1410 1404 1404 1404 1398 1392 1392 1392 1392 1392 1392 1392 1392 1392 1392 1392 1398 1398 1398 1398 1398 1398 1398 1398 1398 1404 1404 1404 1415 1421 1421 1421 1421 1421 1421 1415 1415 1415 1415 1421 1415 1415 1410 1410 1404 1404 1404 1404 0 0 0 0 3468 3468 3468 3468 3468 3468 3468 3503 3468 3468 3468 3468 3468 3468 3433 3433 3433 3037 3037 3064 3120 3178 3208 3269 3300 3333 3333 3333 3333 3300 3300 3300 3300 3300 3300 3300 3333 3333 3333 3333 3333 3333 3300 3300 3300 3300 3300 3300 3300 3300 3365 3399 3433 3433 3433 3468 3468 3433 3433 3433 3399 3399 3399 3399 3399 3433 3433 3433 3433 3433 3433 3433 3433 3433 3433 3365 3365 3365 0 0 0 0 0 0 3399 3399 3399 3399 3399 3399 3365 3365 2908 2883 2883 2883 2883 2883 2883 2883 2883 2883 2883 2908 2908 2958 3010 3010 3010 2984 2984 0 0 0 0 0 0 0 0 0 0 0
0 0 0 0 0 0 0 0 0 0 0 0 0 0 0 0 0 0 0 0 0 0 0 0 0 0 0 0 0 0 0 0 3208 3208 3208 3208 3208 3208 3208 3208 3178 3178 3208 3208 3208 3208 3208 3208 3208 3208 3208 3208 3208 3238 3208 3208 3208 3238 3208 3208 3208 3208 3208 3238 3208 3208 3178 3178 3178 3149 3149 3149 1445 1445 1445 1445 1445 1452 1452 1452 1452 1328 1328 1328 1328 1328 1328 1328 1333 1333 1333 1333 1338 1338 1338 1343 1343 1343 1343 1343 1343 1343 1338 1338 1338 1338 1338 1338 1338 1338 1338 1338 1338 1338 1338 1338 1338 1338 1338 1338 1338 1338 1338 1338 1333 1328 1328 1328 1328 1328 1333 1328 1328 1328 1333 1333 1328 1322 1322 1328 1328 1328 1322 1322 1328 1322 1322 1322 1322 1322 1322 1322 1322 1328 1328 1328 1328 1322 1317 1317 1317 1322 1317 1317 1317 1322 1317 1317 1317 1317 1317 1322 1322 1333 1333 1333 1333 1333 1328 1328 1328 1333 1333 1333 1328 1328 1328 1328 1328 1328 1333 1333 1333 1333 1328 1322 1312 1307 1307 1307 1307 1312 1312 1307 1307 1307 1307 1307 1307 1312 1312 1312 1312 1421 1421 1421 1421 1421 1421 1421 1421 1421 1421 1421 1421 1421 1421 1421 1421 1421 1421 1415 1415 1415 1415 1415 1415 1415 1415 1415 1415 1415 1415 1415 1410 1410 1410 1410 1410 1410 1404 1404 1404 1404 1404 1404 1404 1404 1404 1404 1404 1404 1404 1404 1214 1214 1214 1214 1219 1219 1219 1219 1214 1214 1214 1219 1219 1219 1219 1410 1410 1410 1410 1404 1404 1404 1410 1410 1404 1404 1404 1404 1404 1404 1404 1404 1404 1404 1404 1404 1404 1404 1404 1404 1410 1410 1410 1410 1410 1410 1410 1410 1410 1410 1410 1410 1410 1415 1410 1410 1410 1410 1410 1404 1404 1404 1410 1410 1410 1404 1404 1404 1398 1398 1398 1398 1398 1398 1398 1404 1404 1404 1404 1404 1410 1410 1410 1410 1410 1410 1410 1410 1410 1404 1404 1404 1404 1410 1410 1410 1410 1415 1415 1410 1410 1410 1410 1410 1410 1410 1410 1410 1410 1410 1415 1415 1415 1415 1415 1415 1415 1415 1415 1415 1415 1415 1415 1415 1415 1415 1415 1415 1415 1415 1185 1181 1181 1181 1181 1181 1181 1181 1181 1181 1181 1181 1181 1181 1181 1181 1181 1185 1185 1185 1415 1415 1421 1421 1415 1415 1410 1410 1410 1404 1404 1404 1404 1410 1410 1410 1415 1415 1421 1421 1427 1427 1427 1427 1421 1415 1415 1410 1410 1410 1410 1410 1410 1404 1404 1404 1404 1404 1404 1404 1404 1410 1410 1410 1410 1410 1410 1410 1410 1410 1415 1410 1410 1398 1398 1398 1392 1387 1387 1387 1387 1387 1387 1387 1387 1387 1387 1387 1392 1392 1392 1398 1392 1392 1392 1392 1392 1398 1398 1398 1404 1410 1415 1421 1415 1415 1415 1410 1410 1410 1410 1410 1410 1404 1404 1404 1404 1398 1398 1398 0 0 0 0 3468 3468 3468 3468 3468 3468 3468 3503 3433 3433 3433 3433 3433 3433 3399 3399 3399 3037 3037 3064 3120 3178 3208 3269 3300 3333 3333 3333 3333 3300 3300 3300 3300 3300 3300 3300 3333 3333 3333 3333 3333 3333 3333 3333 3365 3365 3365 3365 3365 3399 3433 3433 3433 3468 3468 3468 3468 3433 3433 3433 3433 3433 3399 3399 3433 3433 3433 3433 3433 3433 3433 3433 3399 3399 3399 3399 3365 3365 3365 0 0 3365 3365 3365 3399 3399 3399 3399 3365 3365 3365 3399 2908 2883 2883 2883 2883 2883 2883 2883 2859 2859 2883 2883 2908 2958 3010 3010 3010 2984 2984 0 0 0 0 0 0 0 0 0 0 0
0 0 0 0 0 0 0 0 0 0 0 0 0 0 0 0 0 0 0 0 0 0 0 0 0 0 0 0 0 0 0 0 3208 3208 3208 3208 3208 3208 3208 3208 3178 3178 3178 3178 3178 3208 3208 3208 3208 3208 3208 3208 3208 3208 3208 3208 3208 3208 3208 3208 3208 3208 3208 3208 3178 3178 3178 3178 3178 3149 3149 3208 3208 3208 0 1452 1452 1452 1458 1458 1458 1328 1328 1328 1328 1328 1333 1333 1333 1333 1338 1338 1338 1338 1338 1343 1343 1343 1343 1343 1343 1343 1338 1338 1338 1338 1338 1338 1338 1338 1338 1338 1338 1338 1343 1338 1338 1338 1338 1338 1338 1338 1338 1338 1333 1328 1328 1328 1328 1328 1333 1328 1328 1328 1328 1328 1328 1322 1322 1328 1328 1328 1322 1322 1322 1322 1322 1322 1322 1322 1322 1322 1328 1328 1328 1328 1328 1322 1317 1317 1317 1322 1322 1322 1322 1322 1328 1328 1328 1328 1328 1333 1333 1333 1333 1333 1333 1333 1328 1328 1328 1328 1333 1333 1328 1328 1328 1328 1328 1328 1333 1333 1333 1333 1328 1322 1317 1312 1312 1312 1312 1312 1312 1312 1312 1312 1312 1312 1312 1312 1317 1312 1312 1421 1421 1421 1421 1421 1421 1421 1421 1421 1421 1421 1421 1421 1415 1415 1421 1415 1415 1415 1415 1415 1410 1410 1410 1410 1410 1410 1410 1410 1410 1410 1410 1410 1410 1404 1404 1404 1404 1404 1398 1398 1398 1398 1404 1398 1398 1398 1398 1404 1404 1404 1404 1214 1214 1219 1219 1219 1219 1219 1219 1219 1219 1219 1219 1219 1219 1404 1404 1404 1404 1404 1404 1404 1404 1404 1404 1404 1404 1398 1398 1398 1398 1398 1398 1404 1404 1404 1404 1404 1404 1404 1404 1404 1404 1404 1404 1404 1410 1404 1404 1404 1404 1404 1410 1410 1404 1404 1404 1404 1404 1404 1404 1404 1404 1404 1404 1398 1398 1398 1398 1392 1392 1392 1392 1398 1398 1398 1398 1398 1398 1398 1398 1398 1398 1398 1398 1404 1404 1404 1398 1398 1398 1398 1398 1398 1404 1404 1404 1404 1404 1404 1404 1404 1398 1398 1398 1398 1398 1398 1398 1404 1404 1404 1404 1404 1404 1404 1404 1404 1404 1404 1404 1410 1410 1410 1410 1410 1404 1404 1415 1193 1185 1185 1181 1181 1181 1185 1181 1181 1185 1185 1185 1185 1185 1185 1185 1185 1185 1185 1185 1185 1404 1404 1410 1410 1404 1404 1404 1404 1404 1404 1404 1404 1404 1404 1404 1404 1410 1410 1410 1410 1410 1415 1421 1410 1404 1398 1398 1398 1398 1398 1398 1404 1404 1404 1404 1404 1404 1404 1404 1404 1404 1404 1404 1404 1404 1404 1404 1410 1404 1404 1410 1404 1398 1392 1392 1387 1387 1387 1381 1381 1381 1381 1381 1381 1381 1381 1381 1387 1387 1387 1387 1392 1392 1392 1392 1387 1387 1392 1392 1392 1392 1398 1404 1410 1404 1398 1398 1398 1398 1398 1398 1404 1404 1404 1404 1404 1404 1398 1398 1398 0 0 0 0 0 0 3503 3503 3468 3468 3468 3468 3433 3433 3399 3399 3399 3399 3365 3365 3365 3399 3120 3120 3149 3208 3208 3300 3333 3333 3333 3333 3333 3300 3300 3333 3333 3333 3333 3333 3333 3333 3333 3365 3333 3333 3365 3365 3399 3399 3399 3399 3399 3433 3433 3433 3433 3468 3468 3468 3468 3433 3433 3433 3433 3433 3433 3433 3433 3433 3433 3433 3433 3399 3399 3399 3399 3399 3399 3365 3365 3365 3365 0 0 3365 3365 3365 3399 3399 3399 3399 3365 3365 3365 3365 2908 2908 2908 2908 2908 2883 2883 2883 2859 2859 2883 2883 2908 3010 3010 3010 3010 2984 2984 0 0 0 0 0 0 0 0 0 0 0
0 0 0 0 0 0 0 0 0 0 0 0 0 0 0 0 0 0 0 0 0 0 0 0 0 0 0 0 0 0 0 0 3178 3178 3178 3178 3178 3178 3178 3178 3178 3178 3178 3178 3178 3178 3178 3178 3178 3208 3208 3178 3178 3178 3178 3178 3178 3208 3208 3208 3208 3208 3208 3208 3178 3178 3178 3178 3178 3178 3178 3208 3208 0 0 0 0 0 0 0 1328 1328 1328 1328 1328 1333 1333 1333 1338 1338 1338 1338 1338 1338 1343 1343 1343 1343 1343 1343 1343 1343 1338 1338 1338 1338 1338 1338 1338 1338 1338 1338 1338 1338 1338 1338 1338 1338 1338 1338 1333 1333 1338 1338 1333 1333 1333 1328 1328 1333 1333 1328 1328 1328 1328 1328 1328 1328 1328 1328 1328 1328 1328 1328 1322 1322 1322 1322 1322 1322 1322 1322 1328 1328 1328 1328 1328 1322 1317 1317 1317 1317 1322 1322 1322 1322 1328 1328 1328 1328 1328 1333 1333 1333 1333 1333 1333 1333 1328 1328 1328 1328 1328 1328 1328 1328 1328 1328 1328 1328 1328 1333 1333 1333 1328 1328 1322 1317 1317 1312 1312 1312 1312 1312 1312 1312 1312 1312 1312 1312 1317 1312 1312 1421 1421 1421 1421 1421 1421 1415 1415 1415 1421 1421 1421 1421 1415 1415 1421 1415 1415 1415 1415 1415 1410 1410 1410 1410 1410 1410 1410 1410 1410 1410 1410 1404 1404 1404 1404 1404 1398 1398 1398 1398 1398 1398 1398 1398 1398 1398 1398 1404 1404 1404 1404 1219 1219 1219 1219 1219 1219 1219 1219 1219 1219 1219 1219 1223 1223 1398 1398 1404 1398 1398 1398 1398 1404 1404 1398 1398 1398 1398 1398 1398 1398 1398 1398 1398 1398 1398 1398 1398 1398 1398 1398 1398 1398 1398 1404 1404 1404 1404 1404 1398 1398 1404 1404 1404 1398 1398 1398 1398 1398 1398 1398 1398 1398 1398 1398 1398 1398 1398 1392 1392 1392 1392 1392 1392 1392 1392 1392 1392 1392 1392 1392 1392 1392 1392 1392 1392 1392 1398 1392 1392 1392 1392 1392 1392 1398 1398 1398 1398 1398 1398 1398 1398 1392 1392 1392 1392 1392 1392 1398 1398 1398 1398 1398 1398 1398 1398 1398 1398 1398 1398 1398 1398 1398 1398 1398 1398 1398 1398 1398 1193 1189 1189 1185 1185 1185 1189 1185 1185 1185 1189 1189 1189 1185 1185 1185 1185 1185 1185 1185 1185 1398 1398 1398 1404 1392 1392 1392 1398 1398 1398 1398 1398 1398 1398 1398 1404 1404 1404 1404 1404 1404 1398 1387 1387 1387 1387 1387 1387 1392 1392 1392 1398 1398 1398 1398 1398 1398 1398 1398 1398 1398 1398 1398 1398 1398 1398 1398 1398 1398 1398 1398 1398 1392 1387 1387 1387 1387 1381 1381 1381 1376 1376 1381 1381 1376 1376 1381 1381 1381 1381 1381 1381 1387 1387 1381 1381 1381 1387 1381 1381 1387 1387 1387 1387 1387 1387 1387 1392 1392 1392 1392 1398 1404 1398 1398 1398 1398 1398 1398 0 0 0 0 0 0 0 0 0 3468 3433 3433 3433 3399 3399 3399 3399 3399 3399 3365 3365 3365 3399 3120 3120 3120 3208 3208 3300 3333 3333 3333 3333 3300 3300 3300 3300 3300 3333 3333 3333 3333 3333 3365 3365 3365 3365 3399 3399 3433 3433 3433 3433 3433 3433 3433 3433 3433 3433 3433 3433 3433 3433 3433 3433 3433 3433 3433 3433 3433 3433 3433 3433 3433 3365 3365 3399 3365 3365 3399 3365 3333 3333 3333 0 3269 3300 3300 3365 3365 3365 3365 3365 3365 3333 3300 3300 2933 2908 2908 2908 2908 2883 2883 2883 2883 2883 2859 2859 2859 3010 3010 3010 3010 2984 2984 0 0 0 0 0 0 0 0 0 0 0
0 0 0 0 0 0 0 0 0 0 0 0 0 0 0 0 0 0 0 0 0 0 0 0 0 0 0 0 0 0 0 0 3178 3178 3178 3178 3178 3149 3149 3149 3149 3149 3149 3149 3149 3149 3149 3178 3178 3178 3178 3178 3178 3178 3178 3178 3178 3178 3178 3178 3208 3208 3208 3208 3178 3178 3178 3178 3178 3178 3178 3208 3208 3208 0 0 0 0 0 0 0 1317 1333 1333 1333 1333 1338 1338 1338 1338 1338 1338 1343 1343 1343 1343 1343 1343 1343 1343 1343 1343 1338 1338 1338 1338 1338 1338 1338 1338 1338 1338 1338 1338 1338 1338 1338 1338 1338 1338 1333 1333 1338 1338 1333 1333 1333 1333 1333 1333 1333 1333 1328 1328 1328 1328 1328 1328 1328 1328 1328 1328 1328 1328 1328 1328 1322 1322 1322 1322 1328 1328 1328 1328 1328 1328 1328 1322 1317 1317 1317 1317 1322 1322 1322 1322 1328 1328 1328 1333 1333 1333 1333 1333 1333 1333 1333 1328 1328 1328 1328 1328 1328 1322 1322 1328 1328 1328 1328 1328 1328 1333 1333 1333 1328 1328 1322 1317 1317 1312 1312 1312 1312 1312 1312 1312 1312 1312 1312 1312 1317 1317 1317 1421 1421 1421 1421 1421 1421 1415 1415 1415 1421 1421 1421 1421 1421 1421 1421 1415 1415 1415 1415 1415 1410 1410 1410 1410 1410 1410 1410 1410 1410 1410 1410 1404 1404 1404 1404 1404 1398 1398 1398 1398 1398 1398 1398 1398 1398 1398 1398 1404 1404 1404 1404 1219 1219 1219 1219 1219 1219 1219 1219 1219 1223 1223 1223 1223 1223 1232 1236 1398 1398 1398 1398 1398 1398 1398 1398 1398 1398 1398 1398 1398 1398 1398 1398 1398 1398 1398 1398 1398 1398 1398 1398 1398 1398 1398 1398 1398 1398 1398 1398 1398 1398 1398 1398 1398 1398 1398 1398 1398 1398 1398 1398 1398 1398 1398 1398 1398 1398 1398 1392 1392 1392 1392 1392 1392 1392 1392 1392 1392 1392 1392 1392 1392 1392 1392 1392 1392 1392 1392 1392 1392 1392 1392 1392 1392 1392 1392 1392 1392 1392 1392 1392 1392 1392 1392 1392 1392 1392 1392 1392 1392 1392 1392 1392 1392 1392 1392 1392 1392 1392 1392 1392 1398 1398 1398 1398 1398 1398 1392 1392 1193 1193 1189 1189 1189 1189 1189 1189 1189 1189 1189 1189 1189 1189 1189 1189 1189 1189 1189 1185 1185 1392 1392 1392 1398 1392 1392 1392 1392 1392 1392 1392 1392 1392 1392 1392 1398 1398 1392 1392 1392 1387 1387 1387 1381 1381 1381 1387 1387 1387 1387 1387 1392 1392 1392 1392 1398 1398 1392 1392 1392 1392 1392 1392 1392 1392 1392 1392 1392 1392 1392 1392 1392 1387 1387 1381 1381 1381 1381 1376 1376 1376 1376 1376 1376 1376 1376 1376 1376 1376 1376 1376 1376 1381 1381 1381 1381 1381 1381 1381 1381 1381 1381 1381 1381 1381 1381 1381 1387 1392 1392 1392 1398 1398 1398 1392 1392 1392 1392 1398 0 0 0 0 0 0 0 0 0 0 3399 3399 3399 3399 3399 3365 3365 3365 3365 3365 3365 3365 3149 3149 3149 3238 3238 3238 3333 3333 3333 3333 3333 3300 3300 3300 3300 3300 3333 3333 3333 3365 3365 3365 3399 3399 3399 3433 3433 3433 3433 3433 3433 3433 3433 3433 3433 3433 3433 3433 3433 3433 3433 3433 3433 3433 3433 3433 3433 3433 3399 3399 3399 3399 3365 3365 3365 3365 3365 3365 3365 3300 3300 3300 0 0 3269 3300 3300 3300 3333 3333 3365 3333 3300 3300 2908 2908 2908 2908 2908 2908 2883 2883 2883 2883 2859 2859 2859 2859 3010 3010 3010 3010 2984 2984 0 0 0 0 0 0 0 0 0 0 0
0 0 0 0 0 0 0 0 0 0 0 0 0 0 0 0 0 0 0 0 0 0 0 0 0 0 0 0 0 0 0 0 3149 3149 3149 3149 3149 3120 3120 3149 3120 3120 3149 3120 3120 3120 3120 3149 3149 3149 3149 3149 3149 3149 3149 3178 3178 3178 3178 3178 3208 3208 3208 3208 3149 3149 3178 3178 3178 3178 3178 3208 3208 3208 0 0 0 0 0 0 0 1317 1317 1317 1333 1333 1338 1338 1338 1338 1338 1338 1338 1338 1343 1343 1343 1343 1343 1343 1343 1343 1343 1343 1338 1338 1338 1338 1338 1338 1338 1338 1338 1338 1338 1338 1338 1338 1338 1338 1338 1338 1338 1338 1338 1338 1333 1333 1333 1333 1333 1333 1333 1333 1333 1333 1333 1328 1328 1328 1333 1333 1328 1328 1328 1328 1328 1328 1328 1328 1328 1328 1328 1328 1328 1328 1328 1322 1317 1317 1317 1317 1322 1322 1322 1328 1328 1328 1328 1333 1333 1333 1333 1333 1333 1328 1328 1328 1328 1322 1322 1322 1328 1322 1322 1322 1328 1328 1328 1328 1328 1333 1333 1333 1328 1328 1328 1317 1317 1317 1317 1312 1312 1312 1312 1312 1312 1312 1312 1312 1322 1317 1317 1317 1421 1421 1421 1421 1421 1421 1421 1421 1421 1421 1421 1421 1421 1421 1421 1415 1415 1415 1415 1415 1410 1410 1415 1415 1415 1415 1415 1415 1415 1415 1410 1410 1410 1404 1404 1404 1404 1404 1398 1398 1398 1398 1398 1398 1398 1398 1398 1404 1404 1404 1404 1223 1223 1223 1223 1219 1219 1223 1219 1219 1223 1223 1227 1227 1227 1232 1236 1398 1398 1398 1398 1398 1398 1398 1398 1398 1398 1398 1398 1398 1398 1398 1398 1398 1398 1398 1398 1398 1398 1398 1392 1392 1398 1398 1398 1398 1398 1398 1398 1398 1398 1398 1398 1398 1398 1398 1398 1398 1398 1398 1398 1398 1398 1398 1398 1398 1398 1398 1392 1392 1392 1392 1392 1392 1387 1387 1387 1387 1387 1387 1387 1387 1387 1387 1387 1387 1387 1387 1387 1392 1392 1392 1392 1392 1392 1392 1392 1392 1392 1392 1392 1392 1392 1392 1392 1392 1392 1392 1392 1392 1392 1392 1392 1392 1392 1392 1392 1392 1392 1392 1392 1392 1392 1392 1392 1392 1392 1392 1392 1392 1193 1193 1189 1189 1189 1193 1189 1189 1189 1189 1189 1189 1189 1193 1193 1193 1193 1193 1189 1189 1387 1387 1392 1392 1387 1387 1387 1387 1387 1387 1387 1387 1387 1387 1387 1387 1387 1387 1387 1387 1387 1387 1381 1381 1381 1381 1381 1381 1387 1387 1387 1387 1387 1387 1387 1387 1381 1381 1387 1387 1387 1387 1387 1387 1387 1387 1387 1381 1381 1381 1381 1381 1381 1381 1376 1376 1376 1376 1376 1370 1370 1370 1370 1370 1370 1370 1370 1370 1376 1370 1370 1370 1370 1376 1376 1376 1376 1376 1376 1376 1376 1376 1376 1376 1376 1376 1376 1381 1381 1387 1387 1387 1392 1387 1387 1387 1381 1381 0 0 0 0 0 0 0 0 0 0 0 3399 3365 3365 3365 3365 3365 3365 3365 3365 3365 3365 3365 3149 3120 3120 3149 3178 3238 3300 3333 3333 3333 3333 3333 3300 3300 3333 3333 3333 3365 3365 3399 3399 3399 3399 3399 3433 3433 3433 3433 3433 3433 3399 3399 3399 3399 3433 3433 3433 3433 3433 3433 3433 3433 3433 3433 3433 3433 3433 3399 3399 3399 3399 3399 3365 3365 3365 3333 3333 3365 3365 3300 3300 3300 3300 0 3269 3269 3269 3269 3300 3300 3333 3300 3300 3269 2908 2908 2908 2908 2908 2908 2883 2883 2883 2883 2859 2859 2859 3300 3269 3064 3010 3010 2984 2984 0 0 0 0 0 0 0 0 0 0 0
0 0 0 0 0 0 0 0 0 0 0 0 0 0 0 0 0 0 0 0 0 0 0 0 0 0 0 0 0 0 0 0 3149 3120 3120 3120 3120 3120 3120 3120 3120 3120 3120 3120 3120 3120 3120 3120 3120 3149 3120 3120 3149 3149 3149 3149 3149 3178 3178 3178 3178 3178 3178 3178 3149 3149 3149 3178 3178 3178 3178 3178 3208 3208 0 0 0 0 0 1302 1302 1302 1302 1317 1333 1338 1338 1338 1338 1338 1338 1338 1338 1338 1343 1343 1343 1343 1343 1343 1343 1343 1343 1343 1338 1338 1338 1338 1338 1338 1338 1338 1338 1338 1338 1338 1338 1338 1338 1338 1338 1338 1338 1338 1338 1338 1338 1338 1338 1338 1338 1333 1333 1333 1333 1333 1333 1333 1333 1333 1333 1333 1333 1333 1333 1333 1328 1328 1328 1328 1328 1328 1328 1328 1328 1328 1328 1328 1317 1317 1317 1322 1322 1322 1328 1328 1328 1328 1333 1333 1333 1333 1333 1333 1333 1328 1328 1328 1328 1322 1322 1322 1322 1322 1322 1322 1328 1328 1328 1328 1328 1333 1333 1333 1328 1328 1328 1322 1322 1317 1317 1312 1312 1312 1312 1312 1312 1312 1312 1317 1322 1328 1328 1328 1421 1421 1421 1421 1421 1421 1421 1421 1421 1421 1421 1421 1421 1421 1421 1421 1421 1415 1415 1415 1415 1415 1415 1415 1415 1415 1415 1415 1415 1415 1415 1410 1410 1410 1410 1410 1410 1404 1404 1404 1404 1404 1404 1404 1404 1404 1404 1404 1404 1410 1410 1227 1227 1227 1227 1227 1227 1223 1223 1223 1223 1227 1227 1232 1232 1232 1236 1241 1404 1404 1398 1398 1404 1398 1398 1398 1398 1398 1398 1398 1398 1398 1398 1398 1398 1398 1398 1398 1398 1398 1392 1392 1392 1392 1392 1392 1398 1392 1392 1392 1398 1398 1398 1398 1398 1398 1398 1398 1398 1398 1398 1398 1398 1398 1392 1392 1398 1398 1392 1392 1392 1392 1392 1392 1387 1387 1387 1387 1387 1387 1387 1387 1387 1387 1387 1387 1387 1387 1387 1387 1387 1387 1392 1392 1392 1392 1392 1392 1392 1392 1392 1387 1387 1387 1387 1387 1387 1387 1387 1392 1387 1387 1392 1392 1392 1392 1392 1387 1387 1387 1387 1387 1387 1387 1392 1392 1392 1392 1392 1392 1193 1193 1193 1193 1193 1193 1193 1193 1193 1193 1193 1193 1193 1193 1193 1193 1193 1193 1193 1193 1387 1387 1387 1387 1387 1381 1381 1381 1381 1381 1381 1381 1376 1376 1381 1381 1381 1381 1381 1381 1381 1381 1381 1381 1381 1381 1381 1381 1381 1381 1381 1381 1381 1381 1376 1376 1370 1370 1376 1376 1381 1381 1381 1381 1381 1381 1376 1376 1376 1381 1376 1376 1376 1376 1370 1370 1370 1370 1370 1365 1365 1365 1370 1365 1365 1365 1365 1370 1370 1365 1365 1365 1370 1370 1370 1370 1376 1376 1376 1376 1370 1370 1370 1370 1370 1370 1370 1376 1376 1376 1381 1381 1381 1370 1365 1365 1359 1359 0 0 0 0 0 0 0 0 0 0 0 0 3333 3333 3333 3333 3333 3365 3365 3365 3333 3333 3269 3149 3120 3120 3149 3178 3238 3300 3365 3333 3333 3333 3333 3300 3300 3333 3333 3333 3365 3365 3399 3399 3399 3399 3399 3399 3399 3399 3399 3399 3399 3399 3399 3399 3399 3399 3399 3399 3399 3399 3399 3399 3399 3399 3399 3433 3433 3433 3399 3399 3399 3399 3399 3365 3333 3333 3333 3333 3365 3333 3333 3300 3300 3300 0 3269 3269 3269 3269 3269 3300 3300 3300 3269 3238 2908 2908 2908 2908 2908 2908 2908 2908 2908 2883 2859 2859 3300 3300 3269 3269 3037 3010 2984 2984 0 0 0 0 0 0 0 0 0 0 0
0 0 0 0 0 0 0 0 0 0 0 0 0 0 0 0 0 0 0 0 0 0 0 0 0 0 0 0 0 0 0 0 3120 3120 3120 3120 3120 3120 3092 3092 3092 3092 3120 3120 3120 3120 3120 3120 3120 3120 3120 3120 3120 3120 3120 3120 3149 3149 3149 3149 3149 3149 3149 3178 3120 3120 3149 3149 3178 3178 3178 3178 3208 0 0 0 0 0 0 1302 1302 1302 1302 1317 1322 1338 1338 1338 1338 1338 1338 1338 1338 1338 1343 1343 1343 1343 1343 1343 1343 1343 1343 1343 1343 1343 1343 1343 1343 1338 1338 1343 1343 1338 1338 1338 1338 1338 1338 1338 1338 1338 1338 1338 1338 1338 1338 1338 1338 1338 1338 1338 1333 1333 1333 1333 1333 1333 1333 1333 1333 1333 1333 1333 1333 1333 1333 1333 1333 1333 1333 1333 1333 1328 1328 1328 1328 1328 1322 1322 1322 1322 1328 1328 1328 1328 1328 1328 1333 1333 1333 1333 1333 1333 1333 1328 1328 1328 1328 1328 1322 1322 1322 1322 1322 1322 1328 1328 1328 1328 1328 1328 1328 1328 1328 1328 1328 1322 1322 1317 1317 1317 1317 1317 1317 1317 1317 1317 1317 1322 1328 1333 1333 1333 1421 1421 1421 1421 1421 1421 1421 1421 1421 1421 1427 1427 1427 1427 1427 1421 1421 1421 1421 1421 1421 1421 1421 1421 1421 1421 1421 1421 1415 1415 1415 1415 1415 1410 1410 1410 1410 1410 1410 1410 1410 1410 1410 1410 1410 1404 1404 1410 1410 1410 1410 1232 1227 1227 1227 1227 1227 1227 1227 1227 1227 1227 1232 1232 1232 1232 1236 1241 1404 1404 1404 1404 1404 1404 1404 1398 1398 1398 1398 1398 1398 1398 1398 1398 1398 1398 1398 1398 1398 1398 1392 1392 1392 1392 1392 1392 1398 1392 1392 1392 1398 1398 1398 1398 1398 1398 1398 1398 1398 1398 1398 1398 1398 1398 1392 1392 1398 1398 1392 1392 1392 1392 1392 1392 1387 1387 1387 1387 1387 1387 1387 1387 1387 1387 1387 1387 1387 1387 1387 1387 1387 1387 1387 1387 1392 1387 1387 1387 1387 1387 1387 1387 1387 1387 1387 1387 1387 1387 1387 1387 1387 1387 1387 1387 1387 1387 1387 1387 1387 1387 1387 1387 1387 1387 1387 1387 1392 1392 1392 1392 1197 1193 1193 1193 1193 1193 1193 1193 1193 1193 1193 1193 1193 1193 1193 1193 1197 1193 1189 1189 1381 1381 1387 1387 1387 1381 1376 1376 1376 1376 1376 1376 1376 1376 1376 1376 1376 1376 1376 1381 1381 1381 1376 1376 1381 1381 1376 1376 1376 1381 1381 1376 1376 1376 1370 1370 1370 1370 1370 1370 1376 1376 1376 1376 1376 1376 1370 1370 1370 1376 1370 1370 1370 1370 1370 1365 1365 1365 1365 1365 1365 1365 1365 1365 1365 1365 1365 1365 1365 1365 1365 1365 1365 1365 1365 1365 1370 1370 1370 1370 1370 1370 1370 1370 1370 1365 1365 1370 1370 1370 1376 1370 1365 1359 1359 1354 1354 1354 1354 1354 0 0 0 0 0 0 0 0 0 0 3300 3300 3300 3333 3333 3365 3365 3365 3333 3300 3208 3178 3149 3149 3149 3208 3269 3333 3333 3333 3333 3333 3333 3333 3333 3333 3333 3365 3365 3365 3365 3365 3365 3399 3399 3399 3399 3399 3399 3399 3399 3399 3399 3399 3399 3399 3399 3399 3399 3399 3399 3399 3399 3399 3399 3399 3399 3399 3399 3399 3399 3399 3399 3365 3333 3333 3333 3333 3365 3333 3333 3300 3300 3300 3238 3269 3269 3269 3269 3269 3269 3300 3269 3269 3238 2908 2908 2908 2908 2908 2908 2908 2908 2908 2883 2883 3300 3300 3300 3300 3269 3037 3010 2984 2984 0 0 0 0 0 0 0 0 0 0 0
0 0 0 0 0 0 0 0 0 0 0 0 0 0 0 0 0 0 0 0 0 0 0 0 0 0 0 0 0 0 0 0 3120 3120 3120 3092 3092 3092 3092 3092 3092 3092 3092 3092 3092 3092 3092 3120 3120 3120 3120 3120 3120 3120 3120 3120 3120 3120 3120 3149 3149 3149 3149 3149 3120 3120 3149 3149 3178 3178 3178 3178 3208 0 0 0 0 0 0 1302 1302 1307 1307 1317 1322 1338 1338 1338 1338 1338 1343 1343 1343 1343 1343 1343 1343 1343 1349 1349 1343 1343 1343 1343 1343 1343 1343 1343 1343 1343 1343 1343 1343 1343 1343 1343 1343 1343 1343 1338 1338 1338 1338 1338 1338 1338 1338 1338 1338 1338 1338 1338 1338 1333 1333 1333 1333 1333 1333 1333 1338 1338 1338 1338 1333 1333 1333 1333 1333 1333 1333 1333 1333 1333 1333 1333 1328 1328 1328 1328 1328 1328 1328 1328 1328 1328 1333 1333 1333 1333 1333 1333 1333 1333 1333 1333 1333 1328 1328 1328 1328 1328 1322 1322 1322 1328 1328 1328 1328 1328 1328 1328 1328 1328 1328 1328 1328 1322 1322 1322 1322 1317 1317 1317 1317 1317 1317 1317 1317 1322 1328 1333 1333 1427 1421 1421 1421 1421 1421 1421 1421 1421 1421 1427 1427 1427 1427 1427 1427 1427 1427 1421 1421 1421 1421 1421 1421 1421 1421 1421 1421 1421 1421 1421 1415 1415 1415 1415 1415 1415 1415 1415 1410 1410 1410 1410 1415 1410 1410 1410 1410 1410 1415 1415 1236 1232 1232 1227 1227 1227 1227 1227 1227 1227 1227 1232 1232 1232 1236 1236 1236 1241 1410 1410 1404 1404 1404 1404 1404 1404 1398 1398 1398 1398 1404 1404 1404 1398 1398 1398 1398 1398 1398 1398 1398 1398 1392 1392 1392 1392 1398 1398 1398 1398 1398 1398 1398 1398 1398 1398 1398 1398 1398 1398 1398 1398 1398 1398 1398 1398 1398 1398 1392 1392 1392 1392 1392 1392 1392 1392 1392 1392 1387 1387 1387 1387 1387 1387 1387 1387 1387 1387 1387 1387 1387 1387 1387 1387 1387 1387 1387 1387 1387 1387 1387 1387 1387 1387 1387 1387 1387 1387 1387 1387 1387 1387 1387 1387 1387 1387 1387 1387 1387 1387 1387 1387 1387 1387 1387 1387 1387 1392 1392 1392 1197 1193 1193 1193 1193 1193 1193 1193 1193 1193 1193 1193 1193 1193 1193 1197 1197 1197 1189 1189 1381 1381 1381 1387 1387 1376 1376 1376 1376 1370 1370 1370 1370 1370 1376 1376 1376 1376 1376 1376 1376 1381 1376 1376 1376 1376 1376 1376 1376 1376 1376 1376 1370 1370 1365 1365 1365 1365 1370 1370 1370 1370 1370 1376 1370 1370 1370 1370 1370 1370 1370 1370 1370 1370 1365 1365 1365 1365 1365 1365 1365 1365 1365 1365 1365 1365 1365 1365 1365 1365 1365 1365 1359 1359 1365 1365 1365 1365 1365 1365 1365 1365 1365 1365 1365 1365 1365 1365 1365 1370 1370 1365 1359 1359 1354 1349 1349 1349 1349 1349 1354 0 0 0 0 0 0 0 0 0 3300 3269 3269 3300 3333 3333 3333 3333 3300 3238 3178 3149 3149 3178 3178 3238 3269 3333 3333 3333 3333 3333 3333 3333 3333 3333 3365 3365 3365 3365 3365 3365 3365 3365 3365 3365 3365 3399 3399 3365 3365 3365 3365 3365 3365 3365 3365 3365 3365 3365 3365 3365 3365 3365 3399 3399 3399 3399 3399 3399 3399 3399 3399 3365 3333 3333 3333 3333 3333 3333 3333 3300 3300 3300 3238 3238 3269 3269 3269 3269 3269 3300 3269 3269 3238 2908 2908 2908 2908 2933 2908 2908 2908 2908 2908 2933 3269 3269 3269 3269 3269 3037 3037 3010 3010 0 0 0 0 0 0 0 0 0 0 0
