0 0 0 0 0 0 0 0 0 0 0 0 0 0 0 0 0 0 0 0 0 0 0 0 0 0 0 0 0 0 0 0 2618 2618 2618 2618 2618 2618 2639 2618 2618 2618 2618 2618 2639 2618 2618 2618 2618 2618 2639 2639 2639 2639 2639 2639 2659 2659 2680 2680 2680 2680 2659 2659 2659 2659 2659 2659 2659 2680 2680 2639 2639 2659 2659 2659 2659 2659 2659 2680 2680 2680 2680 2680 2680 2680 2680 2680 2680 2680 2680 2680 2680 2680 2680 2680 2680 2680 2680 2680 2680 2680 2701 2701 2701 2701 2701 2701 2701 2701 2701 2701 2701 2701 2723 2723 2723 2723 2744 2744 2744 2744 2744 2744 2744 2744 2744 2767 2767 2767 2767 2767 2767 2767 2767 2767 2767 2767 2767 2767 2767 2767 2767 2767 2789 2789 2767 2767 2789 2789 2789 2789 2789 2789 2789 2789 2767 2767 2767 2767 2767 2767 2767 2767 2767 2767 2767 2767 2767 2767 2789 2789 2789 2789 2789 2789 2789 2789 2789 2789 2789 2789 2789 2789 2812 2812 2812 2812 2812 2812 2812 2812 2812 2835 2812 2812 2812 2812 2812 2812 2812 2812 2812 2835 2835 2812 2812 2835 2835 2835 2835 2859 2859 2143 2143 2143 2143 2143 2143 2143 2143 2143 2156 2156 2156 2156 2156 2143 2143 2835 2835 2835 2859 2859 2859 2859 2256 2256 2256 2256 2256 2271 2271 2271 2271 2271 2271 2271 1813 1813 1813 1813 1813 1813 1813 1823 1823 1833 1843 1843 1853 1853 1853 1853 1863 1863 1863 1863 1863 1863 1503 1503 1496 1496 1496 1496 1489 1489 1489 1489 1489 1489 1489 1489 1496 1496 1496 1496 1496 1503 1503 1503 1509 1509 1873 1883 1883 1883 1883 1883 1883 1894 1894 1894 1894 1894 1894 1894 1894 1445 1445 1439 1439 1439 1433 1433 1427 1427 1427 1427 1433 1433 1439 1439 1439 1445 1439 1439 1439 1439 1439 1477 1915 1915 1915 1915 1926 1926 1926 1926 1936 1489 1489 1483 1483 1489 1489 1489 1489 1489 1959 1947 1947 1947 1947 1509 1509 1509 1509 1509 1509 1509 1516 1516 1516 1516 1516 1523 1523 1529 1529 1529 1536 1536 1536 1536 1536 1543 1543 1543 1543 1543 1543 1543 1543 1543 1543 1550 1550 1557 1564 1564 1564 1572 1572 1572 1572 1572 1572 1579 1579 1579 1586 1586 1586 1594 1594 1586 1586 1586 1586 1594 1594 1594 1594 1586 1586 1586 1959 1959 1959 1959 1970 1970 1970 1970 1970 1970 1981 1981 1981 1981 1981 1981 1981 1981 1981 1981 1981 1981 1993 1981 1981 1981 1993 1993 1993 1993 1993 1993 1993 1993 1993 1993 1993 1993 2005 2005 1624 1616 1616 1609 1609 1609 1601 1601 1594 1594 1594 1586 1586 1586 1594 1594 1594 1594 1601 1609 1616 1616 1616 1624 1624 1624 1624 1624 1624 1624 1624 1632 1632 1632 1632 1639 1639 1639 1639 1639 1647 1647 1639 1639 1639 1639 1639 1639 1639 1639 1647 1647 1655 1655 1663 1663 1663 1671 1671 1671 1671 1671 1680 1680 1680 1680 1680 1680 1688 1696 1705 1713 1722 1722 1722 1722 1722 1722 1722 1722 1722 1713 1713 1713 1722 1722 1722 1731 1739 1739 1748 1748 2005 2005 1993 1993 1981 1981 1981 1970 1959 1959 1970 1970 1970 1970 1981 1981 1981 1993 1993 2005 2005 3149 3149 3149 3149 3149 3149 3149 3149 3120 3120 3120 3092 3092 3120 3120 3120 3120 3120 3120 3149 3120 3120 3120 3120 3120 3120 3120 3120 3120 3120 3120 3120 3120 3120 3120 3120 3120 3120 3120 3120 3120 3120 3120 3120 3120 3120 3120 3149 3149 3149 3120 3120 3120 3120 3120 3120 3120 3120 0 0 0 0 0 0 0 0 0 0 0
0 0 0 0 0 0 0 0 0 0 0 0 0 0 0 0 0 0 0 0 0 0 0 0 0 0 0 0 0 0 0 0 2618 2618 2618 2618 2618 2618 2618 2618 2618 2618 2618 2618 2618 2618 2618 2618 2618 2618 2618 2618 2618 2639 2639 2639 2639 2659 2659 2680 2659 2659 2659 2639 2639 2659 2659 2659 2659 2659 2659 2639 2639 2639 2639 2639 2639 2659 2659 2659 2680 2680 2680 2680 2680 2680 2680 2680 2680 2659 2659 2659 2659 2659 2659 2680 2680 2680 2680 2680 2680 2680 2701 2701 2701 2701 2701 2701 2701 2701 2701 2701 2701 2701 2701 2701 2701 2723 2723 2744 2744 2744 2744 2744 2744 2744 2744 2744 2744 2767 2767 2744 2744 2767 2767 2767 2767 2767 2767 2767 2767 2767 2767 2767 2767 2789 2767 2767 2789 2789 2789 2789 2789 2789 2789 2789 2767 2767 2767 2767 2767 2767 2767 2744 2744 2767 2767 2767 2767 2767 2767 2767 2789 2789 2789 2789 2789 2789 2789 2789 2789 2789 2789 2789 2789 2789 2789 2789 2789 2789 2812 2812 2812 2812 2812 2812 2789 2789 2812 2789 2789 2789 2789 2835 2835 2812 2812 2812 2835 2835 2835 2835 2835 2143 2143 2143 2143 2143 2143 2143 2156 2156 2156 2156 2156 2156 2156 2143 2143 2835 2835 2835 2835 2859 2859 2859 2256 2256 2256 2256 2256 2271 2271 2271 2271 2271 2271 2271 1813 1813 1813 1813 1813 1813 1813 1823 1823 1833 1843 1843 1853 1853 1853 1853 1853 1853 1853 1853 1853 1853 1503 1503 1496 1496 1496 1496 1489 1489 1489 1489 1489 1489 1489 1489 1496 1496 1496 1496 1503 1503 1503 1503 1509 1509 1853 1873 1873 1873 1883 1883 1883 1883 1883 1883 1883 1883 1883 1883 1883 1445 1445 1439 1439 1439 1433 1433 1433 1433 1427 1427 1433 1439 1439 1439 1439 1445 1445 1445 1452 1458 1464 1477 1915 1915 1915 1915 1915 1926 1926 1483 1483 1489 1489 1489 1489 1489 1489 1489 1489 1489 1489 1489 1496 1496 1503 1503 1509 1509 1509 1509 1509 1509 1516 1516 1516 1516 1516 1523 1523 1529 1529 1529 1536 1536 1536 1536 1536 1543 1543 1543 1543 1543 1543 1543 1543 1543 1543 1550 1550 1557 1564 1564 1564 1572 1572 1572 1572 1579 1579 1579 1579 1586 1586 1594 1594 1594 1594 1594 1594 1594 1594 1594 1594 1594 1594 1586 1586 1586 1959 1959 1959 1959 1959 1970 1970 1970 1959 1959 1970 1970 1970 1970 1970 1970 1970 1970 1970 1970 1970 1970 1981 1981 1981 1981 1981 1981 1981 1981 1981 1981 1993 1993 1993 1993 1993 1993 1993 1993 1624 1616 1616 1616 1609 1609 1609 1601 1594 1594 1594 1594 1594 1594 1594 1594 1594 1601 1601 1609 1616 1616 1624 1624 1624 1624 1624 1624 1624 1624 1624 1632 1632 1632 1639 1639 1647 1647 1647 1647 1647 1647 1639 1639 1639 1639 1639 1647 1647 1647 1647 1655 1655 1655 1663 1663 1663 1671 1671 1671 1671 1680 1680 1680 1680 1688 1688 1688 1705 1705 1722 1731 1731 1731 1731 1731 1731 1731 1722 1722 1722 1722 1722 1722 1722 1722 1722 1731 1739 1739 1748 2005 2005 2005 1993 1981 1981 1981 1970 1970 1959 1959 1970 1970 1981 1981 1981 1981 1993 1993 1993 2005 2005 3149 3149 3149 3149 3149 3149 3149 3149 3120 3120 3120 3092 3092 3092 3092 3120 3120 3120 3120 3120 3120 3120 3120 3120 3120 3120 3120 3120 3120 3120 3120 3120 3120 3120 3120 3120 3120 3120 3120 3120 3120 3120 3120 3120 3120 3120 3120 3149 3120 3120 3120 3120 3120 3120 3120 3120 3120 3120 0 0 0 0 0 0 0 0 0 0 0
0 0 0 0 0 0 0 0 0 0 0 0 0 0 0 0 0 0 0 0 0 0 0 0 0 0 0 0 0 0 0 0 2598 2598 2598 2598 2598 2598 2618 2618 2618 2618 2618 2618 2618 2598 2598 2598 2618 2618 2618 2618 2618 2618 2618 2639 2639 2639 2639 2659 2639 2639 2639 2639 2639 2659 2639 2639 2639 2659 2659 2618 2618 2618 2618 2639 2639 2639 2639 2659 2659 2659 2680 2680 2680 2680 2659 2659 2659 2659 2639 2639 2639 2659 2659 2659 2659 2659 2680 2680 2680 2680 2680 2701 2701 2701 2701 2701 2680 2680 2680 2680 2680 2701 2701 2701 2701 2701 2701 2723 2723 2723 2723 2723 2723 2723 2723 2723 2723 2744 2744 2744 2744 2744 2744 2744 2744 2744 2744 2767 2744 2744 2767 2767 2767 2767 2767 2767 2767 2767 2789 2767 2767 2789 2789 2789 2767 2767 2767 2767 2767 2744 2744 2744 2744 2744 2744 2744 2744 2744 2767 2767 2767 2767 2767 2767 2767 2767 2767 2767 2767 2789 2789 2789 2789 2789 2789 2789 2789 2789 2789 2789 2789 2789 2789 2789 2789 2789 2789 2789 2789 2789 2789 2812 2812 2789 2789 2789 2812 2812 2835 2835 2835 2143 2143 2143 2143 2143 2143 2143 2156 2156 2156 2156 2156 2156 2156 2156 2156 2835 2835 2835 2835 2835 2859 2859 2256 2256 2256 2256 2271 2271 2286 2271 2271 2271 2286 2286 1823 1823 1823 1823 1833 1833 1833 1823 1823 1833 1843 1843 1843 1843 1843 1843 1843 1843 1843 1853 1853 1853 1503 1503 1503 1503 1496 1496 1489 1489 1489 1489 1489 1489 1489 1489 1496 1496 1496 1496 1503 1503 1509 1509 1509 1516 1853 1853 1863 1863 1873 1873 1873 1883 1883 1883 1883 1883 1883 1883 1883 1445 1445 1445 1439 1439 1439 1439 1433 1433 1433 1433 1439 1439 1445 1445 1445 1445 1452 1452 1458 1464 1470 1477 1483 1483 1915 1915 1483 1483 1483 1483 1483 1489 1489 1489 1489 1489 1489 1489 1489 1489 1489 1489 1496 1496 1503 1503 1503 1509 1509 1509 1516 1516 1516 1516 1516 1516 1516 1523 1523 1529 1529 1529 1529 1536 1536 1536 1536 1543 1543 1543 1543 1543 1543 1543 1543 1543 1543 1550 1550 1557 1564 1564 1572 1572 1572 1572 1572 1579 1579 1586 1586 1586 1594 1594 1594 1594 1594 1594 1594 1594 1594 1594 1594 1594 1594 1594 1594 1594 1947 1947 1947 1947 1959 1959 1959 1959 1959 1959 1959 1959 1959 1959 1959 1959 1959 1959 1970 1970 1959 1959 1970 1959 1959 1959 1970 1970 1970 1970 1970 1981 1970 1970 1981 1981 1981 1981 1981 1981 1624 1616 1616 1616 1616 1616 1609 1601 1601 1594 1594 1594 1594 1594 1594 1601 1601 1601 1609 1616 1624 1624 1624 1624 1624 1624 1624 1624 1624 1624 1632 1632 1639 1639 1639 1647 1647 1647 1647 1647 1647 1647 1639 1639 1639 1639 1647 1647 1647 1647 1655 1663 1663 1663 1663 1663 1671 1671 1671 1671 1680 1680 1680 1688 1688 1696 1696 1705 1713 1722 1731 1739 1739 1739 1739 1739 1739 1739 1731 1731 1722 1722 1722 1722 1722 1722 1731 1731 1739 1739 1748 2005 2005 1993 1993 1981 1981 1981 1970 1970 1959 1959 1970 1970 1981 1981 1981 1981 1993 1993 2005 2005 3149 3149 3149 3149 3149 3149 3149 3149 3120 3120 3120 3120 3092 3092 3092 3092 3092 3092 3120 3120 3120 3120 3120 3120 3120 3120 3120 3092 3092 3092 3092 3092 3092 3092 3092 3092 3092 3120 3092 3092 3092 3092 3120 3120 3120 3120 3120 3120 3120 3120 3120 3120 3092 3092 3092 3092 3092 3120 3120 0 0 0 0 0 0 0 0 0 0 0
0 0 0 0 0 0 0 0 0 0 0 0 0 0 0 0 0 0 0 0 0 0 0 0 0 0 0 0 0 0 0 0 2598 2579 2579 2579 2579 2579 2598 2598 2598 2598 2598 2598 2618 2598 2598 2598 2598 2618 2618 2618 2618 2618 2618 2618 2639 2639 2639 2639 2639 2639 2639 2639 2639 2639 2639 2639 2639 2639 2639 2618 2618 2618 2618 2618 2639 2639 2639 2639 2659 2659 2659 2659 2659 2659 2659 2659 2659 2639 2639 2639 2639 2639 2639 2659 2659 2659 2659 2659 2680 2680 2680 2680 2680 2680 2680 2680 2680 2680 2680 2680 2680 2680 2701 2701 2701 2701 2701 2701 2701 2701 2701 2701 2701 2701 2701 2723 2723 2723 2723 2723 2723 2723 2723 2723 2723 2723 2744 2744 2744 2744 2744 2767 2767 2767 2767 2767 2767 2767 2767 2767 2767 2767 2767 2767 2744 2744 2744 2744 2744 2744 2744 2744 2744 2744 2744 2744 2744 2744 2744 2767 2767 2767 2767 2767 2767 2767 2767 2767 2767 2767 2767 2767 2767 2767 2767 2767 2767 2767 2767 2767 2767 2767 2767 2767 2767 2767 2767 2767 2767 2767 2767 2767 2789 2789 2789 2789 2812 2812 2812 2835 2835 2143 2143 2143 2143 2143 2143 2156 2156 2156 2156 2170 2170 2170 2156 2156 2170 2835 2835 2835 2835 2835 2835 2835 2271 2271 2271 2271 2271 2271 2286 2271 2271 2271 2286 2286 1823 1823 1823 1833 1823 1823 1823 1823 1823 1833 1833 1833 1843 1833 1833 1843 1843 1843 1843 1843 1853 1853 1503 1503 1503 1503 1496 1496 1489 1489 1489 1489 1489 1489 1489 1489 1496 1496 1496 1503 1503 1503 1509 1509 1509 1516 1853 1853 1853 1853 1863 1873 1873 1873 1873 1873 1873 1873 1873 1873 1873 1452 1445 1445 1439 1439 1439 1439 1439 1433 1433 1439 1439 1439 1445 1445 1445 1452 1452 1458 1464 1470 1477 1483 1483 1483 1483 1483 1483 1483 1483 1483 1489 1489 1489 1489 1489 1489 1489 1489 1489 1489 1496 1496 1496 1496 1503 1503 1503 1509 1509 1509 1516 1516 1516 1516 1516 1516 1516 1523 1523 1529 1529 1529 1529 1536 1536 1536 1536 1543 1543 1543 1543 1543 1543 1543 1543 1543 1550 1557 1557 1564 1564 1564 1572 1572 1572 1579 1579 1586 1586 1594 1594 1594 1594 1594 1594 1594 1594 1594 1594 1594 1594 1601 1601 1601 1601 1594 1594 1947 1947 1947 1947 1947 1947 1947 1947 1947 1947 1947 1947 1947 1947 1959 1947 1947 1947 1947 1947 1947 1947 1947 1959 1947 1947 1947 1959 1959 1959 1959 1959 1959 1959 1959 1959 1959 1959 1959 1959 1624 1624 1616 1616 1616 1616 1616 1609 1609 1601 1594 1594 1594 1594 1594 1601 1601 1601 1609 1616 1624 1624 1624 1624 1624 1624 1632 1624 1624 1624 1624 1632 1639 1639 1639 1647 1647 1647 1647 1647 1647 1655 1655 1647 1647 1647 1647 1647 1647 1647 1655 1663 1663 1663 1663 1663 1663 1671 1671 1680 1680 1680 1688 1688 1688 1696 1705 1705 1713 1731 1739 1748 1748 1748 1748 1739 1739 1739 1731 1731 1722 1722 1722 1722 1722 1722 1722 1731 1731 1739 1739 1739 2005 2005 1993 1993 1981 1981 1970 1970 1970 1959 1959 1970 1970 1981 1981 1981 1993 1993 1993 2005 2005 3092 3092 3120 3120 3120 3149 3120 3120 3092 3092 3092 3092 3064 3064 3064 3092 3092 3092 3092 3092 3092 3092 3092 3092 3092 3092 3064 3064 3064 3064 3064 3092 3092 3064 3064 3092 3092 3092 3092 3064 3064 3092 3092 3092 3092 3092 3092 3120 3120 3120 3120 3092 3092 3092 3092 3092 3092 3092 3092 0 0 0 0 0 0 0 0 0 0 0
0 0 0 0 0 0 0 0 0 0 0 0 0 0 0 0 0 0 0 0 0 0 0 0 0 0 0 0 0 0 0 0 2579 2579 2579 2579 2579 2579 2579 2579 2579 2579 2579 2579 2598 2579 2579 2579 2598 2598 2618 2618 2618 2618 2618 2618 2618 2618 2618 2618 2618 2618 2618 2618 2618 2618 2618 2618 2639 2639 2639 2618 2618 2618 2618 2618 2618 2618 2618 2618 2618 2618 2639 2639 2639 2639 2639 2639 2639 2639 2639 2639 2639 2639 2639 2639 2639 2639 2639 2659 2659 2659 2680 2680 2680 2680 2680 2680 2680 2680 2680 2680 2680 2680 2680 2701 2701 2701 2701 2701 2701 2701 2701 2701 2701 2701 2701 2701 2701 2701 2701 2701 2701 2701 2701 2701 2701 2723 2723 2723 2723 2744 2744 2744 2744 2767 2767 2767 2767 2767 2767 2767 2767 2767 2767 2767 2744 2744 2744 2744 2744 2744 2744 2744 2744 2744 2744 2744 2744 2744 2744 2744 2744 2744 2744 2744 2767 2767 2767 2767 2767 2767 2767 2767 2767 2767 2767 2767 2767 2767 2767 2767 2767 2767 2767 2767 2767 2767 2767 2744 2744 2767 2767 2767 2767 2767 2767 2767 2789 2812 2812 2835 2835 2143 2143 2143 2143 2156 2156 2156 2156 2156 2156 2170 2170 2170 2170 2170 2170 2812 2812 2812 2812 2812 2835 2835 2271 2271 2271 2271 2271 2271 2286 2271 2271 2271 2286 2286 1823 1823 1823 1823 1823 1823 1823 1823 1823 1823 1823 1823 1823 1833 1833 1833 1833 1833 1833 1833 1843 1853 1853 1503 1503 1503 1503 1496 1489 1489 1496 1489 1489 1489 1496 1496 1496 1496 1503 1503 1509 1509 1509 1509 1509 1516 1516 1853 1853 1853 1853 1863 1863 1863 1863 1863 1863 1863 1863 1863 1863 1452 1445 1445 1445 1445 1439 1439 1439 1439 1439 1439 1439 1445 1445 1445 1445 1452 1458 1458 1464 1470 1477 1483 1483 1483 1483 1483 1483 1483 1483 1483 1489 1489 1489 1489 1489 1489 1489 1489 1489 1489 1496 1496 1496 1496 1503 1503 1503 1509 1509 1509 1516 1516 1516 1516 1516 1516 1523 1523 1523 1529 1529 1529 1529 1536 1536 1536 1536 1543 1543 1543 1543 1543 1543 1543 1543 1543 1550 1557 1564 1564 1564 1572 1572 1572 1579 1579 1586 1586 1594 1594 1594 1594 1594 1594 1594 1594 1594 1594 1594 1594 1601 1601 1601 1601 1601 1609 1936 1947 1947 1947 1947 1947 1936 1936 1936 1936 1936 1936 1947 1947 1947 1947 1947 1947 1947 1947 1947 1947 1947 1947 1947 1947 1947 1947 1947 1947 1947 1947 1947 1947 1947 1947 1959 1959 1959 1959 1959 1624 1624 1624 1624 1616 1616 1616 1616 1609 1601 1601 1601 1601 1601 1601 1601 1609 1609 1616 1624 1624 1624 1624 1624 1624 1624 1632 1632 1632 1632 1632 1639 1639 1639 1639 1647 1647 1647 1655 1655 1655 1655 1655 1647 1647 1647 1647 1647 1647 1647 1655 1663 1663 1663 1663 1671 1671 1671 1671 1680 1680 1680 1688 1688 1696 1705 1705 1739 1739 1739 1748 1748 1748 1748 1748 1739 1739 1739 1731 1731 1722 1722 1722 1722 1722 1722 1731 1731 1731 1731 1731 1739 2005 1993 1993 1993 1981 1981 1970 1970 1970 1970 1970 1970 1970 1981 1981 1981 1993 1993 1993 2005 3064 3064 3064 3092 3092 3092 3092 3092 3092 3092 3092 3092 3092 3064 3064 3064 3064 3064 3064 3092 3092 3064 3064 3064 3064 3064 3064 3064 3037 3037 3037 3037 3064 3064 3064 3064 3064 3092 3092 3064 3064 3064 3064 3092 3092 3092 3092 3092 3120 3120 3092 3092 3092 3064 3064 3064 3064 3092 3092 3092 0 0 0 0 0 0 0 0 0 0 0
0 0 0 0 0 0 0 0 0 0 0 0 0 0 0 0 0 0 0 0 0 0 0 0 0 0 0 0 0 0 0 0 2579 2579 2560 2560 2560 2560 2560 2560 2560 2560 2579 2579 2579 2579 2579 2579 2579 2598 2598 2598 2598 2598 2598 2598 2598 2598 2598 2598 2618 2618 2618 2618 2618 2618 2618 2618 2618 2618 2618 2598 2598 2598 2598 2598 2598 2598 2598 2618 2618 2618 2618 2618 2618 2618 2618 2618 2618 2618 2618 2618 2618 2618 2618 2618 2618 2639 2639 2639 2659 2659 2659 2680 2680 2680 2680 2680 2680 2680 2680 2680 2680 2680 2680 2680 2680 2680 2680 2680 2680 2680 2680 2680 2680 2680 2680 2680 2680 2701 2701 2701 2701 2701 2701 2701 2701 2701 2701 2723 2723 2723 2723 2744 2744 2744 2744 2744 2744 2744 2744 2744 2744 2744 2744 2744 2744 2744 2744 2744 2744 2744 2744 2744 2744 2744 2744 2744 2744 2744 2744 2744 2744 2744 2744 2744 2744 2744 2744 2744 2744 2767 2767 2767 2767 2767 2767 2767 2744 2744 2767 2767 2767 2767 2767 2767 2767 2744 2744 2744 2744 2744 2767 2767 2767 2767 2767 2767 2789 2789 2812 2812 2835 2156 2143 2143 2143 2156 2156 2156 2156 2156 2156 2170 2170 2170 2170 2170 2170 2184 2789 2789 2789 2789 2301 2301 2271 2271 2271 2271 2271 2286 2286 2286 2286 2286 2286 2286 1823 1823 1823 1823 1813 1813 1813 1813 1813 1813 1813 1813 1823 1823 1823 1823 1823 1833 1823 1823 1833 1853 1503 1503 1503 1503 1496 1496 1489 1489 1496 1489 1489 1489 1496 1496 1496 1503 1503 1503 1509 1509 1509 1509 1509 1516 1516 1843 1853 1853 1853 1853 1853 1853 1853 1853 1853 1863 1863 1863 1863 1452 1445 1445 1445 1445 1439 1439 1439 1439 1439 1439 1439 1445 1445 1445 1452 1452 1458 1464 1470 1470 1477 1483 1483 1483 1483 1483 1483 1483 1483 1483 1483 1489 1489 1489 1489 1489 1489 1489 1496 1496 1496 1496 1496 1503 1503 1503 1509 1509 1509 1509 1516 1516 1516 1516 1516 1523 1523 1523 1523 1529 1529 1529 1536 1536 1536 1543 1543 1543 1543 1543 1543 1543 1543 1543 1550 1550 1557 1564 1564 1564 1572 1572 1572 1572 1579 1579 1586 1594 1594 1594 1594 1594 1594 1594 1594 1594 1594 1594 1594 1594 1601 1601 1601 1601 1609 1609 1926 1936 1936 1936 1936 1936 1926 1926 1926 1926 1926 1926 1936 1936 1936 1936 1936 1936 1936 1936 1936 1936 1936 1936 1936 1936 1936 1936 1936 1936 1936 1947 1947 1947 1947 1947 1947 1947 1947 1959 1959 1632 1624 1624 1624 1624 1624 1616 1616 1609 1601 1601 1601 1601 1601 1601 1609 1609 1609 1616 1624 1624 1624 1624 1624 1624 1632 1632 1632 1632 1632 1632 1639 1639 1647 1647 1655 1655 1655 1655 1655 1655 1647 1647 1639 1639 1639 1639 1647 1647 1647 1655 1663 1663 1663 1663 1671 1671 1671 1680 1680 1680 1680 3010 3010 3010 3037 3037 3037 1748 1748 1748 1748 1748 1748 1748 1739 1739 1739 1731 1731 1731 1722 1722 1722 1722 1722 1731 1731 1731 1731 1731 1739 2005 1993 1993 1993 1981 1981 1970 1970 1970 1970 1970 1970 1981 1981 1981 1993 1993 1993 1993 2005 3037 3037 3064 3064 3064 3064 3092 3092 3092 3064 3064 3064 3064 3037 3037 3037 3064 3064 3064 3064 3064 3037 3037 3037 3037 3037 3037 3037 3037 3037 3037 3037 3037 3037 3037 3037 3037 3064 3064 3064 3064 3064 3064 3064 3092 3064 3064 3092 3092 3064 3064 3064 3064 3037 3037 3064 3064 3064 3064 3064 0 0 0 0 0 0 0 0 0 0 0
0 0 0 0 0 0 0 0 0 0 0 0 0 0 0 0 0 0 0 0 0 0 0 0 0 0 0 0 0 0 0 0 2579 2560 2560 2560 2560 2560 2560 2560 2560 2560 2560 2560 2560 2560 2560 2579 2579 2579 2598 2579 2579 2598 2598 2598 2579 2579 2579 2579 2598 2598 2598 2598 2598 2598 2598 2598 2598 2598 2598 2598 2598 2598 2598 2598 2598 2598 2598 2598 2598 2598 2618 2618 2618 2618 2618 2618 2618 2618 2618 2618 2618 2618 2618 2618 2618 2618 2618 2618 2639 2639 2639 2639 2639 2639 2659 2639 2639 2659 2659 2680 2680 2680 2680 2680 2680 2680 2680 2680 2680 2680 2680 2680 2680 2680 2680 2680 2680 2680 2680 2680 2680 2680 2701 2701 2701 2701 2701 2701 2701 2701 2723 2723 2723 2723 2744 2723 2723 2723 2723 2723 2723 2723 2723 2723 2723 2723 2723 2723 2723 2723 2723 2723 2744 2744 2744 2723 2723 2723 2723 2723 2723 2723 2723 2744 2744 2744 2744 2744 2744 2744 2744 2767 2767 2744 2744 2744 2744 2744 2744 2767 2767 2767 2767 2767 2767 2744 2744 2744 2744 2744 2744 2744 2767 2767 2767 2767 2767 2789 2789 2812 2812 2835 2143 2143 2156 2156 2156 2156 2170 2156 2156 2170 2170 2170 2170 2170 2170 2184 2789 2789 2789 2789 2301 2301 2301 2286 2286 2286 2286 2286 2301 2286 2286 2286 2301 2301 1823 1823 1823 1813 1813 1813 1813 1813 1813 1813 1813 1813 1813 1813 1813 1813 1813 1823 1823 1823 1823 1823 1503 1503 1503 1503 1496 1496 1496 1496 1496 1496 1496 1496 1496 1496 1503 1503 1503 1509 1509 1509 1516 1516 1516 1516 1516 1843 1843 1843 1843 1843 1853 1853 1843 1843 1853 1853 1853 1853 1853 1458 1452 1452 1445 1445 1445 1439 1439 1439 1439 1439 1445 1445 1445 1452 1452 1458 1464 1464 1470 1477 1477 1483 1483 1483 1483 1483 1483 1483 1483 1483 1483 1483 1483 1483 1489 1489 1489 1489 1496 1496 1496 1496 1496 1503 1503 1509 1509 1509 1509 1516 1516 1516 1516 1516 1523 1523 1523 1529 1529 1529 1529 1536 1536 1536 1536 1543 1543 1543 1543 1543 1543 1543 1550 1550 1557 1557 1564 1564 1572 1572 1572 1572 1572 1572 1579 1586 1586 1594 1594 1594 1594 1594 1594 1594 1594 1594 1594 1594 1594 1601 1601 1601 1601 1601 1616 1616 1915 1915 1926 1915 1915 1926 1915 1915 1915 1915 1926 1926 1926 1926 1926 1926 1926 1926 1926 1926 1926 1926 1926 1926 1926 1936 1936 1936 1936 1936 1936 1936 1936 1936 1936 1936 1947 1947 1947 1959 1959 1632 1632 1624 1624 1624 1624 1624 1616 1616 1609 1609 1609 1609 1609 1609 1609 1616 1616 1624 1624 1624 1624 1632 1632 1632 1632 1632 1632 1936 1936 1947 1947 1947 1647 1647 1655 1655 1655 1655 1655 1655 1647 1647 1639 1639 1639 1639 1647 1647 1647 1655 1663 1663 1663 1663 1671 1671 2984 2984 2984 2984 2984 2984 2984 3010 3010 3010 3037 3037 3037 1757 1748 1748 1748 1748 1748 1739 1739 1731 1731 1731 1731 1722 1722 1731 1731 1731 1722 1722 1731 1731 2005 2005 2005 1993 1993 1981 1981 1970 1970 1970 1970 1970 1970 1981 1981 1993 1993 1993 2005 2005 2016 3037 3037 3064 3064 3064 3064 3064 3064 3064 3064 3064 3064 3064 3037 3037 3037 3037 3037 3037 3037 3037 3037 3037 3037 3037 3037 3037 3037 3037 3037 3037 3037 3037 3037 3037 3037 3037 3037 3037 3037 3037 3037 3064 3064 3064 3064 3064 3064 3064 3037 3037 3037 3037 3037 3037 3037 3037 3037 3037 3037 0 0 0 0 0 0 0 0 0 0 0
0 0 0 0 0 0 0 0 0 0 0 0 0 0 0 0 0 0 0 0 0 0 0 0 0 0 0 0 0 0 0 0 0 2560 2560 2560 2560 2560 2560 2560 2560 2560 2560 2560 2560 2560 2560 2560 2560 2579 2579 2579 2579 2579 2579 2579 2579 2579 2579 2579 2579 2598 2598 2598 2598 2598 2598 2598 2598 2598 2598 2579 2579 2579 2579 2579 2579 2598 2598 2598 2598 2598 2598 2598 2598 2618 2618 2618 2618 2618 2618 2618 2618 2618 2618 2618 2618 2618 2618 2618 2618 2618 2618 2618 2618 2639 2639 2639 2639 2659 2659 2659 2659 2659 2659 2680 2659 2659 2659 2659 2659 2680 2659 2659 2659 2659 2659 2659 2659 2659 2659 2659 2659 2680 2680 2680 2680 2680 2680 2680 2680 2701 2701 2701 2701 2723 2723 2723 2723 2723 2701 2701 2723 2723 2723 2723 2701 2701 2701 2723 2723 2723 2723 2723 2723 2723 2723 2723 2723 2723 2723 2723 2723 2723 2723 2723 2744 2744 2744 2744 2744 2744 2744 2744 2744 2744 2744 2744 2744 2744 2744 2744 2744 2744 2744 2744 2744 2744 2744 2723 2723 2744 2744 2744 2744 2767 2767 2767 2767 2789 2789 2789 2812 2156 2143 2143 2156 2156 2156 2170 2170 2170 2170 2170 2170 2170 2184 2184 2184 2184 2767 2767 2767 2789 2301 2301 2301 2286 2286 2286 2286 2286 2301 2286 2286 2286 2301 2301 1813 1813 1813 1813 1813 1813 1813 1813 1813 1804 1804 1804 1804 1813 1804 1804 1813 1813 1813 1813 1823 1823 1509 1509 1509 1503 1503 1496 1496 1496 1496 1496 1496 1496 1496 1503 1503 1503 1503 1509 1509 1509 1516 1516 1516 1516 1516 1843 1843 1843 1843 1843 1843 1843 1843 1843 1843 1843 1843 1853 1464 1458 1452 1452 1445 1445 1445 1445 1439 1439 1439 1439 1445 1445 1452 1452 1458 1464 1464 1470 1470 1477 1477 1483 1477 1477 1483 1483 1483 1483 1483 1483 1483 1483 1483 1483 1489 1489 1489 1489 1496 1496 1496 1496 1496 1503 1503 1509 1509 1509 1509 1516 1516 1516 1516 1516 1523 1523 1529 1529 1529 1536 1536 1536 1536 1536 1536 1543 1543 1543 1543 1543 1550 1550 1550 1550 1557 1564 1564 1572 1572 1572 1572 1572 1572 1572 1579 1586 1594 1594 1601 1601 1601 1601 1594 1594 1594 1594 1594 1594 1601 1601 1601 1601 1601 1601 1616 1624 1904 1915 1915 1915 1915 1915 1915 1915 1915 1915 1915 1915 1926 1926 1926 1926 1926 1926 1926 1915 1915 1926 1926 1926 1926 1926 1926 1926 1926 1926 1926 1926 1926 1936 1936 1936 1936 1936 1947 1947 1959 1639 1632 1632 1632 1624 1624 1624 1616 1616 1609 1609 1609 1609 1609 1616 1616 1616 1616 1624 1624 1624 1624 1624 1632 1632 1936 1936 1936 1936 1936 1936 1947 1947 1947 1936 1936 1947 1947 1947 1947 1936 1936 1936 1936 1936 1936 1936 1947 1947 1959 2958 2984 2984 2984 2984 2958 2958 2958 2958 2958 2958 2958 2958 2984 2984 2984 3010 3010 3010 3010 1757 1757 1757 1748 1748 1748 1739 1739 1731 1731 1731 1731 1731 1731 1731 1731 1731 1722 1722 1722 2005 2005 2005 2005 1993 1993 1981 1981 1970 1970 1970 1970 1970 1981 1981 1981 1993 1993 2005 2005 2016 2028 3037 3037 3064 3064 3064 3064 3064 3064 3064 3037 3037 3064 3064 3037 3037 3037 3037 3037 3037 3010 3010 3010 3010 3010 3010 3037 3037 3037 3010 3010 3010 3010 3010 3010 3010 3010 3010 3010 3010 3037 3037 3037 3037 3037 3037 3037 3037 3037 3037 3037 3037 3037 3037 3037 3037 3037 3037 3037 3037 3037 0 0 0 0 0 0 0 0 0 0 0
0 0 0 0 0 0 0 0 0 0 0 0 0 0 0 0 0 0 0 0 0 0 0 0 0 0 0 0 0 0 0 0 0 2541 2541 2541 2560 2560 2541 2541 2541 2541 2541 2541 2541 2541 2560 2560 2560 2560 2579 2579 2579 2579 2579 2579 2579 2579 2579 2579 2579 2579 2579 2598 2598 2598 2598 2598 2598 2598 2598 2579 2579 2579 2579 2579 2579 2579 2579 2598 2598 2598 2598 2598 2598 2598 2598 2598 2598 2598 2598 2598 2598 2598 2598 2598 2598 2598 2598 2598 2618 2618 2618 2618 2618 2639 2639 2639 2639 2659 2659 2659 2639 2639 2639 2639 2639 2639 2659 2659 2659 2659 2659 2639 2639 2639 2639 2639 2639 2639 2659 2659 2659 2680 2680 2680 2680 2680 2680 2680 2680 2680 2680 2680 2680 2680 2680 2680 2701 2701 2701 2701 2701 2701 2701 2701 2680 2680 2680 2680 2680 2701 2701 2701 2701 2701 2701 2701 2701 2701 2701 2701 2701 2701 2723 2723 2723 2723 2723 2723 2744 2744 2744 2744 2744 2744 2744 2744 2744 2744 2744 2744 2744 2744 2723 2723 2744 2723 2723 2723 2723 2744 2744 2744 2744 2744 2744 2767 2767 2767 2767 2789 2789 2156 2143 2143 2156 2170 2170 2170 2170 2170 2170 2170 2170 2170 2184 2184 2184 2184 2767 2767 2767 2767 2301 2301 2301 2286 2286 2286 2286 2286 2301 2301 2301 2301 2301 2301 1813 1813 1813 1813 1813 1804 1804 1804 1804 1804 1804 1804 1804 1804 1804 1804 1804 1813 1813 1813 1813 1813 1509 1509 1509 1509 1503 1496 1496 1496 1496 1496 1496 1496 1496 1503 1503 1503 1509 1509 1516 1516 1516 1516 1516 1516 1516 1833 1833 1833 1833 1833 1833 1833 1833 1833 1833 1833 1843 1843 1464 1458 1458 1458 1452 1445 1445 1445 1439 1439 1439 1439 1445 1452 1452 1458 1458 1464 1464 1470 1470 1477 1477 1477 1477 1477 1483 1483 1483 1483 1483 1483 1483 1489 1489 1489 1489 1489 1489 1489 1496 1496 1503 1503 1503 1503 1503 1509 1509 1509 1509 1516 1516 1516 1516 1523 1523 1529 1529 1529 1529 1536 1536 1536 1536 1543 1543 1543 1543 1550 1550 1550 1550 1557 1557 1557 1564 1564 1564 1572 1572 1572 1572 1572 1572 1579 1586 1586 1594 1594 1601 1601 1601 1601 1601 1594 1594 1594 1594 1594 1601 1601 1601 1601 1601 1609 1616 1904 1904 1904 1904 1904 1904 1904 1904 1904 1904 1904 1915 1915 1915 1915 1915 1915 1915 1915 1915 1915 1915 1915 1915 1915 1915 1926 1926 1926 1926 1926 1926 1926 1926 1926 1926 1926 1936 1936 1947 1947 1947 1632 1632 1632 1632 1624 1624 1616 1616 1616 1616 1609 1609 1616 1616 1616 1616 1616 1616 1624 1624 1624 1624 1624 1632 1926 1926 1936 1936 1926 1926 1936 1936 1936 1936 1936 1936 1936 1947 1947 1947 1947 1936 1936 1936 1936 1936 1936 1936 1947 1947 1959 2984 2984 2984 2958 2958 2958 2958 2958 2958 2958 2958 2958 2958 2958 2984 3010 3010 3010 3010 1757 1757 1757 1757 1748 1748 1739 1739 1731 1731 1731 1731 1731 1731 1731 1731 1731 1731 1722 1722 2005 2005 1993 1993 1993 1993 1981 1981 1970 1970 1970 1970 1970 1981 1981 1993 1993 1993 2005 2005 2028 2028 3037 3037 3037 3037 3037 3037 3037 3037 3037 3037 3037 3037 3037 3010 3010 3037 3037 3010 3010 3010 3010 3010 3010 3010 3010 3010 3010 3010 3010 3010 3010 3010 3010 3010 3010 3010 3010 3010 3010 3010 3010 3010 3010 3010 3010 3010 3010 3010 3010 3010 3010 3010 3010 3010 3037 3037 3037 3037 3037 3037 0 0 0 0 0 0 0 0 0 0 0
0 0 0 0 0 0 0 0 0 0 0 0 0 0 0 0 0 0 0 0 0 0 0 0 0 0 0 0 0 0 0 0 0 2541 2541 2541 2541 2541 2541 2541 2541 2541 2541 2541 2541 2541 2541 2541 2560 2560 2560 2579 2579 2579 2579 2579 2579 2579 2579 2579 2579 2579 2579 2579 2579 2579 2579 2579 2579 2579 2579 2579 2560 2560 2560 2560 2579 2579 2579 2579 2579 2579 2579 2598 2598 2598 2598 2598 2598 2598 2598 2598 2598 2598 2598 2598 2598 2598 2598 2598 2598 2598 2598 2598 2618 2618 2618 2618 2618 2639 2639 2639 2618 2618 2639 2639 2618 2618 2618 2639 2639 2639 2618 2618 2618 2618 2639 2639 2639 2639 2639 2659 2659 2659 2659 2659 2659 2659 2659 2659 2659 2659 2659 2659 2680 2680 2680 2680 2680 2680 2680 2680 2680 2680 2680 2680 2659 2659 2659 2680 2680 2680 2680 2680 2680 2680 2680 2680 2680 2680 2680 2680 2680 2680 2680 2680 2701 2701 2701 2701 2723 2723 2723 2723 2723 2723 2723 2723 2723 2723 2723 2723 2744 2723 2723 2723 2723 2723 2723 2723 2723 2723 2744 2744 2744 2744 2744 2744 2767 2767 2767 2767 2789 2156 2156 2156 2156 2170 2170 2170 2170 2170 2170 2184 2184 2184 2184 2184 2184 2184 2767 2767 2767 2767 2317 2301 2301 2301 2286 2286 2301 2301 2301 2301 2301 2301 2349 2349 1813 1813 1813 1813 1804 1804 1804 1804 1804 1804 1794 1794 1794 1794 1794 1794 1794 1804 1804 1804 1813 1813 1516 1516 1509 1509 1503 1503 1496 1496 1496 1496 1496 1496 1496 1503 1509 1509 1509 1516 1516 1516 1516 1516 1516 1516 1516 1823 1823 1823 1823 1823 1823 1823 1823 1823 1833 1833 1833 1833 1464 1458 1458 1458 1452 1445 1445 1445 1445 1445 1445 1445 1445 1452 1458 1458 1464 1464 1470 1470 1470 1477 1477 1477 1477 1477 1483 1483 1483 1483 1483 1483 1483 1489 1489 1489 1489 1489 1489 1496 1503 1503 1503 1503 1503 1509 1509 1509 1509 1509 1509 1516 1516 1516 1523 1523 1529 1529 1529 1536 1536 1536 1536 1536 1543 1543 1543 1543 1550 1550 1550 1550 1557 1557 1557 1564 1564 1564 1572 1572 1572 1572 1572 1572 1579 1579 1586 1594 1601 1601 1609 1609 1601 1601 1601 1601 1594 1594 1594 1594 1601 1601 1601 1601 1601 1609 1616 1904 1904 1894 1894 1904 1904 1904 1904 1904 1904 1904 1904 1915 1915 1915 1915 1915 1904 1904 1904 1904 1904 1904 1904 1915 1915 1915 1915 1915 1915 1915 1915 1915 1915 1915 1915 1915 1926 1926 1936 1936 1936 1632 1632 1632 1624 1624 1624 1616 1616 1616 1616 1616 1616 1616 1616 1616 1616 1624 1624 1624 1624 1624 1624 1926 1926 1926 1926 1926 1926 1926 1926 1936 1936 1936 1936 1936 1936 1936 1936 1936 1936 1936 1926 1926 1926 1926 1936 1936 1936 1936 1936 1947 1947 2958 2958 2958 2958 2958 2958 2958 2958 2958 2958 2958 2958 2958 2958 3010 3010 3010 1776 1757 1757 1757 1757 1748 1748 1739 1739 1739 1739 1731 1731 1731 1739 1739 1739 1748 1748 2016 2005 2005 2005 1993 1993 1993 1981 1981 1981 1981 1981 1981 1981 1981 1981 1981 1993 1993 2005 2005 2016 2028 2028 3010 3037 3037 3037 3037 3037 3037 3037 3037 3037 3037 3037 3037 3010 3010 3010 3010 3010 3010 3010 3010 3010 3010 3010 3010 3010 3010 3010 3010 3010 3010 3010 3010 3010 3010 3010 3010 3010 3010 3010 3010 3010 3010 3010 3010 3010 3010 3010 3010 3010 3010 3010 3010 3010 3010 3010 3010 3010 3010 3010 0 0 0 0 0 0 0 0 0 0 0
0 0 0 0 0 0 0 0 0 0 0 0 0 0 0 0 0 0 0 0 0 0 0 0 0 0 0 0 0 0 0 0 0 2541 2541 2541 2541 2541 2541 2541 2541 2541 2541 2541 2541 2541 2541 2541 2541 2560 2560 2560 2560 2560 2560 2560 2560 2560 2560 2560 2560 2560 2560 2560 2560 2560 2560 2560 2579 2579 2579 2598 2560 2560 2560 2560 2579 2560 2560 2579 2579 2579 2579 2579 2579 2579 2579 2579 2579 2598 2598 2598 2598 2598 2598 2598 2598 2598 2598 2598 2598 2598 2598 2598 2618 2618 2618 2618 2618 2618 2618 2618 2618 2618 2618 2618 2618 2618 2618 2618 2618 2618 2618 2618 2618 2618 2618 2618 2618 2618 2639 2639 2639 2659 2659 2659 2659 2659 2659 2659 2659 2659 2659 2659 2659 2680 2659 2659 2680 2680 2680 2680 2680 2680 2680 2680 2659 2659 2659 2659 2659 2659 2659 2680 2680 2680 2680 2680 2680 2680 2680 2680 2680 2680 2680 2680 2680 2680 2701 2701 2701 2701 2701 2701 2701 2701 2701 2701 2701 2701 2701 2723 2723 2701 2701 2701 2723 2723 2701 2701 2701 2723 2723 2723 2723 2744 2744 2744 2744 2744 2744 2767 2143 2143 2156 2156 2170 2170 2170 2170 2170 2170 2170 2184 2184 2184 2184 2184 2184 2184 2744 2744 2744 2767 2767 2301 2301 2301 2301 2301 2301 2301 2301 2301 2301 2317 2349 1823 1823 1813 1813 1813 1804 1804 1804 1804 1794 1794 1794 1794 1794 1794 1785 1785 1785 1794 1794 1804 1804 1804 1516 1516 1509 1509 1503 1503 1496 1496 1496 1496 1496 1496 1503 1503 1509 1509 1509 1516 1516 1516 1516 1516 1516 1516 1516 1813 1813 1813 1813 1813 1823 1823 1823 1823 1823 1823 1823 1823 1464 1464 1458 1458 1452 1452 1445 1445 1445 1445 1445 1445 1452 1452 1458 1464 1464 1464 1470 1470 1470 1477 1477 1483 1477 1477 1483 1483 1483 1483 1483 1489 1489 1489 1489 1489 1489 1489 1496 1503 1503 1503 1509 1509 1509 1509 1509 1509 1509 1516 1516 1516 1523 1523 1529 1529 1529 1536 1536 1536 1536 1536 1536 1543 1543 1543 1543 1550 1550 1557 1557 1557 1557 1557 1564 1564 1564 1572 1572 1572 1572 1572 1572 1579 1579 1579 1586 1594 1601 1601 1616 1609 1609 1609 1601 1601 1601 1594 1594 1594 1601 1601 1601 1609 1609 1609 1894 1894 1894 1883 1883 1894 1894 1894 1894 1894 1894 1904 1904 1904 1904 1904 1904 1904 1904 1904 1894 1894 1894 1904 1904 1904 1904 1915 1915 1915 1915 1915 1915 1915 1915 1915 1915 1915 1915 1915 1926 1926 1926 1639 1632 1632 1624 1624 1624 1624 1616 1616 1616 1616 1616 1616 1616 1616 1624 1624 1624 1624 1624 1624 1915 1915 1915 1915 1915 1926 1926 1926 1926 1926 1926 1936 1926 1926 1926 1926 1926 1926 1926 1926 1926 1926 1926 1926 1926 1926 1926 1936 1936 1936 1936 1947 2958 2958 2958 2933 2933 2933 2933 2933 2958 2958 2958 2958 2958 2958 1776 1776 1776 1757 1757 1757 1757 1748 1748 1739 1739 1739 1739 1739 1739 1739 1739 1739 1739 1748 2016 2016 2016 2005 2005 2005 1993 1993 1981 1981 1981 1981 1981 1981 1981 1981 1981 1993 1993 2005 2005 2016 2016 2028 3010 3010 3010 3037 3010 3010 3010 3010 3010 3010 3010 3010 3010 3037 2984 2984 3010 3010 2984 2984 2984 2984 2984 2984 2984 2984 3010 3010 3010 3010 3010 3010 3010 3010 3010 3010 3010 2984 2984 2984 2984 2984 2958 2958 2984 2984 2984 2958 2958 2984 2984 2984 2984 3010 3010 3010 3010 3010 2984 2984 2984 0 0 0 0 0 0 0 0 0 0 0
0 0 0 0 0 0 0 0 0 0 0 0 0 0 0 0 0 0 0 0 0 0 0 0 0 0 0 0 0 0 0 0 0 2522 2522 2522 2522 2522 2541 2541 2541 2541 2541 2541 2522 2522 2522 2522 2541 2541 2541 2541 2560 2560 2560 2560 2560 2560 2560 2560 2560 2560 2560 2560 2560 2560 2560 2560 2560 2560 2579 2579 2541 2541 2541 2541 2560 2560 2560 2560 2560 2560 2560 2560 2560 2560 2560 2560 2560 2560 2579 2579 2598 2598 2598 2598 2598 2598 2598 2598 2598 2598 2598 2598 2598 2598 2598 2598 2598 2618 2618 2618 2618 2618 2618 2618 2618 2618 2618 2618 2618 2618 2618 2618 2618 2618 2618 2618 2618 2618 2639 2639 2639 2639 2639 2639 2639 2639 2639 2639 2639 2639 2639 2639 2659 2659 2659 2659 2659 2680 2680 2680 2680 2680 2680 2680 2659 2659 2659 2659 2659 2659 2659 2659 2680 2680 2680 2680 2680 2680 2680 2680 2680 2680 2680 2680 2680 2680 2680 2680 2680 2680 2680 2680 2680 2680 2701 2701 2680 2680 2701 2701 2701 2701 2701 2701 2723 2701 2701 2701 2701 2701 2701 2701 2701 2723 2744 2744 2744 2744 2744 2744 2143 2143 2156 2156 2170 2170 2184 2184 2184 2184 2184 2184 2184 2184 2184 2184 2184 2744 2744 2744 2744 2744 2767 2301 2301 2301 2301 2301 2301 2301 2301 2301 2301 2301 2349 1823 1823 1813 1813 1813 1804 1804 1804 1794 1794 1785 1785 1785 1785 1785 1785 1785 1785 1785 1785 1794 1794 1794 1516 1516 1509 1509 1509 1503 1496 1496 1496 1496 1496 1503 1503 1503 1509 1509 1509 1516 1516 1516 1516 1516 1516 1516 1516 1804 1804 1813 1813 1813 1813 1813 1813 1813 1813 1823 1823 1823 1464 1464 1458 1458 1452 1452 1445 1445 1445 1445 1445 1445 1452 1458 1458 1464 1464 1464 1470 1470 1477 1477 1483 1483 1477 1477 1483 1483 1483 1483 1483 1489 1489 1489 1489 1489 1489 1496 1503 1503 1503 1503 1509 1509 1509 1509 1509 1516 1516 1516 1516 1523 1523 1529 1529 1529 1536 1536 1536 1536 1536 1536 1543 1543 1543 1550 1550 1557 1557 1557 1557 1557 1564 1564 1564 1564 1572 1572 1572 1572 1579 1579 1579 1579 1579 1579 1594 1594 1609 1616 1616 1616 1616 1609 1609 1601 1601 1601 1601 1601 1601 1609 1609 1609 1609 1883 1873 1873 1883 1873 1873 1883 1883 1883 1883 1883 1883 1894 1894 1894 1904 1904 1904 1894 1894 1894 1894 1883 1883 1894 1894 1904 1904 1904 1904 1904 1904 1904 1904 1904 1904 1904 1904 1904 1904 1915 1915 1915 1915 1639 1639 1632 1632 1624 1624 1624 1616 1616 1616 1616 1616 1616 1616 1616 1624 1624 1624 1624 1904 1904 1915 1915 1915 1915 1915 1915 1915 1915 1915 1915 1926 1926 1926 1915 1915 1926 1915 1915 1915 1915 1915 1915 1915 1915 1915 1926 1926 1926 1926 1926 1926 1936 1863 1863 2933 2933 2933 2933 2933 2933 2958 2958 2958 2958 2958 2958 1776 1776 1776 1757 1757 1757 1757 1748 1748 1748 1739 1739 1739 1739 1739 1739 1748 1748 1748 1757 2016 2016 2016 2005 2005 2005 1993 1993 1993 1981 1981 1981 1981 1981 1981 1981 1981 1993 2005 2005 2016 2016 2028 2040 2984 2984 2984 2984 3010 2984 2984 2984 2984 3010 3010 2984 2984 3010 2984 2984 2984 2984 2984 2984 2958 2958 2958 2984 2984 2984 2984 2984 2984 2984 2984 2984 2984 2984 2984 2984 2984 2984 2984 2958 2958 2958 2933 2933 2958 2958 2958 2958 2958 2958 2958 2984 2958 2958 2958 2958 2958 2958 2933 2933 2933 0 0 0 0 0 0 0 0 0 0 0
0 0 0 0 0 0 0 0 0 0 0 0 0 0 0 0 0 0 0 0 0 0 0 0 0 0 0 0 0 0 0 0 0 2522 2522 2522 2522 2522 2541 2522 2522 2522 2522 2522 2522 2522 2522 2522 2541 2541 2541 2541 2560 2560 2560 2560 2560 2560 2541 2541 2541 2541 2541 2541 2541 2541 2541 2541 2560 2560 2560 2560 2541 2541 2541 2541 2541 2541 2541 2541 2541 2541 2560 2560 2541 2541 2560 2560 2560 2560 2560 2579 2579 2579 2579 2579 2598 2598 2579 2579 2579 2579 2579 2598 2598 2598 2598 2598 2598 2598 2598 2598 2598 2598 2598 2598 2598 2598 2598 2618 2598 2598 2598 2598 2598 2598 2618 2618 2618 2618 2618 2618 2618 2639 2639 2639 2639 2618 2618 2618 2639 2639 2639 2639 2639 2639 2639 2639 2659 2659 2680 2680 2680 2680 2680 2659 2639 2639 2639 2659 2659 2659 2659 2659 2659 2659 2659 2659 2659 2659 2659 2659 2659 2680 2680 2680 2680 2680 2680 2680 2680 2680 2680 2680 2680 2680 2680 2680 2680 2680 2680 2701 2701 2701 2701 2701 2701 2701 2680 2680 2680 2680 2680 2680 2680 2723 2723 2723 2723 2723 2723 2723 2143 2143 2156 2170 2170 2184 2184 2184 2184 2184 2184 2184 2184 2184 2184 2184 2184 2723 2744 2744 2744 2744 2767 2301 2301 2301 2301 2301 2301 2301 2301 2301 2301 2301 2317 1833 1823 1823 1813 1813 1804 1804 1794 1794 1785 1776 1776 1776 1776 1776 1776 1776 1776 1776 1776 1776 1776 1785 1516 1516 1516 1509 1509 1503 1503 1496 1496 1496 1503 1503 1503 1509 1509 1509 1516 1516 1516 1516 1516 1516 1523 1523 1794 1794 1804 1804 1804 1813 1813 1813 1813 1813 1813 1823 1823 1823 1464 1464 1458 1458 1458 1452 1452 1445 1445 1445 1445 1445 1452 1458 1458 1464 1464 1470 1470 1477 1477 1477 1483 1483 1477 1477 1483 1483 1483 1483 1483 1489 1489 1489 1489 1489 1496 1503 1503 1503 1509 1509 1509 1509 1509 1509 1516 1516 1516 1516 1523 1523 1529 1529 1529 1536 1536 1536 1536 1543 1543 1543 1543 1550 1550 1550 1550 1557 1557 1557 1564 1564 1564 1564 1564 1564 1572 1572 1572 1579 1579 1579 1579 1579 1579 1993 1616 1616 1624 1624 1624 1624 1624 1616 1609 1609 1601 1601 1601 1601 1609 1609 1609 1609 1609 1883 1873 1873 1873 1873 1873 1873 1873 1873 1883 1883 1883 1883 1883 1883 1894 1883 1883 1883 1883 1883 1883 1883 1883 1883 1883 1894 1894 1894 1894 1894 1894 1894 1894 1894 1894 1894 1904 1904 1904 1904 1915 1915 1915 1632 1632 1632 1624 1624 1624 1624 1624 1624 1624 1624 1624 1624 1624 1624 1624 1624 1624 1894 1904 1904 1904 1904 1904 1915 1915 1915 1915 1904 1904 1915 1915 1915 1915 1915 1915 1915 1915 1915 1915 1915 1915 1904 1904 1904 1904 1915 1915 1915 1915 1915 1915 1904 1863 1863 1853 1853 2933 2933 2933 2933 2933 2933 2958 2958 2958 1785 1785 1776 1776 1766 1757 1757 1757 1748 1748 1748 1748 1739 1739 1739 1748 1748 1748 1748 1748 1748 2016 2016 2016 2005 2005 2005 1993 1993 1993 1993 1981 1981 1981 1981 1981 1993 1993 1993 2005 2016 2016 2016 2028 2028 2984 2984 2958 2958 2984 2958 2958 2958 2984 2984 2984 2984 2984 2984 2984 2984 2984 2958 2958 2958 2958 2958 2958 2958 2958 2958 2958 2958 2958 2958 2958 2958 2958 2984 2984 2984 2984 2984 2958 2958 2958 2958 2933 2933 2933 2933 2958 2958 2958 2958 2958 2958 2958 2958 2933 2933 2933 2933 2933 2933 2933 0 0 0 0 0 0 0 0 0 0 0
0 0 0 0 0 0 0 0 0 0 0 0 0 0 0 0 0 0 0 0 0 0 0 0 0 0 0 0 0 0 0 0 0 2503 2503 2503 2522 2522 2522 2522 2522 2503 2503 2503 2503 2503 2503 2503 2522 2522 2522 2522 2541 2541 2541 2541 2541 2541 2541 2541 2541 2541 2541 2541 2541 2541 2541 2541 2541 2541 2541 2541 2522 2522 2522 2522 2522 2541 2541 2541 2541 2541 2541 2541 2541 2541 2541 2541 2541 2541 2560 2560 2579 2579 2579 2579 2579 2579 2579 2560 2560 2560 2579 2579 2579 2579 2579 2598 2598 2598 2598 2598 2598 2598 2598 2598 2598 2598 2598 2598 2598 2598 2598 2598 2598 2598 2598 2618 2618 2618 2618 2618 2618 2618 2618 2618 2618 2618 2618 2618 2618 2618 2618 2618 2639 2639 2618 2618 2639 2659 2659 2659 2659 2659 2659 2659 2639 2639 2639 2639 2639 2639 2639 2639 2659 2659 2659 2659 2659 2659 2659 2659 2659 2659 2659 2659 2659 2659 2659 2659 2680 2680 2680 2680 2680 2680 2680 2680 2680 2680 2680 2680 2680 2680 2680 2680 2680 2680 2680 2680 2680 2680 2680 2680 2680 2680 2701 2701 2701 2701 2701 2701 2143 2143 2170 2170 2184 2184 2184 2184 2184 2184 2184 2184 2184 2184 2184 2184 2184 2723 2723 2723 2744 2744 2744 2301 2301 2301 2301 2301 2301 2301 2317 2301 2301 2301 2317 1833 1823 1823 1823 1813 1804 1804 1794 1794 1785 1776 1776 1776 1776 1776 1766 1766 1766 1766 1776 1776 1776 1776 1516 1516 1516 1509 1509 1503 1503 1496 1496 1496 1503 1503 1503 1509 1509 1516 1516 1516 1516 1516 1523 1523 1523 1523 1794 1794 1794 1804 1804 1804 1804 1804 1804 1804 1804 1813 1823 1823 1464 1464 1464 1464 1458 1458 1452 1452 1445 1445 1452 1452 1458 1458 1464 1464 1470 1470 1477 1477 1477 1483 1483 1483 1483 1483 1483 1483 1483 1489 1489 1489 1489 1489 1489 1489 1496 1503 1503 1503 1509 1509 1509 1509 1509 1509 1516 1516 1516 1516 1523 1529 1529 1529 1536 1536 1536 1536 1543 1543 1543 1543 1543 1550 1550 1557 1557 1557 1564 1564 1564 1564 1564 1564 1564 1572 1572 1572 1572 1579 1579 1579 1993 1993 1993 1993 1993 1993 1624 1624 1624 1624 1624 1624 1616 1616 1609 1609 1609 1609 1609 1616 1616 1616 1873 1873 1873 1873 1873 1873 1873 1873 1873 1873 1873 1873 1873 1873 1873 1883 1883 1873 1873 1873 1873 1873 1873 1873 1873 1883 1883 1883 1883 1883 1883 1883 1883 1894 1883 1883 1894 1894 1894 1894 1894 1904 1904 1904 1904 1632 1632 1632 1624 1624 1624 1624 1624 1624 1624 1624 1624 1624 1624 1624 1624 1624 1624 1894 1894 1904 1904 1904 1904 1904 1904 1904 1904 1904 1904 1904 1904 1904 1904 1904 1904 1904 1904 1904 1915 1915 1915 1904 1904 1904 1904 1904 1904 1904 1904 1904 1904 1904 1873 1863 1853 1853 2933 2933 2933 2933 2933 2933 2933 2933 2933 1776 1776 1776 1776 1766 1766 1757 1757 1748 1748 1748 1748 1748 1748 1748 1748 1748 1748 1748 1748 1748 2016 2016 2016 2005 2005 2005 1993 1993 1993 1993 1993 1993 1981 1981 1993 1993 1993 1993 2005 2016 2016 2016 2028 2028 2958 2958 2958 2958 2958 2958 2958 2958 2958 2958 2958 2958 2958 2984 2958 2958 2958 2958 2958 2958 2958 2958 2958 2958 2933 2933 2933 2933 2958 2958 2958 2958 2958 2958 2984 2984 2984 2984 2958 2958 2933 2933 2933 2933 2933 2933 2933 2933 2933 2933 2933 2958 2933 2933 2933 2933 2933 2933 2933 2933 2933 0 0 0 0 0 0 0 0 0 0 0
0 0 0 0 0 0 0 0 0 0 0 0 0 0 0 0 0 0 0 0 0 0 0 0 0 0 0 0 0 0 0 0 0 2485 2485 2503 2503 2503 2522 2503 2503 2503 2503 2485 2485 2503 2503 2503 2503 2503 2522 2522 2541 2541 2541 2541 2522 2522 2522 2522 2522 2522 2522 2522 2522 2541 2522 2522 2541 2541 2541 2541 2522 2522 2522 2522 2522 2541 2541 2541 2541 2541 2541 2541 2541 2541 2541 2541 2541 2541 2541 2541 2560 2560 2560 2560 2560 2579 2560 2560 2560 2560 2560 2560 2560 2560 2560 2579 2598 2598 2598 2598 2598 2598 2598 2598 2598 2598 2598 2598 2598 2598 2598 2598 2598 2598 2598 2618 2618 2618 2618 2618 2618 2618 2618 2618 2618 2618 2618 2618 2618 2618 2618 2618 2639 2639 2618 2618 2639 2639 2639 2639 2639 2639 2639 2639 2618 2618 2618 2639 2639 2639 2639 2639 2639 2639 2639 2639 2639 2659 2659 2659 2659 2659 2659 2659 2659 2659 2659 2659 2659 2659 2659 2659 2659 2659 2659 2659 2680 2680 2680 2680 2680 2680 2680 2680 2680 2680 2680 2680 2680 2680 2680 2680 2680 2680 2701 2701 2701 2680 2680 2680 2680 2170 2170 2184 2184 2184 2184 2184 2184 2184 2184 2184 2184 2184 2184 2184 2723 2723 2723 2723 2723 2723 2723 2301 2301 2301 2301 2301 2301 2317 2317 2301 2301 2301 2301 1823 1823 1823 1823 1823 1813 1804 1804 1794 1785 1785 1776 1776 1776 1766 1766 1766 1766 1766 1766 1766 1766 1766 1523 1523 1523 1516 1516 1516 1509 1496 1496 1503 1503 1509 1509 1509 1509 1516 1516 1516 1516 1516 1523 1523 1523 1785 1785 1785 1794 1794 1794 1794 1804 1804 1804 1804 1804 1804 1813 1813 1470 1464 1464 1464 1464 1458 1452 1452 1452 1452 1452 1452 1458 1464 1464 1470 1470 1470 1477 1477 1483 1483 1489 1483 1483 1483 1483 1483 1489 1489 1489 1489 1489 1489 1496 1496 1503 1503 1503 1509 1509 1509 1509 1509 1516 1516 1516 1516 1516 1523 1523 1529 1529 1529 1536 1536 1536 1536 1543 1543 1543 1543 1550 1557 1557 1557 1557 1557 1564 1564 1564 1564 1564 1564 1564 1572 1572 1572 1572 1579 1579 1993 1993 1993 1993 1993 1993 1993 1632 1624 1624 1632 1624 1624 1616 1616 1616 1616 1616 1616 1616 1616 1624 1624 1863 1863 1863 1863 1863 1863 1863 1863 1863 1863 1863 1863 1863 1863 1863 1873 1863 1863 1863 1863 1863 1863 1873 1873 1873 1873 1873 1873 1873 1873 1873 1873 1873 1883 1873 1873 1883 1883 1883 1883 1883 1883 1894 1655 1655 1639 1632 1632 1624 1624 1624 1624 1624 1624 1624 1624 1624 1624 1624 1624 1624 1624 1624 1894 1894 1894 1894 1894 1894 1894 1894 1894 1894 1894 1894 1894 1894 1894 1894 1894 1904 1904 1904 1904 1904 1904 1915 1904 1894 1894 1904 1904 1904 1904 1904 1904 1904 1904 1894 1883 1883 1883 2908 2933 2933 2933 2933 2933 2933 2933 1776 1776 1776 1776 1766 1766 1757 1757 1757 1748 1748 1748 1748 1748 1748 1748 1748 1748 1748 1748 1748 2028 2016 2016 2016 2016 2005 2005 1993 1993 1993 1993 1993 1993 1993 1993 1993 1993 2005 2005 2016 2016 2016 2028 2028 2933 2958 2958 2958 2958 2958 2958 2958 2958 2958 2958 2958 2958 2958 2958 2958 2958 2958 2958 2958 2958 2958 2933 2933 2933 2933 2933 2933 2933 2933 2933 2933 2933 2933 2958 2958 2958 2958 2958 2933 2933 2933 2933 2933 2908 2908 2933 2933 2933 2933 2933 2933 2933 2933 2933 2933 2933 2933 2933 2933 2933 2933 0 0 0 0 0 0 0 0 0 0 0
0 0 0 0 0 0 0 0 0 0 0 0 0 0 0 0 0 0 0 0 0 0 0 0 0 0 0 0 0 0 0 0 0 2485 2485 2485 2485 2503 2503 2503 2503 2485 2485 2485 2485 2485 2485 2485 2503 2503 2503 2503 2522 2522 2522 2522 2503 2503 2522 2522 2522 2522 2522 2522 2522 2522 2522 2522 2522 2522 2522 2541 2522 2522 2522 2522 2522 2522 2522 2522 2522 2541 2541 2541 2541 2541 2541 2541 2541 2541 2541 2541 2560 2560 2560 2560 2560 2560 2560 2541 2541 2541 2560 2560 2560 2560 2560 2560 2579 2579 2579 2579 2579 2579 2579 2579 2579 2579 2579 2579 2579 2579 2598 2598 2598 2598 2598 2598 2598 2598 2598 2598 2598 2598 2598 2598 2598 2598 2598 2598 2618 2618 2618 2618 2618 2618 2618 2618 2618 2639 2639 2639 2639 2639 2639 2639 2618 2618 2618 2618 2618 2618 2618 2618 2639 2618 2618 2618 2618 2639 2639 2639 2639 2659 2659 2659 2659 2659 2659 2659 2659 2659 2659 2659 2659 2659 2659 2659 2659 2659 2659 2680 2659 2659 2680 2680 2680 2680 2680 2680 2680 2680 2680 2680 2680 2680 2680 2680 2680 2680 2680 2680 2680 2184 2184 2184 2184 2184 2184 2184 2184 2184 2184 2184 2184 2184 2184 2184 2184 2701 2701 2723 2723 2723 2723 2301 2301 2301 2301 2301 2301 2317 2317 2301 2301 2301 2286 1823 1823 1833 1833 1823 1813 1804 1804 1804 1785 1785 1776 1776 1766 1766 1757 1757 1757 1757 1757 1757 1757 1766 1523 1523 1523 1516 1516 1516 1509 1503 1503 1503 1509 1509 1509 1516 1516 1516 1516 1516 1516 1516 1523 1523 1523 1785 1785 1785 1785 1785 1785 1785 1785 1794 1794 1794 1804 1804 1804 1804 1470 1464 1464 1464 1464 1458 1458 1458 1452 1452 1458 1458 1464 1464 1464 1470 1470 1477 1483 1483 1483 1489 1489 1483 1483 1483 1483 1489 1489 1489 1489 1489 1489 1489 1496 1503 1503 1509 1509 1509 1509 1509 1509 1516 1516 1516 1516 1516 1516 1523 1523 1529 1529 1536 1536 1536 1536 1543 1543 1543 1550 1550 1557 1557 1564 1564 1564 1564 1564 1564 1564 1564 1564 1564 1572 1572 1579 2016 2016 2016 2005 2005 1993 1993 1993 1993 1993 1632 1632 1624 1624 1624 1624 1624 1616 1616 1616 1616 1616 1616 1616 1624 1624 1624 1863 1863 1853 1853 1863 1863 1863 1853 1853 1853 1853 1863 1863 1863 1863 1863 1863 1863 1863 1863 1863 1863 1863 1863 1863 1873 1873 1873 1873 1873 1873 1873 1873 1873 1873 1873 1873 1873 1873 1873 1873 1873 1883 1655 1655 1639 1632 1632 1624 1624 1624 1624 1624 1624 1624 1624 1624 1624 1624 1624 1624 1632 1873 1883 1883 1883 1883 1883 1883 1883 1883 1883 1883 1883 1894 1894 1894 1883 1883 1894 1894 1894 1894 1904 1904 1904 1904 1894 1894 1894 1894 1894 1894 1894 1894 1894 1894 1894 1894 1883 1873 1873 1863 1863 2933 2933 2933 2908 2908 2908 1776 1776 1776 1776 1766 1766 1757 1757 1757 1748 1748 1748 1748 1748 1748 1748 1748 1748 1748 1748 2028 2028 2016 2016 2016 2016 2016 2005 2005 1993 1993 1993 1993 1993 1993 1993 1993 2005 2005 2005 2016 2016 2016 2016 2028 2933 2933 2933 2933 2933 2958 2933 2933 2933 2933 2933 2933 2933 2933 2958 2933 2933 2933 2933 2958 2958 2933 2933 2933 2933 2933 2933 2933 2933 2933 2933 2933 2933 2933 2933 2933 2933 2933 2933 2933 2933 2933 2933 2933 2908 2908 2908 2908 2908 2908 2908 2908 2908 2933 2908 2908 2908 2908 2908 2908 2908 2908 0 0 0 0 0 0 0 0 0 0 0
0 0 0 0 0 0 0 0 0 0 0 0 0 0 0 0 0 0 0 0 0 0 0 0 0 0 0 0 0 0 0 0 0 2467 2467 2485 2485 2485 2485 2485 2485 2485 2485 2485 2485 2485 2485 2485 2485 2485 2503 2503 2503 2522 2522 2503 2503 2503 2503 2503 2503 2503 2503 2503 2503 2503 2503 2503 2503 2522 2522 2522 2503 2503 2503 2522 2522 2522 2522 2522 2522 2522 2522 2522 2522 2522 2522 2541 2541 2541 2541 2541 2541 2541 2541 2541 2541 2560 2560 2541 2541 2541 2541 2541 2541 2541 2541 2560 2560 2560 2560 2560 2560 2560 2560 2560 2560 2560 2560 2579 2579 2579 2598 2598 2598 2598 2598 2598 2598 2579 2579 2579 2579 2579 2579 2579 2579 2598 2598 2598 2598 2598 2618 2618 2618 2618 2618 2618 2618 2618 2618 2618 2618 2618 2618 2618 2598 2598 2598 2618 2598 2598 2618 2618 2618 2618 2618 2618 2618 2618 2618 2618 2618 2639 2639 2659 2639 2639 2639 2659 2639 2639 2639 2639 2659 2659 2659 2659 2659 2659 2659 2659 2659 2659 2659 2659 2659 2659 2680 2680 2680 2680 2680 2680 2680 2680 2680 2680 2680 2659 2659 2680 2680 2680 2184 2184 2184 2184 2184 2184 2184 2184 2184 2184 2184 2198 2198 2184 2184 2680 2701 2701 2701 2701 2701 2301 2301 2301 2301 2301 2317 2317 2317 2301 2301 2301 2286 2286 1833 1833 1833 1823 1813 1813 1804 1804 1794 1785 1776 1776 1766 1757 1757 1757 1757 1757 1757 1757 1757 1757 1523 1523 1523 1516 1516 1516 1509 1503 1503 1509 1509 1509 1509 1516 1516 1516 1516 1516 1516 1516 1523 1523 1523 1776 1776 1776 1776 1776 1776 1776 1785 1785 1785 1785 1794 1794 1804 1470 1470 1464 1464 1464 1464 1458 1458 1458 1458 1458 1458 1464 1464 1464 1470 1477 1477 1483 1489 1489 1489 1489 1489 1483 1483 1489 1489 1489 1489 1489 1489 1489 1496 1496 1496 1503 1509 1509 1509 1509 1509 1516 1516 1516 1516 1516 1523 1523 1523 1523 1529 1536 1536 1536 1536 1543 1543 1543 1543 1543 1550 1557 1557 1564 1564 1564 1564 1564 1564 1564 1564 1564 1564 1564 2028 2028 2028 2016 2016 2016 2016 2005 2005 1993 1993 1993 1632 1632 1632 1624 1624 1624 1624 1624 1616 1616 1616 1616 1616 1616 1624 1624 1624 1624 1863 1863 1853 1853 1853 1853 1853 1853 1843 1843 1853 1853 1853 1853 1853 1853 1853 1853 1853 1863 1863 1863 1863 1863 1863 1863 1863 1863 1863 1863 1863 1863 1863 1873 1873 1873 1873 1873 1873 1873 1873 1873 1873 1655 1655 1639 1639 1632 1624 1624 1624 1624 1624 1624 1624 1624 1624 1624 1624 1632 1632 1632 1873 1873 1873 1873 1873 1873 1873 1873 1873 1883 1883 1883 1883 1883 1883 1883 1883 1883 1883 1894 1894 1894 1894 1894 1894 1883 1883 1883 1883 1883 1894 1894 1894 1883 1883 1883 1883 1873 1873 1873 1863 1863 1863 2933 2933 2908 2908 2908 1776 1776 1776 1776 1766 1766 1766 1757 1757 1748 1748 1748 1748 1748 1748 1748 1748 1748 1748 1748 2016 2016 2016 2016 2016 2016 2016 2016 2005 2005 2005 2005 1993 1993 1993 1993 1993 2005 2016 2016 2016 2016 2016 2016 2028 2908 2933 2933 2933 2933 2933 2933 2933 2933 2933 2933 2933 2933 2933 2933 2933 2933 2933 2933 2933 2933 2933 2933 2933 2933 2933 2933 2933 2933 2933 2933 2933 2933 2933 2908 2908 2933 2933 2933 2933 2933 2933 2933 2933 2908 2908 2908 2908 2908 2908 2908 2908 2908 2908 2908 2908 2908 2908 2908 2908 2908 2908 0 0 0 0 0 0 0 0 0 0 0
0 0 0 0 0 0 0 0 0 0 0 0 0 0 0 0 0 0 0 0 0 0 0 0 0 0 0 0 0 0 0 0 0 2467 2467 2467 2467 2467 2467 2467 2467 2467 2467 2467 2467 2485 2485 2485 2485 2485 2485 2485 2503 2503 2503 2503 2503 2503 2503 2503 2503 2503 2503 2503 2503 2503 2503 2503 2503 2503 2503 2503 2485 2485 2503 2503 2503 2522 2522 2522 2522 2522 2522 2522 2522 2522 2522 2522 2522 2522 2522 2522 2522 2522 2522 2541 2541 2541 2541 2541 2541 2541 2541 2541 2541 2541 2541 2541 2541 2560 2560 2560 2560 2560 2560 2560 2560 2560 2560 2560 2560 2560 2560 2579 2579 2579 2579 2579 2579 2579 2579 2579 2579 2579 2579 2579 2579 2579 2598 2598 2598 2598 2598 2598 2598 2598 2598 2598 2598 2618 2618 2618 2618 2618 2618 2618 2598 2598 2598 2598 2598 2598 2598 2598 2618 2598 2598 2598 2598 2618 2618 2618 2618 2639 2639 2639 2639 2639 2639 2639 2639 2639 2639 2639 2659 2659 2659 2659 2659 2659 2659 2659 2659 2659 2659 2659 2659 2659 2659 2659 2659 2659 2659 2659 2659 2659 2659 2680 2659 2659 2659 2659 2680 2680 2184 2184 2184 2184 2184 2184 2184 2184 2184 2184 2198 2198 2198 2184 2184 2680 2680 2680 2680 2680 2680 2301 2301 2301 2301 2317 2317 2317 2317 2301 2301 2301 2286 2286 1833 1833 1833 1833 1823 1813 1813 1804 1794 1785 1776 1776 1766 1757 1748 1748 1748 1748 1748 1748 1748 1748 1748 1523 1523 1516 1516 1516 1509 1509 1509 1509 1509 1516 1516 1516 1516 1516 1516 1516 1516 1523 1523 1523 1523 1776 1766 1766 1776 1776 1776 1776 1776 1776 1776 1776 1776 1776 1776 1470 1470 1464 1464 1464 1464 1458 1458 1458 1458 1458 1464 1464 1464 1470 1470 1477 1483 1483 1489 1489 1489 1496 1496 1489 1489 1489 1489 1489 1489 1489 1496 1496 1496 1496 1503 1509 1509 1509 1509 1509 1516 1516 1516 1516 1523 1523 1529 1529 1529 1536 1536 1536 1536 1536 1536 1543 1543 1543 1543 1550 1557 1557 1564 1564 1564 1564 1564 1564 1564 1564 1564 1564 1564 2016 2028 2028 2028 2028 2028 2028 2016 2016 2005 1993 1639 1639 1632 1632 1632 1632 1632 1624 1624 1624 1616 1616 1616 1616 1624 1624 1624 1624 1624 1624 1853 1853 1853 1853 1853 1853 1853 1843 1843 1843 1843 1843 1843 1843 1843 1843 1843 1843 1853 1853 1853 1853 1853 1853 1863 1863 1863 1863 1863 1863 1863 1863 1863 1863 1863 1863 1863 1863 1863 1863 1873 1873 1873 1655 1655 1647 1639 1632 1632 1624 1624 1624 1624 1624 1624 1624 1632 1632 1632 1632 1632 1853 1873 1873 1873 1873 1873 1873 1873 1873 1873 1873 1873 1873 1873 1873 1873 1873 1873 1883 1883 1883 1883 1883 1883 1883 1883 1873 1873 1873 1873 1883 1883 1883 1883 1873 1873 1873 1873 1873 1873 1873 1863 1863 1863 1863 1863 1863 1785 1785 1776 1776 1776 1776 1766 1766 1757 1757 1757 1748 1748 1748 1748 1748 1748 1748 1748 1748 1748 1748 2016 2016 2016 2016 2016 2016 2016 2016 2005 2005 2005 2005 1993 1993 2005 2005 2005 2016 2016 2016 2016 2016 2005 2005 2883 2908 2908 2933 2908 2908 2933 2933 2933 2933 2933 2933 2908 2908 2908 2933 2908 2908 2908 2933 2933 2933 2933 2933 2933 2933 2933 2933 2908 2908 2908 2908 2908 2908 2908 2908 2908 2908 2908 2908 2908 2908 2908 2908 2933 2908 2883 2883 2908 2883 2883 2883 2883 2883 2883 2908 2883 2883 2883 2883 2908 2908 2908 0 0 0 0 0 0 0 0 0 0 0
0 0 0 0 0 0 0 0 0 0 0 0 0 0 0 0 0 0 0 0 0 0 0 0 0 0 0 0 0 0 0 0 0 2467 2467 2467 2467 2467 2450 2450 2467 2467 2467 2467 2467 2467 2467 2467 2467 2485 2485 2485 2485 2485 2485 2485 2485 2485 2485 2485 2485 2485 2485 2485 2485 2485 2485 2485 2485 2485 2503 2503 2485 2485 2485 2485 2503 2503 2503 2503 2522 2522 2522 2503 2503 2503 2503 2522 2522 2522 2522 2522 2522 2522 2522 2522 2522 2541 2541 2541 2541 2541 2541 2541 2541 2541 2541 2541 2541 2541 2541 2541 2541 2541 2541 2541 2541 2541 2560 2560 2560 2560 2560 2560 2560 2560 2560 2579 2579 2560 2560 2560 2560 2560 2560 2560 2560 2560 2579 2579 2579 2579 2598 2598 2598 2579 2579 2598 2598 2598 2598 2598 2598 2598 2618 2618 2598 2598 2598 2598 2598 2598 2598 2598 2598 2598 2598 2598 2598 2598 2598 2618 2618 2618 2618 2618 2618 2618 2618 2618 2618 2618 2639 2639 2639 2659 2659 2659 2639 2639 2639 2639 2639 2639 2639 2659 2659 2659 2659 2659 2659 2659 2659 2659 2659 2659 2659 2659 2659 2659 2659 2659 2659 2659 2184 2184 2184 2184 2184 2184 2184 2184 2184 2184 2198 2198 2198 2184 2184 2659 2659 2680 2680 2680 2680 2301 2301 2301 2301 2317 2317 2317 2317 2301 2301 2301 2286 2286 1833 1833 1843 1833 1833 1823 1813 1813 1804 1794 1776 1776 1766 1748 1748 1748 1739 1739 1739 1739 1739 1748 1748 1523 1523 1523 1516 1516 1516 1509 1509 1509 1516 1516 1516 1516 1516 1516 1516 1516 1516 1523 1523 1523 1523 1766 1766 1766 1766 1766 1766 1766 1776 1766 1766 1766 1776 1776 1776 1470 1470 1464 1464 1464 1464 1464 1464 1458 1458 1464 1464 1464 1470 1470 1477 1483 1483 1483 1489 1489 1496 1496 1496 1489 1489 1489 1489 1489 1496 1496 1496 1496 1503 1503 1503 1509 1509 1509 1509 1516 1516 1516 1523 1523 1523 1523 1529 1536 1536 1536 1536 1536 1536 1536 1536 1543 1543 1550 1550 1550 1557 1564 1572 1572 1572 1572 1572 1572 1833 1833 1833 2016 2016 2028 2028 2040 2028 2028 2028 2028 2016 2016 2005 1993 1639 1639 1639 1639 1632 1632 1632 1624 1624 1624 1624 1624 1624 1624 1624 1624 1624 1624 1624 1853 1853 1853 1833 1833 1833 1833 1833 1833 1833 1833 1833 1833 1833 1833 1833 1833 1833 1833 1833 1833 1843 1843 1843 1843 1843 1843 1843 1843 1853 1853 1853 1853 1853 1853 1863 1863 1853 1853 1863 1863 1863 1863 1655 1655 1655 1647 1639 1639 1632 1632 1632 1632 1624 1624 1624 1632 1632 1632 1639 1639 1639 1863 1863 1873 1873 1873 1873 1873 1863 1863 1863 1863 1863 1873 1873 1873 1873 1873 1873 1873 1873 1873 1873 1873 1873 1873 1873 1863 1863 1863 1863 1873 1873 1873 1873 1873 1873 1863 1863 1863 1863 1863 1863 1863 1863 1863 1853 1853 1853 1785 1785 1776 1776 1776 1766 1766 1757 1757 1757 1748 1748 1748 1748 1748 1748 1748 1748 1748 1757 1993 2016 2016 2016 2016 2016 2016 2016 2016 2005 2005 2005 2005 2005 2005 2005 2005 2005 2016 2016 2016 2005 2005 2005 2005 2883 2883 2908 2908 2883 2883 2908 2908 2908 2908 2908 2908 2908 2908 2908 2908 2908 2908 2908 2908 2933 2933 2933 2933 2933 2908 2908 2908 2908 2908 2908 2908 2908 2908 2908 2883 2883 2908 2908 2908 2908 2908 2883 2883 2908 2908 2883 2883 2908 2883 2883 2883 2883 2883 2883 2883 2883 2883 2883 2883 2883 2883 2908 0 0 0 0 0 0 0 0 0 0 0
0 0 0 0 0 0 0 0 0 0 0 0 0 0 0 0 0 0 0 0 0 0 0 0 0 0 0 0 0 0 0 0 0 2450 2450 2450 2450 2450 2450 2450 2467 2467 2467 2467 2467 2467 2467 2467 2467 2467 2467 2485 2485 2485 2485 2485 2485 2485 2485 2485 2485 2485 2485 2485 2485 2485 2485 2485 2485 2485 2485 2485 2467 2467 2467 2485 2485 2503 2503 2503 2503 2503 2503 2503 2485 2485 2503 2503 2503 2503 2503 2503 2503 2503 2503 2522 2522 2522 2522 2522 2541 2541 2541 2541 2541 2541 2541 2541 2541 2541 2541 2541 2541 2541 2541 2541 2541 2541 2541 2541 2541 2541 2541 2560 2560 2560 2560 2560 2560 2560 2560 2541 2541 2541 2541 2541 2541 2560 2560 2560 2560 2560 2579 2579 2579 2579 2579 2579 2579 2579 2579 2598 2598 2598 2618 2598 2598 2598 2598 2598 2598 2598 2598 2598 2598 2598 2598 2598 2579 2579 2598 2598 2598 2598 2598 2598 2618 2618 2618 2618 2618 2618 2618 2618 2618 2618 2618 2618 2618 2618 2618 2618 2618 2618 2639 2639 2639 2639 2659 2659 2659 2659 2659 2659 2659 2639 2639 2639 2639 2639 2659 2659 2659 2659 2198 2198 2198 2184 2184 2184 2184 2184 2184 2198 2198 2198 2198 2184 2184 2659 2659 2659 2659 2659 2659 2301 2301 2301 2301 2317 2317 2317 2317 2301 2301 2301 2286 2286 1833 1833 1843 1833 1833 1823 1813 1813 1804 1804 1785 1776 1766 1748 1748 1748 1739 1739 1739 1739 1739 1739 1748 1523 1523 1523 1516 1516 1516 1509 1509 1516 1516 1516 1516 1516 1516 1516 1516 1523 1523 1523 1523 1523 1523 1766 1757 1757 1766 1766 1766 1766 1766 1766 1766 1766 1766 1766 1766 1464 1464 1464 1464 1464 1464 1464 1464 1464 1464 1464 1464 1464 1470 1470 1477 1483 1483 1489 1489 1489 1496 1496 1496 1489 1489 1489 1489 1496 1496 1496 1496 1496 1503 1503 1503 1509 1509 1509 1509 1516 1516 1516 1523 1523 1529 1529 1536 1536 1536 1536 1536 1536 1536 1536 1543 1543 1543 1550 1550 1557 1564 1794 1794 1804 1804 1813 1813 1813 1823 1823 1823 2016 2016 2028 2028 2040 2040 2040 2040 2040 2040 2040 2053 2053 1647 1639 1639 1639 1639 1632 1632 1632 1624 1624 1624 1624 1624 1624 1624 1624 1624 1624 1632 1853 1853 1853 1833 1833 1833 1833 1833 1823 1823 1823 1823 1823 1823 1823 1823 1823 1833 1833 1833 1833 1833 1833 1833 1833 1833 1833 1833 1833 1833 1833 1833 1833 1833 1833 1843 1843 1843 1843 1843 1853 1853 1863 1655 1655 1647 1647 1639 1639 1632 1632 1632 1632 1632 1632 1632 1632 1632 1639 1639 1639 1647 1853 1863 1863 1863 1863 1863 1863 1863 1863 1863 1863 1863 1863 1863 1863 1863 1863 1863 1873 1873 1873 1873 1873 1873 1873 1873 1863 1863 1863 1863 1863 1863 1863 1863 1863 1863 1863 1863 1863 1863 1863 1863 1863 1863 1853 1853 1833 1823 1785 1785 1776 1776 1776 1766 1766 1766 1757 1757 1757 1757 1757 1757 1757 1757 1757 1757 1757 1981 1981 2005 2016 2028 2028 2028 2028 2016 2016 2016 2005 2005 2016 2016 2016 2005 2005 2016 2016 2005 2005 2005 1993 1993 2883 2883 2883 2883 2883 2883 2883 2883 2908 2883 2883 2883 2883 2883 2883 2908 2908 2883 2883 2908 2908 2908 2933 2933 2933 2908 2908 2908 2908 2908 2908 2883 2883 2883 2883 2883 2883 2883 2883 2883 2883 2883 2883 2883 2883 2908 2883 2883 2883 2908 2883 2883 2883 2883 2883 2883 2883 2859 2859 2883 2883 2883 2883 2883 0 0 0 0 0 0 0 0 0 0 0
0 0 0 0 0 0 0 0 0 0 0 0 0 0 0 0 0 0 0 0 0 0 0 0 0 0 0 0 0 0 0 0 0 2450 2450 2450 2450 2450 2450 2450 2450 2450 2450 2450 2450 2450 2450 2450 2450 2450 2467 2467 2467 2467 2467 2467 2467 2467 2467 2485 2485 2485 2485 2485 2485 2485 2485 2485 2485 2485 2485 2485 2467 2467 2467 2467 2485 2485 2485 2485 2485 2485 2485 2485 2485 2485 2485 2485 2485 2485 2485 2485 2485 2503 2503 2503 2503 2522 2522 2522 2522 2522 2522 2522 2522 2522 2522 2522 2522 2541 2541 2541 2541 2541 2541 2541 2541 2541 2541 2541 2541 2541 2541 2541 2541 2541 2541 2541 2541 2541 2541 2541 2541 2541 2541 2541 2541 2560 2560 2560 2560 2560 2560 2579 2560 2560 2560 2579 2579 2579 2579 2579 2579 2598 2598 2598 2579 2579 2579 2579 2579 2579 2579 2579 2579 2579 2579 2579 2579 2579 2579 2579 2579 2579 2598 2598 2598 2598 2598 2598 2598 2598 2618 2618 2618 2618 2618 2618 2618 2618 2618 2618 2618 2618 2618 2618 2618 2618 2639 2639 2639 2639 2639 2639 2639 2639 2639 2639 2639 2639 2639 2639 2659 2659 2198 2198 2198 2184 2184 2184 2184 2198 2198 2198 2198 2198 2198 2198 2198 2198 2639 2659 2659 2659 2659 2301 2301 2301 2301 2317 2317 2333 2333 2317 2317 2317 2301 2301 1843 1843 1843 1843 1833 1823 1823 1813 1813 1804 1794 1785 1776 1748 1748 1748 1739 1739 1739 1739 1739 1739 1748 1523 1523 1523 1523 1516 1516 1516 1516 1516 1516 1516 1516 1516 1516 1516 1523 1523 1523 1523 1523 1523 1523 1757 1748 1748 1757 1757 1757 1757 1757 1757 1757 1757 1766 1766 1766 1464 1464 1470 1470 1470 1464 1464 1464 1464 1464 1464 1464 1470 1470 1477 1477 1483 1483 1489 1489 1496 1496 1496 1496 1496 1496 1489 1489 1496 1489 1489 1496 1496 1503 1503 1503 1509 1509 1509 1509 1516 1516 1516 1523 1523 1529 1529 1536 1536 1536 1536 1543 1543 1536 1536 1543 1543 1794 1794 1794 1794 1794 1794 1794 1804 1804 1804 1804 1804 1813 1813 1804 1804 1804 2028 2028 2040 2040 2040 2040 2040 2040 2040 2053 2053 2053 1639 1639 1639 1639 1632 1632 1624 1624 1624 1624 1624 1624 1624 1624 1624 1624 1624 1853 1853 1853 1853 1833 1833 1833 1833 1833 1823 1823 1823 1823 1823 1823 1823 1823 1823 1823 1823 1823 1823 1833 1833 1833 1833 1833 1833 1833 1833 1833 1833 1833 1833 1833 1833 1833 1833 1833 1833 1833 1843 1853 1663 1655 1655 1647 1647 1647 1639 1632 1632 1632 1632 1632 1632 1632 1632 1639 1639 1639 1647 1647 1853 1853 1853 1853 1853 1853 1853 1853 1853 1853 1853 1853 1853 1853 1853 1863 1863 1863 1863 1863 1863 1863 1863 1863 1863 1863 1853 1853 1853 1853 1853 1863 1863 1863 1863 1863 1863 1863 1863 1863 1863 1863 1863 1863 1853 1843 1823 1813 1794 1785 1785 1785 1776 1776 1766 1766 1766 1766 1757 1757 1757 1757 1757 1757 1757 1757 1757 1981 1981 1993 2016 2028 2028 2028 2028 2016 2016 2016 2016 2016 2016 2016 2016 2016 2016 2016 2016 2005 2005 1993 1993 1993 2859 2859 2883 2883 2883 2859 2859 2883 2883 2883 2883 2883 2883 2883 2883 2883 2883 2883 2883 2883 2908 2908 2908 2908 2908 2908 2908 2908 2908 2883 2883 2883 2883 2883 2883 2883 2883 2883 2883 2883 2883 2859 2859 2859 2859 2883 2859 2859 2859 2883 2883 2883 2859 2859 2859 2859 2859 2859 2859 2859 2859 2859 2859 2859 0 0 0 0 0 0 0 0 0 0 0
0 0 0 0 0 0 0 0 0 0 0 0 0 0 0 0 0 0 0 0 0 0 0 0 0 0 0 0 0 0 0 0 0 2450 2450 2450 2432 2432 2450 2450 2450 2450 2432 2432 2432 2432 2432 2432 2432 2450 2450 2467 2467 2467 2467 2467 2467 2467 2467 2467 2467 2467 2467 2467 2467 2467 2467 2467 2467 2467 2467 2467 2467 2467 2467 2467 2467 2467 2467 2467 2467 2467 2467 2467 2467 2467 2467 2467 2467 2467 2467 2485 2485 2485 2503 2503 2503 2503 2503 2522 2522 2522 2522 2522 2522 2522 2522 2522 2522 2522 2522 2522 2522 2522 2541 2522 2522 2522 2522 2522 2522 2522 2541 2541 2541 2541 2541 2541 2541 2541 2541 2541 2541 2541 2541 2541 2541 2541 2560 2560 2560 2560 2560 2560 2560 2560 2560 2560 2579 2579 2579 2579 2579 2579 2598 2598 2579 2579 2579 2579 2579 2579 2579 2579 2579 2579 2579 2579 2579 2579 2579 2579 2579 2579 2579 2598 2598 2598 2598 2598 2598 2598 2598 2598 2598 2598 2598 2598 2598 2598 2598 2598 2598 2598 2598 2598 2618 2618 2618 2618 2618 2639 2618 2618 2618 2618 2618 2618 2618 2618 2639 2639 2639 2639 2198 2198 2198 2184 2184 2184 2184 2198 2198 2198 2198 2198 2198 2198 2198 2198 2639 2639 2639 2639 2659 2301 2301 2301 2301 2317 2317 2333 2333 2317 2317 2333 2333 2333 1843 1843 1843 1843 1833 1823 1823 1823 1813 1804 1794 1785 1776 1757 1748 1748 1739 1739 1731 1731 1739 1739 1739 1523 1523 1523 1523 1523 1516 1516 1516 1516 1516 1516 1516 1523 1523 1523 1523 1523 1523 1523 1523 1523 1748 1748 1739 1739 1748 1748 1748 1748 1748 1748 1748 1748 1748 1748 1748 1464 1464 1470 1470 1470 1464 1464 1464 1464 1464 1464 1470 1470 1470 1477 1477 1483 1489 1489 1496 1496 1496 1503 1503 1496 1496 1496 1496 1496 1489 1489 1496 1496 1503 1503 1503 1509 1509 1509 1516 1516 1516 1516 1529 1529 1529 1536 1543 1543 1536 1536 1543 1543 1776 1776 1785 1785 1785 1794 1794 1794 1794 1794 1794 1794 1804 1804 1804 1804 1813 1804 1804 1804 1804 1804 2028 2040 2040 2040 2040 2040 2040 2040 2053 2053 1655 1647 1639 1639 1639 1632 1632 1624 1624 1624 1624 1624 1624 1624 1624 1624 1624 1624 1863 1863 1863 1853 1833 1833 1833 1833 1833 1823 1823 1823 1823 1823 1823 1813 1813 1823 1823 1823 1823 1823 1823 1823 1823 1823 1823 1823 1823 1823 1823 1823 1823 1823 1833 1833 1833 1833 1833 1833 1833 1833 1843 1655 1655 1655 1655 1647 1647 1647 1639 1639 1632 1632 1632 1632 1632 1639 1639 1647 1647 1655 1843 1843 1843 1843 1843 1843 1843 1843 1843 1843 1843 1843 1843 1843 1843 1843 1833 1833 1833 1843 1843 1853 1853 1853 1863 1863 1853 1853 1853 1843 1843 1843 1843 1853 1853 1853 1853 1853 1853 1853 1853 1853 1853 1853 1853 1853 1843 1823 1813 1794 1794 1785 1785 1776 1776 1766 1766 1766 1766 1757 1757 1757 1766 1766 1766 1766 1757 1757 1981 1981 1993 2016 2016 2028 2016 2016 2016 2005 2005 2016 2016 2016 2016 2016 2016 2016 2016 2016 2005 2005 1993 1993 1993 2859 2859 2883 2883 2883 2859 2859 2883 2883 2859 2859 2883 2883 2883 2883 2883 2883 2859 2859 2883 2883 2883 2883 2883 2883 2883 2859 2859 2859 2859 2859 2859 2859 2859 2883 2883 2883 2883 2883 2859 2859 2859 2859 2835 2835 2859 2859 2859 2859 2859 2859 2859 2859 2835 2835 2859 2835 2835 2835 2859 2859 2859 2859 2859 0 0 0 0 0 0 0 0 0 0 0
0 0 0 0 0 0 0 0 0 0 0 0 0 0 0 0 0 0 0 0 0 0 0 0 0 0 0 0 0 0 0 0 0 2432 2432 2432 2432 2432 2432 2432 2432 2432 2432 2432 2432 2432 2432 2432 2432 2432 2450 2450 2450 2450 2450 2467 2467 2467 2467 2467 2467 2467 2467 2467 2467 2467 2467 2467 2467 2467 2467 2467 2450 2450 2450 2467 2467 2467 2467 2467 2467 2467 2467 2467 2467 2467 2467 2467 2467 2467 2467 2467 2485 2485 2485 2485 2485 2485 2485 2485 2503 2503 2503 2503 2503 2522 2522 2522 2522 2522 2522 2522 2522 2522 2522 2522 2522 2522 2522 2522 2522 2522 2522 2541 2541 2541 2522 2522 2522 2541 2541 2522 2522 2541 2541 2541 2541 2541 2541 2541 2541 2560 2560 2560 2560 2541 2541 2560 2560 2560 2560 2560 2560 2579 2579 2579 2579 2560 2560 2560 2560 2560 2560 2560 2579 2579 2579 2579 2579 2579 2579 2579 2579 2579 2579 2579 2579 2579 2579 2598 2598 2598 2598 2598 2598 2598 2598 2598 2598 2598 2598 2579 2579 2579 2598 2598 2598 2598 2598 2598 2618 2618 2598 2598 2598 2598 2598 2598 2598 2598 2618 2618 2618 2618 2184 2184 2184 2184 2184 2184 2198 2198 2198 2198 2198 2198 2198 2198 2198 2198 2618 2639 2639 2639 2659 2301 2301 2301 2301 2317 2317 2333 2333 2317 2317 2333 2333 2333 1843 1843 1843 1843 1833 1833 1833 1833 1813 1804 1794 1785 1776 1757 1748 1748 1739 1739 1731 1731 1731 1739 1739 1523 1523 1523 1523 1523 1516 1516 1516 1516 1516 1523 1523 1523 1523 1523 1523 1523 1523 1529 1523 1523 1739 1739 1739 1739 1739 1739 1739 1748 1739 1739 1739 1739 1739 1748 1748 1470 1470 1470 1470 1470 1464 1464 1464 1464 1464 1470 1470 1470 1470 1477 1477 1483 1489 1489 1489 1757 1757 1757 1757 1748 1748 1757 1757 1757 1766 1766 1766 1766 1757 1757 1757 1757 1757 1757 1757 1757 1757 1766 1766 1536 1536 1536 1766 1766 1766 1776 1776 1776 1776 1776 1776 1785 1785 1785 1785 1794 1794 1794 1794 1794 1794 1794 1794 1794 1804 1804 1794 1794 1794 1804 1804 1804 2040 2040 2040 2040 2040 2040 2053 1655 1655 1647 1639 1639 1639 1632 1632 1632 1632 1624 1624 1624 1624 1624 1624 1624 1632 1632 1863 1863 1863 1853 1843 1833 1833 1833 1833 1823 1823 1823 1823 1813 1813 1804 1804 1813 1813 1813 1813 1813 1813 1823 1823 1823 1823 1823 1823 1823 1823 1823 1823 1823 1823 1823 1823 1833 1823 1823 1823 1833 1663 1655 1655 1655 1655 1647 1647 1647 1639 1639 1639 1639 1639 1639 1639 1647 1647 1647 1655 1655 1843 1843 1833 1833 1833 1833 1833 1833 1833 1833 1833 1833 1833 1833 1833 1833 1833 1833 1833 1833 1833 1843 1843 1853 1853 1853 1853 1843 1843 1833 1833 1843 1843 1843 1843 1843 1843 1843 1843 1843 1853 1853 1853 1843 1843 1833 1823 1813 1813 1794 1794 1785 1785 1776 1776 1776 1766 1766 1766 1766 1766 1766 1766 1766 1776 1776 1776 1776 1970 1970 1993 2016 2016 2016 2016 2016 2016 2005 2005 2005 2005 2005 2016 2016 2016 2016 2028 2016 2005 2005 1993 1993 2859 2859 2859 2859 2859 2859 2859 2859 2859 2883 2859 2859 2859 2859 2859 2859 2859 2859 2859 2859 2859 2859 2859 2859 2859 2859 2859 2835 2835 2835 2835 2835 2835 2835 2859 2883 2883 2883 2859 2859 2859 2859 2835 2835 2835 2835 2859 2859 2835 2835 2859 2835 2835 2835 2835 2835 2835 2835 2835 2835 2835 2835 2835 2835 2835 0 0 0 0 0 0 0 0 0 0 0
0 0 0 0 0 0 0 0 0 0 0 0 0 0 0 0 0 0 0 0 0 0 0 0 0 0 0 0 0 0 0 0 0 2415 2415 2432 2415 2415 2432 2432 2415 2415 2415 2415 2415 2415 2415 2415 2415 2432 2432 2432 2432 2432 2450 2450 2450 2450 2450 2450 2450 2450 2450 2450 2450 2467 2467 2467 2467 2467 2467 2467 2450 2450 2450 2450 2450 2450 2467 2467 2467 2467 2450 2450 2467 2450 2450 2450 2450 2450 2467 2467 2467 2467 2467 2467 2485 2467 2467 2467 2485 2485 2485 2503 2503 2503 2503 2503 2503 2503 2503 2522 2503 2503 2503 2503 2503 2503 2522 2522 2522 2522 2522 2522 2522 2522 2522 2522 2522 2522 2522 2522 2522 2522 2522 2522 2522 2522 2522 2541 2541 2541 2541 2541 2541 2541 2541 2541 2560 2560 2560 2560 2560 2579 2579 2579 2579 2560 2541 2541 2541 2560 2560 2560 2560 2579 2579 2560 2560 2560 2560 2560 2560 2560 2560 2560 2579 2579 2579 2579 2579 2598 2598 2598 2598 2598 2598 2598 2598 2598 2579 2579 2579 2579 2579 2579 2579 2579 2598 2598 2598 2598 2598 2598 2598 2598 2598 2598 2598 2598 2598 2598 2598 2598 2184 2184 2184 2184 2184 2184 2198 2198 2198 2198 2198 2198 2212 2198 2198 2198 2618 2639 2639 2639 2301 2301 2317 2317 2317 2317 2317 2333 2333 2317 2317 2317 2333 2333 1843 1843 1843 1843 1843 1833 1833 1833 1823 1813 1794 1785 1776 1766 1757 1748 1739 1739 1731 1731 1731 1731 1731 1523 1523 1523 1523 1523 1523 1516 1516 1523 1523 1523 1523 1523 1523 1523 1529 1529 1529 1529 1529 1739 1739 1739 1739 1739 1739 1739 1739 1739 1739 1739 1739 1739 1739 1748 1748 1470 1470 1470 1470 1470 1464 1464 1464 1464 1464 1470 1470 1470 1477 1477 1477 1483 1477 1477 1489 1757 1757 1757 1748 1748 1748 1748 1757 1757 1757 1757 1757 1757 1757 1757 1757 1757 1757 1757 1757 1757 1757 1757 1757 1757 1757 1766 1766 1766 1766 1776 1776 1776 1776 1776 1776 1785 1785 1785 1785 1785 1785 1785 1785 1785 1785 1785 1794 1794 1794 1794 1794 1794 1794 1794 1794 1794 1794 2053 2053 2053 2040 2040 2053 1655 1655 1655 1647 1647 1647 1632 1632 1632 1632 1624 1624 1624 1624 1624 1632 1632 1632 1632 1873 1873 1873 1863 1843 1843 1833 1833 1833 1823 1823 1823 1813 1813 1804 1804 1804 1804 1804 1804 1804 1804 1804 1813 1813 1813 1823 1823 1823 1813 1813 1823 1823 1823 1823 1823 1823 1823 1823 1823 1823 1823 1663 1663 1663 1655 1655 1655 1647 1647 1647 1639 1639 1639 1639 1639 1647 1647 1647 1647 1647 1833 1833 1833 1833 1833 1833 1833 1833 1833 1833 1833 1833 1823 1823 1823 1823 1823 1823 1823 1823 1833 1833 1833 1833 1843 1843 1843 1843 1833 1833 1833 1833 1833 1833 1833 1833 1833 1833 1833 1843 1843 1843 1843 1843 1833 1833 1823 1823 1813 1804 1794 1794 1785 1785 1785 1776 1776 1776 1766 1766 1766 1766 1766 1776 1776 1776 1776 1776 1776 1970 1970 1993 2016 2016 2016 2016 2016 2005 2005 2005 2005 2005 2005 2016 2016 2016 2016 2028 2016 2005 2005 1993 1993 2859 2859 2859 2859 2859 2859 2859 2859 2859 2859 2859 2859 2859 2859 2859 2859 2859 2859 2835 2835 2835 2835 2835 2835 2835 2835 2835 2835 2835 2835 2835 2835 2835 2835 2859 2859 2835 2835 2859 2859 2835 2835 2835 2835 2835 2835 2859 2835 2835 2835 2859 2835 2835 2835 2835 2835 2835 2835 2835 2835 2835 2835 2835 2835 2835 0 0 0 0 0 0 0 0 0 0 0
0 0 0 0 0 0 0 0 0 0 0 0 0 0 0 0 0 0 0 0 0 0 0 0 0 0 0 0 0 0 0 0 0 2415 2415 2415 2415 2415 2415 2415 2415 2415 2415 2415 2415 2415 2415 2415 2415 2415 2432 2432 2432 2432 2432 2450 2450 2450 2450 2450 2450 2450 2450 2450 2450 2450 2450 2467 2467 2467 2467 2467 2450 2450 2450 2450 2450 2450 2450 2450 2450 2450 2450 2450 2450 2450 2450 2450 2450 2450 2467 2467 2467 2467 2467 2467 2467 2467 2467 2467 2467 2485 2485 2485 2485 2503 2503 2485 2485 2503 2503 2503 2485 2485 2503 2503 2503 2503 2503 2503 2503 2503 2503 2522 2522 2522 2503 2503 2522 2522 2522 2503 2503 2522 2522 2522 2522 2522 2522 2522 2522 2522 2522 2541 2541 2541 2541 2541 2541 2541 2541 2560 2560 2560 2579 2579 2560 2541 2541 2541 2541 2541 2541 2541 2560 2560 2560 2560 2541 2541 2560 2560 2541 2541 2560 2560 2560 2560 2560 2579 2579 2579 2579 2579 2579 2579 2579 2579 2579 2579 2579 2579 2579 2579 2579 2579 2579 2579 2579 2579 2579 2579 2579 2579 2598 2598 2598 2598 2598 2598 2598 2598 2598 2598 2184 2184 2184 2184 2184 2184 2198 2198 2198 2198 2198 2198 2212 2212 2198 2198 2618 2618 2618 2639 2301 2301 2301 2317 2317 2317 2317 2333 2333 2317 2317 2317 2333 2333 1843 1843 1843 1843 1843 1843 1843 1833 1833 1823 1813 1794 1785 1776 1766 1757 1748 1739 1731 1731 1731 1731 1731 1523 1523 1523 1523 1523 1523 1516 1516 1523 1523 1523 1523 1523 1523 1529 1529 1529 1529 1529 1529 1529 1731 1731 1731 1731 1731 1731 1739 1739 1739 1739 1739 1739 1739 1739 1739 1477 1477 1470 1470 1470 1470 1470 1470 1470 1470 1470 1470 1477 1477 1477 1477 1483 1477 1477 1748 1757 1757 1757 1748 1748 1748 1748 1748 1748 1748 1757 1757 1757 1757 1757 1757 1757 1757 1757 1757 1757 1757 1757 1757 1757 1757 1766 1766 1766 1766 1776 1776 1776 1776 1776 1776 1776 1776 1776 1776 1776 1776 1785 1785 1785 1785 1785 1785 1785 1785 1785 1785 1785 1785 1785 1794 1794 1794 1794 1794 2040 2040 2040 1663 1655 1655 1655 1647 1647 1647 1632 1632 1632 1632 1624 1624 1632 1632 1632 1632 1632 1632 1632 1873 1873 1873 1863 1853 1843 1843 1833 1833 1823 1813 1813 1813 1804 1804 1804 1794 1794 1794 1794 1804 1804 1804 1804 1804 1804 1813 1813 1813 1813 1813 1813 1813 1813 1813 1813 1813 1813 1813 1813 1813 1823 1663 1663 1655 1655 1655 1655 1647 1647 1647 1647 1639 1639 1639 1647 1647 1647 1647 1647 1647 1823 1823 1823 1823 1823 1823 1823 1823 1823 1823 1823 1823 1823 1823 1813 1813 1823 1823 1823 1823 1823 1823 1833 1833 1833 1833 1833 1833 1823 1823 1823 1823 1823 1823 1823 1823 1823 1823 1833 1833 1833 1833 1833 1833 1823 1823 1823 1813 1804 1804 1794 1794 1785 1785 1785 1776 1776 1776 1776 1776 1776 1776 1776 1776 1776 1776 1776 1785 1785 1981 1981 2005 2016 2016 2016 2016 2016 2005 2005 2005 2005 2005 2005 2016 2016 2016 2028 2028 2028 2005 2005 2835 2859 2859 2859 2835 2835 2835 2835 2835 2835 2835 2859 2835 2835 2859 2859 2859 2859 2859 2859 2835 2835 2835 2835 2835 2835 2835 2835 2835 2835 2835 2835 2812 2812 2812 2835 2835 2835 2812 2812 2835 2835 2835 2835 2835 2835 2835 2835 2835 2835 2835 2835 2835 2835 2835 2835 2812 2812 2812 2812 2812 2812 2812 2812 2812 2812 2812 2812 0 0 0 0 0 0 0 0 0 0
0 0 0 0 0 0 0 0 0 0 0 0 0 0 0 0 0 0 0 0 0 0 0 0 0 0 0 0 0 0 0 0 0 2415 2415 2415 2415 2415 2415 2415 2415 2415 2415 2415 2415 2415 2415 2415 2415 2415 2415 2415 2415 2432 2432 2432 2432 2450 2432 2432 2432 2432 2432 2432 2450 2450 2450 2467 2467 2467 2467 2467 2432 2432 2432 2432 2432 2432 2450 2450 2450 2450 2450 2450 2450 2450 2450 2450 2450 2450 2450 2467 2467 2467 2467 2467 2467 2467 2467 2467 2467 2467 2467 2467 2467 2485 2485 2485 2485 2485 2485 2485 2485 2485 2485 2485 2485 2485 2485 2485 2485 2485 2503 2503 2503 2503 2503 2503 2503 2503 2503 2503 2503 2503 2503 2522 2522 2522 2522 2522 2522 2522 2522 2522 2522 2541 2541 2541 2541 2541 2541 2541 2541 2560 2560 2560 2560 2541 2541 2522 2522 2522 2522 2522 2541 2541 2541 2541 2541 2541 2541 2541 2541 2541 2541 2541 2541 2541 2541 2541 2541 2560 2560 2560 2579 2579 2579 2579 2560 2560 2579 2560 2560 2560 2560 2579 2560 2560 2579 2579 2579 2579 2579 2579 2579 2579 2579 2598 2598 2598 2598 2598 2579 2579 2184 2184 2184 2184 2184 2184 2198 2198 2198 2198 2198 2198 2212 2212 2212 2212 2598 2618 2618 2618 2618 2301 2301 2317 2317 2317 2317 2317 2317 2301 2301 2317 2333 2333 1843 1843 1843 1843 1843 1843 1843 1833 1833 1823 1813 1804 1794 1776 1766 1757 1748 1739 1731 1731 1731 1731 1731 1529 1529 1523 1523 1523 1523 1516 1516 1523 1523 1523 1523 1523 1523 1529 1529 1529 1529 1529 1529 1529 1731 1731 1731 1731 1731 1731 1731 1731 1731 1731 1731 1731 1731 1739 1739 1477 1477 1477 1470 1470 1470 1470 1470 1470 1470 1470 1477 1477 1477 1477 1483 1483 1483 1739 1748 1748 1748 1748 1748 1748 1739 1739 1748 1748 1748 1748 1748 1757 1757 1757 1757 1757 1757 1757 1757 1757 1757 1757 1757 1757 1757 1757 1757 1757 1757 1766 1766 1766 1766 1766 1766 1766 1766 1766 1776 1776 1776 1776 1776 1776 1776 1776 1776 1776 1785 1776 1776 1785 1785 1785 1785 1785 1785 1785 1794 1794 1794 1655 1655 1655 1655 1655 1655 1647 1647 1632 1632 1632 1632 1624 1624 1632 1632 1632 1632 1632 1632 1873 1873 1873 1873 1873 1853 1843 1843 1833 1833 1823 1813 1813 1813 1804 1804 1794 1794 1794 1794 1794 1794 1794 1794 1794 1794 1794 1804 1804 1813 1804 1804 1804 1804 1804 1804 1804 1804 1804 1804 1804 1804 1655 1655 1663 1655 1655 1655 1655 1647 1647 1647 1647 1647 1647 1647 1647 1647 1647 1647 1647 1647 1823 1813 1813 1813 1813 1813 1823 1813 1813 1813 1813 1813 1813 1813 1813 1813 1813 1813 1813 1823 1823 1823 1823 1823 1823 1823 1823 1823 1823 1823 1823 1823 1823 1823 1823 1823 1823 1823 1823 1823 1823 1823 1823 1823 1823 1823 1813 1813 1804 1804 1794 1794 1785 1785 1785 1776 1776 1776 1776 1776 1776 1776 1776 1776 1776 1776 1785 1785 1785 2016 2016 2028 2028 2028 2028 2016 2016 2016 2016 2016 2005 2005 2016 2016 2016 2016 2028 2028 2028 2005 2005 2835 2835 2835 2835 2835 2835 2835 2835 2812 2812 2812 2835 2835 2835 2835 2835 2835 2835 2835 2835 2812 2812 2812 2812 2812 2812 2812 2812 2812 2812 2812 2812 2812 2812 2812 2812 2812 2812 2812 2812 2812 2812 2812 2812 2812 2812 2812 2812 2835 2835 2835 2835 2835 2812 2812 2812 2812 2812 2812 2789 2789 2812 2812 2812 2812 2812 2812 2812 0 0 0 0 0 0 0 0 0 0
0 0 0 0 0 0 0 0 0 0 0 0 0 0 0 0 0 0 0 0 0 0 0 0 0 0 0 0 0 0 0 0 0 2398 2398 2398 2398 2398 2398 2398 2398 2398 2398 2398 2398 2415 2398 2398 2415 2415 2415 2415 2415 2415 2415 2432 2432 2432 2432 2432 2432 2432 2432 2432 2432 2450 2450 2450 2450 2450 2450 2450 2432 2415 2415 2415 2415 2415 2415 2415 2432 2432 2432 2432 2432 2432 2432 2432 2432 2432 2450 2450 2450 2450 2450 2450 2467 2467 2467 2467 2467 2467 2467 2467 2467 2467 2467 2467 2467 2467 2467 2467 2467 2467 2467 2467 2467 2467 2485 2485 2485 2485 2485 2485 2485 2485 2485 2485 2485 2485 2503 2503 2503 2503 2503 2503 2503 2503 2503 2503 2503 2522 2522 2522 2522 2522 2522 2541 2541 2541 2541 2541 2541 2541 2541 2541 2541 2522 2522 2522 2522 2522 2522 2522 2522 2541 2541 2541 2541 2541 2541 2541 2522 2522 2522 2522 2522 2522 2522 2522 2541 2541 2541 2541 2560 2560 2560 2560 2560 2560 2560 2560 2560 2560 2560 2560 2560 2560 2560 2560 2560 2560 2579 2579 2579 2579 2579 2579 2579 2579 2579 2579 2579 2579 2184 2184 2184 2184 2184 2184 2198 2198 2198 2198 2198 2198 2212 2212 2226 2226 2598 2598 2598 2618 2618 2301 2301 2301 2317 2317 2317 2317 2317 2301 2301 2301 2317 1843 1843 1843 1843 1843 1843 1843 1843 1843 1833 1833 1823 1813 1804 1776 1776 1766 1757 1739 1739 1731 1731 1731 1731 1529 1529 1529 1523 1523 1523 1523 1523 1523 1523 1523 1523 1523 1529 1529 1529 1529 1529 1529 1529 1536 1731 1722 1722 1722 1722 1722 1731 1731 1731 1731 1722 1722 1731 1731 1731 1483 1477 1477 1470 1470 1470 1470 1470 1470 1470 1470 1477 1477 1477 1477 1483 1483 1483 1739 1739 1739 1739 1739 1739 1739 1739 1739 1739 1739 1739 1739 1739 1748 1748 1748 1748 1748 1748 1748 1748 1748 1748 1757 1748 1748 1748 1757 1757 1757 1757 1757 1766 1766 1766 1766 1766 1766 1766 1766 1766 1766 1766 1766 1766 1766 1776 1776 1776 1776 1776 1776 1776 1776 1776 1776 1776 1776 1785 1785 1785 1794 1794 1655 1655 1655 1655 1655 1655 1647 1647 1639 1632 1632 1632 1632 1632 1632 1632 1632 1639 1639 1639 1883 1873 1873 1873 1873 1863 1853 1843 1843 1833 1823 1813 1813 1813 1804 1804 1794 1794 1794 1794 1794 1794 1794 1794 1794 1794 1794 1794 1794 1794 1794 1794 1794 1794 1794 1794 1794 1794 1804 1794 1794 1794 1655 1655 1663 1663 1655 1655 1655 1655 1647 1647 1647 1647 1647 1647 1647 1647 1647 1647 1639 1639 1813 1804 1804 1804 1804 1804 1804 1804 1804 1813 1813 1813 1813 1813 1813 1813 1813 1813 1813 1813 1813 1813 1823 1823 1823 1823 1823 1823 1813 1813 1813 1813 1813 1813 1813 1813 1813 1813 1823 1813 1813 1813 1813 1813 1813 1813 1813 1804 1804 1804 1794 1794 1785 1785 1785 1776 1776 1776 1776 1776 1776 1776 1776 1776 1776 1776 1785 1785 1785 2028 2028 2028 2028 2028 2028 2016 2016 2016 2016 2016 2016 2016 2016 2016 2028 2028 2028 2028 2028 2028 2028 2789 2812 2812 2812 2812 2812 2812 2812 2789 2789 2812 2812 2812 2812 2812 2835 2835 2835 2835 2835 2812 2812 2789 2789 2789 2812 2812 2812 2812 2812 2812 2789 2789 2789 2789 2789 2789 2789 2789 2789 2789 2789 2789 2789 2789 2789 2812 2812 2812 2812 2812 2812 2812 2812 2789 2789 2789 2789 2789 2789 2789 2789 2812 2812 2812 2812 2812 2812 0 0 0 0 0 0 0 0 0 0
0 0 0 0 0 0 0 0 0 0 0 0 0 0 0 0 0 0 0 0 0 0 0 0 0 0 0 0 0 0 0 0 0 2398 2398 2398 2398 2398 2398 2398 2398 2398 2398 2398 2398 2398 2398 2398 2415 2415 2415 2398 2398 2415 2415 2415 2415 2415 2415 2415 2415 2415 2432 2432 2432 2450 2450 2450 2450 2450 2432 2432 2415 2398 2398 2398 2398 2415 2415 2415 2415 2415 2415 2415 2415 2415 2415 2415 2415 2415 2432 2432 2450 2450 2450 2450 2450 2450 2450 2450 2450 2467 2450 2450 2450 2467 2467 2467 2467 2467 2467 2467 2467 2450 2450 2467 2467 2467 2467 2467 2467 2467 2467 2467 2467 2467 2467 2467 2467 2467 2467 2485 2485 2485 2503 2503 2503 2503 2503 2503 2503 2503 2522 2522 2522 2522 2522 2522 2522 2522 2522 2522 2541 2541 2541 2541 2541 2522 2522 2503 2503 2503 2503 2522 2522 2522 2522 2522 2522 2522 2541 2522 2522 2522 2522 2522 2522 2522 2522 2522 2522 2522 2522 2541 2541 2541 2541 2541 2541 2541 2541 2541 2541 2560 2560 2560 2560 2560 2560 2560 2560 2560 2560 2560 2560 2560 2560 2579 2579 2579 2579 2560 2560 2579 2579 2184 2184 2184 2184 2184 2198 2198 2198 2198 2198 2212 2226 2226 2241 2598 2598 2598 2598 2598 2301 2301 2301 2301 2317 2317 2317 2317 2301 2286 2286 2286 2286 1843 1843 1843 1843 1843 1843 1843 1843 1843 1843 1843 1833 1813 1804 1785 1776 1766 1757 1748 1739 1739 1731 1731 1731 1529 1529 1529 1523 1523 1523 1523 1523 1523 1523 1523 1523 1529 1529 1529 1529 1529 1529 1529 1529 1536 1722 1713 1713 1713 1713 1722 1722 1722 1722 1722 1722 1722 1722 1731 1489 1483 1483 1477 1470 1470 1470 1470 1470 1470 1470 1477 1477 1477 1483 1483 1483 1483 1483 1731 1731 1739 1739 1739 1731 1731 1731 1731 1731 1731 1731 1739 1739 1739 1739 1739 1748 1748 1748 1748 1748 1748 1748 1748 1739 1739 1748 1748 1748 1757 1757 1757 1757 1757 1757 1757 1757 1757 1757 1757 1766 1766 1766 1766 1766 1766 1766 1766 1766 1766 1766 1766 1766 1766 1766 1766 1776 1776 1776 1776 1785 1785 1785 1655 1655 1655 1655 1655 1655 1647 1647 1639 1632 1632 1632 1632 1632 1632 1632 1639 1647 1647 1647 1883 1873 1873 1873 1873 1863 1853 1853 1843 1833 1833 1823 1823 1813 1804 1804 1794 1794 1794 1785 1785 1785 1785 1794 1785 1785 1785 1785 1785 1785 1785 1785 1785 1785 1785 1785 1785 1794 1794 1794 1785 1785 1794 1663 1663 1663 1655 1655 1655 1655 1647 1647 1647 1647 1647 1647 1655 1655 1647 1647 1639 1639 1804 1804 1804 1794 1794 1794 1794 1804 1804 1804 1804 1804 1804 1813 1804 1804 1813 1813 1813 1813 1813 1813 1813 1813 1813 1813 1813 1813 1804 1804 1813 1813 1813 1813 1813 1813 1813 1813 1813 1813 1813 1813 1813 1813 1813 1813 1804 1804 1804 1794 1794 1794 1785 1785 1785 1776 1776 1776 1776 1776 1776 1776 1776 1776 1776 1776 1785 1785 1785 2040 2040 2040 2028 2028 2028 2016 2016 2016 2016 2016 2016 2016 2016 2016 2016 2016 2028 2028 2028 2028 2028 2789 2812 2812 2812 2812 2812 2812 2812 2789 2789 2789 2789 2789 2789 2812 2812 2835 2835 2812 2812 2789 2789 2789 2789 2789 2789 2789 2789 2812 2789 2789 2789 2789 2767 2767 2767 2789 2767 2767 2767 2767 2789 2767 2767 2767 2767 2767 2789 2789 2789 2789 2789 2789 2789 2767 2767 2767 2767 2767 2767 2767 2767 2789 2789 2789 2789 2789 2789 0 0 0 0 0 0 0 0 0 0
0 0 0 0 0 0 0 0 0 0 0 0 0 0 0 0 0 0 0 0 0 0 0 0 0 0 0 0 0 0 0 0 0 2398 2398 2398 2398 2398 2398 2381 2381 2398 2398 2398 2398 2398 2398 2398 2398 2398 2398 2398 2398 2398 2415 2415 2415 2415 2415 2415 2415 2415 2415 2415 2432 2432 2432 2432 2450 2432 2432 2432 2398 2398 2398 2398 2398 2398 2398 2398 2398 2415 2415 2398 2398 2398 2398 2415 2415 2415 2415 2415 2432 2450 2450 2450 2450 2450 2450 2450 2450 2450 2450 2450 2450 2450 2450 2467 2467 2467 2450 2450 2450 2450 2450 2450 2467 2467 2467 2467 2467 2467 2467 2467 2467 2467 2467 2467 2467 2467 2467 2485 2485 2485 2485 2485 2485 2485 2485 2485 2485 2503 2503 2503 2503 2522 2522 2522 2522 2522 2522 2522 2522 2522 2541 2541 2541 2522 2503 2503 2503 2503 2503 2503 2503 2503 2522 2522 2522 2522 2522 2522 2522 2522 2522 2522 2522 2522 2522 2522 2522 2522 2522 2522 2541 2541 2541 2541 2541 2541 2541 2541 2541 2541 2541 2541 2541 2541 2541 2541 2541 2541 2541 2560 2560 2560 2560 2560 2560 2560 2560 2560 2560 2560 2579 2184 2184 2184 2184 2198 2198 2198 2198 2212 2212 2212 2226 2226 2241 2598 2598 2598 2598 2598 2301 2301 2317 2317 2317 2317 2317 2301 2301 2286 2271 2271 2286 1843 1843 1843 1843 1843 1843 1843 1843 1843 1843 1843 1833 1823 1804 1785 1776 1766 1766 1757 1748 1739 1731 1731 1543 1536 1529 1529 1529 1523 1523 1523 1523 1523 1523 1523 1523 1529 1529 1529 1529 1529 1536 1536 1536 1536 1713 1713 1713 1713 1713 1713 1713 1713 1713 1713 1713 1713 1713 1713 1489 1489 1483 1483 1477 1477 1477 1470 1470 1477 1477 1477 1483 1483 1483 1483 1483 1483 1489 1731 1731 1731 1739 1739 1731 1731 1731 1731 1731 1731 1731 1731 1731 1731 1731 1739 1739 1739 1739 1739 1739 1739 1739 1739 1739 1739 1739 1748 1748 1748 1748 1748 1757 1757 1757 1757 1757 1757 1757 1757 1757 1757 1757 1757 1757 1757 1757 1757 1757 1757 1766 1766 1766 1766 1766 1766 1766 1766 1766 1766 1766 1776 1663 1655 1655 1655 1655 1655 1655 1647 1647 1639 1639 1632 1632 1632 1632 1632 1639 1639 1647 1647 1663 1883 1873 1873 1873 1873 1863 1853 1853 1843 1833 1833 1823 1823 1813 1804 1804 1794 1794 1794 1785 1785 1785 1785 1785 1785 1785 1785 1785 1785 1776 1776 1776 1785 1785 1785 1785 1785 1785 1785 1785 1785 1776 1776 1663 1663 1663 1655 1655 1655 1655 1647 1647 1647 1647 1647 1655 1655 1655 1647 1647 1647 1794 1794 1794 1794 1794 1794 1794 1794 1794 1794 1794 1804 1804 1804 1804 1804 1804 1804 1813 1813 1804 1804 1804 1804 1804 1804 1804 1804 1804 1804 1804 1804 1804 1794 1794 1804 1804 1804 1804 1804 1804 1804 1813 1813 1804 1804 1804 1804 1804 1794 1794 1794 1785 1785 1785 1776 1776 1776 1776 1776 1776 1776 1776 1776 1776 1776 1776 1785 1785 2053 2040 2040 2040 2028 2028 2028 2016 2016 2016 2016 2016 2016 2016 2016 2016 2016 2016 2028 2028 2028 2028 2028 2789 2789 2789 2812 2812 2789 2789 2789 2789 2767 2767 2767 2789 2789 2789 2812 2835 2835 2812 2812 2789 2789 2789 2767 2767 2767 2789 2789 2789 2789 2789 2767 2767 2767 2767 2767 2767 2767 2767 2767 2767 2767 2767 2767 2744 2744 2767 2767 2789 2789 2789 2789 2789 2767 2744 2744 2767 2767 2767 2767 2767 2767 2767 2767 2767 2767 2767 2767 0 0 0 0 0 0 0 0 0 0
0 0 0 0 0 0 0 0 0 0 0 0 0 0 0 0 0 0 0 0 0 0 0 0 0 0 0 0 0 0 0 0 0 2398 2398 2398 2398 2398 2398 2381 2381 2381 2381 2381 2381 2381 2381 2381 2381 2398 2398 2398 2398 2398 2398 2398 2398 2398 2398 2415 2415 2415 2415 2415 2415 2432 2432 2432 2432 2415 2415 2415 2398 2398 2398 2398 2398 2398 2398 2398 2398 2398 2398 2398 2398 2398 2398 2398 2398 2398 2398 2415 2432 2432 2432 2450 2450 2450 2450 2450 2450 2450 2432 2432 2432 2450 2450 2450 2450 2450 2450 2450 2450 2450 2450 2450 2450 2467 2467 2467 2467 2467 2467 2467 2467 2467 2467 2467 2467 2467 2467 2467 2467 2467 2467 2485 2485 2485 2485 2485 2485 2485 2485 2485 2485 2503 2503 2503 2503 2503 2503 2522 2522 2522 2522 2522 2522 2503 2503 2503 2503 2485 2485 2485 2485 2503 2503 2503 2522 2522 2522 2522 2503 2503 2503 2503 2503 2503 2522 2522 2522 2522 2522 2522 2522 2522 2522 2522 2541 2541 2541 2541 2541 2541 2541 2541 2541 2541 2541 2541 2541 2541 2541 2541 2560 2541 2541 2541 2541 2541 2541 2560 2560 2560 2579 2184 2184 2184 2198 2198 2198 2198 2198 2212 2212 2212 2226 2226 2241 2598 2598 2579 2579 2598 2333 2333 2333 2333 2333 2333 2317 2301 2301 2271 2271 2271 2271 1853 1853 1853 1853 1853 1853 1853 1843 1843 1843 1843 1843 1833 1804 1785 1776 1776 1766 1757 1757 1748 1739 1731 1543 1536 1529 1529 1529 1523 1523 1523 1523 1523 1523 1523 1523 1529 1529 1529 1529 1529 1536 1536 1536 1543 1696 1696 1696 1696 1696 1696 1696 1696 1696 1705 1705 1705 1705 1713 1489 1489 1489 1489 1483 1483 1477 1477 1477 1483 1483 1483 1483 1483 1483 1483 1483 1483 1713 1722 1722 1731 1731 1731 1722 1722 1722 1722 1722 1722 1722 1722 1722 1731 1731 1731 1731 1731 1731 1731 1731 1731 1731 1731 1731 1731 1739 1739 1739 1739 1739 1739 1748 1748 1748 1748 1748 1748 1748 1748 1748 1757 1757 1757 1757 1757 1757 1757 1757 1757 1757 1757 1757 1757 1757 1757 1757 1757 1757 1757 1757 1766 1663 1663 1663 1655 1655 1655 1655 1647 1647 1639 1639 1639 1632 1632 1632 1639 1639 1647 1655 1663 1663 1883 1873 1873 1873 1873 1863 1853 1853 1843 1833 1833 1823 1823 1813 1804 1804 1794 1794 1794 1785 1785 1785 1785 1785 1776 1776 1776 1776 1776 1766 1766 1766 1776 1776 1776 1776 1776 1776 1785 1776 1776 1722 1722 1663 1663 1663 1655 1655 1655 1655 1647 1647 1655 1655 1655 1655 1655 1655 1647 1647 1794 1794 1794 1794 1794 1794 1794 1794 1794 1794 1794 1794 1794 1794 1794 1804 1804 1804 1804 1804 1804 1804 1804 1794 1794 1794 1804 1794 1794 1794 1794 1794 1794 1785 1785 1785 1794 1794 1794 1794 1794 1794 1804 1804 1804 1804 1804 1794 1794 1794 1794 1785 1785 1785 1785 1785 1776 1776 1776 1776 1776 1776 1776 1776 1776 1776 1785 1785 1785 2053 2053 2040 2040 2040 2028 2028 2028 2016 2016 2016 2016 2016 2016 2016 2016 2016 2028 2028 2028 2028 2028 2028 2040 2789 2789 2789 2789 2789 2789 2767 2767 2767 2767 2767 2767 2767 2767 2789 2789 2812 2812 2812 2812 2789 2767 2767 2767 2767 2767 2767 2767 2767 2767 2767 2767 2767 2744 2744 2767 2767 2767 2767 2767 2767 2767 2744 2744 2744 2744 2744 2744 2767 2767 2767 2767 2767 2744 2744 2744 2744 2767 2767 2767 2767 2767 2767 2767 2744 2744 2744 2744 0 0 0 0 0 0 0 0 0 0
0 0 0 0 0 0 0 0 0 0 0 0 0 0 0 0 0 0 0 0 0 0 0 0 0 0 0 0 0 0 0 0 0 2381 2381 2381 2381 2381 2381 2381 2365 2365 2365 2365 2365 2365 2365 2365 2381 2381 2398 2398 2398 2398 2398 2398 2398 2398 2398 2398 2398 2398 2398 2398 2415 2415 2415 2415 2415 2398 2398 2398 2381 2381 2381 2381 2398 2398 2398 2398 2398 2398 2398 2398 2398 2398 2398 2398 2398 2398 2398 2415 2415 2432 2432 2432 2432 2432 2432 2432 2415 2415 2432 2415 2415 2432 2432 2432 2432 2432 2432 2432 2432 2432 2432 2450 2450 2450 2450 2450 2450 2450 2450 2450 2450 2450 2450 2467 2467 2467 2467 2467 2467 2467 2467 2467 2467 2467 2467 2467 2467 2467 2467 2467 2467 2467 2485 2485 2485 2485 2485 2503 2485 2485 2503 2503 2503 2503 2485 2485 2485 2485 2467 2467 2467 2485 2485 2503 2503 2503 2503 2503 2503 2503 2503 2503 2503 2503 2503 2503 2503 2503 2503 2503 2522 2522 2522 2522 2522 2522 2522 2522 2522 2522 2522 2522 2541 2541 2541 2541 2522 2522 2522 2541 2541 2541 2541 2541 2541 2541 2541 2541 2541 2560 2579 2198 2198 2198 2198 2198 2198 2198 2212 2212 2212 2226 2226 2226 2241 2598 2598 2579 2579 2579 2333 2333 2333 2333 2333 2333 2317 2301 2301 2271 2271 2271 2271 1853 1853 1853 1853 1853 1853 1853 1853 1853 1853 1853 1853 1843 1823 1785 1776 1776 1766 1766 1757 1757 1757 1757 1543 1543 1536 1529 1529 1529 1523 1523 1523 1523 1523 1523 1529 1529 1529 1529 1529 1529 1536 1536 1536 1543 1688 1688 1688 1688 1688 1696 1696 1696 1696 1696 1696 1696 1696 1696 1489 1489 1489 1489 1483 1483 1483 1483 1483 1483 1483 1483 1489 1489 1489 1483 1483 1483 1705 1713 1713 1713 1713 1713 1713 1713 1713 1713 1713 1713 1713 1722 1722 1722 1722 1722 1731 1731 1731 1731 1731 1731 1731 1731 1731 1731 1731 1731 1731 1731 1731 1739 1739 1739 1739 1739 1739 1748 1748 1748 1748 1748 1748 1748 1748 1748 1748 1748 1748 1748 1748 1757 1757 1757 1757 1757 1757 1757 1757 1757 1757 1748 1671 1663 1663 1663 1663 1655 1655 1647 1647 1639 1639 1639 1639 1639 1639 1639 1647 1655 1663 1663 1671 1883 1873 1873 1873 1873 1863 1853 1853 1843 1833 1833 1823 1823 1813 1804 1804 1794 1794 1794 1785 1785 1785 1785 1785 1776 1776 1776 1776 1766 1766 1766 1766 1766 1766 1766 1766 1776 1776 1776 1776 1766 1722 1688 1663 1663 1655 1655 1655 1655 1655 1647 1647 1655 1655 1655 1655 1655 1655 1655 1655 1785 1785 1785 1785 1785 1785 1785 1785 1785 1794 1794 1794 1794 1794 1794 1794 1794 1794 1794 1794 1794 1794 1794 1794 1794 1794 1794 1794 1794 1794 1785 1785 1785 1785 1785 1785 1785 1785 1785 1785 1785 1785 1785 1794 1794 1794 1794 1785 1785 1785 1785 1785 1785 1785 1785 1785 1785 1785 1776 1776 1785 1785 1785 1785 1785 1785 1785 1785 1785 1794 2053 2040 2040 2040 2028 2028 2028 2016 2016 2016 2016 2028 2016 2016 2016 2028 2028 2028 2028 2028 2028 2028 2040 2767 2789 2789 2767 2767 2767 2767 2767 2767 2767 2767 2767 2767 2767 2767 2789 2812 2812 2789 2789 2767 2744 2744 2744 2744 2744 2744 2744 2744 2744 2744 2744 2744 2744 2744 2744 2767 2767 2767 2744 2744 2744 2744 2744 2744 2744 2744 2744 2744 2744 2767 2767 2744 2744 2744 2744 2744 2744 2744 2744 2744 2744 2744 2744 2744 2744 2744 2744 0 0 0 0 0 0 0 0 0 0
