0 0 0 0 0 0 0 0 0 0 0 0 0 0 0 0 0 0 0 0 0 0 0 0 0 0 0 0 0 0 0 4405 4405 4405 4522 4522 4582 4582 4645 4645 4645 4645 4645 4645 4645 4645 4708 4708 4774 4774 4774 4774 4842 4774 4774 4774 4774 4842 4842 4842 4842 4842 4842 4842 4842 4842 4774 4708 4708 4708 4708 4708 4645 4645 4645 4645 4582 4582 4582 4582 4582 4582 4582 4645 4645 4645 4645 4645 4645 4582 4582 4582 4582 4582 4582 4582 4645 4645 4708 4708 4708 4708 4708 4708 4708 4708 4708 4708 4708 4645 4645 4645 4645 4645 4645 4645 4645 4645 4645 4645 4645 4645 4645 4645 4645 4645 4645 4645 4645 4582 4582 4582 4582 4582 4582 4582 4582 4582 4582 4582 4582 4582 4582 4582 8849 8849 4708 4708 4708 4708 4708 4774 4708 4708 4774 4774 4774 4774 4983 8413 8413 8413 8413 0 8019 4463 4463 4463 8212 8212 8212 8019 8019 8019 8019 8019 8019 8019 8212 8212 8413 8413 8413 8413 8413 8413 8413 8413 8413 8626 8626 8626 8626 3433 3433 3468 3468 3468 3503 3503 3503 3503 3503 3539 3539 3539 3503 3503 3539 3503 3503 3503 3503 3503 3503 3503 3503 3503 3503 3503 3503 3468 3468 3468 3468 3468 3468 3468 3468 3468 3468 3468 3503 3503 3503 3503 3503 3503 3468 3433 3433 3433 3433 3433 3433 3433 3433 3433 3433 3433 3433 3433 3433 3433 3433 3399 3399 3399 3399 3399 3399 3399 3399 3399 3399 3399 3399 3399 3399 3399 3399 3399 3399 3399 3399 3399 3399 3399 3399 3399 3399 3365 3365 3365 3399 3399 3399 3365 3365 3399 3399 3399 3399 3399 3399 3399 3399 3399 3365 3365 3365 3365 3365 3365 3365 3365 3365 3365 3365 3365 3365 3365 3365 3365 3365 3365 1883 1883 1873 1873 1873 1873 1873 1873 1873 1873 1863 1863 1863 1853 1843 1843 1843 1843 1843 1843 1843 1843 1843 1843 1843 1843 1843 1843 1843 1843 1843 1843 1843 1843 1843 1843 1833 1833 1833 1843 1833 1833 1833 1833 1833 1833 1823 1823 1823 1823 1823 1823 1823 1823 1823 1823 1833 1823 1823 1823 1823 1823 1813 1813 1804 1804 1804 1804 1804 1804 1804 1804 1804 1804 1804 1813 1813 1823 1823 1823 3178 3178 3178 3178 3178 3178 3178 3178 3178 3149 3149 3149 3178 3149 3149 3120 3120 3120 3120 3120 3120 3120 3120 3120 3120 3120 3120 3120 3120 3120 3120 3120 3120 3120 3120 3092 3092 3092 3092 3092 3092 3092 3092 3092 3092 3092 3092 3092 3092 3092 3092 3092 3092 3092 3064 3064 3064 3064 3064 3064 3064 3064 3064 3010 2984 2958 2958 7492 5640 5640 5460 5460 5460 5460 5548 5640 5640 5734 5734 5734 5734 5734 5734 5640 5640 5548 5548 5548 5460 5460 5460 5460 5460 5460 5460 5460 5460 5460 5548 5548 5548 5374 5374 5460 5460 5460 5460 5374 5374 5374 5374 5374 5374 5374 5374 5374 5374 5374 5374 5374 5374 5374 5374 5374 5374 5460 5460 5460 5460 5460 5460 5374 5374 5291 5291 5374 5374 5374 5460 5460 5460 5460 5548 5460 5460 5460 5374 5374 5374 5374 5460 5460 5460 5460 5548 5548 5548 5548 5548 5548 5548 5548 5548 5548 5548 5548 5548 5640 5640 5640 5640 5640 5640 5640 5548 5548 5548 5548 5548 5640 5640 5548 5548 5548 5548 5548 5548 5548 5548 5548 5640 5640 5640 5640 5640 5640 5640 5640 5640 5640 5640 5640 5640 5640 5640 5640 5640 5640 5640 5640 5734 5734 5734 5832 5933 5832 5832 5933 5933 5933 6038 6375 6375 6375 6259 6259 6375 6375 6375 6375 6622 0 0 0 0 0 0 0 0 0 0 0 0 0
0 0 0 0 0 0 0 0 0 0 0 0 0 0 0 0 0 0 0 0 0 0 0 0 0 0 0 0 0 0 0 4405 4405 4405 4522 4522 4582 4582 4645 4645 4645 4645 4645 4645 4645 4645 4708 4708 4774 4774 4774 4774 4774 4774 4774 4774 4774 4842 4842 4842 4842 4842 4842 4842 4842 4842 4774 4774 4774 4774 4774 4708 4708 4708 4708 4645 4645 4645 4645 4645 4645 4645 4645 4708 4708 4708 4708 4708 4645 4582 4582 4582 4582 4582 4645 4645 4708 4708 4708 4774 4774 4774 4774 4774 4774 4774 4774 4774 4774 4708 4708 4708 4708 4645 4645 4645 4582 4582 4582 4582 4582 4582 4645 4645 4645 4645 4645 4582 4582 4582 4582 4582 4582 4582 4522 4522 4463 4463 4522 4522 4522 4522 0 0 0 0 0 0 4582 4582 4582 4774 4774 4774 4774 4774 4774 4774 8413 8413 8413 8413 8413 8212 8019 8019 8019 8019 8212 8212 8212 8212 8019 8019 8212 8212 8212 8212 8212 8413 8413 8413 8413 8413 8413 8413 8413 8413 8413 8626 8626 8626 8626 3433 3433 3468 3468 3468 3503 3503 3503 3503 3503 3503 3539 3539 3539 3539 3539 3539 3503 3503 3503 3503 3503 3503 3503 3503 3503 3503 3468 3468 3468 3468 3468 3468 3468 3468 3468 3468 3468 3468 3503 3503 3503 3468 3468 3503 3468 3433 3433 3433 3433 3433 3433 3433 3433 3433 3433 3468 3433 3433 3433 3433 3433 3433 3399 3399 3399 3399 3399 3399 3399 3399 3399 3399 3399 3399 3399 3399 3399 3399 3399 3399 3399 3399 3399 3399 3399 3399 3399 3399 3399 3399 3399 3399 3399 3365 3365 3399 3399 3399 3399 3399 3399 3399 3399 3399 3399 3365 3365 3365 3365 3365 3365 3365 3365 3365 3365 3365 3365 3365 3365 3365 3365 1883 1883 1883 1873 1873 1883 1883 1883 1873 1873 1873 1863 1863 1863 1853 1853 1853 1853 1853 1843 1843 1843 1843 1843 1843 1843 1843 1843 1843 1843 1843 1843 1843 1843 1843 1843 1843 1833 1833 1833 1843 1833 1833 1833 1833 1833 1833 1823 1823 1823 1823 1823 1823 1823 1823 1823 1823 1833 1823 1823 1823 1823 1823 1813 1813 1804 1804 1804 1804 1804 1804 1804 1804 1804 1804 1813 1813 1823 1823 1823 1823 3208 3178 3178 3178 3178 3178 3178 3178 3178 3178 3149 3149 3149 3149 3149 3120 3120 3120 3120 3120 3120 3120 3120 3120 3120 3120 3092 3092 3120 3120 3120 3120 3120 3120 3120 3120 3120 3092 3092 3092 3092 3092 3092 3092 3092 3092 3092 3092 3092 3092 3092 3092 3092 3092 3092 3064 3064 3064 3064 3064 3064 3064 3037 3010 2984 2984 2984 5640 5640 5640 5640 5640 5640 5640 5640 5640 5734 5734 5734 5734 5734 5734 5734 5640 5640 5640 5548 5548 5548 5548 5460 5460 5460 5460 5460 5460 5460 5460 5548 5548 5548 5460 5460 5460 5460 5460 5460 5374 5374 5374 5374 5374 5374 5374 5374 5374 5374 5460 5460 5374 5374 5374 5374 5374 5374 5460 5460 5460 5460 5460 5460 5460 5374 5374 5374 5374 5460 5460 5548 5548 5548 5548 5640 5548 5548 5460 5460 5460 5460 5460 5460 5460 5548 5548 5548 5640 5640 5640 5640 5640 5548 5548 5548 5548 5548 5640 5640 5640 5640 5640 5640 5640 5640 5640 5548 5548 5548 5640 5640 5640 5640 5548 5548 5548 5640 5548 5548 5548 5548 5548 5640 5640 5640 5640 5640 5640 5640 5734 5640 5640 5640 5640 5640 5640 5640 5640 5640 5640 5640 5640 5734 5734 5734 5832 5933 6038 6038 6038 6146 6259 6375 6497 6497 6497 6497 6497 6622 6622 6753 6753 6753 0 0 0 0 0 0 0 0 0 0 0 0 0
0 0 0 0 0 0 0 0 0 0 0 0 0 0 0 0 0 0 0 0 0 0 0 0 0 0 0 0 0 0 0 4405 4405 4405 4522 4522 4582 4582 4645 4645 4645 4645 4645 4645 4645 4645 4708 4708 4774 4774 4774 4774 4774 4774 4774 4774 4774 4842 4842 4842 4842 4842 4842 4842 4842 4842 4774 4774 4774 4774 4774 4774 4774 4774 4708 4708 4708 4708 4708 4708 4708 4708 4708 4774 4774 4774 4774 4708 4708 4645 4645 4582 4582 4645 4645 4708 4708 4774 4774 4774 4774 4774 4774 4774 4774 4774 4774 4774 4774 4708 4708 4708 4708 4645 4582 4582 4522 4522 4582 4582 4582 4582 4582 4582 4645 4645 4582 4582 4582 4582 4582 4582 4582 4522 4522 4522 4463 4463 4522 4522 4522 8413 8626 8849 8849 0 0 0 4582 4582 4582 4582 4774 4774 4842 4842 4911 8413 8413 8413 8413 8413 8212 8212 8413 8019 8019 8019 8212 8212 8212 8212 8212 8212 8212 8212 8212 8212 8212 8413 8413 8413 8413 8413 8413 8413 8413 8413 8413 8626 8626 8626 8626 3433 3433 3433 3468 3468 3468 3503 3503 3503 3503 3503 3503 3503 3503 3503 3503 3539 3503 3503 3503 3503 3503 3503 3503 3503 3503 3503 3468 3468 3468 3468 3468 3468 3468 3468 3503 3503 3503 3503 3503 3503 3503 3468 3468 3503 3468 3433 3433 3433 3433 3433 3433 3433 3433 3433 3433 3468 3433 3433 3433 3433 3433 3399 3399 3399 3399 3399 3399 3399 3399 3399 3399 3399 3399 3399 3399 3399 3399 3399 3399 3399 3399 3399 3399 3399 3399 3399 3399 3399 3399 3399 3399 3399 3399 3399 3399 3399 3399 3399 3399 3399 3399 3399 3399 3399 3399 3365 3365 3365 3365 3365 3365 3365 3365 3365 3365 3365 3365 3365 3365 3365 3365 1883 1883 1883 1873 1873 1873 1883 1883 1883 1873 1873 1873 1873 1873 1863 1853 1853 1853 1853 1843 1843 1843 1843 1843 1843 1843 1843 1843 1843 1843 1843 1843 1843 1843 1843 1843 1843 1843 1833 1833 1843 1833 1833 1833 1833 1833 1833 1823 1823 1823 1823 1823 1823 1823 1823 1823 1823 1823 1823 1823 1823 1813 1813 1813 1813 1813 1804 1804 1804 1804 1804 1804 1804 1804 1804 1813 1813 1823 1823 1823 1823 3208 3178 3178 3178 3178 3178 3178 3178 3178 3178 3149 3149 3149 3149 3149 3120 3120 3120 3120 3120 3120 3120 3120 3120 3120 3120 3092 3092 3120 3120 3120 3120 3120 3120 3120 3120 3120 3120 3092 3092 3092 3092 3092 3092 3092 3092 3092 3092 3092 3092 3092 3092 3092 3092 3092 3064 3064 3064 3064 3064 3064 3064 3037 3010 3010 3010 3010 5640 5640 5640 5734 5640 5640 5640 5640 5734 5734 5734 5734 5734 5734 5734 5734 5734 5640 5640 5548 5548 5548 5548 5460 5460 5460 5460 5460 5460 5460 5548 5548 5548 5548 5460 5460 5460 5460 5460 5460 5374 5374 5548 5374 5374 5374 5374 5374 5374 5460 5460 5460 5548 5548 5548 5548 5548 5460 5460 5460 5460 5548 5548 5548 5548 5460 5460 5460 5460 5548 5548 5640 5640 5640 5640 5640 5548 5548 5548 5548 5460 5460 5548 5548 5548 5548 5640 5640 5640 5640 5640 5640 5640 5640 5640 5640 5640 5640 5640 5640 5640 5640 5640 5640 5640 5640 5640 5548 5548 5548 5640 5640 5640 5548 5548 5548 5548 5640 5640 5640 5640 5548 5548 5640 5734 5832 5933 5832 5832 5832 5933 5832 5734 5734 5734 5734 5734 5734 5734 5734 5933 6038 6038 6146 6146 6146 6146 6146 6146 6146 6146 6259 6259 6375 6497 6497 6497 6497 6497 6622 6622 6622 6753 6753 0 0 0 0 0 0 0 0 0 0 0 0 0
0 0 0 0 0 0 0 0 0 0 0 0 0 0 0 0 0 0 0 0 0 0 0 0 0 0 0 0 0 0 0 4405 4405 4405 4522 4522 4582 4582 4645 4645 4645 4645 4645 4645 4645 4645 4708 4708 4708 4774 4774 4774 4774 4774 4774 4774 4774 4842 4842 4842 4842 4842 4842 4842 4842 4842 4842 4774 4774 4774 4774 4774 4774 4774 4708 4708 4708 4708 4774 4774 4774 4774 4774 4774 4842 4842 4842 4842 4842 4708 4645 4582 4582 4645 4645 4708 4708 4708 4774 4774 4842 4774 4774 4774 4774 4774 4774 4774 4774 4774 4774 4774 4842 4582 4522 4522 4463 4463 4463 4463 4463 4463 4522 4582 4645 4582 4582 4582 4582 4582 4582 4582 4582 4522 4522 4522 9084 8849 8626 8626 8413 8413 8626 8849 8849 8849 9084 9084 9084 8626 8413 8413 4774 4774 4842 4842 8212 8413 8413 8413 8413 8413 8212 8212 8413 8212 8212 8212 8212 8212 8212 8212 8212 8212 8212 8212 8212 8212 8212 8212 8212 8413 8413 8413 8413 8413 8413 8413 8413 8626 8626 8626 8626 3433 3433 3433 3468 3468 3468 3468 3503 3503 3503 3503 3503 3503 3503 3503 3503 3503 3503 3503 3503 3503 3503 3503 3503 3503 3503 3503 3503 3503 3503 3468 3468 3468 3468 3468 3468 3468 3503 3503 3503 3503 3503 3468 3468 3503 3468 3433 3433 3433 3433 3433 3433 3433 3433 3433 3468 3433 3433 3433 3433 3433 3399 3399 3399 3399 3399 3399 3399 3399 3399 3399 3399 3399 3399 3399 3399 3399 3399 3399 3399 3399 3399 3399 3399 3399 3399 3399 3399 3399 3399 3399 3399 3399 3399 3399 3399 3399 3399 3399 3399 3399 3399 3399 3399 3399 3399 3365 3365 3365 3365 3365 3365 3365 3365 3365 3365 3365 3365 3365 3365 3365 3365 1883 1873 1873 1873 1873 1873 1873 1873 1883 1873 1873 1873 1873 1873 1863 1863 1853 1853 1853 1843 1843 1843 1843 1843 1843 1843 1843 1843 1843 1843 1843 1843 1843 1843 1843 1843 1843 1843 1843 1833 1833 1833 1833 1833 1833 1833 1833 1833 1823 1823 1823 1823 1823 1823 1823 1823 1823 1823 1823 1823 1823 1813 1813 1813 1813 1813 1813 1804 1804 1813 1804 1804 1804 1804 1804 1804 1813 1813 1813 1823 1823 3178 3178 3178 3178 3178 3178 3178 3178 3178 3178 3149 3149 3149 3149 3149 3120 3120 3120 3120 3120 3120 3120 3120 3120 3120 3120 3092 3092 3120 3120 3120 3120 3120 3120 3120 3120 3120 3120 3092 3092 3092 3092 3092 3092 3092 3092 3092 3092 3092 3092 3092 3092 3092 3092 3092 3064 3064 3064 3064 3064 3064 3064 3037 3037 3010 3010 5640 5640 5640 5640 5640 5640 5640 5640 5734 5734 5734 5734 5734 5734 5734 5734 5734 5734 5640 5640 5640 5640 5548 5548 5548 5548 5460 5460 5548 5548 5548 5548 5548 5460 5460 5460 5460 5460 5460 5460 5460 5548 5548 5548 5548 5548 5548 5460 5460 5460 5460 5460 5548 5548 5640 5640 5548 5548 5548 5548 5548 5548 5548 5640 5640 5640 5548 5460 5460 5548 5548 5640 5640 5640 5640 5640 5640 5548 5548 5548 5548 5548 5548 5548 5548 5548 5640 5640 5640 5640 5640 5640 5640 5640 5640 5640 5640 5640 5640 5640 5640 5734 5734 5734 5734 5640 5640 5640 5548 5548 5548 5640 5640 5640 5548 5548 5548 5640 5640 5640 5640 5734 5734 5734 5832 5933 6038 6038 6038 6038 5933 5933 5933 5933 5832 5832 5933 5832 5832 6038 6038 6038 6146 6259 6259 6259 6146 6146 6259 6259 6259 6259 6259 6259 6497 6497 6497 6497 6497 6497 6497 6622 6622 6622 6753 0 0 0 0 0 0 0 0 0 0 0 0 0
0 0 0 0 0 0 0 0 0 0 0 0 0 0 0 0 0 0 0 0 0 0 0 0 0 0 0 0 0 0 0 4405 4405 4405 4522 4522 4582 4582 4645 4645 4645 4645 4645 4645 4645 4708 4708 4708 4708 4774 4774 4774 4774 4774 4774 4842 4842 4842 4842 4842 4842 4842 4842 4842 4911 4911 4842 4842 4842 4774 4774 4774 4774 4774 4708 4708 4708 4708 4774 4774 4774 4774 4774 4774 4842 4842 4842 4842 4842 4842 4774 4645 4645 4708 4708 4708 4582 4582 4774 4842 4842 4842 4842 4842 4842 4774 4774 4774 4774 8212 8212 8212 4842 4582 4522 4463 4405 4405 4405 4405 4463 4463 4463 4645 4645 4582 4582 4582 4582 4645 4582 4582 4582 9331 4582 4582 8849 8626 8413 8413 8413 8413 8626 8849 8849 8849 9084 9084 9084 8626 8626 8413 8413 8413 8413 8212 8212 8413 8413 8413 8413 8413 8212 8212 8413 8212 8212 8212 8212 8212 8212 8212 8212 8212 8212 8212 8212 8212 8212 8212 8212 8212 8413 8413 8413 8413 8413 8413 8413 8626 8626 8626 8626 3433 3433 3433 3468 3468 3468 3468 3503 3503 3503 3503 3503 3503 3503 3503 3503 3503 3503 3503 3503 3503 3503 3468 3468 3503 3503 3503 3503 3503 3503 3468 3468 3468 3468 3468 3468 3468 3468 3503 3503 3503 3503 3503 3503 3503 3468 3433 3433 3433 3433 3433 3433 3433 3433 3433 3433 3433 3433 3433 3433 3433 3399 3399 3399 3399 3399 3399 3399 3399 3399 3399 3399 3399 3433 3433 3399 3399 3399 3399 3399 3399 3399 3399 3399 3399 3399 3399 3399 3399 3399 3399 3399 3399 3399 3399 3399 3399 3399 3399 3399 3399 3399 3399 3399 3399 3399 3365 3365 3365 3365 3365 3365 3365 3365 3365 3365 3365 3365 3365 3365 3365 3365 1873 1873 1873 1873 1873 1873 1873 1873 1883 1873 1873 1873 1873 1873 1863 1863 1863 1863 1853 1853 1843 1843 1843 1843 1843 1843 1843 1843 1843 1843 1843 1843 1843 1843 1843 1843 1843 1843 1843 1833 1833 1833 1833 1833 1833 1833 1833 1833 1833 1833 1823 1823 1833 1833 1823 1823 1823 1823 1823 1823 1813 1813 1813 1813 1813 1813 1813 1813 1813 1813 1804 1804 1804 1804 1804 1804 1813 1813 1813 1823 1823 3178 3178 3178 3178 3178 3178 3178 3178 3178 3178 3178 3149 3149 3149 3149 3120 3120 3120 3120 3120 3120 3120 3092 3092 3120 3092 3092 3092 3120 3120 3120 3120 3120 3120 3120 3120 3120 3120 3092 3092 3092 3092 3092 3092 3092 3092 3092 3092 3092 3092 3092 3092 3092 3092 3064 3064 3064 3064 3064 3064 3064 3064 3037 3037 3010 3010 5734 5640 5640 5640 5640 5640 5640 5640 5734 5734 5734 5734 5734 5734 5734 5734 5734 5734 5734 5640 5640 5640 5640 5640 5640 5640 5548 5548 5548 5548 5548 5548 5548 5460 5460 5548 5460 5460 5460 5460 5460 5548 5548 5548 5548 5548 5548 5548 5548 5548 5548 5548 5548 5734 5640 5640 5640 5640 5640 5640 5640 5640 5734 5734 5734 5734 5734 5640 5640 5640 5640 5734 5734 5734 5734 5640 5640 5640 5640 5640 5640 5640 5640 5640 5640 5640 5734 5734 5734 5734 5734 5734 5734 5640 5640 5640 5640 5640 5640 5734 5734 5734 5734 5734 5734 5640 5640 5640 5640 5548 5548 5640 5640 5640 5640 5640 5640 5734 5734 5734 5734 5734 5832 5832 5933 5933 6146 6038 6038 6038 6038 6038 6038 6146 6038 6038 6038 6038 6259 6259 6146 6146 6259 6259 6259 6259 6146 6146 6146 6259 6259 6259 6259 6259 6497 6497 6497 6497 6497 6497 6497 6622 6622 6622 6753 0 0 0 0 0 0 0 0 0 0 0 0 0
0 0 0 0 0 0 0 0 0 0 0 0 0 0 0 0 0 0 0 0 0 0 0 0 0 0 0 0 0 0 0 4405 4405 4463 4522 4522 4582 4582 4645 4645 4645 4645 4645 4708 4708 4708 4708 4774 4774 4774 4774 4774 4774 4774 4774 4842 4842 4911 4911 4911 4911 4911 4911 4911 4911 4911 4842 4842 4842 4774 4774 4774 4774 4774 4774 4774 4774 4774 4774 4774 4774 4774 4774 4774 4842 4842 4911 4911 4911 4983 4983 4983 4708 4708 4708 4708 4582 4582 4774 0 0 0 0 0 4842 4842 4842 4911 8626 8212 8212 8413 8019 8019 8212 4463 4349 4349 4405 4405 4463 4463 4463 4645 4645 4645 4645 8413 8413 9593 9593 9593 9084 9084 9084 8849 8849 8626 8413 8413 8413 8413 8626 8849 8849 8849 8849 8849 8413 8413 8626 8413 8413 8413 8413 8413 8413 8413 8413 8413 8413 8413 8413 8413 8413 8212 8212 8212 8212 8212 8413 8212 8212 8212 8212 8212 8212 8212 8212 8212 8212 8212 8413 8413 8413 8413 8413 8413 8413 8626 8626 8626 3539 3503 3503 3468 3468 3468 3468 3503 3503 3468 3468 3468 3503 3503 3468 3468 3503 3503 3503 3503 3503 3468 3468 3468 3468 3503 3503 3503 3503 3503 3503 3468 3468 3468 3468 3468 3468 3468 3468 3503 3503 3468 3468 3503 3503 3468 3468 3433 3433 3433 3433 3433 3433 3433 3433 3433 3433 3433 3433 3433 3399 3399 3399 3399 3399 3399 3399 3399 3399 3399 3433 3433 3399 3399 3433 3433 3399 3399 3399 3399 3399 3399 3399 3399 3399 3399 3399 3399 3399 3399 3399 3399 3399 3399 3399 3399 3399 3399 3399 3399 3399 3399 3399 3399 3399 3399 3399 3365 3365 3365 3365 3365 3365 3365 3365 3365 3365 3365 3365 3365 3365 3399 3399 3399 1873 1873 1873 1873 1873 1873 1873 1883 1883 1883 1873 1873 1873 1863 1853 1853 1853 1853 1853 1843 1843 1843 1843 1843 1843 1843 1843 1843 1843 1843 1843 1843 1843 1843 1843 1843 1843 1843 1833 1833 1833 1833 1833 1833 1833 1833 1833 1833 1833 1833 1833 1833 1833 1833 1823 1823 1823 1823 1823 1813 1813 1813 1813 1804 1804 1813 1813 1813 1813 1813 1813 1804 1804 1804 1813 1813 1813 1813 1833 3208 3178 3178 3178 3178 3178 3178 3178 3178 3178 3178 3178 3149 3149 3149 3149 3120 3120 3120 3120 3120 3120 3120 3092 3092 3120 3092 3092 3092 3120 3120 3120 3120 3120 3120 3120 3120 3120 3120 3120 3092 3092 3092 3092 3092 3092 3092 3092 3092 3092 3092 3092 3092 3092 3092 3064 3064 3064 3064 3064 3064 3064 3064 3064 3064 3064 3064 5734 5734 5734 5734 5734 5734 5734 5734 5734 5734 5734 5734 5734 5734 5832 5832 5832 5832 5832 5734 5734 5734 5734 5734 5640 5640 5640 5640 5640 5640 5640 5548 5548 5548 5548 5548 5548 5548 5548 5548 5548 5640 5640 5640 5734 5734 5734 5640 5640 5640 5640 5640 5640 5734 5640 5640 5640 5640 5640 5640 5734 5734 5734 5734 5734 5734 5734 5734 5734 5734 5734 5734 5734 5734 5734 5734 5640 5640 5640 5640 5640 5640 5640 5640 5640 5640 5734 5734 5734 5734 5734 5734 5734 5734 5734 5734 5734 5734 5734 5734 5734 5734 5734 5832 5734 5734 5734 5734 5734 5734 5640 5640 5734 6038 6038 5933 5933 5832 5832 5832 5832 5832 5933 5933 6038 6038 6146 6038 6038 6038 6038 6038 6038 6259 6259 6259 6259 6259 6375 6259 6259 6259 6259 6259 6259 6259 6146 6146 6146 6259 6259 6375 6375 6375 6497 6497 6497 6497 6497 6497 6497 6497 6622 6622 6622 0 0 0 0 0 0 0 0 0 0 0 0 0
0 0 0 0 0 0 0 0 0 0 0 0 0 0 0 0 0 0 0 0 0 0 0 0 0 0 0 0 0 0 4582 4463 4463 4522 4582 4582 4582 4582 4645 4645 4708 4708 4708 4708 4708 4708 4774 4774 4774 4774 4774 4774 4774 4774 4774 4842 4842 4911 4911 4911 4911 4911 4911 4911 4911 4911 4842 4842 4842 4774 4774 4842 4842 4842 4842 4774 4774 4774 4774 4774 4774 4774 4774 4774 4842 4911 4911 4983 5056 5132 5132 5374 5374 5374 5291 5291 8849 0 0 8849 0 0 9593 9593 9593 8849 8849 8626 8626 8626 8626 8626 8212 8212 8212 8212 4349 4349 4463 4463 4463 4463 4463 4463 8413 8413 8413 8413 8413 8212 8019 8019 8019 8626 8212 8212 8626 8626 8626 8626 8413 8413 8626 8413 8413 8413 8413 8626 8413 8413 8626 8413 8413 8413 8413 8413 8413 8413 8413 8413 8413 8413 8413 8413 8413 8212 8212 8212 8413 8413 8413 8212 8212 8212 8212 8212 8212 8212 8212 8212 8212 8212 8413 8413 8413 8413 8413 8413 8626 8626 8626 8626 3539 3503 3503 3503 3503 3503 3503 3503 3503 3468 3468 3468 3503 3503 3468 3468 3503 3503 3503 3503 3468 3468 3468 3468 3468 3503 3503 3503 3503 3503 3503 3503 3468 3468 3468 3468 3468 3468 3468 3468 3468 3468 3468 3468 3503 3468 3468 3433 3433 3433 3433 3433 3433 3433 3433 3433 3433 3433 3433 3433 3399 3399 3399 3399 3433 3399 3399 3399 3399 3433 3433 3433 3433 3433 3433 3433 3399 3399 3399 3399 3399 3399 3399 3399 3399 3399 3399 3399 3399 3399 3399 3399 3399 3399 3399 3399 3399 3399 3399 3399 3399 3399 3399 3399 3399 3399 3365 3365 3365 3365 3365 3365 3365 3365 3365 3365 3365 3365 3365 3399 3365 3365 3399 3399 1873 1873 1873 1873 1873 1883 1883 1883 1883 1883 1873 1873 1873 1863 1853 1853 1853 1853 1853 1843 1843 1843 1843 1843 1843 1843 1843 1843 1843 1843 1843 1843 1843 1843 1843 1843 1833 1833 1833 1833 1833 1833 1833 1833 1833 1833 1833 1833 1833 1833 1833 1833 1833 1833 1823 1823 1823 1823 1813 1813 1813 1804 1804 1804 1804 1813 1813 1813 1813 1813 1813 1804 1804 1804 1804 1813 1813 1823 1873 3208 3208 3208 3208 3208 3208 3208 3178 3178 3178 3178 3178 3149 3149 3149 3149 3120 3120 3120 3120 3120 3120 3120 3120 3120 3120 3092 3092 3092 3092 3092 3092 3092 3120 3120 3120 3120 3120 3120 3120 3092 3092 3092 3092 3092 3092 3092 3092 3092 3092 3092 3092 3064 3064 3064 3064 3064 3064 3064 3064 3064 3064 3064 3092 3092 3092 3092 5734 5734 5734 5734 5734 5734 5734 5734 5734 5734 5734 5734 5734 5832 5832 5832 5933 5933 5832 5832 5832 5734 5734 5832 5734 5734 5734 5734 5734 5640 5640 5640 5640 5640 5640 5640 5640 5640 5640 5640 5640 5640 5734 5734 5832 5734 5734 5734 5640 5640 5734 5734 5734 5734 5734 5734 5734 5640 5640 5734 5734 5734 5734 5832 5832 5832 5734 5734 5734 5734 5734 5734 5734 5734 5734 5734 5640 5640 5640 5640 5640 5640 5640 5640 5640 5640 5734 5734 5734 5734 5734 5734 5734 5734 5734 5734 5734 5734 5734 5734 5734 5734 5832 5832 5933 5832 5832 5832 5832 5832 5734 5734 5933 6038 5933 5933 5933 5933 5933 5933 5933 5933 6038 6038 6038 6038 6146 6038 6038 6038 6038 6038 6038 6259 6259 6259 6259 6259 6375 6375 6259 6259 6259 6259 6259 6259 6146 6146 6146 6259 6259 6259 6259 6375 6375 6375 6375 6375 6375 6497 6497 6497 6497 6622 6622 0 0 0 0 0 0 0 0 0 0 0 0 0
0 0 0 0 0 0 0 0 0 0 0 0 0 0 0 0 0 0 0 0 0 0 0 0 0 0 0 0 0 0 4582 4582 4582 4582 4645 4645 4645 4645 4708 4708 4708 4708 4708 4708 4708 4708 4774 4774 4774 4774 4774 4774 4774 4774 4774 4842 4842 4911 4911 4911 4911 4911 4911 4911 4911 4911 4842 4842 4842 4842 4842 4842 4842 4842 4842 4774 4774 4774 4774 4774 4774 4774 4774 4774 4911 4911 5056 5132 5210 5210 5291 5374 5374 5291 0 0 0 0 0 0 0 0 9593 9593 9593 9593 8849 8849 8849 8849 8626 8626 8626 8413 8413 8019 8019 7835 7835 7835 8212 8212 8212 8413 8413 8413 8413 8413 8413 8212 8212 8019 8019 8019 8212 8212 8413 8413 8626 8626 8413 8413 8413 8413 8413 8413 8413 8626 8626 8626 8626 8413 8413 8413 8413 8413 8413 8413 8413 8413 8413 8413 8413 8413 8413 8413 8413 8413 8413 8413 8413 8212 8212 8212 8212 8212 8212 8212 8212 8212 8212 8413 8413 8413 8413 8413 8413 8413 8626 8626 8626 8626 3503 3503 3503 3503 3503 3503 3503 3503 3503 3468 3468 3468 3503 3503 3503 3503 3503 3503 3503 3503 3468 3468 3468 3468 3468 3468 3468 3468 3503 3503 3503 3503 3468 3468 3468 3468 3468 3468 3468 3468 3468 3468 3468 3468 3503 3503 3468 3433 3433 3433 3433 3433 3433 3433 3433 3433 3433 3433 3433 3433 3399 3399 3399 3399 3433 3433 3399 3399 3433 3433 3433 3433 3433 3433 3433 3433 3399 3399 3399 3399 3399 3399 3433 3433 3433 3433 3433 3433 3433 3433 3433 3433 3399 3399 3399 3399 3399 3399 3399 3399 3399 3399 3399 3399 3399 3399 3365 3365 3365 3365 3365 3365 3365 3365 3365 3365 3365 3365 3365 3365 3365 3365 3399 3399 1873 1873 1873 1873 1873 1883 1883 1883 1883 1883 1873 1873 1873 1863 1853 1853 1853 1853 1853 1843 1843 1843 1843 1843 1843 1843 1843 1843 1843 1843 1843 1843 1843 1843 1843 1843 1833 1833 1833 1833 1833 1833 1833 1833 1833 1833 1833 1833 1833 1833 1833 1833 1833 1833 1823 1823 1823 1823 1813 1813 1813 1804 1804 1804 1804 1813 1813 1813 1813 1813 1813 1804 1804 1804 1804 1813 1813 1823 3208 3208 3208 3208 3208 3208 3208 3208 3178 3178 3178 3178 3178 3149 3149 3149 3149 3120 3120 3120 3120 3120 3120 3120 3120 3120 3120 3092 3092 3092 3092 3092 3092 3092 3120 3120 3120 3120 3120 3120 3120 3092 3092 3092 3092 3092 3092 3092 3092 3092 3092 3092 3092 3064 3064 3064 3064 3064 3064 3064 3064 3064 3064 3064 3092 3092 3092 3092 5734 5734 5734 5734 5734 5734 5734 5734 5734 5734 5734 5734 5832 5832 5832 5933 5933 6038 6038 5933 5832 5832 5832 5832 5832 5832 5832 5734 5734 5734 5734 5640 5640 5640 5640 5640 5734 5734 5734 5734 5734 5734 5832 5832 5832 5832 5832 5734 5734 5734 5734 5734 5734 5734 5734 5734 5734 5734 5734 5734 5734 5734 5832 5832 5832 5832 5734 5734 5734 5734 5734 5734 5734 5734 5734 5734 5734 5734 5734 5734 5734 5734 5734 5734 5734 5734 5734 5832 5734 5734 5832 5832 5734 5734 5734 5734 5734 5734 5734 5832 5832 5832 5933 6038 6038 6038 5933 5933 5933 6038 5933 5933 5933 6038 5933 5933 5933 5933 5933 5933 6038 6038 6038 6038 6038 6038 6038 6038 6038 6038 6038 6038 6038 6259 6146 6146 6259 6259 6375 6375 6259 6259 6259 6259 6259 6259 6146 6146 6146 6259 6259 6259 6259 6259 6259 6375 6375 6375 6375 6375 6497 6497 6497 6622 6622 0 0 0 0 0 0 0 0 0 0 0 0 0
0 0 0 0 0 0 0 0 0 0 0 0 0 0 0 0 0 0 0 0 0 0 0 0 0 0 0 0 0 0 4582 4582 4582 4645 4708 4708 4708 4708 4708 4708 4708 4708 4708 4708 4708 4774 4774 4842 4774 4774 4842 4842 4774 4774 4774 4842 4842 4911 4911 4911 4911 4911 4911 4911 4911 4911 4842 4842 4842 4842 4842 4842 4842 4774 4774 4774 4708 4645 4645 4708 4645 4645 4774 4774 4911 4983 5132 5132 5210 5210 5210 5291 5291 5291 0 0 0 0 0 0 0 0 9593 9593 9593 9593 9593 9084 8849 8849 8626 8626 8413 8413 8413 8019 8019 0 7835 7835 7835 8212 8212 8413 8413 8212 8212 8413 8413 8212 8212 8019 8019 8019 8212 8212 8413 8413 8626 8413 8413 8413 8413 8413 8413 8413 8626 8626 8626 8626 8626 8413 8413 8413 8212 8212 8413 8413 8413 8413 8413 8413 8413 8413 8413 8413 8413 8413 8413 8413 8413 8212 8212 8212 8212 8212 8212 8212 8212 8212 8413 8413 8413 8413 8413 8413 8413 8413 8413 8413 8413 8413 3503 3503 3503 3503 3503 3503 3503 3503 3503 3503 3503 3503 3503 3503 3503 3503 3503 3503 3503 3468 3468 3468 3468 3468 3468 3468 3468 3468 3503 3503 3503 3503 3503 3503 3503 3468 3468 3468 3468 3468 3468 3468 3468 3503 3503 3503 3468 3433 3433 3433 3433 3433 3433 3433 3433 3433 3433 3433 3433 3433 3433 3433 3399 3399 3433 3433 3399 3399 3433 3433 3433 3433 3433 3433 3433 3399 3399 3399 3399 3399 3399 3399 3399 3399 3433 3433 3433 3399 3399 3433 3433 3399 3399 3399 3399 3399 3399 3399 3399 3399 3399 3365 3365 3365 3399 3399 3365 3365 3365 3365 3365 3365 3365 3365 3365 3365 3365 3365 3365 3365 3365 3365 3399 3399 1873 1873 1873 1873 1873 1883 1883 1883 1883 1883 1873 1873 1873 1863 1853 1853 1853 1853 1853 1843 1843 1843 1843 1843 1843 1843 1843 1843 1843 1843 1843 1843 1843 1843 1843 1843 1843 1843 1833 1833 1833 1833 1833 1833 1833 1833 1833 1833 1833 1833 1833 1833 1833 1833 1823 1823 1823 1823 1813 1813 1813 1804 1804 1804 1804 1804 1813 1813 1813 1813 1804 1804 1804 1804 1804 1804 1804 3208 3208 3208 3208 3208 3208 3208 3208 3208 3208 3208 3178 3178 3178 3178 3178 3149 3149 3120 3120 3120 3120 3120 3120 3120 3120 3120 3120 3092 3092 3092 3120 3120 3092 3092 3092 3092 3120 3120 3120 3092 3092 3092 3092 3092 3092 3092 3092 3092 3092 3092 3092 3092 3092 3064 3064 3064 3064 3064 3064 3064 3064 3064 3064 3092 3092 3092 3092 3120 5734 5734 5734 5734 5734 5734 5734 5734 5734 5832 5832 5832 5832 5832 5933 5933 5933 6146 6146 6146 6038 5933 5933 5933 5933 5832 5832 5734 5734 5734 5734 5734 5734 5734 5734 5734 5832 5832 5832 5832 5832 5933 5832 5832 5832 5832 5933 5933 5734 5734 5734 5734 5734 5734 5734 5734 5734 5734 5734 5734 5734 5734 5832 5832 5832 5832 5734 5734 5734 5734 5734 5734 5734 5734 5734 5734 5734 5734 5734 5734 5734 5734 5832 5832 5832 5832 6038 6146 6146 6259 6259 6259 6146 6038 5832 5832 5832 5832 5832 5933 6146 6146 6146 6146 6038 6038 6038 6038 6038 6038 6038 6038 6038 6038 6038 6038 6038 6038 6038 6038 6038 6038 6038 6038 6038 6038 6038 6038 6038 6038 6038 6038 6038 6146 6146 6146 6259 6259 6259 6259 6146 6146 6146 6146 6259 6259 6146 6146 6146 6259 6259 6146 6146 6146 6259 6259 6259 6375 6375 6375 6497 6497 6497 6622 6622 0 0 0 0 0 0 0 0 0 0 0 0 0
0 0 0 0 0 0 0 0 0 0 0 0 0 0 0 0 0 0 0 0 0 0 0 0 0 0 0 0 0 0 4645 4645 4645 4645 4708 4774 4774 4774 4774 4774 4774 4774 4708 4708 4774 4774 4774 4842 4842 4842 4842 4842 4842 4842 4842 4842 4842 4911 4911 4911 4911 4911 4911 4911 4911 4911 4842 4842 4842 4842 4842 4842 4842 4774 4774 4774 4708 4645 4645 4645 4582 4582 4842 4842 4983 5056 5132 5132 5210 5210 5210 5210 5210 5210 8849 8849 0 0 0 0 0 0 0 8849 8849 8626 8849 8849 8626 8626 8626 8413 8413 8212 8019 8019 8019 0 7835 7835 7835 8019 8212 8413 8413 8212 8212 8413 8413 8212 8212 8212 8212 8626 8212 8212 8626 8626 8626 8413 8413 8413 8413 8413 8413 8626 8626 8626 8626 8626 8626 8413 8413 8413 8212 8212 8212 8413 8413 8413 8413 8413 8413 8413 8413 8413 8413 8413 8413 8413 8413 8212 8212 8212 8212 8212 8212 8212 8212 8212 8413 8413 8413 8413 8413 8413 8413 8626 8413 8413 8413 8413 3503 3503 3503 3503 3503 3503 3503 3503 3503 3503 3503 3503 3503 3503 3503 3503 3503 3468 3468 3468 3468 3468 3468 3468 3468 3468 3468 3468 3503 3503 3503 3503 3503 3503 3503 3468 3468 3468 3503 3503 3468 3468 3468 3468 3503 3503 3468 3433 3433 3433 3433 3433 3433 3433 3433 3433 3433 3433 3433 3433 3433 3433 3399 3399 3433 3433 3433 3433 3433 3433 3433 3433 3399 3399 3433 3399 3399 3399 3399 3399 3399 3399 3399 3399 3433 3433 3433 3399 3399 3433 3433 3399 3399 3399 3399 3399 3399 3399 3399 3399 3399 3365 3365 3365 3365 3365 3365 3365 3365 3365 3365 3365 3365 3365 3365 3365 3365 3365 3399 3399 3399 3399 3399 3399 1873 1873 1873 1873 1873 1883 1883 1883 1883 1883 1873 1873 1873 1863 1853 1853 1853 1853 1853 1853 1853 1853 1853 1853 1853 1843 1843 1843 1843 1843 1843 1843 1843 1843 1843 1843 1843 1843 1833 1833 1833 1833 1833 1833 1833 1833 1833 1833 1833 1833 1833 1833 1833 1833 1823 1823 1823 1823 1813 1813 1813 1813 1804 1804 1804 1804 1813 1813 1813 1813 1804 1804 1804 1804 1804 1804 1804 3208 3208 3208 3208 3208 3208 3208 3208 3178 3178 3208 3178 3178 3178 3178 3178 3178 3178 3120 3120 3149 3120 3120 3120 3120 3120 3120 3120 3120 3092 3092 3092 3092 3092 3092 3092 3092 3120 3120 3120 3092 3092 3092 3092 3092 3092 3092 3092 3092 3092 3092 3092 3092 3092 3092 3092 3064 3064 3064 3064 3064 3064 3064 3064 3092 3092 3092 3092 3120 5832 5832 5832 5832 5832 5832 5832 5832 5832 5832 5832 5832 5933 5933 6038 6038 6259 6259 6259 6146 6038 6038 6038 5933 5933 5933 5933 5832 5832 5832 5832 5832 5832 5734 5734 5734 5832 5832 5933 5933 5933 5933 5832 5832 5832 5832 5832 5832 5832 5832 5832 5832 5734 5734 5734 5734 5734 5734 5734 5734 5734 5734 5832 5832 5832 5832 5734 5734 5734 5734 5734 5734 5734 5734 5734 5734 5734 5734 5734 5734 5734 5832 5933 6038 6146 6259 6375 6375 6497 6497 6375 6375 6375 6375 6259 5933 5933 5933 6038 6146 6146 6146 6146 6146 6146 6146 6038 6038 6038 6038 6038 6038 6038 6038 6038 6038 6038 6038 6038 6038 6038 6038 6038 6038 6038 6038 6038 6038 6038 6038 6038 6038 6038 6038 6038 6038 6259 6259 6259 6146 6146 6146 6146 6146 6259 6259 6146 6146 6146 6259 6259 6146 6146 6146 6259 6259 6259 6375 6375 6375 6497 6497 6497 6622 6622 0 0 0 0 0 0 0 0 0 0 0 0 0
0 0 0 0 0 0 0 0 0 0 0 0 0 0 0 0 0 0 0 0 0 0 0 0 0 0 0 0 0 0 4708 4708 4708 4774 4774 4774 4774 4774 4774 4774 4774 4774 4774 4774 4774 4774 4774 4842 4842 4842 4842 4842 4842 4842 4842 4842 4842 4911 4911 4911 4983 4983 4983 4983 4983 4983 4911 4842 4842 4842 4842 4842 4842 4842 4842 4774 4708 4645 4582 4582 4522 4522 4522 5056 5056 5132 5132 5132 5210 5210 5210 5210 5210 8849 8849 8849 8849 8849 8849 8849 8849 8849 8849 8849 8849 8626 8413 8413 8626 8626 8413 8413 8413 8212 8019 8019 8019 8413 8019 8019 8019 8019 8413 8626 8413 8413 8413 8413 8413 8212 8212 8413 8413 8626 8626 8626 8626 8626 8626 8413 8413 8413 8413 8413 8413 8413 8626 8626 8626 8626 8626 8413 8413 8212 8212 8212 8212 8413 8413 8413 8413 8413 8413 8413 8413 8413 8413 8413 8413 8212 8212 8212 8212 8212 8212 8212 8212 8212 8212 8212 8413 8413 8413 8413 8413 8413 8413 8626 8413 8413 8413 3539 3539 3539 3539 3503 3503 3503 3503 3503 3503 3503 3503 3503 3503 3503 3503 3503 3503 3468 3468 3468 3468 3468 3468 3468 3468 3468 3468 3468 3468 3503 3503 3503 3503 3503 3503 3503 3468 3468 3468 3468 3468 3468 3468 3468 3503 3468 3468 3433 3433 3433 3433 3433 3433 3468 3468 3468 3468 3433 3433 3433 3433 3433 3433 3433 3433 3433 3433 3433 3433 3433 3433 3433 3399 3399 3433 3399 3399 3399 3399 3399 3399 3399 3399 3433 3433 3433 3433 3433 3433 3433 3433 3399 3399 3399 3399 3399 3399 3399 3399 3399 3399 3399 3365 3365 3365 3365 3365 3365 3365 3365 3365 3365 3365 3365 3365 3365 3365 3365 3365 3365 3399 3399 3399 3399 1873 1873 1873 1873 1883 1883 1883 1883 1883 1883 1883 1873 1873 1863 1853 1853 1853 1853 1853 1853 1853 1853 1853 1853 1853 1853 1853 1853 1853 1843 1843 1843 1843 1843 1843 1843 1843 1843 1843 1843 1843 1843 1843 1843 1843 1833 1833 1833 1833 1833 1833 1833 1833 1833 1823 1823 1823 1823 1823 1813 1813 1813 1813 1813 1804 1804 1813 1813 1804 1804 1813 1813 1804 1804 1804 1804 1804 3208 3208 3208 3208 3208 3208 3208 3208 3178 3178 3208 3178 3178 3178 3178 3178 3178 3178 3120 3120 3120 3120 3120 3120 3120 3120 3120 3120 3092 3092 3092 3092 3092 3092 3092 3092 3092 3092 3120 3120 3092 3092 3092 3092 3092 3092 3092 3092 3092 3092 3092 3092 3092 3092 3092 3092 3064 3064 3064 3064 3064 3064 3064 3064 3092 3092 3092 3092 3120 5832 5832 5832 5832 5832 5832 5832 5832 5832 5933 5933 5933 5933 6038 6146 6146 6259 6259 6259 6259 6146 6146 6038 6038 6038 6038 6038 5832 5832 5832 5832 5832 5832 5734 5734 5832 5933 5933 5933 5933 5933 5933 5832 5832 5832 5832 5832 5832 5832 5832 5832 5832 5832 5832 5832 5832 5832 5832 5832 5832 5832 5832 5832 5832 5734 5734 5734 5734 5734 5734 5734 5832 5832 5832 5832 5832 5832 5832 5832 5832 5832 5933 6038 6259 6259 6375 6375 6497 6497 6497 6497 6497 6497 6375 6375 6375 6038 6038 6146 6146 6146 6146 6146 6146 6146 6146 6146 6146 6146 6038 6038 6038 6038 6038 6038 6038 6038 6038 6038 6038 6038 6038 6038 6038 6038 6038 6038 6038 6038 6038 6038 6038 6038 6038 6038 5933 5933 6146 6146 6038 6038 6038 6038 6038 6259 6259 6146 6146 6259 6259 6259 6259 6259 6259 6259 6259 6259 6375 6375 6375 6497 6497 6497 6622 6622 0 0 0 0 0 0 0 0 0 0 0 0 0
0 0 0 0 0 0 0 0 0 0 0 0 0 0 0 0 0 0 0 0 0 0 0 0 0 0 0 0 0 0 4774 4774 4774 4774 4842 4842 4842 4842 4842 4774 4774 4774 4774 4774 4774 4645 4645 4842 4842 4842 4842 4842 4842 4842 4842 4842 4842 4911 4911 4911 4983 4983 4983 4983 4983 4983 4911 4842 4842 4842 4842 4842 4842 4842 4842 4842 4774 4645 4582 4582 4522 4522 5132 5056 5056 5132 5132 5132 5210 5210 5210 5210 5210 5210 5291 8849 8849 8849 8626 8626 8626 8626 8626 8212 8212 8413 8212 8212 8019 8019 8019 8019 8019 8019 8212 8212 8212 8413 8413 8413 8212 8212 8413 8626 8413 8413 8413 8413 8413 8212 8212 8413 8413 8626 8626 8626 8626 8626 8626 8626 8626 8626 8626 8626 8413 8413 8626 8626 8626 8413 8413 8413 8413 8212 8212 8212 8212 8212 8413 8212 8212 8212 8413 8413 8413 8413 8413 8413 8212 8212 8212 8212 8212 8212 8212 8212 8212 8212 8413 8413 8413 8413 8413 8413 8413 8413 8413 8413 8413 8413 8413 3503 3503 3539 3539 3539 3539 3539 3539 3503 3503 3503 3503 3503 3503 3503 3503 3468 3468 3468 3468 3468 3468 3468 3468 3468 3468 3468 3468 3468 3468 3503 3503 3503 3503 3503 3503 3503 3468 3468 3468 3468 3468 3468 3468 3468 3468 3468 3468 3433 3433 3433 3433 3433 3433 3468 3468 3468 3468 3468 3433 3433 3433 3433 3433 3433 3433 3433 3433 3433 3433 3433 3433 3433 3433 3433 3433 3399 3399 3399 3399 3399 3399 3399 3399 3433 3433 3433 3433 3433 3433 3433 3433 3399 3399 3399 3399 3399 3399 3399 3399 3399 3399 3399 3365 3365 3365 3365 3365 3365 3365 3365 3365 3365 3365 3365 3365 3365 3365 3365 3365 3365 3365 3365 3365 3365 1873 1873 1873 1883 1883 1883 1883 1883 1883 1883 1883 1873 1873 1863 1863 1863 1863 1853 1853 1853 1853 1853 1853 1853 1853 1853 1853 1853 1853 1843 1843 1843 1843 1843 1843 1843 1843 1843 1843 1843 1843 1843 1843 1843 1843 1833 1833 1833 1833 1833 1833 1833 1833 1833 1833 1823 1823 1823 1823 1813 1813 1813 1813 1813 1804 1804 1813 1813 1804 1804 1813 1813 1804 1804 1813 1804 1804 1813 3208 3208 3208 3208 3208 3208 3208 3208 3208 3208 3178 3178 3178 3178 3178 3178 3178 3120 3120 3120 3120 3120 3120 3120 3120 3120 3120 3092 3092 3092 3092 3092 3092 3092 3092 3092 3092 3120 3120 3092 3092 3092 3092 3092 3092 3092 3092 3092 3092 3092 3092 3092 3092 3092 3092 3064 3064 3064 3064 3064 3064 3064 3064 3092 3092 3092 3092 3120 5933 5933 5933 5933 5933 5832 5832 5933 5933 5933 6038 6038 6038 6038 6146 6146 6146 6146 6146 6146 6146 6146 6146 6038 6038 6038 6038 6038 5933 5933 5832 5832 5832 5832 5832 5832 5933 5933 5933 5933 5933 5933 5832 5832 5832 5832 6038 6038 6038 5933 5933 5832 5832 5832 5832 5832 5933 5832 5832 5832 5832 5832 5832 5832 5734 5734 5734 5734 5734 5734 5832 5832 5933 5832 5832 5832 5933 5933 5933 6038 6038 6146 6146 6375 6375 6375 6497 6497 6497 6497 6497 6497 6497 6497 6375 6375 6259 6259 6259 6259 6146 6146 6146 6146 6146 6146 6146 6146 6146 6146 6038 6038 6038 6038 6038 6038 6038 6146 6038 6038 6038 6038 6038 6038 6038 6038 6038 6038 6038 6038 6038 6038 6038 6038 6038 5933 5933 6038 6038 6038 6038 6038 6038 6038 6146 6259 6146 6146 6259 6259 6259 6259 6259 6259 6375 6375 6375 6375 6375 6497 6497 6497 6622 6622 6753 0 0 0 0 0 0 0 0 0 0 0 0 0
0 0 0 0 0 0 0 0 0 0 0 0 0 0 0 0 0 0 0 0 0 0 0 0 0 0 0 0 0 0 4774 4774 4774 4774 4842 4842 4842 4842 4842 4842 4842 4774 4774 4774 4774 4645 4645 4842 4842 4911 4842 4842 4842 4842 4842 4842 4842 4911 4911 4911 4983 4983 4983 4983 4983 4983 4911 4911 4911 4911 4911 4911 4911 4983 4983 4983 4983 4774 4774 4983 4983 5056 5132 5132 5132 5132 5132 5132 5132 5132 5132 5210 5210 5210 5210 8849 8849 8849 8626 8626 8626 8626 8626 8212 8212 8212 8019 8019 8019 8019 8019 7835 7835 8019 8212 8212 8212 8212 8413 8413 8212 8212 8413 8626 8626 8626 8413 8413 8413 8413 8413 8413 8413 8413 8626 8626 8626 8626 8626 8626 8626 8626 8626 8626 8413 8413 8626 8626 8626 8413 8413 8212 8212 8212 8212 8212 8212 8212 8413 8212 8212 8212 8413 8413 8413 8413 8413 8413 8212 8212 8212 8212 8212 8212 8212 8212 8212 8413 8413 8413 8413 8413 8413 8413 8413 8413 5374 5374 5291 5291 5291 3503 3503 3539 3539 3539 3539 3539 3539 3539 3503 3503 3503 3503 3503 3503 3503 3468 3468 3468 3468 3468 3468 3468 3468 3468 3468 3468 3468 3468 3468 3503 3503 3503 3503 3503 3503 3503 3468 3468 3468 3468 3468 3468 3468 3468 3468 3468 3468 3433 3433 3433 3433 3433 3468 3468 3468 3468 3468 3468 3468 3433 3433 3433 3433 3433 3433 3433 3433 3433 3433 3399 3399 3433 3399 3399 3399 3399 3399 3399 3399 3399 3399 3399 3399 3399 3399 3399 3399 3399 3399 3399 3399 3399 3399 3399 3399 3399 3399 3399 3399 3399 3399 3399 3365 3365 3365 3365 3365 3365 3365 3365 3365 3365 3365 3365 3365 3365 3365 3365 3365 3365 3365 3365 3365 3365 1883 1883 1883 1883 1883 1883 1883 1883 1883 1883 1883 1873 1873 1863 1863 1863 1863 1853 1853 1853 1853 1853 1853 1853 1853 1853 1853 1853 1853 1843 1843 1843 1843 1843 1843 1843 1843 1843 1843 1843 1843 1843 1843 1843 1833 1833 1833 1833 1833 1833 1833 1833 1833 1833 1833 1823 1823 1823 1823 1823 1813 1813 1813 1813 1813 1813 1813 1813 1804 1804 1813 1813 1804 1804 1813 1813 1813 1813 3208 3208 3208 3208 3208 3208 3208 3178 3178 3208 3178 3178 3178 3178 3178 3178 3178 3120 3120 3120 3120 3120 3120 3120 3120 3120 3120 3120 3092 3092 3092 3092 3092 3092 3092 3092 3092 3092 3092 3092 3092 3092 3092 3092 3092 3092 3092 3092 3092 3092 3092 3092 3092 3092 3092 3064 3064 3064 3064 3064 3064 3064 3064 3092 3092 3092 3092 3120 5933 5933 5933 6038 6038 5933 5933 5933 6038 6146 6038 6038 6038 6038 6146 6146 6146 6146 6146 6146 6146 6146 6146 6146 6146 6146 6146 6038 6038 5933 5933 5933 5933 5832 5832 5933 5933 5933 5933 5933 5933 6038 5832 5832 6038 6038 6146 6038 6038 5933 5933 5933 5933 5933 6038 6038 6038 6146 6146 6038 5933 5933 5933 5832 5832 5832 5933 5832 5832 5832 5933 5933 5933 5832 5832 5832 5933 6038 6038 6146 6146 6146 6146 6375 6375 6375 6375 6497 6497 6497 6497 6375 6375 6375 6375 6375 6259 6146 6146 6146 6146 6146 6146 6146 6146 6146 6146 6146 6146 6038 6038 6038 6038 6038 6038 6038 6038 6146 6038 6038 6038 6038 6038 6038 6038 6038 6038 6038 6038 6038 6038 6038 6146 6038 6038 5933 5933 6038 6038 6038 6038 6038 6038 6038 6146 6259 6259 6259 6259 6375 6375 6375 6259 6259 6375 6375 6375 6497 6497 6497 6622 6622 6622 6753 6889 0 0 0 0 0 0 0 0 0 0 0 0 0
0 0 0 0 0 0 0 0 0 0 0 0 0 0 0 0 0 0 0 0 0 0 0 0 0 0 0 0 0 0 4774 4774 4774 4842 4842 4842 4842 4842 4842 4842 4842 4842 8212 8413 8626 8626 8849 8849 8849 8849 9084 4911 4842 4842 4842 4842 4842 4911 4911 4911 4983 4983 4983 4983 4983 4983 4911 4911 4911 4911 4911 4983 4983 4983 4983 5056 5056 4983 4983 4983 4983 5056 5132 5132 5132 5132 5132 5132 5132 5132 5132 5132 5132 5132 5210 5210 8849 8849 8626 8626 8626 8626 8626 8413 8413 8212 8019 8019 8019 8019 8019 7835 7835 8019 8212 8212 8212 8212 8413 8413 8413 8413 8413 8413 8626 8626 8626 8626 8626 8413 8413 8413 8413 8413 8626 8626 8626 8626 8626 8626 8626 8626 8626 8626 8626 8626 8626 8626 8626 8413 8413 8212 8212 8212 8019 8019 8212 8212 8212 8212 8212 8413 8413 8413 8413 8413 8413 8413 8413 8413 8413 8212 8212 8212 8212 8212 8212 8413 8413 8413 8413 8413 8413 8413 8413 5374 5374 5374 5291 5210 5132 3503 3503 3539 3539 3539 3539 3539 3539 3539 3503 3503 3503 3503 3503 3503 3503 3503 3503 3468 3468 3468 3468 3468 3468 3468 3468 3468 3468 3468 3468 3503 3503 3503 3503 3503 3503 3503 3503 3503 3503 3503 3468 3468 3468 3468 3468 3468 3468 3433 3433 3433 3433 3468 3468 3468 3468 3468 3468 3468 3468 3433 3433 3433 3433 3433 3433 3433 3433 3433 3433 3399 3399 3433 3399 3399 3399 3399 3399 3399 3399 3399 3399 3399 3399 3399 3399 3399 3399 3399 3399 3399 3399 3399 3399 3399 3399 3399 3399 3399 3399 3399 3399 3399 3365 3365 3365 3365 3365 3365 3365 3365 3365 3365 3365 3365 3365 3365 3365 3365 3365 3365 3365 3365 3365 3365 1883 1883 1883 1883 1883 1883 1883 1883 1883 1883 1883 1883 1883 1863 1863 1863 1863 1853 1853 1853 1853 1853 1853 1853 1853 1853 1853 1853 1853 1853 1843 1843 1843 1843 1843 1843 1843 1843 1843 1843 1843 1843 1843 1843 1833 1833 1833 1833 1833 1833 1833 1833 1833 1823 1823 1823 1823 1823 1823 1823 1813 1813 1813 1813 1813 1813 1813 1813 1813 1813 1813 1813 1804 1804 1813 1813 1813 1804 1804 3208 3208 3208 3208 3208 3208 3178 3178 3208 3178 3178 3178 3178 3178 3178 3178 3120 3120 3120 3120 3120 3120 3092 3092 3120 3120 3120 3092 3092 3092 3092 3092 3092 3092 3092 3092 3092 3092 3092 3092 3092 3092 3092 3092 3092 3092 3092 3092 3092 3092 3092 3092 3092 3092 3064 3064 3064 3064 3064 3064 3064 3064 3064 3092 3092 3092 3120 6038 6038 6038 6038 6038 6038 6038 6038 6146 6146 6038 6038 6038 6038 6038 6146 6146 6146 6146 6146 6146 6146 6146 6146 6146 6146 6146 6038 6038 6038 5933 5933 6038 6038 6038 6038 6038 6038 6038 6038 6038 6146 5832 5832 6146 6259 6259 6038 6038 5933 5933 6038 6038 6038 6146 6146 6146 6259 6259 6259 6146 6038 6038 6038 5933 5933 6038 6038 6038 6038 6146 6146 6038 5933 5933 5933 5933 6038 6038 6146 6146 6146 6259 6375 6375 6375 6375 6375 6375 6497 6375 6375 6375 6375 6259 6259 6259 6146 6146 6146 6146 6146 6146 6146 6038 6038 6146 6146 6146 6038 6038 6038 6038 6146 6038 6038 6038 6146 6038 6038 6038 6038 6038 6038 6038 6038 6038 6038 6038 6038 6038 6038 6146 6146 6146 6146 6146 6038 6038 6038 6038 6146 6146 6146 6259 6259 6375 6375 6375 6375 6375 6375 6259 6259 6375 6375 6375 6497 6497 6622 6622 6622 6622 6753 6889 0 0 0 0 0 0 0 0 0 0 0 0 0
0 0 0 0 0 0 0 0 0 0 0 0 0 0 0 0 0 0 0 0 0 0 0 0 0 0 0 0 0 0 4774 4774 4774 4842 4842 4842 4911 4842 4842 4842 4842 4842 8413 8413 8626 8626 8849 8849 8849 8849 9084 4911 4911 4911 4911 4911 4911 4911 4911 4911 4983 5056 5056 5056 5056 5056 4983 4983 4983 4983 4983 4983 4983 5056 5056 5056 5132 5056 5056 5056 5056 5056 5132 5132 5132 5132 5132 5132 5132 5132 5132 5132 5132 5132 5210 5210 5210 5210 8849 8626 8626 8626 8626 8626 8626 8413 8019 8019 8019 8019 7835 7835 7835 8019 8212 8212 8212 8212 8212 8212 8212 8212 8413 8413 8413 8626 8626 8626 8626 8626 8626 8626 8626 8626 8626 8626 8626 8626 8626 8626 8626 8626 8626 8626 8413 8413 8626 8413 8413 8413 8413 8212 8212 8212 8019 8019 8212 8212 8212 8212 8212 8413 8413 8413 8413 8413 8413 8413 8212 8212 8212 8212 8212 8212 8212 8212 8212 8413 5374 5374 5374 5374 5374 5374 5374 5374 5374 5374 5374 5210 5132 5132 3539 3539 3539 3539 3539 3539 3539 3539 3503 3503 3503 3503 3503 3503 3503 3503 3503 3468 3468 3468 3468 3468 3468 3468 3468 3468 3468 3468 3468 3468 3468 3468 3468 3468 3503 3503 3503 3503 3503 3503 3468 3468 3468 3503 3468 3468 3468 3468 3468 3468 3468 3468 3468 3468 3468 3468 3468 3468 3468 3468 3433 3433 3433 3433 3433 3433 3433 3433 3399 3399 3399 3399 3399 3399 3399 3399 3399 3399 3399 3399 3399 3399 3399 3399 3399 3399 3399 3399 3399 3399 3399 3399 3399 3399 3399 3399 3399 3399 3399 3399 3399 3399 3365 3365 3365 3365 3365 3365 3365 3365 3365 3365 3365 3365 3365 3365 3365 3365 3365 3365 3365 3365 3365 3365 1883 1883 1883 1883 1883 1883 1883 1883 1883 1883 1883 1883 1883 1863 1863 1863 1863 1863 1853 1853 1853 1853 1853 1853 1853 1853 1853 1853 1853 1853 1843 1843 1843 1843 1843 1843 1843 1843 1843 1843 1843 1843 1843 1843 1833 1833 1833 1833 1833 1833 1833 1833 1833 1823 1823 1823 1823 1823 1823 1823 1813 1813 1813 1813 1813 1813 1813 1813 1813 1813 1813 1813 1804 1804 1813 1813 1813 1804 1804 3208 3208 3208 3208 3208 3208 3178 3178 3208 3178 3178 3178 3178 3178 3178 3149 3120 3120 3120 3120 3120 3120 3092 3092 3120 3120 3120 3092 3092 3092 3092 3092 3092 3092 3092 3092 3092 3092 3092 3092 3092 3092 3092 3092 3092 3092 3092 3092 3092 3120 3092 3092 3092 3092 3064 3064 3064 3064 3064 3064 3064 3064 3064 3092 3092 3092 3120 6146 6146 6038 6038 6038 6038 6038 6038 6146 6146 6146 6038 6038 6038 6038 6146 6146 6146 6146 6146 6146 6146 6146 6146 6146 6146 6146 6146 6146 6146 6038 6038 6038 6038 6038 6038 6038 6146 6146 6038 6038 6146 6375 6375 6497 6375 6375 6259 6146 6146 6146 6038 6038 6146 6259 6259 6259 6375 6375 6375 6259 6146 6146 6146 6146 6146 6038 6038 6038 6038 6146 6146 6146 6146 6146 6146 6146 6146 6146 6146 6146 6146 6259 6259 6259 6259 6259 6259 6259 6375 6375 6259 6259 6259 6259 6259 6259 6146 6146 6146 6146 6146 6146 6146 6038 6038 6146 6146 6146 6146 6146 6146 6146 6146 6146 6146 6146 6146 6038 6038 6038 6038 6038 6038 6038 6038 6038 6038 6038 6038 6038 6146 6146 6146 6146 6146 6146 6146 6146 6146 6146 6259 6259 6259 6259 6375 6497 6497 6497 6375 6375 6497 6375 6375 6375 6497 6497 6622 6622 6622 6622 6753 6753 6753 6889 0 0 0 0 0 0 0 0 0 0 0 0 0
0 0 0 0 0 0 0 0 0 0 0 0 0 0 0 0 0 0 0 0 0 0 0 0 0 0 0 0 0 0 4842 4842 4842 4842 4911 8849 8626 8626 8626 8413 8413 8413 8413 8413 8626 8849 8849 8849 8849 8849 8849 9084 9084 4983 4911 4911 4911 4911 4911 4911 4983 5056 5056 5056 5056 5056 4983 4983 4983 4983 4983 5056 5056 5056 5056 5056 5132 5132 5132 5056 5056 5056 5132 5132 5132 5132 5132 5132 5132 5132 5132 5132 5132 5132 5210 5210 5132 5132 8849 8849 8849 8849 8849 8849 8626 8626 8019 8019 8019 8019 7835 7835 7835 8019 8212 8212 8212 8212 8212 8212 8212 8212 8413 8413 8413 8626 8626 8626 8626 8626 8626 8626 8626 8626 8626 8626 8626 8626 8626 8626 8626 8626 8626 8626 8413 8413 8626 8413 8413 8413 8413 8212 8212 8212 8019 8019 8212 8212 8212 8212 8212 8413 8413 8413 8413 8413 8413 8413 8212 8212 8212 8212 8212 8212 8212 8413 8413 5374 5374 5374 5374 5374 5374 5374 5374 5374 5374 5374 5374 5291 5291 5291 5291 3539 3539 3539 3539 3539 3539 3539 3539 3503 3503 3503 3503 3503 3468 3468 3468 3468 3468 3503 3503 3503 3503 3503 3503 3503 3503 3503 3468 3468 3468 3468 3468 3468 3503 3503 3503 3503 3503 3503 3503 3503 3503 3503 3468 3468 3468 3468 3468 3468 3468 3468 3468 3468 3468 3468 3468 3468 3468 3433 3433 3433 3433 3433 3433 3433 3433 3399 3399 3399 3399 3399 3399 3399 3399 3399 3399 3399 3399 3399 3399 3399 3399 3399 3399 3399 3399 3399 3399 3399 3399 3399 3399 3399 3399 3399 3399 3399 3399 3399 3399 3399 3365 3365 3365 3365 3365 3365 3365 3365 3365 3365 3365 3365 3365 3365 3365 3365 3365 3365 3399 3399 3399 1883 1883 1883 1883 1883 1883 1883 1883 1883 1883 1883 1883 1883 1883 1863 1863 1863 1863 1863 1853 1853 1853 1853 1853 1853 1853 1863 1863 1863 1853 1853 1853 1843 1843 1843 1843 1843 1843 1843 1843 1843 1843 1843 1843 1843 1833 1833 1833 1833 1833 1833 1833 1833 1833 1823 1823 1823 1823 1823 1823 1823 1813 1813 1813 1813 1823 1813 1813 1813 1813 1813 1813 1813 1813 1813 1813 1813 1804 1804 1813 3178 3178 3178 3178 3178 3208 3208 3208 3208 3178 3178 3178 3178 3178 3178 3149 3120 3120 3120 3120 3120 3120 3120 3120 3120 3120 3120 3120 3120 3120 3092 3092 3120 3092 3092 3092 3092 3092 3092 3092 3092 3092 3092 3092 3092 3092 3092 3092 3120 3120 3092 3092 3092 3092 3064 3064 3064 3064 3064 3064 3064 3064 3064 3092 3092 3092 6146 6146 6146 6146 6146 6146 6038 6038 6146 6146 6146 6146 6146 6146 6146 6146 6146 6146 6146 6146 6146 6146 6146 6146 6146 6146 6259 6259 6146 6146 6146 6146 6146 6146 6146 6146 6146 6146 6146 6146 6146 6146 6259 6375 6375 6497 6497 6375 6375 6259 6259 6259 6146 6146 6259 6375 6375 6375 6375 6375 6375 6375 6259 6259 6146 6146 6146 6146 6146 6146 6146 6146 6259 6259 6146 6146 6146 6146 6259 6259 6146 6146 6146 6259 6259 6259 6259 6146 6146 6259 6259 6259 6146 6146 6146 6146 6146 6146 6146 6146 6146 6146 6146 6146 6146 6038 6038 6146 6146 6146 6146 6146 6146 6146 6259 6146 6146 6146 6146 6146 6038 6038 6146 6146 6038 6038 6038 6038 6038 6038 6038 6146 6146 6146 6146 6146 6146 6146 6146 6146 6146 6146 6259 6259 6375 6375 6497 6497 6497 6497 6497 6497 6497 6497 6497 6497 6497 6622 6622 6622 6622 6753 6753 6753 6753 6753 0 0 0 0 0 0 0 0 0 0 0 0 0
0 0 0 0 0 0 0 0 0 0 0 0 0 0 0 0 0 0 0 0 0 0 0 0 0 0 0 0 0 0 4842 4842 4842 4842 4911 8849 8413 8413 8413 8626 8626 8626 8626 8626 8626 8849 8849 8849 8849 8849 8849 9084 9084 9084 9084 9084 9084 4911 4911 4911 5056 5056 5056 5056 5132 5132 5056 5056 5056 5056 5056 5056 5056 5056 5056 5056 5132 5132 5132 5132 5132 5132 5132 5132 5132 5132 5132 5132 5132 5132 5132 5132 5210 5210 5210 5210 5132 5132 5132 8849 8849 8849 8849 8849 8849 8626 8626 8019 8019 8019 7835 7835 7835 8019 8019 8212 8212 8212 8413 8413 8413 8413 8413 8413 8413 8413 8413 8413 8413 8413 8413 8413 8413 8413 8626 8626 8626 8626 8626 8626 8626 8626 8626 8626 8626 8626 8626 8626 8626 8413 8413 8413 8413 8212 8212 8212 8212 8212 8212 8212 8212 8413 8413 8413 8413 8413 8212 8212 8212 5291 5291 8212 8212 8212 8212 5374 5374 5374 5374 5374 5374 5374 5374 5374 5374 5374 5374 5374 5374 5374 5291 5291 5374 3503 3503 3503 3539 3539 3539 3539 3539 3503 3503 3503 3503 3503 3468 3468 3468 3468 3468 3503 3503 3503 3503 3503 3503 3503 3503 3503 3468 3468 3468 3468 3468 3468 3503 3503 3503 3503 3503 3503 3503 3503 3503 3503 3468 3468 3468 3433 3433 3468 3468 3468 3468 3468 3468 3468 3468 3468 3433 3433 3433 3433 3433 3433 3433 3433 3433 3399 3399 3399 3399 3399 3399 3399 3399 3399 3399 3399 3399 3399 3399 3399 3399 3399 3399 3399 3399 3399 3399 3399 3399 3399 3399 3399 3399 3399 3399 3399 3399 3399 3399 3399 3399 3365 3365 3365 3365 3365 3365 3365 3365 3365 3365 3365 3365 3365 3365 3365 3365 3365 3365 3399 3399 1883 1883 1883 1883 1883 1883 1883 1883 1883 1883 1883 1883 1883 1883 1873 1873 1863 1863 1863 1863 1863 1863 1853 1853 1863 1863 1863 1863 1863 1863 1853 1853 1853 1843 1843 1843 1843 1843 1843 1843 1843 1843 1843 1843 1843 1833 1833 1833 1833 1833 1833 1833 1833 1833 1823 1823 1823 1823 1823 1823 1823 1823 1823 1823 1823 1823 1823 1813 1813 1813 1813 1813 1813 1813 1813 1813 1813 1804 1804 1813 3178 3178 3178 3178 3178 3208 3208 3208 3208 3178 3178 3178 3178 3178 3178 3149 3120 3120 3120 3120 3120 3092 3092 3092 3120 3120 3120 3092 3092 3120 3092 3092 3120 3092 3092 3092 3120 3120 3092 3092 3092 3092 3092 3092 3092 3092 3092 3092 3092 3120 3092 3092 3092 3092 3064 3064 3064 3064 3064 3064 3064 3064 3064 3064 3064 3092 6259 6259 6259 6146 6146 6146 6146 6146 6146 6146 6146 6146 6146 6146 6146 6146 6146 6146 6146 6259 6259 6259 6259 6259 6146 6146 6259 6259 6146 6146 6146 6146 6146 6146 6146 6146 6259 6146 6146 6259 6259 6259 6497 6497 6497 6497 6497 6497 6497 6497 6375 6375 6375 6375 6375 6497 6375 6375 6375 6375 6375 6259 6259 6259 6259 6259 6259 6259 6259 6259 6259 6259 6259 6259 6146 6146 6146 6146 6259 6259 6146 6146 6146 6146 6259 6259 6146 6146 6146 6146 6259 6259 6146 6146 6146 6146 6146 6146 6146 6146 6146 6146 6146 6146 6146 6146 6146 6146 6146 6146 6259 6259 6259 6259 6375 6259 6259 6259 6259 6146 6146 6146 6259 6146 6146 6038 6038 6038 6146 6146 6146 6146 6146 6146 6146 6259 6259 6259 6146 6146 6146 6259 6375 6375 6375 6375 6497 6497 6497 6497 6497 6497 6497 6497 6497 6497 6622 6622 6622 6622 6622 6753 6753 6753 6753 6753 0 0 0 0 0 0 0 0 0 0 0 0 0
0 0 0 0 0 0 0 0 0 0 0 0 0 0 0 0 0 0 0 0 0 0 0 0 0 0 0 0 0 0 4911 4911 4842 4842 8849 8626 8413 8413 8413 8626 8626 8626 8626 8626 8849 8849 8849 8849 8849 8849 9084 9084 9084 9084 9084 9084 9084 9084 4983 4983 5056 5056 5056 5056 5132 5132 5056 5056 5056 5056 5056 5056 5056 5056 5056 5132 5132 5132 5132 5132 5132 5132 5132 5132 5132 5132 5132 5132 5132 5132 5210 5210 5210 5210 5210 5210 5210 5132 5132 5291 5374 8849 8849 8849 8849 8849 8849 8019 8019 8019 7835 7835 7835 8019 8019 8212 8212 8212 8212 8212 8413 8413 8413 8413 8413 8413 8413 8413 8413 8413 8413 8413 8413 8413 8626 8626 8626 8626 8626 8413 8413 8626 8626 8626 8626 8626 8626 8626 8626 8626 8626 8413 8413 8212 8212 8212 8212 8212 8413 8413 8413 8413 8413 8413 8413 8413 5374 5374 5291 5291 5291 5374 5374 5374 5374 5374 5374 5374 5374 5374 5374 5374 5374 5374 5374 5374 5374 5374 5374 5374 5374 5374 5374 3468 3468 3503 3503 3539 3539 3539 3539 3503 3503 3503 3503 3503 3468 3468 3503 3468 3468 3503 3503 3503 3503 3503 3503 3503 3503 3503 3503 3503 3468 3468 3468 3468 3503 3503 3503 3503 3503 3503 3503 3503 3503 3503 3503 3468 3468 3433 3433 3468 3468 3468 3468 3468 3468 3468 3433 3433 3433 3433 3433 3433 3399 3399 3433 3433 3433 3399 3399 3399 3399 3399 3399 3399 3399 3399 3399 3399 3399 3399 3399 3399 3399 3399 3399 3399 3399 3399 3399 3399 3399 3399 3399 3399 3399 3399 3399 3399 3399 3399 3399 3399 3399 3399 3399 3399 3365 3365 3365 3365 3365 3365 3365 3365 3365 3365 3365 3365 3365 3365 3365 3365 3365 1883 1883 1883 1883 1883 1883 1883 1883 1883 1883 1883 1883 1883 1883 1873 1873 1863 1863 1863 1863 1863 1863 1863 1863 1863 1863 1863 1863 1863 1863 1863 1863 1853 1853 1843 1843 1843 1843 1843 1843 1843 1843 1843 1843 1843 1833 1833 1833 1833 1833 1833 1833 1833 1833 1823 1823 1833 1833 1823 1823 1823 1823 1823 1823 1823 1823 1823 1813 1813 1813 1813 1813 1813 1813 1813 1813 1813 1813 1813 1813 3208 3178 3178 3178 3178 3208 3178 3178 3178 3178 3178 3178 3178 3178 3178 3149 3149 3120 3120 3120 3120 3092 3092 3092 3120 3120 3120 3092 3092 3120 3092 3092 3120 3120 3120 3120 3092 3092 3092 3092 3092 3092 3092 3092 3092 3092 3092 3092 3092 3120 3092 3092 3092 3092 3092 3064 3064 3064 3064 3064 3064 3064 3064 3064 3064 6259 6259 6259 6259 6259 6259 6259 6259 6146 6146 6146 6146 6146 6146 6146 6259 6259 6259 6259 6259 6375 6375 6497 6375 6375 6259 6259 6375 6375 6259 6259 6259 6259 6259 6259 6259 6259 6375 6375 6375 6375 6497 6497 6497 6497 6497 6497 6497 6497 6497 6497 6375 6375 6375 6375 6375 6375 6375 6375 6497 6375 6259 6259 6259 6259 6259 6259 6259 6259 6259 6259 6259 6259 6146 6146 6146 6146 6146 6146 6146 6259 6146 6146 6146 6146 6259 6146 6146 6146 6146 6146 6259 6259 6146 6146 6146 6259 6259 6146 6146 6146 6146 6146 6146 6259 6146 6146 6146 6259 6375 6375 6375 6375 6375 6375 6375 6375 6375 6375 6375 6259 6259 6259 6259 6146 6146 6038 6038 6038 6146 6146 6146 6146 6259 6375 6259 6259 6375 6375 6375 6259 6259 6259 6375 6375 6497 6497 6497 6497 6497 6497 6497 6497 6497 6497 6497 6622 6622 6622 6753 6753 6753 6753 6753 6889 6889 6889 0 0 0 0 0 0 0 0 0 0 0 0 0
0 0 0 0 0 0 0 0 0 0 0 0 0 0 0 0 0 0 0 0 0 0 0 0 0 0 0 0 0 0 0 0 0 8849 8849 8626 8626 8626 8626 8626 8626 8626 8626 8626 8849 8849 8849 8849 8849 8849 8849 8849 8849 8849 8849 9084 9084 9084 9084 9084 9084 8849 8849 5132 5132 5132 5056 5056 5056 5056 5056 5056 5056 5056 5132 5132 5132 5132 5132 5132 5132 5132 5132 5132 5132 5132 5132 5132 5132 5132 5210 5210 5210 5210 5291 5291 5210 5210 5291 5291 5374 5374 5374 5374 5460 5460 5460 8019 8019 8019 7835 7835 7835 7835 8019 8019 8212 8212 8212 8212 8212 8212 8212 8413 8413 8413 8413 8413 8212 8212 8212 8212 8212 8212 8413 8413 8413 8626 8413 8413 8413 8413 8626 8626 8626 8626 8626 8626 8626 8626 8626 8413 8413 5291 5132 5132 5132 8413 8413 8413 8413 8413 8413 8626 8626 5374 5374 5374 5291 5291 5374 5374 5374 5374 5374 5374 5374 5374 5291 5291 5374 5374 5374 5374 5374 5374 5374 5374 5374 5374 5374 5374 5374 3433 3433 3468 3503 3539 3539 3539 3539 3539 3503 3503 3503 3503 3468 3468 3503 3468 3468 3503 3503 3503 3503 3503 3503 3503 3503 3503 3503 3468 3468 3468 3468 3503 3503 3503 3503 3503 3539 3539 3539 3539 3503 3503 3503 3503 3503 3433 3433 3468 3468 3468 3468 3468 3468 3468 3433 3433 3433 3433 3433 3399 3399 3399 3399 3399 3433 3399 3399 3399 3399 3399 3399 3399 3399 3399 3399 3399 3399 3399 3399 3399 3399 3399 3399 3399 3399 3399 3399 3399 3399 3399 3399 3399 3399 3399 3399 3399 3399 3399 3399 3399 3399 3399 3399 3399 3399 3365 3365 3365 3365 3365 3365 3365 3365 3365 3365 3365 3365 3365 3365 3365 3365 1883 1883 1883 1883 1883 1894 1883 1883 1883 1883 1883 1883 1883 1883 1873 1873 1873 1873 1873 1863 1863 1863 1853 1853 1863 1863 1863 1863 1863 1863 1863 1863 1853 1853 1853 1843 1843 1843 1843 1843 1843 1843 1843 1843 1843 1833 1833 1833 1833 1833 1833 1833 1833 1833 1833 1833 1833 1833 1823 1823 1823 1823 1823 1823 1823 1823 1823 1813 1813 1813 1813 1813 1813 1813 1813 1813 1813 1813 1813 1813 1813 3208 3208 3208 3208 3208 3178 3178 3178 3178 3178 3178 3178 3178 3178 3149 3149 3120 3120 3120 3120 3120 3120 3120 3120 3120 3120 3120 3120 3120 3120 3120 3120 3120 3120 3120 3092 3092 3092 3092 3092 3092 3092 3092 3092 3092 3092 3092 3092 3092 3092 3092 3092 3092 3064 3064 3064 3064 3064 3064 3064 3064 3064 3092 3092 6259 6259 6259 6259 6375 6375 6375 6259 6259 6259 6259 6146 6146 6259 6259 6259 6259 6375 6375 6375 6497 6622 6622 6622 6622 6375 6375 6497 6375 6259 6259 6259 6259 6375 6259 6259 6375 6375 6375 6497 6497 6497 6497 6497 6497 6497 6375 6375 6375 6375 6375 6375 6375 6375 6375 6375 6375 6375 6497 6259 6259 6259 6259 6259 6259 6259 6259 6259 6259 6259 6259 6259 6146 6146 6146 6146 6146 6146 6146 6146 6259 6146 6146 6146 6146 6259 6146 6146 6146 6146 6146 6259 6259 6259 6259 6259 6259 6259 6259 6146 6146 6146 6259 6259 6259 6146 6146 6146 6259 6375 6375 6375 6375 6375 6497 6497 6497 6497 6375 6375 6259 6259 6259 6259 6146 6146 6146 6146 6146 6146 6146 6146 6146 6146 6375 6259 6259 6375 6375 6375 6375 6375 6375 6497 6497 6497 6497 6497 6497 6497 6497 6497 6497 6497 6497 6622 6622 6622 6622 6622 6753 6753 6753 6753 6753 6753 6753 0 0 0 0 0 0 0 0 0 0 0 0 0
0 0 0 0 0 0 0 0 0 0 0 0 0 0 0 0 0 0 0 0 0 0 0 0 0 0 0 0 0 0 0 0 0 8849 8849 8849 8626 8626 8626 8849 8849 8849 8849 8849 8849 8849 8849 8849 8849 8849 8849 8849 8849 8849 8849 9084 9084 9084 9084 9084 8849 8849 8849 8849 8849 5132 5056 5056 5056 5056 5056 5056 5056 5056 5132 5132 5132 5132 5132 5132 5132 5132 5132 5132 5132 5132 5132 5132 5132 5132 5210 5210 5210 5210 5291 5291 5291 5291 5291 5374 5374 5374 5374 5374 5374 5460 5460 5460 5460 5460 5460 7835 7835 7835 8019 8019 8019 8212 8212 8212 8212 8212 8212 8212 8413 8413 8413 8413 8212 8212 8212 8212 8212 8212 8413 8413 8413 8413 8413 8212 8212 8413 8413 8626 8626 8626 8626 8849 8626 8626 8626 5291 5291 5291 5132 5132 5132 5291 5210 5210 8413 8413 8413 5374 5291 5291 5374 5374 5374 5374 5374 5374 5374 5374 5374 5374 5374 5374 5291 5291 5291 5291 5374 5291 5291 5291 5291 5374 5374 5374 5374 5374 5460 3433 3433 3468 3503 3503 3539 3539 3539 3539 3503 3503 3503 3503 3468 3468 3503 3503 3503 3503 3503 3503 3503 3503 3503 3503 3503 3503 3503 3468 3468 3468 3468 3503 3503 3503 3503 3503 3503 3503 3503 3503 3503 3503 3503 3503 3503 3468 3468 3468 3468 3468 3468 3468 3468 3433 3433 3433 3433 3433 3433 3399 3399 3399 3399 3399 3433 3399 3399 3433 3399 3399 3399 3399 3399 3399 3399 3399 3399 3399 3399 3399 3399 3399 3399 3399 3399 3399 3399 3399 3399 3399 3399 3399 3399 3399 3399 3399 3399 3399 3399 3399 3399 3399 3399 3399 3399 3365 3365 3365 3365 3365 3365 3365 3365 3365 3365 3365 3365 3365 3365 3365 3365 1883 1883 1883 1883 1883 1894 1883 1883 1883 1883 1883 1883 1883 1883 1873 1873 1873 1873 1873 1863 1863 1863 1853 1853 1863 1863 1863 1863 1873 1863 1863 1863 1863 1853 1853 1843 1843 1843 1843 1843 1843 1843 1843 1843 1843 1833 1833 1833 1833 1833 1833 1833 1833 1833 1833 1833 1833 1833 1823 1823 1823 1823 1823 1823 1823 1823 1823 1823 1813 1813 1813 1813 1813 1813 1813 1813 1813 1813 1813 1813 1813 3208 3208 3208 3208 3208 3178 3178 3178 3178 3178 3178 3178 3178 3178 3178 3120 3120 3120 3120 3120 3120 3120 3120 3120 3120 3120 3120 3120 3120 3120 3120 3120 3120 3120 3120 3092 3092 3092 3092 3092 3092 3092 3092 3092 3092 3092 3092 3092 3092 3092 3092 3064 3064 3064 3064 3064 3064 3064 3064 3092 3092 3092 3092 6375 6375 6375 6375 6375 6497 6497 6497 6259 6259 6259 6259 6259 6259 6259 6259 6375 6375 6622 6622 6622 6753 6753 6753 6753 6753 6622 6622 6497 6497 6375 6375 6375 6375 6375 6375 6375 6375 6497 6497 6497 6497 6497 6497 6375 6375 6375 6375 6375 6375 6375 6375 6375 6375 6259 6259 6259 6259 6259 6259 6259 6146 6146 6259 6259 6259 6259 6259 6259 6259 6259 6259 6259 6146 6146 6146 6146 6146 6146 6146 6146 6259 6259 6146 6146 6259 6259 6259 6259 6259 6259 6259 6259 6375 6259 6259 6259 6259 6259 6375 6259 6259 6259 6259 6259 6259 6259 6259 6259 6259 6375 6375 6375 6375 6375 6497 6497 6497 6497 6497 6497 6375 6375 6375 6375 6259 6259 6259 6146 6146 6146 6146 6146 6146 6146 6259 6259 6259 6375 6497 6497 6375 6375 6375 6497 6497 6497 6497 6497 6497 6497 6497 6497 6497 6497 6497 6622 6622 6622 6622 6622 6622 6753 6753 6753 6753 6753 6753 0 0 0 0 0 0 0 0 0 0 0 0 0
0 0 0 0 0 0 0 0 0 0 0 0 0 0 0 0 0 0 0 0 0 0 0 0 0 0 0 0 0 0 0 0 0 8849 8849 8849 8849 8849 8849 8849 8849 8849 8849 8849 8849 8849 9084 8849 8849 8849 8849 8849 8849 8849 8849 9084 9084 9084 9084 9084 8849 8849 8849 8849 8849 5132 5056 5056 5056 5056 5056 5056 8626 8413 8413 8413 5132 5132 5132 5132 5132 5132 5132 5132 5132 5132 5132 5132 5132 5132 5210 5210 5210 5210 5210 5210 5291 5291 5291 5374 5374 5374 5374 5374 5374 5374 5374 5460 5460 5460 5460 5460 7660 7660 7835 7835 8019 8212 8212 8212 8212 8212 8212 8212 8413 8413 8413 8413 8212 8212 8212 8212 8212 8212 8212 8413 8413 8413 8212 8212 8212 8212 5548 5548 5548 5460 5460 5640 5640 5374 5374 5291 5291 5291 5210 5210 5210 5291 5210 5210 5291 5291 5291 5291 5291 5291 5374 5374 5374 5374 5374 5374 5374 5460 5374 5374 5374 5374 5291 5291 5291 5291 5291 5291 5291 5291 5291 5374 5374 5374 8626 8626 8626 3433 3433 3468 3503 3503 3539 3539 3539 3539 3503 3503 3503 3503 3468 3468 3503 3503 3503 3503 3503 3503 3503 3503 3503 3503 3503 3503 3468 3468 3468 3468 3468 3503 3503 3503 3503 3503 3503 3503 3503 3503 3503 3503 3503 3503 3503 3468 3468 3468 3468 3468 3468 3433 3433 3433 3433 3433 3433 3433 3433 3433 3399 3399 3433 3433 3433 3399 3399 3399 3399 3399 3399 3399 3399 3399 3399 3399 3399 3399 3433 3399 3399 3399 3399 3399 3399 3399 3399 3399 3399 3399 3399 3399 3399 3399 3399 3399 3399 3399 3399 3399 3399 3399 3399 3399 3365 3365 3365 3365 3365 3365 3365 3365 3365 3365 3365 3365 3365 3365 3365 3365 3365 3365 1894 1894 1894 1894 1894 1883 1883 1883 1883 1883 1883 1883 1883 1873 1873 1873 1873 1873 1863 1863 1863 1863 1863 1863 1863 1863 1863 1873 1863 1863 1863 1863 1853 1853 1843 1843 1843 1843 1843 1843 1843 1843 1843 1843 1833 1833 1833 1833 1833 1833 1833 1833 1833 1833 1833 1833 1833 1823 1823 1823 1823 1823 1823 1823 1813 1813 1823 1823 1813 1813 1813 1813 1813 1813 1813 1813 1813 1813 1813 1813 3208 3208 3178 3178 3208 3178 3178 3178 3178 3178 3178 3178 3178 3178 3178 3120 3120 3120 3120 3120 3120 3120 3120 3120 3120 3120 3120 3120 3120 3120 3120 3120 3120 3120 3092 3092 3092 3092 3092 3092 3092 3092 3092 3092 3092 3092 3092 3092 3092 3092 3092 3064 3064 3064 3064 3064 3064 3092 3092 3092 3092 3092 6375 6375 6375 6375 6497 6497 6622 6753 6622 6622 6375 6375 6375 6375 6259 6259 6375 6497 6753 6753 6753 6753 6753 6753 6753 6889 6889 6622 6622 6497 6497 6375 6375 6375 6375 6375 6375 6375 6375 6375 6375 6375 6497 6497 6497 6375 6259 6259 6259 6259 6375 6375 6375 6375 6375 6259 6259 6259 6259 6259 6259 6259 6146 6146 6259 6259 6259 6259 6259 6375 6375 6375 6375 6259 6259 6146 6146 6146 6146 6146 6146 6146 6259 6259 6146 6146 6259 6259 6259 6259 6259 6259 6259 6375 6375 6375 6375 6375 6375 6375 6375 6375 6375 6375 6375 6375 6375 6259 6259 6259 6375 6375 6375 6375 6375 6375 6497 6497 6497 6497 6497 6497 6375 6375 6375 6375 6259 6259 6259 6259 6259 6259 6259 6259 6259 6375 6259 6259 6375 6375 6497 6497 6497 6497 6497 6497 6497 6497 6497 6497 6497 6497 6497 6497 6497 6497 6497 6497 6497 6622 6622 6622 6622 6753 6753 6753 6753 6753 6889 0 0 0 0 0 0 0 0 0 0 0 0 0
0 0 0 0 0 0 0 0 0 0 0 0 0 0 0 0 0 0 0 0 0 0 0 0 0 0 0 0 0 0 0 0 0 9084 9084 8849 8849 8849 8849 8849 8849 8849 8849 8849 8849 8849 9084 8849 8849 8849 8849 9084 9084 9084 9084 9084 9084 9084 9084 9084 9084 8849 8849 8849 8849 8626 8626 8849 8849 8626 8626 8626 8626 8413 8413 8413 8413 5132 5132 5132 5132 5132 5132 5132 5132 5132 5132 5132 5210 5210 5210 5210 5210 5210 5210 5210 5291 5291 5291 5374 5374 5374 5374 5374 5374 5374 5374 5460 5460 5460 5460 5460 5548 5548 5548 5460 5460 5460 5548 8212 8212 8212 8413 8413 8413 8413 8413 8413 8212 8212 8212 8212 8212 8212 5460 8413 8413 8413 8212 8212 5374 5374 5460 5460 5460 5460 5460 5374 5374 5374 5374 5374 5291 5291 5210 5210 5291 5291 5210 5210 5291 5291 5291 5291 5291 5291 5374 5374 5374 5374 5374 5374 5460 5460 5460 5460 5374 5374 5291 5210 5132 5056 5056 5291 5291 5291 8413 8413 8626 8626 8626 8626 8626 3433 3433 3468 3503 3503 3539 3539 3539 3539 3539 3503 3503 3503 3468 3468 3503 3503 3503 3503 3503 3503 3503 3503 3503 3503 3503 3503 3468 3468 3468 3468 3503 3503 3503 3503 3539 3539 3503 3503 3503 3503 3503 3503 3503 3503 3503 3468 3468 3468 3468 3433 3433 3433 3433 3433 3433 3433 3433 3433 3433 3433 3399 3399 3433 3433 3433 3399 3399 3399 3433 3433 3399 3399 3399 3399 3399 3399 3399 3399 3433 3399 3399 3399 3399 3399 3399 3399 3399 3399 3399 3399 3399 3399 3399 3399 3399 3399 3399 3399 3399 3399 3399 3399 3399 3399 3365 3365 3365 3365 3365 3365 3365 3365 3365 3365 3365 3365 3365 3365 3365 3365 3365 3365 1894 1894 1894 1894 1894 1883 1883 1883 1883 1883 1883 1883 1883 1873 1873 1873 1873 1873 1873 1873 1863 1863 1863 1863 1863 1863 1863 1863 1863 1863 1853 1853 1853 1853 1843 1843 1843 1843 1843 1843 1843 1843 1843 1843 1843 1833 1833 1833 1833 1833 1833 1833 1833 1833 1833 1833 1833 1833 1823 1823 1823 1823 1823 1823 1813 1813 1823 1813 1813 1813 1813 1813 1813 1813 1813 1813 1813 1813 1813 1813 1813 3208 3178 3178 3208 3178 3178 3178 3178 3178 3178 3178 3178 3178 3178 3149 3149 3120 3120 3149 3149 3120 3120 3120 3149 3120 3120 3120 3120 3092 3092 3092 3120 3064 3064 3092 3092 3092 3120 3092 3092 3092 3092 3092 3092 3092 3092 3092 3092 3092 3092 3092 3092 3092 3092 3092 3092 3092 3092 3092 3092 6622 6497 6497 6497 6497 6497 6497 6753 6753 6753 6753 6497 6497 6497 6497 6497 6497 6622 6622 6753 6753 6753 6753 6753 6753 6753 6753 6753 6753 6622 6622 6622 6375 6375 6375 6375 6375 6375 6259 6259 6375 6375 6375 6497 6497 6497 6375 6259 6259 6259 6259 6375 6375 6375 6497 6497 6375 6375 6375 6375 6375 6259 6259 6259 6259 6259 6259 6259 6259 6259 6375 6375 6375 6375 6259 6259 6259 6259 6259 6259 6259 6259 6259 6259 6259 6375 6375 6497 6497 6497 6497 6497 6497 6497 6497 6497 6497 6497 6497 6497 6622 6622 6622 6622 6622 6622 6497 6497 6497 6497 6497 6497 6497 6497 6497 6497 6497 6497 6497 6497 6497 6497 6497 6375 6375 6375 6375 6259 6259 6259 6259 6259 6259 6259 6259 6259 6375 6375 6375 6375 6375 6497 6497 6497 6497 6497 6497 6375 6375 6375 6497 6497 6497 6497 6497 6497 6375 6375 6497 6497 6497 6497 6497 6622 6753 6753 6753 6889 6889 6889 0 0 0 0 0 0 0 0 0 0 0 0 0
0 0 0 0 0 0 0 0 0 0 0 0 0 0 0 0 0 0 0 0 0 0 0 0 0 0 0 0 0 0 0 0 0 0 9084 9084 8849 8849 8849 8849 8849 8849 8849 8849 8849 8849 9084 8849 8849 9084 9084 9084 9084 9084 9084 9084 9084 9084 8849 8849 9084 8849 8849 8849 8849 8626 8626 8849 8849 8626 8626 8626 8626 8413 8413 8413 8413 8626 8626 5132 5132 5132 5132 5132 5132 5132 5132 5210 5210 5210 5210 5210 5210 5210 5291 5291 5291 5291 5374 5374 5374 5374 5374 5374 5374 5374 5374 5460 5460 5460 5460 5460 5460 5460 5460 5460 5460 5460 5460 5374 5291 5291 8413 8413 8413 8413 8413 8413 8413 8413 5460 5460 5460 5460 5460 5374 5374 5374 5374 5374 5374 5374 5374 5460 5460 5460 5460 5374 5374 5374 5374 5374 5291 5291 5210 5210 5291 5291 5210 5210 5291 5291 5291 5291 5291 5291 5291 5291 5374 5374 5374 5374 5374 5374 5374 5374 5374 5374 5210 5210 5132 5056 5056 8413 8413 8413 8413 8413 8626 8626 8626 8626 8626 3433 3433 3468 3468 3503 3503 3539 3539 3539 3539 3539 3503 3503 3503 3503 3503 3503 3468 3468 3503 3503 3503 3503 3503 3503 3503 3503 3503 3503 3503 3503 3503 3539 3539 3539 3539 3539 3503 3503 3503 3503 3503 3503 3503 3503 3503 3468 3468 3468 3468 3433 3433 3468 3468 3468 3433 3433 3433 3433 3433 3433 3433 3433 3433 3433 3433 3433 3433 3433 3433 3433 3399 3399 3399 3399 3433 3433 3399 3399 3433 3399 3399 3399 3399 3399 3399 3399 3399 3399 3399 3399 3399 3399 3399 3399 3399 3399 3399 3399 3399 3399 3399 3399 3399 3399 3399 3365 3365 3365 3365 3365 3365 3365 3365 3365 3365 3365 3365 3365 3365 3365 3365 3365 1894 1894 1894 1894 1894 1883 1883 1883 1883 1883 1883 1883 1883 1873 1873 1873 1873 1873 1873 1873 1863 1863 1863 1863 1863 1863 1863 1863 1863 1863 1853 1853 1853 1853 1843 1843 1843 1843 1843 1843 1843 1843 1843 1843 1843 1843 1843 1833 1833 1833 1833 1833 1833 1833 1833 1833 1833 1833 1823 1823 1823 1823 1823 1823 1813 1813 1813 1813 1813 1813 1813 1813 1813 1813 1813 1813 1813 1813 1813 1813 1813 3208 3208 3208 3208 3208 3208 3208 3208 3208 3208 3178 3178 3178 3178 3149 3149 3149 3149 3149 3149 3149 3149 3149 3149 3149 3149 3149 3149 3092 3092 3092 3120 3064 3064 3064 3064 3092 3120 3120 3120 3149 7030 7030 7030 7030 7030 7030 7030 7030 7178 7178 7332 7332 7332 7178 7178 7030 6753 6753 6622 6622 6622 6497 6497 6622 6622 6622 6753 6753 6753 6753 6889 6889 6753 6622 6622 6753 6753 6753 6753 6753 6753 6753 6753 6753 6753 6753 6753 6753 6622 6622 6622 6622 6622 6622 6497 6497 6375 6259 6259 6375 6497 6497 6497 6497 6497 6497 6375 6375 6375 6375 6375 6497 6497 6497 6497 6497 6497 6497 6497 6622 6622 6622 6497 6497 6497 6497 6375 6375 6375 6497 6497 6497 6497 6497 6375 6375 6375 6375 6375 6375 6375 6375 6375 6375 6375 6375 6497 6497 6497 6497 6622 6497 6497 6622 6622 6622 6622 6622 6622 6622 6622 6622 6622 6622 6622 6497 6497 6497 6497 6497 6497 6497 6497 6497 6497 6497 6497 6497 6497 6497 6497 6497 6375 6375 6375 6375 6259 6259 6259 6259 6259 6259 6259 6259 6259 6259 6375 6375 6375 6375 6497 6497 6497 6497 6497 6375 6375 6375 6375 6497 6497 6497 6497 6497 6497 6375 6375 6497 6497 6497 6497 6497 6622 6753 6753 6753 6753 6889 6889 0 0 0 0 0 0 0 0 0 0 0 0 0
0 0 0 0 0 0 0 0 0 0 0 0 0 0 0 0 0 0 0 0 0 0 0 0 0 0 0 0 0 0 0 0 0 0 0 9084 9084 8849 8849 8849 8849 8849 8849 8849 8849 8849 9084 8849 8849 9084 9084 9084 9084 9084 9084 9084 9084 9084 8849 8849 9084 8849 8849 8849 8849 8849 8849 8849 8849 8849 8626 8626 8626 8413 8413 8413 8413 8626 8626 8849 5374 5132 5132 5132 5132 5132 5132 5210 5291 5291 5291 5291 5291 5291 5291 5291 5291 5374 5374 5374 5374 5374 5374 5374 5374 5460 5460 5460 5460 5460 5460 5460 5460 5460 5460 5460 5460 5460 5460 5374 5291 5291 5374 5374 5374 5374 5374 5460 5460 5460 5460 5460 5460 5460 5374 5374 5374 5374 5374 5374 5374 5374 5374 5460 5374 5374 5374 5291 5291 5374 5374 5374 5291 5291 5210 5210 5291 5291 5291 5291 5291 5291 5291 5291 5291 5291 5291 5291 5374 5374 5374 5374 5374 5374 5374 5374 5374 5374 5210 5210 8626 8413 8413 8413 8413 8413 8413 8626 8626 8626 8626 8626 8626 8626 3468 3468 3468 3503 3503 3503 3503 3539 3539 3539 3503 3503 3503 3503 3503 3503 3468 3468 3503 3503 3503 3503 3503 3503 3503 3503 3503 3503 3503 3503 3503 3539 3539 3503 3503 3503 3503 3503 3503 3503 3503 3503 3503 3503 3503 3468 3468 3468 3468 3468 3468 3468 3468 3468 3433 3433 3433 3433 3433 3433 3433 3433 3433 3433 3433 3433 3433 3433 3433 3433 3433 3433 3399 3399 3433 3433 3399 3399 3433 3399 3399 3399 3399 3399 3399 3399 3399 3399 3399 3399 3399 3399 3399 3399 3399 3399 3399 3399 3399 3399 3399 3399 3399 3399 3399 3399 3399 3399 3399 3399 3399 3365 3365 3365 3365 3365 3365 3365 3365 3365 3365 3365 1894 1894 1894 1894 1894 1883 1883 1883 1883 1883 1883 1883 1873 1873 1873 1873 1873 1873 1873 1863 1863 1863 1863 1863 1863 1863 1863 1863 1863 1853 1853 1853 1853 1853 1843 1843 1843 1843 1843 1843 1843 1843 1843 1843 1843 1843 1843 1843 1843 1843 1833 1833 1833 1833 1833 1833 1833 1833 1823 1823 1823 1823 1823 1823 1813 1813 1813 1813 1813 1813 1813 1813 1813 1813 1813 1813 1813 1813 1813 1813 1813 3208 3208 3208 3208 3208 3208 3208 3208 3208 3208 3178 3178 3178 3178 3149 3149 3149 3149 3149 3149 3149 3149 3149 3149 3149 3149 3149 3149 3092 3092 3149 3120 3064 3064 3064 3064 3092 3120 3120 3120 3149 7030 6889 6753 6753 6889 7030 7030 7030 7030 7178 7178 7178 7178 7178 7178 6889 6753 6753 6622 6622 6622 6622 6622 6622 6622 6622 6753 6753 6753 6889 6889 6889 6753 6622 6622 6753 6753 6753 6753 6753 6622 6622 6622 6622 6622 6753 6753 6622 6622 6622 6622 6622 6622 6622 6622 6622 6497 6497 6497 6497 6497 6497 6622 6497 6497 6497 6497 6497 6497 6497 6497 6497 6497 6497 6497 6497 6497 6497 6622 6622 6622 6622 6622 6622 6497 6497 6497 6497 6497 6497 6497 6497 6497 6497 6497 6497 6497 6497 6497 6497 6497 6497 6497 6497 6622 6622 6622 6622 6622 6622 6622 6622 6622 6622 6622 6753 6753 6622 6622 6753 6622 6622 6622 6622 6622 6497 6497 6497 6497 6497 6497 6497 6375 6375 6497 6497 6497 6497 6497 6497 6497 6497 6375 6375 6375 6375 6375 6259 6259 6259 6259 6259 6259 6259 6259 6259 6375 6375 6375 6375 6375 6375 6497 6497 6497 6375 6375 6375 6375 6497 6497 6497 6497 6497 6497 6375 6375 6497 6497 6497 6497 6497 6497 6622 6622 6622 6753 6753 6889 0 0 0 0 0 0 0 0 0 0 0 0 0
0 0 0 0 0 0 0 0 0 0 0 0 0 0 0 0 0 0 0 0 0 0 0 0 0 0 0 0 0 0 0 0 0 0 0 0 0 0 8849 8849 8849 8849 8849 8849 8849 8849 8849 8849 8849 9084 9084 9084 9084 9084 9084 9084 9084 9084 9084 9084 9084 8849 8849 9084 9084 8849 8849 8849 8849 8849 8626 8626 8626 8626 8626 8626 8626 8626 5374 5374 5374 5374 5374 5210 5210 5210 5210 5291 5374 5374 5374 5374 5374 5374 5374 5374 5374 5374 5374 5374 5374 5374 5374 5374 5374 5374 5460 5460 5460 5460 5460 5460 5460 5460 5460 5460 5460 5460 5460 5374 5291 5291 5374 5374 5374 5374 5374 5460 5460 5460 5460 5460 5460 5460 5374 5374 5374 5374 5374 5460 5460 5374 5374 5374 5374 5374 5374 5291 5291 5291 5374 5291 5210 5210 5291 5291 5291 5291 5210 5210 5291 5291 5291 5291 5291 5291 5291 5291 5291 5374 5374 5374 5374 5374 5374 5374 5374 5374 8413 8626 8626 8413 8413 8626 8626 8626 8626 8626 8626 8626 8626 8626 8626 8626 3468 3468 3503 3503 3503 3503 3503 3503 3503 3503 3503 3503 3503 3503 3503 3503 3503 3503 3503 3503 3503 3503 3503 3503 3503 3503 3503 3503 3503 3503 3503 3503 3503 3503 3503 3503 3503 3503 3503 3503 3503 3503 3503 3503 3503 3503 3468 3468 3468 3468 3468 3468 3468 3468 3433 3433 3433 3433 3433 3433 3433 3433 3433 3433 3433 3399 3399 3433 3433 3433 3433 3433 3433 3433 3433 3433 3433 3433 3433 3433 3399 3399 3399 3399 3399 3399 3399 3399 3399 3399 3399 3399 3399 3399 3399 3399 3399 3399 3399 3399 3399 3399 3399 3399 3399 3399 3399 3399 3399 3399 3399 3399 3399 3365 3365 3365 3365 3365 3365 3365 3365 1894 1894 1894 1894 1894 1894 1883 1883 1883 1883 1883 1883 1883 1873 1873 1873 1873 1873 1873 1863 1863 1863 1863 1863 1863 1863 1863 1863 1863 1863 1853 1853 1853 1853 1853 1843 1843 1843 1843 1843 1843 1843 1843 1843 1843 1843 1843 1843 1843 1843 1843 1833 1833 1833 1833 1833 1833 1833 1833 1823 1823 1823 1823 1823 1823 1813 1813 1813 1823 1813 1813 1813 1813 1813 1813 1813 1813 1813 1813 1813 1813 1823 3208 3208 3208 3208 3208 3208 3208 3208 3208 3208 3178 3178 3178 3178 3120 3120 3149 3149 3149 3149 3149 3149 3178 3178 3178 3178 3064 3064 3178 7332 7332 7332 7178 7178 7178 7178 7178 7030 7030 7030 7030 6889 6889 6753 6753 6889 6889 6889 7030 7030 7178 7178 7178 7178 7178 7030 6889 6753 6753 6753 6753 6753 6753 6753 6753 6753 6753 6753 6753 6753 6753 6753 6753 6753 6622 6622 6622 6622 6622 6622 6622 6622 6622 6622 6622 6622 6753 6753 6622 6622 6622 6622 6753 6753 6753 6753 6753 6753 6622 6622 6622 6622 6622 6622 6622 6622 6622 6497 6497 6622 6622 6622 6622 6622 6622 6622 6622 6622 6622 6622 6622 6622 6753 6622 6622 6622 6497 6497 6497 6622 6622 6622 6622 6622 6622 6622 6497 6497 6497 6497 6497 6497 6622 6622 6622 6622 6622 6622 6622 6622 6622 6622 6622 6622 6622 6622 6753 6753 6622 6622 6622 6622 6622 6622 6622 6497 6497 6497 6497 6497 6497 6497 6497 6375 6375 6497 6497 6497 6497 6497 6497 6497 6497 6375 6375 6375 6375 6375 6375 6259 6259 6259 6259 6259 6259 6259 6259 6375 6375 6375 6375 6375 6375 6497 6497 6497 6375 6375 6497 6497 6497 6497 6497 6497 6497 6497 6375 6375 6375 6375 6375 6497 6497 6497 6622 6622 6622 6753 6753 6753 0 0 0 0 0 0 0 0 0 0 0 0 0
0 0 0 0 0 0 0 0 0 0 0 0 0 0 0 0 0 0 0 0 0 0 0 0 0 0 0 0 0 0 0 0 0 0 0 0 0 0 8849 8849 8849 8849 8849 8849 8849 8849 8849 8849 8849 8849 9084 9084 9084 9084 9084 9084 9084 9084 9084 9084 9084 9084 9084 8849 8849 8849 8849 8849 8849 8849 8849 8849 8626 8626 8626 8626 8849 8849 5374 5374 5374 5374 5374 5374 5374 5374 5374 5460 5460 5460 5460 5374 5374 5374 5374 5374 5374 5374 5374 5374 5374 5374 5374 5374 5374 5374 5374 5460 5460 5460 5460 5460 5460 5460 5460 5460 5460 5460 5460 5374 5374 5374 5374 5374 5374 5460 5460 5460 5460 5460 5460 5374 5374 5374 5374 5374 5374 5374 5374 5460 5460 5374 5374 5374 5374 5374 5291 5291 5291 5291 5291 5291 5132 5132 5210 5210 5291 5291 5210 5210 5210 5210 5291 5210 5210 5291 5291 5291 5291 5291 5374 5374 5374 5374 5374 5374 5374 5374 8413 8626 8626 8626 8626 8626 8626 8626 8626 8626 8413 8413 8413 8413 8626 3468 3468 3503 3503 3503 3503 3503 3503 3503 3503 3503 3503 3503 3503 3503 3503 3503 3503 3503 3503 3503 3503 3503 3503 3503 3503 3503 3503 3503 3468 3468 3503 3503 3503 3503 3503 3503 3503 3503 3503 3503 3503 3503 3503 3503 3503 3503 3468 3468 3468 3468 3468 3468 3468 3468 3433 3433 3433 3433 3433 3433 3433 3433 3433 3433 3433 3399 3399 3433 3433 3433 3433 3433 3433 3433 3433 3433 3433 3433 3433 3399 3399 3399 3399 3399 3399 3399 3399 3399 3399 3399 3399 3399 3399 3399 3399 3399 3399 3399 3399 3399 3399 3399 3399 3399 3399 3399 3399 3399 3365 3365 3399 3399 3399 3365 3365 3365 3365 3365 3365 3365 3365 3365 1894 1894 1894 1894 1894 1883 1883 1883 1883 1883 1883 1883 1873 1873 1873 1873 1873 1863 1863 1863 1863 1863 1863 1863 1863 1863 1863 1863 1863 1853 1853 1853 1853 1853 1843 1843 1843 1843 1843 1843 1843 1843 1843 1843 1843 1843 1843 1843 1843 1833 1833 1833 1833 1833 1833 1833 1833 1833 1833 1823 1823 1823 1823 1823 1813 1813 1813 1813 1813 1813 1813 1813 1813 1813 1813 1813 1813 1804 1804 1813 1823 3208 3208 3208 3208 3208 3208 3208 3208 3208 3208 3208 3208 3120 3120 3092 3092 3149 3149 3149 3149 3149 3178 3178 3178 3178 3178 3064 3064 7178 7178 7178 7178 7178 7178 7178 7178 7178 7030 7030 7030 7030 6889 6889 6753 6753 6889 6889 6889 6889 7030 7178 7178 7178 7030 7030 6889 6753 6753 6753 6753 6753 6753 6753 6753 6753 6753 6753 6753 6753 6753 6753 6753 6753 6753 6622 6622 6622 6622 6622 6622 6622 6622 6622 6622 6622 6622 6622 6622 6622 6622 6622 6622 6753 6753 6753 6753 6889 6889 6753 6622 6622 6622 6622 6622 6622 6622 6622 6622 6622 6622 6622 6622 6622 6622 6753 6753 6753 6753 6753 6753 6753 6753 6753 6622 6622 6622 6622 6622 6622 6622 6622 6622 6622 6622 6622 6622 6622 6622 6622 6622 6622 6622 6622 6622 6622 6622 6622 6622 6622 6622 6622 6622 6622 6622 6622 6622 6622 6753 6622 6622 6622 6622 6622 6497 6497 6497 6497 6497 6497 6497 6497 6497 6497 6497 6497 6497 6497 6497 6497 6497 6497 6497 6497 6497 6375 6375 6375 6375 6375 6375 6259 6259 6259 6259 6259 6259 6259 6375 6375 6375 6375 6375 6375 6497 6497 6497 6375 6375 6497 6497 6497 6497 6497 6497 6497 6497 6375 6375 6375 6375 6375 6497 6497 6497 6497 6497 6622 6622 6753 6753 0 0 0 0 0 0 0 0 0 0 0 0 0
0 0 0 0 0 0 0 0 0 0 0 0 0 0 0 0 0 0 0 0 0 0 0 0 0 0 0 0 0 0 0 0 0 0 0 0 0 0 0 0 0 0 8849 8849 8849 8849 8849 8849 8849 8849 9084 9084 9084 9084 9084 9084 9084 9084 9084 9084 9084 9084 9084 8849 8849 8849 8849 8849 8849 8849 8849 8849 8849 8849 8626 8626 5460 5460 5460 5460 5374 5374 5374 5460 5460 5460 5548 5548 5548 5548 5460 5460 5460 5460 5374 5374 5374 5374 5374 5374 5374 5374 5374 5374 5374 5374 5374 5460 5460 5460 5460 5460 5460 5460 5460 5460 5460 5460 5460 5374 5374 5374 5374 5374 5374 5460 5460 5460 5460 5460 5460 5374 5374 5374 5374 5374 5374 5374 5374 5374 5374 5374 5291 5291 5291 5374 5210 5210 5210 5291 5291 5291 5132 5132 5210 5210 5210 5210 5132 5132 5210 5210 5210 5210 5210 5210 5210 5291 5291 5291 5291 5291 5374 5374 5374 5374 5374 5374 5374 8413 8626 8626 8626 8626 8626 8626 8626 8626 8413 8413 8413 8413 8413 3468 3468 3503 3503 3503 3503 3503 3539 3539 3539 3503 3503 3503 3503 3503 3503 3503 3503 3503 3503 3503 3503 3503 3503 3503 3503 3503 3503 3503 3468 3468 3503 3503 3503 3503 3503 3503 3503 3503 3503 3503 3503 3503 3503 3503 3503 3468 3468 3468 3468 3468 3468 3468 3468 3468 3468 3468 3468 3468 3433 3433 3433 3433 3399 3399 3399 3399 3399 3399 3433 3433 3433 3433 3433 3433 3433 3433 3433 3433 3433 3399 3399 3399 3399 3399 3399 3399 3399 3399 3399 3399 3399 3399 3399 3399 3399 3399 3399 3399 3399 3399 3399 3399 3399 3399 3399 3399 3399 3399 3365 3365 3399 3399 3399 3365 3365 3365 3365 3365 3365 3365 3365 3365 1894 1894 1894 1894 1894 1894 1894 1894 1883 1883 1883 1883 1873 1873 1873 1873 1863 1863 1863 1863 1863 1863 1863 1863 1863 1863 1853 1853 1853 1853 1853 1853 1853 1853 1843 1843 1843 1843 1843 1843 1843 1843 1843 1843 1843 1843 1843 1843 1833 1833 1833 1833 1833 1833 1833 1833 1833 1833 1833 1833 1823 1823 1823 1823 1813 1813 1813 1813 1813 1813 1813 1813 1813 1804 1804 1813 1813 1804 1804 1813 3208 3208 3178 3178 3208 3208 3238 3238 3238 3238 3238 3238 3208 3120 3120 3092 3092 3092 4522 4522 6889 6889 6889 6889 6889 7030 7030 7030 7030 7030 7030 7030 7030 7030 7030 7030 7178 7178 7030 7030 7030 7030 6889 6889 6889 6889 6889 6889 6889 6889 7030 7178 7178 7178 6889 6889 6889 6753 6753 6753 6753 6753 6753 6622 6622 6753 6753 6753 6753 6753 6753 6753 6753 6753 6753 6753 6753 6622 6622 6622 6622 6622 6622 6622 6622 6622 6622 6622 6622 6622 6622 6753 6753 6753 6889 6889 6889 6889 6889 6753 6753 6753 6753 6889 6753 6753 6753 6753 6622 6622 6622 6622 6622 6753 6753 6753 6753 6753 6753 6753 6889 6753 6753 6753 6622 6622 6622 6622 6622 6622 6622 6622 6753 6753 6753 6753 6753 6622 6622 6622 6622 6622 6622 6622 6622 6622 6622 6622 6622 6622 6622 6622 6622 6622 6622 6622 6622 6622 6753 6622 6622 6622 6622 6622 6497 6497 6497 6497 6497 6497 6497 6497 6497 6497 6497 6497 6497 6497 6497 6497 6497 6497 6497 6497 6497 6497 6497 6375 6375 6375 6375 6259 6259 6259 6259 6259 6375 6375 6375 6375 6375 6375 6375 6375 6497 6497 6497 6375 6375 6497 6497 6497 6497 6497 6497 6497 6497 6375 6375 6497 6375 6375 6497 6497 6497 6497 6497 6622 6622 6622 6753 0 0 0 0 0 0 0 0 0 0 0 0 0
0 0 0 0 0 0 0 0 0 0 0 0 0 0 0 0 0 0 0 0 0 0 0 0 0 0 0 0 0 0 0 0 0 0 0 0 0 0 0 0 0 0 0 8849 8849 8849 8849 8849 8849 9084 9084 9084 9084 9084 9084 9084 9084 9084 9084 9084 9084 9084 9084 8849 8849 8849 5734 5734 5734 5832 5734 5734 5734 5734 5734 5548 5460 5460 5460 5460 5460 5460 5460 5460 5548 5548 5548 5548 5640 5640 5548 5548 5548 5460 5460 5460 5374 5374 5460 5374 5374 5374 5374 5374 5374 5460 5460 5460 5460 5460 5460 5374 5374 5460 5460 5460 5460 5460 5460 5460 5374 5374 5374 5460 5460 5460 5460 5460 5460 5460 5374 5374 5374 5374 5291 5291 5291 5291 5374 5374 5374 5291 5291 5291 5291 5291 5210 5210 5210 5291 5291 5291 5132 5132 5210 5210 5210 5210 5132 5132 5210 5210 5210 5132 5132 5210 5210 5291 5291 5291 5291 5291 5374 5374 5374 5374 5374 5374 5374 5374 8626 8626 8626 8626 8626 8626 8626 8626 8413 8413 8413 8413 8413 3503 3503 3503 3503 3539 3539 3539 3539 3539 3539 3539 3503 3503 3503 3503 3503 3503 3503 3503 3503 3503 3503 3503 3503 3503 3503 3503 3503 3503 3503 3503 3503 3503 3503 3503 3503 3503 3503 3503 3503 3503 3503 3503 3503 3503 3503 3468 3468 3468 3468 3468 3468 3468 3468 3468 3468 3468 3468 3468 3433 3433 3433 3433 3399 3399 3399 3399 3399 3399 3433 3433 3433 3433 3433 3433 3433 3433 3433 3433 3433 3399 3399 3399 3399 3399 3399 3399 3399 3399 3399 3399 3399 3399 3399 3399 3399 3399 3399 3399 3399 3399 3399 3399 3399 3399 3399 3399 3399 3399 3399 3399 3399 3399 3365 3365 3365 3365 3365 3365 3365 3365 3365 3365 1894 1894 1894 1894 1894 1894 1894 1894 1883 1883 1883 1883 1873 1863 1863 1863 1863 1863 1863 1863 1863 1863 1863 1863 1863 1863 1853 1853 1853 1853 1853 1853 1853 1853 1843 1843 1843 1843 1843 1843 1843 1843 1843 1843 1843 1833 1833 1833 1833 1833 1833 1833 1833 1833 1833 1833 1833 1833 1833 1833 1823 1823 1823 1823 1813 1813 1813 1813 1813 1813 1813 1813 1813 1804 1804 1813 1804 1804 1804 1813 1813 3208 3178 3178 3208 3208 3238 3269 3269 3269 3300 3300 4522 4522 4463 4463 4463 4522 4522 4463 0 6889 6889 6889 6889 6889 6889 6889 6889 6889 6889 6889 6889 6889 6889 7030 7030 7030 7030 7030 7030 7030 6889 6889 6889 6889 6889 6889 6889 6889 7030 7030 7030 7030 6753 6753 6753 6753 6753 6753 6753 6753 6753 6622 6622 6753 6753 6753 6753 6753 6753 6753 6753 6753 6753 6753 6753 6753 6622 6622 6622 6622 6622 6622 6622 6622 6622 6753 6753 6753 6753 6753 6753 6753 6753 6753 6889 6889 6889 6889 6889 6889 6889 6889 6889 6889 6889 6889 6753 6753 6622 6622 6753 6753 6753 6753 6753 6753 6753 6753 6753 6753 6753 6753 6622 6622 6622 6622 6622 6622 6622 6622 6753 6753 6622 6622 6622 6753 6753 6622 6622 6622 6622 6622 6622 6622 6622 6622 6622 6622 6622 6622 6622 6622 6622 6622 6622 6753 6622 6622 6622 6622 6622 6622 6497 6497 6497 6497 6497 6497 6497 6497 6497 6497 6497 6497 6497 6497 6497 6497 6497 6497 6497 6497 6497 6497 6497 6375 6375 6375 6375 6259 6259 6259 6259 6375 6375 6375 6375 6375 6375 6375 6375 6375 6497 6497 6497 6497 6497 6497 6497 6497 6497 6497 6497 6497 6497 6375 6375 6375 6375 6375 6375 6497 6497 6497 6497 6622 6622 6622 6753 0 0 0 0 0 0 0 0 0 0 0 0 0
0 0 0 0 0 0 0 0 0 0 0 0 0 0 0 0 0 0 0 0 0 0 0 0 0 0 0 0 0 0 0 0 0 0 0 0 0 0 0 0 0 0 0 8849 8626 8626 8626 8849 8849 9084 5548 5548 5640 5734 5548 5548 9084 9084 9084 9084 9084 9084 9084 9084 5734 5734 5734 5734 5734 5734 5734 5734 5734 5734 5640 5548 5548 5548 5548 5548 5460 5460 5548 5548 5640 5548 5548 5640 5640 5640 5548 5548 5548 5548 5548 5548 5460 5460 5460 5460 5460 5460 5460 5460 5460 5374 5374 5460 5460 5460 5460 5374 5374 5460 5460 5460 5460 5460 5460 5460 5374 5374 5460 5460 5460 5460 5460 5460 5460 5460 5374 5374 5374 5374 5291 5291 5291 5291 5374 5374 5374 5291 5291 5291 5291 5291 5210 5210 5210 5291 5291 5291 5132 5132 5210 5210 5210 5210 5132 5132 5210 5210 5210 5132 5132 5210 5210 5210 5210 5291 5291 5291 5374 5374 5374 5374 5374 5374 5374 5374 5374 5460 5460 5460 8626 8626 8626 8626 8413 8413 8413 8413 8413 3503 3503 3503 3503 3539 3539 3539 3539 3539 3539 3539 3503 3503 3503 3503 3503 3503 3503 3503 3503 3503 3503 3539 3539 3503 3503 3503 3503 3503 3503 3503 3503 3503 3503 3503 3503 3503 3503 3503 3503 3503 3503 3539 3503 3503 3503 3468 3468 3468 3468 3468 3468 3468 3468 3468 3468 3468 3468 3468 3468 3433 3433 3433 3399 3399 3399 3399 3399 3399 3399 3399 3399 3433 3433 3433 3433 3433 3433 3433 3433 3399 3399 3399 3399 3399 3399 3399 3399 3399 3399 3399 3399 3399 3399 3399 3399 3399 3399 3399 3399 3399 3399 3399 3399 3399 3399 3399 3399 3399 3399 3399 3399 3399 3365 3365 3365 3365 3365 3365 3365 3365 3365 3365 3365 1894 1894 1894 1894 1894 1894 1894 1883 1883 1883 1883 1873 1863 1863 1863 1863 1863 1863 1863 1863 1863 1863 1863 1863 1863 1853 1853 1853 1853 1853 1853 1853 1853 1843 1843 1843 1843 1843 1843 1843 1843 1843 1843 1843 1833 1833 1833 1833 1833 1833 1833 1833 1833 1833 1833 1833 1833 1833 1833 1823 1823 1823 1823 1813 1813 1813 1813 1813 1813 1813 1813 1813 1804 1804 1813 1804 1804 1804 1813 1813 1813 4522 4522 4522 4522 4522 4522 4522 4522 4522 4582 4522 4522 4463 4463 4463 4463 4463 4463 4463 6889 6889 6889 6889 6889 6889 6889 6889 6889 6889 6889 6889 6889 6889 6889 7030 7030 7030 7030 7030 6889 6889 6753 6753 6889 6889 6889 6889 6889 7030 7030 7030 7030 6753 6753 6753 6753 6753 6753 6753 6753 6753 6622 6622 6753 6753 6753 6753 6753 6753 6753 6753 6753 6753 6753 6753 6753 6753 6753 6753 6753 6622 6622 6753 6753 6753 6753 6753 6753 6753 6753 6753 6753 6753 6753 6889 6889 6889 6889 6889 6889 6889 6889 6889 6889 6889 6889 6889 6889 6753 6753 6753 6753 6753 6753 6753 6753 6753 6753 6753 6753 6753 6753 6753 6753 6753 6753 6753 6622 6622 6622 6753 6753 6622 6622 6622 6753 6753 6622 6622 6622 6622 6622 6622 6622 6622 6622 6622 6622 6622 6622 6622 6622 6622 6622 6753 6622 6622 6622 6622 6622 6622 6622 6497 6497 6497 6497 6497 6497 6497 6497 6497 6497 6497 6497 6497 6497 6497 6497 6497 6497 6497 6497 6497 6497 6497 6375 6375 6375 6375 6259 6259 6259 6259 6259 6375 6375 6375 6375 6375 6375 6375 6375 6375 6375 6497 6497 6375 6375 6497 6497 6375 6375 6375 6497 6497 6497 6497 6375 6375 6375 6375 6497 6497 6497 6497 6497 6622 6622 6622 0 0 0 0 0 0 0 0 0 0 0 0 0
0 0 0 0 0 0 0 0 0 0 0 0 0 0 0 0 0 0 0 0 0 0 0 0 0 0 0 0 0 0 0 0 0 0 0 0 0 0 0 0 0 0 0 0 8626 8626 8626 8849 5640 5640 5548 5548 5640 5640 5548 5548 5640 5734 5734 5734 5734 5734 5734 5734 5734 5734 5734 5734 5734 5734 5734 5734 5734 5640 5640 5548 5548 5640 5640 5548 5548 5548 5548 5548 5640 5548 5548 5640 5640 5640 5548 5548 5548 5548 5548 5548 5460 5460 5548 5460 5460 5460 5460 5460 5460 5374 5374 5374 5460 5460 5460 5374 5374 5460 5460 5460 5460 5460 5460 5460 5460 5460 5460 5460 5460 5460 5460 5460 5460 5460 5374 5374 5374 5374 5291 5291 5374 5374 5374 5374 5374 5374 5291 5291 5291 5291 5210 5210 5210 5291 5291 5291 5210 5210 5210 5210 5210 5210 5210 5210 5210 5210 5210 5210 5210 5210 5210 5210 5210 5291 5291 5291 5374 5374 5374 5374 5374 5374 5374 5374 5374 5460 5460 5460 5640 8626 8626 8626 8413 8413 8413 8413 8413 3468 3468 3503 3503 3539 3539 3539 3539 3539 3539 3539 3539 3539 3539 3539 3539 3539 3503 3503 3503 3503 3503 3539 3503 3503 3503 3503 3503 3503 3468 3468 3503 3503 3503 3503 3503 3503 3503 3503 3503 3503 3503 3539 3503 3503 3503 3468 3468 3468 3468 3468 3468 3433 3433 3433 3433 3433 3468 3468 3433 3433 3399 3399 3399 3399 3399 3399 3399 3399 3399 3399 3399 3433 3433 3433 3433 3433 3399 3399 3399 3399 3399 3399 3399 3399 3399 3399 3399 3399 3399 3399 3399 3399 3399 3399 3399 3399 3399 3399 3399 3399 3399 3399 3399 3399 3399 3399 3399 3399 3399 3399 3399 3399 3399 3365 3365 3365 3365 3365 3365 3365 3365 3365 3365 3365 1894 1894 1894 1894 1894 1894 1883 1883 1883 1883 1873 1863 1863 1863 1863 1863 1863 1863 1863 1863 1863 1863 1863 1863 1853 1853 1853 1853 1853 1853 1853 1853 1843 1843 1843 1843 1843 1843 1843 1843 1843 1843 1843 1833 1833 1833 1833 1833 1833 1833 1833 1833 1833 1823 1823 1823 1823 1823 1823 1823 1823 1823 1813 1813 1813 1813 1823 1813 1813 1813 1813 1813 1813 1813 1813 1813 1813 1813 1813 0 0 4522 4522 4522 4522 4522 4522 4522 4522 4522 4522 4522 4463 4463 4463 4463 4463 4463 4463 6889 6889 6753 6753 6753 6753 6889 6889 6889 6889 6889 6889 6889 6889 6889 6889 6889 6889 6889 6889 6889 6753 6753 6753 6889 6889 6889 6889 6889 7030 7030 7030 6753 6753 6753 6753 6753 6753 6753 6753 6753 6753 6753 6753 6753 6753 6753 6753 6753 6753 6753 6889 6889 6889 6889 6753 6753 6753 6753 6753 6753 6753 6753 6753 6753 6753 6753 6753 6753 6753 6753 6753 6753 6753 6753 6889 6889 6889 6889 7030 7030 7030 7030 7030 7030 6889 6889 6889 6889 6753 6753 6753 6753 6753 6753 6753 6889 6889 6889 6753 6753 6753 6889 6753 6753 6753 6753 6753 6753 6622 6622 6753 6753 6622 6622 6622 6622 6753 6622 6622 6622 6622 6622 6622 6622 6622 6622 6622 6622 6622 6622 6622 6622 6622 6622 6622 6622 6622 6622 6622 6622 6622 6622 6497 6497 6497 6497 6497 6497 6497 6497 6497 6497 6497 6497 6497 6497 6497 6497 6497 6497 6497 6497 6497 6497 6497 6497 6375 6375 6375 6375 6259 6259 6259 6259 6375 6375 6375 6375 6375 6375 6375 6375 6375 6375 6497 6497 6375 6375 6497 6497 6375 6375 6375 6497 6497 6497 6497 6375 6375 6375 6375 6497 6497 6497 6497 6497 6497 6497 6622 0 0 0 0 0 0 0 0 0 0 0 0 0
0 0 0 0 0 0 0 0 0 0 0 0 0 0 0 0 0 0 0 0 0 0 0 0 0 0 0 0 0 0 0 0 0 0 0 0 0 0 0 0 0 0 0 0 0 5832 5832 5832 5640 5640 5548 5548 5640 5640 5640 5640 5640 5734 5734 5734 5734 5734 5734 5734 5734 5734 5734 5734 5734 5734 5734 5734 5734 5640 5640 5548 5548 5640 5640 5548 5548 5548 5548 5548 5548 5548 5548 5640 5640 5640 5548 5548 5548 5548 5548 5548 5548 5548 5548 5548 5460 5460 5460 5460 5460 5374 5374 5374 5374 5460 5460 5374 5374 5460 5460 5460 5460 5460 5460 5460 5460 5460 5460 5460 5460 5460 5460 5460 5460 5460 5460 5374 5374 5374 5374 5374 5374 5374 5374 5460 5374 5374 5374 5291 5291 5374 5210 5210 5291 5374 5374 5374 5210 5210 5210 5291 5210 5210 5210 5210 5210 5291 5210 5210 5210 5210 5210 5291 5291 5291 5374 5374 5374 5374 5374 5374 5460 5460 5460 5460 5460 5460 5548 5640 5640 5640 5640 5734 5734 5734 8413 8413 8413 3433 3433 3503 3539 3539 3539 3539 3539 3539 3539 3539 3539 3539 3539 3539 3539 3539 3503 3503 3503 3503 3503 3503 3503 3503 3503 3503 3503 3503 3468 3468 3503 3503 3503 3503 3503 3503 3503 3503 3503 3503 3503 3503 3503 3503 3503 3468 3468 3468 3468 3433 3433 3433 3433 3433 3433 3433 3468 3468 3433 3433 3399 3399 3399 3399 3399 3399 3399 3399 3399 3399 3433 3433 3433 3433 3433 3433 3399 3399 3399 3399 3399 3399 3399 3399 3399 3399 3399 3399 3399 3399 3399 3399 3399 3399 3399 3399 3399 3399 3399 3399 3399 3399 3399 3399 3399 3399 3399 3399 3399 3399 3399 3399 3365 3365 3365 3365 3365 3365 3365 3365 3365 3365 3365 3365 1894 1894 1894 1894 1894 1894 1883 1883 1883 1883 1873 1863 1863 1863 1863 1863 1863 1863 1863 1863 1863 1863 1863 1863 1853 1853 1853 1853 1853 1853 1853 1853 1843 1843 1843 1843 1843 1843 1843 1843 1843 1843 1843 1843 1843 1833 1833 1833 1833 1833 1833 1833 1833 1823 1823 1823 1823 1823 1823 1823 1823 1823 1823 1823 1823 1823 1823 1813 1813 1813 1813 1813 1813 1813 1813 1813 1823 1823 1823 0 4522 4522 4522 4522 4522 4522 4522 4522 4522 4522 4522 4522 4463 4463 4463 4463 4463 4463 4463 0 6889 6753 6753 6753 6753 6753 6889 6889 6889 6889 6889 6889 6889 6889 6889 6889 6889 6753 6753 6753 6753 6753 6753 6753 6889 6889 7030 7030 7030 7030 7030 6753 6753 6753 6753 6753 6753 6753 6753 6753 6753 6753 6753 6753 6753 6753 6753 6753 6753 6889 6889 6889 6889 6889 6889 6889 6753 6753 6753 6753 6753 6753 6753 6753 6753 6889 6889 6753 6753 6753 6753 6753 6753 6753 6889 6889 7030 7030 7030 7030 7030 7030 7030 7030 6889 6889 6889 6889 6753 6753 6753 6753 6753 6753 6753 6889 6889 6889 6753 6753 6753 6889 6753 6753 6753 6753 6753 6753 6622 6622 6753 6753 6622 6622 6622 6622 6622 6622 6622 6622 6622 6622 6622 6622 6622 6622 6622 6622 6622 6622 6622 6622 6622 6622 6622 6622 6622 6622 6622 6622 6622 6622 6497 6497 6497 6497 6497 6497 6497 6497 6497 6622 6622 6622 6497 6497 6497 6497 6497 6497 6497 6497 6497 6497 6497 6497 6375 6375 6375 6375 6259 6259 6259 6259 6375 6375 6375 6375 6375 6375 6375 6375 6497 6497 6497 6497 6497 6497 6497 6497 6497 6497 6497 6497 6497 6375 6375 6497 6497 6497 6497 6497 6497 6497 6497 6497 6497 6497 6497 0 0 0 0 0 0 0 0 0 0 0 0 0
