0 0 0 0 0 0 0 0 0 0 0 0 0 0 0 0 0 0 0 0 0 0 0 0 0 0 0 0 0 0 4911 4842 4645 4645 4645 4645 4645 4645 4645 4645 5132 5132 5210 5291 5210 5210 5132 5056 4983 4983 4983 4983 4983 4983 5056 5056 5132 5132 5210 5291 5291 5291 5210 5210 5210 5132 5132 5132 5132 5132 5132 5132 5291 5374 5460 5460 5548 5548 5548 5548 0 0 5210 0 0 0 5374 5374 5374 5374 5374 5374 5374 5374 0 0 0 0 0 0 2859 2859 2859 2859 2859 2859 2859 2859 2859 2859 2859 2859 2859 2859 2859 2859 2835 2835 2835 2835 2835 2835 2835 2835 2835 2859 2859 2859 2859 2859 2859 2859 2859 2859 2883 2883 2883 2908 2908 2116 2116 2116 2116 2116 2129 2116 2116 2116 2129 2984 2984 2984 2958 2958 2984 3064 3064 3064 3120 2958 2933 2908 2143 2143 2143 2143 2143 2908 2908 2908 2908 2908 2908 2908 2908 2908 2908 2908 2908 2908 2908 2908 2908 2908 2908 2908 2908 2933 2933 2933 2933 2933 2933 2933 2933 2933 2933 2958 2958 2958 2958 2958 2958 2958 2958 2984 3010 3037 3037 3037 3037 3037 2184 2184 2184 2184 2184 2184 2184 2184 2184 2198 2198 2933 2933 2933 2933 2958 2958 2958 2933 2933 2958 2958 2933 2933 2958 2958 2958 2933 2933 2933 2933 2933 2933 2933 2958 2958 2958 2958 2958 2984 2958 2958 2958 2984 2984 2984 2984 2984 3010 3010 3010 3010 3010 3010 3037 3064 3092 0 0 0 0 0 0 0 0 0 0 0 0 0 0 0 0 2226 2226 2226 2226 2226 2226 2226 2226 2226 2212 2212 2212 2212 2212 2212 2212 2212 2226 0 0 0 0 2241 2226 2212 2212 2226 2226 2226 2226 2226 2241 2226 2226 2226 2241 2226 2226 2226 2241 2256 2256 2241 2241 2241 2256 2256 2256 2256 2241 2241 2241 2226 2212 2212 0 0 2256 2226 2226 0 0 2256 2256 2256 0 0 0 2241 2241 2241 2226 2226 2226 2226 2226 2226 2226 2226 2226 2226 2226 2226 2226 5132 5132 5210 5210 5210 5210 5210 5210 5210 5132 5132 5132 5132 5132 5132 5056 5056 4983 4983 4983 4911 4911 4911 4911 4911 4911 4983 4911 4911 4911 4911 4911 4911 4911 4911 4911 4911 4911 4911 4911 4911 4911 4911 4911 4983 4983 5056 5056 5132 5132 5132 5056 5056 5056 5056 4983 4983 5056 0 0 0 0 0 0 0 0 0 0 0 0 0 0 0 0 0 0 0 0 0 0 0 0 0 0 0 0 0 0 3994 3994 3994 4041 4041 4041 4041 4089 4089 3994 3994 3994 3994 3994 0 0 0 0 0 0 3208 3208 0 0 0 0 0 0 0 3178 3178 3178 3178 3092 3010 3010 3010 3010 3010 3037 3149 3178 3178 3149 3149 3149 3149 3149 3120 3120 3120 3092 3092 3092 3092 3092 3092 3092 3092 3092 3092 3092 3092 3092 3064 3064 3064 3064 3064 3064 3064 3064 3064 3064 3064 3064 3064 3064 3064 3064 3064 3064 3064 3064 3064 3064 3064 3064 3037 3037 3037 3064 3064 3064 3037 3037 3037 3010 3010 2767 2767 2767 2767 2767 2767 2767 2767 2767 2767 2767 2789 2789 2789 2789 2789 2789 2767 2767 2767 2767 2767 2767 2767 2812 2859 3037 3037 3064 3064 3064 3037 3037 3064 3064 3064 3064 3064 3092 3092 3120 3120 3120 2618 2618 2639 2659 2701 2723 2723 2723 2723 2723 2723 2723 2723 2723 3333 2723 2723 2723 2723 2723 2723 2723 2723 2723 2723 2680 2680 2701 2701 2723 0 0 0 0 0 0 0 0 0 0 0
0 0 0 0 0 0 0 0 0 0 0 0 0 0 0 0 0 0 0 0 0 0 0 0 0 0 0 0 0 0 4911 4842 4708 4645 4645 4645 4645 4645 4645 4645 5132 5132 5210 5291 5374 5291 5291 5291 5210 5056 4983 4983 5056 5056 5056 5056 5056 5132 5132 5210 5210 5291 5210 5210 5210 5210 5210 5210 5056 5056 5210 5291 5291 5374 5374 5460 5460 5460 5460 5460 5460 5374 5210 5210 5291 5374 5374 5374 5374 5374 5374 5374 5374 5374 5374 0 0 0 0 0 2859 2859 2859 2859 2859 2859 2859 2859 2859 2859 2859 2859 2859 2859 2859 2859 2859 2835 2835 2835 2835 2835 2835 2835 2835 2859 2859 2859 2859 2859 2859 2859 2859 2883 2883 2883 2908 2933 2933 2116 2116 2116 2116 2129 2129 2116 2116 2116 2984 2984 2984 2984 2958 2958 2984 3064 2984 2984 2958 2958 2933 2908 2908 2908 2883 2883 2908 2908 2908 2908 2908 2908 2908 2908 2908 2908 2908 2908 2908 2908 2908 2908 2908 2908 2908 2908 2908 2933 2933 2933 2933 2933 2933 2933 2933 2933 2933 2958 2958 2958 2958 2958 2958 2958 2958 2984 3010 3037 3037 3037 3037 3037 3037 2184 2184 2184 2184 2184 2198 2198 2198 2184 2184 2908 2933 2933 2933 2958 2958 2958 2933 2933 2958 2958 2958 2958 2958 2958 2958 2933 2933 2933 2933 2933 2933 2933 2958 2958 2958 2958 2958 2984 2958 2958 2958 2984 2984 2984 2984 2984 3010 3010 3010 3010 3010 3037 3064 3064 3092 0 0 0 0 0 0 0 0 0 0 0 0 0 0 0 0 2226 2226 2226 2226 2226 2226 2226 2226 2226 2212 2212 2212 2212 2212 2212 2212 2212 0 0 0 0 0 0 0 0 0 0 0 2226 2226 2226 0 0 2241 2241 0 0 0 0 0 0 0 0 0 0 0 0 0 0 0 0 0 0 0 0 0 0 0 0 0 0 0 0 0 0 0 0 0 0 2241 2241 2226 2226 2226 2226 2226 2226 2226 2226 2226 2226 2226 2226 2226 5132 5132 5210 5210 5210 5210 5210 5210 5210 5132 5132 5132 5132 5132 5132 5056 5056 5056 4983 4983 4983 4911 4911 4983 4983 4983 4983 4983 4983 4911 4911 4911 4911 4911 4911 4911 4911 4911 4911 4911 4911 4911 4911 4911 4983 5056 5056 5056 5132 5132 5132 5056 5056 5056 5056 4983 4983 5056 0 0 0 0 0 0 0 0 0 0 0 0 0 0 0 0 0 0 0 0 0 0 0 0 0 0 0 0 0 0 3994 3994 3994 4041 4041 4041 4041 4041 4041 3948 3948 4041 4041 4041 0 0 0 0 0 0 0 0 0 0 0 0 0 0 0 0 3903 3903 3903 2984 2984 2984 3010 3010 3010 3037 3149 3178 3178 3149 3149 3149 3149 3149 3149 3149 3149 3120 3120 3120 3120 3120 3092 3092 3092 3092 3092 3120 3092 3092 3064 3064 3064 3064 3064 3064 3064 3064 3064 3064 3064 3064 3064 3064 3064 3064 3064 3064 3064 3064 3064 3064 3064 3064 3037 3037 3037 3064 3064 3037 3037 3037 3037 3010 2835 2789 2789 2767 2767 2767 2767 2767 2767 2767 2767 2767 2789 2767 2767 2789 2789 2789 2767 2767 2767 2767 2767 2744 2744 2767 2835 3010 3037 3064 3064 3064 3037 3037 3064 3064 3064 3064 3092 3092 3120 3149 3149 3149 2618 2618 2639 2659 2701 2723 2723 2723 2723 2723 2723 2723 2723 3365 3333 2723 2723 2723 2723 2723 2723 2723 2723 2723 2723 2680 2680 2701 0 0 0 0 0 0 0 0 0 0 0 0 0
0 0 0 0 0 0 0 0 0 0 0 0 0 0 0 0 0 0 0 0 0 0 0 0 0 0 0 0 0 0 4774 4708 4645 4582 4582 4582 4645 4645 4645 4708 4911 5056 5132 5291 5291 5291 5291 5374 5374 5132 4983 4983 5056 5056 5056 5056 5056 5132 5132 5132 5132 5291 5291 5132 5132 5132 5291 5291 5056 5056 5210 5291 5291 5291 5374 5460 5460 5460 5460 5374 5374 5374 5210 5210 5291 5291 5374 5374 5374 5374 5374 5374 5291 5291 5374 0 0 0 0 0 0 2859 2859 2859 2859 2859 2859 2859 2883 2883 2883 2883 2883 2859 2859 2859 2859 2859 2835 2835 2835 2835 2835 2835 2835 2859 2859 2859 2859 2859 2859 2859 2859 2883 2883 2883 2908 2933 2933 2103 2103 2116 2116 2116 2129 2129 2129 2143 2984 2984 2984 2984 2958 2958 2984 3037 2984 2984 2958 2958 2933 2908 2908 2908 2908 2908 2908 2908 2908 2908 2933 2933 2908 2908 2908 2908 2908 2908 2908 2908 2908 2908 2908 2908 2908 2908 2908 2933 2933 2933 2933 2933 2933 2933 2933 2933 2958 2958 2958 2958 2958 2958 2958 2958 2984 2984 3010 3037 3037 3037 3037 3037 3037 3037 2184 2184 2184 2184 2198 2198 2198 2184 2184 2908 2933 2933 2933 2958 2958 2958 2958 2958 2958 2958 2958 2958 2958 2958 2958 2933 2933 2933 2933 2933 2933 2933 2958 2958 2958 2958 2984 2984 2984 2984 2984 2984 2984 2984 2984 3010 3010 3010 3010 3010 3037 3037 3037 3064 3092 0 0 0 0 0 0 0 0 0 0 0 0 0 0 0 0 2198 2198 2212 2212 2226 2226 2226 2226 2226 2226 0 0 0 0 0 0 0 0 0 0 0 0 0 0 0 0 0 0 0 0 0 0 0 0 0 0 0 0 0 0 0 0 0 0 0 0 0 0 0 0 0 0 0 0 0 0 0 0 0 0 0 0 0 0 0 0 0 0 0 0 0 2226 2226 2226 2226 2241 2241 2241 2241 2241 2241 2256 2256 2256 5132 5132 5132 5132 5132 5210 5210 5132 5132 5132 5132 5132 5132 5056 5056 5056 5056 5056 5056 4983 4983 4983 4983 4983 4983 4983 4983 4983 4983 4911 4911 4911 4911 4911 4911 4911 4911 4911 4911 4911 4911 4911 4911 4911 4983 5056 5056 5056 5132 5132 5132 5056 5056 5056 5056 4983 4983 5056 0 0 0 0 0 0 0 0 0 0 0 0 0 0 0 0 0 0 0 0 0 0 0 0 0 0 0 0 0 0 0 3994 3994 4041 4041 4041 4041 4041 4041 3948 3948 3948 3948 0 0 0 0 0 0 0 0 0 0 0 0 0 0 0 0 3903 3903 3903 3903 3903 2984 2984 3010 3010 3010 3064 3178 3178 3178 3149 3149 3149 3149 3149 3149 3149 3149 3539 3503 3503 3503 3503 3120 3120 3092 3092 3149 3178 3433 3178 3092 3092 3064 3064 3064 3064 3064 3064 3064 3064 3064 3064 3064 3064 3064 3064 3064 3064 3064 3064 3064 3064 3064 3064 3037 3037 3037 3064 3064 3037 3037 3010 3010 3010 2789 2789 2767 2767 2767 2767 2767 2767 2767 2767 2767 2789 2789 2767 2767 2789 2789 2789 2767 2767 2767 2767 2767 2744 2744 2767 2767 3010 3037 3037 3064 3064 3037 3037 3037 3037 3064 3064 3120 3120 3149 3149 2639 2639 2639 2639 2659 2701 2701 2723 2723 2723 2723 2723 2723 2723 2723 3365 3365 2723 2723 2723 2723 2723 2723 2723 2723 2723 2723 2680 2680 2701 0 0 0 0 0 0 0 0 0 0 0 0 0
0 0 0 0 0 0 0 0 0 0 0 0 0 0 0 0 0 0 0 0 0 0 0 0 0 0 0 0 0 0 4774 4708 4645 4582 4582 4582 4582 4645 4645 4645 4708 5056 5132 5210 5210 5210 5210 5291 5374 5056 4983 4983 5056 4983 4983 4983 4983 5056 5056 5132 5132 5210 5210 5132 5132 5132 5132 5210 5210 5210 5210 5210 5210 5291 5374 5374 5460 5460 5460 5374 5374 5460 5374 5291 5291 5291 5374 5374 5291 5291 5374 5374 5291 5291 5210 5210 5210 5210 5210 0 2767 2767 2789 2789 2859 2859 2859 2859 2859 2859 2859 2883 2883 2859 2859 2859 2859 2859 2835 2835 2835 2835 2835 2835 2859 2859 2859 2859 2859 2859 2859 2859 2859 2883 2883 2883 2908 2933 2103 2103 2103 2116 2116 2116 2129 2129 2129 2143 2984 2984 2984 2984 2958 2958 2984 2984 2984 2958 2958 2933 2933 2933 2908 2908 2908 2908 2908 2908 2908 2908 2933 2933 2933 2908 2908 2908 2908 2908 2908 2908 2908 2908 2908 2908 2908 2908 2908 2933 2933 2933 2933 2933 2933 2933 2933 2958 2958 2958 2958 2958 2958 2958 2958 2984 2984 3010 3010 3037 3037 3037 3037 3037 3037 3037 2184 2184 2184 2184 2198 2198 2198 2198 2212 2908 2933 2933 2933 2958 2958 2958 2958 2958 2958 2958 2958 2958 2958 2958 2958 2933 2933 2933 2933 2933 2933 2933 2958 2958 2958 2958 2984 2984 2984 2984 2984 2984 2984 2984 3010 3010 3010 3010 3010 3010 3037 3037 3037 3037 3092 0 0 0 0 0 0 0 0 0 0 0 0 0 0 0 0 2198 2198 2212 2212 2226 2226 2226 2226 2226 2226 0 0 0 0 0 0 0 0 0 0 0 0 0 0 0 0 0 0 0 0 0 0 0 0 0 0 0 0 0 0 0 0 0 0 0 0 0 0 0 0 0 0 0 0 0 0 0 0 0 0 0 0 0 0 0 0 0 0 0 0 0 2241 2226 2226 2226 2226 2241 2226 2226 2241 2256 2256 2256 2256 2256 5132 5132 5132 5132 5210 5210 5132 5132 5132 5132 5132 5132 5056 5056 5056 5056 5056 5056 4983 4983 4983 4983 4983 4983 4983 4983 4983 4983 4911 4911 4911 4911 4911 4911 4911 4911 4911 4911 4911 4911 4911 4911 4911 4983 5056 5056 5056 5056 5132 5132 5056 5056 5056 5056 4983 4983 5056 0 0 0 0 0 0 0 0 0 0 0 0 0 0 0 0 0 0 0 0 0 0 0 0 0 0 0 0 0 0 0 3994 3994 4041 4041 4041 4041 4041 4089 4089 4089 4089 4089 0 0 0 0 0 0 0 0 0 0 0 0 0 0 0 0 4139 3903 3903 3903 3859 3859 3859 3859 3903 4041 4089 3178 3178 3178 3149 3149 3149 3149 3149 3149 3149 3539 3539 3539 3503 3503 3503 3503 3503 3503 3468 3433 3433 3433 3433 3433 3433 3433 3092 3092 3064 3064 3064 3064 3064 3064 3064 3064 3064 3064 3064 3064 3064 3064 3064 3064 3064 3064 3064 3037 3037 3037 3037 3037 3037 3010 2859 2859 2835 2789 2767 2767 2767 2767 2767 2767 2767 2767 2767 2789 2789 2789 2767 2767 2789 2789 2789 2767 2767 2767 2767 2767 2744 2744 2767 2744 2744 2744 3037 3064 3037 3037 3037 3037 3037 3064 3064 3064 2723 2659 2659 2639 2639 2639 2659 2701 2701 2723 2723 2723 2723 2723 2723 2723 2723 3365 3333 3333 2723 2723 2723 2723 2723 2723 2723 2723 2723 2723 2701 2701 2701 0 0 0 0 0 0 0 0 0 0 0 0 0
0 0 0 0 0 0 0 0 0 0 0 0 0 0 0 0 0 0 0 0 0 0 0 0 0 0 0 0 0 0 4842 4774 4645 4582 4582 4582 4582 4645 4645 4645 4708 4774 5056 5132 5132 5210 5210 5291 5374 4983 4983 4983 4983 4983 4983 4983 4983 5056 5056 5132 5132 5210 5132 5132 5132 5132 5210 5210 5210 5210 5210 5210 5210 5291 5374 5374 5460 5460 5460 5460 5460 5460 5374 5374 5374 5374 5132 5291 5291 5291 5291 5210 5210 5210 5210 5132 5132 5132 5132 0 2767 2767 2789 2789 2859 2859 2859 2859 2859 2859 2859 2859 2859 2859 2859 2859 2859 2859 2835 2835 2835 2835 2835 2835 2835 2859 2859 2859 2859 2859 2859 2859 2859 2883 2883 2883 2908 2908 2103 2103 2103 2116 2116 2129 2129 2129 2129 2143 2958 2984 2984 2984 2958 2958 2984 2984 2984 2958 2958 2933 2933 2933 2933 2933 2908 2908 2933 2933 2933 2933 2933 2933 2933 2908 2908 2908 2908 2908 2908 2908 2908 2908 2908 2908 2908 2908 2933 2933 2933 2933 2933 2933 2933 2933 2958 2958 2958 2958 2958 2958 2958 2958 2958 2984 2984 3010 3010 3037 3037 3037 3037 3037 3037 3037 2184 2184 2184 2184 2198 2198 2198 2198 2212 2908 2908 2933 2933 2958 2958 2958 2958 2958 2958 2958 2958 2958 2958 2958 2958 2933 2933 2933 2933 2933 2933 2933 2958 2958 2958 2958 2958 2984 2984 2984 2984 2984 2984 3010 3010 3010 3010 3010 3010 3010 3010 3037 3010 3010 3037 0 0 0 0 0 0 0 0 0 0 0 0 0 0 0 0 0 2212 2212 2212 2226 2226 2226 2226 2226 2241 0 0 0 0 0 0 0 0 0 0 0 0 0 0 0 0 0 0 0 0 0 0 0 0 0 0 0 0 0 0 0 0 0 0 0 0 0 0 0 0 0 0 0 0 0 0 0 0 0 0 0 0 0 0 0 0 0 0 0 0 2241 2241 2226 2226 2226 2226 2241 2226 2226 2241 2256 2271 2271 2271 2271 5132 5132 5132 5132 5132 5132 5132 5132 5132 5132 5132 5132 5056 5056 5056 5056 5056 5056 4983 4983 4983 4983 4983 4983 4983 4983 4983 4911 4911 4911 4911 4911 4911 4911 4911 4911 4911 4911 4911 4911 4911 4911 4911 4983 4983 5056 5056 5056 5132 5132 5132 5132 5132 5056 4983 4983 5056 0 0 0 0 0 0 0 0 0 0 0 0 0 0 0 0 0 0 0 0 0 0 0 0 0 0 0 0 0 0 0 4089 4041 4041 4041 4041 4041 4041 4041 4041 4089 4089 4089 0 4089 4089 4089 4089 0 0 0 0 0 0 0 0 0 4139 4139 4139 3948 3903 3903 3859 3859 3859 3859 4041 4041 4089 4139 4089 4089 4041 4041 4041 4041 4041 4041 3539 3539 3539 3539 3539 3539 3539 3539 3539 3539 3539 3503 3503 3503 3503 3503 3503 3503 3503 3399 3399 3333 3333 3178 3178 4774 4774 4774 3092 3092 3092 3092 3092 3092 3092 3064 3064 3064 3064 3064 3037 3037 3037 3037 3037 2859 2859 2835 2835 2789 2767 2767 2767 2767 2767 2767 2767 2767 2767 2789 2789 2767 2767 2767 2767 2767 2789 2767 2767 2767 2767 2767 2744 2744 2767 2744 2744 2744 2744 3037 3037 3037 3037 3037 3037 3037 2723 2723 2723 2723 2659 2659 2680 2680 2723 2723 2723 2723 2723 2723 2723 2723 2723 2723 3365 3365 3333 3333 2723 2723 2723 2723 2723 2723 2723 2723 2723 2723 2701 2701 2723 4708 0 0 0 0 0 0 0 0 0 0 0 0
0 0 0 0 0 0 0 0 0 0 0 0 0 0 0 0 0 0 0 0 0 0 0 0 0 0 0 0 0 0 4842 4774 4708 4708 4582 4582 4582 4645 4645 4645 4645 4708 5056 5132 5132 5210 5210 5374 5374 4983 4983 4983 4983 4983 4983 4983 4983 5056 5056 5132 5132 5210 5132 5132 5132 5132 5210 5210 5210 5210 5210 5210 5210 5291 5291 5291 5374 5374 5374 5291 5291 5210 5132 5132 5132 5132 5132 5132 5132 5210 5210 5210 5210 5210 5132 5132 5132 5132 5132 5132 2789 2789 2789 2859 2859 2859 2859 2859 2859 2859 2859 2859 2859 2859 2859 2859 2859 2859 2835 2835 2835 2835 2835 2835 2835 2859 2859 2859 2859 2859 2859 2859 2859 2859 2859 2883 2883 2883 2103 2103 2116 2129 2129 2129 2129 2129 2129 2143 2958 2958 2984 2984 2958 2958 2984 2984 2984 2958 2958 2958 2933 2933 2933 2933 2933 2933 2933 2933 2933 2933 2933 2933 2933 2908 2908 2908 2908 2908 2908 2908 2908 2908 2908 2908 2908 2908 2933 2933 2933 2933 2933 2933 2933 2958 2958 2958 2958 2958 2958 2958 2958 2958 2958 2984 2984 2984 3010 3010 3010 3037 3037 3037 3037 3037 2184 2184 2184 2184 2198 2198 2198 2198 2212 2908 2908 2933 2933 2958 2958 2958 2958 2958 2958 2958 2958 2958 2958 2958 2958 2933 2933 2933 2933 2933 2933 2933 2958 2958 2958 2958 2958 2984 2984 2984 2984 2984 2984 3010 3010 3010 3010 3010 3010 3010 3010 3037 3010 3010 3037 0 0 0 0 0 0 0 0 0 0 0 0 0 0 0 0 0 2212 2212 2226 2226 2226 2226 2226 2226 2241 0 0 0 0 0 0 0 0 0 0 0 0 0 0 0 0 0 0 0 0 0 0 0 0 0 0 0 0 0 0 0 0 0 0 0 0 0 0 0 0 0 0 0 0 0 0 0 0 0 0 0 0 0 0 0 0 0 0 0 0 2226 2226 2226 2241 2241 2241 2241 2241 2241 2256 2256 2271 2271 2271 5132 5132 5132 5132 5132 5132 5132 5132 5132 5132 5132 5132 5056 5056 5056 5056 5056 4983 4983 4983 4983 4983 4983 4983 4983 4983 4983 4911 4911 4911 4911 4911 4911 4911 4911 4911 4911 4911 4911 4911 4911 4911 4911 4911 4983 4983 5056 5056 5132 5132 5132 5132 5132 5132 5132 5132 0 0 0 0 0 0 0 0 0 0 0 0 0 0 0 0 0 0 0 0 0 0 0 0 0 0 0 0 0 0 0 0 0 0 4041 4041 4041 4041 4041 3994 3994 3994 3994 4089 4041 4041 4041 4089 4089 4089 4139 0 0 0 0 0 0 4139 4139 4139 4139 4139 4139 3903 3903 3948 3948 3994 3994 4041 4089 4089 4089 4089 4041 4041 4041 4041 4041 4041 3994 3539 3539 3539 3539 3539 3539 3539 3539 3539 3539 3539 3503 3503 3503 3503 3503 3503 3503 3503 3399 3399 3333 3333 3269 3269 4774 4774 4774 4774 4708 4645 4645 4708 3092 3092 3092 3064 3064 3064 3064 3064 3037 3037 3037 3010 2859 2835 2835 2835 2812 2789 2789 2767 2767 2767 2767 2789 2767 2767 2789 2789 2767 2767 2767 2767 2767 2767 2767 2767 2767 2767 2767 2767 2767 2767 2767 2744 2744 2744 2744 2744 2744 2744 2723 2723 2723 2723 2723 2723 2723 2701 2701 2723 2723 2723 2723 2723 2723 2723 2723 2723 2723 3365 3365 3365 3365 3333 3333 2723 2723 2723 2723 2723 2723 2723 2723 2723 2723 2723 2744 2744 4708 0 0 0 0 0 0 0 0 0 0 0 0
0 0 0 0 0 0 0 0 0 0 0 0 0 0 0 0 0 0 0 0 0 0 0 0 0 0 0 0 0 0 4911 4774 4708 4708 4645 4582 4582 4582 4582 4645 4645 4708 4842 5132 5132 5132 5132 5132 5132 4983 4983 4983 4983 4983 4983 4983 4983 4983 5056 5056 5056 5210 5132 5132 5132 5132 5132 5132 5132 5132 5132 5132 5132 5210 5210 5210 5291 5210 5210 5132 5132 5132 5132 5132 5132 5132 5132 5132 5132 5210 5210 5210 5210 5210 5132 5132 5132 5132 5132 5132 2789 2789 2789 2859 2859 2859 2859 2859 2859 2859 2859 2859 2859 2859 2859 2859 2859 2859 2859 2859 2859 2859 2835 2835 2859 2859 2859 2859 2859 2859 2859 2859 2859 2859 2859 2859 2859 2859 2116 2116 2116 2129 2129 2129 2143 2143 2143 2143 2143 2143 2156 2170 2958 2958 2984 2984 2984 2958 2958 2958 2933 2933 2933 2933 2933 2908 2908 2933 2933 2933 2933 2933 2933 2933 2933 2933 2933 2908 2908 2908 2908 2908 2908 2908 2908 2908 2933 2933 2933 2933 2933 2933 2933 2933 2933 2933 2958 2958 2958 2958 2958 2958 2958 2984 2984 2984 3010 3010 3010 3037 3037 3037 3037 3037 2184 2184 2184 2184 2198 2198 2198 2198 2212 2212 2908 2933 2933 2958 2958 2958 2958 2958 2958 2958 2958 2958 2958 2958 2958 2933 2933 2933 2933 2933 2933 2933 2958 2958 2958 2958 2958 2984 2984 2984 2984 2984 3010 3010 3010 3010 3010 3010 3010 3010 3010 3037 3037 3037 3037 0 0 0 0 0 0 0 0 0 0 0 0 0 0 0 0 0 2226 2226 2226 2226 2226 2226 2226 2226 2241 2256 0 0 0 0 0 0 0 0 0 0 0 0 0 0 0 0 0 0 0 0 0 0 0 0 0 0 0 0 0 0 0 0 0 0 0 0 0 0 0 0 0 0 0 0 0 0 0 0 0 0 0 0 0 0 0 0 0 0 0 2226 2226 2226 2241 2241 2256 2256 2256 2256 2256 2256 2256 2271 2271 5132 5132 5132 5132 5132 5132 5132 5132 5132 5132 5132 5132 5056 5056 5056 5056 5056 4983 4983 4983 4983 4983 4983 4983 4983 4983 4983 4911 4911 4911 4911 4911 4911 4911 4911 4911 4911 4911 4911 4911 4911 4983 4911 4911 4983 5056 5056 5056 5132 5132 5132 5132 5132 5132 5132 5132 0 0 0 0 0 0 0 0 0 0 0 0 0 0 0 0 0 0 0 0 0 0 0 0 0 0 0 0 0 0 0 0 0 0 4041 4041 3994 3994 3994 3994 3994 3994 3994 4041 4041 4041 4041 4089 4089 4089 4089 4089 4089 4139 4139 0 4089 4089 4089 4089 4139 4139 4139 4089 4089 4089 4089 4089 4089 4089 4089 4089 4089 4089 4041 3994 3994 3994 3994 3994 3994 3539 3539 3539 3539 3539 3539 3539 3539 3539 3539 3539 3539 3539 3503 3503 3503 3503 3503 3503 3433 3399 3365 3365 3269 3269 4774 4774 4774 4774 4708 4708 4708 4708 4708 4708 4708 4708 3064 3064 3064 3064 3037 3037 3037 3010 2835 2835 2835 2812 2812 2789 2789 2767 2767 2767 2767 2789 2789 2789 2789 2789 2767 2767 2767 2767 2767 2767 2789 2789 2789 2789 2767 2767 2767 2767 2767 2744 2744 2744 2744 2744 2744 0 0 2723 2723 2723 2701 2701 2723 2723 2723 2723 2723 2723 2723 2723 2723 2701 2701 2723 3365 3365 3365 3365 3365 3365 2723 2723 2723 2723 2723 2723 2723 2723 2723 2723 2723 2723 2744 2744 4708 0 0 0 0 0 0 0 0 0 0 0 0
0 0 0 0 0 0 0 0 0 0 0 0 0 0 0 0 0 0 0 0 0 0 0 0 0 0 0 0 0 0 4774 4708 4708 4645 4645 4645 4582 4582 4582 4645 4645 4708 4774 5132 5132 5132 5132 5132 5132 5132 4983 4983 4983 4983 4983 4983 4983 4983 4983 4983 5056 5210 5132 5132 5132 5132 5132 5132 5132 5132 5056 5056 5056 5132 5132 5132 5132 5056 4911 4911 4911 4911 4983 5056 5056 5056 5132 5132 5132 5210 5210 5132 5132 5210 5132 5056 5056 5132 5132 5132 2812 2812 2812 2859 2859 2859 2859 2859 2859 2859 2859 2859 2859 2859 2859 2859 2859 2859 2859 2859 2859 2859 2859 2859 2859 2859 2859 2859 2859 2859 2859 2859 2859 2859 2859 2859 2859 2859 2103 2103 2116 2129 2129 2129 2143 2143 2143 2143 2143 2143 2156 2170 2958 2958 2984 2958 2958 2958 2958 2933 2933 2933 2933 2933 2933 2908 2908 2933 2933 2933 2933 2933 2933 2933 2933 2933 2933 2908 2908 2908 2908 2908 2908 2908 2933 2933 2933 2933 2933 2933 2933 2933 2933 2933 2933 2933 2958 2958 2958 2958 2958 2958 2958 2984 2984 2984 3010 3037 3037 3037 3037 3037 3037 3037 2184 2184 2184 2184 2198 2198 2198 2198 2212 2212 2908 2933 2933 2958 2958 2958 2958 2958 2958 2958 2958 2958 2958 2984 2958 2958 2933 2933 2933 2933 2933 2933 2958 2958 2958 2958 2984 2984 2984 2984 2984 2984 3010 3010 3010 3010 3010 3010 3010 3037 3037 3037 3037 3037 3037 3064 0 0 0 0 0 0 0 0 0 0 0 0 0 0 0 0 2226 2226 2226 2226 2226 2226 2226 2241 2241 2256 0 0 0 0 0 0 0 0 0 0 0 0 0 0 0 0 0 0 0 0 0 0 0 0 0 0 0 0 0 0 0 0 0 0 0 0 0 0 0 0 0 0 0 0 0 0 0 0 0 0 0 0 0 0 0 0 0 0 0 2226 2226 2226 2241 2241 2256 2256 2256 2256 2256 2256 2256 2271 2271 5132 5132 5132 5132 5132 5132 5132 5132 5132 5132 5132 5132 5132 5132 5132 5132 5056 4983 4983 4983 4983 4983 4983 4983 4983 4983 4983 4911 4911 4911 4911 4911 4911 4911 4911 4911 4911 4911 4911 4911 4983 4983 4911 4911 4911 4983 5056 5056 5132 5132 5210 5210 5210 5210 5132 5132 0 0 0 0 0 0 0 0 0 0 0 0 0 0 0 0 0 0 0 0 0 0 0 0 0 0 0 0 0 0 0 0 0 0 4041 4041 3994 3994 3994 3994 3994 3994 3994 4041 4041 4041 4041 4041 4089 4089 4089 4041 4041 4041 3948 3948 4041 4041 4089 4089 4089 4089 4089 4089 4089 4089 4089 4089 4041 4041 4041 4041 4041 4041 4041 3994 3994 3994 3994 3994 3994 3539 3539 3539 3539 3539 3539 3539 3539 3539 3539 3539 3539 3539 3503 3503 3503 3539 3539 3503 3468 3468 3433 3433 4774 4774 4774 4774 4708 4708 4708 4708 4708 4708 4708 4708 4708 4708 4708 4774 4774 4774 4774 4842 4842 2812 2812 2812 2812 2812 2812 2789 2789 2789 2767 2767 2767 2789 2789 2789 2789 2789 2789 2767 2767 2767 2767 2767 2789 2789 2789 2789 2767 2767 2767 2767 2767 2744 2744 2744 2744 2744 2744 2701 2680 2723 2723 2723 2701 2701 2723 2723 2723 2723 2723 2723 2723 2723 2701 2701 2701 3399 3365 3365 3365 3365 3365 3365 2723 2723 2723 2723 2723 2723 2723 2723 2723 2723 2723 2723 2744 2744 4774 0 0 0 0 0 0 0 0 0 0 0 0
0 0 0 0 0 0 0 0 0 0 0 0 0 0 0 0 0 0 0 0 0 0 0 0 0 0 0 0 0 0 4774 4708 4708 4645 4645 4582 4582 4582 4582 4582 4645 4645 4645 4774 4983 4983 4983 5056 5056 4983 4983 4983 4983 4983 4983 4983 4983 4983 4983 4983 5056 5132 5056 5056 5056 5056 5056 5056 5056 4983 4983 4983 4983 4983 4983 4983 4983 4983 4911 4911 4911 4911 4983 5056 5056 5056 5056 5056 5132 5132 5210 5056 5056 5132 5056 5056 5056 5056 5056 5056 2835 2835 2835 2859 2859 2859 2859 2859 2859 2859 2859 2859 2859 2859 2859 2859 2859 2859 2859 2859 2859 2859 2859 2859 2859 2859 2859 2859 2859 2859 2859 2859 2859 2859 2859 2859 2859 2859 2103 2103 2116 2129 2129 2129 2143 2143 2143 2143 2143 2143 2156 2170 2958 2958 2984 2958 2958 2958 2958 2933 2933 2933 2933 2933 2933 2933 2933 2933 2933 2933 2933 2933 2933 2933 2933 2933 2933 2933 2908 2908 2908 2908 2908 2933 2933 2933 2933 2933 2933 2933 2933 2933 2933 2958 2958 2958 2958 2958 2958 2958 2958 2958 2958 2984 2984 2984 3010 3037 3037 3037 3037 3037 3037 3037 2184 2184 2184 2184 2198 2198 2198 2198 2212 2226 2908 2933 2933 2958 2958 2958 2958 2958 2958 2958 2958 2958 2958 2958 2958 2958 2933 2933 2933 2933 2933 2958 2958 2958 2958 2958 2984 2984 2984 2984 2984 3010 3010 3010 3010 3010 3010 3010 3010 3037 3037 3037 3037 3037 3037 3037 0 0 0 0 0 0 0 0 0 0 0 0 0 0 0 0 2226 2226 2226 2226 2226 2226 2226 2241 2241 0 0 0 0 0 0 0 0 0 0 0 0 0 0 0 0 0 0 0 0 0 0 0 0 0 0 0 0 0 0 0 0 0 0 0 0 0 0 0 0 0 0 0 0 0 0 0 0 0 0 0 0 0 0 0 0 0 0 0 0 2241 2241 2241 2256 2256 2256 2256 2271 2271 2271 2271 2286 2286 2286 5132 5132 5132 5132 5132 5132 5132 5132 5132 5132 5132 5132 5132 5132 5132 5132 5056 4983 4983 4983 4983 4983 5056 4983 4983 4983 4983 4911 4911 4911 4911 4911 4911 4911 4911 4911 4911 4911 4911 4911 4983 4983 4911 4911 4911 4983 5056 5056 5132 5132 5210 5210 5210 5210 5374 0 0 0 0 0 0 0 0 0 0 0 0 0 0 0 0 0 0 0 0 0 0 0 0 0 0 0 0 0 0 0 0 0 0 0 4041 4041 3994 3994 3994 3994 3994 3994 3994 4041 4041 3994 3994 4041 4089 4089 4041 4041 4041 3948 3948 3948 3948 3994 4041 4041 4089 4089 4089 4089 4089 4089 4089 4041 4041 4041 3994 3994 3994 3994 3994 3994 3994 3994 3948 3948 3948 3948 3576 3539 3539 3539 3539 3539 3539 3539 3539 3539 3539 3539 3539 3539 3539 3539 3539 3539 3503 3503 3503 4708 4708 4708 4708 4774 4708 4708 4708 4708 4708 4708 4708 4708 4708 4708 4774 4774 4774 4774 4774 4842 4842 2812 2812 2812 2812 2812 2812 2789 2789 2789 2767 2767 2767 2789 2789 2789 2789 2789 2789 2789 2789 2789 2789 2789 2789 2789 2789 2789 2789 2767 2767 2767 2767 2744 2744 2744 2744 2744 2723 2701 2680 2680 2723 2723 2723 2723 2723 2744 2744 2744 2744 2723 2723 2701 2701 2701 3399 3399 3365 3365 3365 3365 3365 3365 3399 2723 2723 2723 2723 2723 2723 2723 2723 2723 2723 2723 2723 2744 0 0 0 0 0 0 0 0 0 0 0 0 0
0 0 0 0 0 0 0 0 0 0 0 0 0 0 0 0 0 0 0 0 0 0 0 0 0 0 0 0 0 0 0 4774 4774 4708 4645 4582 4522 4522 4582 4582 4582 4582 4645 4774 4842 4983 4983 5056 5056 4983 4983 4911 4911 4983 4983 4983 4983 4983 4983 4983 5056 5056 4983 4983 5056 5056 5056 5056 5056 4983 4983 4983 4983 4983 4983 4983 4983 4983 4911 4911 4911 4983 4983 5056 5056 5056 5056 5056 5056 5056 5056 5056 5056 5056 5056 5056 5056 5056 5056 0 2859 2835 2835 2859 2859 2859 2859 2859 2859 2859 2859 2859 2859 2859 2859 2859 2859 2859 2859 2859 2859 2859 2859 2859 2859 2859 2859 2859 2859 2859 2859 2859 2859 2859 2859 2859 2859 2859 2103 2103 2116 2129 2129 2129 2143 2143 2143 2143 2143 2143 2170 2184 2984 2984 2984 2984 2984 2984 2984 2958 2958 2933 2933 2933 2933 2933 2933 2933 2933 2933 2933 2933 2933 2933 2933 2933 2933 2933 2908 2908 2933 2933 2933 2933 2933 2933 2933 2958 2958 2958 2958 2933 2933 2933 2933 2958 2958 2958 2958 2958 2958 2958 2984 2984 2984 3010 3010 3037 3037 3037 3037 3037 3037 3037 2184 2184 2184 2184 2198 2198 2198 2198 2198 2212 2933 2933 2958 2958 2958 2958 2958 2958 2958 2958 2958 2958 2958 2958 2958 2958 2958 2958 2958 2958 2958 2958 2958 2958 2958 2958 2984 2984 2984 2984 2984 3010 3010 3010 3010 3010 3010 3010 3037 3037 3037 3037 3037 3037 3010 3010 0 0 0 0 0 0 0 0 0 0 0 0 0 0 0 0 2226 2226 2226 2226 2226 2226 2226 2241 2241 0 0 0 0 0 0 0 0 0 0 0 0 0 0 0 0 0 0 0 0 0 0 0 0 0 0 0 0 0 0 0 0 0 0 0 0 0 0 0 0 0 0 0 0 0 0 0 0 0 0 0 0 0 0 0 0 0 0 0 0 2241 2241 2256 2256 2256 2256 2256 2271 2271 2256 2256 2286 2286 5374 5210 5210 5210 5210 5210 5132 5132 5132 5132 5132 5132 5132 5132 5132 5132 5132 5056 4983 4983 4983 4983 4983 4983 4983 4983 4983 4911 4911 4911 4911 4911 4911 4911 4911 4983 4983 4983 4911 4911 4911 4983 4983 4911 4911 4911 4983 5056 5056 5132 5132 5210 5291 5291 5291 5374 0 0 0 0 0 0 0 0 0 0 0 0 0 0 0 0 0 0 0 0 0 0 0 0 0 0 0 0 0 0 0 0 0 0 0 4089 4041 3994 3994 3994 3994 3994 3994 3994 3994 3994 3948 3948 3994 3994 3994 3994 3994 3948 3948 3948 3948 3903 3903 3948 4041 4041 4041 4041 4041 4041 4041 4041 3994 3994 3994 3948 3948 3948 3948 3948 3948 3948 3948 3903 3903 3816 3576 3576 3539 3539 3539 3539 3539 3539 3539 3539 3539 3539 3539 3539 3539 3539 3539 3539 3539 3539 4708 4645 4645 4708 4708 4708 4708 4708 4708 4708 4708 4708 4708 4708 4708 4774 4774 4774 4774 4774 4774 4774 4774 4774 2812 2812 2789 2789 2812 2812 2789 2789 2789 2789 2789 2789 2789 2789 2812 2789 2789 2812 2789 2789 2789 2789 2789 2789 2789 2789 2789 2789 2767 2767 2767 2767 2767 2767 2767 2744 2744 2723 2701 2680 2680 2723 2723 2723 2723 2744 2744 2744 2744 2744 2723 2723 2701 2701 3365 3365 3365 3365 3365 3365 3365 3365 3365 2723 2723 2723 2723 2723 2723 2723 2723 2723 2723 2723 2723 2723 2744 0 0 0 0 0 0 0 0 0 0 0 0 0
0 0 0 0 0 0 0 0 0 0 0 0 0 0 0 0 0 0 0 0 0 0 0 0 0 0 0 0 0 0 4911 4774 4774 4774 4774 4582 4522 4522 4582 4582 4582 4582 4645 4708 4774 4911 4911 4983 4983 4983 4983 4774 4774 4774 4842 4911 4911 4911 4911 4911 4911 4911 4983 4983 4983 4983 5056 5056 5056 4983 4983 4911 4911 4911 4842 4842 4842 4842 4911 4911 4911 4983 4983 5056 5056 5056 4983 4983 4983 4983 5056 5056 5056 5056 5056 5056 5056 5056 5056 0 2835 2835 2859 2859 2859 2859 2859 2859 2859 2859 2859 2859 2859 2859 2835 2835 2859 2859 2859 2859 2859 2883 2859 2859 2859 2859 2859 2859 2859 2859 2859 2859 2859 2883 2883 2883 2883 2883 2116 2116 2116 2129 2129 2143 2143 2143 2143 2143 2143 2143 2170 2184 2984 2984 2984 3010 2984 2984 2984 2958 2958 2933 2933 2933 2933 2933 2933 2933 2933 2933 2933 2933 2933 2933 2933 2933 2933 2933 2933 2933 2933 2933 2933 2933 2933 2933 2933 2958 2958 2958 2958 2933 2933 2933 2933 2958 2958 2958 2958 2958 2958 2984 2984 2984 3010 3010 3010 3037 3037 3037 3037 3037 3037 3037 3037 2170 2170 2184 2184 2198 2198 2198 2198 2212 2226 2933 2958 2958 2958 2958 2958 2958 2958 2958 2958 2958 2958 2958 2984 2958 2958 2958 2958 2958 2958 2958 2958 2958 2958 2958 2984 2984 2984 2984 2984 2984 2984 3010 3010 3010 3010 3037 3037 3037 3037 3037 3037 3037 3010 3010 0 0 0 0 0 0 0 0 0 0 0 0 0 0 0 2212 2212 2226 2226 2226 2226 2226 2241 2241 2256 0 0 0 0 0 0 0 0 0 0 0 0 0 0 0 0 0 0 0 0 0 0 0 0 0 0 0 0 0 0 0 0 0 0 0 0 0 0 0 0 0 0 0 0 0 0 0 0 0 0 0 0 0 0 0 0 0 0 0 0 2241 2241 2241 2256 2271 2256 2256 2271 2271 2256 2256 2271 2271 5374 5374 5210 5210 5210 5210 5210 5210 5132 5132 5132 5132 5132 5132 5132 5132 5132 5056 5056 5056 5056 4983 4983 4983 4983 4983 4983 4911 4911 4911 4911 4911 4911 4911 4911 4983 4983 4983 4911 4911 4983 4983 4983 4911 4911 4983 5056 5056 5132 5132 5210 5291 5291 5374 5374 5460 5460 0 0 0 0 0 0 0 0 0 0 0 0 0 0 0 0 0 0 0 0 0 0 0 0 0 0 0 0 0 0 0 0 0 0 0 4041 3994 3994 3994 3994 3994 3994 3994 3994 3994 3948 3948 3948 3994 3948 3948 3948 3948 3948 3903 3903 3903 3903 3903 3994 3994 3994 3994 4041 4041 4041 3994 3948 3948 3948 3903 3903 3903 3903 3903 3903 3903 3903 3903 3903 3816 3576 3576 3576 3539 3539 3539 3539 3539 3539 3539 3539 3539 3539 3539 3539 3539 3539 3539 3539 3539 4708 4645 4645 4708 4708 4708 4708 4708 4708 4708 4708 4708 4708 4708 4708 4774 4774 4774 4774 4774 4774 4774 4774 4774 2812 2812 2789 2789 2812 2812 2812 2789 2789 2812 2812 2812 2812 2812 2812 2812 2812 2812 2789 2789 2789 2789 2789 2789 2789 2812 2789 2789 2767 2767 2767 2767 2767 2767 2767 2767 2744 2744 2723 2723 2723 2723 2723 2744 2744 2744 2744 2744 2744 2744 2723 2723 3365 3365 3365 3365 3365 3365 3365 3365 3365 3365 3365 2723 2723 2723 2723 2723 2723 2723 2723 2723 2723 2723 2723 4645 4645 0 0 0 0 0 0 0 0 0 0 0 0 0
0 0 0 0 0 0 0 0 0 0 0 0 0 0 0 0 0 0 0 0 0 0 0 0 0 0 0 0 0 0 4911 4842 4842 4842 4522 4582 4582 4582 4582 4582 4582 4582 4582 4645 4645 4774 4842 4911 4983 4911 4911 4774 4774 4774 4842 4911 4911 4911 4911 4911 4911 4842 4842 4842 4842 4983 5056 5056 5056 4983 4911 4911 4911 4842 4842 4842 4842 4842 4911 4911 4911 4911 4911 4911 4911 4911 4911 4983 4911 4911 4983 5056 5056 5056 5056 5132 5132 5132 2835 0 2835 2835 2859 2859 2859 2859 2859 2859 2859 2859 2859 2859 2859 2859 2835 2835 2859 2859 2859 2859 2859 2883 2883 2883 2859 2859 2859 2859 2859 2859 2859 2859 2859 2883 2883 2883 2883 2883 2883 2116 2116 2129 2129 2143 2143 2143 2143 2143 2143 2143 2156 2198 2984 2984 2984 3010 3010 3010 3010 2984 2958 2933 2933 2933 2933 2933 2933 2933 2933 2908 2908 2933 2933 2933 2933 2933 2933 2933 2933 2933 2933 2933 2933 2933 2933 2933 2933 2958 2958 2958 2958 2933 2933 2933 2933 2958 2958 2958 2958 2958 3010 2984 2984 3010 3010 3010 3037 3037 3037 3037 3037 3037 3037 3064 3064 2170 2170 2184 2184 2198 2198 2198 2198 2212 2226 2933 2958 2958 2958 2984 2984 2984 2958 2958 2958 2958 2958 2958 2958 2958 2958 2958 2958 2958 2958 2958 2958 2958 2958 2958 2984 2984 2984 2984 2984 2984 2984 3010 3010 3010 3010 3037 3037 3037 3037 3037 3037 3010 3010 3010 0 0 0 0 0 0 0 0 0 0 0 0 0 0 0 2212 2212 2226 2226 2226 2226 2226 2241 2241 2256 0 0 0 0 0 0 0 0 0 0 0 0 0 0 0 0 0 0 0 0 0 0 0 0 0 0 0 0 0 0 0 0 0 0 0 0 0 0 0 0 0 0 0 0 0 0 0 0 0 0 0 0 0 0 0 0 0 0 0 0 2241 2241 2241 2256 2271 2271 2271 2271 2271 2271 2271 2271 2271 5374 5291 5291 5210 5210 5210 5210 5210 5132 5132 5132 5132 5132 5132 5132 5132 5132 5132 5056 5056 5056 5056 5056 5056 4983 4983 4983 4983 4983 4983 4911 4911 4911 4911 4911 4983 4983 4983 4911 4911 4983 4983 4983 4911 4911 4983 4983 5132 5132 5210 5291 5374 5374 5374 5374 5460 5460 0 0 0 0 0 0 0 0 0 0 0 0 0 0 0 0 0 0 0 0 0 0 0 0 0 0 0 0 0 0 0 0 0 0 0 0 3994 3948 3948 3994 3994 3948 3948 3948 3948 3948 3948 3948 3994 3948 3948 3948 3948 3948 3903 3903 3903 3903 3903 3948 3948 3948 3948 3994 3994 3994 3948 3948 3948 3948 3903 3903 3903 3903 3903 3903 3903 3903 3903 3903 3816 3653 3576 3576 3576 3539 3539 3539 3539 3539 3539 3539 3539 3539 3539 3539 3539 3539 3539 3576 3614 3614 4645 4645 4708 4708 4708 4708 4708 4708 4708 4708 4708 4708 4708 4708 4774 4774 4774 4774 4774 4774 4774 4774 2812 2812 2812 2812 2812 2812 2812 2812 2812 2812 2812 2812 2812 2812 2812 2812 2812 2812 2812 2812 2789 2789 2789 2789 2789 2789 2812 2812 2789 2789 2789 2767 2767 2767 2767 2767 2767 2767 2744 2744 2744 2744 2744 2744 2744 2744 2744 2744 2744 2744 2744 2744 3399 3365 3365 3365 3365 3365 3365 3365 3365 3365 3365 2723 2723 2723 2723 2723 2723 2723 2723 2723 2723 2723 2723 2744 4645 4645 0 0 0 0 0 0 0 0 0 0 0 0 0
0 0 0 0 0 0 0 0 0 0 0 0 0 0 0 0 0 0 0 0 0 0 0 0 0 0 0 0 0 0 4911 4842 4842 4842 4522 4522 4522 4582 4582 4582 4582 4582 4582 4582 4645 4708 4774 4911 4911 4911 4911 4842 4842 4842 4842 4911 4911 4911 4911 4911 4911 4842 4842 4842 4842 4911 5056 5056 4983 4983 4842 4842 4842 4774 4774 4842 4842 4842 4842 4842 4842 4842 4842 4911 4842 4842 4842 4842 4911 4911 4911 4983 5056 5056 5056 0 5056 0 0 0 2859 2859 2859 2859 2859 2859 2859 2859 2859 2859 2835 2835 2859 2859 2859 2859 2859 2859 2859 2859 2883 2883 2883 2883 2859 2859 2859 2859 2859 2859 2859 2859 2859 2883 2859 2859 2859 2883 2883 2116 2116 2116 2129 2143 2143 2143 2143 2143 2129 2129 2156 2198 2984 2984 3010 3037 3037 3037 3037 3010 2958 2933 2933 2933 2933 2933 2908 2908 2908 2908 2908 2933 2933 2933 2933 2933 2933 2933 2933 2933 2958 2933 2933 2933 2933 2933 2933 2933 2933 2958 2958 2933 2933 2933 2933 2958 2958 2958 2958 2958 3010 3010 3037 3037 3037 3037 3037 3037 3037 3037 3037 3037 3037 3037 3037 2184 2184 2198 2198 2198 2198 2198 2212 2198 2198 2958 2958 2958 2958 2984 2984 2984 2958 2958 2958 2958 2958 2958 2958 2958 2958 2958 2958 2958 2958 2958 2958 2958 2958 2958 2984 3010 2984 2984 2984 3010 3010 3010 3010 3010 3037 3037 3037 3037 3037 3064 3064 3010 3010 0 0 0 0 0 0 0 0 0 0 0 0 0 0 0 0 2212 2212 2226 2226 2226 2226 2226 2241 2241 2256 2256 0 0 0 0 0 0 0 0 0 0 0 0 0 0 0 0 0 0 0 0 0 0 0 0 0 0 0 0 0 0 0 0 0 0 0 0 0 0 0 0 0 0 0 0 0 0 0 0 0 0 0 0 0 0 0 0 0 0 0 2241 2241 2241 2256 2271 2271 2271 2271 2271 2271 2271 2286 2286 5291 5291 5210 5210 5210 5210 5210 5210 5210 5210 5132 5132 5132 5210 5210 5132 5132 5132 5056 5056 5056 5056 5056 5056 4983 4983 4983 4983 4983 4983 4983 4911 4911 4911 4911 4911 4983 4983 4911 4911 4983 4983 4983 4911 4911 4983 4983 5132 5132 5210 5291 5374 5374 5374 5374 5460 0 0 0 0 0 0 0 0 0 0 0 0 0 0 0 0 0 0 0 0 0 0 0 0 0 0 0 0 0 0 0 0 0 0 0 0 0 0 3948 3948 3994 3994 3948 3948 3948 3948 3903 3903 3903 3948 3948 3903 3903 3948 3948 3903 3903 3903 3903 3903 3903 3903 3903 3903 3903 3948 3948 3948 3948 3948 3948 3903 3903 3903 3903 3903 3903 3903 3903 3903 3903 3774 3692 3576 3576 3576 3539 3539 3539 3539 3539 3539 3539 3539 3539 3539 3539 3539 3539 3576 3576 3614 3732 3732 4708 4708 4708 4774 4774 4774 4774 4708 4708 4708 4708 4708 4708 4774 4774 4774 4774 4774 4774 4774 4774 2812 2812 2812 2812 2789 2789 2812 2812 2812 2812 2812 2812 2812 2812 2812 2812 2812 2812 2812 2812 2812 2812 2789 2789 2812 2812 2812 2812 2812 2789 2789 2789 2767 2767 2767 2767 2767 2767 2767 2744 2744 2744 2744 2744 2744 2744 2744 2744 2744 2744 2744 3399 3399 3399 3365 3365 3365 3365 3365 3365 3365 3365 2723 2723 2723 2723 2723 2723 2723 2723 2723 2723 2723 2723 2723 4645 4645 4645 0 0 0 0 0 0 0 0 0 0 0 0 0
0 0 0 0 0 0 0 0 0 0 0 0 0 0 0 0 0 0 0 0 0 0 0 0 0 0 0 0 0 0 4911 4842 4842 4842 4522 4522 4522 4582 4582 4582 4582 4582 4582 4582 4582 4645 4708 4911 4842 4842 4911 4842 4842 4842 4842 4911 4911 4842 4842 4842 4911 4842 4842 4774 4774 4911 5056 5056 4842 4842 4842 4774 4774 4774 4774 4774 4842 4842 4842 4842 4842 4842 4842 4842 4842 4842 4842 4842 4842 4911 4911 4911 4983 5056 5056 0 0 0 0 2859 2859 2859 2859 2859 2859 2859 2859 2859 2859 2859 2835 2835 2859 2859 2859 2883 2883 2883 2883 2883 2883 2883 2883 2883 2859 2859 2859 2859 2859 2859 2859 2859 2859 2883 2859 2859 2859 2883 2883 2116 2116 2116 2129 2143 2143 2143 2143 2129 2129 2129 2143 2184 2984 3010 3010 3037 3037 3037 3037 3010 2958 2933 2933 2933 2933 2933 2908 2908 2908 2908 2908 2908 2908 2933 2958 2958 2958 2958 2958 2958 2958 2958 2958 2933 2908 2908 2908 2908 2933 2958 2958 2933 2933 2958 2958 2958 3010 3010 3010 3010 3010 3037 3037 3037 3037 3037 3037 3037 3037 3037 3064 3064 3037 3037 3037 2184 2184 2198 2198 2198 2198 2198 2198 2198 2198 2933 2958 2958 2958 2984 2984 2984 2984 2984 2958 2958 2958 2958 2958 2958 2958 2958 2958 2958 2958 2958 2958 2984 2984 2984 2984 3010 2984 2984 2984 3010 3010 3010 3010 3010 3037 3037 3037 3064 3064 3064 3064 3064 3064 0 0 0 0 0 0 0 0 0 0 0 0 0 0 0 0 2226 2226 2226 2226 2226 2241 2241 2241 2241 2241 2256 0 0 0 0 0 0 0 0 0 0 0 0 0 0 0 0 0 0 0 0 0 0 0 0 0 0 0 0 0 0 0 0 0 0 0 2286 2271 2271 2271 0 0 0 0 0 0 0 0 0 0 0 0 0 0 0 0 0 0 0 0 2271 2256 2256 2271 2271 2271 2271 2271 2271 2271 2271 2286 5291 5291 5291 5210 5210 5210 5210 5210 5210 5210 5210 5210 5210 5210 5210 5210 5132 5132 5132 5132 5132 5056 5056 5056 5056 5056 5056 5056 5056 4983 4983 4983 4983 4911 4911 4911 4911 4983 4911 4911 4911 4911 4983 4983 4911 4911 4983 5056 5132 5210 5291 5291 5374 5374 5374 5374 5460 0 0 0 0 0 0 0 0 0 0 0 0 0 0 0 0 0 0 0 0 0 0 0 0 0 0 0 0 0 0 0 0 0 0 0 0 0 0 3948 3948 3994 0 0 3948 3948 3948 3903 3903 3903 3948 3948 3903 3903 3948 0 3903 3903 3903 3859 3816 3816 3816 3859 3816 3816 3859 3859 3859 3859 3859 3859 3859 3859 3859 3903 3859 3859 3859 3859 3859 3859 3732 3653 3614 3576 3576 3576 3539 3539 3576 3576 3539 3539 3539 3539 3539 3576 3576 3576 3576 3614 3653 3732 3774 3816 4774 4774 4774 4774 4774 4774 4774 4708 4708 4708 4708 4708 4774 4774 4774 4774 4774 4708 4708 4708 2812 2812 2812 2812 2789 2789 2812 2812 2812 2812 2812 2812 2812 2835 2835 2812 2812 2812 2812 2812 2812 2812 2812 2812 2812 2812 2812 2812 0 2767 2767 2767 2767 2767 2767 2767 2789 2789 2767 2744 2744 2744 2744 2744 2744 2744 2744 2744 2744 2744 3365 3399 3399 3399 3365 3365 3365 3365 3365 3365 3365 3399 2723 2723 2744 2744 2744 2744 2744 2723 2723 2723 2723 2723 2723 4645 4645 4645 0 0 0 0 0 0 0 0 0 0 0 0 0
0 0 0 0 0 0 0 0 0 0 0 0 0 0 0 0 0 0 0 0 0 0 0 0 0 0 0 0 0 0 0 4774 4708 4708 4645 4582 4582 4582 4582 4582 4582 4582 4582 4582 4582 4645 4645 4842 4842 4842 4842 4842 4774 4774 4842 4911 4842 4842 4774 4774 4842 4842 4842 4708 4708 4842 4842 4774 4774 4774 4774 4774 4774 4708 4708 4774 4842 4842 4842 4842 4842 4842 4842 4842 4842 4842 4842 4842 4842 4842 4911 4911 4983 5056 5056 0 5056 0 0 2859 2859 2859 2859 2859 2859 2859 2859 2859 2859 2859 2859 2859 2859 2859 2859 2883 2883 2883 2883 2883 2883 2883 2883 2883 2883 2859 2859 2859 2859 2859 2859 2883 2883 2883 2883 2859 2859 2883 2883 2116 2116 2116 2129 2143 2143 2129 2129 2129 2129 2129 2143 2184 3010 3037 3037 3037 3037 3037 3064 3064 2984 2958 2129 2129 2143 2908 2908 2883 2883 2883 2184 2170 2170 2933 2958 2958 2170 2170 2984 2984 2170 2170 2170 2184 2908 2908 2212 2212 2908 2958 2198 2198 2198 2958 2958 3010 2198 2198 2198 2198 2198 2198 3037 3010 3010 3010 3010 3037 3037 3037 3037 3064 3064 3064 2198 2184 2184 2198 2198 2198 2198 2198 2198 2198 2198 2933 2958 2958 2958 2984 2984 2984 2984 2984 2984 2958 2958 2958 2958 2958 2958 2958 2958 2958 2958 2958 2984 2984 2984 2984 3010 3010 3010 3010 3010 3010 3010 3010 3010 3010 3037 3037 3037 3064 3064 3064 3064 3064 3064 0 0 0 0 0 0 0 0 0 0 0 0 0 0 0 0 2226 2226 2226 2226 2226 2241 2241 2241 2241 2241 2241 2256 2256 0 0 0 0 0 0 0 0 0 0 0 0 2241 2241 2241 2241 2241 2241 2241 2241 0 0 0 0 0 0 0 0 0 0 0 0 2286 2286 2271 2271 2271 2286 2286 2286 0 0 2271 2271 0 0 0 0 2271 2271 0 0 0 0 0 0 0 2271 2271 2271 2271 2271 2271 2271 2271 2271 2271 2286 5374 5291 5291 5210 5210 5210 5210 5210 5210 5210 5210 5210 5210 5210 5210 5132 5132 5132 5132 5132 5132 5132 5132 5056 5056 5056 5056 5056 5056 5056 4983 4983 4983 4983 4911 4911 4911 4911 4983 4911 4911 4911 4911 4983 4983 4911 4911 4983 5056 5132 5210 5291 5291 5374 5374 5374 5374 5460 0 0 0 0 0 0 0 0 0 0 0 0 0 0 0 0 0 0 0 0 0 0 0 0 0 0 0 0 0 0 0 0 0 0 0 0 0 0 0 0 0 0 0 0 0 0 3903 3903 0 0 0 0 0 0 0 3903 3903 3903 3774 3774 3774 3774 3774 3774 3774 3774 3816 3816 3816 3816 3859 3859 3859 3859 3859 3859 3816 3816 3816 3774 3732 3692 3614 3576 3576 3576 3576 3539 3539 3576 3576 3576 3576 3576 3539 3539 3576 3576 3576 3614 3653 3692 3774 3774 3816 3816 3816 4774 4774 4774 4774 4774 4708 4708 4708 4708 4708 4774 4774 4774 4774 4708 4708 4708 4708 2835 2812 2812 2812 2789 2789 2812 2812 2812 2812 2812 2812 2812 2835 2835 2835 2835 2835 2835 2835 2835 2812 2812 2812 2812 2812 2812 2812 0 2767 2767 2767 2767 2767 2767 2767 2789 2789 2767 2767 2767 2767 2744 2744 2744 2744 2744 2744 2744 3365 3365 3399 3399 3365 3365 3365 3365 3365 3365 3365 3365 3365 2744 2744 2744 2744 2744 2744 2744 2744 2744 2744 2744 2744 2744 4708 4708 4708 0 0 0 0 0 0 0 0 0 0 0 0 0
0 0 0 0 0 0 0 0 0 0 0 0 0 0 0 0 0 0 0 0 0 0 0 0 0 0 0 0 0 0 4842 4774 4708 4708 4645 4645 4582 4582 4645 4582 4582 4582 4582 4582 4582 4645 4645 4774 4774 4774 4774 4774 4774 4774 4842 4842 4842 4842 4645 4645 4708 4774 4774 4645 4645 4774 4774 4645 4645 4774 4774 4774 4774 4708 4708 4774 4774 4842 4842 4842 4911 4842 4842 4842 4842 4842 4842 4842 4842 4842 4842 4911 4983 5056 5056 5056 5056 0 0 0 2859 2859 2859 2859 2859 2859 2859 2859 2859 2859 2859 2859 2859 2859 2859 2883 2883 2883 2883 2883 2883 2883 2883 2883 2859 2859 2859 2859 2859 2859 2883 2883 2883 2908 2883 2859 2859 2883 2883 2116 2116 2116 2129 2143 2143 2129 2129 2129 2129 2129 2143 2156 3037 3037 3037 3064 3064 3064 2116 2116 2116 2129 2129 2129 2143 2143 2143 2143 2143 2143 2143 2143 2143 2143 2143 2143 2143 2170 2170 2170 2170 2170 2170 2184 2184 2198 2198 2198 2198 2198 2198 2198 2198 2198 2198 2198 2198 2198 2198 2198 2198 2198 2184 2184 2184 3010 3010 3010 3037 3037 3037 3064 3064 3064 2198 2198 2198 2198 2198 2198 2198 2198 2212 2198 2198 2212 2958 2958 2958 2958 2984 2984 2984 2984 2984 2984 2984 2984 2984 2958 2958 2958 2958 2958 2958 2958 2958 2958 2984 2984 3010 3010 3010 3010 3010 3010 3010 3010 3037 3037 3037 3037 3037 3064 3064 3064 3064 3064 3064 0 0 0 0 0 0 0 0 0 0 0 0 0 0 0 0 2226 2226 2226 2226 2226 2241 2241 2241 2241 2241 2241 2241 2241 2256 0 0 2301 2301 0 0 0 0 0 2256 2256 2241 2241 2241 2241 2241 2241 2241 2241 2256 2256 2256 2271 2271 2271 2271 2271 2271 2271 2256 2256 2256 2271 2271 2271 2271 2271 2271 2271 2271 2271 2271 2271 2286 2271 2271 2271 2271 2256 2256 2271 2271 2271 2271 2256 2256 2256 2271 2271 2271 2271 2271 2271 2271 2271 2271 2286 2286 5210 5210 5210 5210 5210 5210 5210 5210 5210 5210 5210 5210 5210 5210 5132 5132 5132 5132 5132 5132 5132 5132 5132 5132 5056 5056 5056 5056 5056 5056 5056 4983 4983 4983 4911 4911 4911 4983 4911 4911 4911 4983 4983 4983 4911 4911 4983 5056 5132 5210 5291 5291 5374 5374 5374 5460 5460 0 0 0 0 0 0 0 0 0 0 0 0 0 0 0 0 0 0 0 0 0 0 0 0 0 0 0 0 0 0 0 0 0 0 0 0 0 0 0 0 0 0 0 0 0 0 0 0 0 0 0 0 0 0 0 0 0 0 3774 3774 3774 3774 3774 3774 3774 3774 3774 3774 3774 3774 3816 3816 3816 3816 3859 3816 3816 3816 3774 3774 3692 3653 3614 3576 3576 3576 3576 3539 3539 3576 3576 3539 3539 3576 3539 3539 3576 3576 3614 3653 3692 3732 3774 3816 3816 3816 3816 3816 3859 4774 4708 4708 4708 4708 4708 4708 4708 4774 4774 4774 4774 4708 4708 4708 4708 2859 2859 2835 2835 2812 2812 2812 2812 2835 2835 2835 2835 2835 2835 2835 2835 2835 2835 2835 2835 2835 2812 2812 2812 2812 2812 2812 2812 2812 2812 2767 2767 2767 2767 2789 2789 2789 2789 2789 2767 2767 2767 2744 2744 2744 2744 2744 3399 3399 3399 3399 3399 3399 3365 3365 3365 3365 3365 3365 3365 3365 3365 2744 2744 2744 2744 2744 2744 2744 2744 2744 2744 2744 2744 4645 4645 4645 4645 0 0 0 0 0 0 0 0 0 0 0 0 0
0 0 0 0 0 0 0 0 0 0 0 0 0 0 0 0 0 0 0 0 0 0 0 0 0 0 0 0 0 0 4842 4774 4708 4708 4708 4708 4645 4645 4645 4582 4582 4582 4582 4582 4582 4645 4645 4645 4708 4774 4774 4774 4774 4774 4842 0 0 0 4645 4645 4708 4708 4708 4645 4645 4708 4774 4582 4582 4774 4774 4774 4774 4708 4708 4774 4774 4842 4842 4842 4911 4842 4842 4842 4774 4774 4774 4774 4842 4842 4842 4842 4983 5056 5056 5056 5056 4911 4774 0 2859 2859 2883 2883 2883 2883 2859 2859 2859 2859 2859 2859 2859 2859 2859 2883 2883 2883 2883 2883 2883 2883 2883 2883 2859 2859 2859 2859 2859 2859 2883 2883 2883 2908 2883 2883 2883 2883 2883 2116 2116 2129 2129 2143 2143 2143 2143 2143 2143 2143 2143 2143 2143 2143 3037 2143 2129 2129 2116 2116 2116 2129 2129 2143 2143 2143 2143 2143 2143 2143 2143 2143 2143 2143 2143 2143 2143 2170 2170 2170 2170 2184 2184 2184 2184 2184 2184 2184 2184 2184 2198 2184 2184 2184 2198 2198 2198 2198 2198 2198 2198 2198 2184 2184 2184 2184 2198 2198 3010 3037 3037 3064 2198 2198 2198 2198 2198 2198 2198 2198 2198 2198 2198 2198 2198 2212 2958 2958 2958 2958 2984 2984 2984 2984 2984 2984 2984 2984 2984 2958 2958 2958 2958 2958 2958 2958 2958 2958 2984 2984 3010 3010 3010 3010 3010 3010 3010 3010 3037 3037 3037 3037 3037 3064 3064 3064 3092 3092 3092 0 0 0 0 0 0 0 0 0 0 0 0 0 0 0 0 2226 2226 2226 2226 2226 2241 2241 2241 2241 2241 2241 2241 2241 2256 2271 2286 2286 2286 2286 2271 2271 2256 2256 2256 2256 2256 2241 2241 2241 2241 2241 2241 2241 2256 2256 2256 2256 2256 2271 2271 2271 2271 2271 2256 2256 2256 2256 2256 2256 2256 2271 2271 2271 2271 2271 2271 2271 2271 2271 2271 2271 2271 2256 2256 2271 2271 2271 2271 2256 2256 2256 2271 2271 2271 2271 2271 2271 2271 2271 2271 2286 2286 5210 5210 5210 5210 5210 5210 5210 5210 5210 5210 5210 5210 5210 5210 5210 5210 5132 5132 5210 5132 5132 5132 5132 5132 5056 5056 5056 5056 5056 5056 5056 4983 4983 4983 4911 4911 4911 4983 4983 4911 4911 4983 4983 4983 4983 4983 5056 5056 5132 5210 5291 5291 5374 5374 5460 5460 5460 0 0 0 0 0 0 0 0 0 0 0 0 0 0 0 0 0 0 0 0 0 0 0 0 0 0 0 0 0 0 0 0 0 0 0 0 0 0 0 0 0 0 0 0 0 0 0 0 0 0 0 0 0 0 0 0 0 0 3816 3774 3774 3774 3774 3732 3732 3774 3774 3774 3774 3774 3774 3774 3816 3816 3816 3774 3774 3774 3732 3732 3692 3653 3614 3576 3576 3576 3576 3539 3539 3576 3576 3539 3539 3576 3539 3539 3576 3576 3614 3653 3692 3732 3774 3774 3816 3816 3816 3816 3816 3816 4708 4708 4708 4708 4708 4708 4708 4708 4774 4774 4774 4708 4708 4708 4708 2859 2859 2859 2835 2835 2835 2835 2835 2835 2835 2835 2835 2835 2835 2835 2835 2835 2835 2835 2835 2835 2812 2812 2812 2812 2812 2812 2812 0 0 0 2789 2789 2789 2789 2789 2789 2812 2789 2767 2767 2767 2744 2744 2744 2744 3399 3399 3399 3399 3399 3399 3399 3365 3365 3365 3365 3365 3365 3365 3365 3365 2744 2744 2744 2744 2744 2767 2767 2767 2767 2789 2835 2835 4645 4645 4645 4645 0 0 0 0 0 0 0 0 0 0 0 0 0
0 0 0 0 0 0 0 0 0 0 0 0 0 0 0 0 0 0 0 0 0 0 0 0 0 0 0 0 0 0 4842 4774 4708 4708 4708 4708 4645 4645 4645 4645 4645 4582 4582 4645 4645 4645 4645 4645 4708 4774 4774 4774 4774 4774 0 0 0 0 4645 4645 4774 4708 4708 4645 4645 4708 4708 4582 4582 4582 4708 4708 4708 4645 4645 4774 4774 4774 4842 4842 4842 4842 4774 4774 4774 4774 4774 4774 4774 4842 4842 4842 4983 5056 5132 4911 4911 4911 4774 4774 4774 2883 2883 2883 2883 2883 2859 2859 2859 2859 2859 2859 2859 2859 2859 2883 2883 2908 2883 2883 2883 2883 2883 2883 2859 2859 2883 2883 2883 2883 2883 2883 2883 2908 2883 2859 2859 2883 2116 2116 2116 2129 2129 2143 2143 2143 2143 2143 2143 2143 2143 2143 2143 2129 2129 2143 2129 2129 2129 2129 2129 2129 2129 2143 2143 2143 2156 2143 2143 2143 2143 2143 2143 2143 2143 2143 2156 2170 2170 2170 2184 2184 2184 2184 2184 2184 2184 2184 2184 2184 2184 2184 2184 2184 2184 2198 2184 2184 2198 2198 2198 2184 2184 2184 2184 2184 2184 2198 2198 2198 2198 2198 2198 2198 2198 2198 2198 2198 2198 2198 2198 2198 2198 2198 2198 2212 2958 2958 2958 2958 2984 2984 2984 2984 2984 2984 2984 2984 2984 2958 2958 2958 2958 2958 2958 2958 2984 2984 2984 2984 3010 3010 3010 3010 3010 3010 3010 3037 3037 3037 3037 3037 3037 3064 3064 3092 3092 3092 3092 3120 0 0 0 0 0 0 0 0 0 0 0 0 0 0 2226 2226 2226 2226 2226 2226 2241 2241 2241 2241 2241 2241 2241 2241 2256 2256 2256 2256 2256 2256 2256 2256 2256 2256 2256 2256 2256 2256 2256 2256 2241 2241 2241 2256 2256 2256 2256 2256 2256 2271 2271 2271 2271 2271 2256 2256 2256 2256 2256 2256 2256 2271 2271 2271 2271 2271 2271 2271 2271 2271 2271 2271 2271 2271 2271 2271 2271 2271 2271 2271 2271 2271 2271 2271 2271 2271 2271 2271 2271 2271 2286 2286 2301 5210 5210 5210 5210 5210 5210 5210 5291 5210 5210 5210 5210 5210 5210 5210 5210 5210 5210 5210 5210 5132 5132 5132 5132 5132 5056 5056 5132 5056 5056 5056 5056 5056 4983 4911 4911 4911 4983 4983 4983 4983 4983 4983 4983 4983 4983 5056 5132 5132 5210 5291 5291 5374 5374 5460 5460 0 0 0 0 0 0 0 0 0 0 0 0 0 0 0 0 0 0 0 0 0 0 0 0 0 0 0 0 0 0 0 0 0 0 0 0 0 0 0 0 0 0 0 0 0 0 0 0 0 0 0 0 0 0 0 0 0 0 0 0 3774 3774 3774 3774 3732 3732 3774 3774 3774 3774 3774 3774 3774 3774 3774 3816 3774 3774 3732 3732 3732 3692 3653 3614 3576 3576 3576 3576 3539 3539 3576 3576 3539 3539 3576 3576 3576 3576 3576 3614 3653 3692 3732 3774 3774 3816 3816 3816 3816 3816 3816 4708 4708 4708 4708 4708 4708 4708 4708 4774 4774 4774 4708 4708 4774 2883 2859 2859 2859 2835 2835 2835 2835 2835 2835 2835 2835 2835 2835 2835 2835 2835 2835 2835 2835 2835 2835 2835 2812 2812 2812 2812 2812 2812 0 0 0 2789 2789 2789 2789 2789 2789 2812 2789 2789 2789 2767 2744 2744 2744 2744 3399 3399 3399 3399 3399 3399 3399 3399 3365 3365 3365 3365 3365 3365 3365 3399 2744 2744 2744 2744 2744 2767 2767 2767 2789 2789 2835 4645 4645 4645 4645 4645 0 0 0 0 0 0 0 0 0 0 0 0 0
0 0 0 0 0 0 0 0 0 0 0 0 0 0 0 0 0 0 0 0 0 0 0 0 0 0 0 0 0 0 4774 4774 4774 4774 4774 4774 4708 4708 4708 4645 4645 4645 4645 4645 4645 4645 4645 4645 4645 0 0 0 0 0 0 0 0 0 0 4842 4842 4842 4842 4708 4708 4645 4645 4582 4582 4582 4582 4645 4645 4645 4645 4774 4774 4774 4774 4774 4774 4774 4708 4708 4708 4774 4774 4774 4774 4842 4842 4842 4911 4911 5132 4774 4774 4774 4708 4708 4708 2908 2908 2883 2883 2883 2859 2859 2859 2859 2859 2859 2859 2859 2859 2883 2883 2908 2883 2883 2883 2883 2883 2883 2859 2859 2883 2883 2883 2883 2883 2883 2883 2883 2883 2835 2835 2835 2103 2103 2103 2129 2129 2129 2143 2143 2143 2143 2143 2143 2143 2143 2143 2129 2129 2143 2143 2129 2129 2129 2129 2143 2143 2143 2143 2143 2156 2156 2156 2156 2156 2143 2143 2143 2143 2143 2156 2170 2170 2170 2184 2184 2184 2184 2184 2184 2184 2184 2184 2184 2184 2184 2184 2184 2184 2184 2184 2184 2184 2184 2198 2184 2184 2184 2184 2184 2184 2198 2198 2198 2198 2198 2198 2198 2198 2198 2198 2198 2198 2198 2198 2198 2198 2198 2198 2958 2958 2958 2958 2984 2984 2984 2984 2984 2984 2984 2984 2984 2984 2958 2958 2958 2958 2958 2958 2958 2984 2984 2984 3010 3010 3010 3010 3010 3010 3010 3037 3037 3037 3037 3037 3037 3064 3064 3092 3092 3092 3092 3120 3120 0 0 0 0 0 0 0 0 0 0 0 0 0 0 2226 2226 2226 2226 2226 2226 2226 2241 2241 2241 2241 2241 2241 2241 2256 2256 2256 2256 2256 2241 2241 2256 2241 2241 2256 2256 2256 2256 2256 2256 2241 2241 2241 2256 2256 2256 2256 2271 2271 2271 2271 2271 2286 2286 2256 2256 2256 2271 2256 2256 2256 2256 2271 2271 2271 2271 2271 2271 2271 2256 2256 2271 2271 2271 2271 2271 2271 2271 2271 2271 2271 2271 2271 2271 2271 2271 2271 2271 2271 2286 2286 2286 2301 5210 5210 5210 5210 5210 5210 5210 5291 5291 5291 5291 5291 5291 5210 5210 5210 5210 5210 5210 5210 5132 5132 5132 5132 5132 5132 5132 5132 5056 5056 5056 5056 5056 4983 4911 4911 4911 4983 4983 4983 4983 4983 4983 4983 4983 4983 5056 5132 5132 5210 5291 5291 5374 5374 5460 5460 0 0 0 0 0 0 0 0 0 0 0 0 0 0 0 0 0 0 0 0 0 0 0 0 0 0 0 0 0 0 0 0 0 0 0 0 0 0 0 0 0 0 0 0 0 0 0 0 0 0 0 0 0 0 0 0 0 0 0 0 3732 3732 3732 3732 3732 3732 3732 3732 3732 3732 3732 3774 3774 3774 3774 3774 3732 3732 3732 3732 3692 3653 3653 3614 3576 3576 3576 3576 3576 3576 3576 3576 3576 3576 3576 3576 3576 3576 3576 3614 3653 3692 3732 3774 3774 3816 3816 3816 3816 3816 3816 4708 4708 4708 4708 4708 4708 4708 4708 4774 4774 4774 4774 4774 4774 2859 2859 2859 2859 2835 2835 2835 2835 2835 2835 2835 2835 2835 2835 2835 2835 2835 2835 2835 2835 2835 2835 2835 2835 2812 2812 2812 2812 2812 2789 2789 2789 2789 2789 2789 2789 2789 2812 2812 2812 2789 2789 2767 2744 2744 2744 3399 3399 3399 3399 3399 3399 3399 3399 3399 3399 3399 3399 3399 3399 3399 3399 3399 2744 2744 2767 2767 2767 2767 2767 2789 2789 2789 2789 4645 4645 4645 4645 4645 0 0 0 0 0 0 0 0 0 0 0 0 0
0 0 0 0 0 0 0 0 0 0 0 0 0 0 0 0 0 0 0 0 0 0 0 0 0 0 0 0 0 0 4708 4645 4645 4774 4774 4774 4774 4708 4708 4708 4645 4645 4645 4645 4582 4582 4582 4645 4645 4645 0 0 0 0 0 0 0 0 4774 4774 4774 4842 4774 4645 4645 4645 4582 4582 4582 4582 4582 4582 4582 4645 4645 4774 4774 4645 4645 4774 4708 4708 4708 4708 4708 4708 4708 4774 4774 4774 4774 4774 4708 4645 4645 4645 4645 4645 4645 4645 4645 4645 2883 2883 2883 2883 2859 2859 2859 2859 2859 2859 2859 2859 2859 2883 2883 2908 2883 2883 2883 2883 2883 2859 2859 2859 2883 2883 2883 2883 2883 2883 2883 2883 2883 2835 2835 2835 2103 2103 2103 2116 2129 2129 2143 2143 2143 2143 2143 2143 2143 2143 2143 2129 2129 2143 2143 2143 2143 2143 2143 2143 2143 2156 2156 2156 2156 2156 2156 2143 2143 2143 2143 2143 2143 2143 2156 2170 2170 2184 2184 2184 2184 2184 2184 2184 2184 2184 2184 2184 2184 2184 2184 2184 2184 2184 2184 2184 2184 2184 2184 2184 2184 2184 2184 2184 2198 2198 2198 2198 2198 2198 2198 2198 2198 2198 2198 2198 2198 2198 2198 2198 2198 2198 2198 2958 2984 2984 2984 2984 2984 2984 2984 2984 2984 2984 2984 3010 2984 2958 2958 2958 2958 2958 2958 2958 2984 2984 2984 3010 3010 3010 3010 3010 3010 3010 3037 3037 3037 3037 3037 3037 3037 3064 3064 3092 3092 3120 3120 3120 0 0 0 0 0 0 0 0 0 0 0 0 0 0 2241 2226 2226 2226 2226 2226 2226 2241 2241 2241 2241 2241 2241 2241 2241 2241 2241 2241 2241 2241 2241 2256 2241 2241 2256 2256 2256 2256 2256 2256 2256 2256 2256 2256 2256 2256 2256 2271 2271 2271 2271 2271 2286 2286 2271 2271 2271 2271 2256 2256 2256 2256 2271 2271 2271 2271 2271 2271 2256 2256 2256 2271 2271 2271 2271 2271 2271 2271 2271 2271 2271 2271 2271 2271 2271 2271 2271 2271 2271 2286 2286 2286 2301 2301 5291 5291 5291 5291 5291 5291 5291 5291 5291 5291 5291 5291 5210 5210 5210 5210 5210 5210 5132 5132 5132 5132 5132 5132 5132 5132 5132 5132 5056 5056 5056 5056 4983 4911 4911 4911 4983 4983 4983 4983 4983 4983 4983 4983 4983 5056 5056 5132 5132 5210 5291 5291 5374 5460 0 0 0 0 0 0 0 0 0 0 0 0 0 0 0 0 0 0 0 0 0 0 0 0 0 0 0 0 0 0 0 0 0 0 0 0 0 0 0 0 0 0 0 0 0 0 0 0 0 0 0 0 0 0 0 0 0 0 0 0 0 3732 3732 3732 3732 3732 3732 3732 3732 3732 3732 3732 3732 3774 3774 3774 3774 3732 3732 3732 3732 3692 3653 3653 3614 3576 3576 3576 3576 3576 3576 3576 3576 3576 3576 3576 3576 3576 3576 3576 3653 3692 3692 3732 3774 3774 3816 3816 3816 3816 3816 3816 4708 4708 4708 4708 4708 4708 4708 4708 4774 4774 4774 4774 4774 2883 2859 2859 2859 2859 2835 2835 2835 2835 2835 2835 2835 2835 2859 2859 2835 2835 2835 2835 2835 2835 2835 2812 2812 2835 2812 2812 2812 2835 2812 2789 2789 2789 2789 2789 2789 2812 2812 2812 2812 2812 2789 2789 2767 2744 2744 3399 3399 3399 3399 3399 3399 3399 3399 3399 3399 3399 3365 3365 3399 3399 3399 2789 2789 2767 2767 2767 2767 2767 2789 2789 2789 2789 2789 4582 4582 4645 4645 4645 4645 0 0 0 0 0 0 0 0 0 0 0 0 0
0 0 0 0 0 0 0 0 0 0 0 0 0 0 0 0 0 0 0 0 0 0 0 0 0 0 0 0 0 0 4708 4645 4645 4708 4708 4774 4774 4708 4708 4708 4645 4645 4582 4582 4582 4582 4582 4582 4522 4522 4522 0 0 0 0 0 0 0 0 4774 4774 4774 4774 4645 4645 4582 4582 4582 4582 4582 4582 4582 4582 4645 4645 4708 4708 4645 4645 4645 4645 4645 4645 4645 4645 4645 4708 4708 4708 4708 4708 4774 4645 4645 4582 4582 4582 4645 4645 4582 4582 4582 4582 2908 2908 2883 2883 2883 2883 2859 2859 2883 2883 2883 2883 2883 2883 2883 2883 2883 2883 2883 2883 2859 2859 2859 2883 2883 2883 2883 2883 2883 2908 2908 2908 2908 2908 2908 2103 2103 2103 2116 2129 2129 2143 2143 2143 2143 2143 2143 2143 2143 2143 2143 2143 2143 2143 2143 2143 2143 2143 2143 2143 2156 2156 2156 2156 2156 2156 2143 2143 2143 2143 2143 2143 2156 2156 2170 2170 2184 2184 2184 2184 2184 2184 2184 2184 2184 2184 2184 2184 2184 2184 2184 2184 2184 2184 2184 2184 2184 2184 2184 2184 2184 2184 2184 2198 2198 2198 2198 2198 2198 2198 2198 2198 2198 2198 2198 2198 2198 2198 2198 2198 2198 2198 2958 2984 2984 2984 2984 2984 2984 2984 2984 2984 2984 2984 3010 2984 2958 2958 2958 2958 2958 2958 2958 2984 2984 2984 3010 3010 3010 3010 3010 3010 3010 3010 3037 3037 3037 3037 3037 3037 3064 3064 3092 3092 3120 3120 3120 3149 0 0 0 0 0 0 0 0 0 0 0 0 0 2241 2241 2241 2241 2241 2241 2241 2241 2241 2241 2241 2241 2241 2241 2241 2241 2241 2241 2241 2256 2256 2256 2256 2256 2256 2256 2256 2256 2256 2256 2256 2256 2256 2271 2271 2271 2271 2271 2271 2286 2286 2286 2286 2286 2271 2271 2271 2271 2271 2256 2256 2271 2271 2271 2271 2271 2271 2271 2256 2256 2271 2271 2271 2271 2271 2271 2271 2271 2271 2271 2271 2271 2271 2271 2271 2271 2271 2271 2271 2271 2286 2286 2286 5210 5210 5210 5291 5291 5291 5291 5291 5291 5291 5291 5291 5291 5210 5210 5210 5210 5210 5210 5132 5132 5132 5132 5132 5132 5132 5132 5132 5132 5056 5056 5056 5056 4983 4911 4911 4983 4983 4983 4983 4983 4983 4983 4983 4983 4983 5056 5056 5132 5132 5210 5291 5291 5460 5548 0 0 0 0 0 0 0 0 0 0 0 0 0 0 0 0 0 0 0 0 0 0 0 0 0 0 0 0 0 0 0 0 0 0 0 0 0 0 0 0 0 0 0 0 0 0 0 0 0 0 0 0 0 0 0 0 0 0 0 0 0 0 3732 3732 3732 3732 3732 3732 3732 3732 3732 3732 3732 3774 3774 3774 3774 3774 3732 3732 3732 3732 3692 3653 3614 3614 3576 3576 3576 3576 3576 3576 3576 3576 3576 3576 3576 3576 3576 3576 3614 3653 3692 3732 3774 3816 3816 3816 3816 3859 3859 3859 4708 4708 4708 4708 4708 4708 4708 4708 4774 4774 4774 4774 2883 2883 2859 2859 2859 2859 2835 2835 2835 2835 2835 2835 2835 2835 2859 2859 2859 2859 2859 2835 2835 2835 2835 2812 2812 2835 2812 2812 2789 2789 2789 2789 2789 2789 2789 2789 2812 2812 2812 2812 2812 2812 2789 2789 2789 2789 2789 3399 3399 3399 3399 3399 3399 3399 3399 3399 3399 3399 3365 3365 3365 3365 2812 2789 2789 2767 2767 2767 2767 2767 2789 2789 2789 2812 2812 4582 4582 4645 4645 4645 4645 0 0 0 0 0 0 0 0 0 0 0 0 0
0 0 0 0 0 0 0 0 0 0 0 0 0 0 0 0 0 0 0 0 0 0 0 0 0 0 0 0 0 0 4645 4645 4645 4645 4645 4708 4708 4645 4645 4645 4645 4645 4582 4582 4582 4522 4522 4522 4522 4522 4522 0 0 0 0 0 0 0 4708 4708 4708 4774 4774 4645 4645 4582 4582 4582 4582 4582 4582 4582 4582 4582 4582 4645 4645 4645 4645 4645 4645 4645 4582 4582 4582 4582 4645 4645 4645 4645 4645 4645 4645 4582 4582 4582 4582 4645 4645 4582 4582 4582 4645 4645 2908 2908 2883 2883 2883 2859 2859 2883 2883 2883 2883 2883 2883 2883 2883 2883 2883 2859 2859 2859 2859 2859 2883 2883 2883 2883 2883 2883 2883 2883 2908 2908 2908 2908 2103 2103 2103 2116 2129 2129 2143 2143 2143 2143 2143 2143 2143 2143 2143 2143 2143 2143 2143 2143 2143 2143 2143 2143 2143 2156 2156 2156 2156 2156 2156 2156 2156 2156 2156 2156 2156 2156 2156 2170 2170 2170 2184 2184 2184 2184 2184 2184 2184 2184 2184 2184 2184 2184 2184 2184 2184 2184 2184 2184 2184 2184 2184 2184 2184 2184 2184 2198 2198 2198 2198 2198 2198 2198 2198 2198 2198 2198 2198 2198 2198 2198 2198 2198 2198 2198 2958 2958 2984 2984 2984 2984 2984 2984 2984 2984 2984 2984 2984 3010 2984 2958 2958 2958 2958 2958 2958 2984 2984 2984 3010 3010 3010 3010 3010 3010 3010 3010 3010 3037 3037 3037 3037 3037 3064 3064 3092 3092 3120 3120 3120 3120 3149 0 0 0 0 0 0 0 0 0 0 0 0 0 2241 2241 2241 2241 2241 2241 2241 2241 2241 2241 2241 2241 2241 2241 2256 2256 2256 2256 2256 2256 2256 2256 2256 2256 2256 2256 2256 2256 2256 2256 2256 2256 2256 2271 2271 2271 2271 2271 2271 2286 2286 2286 2286 2286 2271 2271 2271 2271 2271 2271 2271 2271 2271 2271 2271 2271 2271 2271 2271 2271 2271 2271 2271 2271 2271 2271 2271 2271 2271 2271 2271 2271 2271 2271 2271 2271 2271 2271 2271 2271 2286 2286 2286 5210 5210 5210 5291 5291 5291 5291 5291 5291 5291 5291 5291 5291 5210 5210 5210 5210 5210 5210 5210 5210 5210 5132 5132 5132 5132 5132 5132 5132 5056 5056 5056 5056 4983 4911 4911 4983 4983 4983 4983 4983 4983 4983 5056 5056 5056 5056 5056 5132 5132 5210 5291 5460 5460 5548 0 0 0 0 0 0 0 0 0 0 0 0 0 0 0 0 0 0 0 0 0 0 0 0 0 0 0 0 0 0 0 0 0 0 0 0 0 0 0 0 0 0 0 0 0 0 0 0 0 0 0 0 0 0 0 0 0 0 0 0 0 0 0 0 0 3732 3732 3732 3732 3732 3732 3732 3732 3732 3732 3774 3774 3774 3732 3732 3732 3732 3692 3653 3614 3614 3576 3576 3576 3576 3576 3576 3576 3576 3576 3576 3576 3576 3576 3576 3614 3653 3732 3774 3816 3816 3816 3816 3816 3859 3859 4708 4708 4708 4708 4708 4708 4708 4708 4774 4774 4774 4774 4774 2859 2859 2859 2859 2859 2859 2859 2835 2835 2835 2835 2835 2859 2859 2859 2859 2859 2859 2859 2835 2835 2835 2835 2835 2835 2835 2835 2812 2789 2789 2789 2789 2789 2789 2789 2812 2812 2812 2835 2812 2812 2812 2789 2789 2789 2789 2789 2789 3399 3399 3399 3399 3399 3399 3399 3399 3399 3399 3365 3365 3365 3365 2812 2789 2789 2789 2789 2789 2789 2789 2789 2789 2789 2789 4708 4645 4645 4645 4645 4645 4645 0 0 0 0 0 0 0 0 0 0 0 0 0
0 0 0 0 0 0 0 0 0 0 0 0 0 0 0 0 0 0 0 0 0 0 0 0 0 0 0 0 0 0 4645 4645 4645 4645 4645 4645 4645 4645 4645 4645 4582 4582 4522 4522 4582 4522 4522 4522 4522 4522 0 0 0 0 0 0 0 4645 4645 4645 4708 4774 4774 4645 4582 4582 4582 4582 4582 4582 4582 4582 4582 4582 4582 4645 4582 4582 4582 4582 4582 4582 4582 4582 4582 4582 4645 4645 4645 4582 4582 4645 4582 4582 4582 4582 4582 4582 4645 4582 4582 4645 4645 4645 2883 2883 2883 2883 2883 2883 2883 2883 2883 2883 2883 2883 2883 2883 2883 2883 2883 2859 2859 2883 2859 2859 2883 2883 2883 2883 2883 2883 2883 2883 2908 2908 2908 2908 2103 2103 2103 2116 2129 2129 2143 2143 2143 2143 2143 2143 2143 2143 2143 2129 2129 2143 2143 2143 2143 2143 2143 2143 2143 2143 2143 2156 2156 2156 2156 2156 2156 2156 2156 2156 2156 2156 2156 2170 2170 2170 2184 2184 2184 2184 2184 2184 2184 2184 2184 2184 2184 2184 2184 2184 2184 2184 2184 2184 2198 2198 2198 2184 2184 2184 2198 2198 2198 2198 2198 2198 2198 2198 2198 2198 2198 2198 2198 2198 2198 2198 2198 2198 2198 2198 2984 2984 3010 3010 2984 2984 2984 2984 2984 2984 2984 2984 2984 3010 2984 2958 2958 2958 2958 2984 2984 2984 2984 2984 2984 3010 3010 3010 3010 3010 3010 3010 3010 3010 3037 3037 3037 3037 3064 3092 3092 3092 3120 3120 3149 3149 0 0 0 0 0 0 0 0 0 0 0 0 0 2241 2241 2241 2241 2241 2241 2241 2241 2241 2241 2241 2241 2241 2241 2241 2256 2256 2256 2256 2256 2256 2256 2256 2256 2256 2256 2256 2256 2256 2256 2256 2256 2256 2256 2271 2271 2271 2271 2271 2271 2286 2286 2286 2286 2286 2271 2271 2271 2271 2271 2271 2271 2271 2271 2271 2271 2271 2271 2271 2271 2271 2271 2271 2271 2271 2271 2271 2271 2271 2271 2271 2271 2271 2271 2271 2271 2271 2271 2271 2271 2271 2286 2286 2286 5210 5210 5210 5291 5291 5291 5291 5291 5291 5291 5291 5291 5291 5210 5210 5210 5210 5210 5210 5210 5210 5210 5132 5132 5132 5132 5132 5132 5132 5056 5056 5056 5056 4983 4911 4911 4983 4983 4983 4983 4983 4983 5056 5056 5056 5056 5056 5056 5132 5132 5291 5374 5460 0 0 0 0 0 0 0 0 0 0 0 0 0 0 0 0 0 0 0 0 0 0 0 0 0 0 0 0 0 0 0 0 0 0 0 0 0 0 0 0 0 0 0 0 0 0 0 0 0 0 0 0 0 0 0 0 0 0 0 0 0 0 0 0 0 0 0 0 0 0 0 0 0 0 0 3732 3732 3732 3774 3732 3732 3732 3732 3732 3692 3653 3614 3614 3576 3576 3576 3576 3576 3576 3576 3576 3576 3576 3576 3576 3576 3576 3653 3692 3732 3774 3816 3816 3816 3816 3816 3859 3859 4708 4708 4708 4708 4708 4708 4708 4708 4774 4774 4774 4774 2859 2859 2859 2859 2859 2859 2859 2859 2835 2835 2835 2835 2859 2859 2859 2859 2859 2859 2835 2835 2835 2835 2835 2835 2835 2835 2835 2835 2812 2789 2789 2789 2789 2812 2812 2812 2812 2812 2812 2835 2812 2812 2812 2812 2812 2812 2812 2789 2789 2812 3399 3399 3399 3399 3399 3399 3399 3399 3399 3399 3399 3399 2812 2812 2789 2789 2789 2789 2789 2789 2789 2789 2789 2767 2767 4708 4708 4645 4645 4645 4645 4645 0 0 0 0 0 0 0 0 0 0 0 0 0
0 0 0 0 0 0 0 0 0 0 0 0 0 0 0 0 0 0 0 0 0 0 0 0 0 0 0 0 0 0 4645 4645 4645 4582 4582 4645 4582 4582 4582 4582 4522 4522 4463 4463 4463 4463 4463 4522 4463 4463 4405 4405 4405 4463 4463 0 4582 4582 4645 4645 4708 4708 4708 4582 4582 4582 4582 4582 4522 4522 4522 4522 4582 4582 4582 4582 4582 4522 4522 4582 4582 4582 4582 4582 4582 4582 4582 4582 4582 4582 4582 4645 4582 4582 4582 4582 4582 4582 4645 4645 4645 4645 4645 4774 2883 2883 2883 2883 2883 2883 2883 2883 2883 2883 2883 2883 2859 2859 2859 2859 2883 2859 2859 2883 2883 2883 2883 2883 2883 2883 2883 2883 2883 2883 2908 2908 2908 2908 2116 2103 2103 2116 2129 2129 2143 2143 2143 2143 2143 2143 2143 2143 2143 2129 2129 2143 2143 2143 2143 2143 2143 2143 2143 2143 2143 2156 2156 2156 2156 2156 2156 2156 2156 2156 2170 2170 2170 2170 2170 2184 2184 2184 2170 2170 2184 2184 2184 2184 2184 2184 2184 2184 2184 2184 2184 2184 2184 2198 2184 2184 2198 2198 2198 2198 2198 2198 2198 2198 2198 2198 2198 2198 2198 2198 2198 2198 2198 2198 2198 2198 2198 2198 2198 2198 2984 2984 2984 3010 3010 3010 2984 2984 3010 2984 2984 2984 2984 3010 2984 2958 2958 2958 2958 2984 2984 2984 2984 2984 2984 3010 3010 3010 3010 3010 3010 3010 3010 3010 3037 3037 3037 3037 3064 3064 3092 3092 3120 3120 3149 3149 0 0 0 0 0 0 0 0 0 0 0 0 0 2241 2241 2241 2241 2241 2241 2241 2226 2226 2241 2241 2241 2241 2241 2241 2256 2256 2256 2256 2256 2256 2256 2256 2256 2256 2256 2271 2256 2256 2256 2256 2256 2256 2256 2271 2271 2271 2271 2271 2271 2286 2286 2286 2286 2286 2271 2271 2271 2271 2271 2271 2271 2271 2271 2271 2271 2271 2271 2271 2271 2271 2271 2271 2271 2271 2271 2271 2271 2271 2271 2271 2271 2271 2271 2271 2271 2271 2271 2271 2271 2271 2286 2286 2286 0 5291 5210 5210 5210 5210 5210 5291 5291 5291 5291 5291 5291 5210 5210 5210 5210 5210 5210 5210 5210 5210 5210 5132 5132 5132 5132 5132 5132 5132 5132 5056 5056 5056 4983 4983 4983 4983 4983 4983 4983 5056 5056 5056 5056 5056 5056 5056 5132 5132 5210 5291 5291 0 0 0 0 0 0 0 0 0 0 0 0 0 0 0 0 0 0 0 0 0 0 0 0 0 0 0 0 0 0 0 0 0 0 0 0 0 0 0 0 0 0 0 0 0 0 0 0 0 0 0 0 0 0 0 0 0 0 0 0 0 0 0 0 0 0 0 0 0 0 0 0 0 0 0 0 3732 3732 3774 3732 3732 3732 3732 3732 3692 3653 3614 3614 3576 3576 3576 3576 3576 3576 3576 3576 3576 3576 3576 3576 3576 3614 3692 3692 3732 3816 3816 3859 3859 3859 3859 3859 4774 4774 4774 4774 4708 4708 4774 4774 4774 4774 4774 4774 4774 2859 2859 2859 2859 2859 2859 2859 2859 2835 2835 2835 2835 2859 2859 2859 2859 2859 2859 2835 2835 2835 2835 2835 2835 2835 2835 2835 2835 2812 2812 2812 2812 2812 2812 2812 2812 2812 2835 2835 2835 2812 2812 2812 2812 2812 2812 2812 2812 2812 2812 2812 3399 3399 3399 3399 3399 3399 3399 3399 3399 3399 3399 2812 2812 2812 2812 2812 2789 2789 2789 2789 2789 2789 2767 2767 4708 4708 4645 4645 4645 4645 4645 0 0 0 0 0 0 0 0 0 0 0 0 0
0 0 0 0 0 0 0 0 0 0 0 0 0 0 0 0 0 0 0 0 0 0 0 0 0 0 0 0 0 0 4645 4645 4645 4582 4582 4582 4582 4582 4582 4522 4463 4463 4463 4463 4463 4405 4405 4405 4405 4405 4405 4405 4405 4463 4463 4463 4582 4582 4582 4582 4645 4645 4645 4582 4582 4582 4582 4582 4522 4522 4522 4522 4522 4522 4522 4582 4582 4522 4522 4582 4582 4582 4582 4582 4582 4582 4582 4582 4582 4522 4522 4582 4522 4522 4522 4522 4582 4582 4645 4645 4645 4645 4708 4774 4774 2883 2883 2883 2883 2883 2883 2883 2883 2883 2883 2859 2859 2859 2859 2859 2883 2883 2883 2883 2883 2883 2883 2883 2883 2883 2883 2883 2883 2908 2908 2908 2933 2933 2129 2129 2129 2129 2129 2129 2143 2143 2143 2143 2143 2143 2143 2143 2143 2143 2143 2143 2143 2143 2143 2143 2143 2143 2143 2143 2143 2143 2156 2156 2156 2170 2170 2156 2156 2170 2170 2170 2170 2184 2184 2184 2184 2184 2170 2170 2184 2184 2184 2184 2170 2170 2184 2184 2184 2184 2184 2184 2198 2198 2184 2184 2198 2198 2198 2198 2198 2198 2198 2198 2198 2198 2198 2198 2198 2198 2198 2198 2198 2198 2198 2198 2198 2198 2198 2198 2198 2984 2984 3010 3010 3010 3010 3010 3010 2984 2984 2984 2984 3010 3010 2958 2958 2958 2958 2984 2958 2958 2984 2984 3010 3010 3010 3010 3010 3010 3010 3010 3010 3037 3037 3037 3037 3037 3064 3064 3092 3092 3120 3120 3149 0 0 0 0 0 0 0 0 0 0 0 0 0 2256 2241 2241 2241 2241 2241 2241 2241 2226 2226 2241 2241 2241 2241 2241 2241 2241 2241 2256 2241 2241 2241 2241 2256 2256 2256 2256 2271 2256 2256 2256 2256 2256 2256 2256 2271 2271 2271 2271 2271 2271 2286 2286 2286 2286 2286 2271 2271 2271 2271 2271 2271 2271 2271 2271 2271 2271 2271 2271 2271 2271 2271 2271 2271 2271 2271 2271 2271 2271 2271 2271 2271 2271 2271 2271 2271 2271 2271 2271 2271 2271 2271 2271 2286 2286 2286 5210 5210 5210 5210 5210 5210 5291 5291 5291 5291 5291 5291 5210 5210 5210 5210 5210 5210 5210 5210 5210 5210 5210 5210 5132 5132 5132 5132 5132 5132 5056 5056 4983 4983 4983 4983 4983 4983 4983 4983 5056 5056 5056 5056 5056 5056 5056 5132 5132 5132 5291 0 0 0 0 0 0 0 0 0 0 0 0 0 0 0 0 0 0 0 0 0 0 0 0 0 0 0 0 0 0 0 0 0 0 0 0 0 0 0 0 0 0 0 0 0 0 0 0 0 0 0 0 0 0 0 0 0 0 0 0 0 0 0 0 0 0 0 0 0 0 0 0 0 0 0 0 0 0 3774 3774 3732 3732 3732 3732 3732 3692 3653 3614 3614 3576 3576 3576 3576 3576 3576 3576 3576 3576 3576 3576 3576 3576 3614 3692 3732 3774 3816 3859 3859 3859 3859 3859 3859 4774 4774 4774 4774 4774 4774 4774 4774 4774 4774 4774 4774 2812 2812 2835 2859 2859 2859 2859 2859 2859 2835 2835 2835 2835 2859 2859 2859 2859 2859 2859 2859 2859 2835 2835 2835 2835 2835 2835 2835 2835 2812 2812 2812 2812 2812 2812 2812 2812 2835 2835 3576 3576 3576 2812 2812 2789 2789 2789 2812 2812 2812 2812 2812 2812 3399 3399 3399 3399 3399 3399 3399 3399 3399 2812 2812 2812 2812 2812 2812 2789 2789 2789 2789 2789 2767 2767 4708 4708 4708 4645 4645 4645 4645 4645 0 0 0 0 0 0 0 0 0 0 0 0 0
0 0 0 0 0 0 0 0 0 0 0 0 0 0 0 0 0 0 0 0 0 0 0 0 0 0 0 0 0 0 0 4645 4645 0 0 0 4349 4349 4349 4522 4463 4463 4463 4463 4463 4405 4405 4405 4405 4405 4405 4405 4405 4463 4463 4463 4582 4582 4582 4582 4582 4582 4582 4522 4522 4522 4522 4463 4463 4522 4522 4522 4522 4522 4522 4522 4463 4463 4522 4582 4582 4582 4582 4522 4522 4522 4522 4522 4522 4522 4522 4522 4522 4522 4522 4522 4522 4582 4645 4645 4645 4645 4708 4774 2883 2883 2883 2883 2883 2859 2859 2883 2859 2859 2859 2859 2859 2859 2859 2859 2883 2859 2859 2883 2883 2859 2859 2883 2883 2883 2883 2883 2883 2908 2908 2908 2933 2116 2116 2129 2129 2129 2129 2129 2143 2143 2143 2143 2143 2143 2143 2143 2143 2143 2143 2129 2129 2129 2129 2143 2143 2143 2143 2143 2143 2143 2156 2156 2156 2156 2156 2170 2170 2184 2184 2184 2184 2184 2184 2184 2170 2170 2170 2170 2184 2184 2184 2184 2170 2170 2184 2184 2184 2184 2184 2184 2184 2184 2184 2184 2198 2198 2198 2198 2198 2198 2198 2198 2198 2198 2198 2198 2198 2198 2198 2198 2198 2198 2198 2198 2198 2198 2198 2198 2958 2984 2984 3010 3010 3010 3010 3010 3010 2984 2984 2984 2984 3010 2984 2958 2958 2958 2958 2958 2958 2958 2958 2984 3010 3010 3010 3010 3010 3010 3010 3010 3037 3037 3037 3037 3037 3037 3064 3092 3092 3120 3120 3149 0 0 0 0 0 0 0 0 0 0 0 0 0 0 2256 2226 2226 2226 2226 2241 2241 2241 2226 2226 2241 2241 2241 2241 2241 2241 2241 2241 2241 2241 2241 2241 2241 2241 2241 2256 2256 2271 2256 2256 2256 2256 2256 2256 2256 2271 2271 2271 2271 2271 2271 2271 2271 2271 2271 2271 2256 2256 2256 2256 2256 2256 2256 2271 2271 2271 2271 2271 2271 2271 2271 2271 2271 2271 2271 2271 2271 2271 2271 2271 2271 2271 2271 2271 2271 2271 2271 2271 2271 2271 2271 2271 2271 2271 2271 0 2271 5210 5210 5210 5210 5210 5291 5291 5291 5291 5291 5291 5210 5210 5210 5210 5210 5210 5210 5210 5210 5210 5210 5210 5132 5132 5132 5132 5132 5132 5056 5056 4983 4983 4983 4983 4983 4983 4983 4983 5056 5056 5056 5056 5056 5056 5132 5132 5132 5132 5132 5132 0 0 0 0 0 0 0 0 0 0 0 0 0 0 0 0 0 0 0 0 0 0 0 0 0 0 0 0 0 0 0 0 0 0 0 0 0 0 0 0 0 0 0 0 0 0 0 0 0 0 0 0 0 0 0 0 0 0 0 0 0 0 0 0 0 0 0 0 0 0 0 0 0 0 0 0 0 0 3774 3732 3732 3732 3732 3732 3692 3653 3614 3614 3576 3576 3576 3576 3576 3576 3576 3576 3576 3576 3576 3576 3614 3653 3692 3732 3774 3816 3859 3859 3859 3859 3859 4842 4774 4774 4774 4774 4774 4774 4774 4774 4774 4842 4842 2789 2789 2812 2835 2859 2859 2859 2859 2859 2859 2835 2835 2835 2835 2859 2859 2859 2859 2859 2859 2859 2859 2835 2835 2835 2835 2835 2835 2835 2835 2812 2812 2812 2812 2812 2835 2835 2835 2835 3539 3576 3614 3614 3614 2812 2789 2789 2789 2812 2812 2812 2812 2812 2812 3399 3399 3399 3399 3399 3399 3399 3399 3399 2812 2812 2812 2812 2812 2812 2789 2789 2789 2789 2789 2767 2767 4708 4708 4708 4645 4645 4645 4645 4645 0 0 0 0 0 0 0 0 0 0 0 0 0
0 0 0 0 0 0 0 0 0 0 0 0 0 0 0 0 0 0 0 0 0 0 0 0 0 0 0 0 0 0 0 0 0 0 0 0 4349 4349 4349 4349 4349 4405 4463 4405 4405 4463 4463 4463 4405 4405 4405 4463 4463 4463 4522 4522 4582 4582 4582 4582 4582 4522 4522 4522 4522 4522 4522 4463 4463 4463 4463 4463 4463 4522 4522 4522 4463 4463 4522 4522 4522 4522 4522 4522 4522 4522 4522 4522 4522 4522 4522 4522 4463 4463 4463 4522 4522 4582 4645 4645 4708 4708 4708 4708 2859 2859 2883 2883 2883 2859 2859 2859 2859 2859 2859 2859 2859 2859 2859 2859 2883 2859 2859 2883 2883 2859 2859 2883 2883 2883 2883 2908 2908 2908 2908 2933 2933 2116 2116 2129 2129 2129 2129 2129 2143 2143 2143 2143 2143 2143 2129 2129 2143 2129 2129 2129 2129 2129 2129 2129 2129 2129 2129 2129 2143 2143 2143 2156 2156 2156 2156 2170 2170 2170 2170 2170 2170 2156 2156 2156 2156 2156 2156 2156 2170 2170 2184 2170 2156 2156 2170 2170 2170 2170 2170 2170 2184 2184 2170 2170 2184 2184 2198 2198 2198 2198 2198 2198 2198 2198 2198 2198 2198 2198 2184 2184 2184 2198 2198 2184 2184 2198 2198 2198 2958 2984 2984 3010 3010 3010 3010 3010 3010 2984 2984 2984 2984 3010 2984 2958 2958 2958 2958 2958 2958 2958 2958 2984 3010 3010 3010 3010 3010 3010 3010 3010 3010 3010 3037 3037 3037 3037 3064 3092 3120 3120 3149 3149 3149 0 0 0 0 0 0 0 0 0 0 0 0 0 2256 2226 2212 2212 2226 2226 2241 2241 2226 2226 2241 2241 2241 2241 2241 2241 2241 2241 2241 2241 2241 2241 2241 2241 2241 2241 2256 2271 2256 2256 2256 2256 2256 2256 2256 2256 2256 2271 2271 2271 2271 2271 2271 2271 2271 2271 2256 2256 2256 2256 2256 2256 2256 2256 2256 2271 2271 2271 2271 2271 2271 2271 2271 2271 2271 2271 2271 2271 2271 2271 2271 2271 2271 2271 2271 2271 2271 2271 2271 2271 2271 2256 2256 2256 2256 0 0 0 0 5291 5291 5291 2212 2212 2212 5291 2198 2198 2198 2198 2198 2212 2212 2212 5210 5210 5210 5210 5210 5210 5210 5210 5210 5132 5132 5132 5132 5056 4983 4983 4983 4983 4983 4983 4983 4983 5056 5056 5056 5056 5056 5056 5132 5132 5132 5132 5132 5132 0 0 0 0 0 0 0 0 0 0 0 0 0 0 0 0 0 0 0 0 0 0 0 0 0 0 0 0 0 0 0 0 0 0 0 0 0 0 0 0 0 0 0 0 0 0 0 0 0 0 0 0 0 0 0 0 0 0 0 0 0 0 0 0 0 0 0 0 0 0 0 0 0 0 0 0 0 0 0 3732 3732 3732 3732 3692 3692 3653 3614 3614 3614 3576 3576 3576 3576 3576 3576 3576 3576 3576 3576 3576 3614 3653 3732 3732 3816 3816 3859 3859 3859 3859 3859 4842 4842 4774 4774 4774 4774 4774 4774 4774 4774 4842 2789 2789 2789 2812 2835 2859 2859 2859 2859 2859 2859 2835 2835 2835 2835 2859 2859 2859 2859 2859 2859 2859 2859 2835 2835 2859 2859 2835 2835 2835 2835 2835 2835 2835 2835 2835 2835 2835 2835 3539 3539 3576 3614 3614 3614 3653 2812 2812 2812 2812 2812 2812 2812 2812 2812 3399 3399 3399 3399 3399 3399 3399 3399 3399 2812 2812 2812 2812 2812 2812 2789 2789 2789 2789 2789 2789 4645 4645 4645 4645 4645 4645 4645 4645 4645 0 0 0 0 0 0 0 0 0 0 0 0 0
0 0 0 0 0 0 0 0 0 0 0 0 0 0 0 0 0 0 0 0 0 0 0 0 0 0 0 0 0 0 0 0 0 0 0 4349 4349 4349 4349 4295 4295 4349 4349 4349 4405 4405 4405 4463 4463 4405 4405 4405 4463 4463 4463 4522 4522 4522 4522 4522 4522 4522 4522 4522 4522 4522 4522 4463 4405 4405 4405 4405 4405 4463 4463 4522 4522 4522 4522 4522 4522 4463 4463 4463 4463 4463 4522 4522 4522 4522 4522 4522 4463 4463 4463 4522 4522 4582 4645 4708 4708 4708 2859 2859 2859 2859 2859 2859 2859 2859 2859 2859 2859 2859 2859 2859 2859 2859 2883 2883 2883 2883 2883 2883 2859 2859 2859 2859 2859 2859 2883 2908 2908 2908 2908 2933 2933 2103 2103 2103 2129 2129 2129 2129 2129 2129 2129 2129 2129 2129 2129 2116 2116 2116 2116 2116 2116 2116 2116 2116 2116 2116 2116 2116 2129 2129 2143 2156 2156 2156 2170 2156 2156 2170 2143 2129 2116 2116 2129 2129 2129 2143 2143 2143 2156 2156 2170 2143 2143 2143 2156 2156 2156 2156 2170 2170 2170 2170 2170 2170 2170 2170 2184 2184 2184 2184 2198 2184 2184 2184 2184 2184 2184 2184 2170 2170 2170 2170 2184 2170 2170 2170 2170 2170 2170 3010 2078 2078 3010 3010 3010 3010 2984 2984 2984 2984 2116 2116 2129 2129 2129 2958 2958 2958 2958 2958 2958 2984 3010 3010 3010 2116 2116 2116 2116 2116 2116 3010 3010 3037 3037 3037 3092 3120 3120 3149 3149 3149 0 2103 0 0 0 2143 2143 0 0 0 0 0 0 0 2226 2226 2212 2212 2212 2226 2226 2226 2226 2226 2241 2241 2226 2226 2226 2226 2226 2226 2226 2226 2226 2226 2226 2226 2226 2241 2256 2256 2256 2256 2256 2256 2256 2241 2241 2256 2256 2256 2256 2256 2256 2256 2271 2256 2256 2256 2241 2241 2241 2241 2241 2241 2256 2256 2256 2256 2271 2271 2271 2271 2271 2271 2256 2256 2271 2256 2256 2256 2256 2271 2271 2256 2256 2271 2271 2271 2271 2271 2271 2256 2241 2226 2226 2226 2226 2184 2184 2198 2184 5291 5291 2198 2198 2198 2198 2198 2198 2198 2198 2198 2198 2198 2198 2212 2226 5210 5210 5210 5210 5210 5132 5132 2226 2212 2212 5132 5132 5056 5056 5056 4983 4983 4983 4983 4983 4983 5056 5056 5056 5056 5056 5056 5132 5132 5132 5132 5132 5132 5132 5132 5210 5210 5210 0 0 0 0 0 0 0 0 0 0 0 0 0 0 0 0 0 0 0 0 0 0 0 0 0 0 0 0 0 0 0 0 0 0 0 0 0 0 0 0 0 0 0 0 0 0 0 0 0 0 0 0 0 0 0 0 0 0 0 0 0 0 0 0 0 0 0 0 0 0 0 0 0 0 0 3732 3692 3692 3692 3653 3614 3614 3614 3576 3576 3576 3576 3576 3576 3576 3576 3576 3576 3576 3614 3614 3653 3732 3774 3816 3816 3859 3859 3859 3859 3859 4911 4842 4842 4842 4842 4774 4774 4774 4842 4842 4842 2767 2767 2812 2812 2835 2859 2859 2859 2859 2835 2835 2835 2835 2835 2835 2859 2859 2859 2859 2859 2859 2859 2859 2835 2835 2859 2859 2835 2835 2835 2835 2835 2835 2835 2835 2835 2835 2835 3576 3539 3539 3576 3653 3653 3653 3653 3653 2812 2812 2812 2812 2812 2812 2812 2789 2789 3399 3399 3399 3399 3399 3433 3433 2812 2812 2812 2812 2812 2812 2812 2789 2789 2789 2789 2789 4582 4645 4645 4645 4645 4645 4645 4645 4645 4645 0 0 0 0 0 0 0 0 0 0 0 0 0
0 0 0 0 0 0 0 0 0 0 0 0 0 0 0 0 0 0 0 0 0 0 0 0 0 0 0 0 0 0 0 0 0 0 0 0 4349 4349 4349 4295 4295 4349 4349 4349 4405 4405 4405 4463 4463 4405 4405 4405 4405 4463 4463 4463 4463 4463 4463 4463 4463 4463 4463 4463 4405 4405 4522 4405 4405 4405 4405 4405 4405 4405 4463 4522 4522 4522 4522 4522 4522 4463 4463 4463 4463 4463 4463 4463 4463 4463 4463 4522 4463 4463 4463 4463 4774 4774 4774 4774 4774 0 0 2016 2859 2859 2859 2859 2859 2859 2859 2859 2016 2005 2005 2005 2016 2028 2040 2040 2040 2053 2053 2053 2053 2053 2053 2053 2859 2859 2883 2040 2028 2028 2908 2933 2053 2053 2053 2090 2103 2103 2103 2103 2116 2116 2116 2116 2116 2103 2103 2090 2090 2090 2090 2090 2090 2103 2103 2103 2103 2103 2103 2103 2116 2116 2129 2143 2143 2143 2143 2116 2090 2090 2090 2090 2090 2090 2103 2103 2103 2116 2116 2116 2129 2143 2143 2103 2103 2116 2143 2143 2143 2143 2129 2129 2090 2090 2103 2103 2090 2090 2103 2170 2184 2184 2184 2184 2184 2170 2170 2170 2170 2129 2129 2116 2116 2143 2156 2143 2143 2156 2156 2170 2170 2090 2078 2078 3037 3037 3037 3010 2984 2984 2984 2116 2116 2116 2116 2129 2129 2129 2933 2958 2958 2958 2958 3010 3010 3010 2103 2103 2103 2103 2103 2116 2116 2116 2116 2129 2129 2116 2103 2103 2103 2090 2090 2090 2090 2103 2103 2116 2116 2116 2129 2129 2129 2129 2129 2129 2129 2129 2129 2129 2143 2129 2129 2198 2212 2198 2198 2212 2226 2226 2212 2212 2226 2226 2212 2212 2212 2212 2212 2212 2212 2226 2226 2241 2241 2256 2271 2271 2256 2256 2271 2226 2226 2241 2241 2226 2226 2226 2226 2241 2241 2226 2226 2241 2226 2226 2226 2212 2212 2226 2241 2226 2226 2241 2256 2256 2256 2256 2271 2256 2256 2256 2256 2256 2256 2256 2256 2256 2256 2256 2256 2256 2256 2256 2256 2256 2256 2256 2226 2198 2198 2198 2198 2184 2184 2198 2184 2184 2184 2170 2170 2198 2198 2184 2184 2198 2198 2198 2198 2198 2198 2198 2212 5210 5210 5210 5210 5210 5132 2212 2212 2212 2212 2212 2212 2212 2212 5056 4983 4983 4983 4983 4983 4983 5056 5056 5056 5132 5056 5056 5132 5132 5056 5056 5056 5056 5056 5056 5056 5132 5132 5132 5210 0 0 0 0 0 0 0 0 0 0 0 0 0 0 0 0 0 0 0 0 0 0 0 0 0 0 0 0 0 0 0 0 0 0 0 0 0 0 0 0 0 0 0 0 0 0 0 0 0 0 0 0 0 0 0 0 0 0 0 0 0 0 0 0 0 0 0 0 0 0 0 0 0 0 3692 3692 3653 3614 3614 3614 3614 3576 3576 3576 3576 3576 3576 3576 3576 3576 3576 3576 3614 3614 3653 3692 3732 3774 3774 3816 3859 3859 3859 3859 3859 4842 4842 4842 4842 4774 4774 4842 4842 4842 4842 2767 2767 2835 2835 2859 2859 2859 2859 2859 2835 2835 2835 2835 2835 2835 2859 2859 2859 2859 2859 2859 2859 2859 2835 2835 2859 2859 2859 2835 2835 2859 2859 2835 2835 2859 2859 2859 3653 3614 3614 3614 3653 3653 3692 3692 3653 3653 2812 2812 2812 2812 2812 2812 2812 2789 2789 2812 3433 3399 3399 3433 3433 3468 2812 2812 2812 2812 2812 2812 2812 2812 2789 2789 2789 4522 4582 4645 4645 4645 4645 4645 4645 4645 4645 4645 0 0 0 0 0 0 0 0 0 0 0 0 0
0 0 0 0 0 0 0 0 0 0 0 0 0 0 0 0 0 0 0 0 0 0 0 0 0 0 0 0 0 0 0 0 0 0 0 0 4349 4349 4349 4349 4349 4349 4349 4349 4405 4405 4405 4405 4405 4405 4405 4405 4405 4463 4463 4463 4463 4463 4405 4405 4405 4405 4405 4349 4349 4349 4405 4349 4349 4349 4349 4349 4349 4349 4463 4463 4463 0 0 4295 4405 4405 4405 4405 4463 4463 4463 4463 4463 4463 4463 4463 4405 4405 4405 4405 4405 4405 2016 0 0 0 2016 2016 2016 2040 2040 2028 2016 2016 2016 2016 2005 2005 2005 2005 2016 2028 2028 2028 2028 2040 2040 2040 2040 2040 2040 2040 2040 2835 2835 2040 2028 2016 2016 2016 2028 2040 2040 2040 2078 2090 2090 2090 2078 2078 2090 2090 2090 2065 2065 2065 2090 2078 2065 2065 2078 2078 2078 2078 2078 2078 2078 2078 2090 2103 2116 2116 2116 2116 2090 2090 2078 2078 2078 2078 2078 2078 2078 2078 2090 2103 2090 2090 2103 2116 2090 2078 2078 2090 2090 2090 2103 2116 2103 2103 2090 2090 2090 2090 2090 2090 2090 2170 2170 2170 2184 2170 2170 2129 2129 2103 2103 2103 2103 2116 2116 2116 2129 2129 2129 2103 2103 2103 2078 2078 2078 2078 2078 2078 2078 2078 2078 2078 2078 2078 2090 2090 2116 2116 2116 2103 2090 2090 2090 2090 2090 2090 2090 2090 2090 2103 2103 2103 2103 2116 2116 2116 2116 2129 2116 2116 2103 2103 2090 2090 2090 2090 2090 2103 2103 2103 2116 2116 2116 2116 2129 2129 2129 2129 2129 2129 2116 2116 2129 2129 2129 2129 2129 2129 2143 2156 2143 2143 2156 2156 2170 2170 2170 2170 2170 2170 2170 2184 2184 2143 2143 2143 2143 2271 2271 2271 2226 2226 2271 2184 2184 2226 2212 2212 2212 2212 2212 2226 2212 2212 2212 2226 2212 2212 2198 2198 2198 2212 2212 2198 2198 2212 2226 2256 2256 2256 2256 2256 2226 2226 2226 2212 2184 2170 2170 2198 2170 2170 2170 2170 2198 2226 2170 2170 2226 2226 2198 2184 2184 2184 2184 2170 2170 2184 2184 2170 2170 2170 2170 2170 2170 2170 2184 2184 2184 2184 2184 2184 2184 2184 2198 2198 2198 2198 2198 2198 2198 2198 2198 2212 2212 2212 2212 2212 2212 2212 2198 2198 4983 4983 4983 5056 5056 5056 5056 5132 5056 5056 5132 5056 4983 4983 5056 5056 5056 5056 5056 5132 5132 5132 5210 5291 0 0 0 0 0 0 0 0 0 0 0 0 0 0 0 0 0 0 0 0 0 0 0 0 0 0 0 0 0 0 0 0 0 0 0 0 0 0 0 0 0 0 0 0 0 0 0 0 0 0 0 0 0 0 0 0 0 0 0 0 0 0 0 0 0 0 0 0 0 0 0 0 0 3692 3653 3614 3614 3614 3614 3614 3576 3576 3576 3576 3576 3576 3576 3576 3576 3576 3576 3576 3614 3614 3653 3732 3732 3774 3816 3816 3816 3816 3816 4911 4842 4842 4842 4842 4842 4842 4842 4842 4911 4911 4911 2835 2835 2835 2859 2859 2859 2859 2859 2835 2835 2835 2835 2835 2835 2859 2859 2859 2859 2859 2859 2859 2859 2859 2859 2859 2859 2859 2859 2859 2859 2859 2859 2859 0 0 3614 3614 3653 3653 3653 3692 3692 3692 3692 3653 3653 3653 2835 2835 2812 2812 2812 2812 2789 2789 2812 3433 3399 3399 3433 3468 2812 2812 2812 2812 2812 2812 2812 2812 2812 2789 2789 2789 4582 4582 4645 4645 4645 4645 4645 4645 4645 4645 4645 0 0 0 0 0 0 0 0 0 0 0 0 0
0 0 0 0 0 0 0 0 0 0 0 0 0 0 0 0 0 0 0 0 0 0 0 0 0 0 0 0 0 0 0 0 0 0 0 0 4295 4295 4295 4295 4349 4295 4295 4349 4349 4349 4405 4405 4349 4349 4349 4349 4349 4349 4405 4405 4405 4405 4349 4349 4405 4405 4405 4349 4349 4349 4349 4349 4349 4349 4349 4349 4349 4349 4349 4295 4295 4295 4295 4295 4295 4405 4405 4349 4349 4405 4463 4463 4463 4405 4405 4405 4405 4405 4405 4405 4405 0 0 0 0 0 2016 2016 2016 2016 2016 2005 2005 2005 2016 2016 2005 2005 2005 2005 2016 2016 2016 2016 2028 2028 2028 2028 2028 2028 2040 2040 2040 2028 2028 2028 2028 2016 2005 2005 2016 2016 2028 2028 2028 2028 2040 2040 2053 2053 2053 2053 2040 2040 2040 2053 2053 2053 2053 2040 2040 2053 2053 2053 2053 2053 2040 2040 2040 2065 2065 2078 2078 2078 2078 2078 2078 2065 2065 2065 2065 2065 2065 2065 2065 2078 2065 2065 2053 2053 2053 2053 2053 2065 2078 2078 2078 2090 2090 2078 2078 2078 2078 2078 2078 2078 2078 2078 2170 2170 2170 2143 2103 2103 2103 2090 2090 2090 2090 2090 2090 2090 2103 2103 2103 2090 2090 2090 2078 2078 2078 2078 2078 2078 2078 2078 2078 2078 2078 2078 2090 2090 2103 2103 2103 2090 2090 2090 2090 2090 2090 2090 2090 2090 2090 2103 2103 2103 2103 2103 2103 2103 2116 2116 2116 2103 2103 2103 2090 2090 2090 2078 2078 2090 2090 2090 2090 2103 2103 2116 2116 2129 2116 2116 2116 2116 2116 2116 2116 2116 2116 2116 2116 2116 2116 2129 2129 2129 2129 2116 2116 2116 2116 2116 2143 2143 2143 2129 2129 2129 2129 2129 2129 2129 2129 2116 2116 2116 2116 2116 2116 2129 2129 2129 2129 2129 2143 2156 2129 2129 2143 2143 2170 2116 2116 2116 2156 2116 2116 2156 2156 2129 2129 2170 2170 2170 2170 2170 2170 2170 2198 2170 2170 2156 2156 2170 2143 2143 2156 2156 2156 2143 2143 2156 2156 2170 2170 2156 2156 2156 2170 2170 2170 2170 2170 2170 2170 2156 2156 2170 2170 2170 2170 2170 2170 2170 2170 2170 2170 2184 2184 2184 2184 2184 2184 2184 2184 2184 2184 2198 2198 2184 2184 2170 2170 2170 2170 2170 2170 2170 2156 2156 5056 5056 5056 5132 5132 5132 5132 5056 4983 4983 5056 5056 5056 5056 5056 5132 5132 5132 5132 5132 5132 0 0 0 0 0 0 0 0 0 0 0 0 0 0 0 0 0 0 0 0 0 0 0 0 0 0 0 0 0 0 0 0 0 0 0 0 0 0 0 0 0 0 0 0 0 0 0 0 0 0 0 3816 3816 3732 3732 0 3614 3614 0 0 0 0 0 0 0 0 0 0 0 0 0 0 0 3576 3576 3576 3576 3576 3576 3576 3576 3576 3576 3576 3576 3576 3576 3539 3539 3539 3539 3576 3576 3653 3692 3732 3774 3816 3816 3774 3774 3816 4911 4911 4911 4911 4842 4842 4842 4842 4911 4911 4911 0 2859 2859 2859 2859 2859 2859 2859 2859 2859 2859 2835 2835 2835 2835 2859 2859 2859 2859 2859 2859 2859 2859 2859 2859 2859 2859 2859 2859 2859 2859 2883 0 0 0 0 3614 3614 3653 3653 3653 3692 3692 3692 3692 3692 3692 3692 2835 2835 2812 2812 2812 2812 2789 2789 2789 2789 3399 3433 3433 3433 2812 2812 2812 2812 2812 2812 2812 2812 2789 2789 2789 2789 4582 4645 4582 4582 4645 4645 4645 4645 4645 4645 4645 0 0 0 0 0 0 0 0 0 0 0 0 0
0 0 0 0 0 0 0 0 0 0 0 0 0 0 0 0 0 0 0 0 0 0 0 0 0 0 0 0 0 0 0 4349 4349 4405 4405 4405 4295 4295 4295 4241 4241 4190 4190 4190 4190 4190 4241 4295 4349 4349 4349 4349 4349 4349 4405 4405 4349 4349 4349 4349 4349 4349 4405 4349 4349 4349 4349 4295 4295 4295 4295 4295 4349 4349 4349 4295 4295 4295 4295 4295 4295 4295 4295 4295 4349 4349 4349 4405 4405 4405 4405 4405 4405 4405 4405 4405 4405 0 0 0 2016 2016 2005 2005 2005 2005 2005 1993 1993 2005 2005 2016 2005 2005 2005 2005 2005 2005 2005 2005 2005 2016 2016 2016 2016 2016 2040 2016 2016 2016 2028 2028 2016 2016 2005 2005 2016 2016 2016 2016 2016 2016 2016 2016 2028 2028 2028 2028 2028 2028 2028 2040 2040 2053 2040 2040 2040 2040 2040 2040 2040 2040 2028 2028 2028 2040 2040 2053 2053 2053 2078 2078 2065 2065 2065 2065 2053 2053 2053 2053 2053 2053 2053 2040 2040 2040 2040 2040 2040 2040 2053 2065 2065 2078 2078 2078 2065 2065 2065 2065 2065 2053 2053 2053 2053 2053 2040 2040 2040 2078 2090 2078 2078 2078 2090 2090 2090 2090 2090 2090 2090 2078 2078 2078 2078 2078 2078 2078 2065 2065 2065 2078 2078 2078 2078 2078 2090 2090 2090 2090 2090 2090 2078 2078 2078 2078 2078 2078 2090 2090 2090 2103 2090 2090 2078 2078 2090 2090 2103 2103 2103 2090 2090 2090 2078 2078 2078 2078 2078 2090 2090 2090 2090 2090 2103 2103 2103 2116 2103 2103 2103 2103 2103 2103 2103 2103 2103 2103 2103 2103 2103 2116 2116 2116 2116 2116 2103 2103 2116 2116 2129 2129 2129 2116 2116 2116 2116 2116 2116 2116 2116 2116 2103 2103 2103 2103 2116 2116 2116 2116 2129 2129 2129 2129 2129 2129 2129 2129 2129 2103 2103 2116 2116 2116 2116 2143 2116 2116 2116 2129 2129 2116 2116 2116 2116 2129 2116 2116 2129 2129 2129 2129 2129 2129 2129 2143 2129 2129 2129 2143 2129 2129 2129 2129 2143 2143 2143 2143 2143 2156 2156 2156 2156 2156 2156 2156 2156 2156 2156 2156 2156 2170 2170 2170 2170 2170 2184 2184 2184 2170 2170 2170 2170 2170 2184 2184 2184 2184 2170 2170 2170 2170 2170 2156 2156 2156 2156 2156 2156 5132 5132 5132 5132 5056 5056 5056 5056 5056 5056 5056 5056 5056 5056 5056 5132 5132 5132 5132 5132 0 0 0 0 0 0 0 0 0 0 0 0 0 0 0 0 0 0 0 0 0 0 0 0 0 0 0 0 0 0 0 0 0 0 0 0 0 0 0 0 0 0 0 0 0 0 0 0 0 3903 3859 3816 3816 3732 3732 3732 3614 3614 3614 0 0 0 0 0 0 0 0 0 0 0 0 0 0 3576 3576 3576 3576 3576 3576 3576 3576 3576 3576 3576 3539 3539 3539 3503 3503 3503 3503 3503 3503 3576 3653 3732 3732 3774 3816 3774 3774 3774 4983 4983 4983 4983 4983 4983 4983 4983 5056 5056 0 2883 2883 2883 2859 2859 2859 2859 2859 2859 2859 2859 2859 2859 2859 2859 2859 2859 2859 2859 2859 2859 2859 2859 2859 2859 2859 2859 2859 2859 2859 2883 0 0 0 0 0 0 3653 3653 3653 3653 3692 3692 3692 3692 3692 3692 3692 2835 2835 2812 2812 2812 2812 2789 2789 2789 2789 2812 2812 2812 2789 2789 2812 2812 2812 2812 2812 2812 2812 2789 2789 2789 4582 4582 4582 4582 4582 4645 4645 4645 4645 4645 4645 4645 0 0 0 0 0 0 0 0 0 0 0 0 0
