0 0 0 0 0 0 0 0 0 0 0 0 0 0 0 0 0 0 0 0 0 0 0 0 0 0 0 0 0 0 0 0 0 2398 2398 2398 2398 2398 2398 2398 2398 2398 2398 2398 2398 2398 2398 2398 2415 2415 2415 2415 2415 2415 2415 2415 2415 2415 2415 2415 2398 2398 2415 2415 2415 2415 2415 2432 2432 2432 2432 2432 2415 2415 2415 2415 2415 2415 2415 2415 2415 2415 2415 2415 2432 2432 2432 2432 2450 2450 2432 2432 2432 2432 2450 2450 2450 2450 2450 2450 2450 2450 2450 2450 2450 2450 2450 2450 2450 2450 2450 2450 2450 2467 2467 2467 2467 2467 2467 2467 2467 2485 2467 2467 2467 2467 2467 2485 2467 2467 2467 2467 2467 2467 2467 2485 2485 2485 2485 2485 2485 2485 2485 2485 2485 2485 2503 2503 2503 2503 2503 2503 2503 2503 2503 2522 2503 2503 2503 2503 2485 2485 2485 2485 2485 2485 2485 2503 2503 2503 2503 2503 2503 2503 2503 2503 2503 2503 2503 2503 2503 2503 2503 2503 2503 2522 2522 2522 2522 2503 2503 2522 2522 2522 2522 2522 2522 2522 2522 2522 2522 2522 2522 2522 2522 2522 2522 2522 2522 2541 2541 2541 2541 2560 2541 2541 2541 2541 2541 2541 2541 2541 2541 2541 2541 2541 2541 2560 2560 2560 2560 2560 2541 2541 2541 2541 2541 2541 2541 2541 2541 2560 2541 2541 2541 2541 2541 2560 2560 2560 2560 2560 2560 2560 2560 2560 2560 2560 2560 2560 2560 2560 2560 2560 2560 2560 2579 2579 2579 2226 2226 2226 2226 2212 2212 2212 2226 2226 2226 2226 2226 2226 2241 2349 2349 2365 2349 2349 2349 2349 2333 2317 2317 2301 2301 2301 2301 2301 2286 2286 2286 2579 2579 2579 2579 2560 2560 2579 2579 2579 2560 2560 2560 2560 2560 2560 2579 1894 1894 1894 1894 1883 1883 1894 1894 1894 1904 1915 1915 1926 1926 1936 1947 1959 1970 1970 1794 1785 1785 1785 1785 1776 1776 1766 1766 1766 1757 1757 1748 1739 1731 1731 1731 1731 1731 1739 1586 1579 1579 1572 1572 1572 1564 1564 1564 1564 1564 1564 1564 1564 1572 1572 1572 1572 1579 1572 1572 1572 1572 1696 1696 1696 1705 1705 1696 1696 1705 1696 1696 1696 1696 1705 1536 1536 1543 1543 1543 1543 1536 1529 1529 1529 1529 1529 1529 1536 1536 1536 1536 1536 1536 1705 1705 1713 1713 1713 1713 1713 1713 1713 1713 1713 1713 1713 1713 1713 1713 1713 1713 1713 1713 1713 1713 1713 1713 1713 1713 1713 1713 1713 1713 1713 1713 1713 1713 1713 1713 1713 1713 1713 1713 1713 1713 1713 1713 1722 1722 1722 1722 1722 1722 1722 1722 1713 1713 1713 1705 1705 1696 1688 1688 1688 1688 1688 1688 1688 1688 1696 1696 1705 1713 1713 2618 2618 2618 2618 2618 2618 2618 2618 2618 2618 1853 1853 1853 1843 1833 1833 1833 1823 1813 1804 1804 1804 1794 1794 1785 1785 1785 1785 1776 1776 1776 1766 1757 1748 1748 1748 1748 1739 1739 1739 1731 1731 1731 1731 1722 1722 1722 1722 1722 1722 1722 1731 1739 1739 1748 1748 1748 1748 1748 1757 1757 1757 1766 1776 1776 1776 1776 1785 1785 1785 1794 1794 1794 1804 1804 1804 1813 1813 1813 1813 1823 1823 1823 1823 1833 1833 1843 1843 1853 1853 1853 1853 1863 1863 1863 1863 1863 1863 1863 1863 1863 1863 1863 1853 1853 1853 1853 1853 1853 1853 1853 2103 2103 2103 2090 2090 2090 2090 2090 2090 2090 2103 2103 2116 2579 2579 2579 2598 2598 2598 2598 2598 2598 2598 2598 2598 2598 2598 2618 2618 2618 2618 2618 2618 2598 2598 2598 2598 0 0 0 0 0 0 0 0 0 0
0 0 0 0 0 0 0 0 0 0 0 0 0 0 0 0 0 0 0 0 0 0 0 0 0 0 0 0 0 0 0 0 0 2398 2398 2398 2398 2398 2398 2398 2398 2398 2398 2398 2398 2398 2398 2398 2398 2398 2398 2398 2398 2398 2398 2415 2415 2415 2398 2398 2398 2398 2398 2415 2415 2415 2415 2415 2415 2415 2415 2415 2398 2398 2398 2398 2398 2398 2398 2398 2398 2398 2398 2398 2398 2398 2415 2415 2415 2415 2415 2415 2415 2415 2432 2432 2450 2450 2450 2450 2450 2450 2450 2432 2432 2432 2432 2432 2432 2450 2450 2450 2450 2450 2467 2467 2450 2450 2450 2450 2450 2467 2467 2467 2467 2467 2467 2467 2467 2467 2467 2467 2467 2467 2467 2467 2467 2467 2467 2467 2467 2485 2485 2485 2485 2485 2503 2503 2503 2503 2503 2503 2503 2503 2503 2503 2503 2503 2485 2485 2485 2485 2485 2485 2485 2485 2485 2485 2485 2485 2485 2485 2503 2485 2485 2485 2485 2485 2485 2485 2485 2503 2503 2503 2503 2503 2503 2503 2503 2503 2503 2503 2503 2503 2503 2522 2503 2503 2503 2503 2522 2522 2522 2522 2522 2522 2522 2522 2522 2522 2522 2522 2522 2541 2522 2522 2522 2522 2522 2522 2522 2522 2522 2522 2522 2541 2541 2541 2541 2541 2541 2541 2541 2541 2522 2522 2522 2522 2541 2522 2522 2541 2522 2522 2522 2522 2541 2541 2541 2541 2560 2541 2541 2560 2560 2560 2560 2560 2560 2560 2560 2560 2560 2560 2560 2560 2560 2560 2579 2226 2226 2226 2226 2226 2226 2226 2226 2226 2226 2226 2226 2226 2241 2365 2365 2365 2365 2365 2349 2349 2333 2317 2317 2301 2301 2301 2286 2286 2286 2271 2256 2241 2241 2579 2560 2560 2560 2560 2560 2560 2560 2560 2560 2560 2560 2560 2560 1894 1894 1894 1894 1883 1883 1894 1894 1894 1904 1915 1915 1926 1926 1947 1959 1959 1970 1970 1981 1785 1785 1785 1776 1776 1776 1766 1766 1766 1757 1757 1757 1748 1739 1739 1739 1739 1739 1739 1586 1579 1579 1572 1572 1572 1572 1564 1564 1564 1564 1564 1564 1572 1572 1572 1572 1572 1579 1572 1572 1572 1572 1696 1696 1696 1696 1696 1696 1696 1696 1696 1696 1696 1696 1696 1536 1536 1543 1543 1543 1543 1536 1529 1529 1529 1529 1529 1536 1536 1536 1536 1536 1536 1536 1705 1705 1705 1713 1713 1713 1713 1713 1705 1705 1705 1705 1705 1705 1705 1705 1713 1713 1713 1713 1713 1713 1713 1713 1713 1713 1705 1705 1705 1713 1705 1705 1705 1705 1705 1705 1705 1705 1705 1713 1713 1713 1713 1713 1713 1713 1722 1722 1722 1722 1713 1713 1713 1713 1705 1705 1705 1696 1696 1696 1688 1688 1688 1688 1696 1696 1705 1705 1705 1713 1713 2598 2618 2618 2618 2618 2618 2618 2618 2618 2618 2618 1863 1853 1843 1833 1833 1833 1823 1813 1813 1804 1804 1794 1794 1785 1785 1785 1776 1776 1776 1766 1766 1757 1757 1748 1748 1748 1748 1739 1739 1739 1731 1731 1731 1722 1722 1722 1722 1722 1722 1731 1731 1739 1739 1748 1748 1748 1748 1757 1757 1766 1766 1776 1776 1776 1785 1785 1785 1785 1794 1794 1804 1804 1804 1804 1813 1813 1813 1813 1823 1823 1823 1823 1823 1833 1833 1843 1843 1853 1853 1863 1863 1863 1863 1863 1863 1873 1873 1863 1863 1863 1863 1863 1853 1853 1853 1853 1853 1853 1853 2090 2090 2090 2090 2090 2090 2090 2090 2090 2103 2103 2103 2116 2116 2579 2579 2579 2579 2579 2598 2579 2579 2579 2579 2579 2579 2579 2579 2598 2598 2598 2598 2598 2598 2579 2579 2579 2598 0 0 0 0 0 0 0 0 0 0
0 0 0 0 0 0 0 0 0 0 0 0 0 0 0 0 0 0 0 0 0 0 0 0 0 0 0 0 0 0 0 0 0 2381 2381 2381 2381 2381 2398 2398 2398 2398 2398 2398 2398 2381 2381 2381 2381 2381 2398 2398 2398 2398 2398 2398 2398 2398 2398 2398 2398 2398 2398 2398 2415 2415 2415 2415 2415 2415 2415 2415 2398 2398 2398 2398 2381 2381 2381 2381 2381 2398 2398 2398 2398 2398 2398 2398 2415 2415 2415 2415 2415 2415 2415 2415 2415 2415 2415 2415 2415 2415 2415 2415 2415 2415 2415 2415 2415 2415 2415 2432 2432 2450 2450 2450 2450 2450 2450 2450 2450 2450 2450 2450 2450 2450 2450 2450 2450 2467 2450 2450 2467 2450 2450 2467 2467 2467 2467 2467 2467 2467 2467 2467 2467 2467 2485 2485 2485 2485 2485 2503 2503 2503 2503 2485 2485 2485 2467 2467 2467 2467 2467 2467 2467 2467 2467 2467 2485 2485 2485 2485 2485 2485 2485 2485 2485 2485 2485 2485 2485 2503 2485 2485 2485 2485 2503 2503 2485 2485 2485 2503 2503 2503 2503 2503 2503 2503 2503 2503 2503 2503 2503 2503 2503 2522 2522 2522 2522 2522 2522 2522 2522 2522 2522 2522 2522 2522 2522 2522 2522 2522 2522 2522 2522 2522 2522 2522 2522 2522 2522 2522 2522 2522 2522 2522 2522 2522 2522 2522 2522 2522 2503 2503 2503 2522 2522 2522 2522 2541 2541 2541 2541 2541 2541 2541 2541 2541 2541 2541 2541 2541 2541 2541 2541 2541 2560 2560 2579 2226 2226 2226 2226 2226 2226 2226 2226 2226 2226 2226 2226 2226 2226 2365 2365 2365 2365 2365 2365 2349 2349 2333 2317 2317 2301 2301 2286 2286 2286 2271 2241 2241 2241 2241 2560 2560 2560 2560 2560 2560 2560 2560 2560 2560 2560 2560 2560 1894 1883 1883 1894 1883 1883 1894 1894 1894 1904 1915 1915 1936 1936 1947 1959 1959 1970 1970 1981 1981 1785 1785 1776 1776 1776 1766 1766 1766 1757 1757 1757 1748 1748 1739 1739 1731 1731 1731 1586 1586 1579 1579 1572 1572 1572 1572 1572 1564 1564 1564 1564 1572 1572 1572 1572 1579 1579 1572 1572 1572 1572 1688 1688 1688 1688 1688 1688 1688 1688 1688 1688 1696 1696 1543 1543 1543 1543 1543 1543 1543 1536 1536 1529 1529 1536 1536 1536 1536 1536 1536 1536 1536 1536 1696 1705 1705 1705 1705 1705 1705 1705 1705 1696 1696 1696 1696 1705 1705 1705 1705 1705 1705 1705 1705 1705 1705 1705 1705 1705 1705 1705 1705 1705 1705 1696 1696 1705 1705 1705 1705 1705 1705 1705 1705 1705 1705 1705 1705 1713 1713 1713 1713 1713 1713 1713 1713 1705 1705 1705 1705 1696 1696 1696 1688 1688 1688 1696 1696 1705 1705 1705 1713 1713 1713 2598 2598 2598 2598 2598 2598 2618 2598 2598 2598 2598 2598 2598 2598 1843 1833 1833 1823 1813 1813 1804 1804 1794 1794 1785 1785 1785 1776 1776 1776 1766 1766 1757 1757 1757 1748 1748 1748 1739 1739 1731 1731 1731 1731 1722 1722 1722 1722 1722 1722 1731 1731 1739 1739 1748 1748 1748 1748 1757 1757 1766 1776 1776 1785 1785 1785 1785 1785 1785 1794 1804 1804 1804 1804 1813 1813 1813 1813 1823 1823 1823 1823 1823 1833 1833 1833 1843 1843 1853 1853 1863 1863 1873 1873 1873 1873 1873 1873 1873 1863 1863 1863 1863 1853 1853 1853 1853 1853 1853 1853 2090 2090 2090 2090 2090 2090 2103 2090 2090 2103 2103 2116 2116 2116 2579 2579 2579 2579 2579 2579 2579 2579 2579 2579 2579 2579 2579 2579 2579 2579 2579 2579 2579 2579 2579 2579 2579 2579 0 0 0 0 0 0 0 0 0 0
0 0 0 0 0 0 0 0 0 0 0 0 0 0 0 0 0 0 0 0 0 0 0 0 0 0 0 0 0 0 0 0 0 2381 2381 2381 2381 2381 2398 2398 2381 2381 2381 2381 2381 2381 2365 2365 2381 2381 2381 2381 2381 2381 2398 2398 2398 2398 2381 2381 2381 2381 2398 2398 2398 2398 2398 2415 2415 2415 2415 2415 2398 2381 2381 2381 2381 2381 2381 2381 2381 2398 2398 2398 2398 2398 2398 2398 2398 2398 2398 2398 2398 2398 2398 2398 2398 2398 2398 2398 2415 2415 2398 2398 2398 2398 2398 2415 2415 2415 2415 2415 2415 2415 2415 2415 2415 2415 2415 2415 2415 2415 2432 2432 2432 2432 2432 2450 2450 2450 2450 2450 2450 2450 2450 2450 2450 2450 2450 2450 2450 2450 2450 2450 2450 2450 2450 2450 2450 2467 2467 2485 2467 2467 2467 2467 2467 2450 2450 2450 2450 2450 2450 2450 2450 2450 2450 2467 2467 2467 2467 2467 2467 2467 2467 2485 2485 2467 2467 2485 2485 2485 2485 2485 2467 2467 2485 2485 2467 2467 2485 2503 2503 2503 2503 2503 2503 2503 2503 2503 2503 2503 2503 2503 2503 2503 2503 2503 2522 2503 2503 2503 2503 2503 2503 2503 2503 2522 2522 2522 2522 2522 2522 2522 2522 2522 2522 2522 2522 2522 2522 2522 2522 2522 2522 2522 2522 2522 2522 2522 2522 2522 2503 2503 2503 2503 2503 2522 2522 2522 2522 2522 2522 2541 2541 2541 2541 2541 2541 2541 2541 2522 2522 2541 2541 2541 2560 2560 2560 2226 2226 2226 2226 2226 2226 2226 2226 2226 2226 2226 2226 2226 2226 2432 2381 2381 2365 2365 2365 2365 2365 2333 2333 2317 2301 2301 2286 2286 2271 2271 2241 2241 2241 2241 2241 2560 2560 2560 2560 2560 2560 2560 2560 2560 2560 2560 1894 1894 1883 1883 1894 1894 1894 1894 1894 1904 1904 1915 1926 1936 1936 1959 1959 1959 1970 1970 1981 1981 1785 1785 1776 1776 1776 1766 1766 1766 1757 1757 1757 1748 1739 1739 1731 1731 1731 1731 1586 1586 1579 1579 1572 1572 1572 1572 1572 1572 1564 1564 1572 1572 1572 1572 1579 1579 1579 1579 1572 1572 1572 1680 1680 1680 1688 1688 1680 1680 1688 1688 1688 1696 1696 1536 1536 1543 1543 1543 1543 1543 1543 1536 1536 1536 1536 1536 1536 1536 1536 1536 1536 1536 1536 1696 1696 1696 1705 1705 1705 1705 1705 1696 1688 1688 1688 1688 1688 1688 1688 1696 1696 1696 1696 1696 1696 1696 1696 1696 1696 1696 1696 1696 1696 1696 1696 1696 1696 1696 1696 1696 1696 1696 1696 1696 1696 1696 1696 1696 1705 1705 1713 1713 1713 1713 1705 1705 1705 1705 1696 1696 1696 1696 1696 1696 1696 1696 1696 1696 1705 1705 1713 1713 1713 1713 2598 2598 2598 2598 2598 2598 2598 2598 2598 2598 2598 2598 2598 2598 2598 1833 1833 1823 1813 1804 1804 1804 1794 1794 1785 1785 1785 1776 1776 1776 1776 1776 1766 1757 1757 1748 1748 1748 1739 1739 1731 1731 1722 1722 1722 1722 1722 1722 1722 1731 1731 1731 1739 1739 1748 1748 1757 1757 1766 1766 1776 1776 1776 1785 1785 1785 1794 1794 1794 1804 1804 1804 1813 1813 1813 1813 1813 1823 1823 1823 1823 1823 1823 1833 1833 1833 1843 1843 1853 1853 1863 1873 1873 1873 1873 1873 1873 1873 1873 1863 1863 1863 1863 1853 1853 1853 1853 1853 1853 1853 2078 2090 2090 2090 2090 2090 2103 2090 2090 2103 2103 2116 2116 2116 2579 2579 2579 2579 2579 2579 2579 2579 2579 2579 2579 2579 2560 2560 2560 2560 2560 2560 2560 2560 2560 2560 2560 2579 0 0 0 0 0 0 0 0 0 0
0 0 0 0 0 0 0 0 0 0 0 0 0 0 0 0 0 0 0 0 0 0 0 0 0 0 0 0 0 0 0 0 0 2365 2365 2365 2365 2381 2381 2381 2365 2365 2365 2365 2365 2365 2365 2365 2365 2365 2381 2381 2381 2381 2381 2381 2381 2381 2381 2381 2381 2381 2381 2381 2381 2398 2398 2398 2398 2398 2398 2398 2381 2381 2381 2381 2381 2381 2381 2381 2381 2381 2381 2381 2398 2398 2398 2398 2398 2398 2398 2398 2398 2398 2398 2398 2398 2398 2398 2398 2398 2398 2398 2398 2398 2398 2398 2398 2398 2398 2398 2398 2398 2415 2415 2415 2415 2415 2415 2415 2415 2415 2415 2415 2415 2415 2432 2432 2432 2432 2450 2450 2450 2450 2450 2450 2450 2450 2450 2450 2450 2450 2450 2450 2450 2450 2450 2450 2450 2450 2450 2467 2450 2450 2467 2450 2450 2450 2450 2450 2450 2450 2450 2432 2432 2450 2450 2450 2450 2450 2450 2450 2467 2467 2467 2467 2467 2467 2467 2467 2467 2467 2467 2467 2467 2467 2467 2467 2467 2467 2467 2485 2485 2485 2485 2485 2485 2485 2485 2485 2503 2503 2503 2503 2503 2503 2503 2503 2503 2503 2503 2503 2503 2503 2503 2503 2503 2503 2503 2503 2503 2503 2503 2503 2522 2522 2522 2522 2522 2522 2522 2503 2503 2503 2503 2503 2503 2503 2522 2522 2522 2522 2503 2503 2503 2503 2503 2503 2503 2503 2503 2503 2522 2522 2522 2522 2522 2522 2522 2522 2522 2522 2522 2522 2522 2522 2541 2560 2226 2226 2226 2226 2226 2226 2226 2226 2226 2226 2241 2241 2241 2241 2241 2432 2381 2381 2381 2365 2365 2365 2365 2349 2349 2333 2317 2301 2286 2271 2271 2256 2241 2241 2241 2241 2241 2241 2560 2560 2560 2541 2541 2541 2560 2560 2560 2560 1894 1894 1894 1894 1894 1894 1894 1894 1894 1904 1915 1926 1926 1936 1947 1959 1959 1970 1970 1970 1981 1981 1785 1785 1766 1766 1766 1766 1766 1766 1757 1757 1757 1748 1739 1739 1731 1731 1731 1586 1586 1586 1579 1579 1572 1572 1572 1572 1572 1572 1572 1572 1572 1572 1572 1579 1579 1586 1586 1586 1572 1572 1663 1671 1671 1680 1680 1680 1680 1680 1680 1680 1688 1688 1688 1536 1536 1543 1550 1550 1550 1543 1543 1536 1536 1536 1536 1536 1536 1536 1536 1536 1536 1536 1696 1696 1696 1696 1696 1688 1688 1688 1688 1688 1688 1688 1680 1680 1680 1680 1688 1688 1688 1688 1688 1688 1688 1688 1688 1688 1688 1688 1688 1688 1688 1688 1688 1688 1688 1688 1688 1688 1688 1688 1688 1688 1688 1688 1688 1688 1696 1705 1705 1705 1705 1705 1705 1705 1705 1705 1696 1696 1696 1696 1696 1696 1696 1696 1705 1705 1705 1705 1713 1713 1713 1713 2579 2579 2579 2579 2579 2579 2598 2598 2598 2598 2598 2579 2579 2579 2579 1833 1833 1813 1813 1804 1794 1794 1794 1785 1785 1785 1785 1776 1776 1776 1776 1776 1766 1766 1766 1757 1757 1748 1739 1739 1731 1731 1722 1722 1722 1722 1722 1731 1731 1731 1739 1739 1739 1748 1748 1757 1766 1766 1776 1776 1776 1776 1785 1785 1785 1785 1794 1794 1794 1804 1804 1804 1804 1804 1813 1813 1813 1823 1823 1823 1823 1823 1823 1823 1823 1833 1833 1843 1853 1853 1863 1873 1873 1883 1873 1873 1873 1873 1873 1863 1863 1863 1863 1853 1853 1853 1853 1853 1843 1843 2078 2078 2090 2090 2090 2090 2103 2090 2090 2103 2116 2116 2116 2116 2560 2560 2560 2560 2579 2560 2560 2560 2579 2579 2579 2560 2560 2560 2560 2560 2560 2541 2541 2560 2560 2560 2560 2560 0 0 0 0 0 0 0 0 0 0
0 0 0 0 0 0 0 0 0 0 0 0 0 0 0 0 0 0 0 0 0 0 0 0 0 0 0 0 0 0 0 0 0 2349 2349 2365 2365 2365 2365 2365 2365 2365 2365 2365 2365 2365 2349 2349 2365 2365 2365 2381 2381 2381 2381 2381 2381 2381 2381 2381 2365 2365 2365 2381 2381 2381 2381 2398 2398 2398 2398 2398 2381 2365 2365 2365 2365 2365 2365 2365 2381 2381 2381 2381 2381 2381 2381 2381 2381 2381 2381 2381 2381 2398 2398 2398 2398 2398 2398 2398 2398 2398 2398 2398 2398 2398 2398 2398 2398 2398 2398 2398 2398 2398 2398 2398 2415 2415 2415 2415 2415 2415 2415 2415 2415 2415 2415 2415 2432 2432 2432 2450 2432 2432 2450 2450 2450 2450 2450 2450 2450 2450 2450 2450 2450 2432 2432 2432 2450 2450 2450 2450 2450 2450 2450 2450 2450 2432 2432 2432 2432 2432 2432 2432 2432 2432 2432 2432 2432 2432 2450 2450 2450 2450 2450 2450 2450 2450 2450 2450 2450 2467 2467 2467 2467 2467 2467 2467 2467 2467 2467 2467 2467 2467 2467 2467 2467 2467 2467 2467 2467 2485 2485 2485 2485 2485 2485 2485 2485 2485 2503 2485 2485 2485 2485 2485 2485 2485 2485 2485 2485 2485 2503 2503 2522 2522 2503 2503 2522 2503 2503 2503 2503 2503 2503 2503 2503 2503 2503 2503 2503 2503 2503 2485 2485 2485 2485 2503 2503 2503 2503 2503 2503 2522 2522 2503 2503 2503 2503 2503 2503 2503 2503 2503 2503 2503 2522 2560 2226 2226 2226 2241 2226 2226 2226 2226 2226 2241 2241 2241 2241 2241 2241 2415 2415 2398 2381 2381 2381 2365 2365 2365 2365 2349 2317 2286 2271 2271 2256 2241 2241 2241 2241 2241 2241 2226 2226 2560 2560 2541 2541 2541 2560 2541 2541 2541 1894 1894 1894 1894 1894 1894 1894 1894 1894 1904 1915 1926 1936 1947 1947 1959 1959 1970 1970 1970 1981 2485 2485 2485 1766 1766 1766 1766 1757 1757 1757 1757 1757 1748 1739 1739 1731 1731 1731 1586 1586 1586 1579 1579 1579 1572 1572 1572 1572 1572 1572 1572 1572 1572 1572 1579 1579 1586 1586 1586 1579 1579 1663 1663 1671 1671 1671 1671 1671 1671 1671 1680 1680 1680 1680 1543 1543 1543 1550 1550 1550 1543 1543 1536 1536 1536 1536 1543 1543 1543 1543 1543 1536 1536 1688 1688 1688 1688 1688 1680 1680 1680 1680 1680 1680 1680 1680 1680 1680 1680 1680 1680 1680 1680 1680 1688 1688 1688 1688 1688 1688 1688 1688 1688 1688 1688 1688 1688 1688 1688 1688 1688 1688 1688 1688 1688 1688 1688 1688 1688 1688 1696 1696 1696 1696 1696 1696 1696 1696 1696 1696 1696 1696 1696 1696 1696 1696 1705 1705 1705 1713 1713 1713 1713 1713 1722 2560 2560 2579 2579 2579 2579 2579 2579 2579 2579 2579 2579 2579 2560 2560 2560 2560 1813 1813 1804 1794 1794 1794 1785 1785 1785 1785 1776 1776 1776 1776 1776 1766 1766 1766 1757 1757 1748 1748 1739 1731 1731 1731 1731 1731 1731 1731 1731 1739 1739 1739 1748 1748 1748 1766 1766 1776 1776 1776 1776 1785 1785 1785 1785 1794 1794 1794 1794 1794 1804 1804 1804 1804 1804 1804 1813 1813 1813 1813 1813 1823 1823 1823 1823 1823 1823 1823 1823 1853 1863 1883 1883 1883 1883 1883 1883 1883 1883 1873 1873 1873 1863 1863 1853 1853 1853 1853 1853 1843 1843 1843 2078 2090 2090 2090 2090 2103 2090 2090 2103 2116 2116 2116 2116 2560 2560 2560 2560 2560 2560 2560 2560 2560 2560 2560 2560 2560 2560 2560 2541 2541 2541 2541 2541 2541 2541 2541 2541 0 0 0 0 0 0 0 0 0 0
0 0 0 0 0 0 0 0 0 0 0 0 0 0 0 0 0 0 0 0 0 0 0 0 0 0 0 0 0 0 0 0 0 2349 2349 2349 2349 2365 2365 2365 2349 2349 2349 2349 2349 2349 2349 2349 2349 2349 2365 2365 2365 2365 2365 2365 2365 2381 2381 2365 2365 2365 2365 2365 2365 2365 2381 2381 2381 2381 2381 2381 2365 2349 2349 2349 2349 2349 2349 2365 2365 2381 2381 2381 2381 2381 2381 2381 2381 2381 2381 2381 2381 2381 2381 2381 2381 2381 2381 2381 2381 2381 2381 2381 2381 2381 2381 2398 2398 2398 2398 2398 2398 2398 2398 2398 2398 2398 2398 2398 2398 2398 2398 2398 2398 2398 2415 2415 2415 2415 2432 2432 2432 2432 2432 2432 2432 2450 2450 2450 2450 2432 2432 2432 2432 2432 2432 2432 2432 2432 2432 2450 2450 2450 2450 2450 2450 2432 2432 2432 2432 2432 2432 2432 2432 2432 2432 2432 2432 2432 2432 2450 2450 2450 2450 2450 2450 2450 2450 2450 2450 2450 2450 2450 2450 2450 2450 2450 2450 2450 2450 2467 2467 2467 2467 2467 2467 2467 2467 2467 2467 2467 2467 2467 2467 2467 2467 2467 2485 2485 2485 2485 2485 2485 2485 2485 2467 2467 2467 2467 2467 2485 2485 2485 2503 2503 2503 2503 2503 2503 2503 2503 2503 2503 2503 2503 2503 2503 2503 2503 2503 2503 2485 2485 2485 2485 2485 2485 2485 2485 2485 2485 2485 2503 2503 2503 2503 2503 2503 2503 2503 2503 2503 2503 2503 2503 2522 2522 2241 2241 2241 2241 2241 2241 2241 2241 2241 2241 2241 2241 2241 2241 2432 2415 2398 2398 2381 2381 2381 2365 2365 2365 2365 2349 2317 2286 2271 2271 2256 2241 2241 2241 2241 2241 2226 2226 2226 2226 2560 2560 2541 2541 2541 2522 2522 2522 1894 1894 1894 1894 1894 1894 1894 1894 1904 1904 1915 1926 1936 1947 1947 1959 1959 1970 1970 1970 1981 1993 2485 2485 2503 2503 2503 1766 1757 1757 1757 1757 1757 1748 1739 1739 1739 1739 1739 1586 1586 1586 1579 1579 1579 1572 1572 1572 1572 1572 1572 1572 1572 1572 1572 1579 1579 1586 1586 1586 1586 1655 1663 1663 1663 1663 1671 1671 1671 1671 1671 1671 1680 1680 1680 1543 1543 1550 1550 1550 1543 1543 1543 1543 1536 1536 1536 1543 1543 1543 1543 1543 1536 1536 1680 1680 1680 1680 1680 1671 1671 1671 1663 1663 1671 1671 1671 1671 1671 1671 1671 1680 1680 1680 1680 1680 1680 1680 1680 1680 1680 1680 1680 1680 1688 1688 1680 1680 1680 1688 1688 1680 1680 1680 1680 1680 1680 1680 1688 1688 1688 1688 1688 1688 1688 1688 1696 1696 1696 1696 1696 1696 1696 1696 1696 1696 1696 1705 1705 1713 1713 1713 1713 1713 1713 1722 2541 2541 2560 2560 2560 2560 2560 2560 2560 2560 2560 2560 2560 2560 2560 2541 2541 2541 1804 1804 1794 1794 1794 1794 1785 1785 1785 1785 1776 1776 1776 1776 1766 1766 1766 1757 1748 1748 1748 1739 1739 1731 1731 1731 1731 1731 1731 1731 1739 1739 1748 1748 1748 1757 1766 1776 1776 1776 1785 1785 1785 1785 1785 1785 1794 1794 1794 1794 1794 1804 1804 1813 1804 1804 1804 1813 1813 1813 1813 1813 1823 1823 1823 1823 1823 1823 1823 1823 2579 1894 1894 1894 1894 1894 1894 1883 1883 1883 1873 1873 1873 1863 1863 1853 1853 1853 1853 1843 1833 1833 1833 1833 2090 2090 2090 2090 2103 2090 2090 2103 2116 2116 2116 2116 2560 2560 2560 2560 2560 2560 2560 2560 2560 2560 2560 2541 2541 2541 2541 2541 2541 2541 2541 2522 2522 2522 2522 2541 0 0 0 0 0 0 0 0 0 0
0 0 0 0 0 0 0 0 0 0 0 0 0 0 0 0 0 0 0 0 0 0 0 0 0 0 0 0 0 0 0 0 0 2349 2349 2349 2349 2349 2349 2349 2349 2349 2349 2349 2349 2349 2349 2349 2349 2349 2349 2349 2349 2349 2365 2365 2365 2365 2365 2365 2365 2365 2365 2365 2365 2365 2365 2365 2365 2365 2365 2365 2349 2349 2349 2349 2349 2349 2349 2349 2349 2365 2365 2365 2365 2381 2381 2381 2381 2381 2381 2381 2381 2381 2381 2381 2381 2381 2381 2381 2381 2381 2381 2381 2381 2381 2381 2381 2381 2381 2381 2398 2398 2398 2398 2398 2398 2398 2398 2398 2398 2398 2398 2398 2398 2398 2398 2398 2415 2415 2415 2415 2415 2415 2432 2432 2432 2432 2432 2432 2432 2415 2415 2432 2432 2432 2432 2415 2415 2432 2432 2432 2432 2432 2450 2450 2450 2432 2432 2432 2432 2432 2432 2432 2432 2432 2432 2432 2432 2432 2432 2432 2450 2450 2450 2450 2450 2450 2450 2450 2450 2450 2450 2450 2450 2450 2450 2450 2450 2450 2450 2450 2467 2467 2467 2467 2467 2467 2467 2467 2467 2467 2467 2450 2450 2450 2450 2450 2467 2467 2467 2467 2467 2467 2467 2467 2467 2467 2467 2467 2467 2467 2467 2467 2485 2485 2503 2503 2503 2503 2503 2503 2503 2503 2503 2503 2503 2503 2503 2485 2485 2485 2485 2467 2467 2467 2467 2485 2485 2485 2485 2485 2485 2485 2485 2485 2485 2485 2485 2485 2485 2485 2485 2485 2503 2503 2503 2522 2241 2241 2241 2241 2241 2241 2241 2241 2241 2241 2241 2241 2241 2256 2271 2381 2398 2381 2381 2381 2381 2381 2381 2381 2381 2381 2349 2301 2286 2241 2241 2241 2241 2226 2226 2226 2226 2226 2226 2226 2226 2560 2541 2541 2541 2522 2522 2522 1894 1894 1894 1894 1894 1894 1894 1894 1904 1904 1915 1926 1936 1947 1947 1959 1970 1970 1970 1970 1981 1993 2485 2485 2503 2503 2503 2503 1757 1757 1757 1757 1748 1739 1731 1731 1731 1731 1731 1586 1586 1586 1586 1579 1579 1572 1572 1572 1572 1572 1572 1572 1572 1572 1572 1579 1579 1586 1586 1594 1594 1655 1655 1663 1663 1663 1663 1663 1663 1663 1663 1663 1671 1671 1680 1550 1550 1550 1550 1550 1543 1543 1543 1543 1543 1543 1543 1543 1543 1543 1543 1543 1543 1671 1671 1671 1671 1671 1671 1663 1663 1663 1663 1663 1663 1663 1663 1663 1671 1671 1671 1671 1671 1680 1680 1680 1680 1680 1680 1680 1680 1680 1680 1680 1680 1680 1680 1680 1680 1680 1680 1680 1680 1680 1680 1680 1680 1680 1680 1680 1688 1688 1688 1688 1688 1688 1696 1696 1696 1696 1696 1696 1696 1696 1696 1696 1696 1705 1705 1713 1713 1713 1713 1713 1713 1748 2541 2541 2541 2541 2541 2541 2541 2541 2560 2560 2560 2541 2541 2541 2541 2522 2522 2301 2286 1804 1794 1794 1794 1794 1794 1785 1785 1785 1776 1776 1776 1776 1766 1766 1766 1757 1748 1748 1748 1739 1739 1731 1731 1731 1731 1731 1739 1739 1739 1739 1748 1748 1757 1766 1776 1776 1776 1776 1785 1785 1785 1785 1785 1785 1794 1794 1794 1804 1804 1804 1804 1813 1804 1804 1804 1813 1813 1813 1813 1813 1813 1823 1823 1823 1823 1823 2560 2579 2579 2598 2598 1894 1883 1883 1883 1883 1883 1883 1873 1873 1873 1863 1863 1853 1853 1853 1853 1843 1833 1833 1833 1833 2090 2090 2090 2090 2103 2090 2090 2103 2116 2116 2116 2116 2522 2522 2522 2541 2541 2541 2541 2541 2560 2560 2560 2541 2541 2541 2541 2541 2541 2541 2522 2522 2522 2522 2522 2522 0 0 0 0 0 0 0 0 0 0
0 0 0 0 0 0 0 0 0 0 0 0 0 0 0 0 0 0 0 0 0 0 0 0 0 0 0 0 0 0 0 0 0 2349 2349 2349 2349 2349 2349 2349 2349 2349 2349 2349 2349 2349 2349 2349 2349 2349 2349 2349 2349 2349 2349 2349 2349 2365 2365 2365 2365 2365 2365 2365 2365 2365 2365 2365 2349 2349 2365 2365 2349 2333 2333 2333 2349 2333 2333 2333 2349 2365 2365 2365 2365 2381 2381 2381 2365 2365 2365 2365 2365 2365 2365 2365 2365 2365 2365 2365 2381 2381 2381 2381 2381 2381 2381 2381 2381 2381 2381 2381 2381 2381 2381 2381 2398 2398 2398 2398 2398 2398 2398 2398 2398 2398 2398 2398 2398 2398 2398 2415 2415 2415 2415 2415 2415 2415 2415 2415 2415 2415 2415 2415 2432 2415 2415 2415 2415 2415 2415 2415 2415 2432 2432 2450 2450 2432 2432 2432 2415 2415 2415 2415 2415 2415 2415 2415 2432 2432 2432 2432 2450 2450 2450 2450 2450 2450 2450 2450 2450 2450 2450 2450 2450 2450 2450 2450 2450 2450 2450 2450 2450 2450 2450 2450 2450 2450 2450 2450 2450 2450 2450 2450 2450 2450 2450 2450 2450 2450 2450 2467 2450 2450 2450 2450 2450 2450 2450 2450 2450 2467 2467 2467 2485 2485 2485 2485 2503 2503 2503 2503 2503 2485 2485 2485 2485 2485 2485 2485 2485 2485 2485 2467 2467 2467 2467 2467 2485 2485 2467 2467 2485 2485 2485 2485 2485 2485 2467 2467 2485 2485 2467 2467 2485 2485 2503 2503 2241 2241 2241 2241 2241 2241 2241 2241 2241 2241 2241 2241 2241 2256 2256 2365 2381 2381 2381 2365 2365 2365 2365 2381 2381 2381 2415 2485 2503 2241 2241 2241 2241 2226 2226 2226 2226 2226 2212 2212 2212 2541 2541 2541 2522 2522 2522 2522 1894 1894 1894 1894 1894 1894 1894 1904 1904 1904 1915 1926 1936 1947 1947 1959 1970 1970 1970 1981 1993 2005 2485 2485 2503 2503 2503 2485 2485 1766 1757 1757 1748 1731 1731 1731 1731 1731 1731 1586 1586 1586 1586 1579 1579 1579 1572 1572 1572 1572 1572 1572 1572 1572 1572 1579 1579 1586 1586 1594 1594 1655 1655 1655 1655 1655 1655 1655 1663 1663 1663 1663 1671 1671 1557 1550 1550 1550 1557 1557 1550 1543 1543 1543 1543 1543 1543 1543 1543 1550 1543 1543 1543 1663 1663 1663 1663 1663 1663 1655 1655 1655 1655 1655 1655 1663 1663 1663 1663 1663 1663 1663 1663 1671 1671 1671 1671 1671 1671 1671 1671 1671 1671 1671 1671 1671 1671 1671 1671 1671 1680 1680 1680 1680 1680 1680 1680 1680 1680 1680 1688 1688 1688 1688 1688 1688 1696 1696 1696 1696 1696 1696 1696 1705 1705 1705 1705 1705 1705 1713 1713 1713 1713 1713 1722 1748 2541 2541 2541 2541 2541 2541 2541 2541 2541 2541 2541 2541 2541 2522 2522 2485 2317 2301 2286 2271 2271 2256 2256 2241 2241 2241 2241 1785 1776 1776 1776 1776 1766 1766 1766 1757 1748 1748 1748 1739 1739 1739 1731 1731 1731 1731 1731 1739 1739 1739 1748 1757 1757 1766 1776 1776 1776 1776 1785 1785 1785 1785 1785 1785 1794 1804 1804 1804 1804 1804 1813 1813 1813 1813 1813 1813 1813 1813 1813 1813 1813 1823 1823 2541 2541 2541 2560 2560 2579 2579 2579 1894 1883 1883 1883 1883 1883 1883 1873 1873 1873 1863 1863 1853 1853 1853 1853 1853 1843 1843 1833 1833 2090 2090 2090 2090 2103 2103 2103 2103 2116 2116 2116 2116 2522 2522 2503 2503 2503 2503 2522 2522 2522 2522 2541 2522 2522 2541 2522 2522 2522 2522 2522 2522 2522 2522 2522 2522 0 0 0 0 0 0 0 0 0 0
0 0 0 0 0 0 0 0 0 0 0 0 0 0 0 0 0 0 0 0 0 0 0 0 0 0 0 0 0 0 0 0 0 2333 2333 2333 2333 2349 2333 2333 2333 2333 2333 2349 2349 2349 2349 2349 2349 2333 2333 2349 2349 2349 2349 2349 2349 2349 2349 2349 2349 2349 2349 2349 2349 2349 2349 2349 2349 2349 2349 2349 2333 2333 2333 2333 2333 2333 2333 2333 2333 2349 2349 2365 2365 2365 2365 2365 2365 2365 2365 2365 2365 2365 2365 2365 2365 2365 2365 2365 2365 2365 2365 2365 2381 2381 2381 2381 2381 2381 2381 2381 2381 2381 2381 2381 2381 2381 2381 2381 2381 2381 2381 2381 2381 2381 2398 2398 2398 2398 2398 2398 2398 2398 2398 2398 2398 2398 2398 2398 2398 2398 2398 2398 2415 2415 2415 2415 2415 2415 2415 2415 2415 2415 2432 2432 2432 2415 2415 2415 2415 2415 2415 2415 2398 2398 2415 2415 2415 2415 2415 2415 2415 2432 2432 2432 2432 2432 2432 2432 2432 2432 2432 2432 2432 2432 2432 2432 2432 2432 2432 2450 2450 2450 2450 2450 2450 2450 2450 2450 2450 2450 2450 2450 2450 2450 2450 2450 2450 2450 2450 2450 2450 2450 2450 2450 2450 2450 2450 2450 2450 2450 2450 2467 2467 2467 2467 2485 2485 2485 2485 2485 2485 2485 2485 2485 2485 2485 2485 2485 2467 2467 2467 2450 2450 2450 2450 2467 2467 2467 2467 2467 2467 2467 2467 2467 2467 2467 2467 2467 2467 2467 2467 2467 2467 2467 2485 2485 2241 2241 2241 2241 2241 2241 2241 2241 2241 2241 2241 2241 2241 2256 2256 2349 2365 2365 2365 2365 2365 2365 2365 2381 2381 2398 2415 2467 2485 2503 2241 2241 2241 2226 2226 2226 2212 2212 2212 2212 2212 2541 2503 2503 2503 2485 2485 1894 1894 1894 1894 1894 1894 1894 1894 1904 1904 1915 1926 1926 1936 1947 1947 1959 1970 1970 1981 1981 1993 2005 2503 2503 2503 2503 2503 2485 2485 2485 2485 2485 1722 1722 1722 1722 1731 1731 1731 1594 1594 1594 1586 1586 1579 1579 1572 1572 1572 1572 1572 1572 1572 1572 1579 1579 1579 1586 1594 1594 1594 1647 1655 1655 1655 1655 1655 1655 1655 1655 1655 1663 1663 1663 1557 1557 1557 1557 1557 1557 1557 1550 1543 1543 1543 1543 1543 1543 1543 1550 1550 1550 1647 1655 1655 1655 1663 1663 1663 1655 1655 1655 1655 1655 1655 1655 1655 1655 1655 1655 1655 1655 1655 1663 1663 1663 1663 1663 1663 1663 1671 1671 1663 1663 1663 1663 1663 1663 1663 1663 1671 1671 1671 1671 1671 1680 1680 1680 1680 1680 1680 1688 1688 1688 1688 1688 1688 1696 1696 1696 1696 1696 1705 1705 1705 1705 1705 1705 1713 1713 1713 1713 1713 1713 1713 2522 2522 2522 2541 2541 2541 2541 2541 2541 2541 2541 2541 2522 2522 2522 2522 2485 2301 2301 2286 2271 2271 2256 2256 2241 2241 2241 2241 2241 1785 1776 1776 1776 1766 1766 1766 1757 1748 1748 1748 1739 1739 1739 1731 1731 1731 1731 1731 1739 1739 1748 1757 1757 1766 1766 1776 1776 1776 1776 1776 1776 1776 1776 1785 1766 1766 1776 1776 1776 1804 2503 2503 2503 2522 2522 2522 1804 1804 1813 1794 1785 1785 1823 2522 2522 2522 2541 2541 2560 2560 2579 2579 1894 1883 1883 1883 1883 1883 1883 1873 1873 1873 1863 1863 1853 1853 1853 1853 1853 1843 1843 1843 2103 2103 2090 2090 2103 2103 2103 2103 2103 2116 2116 2116 2503 2503 2503 2503 2503 2503 2503 2503 2503 2503 2522 2522 2522 2522 2522 2503 2503 2503 2503 2503 2503 2503 2503 2503 2503 0 0 0 0 0 0 0 0 0 0
0 0 0 0 0 0 0 0 0 0 0 0 0 0 0 0 0 0 0 0 0 0 0 0 0 0 0 0 0 0 0 0 0 2333 2333 2333 2333 2333 2333 2333 2333 2333 2333 2333 2333 2333 2333 2333 2333 2333 2333 2333 2333 2333 2349 2349 2349 2349 2349 2349 2349 2349 2349 2349 2349 2349 2349 2349 2349 2349 2349 2349 2333 2333 2333 2333 2333 2333 2333 2333 2333 2333 2333 2349 2349 2349 2349 2365 2349 2349 2365 2365 2365 2365 2349 2349 2365 2365 2365 2349 2349 2365 2365 2365 2365 2365 2365 2381 2381 2381 2381 2381 2381 2381 2381 2381 2381 2381 2381 2381 2381 2381 2381 2381 2381 2381 2398 2398 2398 2398 2398 2398 2398 2398 2398 2398 2398 2398 2398 2398 2398 2398 2398 2398 2398 2398 2398 2398 2398 2398 2398 2398 2398 2415 2415 2415 2415 2415 2415 2415 2398 2398 2398 2398 2398 2398 2398 2398 2415 2415 2398 2398 2398 2398 2415 2415 2415 2415 2415 2432 2432 2432 2432 2432 2432 2432 2415 2415 2432 2432 2432 2432 2432 2432 2432 2450 2450 2432 2432 2450 2450 2450 2450 2450 2432 2432 2432 2432 2432 2450 2450 2450 2450 2432 2432 2432 2432 2450 2450 2450 2450 2450 2450 2450 2450 2450 2450 2467 2467 2467 2467 2467 2467 2467 2467 2467 2467 2467 2467 2467 2467 2467 2467 2450 2450 2450 2450 2467 2467 2467 2467 2467 2467 2467 2467 2467 2467 2467 2467 2467 2467 2467 2467 2467 2467 2467 2467 2467 2256 2241 2241 2241 2241 2241 2241 2241 2241 2241 2241 2241 2241 2256 2256 2349 2365 2365 2365 2365 2365 2365 2365 2381 2381 2432 2432 2450 2485 2485 2485 2241 2226 2226 2226 2212 2212 2212 2212 2198 2184 2184 2503 2503 2503 2485 2485 1894 1894 1894 1894 1894 1894 1894 1894 1904 1904 1915 1926 1926 1936 1947 1947 1970 1970 1981 1981 1981 1993 2005 2485 2485 2485 2503 2485 2485 2485 2485 2485 2485 2485 1722 1713 1713 1722 1722 1722 1594 1594 1594 1586 1586 1579 1579 1572 1572 1572 1572 1572 1572 1572 1572 1579 1579 1579 1586 1594 1594 1601 1647 1647 1647 1655 1655 1655 1655 1655 1655 1655 1655 1655 1572 1564 1564 1557 1557 1557 1557 1557 1550 1550 1543 1543 1550 1550 1550 1550 1557 1557 1557 1647 1647 1655 1655 1655 1655 1663 1655 1655 1655 1655 1655 1655 1655 1655 1655 1655 1655 1655 1655 1655 1655 1655 1655 1655 1655 1655 1655 1663 1663 1655 1655 1663 1663 1655 1655 1663 1663 1663 1671 1671 1671 1671 1680 1680 1680 1680 1680 1680 1688 1688 1688 1688 1688 1688 1696 1696 1705 1705 1705 1705 1705 1705 1705 1705 1713 1713 1713 1713 1722 1722 1722 1722 2503 2503 2522 2522 2522 2541 2541 2541 2541 2541 2541 2541 2522 2522 2522 2503 2301 2301 2286 2286 2271 2271 2256 2256 2256 2256 2241 2241 2241 2241 1776 1776 1766 1766 1766 1766 1757 1748 1748 1748 1739 1739 1739 1739 1739 1739 1739 1739 1739 1739 1748 1757 1757 1766 1766 1776 1776 1776 1776 1776 1776 1776 1776 1785 1766 1766 1766 1776 1776 2522 2522 2522 2522 2522 2522 2541 1804 1804 1823 1794 1785 1785 2522 2522 2522 2522 2522 2522 2541 2560 2579 2579 1894 1883 1883 1894 1883 1883 1883 1873 1873 1873 1863 1863 1853 1853 1853 1853 1843 1843 1843 1843 2116 2116 2116 2116 2116 2116 2116 2116 2116 2116 2116 2467 2467 2485 2503 2503 2503 2503 2503 2503 2503 2503 2503 2503 2503 2503 2503 2503 2503 2503 2503 2503 2503 2503 2503 2503 2503 0 0 0 0 0 0 0 0 0 0
0 0 0 0 0 0 0 0 0 0 0 0 0 0 0 0 0 0 0 0 0 0 0 0 0 0 0 0 0 0 0 0 0 2333 2333 2333 2333 2333 2333 2333 2317 2317 2333 2333 2317 2317 2333 2333 2333 2317 2317 2333 2333 2333 2333 2333 2333 2349 2349 2349 2349 2349 2333 2333 2333 2333 2333 2333 2333 2333 2333 2333 2333 2317 2317 2333 2333 2333 2333 2333 2333 2333 2333 2333 2333 2333 2333 2349 2333 2333 2349 2349 2349 2349 2349 2349 2349 2349 2349 2349 2349 2349 2349 2349 2349 2349 2365 2365 2365 2365 2365 2365 2365 2381 2381 2381 2381 2381 2381 2381 2381 2381 2381 2381 2381 2381 2381 2381 2381 2381 2398 2398 2398 2398 2398 2381 2381 2381 2381 2398 2398 2398 2398 2398 2398 2398 2398 2398 2398 2398 2398 2398 2398 2398 2415 2415 2415 2398 2398 2398 2398 2398 2398 2398 2381 2381 2398 2398 2398 2398 2398 2398 2398 2398 2398 2398 2398 2398 2398 2415 2415 2415 2415 2415 2415 2415 2415 2415 2415 2415 2415 2432 2432 2432 2432 2432 2432 2432 2432 2432 2432 2432 2432 2432 2432 2432 2432 2432 2432 2432 2432 2432 2432 2432 2432 2432 2432 2432 2432 2432 2450 2450 2450 2450 2450 2450 2450 2450 2450 2450 2450 2450 2450 2450 2467 2467 2467 2467 2467 2467 2467 2450 2450 2450 2450 2450 2450 2450 2450 2450 2450 2450 2450 2467 2450 2450 2450 2450 2450 2450 2450 2450 2450 2450 2450 2467 2467 2271 2256 2256 2241 2241 2241 2241 2241 2241 2241 2241 2241 2241 2241 2256 2256 2349 2349 2365 2365 2365 2365 2365 2365 2381 2381 2415 2432 2450 2467 2485 2485 2241 2226 2226 2226 2212 2212 2212 2198 2198 2184 2184 2184 2184 2522 2503 1894 1894 1894 1894 1894 1894 1894 1894 1894 1904 1904 1915 1926 1926 1936 1959 1959 1970 1970 1981 1981 1981 1993 2485 2485 2485 2485 2485 2485 2485 2485 2485 2485 2485 2467 2467 1713 1713 1722 1722 1722 1594 1594 1594 1586 1586 1579 1579 1572 1572 1572 1572 1572 1572 1572 1579 1579 1579 1586 1586 1594 1594 1601 1632 1632 1639 1639 1639 1639 1639 1639 1639 1647 1647 1647 1572 1572 1564 1564 1564 1564 1557 1557 1550 1550 1550 1550 1550 1550 1550 1550 1557 1564 1647 1647 1647 1655 1655 1655 1655 1655 1647 1647 1647 1647 1647 1647 1647 1647 1647 1647 1647 1655 1655 1655 1647 1647 1655 1655 1655 1655 1655 1655 1655 1655 1655 1655 1655 1655 1655 1655 1655 1663 1663 1663 1663 1671 1671 1680 1680 1680 1680 1680 1688 1688 1688 1688 1688 1696 1705 1705 1705 1705 1705 1705 1705 1705 1705 1713 1713 1713 1713 1722 1722 1722 1731 1731 2503 2503 2503 2522 2522 2522 2522 2522 2522 2522 2522 2522 2522 2522 2503 2503 2301 2301 2286 2286 2271 2271 2256 2256 2256 2256 2256 2241 2241 2241 2226 1776 1766 1766 1766 1757 1757 1748 1748 1748 1748 1739 1739 1739 1739 1739 1739 1739 1739 1748 1748 1766 1766 1766 1776 1776 1776 1776 1776 1776 1776 1776 1776 2522 2522 1766 1766 2522 2522 2522 2522 2522 2522 2522 2522 2522 2522 2522 2541 2522 2522 2522 2522 2522 2522 2522 2522 2522 2522 2541 2579 1894 1894 1894 1894 1894 1894 1894 1883 1873 1873 1873 1863 1863 1853 1853 1853 1853 1843 1843 1843 2116 2116 2116 2116 2116 2116 2116 2116 2116 2116 2116 2129 2467 2467 2485 2485 2485 2485 2485 2485 2485 2485 2485 2503 2503 2503 2503 2503 2503 2503 2503 2503 2503 2503 2503 2503 2503 2503 0 0 0 0 0 0 0 0 0 0
0 0 0 0 0 0 0 0 0 0 0 0 0 0 0 0 0 0 0 0 0 0 0 0 0 0 0 0 0 0 0 0 0 2333 2317 2317 2317 2317 2317 2317 2301 2301 2317 2317 2301 2301 2317 2317 2317 2301 2301 2317 2317 2317 2317 2333 2333 2333 2333 2333 2333 2333 2333 2333 2333 2333 2333 2333 2333 2333 2333 2333 2317 2317 2317 2317 2317 2317 2317 2317 2333 2333 2317 2317 2333 2333 2333 2333 2333 2333 2333 2333 2333 2333 2333 2333 2333 2333 2333 2333 2333 2333 2349 2349 2349 2349 2349 2365 2365 2349 2349 2365 2365 2381 2381 2381 2381 2381 2365 2365 2365 2365 2365 2365 2365 2381 2381 2381 2381 2381 2381 2381 2381 2381 2381 2381 2381 2381 2381 2381 2381 2381 2381 2398 2398 2398 2398 2381 2381 2398 2398 2398 2398 2398 2398 2398 2398 2381 2381 2381 2381 2381 2381 2398 2381 2381 2381 2398 2398 2398 2398 2381 2381 2381 2381 2381 2398 2398 2398 2398 2398 2398 2415 2415 2415 2398 2398 2398 2415 2415 2415 2415 2415 2415 2415 2432 2432 2432 2432 2432 2432 2432 2432 2432 2432 2432 2432 2432 2432 2432 2432 2432 2432 2432 2432 2432 2432 2432 2432 2432 2432 2432 2450 2450 2450 2450 2432 2432 2432 2432 2432 2432 2450 2450 2450 2450 2450 2450 2467 2450 2450 2450 2450 2432 2432 2432 2432 2450 2450 2450 2450 2450 2450 2450 2450 2450 2432 2432 2450 2450 2450 2450 2450 2450 2450 2450 2450 2271 2256 2241 2241 2241 2241 2241 2241 2241 2241 2241 2241 2241 2256 2256 2333 2349 2349 2365 2365 2365 2365 2365 2365 2381 2381 2415 2415 2432 2450 2450 2450 2450 2241 2226 2212 2212 2212 2212 2198 2198 2198 2198 2184 2184 2184 2184 1894 1894 1894 1894 1894 1894 1894 1894 1894 1904 1915 1915 1926 1926 1936 1959 1959 1970 1970 1981 1981 1993 2005 2485 2485 2467 2467 2485 2467 2467 2467 2467 2467 2467 2467 2467 2450 2450 2450 1594 1594 1594 1594 1594 1586 1586 1586 1586 1579 1572 1572 1572 1572 1579 1579 1579 1579 1579 1586 1586 1594 1594 1601 1624 1624 1632 1632 1632 1632 1632 1632 1632 1632 1632 1639 1572 1564 1564 1564 1564 1564 1557 1557 1550 1550 1550 1550 1550 1550 1550 1557 1557 1564 1616 1624 1632 1647 1647 1647 1655 1655 1647 1647 1647 1647 1647 1647 1647 1647 1647 1647 1647 1647 1647 1647 1647 1647 1647 1647 1647 1647 1647 1647 1647 1655 1647 1647 1655 1655 1655 1655 1655 1655 1663 1663 1663 1671 1671 1680 1680 1680 1680 1688 1688 1688 1688 1688 1696 1696 1705 1705 1705 1705 1705 1705 1705 1705 1705 1713 1713 1713 1722 1722 1722 1722 1722 2503 2503 2503 2503 2522 2522 2522 2522 2522 2522 2522 2522 2522 2522 2522 2503 2503 2301 2301 2286 2286 2271 2271 2256 2256 2256 2256 2256 2241 2241 2241 2226 2226 1766 1766 1766 1757 1757 1748 1748 1748 1748 1739 1739 1739 1739 1739 1739 1739 1739 1748 1748 1766 1766 1776 1776 1776 1776 1776 1776 1776 1776 2522 2522 2522 2522 2522 2522 2522 2522 2522 2522 2522 2522 2522 2522 2522 2522 2522 2522 2522 2522 2522 2522 2522 2503 2503 2503 2503 2522 2522 2522 1894 1894 1894 1894 1894 1894 1894 1883 1873 1873 1873 1863 1863 1863 1863 1853 1853 1853 1853 2116 2116 2116 2116 2116 2116 2116 2116 2116 2116 2116 2116 2467 2450 2450 2485 2485 2485 2485 2485 2485 2485 2485 2485 2485 2485 2485 2485 2485 2485 2485 2485 2485 2485 2503 2503 2503 2503 2503 0 0 0 0 0 0 0 0 0 0
0 0 0 0 0 0 0 0 0 0 0 0 0 0 0 0 0 0 0 0 0 0 0 0 0 0 0 0 0 0 0 0 0 2317 2317 2317 2317 2317 2317 2317 2301 2301 2301 2301 2301 2301 2301 2301 2301 2301 2301 2317 2317 2317 2317 2317 2333 2333 2333 2333 2333 2333 2333 2333 2333 2333 2333 2333 2333 2333 2333 2333 2317 2317 2317 2317 2317 2317 2317 2317 2317 2317 2317 2317 2317 2317 2317 2333 2333 2333 2333 2333 2333 2333 2333 2333 2333 2333 2333 2333 2333 2333 2333 2333 2333 2349 2349 2349 2349 2349 2349 2365 2365 2365 2365 2365 2365 2365 2349 2349 2349 2365 2349 2349 2349 2365 2365 2365 2365 2365 2365 2365 2381 2381 2381 2381 2381 2381 2381 2381 2381 2381 2381 2381 2381 2381 2381 2381 2381 2381 2381 2381 2381 2398 2398 2398 2398 2381 2381 2381 2381 2381 2381 2381 2381 2381 2381 2381 2381 2381 2381 2381 2381 2381 2381 2381 2381 2381 2381 2381 2381 2398 2398 2398 2398 2398 2398 2398 2398 2398 2415 2415 2415 2415 2415 2415 2415 2415 2415 2432 2432 2432 2432 2415 2415 2415 2415 2415 2415 2415 2415 2415 2415 2415 2432 2432 2432 2432 2432 2432 2432 2432 2432 2432 2432 2432 2432 2432 2432 2432 2432 2432 2450 2450 2450 2450 2450 2450 2450 2450 2450 2450 2450 2432 2432 2432 2432 2432 2432 2432 2432 2432 2432 2432 2432 2432 2432 2432 2432 2432 2432 2450 2450 2450 2450 2432 2432 2256 2256 2241 2241 2241 2241 2241 2241 2241 2241 2241 2241 2241 2256 2256 2349 2349 2365 2365 2365 2365 2365 2365 2365 2381 2381 2415 2415 2432 2450 2450 2450 2450 2241 2226 2212 2212 2212 2198 2198 2198 2198 2198 2184 2184 2184 2184 1894 1894 1894 1894 1894 1894 1894 1894 1894 1904 1904 1915 1926 1926 1936 1959 1959 1970 1970 1981 1981 1993 2005 2485 2485 2467 2467 2467 2467 2467 2467 2467 2467 2467 2467 2467 2450 2450 2450 1594 1594 1594 1594 1594 1586 1586 1586 1586 1579 1572 1572 1572 1579 1579 1579 1579 1579 1579 1586 1586 1594 1601 1601 1609 1624 1632 1632 1632 1632 1632 1632 1632 1632 1632 1609 1572 1564 1564 1564 1564 1564 1557 1557 1557 1550 1550 1550 1550 1557 1557 1557 1564 1572 1616 1624 1632 1632 1632 1639 1639 1639 1632 1632 1632 1632 1632 1632 1632 1639 1639 1639 1639 1639 1639 1639 1639 1639 1647 1647 1647 1647 1647 1647 1647 1647 1647 1647 1655 1655 1655 1655 1655 1655 1663 1663 1663 1671 1671 1680 1680 1680 1680 1688 1688 1688 1696 1696 1696 1705 1705 1713 1713 1713 1713 1705 1705 1705 1705 1713 1713 1713 1722 1722 1722 1731 1731 2503 2503 2503 2503 2522 2522 2522 2522 2522 2522 2522 2522 2522 2522 2503 2503 2317 2301 2301 2286 2286 2271 2271 2256 2256 2256 2256 2256 2241 2241 2241 2226 2226 1776 1766 1766 1757 1757 1748 1748 1748 1748 1739 1739 1739 1739 1739 1739 1739 1739 1748 1748 1766 1766 1776 1776 1776 1776 1776 1776 2503 2522 2522 2522 2522 2522 2522 2522 2522 2522 2522 2522 2522 2503 2503 2503 2503 2503 2522 2522 2503 2503 2503 2503 2503 2503 2503 2503 2503 2503 2522 2522 1894 1894 1894 1894 1894 1894 1894 1883 1883 1873 1873 1863 1863 1863 1863 1863 1863 1853 1853 2116 2116 2116 2116 2116 2116 2116 2116 2116 2116 2116 2116 2450 2450 2450 2467 2467 2467 2467 2467 2485 2485 2485 2485 2485 2485 2485 2485 2485 2485 2485 2485 2485 2485 2485 2485 2485 2485 2485 0 0 0 0 0 0 0 0 0 0
0 0 0 0 0 0 0 0 0 0 0 0 0 0 0 0 0 0 0 0 0 0 0 0 0 0 0 0 0 0 0 0 0 2301 2301 2301 2301 2317 2301 2301 2301 2301 2286 2286 2286 2286 2301 2286 2286 2286 2286 2301 2301 2301 2317 2317 2317 2317 2333 2317 2317 2317 2317 2317 2317 2333 2333 2333 2333 2333 2333 2333 2317 2317 2317 2317 2317 2317 2317 2317 2317 2317 2301 2301 2317 2317 2317 2317 2317 2317 2333 2333 2333 2333 2333 2333 2333 2333 2333 2333 2333 2333 2333 2333 2333 2333 2333 2333 2333 2349 2349 2349 2349 2349 2349 2349 2349 2349 2349 2349 2349 2349 2349 2349 2349 2349 2349 2349 2349 2349 2365 2365 2365 2381 2365 2365 2365 2365 2381 2365 2365 2365 2365 2365 2365 2365 2365 2365 2365 2381 2381 2381 2381 2381 2398 2398 2398 2381 2381 2381 2381 2381 2381 2381 2381 2381 2381 2381 2381 2381 2381 2381 2381 2381 2381 2381 2381 2381 2381 2381 2381 2381 2381 2381 2381 2381 2381 2381 2398 2398 2398 2398 2398 2415 2415 2415 2415 2415 2415 2415 2415 2415 2415 2398 2398 2398 2398 2398 2398 2398 2415 2415 2415 2415 2415 2415 2415 2432 2432 2432 2432 2432 2432 2432 2432 2432 2432 2432 2432 2432 2432 2432 2432 2432 2432 2432 2432 2450 2450 2450 2450 2450 2450 2432 2432 2432 2432 2432 2432 2432 2432 2432 2432 2432 2432 2432 2432 2432 2432 2432 2432 2432 2432 2432 2432 2432 2415 2256 2256 2241 2241 2241 2241 2241 2241 2241 2241 2241 2241 2241 2256 2256 2349 2349 2365 2365 2365 2365 2365 2365 2365 2381 2381 2415 2415 2415 2432 2432 2432 2432 2432 2226 2226 2212 2184 2184 2184 2184 2184 2184 2184 2170 2170 2170 1894 1894 1894 1894 1894 1894 1894 1894 1894 1904 1904 1915 1926 1936 1947 1959 1959 1970 1970 1981 1981 1993 2005 2485 2467 2467 2467 2467 2467 2467 2467 2467 2467 2467 2450 2450 2450 2450 2450 1594 1594 1594 1594 1594 1594 1586 1586 1586 1579 1572 1572 1579 1579 1579 1579 1579 1586 1586 1586 1594 1594 1601 1601 1609 1624 1624 1624 1624 1624 1624 1624 1624 1624 1616 1601 1572 1572 1564 1564 1564 1564 1557 1557 1557 1557 1550 1550 1557 1557 1564 1564 1572 1579 1616 1616 1624 1632 1632 1632 1632 1632 1624 1624 1624 1624 1632 1632 1632 1632 1632 1632 1632 1632 1639 1639 1639 1639 1639 1647 1647 1647 1647 1647 1647 1647 1647 1647 1655 1655 1655 1655 1655 1663 1663 1663 1663 1671 1680 1680 1680 1680 1688 1688 1688 1688 1696 1696 1705 1705 1713 1713 1713 1713 1713 1713 1713 1713 1713 1713 1713 1713 1722 1722 1731 1731 2467 2485 2485 2485 2485 2503 2503 2522 2522 2503 2503 2503 2503 2503 2503 2503 2503 2317 2286 2286 2286 2286 2271 2271 2271 2256 2256 2256 2256 2256 2241 2241 2226 2226 2226 1766 1757 1757 1757 1748 1748 1748 1748 1739 1739 1739 1739 1739 1739 1739 1739 1748 1748 1757 1766 1776 1776 1776 2503 2503 2503 2503 2503 2503 2503 2503 2503 2503 2503 2522 2522 2522 2503 2503 2503 2503 2503 2503 2503 2503 2503 2503 2503 2503 2503 2503 2503 2503 2503 2503 2503 2522 2522 1894 1894 1894 1894 1894 1894 1894 1883 1883 1873 1873 1873 1873 1863 1863 1863 1863 1873 2116 2116 2116 2116 2116 2116 2116 2116 2116 2116 2116 2116 2116 2432 2432 2432 2450 2450 2450 2467 2467 2467 2485 2485 2467 2467 2467 2467 2467 2467 2467 2467 2485 2485 2485 2485 2485 2485 2485 2485 0 0 0 0 0 0 0 0 0 0
0 0 0 0 0 0 0 0 0 0 0 0 0 0 0 0 0 0 0 0 0 0 0 0 0 0 0 0 0 0 0 0 0 2301 2301 2301 2301 2301 2301 2301 2301 2301 2286 2286 2286 2286 2286 2286 2286 2286 2286 2301 2301 2301 2301 2317 2317 2317 2317 2317 2317 2317 2317 2317 2317 2317 2317 2317 2317 2317 2317 2317 2301 2301 2301 2317 2317 2317 2317 2317 2317 2301 2301 2301 2301 2301 2301 2317 2317 2317 2317 2317 2317 2317 2317 2317 2317 2317 2317 2317 2317 2317 2317 2317 2317 2317 2317 2333 2333 2333 2333 2349 2349 2349 2333 2333 2333 2333 2333 2333 2333 2333 2333 2333 2333 2333 2333 2333 2333 2333 2349 2349 2365 2365 2365 2365 2365 2365 2365 2365 2365 2365 2365 2365 2365 2365 2365 2349 2349 2365 2365 2381 2381 2381 2381 2381 2398 2365 2365 2365 2365 2365 2365 2381 2365 2365 2365 2365 2365 2381 2365 2365 2365 2365 2365 2365 2381 2381 2365 2365 2381 2381 2381 2381 2381 2381 2381 2381 2381 2381 2381 2381 2381 2398 2398 2398 2398 2398 2398 2398 2398 2398 2398 2398 2398 2398 2398 2398 2398 2398 2415 2415 2415 2415 2415 2415 2415 2415 2432 2432 2432 2432 2432 2432 2432 2432 2415 2415 2415 2415 2415 2415 2415 2415 2432 2432 2432 2432 2450 2450 2432 2432 2432 2432 2415 2415 2415 2415 2415 2415 2415 2415 2432 2432 2432 2432 2432 2432 2432 2432 2432 2432 2432 2432 2432 2432 2415 2256 2256 2241 2241 2241 2241 2241 2241 2241 2241 2241 2241 2241 2256 2256 2333 2349 2365 2365 2381 2381 2381 2381 2381 2381 2381 2415 2415 2415 2432 2432 2432 2432 2432 2432 2432 2432 2184 2184 2184 2184 2184 2184 2170 2170 2156 2156 2170 1894 1894 1894 1894 1894 1894 1894 1904 1904 1904 1915 1926 1936 1947 1959 1959 1970 1981 1981 1993 1993 2005 2485 2467 2450 2450 2450 2450 2450 2450 2450 2450 2467 2450 2450 2450 2450 2450 1601 1601 1601 1601 1601 1594 1594 1586 1586 1579 1579 1579 1579 1579 1579 1586 1586 1586 1586 1594 1594 1594 1601 1609 1609 1624 1624 1624 1624 1624 1624 1624 1616 1609 1609 1601 1572 1572 1572 1564 1564 1564 1557 1557 1557 1557 1557 1557 1557 1564 1564 1572 1579 1586 1609 1616 1624 1624 1624 1624 1624 1624 1616 1616 1624 1624 1624 1624 1624 1624 1632 1632 1632 1632 1632 1632 1632 1639 1639 1647 1647 1647 1647 1647 1647 1647 1647 1655 1655 1655 1655 1655 1663 1663 1663 1663 1671 1671 1680 1680 1688 1688 1688 1688 1696 1696 1705 1705 1705 1713 1713 1713 1713 1713 1713 1713 1713 1713 1713 1713 1713 1722 1722 1731 1731 1731 2467 2467 2467 2485 2485 2503 2503 2503 2503 2503 2503 2503 2503 2503 2485 2485 2485 2317 2286 2286 2286 2286 2271 2271 2271 2271 2256 2256 2256 2256 2241 2241 2241 2226 2226 1766 1757 1757 1757 1748 1748 1748 1748 1739 1739 1739 1739 1739 1739 1739 1739 1748 1748 1757 1766 2467 2467 2467 2485 2485 2485 2503 2503 2503 2503 2503 2503 2503 2503 2503 2503 2503 2503 2503 2503 2503 2503 2503 2503 2503 2503 2503 2503 2503 2503 2503 2503 2503 2503 2503 2503 2522 2522 1894 1894 1894 1894 1894 1894 1894 1883 1883 1883 1873 1873 1873 1873 1873 1863 1863 1873 2129 2116 2116 2116 2116 2116 2116 2116 2116 2116 2116 2116 2450 2432 2432 2432 2450 2450 2450 2450 2450 2467 2467 2467 2467 2450 2450 2450 2450 2450 2467 2467 2467 2485 2485 2485 2485 2485 2485 2485 0 0 0 0 0 0 0 0 0 0
0 0 0 0 0 0 0 0 0 0 0 0 0 0 0 0 0 0 0 0 0 0 0 0 0 0 0 0 0 0 0 0 0 2286 2286 2301 2301 2301 2301 2301 2286 2286 2286 2286 2286 2286 2286 2286 2286 2286 2286 2301 2301 2301 2301 2301 2317 2317 2317 2301 2301 2301 2301 2317 2317 2317 2317 2317 2317 2317 2301 2301 2301 2286 2286 2301 2301 2301 2301 2301 2301 2301 2286 2286 2286 2286 2301 2301 2301 2301 2317 2301 2301 2301 2301 2301 2317 2317 2317 2317 2317 2317 2317 2317 2317 2317 2317 2317 2317 2333 2333 2333 2333 2333 2333 2333 2333 2333 2333 2333 2333 2333 2333 2333 2333 2333 2333 2333 2333 2333 2333 2333 2349 2349 2349 2349 2365 2365 2349 2349 2349 2349 2349 2349 2349 2349 2349 2349 2349 2365 2365 2365 2365 2365 2381 2381 2381 2365 2365 2365 2365 2365 2365 2365 2365 2365 2365 2365 2365 2365 2365 2365 2365 2365 2365 2365 2365 2365 2365 2365 2365 2365 2365 2381 2381 2381 2381 2381 2381 2381 2381 2381 2381 2381 2381 2381 2381 2381 2381 2381 2381 2381 2381 2381 2381 2381 2381 2381 2398 2398 2398 2398 2415 2415 2415 2398 2398 2415 2415 2415 2415 2415 2415 2415 2415 2415 2415 2415 2415 2415 2415 2415 2415 2415 2415 2415 2415 2432 2432 2432 2432 2432 2415 2415 2415 2415 2415 2415 2415 2415 2415 2415 2415 2415 2415 2415 2415 2415 2432 2432 2432 2432 2432 2432 2432 2415 2398 2256 2241 2241 2241 2241 2241 2241 2241 2241 2241 2241 2241 2241 2256 2256 2333 2349 2365 2365 2381 2381 2381 2381 2381 2381 2381 2415 2415 2415 2432 2432 2432 2432 2432 2432 2432 2432 2184 2184 2184 2184 2184 2170 2170 2156 2156 2156 2156 1894 1894 1894 1894 1894 1904 1904 1904 1904 1915 1926 1926 1936 1947 1959 1959 1970 1981 1981 1993 1993 2005 2467 2467 2432 2432 2432 2450 2450 2450 2450 2450 2450 2450 2450 2467 2467 2467 1601 1601 1601 1601 1601 1594 1594 1586 1586 1579 1579 1579 1579 1579 1579 1586 1586 1586 1594 1594 1594 1601 1601 1609 1624 1624 1624 1624 1616 1616 1616 1616 1609 1601 1601 1594 1579 1572 1572 1572 1564 1564 1557 1557 1557 1557 1557 1557 1564 1564 1572 1572 1579 1594 1609 1616 1624 1624 1624 1624 1624 1624 1616 1616 1616 1616 1624 1624 1624 1624 1624 1624 1624 1632 1632 1632 1632 1639 1639 1647 1647 1647 1647 1647 1647 1655 1655 1663 1663 1663 1663 1663 1671 1671 1671 1671 1680 1680 1688 1688 1688 1688 1688 1696 1696 1705 1705 1705 1713 1713 1713 1713 1713 1713 1713 1713 1713 1713 1713 1713 1713 1722 1722 1722 1731 2467 2467 2467 2467 2467 2467 2485 2485 2503 2485 2485 2485 2485 2485 2485 2485 2467 2467 2317 2301 2286 2286 2286 2286 2271 2271 2271 2271 2271 2256 2256 2256 2241 2241 2226 2226 1766 1757 1757 1757 1748 1748 1748 1748 1739 1739 1739 1739 1739 1739 1748 1748 1748 1748 1757 2467 2467 2467 2467 2485 2485 2485 2485 2485 2485 2485 2485 2485 2503 2503 2503 2503 2503 2503 2503 2503 2485 2485 2485 2485 2485 2485 2485 2485 2485 2485 2485 2485 2485 2485 2485 2503 2522 2522 1894 1894 1894 1894 1894 1904 1894 1894 1894 1883 1883 1873 1873 1873 1873 1863 1863 2129 2129 2116 2116 2116 2116 2116 2129 2129 2129 2116 2116 2116 2450 2432 2432 2432 2450 2450 2450 2450 2450 2467 2467 2450 2450 2450 2450 2450 2450 2450 2450 2467 2467 2467 2467 2467 2467 2467 2467 2467 0 0 0 0 0 0 0 0 0 0
0 0 0 0 0 0 0 0 0 0 0 0 0 0 0 0 0 0 0 0 0 0 0 0 0 0 0 0 0 0 0 0 0 2286 2286 2286 2286 2286 2286 2286 2286 2286 2286 2271 2271 2271 2271 2286 2286 2286 2286 2286 2286 2286 2286 2301 2301 2301 2301 2301 2286 2286 2301 2301 2301 2301 2301 2286 2286 2286 2286 2301 2271 2271 2271 2271 2286 2286 2286 2286 2286 2286 2286 2286 2286 2286 2286 2301 2301 2301 2301 2301 2301 2301 2301 2301 2301 2317 2317 2317 2317 2317 2317 2317 2317 2317 2317 2317 2317 2317 2317 2317 2317 2317 2317 2317 2317 2333 2333 2333 2333 2333 2333 2333 2333 2317 2317 2317 2317 2317 2333 2333 2333 2333 2333 2333 2333 2333 2333 2333 2333 2333 2349 2349 2349 2333 2333 2333 2333 2349 2349 2349 2365 2365 2365 2381 2365 2349 2349 2349 2365 2349 2349 2365 2349 2349 2349 2349 2365 2365 2365 2365 2365 2365 2365 2365 2365 2365 2365 2365 2365 2365 2365 2365 2365 2365 2365 2365 2365 2365 2365 2365 2365 2381 2381 2381 2381 2365 2365 2381 2381 2381 2381 2381 2381 2381 2381 2381 2381 2381 2398 2398 2398 2398 2398 2398 2398 2398 2415 2398 2398 2398 2415 2415 2415 2415 2415 2415 2415 2415 2415 2415 2415 2415 2415 2415 2415 2415 2415 2415 2432 2432 2415 2415 2415 2415 2415 2415 2415 2415 2415 2415 2415 2415 2415 2415 2415 2415 2415 2415 2415 2415 2415 2432 2415 2398 2398 2365 2241 2241 2241 2241 2241 2241 2241 2241 2241 2241 2241 2256 2256 2271 2333 2349 2365 2381 2381 2398 2381 2381 2381 2398 2398 2415 2415 2415 2415 2415 2432 2415 2415 2415 2415 2432 2432 2198 2184 2184 2170 2170 2170 2156 2156 2156 2156 2156 1894 1894 1894 1904 1904 1904 1915 1915 1915 1926 1926 1936 1947 1959 1959 1970 1981 1981 1993 1993 2467 2467 2432 2415 2415 2432 2432 2432 2432 2450 2450 2450 2450 2450 2450 2467 2467 1601 1601 1601 1601 1601 1594 1594 1586 1586 1579 1579 1579 1579 1579 1579 1586 1586 1586 1594 1594 1594 1601 1601 1616 1624 1624 1624 1624 1616 1616 1609 1609 1601 1601 1601 1594 1579 1572 1572 1572 1564 1564 1557 1557 1557 1557 1557 1557 1564 1564 1572 1579 1579 1594 1601 1609 1624 1624 1624 1624 1624 1624 1616 1616 1616 1616 1616 1616 1616 1624 1624 1624 1624 1632 1632 1632 1632 1639 1639 1647 1647 1647 1647 1647 1655 1655 1655 1663 1663 1663 1663 1671 1671 1671 1680 1680 1680 1680 1688 1688 1696 1696 1696 1696 1705 1705 1705 1713 1713 1722 1722 1722 1722 1713 1713 1713 1713 1713 1713 1713 1722 1722 1722 1722 1731 2467 2467 2467 2467 2467 2467 2467 2467 2467 2467 2467 2467 2467 2467 2467 2467 2467 2450 2317 2301 2286 2286 2286 2286 2271 2271 2271 2271 2271 2256 2256 2256 2241 2241 2241 2241 1766 1757 1757 1757 1748 1748 1748 1748 1739 1739 1739 1739 1739 1739 1748 1748 1748 1748 2467 2467 2467 2467 2467 2467 2467 2467 2467 2467 2467 2467 2467 2485 2485 2485 2485 2485 2485 2485 2485 2485 2485 2485 2467 2467 2467 2467 2467 2467 2485 2485 2485 2485 2485 2485 2485 2503 2503 2503 1894 1894 1894 1894 1904 1904 1904 1894 1894 1883 1883 1883 1873 1873 1873 1863 1863 2129 2129 2116 2116 2116 2116 2116 2129 2129 2129 2116 2116 2116 2432 2432 2432 2432 2432 2432 2450 2450 2450 2450 2450 2450 2450 2432 2432 2432 2450 2450 2450 2450 2450 2450 2467 2450 2450 2450 2450 2450 0 0 0 0 0 0 0 0 0 0
0 0 0 0 0 0 0 0 0 0 0 0 0 0 0 0 0 0 0 0 0 0 0 0 0 0 0 0 0 0 0 0 0 2271 2271 2271 2286 2286 2286 2286 2286 2286 2271 2271 2271 2271 2271 2271 2271 2271 2271 2286 2286 2286 2286 2286 2301 2271 2271 2286 2286 2286 2286 2286 2286 2286 2286 2286 2286 2286 2286 2286 2271 2271 2271 2271 2271 2271 2271 2271 2271 2271 2271 2271 2271 2271 2271 2271 2271 2271 2286 2271 2271 2286 2286 2286 2286 2286 2286 2301 2301 2301 2301 2301 2286 2286 2301 2301 2301 2317 2301 2301 2301 2301 2301 2301 2301 2317 2317 2317 2317 2317 2317 2333 2333 2317 2317 2317 2317 2317 2317 2317 2333 2333 2333 2333 2333 2333 2333 2333 2333 2333 2333 2333 2333 2333 2333 2333 2333 2333 2349 2349 2349 2349 2365 2365 2365 2349 2349 2349 2349 2349 2349 2349 2349 2349 2349 2349 2349 2349 2349 2349 2349 2365 2365 2365 2365 2365 2365 2365 2365 2365 2365 2365 2365 2365 2365 2365 2365 2365 2365 2365 2365 2365 2365 2365 2365 2365 2365 2365 2365 2365 2365 2365 2365 2381 2381 2381 2381 2381 2381 2398 2398 2398 2398 2381 2381 2398 2398 2398 2398 2398 2398 2398 2398 2398 2398 2398 2398 2398 2398 2398 2398 2398 2398 2398 2398 2398 2415 2415 2415 2415 2398 2398 2398 2398 2398 2398 2398 2398 2398 2398 2398 2398 2398 2398 2398 2415 2415 2415 2415 2415 2415 2415 2398 2398 2398 2381 2241 2241 2241 2241 2241 2241 2241 2241 2241 2241 2241 2256 2256 2271 2333 2365 2381 2381 2398 2398 2398 2398 2398 2398 2398 2415 2415 2415 2415 2415 2415 2415 2415 2415 2415 2415 2415 2432 2184 2170 2170 2170 2170 2143 2143 2143 2156 2156 2156 1894 1894 1904 1904 1904 1915 1915 1915 1926 1926 1936 1947 1959 1959 1970 1981 1993 2005 2005 2467 2450 2415 2415 2415 2415 2432 2432 2432 2432 2432 2450 2450 2450 2450 2467 2467 1601 1601 1601 1601 1601 1594 1594 1586 1586 1579 1579 1579 1579 1579 1586 1586 1586 1594 1594 1594 1601 1601 1609 1624 1624 1624 1624 1624 1616 1616 1609 1609 1601 1601 1594 1594 1586 1579 1572 1572 1564 1564 1564 1564 1564 1557 1557 1564 1564 1564 1572 1579 1579 1594 1601 1609 1616 1616 1616 1624 1624 1624 1616 1616 1616 1616 1616 1616 1616 1616 1624 1624 1624 1632 1632 1639 1639 1639 1647 1647 1647 1655 1655 1655 1655 1655 1655 1663 1663 1663 1671 1671 1671 1680 1680 1680 1680 1680 1688 1688 1696 1696 1696 1705 1705 1705 1713 1713 1713 1722 1722 1722 1722 1722 1722 1713 1713 1713 1713 1722 1722 1722 1722 1722 1722 2467 2450 2450 2450 2450 2450 2467 2467 2467 2467 2467 2467 2467 2467 2467 2450 2450 2450 2333 2301 2286 2286 2286 2286 2286 2286 2286 2271 2271 2271 2256 2256 2256 2241 2241 2241 1766 1757 1757 1757 1748 1748 1748 1748 1739 1739 1739 1739 1739 1748 1748 1748 1748 2467 2450 2450 2450 2450 2467 2467 2467 2467 2467 2467 2467 2467 2467 2467 2485 2485 2467 2467 2485 2485 2485 2467 2467 2467 2467 2450 2450 2467 2467 2467 2467 2467 2467 2485 2485 2485 2485 2503 2503 2503 1894 1894 1904 1904 1904 1904 1904 1894 1894 1894 1883 1883 1883 1873 1873 1863 1863 2129 2129 2129 2116 2116 2129 2129 2129 2129 2129 2116 2116 2415 2415 2432 2432 2432 2432 2432 2432 2450 2450 2432 2432 2432 2432 2432 2432 2432 2432 2432 2432 2432 2450 2450 2450 2450 2450 2432 2432 2432 0 0 0 0 0 0 0 0 0 0
0 0 0 0 0 0 0 0 0 0 0 0 0 0 0 0 0 0 0 0 0 0 0 0 0 0 0 0 0 0 0 0 0 2256 2256 2271 2271 2271 2271 2271 2271 2271 2271 2271 2271 2271 2271 2256 2256 2271 2271 2286 2286 2286 2286 2286 2271 2271 2271 2286 2286 2286 2286 2286 2286 2271 2271 2286 2286 2286 2286 2286 2271 2271 2271 2271 2256 2256 2256 2271 2271 2271 2271 2271 2271 2271 2271 2271 2271 2271 2271 2271 2271 2271 2271 2271 2271 2286 2286 2286 2286 2286 2286 2286 2286 2286 2286 2286 2301 2301 2301 2301 2301 2301 2301 2301 2301 2301 2301 2301 2301 2317 2317 2317 2317 2317 2317 2317 2317 2317 2317 2317 2317 2317 2317 2317 2317 2317 2317 2317 2317 2317 2317 2317 2317 2317 2333 2333 2333 2333 2333 2349 2349 2349 2349 2349 2349 2349 2349 2349 2349 2333 2333 2349 2333 2333 2333 2333 2333 2333 2333 2333 2349 2349 2349 2349 2365 2365 2349 2349 2349 2349 2349 2365 2365 2365 2365 2365 2365 2365 2365 2365 2365 2365 2365 2365 2365 2365 2365 2365 2365 2365 2365 2365 2365 2381 2381 2381 2381 2381 2381 2398 2381 2381 2381 2381 2381 2381 2381 2381 2381 2381 2381 2381 2398 2398 2398 2398 2398 2398 2398 2398 2381 2381 2381 2398 2398 2398 2398 2398 2398 2415 2398 2398 2381 2381 2381 2381 2381 2381 2381 2398 2398 2398 2398 2398 2398 2398 2415 2415 2415 2415 2415 2415 2398 2398 2398 2365 2241 2241 2241 2241 2241 2241 2241 2241 2241 2241 2241 2256 2256 2271 2333 2365 2381 2381 2398 2398 2398 2398 2381 2381 2398 2398 2415 2415 2415 2415 2415 2415 2415 2415 2415 2415 2415 2415 2415 2170 2170 2170 2170 2143 2143 2143 2156 2156 2156 1894 1894 1904 1915 1915 1915 1915 1915 1926 1926 1936 1947 1970 1970 1970 1981 1981 1993 1993 2467 2450 2415 2415 2415 2415 2415 2415 2432 2432 2432 2432 2450 2450 2450 2450 1601 1601 1601 1601 1601 1601 1594 1594 1586 1586 1579 1579 1579 1579 1579 1586 1586 1594 1594 1594 1601 1601 1601 1609 1624 1632 1632 1624 1624 1616 1616 1609 1609 1601 1601 1594 1594 1586 1579 1572 1572 1572 1564 1564 1564 1564 1564 1564 1564 1564 1572 1572 1579 1586 1594 1601 1601 1609 1616 1616 1616 1624 1624 1616 1616 1616 1616 1616 1616 1616 1616 1624 1624 1624 1632 1632 1639 1639 1639 1647 1647 1655 1655 1655 1655 1655 1655 1663 1671 1671 1671 1671 1680 1680 1680 1680 1680 1688 1688 1688 1688 1696 1696 1696 1705 1705 1705 1713 1713 1713 1722 1722 1722 1722 1722 1722 1713 1713 1713 1713 1722 1722 1722 1722 1722 1722 2467 2450 2450 2450 2450 2450 2450 2450 2450 2450 2450 2450 2450 2450 2450 2450 2450 2450 2450 2301 2286 2286 2286 2286 2286 2286 2286 2301 2286 2286 2271 2271 2271 2271 2450 2450 1757 1757 1757 1757 1757 1748 1748 1748 1739 1739 1748 1739 1739 1748 1748 1748 1748 2467 2450 2450 2450 2450 2450 2450 2450 2450 2450 2467 2467 2467 2467 2467 2467 2467 2467 2467 2467 2467 2467 2450 2450 2467 2450 2450 2450 2450 2450 2450 2450 2450 2450 2467 2467 2467 2467 2485 2503 2503 1894 1894 1904 1904 1904 1904 1904 1894 1894 1894 1894 1894 1883 1883 1883 1873 1873 2129 2129 2129 2129 2129 2129 2129 2129 2129 2129 2116 2116 2415 2415 2415 2415 2432 2432 2432 2432 2432 2432 2432 2432 2432 2432 2432 2432 2432 2432 2432 2432 2432 2432 2450 2450 2432 2432 2432 2432 2432 2432 0 0 0 0 0 0 0 0 0
0 0 0 0 0 0 0 0 0 0 0 0 0 0 0 0 0 0 0 0 0 0 0 0 0 0 0 0 0 0 0 0 0 2241 2241 2256 2256 2256 2256 2256 2256 2271 2271 2256 2256 2256 2256 2241 2241 2256 2256 2271 2271 2271 2271 2286 2271 2271 2271 2271 2271 2271 2271 2271 2271 2271 2271 2286 2286 2286 2271 2271 2256 2256 2271 2271 2256 2256 2256 2271 2271 2271 2271 2271 2256 2256 2256 2256 2256 2256 2256 2256 2256 2271 2271 2271 2271 2271 2286 2286 2286 2286 2286 2286 2271 2271 2286 2286 2286 2286 2286 2286 2286 2286 2301 2286 2286 2286 2286 2286 2301 2301 2301 2301 2301 2301 2301 2301 2317 2317 2301 2301 2317 2317 2317 2317 2301 2301 2317 2317 2317 2317 2317 2317 2317 2317 2317 2317 2317 2317 2317 2333 2333 2333 2333 2333 2333 2317 2317 2317 2317 2317 2317 2317 2317 2317 2317 2317 2317 2317 2317 2317 2333 2333 2333 2333 2333 2333 2333 2333 2333 2333 2333 2349 2349 2349 2349 2349 2349 2349 2349 2349 2349 2349 2365 2365 2365 2365 2365 2365 2365 2365 2365 2365 2365 2365 2381 2381 2381 2381 2381 2381 2381 2381 2381 2381 2381 2381 2381 2381 2381 2381 2381 2381 2381 2381 2381 2381 2381 2381 2381 2381 2381 2381 2381 2381 2381 2381 2398 2398 2398 2398 2381 2381 2381 2381 2381 2381 2381 2381 2381 2381 2381 2381 2381 2381 2398 2398 2398 2398 2398 2398 2398 2398 2398 2398 2381 2365 2241 2241 2241 2241 2241 2241 2241 2241 2241 2241 2241 2256 2256 2271 2333 2365 2365 2381 2398 2398 2381 2381 2381 2381 2381 2398 2398 2398 2398 2398 2415 2398 2398 2415 2415 2415 2398 2398 2398 2170 2156 2156 2170 2156 2156 2170 2170 2156 2156 1894 1894 1915 1915 1915 1915 1915 1915 1926 1926 1936 1959 1970 1970 1970 1981 1981 1993 1993 2467 2415 2415 2398 2398 2398 2415 2415 2415 2415 2415 2415 2432 2432 2432 2432 1609 1609 1609 1609 1601 1601 1601 1594 1594 1586 1579 1579 1579 1579 1579 1586 1586 1594 1594 1594 1601 1601 1609 1616 1632 1632 1632 1624 1624 1616 1616 1609 1609 1601 1601 1594 1594 1586 1579 1572 1572 1572 1564 1564 1564 1564 1564 1564 1564 1564 1572 1572 1579 1586 1594 1601 1601 1609 1609 1609 1616 1616 1616 1616 1616 1616 1616 1616 1616 1616 1616 1624 1624 1632 1632 1639 1639 1647 1647 1647 1655 1655 1655 1655 1655 1663 1663 1671 1671 1671 1671 1680 1680 1680 1680 1680 1688 1688 1688 1696 1696 1705 1705 1705 1705 1705 1705 1713 1713 1722 1722 1722 1722 1722 1722 1722 1722 1722 1713 1713 1722 1722 1722 1713 1713 1722 2450 2450 2450 2450 2450 2450 2450 2450 2450 2450 2450 2450 2450 2450 2450 2450 2450 2450 2450 2301 2301 2301 2286 2286 2286 2301 2301 2317 2333 2333 2415 2415 2432 2432 2450 2450 1757 1757 1757 1757 1757 1748 1748 1748 1739 1739 1739 1739 1739 1748 1748 1748 1757 2467 2450 2450 2450 2450 2450 2450 2450 2450 2450 2450 2450 2450 2450 2450 2450 2450 2450 2450 2450 2450 2450 2450 2450 2450 2450 2450 2450 2450 2450 2450 2450 2450 2450 2450 2450 2450 2450 2467 2467 2485 2485 1915 1904 1904 1904 1904 1894 1894 1894 1894 1894 1894 1883 1873 1873 1873 1873 2129 2129 2129 2129 2129 2129 2129 2129 2129 2129 2116 2116 2398 2398 2415 2415 2415 2415 2415 2432 2432 2432 2432 2432 2432 2432 2415 2415 2415 2432 2432 2432 2432 2432 2432 2432 2432 2432 2432 2415 2415 2415 0 0 0 0 0 0 0 0 0
0 0 0 0 0 0 0 0 0 0 0 0 0 0 0 0 0 0 0 0 0 0 0 0 0 0 0 0 0 0 0 0 0 2226 2226 2241 2256 2256 2256 2241 2241 2256 2256 2241 2241 2241 2241 2241 2241 2241 2256 2271 2271 2256 2256 2286 2271 2271 2271 2271 2271 2271 2271 2271 2271 2256 2256 2256 2271 2271 2271 2271 2256 2256 2256 2271 2271 2271 2256 2256 2256 2256 2256 2256 2256 2256 2256 2256 2256 2256 2256 2256 2256 2271 2271 2271 2271 2271 2271 2271 2271 2271 2271 2271 2271 2271 2271 2271 2271 2286 2286 2271 2271 2286 2286 2286 2286 2286 2286 2286 2286 2301 2301 2301 2301 2301 2301 2301 2301 2301 2301 2301 2301 2301 2301 2301 2301 2301 2301 2301 2301 2317 2317 2317 2317 2317 2317 2317 2317 2317 2317 2317 2317 2317 2317 2317 2317 2317 2317 2317 2317 2317 2317 2317 2317 2317 2317 2317 2317 2317 2317 2317 2317 2333 2333 2333 2333 2333 2333 2333 2333 2333 2333 2333 2333 2333 2333 2333 2333 2333 2349 2349 2349 2349 2349 2349 2349 2349 2349 2349 2349 2349 2349 2349 2349 2365 2365 2365 2365 2365 2365 2365 2365 2365 2365 2365 2365 2365 2365 2381 2381 2381 2381 2381 2381 2381 2381 2381 2381 2381 2381 2381 2381 2381 2381 2381 2381 2381 2381 2381 2381 2381 2381 2381 2381 2381 2381 2381 2365 2365 2365 2365 2381 2381 2381 2381 2381 2381 2381 2381 2381 2381 2381 2398 2398 2381 2381 2349 2256 2256 2256 2256 2256 2241 2241 2241 2241 2241 2256 2256 2271 2271 2333 2349 2365 2381 2381 2381 2381 2381 2381 2381 2381 2381 2398 2398 2398 2398 2398 2398 2398 2398 2398 2398 2398 2398 2398 2398 2156 2156 2156 2156 2156 2156 2170 2170 2170 1894 1894 1915 1915 1915 1915 1915 1915 1926 1926 1936 1959 1970 1970 1981 1981 1993 1993 1993 1993 2398 2398 2381 2381 2398 2398 2398 2398 2398 2398 2415 2415 2415 2415 2415 1609 1609 1609 1609 1601 1601 1601 1594 1594 1586 1579 1579 1579 1579 1579 1586 1586 1594 1594 1601 1601 1609 1609 1624 1639 1639 1632 1632 1624 1616 1616 1616 1601 1601 1601 1594 1594 1586 1579 1579 1572 1572 1572 1564 1564 1564 1564 1564 1564 1572 1572 1579 1586 1594 1594 1601 1601 1609 1609 1609 1616 1616 1616 1616 1616 1616 1616 1616 1616 1616 1624 1624 1624 1632 1639 1639 1647 1647 1647 1655 1655 1655 1663 1663 1663 1663 1663 1671 1671 1671 1671 1680 1680 1680 1680 1680 1688 1688 1688 1696 1696 1705 1705 1705 1705 1713 1713 1713 1713 1722 1722 1722 1722 1722 1722 1722 1722 1722 1722 1713 1713 1722 1722 1713 1713 1713 2450 2450 2450 2450 2432 2432 2450 2450 2450 2450 2450 2450 2450 2450 2450 2450 2450 2450 2432 2301 2301 2301 2286 2286 2286 2301 2301 2317 2333 2415 2415 2415 2432 2432 2450 2450 2450 1757 1757 1757 1757 1757 1748 1748 1748 1739 1739 1748 1748 1748 1748 1748 1757 2467 2450 2450 2450 2450 2450 2450 2450 2450 2450 2450 2450 2450 2450 2450 2450 2432 2432 2432 2432 2432 2432 2432 2432 2432 2432 2432 2432 2432 2432 2432 2432 2432 2450 2450 2450 2450 2450 2450 2467 2467 2467 1915 1904 1904 1904 1904 1894 1894 1894 1894 1894 1894 1883 1873 1873 1873 1873 2129 2129 2129 2129 2129 2129 2129 2143 2143 2129 2129 2129 2398 2398 2398 2415 2415 2415 2415 2415 2415 2415 2415 2415 2415 2415 2415 2415 2415 2415 2415 2415 2415 2415 2432 2432 2432 2415 2415 2415 2415 2415 0 0 0 0 0 0 0 0 0
0 0 0 0 0 0 0 0 0 0 0 0 0 0 0 0 0 0 0 0 0 0 0 0 0 0 0 0 0 0 0 0 0 2226 2226 2241 2241 2241 2241 2241 2241 2241 2241 2241 2241 2241 2241 2241 2241 2241 2256 2256 2256 2256 2256 2271 2271 2271 2271 2256 2256 2256 2256 2241 2241 2256 2241 2241 2256 2256 2256 2256 2256 2256 2256 2256 2256 2256 2256 2256 2256 2256 2256 2256 2256 2256 2241 2241 2256 2256 2256 2256 2256 2256 2256 2271 2271 2271 2271 2271 2271 2271 2271 2271 2271 2271 2271 2271 2271 2271 2271 2271 2271 2271 2286 2286 2271 2271 2271 2271 2286 2286 2286 2286 2286 2286 2286 2286 2301 2301 2286 2286 2286 2286 2286 2286 2286 2286 2301 2301 2301 2301 2301 2301 2301 2301 2301 2301 2317 2317 2317 2317 2317 2317 2317 2317 2317 2317 2317 2317 2317 2317 2317 2317 2317 2317 2317 2317 2317 2317 2317 2317 2317 2317 2317 2317 2317 2333 2317 2317 2317 2317 2317 2317 2317 2317 2317 2333 2333 2333 2333 2333 2333 2349 2349 2349 2349 2333 2333 2349 2333 2333 2333 2333 2333 2349 2349 2349 2349 2349 2349 2365 2365 2365 2349 2349 2365 2365 2365 2365 2365 2365 2365 2365 2365 2365 2365 2349 2349 2349 2365 2365 2365 2365 2365 2365 2365 2365 2365 2365 2381 2381 2381 2365 2365 2349 2349 2365 2365 2365 2365 2365 2365 2365 2365 2365 2365 2365 2381 2365 2365 2365 2365 2365 2381 2365 2349 2317 2301 2256 2256 2256 2256 2256 2256 2256 2256 2256 2256 2256 2271 2271 2333 2349 2365 2381 2381 2381 2365 2365 2381 2381 2381 2381 2381 2398 2398 2398 2398 2381 2381 2381 2381 2381 2381 2381 2381 2381 2156 2156 2156 2156 2156 2156 2170 2170 2170 1915 1915 1915 1915 1915 1915 1915 1915 1926 1926 1936 1959 1970 1970 1981 1981 1993 1993 1993 2415 2381 2381 2381 2381 2381 2381 2398 2398 2398 2398 2398 2415 2398 2398 2398 1609 1609 1609 1609 1601 1601 1601 1594 1594 1586 1579 1579 1579 1579 1579 1586 1586 1594 1594 1601 1609 1609 1616 1624 1639 1639 1639 1632 1624 1624 1616 1616 1601 1601 1601 1594 1594 1586 1586 1579 1579 1572 1572 1564 1564 1564 1564 1564 1564 1572 1579 1579 1586 1594 1594 1601 1601 1609 1609 1616 1616 1624 1624 1616 1616 1616 1616 1616 1616 1616 1624 1624 1632 1639 1639 1639 1647 1647 1655 1655 1655 1655 1663 1671 1663 1663 1671 1671 1671 1671 1680 1680 1680 1680 1688 1688 1688 1688 1688 1696 1696 1705 1705 1705 1705 1713 1713 1713 1722 1722 1722 1722 1722 1722 1722 1722 1722 1722 1722 1713 1713 1722 1722 1713 1713 1713 2450 2432 2432 2432 2432 2432 2432 2432 2432 2432 2432 2432 2432 2432 2432 2432 2432 2432 2415 2301 2301 2301 2301 2286 2286 2301 2301 2317 2333 2415 2415 2415 2415 2432 2432 2432 2432 1757 1757 1757 1757 1757 1748 1748 1748 1739 1739 1748 1748 1748 1748 1748 1766 1766 2432 2432 2432 2432 2432 2432 2432 2432 2432 2432 2432 2450 2450 2432 2432 2432 2432 2432 2432 2432 2432 2432 2432 2432 2432 2432 2432 2432 2432 2432 2432 2432 2432 2432 2432 2432 2432 2450 2450 2450 1947 1915 1904 1904 1904 1894 1894 1894 1894 1894 1894 1894 1883 1883 1873 1873 1873 2116 2116 2116 2129 2129 2129 2129 2143 2143 2129 2129 2381 2381 2381 2398 2398 2415 2398 2398 2398 2415 2415 2415 2415 2415 2415 2415 2415 2415 2415 2415 2415 2415 2415 2415 2415 2415 2415 2415 2415 2415 2415 0 0 0 0 0 0 0 0 0
0 0 0 0 0 0 0 0 0 0 0 0 0 0 0 0 0 0 0 0 0 0 0 0 0 0 0 0 0 0 0 0 0 2226 2226 2226 2226 2226 2226 2226 2226 2241 2241 2226 2226 2241 2241 2226 2226 2241 2241 2256 2256 2256 2256 2256 2256 2256 2241 2241 2241 2241 2241 2241 2241 2241 2241 2241 2241 2241 2241 2256 2256 2256 2256 2256 2256 2256 2256 2256 2256 2256 2241 2241 2241 2241 2241 2241 2241 2241 2241 2241 2241 2256 2256 2256 2256 2256 2256 2256 2256 2256 2256 2271 2271 2271 2271 2271 2271 2271 2271 2271 2271 2271 2271 2271 2271 2271 2271 2271 2271 2271 2271 2271 2286 2286 2286 2286 2301 2286 2286 2271 2271 2286 2286 2271 2271 2271 2286 2286 2286 2286 2286 2286 2286 2301 2301 2301 2301 2301 2301 2301 2301 2317 2317 2317 2317 2317 2317 2317 2317 2317 2317 2317 2301 2301 2301 2301 2301 2301 2301 2317 2317 2317 2317 2317 2317 2317 2317 2317 2317 2317 2317 2317 2317 2317 2317 2317 2317 2317 2317 2317 2317 2333 2333 2333 2333 2317 2317 2333 2333 2333 2333 2333 2333 2333 2333 2333 2349 2349 2349 2349 2349 2349 2349 2349 2349 2349 2349 2365 2365 2365 2365 2365 2365 2349 2349 2349 2349 2349 2349 2349 2365 2365 2365 2365 2365 2365 2365 2365 2365 2365 2381 2349 2349 2349 2349 2349 2349 2349 2349 2365 2365 2365 2365 2365 2365 2349 2349 2349 2349 2349 2365 2365 2365 2349 2349 2317 2286 2256 2256 2256 2256 2256 2256 2256 2256 2256 2256 2271 2271 2301 2333 2349 2365 2365 2365 2365 2365 2365 2365 2365 2381 2381 2381 2398 2381 2381 2398 2381 2381 2381 2381 2381 2381 2381 2381 2381 2381 2156 2156 2156 2156 2156 2170 2170 2170 1915 1915 1915 1915 1915 1915 1915 1926 1926 1926 1947 1959 1970 1970 1981 1993 1993 1993 1993 2365 2365 2381 2365 2365 2381 2381 2381 2398 2398 2398 2398 2398 2398 2398 2398 1616 1609 1609 1609 1601 1601 1601 1594 1594 1586 1579 1579 1579 1579 1586 1586 1586 1594 1594 1601 1609 1609 1616 1624 1639 1639 1639 1632 1624 1624 1616 1616 1601 1601 1601 1594 1594 1586 1586 1586 1579 1572 1572 1572 1572 1564 1564 1564 1572 1579 1579 1586 1586 1594 1594 1601 1601 1609 1609 1616 1616 1624 1624 1616 1616 1616 1616 1616 1616 1624 1624 1624 1632 1639 1639 1647 1647 1655 1655 1655 1663 1663 1663 1671 1671 1671 1671 1671 1680 1680 1680 1680 1680 1680 1688 1688 1688 1688 1688 1696 1696 1705 1705 1705 1705 1713 1713 1722 1722 1722 1722 1731 1722 1722 1722 1722 1722 1722 1722 1722 1722 1722 1722 1713 1713 1722 1722 2432 2432 2432 2432 2432 2432 2432 2432 2432 2432 2432 2432 2432 2432 2415 2415 2398 2381 2317 2301 2301 2301 2301 2301 2301 2317 2333 2349 2398 2398 2398 2398 2415 2398 2398 2398 1757 1757 1757 1757 1757 1748 1748 1748 1739 1739 1748 1748 1748 1748 1748 1766 1766 2432 2432 2432 2432 2432 2432 2432 2432 2432 2432 2432 2432 2432 2432 2432 2432 2432 2432 2415 2415 2415 2415 2415 2415 2415 2432 2432 2432 2432 2432 2432 2432 2432 2432 2432 2432 2432 2432 2450 2450 1936 1915 1904 1904 1904 1894 1894 1894 1894 1894 1894 1894 1894 1883 1883 1883 2116 2116 2116 2116 2116 2129 2129 2129 2143 2129 2129 2129 2381 2381 2381 2398 2398 2398 2398 2398 2398 2398 2415 2398 2398 2415 2398 2398 2398 2415 2398 2398 2398 2415 2415 2415 2415 2415 2415 2415 2415 2415 2415 0 0 0 0 0 0 0 0 0
0 0 0 0 0 0 0 0 0 0 0 0 0 0 0 0 0 0 0 0 0 0 0 0 0 0 0 0 0 0 0 0 0 2212 2212 2212 2212 2212 2226 2226 2226 2226 2226 2226 2226 2226 2226 2226 2226 2226 2241 2226 2226 2241 2241 2241 2241 2241 2241 2241 2241 2241 2241 2241 2241 2241 2226 2226 2241 2241 2241 2241 2241 2241 2256 2256 2256 2256 2256 2256 2241 2241 2241 2241 2241 2241 2241 2241 2241 2241 2241 2241 2241 2256 2256 2256 2256 2256 2256 2256 2256 2256 2256 2256 2256 2256 2256 2256 2256 2271 2256 2256 2271 2271 2271 2271 2271 2271 2271 2271 2271 2271 2271 2271 2271 2271 2271 2271 2286 2286 2286 2271 2271 2271 2271 2271 2271 2271 2286 2286 2286 2286 2286 2286 2286 2286 2286 2286 2301 2301 2301 2301 2301 2301 2301 2301 2301 2301 2301 2301 2301 2301 2301 2301 2301 2301 2301 2301 2301 2301 2301 2301 2301 2301 2301 2317 2301 2301 2317 2317 2301 2301 2317 2317 2317 2317 2317 2317 2317 2317 2317 2317 2317 2317 2317 2317 2317 2317 2317 2317 2317 2317 2317 2317 2317 2317 2317 2317 2317 2333 2333 2333 2333 2333 2349 2349 2349 2349 2349 2349 2349 2349 2349 2349 2349 2349 2349 2349 2349 2349 2349 2349 2349 2349 2349 2349 2365 2365 2365 2365 2365 2365 2365 2349 2349 2349 2349 2349 2349 2349 2349 2349 2349 2349 2349 2349 2349 2349 2349 2349 2349 2349 2349 2349 2349 2349 2333 2317 2286 2271 2271 2256 2256 2256 2256 2256 2256 2256 2271 2271 2286 2301 2317 2333 2349 2349 2349 2349 2349 2349 2349 2349 2365 2365 2365 2349 2349 2365 2365 2365 2365 2365 2365 2365 2365 2381 2365 2365 2381 2156 2156 2156 2156 2156 2156 2170 2170 1915 1915 1915 1915 1915 1915 1915 1926 1926 1926 1947 1970 1981 1981 1993 1993 1993 1993 1993 2349 2349 2365 2365 2365 2365 2381 2381 2381 2381 2381 2381 2398 2398 2398 1616 1616 1616 1616 1616 1609 1609 1601 1601 1594 1594 1586 1586 1579 1579 1586 1586 1594 1594 1601 1601 1601 1609 1609 1624 1639 1639 1639 1632 1632 1624 1624 1616 1609 1601 1601 1594 1594 1586 1586 1586 1579 1572 1572 1572 1572 1572 1572 1572 1572 1579 1579 1586 1594 1594 1594 1601 1601 1609 1609 1616 1624 1624 1624 1616 1616 1616 1616 1624 1624 1624 1632 1632 1639 1647 1647 1647 1647 1655 1655 1663 1663 1663 1663 1671 1671 1671 1671 1680 1680 1680 1680 1680 1680 1680 1688 1688 1688 1688 1696 1696 1696 1705 1705 1705 1713 1713 1722 1722 1722 1731 1731 1731 1722 1722 1722 1722 1722 1722 1722 1722 1722 1722 1722 1713 1713 1722 1722 2432 2432 2432 2415 2415 2432 2415 2415 2415 2415 2415 2415 2415 2415 2415 2415 2398 2365 2301 2301 2301 2301 2301 2301 2301 2317 2333 2349 2365 2381 2381 2381 2398 2381 2381 2381 1757 1757 1766 1766 1757 1748 1748 1748 1748 1748 1748 1748 1748 1748 1748 1766 1766 2129 2129 2129 2129 2415 2415 2415 2432 2432 2432 2432 2432 2432 2432 2432 2415 2415 2415 2415 2415 2415 2415 2415 2415 2415 2415 2432 2432 2432 2432 2432 2432 2415 2415 2415 2415 2415 2432 2432 2432 1936 1904 1904 1904 1904 1894 1894 1894 1894 1894 1894 1894 1894 1883 1883 1883 2116 2116 2116 2116 2116 2129 2129 2129 2129 2129 2129 2381 2381 2381 2381 2381 2381 2398 2398 2381 2381 2398 2398 2398 2398 2398 2398 2398 2398 2415 2398 2398 2398 2398 2398 2398 2415 2415 2415 2398 2398 2398 2398 0 0 0 0 0 0 0 0 0
0 0 0 0 0 0 0 0 0 0 0 0 0 0 0 0 0 0 0 0 0 0 0 0 0 0 0 0 0 0 0 0 0 2212 2212 2212 2212 2212 2212 2226 2226 2226 2226 2212 2212 2226 2226 2226 2226 2226 2226 2226 2226 2226 2226 2226 2226 2226 2226 2226 2226 2226 2226 2226 2226 2226 2226 2226 2226 2226 2241 2241 2241 2241 2241 2241 2256 2256 2256 2256 2226 2226 2226 2226 2226 2226 2226 2226 2241 2241 2241 2241 2241 2241 2241 2241 2241 2256 2256 2256 2256 2256 2256 2256 2256 2256 2256 2256 2256 2256 2256 2256 2256 2271 2271 2271 2271 2271 2271 2271 2271 2271 2271 2271 2271 2271 2271 2271 2271 2271 2271 2271 2271 2271 2271 2271 2271 2271 2271 2271 2271 2271 2271 2286 2286 2286 2286 2286 2286 2286 2286 2286 2286 2301 2301 2301 2301 2301 2301 2301 2301 2301 2301 2301 2301 2301 2301 2301 2301 2301 2301 2301 2301 2301 2301 2301 2301 2301 2301 2301 2301 2301 2301 2301 2301 2301 2301 2301 2301 2301 2301 2301 2301 2301 2301 2301 2301 2301 2301 2301 2301 2317 2317 2317 2317 2317 2317 2317 2317 2317 2317 2317 2317 2317 2333 2333 2333 2349 2349 2349 2349 2333 2333 2333 2333 2333 2333 2333 2333 2333 2333 2333 2333 2333 2333 2349 2349 2349 2349 2349 2349 2349 2349 2333 2333 2333 2333 2333 2333 2333 2349 2349 2349 2349 2333 2333 2333 2333 2333 2333 2333 2333 2333 2333 2349 2333 2317 2317 2301 2271 2271 2256 2256 2256 2256 2256 2256 2271 2271 2271 2286 2301 2317 2333 2333 2349 2349 2349 2349 2349 2349 2349 2349 2349 2349 2349 2349 2365 2349 2349 2349 2349 2349 2349 2349 2365 2365 2365 2365 2365 2365 2156 2156 2156 2156 2170 1915 1915 1915 1915 1915 1915 1915 1915 1926 1936 1936 1947 1970 1993 1993 2005 2005 2005 2005 2005 2349 2349 2349 2365 2365 2365 2365 2365 2365 2365 2365 2365 2365 2365 2365 1609 1609 1609 1609 1609 1609 1609 1601 1601 1594 1594 1586 1586 1586 1586 1586 1594 1594 1594 1601 1601 1601 1609 1609 1624 1639 1639 1639 1632 1632 1624 1624 1624 1609 1609 1601 1594 1594 1586 1586 1579 1579 1572 1572 1572 1572 1572 1572 1572 1572 1579 1586 1586 1594 1594 1601 1601 1609 1609 1609 1624 1624 1624 1624 1624 1624 1624 1624 1624 1624 1632 1632 1639 1647 1647 1647 1647 1655 1655 1655 1663 1663 1663 1663 1671 1671 1671 1680 1680 1680 1680 1680 1680 1680 1688 1688 1688 1688 1696 1713 1713 1722 1722 1722 1713 1713 1722 1722 1731 1731 1731 1731 1731 1722 1722 1722 1722 1722 1722 1722 1722 1722 1722 1722 1713 1713 1722 2415 2415 2415 2415 2415 2415 2415 2415 2415 2415 2398 2398 2398 2398 2398 2398 2398 2349 2349 2301 2301 2286 2286 2286 2286 2301 2317 2333 2349 2365 2381 2381 2381 2381 2381 2381 2381 1766 1766 1766 1757 1757 1748 1748 1748 1748 1748 1748 1748 1748 1748 1748 1748 2129 2129 2116 2116 2129 2415 2415 2415 2415 2415 2415 2415 2415 2415 2398 2398 2415 2415 2398 2398 2398 2398 2398 2415 2398 2398 2415 2415 2432 2432 2415 2415 2415 2415 2415 2415 2415 2415 2432 2432 1947 1936 1904 1904 1904 1904 1894 1894 1894 1894 1894 1894 1894 1894 1883 1883 1894 2116 2116 2116 2116 2129 2129 2129 2129 2129 2129 2129 2365 2365 2365 2381 2381 2381 2381 2365 2365 2365 2381 2381 2381 2381 2381 2381 2381 2365 2365 2381 2381 2381 2381 2381 2398 2398 2398 2398 2398 2398 2398 2398 0 0 0 0 0 0 0 0 0
0 0 0 0 0 0 0 0 0 0 0 0 0 0 0 0 0 0 0 0 0 0 0 0 0 0 0 0 0 0 0 0 0 2212 2212 2212 2212 2212 2212 2212 2212 2212 2212 2212 2212 2212 2212 2212 2226 2226 2226 2226 2226 2226 2226 2226 2226 2226 2226 2226 2226 2226 2226 2226 2226 2226 2226 2226 2226 2226 2226 2226 2226 2226 2226 2241 2256 2256 2241 2241 2226 2226 2212 2212 2226 2226 2226 2226 2226 2226 2226 2226 2226 2241 2241 2241 2241 2241 2241 2241 2241 2241 2241 2256 2256 2256 2256 2256 2256 2256 2256 2256 2256 2256 2256 2271 2271 2271 2271 2271 2271 2271 2271 2271 2271 2271 2271 2256 2256 2256 2256 2256 2256 2256 2271 2271 2271 2271 2271 2271 2271 2271 2271 2271 2271 2271 2271 2271 2286 2286 2286 2286 2286 2301 2301 2301 2301 2301 2301 2301 2301 2301 2301 2301 2286 2286 2286 2286 2286 2286 2286 2286 2286 2286 2286 2301 2286 2286 2301 2301 2301 2301 2301 2301 2301 2301 2301 2301 2301 2301 2301 2301 2301 2301 2301 2301 2301 2301 2301 2301 2301 2301 2301 2317 2317 2317 2317 2317 2317 2317 2317 2317 2317 2317 2317 2317 2333 2333 2333 2333 2333 2333 2333 2333 2317 2317 2317 2317 2317 2317 2333 2333 2333 2333 2333 2333 2349 2349 2349 2349 2349 2349 2349 2317 2317 2317 2317 2333 2333 2333 2333 2333 2333 2333 2333 2333 2333 2333 2333 2333 2333 2333 2333 2333 2333 2333 2317 2317 2301 2271 2256 2256 2256 2256 2256 2256 2256 2271 2271 2286 2286 2301 2317 2317 2333 2333 2333 2333 2349 2349 2349 2349 2349 2349 2349 2333 2333 2349 2349 2349 2349 2349 2349 2349 2349 2365 2365 2349 2349 2349 2349 2349 2349 2170 2170 1926 1915 1915 1915 1915 1915 1915 1926 1926 1926 1936 1936 1959 1981 1993 2005 2005 2005 2005 2005 2005 2333 2333 2349 2349 2349 2349 2349 2349 2349 2349 2349 2349 2349 2365 2381 2381 1609 1609 1609 1609 1609 1609 1601 1601 1601 1594 1594 1586 1586 1586 1594 1594 1594 1594 1601 1601 1601 1609 1609 1624 1639 1639 1639 1639 1632 1632 1624 1624 1616 1609 1601 1594 1594 1586 1586 1579 1579 1572 1572 1572 1572 1572 1572 1572 1579 1586 1586 1594 1594 1601 1601 1601 1609 1609 1616 1624 1624 1624 1624 1624 1624 1624 1624 1624 1632 1639 1639 1639 1647 1647 1647 1647 1655 1655 1655 1663 1663 1663 1663 1671 1671 1671 1680 1680 1680 1680 1680 1680 1680 1688 1688 1688 1696 1713 1722 0 1722 1722 1722 1722 1722 1748 1731 1731 1739 1731 1731 1731 1722 1722 1722 1722 1722 1722 1722 1722 1722 1722 1722 1713 1713 1722 2415 2415 2415 2415 2415 2415 2415 2398 2398 2398 2398 2398 2398 2398 2381 2381 2381 2349 2333 2301 2301 2286 2286 2286 2286 2301 2317 2333 2349 2365 2365 2381 2381 2381 2381 2381 2381 1766 1766 1766 1757 1757 1748 1748 1748 1748 1748 1748 1748 1748 1757 1748 1748 2129 2129 2116 2116 2116 2116 2116 2398 2398 2398 2398 2398 2398 2398 2398 2398 2398 2398 2398 2398 2398 2398 2398 2398 2398 2398 2415 2415 2415 2415 2415 2415 2415 2415 2415 2415 2415 2415 2415 2415 1936 1926 1904 1904 1904 1904 1904 1894 1894 1894 1894 1894 1894 1894 1894 1894 1894 2116 2116 2116 2116 2129 2129 2129 2129 2129 2129 2129 2365 2365 2365 2365 2365 2365 2365 2365 2365 2365 2365 2365 2365 2365 2365 2365 2365 2365 2365 2365 2365 2365 2365 2365 2365 2365 2365 2365 2365 2365 2365 2365 0 0 0 0 0 0 0 0 0
0 0 0 0 0 0 0 0 0 0 0 0 0 0 0 0 0 0 0 0 0 0 0 0 0 0 0 0 0 0 0 0 0 2212 2212 2212 2212 2212 2212 2212 2212 2212 2212 2198 2198 2198 2212 2212 2212 2212 2212 2226 2226 2226 2226 2226 2226 2226 2226 2226 2226 2226 2226 2226 2226 2226 2226 2226 2226 2226 2226 2226 2226 2226 2226 2226 2226 2226 2226 2226 2212 2212 2212 2212 2212 2212 2212 2212 2226 2226 2226 2212 2212 2212 2212 2226 2212 2212 2226 2226 2241 2241 2241 2241 2241 2241 2256 2256 2241 2241 2256 2256 2256 2256 2256 2256 2256 2256 2256 2256 2256 2256 2256 2256 2256 2256 2256 2256 2256 2256 2256 2256 2256 2256 2256 2271 2271 2271 2271 2271 2271 2271 2271 2271 2271 2271 2271 2271 2271 2271 2271 2271 2271 2286 2286 2286 2286 2286 2286 2286 2286 2286 2286 2286 2286 2271 2271 2271 2271 2271 2271 2271 2271 2286 2286 2271 2271 2271 2271 2271 2271 2286 2286 2286 2301 2286 2286 2286 2286 2286 2286 2286 2286 2286 2286 2301 2301 2301 2301 2301 2301 2301 2301 2301 2301 2301 2301 2301 2301 2301 2301 2301 2301 2301 2317 2317 2317 2317 2333 2333 2333 2333 2317 2317 2317 2317 2317 2317 2317 2317 2317 2317 2333 2333 2333 2333 2333 2349 2333 2333 2333 2333 2333 2317 2317 2317 2317 2317 2317 2317 2317 2317 2333 2333 2333 2317 2317 2317 2317 2317 2317 2317 2317 2317 2317 2317 2301 2301 2286 2271 2256 2256 2256 2256 2256 2256 2256 2271 2271 2286 2286 2301 2301 2317 2317 2333 2333 2333 2333 2333 2333 2333 2333 2333 2333 2333 2333 2333 2333 2333 2333 2333 2333 2333 2333 2349 2349 2333 2333 2333 2333 2349 2349 2349 1926 1926 1926 1926 1915 1915 1926 1926 1926 1926 1936 1936 1947 1959 1981 1993 2005 2005 2005 2005 2005 2005 2317 2333 2333 2333 2349 2349 2349 2349 2349 2349 2349 2349 2349 2365 2365 2365 1609 1609 1609 1609 1609 1609 1601 1601 1601 1594 1594 1594 1594 1594 1594 1594 1594 1594 1601 1601 1601 1609 1609 1616 1632 1639 1639 1632 1632 1632 1632 1624 1616 1616 1609 1594 1594 1586 1586 1579 1579 1572 1572 1572 1572 1572 1572 1579 1579 1586 1586 1594 1594 1601 1601 1609 1616 1624 1624 1624 1624 1632 1632 1624 1624 1624 1624 1632 1632 1639 1639 1647 1647 1655 1655 1655 1655 1655 1655 1655 1663 1663 1663 1671 1671 1680 1680 1680 1680 1680 1680 1680 1680 1688 1688 1688 1696 1713 1722 1722 0 0 1748 1748 1739 1739 1739 1739 1739 1739 1739 1731 1731 1722 1722 1722 1722 1722 1722 1722 1722 1722 1722 1722 1722 2398 2398 2398 2398 2398 2398 2398 2398 2398 2381 2381 2381 2381 2381 2381 2365 2365 2365 2349 2333 2301 2301 2286 2286 2286 2286 2301 2317 2333 2349 2365 2365 2381 2381 2365 2365 2365 2365 1766 1766 1766 1766 1757 1757 1757 1757 1748 1748 1748 1757 1757 1757 1748 1748 2129 2129 2116 2116 2116 2116 2116 2090 2090 2398 2398 2398 2398 2398 2381 2381 2398 2398 2398 2398 2398 2381 2381 2398 2381 2381 2398 2398 2398 2398 2398 2398 2398 2398 2398 2398 2398 2398 2398 1936 1926 1915 1904 1904 1904 1904 1904 1894 1894 1894 1894 1894 1894 1894 1894 1894 1894 2116 2116 2116 2129 2129 2129 2129 2129 2129 2129 2349 2349 2349 2365 2365 2365 2365 2365 2349 2349 2365 2365 2349 2349 2365 2349 2349 2365 2365 2365 2365 2365 2365 2365 2365 2365 2365 2365 2365 2365 2365 2365 2365 0 0 0 0 0 0 0 0 0
0 0 0 0 0 0 0 0 0 0 0 0 0 0 0 0 0 0 0 0 0 0 0 0 0 0 0 0 0 0 0 0 0 2212 2198 2198 2198 2198 2212 2212 2212 2198 2198 2198 2198 2198 2198 2198 2212 2212 2212 2212 2212 2212 2226 2212 2212 2212 2226 2226 2226 2226 2226 2226 2226 2226 2226 2226 2226 2226 2226 2226 2212 2212 2212 2212 2212 2212 2212 2212 2212 2212 2212 2212 2212 2212 2212 2212 2212 2212 2212 2212 2212 2212 2212 2212 2212 2212 2212 2226 2226 2241 2241 2241 2241 2241 2256 2241 2241 2241 2241 2241 2226 2226 2256 2256 2256 2256 2256 2256 2256 2256 2256 2256 2256 2256 2256 2241 2241 2241 2241 2256 2256 2256 2256 2256 2271 2271 2271 2271 2271 2271 2271 2256 2256 2271 2271 2271 2271 2271 2271 2271 2271 2286 2286 2286 2286 2286 2286 2286 2271 2271 2271 2271 2271 2271 2271 2271 2256 2256 2256 2256 2256 2256 2256 2256 2256 2256 2271 2271 2271 2271 2271 2271 2286 2286 2271 2271 2271 2271 2286 2286 2286 2286 2286 2286 2286 2286 2286 2286 2301 2301 2301 2301 2301 2301 2301 2301 2301 2301 2301 2301 2301 2301 2301 2317 2317 2317 2317 2317 2317 2317 2317 2317 2317 2317 2317 2317 2317 2317 2317 2317 2317 2317 2317 2333 2333 2333 2333 2333 2333 2333 2333 2317 2317 2301 2301 2317 2317 2317 2317 2317 2317 2317 2317 2301 2301 2301 2301 2301 2301 2301 2301 2317 2317 2317 2301 2301 2286 2271 2256 2256 2256 2256 2256 2256 2271 2271 2271 2286 2286 2301 2301 2317 2317 2317 2317 2317 2317 2317 2317 2317 2317 2317 2317 2317 2333 2317 2317 2317 2333 2333 2333 2333 2333 2333 2333 2317 2317 2333 2333 2333 2333 2333 1936 1926 1926 1926 1926 1926 1926 1926 1926 1926 1936 1936 1947 1959 1981 1993 2005 2005 2016 2016 2016 2016 2016 2317 2333 2333 2333 2333 2333 2333 2349 2349 2349 2349 2349 2349 2365 2365 1616 1616 1609 1609 1609 1609 1609 1601 1601 1594 1594 1594 1594 1594 1594 1594 1594 1594 1601 1601 1601 1609 1609 1609 1624 1632 1632 1632 1632 1632 1632 1624 1616 1616 1609 1594 1594 1586 1586 1579 1572 1572 1572 1572 1572 1572 1572 1572 1579 1586 1586 1594 1601 1601 1609 1609 1616 1624 1624 1624 1632 1632 1632 1624 1624 1624 1632 1632 1639 1639 1639 1647 1647 1655 1655 1655 1655 1655 1655 1655 1655 1663 1663 1663 1671 1680 1680 1680 1680 1680 1680 1680 1680 1688 1688 1688 1722 1722 1722 1722 0 0 1748 1748 1748 1748 1748 1748 1739 1739 1739 1731 1731 1722 1722 1722 1722 1722 1722 1722 1722 1722 1722 1722 1722 2398 2398 2381 2381 2381 2381 2381 2398 2381 2381 2381 2381 2381 2381 2365 2365 2365 2365 2349 2333 2301 2301 2286 2286 2286 2286 2301 2317 2333 2349 2365 2365 2365 2365 2365 2365 2365 2365 1766 1766 1766 1766 1757 1757 1757 1757 1757 1757 1757 1757 1757 1766 1748 1748 1748 2116 2116 2116 2116 2129 2116 2090 2090 2090 2090 2398 2398 2398 2381 2381 2381 2381 2381 2381 2381 2381 2381 2381 2381 2381 2381 2398 2398 2398 2398 2398 2398 2398 2381 2381 2398 2398 2398 1936 1926 1915 1904 1904 1915 1904 1904 1904 1904 1894 1894 1894 1894 1894 1894 1894 1894 2116 2116 2116 2129 2129 2129 2129 2129 2143 2143 2349 2349 2349 2365 2365 2365 2365 2365 2349 2349 2349 2349 2349 2349 2349 2349 2349 2349 2349 2349 2349 2349 2349 2349 2349 2365 2365 2349 2349 2349 2349 2349 2349 0 0 0 0 0 0 0 0 0
0 0 0 0 0 0 0 0 0 0 0 0 0 0 0 0 0 0 0 0 0 0 0 0 0 0 0 0 0 0 0 0 0 2198 2198 2198 2198 2198 2198 2198 2198 2170 2170 2170 2184 2184 2198 2198 2198 2212 2212 2212 2212 2212 2212 2212 2212 2212 2212 2212 2212 2212 2212 2212 2212 2212 2212 2212 2212 2212 2212 2212 2212 2198 2198 2212 2212 2212 2212 2212 2212 2212 2212 2198 2198 2212 2212 2212 2212 2212 2212 2212 2212 2212 2212 2212 2212 2212 2212 2212 2212 2212 2212 2226 2226 2241 2241 2241 2226 2226 2226 2226 2226 2226 2226 2241 2241 2241 2241 2241 2241 2241 2241 2241 2241 2256 2256 2226 2226 2226 2226 2241 2241 2241 2241 2256 2256 2256 2256 2256 2256 2256 2256 2256 2256 2256 2256 2256 2271 2271 2271 2271 2271 2271 2271 2271 2271 2256 2256 2256 2256 2256 2256 2256 2256 2256 2256 2256 2256 2256 2256 2256 2256 2256 2256 2256 2256 2256 2256 2256 2271 2271 2271 2271 2271 2271 2271 2271 2271 2271 2271 2271 2286 2286 2286 2286 2286 2286 2286 2286 2286 2301 2301 2301 2301 2301 2301 2301 2301 2301 2301 2301 2301 2301 2301 2301 2301 2301 2301 2301 2301 2301 2301 2301 2301 2301 2317 2317 2317 2317 2317 2317 2317 2317 2317 2317 2317 2317 2317 2317 2317 2317 2317 2301 2301 2301 2301 2301 2301 2301 2301 2301 2301 2301 2301 2301 2301 2301 2301 2301 2301 2301 2301 2301 2301 2301 2301 2286 2286 2271 2256 2256 2256 2256 2256 2256 2271 2271 2271 2286 2286 2301 2301 2301 2301 2317 2317 2317 2301 2301 2301 2301 2301 2301 2301 2301 2317 2317 2317 2317 2333 2333 2333 2333 2333 2333 2333 2317 2317 2317 2317 2317 2333 2333 1936 1936 1926 1926 1926 1926 1926 1936 1936 1936 1936 1947 1959 1959 1981 1981 2005 2005 2016 2016 2016 2016 2016 2317 2317 2317 2333 2333 2333 2333 2333 2333 2333 2333 2349 2349 2349 2349 2349 1616 1609 1609 1616 1609 1609 1601 1601 1601 1594 1594 1594 1594 1594 1594 1594 1601 1601 1601 1609 1609 1609 1609 1624 1632 1632 1632 1632 1632 1632 1624 1624 1616 1609 1594 1594 1586 1586 1572 1572 1572 1572 1572 1572 1572 1572 1572 1579 1586 1586 1594 1601 1601 1609 1616 1624 1624 1624 1632 1632 1632 1632 1624 1624 1624 1632 1632 1639 1639 1647 1647 1647 1655 1655 1655 1655 1655 1655 1655 1655 1655 1655 1663 1671 1680 1680 1688 1688 1688 1688 2090 2090 2090 2090 2103 2103 2103 2090 0 0 1722 1748 1748 1748 1757 1748 1748 1748 1739 1739 1731 1731 1731 1722 1722 1722 1722 1722 1722 1722 1722 1722 1722 2381 2381 2381 2381 2381 2381 2381 2381 2381 2381 2365 2365 2365 2365 2365 2365 2365 2365 2349 2349 2333 2301 2301 2286 2286 2286 2301 2301 2317 2333 2349 2365 2365 2365 2365 2349 2349 2349 2349 1766 1766 1766 1766 1757 1757 1757 1757 1757 1757 1757 1757 1757 1757 1748 1748 1748 2116 2103 2103 2116 2116 2103 2090 2090 2090 2090 2090 2398 2398 2381 2381 2381 2381 2381 2381 2381 2365 2365 2381 2365 2365 2381 2381 2381 2398 2398 2398 2381 2381 2381 2381 2381 2381 2381 1936 1926 1915 1904 1904 1915 1904 1904 1904 1904 1894 1894 1894 1894 1894 1883 1883 1883 2116 2116 2116 2129 2129 2129 2129 2129 2143 2143 2333 2349 2349 2349 2349 2349 2365 2365 2349 2349 2349 2349 2349 2349 2333 2333 2333 2349 2333 2333 2333 2333 2349 2349 2349 2349 2349 2349 2349 2349 2349 2349 2349 0 0 0 0 0 0 0 0 0
0 0 0 0 0 0 0 0 0 0 0 0 0 0 0 0 0 0 0 0 0 0 0 0 0 0 0 0 0 0 0 0 0 2184 2184 2184 2184 2184 2184 2184 2170 2170 2170 2170 2170 2184 2184 2184 2184 2198 2198 2212 2212 2212 2212 2212 2212 2212 2212 2212 2212 2212 2212 2212 2212 2212 2212 2212 2212 2212 2212 2198 2198 2198 2198 2198 2212 2198 2198 2198 2212 2212 2212 2198 2198 2198 2212 2212 2212 2198 2198 2198 2198 2198 2198 2198 2198 2198 2198 2198 2198 2212 2212 2212 2212 2226 2226 2226 2226 2226 2226 2226 2226 2226 2226 2226 2226 2226 2241 2241 2241 2241 2241 2241 2241 2241 2226 2226 2226 2226 2226 2241 2241 2241 2241 2256 2256 2256 2256 2256 2256 2256 2256 2256 2256 2256 2256 2256 2256 2256 2256 2271 2271 2271 2271 2271 2271 2256 2256 2256 2241 2241 2256 2256 2256 2256 2256 2256 2256 2256 2256 2256 2256 2256 2256 2256 2256 2256 2256 2256 2256 2256 2256 2256 2271 2271 2271 2271 2271 2271 2271 2271 2271 2271 2271 2271 2271 2271 2271 2271 2286 2286 2286 2301 2286 2286 2286 2286 2286 2286 2286 2286 2286 2286 2286 2301 2301 2301 2301 2301 2301 2301 2301 2301 2301 2301 2301 2301 2301 2301 2317 2317 2317 2317 2317 2317 2317 2317 2301 2301 2301 2301 2301 2286 2286 2301 2301 2301 2301 2301 2301 2301 2301 2301 2301 2301 2301 2301 2301 2301 2301 2301 2301 2301 2301 2301 2301 2286 2286 2271 2256 2256 2256 2256 2256 2256 2271 2271 2271 2271 2286 2286 2301 2301 2301 2301 2301 2301 2301 2301 2301 2301 2301 2301 2301 2301 2301 2317 2317 2317 2317 2317 2317 2317 2317 2317 2317 2301 2301 2317 2317 2317 2317 2317 1947 1936 1926 1926 1926 1926 1926 1936 1936 1936 1936 1947 1959 1970 1981 1981 2005 2005 2016 2016 2016 2016 2005 2005 2317 2317 2333 2333 2317 2317 2317 2333 2333 2333 2333 2349 2349 2349 2349 1609 1609 1609 1609 1609 1609 1601 1601 1601 1594 1594 1594 1594 1594 1594 1594 1601 1601 1601 1609 1609 1609 1616 1624 1632 1632 1632 1632 1632 1624 1624 1624 1616 1616 1601 1601 1586 1579 1572 1572 1572 1572 1572 1572 1572 1572 1579 1586 1594 1594 1594 1601 1601 1609 1616 1624 1624 1632 1632 1632 1632 1632 1624 1624 1632 1632 1639 1639 1647 1647 1647 1647 1655 1655 1655 1655 1655 1655 1655 1655 1655 1655 1655 1671 2103 2103 2090 2090 2090 2090 2090 2090 2090 2090 2103 2103 2103 2090 2090 0 1722 1722 1722 1748 1757 1748 1748 1748 1739 1739 1731 1731 1731 1722 1722 1722 1722 1722 1722 1722 1731 1722 1722 1722 2381 2349 2349 2349 2349 2365 2365 2365 2365 2349 2349 2365 2365 2365 2365 2349 2349 2349 2349 2333 2301 2301 2301 2301 2301 2301 2301 2317 2333 2349 2349 2365 2365 2365 2349 2349 2349 2349 1776 1776 1766 1766 1757 1757 1757 1757 1757 1757 1757 1757 1766 1757 1757 2116 2116 2116 2103 2103 2103 2103 2090 2090 2090 2090 2090 2078 2078 2398 2381 2365 2365 2365 2365 2365 2365 2365 2365 2365 2365 2365 2365 2365 2365 2381 2381 2381 2381 2381 2365 2365 2365 2365 2381 1947 1936 1915 1904 1904 1915 1904 1904 1904 1904 1904 1904 1894 1894 1894 1883 1883 1883 2116 2116 2116 2129 2129 2129 2143 2143 2143 2156 2333 2333 2333 2349 2349 2349 2349 2349 2333 2333 2349 2333 2333 2333 2333 2333 2333 2333 2317 2317 2317 2317 2333 2333 2349 2349 2349 2349 2349 2349 2349 2349 2349 0 0 0 0 0 0 0 0 0
