0 0 0 0 0 0 0 0 0 0 0 0 0 0 0 0 0 0 0 0 0 0 0 0 0 0 0 0 0 0 0 0 0 2286 2286 2286 2286 2286 2286 2286 2286 2286 2286 2286 2286 2286 2286 2286 2286 2286 2286 2286 2301 2301 2301 2301 2301 2301 2301 2301 2301 2301 2301 2301 2317 2317 2317 2333 2333 2333 2333 2333 2317 2317 2317 2317 2317 2317 2317 2317 2317 2317 2317 2317 2317 2317 2317 2317 2317 2317 2333 2333 2333 2333 2333 2333 2333 2333 2333 2333 2333 2333 2333 2333 2333 2333 2333 2333 2333 2333 2333 2333 2349 2349 2349 2365 2349 2349 2349 2349 2349 2349 2349 2349 2349 2349 2365 2365 2365 2365 2365 2365 2365 2381 2381 2381 2381 2381 2381 2381 2381 2381 2381 2381 2381 2381 2398 2381 2381 2398 2398 2398 2398 2398 2398 2398 2398 2381 2381 2381 2381 2381 2381 2381 2381 2381 2381 2381 2381 2398 2398 2398 2415 2415 2415 2415 2415 2415 2398 2398 2398 2398 2398 2415 2415 2415 2415 2415 2415 2432 2432 2415 2415 2415 2415 2415 2432 2432 2432 2432 2432 2432 2432 2432 2432 2432 2432 2432 2432 2432 2432 2432 2450 2184 2184 2198 2212 2212 2226 2226 2226 2241 2241 2256 2256 2256 2271 2450 2450 2467 2467 2450 2450 2415 2381 2381 2381 2381 2381 2381 2381 2381 2381 2415 1883 1873 1873 1863 1863 1873 1873 1873 1873 1873 1873 1883 1894 1904 1936 1947 1947 1959 1959 1947 1947 1947 1947 1550 1550 1543 1543 1543 1543 1543 1543 1543 1543 1543 1543 1543 1543 1550 1550 1550 1550 1550 1624 1624 1632 1624 1624 1624 1624 1624 1632 1632 1632 1632 1516 1516 1509 1503 1503 1496 1496 1496 1496 1496 1496 1496 1496 1496 1496 1496 1639 1639 1639 1639 1639 1647 1647 1647 1647 1647 1655 1655 1655 1655 1655 1655 1647 1647 1647 1647 1647 1647 1647 1647 1655 1655 1655 1655 1655 1655 1655 1655 1663 1663 1663 1663 1663 1663 1663 1655 1655 1663 1663 1663 1663 1663 1663 1663 1663 1663 1663 1671 1671 1671 1671 1671 1671 1671 1671 1671 1671 1671 1671 1680 1680 1680 1680 1680 1680 1680 1680 1680 1680 1671 1663 1663 1663 1663 1663 1663 1663 1663 1663 1663 1663 1663 1663 2560 2560 2579 2579 2598 2598 2598 2598 2598 2598 2598 2579 2579 2598 2598 2579 2579 2579 2579 2579 1813 1813 1804 1804 1794 1794 1785 1776 1776 1776 1766 1757 1748 1748 1739 1731 1731 1722 1722 1713 1713 1705 1696 1696 1688 1688 1680 1680 1671 1671 1663 1663 1663 1663 1663 1663 1671 1671 1680 1688 1688 1696 1705 1705 1705 1713 1713 1713 1713 1713 1713 1713 1722 1722 1722 1722 1722 1722 1722 1722 1722 1722 1722 1731 1731 1731 1731 1739 1739 1739 1748 1748 1748 1748 1748 1748 1757 1757 1757 1757 1757 1757 1757 1757 1757 1766 1766 1766 1766 1776 1776 1776 1785 1785 1785 1785 1785 1785 1785 1785 1785 1785 1785 1785 1785 1785 1785 1785 1794 0 0 0 0 0 0 0 0 2028 2028 2028 2028 2028 2028 2028 2028 2028 2028 2028 2028 2028 2028 2028 2028 2028 2040 2040 2040 2598 2598 2598 2598 2618 2618 2618 2618 2639 2639 2639 2639 2659 2639 2639 2639 2639 2639 2639 2639 2639 2618 2618 2639 2639 2639 2618 2618 2618 2618 2618 2618 2618 2618 2618 2618 2618 2618 2618 2618 2598 2598 2598 2598 2598 2618 2618 2618 2618 2618 2618 2618 2618 2618 2618 2618 2618 2618 2618 2618 2618 2618 2618 2618 2618 2618 2598 2598 2598 2598 2598 2598 0 0 0 0 0 0 0 0 0 0
0 0 0 0 0 0 0 0 0 0 0 0 0 0 0 0 0 0 0 0 0 0 0 0 0 0 0 0 0 0 0 0 0 2286 2286 2286 2286 2286 2286 2286 2286 2286 2286 2286 2286 2286 2286 2286 2271 2271 2286 2286 2286 2286 2286 2286 2286 2286 2286 2286 2286 2286 2286 2301 2301 2301 2317 2317 2317 2317 2317 2333 2317 2317 2317 2317 2317 2317 2317 2301 2301 2301 2301 2301 2317 2317 2317 2317 2317 2317 2317 2333 2333 2333 2333 2317 2317 2317 2317 2333 2333 2333 2333 2333 2333 2333 2333 2333 2317 2317 2333 2333 2333 2333 2333 2333 2333 2333 2333 2333 2333 2333 2333 2333 2349 2349 2349 2365 2365 2365 2365 2365 2365 2381 2381 2381 2381 2381 2381 2381 2381 2381 2381 2381 2381 2381 2381 2381 2381 2381 2381 2398 2398 2398 2398 2398 2398 2381 2381 2381 2381 2381 2381 2381 2381 2381 2381 2381 2381 2381 2381 2381 2398 2398 2398 2398 2398 2398 2398 2398 2398 2398 2398 2398 2398 2415 2415 2415 2415 2415 2415 2415 2415 2415 2415 2415 2415 2415 2415 2415 2415 2415 2415 2415 2415 2415 2415 2415 2432 2432 2432 2432 2432 2198 2198 2198 2212 2212 2226 2226 2226 2241 2256 2256 2256 2256 2271 2450 2450 2467 2450 2450 2432 2432 2398 2398 2381 2381 2381 2398 2398 2415 2415 2415 2415 1883 1873 1873 1873 1873 1873 1873 1873 1873 1873 1883 1894 1915 1947 1947 1959 1959 1959 1947 1936 1936 1936 1550 1550 1550 1550 1543 1543 1543 1543 1543 1543 1543 1543 1543 1550 1550 1550 1550 1557 1564 1616 1624 1624 1616 1616 1616 1616 1616 1616 1616 1624 1632 1516 1516 1516 1509 1503 1496 1496 1496 1496 1496 1496 1496 1503 1503 1503 1503 1639 1639 1639 1632 1632 1639 1639 1639 1639 1639 1639 1639 1639 1639 1639 1639 1632 1632 1632 1632 1632 1639 1639 1639 1639 1639 1647 1647 1647 1647 1647 1647 1655 1655 1655 1655 1655 1655 1655 1655 1655 1655 1655 1655 1655 1663 1663 1663 1663 1663 1663 1663 1663 1663 1663 1663 1663 1663 1671 1671 1671 1671 1671 1671 1671 1671 1671 1671 1671 1671 1680 1671 1671 1671 1663 1663 1663 1663 1663 1663 1663 1663 1663 1663 1663 1663 1663 2560 2560 2560 2560 2579 2579 2579 2579 2579 2579 2598 2579 2579 2579 2579 2579 2579 2579 2579 2579 2560 2560 2560 2560 1794 1794 1785 1776 1776 1776 1766 1757 1748 1748 1739 1739 1731 1722 1722 1713 1713 1705 1696 1696 1688 1688 1680 1680 1671 1671 1663 1663 1663 1663 1663 1671 1680 1680 1688 1688 1696 1696 1705 1705 1705 1705 1705 1713 1713 1713 1713 1713 1713 1722 1722 1722 1722 1722 1722 1722 1722 1722 1722 1731 1731 1739 1739 1739 1748 1748 1748 1748 1748 1748 1748 1748 1757 1757 1757 1757 1757 1757 1757 1757 1757 1766 1766 1776 1776 1776 1776 1776 1785 1785 1785 1785 1785 1785 1785 1785 1785 1785 1785 1785 1785 1785 1785 1785 0 0 0 0 0 0 0 0 0 2028 2028 2028 2028 2028 2028 2028 2028 2028 2028 2028 2028 2028 2028 2040 2040 2040 2040 2040 2040 2598 2598 2598 2598 2598 2598 2618 2618 2618 2618 2618 2618 2639 2639 2639 2618 2618 2618 2618 2618 2618 2618 2618 2618 2618 2618 2618 2618 2618 2618 2618 2618 2618 2618 2618 2618 2618 2618 2618 2598 2598 2598 2598 2598 2598 2598 2598 2598 2618 2618 2618 2618 2598 2598 2598 2598 2598 2598 2598 2618 2618 2598 2598 2598 2598 2598 2598 2598 2598 2598 2579 2579 0 0 0 0 0 0 0 0 0 0
0 0 0 0 0 0 0 0 0 0 0 0 0 0 0 0 0 0 0 0 0 0 0 0 0 0 0 0 0 0 0 0 0 2271 2271 2271 2271 2271 2271 2271 2271 2286 2286 2286 2286 2286 2286 2286 2271 2271 2271 2271 2286 2271 2271 2286 2286 2286 2286 2286 2286 2286 2286 2286 2286 2301 2301 2317 2317 2317 2317 2317 2317 2317 2301 2301 2317 2317 2317 2301 2301 2301 2301 2301 2301 2317 2317 2317 2317 2317 2317 2317 2317 2317 2317 2301 2301 2301 2317 2317 2317 2333 2333 2333 2333 2333 2333 2333 2317 2317 2317 2317 2333 2333 2333 2333 2333 2333 2333 2333 2333 2333 2333 2333 2333 2333 2349 2349 2349 2349 2349 2365 2365 2365 2365 2381 2381 2365 2365 2365 2365 2365 2365 2365 2365 2365 2381 2381 2381 2381 2381 2381 2381 2381 2398 2381 2381 2381 2381 2381 2365 2365 2365 2365 2365 2365 2365 2365 2381 2381 2381 2381 2381 2381 2381 2381 2381 2381 2381 2381 2381 2381 2398 2398 2398 2398 2398 2398 2398 2398 2398 2398 2398 2398 2415 2415 2415 2415 2415 2415 2415 2415 2415 2415 2415 2415 2398 2398 2415 2432 2432 2432 2432 2432 2212 2212 2212 2226 2226 2226 2241 2241 2256 2256 2256 2256 2271 2432 2432 2450 2450 2450 2432 2432 2398 2398 2381 2381 2381 2398 2415 2415 2432 2432 2432 1883 1883 1873 1873 1873 1873 1873 1873 1883 1883 1883 1894 1915 1936 1947 1959 1959 1959 1959 1936 1936 1936 1550 1550 1550 1550 1543 1543 1543 1543 1543 1543 1543 1543 1550 1550 1550 1550 1550 1557 1601 1616 1616 1616 1616 1609 1609 1609 1609 1616 1616 1616 1632 1516 1516 1516 1509 1503 1503 1503 1496 1496 1496 1496 1496 1509 1503 1503 1503 1632 1632 1632 1632 1632 1632 1639 1639 1639 1639 1639 1639 1639 1639 1632 1632 1624 1624 1624 1624 1624 1632 1632 1632 1632 1632 1632 1639 1639 1639 1639 1639 1639 1639 1639 1639 1639 1639 1639 1639 1639 1639 1639 1647 1647 1647 1647 1647 1647 1647 1647 1647 1647 1655 1655 1663 1663 1663 1663 1663 1663 1663 1663 1663 1663 1663 1663 1663 1663 1671 1671 1671 1671 1671 1663 1663 1663 1663 1663 1663 1663 1663 1663 1663 1671 1671 1671 2522 2522 2560 2560 2560 2560 2560 2560 2579 2579 2579 2560 2560 2560 2579 2579 2579 2579 2579 2579 2560 2560 2560 2560 2560 1785 1785 1785 1785 1776 1766 1757 1757 1748 1748 1739 1731 1722 1722 1713 1713 1713 1705 1696 1688 1688 1688 1680 1671 1671 1671 1671 1663 1663 1671 1680 1680 1688 1688 1696 1696 1705 1705 1705 1713 1705 1705 1713 1713 1713 1713 1713 1713 1722 1722 1722 1722 1722 1722 1722 1731 1731 1731 1731 1739 1739 1739 1739 1748 1748 1748 1748 1748 1748 1748 1757 1766 1766 1757 1757 1757 1766 1766 1766 1766 1766 1776 1776 1776 1776 1776 1785 1785 1785 1794 1794 1794 1785 1785 1785 1785 1785 1785 1785 1785 1785 1785 1785 0 0 0 0 0 0 0 0 2053 2040 2040 2040 2040 2040 2028 2028 2028 2028 2028 2028 2028 2028 2028 2040 2040 2040 2040 2040 2040 2579 2579 2598 2598 2598 2598 2598 2598 2618 2598 2598 2598 2618 2618 2618 2598 2598 2598 2598 2598 2598 2598 2598 2598 2598 2618 2598 2598 2598 2598 2598 2618 2618 2598 2598 2598 2618 2598 2598 2598 2579 2579 2579 2579 2579 2598 2598 2598 2598 2598 2598 2598 2598 2598 2598 2598 2598 2598 2598 2598 2598 2598 2598 2598 2598 2598 2579 2579 2579 2579 2579 2579 0 0 0 0 0 0 0 0 0 0
0 0 0 0 0 0 0 0 0 0 0 0 0 0 0 0 0 0 0 0 0 0 0 0 0 0 0 0 0 0 0 0 0 2271 2271 2271 2271 2271 2271 2271 2271 2271 2271 2271 2271 2271 2271 2271 2271 2271 2271 2271 2271 2271 2271 2271 2271 2286 2286 2286 2286 2286 2286 2286 2286 2286 2286 2286 2286 2286 2286 2301 2301 2301 2301 2301 2301 2301 2301 2286 2286 2286 2286 2301 2301 2301 2301 2317 2317 2317 2317 2317 2317 2317 2317 2301 2301 2301 2317 2317 2317 2317 2317 2333 2317 2317 2317 2317 2317 2317 2317 2317 2317 2317 2317 2317 2333 2333 2333 2333 2333 2333 2333 2333 2333 2333 2333 2349 2333 2333 2349 2349 2349 2365 2365 2365 2365 2365 2365 2365 2365 2365 2365 2349 2349 2365 2365 2365 2365 2365 2365 2381 2381 2381 2381 2381 2381 2381 2365 2365 2365 2365 2365 2365 2365 2365 2365 2365 2365 2381 2381 2381 2381 2381 2381 2381 2381 2381 2381 2381 2381 2381 2398 2381 2381 2398 2398 2398 2398 2398 2398 2398 2398 2398 2398 2398 2398 2398 2398 2398 2398 2398 2398 2398 2398 2398 2398 2398 2415 2415 2415 2432 2432 2432 2212 2212 2212 2226 2241 2241 2241 2241 2256 2256 2256 2271 2271 2398 2415 2450 2432 2432 2432 2415 2398 2398 2381 2381 2381 2398 2398 2415 2415 2415 2415 1883 1883 1883 1883 1883 1883 1883 1883 1883 1883 1894 1894 1904 1936 1947 1959 1959 1959 1959 1936 1936 1936 1557 1557 1550 1550 1543 1543 1543 1543 1543 1543 1550 1550 1550 1550 1550 1550 1550 1557 1594 1609 1616 1616 1609 1609 1609 1609 1609 1609 1609 1609 1609 1516 1516 1516 1516 1509 1503 1503 1503 1503 1503 1503 1503 1509 1509 1509 1509 1624 1624 1624 1624 1624 1624 1632 1632 1632 1632 1632 1632 1632 1632 1632 1632 1624 1624 1624 1624 1624 1624 1624 1632 1632 1632 1632 1632 1632 1632 1632 1632 1632 1632 1632 1632 1632 1632 1632 1632 1632 1632 1639 1639 1639 1639 1639 1639 1639 1639 1639 1639 1639 1647 1647 1647 1655 1655 1655 1655 1655 1655 1655 1655 1655 1655 1655 1663 1663 1663 1663 1663 1663 1663 1663 1663 1663 1663 1663 1663 1663 1663 1663 1663 1671 1671 1671 2522 2522 2560 2560 2560 2560 2560 2560 2560 2560 2560 2560 2560 2560 2560 2560 2560 2560 2560 2560 2560 2541 2541 2541 2541 2541 1785 1776 1776 1776 1766 1757 1757 1748 1748 1739 1739 1731 1722 1722 1713 1713 1705 1705 1696 1688 1688 1680 1671 1671 1671 1671 1671 1671 1680 1680 1680 1688 1688 1696 1696 1705 1705 1705 1713 1713 1713 1713 1713 1713 1713 1713 1722 1722 1722 1722 1722 1722 1731 1731 1731 1731 1731 1739 1739 1748 1748 1748 1748 1748 1748 1757 1757 1757 1757 1766 1766 1776 1766 1766 1766 1766 1766 1776 1776 1776 1776 1776 1785 1785 1785 1785 1785 1785 1794 1794 1794 1785 1785 1785 1785 1785 1785 1785 1785 1785 1785 1785 0 0 0 0 0 0 0 0 2053 2053 2040 2040 2040 2040 2028 2028 2028 2028 2028 2028 2028 2028 2028 2040 2040 2040 2040 2040 2053 2579 2579 2579 2579 2598 2598 2598 2598 2598 2598 2598 2598 2618 2618 2618 2598 2598 2598 2598 2598 2598 2598 2598 2598 2579 2579 2598 2598 2598 2598 2598 2598 2598 2598 2598 2598 2598 2598 2598 2579 2579 2579 2579 2579 2579 2579 2579 2579 2579 2579 2579 2579 2579 2579 2579 2579 2579 2579 2579 2579 2579 2579 2598 2598 2598 2579 2579 2579 2579 2579 2579 2579 0 0 0 0 0 0 0 0 0 0
0 0 0 0 0 0 0 0 0 0 0 0 0 0 0 0 0 0 0 0 0 0 0 0 0 0 0 0 0 0 0 0 0 2271 2271 2271 2271 2271 2271 2271 2271 2271 2271 2271 2271 2271 2271 2271 2271 2271 2271 2271 2271 2271 2271 2271 2271 2271 2271 2271 2271 2286 2286 2286 2286 2286 2286 2286 2286 2286 2286 2286 2286 2286 2286 2286 2286 2286 2286 2286 2286 2286 2286 2286 2301 2301 2301 2301 2317 2317 2317 2301 2301 2301 2301 2286 2286 2286 2301 2301 2301 2317 2317 2317 2317 2317 2317 2317 2301 2301 2301 2301 2317 2317 2317 2317 2333 2333 2333 2333 2333 2333 2333 2333 2333 2333 2333 2333 2333 2333 2333 2349 2349 2349 2349 2365 2349 2349 2349 2349 2349 2349 2349 2349 2349 2349 2349 2349 2349 2365 2365 2381 2381 2381 2381 2381 2381 2365 2365 2365 2365 2349 2349 2349 2349 2349 2365 2365 2365 2365 2381 2381 2381 2381 2381 2381 2381 2381 2365 2365 2381 2381 2381 2381 2381 2381 2381 2381 2381 2398 2381 2381 2381 2381 2398 2381 2381 2398 2398 2398 2398 2398 2398 2398 2398 2398 2381 2381 2398 2415 2415 2415 2415 2432 2432 2212 2212 2226 2241 2241 2241 2241 2256 2256 2256 2271 2271 2398 2415 2432 2432 2432 2432 2415 2398 2381 2381 2381 2381 2398 2398 2415 2415 2415 2415 1894 1894 1883 1883 1883 1883 1883 1883 1883 1883 1894 1894 1904 1915 1947 1947 1959 1959 1959 1936 1936 1936 1557 1557 1550 1550 1543 1543 1543 1543 1543 1543 1550 1550 1550 1550 1550 1557 1557 1557 1564 1601 1609 1609 1609 1609 1609 1609 1609 1609 1601 1601 1529 1523 1516 1516 1516 1509 1509 1509 1503 1503 1509 1503 1503 1516 1516 1516 1516 1624 1624 1624 1624 1624 1624 1624 1624 1632 1624 1624 1624 1632 1624 1624 1624 1624 1624 1616 1616 1624 1624 1624 1624 1624 1624 1624 1632 1632 1632 1632 1632 1632 1632 1632 1632 1632 1632 1632 1632 1632 1632 1632 1632 1639 1639 1639 1639 1639 1639 1639 1639 1639 1639 1639 1647 1647 1647 1655 1655 1655 1655 1655 1655 1655 1655 1655 1655 1663 1663 1663 1663 1663 1663 1663 1663 1663 1663 1663 1663 1663 1663 1671 1671 1680 1680 1680 2541 2541 2541 2541 2541 2541 2541 2541 2560 2560 2560 2541 2541 2541 2541 2541 2541 2560 2560 2560 2560 2541 2541 2541 2541 2541 2541 1776 1776 1766 1766 1757 1757 1748 1748 1739 1739 1731 1722 1722 1722 1713 1713 1705 1696 1688 1680 1680 1671 1671 1671 1671 1671 1671 1680 1680 1688 1688 1688 1696 1696 1705 1705 1705 1713 1713 1713 1713 1713 1713 1713 1722 1722 1722 1722 1722 1722 1722 1731 1731 1731 1739 1739 1739 1748 1748 1748 1748 1748 1748 1757 1757 1757 1766 1766 1776 1776 1785 1776 1776 1776 1776 1776 1776 1776 1776 1776 1785 1785 1785 1785 1785 1794 1794 1794 1794 1794 1794 1794 1785 1785 1785 1785 1785 1785 1785 1794 1794 0 0 0 0 0 0 0 0 2053 2053 2053 2053 2040 2040 2028 2028 2028 2028 2028 2028 2028 2028 2028 2040 2040 2040 2040 2040 2053 2579 2579 2579 2579 2579 2579 2598 2598 2598 2598 2598 2598 2598 2598 2598 2598 2598 2598 2598 2598 2598 2579 2579 2579 2579 2560 2560 2560 2560 2598 2598 2598 2598 2598 2598 2579 2579 2579 2579 2579 2579 2579 2579 2579 2579 2579 2579 2579 2579 2579 2579 2579 2579 2579 2579 2579 2579 2579 2579 2579 2579 2579 2579 2579 2579 2579 2579 2579 2579 2579 2579 2579 0 0 0 0 0 0 0 0 0 0
0 0 0 0 0 0 0 0 0 0 0 0 0 0 0 0 0 0 0 0 0 0 0 0 0 0 0 0 0 0 0 0 0 2256 2256 2271 2271 2271 2271 2271 2271 2271 2271 2271 2271 2271 2271 2271 2271 2271 2271 2271 2271 2271 2271 2271 2271 2271 2271 2271 2271 2271 2286 2286 2286 2286 2286 2271 2271 2271 2271 2271 2271 2271 2271 2271 2271 2271 2271 2271 2271 2271 2271 2271 2286 2286 2286 2301 2301 2301 2301 2301 2286 2286 2286 2286 2286 2286 2301 2301 2301 2301 2301 2317 2317 2317 2317 2317 2301 2301 2301 2301 2301 2301 2317 2317 2317 2317 2317 2317 2333 2333 2333 2333 2333 2333 2333 2333 2333 2333 2333 2333 2333 2349 2349 2349 2349 2333 2333 2349 2333 2333 2333 2333 2333 2349 2349 2349 2349 2349 2349 2365 2381 2381 2381 2381 2381 2365 2365 2349 2349 2349 2349 2349 2349 2349 2349 2349 2349 2365 2365 2365 2365 2365 2365 2365 2365 2365 2365 2365 2365 2365 2381 2381 2381 2381 2381 2381 2381 2381 2381 2381 2381 2381 2381 2381 2381 2381 2381 2398 2398 2398 2381 2381 2381 2381 2381 2381 2381 2398 2398 2415 2415 2415 2432 2226 2226 2226 2241 2241 2241 2241 2256 2256 2256 2271 2271 2381 2381 2415 2415 2415 2415 2398 2398 2381 2381 2381 2381 2398 2398 2415 2415 2415 2415 1904 1894 1894 1883 1883 1883 1883 1883 1883 1883 1894 1894 1904 1915 1947 1947 1959 1959 1959 1936 1936 1936 1550 1550 1550 1550 1543 1543 1543 1543 1550 1550 1550 1550 1550 1550 1550 1557 1557 1557 1564 1586 1601 1601 1601 1601 1601 1601 1601 1601 1594 1594 1529 1523 1523 1523 1516 1516 1509 1509 1509 1509 1509 1509 1509 1516 1516 1516 1516 1624 1609 1609 1616 1616 1616 1616 1616 1624 1624 1624 1624 1624 1624 1616 1616 1616 1616 1616 1616 1616 1616 1624 1624 1624 1624 1624 1624 1624 1624 1624 1624 1624 1624 1624 1624 1624 1624 1624 1624 1624 1624 1632 1632 1632 1632 1632 1632 1632 1632 1632 1632 1632 1639 1639 1639 1647 1647 1647 1647 1647 1647 1655 1655 1655 1655 1655 1655 1663 1663 1663 1663 1663 1663 1663 1663 1663 1663 1663 1671 1671 1671 1671 1680 1680 1680 1680 2522 2522 2541 2522 2522 2522 2541 2541 2541 2541 2541 2522 2522 2541 2541 2541 2541 2541 2541 2541 2541 2541 2522 2522 2522 2522 2522 1776 1776 1766 1757 1757 1757 1748 1748 1739 1739 1731 1731 1722 1722 1713 1713 1705 1696 1688 1680 1680 1680 1671 1671 1671 1671 1680 1680 1680 1688 1688 1696 1696 1696 1705 1705 1713 1713 1713 1713 1713 1722 1722 1722 1722 1722 1722 1722 1731 1731 1731 1731 1731 1739 1739 1748 1748 1748 1748 1748 1748 1757 1757 1757 1757 1757 1766 1776 1776 1776 1785 1776 1776 1776 1776 1776 1776 1776 1776 1776 1785 1785 1785 1785 1785 1794 1794 1794 1794 1794 1794 1794 1794 1794 1794 1794 1794 1794 1794 1794 1794 0 0 0 0 0 0 0 0 2053 2053 2053 2053 2040 2040 2028 2028 2028 2028 2028 2028 2028 2028 2028 2040 2040 2040 2040 2053 2053 2579 2579 2579 2579 2579 2579 2579 2579 2579 2579 2598 2598 2598 2598 2598 2598 2598 2598 2598 2579 2579 2579 2579 2579 2579 2560 2560 2560 2560 2579 2579 2579 2579 2579 2579 2579 2579 2579 2579 2579 2579 2579 2579 2579 2579 2579 2579 2579 2579 2560 2560 2560 2560 2560 2560 2560 2560 2560 2560 2579 2579 2579 2579 2579 2579 2579 2560 2560 2560 2560 2560 2560 0 0 0 0 0 0 0 0 0 0
0 0 0 0 0 0 0 0 0 0 0 0 0 0 0 0 0 0 0 0 0 0 0 0 0 0 0 0 0 0 0 0 0 2241 2241 2256 2256 2256 2256 2256 2256 2256 2256 2256 2256 2256 2256 2271 2271 2271 2271 2271 2271 2271 2271 2271 2271 2271 2271 2271 2271 2271 2271 2271 2271 2271 2271 2271 2271 2271 2271 2271 2256 2256 2256 2271 2271 2271 2271 2271 2271 2271 2271 2271 2271 2286 2286 2301 2301 2286 2286 2286 2286 2271 2271 2271 2271 2286 2286 2286 2301 2301 2301 2301 2301 2301 2301 2286 2286 2286 2286 2286 2301 2301 2301 2317 2317 2317 2317 2317 2333 2333 2333 2333 2317 2317 2333 2317 2317 2317 2333 2333 2333 2333 2333 2333 2333 2333 2333 2333 2333 2333 2333 2333 2333 2333 2333 2349 2349 2349 2349 2365 2365 2365 2365 2365 2365 2365 2349 2349 2349 2349 2349 2349 2349 2349 2349 2349 2349 2349 2365 2365 2365 2365 2365 2365 2365 2365 2349 2349 2365 2365 2365 2365 2365 2365 2365 2381 2381 2381 2381 2381 2381 2381 2381 2381 2381 2381 2381 2381 2381 2381 2381 2381 2381 2381 2381 2381 2381 2398 2398 2398 2398 2398 2256 2241 2241 2241 2241 2241 2241 2241 2256 2256 2256 2271 2271 2333 2365 2398 2415 2415 2398 2398 2398 2381 2381 2381 2398 2398 2398 2415 2415 2415 2415 1894 1894 1894 1883 1883 1883 1883 1883 1883 1883 1894 1894 1904 1915 1947 1959 1959 1959 1959 1959 1970 1970 1550 1550 1550 1550 1543 1543 1543 1550 1550 1550 1550 1550 1550 1557 1557 1557 1557 1557 1564 1586 1594 1601 1601 1601 1601 1601 1601 1601 1594 1594 1550 1523 1523 1523 1523 1516 1516 1509 1509 1516 1516 1516 1516 1516 1516 1516 1516 1609 1609 1609 1609 1609 1616 1616 1616 1616 1616 1609 1609 1616 1616 1616 1616 1616 1609 1609 1609 1609 1609 1616 1616 1616 1616 1616 1616 1616 1616 1616 1624 1624 1624 1624 1624 1624 1624 1624 1624 1624 1624 1624 1624 1632 1632 1632 1632 1632 1632 1632 1632 1632 1632 1632 1639 1639 1639 1647 1647 1647 1647 1647 1655 1655 1655 1655 1655 1663 1663 1663 1663 1663 1663 1663 1663 1663 1663 1671 1671 1671 1671 1671 1680 1688 1688 1688 2522 2522 2522 2522 2522 2522 2522 2522 2541 2541 2541 2522 2522 2522 2522 2541 2541 2541 2541 2541 2541 2541 2522 2522 2522 2522 2522 2522 1776 1766 1757 1757 1757 1748 1748 1748 1739 1731 1731 1722 1722 1713 1713 1705 1696 1688 1688 1680 1680 1680 1671 1671 1680 1680 1680 1688 1688 1688 1696 1705 1705 1705 1705 1713 1713 1713 1713 1713 1722 1722 1722 1722 1722 1731 1731 1731 1731 1731 1739 1739 1748 1748 1748 1748 1748 1748 1757 1757 1757 1757 1757 1757 1766 1776 1776 1776 1785 1785 1776 1776 1776 1776 1776 1776 1776 1776 1785 1785 1785 1794 1794 1794 1794 1794 1794 1794 1794 1794 1794 1794 1794 1794 1794 1794 1794 1794 1804 1804 0 0 0 0 0 0 2078 2078 2065 2053 2053 2053 2040 2040 2028 2028 2028 2028 2028 2028 2028 2028 2028 2040 2040 2040 2053 2053 2560 2560 2560 2579 2579 2579 2579 2579 2579 2579 2579 2579 2579 2579 2579 2579 2579 2579 2579 2579 2579 2579 2579 2579 2579 2579 2560 2560 2560 2560 2579 2579 2579 2579 2579 2560 2560 2579 2579 2579 2560 2560 2560 2579 2579 2560 2560 2560 2560 2560 2560 2560 2560 2560 2560 2560 2560 2560 2560 2560 2560 2560 2560 2560 2560 2560 2560 2560 2560 2560 2560 2560 2560 0 0 0 0 0 0 0 0 0 0
0 0 0 0 0 0 0 0 0 0 0 0 0 0 0 0 0 0 0 0 0 0 0 0 0 0 0 0 0 0 0 0 0 2241 2241 2241 2241 2241 2241 2241 2256 2241 2241 2241 2241 2256 2256 2256 2256 2256 2271 2256 2256 2256 2256 2271 2271 2271 2271 2271 2271 2271 2271 2271 2271 2271 2271 2271 2271 2271 2271 2271 2256 2256 2256 2256 2256 2256 2256 2256 2256 2256 2271 2271 2271 2286 2286 2286 2286 2286 2271 2271 2271 2271 2271 2271 2271 2271 2286 2286 2286 2286 2286 2286 2286 2286 2286 2286 2271 2271 2286 2286 2286 2301 2301 2301 2317 2317 2317 2317 2317 2317 2317 2317 2317 2317 2317 2317 2317 2317 2317 2317 2317 2333 2333 2333 2333 2333 2333 2333 2317 2317 2333 2333 2333 2333 2333 2333 2333 2333 2333 2349 2349 2349 2365 2365 2365 2349 2349 2349 2333 2333 2333 2333 2333 2333 2333 2333 2349 2349 2349 2365 2349 2349 2365 2365 2365 2365 2349 2349 2349 2365 2365 2365 2365 2365 2365 2365 2365 2365 2365 2381 2381 2381 2381 2381 2381 2381 2381 2381 2381 2381 2365 2365 2381 2381 2381 2381 2381 2381 2381 2381 2381 2381 2256 2241 2241 2241 2241 2241 2241 2256 2256 2256 2256 2271 2256 2256 2349 2381 2398 2398 2398 2398 2381 2381 2381 2398 2398 2398 2398 2415 2415 2398 2398 1894 1894 1894 1894 1883 1883 1883 1883 1894 1894 1894 1904 1904 1915 1947 1959 1959 1959 1970 1970 1970 1970 1557 1557 1550 1550 1543 1543 1543 1550 1550 1550 1550 1550 1557 1557 1557 1557 1557 1557 1564 1586 1594 1601 1601 1594 1594 1594 1594 1594 1586 1579 1564 1543 1529 1523 1523 1516 1516 1516 1516 1516 1516 1516 1516 1523 1516 1516 1516 1601 1601 1601 1609 1609 1609 1609 1609 1609 1609 1609 1609 1609 1609 1609 1609 1609 1601 1601 1609 1609 1609 1609 1609 1609 1609 1609 1609 1609 1609 1609 1609 1616 1616 1616 1616 1616 1624 1624 1624 1624 1624 1624 1624 1624 1624 1632 1632 1632 1632 1632 1632 1632 1632 1632 1632 1632 1639 1639 1639 1647 1647 1647 1655 1655 1655 1655 1655 1663 1663 1663 1663 1663 1663 1663 1663 1663 1663 1671 1671 1671 1671 1680 1680 1680 1680 1680 2522 2522 2522 2522 2522 2522 2522 2522 2522 2522 2522 2522 2522 2522 2522 2522 2522 2522 2522 2522 2522 2522 2522 2522 2522 2522 2522 2522 2522 2522 1757 1757 1757 1757 1748 1748 1748 1739 1731 1722 1722 1713 1713 1705 1696 1688 1688 1680 1680 1680 1680 1680 1680 1680 1688 1688 1688 1696 1705 1705 1713 1713 1713 1713 1713 1713 1722 1722 1722 1722 1722 1731 1731 1731 1731 1739 1739 1739 1739 1748 1748 1748 1748 1748 1757 1757 1757 1757 1757 1757 1757 1766 1766 1776 1776 1776 1785 1785 1776 1776 1776 1776 1776 1776 1776 1776 1785 1785 1794 1794 1794 1804 1804 1804 1804 1794 1794 1794 1794 1794 1794 1794 1794 1804 1804 1804 1804 1804 0 0 0 0 0 0 2078 2065 2065 2053 2053 2053 2040 2040 2028 2028 2028 2028 2028 2028 2028 2028 2028 2040 2040 2040 2053 2053 2560 2560 2560 2560 2579 2579 2579 2579 2579 2579 2579 2579 2579 2579 2579 2579 2579 2579 2579 2579 2579 2579 2579 2579 2579 2579 2560 2541 2541 2560 2560 2560 2560 2560 2560 2560 2560 2560 2560 2560 2560 2560 2560 2560 2560 2560 2560 2560 2560 2560 2560 2541 2541 2560 2560 2541 2541 2541 2560 2560 2560 2560 2560 2560 2560 2560 2560 2560 2560 2560 2560 2560 2560 0 0 0 0 0 0 0 0 0 0
0 0 0 0 0 0 0 0 0 0 0 0 0 0 0 0 0 0 0 0 0 0 0 0 0 0 0 0 0 0 0 0 0 2226 2226 2226 2226 2226 2226 2226 2226 2226 2226 2226 2226 2241 2241 2241 2241 2256 2256 2241 2241 2241 2241 2256 2256 2241 2241 2256 2256 2256 2256 2256 2271 2271 2271 2256 2256 2256 2256 2256 2241 2241 2256 2256 2256 2256 2256 2256 2256 2256 2256 2256 2271 2271 2271 2286 2271 2271 2271 2271 2271 2271 2271 2271 2271 2271 2271 2271 2271 2271 2271 2271 2271 2271 2271 2271 2271 2271 2271 2271 2286 2286 2301 2301 2301 2301 2301 2301 2317 2317 2317 2317 2317 2317 2317 2317 2317 2317 2317 2317 2317 2317 2317 2317 2317 2317 2317 2317 2317 2317 2317 2317 2333 2333 2333 2333 2333 2333 2333 2333 2333 2333 2333 2349 2349 2333 2333 2333 2333 2333 2333 2333 2333 2333 2333 2333 2333 2333 2349 2349 2349 2349 2349 2349 2349 2349 2333 2333 2349 2349 2349 2349 2349 2365 2365 2365 2365 2365 2365 2365 2365 2365 2381 2381 2365 2365 2365 2365 2365 2365 2365 2365 2381 2381 2381 2381 2381 2381 2381 2381 2365 2365 2271 2256 2256 2241 2241 2241 2241 2256 2256 2256 2256 2271 2256 2256 2349 2381 2381 2381 2381 2381 2381 2381 2381 2381 2381 2381 2398 2398 2398 2381 2381 1894 1894 1894 1894 1883 1883 1883 1894 1894 1894 1894 1904 1904 1936 1959 1959 1970 1970 1970 1970 1981 1981 1557 1557 1550 1550 1543 1543 1543 1550 1550 1550 1550 1550 1557 1557 1557 1557 1557 1557 1564 1586 1594 1594 1594 1594 1594 1594 1594 1594 1586 1579 1572 1550 1529 1523 1523 1516 1516 1516 1516 1516 1516 1516 1516 1523 1523 1523 1543 1579 1579 1594 1601 1601 1601 1601 1601 1601 1601 1601 1601 1601 1609 1601 1601 1609 1601 1601 1601 1601 1601 1609 1601 1601 1601 1609 1601 1601 1601 1601 1609 1609 1609 1609 1616 1616 1616 1616 1616 1624 1624 1624 1624 1624 1624 1624 1632 1632 1632 1632 1632 1632 1632 1632 1632 1632 1639 1639 1639 1647 1647 1655 1655 1655 1655 1663 1663 1663 1663 1663 1671 1671 1671 1671 1671 1671 1671 1671 1671 1680 1680 1680 1680 1680 1680 2485 2485 2503 2503 2503 2503 2503 2503 2503 2503 2503 2522 2503 2503 2522 2522 2522 2522 2522 2522 2522 2522 2522 2522 2522 2522 2522 2503 2503 2522 2522 2522 1757 1757 1757 1748 1748 1748 1748 1739 1731 1722 1722 1713 1705 1696 1696 1688 1688 1680 1680 1680 1680 1680 1680 1688 1688 1696 1696 1705 1713 1713 1713 1713 1713 1722 1722 1722 1722 1722 1722 1731 1731 1731 1731 1739 1739 1739 1748 1748 1748 1748 1748 1757 1757 1757 1757 1757 1757 1757 1757 1757 1766 1766 1776 1776 1785 1785 1785 1776 1766 1766 1776 1776 1776 1776 1776 1785 1785 1794 1813 1813 1813 1813 1804 1804 1804 1804 1804 1794 1794 1794 1804 1804 1804 1804 1813 1813 1813 0 0 0 0 0 0 2078 2065 2065 2053 2053 2053 2040 2040 2028 2028 2028 2028 2028 2028 2028 2028 2028 2040 2040 2040 2053 2065 2541 2541 2560 2560 2560 2560 2560 2560 2560 2560 2560 2560 2560 2579 2560 2560 2560 2560 2560 2560 2560 2560 2560 2560 2560 2560 2541 2522 2522 2541 2541 2541 2541 2560 2560 2560 2560 2560 2560 2560 2560 2560 2560 2560 2560 2541 2541 2541 2541 2541 2541 2541 2541 2541 2541 2541 2541 2541 2541 2541 2541 2541 2541 2541 2541 2541 2541 2541 2541 2541 2560 2560 2560 0 0 0 0 0 0 0 0 0 0
0 0 0 0 0 0 0 0 0 0 0 0 0 0 0 0 0 0 0 0 0 0 0 0 0 0 0 0 0 0 0 0 0 2212 2212 2226 2226 2226 2226 2226 2226 2226 2226 2226 2226 2226 2226 2226 2226 2241 2241 2226 2226 2241 2241 2241 2241 2241 2241 2241 2241 2241 2241 2256 2256 2256 2256 2256 2256 2241 2241 2241 2226 2226 2241 2241 2241 2241 2241 2241 2241 2241 2256 2256 2256 2256 2256 2256 2256 2256 2256 2256 2256 2256 2256 2271 2271 2271 2271 2271 2271 2271 2271 2271 2271 2271 2271 2271 2271 2271 2271 2271 2286 2286 2286 2286 2286 2286 2286 2286 2286 2286 2301 2301 2301 2301 2317 2317 2317 2317 2301 2301 2317 2317 2317 2317 2317 2317 2317 2317 2317 2317 2317 2317 2333 2333 2333 2333 2333 2333 2333 2333 2333 2333 2333 2333 2349 2333 2333 2333 2317 2317 2333 2317 2317 2317 2317 2317 2333 2333 2333 2333 2333 2333 2349 2349 2333 2333 2333 2333 2333 2333 2333 2333 2333 2349 2349 2349 2333 2333 2349 2365 2365 2365 2365 2365 2365 2365 2365 2365 2365 2365 2365 2365 2365 2365 2365 2365 2381 2381 2365 2365 2365 2349 2271 2256 2256 2241 2241 2241 2241 2256 2256 2256 2256 2271 2286 2301 2333 2365 2365 2381 2381 2381 2381 2381 2381 2381 2381 2381 2381 2381 2381 2381 2381 1894 1894 1894 1894 1883 1883 1894 1894 1894 1894 1894 1904 1904 1936 1959 1959 1970 1970 1970 1970 1981 1981 1564 1557 1550 1550 1550 1543 1543 1550 1550 1550 1557 1557 1557 1557 1557 1557 1564 1564 1579 1586 1594 1594 1594 1594 1594 1594 1586 1586 1579 1572 1564 1550 1529 1523 1523 1523 1516 1516 1516 1516 1516 1516 1516 1523 1523 1529 1543 1572 1579 1594 1601 1601 1601 1601 1601 1601 1601 1601 1601 1601 1601 1601 1601 1601 1601 1601 1601 1601 1601 1601 1601 1601 1601 1601 1601 1601 1601 1601 1601 1601 1601 1601 1609 1609 1609 1609 1616 1616 1616 1616 1624 1624 1624 1624 1624 1632 1632 1632 1632 1632 1632 1632 1632 1632 1639 1639 1639 1647 1647 1655 1655 1655 1655 1663 1663 1663 1663 1671 1671 1671 1671 1671 1671 1671 1671 1671 1671 1680 1680 1680 1680 1688 1688 2467 2467 2485 2485 2503 2485 2485 2503 2503 2503 2503 2503 2503 2503 2503 2503 2522 2522 2522 2522 2522 2522 2522 2522 2522 2503 2503 2503 2503 2522 2522 2522 2522 1757 1757 1748 1748 1748 1748 1739 1731 1722 1722 1713 1705 1705 1696 1688 1688 1680 1680 1680 1680 1680 1688 1688 1688 1696 1705 1713 1713 1713 1722 1722 1722 1722 1722 1731 1731 1731 1731 1739 1739 1739 1739 1748 1748 1748 1748 1748 1748 1748 1748 1757 1757 1757 1757 1757 1757 1757 1757 1766 1766 1766 1776 1785 1785 1785 1776 1766 1766 1766 1766 1766 1776 1776 1776 1785 1785 1794 1804 1813 1813 1813 1804 1804 1804 1804 1804 1794 1794 1794 1804 1804 1804 1804 1813 1813 1813 0 0 0 0 0 0 2065 2065 2065 2053 2053 2040 2040 2040 2040 2040 2040 2040 2040 2040 2040 2040 2040 2040 2040 2040 2053 2065 2541 2541 2560 2560 2560 2560 2560 2560 2560 2541 2541 2541 2560 2560 2560 2560 2560 2560 2560 2560 2560 2560 2560 2560 2560 2560 2541 2522 2522 2522 2522 2522 2541 2541 2541 2541 2541 2541 2541 2541 2541 2541 2541 2541 2541 2541 2541 2541 2541 2541 2541 2522 2522 2541 2541 2522 2522 2522 2541 2541 2522 2522 2522 2522 2541 2541 2522 2522 2541 2541 2541 2541 2541 0 0 0 0 0 0 0 0 0 0
0 0 0 0 0 0 0 0 0 0 0 0 0 0 0 0 0 0 0 0 0 0 0 0 0 0 0 0 0 0 0 0 0 2212 2212 2212 2212 2212 2212 2212 2212 2212 2212 2212 2212 2212 2212 2212 2212 2226 2226 2226 2226 2226 2226 2241 2241 2226 2226 2241 2241 2241 2241 2256 2256 2256 2256 2241 2241 2241 2241 2241 2226 2226 2226 2226 2241 2241 2241 2241 2241 2241 2241 2241 2241 2241 2256 2256 2256 2241 2241 2256 2256 2256 2256 2256 2256 2256 2271 2271 2271 2256 2256 2256 2256 2256 2256 2256 2256 2256 2256 2271 2271 2271 2271 2271 2271 2271 2271 2271 2271 2271 2271 2286 2286 2286 2286 2286 2286 2286 2286 2286 2301 2301 2301 2301 2301 2301 2317 2317 2317 2317 2317 2317 2317 2317 2317 2317 2317 2317 2333 2333 2333 2333 2333 2333 2333 2317 2317 2317 2317 2317 2317 2317 2317 2317 2317 2317 2317 2317 2317 2333 2333 2333 2333 2333 2333 2333 2317 2317 2317 2333 2333 2333 2333 2333 2333 2333 2333 2333 2349 2349 2349 2349 2349 2349 2349 2349 2349 2365 2365 2365 2365 2365 2365 2365 2365 2365 2365 2365 2365 2365 2365 2333 2271 2256 2256 2241 2241 2241 2241 2256 2256 2256 2271 2271 2286 2301 2317 2365 2365 2381 2381 2381 2381 2381 2381 2381 2381 2381 2381 2381 2381 2365 2365 1894 1894 1894 1894 1894 1894 1894 1894 1894 1894 1894 1904 1904 1959 1970 1970 1970 1970 1970 1970 1981 1572 1564 1557 1557 1550 1550 1550 1550 1550 1550 1557 1557 1557 1564 1564 1564 1564 1564 1572 1579 1594 1601 1601 1594 1594 1594 1586 1586 1579 1572 1564 1557 1550 1536 1529 1523 1523 1523 1516 1516 1516 1523 1523 1523 1523 1529 1536 1550 1572 1586 1594 1594 1594 1594 1594 1594 1594 1594 1594 1594 1601 1601 1601 1601 1601 1594 1594 1594 1601 1601 1601 1601 1601 1601 1601 1601 1601 1601 1601 1601 1601 1601 1601 1609 1609 1609 1609 1616 1616 1616 1616 1624 1624 1624 1624 1624 1632 1632 1632 1632 1632 1632 1632 1639 1639 1639 1639 1647 1647 1647 1655 1655 1663 1663 1663 1663 1663 1671 1671 1671 1671 1671 1671 1671 1671 1671 1671 1680 1680 1680 1680 1680 1688 1688 2467 2467 2467 2485 2485 2485 2485 2485 2485 2485 2503 2503 2485 2485 2503 2503 2503 2503 2522 2522 2522 2522 2522 2522 2522 2503 2503 2503 2503 2503 2503 2503 2503 2503 1757 1748 1748 1748 1748 1739 1731 1722 1722 1713 1713 1705 1696 1688 1688 1688 1688 1680 1680 1688 1688 1688 1696 1696 1705 1713 1713 1722 1722 1722 1722 1722 1722 1731 1731 1731 1731 1739 1739 1739 1739 1748 1748 1748 1748 1748 1748 1748 1748 1757 1757 1757 1757 1757 1757 1757 1766 1766 1766 1766 1776 1785 1785 1785 1776 1766 1766 1766 1766 1766 1776 1776 1785 1785 1785 1794 1804 1813 1813 1813 1813 1813 1804 1804 1804 1794 1794 1794 1804 1804 1804 1804 1813 1813 1823 0 0 0 0 0 0 2065 2065 2053 2053 2053 2040 2040 2040 2040 2040 2040 2040 2040 2040 2040 2040 2040 2040 2040 2040 2040 2040 2541 2541 2541 2541 2541 2541 2541 2541 2541 2541 2522 2522 2541 2541 2541 2541 2541 2541 2541 2522 2522 2522 2541 2541 2541 2541 2541 2541 2541 2522 2522 2522 2522 2522 2522 2522 2522 2541 2541 2541 2541 2541 2541 2541 2522 2522 2522 2522 2522 2522 2522 2522 2522 2522 2522 2522 2522 2522 2522 2522 2522 2503 2503 2522 2522 2522 2522 2522 2522 2522 2522 2541 2541 0 0 0 0 0 0 0 0 0 0
0 0 0 0 0 0 0 0 0 0 0 0 0 0 0 0 0 0 0 0 0 0 0 0 0 0 0 0 0 0 0 0 0 2212 2212 2212 2212 2212 2212 2212 2212 2212 2212 2212 2212 2212 2198 2198 2198 2212 2212 2212 2212 2226 2226 2226 2226 2226 2226 2226 2226 2226 2241 2241 2241 2241 2241 2241 2241 2241 2241 2241 2212 2212 2226 2226 2241 2241 2241 2226 2226 2241 2241 2241 2241 2241 2241 2241 2241 2241 2241 2256 2256 2256 2256 2256 2256 2256 2256 2256 2256 2256 2256 2256 2256 2256 2256 2256 2256 2256 2256 2256 2256 2256 2256 2256 2256 2256 2256 2256 2271 2271 2271 2271 2271 2271 2271 2271 2271 2271 2271 2286 2286 2286 2286 2286 2286 2286 2286 2286 2286 2286 2286 2301 2301 2301 2286 2286 2301 2301 2317 2317 2317 2317 2317 2317 2317 2301 2301 2301 2301 2301 2317 2317 2317 2317 2301 2301 2317 2317 2317 2317 2317 2317 2317 2317 2317 2317 2317 2317 2317 2317 2317 2317 2317 2333 2333 2317 2317 2317 2333 2333 2333 2333 2349 2349 2349 2349 2349 2349 2349 2349 2349 2349 2365 2365 2365 2365 2365 2365 2365 2349 2333 2317 2286 2256 2256 2241 2241 2241 2241 2256 2256 2256 2271 2271 2286 2301 2317 2349 2365 2365 2365 2365 2365 2381 2381 2381 2381 2381 2381 2381 2381 2365 2365 1894 1894 1894 1894 1894 1894 1894 1894 1894 1894 1894 1904 1904 1959 1970 1970 1970 1970 1981 1981 1981 1572 1564 1557 1557 1557 1550 1550 1550 1550 1557 1557 1564 1564 1564 1564 1564 1564 1572 1572 1594 1601 1609 1601 1601 1594 1594 1586 1579 1579 1572 1564 1557 1550 1536 1529 1529 1523 1523 1523 1523 1523 1523 1523 1523 1529 1529 1536 1550 1564 1579 1579 1586 1586 1586 1594 1586 1586 1594 1594 1594 1594 1594 1594 1594 1594 1586 1586 1594 1594 1594 1594 1594 1594 1594 1594 1601 1601 1601 1601 1601 1601 1601 1601 1601 1609 1609 1609 1616 1616 1616 1624 1624 1624 1624 1624 1632 1632 1632 1632 1632 1632 1632 1639 1639 1639 1639 1647 1647 1655 1655 1663 1663 1663 1663 1663 1671 1671 1680 1680 1680 1680 1680 1671 1671 1671 1671 1680 1680 1680 1680 1680 1680 1688 2415 2450 2467 2467 2467 2485 2485 2485 2485 2485 2485 2485 2485 2485 2485 2485 2485 2485 2485 2503 2503 2503 2503 2503 2503 2503 2485 2485 2485 2485 2485 2485 2485 2485 2485 1757 1748 1748 1748 1748 1739 1739 1731 1722 1713 1713 1705 1696 1688 1688 1688 1688 1688 1688 1688 1688 1688 1696 1705 1713 1713 1722 1722 1722 1722 1722 1722 1731 1731 1731 1731 1739 1739 1748 1748 1748 1748 1748 1748 1748 1748 1748 1748 1748 1757 1757 1757 1757 1757 1757 1757 1766 1766 1766 1766 1776 1785 1785 2467 2467 2467 2467 2467 2485 2467 2467 2485 2485 2485 2485 2485 2485 1823 1823 1813 1813 1813 1804 1804 1804 1794 1794 1794 1794 1804 1804 1794 1794 1813 1823 0 0 0 0 0 0 2053 2053 2053 2053 2040 2040 2040 2040 2040 2040 2040 2040 2040 2040 2040 2040 2040 2040 2028 2028 2040 2040 2522 2522 2541 2541 2541 2541 2541 2541 2522 2522 2522 2522 2522 2522 2522 2522 2522 2522 2522 2522 2522 2522 2541 2541 2541 2541 2522 2522 2522 2522 2522 2522 2522 2522 2522 2522 2522 2522 2522 2522 2522 2522 2522 2522 2522 2522 2522 2503 2503 2503 2503 2503 2503 2503 2503 2503 2503 2503 2522 2522 2503 2503 2503 2503 2503 2503 2503 2503 2522 2522 2522 2522 2541 0 0 0 0 0 0 0 0 0 0
0 0 0 0 0 0 0 0 0 0 0 0 0 0 0 0 0 0 0 0 0 0 0 0 0 0 0 0 0 0 0 0 0 2198 2198 2198 2198 2198 2212 2212 2212 2212 2212 2212 2212 2212 2198 2198 2198 2198 2212 2212 2212 2212 2226 2226 2226 2212 2212 2226 2226 2226 2226 2226 2226 2226 2226 2226 2226 2226 2226 2226 2212 2212 2212 2226 2226 2226 2226 2226 2226 2226 2226 2226 2226 2241 2241 2241 2241 2226 2226 2241 2241 2241 2226 2226 2241 2241 2241 2241 2256 2241 2241 2256 2241 2241 2241 2241 2256 2256 2256 2256 2256 2256 2256 2256 2256 2256 2256 2256 2256 2256 2256 2256 2256 2271 2271 2271 2271 2271 2271 2271 2271 2271 2271 2271 2271 2286 2286 2286 2286 2286 2286 2286 2286 2286 2286 2286 2286 2301 2301 2301 2317 2317 2301 2301 2317 2301 2301 2301 2301 2301 2301 2301 2301 2301 2301 2301 2301 2301 2301 2317 2317 2317 2317 2317 2317 2317 2317 2317 2317 2317 2317 2317 2317 2317 2317 2317 2317 2317 2317 2333 2333 2333 2333 2349 2349 2349 2349 2349 2349 2349 2349 2349 2349 2365 2365 2365 2365 2349 2349 2333 2333 2317 2301 2271 2256 2256 2256 2256 2256 2256 2256 2256 2271 2286 2301 2301 2317 2349 2349 2365 2365 2365 2365 2365 2365 2381 2381 2381 2381 2381 2381 2365 2365 1894 1894 1894 1894 1894 1894 1894 1894 1894 1894 1894 1904 1904 1970 1970 1981 1981 1981 1981 1981 1981 1572 1564 1557 1557 1557 1550 1550 1550 1557 1557 1564 1564 1564 1564 1564 1564 1572 1572 1579 1601 1609 1609 1609 1601 1594 1586 1579 1579 1572 1572 1564 1557 1550 1536 1529 1529 1523 1523 1523 1523 1523 1523 1523 1529 1529 1536 1543 1557 1564 1572 1579 1579 1579 1579 1586 1586 1586 1586 1586 1586 1586 1586 1586 1586 1594 1586 1586 1586 1586 1586 1586 1594 1594 1594 1594 1594 1594 1601 1601 1601 1601 1601 1601 1601 1609 1609 1609 1616 1616 1624 1624 1624 1624 1624 1632 1632 1632 1632 1639 1639 1639 1639 1639 1647 1647 1647 1655 1655 1663 1663 1663 1663 1663 1671 1671 1671 1680 1680 1680 1680 1680 1680 1680 1671 1671 1680 1680 1680 1680 1680 1680 1680 1680 2415 2450 2450 2467 2467 2467 2485 2485 2485 2485 2485 2485 2485 2467 2467 2467 2467 2485 2485 2485 2485 2485 2485 2485 2485 2485 2467 2467 2467 2467 2467 2467 2467 2467 2467 2467 1757 1748 1748 1748 1739 1739 1731 1722 1713 1713 1705 1696 1696 1688 1688 1688 1688 1688 1688 1688 1696 1696 1713 1713 1713 1722 1722 1722 1722 1722 1722 1731 1731 1731 1739 1739 1739 1748 1739 1739 1748 1748 1748 1748 1748 1748 1757 1757 1757 1757 1766 1766 1766 1766 1766 1766 1776 1776 1776 1776 2485 2485 2467 2467 2467 2467 2467 2485 2467 2467 2485 2485 2467 2467 2485 2485 1823 1823 1813 1813 1813 1813 1813 1804 1804 1794 1794 1794 1804 1804 1794 1794 1813 0 0 0 0 0 0 0 2053 2053 2053 2053 2040 2040 2040 2040 2040 2040 2040 2040 2040 2040 2040 2040 2040 2040 2028 2028 2503 2503 2522 2522 2522 2522 2522 2522 2522 2522 2522 2522 2522 2522 2522 2522 2522 2522 2522 2522 2522 2522 2522 2522 2522 2541 2541 2541 2522 2522 2522 2503 2503 2503 2503 2503 2503 2503 2503 2522 2522 2522 2522 2522 2503 2503 2503 2503 2503 2503 2503 2503 2503 2503 2503 2503 2503 2503 2503 2503 2503 2503 2503 2503 2503 2503 2503 2503 2503 2503 2503 2503 2503 2522 2522 0 0 0 0 0 0 0 0 0 0
0 0 0 0 0 0 0 0 0 0 0 0 0 0 0 0 0 0 0 0 0 0 0 0 0 0 0 0 0 0 0 0 0 2198 2198 2198 2198 2198 2198 2198 2212 2198 2198 2198 2198 2198 2198 2198 2198 2198 2198 2212 2212 2212 2212 2212 2226 2212 2212 2212 2212 2226 2226 2226 2226 2226 2226 2226 2226 2226 2226 2226 2212 2212 2212 2212 2212 2212 2212 2212 2212 2226 2212 2212 2226 2226 2226 2226 2226 2226 2226 2226 2226 2226 2226 2226 2226 2226 2241 2241 2241 2241 2241 2241 2241 2241 2241 2241 2241 2241 2241 2241 2241 2241 2241 2241 2256 2256 2256 2256 2256 2256 2256 2256 2256 2256 2256 2271 2271 2271 2271 2271 2271 2271 2271 2271 2271 2271 2271 2271 2271 2271 2271 2286 2271 2271 2271 2271 2286 2286 2286 2286 2301 2301 2301 2301 2301 2286 2286 2286 2286 2286 2286 2286 2286 2286 2286 2286 2286 2301 2301 2301 2301 2301 2301 2301 2317 2301 2301 2317 2317 2317 2317 2317 2317 2317 2317 2317 2317 2317 2317 2317 2317 2317 2317 2333 2333 2333 2333 2333 2333 2333 2333 2333 2333 2333 2333 2333 2333 2333 2333 2333 2317 2301 2286 2271 2256 2256 2256 2256 2256 2256 2256 2256 2271 2286 2301 2301 2317 2333 2349 2365 2365 2365 2365 2365 2365 2365 2365 2365 2365 2365 2365 2349 2349 1894 1894 1894 1894 1894 1894 1894 1894 1894 1894 1904 1904 1904 1970 1970 1981 1981 1981 1981 1981 1579 1572 1572 1557 1557 1557 1550 1550 1550 1557 1564 1564 1572 1572 1572 1572 1572 1572 1579 1586 1609 1609 1616 1609 1601 1594 1586 1579 1579 1572 1572 1564 1557 1550 1536 1529 1529 1523 1523 1523 1523 1523 1523 1523 1529 1536 1543 1543 1550 1564 1572 1572 1579 1579 1579 1579 1579 1579 1579 1579 1579 1586 1586 1586 1586 1586 1586 1586 1586 1586 1586 1586 1586 1594 1594 1594 1594 1594 1601 1601 1601 1601 1601 1601 1601 1609 1609 1609 1616 1616 1624 1624 1624 1624 1624 1632 1632 1632 1632 1639 1639 1647 1647 1647 1647 1655 1655 1655 1663 1663 1663 1663 1671 1671 1671 1680 1680 1680 1680 1680 1680 1680 1680 1680 1671 1671 1680 1680 1680 1680 1680 1680 1680 1680 2415 2450 2450 2467 2467 2467 2485 2485 2485 2485 2485 2485 2485 2467 2467 2467 2467 2467 2467 2467 2467 2467 2467 2467 2467 2467 2467 2467 2467 2467 2467 2467 2467 2467 2467 2467 2467 1757 1748 1748 1739 1739 1731 1722 1722 1713 1713 1705 1696 1696 1688 1688 1688 1688 1688 1696 1696 1705 1713 1713 1722 1722 1722 1722 1722 1731 1731 1731 1731 1739 1739 1739 1739 1739 1739 1739 1748 1748 1748 1748 1748 1757 1757 1757 1757 1766 1766 1766 1766 1766 1766 1776 1785 2467 2467 2467 2485 2485 2467 2467 2467 2467 2467 2467 2467 2467 2467 2485 2467 2467 2485 2485 1823 1823 1813 1813 1813 1813 1813 1804 1804 1794 1794 1804 1804 1804 1804 1813 1823 0 0 0 0 0 0 0 2065 2053 2053 2053 2040 2040 2040 2040 2040 2040 2040 2040 2040 2040 2040 2040 2040 2040 2028 2028 2485 2503 2503 2503 2522 2522 2522 2522 2522 2522 2522 2522 2503 2503 2522 2503 2503 2503 2503 2503 2503 2503 2503 2503 2522 2522 2522 2522 2503 2503 2522 2503 2503 2503 2503 2503 2503 2503 2503 2503 2503 2503 2503 2503 2503 2503 2485 2485 2503 2485 2485 2503 2503 2503 2503 2503 2503 2503 2503 2503 2503 2503 2503 2503 2503 2503 2503 2503 2485 2485 2503 2503 2503 2503 2503 0 0 0 0 0 0 0 0 0 0
0 0 0 0 0 0 0 0 0 0 0 0 0 0 0 0 0 0 0 0 0 0 0 0 0 0 0 0 0 0 0 0 0 2184 2184 2184 2184 2184 2198 2198 2198 2198 2198 2198 2198 2198 2198 2198 2198 2198 2198 2198 2198 2198 2212 2212 2212 2212 2212 2212 2212 2212 2212 2212 2212 2212 2226 2226 2226 2226 2226 2226 2198 2198 2198 2212 2212 2212 2212 2212 2212 2212 2212 2212 2212 2212 2212 2212 2212 2212 2212 2212 2212 2212 2212 2212 2212 2226 2226 2226 2226 2226 2241 2241 2241 2241 2241 2241 2241 2241 2241 2241 2241 2241 2241 2241 2241 2256 2256 2256 2256 2256 2256 2256 2256 2256 2256 2256 2271 2271 2271 2271 2271 2271 2271 2271 2271 2271 2271 2271 2271 2271 2271 2271 2271 2271 2271 2271 2271 2271 2286 2286 2301 2301 2301 2301 2301 2286 2286 2286 2286 2286 2286 2286 2286 2286 2286 2286 2286 2301 2301 2301 2301 2301 2301 2301 2301 2301 2301 2301 2301 2301 2301 2301 2301 2301 2301 2301 2301 2317 2317 2317 2317 2317 2317 2317 2317 2317 2317 2317 2317 2317 2317 2317 2317 2317 2317 2317 2317 2317 2317 2317 2317 2301 2286 2271 2256 2256 2256 2256 2256 2256 2256 2271 2286 2286 2301 2301 2317 2333 2349 2349 2365 2365 2365 2365 2365 2365 2365 2365 2365 2365 2349 2333 2333 1894 1894 1894 1894 1894 1894 1894 1894 1894 1894 1904 1904 1904 1959 1970 1970 1981 1981 1981 1981 1579 1579 1572 1564 1557 1557 1557 1557 1557 1557 1564 1564 1572 1572 1572 1572 1572 1572 1579 1586 1609 1616 1616 1609 1601 1594 1586 1586 1579 1572 1572 1564 1557 1550 1536 1529 1529 1523 1523 1523 1523 1523 1523 1523 1529 1536 1543 1543 1550 1564 1572 1572 1572 1572 1579 1579 1579 1579 1579 1579 1579 1586 1586 1586 1586 1586 1586 1586 1586 1586 1586 1586 1586 1594 1594 1594 1594 1594 1601 1601 1601 1601 1601 1601 1601 1609 1609 1616 1616 1616 1624 1624 1624 1624 1632 1632 1632 1639 1639 1639 1647 1647 1647 1655 1655 1655 1655 1663 1663 1663 1663 1671 1680 1680 1680 1680 1680 1680 1680 1680 1680 1680 1680 1680 1671 1671 1680 1680 1680 1680 1680 1680 1680 1688 2432 2432 2432 2450 2450 2467 2467 2467 2467 2467 2467 2467 2467 2450 2450 2450 2450 2467 2450 2450 2450 2450 2450 2450 2450 2450 2450 2450 2450 2450 2450 2450 2450 2467 2467 2467 2467 2467 1748 1739 1739 1731 1731 1722 1722 1713 1713 1705 1696 1696 1688 1688 1688 1688 1688 1696 1705 1705 1713 1713 1722 1722 1722 1722 1731 1731 1731 1731 1739 1739 1739 1739 1739 1739 1739 1739 1748 1748 1748 1748 1748 1757 1757 1757 1757 1766 1766 2450 2450 2467 2467 2467 2467 2467 2467 2467 2485 2485 2467 2467 2467 2467 2467 2467 2467 2467 2467 2485 2485 2485 2503 2503 1813 1813 1813 1813 1813 1813 1804 1804 1794 1794 1794 1794 1804 1813 1813 1813 1823 0 0 0 0 0 0 2065 2065 2053 2053 2053 2040 2040 2040 2040 2040 2040 2040 2040 2040 2040 2040 2040 2040 2040 2040 2467 2467 2485 2503 2503 2503 2503 2522 2522 2522 2503 2503 2503 2503 2503 2503 2503 2503 2503 2503 2503 2503 2503 2503 2503 2503 2522 2503 2503 2485 2485 2503 2485 2485 2485 2485 2485 2503 2503 2503 2503 2503 2503 2503 2503 2485 2485 2485 2485 2485 2485 2485 2485 2485 2485 2485 2485 2485 2485 2503 2503 2503 2503 2503 2485 2485 2503 2503 2485 2485 2485 2485 2485 2485 2485 2485 0 0 0 0 0 0 0 0 0 0
0 0 0 0 0 0 0 0 0 0 0 0 0 0 0 0 0 0 0 0 0 0 0 0 0 0 0 0 0 0 0 0 0 2170 2170 2170 2184 2184 2184 2184 2184 2184 2184 2184 2184 2198 2184 2184 2184 2184 2198 2198 2198 2198 2198 2198 2212 2212 2212 2212 2212 2212 2212 2212 2212 2212 2212 2212 2212 2226 2226 2212 2198 2198 2198 2198 2198 2198 2198 2198 2212 2212 2212 2212 2212 2212 2212 2212 2212 2212 2212 2212 2212 2212 2212 2212 2212 2212 2212 2212 2226 2226 2226 2226 2241 2241 2241 2241 2241 2241 2241 2241 2241 2241 2241 2241 2241 2256 2256 2256 2256 2256 2256 2256 2256 2256 2256 2256 2256 2256 2256 2256 2256 2256 2256 2256 2256 2256 2256 2256 2256 2271 2271 2271 2271 2271 2271 2271 2271 2271 2271 2286 2286 2286 2286 2286 2286 2271 2271 2271 2271 2271 2271 2271 2271 2271 2271 2271 2286 2301 2301 2301 2301 2301 2301 2301 2301 2301 2301 2301 2301 2301 2301 2301 2301 2301 2301 2301 2301 2301 2301 2301 2317 2317 2317 2317 2317 2317 2317 2317 2317 2317 2301 2301 2317 2317 2317 2317 2317 2317 2317 2317 2317 2301 2286 2271 2256 2256 2256 2256 2256 2256 2256 2271 2271 2286 2301 2317 2317 2333 2349 2349 2349 2349 2365 2365 2365 2365 2365 2365 2349 2349 2349 2317 2317 1894 1894 1894 1894 1894 1894 1894 1894 1894 1894 1904 1904 1904 1959 1970 1970 1981 1981 1586 1579 1579 1579 1572 1572 1564 1564 1557 1557 1557 1564 1564 1572 1572 1572 1572 1572 1572 1572 1579 1579 1609 1616 1616 1616 1609 1594 1594 1586 1579 1572 1572 1564 1557 1550 1543 1536 1529 1523 1523 1523 1523 1523 1523 1523 1529 1536 1543 1550 1550 1557 1572 1572 1572 1572 1572 1572 1572 1572 1579 1579 1579 1586 1586 1586 1586 1586 1586 1586 1586 1586 1586 1586 1594 1594 1594 1594 1594 1601 1601 1601 1601 1601 1609 1609 1609 1616 1616 1616 1624 1624 1624 1632 1632 1632 1632 1632 1639 1647 1647 1647 1647 1655 1655 1655 1655 1655 1655 1663 1663 1663 1671 1671 1680 1680 1680 1680 1680 1680 1688 1680 1680 1680 1680 1680 1680 1680 1680 1680 1680 1688 1688 1688 1688 1688 2432 2432 2432 2450 2450 2450 2467 2467 2467 2467 2467 2467 2467 2450 2450 2450 2450 2450 2450 2450 2450 2450 2450 2450 2450 2450 2450 2450 2450 2450 2450 2450 2450 2450 2450 2450 2450 2450 2450 1739 1739 1731 1722 1722 1722 1713 1713 1705 1705 1696 1696 1696 1688 1688 1696 1705 1705 1713 1722 1722 1722 1722 1722 1731 1731 1731 1731 1731 1739 1739 1739 1739 1739 1739 2467 2467 2467 2467 2467 1757 1757 2467 2467 1757 1757 2467 2467 2467 2467 2467 2467 2467 2467 2467 2467 2467 2467 2467 2450 2450 2450 2450 2450 2450 2450 2450 2467 2467 2467 2467 2485 2485 1813 1813 1813 1813 1813 1813 1804 1804 1794 1794 1794 1794 1804 1813 1813 1813 1823 0 0 0 0 0 2078 2065 2065 2065 2053 2053 2040 2040 2040 2040 2040 2040 2040 2040 2053 2053 2053 2053 2053 2053 2467 2467 2467 2467 2485 2485 2485 2485 2503 2503 2503 2503 2503 2503 2503 2503 2503 2503 2503 2503 2503 2503 2503 2503 2503 2503 2503 2503 2503 2503 2485 2485 2485 2485 2485 2485 2485 2485 2485 2485 2485 2485 2485 2485 2485 2467 2467 2467 2467 2467 2467 2467 2485 2485 2485 2485 2485 2485 2485 2485 2485 2485 2503 2503 2503 2485 2485 2485 2485 2485 2485 2485 2485 2485 2485 2467 2467 0 0 0 0 0 0 0 0 0 0
0 0 0 0 0 0 0 0 0 0 0 0 0 0 0 0 0 0 0 0 0 0 0 0 0 0 0 0 0 0 0 0 0 2170 2170 2170 2170 2170 2170 2184 2184 2184 2170 2170 2184 2184 2184 2184 2184 2184 2184 2184 2184 2184 2198 2198 2198 2198 2198 2212 2212 2212 2212 2212 2212 2212 2212 2212 2212 2212 2212 2212 2184 2184 2184 2198 2184 2184 2198 2198 2198 2212 2212 2212 2212 2212 2212 2212 2212 2198 2198 2198 2198 2198 2198 2198 2198 2198 2212 2212 2212 2212 2226 2226 2226 2226 2226 2226 2226 2241 2241 2226 2226 2241 2241 2241 2241 2241 2241 2241 2241 2241 2241 2241 2241 2256 2256 2256 2256 2256 2256 2256 2256 2256 2256 2256 2256 2256 2256 2256 2256 2256 2256 2256 2271 2271 2271 2271 2271 2271 2271 2271 2286 2286 2286 2286 2286 2271 2271 2256 2256 2256 2256 2256 2271 2271 2271 2271 2271 2286 2286 2286 2286 2301 2286 2286 2286 2286 2286 2301 2301 2301 2301 2301 2301 2286 2286 2286 2301 2301 2301 2301 2301 2301 2301 2301 2301 2301 2301 2301 2301 2301 2301 2301 2301 2301 2301 2301 2317 2317 2317 2317 2301 2301 2301 2286 2271 2256 2256 2256 2256 2256 2256 2271 2271 2286 2301 2317 2333 2333 2349 2349 2349 2349 2349 2349 2349 2349 2349 2349 2349 2333 2333 2317 2317 1894 1894 1894 1894 1894 1894 1904 1894 1894 1904 1904 1904 1915 1947 1970 1970 1981 1981 1586 1579 1579 1579 1572 1572 1572 1564 1557 1557 1557 1564 1564 1572 1572 1572 1572 1572 1572 1572 1579 1579 1609 1616 1616 1616 1609 1601 1594 1586 1579 1572 1572 1564 1557 1550 1543 1536 1529 1529 1523 1523 1523 1523 1523 1529 1536 1543 1543 1543 1550 1557 1564 1564 1564 1572 1572 1572 1572 1572 1579 1579 1579 1586 1586 1586 1586 1594 1586 1586 1586 1586 1586 1594 1594 1594 1594 1594 1601 1601 1601 1609 1609 1609 1609 1609 1616 1616 1616 1616 1624 1624 1624 1632 1632 1632 1632 1639 1647 1647 1647 1655 1655 1655 1655 1655 1655 1655 1655 1663 1663 1663 1671 1671 1680 1680 1680 1680 1680 1688 1688 1680 1680 1680 1680 1680 1680 1680 1680 1688 1688 1688 1688 1688 1688 1696 1696 2432 2450 2450 2450 2450 2450 2450 2450 2450 2450 2450 2432 2432 2432 2432 2432 2432 2432 2432 2432 2432 2432 2432 2450 2450 2450 2450 2450 2450 2450 2450 2450 2450 2450 2450 2450 2450 2450 2450 1731 1731 1722 1722 1722 1713 1713 1705 1705 1696 1696 1696 1688 1688 1696 1705 1705 1713 1722 1722 1722 1722 1722 1731 1731 1739 1739 1739 1739 1739 1739 1739 1739 2467 2467 2467 2467 2467 2467 2467 2467 2467 2467 2467 2467 2467 2467 2467 2467 2467 2467 2467 2467 2467 2467 2467 2467 2467 2450 2450 2450 2450 2450 2450 2450 2450 2450 2450 2450 2467 2485 1823 1823 1823 1823 1813 1813 1813 1813 1804 1804 1804 1804 1804 1804 1813 1813 1813 1823 0 0 0 0 0 2078 2065 2065 2065 2053 2053 2040 2040 2040 2040 2040 2040 2053 2053 2065 2065 2065 2065 2065 2065 2450 2450 2450 2467 2485 2485 2485 2485 2485 2503 2485 2485 2485 2503 2503 2485 2485 2485 2485 2485 2485 2503 2485 2485 2485 2485 2503 2485 2485 2485 2467 2467 2467 2467 2467 2467 2485 2467 2467 2467 2485 2485 2485 2467 2467 2467 2450 2450 2450 2450 2450 2450 2467 2467 2467 2467 2467 2467 2485 2485 2485 2485 2485 2485 2485 2485 2485 2485 2485 2485 2485 2485 2485 2485 2467 2467 2467 0 0 0 0 0 0 0 0 0 0
0 0 0 0 0 0 0 0 0 0 0 0 0 0 0 0 0 0 0 0 0 0 0 0 0 0 0 0 0 0 0 0 0 2170 2170 2170 2170 2170 2170 2184 2170 2170 2170 2170 2170 2184 2170 2170 2184 2184 2184 2184 2184 2184 2184 2198 2198 2198 2198 2198 2198 2198 2198 2198 2198 2198 2198 2198 2198 2198 2212 2198 2184 2184 2184 2184 2184 2184 2184 2184 2198 2198 2198 2198 2198 2198 2198 2198 2198 2198 2198 2198 2198 2198 2198 2198 2198 2198 2198 2212 2212 2212 2212 2226 2226 2226 2226 2226 2226 2226 2226 2226 2226 2226 2226 2226 2226 2226 2226 2226 2226 2226 2241 2241 2241 2241 2241 2241 2241 2241 2256 2256 2241 2241 2241 2241 2241 2241 2241 2241 2241 2256 2256 2256 2256 2256 2256 2271 2271 2271 2271 2271 2271 2271 2271 2271 2286 2256 2256 2256 2256 2256 2256 2256 2256 2256 2256 2271 2271 2271 2271 2271 2271 2271 2271 2271 2271 2271 2286 2286 2286 2286 2286 2286 2286 2271 2271 2271 2286 2286 2286 2286 2301 2301 2301 2301 2301 2301 2301 2301 2301 2301 2301 2301 2301 2301 2301 2301 2301 2301 2301 2301 2301 2286 2271 2271 2271 2271 2256 2256 2256 2271 2271 2271 2271 2286 2301 2317 2317 2333 2333 2333 2349 2349 2333 2333 2333 2333 2333 2333 2333 2333 2333 2317 2301 1894 1894 1894 1894 1894 1894 1904 1894 1894 1904 1904 1904 1915 1947 1970 1970 1981 1981 1981 1586 1586 1579 1572 1572 1572 1564 1557 1557 1557 1564 1564 1572 1572 1572 1572 1572 1572 1572 1572 1579 1601 1624 1624 1624 1616 1609 1601 1594 1586 1572 1572 1564 1557 1550 1543 1536 1536 1529 1523 1523 1523 1523 1529 1529 1536 1543 1543 1543 1550 1557 1557 1557 1557 1564 1564 1572 1572 1572 1572 1579 1579 1579 1586 1586 1586 1594 1586 1586 1586 1594 1594 1594 1594 1594 1594 1594 1601 1601 1609 1609 1616 1616 1616 1616 1616 1624 1624 1624 1624 1624 1632 1632 1632 1632 1632 1639 1647 1647 1647 1655 1655 1655 1655 1655 1655 1655 1663 1663 1663 1671 1671 1671 1680 1680 1680 1688 1688 1688 1688 1688 1688 1688 1688 1680 1680 1680 1688 1688 1688 1688 1688 1696 1696 1696 1696 2450 2450 2432 2432 2432 2450 2432 2432 2432 2432 2432 2415 2415 2415 2415 2415 2415 2415 2415 2415 2432 2432 2432 2432 2432 2432 2450 2450 2450 2450 2450 2450 2450 2450 2450 2450 2450 2450 2450 1731 1731 1722 1722 1722 1713 1713 1705 1705 1696 1696 1696 1696 1696 1696 1705 1713 1713 1722 1722 1722 1722 1722 1731 1731 1739 2143 1739 1739 1739 1739 1739 2450 2450 2450 2450 2450 2450 2450 2450 2450 2450 2450 2450 2450 2450 2450 2450 2450 2450 2450 2450 2450 2467 2467 2467 2467 2467 2450 2450 2450 2450 2450 2450 2450 2450 2450 2450 2450 2467 1823 1823 1823 1823 1823 1823 1813 1813 1813 1813 1804 1804 1804 1804 1804 1813 1813 1813 1823 0 0 0 0 0 2078 2078 2065 2065 2053 2053 2053 2053 2053 2040 2040 2040 2053 2065 2065 2065 2065 2065 2065 2065 2450 2450 2450 2450 2467 2467 2467 2467 2467 2485 2467 2467 2467 2485 2485 2485 2485 2485 2485 2485 2485 2485 2485 2485 2485 2485 2485 2485 2485 2485 2467 2467 2450 2450 2450 2450 2467 2467 2467 2467 2467 2467 2467 2450 2450 2450 2450 2450 2450 2450 2450 2450 2450 2450 2467 2450 2450 2450 2467 2467 2467 2467 2467 2485 2485 2467 2467 2467 2467 2467 2467 2467 2450 2450 2450 2450 2450 0 0 0 0 0 0 0 0 0 0
0 0 0 0 0 0 0 0 0 0 0 0 0 0 0 0 0 0 0 0 0 0 0 0 0 0 0 0 0 0 0 0 0 2170 2170 2170 2170 2170 2170 2170 2170 2170 2170 2170 2170 2170 2170 2170 2170 2170 2170 2170 2170 2184 2184 2184 2184 2198 2198 2198 2198 2198 2198 2198 2198 2198 2198 2198 2198 2198 2198 2198 2184 2184 2184 2184 2170 2170 2184 2184 2184 2198 2198 2198 2198 2198 2198 2198 2198 2198 2198 2198 2198 2198 2198 2198 2198 2198 2198 2198 2198 2212 2212 2212 2212 2212 2226 2226 2226 2226 2226 2226 2226 2226 2226 2226 2226 2226 2226 2226 2226 2226 2226 2226 2226 2241 2241 2241 2241 2241 2241 2241 2241 2241 2241 2241 2241 2241 2226 2226 2241 2241 2256 2256 2256 2256 2256 2256 2256 2256 2256 2271 2271 2271 2271 2271 2271 2256 2256 2256 2256 2256 2256 2256 2256 2256 2256 2256 2271 2271 2271 2271 2271 2271 2256 2256 2256 2256 2271 2271 2271 2271 2271 2271 2271 2271 2256 2256 2271 2271 2286 2286 2286 2286 2286 2286 2301 2301 2301 2301 2301 2301 2286 2286 2286 2301 2301 2301 2301 2301 2301 2301 2301 2271 2271 2271 2271 2271 2256 2256 2256 2271 2271 2271 2271 2286 2301 2301 2317 2317 2317 2317 2333 2333 2333 2317 2317 2333 2333 2333 2317 2317 2317 2317 2301 2301 1894 1894 1894 1894 1894 1904 1904 1904 1904 1904 1904 1915 1959 1970 1981 1981 1981 1981 1586 1586 1586 1579 1572 1572 1572 1557 1557 1557 1564 1564 1572 1572 1572 1572 1572 1572 1572 1572 1579 1594 1624 1624 1616 1616 1609 1609 1601 1586 1579 1572 1572 1557 1550 1543 1543 1536 1529 1529 1529 1529 1529 1529 1536 1536 1543 1550 1550 1550 1557 1557 1557 1557 1564 1564 1572 1572 1572 1572 1579 1579 1579 1586 1586 1586 1594 1586 1586 1586 1594 1594 1594 1594 1594 1594 1601 1601 1601 1609 1616 1616 1616 1616 1624 1624 1624 1624 1624 1624 1624 1632 1632 1632 1639 1639 1647 1647 1655 1655 1655 1655 1655 1655 1655 1655 1655 1663 1663 1663 1671 1671 1671 1680 1680 1680 1688 1688 1688 1688 1688 1688 1688 1688 1688 1680 1680 1688 1688 1688 1688 1696 1696 1696 1696 1696 2432 2432 2415 2415 2432 2432 2432 2432 2432 2432 2432 2415 2398 2398 2415 2415 2415 2415 2415 2415 2415 2415 2432 2432 2432 2432 2432 2432 2432 2450 2450 2450 2450 2450 2450 2450 2450 2450 2450 1722 1722 1722 1722 1722 1713 1713 1705 1705 1696 1696 1696 1696 1696 1705 1713 1713 1713 1722 1722 1722 1722 1722 1731 2156 2156 2156 2156 1748 1748 1748 2450 2450 2450 2450 2450 2450 2450 2450 2450 2450 2450 2450 2450 2450 2450 2450 2450 2450 2450 2450 2450 2450 2450 2450 2450 2450 2450 2450 2450 2432 2432 2432 2432 2432 2432 2450 2450 2450 2450 1823 1823 1823 1823 1823 1823 1813 1813 1813 1813 1813 1813 1813 1813 1813 1813 1813 1823 0 0 0 0 0 2090 2078 2078 2078 2078 2053 2053 2053 2053 2053 2040 2040 2040 2053 2065 2065 2065 2078 2078 2078 2078 2432 2432 2432 2450 2450 2467 2467 2467 2467 2467 2450 2450 2450 2467 2467 2467 2467 2467 2485 2485 2485 2485 2485 2467 2467 2467 2467 2467 2450 2450 2450 2432 2432 2432 2432 2432 2450 2450 2450 2450 2450 2450 2450 2450 2450 2450 2432 2432 2450 2432 2432 2432 2432 2450 2450 2432 2432 2432 2450 2450 2450 2450 2450 2450 2450 2450 2450 2450 2450 2450 2450 2450 2450 2450 2450 2432 2432 0 0 0 0 0 0 0 0 0 0
0 0 0 0 0 0 0 0 0 0 0 0 0 0 0 0 0 0 0 0 0 0 0 0 0 0 0 0 0 0 0 0 0 2156 2156 2156 2156 2156 2170 2170 2170 2170 2156 2156 2170 2170 2170 2170 2170 2170 2170 2170 2170 2170 2170 2184 2184 2184 2184 2184 2184 2184 2184 2184 2184 2184 2184 2184 2184 2184 2198 2198 2170 2170 2170 2170 2170 2170 2170 2170 2170 2184 2198 2184 2184 2184 2184 2184 2184 2184 2184 2184 2184 2184 2184 2184 2184 2184 2184 2198 2198 2198 2198 2212 2212 2212 2212 2212 2212 2212 2212 2212 2226 2226 2226 2226 2226 2226 2226 2226 2226 2226 2226 2226 2226 2226 2226 2226 2226 2226 2226 2241 2241 2226 2226 2241 2241 2226 2226 2226 2226 2241 2241 2241 2256 2256 2256 2256 2256 2256 2256 2256 2256 2256 2256 2271 2271 2241 2241 2241 2241 2256 2256 2256 2256 2256 2256 2256 2256 2256 2256 2256 2256 2256 2256 2256 2256 2256 2256 2256 2271 2271 2271 2271 2256 2256 2256 2256 2256 2271 2271 2271 2286 2286 2286 2286 2286 2286 2286 2271 2271 2286 2286 2286 2286 2286 2286 2286 2286 2286 2286 2286 2286 2271 2271 2271 2271 2271 2271 2271 2271 2271 2271 2271 2286 2286 2301 2301 2317 2317 2317 2317 2317 2317 2317 2317 2317 2317 2317 2317 2317 2317 2317 2317 2301 2301 1904 1904 1904 1904 1904 1904 1904 1904 1904 1904 1915 1947 1970 1970 1981 1981 1981 1981 1981 1586 1586 1579 1572 1572 1564 1564 1564 1564 1564 1564 1572 1572 1572 1572 1572 1572 1572 1572 1579 1594 1616 1616 1616 1616 1609 1609 1601 1594 1586 1572 1572 1557 1550 1543 1543 1536 1536 1529 1529 1536 1536 1536 1536 1543 1543 1550 1550 1550 1557 1564 1564 1564 1564 1564 1572 1579 1579 1579 1579 1579 1586 1586 1594 1594 1601 1594 1594 1594 1594 1594 1594 1594 1601 1601 1601 1601 1609 1616 1616 1624 1624 1624 1624 1624 1624 1624 1624 1632 1632 1632 1639 1639 1639 1647 1647 1647 1655 1655 1655 1655 1655 1655 1655 1655 1655 1663 1663 1663 1671 1671 1671 1680 1680 1688 1688 1688 1688 1688 1688 1688 1688 1688 1688 1680 1680 1688 1688 1688 1688 1696 1696 1696 1696 1696 2415 2415 2415 2415 2415 2415 2415 2415 2415 2415 2415 2415 2398 2398 2398 2415 2415 2415 2415 2415 2415 2415 2415 2415 2415 2415 2432 2432 2432 2432 2432 2432 2432 2450 2450 2450 2450 2450 2450 1722 1722 1722 1713 1713 1713 1713 1705 1705 1696 1696 1696 1696 1696 1705 1713 1713 1713 1722 1722 1722 1722 2156 2156 2156 2156 2156 2156 2156 2485 2450 2450 2450 2450 2450 2450 2450 2450 2450 2450 2450 2432 2432 2450 2450 2450 2450 2450 2450 2450 2450 2450 2450 2450 2450 2450 2450 2450 2432 2432 2432 2432 2432 2432 2432 2432 2432 2450 2450 2450 1823 1823 1823 1823 1823 1823 1813 1813 1813 1813 1813 1813 1813 1813 1813 1813 1813 1823 0 0 0 0 0 2090 2078 2078 2078 2078 2065 2053 2053 2053 2053 2040 2040 2040 2065 2065 2078 2078 2078 2078 2078 2078 2432 2432 2432 2450 2450 2450 2450 2450 2450 2450 2450 2450 2450 2450 2450 2450 2450 2467 2467 2467 2467 2467 2467 2467 2467 2467 2450 2450 2450 2450 2432 2432 2432 2432 2432 2432 2450 2432 2432 2432 2450 2450 2450 2432 2432 2432 2432 2432 2432 2432 2432 2432 2432 2432 2432 2432 2432 2432 2432 2432 2432 2432 2432 2432 2450 2432 2432 2450 2450 2450 2450 2450 2450 2450 2432 2432 2432 0 0 0 0 0 0 0 0 0 0
0 0 0 0 0 0 0 0 0 0 0 0 0 0 0 0 0 0 0 0 0 0 0 0 0 0 0 0 0 0 0 0 0 2156 2156 2156 2156 2156 2156 2156 2156 2156 2156 2156 2156 2156 2156 2156 2156 2156 2156 2170 2170 2170 2170 2170 2170 2170 2170 2170 2184 2170 2170 2170 2170 2170 2170 2170 2170 2170 2184 2198 2170 2170 2156 2156 2170 2170 2170 2170 2170 2170 2184 2170 2170 2170 2170 2170 2170 2170 2184 2184 2184 2184 2184 2184 2170 2170 2170 2184 2198 2198 2198 2198 2198 2212 2212 2212 2212 2212 2212 2212 2212 2226 2212 2212 2212 2212 2212 2212 2212 2212 2212 2212 2226 2226 2226 2212 2212 2226 2226 2226 2226 2226 2226 2226 2226 2226 2226 2226 2226 2226 2241 2241 2241 2256 2256 2256 2256 2256 2256 2256 2256 2256 2256 2256 2256 2241 2241 2241 2241 2241 2241 2241 2241 2241 2256 2256 2256 2256 2256 2256 2256 2256 2241 2241 2241 2256 2256 2256 2256 2256 2256 2256 2256 2256 2256 2256 2256 2256 2271 2271 2271 2271 2271 2271 2271 2271 2271 2271 2271 2271 2271 2271 2271 2286 2286 2286 2286 2286 2286 2286 2271 2271 2271 2271 2271 2271 2271 2271 2271 2271 2271 2271 2271 2286 2286 2301 2301 2301 2301 2301 2317 2317 2317 2317 2317 2317 2317 2317 2317 2317 2317 2317 2301 2301 2301 1904 1904 1904 1904 1904 1904 1904 1915 1915 1936 1959 1970 1981 1981 1981 1981 1993 1993 1586 1586 1579 1572 1572 1564 1564 1564 1564 1564 1564 1572 1572 1572 1572 1572 1572 1572 1579 1579 1601 1616 1616 1616 1616 1609 1609 1601 1594 1586 1579 1572 1564 1550 1550 1543 1543 1536 1536 1536 1536 1536 1536 1543 1543 1550 1550 1550 1557 1557 1564 1564 1564 1564 1564 1572 1579 1579 1579 1579 1579 1586 1586 1601 1601 1601 1601 1601 1601 1601 1601 1601 1601 1601 1601 1601 1609 1609 1616 1616 1624 1624 1624 1624 1624 1632 1632 1632 1632 1632 1632 1639 1639 1647 1647 1647 1655 1655 1655 1655 1655 1655 1655 1655 1655 1655 1655 1663 1663 1663 1671 1671 1671 1680 1688 1688 1688 1688 1688 1688 1688 1688 1688 1688 1680 1680 1688 1688 1688 1688 1696 1696 1696 1696 1705 2398 2398 2398 2398 2398 2415 2415 2415 2415 2415 2415 2415 2398 2398 2398 2398 2398 2398 2398 2398 2398 2398 2398 2415 2415 2415 2415 2432 2432 2432 2432 2432 2432 2432 2432 2432 2432 2450 2450 1722 1722 1722 1713 1713 1713 1713 1705 1705 1696 1696 1696 1705 1705 1705 1713 1713 1713 1722 1722 1722 1722 2156 2156 2156 2156 2156 2143 2143 2143 2143 2450 2450 2450 2432 2432 2432 2432 2432 2432 2432 2432 2432 2432 2432 2432 2432 2432 2432 2432 2432 2432 2432 2450 2450 2450 2450 2450 2432 2432 2415 2415 2415 2432 2432 2432 2432 2432 2450 1823 1823 1823 1823 1823 1823 1823 1813 1813 1813 1813 1813 1813 1813 1813 1813 1823 1823 1823 0 0 0 0 0 2090 2090 2078 2078 2078 2065 2053 2053 2053 2053 2053 2053 2053 2065 2065 2078 2078 2078 2078 2078 2078 2432 2432 2432 2450 2450 2450 2450 2450 2450 2450 2450 2450 2450 2450 2450 2450 2450 2450 2450 2450 2450 2450 2450 2450 2450 2450 2450 2450 2450 2450 2432 2432 2432 2432 2432 2432 2432 2432 2432 2432 2432 2450 2432 2432 2432 2432 2432 2432 2432 2432 2432 2432 2432 2432 2432 2432 2432 2432 2432 2415 2415 2415 2415 2415 2432 2432 2432 2432 2432 2432 2432 2432 2432 2432 2432 2432 2432 0 0 0 0 0 0 0 0 0 0
0 0 0 0 0 0 0 0 0 0 0 0 0 0 0 0 0 0 0 0 0 0 0 0 0 0 0 0 0 0 0 0 0 2156 2156 2156 2156 2156 2156 2156 2156 2143 2143 2143 2143 2143 2156 2156 2156 2156 2156 2156 2170 2170 2170 2170 2170 2170 2170 2170 2170 2170 2170 2170 2170 2170 2170 2170 2170 2170 2170 2184 2170 2170 2156 2156 2156 2156 2156 2156 2170 2170 2170 2170 2170 2156 2156 2170 2170 2170 2170 2170 2170 2170 2170 2170 2170 2170 2170 2184 2198 2198 2198 2198 2198 2198 2212 2212 2212 2212 2212 2212 2212 2212 2212 2212 2212 2212 2212 2212 2212 2212 2212 2212 2212 2212 2212 2212 2212 2212 2212 2212 2226 2212 2212 2226 2226 2226 2212 2212 2226 2226 2226 2226 2241 2241 2241 2241 2241 2241 2256 2256 2256 2256 2256 2256 2256 2241 2241 2241 2241 2241 2241 2241 2241 2241 2241 2256 2256 2241 2241 2241 2241 2241 2241 2241 2241 2241 2241 2256 2256 2256 2256 2256 2256 2256 2256 2256 2256 2256 2256 2256 2256 2256 2256 2256 2271 2271 2271 2271 2271 2271 2271 2271 2271 2271 2271 2271 2271 2271 2271 2271 2271 2271 2271 2271 2271 2271 2271 2271 2271 2271 2271 2271 2271 2286 2286 2301 2301 2301 2301 2301 2317 2317 2317 2317 2317 2317 2317 2317 2317 2317 2317 2317 2301 2301 2317 1904 1904 1904 1904 1904 1904 1915 1915 1915 1936 1959 1981 1981 1981 1981 1993 1993 1993 1586 1586 1579 1572 1572 1572 1564 1564 1564 1564 1572 1572 1572 1572 1572 1572 1572 1572 1579 1586 1601 1624 1616 1616 1616 1616 1609 1601 1594 1594 1579 1579 1572 1557 1550 1543 1536 1536 1536 1536 1536 1536 1536 1543 1543 1550 1550 1557 1557 1557 1564 1564 1564 1572 1572 1579 1579 1579 1579 1579 1586 1586 1594 1601 1601 1601 1601 1601 1601 1601 1601 1601 1601 1609 1609 1609 1616 1616 1616 1624 1624 1624 1624 1624 1624 1632 1632 1632 1632 1632 1639 1639 1639 1647 1647 1647 1655 1655 1655 1655 1655 1655 1655 1655 1655 1655 1655 1663 1663 1663 1663 1663 1671 1680 1688 1688 1688 1688 1688 1688 1688 1688 1688 1688 1688 1688 1688 1688 1688 1696 1696 1696 1696 1696 1705 2398 2398 2398 2398 2398 2398 2398 2398 2398 2398 2398 2398 2381 2381 2381 2381 2381 2381 2398 2398 2398 2398 2398 2398 2398 2398 2398 2415 2415 2415 2415 2415 2415 2432 2432 2432 2432 2450 2450 1722 1722 1713 1713 1713 1713 1713 1705 1705 1705 1705 1705 1705 1705 1713 1713 1713 1713 1722 1722 1731 2156 2156 2156 2156 2156 2143 2143 2143 2129 2129 2450 2450 2432 2415 2415 2415 2415 2432 2415 2415 2415 2415 2415 2415 2415 2415 2415 2415 2432 2432 2432 2432 2450 2450 2450 2450 2450 2432 2432 2415 2415 2415 2415 2415 2415 2415 2415 2415 1823 1823 1823 1823 1823 1823 1823 1823 1813 1813 1813 1813 1813 1813 1813 1813 1813 1813 1823 0 0 0 0 0 2090 2090 2090 2078 2078 2065 2065 2065 2065 2053 2053 2053 2065 2065 2078 2078 2078 2078 2090 2078 2078 2432 2432 2432 2432 2432 2450 2450 2432 2432 2450 2450 2450 2450 2450 2450 2450 2450 2432 2432 2432 2450 2450 2450 2450 2450 2450 2450 2450 2450 2450 2432 2432 2432 2432 2415 2415 2432 2432 2432 2432 2432 2432 2432 2432 2432 2432 2432 2432 2415 2415 2415 2415 2415 2415 2415 2415 2415 2432 2432 2415 2415 2415 2415 2415 2415 2432 2432 2432 2432 2432 2432 2432 2432 2432 2432 2432 2432 0 0 0 0 0 0 0 0 0 0
0 0 0 0 0 0 0 0 0 0 0 0 0 0 0 0 0 0 0 0 0 0 0 0 0 0 0 0 0 0 0 0 0 2156 2156 2156 2156 2156 2156 2156 2156 2143 2143 2143 2143 2143 2143 2143 2143 2156 2156 2156 2156 2156 2156 2156 2156 2170 2156 2156 2170 2170 2170 2170 2170 2170 2170 2156 2156 2156 2170 2184 2170 2156 2156 2156 2156 2156 2156 2156 2156 2156 2156 2156 2156 2156 2156 2156 2156 2170 2170 2170 2170 2170 2170 2170 2170 2170 2170 2170 2184 2184 2184 2184 2184 2198 2198 2198 2198 2198 2212 2212 2212 2212 2212 2212 2212 2212 2212 2198 2198 2198 2198 2198 2212 2212 2212 2212 2212 2212 2212 2212 2212 2212 2212 2212 2212 2212 2212 2212 2212 2212 2226 2226 2226 2226 2226 2226 2226 2241 2241 2241 2241 2241 2241 2256 2256 2241 2241 2241 2241 2241 2241 2241 2241 2241 2241 2241 2241 2241 2241 2241 2241 2241 2241 2241 2241 2241 2241 2241 2241 2241 2256 2256 2256 2256 2256 2256 2256 2256 2256 2256 2256 2256 2256 2256 2256 2256 2256 2256 2256 2256 2256 2256 2256 2256 2256 2271 2271 2271 2271 2271 2271 2271 2271 2271 2271 2271 2271 2271 2271 2286 2286 2286 2286 2286 2286 2301 2301 2301 2286 2286 2301 2301 2301 2301 2301 2317 2301 2301 2301 2317 2317 2301 2301 2301 1883 1883 1894 1894 1904 1915 1915 1915 1915 1926 1947 1970 1970 1981 1981 1981 1993 1993 1993 1993 1586 1579 1572 1572 1564 1564 1564 1564 1564 1572 1572 1572 1572 1572 1579 1579 1579 1579 1586 1594 1594 1609 1609 1616 1616 1609 1601 1594 1594 1586 1579 1572 1557 1550 1543 1536 1536 1536 1536 1536 1536 1543 1543 1543 1550 1557 1557 1557 1557 1564 1572 1572 1572 1579 1579 1579 1579 1579 1586 1586 1586 1594 1601 1601 1601 1601 1601 1601 1601 1601 1609 1609 1609 1609 1616 1616 1616 1624 1624 1624 1624 1624 1624 1624 1632 1632 1632 1632 1632 1639 1639 1639 1647 1647 1647 1655 1655 1655 1655 1655 1655 1655 1647 1647 1655 1655 1663 1663 1663 1663 1663 1680 1680 1688 1696 1696 1696 1696 1696 1688 1688 1688 1688 1688 1688 1688 1688 1696 1696 1696 1696 1696 1696 1696 2398 2398 2398 2398 2398 2398 2398 2398 2398 2398 2398 2398 2381 2381 2381 2381 2381 2381 2381 2381 2381 2381 2398 2398 2398 2398 2398 2398 2398 2398 2415 2398 2398 2415 2415 2415 2415 2432 2432 1722 1722 1713 1713 1713 1713 1713 1705 1705 1705 1705 1705 1705 1713 1713 1713 1713 1722 1722 1731 2143 2143 2156 2156 2143 2143 2143 2143 2129 2129 2129 2116 2116 2398 2398 2398 2398 2398 2415 2415 2415 2415 2415 2415 2415 2415 2415 2415 2415 2415 2415 2415 2415 2432 2432 2432 2432 2432 2415 2415 2398 2398 2398 2398 2398 2398 2398 2398 2398 1833 1833 1823 1823 1823 1823 1823 1823 1813 1813 1813 1813 1813 1813 1813 1813 1813 1813 0 0 0 0 0 0 2090 2090 2090 2090 2078 2078 2065 2065 2065 2065 2065 2065 2065 2065 2078 2078 2078 2078 2090 2090 2432 2432 2432 2432 2432 2432 2450 2432 2432 2432 2450 2450 2450 2450 2450 2450 2450 2432 2432 2432 2432 2432 2432 2450 2450 2450 2450 2450 2450 2450 2450 2432 2432 2432 2432 2415 2415 2432 2432 2432 2432 2432 2432 2432 2432 2432 2432 2415 2415 2415 2415 2415 2415 2415 2415 2415 2415 2415 2415 2415 2415 2415 2415 2398 2398 2415 2415 2415 2432 2432 2432 2432 2432 2432 2432 2432 2432 2432 0 0 0 0 0 0 0 0 0 0
0 0 0 0 0 0 0 0 0 0 0 0 0 0 0 0 0 0 0 0 0 0 0 0 0 0 0 0 0 0 0 0 0 2156 2156 2156 2156 2156 2156 2143 2143 2143 2143 2143 2143 2143 2143 2143 2143 2143 2156 2156 2156 2156 2156 2156 2156 2156 2156 2156 2156 2156 2156 2156 2156 2156 2156 2156 2156 2156 2170 2170 2156 2156 2143 2143 2156 2156 2156 2156 2156 2156 2156 2156 2156 2156 2156 2156 2156 2156 2156 2156 2156 2156 2156 2156 2156 2156 2156 2170 2170 2170 2170 2170 2170 2184 2184 2198 2198 2198 2198 2198 2212 2198 2198 2198 2198 2198 2198 2198 2198 2198 2198 2198 2198 2198 2198 2198 2198 2198 2212 2212 2212 2212 2212 2212 2212 2212 2212 2212 2212 2212 2212 2212 2226 2226 2226 2226 2226 2226 2241 2241 2241 2241 2241 2256 2241 2226 2226 2226 2226 2241 2241 2241 2241 2241 2241 2241 2241 2241 2241 2241 2241 2241 2241 2241 2241 2241 2241 2241 2241 2241 2241 2241 2241 2241 2241 2241 2241 2241 2241 2241 2256 2256 2256 2256 2256 2256 2256 2256 2256 2256 2256 2256 2256 2256 2256 2256 2256 2256 2256 2271 2256 2256 2256 2256 2256 2271 2271 2271 2271 2286 2286 2286 2286 2286 2286 2286 2286 2286 2286 2286 2286 2301 2301 2301 2301 2301 2301 2301 2301 2301 2301 2286 2286 2286 1883 1883 1894 1894 1904 1915 1915 1915 1915 1926 1947 1959 1970 1970 1981 1981 1993 1993 1993 1993 1586 1579 1572 1572 1564 1564 1564 1564 1572 1572 1572 1572 1572 1572 1579 1579 1579 1579 1586 1594 1594 1609 1609 1616 1609 1609 1601 1594 1594 1586 1579 1572 1557 1550 1543 1543 1536 1536 1536 1543 1543 1543 1543 1550 1557 1557 1564 1564 1564 1572 1572 1572 1572 1579 1579 1579 1579 1586 1586 1586 1594 1594 1601 1601 1601 1601 1601 1601 1601 1601 1609 1609 1616 1616 1616 1616 1624 1624 1624 1624 1624 1624 1624 1632 1632 1632 1639 1639 1639 1639 1647 1647 1647 1647 1647 1655 1655 1655 1655 1655 1655 1655 1647 1647 1655 1655 1663 1663 1663 2103 2090 2090 2090 1696 1696 1696 1696 1696 1696 1696 1688 1688 1688 1688 1688 1688 1688 1696 1696 1696 1688 1688 1696 2365 2365 2381 2381 2381 2398 2398 2398 2398 2398 2398 2398 2398 2381 2381 2381 2381 2381 2381 2381 2381 2381 2381 2381 2381 2398 2398 2398 2398 2398 2398 2398 2398 2398 2398 2398 2398 2398 2415 2415 1722 1722 1722 1722 1713 1713 1713 1705 1705 1705 1705 1705 1705 1713 1713 1713 1713 1713 1722 1722 2143 2143 2156 2156 2143 2143 2143 2143 2129 2129 2129 2116 2116 2103 2053 2053 2398 2398 2398 2398 2398 2398 2398 2398 2398 2398 2398 2398 2398 2398 2398 2398 2398 2398 2415 2415 2415 2415 2398 2398 2398 2398 2398 2398 2398 2381 2381 2381 2381 1833 1833 1833 1823 1823 1833 1823 1823 1823 1823 1813 1813 1813 1813 1813 1813 1813 1813 0 0 0 0 0 0 2090 2090 2090 2090 2078 2078 2065 2065 2065 2065 2065 2065 2078 2078 2078 2078 2078 2078 2090 2090 2415 2432 2432 2432 2432 2432 2432 2432 2432 2432 2432 2432 2432 2432 2450 2450 2432 2432 2432 2432 2432 2432 2432 2432 2432 2432 2450 2450 2450 2450 2450 2432 2432 2432 2432 2415 2415 2415 2415 2415 2415 2415 2415 2432 2432 2432 2432 2415 2415 2415 2415 2415 2415 2415 2415 2415 2415 2415 2415 2415 2415 2415 2415 2398 2398 2398 2415 2415 2415 2415 2415 2415 2432 2415 2415 2432 2415 2415 0 0 0 0 0 0 0 0 0 0
0 0 0 0 0 0 0 0 0 0 0 0 0 0 0 0 0 0 0 0 0 0 0 0 0 0 0 0 0 0 0 0 0 2143 2143 2143 2143 2143 2143 2143 2129 2129 2129 2129 2129 2129 2129 2129 2129 2143 2143 2143 2143 2143 2143 2156 2156 2156 2156 2156 2156 2156 2156 2156 2156 2156 2156 2156 2156 2156 2156 2156 2156 2156 2143 2143 2156 2156 2156 2156 2156 2156 2156 2143 2143 2143 2143 2156 2156 2156 2156 2156 2156 2156 2156 2156 2156 2156 2156 2156 2170 2170 2170 2170 2170 2170 2170 2184 2184 2184 2184 2198 2184 2184 2198 2198 2198 2198 2198 2198 2198 2198 2198 2198 2198 2198 2198 2198 2198 2198 2198 2198 2198 2212 2212 2212 2212 2212 2212 2212 2212 2212 2212 2212 2212 2212 2212 2212 2212 2226 2226 2226 2226 2226 2226 2226 2226 2212 2212 2212 2212 2226 2226 2226 2226 2226 2226 2226 2226 2226 2226 2226 2241 2241 2226 2226 2226 2226 2226 2241 2241 2241 2241 2241 2241 2241 2241 2241 2241 2241 2241 2241 2241 2241 2241 2241 2241 2241 2241 2241 2241 2241 2241 2241 2256 2256 2256 2256 2256 2256 2256 2256 2256 2256 2256 2256 2256 2256 2256 2271 2271 2286 2286 2286 2286 2286 2286 2286 2286 2286 2271 2271 2286 2286 2286 2286 2286 2301 2286 2286 2286 2286 2301 2286 2286 2286 1883 1883 1894 1894 1904 1915 1915 1926 1926 1936 1947 1947 1959 1970 1981 1981 1993 1993 1993 1993 1586 1579 1572 1572 1564 1564 1564 1564 1572 1572 1572 1572 1572 1579 1579 1579 1579 1579 1586 1586 1586 1586 1609 1609 1609 1601 1601 1594 1594 1586 1579 1572 1557 1550 1543 1543 1543 1543 1543 1543 1543 1543 1550 1550 1557 1564 1564 1564 1572 1572 1572 1579 1579 1579 1579 1586 1586 1586 1586 1594 1594 1594 1601 1601 1601 1601 1601 1601 1601 1601 1609 1609 1616 1616 1616 1616 1624 1624 1624 1624 1624 1624 1632 1632 1632 1639 1639 1639 1639 1639 1647 1647 1647 1647 1647 1655 1655 1655 1655 1655 1655 1663 2349 2333 2333 2349 2090 2090 2103 2103 2090 2090 2090 2103 2103 1705 1705 1705 1696 1696 1688 1688 1688 1688 1688 1688 1696 1696 1696 1696 1688 1688 1688 2349 2349 2365 2381 2381 2381 2381 2381 2398 2381 2381 2381 2398 2381 2381 2381 2381 2381 2381 2381 2381 2381 2381 2381 2381 2381 2381 2381 2381 2398 2398 2398 2398 2398 2398 2398 2398 2398 2398 2398 1722 1722 1722 1722 1722 1713 1713 1705 1705 1705 1705 1705 1705 1713 1713 1713 1713 1713 1722 2381 2143 2143 2156 2156 2143 2143 2143 2143 2129 2129 2129 2116 2116 2103 2053 2053 2103 2381 2381 2381 2381 2381 2398 2398 2398 2398 2398 2398 2398 2398 2398 2398 2398 2398 2398 2398 2398 2398 2381 2381 2381 2381 2381 2381 2381 2381 2381 2381 2381 1833 1833 1833 1833 1833 1823 1823 1823 1823 1823 1813 1813 1813 1813 1813 1813 1813 1813 0 0 0 0 0 2078 2078 2090 2090 2090 2090 2078 2078 2078 2078 2065 2065 2065 2078 2078 2078 2078 2078 2078 2090 2090 2415 2415 2415 2415 2415 2415 2432 2432 2432 2432 2432 2432 2432 2432 2432 2432 2432 2432 2432 2432 2432 2415 2415 2432 2432 2432 2432 2450 2450 2450 2450 2432 2432 2415 2415 2415 2415 2415 2415 2415 2415 2415 2415 2415 2415 2432 2432 2415 2415 2415 2415 2398 2398 2398 2398 2398 2415 2415 2415 2398 2398 2398 2398 2398 2398 2398 2398 2415 2415 2415 2415 2415 2415 2415 2415 2415 2415 2415 0 0 0 0 0 0 0 0 0 0
0 0 0 0 0 0 0 0 0 0 0 0 0 0 0 0 0 0 0 0 0 0 0 0 0 0 0 0 0 0 0 0 0 2143 2143 2143 2143 2129 2129 2129 2129 2116 2116 2116 2116 2116 2129 2116 2116 2129 2129 2129 2129 2129 2129 2143 2143 2143 2143 2143 2143 2143 2143 2143 2143 2143 2143 2143 2143 2143 2143 2156 2143 2143 2143 2143 2143 2143 2143 2143 2143 2143 2143 2143 2143 2143 2143 2143 2143 2143 2143 2143 2143 2143 2143 2143 2156 2156 2156 2156 2156 2156 2156 2156 2156 2170 2170 2170 2170 2184 2184 2184 2184 2184 2184 2184 2184 2184 2184 2184 2184 2184 2184 2198 2184 2184 2184 2184 2184 2184 2184 2184 2198 2198 2198 2198 2212 2212 2212 2198 2198 2198 2198 2198 2212 2212 2212 2212 2212 2212 2212 2212 2212 2212 2226 2226 2226 2212 2212 2212 2212 2212 2212 2212 2212 2212 2212 2212 2226 2226 2226 2226 2226 2226 2226 2226 2226 2226 2226 2226 2226 2226 2226 2226 2226 2241 2241 2241 2226 2226 2241 2241 2241 2241 2241 2241 2241 2241 2241 2241 2241 2241 2241 2241 2241 2241 2241 2256 2256 2256 2256 2256 2256 2256 2256 2256 2256 2256 2256 2256 2271 2271 2271 2271 2271 2271 2271 2271 2271 2271 2271 2271 2271 2271 2271 2271 2271 2271 2271 2271 2271 2271 2271 2271 2271 2271 1894 1894 1894 1904 1915 1915 1915 1926 1926 1926 1936 1947 1959 1970 1981 1981 1993 1993 1993 1993 1586 1579 1579 1572 1572 1572 1572 1572 1572 1572 1572 1579 1579 1579 1579 1579 1579 1586 1586 1586 1586 0 0 1601 0 1601 1601 1594 1594 1586 1579 1572 1557 1550 1543 1543 1543 1543 1543 1543 1543 1550 1550 1557 1557 1564 1564 1572 1572 1572 1579 1579 1579 1579 1586 1586 1586 1586 1594 1594 1594 1594 1601 1601 1601 1601 1601 1601 1601 1601 1609 1609 1616 1616 1616 1616 1624 1624 1624 1624 1624 1632 1632 1632 1632 1639 1639 1639 1639 1639 1647 1647 1647 1647 1655 1663 1663 2349 2349 2349 2349 2349 2333 2333 2333 2349 2090 2090 2103 2103 2103 2103 2103 2103 2103 1705 1705 1705 1696 1696 1688 1688 1696 1688 1688 1696 1696 1696 1696 1696 1688 1688 1688 2349 2349 2349 2365 2365 2365 2365 2365 2381 2381 2381 2381 2381 2381 2381 2365 2365 2365 2365 2381 2381 2381 2381 2381 2381 2381 2381 2381 2381 2381 2381 2381 2381 2381 2381 2381 2381 2381 2381 2381 1722 1722 1722 1722 1722 1713 1713 1705 1705 1705 1705 1705 1705 1713 1713 1713 1713 1713 2381 2381 2381 2156 2156 2156 2143 2143 2143 2143 2129 2129 2129 2116 2103 2103 2090 2090 2103 2103 2381 2381 2381 2381 2381 2381 2381 2381 2381 2381 2381 2381 2381 2381 2381 2381 2381 2381 2381 2381 2381 2381 2381 2381 2381 2381 2381 2381 2381 2381 2381 1833 1833 1833 1833 1833 1823 1823 1823 1823 1823 1813 1813 1813 1813 1813 1813 1813 1813 0 0 2381 0 0 2078 2078 2090 2090 2090 2090 2078 2078 2078 2078 2065 2065 2078 2078 2078 2078 2078 2078 2078 2090 2090 2415 2415 2415 2415 2415 2415 2415 2415 2415 2432 2432 2432 2432 2432 2432 2432 2432 2432 2432 2415 2415 2415 2415 2415 2432 2432 2432 2432 2450 2450 2450 2432 2415 2415 2415 2415 2415 2415 2398 2398 2415 2415 2415 2415 2415 2415 2415 2398 2398 2398 2398 2398 2381 2381 2398 2398 2398 2398 2398 2398 2398 2398 2398 2398 2398 2398 2398 2398 2415 2415 2415 2415 2415 2415 2415 2415 2398 2398 0 0 0 0 0 0 0 0 0 0
0 0 0 0 0 0 0 0 0 0 0 0 0 0 0 0 0 0 0 0 0 0 0 0 0 0 0 0 0 0 0 0 0 2129 2129 2129 2129 2116 2116 2116 2116 2116 2116 2116 2116 2116 2116 2116 2116 2116 2116 2116 2116 2116 2129 2143 2129 2129 2129 2129 2129 2129 2143 2143 2143 2143 2143 2143 2143 2143 2143 2143 2129 2129 2129 2129 2129 2129 2129 2129 2129 2129 2143 2143 2143 2143 2143 2143 2143 2129 2129 2129 2129 2129 2143 2143 2143 2143 2143 2156 2156 2156 2156 2156 2156 2156 2156 2156 2156 2156 2156 2156 2156 2156 2170 2170 2170 2170 2184 2184 2184 2184 2184 2184 2184 2184 2184 2184 2184 2184 2184 2184 2184 2198 2198 2198 2198 2198 2198 2198 2198 2198 2198 2198 2198 2198 2198 2198 2212 2212 2212 2212 2212 2212 2212 2212 2212 2198 2198 2198 2198 2198 2212 2212 2198 2198 2198 2198 2212 2212 2212 2212 2226 2226 2226 2226 2226 2226 2226 2226 2226 2226 2226 2226 2226 2226 2226 2226 2226 2226 2226 2226 2241 2241 2241 2241 2241 2241 2241 2241 2241 2241 2241 2241 2241 2241 2241 2256 2256 2256 2256 2256 2256 2256 2256 2256 2256 2256 2256 2256 2256 2256 2256 2256 2256 2256 2256 2256 2256 2256 2256 2256 2256 2256 2271 2271 2271 2271 2271 2271 2271 2271 2271 2256 2256 2256 1894 1894 1894 1915 1915 1915 1915 1926 1926 1926 1936 1936 1936 1970 1981 1993 1993 1993 1993 1993 1579 1579 1579 1572 1572 1572 1572 1572 1572 1572 1579 1579 1579 1579 1579 1579 1579 1586 1586 1586 1586 0 0 0 1601 1601 1601 1594 1586 1586 1579 1572 1564 1550 1550 1543 1543 1543 1543 1543 1543 1550 1550 1557 1557 1564 1564 1572 1572 1572 1579 1579 1579 1579 1586 1586 1586 1586 1594 1594 1594 1601 1601 1601 1601 1601 1601 1601 1609 1609 1609 1609 1616 1616 1616 1616 1624 1624 1624 1624 1624 1632 1632 1632 1639 1639 1647 1655 1647 1647 1647 1655 1655 1655 2317 2317 2333 2333 2333 2333 2333 2333 2333 2333 2349 2349 2090 2090 2103 2103 2103 2103 2103 2103 2103 1705 1705 1705 1705 1696 1696 1696 1696 1688 1688 1696 1696 1696 1696 1696 1688 1688 1688 2349 2349 2349 2349 2365 2365 2365 2365 2365 2365 2365 2381 2381 2365 2365 2365 2365 2365 2365 2365 2365 2365 2365 2365 2365 2365 2365 2365 2381 2381 2381 2381 2365 2365 2381 2381 2381 2365 2365 2365 1731 1722 1722 1722 1722 1713 1713 1713 1705 1705 1705 1705 1705 1713 1713 1713 1713 1713 2365 2365 2349 2349 2156 2156 2143 2143 2143 2143 2129 2129 2116 2103 2103 2103 2090 2090 2090 2090 2090 2381 2381 2381 2381 2381 2381 2381 2381 2381 2381 2381 2381 2381 2381 2381 2381 2381 2381 2381 2365 2365 2365 2381 2381 2365 2365 2365 2365 2365 2365 2365 1833 1833 1833 1833 1833 1823 1823 1823 1823 1823 1813 1813 1813 1813 1813 1813 2333 2333 2365 2381 2381 2090 2078 2078 2090 2090 2090 2090 2078 2078 2078 2078 2078 2078 2078 2078 2078 2078 2078 2078 2078 2398 2398 2398 2398 2398 2398 2398 2398 2398 2398 2398 2415 2415 2415 2415 2432 2432 2432 2415 2415 2415 2415 2415 2398 2398 2415 2415 2415 2415 2432 2432 2432 2432 2415 2415 2398 2398 2398 2398 2398 2398 2398 2398 2415 2415 2415 2415 2415 2398 2381 2381 2381 2381 2381 2381 2381 2381 2381 2381 2381 2381 2381 2381 2381 2381 2381 2381 2381 2381 2398 2398 2398 2398 2398 2398 2398 2398 2398 2398 2398 0 0 0 0 0 0 0 0 0 0
0 0 0 0 0 0 0 0 0 0 0 0 0 0 0 0 0 0 0 0 0 0 0 0 0 0 0 0 0 0 0 0 0 2129 2116 2116 2116 2116 2116 2116 2116 2116 2116 2116 2116 2116 2103 2103 2103 2116 2116 2116 2116 2116 2129 2129 2129 2129 2116 2116 2129 2129 2129 2129 2129 2129 2129 2143 2129 2129 2129 2143 2129 2129 2116 2116 2116 2116 2116 2116 2129 2129 2129 2129 2129 2129 2129 2129 2129 2129 2116 2116 2116 2129 2129 2129 2129 2143 2143 2143 2143 2143 2143 2143 2143 2143 2156 2156 2156 2156 2156 2156 2156 2156 2156 2156 2156 2156 2156 2156 2170 2170 2170 2170 2170 2170 2156 2156 2156 2156 2156 2184 2184 2184 2170 2170 2170 2170 2170 2170 2170 2184 2184 2184 2184 2198 2198 2198 2198 2198 2198 2198 2212 2212 2212 2212 2212 2198 2198 2198 2198 2198 2198 2198 2198 2198 2198 2198 2198 2212 2212 2212 2212 2226 2226 2226 2226 2212 2212 2212 2212 2212 2226 2212 2212 2226 2226 2226 2226 2226 2226 2226 2226 2226 2226 2226 2241 2241 2241 2226 2226 2241 2241 2241 2241 2241 2241 2241 2241 2256 2256 2256 2256 2256 2256 2256 2256 2256 2256 2256 2256 2256 2256 2256 2256 2256 2256 2256 2256 2256 2256 2256 2256 2256 2256 2256 2256 2256 2256 2256 2271 2256 2256 2256 2256 2256 2256 1915 1915 1915 1915 1915 1915 1926 1926 1926 1936 1936 1936 1970 1981 1993 1993 1993 1993 1993 1579 1579 1579 1572 1572 1572 1572 1572 1572 1572 1579 1579 1579 1579 1579 1579 1579 1586 1586 1586 1586 2256 2256 2241 2241 1601 1601 1594 1586 1579 1579 1572 1557 1550 1550 1550 1543 1543 1543 1543 1543 1550 1550 1557 1557 1564 1564 1572 1572 1579 1579 1579 1586 1586 1586 1586 1586 1594 1594 1594 1601 1601 1601 1609 1601 1601 1601 1601 1601 1601 1609 1616 1616 1616 1624 1624 1624 1624 1624 1624 1632 1632 1639 1639 1647 1647 1655 1655 1647 1647 1647 2317 2317 2317 2317 2317 2317 2317 2317 2333 2333 2333 2333 2333 2349 2349 2103 2103 2103 2103 2103 2103 2103 2103 1713 1705 1705 1705 1705 1696 1696 1696 1696 1696 1696 1696 1696 1696 1696 1696 1688 1688 1688 2349 2349 2349 2349 2349 2349 2365 2365 2365 2365 2349 2349 2365 2349 2349 2365 2365 2365 2365 2365 2365 2365 2365 2365 2365 2365 2365 2365 2365 2365 2365 2349 2349 2349 2365 2365 2365 2365 2365 2365 1731 1722 1722 1722 1722 1722 1713 1713 1713 1705 1705 1705 1713 1713 1713 1713 1713 1713 2349 2349 2333 2333 2333 2156 2156 2156 2143 2129 2129 2116 2116 2103 2103 2103 2090 2090 2090 2090 2090 2381 2381 2381 2365 2365 2381 2381 2381 2381 2381 2381 2381 2381 2381 2381 2381 2381 2381 2381 2365 2365 2365 2365 2365 2365 2365 2365 2365 2365 2349 2349 1843 1843 1843 1833 1833 1823 1823 1823 1823 1823 1813 1813 1813 1813 1813 1813 2317 2317 2365 2365 2381 2090 2090 2090 2090 2090 2090 2090 2078 2078 2078 2078 2065 2065 2078 2078 2078 2078 2078 2078 2078 2398 2398 2381 2381 2381 2381 2381 2381 2381 2381 2381 2398 2398 2398 2398 2415 2415 2415 2415 2415 2415 2398 2398 2398 2398 2398 2398 2398 2415 2415 2415 2415 2415 2398 2398 2381 2381 2381 2381 2381 2381 2381 2398 2398 2398 2398 2398 2398 2381 2365 2365 2365 2365 2365 2365 2365 2365 2365 2365 2365 2365 2365 2365 2365 2365 2381 2381 2381 2381 2381 2381 2381 2398 2398 2398 2398 2398 2398 2398 2381 2381 0 0 0 0 0 0 0 0 0
0 0 0 0 0 0 0 0 0 0 0 0 0 0 0 0 0 0 0 0 0 0 0 0 0 0 0 0 0 0 0 0 0 0 2103 2103 2116 2116 2116 2116 2116 2116 2103 2103 2103 2103 2103 2090 2090 2103 2116 2116 2116 2116 2116 2129 2129 2116 2116 2116 2116 2116 2116 2116 2116 2116 2116 2129 2129 2116 2116 2129 2129 2116 2116 2116 2116 2116 2116 2116 2129 2129 2129 2129 2129 2129 2116 2116 2116 2116 2116 2116 2116 2116 2116 2116 2116 2129 2129 2129 2143 2143 2143 2143 2143 2143 2143 2143 2156 2156 2143 2143 2143 2156 2156 2156 2156 2156 2156 2156 2156 2156 2156 2156 2156 2170 2156 2156 2156 2156 2156 2170 2170 2170 2170 2170 2170 2170 2170 2170 2170 2170 2170 2170 2184 2184 2184 2184 2184 2170 2170 2184 2184 2198 2198 2198 2198 2198 2198 2198 2198 2198 2198 2198 2184 2184 2184 2198 2198 2198 2198 2198 2198 2198 2198 2198 2198 2198 2198 2198 2198 2198 2212 2212 2212 2212 2212 2212 2212 2212 2212 2212 2226 2226 2226 2226 2226 2226 2226 2226 2226 2226 2226 2226 2226 2241 2241 2241 2241 2241 2241 2241 2241 2241 2241 2241 2241 2241 2241 2241 2241 2256 2256 2256 2256 2256 2256 2256 2256 2256 2256 2256 2256 2256 2256 2256 2256 2256 2256 2256 2256 2256 2256 2256 2256 2256 2256 1926 1926 1926 1926 1926 1926 1926 1926 1926 1936 1936 1936 1970 1981 1993 1993 1993 1993 1993 1579 1579 1579 1579 1572 1572 1572 1572 1572 1572 1579 1579 1579 1579 1579 1579 1586 1586 1586 1594 2301 2256 2256 2241 2241 2241 1594 1594 1586 1579 1572 1564 1557 1550 1550 1550 1543 1543 1543 1543 1543 1550 1550 1557 1564 1564 1564 1572 1579 1579 1579 1586 1586 1586 1586 1586 1594 1594 1594 1601 1601 1601 1601 1609 1601 1601 1601 1601 1601 1601 1609 1616 1616 1616 1616 1616 1624 1624 1624 1624 1632 1639 2028 2028 2016 2016 1655 1655 2317 2317 2317 2317 2317 2317 2317 2317 2317 2317 2317 2317 2333 2333 2333 2333 2333 2103 2103 2103 2103 2103 2103 2103 2103 2103 1705 1705 1705 1705 1705 1696 1696 1696 1696 1696 1696 1696 1696 1705 1705 1696 1688 1688 1688 2349 2349 2349 2349 2349 2349 2349 2349 2349 2349 2349 2349 2365 2349 2349 2349 2349 2349 2349 2349 2349 2349 2349 2349 2349 2349 2349 2349 2349 2349 2349 2349 2349 2349 2349 2349 2365 2365 2365 2365 1731 1722 1722 1722 1722 1722 1713 1713 1713 1713 1713 1713 1713 1713 1713 1713 1713 1713 2333 2333 2333 2333 2333 2349 2156 2156 2156 2129 2129 2116 2103 2103 2103 2090 2090 2090 2090 2090 2090 2090 2381 2365 2365 2365 2365 2365 2365 2365 2365 2365 2365 2365 2365 2365 2365 2365 2365 2381 2365 2365 2365 2365 2365 2365 2365 2365 2349 2349 2349 2349 1853 1843 1843 1833 1833 1823 1823 1823 1823 1823 1813 1813 1813 1813 1813 1813 1863 1863 2349 2349 2381 2090 2090 2090 2090 2090 2090 2078 2078 2078 2078 2078 2065 2065 2078 2078 2078 2078 2078 2090 2365 2381 2381 2381 2381 2381 2381 2381 2381 2381 2381 2381 2381 2381 2381 2398 2398 2398 2398 2398 2398 2398 2398 2398 2381 2381 2398 2398 2398 2398 2398 2398 2398 2398 2381 2381 2365 2365 2365 2365 2365 2365 2365 2381 2381 2381 2398 2381 2381 2365 2365 2365 2365 2365 2365 2349 2349 2349 2365 2365 2365 2365 2365 2365 2365 2365 2365 2365 2365 2365 2381 2381 2381 2381 2381 2381 2398 2398 2398 2381 2381 2381 0 0 0 0 0 0 0 0 0
0 0 0 0 0 0 0 0 0 0 0 0 0 0 0 0 0 0 0 0 0 0 0 0 0 0 0 0 0 0 0 0 0 0 2103 2103 2103 2103 2103 2103 2103 2103 2103 2103 2103 2103 2103 2090 2090 2103 2103 2116 2116 2116 2116 2116 2116 2116 2116 2116 2116 2116 2116 2116 2116 2116 2116 2116 2116 2116 2116 2116 2116 2116 2116 2116 2116 2116 2116 2116 2116 2116 2116 2116 2116 2116 2116 2103 2103 2103 2103 2103 2103 2116 2116 2116 2116 2129 2129 2129 2129 2129 2129 2129 2143 2143 2143 2143 2143 2143 2143 2143 2143 2143 2143 2143 2143 2143 2143 2143 2143 2156 2156 2156 2156 2156 2156 2156 2156 2156 2156 2156 2156 2156 2156 2156 2156 2156 2156 2156 2156 2170 2170 2170 2170 2170 2170 2170 2170 2170 2170 2184 2184 2198 2198 2198 2198 2184 2184 2184 2184 2184 2184 2184 2184 2184 2184 2184 2184 2198 2198 2198 2198 2198 2198 2198 2198 2198 2198 2198 2198 2198 2198 2198 2198 2198 2198 2198 2198 2198 2198 2212 2212 2212 2212 2212 2212 2212 2212 2198 2198 2198 2198 2212 2212 2212 2212 2226 2226 2226 2226 2226 2226 2226 2226 2226 2226 2241 2241 2241 2241 2241 2241 2241 2241 2241 2241 2241 2241 2241 2241 2256 2256 2256 2256 2256 2256 2256 2256 2256 2256 2256 2256 2241 2241 2256 2256 1926 1926 1926 1926 1926 1926 1926 1926 1926 1926 1936 1947 1970 1981 1981 1981 1981 1981 1981 1579 1579 1579 1579 1572 1572 1572 1572 1572 1579 1579 1579 1579 1579 1579 1579 1586 1586 1586 2301 2271 2256 2256 2241 2241 2241 2241 1594 1579 1572 1572 1564 1557 1550 1550 1550 1543 1543 1543 1550 1550 1550 1550 1557 1564 1572 1572 1572 1579 1579 1579 1586 1586 1586 1586 1594 1594 1594 1594 1601 1601 1601 1601 1609 1601 1601 1601 1601 1609 1609 1609 1609 1609 1616 1616 1616 1624 1624 2053 2040 2040 2028 2028 2016 2016 2005 2005 2301 2317 2317 2317 2317 2317 2317 2301 2301 2301 2301 2317 2317 2317 2317 2333 2317 2317 2103 2103 2103 2103 2103 2103 2103 2103 2103 1705 1705 1705 1705 1705 1696 1696 1696 1696 1696 1696 1696 1696 1705 1705 1696 1688 1688 1696 2349 2333 2333 2349 2349 2349 2349 2349 2349 2349 2349 2349 2349 2349 2349 2349 2349 2349 2349 2349 2333 2333 2333 2333 2333 2333 2333 2333 2333 2333 2333 2333 2333 2333 2349 2349 2349 2365 2365 2365 1731 1722 1722 1722 1722 1722 1713 1713 1713 1713 1713 1713 1713 1713 1713 1713 1713 2271 2301 2333 2333 2333 2333 2333 2333 2317 2156 2129 2129 2116 2103 2103 2103 2090 2090 2090 2090 2090 2090 2090 2365 2365 2365 2365 2365 2365 2365 2365 2365 2365 2365 2365 2365 2365 2365 2365 2365 2365 2349 2349 2349 2349 2349 2349 2349 2349 2349 2349 2349 2349 1853 1843 1843 1843 1833 1823 1823 1823 1823 1823 1813 1813 1813 1813 1813 2333 1863 1863 2333 2333 2333 2090 2090 2090 2090 2090 2090 2078 2078 2078 2078 2078 2078 2078 2078 2078 2078 2078 2078 2090 2365 2365 2365 2365 2365 2365 2365 2365 2365 2365 2365 2365 2365 2381 2381 2381 2381 2381 2381 2381 2398 2398 2381 2381 2381 2381 2381 2381 2381 2381 2381 2398 2398 2398 2381 2365 2365 2365 2365 2365 2365 2365 2365 2365 2365 2365 2365 2381 2365 2365 2365 2365 2365 2349 2349 2349 2349 2349 2349 2349 2349 2349 2365 2365 2365 2365 2365 2365 2365 2365 2365 2365 2365 2365 2365 2381 2381 2381 2381 2381 2365 2365 0 0 0 0 0 0 0 0 0
0 0 0 0 0 0 0 0 0 0 0 0 0 0 0 0 0 0 0 0 0 0 0 0 0 0 0 0 0 0 0 0 0 0 2090 2090 2090 2090 2103 2103 2103 2103 2103 2103 2103 2103 2103 2090 2090 2103 2103 2103 2103 2103 2103 2103 2103 2103 2103 2103 2103 2116 2103 2103 2103 2103 2103 2103 2103 2116 2116 2116 2116 2116 2116 2116 2103 2103 2103 2103 2103 2103 2103 2103 2103 2116 2103 2103 2103 2103 2103 2103 2103 2116 2116 2116 2116 2116 2116 2116 2116 2116 2116 2129 2129 2129 2143 2143 2143 2143 2143 2143 2143 2143 2143 2143 2143 2143 2143 2143 2143 2143 2143 2156 2156 2156 2156 2156 2156 2156 2156 2156 2156 2156 2156 2156 2156 2156 2156 2156 2156 2170 2170 2170 2170 2156 2156 2156 2156 2156 2156 2170 2170 2184 2184 2198 2198 2184 2184 2184 2184 2184 2184 2184 2184 2184 2184 2184 2184 2184 2184 2198 2198 2198 2198 2198 2198 2198 2198 2198 2198 2198 2198 2198 2198 2198 2198 2198 2198 2198 2198 2198 2212 2212 2212 2212 2212 2198 2198 2198 2198 2198 2198 2198 2198 2198 2198 2198 2212 2212 2212 2212 2212 2212 2212 2212 2226 2226 2226 2226 2241 2241 2226 2226 2226 2226 2226 2226 2226 2226 2226 2241 2241 2241 2241 2241 2241 2241 2241 2241 2241 2241 2241 2241 2241 2256 2256 1926 1926 1926 1926 1926 1926 1926 1926 1926 1926 1936 1947 1970 1981 1981 1981 1981 1981 1981 1579 1579 1579 1579 1572 1572 1572 1572 1579 1579 1579 1579 1579 1579 1579 1579 1586 1586 1586 2286 2271 2256 2256 2241 2241 2241 2241 1572 1572 1572 1564 1557 1557 1550 1550 1550 1543 1543 1543 1550 1550 1550 1557 1557 1564 1572 1572 1572 1579 1579 1579 1586 1586 1586 1586 1594 1594 1594 1594 1601 1601 1601 1601 1609 1601 1601 1601 1601 1609 1609 1609 1609 1609 2078 2065 2065 2053 2053 2040 2040 2040 2028 2016 2016 2016 2005 2005 2005 2317 2317 2317 2317 2317 2301 2301 2301 2301 2301 2301 2301 2301 2301 2301 2301 2301 2116 2116 2116 2116 2103 2103 2116 2116 2116 1696 1696 1705 1705 1705 1696 1696 1696 1696 1696 1696 1696 1696 1705 1705 1696 1696 1696 1696 2333 2333 2333 2333 2333 2333 2349 2333 2333 2333 2333 2333 2333 2333 2333 2333 2333 2333 2333 2333 2333 2333 2333 2333 2333 2333 2333 2333 2333 2333 2333 2333 2333 2333 2333 2349 2349 2365 2365 2365 1731 1722 1722 1722 1722 1722 1713 1713 1713 1713 1713 1713 1713 1713 1713 1713 1713 2271 2301 2317 2317 2333 2333 2333 2333 2317 2317 2129 2129 2103 2103 2103 2103 2090 2090 2090 2090 2090 2078 2065 2053 2053 2349 2365 2365 2365 2365 2349 2349 2349 2349 2349 2349 2349 2349 2349 2349 2365 2349 2333 2333 2333 2333 2333 2333 2333 2333 2333 2349 1863 1853 1853 1853 1843 1833 1823 1823 1823 1823 1823 1823 1813 1813 1813 1813 1904 1904 2349 2317 2317 2090 2090 2090 2090 2090 2090 2090 2078 2078 2078 2078 2078 2078 2078 2078 2078 2078 2078 2078 2078 2365 2365 2365 2365 2365 2365 2365 2365 2365 2365 2365 2365 2365 2381 2365 2365 2365 2365 2365 2365 2365 2381 2381 2381 2365 2365 2365 2365 2365 2365 2365 2381 2381 2381 2365 2365 2365 2365 2349 2349 2349 2349 2365 2365 2365 2365 2365 2365 2365 2365 2365 2365 2365 2349 2349 2349 2349 2333 2333 2349 2349 2349 2349 2349 2365 2365 2365 2365 2349 2349 2349 2365 2365 2365 2365 2365 2365 2381 2381 2365 2365 2365 0 0 0 0 0 0 0 0 0
