0 0 0 0 0 0 0 0 0 0 0 0 0 0 0 0 0 0 0 0 0 0 0 0 0 0 0 0 0 0 0 0 0 2415 2415 2415 2415 2415 2415 2415 2415 2415 2432 2432 2415 2415 2415 2415 2415 2415 2415 2415 2432 2432 2432 2432 2432 2432 2432 2432 2432 2432 2450 2450 2450 2432 2432 2450 2450 2450 2450 2450 2450 2415 2415 2415 2432 2415 2415 2415 2415 2432 2432 2450 2450 0 1503 1503 1503 1503 1503 1503 1503 1503 1503 1503 1509 1509 1410 1410 1410 1410 1410 1410 1410 1410 1415 1415 1415 1421 1421 1427 1427 1433 1439 1445 1445 1452 1452 1452 1609 1616 1616 1616 1616 1616 1616 1616 1616 1616 1616 1616 1616 1616 1624 1616 1616 1624 1616 1616 1616 1616 1616 1624 1624 1624 1624 1624 1624 1624 1624 1624 1624 1624 1624 1624 1616 1616 1616 1616 1616 1616 1616 1616 1616 1616 1616 1616 1624 1624 1624 1624 1624 1624 1624 1624 1624 1624 1632 1632 1632 1632 1632 1632 1632 1632 1632 1632 1632 1632 1639 1639 1639 1639 1639 1639 1632 1632 1632 1632 1632 1632 1632 1639 1639 1647 1647 1398 1398 1398 1398 1398 1398 1398 1398 1398 1398 1398 1404 1404 1410 1410 1415 1421 1624 1632 1632 1639 1639 1639 1639 1639 1647 1647 1639 1639 1639 1639 1639 1639 1639 1639 1639 1639 1639 1639 1639 1663 1663 1766 1766 1776 1785 1813 1813 1833 1833 1833 1833 1833 1843 1843 1843 0 0 0 0 0 0 0 1297 1292 1292 1302 1302 1302 1307 1307 1307 1307 1307 1307 1307 1307 1307 1312 1312 1312 1312 1312 1312 1312 1312 1312 1312 1312 1307 1307 1307 1307 1307 1307 1307 1307 1307 1307 1307 1307 1307 1307 1307 1307 1307 1307 1302 1302 1302 1302 1302 1302 1302 1302 1297 1297 1297 1297 1297 1297 1297 1297 1297 1297 1297 1292 1292 1292 1292 1288 1288 1288 1288 1288 1288 1288 1288 1288 1288 1288 1288 1288 1292 1292 1288 1288 1288 1292 1292 1292 1292 1288 1288 1288 1288 1288 1288 1288 1288 1292 1292 1292 1292 1292 1292 1292 1292 1292 1297 1297 1297 1297 1297 1297 1297 1297 1297 1297 1297 1297 1297 1297 1297 1297 1297 1292 1288 1283 1278 1278 1273 1273 1273 1273 1273 1273 1273 1273 1273 1273 1273 1273 0 0 0 0 0 0 2598 2598 2598 2598 2598 2598 2598 2598 2598 1833 1833 1843 1833 1833 1833 1833 1833 1833 1843 1843 1843 1843 1853 1853 2156 2156 2156 2156 2156 2156 2156 2156 2156 2156 2156 2156 2170 2170 2170 2198 2579 2579 2579 2598 2598 2598 2598 2598 2579 2579 2579 2598 2579 2579 2579 2579 2579 2579 2579 2579 2579 2579 2579 0 0 0 1404 1404 1404 1404 1404 1404 1404 1404 1410 1410 1410 1410 1410 1410 1410 1410 1410 1410 1410 1410 1410 1410 1410 1410 1404 1404 1404 1404 1404 1404 1404 1404 1404 2503 2503 2503 2541 2541 2541 2560 2560 2560 2560 2579 2579 2579 2579 2579 2579 2579 2579 2579 2579 2579 2579 2579 2579 2560 2560 2560 2560 2560 2560 2579 2560 2560 2579 2579 2579 2579 2579 2579 2579 2579 2579 2579 2579 2579 2579 2579 2579 2579 2579 2579 2579 2579 2579 2579 2579 2579 2579 2579 2579 2579 2579 2579 2579 2579 2579 2579 2579 2579 2579 2579 2579 2579 2560 2560 2560 2560 2560 2560 2560 2560 2560 2560 2560 2560 2541 2541 2541 2541 2541 2541 2560 2560 2560 2560 2560 2560 2560 2560 2560 2560 2560 2560 2560 2560 2560 2541 2522 2503 2503 2503 2522 2522 2522 2522 0 0 0 0 0 0 0 0 0 0
0 0 0 0 0 0 0 0 0 0 0 0 0 0 0 0 0 0 0 0 0 0 0 0 0 0 0 0 0 0 0 0 0 2415 2398 2398 2398 2398 2415 2415 2415 2415 2415 2415 2415 2415 2415 2415 2415 2415 2415 2415 2415 2415 2415 2415 2432 2432 2432 2432 2432 2432 2432 2432 2432 2432 2432 2432 2432 2432 2432 2432 2432 2415 2415 2415 2415 2415 2415 2415 2415 2415 2432 2432 2432 0 1503 1503 1503 1503 1503 1503 1503 1503 1503 1509 1509 1509 1410 1410 1410 1410 1410 1410 1410 1410 1415 1415 1415 1421 1421 1427 1433 1433 1439 1445 1452 1452 1458 1458 1609 1609 1609 1609 1609 1609 1616 1609 1609 1616 1616 1616 1616 1616 1616 1616 1616 1616 1616 1616 1616 1616 1616 1616 1616 1616 1616 1616 1624 1624 1624 1624 1624 1624 1624 1616 1616 1616 1616 1616 1616 1616 1616 1616 1616 1616 1616 1616 1624 1624 1624 1624 1624 1624 1624 1624 1624 1624 1624 1624 1624 1624 1632 1632 1632 1632 1632 1632 1632 1632 1632 1632 1632 1632 1632 1632 1624 1624 1624 1624 1624 1624 1624 1632 1639 1639 1404 1398 1398 1398 1398 1398 1404 1404 1404 1404 1404 1404 1404 1410 1410 1415 1421 1427 1624 1632 1632 1632 1639 1639 1639 1639 1639 1639 1639 1639 1632 1632 1632 1632 1632 1632 1639 1632 1632 1639 1639 1639 1766 1766 1766 1785 1804 1823 1833 1833 1833 1843 1843 1843 1843 1843 1843 1843 2541 0 0 0 0 1297 1297 1297 1302 1307 1307 1307 1307 1307 1307 1307 1307 1307 1307 1307 1312 1312 1312 1312 1317 1317 1312 1312 1312 1312 1312 1312 1312 1312 1312 1307 1307 1307 1307 1307 1307 1307 1307 1307 1307 1307 1307 1307 1307 1307 1307 1307 1307 1302 1302 1302 1302 1302 1302 1302 1302 1302 1302 1302 1302 1302 1302 1302 1297 1292 1292 1292 1292 1292 1292 1292 1292 1292 1292 1292 1292 1292 1292 1292 1292 1292 1292 1292 1292 1292 1292 1292 1292 1292 1292 1292 1288 1288 1288 1288 1288 1288 1288 1292 1292 1292 1292 1292 1292 1292 1292 1292 1297 1297 1297 1297 1297 1297 1297 1297 1297 1297 1297 1297 1297 1297 1297 1297 1297 1292 1288 1283 1278 1278 1278 1278 1278 1278 1278 1278 1273 1273 1278 1273 1273 1273 0 0 0 0 0 0 2598 2598 2579 2579 2579 2579 2579 2579 2579 2579 1843 1843 1843 1833 1833 1833 1833 1833 1843 1843 1843 1843 1853 1853 2156 2156 2156 2156 2156 2156 2156 2156 2156 2156 2156 2156 2156 2170 2170 2184 2560 2579 2579 2579 2579 2579 2579 2579 2579 2579 2579 2579 2579 2579 2579 2579 2579 2579 2579 2579 2579 2579 2579 0 0 0 1404 1404 1404 1404 1404 1410 1410 1410 1410 1410 1410 1410 1410 1410 1410 1410 1410 1410 1410 1410 1410 1410 1410 1410 1404 1404 1404 1404 1404 1404 1404 1404 2503 2503 2503 2503 2522 2522 2541 2541 2541 2541 2560 2560 2560 2579 2579 2560 2560 2579 2579 2560 2560 2560 2560 2560 2560 2560 2560 2541 2541 2541 2560 2560 2560 2560 2560 2560 2560 2560 2560 2560 2579 2579 2579 2579 2579 2579 2579 2579 2579 2579 2579 2579 2579 2579 2560 2560 2560 2560 2560 2560 2560 2579 2579 2579 2579 2579 2579 2579 2579 2579 2579 2579 2579 2579 2560 2560 2560 2560 2560 2560 2541 2541 2541 2541 2541 2522 2522 2522 2522 2522 2522 2522 2522 2541 2541 2541 2541 2541 2541 2541 2560 2560 2560 2560 2560 2560 2541 2541 2522 2503 2503 2503 2503 2503 2503 2503 0 0 0 0 0 0 0 0 0 0
0 0 0 0 0 0 0 0 0 0 0 0 0 0 0 0 0 0 0 0 0 0 0 0 0 0 0 0 0 0 0 0 0 2398 2398 2398 2398 2398 2398 2415 2415 2415 2415 2415 2415 2398 2398 2398 2398 2398 2398 2398 2415 2415 2415 2415 2415 2432 2415 2415 2415 2415 2415 2415 2432 2415 2415 2415 2415 2415 2415 2432 2415 2398 2398 2398 2398 2398 2398 2398 2398 2415 2415 2415 2415 2432 1503 1503 1503 1503 1503 1503 1509 1509 1509 1509 1509 1509 1516 1410 1410 1410 1410 1415 1415 1415 1415 1415 1421 1421 1427 1427 1433 1439 1439 1445 1452 1452 1458 1458 1458 1601 1601 1601 1601 1609 1609 1609 1609 1609 1609 1609 1609 1609 1609 1609 1609 1609 1616 1616 1616 1616 1616 1616 1616 1616 1616 1616 1624 1624 1624 1624 1624 1624 1624 1609 1609 1609 1609 1609 1609 1609 1609 1609 1609 1616 1616 1616 1616 1616 1616 1616 1616 1616 1616 1616 1616 1616 1616 1616 1616 1616 1624 1624 1624 1624 1624 1624 1624 1624 1624 1624 1624 1624 1624 1624 1624 1624 1616 1616 1616 1616 1616 1624 1632 1632 1404 1404 1404 1404 1404 1404 1404 1404 1404 1404 1404 1404 1404 1410 1415 1421 1427 1427 1616 1624 1632 1632 1632 1632 1632 1632 1639 1632 1632 1632 1632 1632 1632 1632 1632 1632 1632 1632 1632 1639 1639 1639 1804 1804 1804 1823 1833 1833 1843 1843 1843 1843 1843 1843 1843 1843 1843 1843 2485 2485 0 0 0 1297 1297 1302 1302 1307 1307 1307 1307 1307 1307 1307 1307 1307 1307 1312 1312 1312 1312 1317 1317 1317 1317 1312 1312 1312 1312 1312 1312 1312 1312 1312 1312 1312 1312 1312 1312 1312 1312 1307 1307 1307 1307 1307 1307 1307 1307 1307 1307 1307 1307 1307 1307 1307 1307 1302 1302 1302 1302 1302 1302 1302 1302 1302 1297 1297 1292 1292 1292 1292 1292 1297 1292 1292 1292 1292 1292 1292 1292 1292 1292 1292 1292 1292 1292 1292 1292 1292 1292 1292 1292 1292 1292 1292 1292 1288 1288 1292 1292 1292 1292 1292 1292 1292 1292 1292 1292 1292 1292 1292 1297 1297 1297 1297 1297 1297 1297 1297 1297 1297 1297 1297 1297 1297 1297 1292 1292 1288 1283 1283 1278 1278 1278 1278 1278 1278 1278 1278 1278 1278 1278 0 0 0 0 0 0 0 2579 2579 2560 2560 2560 2560 2579 2560 2560 2560 1843 1843 1843 1843 1833 1833 1843 1843 1843 1843 1843 1843 1853 1853 2156 2170 2156 2156 2156 2156 2156 2156 2156 2156 2156 2156 2156 2170 2170 2184 2541 2560 2560 2560 2560 2560 2560 2560 2560 2560 2560 2560 2560 2560 2579 2560 2560 2560 2560 2560 2560 2560 2579 0 0 0 1404 1404 1404 1404 1404 1410 1410 1410 1410 1410 1410 1410 1410 1410 1410 1410 1410 1410 1410 1410 1410 1410 1410 1410 1410 1410 1410 1410 1410 1410 1410 1410 2503 2503 2503 2503 2522 2522 2541 2541 2541 2541 2541 2541 2541 2560 2560 2560 2560 2560 2560 2560 2560 2560 2560 2560 2560 2541 2541 2541 2541 2541 2541 2541 2541 2541 2560 2560 2560 2560 2560 2560 2560 2560 2560 2560 2560 2560 2560 2560 2560 2560 2560 2560 2560 2560 2560 2560 2560 2560 2560 2560 2560 2560 2560 2560 2560 2560 2560 2560 2560 2560 2560 2560 2560 2560 2541 2541 2541 2541 2541 2541 2541 2541 2541 2541 2522 2522 2503 2503 2522 2522 2522 2503 2503 2522 2503 2503 2503 2522 2522 2522 2522 2522 2522 2522 2503 2503 2503 2503 2503 2503 2503 2503 2503 2503 2503 2503 0 0 0 0 0 0 0 0 0 0
0 0 0 0 0 0 0 0 0 0 0 0 0 0 0 0 0 0 0 0 0 0 0 0 0 0 0 0 0 0 0 0 0 2398 2398 2398 2398 2398 2398 2415 2415 2415 2415 2398 2398 2398 2398 2398 2398 2398 2398 2398 2415 2415 2415 2415 2415 2415 2415 2415 2415 2415 2415 2415 2415 2398 2398 2415 2398 2398 2398 2398 2398 2398 2398 2398 2398 2398 2398 2398 2398 2415 2415 2415 2432 2432 1503 1503 1503 1503 1503 1503 1503 1509 1509 1509 1509 1509 1509 1410 1410 1410 1410 1415 1415 1415 1415 1421 1421 1421 1427 1427 1433 1439 1439 1445 1452 1452 1458 1458 1458 1594 1594 1594 1601 1601 1609 1601 1601 1601 1601 1601 1601 1601 1601 1601 1601 1609 1609 1609 1609 1609 1609 1609 1616 1616 1616 1616 1616 1616 1616 1616 1616 1616 1616 1609 1609 1609 1609 1609 1609 1609 1609 1609 1609 1609 1609 1609 1609 1609 1609 1609 1609 1616 1616 1616 1616 1616 1616 1616 1616 1609 1609 1616 1616 1616 1616 1616 1616 1616 1616 1616 1616 1616 1616 1616 1616 1616 1616 1616 1616 1616 1616 1624 1624 1624 1624 1404 1404 1404 1404 1404 1404 1404 1404 1404 1404 1404 1404 1410 1415 1427 1427 1427 1616 1624 1624 1624 1624 1624 1632 1632 1632 1632 1624 1624 1624 1624 1624 1624 1624 1624 1632 1632 1632 1632 1632 1804 1804 1804 1804 1823 1833 1833 1843 1843 1843 1843 1843 1843 1843 1843 1843 2485 2485 2485 0 0 0 1302 1302 1302 1307 1307 1307 1307 1312 1312 1312 1312 1307 1307 1312 1312 1312 1317 1317 1317 1317 1317 1317 1312 1312 1312 1317 1312 1312 1312 1312 1312 1312 1312 1312 1312 1312 1312 1312 1312 1307 1307 1307 1312 1307 1307 1307 1307 1307 1307 1307 1307 1307 1307 1307 1307 1307 1307 1307 1307 1307 1302 1302 1302 1302 1297 1297 1297 1297 1297 1297 1297 1297 1297 1292 1292 1292 1292 1292 1292 1292 1292 1292 1292 1292 1292 1292 1292 1297 1292 1292 1292 1292 1292 1292 1292 1292 1292 1292 1292 1292 1292 1292 1292 1292 1292 1292 1292 1292 1292 1297 1297 1297 1297 1297 1297 1297 1297 1297 1297 1297 1297 1297 1297 1297 1292 1292 1288 1283 1283 1283 1278 1278 1278 1278 1278 1278 1278 1278 1283 1283 1288 0 0 0 0 0 0 2579 2560 2560 2560 2560 2560 2560 2560 2560 2560 1853 1853 1843 1843 1843 1843 1843 1843 1843 1843 1843 1853 1853 1853 2170 2170 2170 2170 2170 2170 2156 2156 2156 2156 2156 2156 2156 2170 2170 2541 2541 2541 2541 2541 2541 2541 2541 2541 2560 2541 2541 2560 2560 2560 2560 2560 2560 2560 2560 2560 2560 2560 2560 0 0 0 1410 1410 1410 1410 1410 1410 1410 1410 1410 1410 1410 1410 1410 1410 1410 1410 1410 1410 1410 1410 1410 1410 1415 1415 1415 1410 1410 1415 1415 1415 1415 1415 2503 2503 2503 2503 2522 2522 2522 2522 2522 2522 2541 2541 2541 2541 2541 2541 2541 2541 2541 2541 2541 2541 2541 2541 2541 2541 2541 2541 2541 2522 2522 2541 2522 2522 2541 2541 2541 2541 2541 2541 2560 2560 2560 2560 2560 2560 2560 2560 2560 2541 2541 2541 2541 2541 2541 2541 2560 2560 2541 2541 2560 2541 2541 2541 2541 2541 2541 2541 2541 2541 2541 2541 2541 2541 2522 2522 2522 2522 2522 2522 2522 2522 2522 2522 2522 2503 2503 2503 2503 2503 2503 2503 2503 2503 2503 2503 2503 2503 2503 2503 2503 2503 2503 2503 2485 2485 2485 2485 2503 2503 2503 2503 2503 2503 2503 2503 0 0 0 0 0 0 0 0 0 0
0 0 0 0 0 0 0 0 0 0 0 0 0 0 0 0 0 0 0 0 0 0 0 0 0 0 0 0 0 0 0 0 0 2398 2398 2398 2398 2398 2398 2398 2415 2415 2415 2398 2398 2381 2381 2381 2381 2381 2381 2398 2398 2398 2415 2415 2398 2398 2415 2398 2398 2415 2415 2415 2415 2398 2398 2398 2398 2398 2398 2398 2398 2381 2381 2398 2398 2398 2398 2398 2398 2398 2398 2398 2415 2415 2415 1503 1503 1503 1503 1503 1503 1509 1509 1509 1509 1509 1509 1421 1415 1415 1415 1415 1415 1415 1421 1421 1421 1427 1427 1427 1433 1439 1439 1445 1452 1452 1464 1464 1594 1594 1594 1594 1594 1601 1601 1601 1601 1594 1594 1601 1594 1594 1594 1594 1594 1601 1601 1601 1609 1609 1609 1609 1609 1609 1609 1609 1609 1616 1616 1616 1616 1616 1616 1609 1601 1601 1601 1601 1601 1601 1601 1601 1601 1601 1601 1601 1601 1601 1601 1609 1609 1609 1609 1609 1609 1609 1609 1609 1609 1609 1609 1609 1609 1609 1609 1609 1609 1609 1609 1609 1616 1616 1616 1616 1616 1616 1616 1616 1616 1616 1616 1616 1616 1624 1624 1404 1404 1404 1404 1404 1404 1404 1404 1404 1404 1404 1410 1410 1415 1427 1427 1433 1616 1616 1616 1624 1624 1624 1624 1624 1624 1624 1624 1624 1624 1624 1624 1624 1624 1624 1632 1632 1632 1632 0 0 1813 1813 1813 1833 1833 1833 1843 1843 1843 1843 1843 1843 1843 1843 1843 1883 2467 2467 0 0 0 1307 1307 1307 1307 1307 1312 1312 1312 1312 1312 1312 1307 1307 1312 1312 1312 1317 1322 1322 1322 1322 1322 1317 1317 1317 1322 1322 1317 1317 1317 1317 1317 1317 1317 1312 1312 1312 1312 1312 1312 1312 1312 1312 1312 1312 1312 1307 1307 1307 1307 1307 1307 1307 1307 1307 1307 1307 1307 1307 1307 1307 1307 1307 1302 1297 1297 1297 1297 1297 1297 1297 1297 1297 1297 1297 1297 1297 1297 1297 1297 1297 1297 1297 1297 1297 1297 1297 1297 1297 1297 1297 1297 1297 1292 1292 1292 1292 1292 1292 1292 1292 1292 1292 1292 1297 1297 1297 1297 1297 1297 1297 1297 1297 1297 1297 1297 1297 1302 1302 1302 1297 1297 1297 1297 1292 1292 1288 1288 1283 1283 1283 1283 1278 1278 1278 1278 1278 1283 1283 1283 1288 0 0 0 0 0 0 2560 2560 2541 2541 2541 2541 2560 2560 2560 2560 1853 1853 1843 1843 1843 1843 1843 1843 1853 1843 1843 1843 1843 1843 2170 2170 2170 2170 2170 2170 2170 2156 2156 2156 2156 2156 2170 2170 2184 2541 2541 2541 2541 2541 2541 2541 2541 2541 2541 2541 2541 2541 2541 2541 2541 2541 2541 2541 2541 2541 2541 2541 2541 2541 0 1410 1410 1410 1410 1410 1410 1410 1410 1410 1410 1410 1410 1410 1410 1410 1410 1410 1410 1410 1410 1410 1410 1415 1415 1421 1415 1410 1410 1415 1415 1415 1415 1415 2503 2503 2503 2503 2503 2522 2522 2522 2522 2522 2522 2522 2522 2522 2541 2541 2541 2541 2541 2541 2541 2541 2541 2541 2541 2522 2522 2522 2522 2522 2522 2522 2522 2522 2522 2541 2522 2522 2522 2541 2541 2541 2541 2541 2541 2541 2541 2522 2522 2522 2522 2522 2522 2522 2541 2541 2541 2541 2541 2541 2541 2541 2541 2541 2541 2522 2522 2522 2522 2522 2522 2522 2522 2522 2503 2503 2503 2503 2503 2503 2503 2503 2503 2503 2503 2503 2503 2503 2503 2503 2503 2503 2503 2503 2503 2503 2503 2503 2503 2503 2503 2503 2503 2485 2485 2485 2485 2485 2485 2485 2485 2485 2503 2503 2485 2485 0 0 0 0 0 0 0 0 0 0
0 0 0 0 0 0 0 0 0 0 0 0 0 0 0 0 0 0 0 0 0 0 0 0 0 0 0 0 0 0 0 0 0 2381 2381 2381 2381 2398 2398 2398 2398 2398 2398 2381 2381 2365 2365 2365 2365 2381 2381 2381 2398 2398 2398 2398 2398 2398 2415 2398 2398 2398 2398 2398 2398 2381 2381 2398 2381 2381 2398 2398 2398 2381 2381 2398 2398 2398 2398 2381 2381 2381 2381 2398 2398 2398 0 1503 1503 1503 1503 1503 1509 1509 1509 1509 1509 1509 1509 1421 1421 1415 1415 1421 1421 1421 1421 1427 1427 1427 1427 1433 1433 1439 1439 1445 1452 1452 1464 1586 1586 1586 1586 1586 1594 1594 1594 1594 1594 1594 1594 1594 1594 1594 1594 1594 1594 1594 1594 1594 1601 1601 1601 1601 1601 1601 1601 1609 1609 1609 1609 1609 1609 1609 1609 1601 1601 1601 1601 1594 1594 1594 1601 1601 1601 1594 1594 1594 1601 1601 1601 1601 1601 1601 1609 1609 1609 1609 1609 1609 1601 1601 1601 1601 1601 1601 1601 1601 1609 1609 1609 1609 1609 1609 1609 1609 1609 1609 1609 1609 1609 1609 1609 1616 1616 1616 1616 1404 1404 1404 1404 1404 1410 1410 1404 1404 1410 1410 1410 1415 1427 1427 1433 1433 1616 1616 1616 1616 1616 1616 1616 1616 1624 1616 1616 1616 1616 1616 1616 1624 1624 1624 1624 1624 1624 1624 0 0 1813 1813 1813 1833 1833 1833 1843 1843 1843 1843 1843 1843 1853 1853 1853 1883 2450 2450 2450 2450 0 1307 1307 1307 1307 1312 1312 1312 1312 1312 1312 1312 1312 1312 1312 1312 1317 1317 1322 1322 1322 1322 1322 1322 1322 1322 1322 1322 1322 1317 1317 1317 1317 1317 1317 1317 1312 1312 1312 1312 1312 1312 1312 1312 1312 1312 1312 1312 1312 1307 1307 1307 1307 1307 1307 1307 1307 1307 1312 1312 1312 1307 1307 1307 1307 1297 1297 1297 1297 1297 1297 1302 1302 1297 1297 1297 1297 1297 1297 1297 1297 1297 1297 1297 1297 1297 1297 1297 1297 1297 1297 1297 1297 1297 1297 1297 1297 1297 1292 1292 1292 1292 1292 1292 1292 1297 1297 1297 1297 1297 1297 1297 1297 1297 1297 1302 1302 1302 1302 1302 1302 1302 1297 1297 1297 1297 1292 1288 1288 1288 1283 1283 1283 1278 1278 1283 1283 1283 1283 1283 1288 1288 0 0 0 0 0 0 2560 2560 2541 2541 2541 2541 2541 2541 2541 2541 1853 1853 1853 1853 1843 1843 1853 1853 1853 1843 1843 1843 1843 1843 2170 2170 2170 2170 2170 2170 2170 2156 2156 2156 2156 2156 2156 2156 2522 2522 2522 2522 2522 2522 2522 2541 2541 2541 2541 2541 2541 2541 2541 2541 2541 2541 2541 2541 2541 2541 2541 2522 2522 2522 0 1410 1410 1410 1410 1410 1410 1410 1410 1410 1410 1410 1410 1410 1410 1410 1410 1410 1410 1410 1410 1415 1415 1415 1415 1421 1415 1415 1415 1415 1415 1415 1415 1415 2503 2503 2503 2503 2503 2503 2503 2522 2522 2522 2522 2522 2522 2522 2522 2522 2522 2522 2522 2522 2522 2522 2541 2522 2522 2522 2522 2522 2522 2522 2522 2522 2522 2522 2522 2522 2522 2522 2522 2522 2522 2522 2522 2522 2522 2522 2522 2522 2522 2522 2522 2522 2522 2522 2522 2522 2522 2541 2522 2522 2522 2522 2522 2522 2522 2522 2522 2522 2522 2522 2522 2522 2522 2522 2503 2503 2503 2503 2503 2503 2503 2503 2503 2503 2503 2503 2503 2503 2503 2503 2485 2485 2485 2485 2485 2485 2485 2485 2485 2485 2485 2485 2485 2485 2467 2467 2485 2485 2485 2485 2485 2485 2485 2485 2485 2485 0 0 0 0 0 0 0 0 0 0
0 0 0 0 0 0 0 0 0 0 0 0 0 0 0 0 0 0 0 0 0 0 0 0 0 0 0 0 0 0 0 0 0 2381 2381 2381 2381 2381 2381 2381 2381 2381 2381 2365 2365 2365 2365 2365 2365 2381 2381 2381 2398 2398 2398 2398 2398 2398 2398 2398 2398 2398 2398 2398 2398 2381 2381 2381 2381 2381 2381 2381 2381 2381 2381 2381 2381 2381 2381 2381 2381 2381 2381 2381 2398 2398 0 1503 1503 1503 1503 1503 1509 1509 1509 1509 1509 1509 1509 1421 1421 1421 1421 1421 1421 1421 1421 1427 1427 1427 1433 1433 1433 1439 1439 1445 1452 1452 1464 1579 1579 1579 1579 1579 1586 1586 1594 1594 1594 1586 1586 1594 1594 1594 1594 1594 1594 1594 1594 1594 1594 1594 1594 1594 1594 1594 1594 1601 1601 1601 1601 1601 1601 1601 1601 1594 1594 1594 1594 1594 1594 1594 1594 1594 1594 1594 1594 1594 1594 1594 1594 1594 1594 1601 1601 1601 1601 1601 1601 1601 1601 1594 1594 1601 1601 1601 1601 1601 1601 1601 1601 1601 1601 1601 1609 1609 1609 1609 1609 1609 1609 1609 1609 1609 1609 1609 1616 1404 1404 1410 1410 1410 1410 1410 1410 1410 1410 1410 1410 1415 1427 1433 1433 1439 1609 1609 1609 1609 1609 1616 1616 1616 1616 1616 1616 1616 1616 1616 1616 1616 1616 1624 1624 1624 1624 1624 0 0 1833 1833 1833 1833 1833 1843 1843 1843 1843 1843 1843 1843 1853 1853 1853 2432 2450 2432 2432 2432 0 1307 0 1307 1307 1312 1312 1312 1312 1312 1312 1312 1312 1312 1312 1312 1317 1317 1322 1322 1328 1328 1328 1328 1322 1322 1322 1322 1322 1322 1322 1322 1317 1317 1322 1322 1317 1312 1312 1312 1312 1312 1312 1312 1312 1312 1312 1312 1312 1312 1307 1307 1307 1312 1312 1312 1312 1312 1312 1312 1312 1312 1312 1307 1307 1302 1302 1302 1302 1302 1302 1302 1302 1302 1302 1302 1302 1302 1302 1302 1302 1302 1302 1302 1302 1302 1302 1302 1302 1302 1302 1302 1302 1302 1297 1297 1297 1297 1297 1297 1297 1292 1292 1292 1292 1297 1297 1297 1297 1297 1302 1302 1297 1297 1302 1302 1302 1302 1302 1302 1302 1302 1297 1297 1297 1297 1292 1292 1288 1288 1283 1283 1283 1283 1283 1283 1283 1283 1283 1283 1288 1288 0 0 2212 0 0 0 2541 2541 2541 2541 2541 2541 2541 2541 2541 2541 2541 1863 1853 1853 1853 1853 1853 1853 1853 1843 1843 1843 1843 1843 2170 2170 2170 2170 2170 2170 2170 2156 2156 2156 2156 2156 2156 2156 2503 2522 2522 2522 2522 2522 2522 2522 2522 2522 2522 2522 2522 2522 2522 2522 2522 2522 2522 2541 2541 2541 2522 2522 2522 2522 0 1410 1410 1410 1410 1410 1410 1410 1410 1410 1410 1410 1410 1410 1410 1410 1410 1410 1410 1410 1415 1415 1415 1415 1415 1421 1415 1415 1415 1415 1415 1415 1415 1415 2503 2503 2503 2503 2503 2503 2503 2522 2503 2503 2503 2522 2522 2522 2522 2522 2522 2522 2522 2522 2522 2522 2522 2522 2522 2522 2522 2522 2522 2522 2522 2522 2522 2522 2522 2522 2522 2522 2522 2522 2522 2522 2522 2522 2522 2522 2522 2522 2522 2522 2522 2522 2522 2522 2522 2522 2522 2522 2522 2522 2522 2522 2522 2522 2522 2503 2503 2503 2503 2503 2503 2503 2503 2522 2503 2503 2503 2503 2503 2503 2503 2503 2503 2503 2503 2503 2503 2503 2485 2485 2485 2485 2485 2485 2485 2485 2485 2485 2485 2485 2485 2485 2485 2467 2467 2467 2467 2467 2467 2467 2467 2485 2485 2485 2485 2485 0 0 0 0 0 0 0 0 0 0
0 0 0 0 0 0 0 0 0 0 0 0 0 0 0 0 0 0 0 0 0 0 0 0 0 0 0 0 0 0 0 0 0 2365 2365 2365 2365 2365 2381 2381 2381 2365 2365 2365 2365 2365 2365 2365 2365 2365 2381 2381 2381 2398 2398 2398 2398 2398 2398 2398 2398 2398 2398 2398 2398 2381 2381 2381 2381 2381 2381 2381 2381 2381 2381 2381 2381 2381 2381 2381 2381 2381 2381 2381 2381 2381 0 1503 1503 1503 1503 1503 1509 1509 1509 1509 1509 1509 1509 1421 1421 1421 1421 1421 1421 1427 1427 1427 1427 1427 1433 1433 1433 1439 1439 1445 1445 1452 1452 1572 1572 1572 1572 1579 1579 1579 1586 1586 1586 1586 1586 1586 1586 1586 1586 1586 1586 1586 1586 1586 1594 1594 1586 1586 1594 1594 1594 1594 1594 1594 1594 1594 1594 1594 1594 1586 1586 1586 1586 1586 1586 1586 1586 1586 1586 1586 1586 1586 1586 1586 1586 1586 1586 1586 1594 1594 1594 1594 1594 1601 1601 1594 1594 1601 1594 1594 1594 1594 1594 1594 1594 1594 1594 1594 1601 1601 1601 1601 1601 1601 1601 1601 1601 1594 1594 1594 1601 1404 1404 1410 1410 1410 1410 1410 1410 1410 1410 1415 1415 1421 1427 1433 1439 1439 1445 1609 1609 1609 1609 1609 1609 1609 1609 1616 1609 1609 1609 1616 1616 1616 1616 1624 1624 1624 1624 1624 1647 0 1833 0 1833 1833 1843 1843 1843 1843 1843 1853 1853 1853 1853 1853 1853 2432 2450 2432 2432 2432 0 0 0 1307 1307 1312 1312 1312 1312 1312 1312 1312 1312 1312 1312 1312 1317 1317 1322 1322 1328 1328 1328 1328 1328 1328 1328 1328 1328 1328 1322 1322 1322 1322 1322 1322 1317 1317 1312 1312 1312 1312 1312 1312 1312 1312 1312 1312 1312 1312 1312 1312 1312 1312 1312 1312 1312 1312 1312 1312 1312 1312 1312 1312 1307 1302 1302 1302 1302 1302 1302 1302 1302 1302 1302 1302 1302 1302 1302 1302 1302 1302 1302 1302 1302 1302 1302 1302 1302 1302 1302 1302 1302 1302 1302 1302 1302 1297 1297 1297 1297 1297 1297 1297 1297 1297 1297 1297 1297 1302 1302 1302 1302 1302 1302 1302 1302 1302 1302 1302 1302 1302 1302 1302 1297 1297 1292 1292 1288 1288 1283 1283 1283 1283 1283 1283 1283 1283 1283 1288 1288 1288 0 2212 2212 2212 2212 2198 2184 2184 2541 2522 2522 2522 2522 2522 2522 2541 2541 1853 1853 1853 1853 1853 1853 1853 1853 1843 1843 1843 1843 1843 2170 2170 2170 2170 2170 2170 2170 2156 2156 2156 2156 2156 2156 2156 2503 2522 2503 2503 2503 2503 2503 2522 2522 2522 2522 2522 2522 2522 2522 2522 2522 2522 2522 2522 2541 2541 2522 2522 2522 2522 1421 1410 1410 1410 1410 1410 1410 1410 1410 1410 1410 1410 1410 1410 1410 1410 1410 1410 1415 1415 1415 1415 1415 1415 1421 1421 1415 1415 1415 1415 1415 1415 1415 1415 2485 2485 2485 2485 2503 2503 2503 2503 2503 2503 2503 2503 2503 2522 2503 2503 2503 2503 2503 2503 2503 2503 2503 2522 2503 2503 2503 2503 2503 2503 2503 2503 2522 2522 2522 2522 2522 2522 2522 2522 2503 2503 2503 2503 2503 2522 2503 2503 2503 2503 2503 2503 2503 2503 2522 2522 2503 2503 2503 2503 2503 2503 2503 2503 2503 2503 2503 2503 2503 2503 2503 2503 2503 2503 2485 2485 2485 2485 2485 2485 2485 2485 2485 2485 2485 2485 2485 2485 2485 2485 2467 2467 2467 2467 2467 2467 2467 2485 2467 2467 2467 2467 2467 2450 2450 2450 2450 2450 2467 2467 2467 2467 2467 2485 2467 2467 0 0 0 0 0 0 0 0 0 0
0 0 0 0 0 0 0 0 0 0 0 0 0 0 0 0 0 0 0 0 0 0 0 0 0 0 0 0 0 0 0 0 0 2365 2365 2365 2365 2365 2365 2365 2365 2365 2365 2365 2365 2365 2365 2365 2365 2365 2365 2365 2381 2381 2381 2381 2398 2398 2398 2381 2381 2398 2398 2398 2381 2365 2365 2381 2365 2365 2365 2381 2381 2365 2365 2365 2365 2365 2365 2365 2365 2365 2365 2365 2381 2381 0 1503 1503 1503 1503 1503 1509 1509 1509 1509 1509 1509 1509 1427 1427 1427 1427 1427 1427 1427 1427 1427 1427 1433 1433 1433 1439 1439 1439 1439 1445 1452 1452 1572 1564 1564 1572 1572 1579 1579 1579 1579 1586 1586 1586 1586 1586 1586 1579 1579 1579 1586 1586 1586 1586 1586 1586 1586 1586 1586 1586 1594 1586 1586 1594 1594 1594 1594 1586 1579 1579 1586 1579 1579 1579 1579 1586 1586 1586 1586 1586 1586 1586 1586 1586 1586 1586 1586 1586 1586 1586 1586 1586 1586 1586 1586 1586 1594 1594 1586 1586 1586 1586 1586 1586 1586 1586 1586 1594 1594 1594 1594 1594 1594 1594 1594 1594 1594 1594 1594 1601 1410 1410 1410 1410 1410 1415 1415 1415 1415 1415 1415 1415 1421 1433 1439 1439 1445 1445 1594 1594 1594 1594 1601 1601 1601 1609 1609 1609 1609 1609 1609 1616 1616 1616 1624 1624 1624 1632 1647 1647 1688 1833 1833 1833 1843 1843 1843 1843 1843 1843 1853 1853 1853 1853 1853 1853 2432 2450 2432 2432 2432 0 0 0 1312 1312 1312 1312 1312 1312 1312 1312 1312 1312 1312 1312 1317 1317 1317 1322 1328 1328 1328 1328 1328 1328 1328 1328 1328 1328 1328 1322 1322 1322 1322 1322 1322 1317 1317 1312 1312 1312 1312 1312 1312 1312 1312 1312 1312 1312 1312 1312 1312 1312 1312 1312 1312 1312 1312 1312 1312 1312 1312 1312 1312 1307 1307 1307 1307 1302 1302 1302 1302 1302 1302 1302 1302 1302 1302 1302 1302 1302 1302 1302 1302 1302 1302 1302 1302 1302 1302 1302 1302 1302 1302 1302 1302 1302 1302 1297 1297 1297 1297 1297 1297 1297 1302 1302 1302 1302 1302 1302 1302 1302 1302 1302 1302 1302 1302 1302 1302 1302 1302 1302 1302 1297 1297 1297 1292 1288 1288 1288 1288 1288 1283 1283 1288 1288 1288 1288 1288 1288 1288 1288 2212 2212 2212 2212 2198 2184 2184 2198 2522 2522 2522 2522 2522 2522 2541 2541 1853 1853 1853 1853 1853 1853 1853 1853 1853 1853 1843 1843 1843 2170 2170 2170 2170 2170 2170 2170 2170 2170 2156 2156 2156 2156 2485 2485 2503 2503 2503 2503 2503 2503 2503 2503 2503 2522 2522 2522 2522 2522 2522 2522 2522 2522 2522 2522 2541 2522 2522 2522 2522 1421 1421 1410 1410 1410 1410 1410 1410 1410 1410 1410 1410 1410 1410 1410 1410 1410 1410 1415 1415 1415 1415 1415 1415 1421 1421 1415 1415 1415 1415 1415 1415 1415 1415 2485 2485 2485 2485 2503 2503 2503 2503 2503 2503 2503 2503 2503 2503 2503 2503 2503 2503 2503 2503 2503 2503 2503 2503 2503 2503 2503 2503 2503 2503 2503 2503 2503 2503 2522 2522 2503 2503 2503 2503 2503 2503 2503 2503 2503 2503 2503 2503 2503 2503 2503 2503 2503 2503 2503 2503 2503 2503 2503 2503 2503 2503 2503 2503 2503 2503 2503 2503 2503 2503 2503 2503 2503 2503 2485 2485 2485 2485 2485 2485 2485 2485 2485 2485 2485 2485 2485 2485 2467 2467 2467 2450 2450 2450 2467 2467 2467 2467 2467 2467 2467 2467 2467 2450 2450 2450 2450 2450 2450 2450 2450 2450 2467 2467 2467 2467 0 0 0 0 0 0 0 0 0 0
0 0 0 0 0 0 0 0 0 0 0 0 0 0 0 0 0 0 0 0 0 0 0 0 0 0 0 0 0 0 0 0 0 2365 2365 2365 2365 2365 2365 2365 2365 2365 2349 2349 2349 2349 2349 2349 2365 2365 2365 2365 2365 2381 2381 2381 2381 2398 2398 2381 2381 2381 2381 2381 2381 2365 2365 2365 2365 2365 2365 2365 2365 2365 2365 2365 2365 2365 2365 2365 2365 2365 2365 2365 2365 2365 2349 1496 1496 1496 1503 1503 1509 1509 1509 1509 1509 1509 1509 1503 1427 1427 1427 1427 1427 1427 1427 1427 1433 1433 1433 1433 1439 1439 1439 1439 1445 1452 1452 1564 1557 1557 1564 1564 1564 1572 1572 1572 1579 1579 1579 1579 1579 1579 1579 1579 1579 1579 1579 1579 1579 1579 1579 1579 1586 1586 1586 1586 1586 1586 1586 1586 1586 1586 1586 1579 1579 1579 1579 1579 1579 1579 1579 1586 1586 1586 1586 1586 1579 1579 1579 1579 1579 1579 1586 1586 1586 1586 1586 1586 1586 1586 1586 1586 1586 1586 1586 1586 1586 1586 1586 1586 1586 1586 1586 1586 1586 1586 1586 1586 1586 1586 1586 1594 1594 1594 1421 1415 1415 1415 1415 1415 1415 1415 1415 1415 1421 1421 1421 1427 1433 1433 1439 1439 1445 1586 1594 1594 1594 1594 1594 1594 1601 1601 1601 1601 1601 1609 1609 1616 1616 1624 1632 1632 1632 1647 1688 1688 1833 1833 1833 1843 1843 1843 1843 1843 1853 1853 1853 1853 1853 1853 1853 2432 2432 2415 2415 2415 2415 0 1312 1312 1312 1312 1317 1317 1317 1317 1317 1317 1317 1312 1312 1317 1317 1322 1322 1328 1328 1328 1333 1333 1333 1333 1333 1333 1328 1328 1322 1322 1322 1322 1322 1322 1317 1317 1317 1317 1317 1312 1312 1312 1312 1312 1312 1312 1312 1312 1312 1312 1312 1312 1312 1312 1312 1312 1312 1312 1312 1312 1312 1312 1307 1307 1307 1307 1307 1302 1302 1302 1302 1302 1302 1302 1302 1302 1302 1302 1302 1302 1302 1302 1302 1302 1302 1302 1302 1302 1302 1302 1302 1302 1302 1302 1302 1302 1302 1302 1302 1302 1302 1302 1302 1302 1302 1302 1302 1302 1302 1302 1302 1302 1302 1307 1307 1307 1302 1302 1302 1302 1302 1302 1297 1297 1297 1292 1288 1288 1288 1288 1288 1288 1288 1288 1288 1288 1288 1288 1288 1288 2226 2212 2212 2212 2212 2198 2198 2198 2198 2522 2522 2522 2522 2522 2522 2522 2522 1853 1853 1853 1853 1853 1853 1853 1853 1853 1853 1843 1843 1843 2184 2170 2170 2170 2170 2170 2170 2170 2170 2170 2170 2156 2156 2485 2485 2503 2485 2485 2485 2485 2485 2485 2485 2485 2485 2503 2503 2522 2522 2503 2503 2503 2503 2522 2522 2541 2541 2541 2541 1421 1421 1415 1415 1410 1410 1410 1410 1410 1410 1410 1410 1410 1410 1410 1410 1410 1410 1415 1415 1415 1415 1421 1421 1421 1421 1421 1421 1421 1421 1421 1421 1415 1415 2485 2485 2485 2485 2485 2485 2485 2485 2485 2485 2485 2485 2503 2503 2503 2503 2485 2485 2485 2485 2485 2485 2485 2485 2503 2485 2485 2485 2485 2485 2503 2503 2503 2503 2503 2503 2503 2503 2503 2503 2503 2485 2485 2485 2485 2485 2503 2485 2485 2503 2503 2503 2503 2503 2503 2503 2503 2485 2485 2485 2485 2485 2485 2503 2503 2503 2503 2485 2485 2485 2485 2503 2503 2503 2503 2485 2485 2485 2485 2485 2485 2485 2485 2485 2485 2485 2485 2485 2485 2467 2467 2450 2450 2450 2450 2450 2450 2450 2467 2467 2467 2467 2450 2450 2450 2450 2450 2450 2450 2450 2450 2450 2450 2450 2450 2450 2450 0 0 0 0 0 0 0 0 0 0
0 0 0 0 0 0 0 0 0 0 0 0 0 0 0 0 0 0 0 0 0 0 0 0 0 0 0 0 0 0 0 0 0 2349 2349 2349 2349 2365 2365 2365 2349 2349 2349 2349 2349 2349 2349 2349 2349 2349 2349 2349 2365 2365 2365 2365 2349 2349 2365 2365 2365 2365 2381 2381 2381 2365 2365 2365 2365 2365 2349 2349 2349 2349 2349 2349 2365 2365 2365 2365 2365 2365 2349 2349 2349 2349 2349 1496 1496 1496 1496 1503 1509 1509 1509 1509 1509 1509 1509 1503 1427 1427 1427 1427 1427 1427 1427 1427 1433 1433 1433 1433 1439 1439 1439 1445 1452 1458 1557 1550 1550 1550 1557 1557 1557 1564 1564 1564 1572 1572 1572 1572 1572 1572 1572 1572 1572 1572 1572 1572 1572 1572 1572 1572 1579 1579 1579 1579 1579 1579 1579 1579 1572 1572 1572 1572 1572 1572 1572 1572 1572 1572 1579 1579 1579 1579 1579 1579 1579 1579 1579 1579 1579 1579 1579 1579 1579 1579 1579 1579 1579 1579 1579 1579 1579 1579 1579 1579 1579 1579 1579 1579 1579 1579 1579 1579 1579 1579 1586 1586 1586 1586 1586 1586 1586 1586 1421 1415 1415 1415 1415 1415 1415 1421 1421 1421 1421 1421 1421 1427 1427 1433 1439 1439 1445 1586 1586 1586 1586 1586 1586 1586 1594 1594 1594 1594 1594 1601 1609 1616 1616 1624 1632 1639 1639 1671 1671 1671 1843 1843 1843 1843 1843 1843 1843 1853 1853 1853 1853 1853 1853 1853 1853 2415 2415 2415 2415 2415 0 0 0 1317 1317 1317 1317 1322 1322 1322 1317 1317 1317 1317 1317 1317 1317 1322 1322 1328 1328 1328 1333 1333 1333 1333 1333 1333 1328 1328 1322 1322 1322 1322 1322 1317 1317 1317 1317 1317 1317 1317 1317 1317 1317 1317 1312 1312 1312 1312 1312 1312 1312 1312 1312 1312 1317 1317 1317 1317 1317 1317 1317 1312 1307 1307 1307 1307 1307 1307 1307 1307 1307 1307 1302 1302 1307 1307 1302 1302 1307 1307 1302 1302 1302 1307 1302 1302 1302 1302 1302 1302 1302 1302 1302 1307 1302 1302 1302 1302 1302 1302 1302 1302 1302 1302 1302 1302 1302 1302 1302 1302 1302 1302 1302 1307 1307 1307 1307 1307 1307 1307 1302 1302 1302 1297 1297 1292 1288 1288 1288 1288 1288 1288 1288 1288 1288 1288 1288 1288 1288 1288 2212 2198 2198 2198 2198 2184 2184 2198 2198 2522 2503 2503 2522 2522 2522 2522 2522 1853 1853 1853 1853 1853 1853 1853 1853 1853 1853 1853 1843 1843 2184 2184 2184 2184 2170 2170 2170 2170 2170 2170 2170 2170 2170 2467 2467 2485 2485 2467 2467 2467 2467 2467 2467 2485 2485 2485 2485 2485 2503 2503 2485 2485 2503 2503 2522 2541 2541 2541 1410 1410 1410 1410 1410 1410 1410 1410 1410 1410 1410 1410 1410 1410 1410 1410 1410 1415 1415 1415 1421 1415 1415 1421 1421 1421 1427 1421 1421 1421 1421 1415 1415 1410 1410 2485 2450 2450 2467 2467 2467 2485 2485 2485 2485 2485 2485 2485 2485 2485 2485 2485 2467 2467 2485 2485 2485 2485 2485 2485 2485 2485 2485 2485 2485 2485 2485 2485 2485 2485 2503 2503 2485 2485 2485 2485 2485 2485 2485 2467 2467 2485 2485 2485 2485 2485 2485 2485 2485 2485 2485 2485 2485 2485 2485 2467 2467 2485 2485 2485 2503 2503 2485 2485 2485 2485 2503 2503 2485 2485 2485 2467 2467 2467 2467 2467 2467 2467 2467 2485 2485 2467 2467 2467 2450 2450 2432 2432 2432 2432 2450 2450 2450 2450 2450 2450 2450 2450 2450 2450 2432 2432 2432 2432 2432 2432 2432 2432 2432 2432 2432 2432 0 0 0 0 0 0 0 0 0 0
0 0 0 0 0 0 0 0 0 0 0 0 0 0 0 0 0 0 0 0 0 0 0 0 0 0 0 0 0 0 0 0 0 2349 2349 2349 2349 2349 2349 2349 2349 2349 2349 2349 2349 2349 2349 2349 2349 2349 2349 2349 2349 2349 2349 2349 2349 2349 2349 2349 2349 2349 2349 2365 2365 2349 2333 2333 2349 2333 2333 2333 2333 2333 2333 2333 2349 2349 2349 2349 2349 2349 2349 2349 2349 2349 2349 2333 1496 1496 1496 1503 1509 1509 1509 1509 1509 1509 1509 1503 1503 1427 1427 1427 1427 1433 1433 1433 1433 1433 1433 1439 1439 1439 1445 1452 1452 1464 1557 1550 1550 1550 1557 1557 1557 1557 1557 1564 1564 1564 1564 1564 1564 1564 1564 1564 1564 1564 1564 1564 1564 1564 1564 1564 1572 1572 1572 1572 1572 1572 1572 1572 1572 1572 1572 1564 1564 1564 1564 1564 1564 1564 1564 1572 1572 1572 1572 1572 1572 1572 1572 1572 1572 1572 1572 1572 1572 1572 1572 1572 1572 1572 1572 1572 1572 1572 1572 1572 1572 1579 1579 1579 1579 1579 1579 1579 1579 1579 1579 1579 1579 1579 1579 1579 1579 1579 1421 1421 1421 1415 1415 1415 1421 1421 1421 1421 1421 1421 1421 1427 1427 1433 1433 1439 1445 1586 1586 1586 1579 1579 1579 1586 1586 1586 1586 1586 1586 1594 1609 1609 1616 1624 1639 1647 1647 1663 1663 1663 1843 1843 1843 1843 1843 1843 1853 1853 1853 1853 1853 1853 1853 1863 2398 2415 2415 2398 2398 2398 0 0 0 1322 1322 1322 1322 1322 1322 1322 1322 1322 1322 1317 1317 1317 1317 1322 1322 1322 1328 1328 1333 1333 1333 1333 1333 1564 1564 1572 1572 1322 1322 1322 1322 1317 1317 1322 1322 1317 1317 1317 1317 1317 1317 1317 1317 1317 1317 1317 1317 1317 1317 1317 1317 1317 1317 1317 1317 1317 1317 1317 1317 1312 1307 1307 1307 1307 1307 1307 1307 1307 1307 1307 1307 1307 1307 1307 1307 1307 1307 1307 1307 1307 1307 1307 1307 1302 1302 1307 1302 1302 1302 1302 1302 1307 1302 1302 1302 1302 1302 1302 1302 1302 1302 1302 1302 1302 1302 1302 1307 1307 1307 1307 1307 1307 1307 1307 1307 1307 1307 1307 1302 1302 1302 1297 1297 1292 1292 1288 1288 1288 1288 1288 1288 1288 1288 1288 1292 1288 1288 1288 2170 2170 2184 2198 2198 2184 2184 2184 2184 2198 2503 2503 2503 2503 2503 2503 2503 1853 1853 1853 1853 1853 1853 1853 1863 1863 1863 1863 1853 1853 2184 2184 2184 2170 2170 2170 2170 2170 2170 2170 2170 2170 2467 2467 2467 2467 2467 2467 2467 2467 2467 2467 2467 2467 2467 2467 2467 2485 2485 2485 2485 2485 2485 2503 2522 2541 2541 1410 1410 1410 1410 1410 1410 1410 1410 1410 1410 1410 1410 1410 1415 1415 1410 1410 1415 1415 1415 1415 1421 1415 1415 1421 1421 1421 1427 1421 1421 1421 1421 1415 1415 1410 1410 1410 2450 2450 2450 2450 2450 2467 2467 2467 2467 2467 2467 2467 2467 2467 2467 2467 2467 2467 2467 2467 2467 2485 2485 2485 2467 2467 2467 2467 2467 2467 2467 2467 2485 2485 2485 2485 2485 2485 2485 2485 2485 2467 2467 2467 2467 2467 2467 2467 2467 2485 2485 2485 2485 2485 2485 2467 2467 2467 2467 2467 2467 2467 2467 2467 2485 2485 2485 2485 2503 2503 2503 2485 2485 2485 2485 2467 2467 2467 2467 2467 2467 2467 2467 2467 2467 2450 2450 2450 2432 2432 2432 2432 2432 2432 2432 2432 2432 2432 2432 2450 2450 2432 2432 2432 2432 2432 2432 2432 2432 2432 2432 2432 2432 2432 2432 2432 0 0 0 0 0 0 0 0 0 0
0 0 0 0 0 0 0 0 0 0 0 0 0 0 0 0 0 0 0 0 0 0 0 0 0 0 0 0 0 0 0 0 0 2349 2333 2333 2349 2349 2349 2333 2333 2333 2333 2333 2333 2333 2333 2349 2333 2333 2349 2349 2349 2349 2349 2349 2349 2333 2333 2333 2349 2349 2349 2349 2349 2333 2333 2333 2333 2333 2333 2333 2333 2333 2333 2333 2333 2333 2333 2333 2333 2333 2333 2333 2333 2333 2333 2333 1496 1496 1496 1509 1509 1509 1509 1516 1516 1509 1509 1503 1503 1427 1427 1427 1427 1433 1433 1433 1433 1433 1433 1439 1439 1439 1445 1452 1464 1464 1477 1550 1550 1550 1557 1557 1557 1557 1557 1557 1557 1564 1564 1564 1564 1564 1564 1564 1564 1557 1557 1564 1564 1564 1564 1564 1564 1564 1572 1572 1572 1572 1572 1572 1572 1564 1564 1557 1557 1557 1557 1557 1564 1564 1564 1564 1564 1564 1564 1564 1564 1572 1564 1564 1572 1572 1572 1572 1572 1572 1572 1572 1572 1564 1564 1564 1564 1564 1564 1564 1564 1572 1572 1572 1579 1579 1579 1579 1579 1579 1579 1579 1579 1579 1579 1579 1579 1579 1427 1427 1421 1421 1421 1421 1421 1421 1421 1421 1421 1421 1427 1427 1427 1433 1433 1439 1445 1586 1586 1579 1579 1579 1579 1579 1586 1586 1586 1586 1586 1594 1601 1609 1616 1624 1639 1647 1647 1663 1663 1833 1833 1833 1843 1843 1843 1843 1853 1853 1853 1853 1853 1853 1853 1853 1863 2415 2415 2398 2398 2398 0 0 0 1328 1328 1328 1328 1328 1328 1328 1322 1322 1322 1322 1317 1317 1322 1322 1322 1322 1328 1328 1333 1564 1564 1564 1564 1564 1564 1572 1572 1572 1322 1322 1322 1322 1322 1322 1322 1317 1317 1317 1317 1317 1317 1317 1317 1317 1317 1317 1317 1317 1317 1317 1317 1317 1317 1317 1317 1317 1312 1312 1317 1312 1312 1312 1312 1307 1307 1307 1307 1307 1307 1307 1307 1307 1307 1307 1307 1307 1307 1307 1307 1307 1307 1307 1307 1307 1307 1307 1307 1307 1307 1307 1307 1307 1302 1302 1307 1307 1307 1307 1307 1307 1307 1307 1307 1307 1307 1307 1307 1307 1307 1307 1307 1307 1307 1307 1307 1307 1307 1307 1307 1302 1302 1302 1297 1292 1292 1292 1288 1288 1288 1288 1288 1288 1292 1292 1292 1292 1297 1297 2170 2170 2184 2198 2198 2184 2184 2184 2184 2184 2485 2485 2503 2503 2503 2503 2503 1853 1853 1853 1853 1853 1853 1853 1863 1863 1863 1863 1853 1853 2184 2184 2184 2170 2170 2170 2170 2170 2170 2170 2170 2184 2198 2467 2467 2467 2467 2467 2467 2467 2467 2467 2467 2467 2467 2467 2467 2467 2467 2467 2467 2467 2467 2485 2485 2485 1410 1410 1410 1410 1410 1410 1410 1410 1410 1410 1415 1415 1415 1415 1415 1415 1415 1415 1415 1415 1415 1415 1421 1415 1415 1421 1427 1427 1427 1421 1421 1421 1415 1415 1410 1410 1410 2415 2415 2415 2432 2450 2450 2450 2450 2450 2450 2450 2450 2450 2450 2450 2467 2450 2450 2450 2467 2467 2467 2467 2467 2467 2467 2467 2467 2467 2467 2467 2467 2467 2467 2467 2467 2467 2467 2467 2467 2467 2467 2467 2467 2450 2450 2450 2450 2467 2467 2467 2467 2467 2485 2467 2467 2467 2467 2467 2450 2450 2450 2450 2467 2467 2467 2467 2467 2485 2485 2485 2485 2485 2467 2467 2467 2450 2450 2450 2450 2467 2467 2467 2467 2467 2450 2432 2415 2415 2432 2415 2415 2415 2415 2415 2432 2432 2432 2432 2432 2432 2432 2432 2432 2432 2432 2432 2432 2432 2432 2432 2432 2432 2432 2432 2415 2415 0 0 0 0 0 0 0 0 0 0
0 0 0 0 0 0 0 0 0 0 0 0 0 0 0 0 0 0 0 0 0 0 0 0 0 0 0 0 0 0 0 0 0 2333 2333 2333 2349 2333 2333 2333 2333 2333 2333 2333 2333 2333 2333 2333 2333 2333 2333 2333 2333 2333 2333 2349 2333 2333 2333 2333 2333 2333 2333 2333 2333 2333 2333 2333 2333 2333 2333 2317 2317 2317 2317 2317 2317 2317 2317 2333 2333 2333 2333 2333 2333 2333 2333 2333 1496 1496 1496 1509 1509 1509 1509 1509 1509 1516 1516 1509 1503 1433 1433 1433 1433 1433 1433 1433 1433 1433 1433 1433 1439 1445 1445 1452 1464 1470 1477 1483 1536 1543 1550 1550 1550 1550 1550 1550 1550 1550 1550 1550 1550 1550 1550 1550 1557 1557 1557 1557 1557 1557 1557 1557 1557 1557 1557 1557 1564 1564 1557 1557 1557 1564 1564 1557 1557 1557 1557 1557 1557 1557 1557 1557 1557 1557 1557 1564 1564 1564 1564 1564 1564 1564 1564 1564 1564 1564 1564 1564 1564 1557 1557 1557 1557 1557 1557 1564 1564 1564 1564 1572 1564 1564 1572 1572 1572 1572 1572 1572 1572 1579 1579 1579 1579 1579 1427 1427 1421 1421 1421 1421 1421 1421 1421 1421 1421 1427 1427 1427 1427 1433 1439 1439 1445 1579 1579 1579 1579 1572 1572 1579 1579 1579 1579 1586 1586 1594 1601 1609 1616 1624 1639 1647 1647 1663 1663 1833 1833 1833 1843 1843 1843 1853 1853 1853 1853 1853 1853 1853 1853 1853 1863 2398 2398 2398 2398 2398 0 0 0 1328 1328 1328 1328 1328 1328 1328 1328 1328 1328 1322 1322 1322 1328 1328 1328 1328 1328 1328 1564 1564 1564 1564 1564 1564 1564 1572 1572 1572 1572 1322 1322 1322 1322 1322 1322 1322 1322 1317 1317 1317 1317 1317 1317 1317 1317 1317 1317 1317 1317 1317 1317 1317 1317 1317 1317 1317 1312 1312 1317 1317 1312 1312 1312 1312 1312 1307 1307 1307 1307 1307 1307 1307 1307 1307 1307 1307 1307 1307 1307 1307 1307 1307 1307 1307 1307 1307 1307 1307 1307 1307 1307 1307 1307 1307 1307 1307 1307 1307 1307 1307 1307 1307 1307 1307 1307 1307 1307 1307 1307 1307 1307 1307 1307 1307 1307 1312 1307 1307 1307 1307 1302 1302 1302 1297 1292 1292 1292 1292 1288 1288 1288 1292 1292 1297 1297 1297 1302 1302 2170 2170 2170 2184 2198 2184 2184 2184 2184 2184 2467 2467 2485 2485 2485 2503 1853 1853 1853 1853 1853 1853 1863 1863 1863 1863 1863 1853 1843 1843 2184 2184 2184 2184 2170 2170 2184 2184 2184 2184 2184 2184 2184 2467 2467 2467 2467 2467 2467 2467 2450 2450 2450 2450 2450 2450 2450 2467 2467 2467 2467 2467 2467 2467 2467 0 0 1415 1415 1415 1415 1415 1410 1410 1410 1415 1415 1415 1415 1415 1415 1421 1421 1421 1421 1421 1421 1427 1427 1427 1427 1427 1427 1427 1427 1427 1421 1421 1415 1415 1410 1410 1410 2415 2415 2415 2415 2432 2432 2432 2432 2432 2450 2432 2432 2450 2450 2450 2450 2450 2450 2450 2450 2450 2450 2450 2450 2467 2450 2450 2450 2467 2467 2467 2467 2467 2467 2467 2450 2450 2450 2450 2450 2450 2450 2450 2450 2450 2450 2450 2450 2450 2450 2450 2450 2467 2467 2467 2467 2450 2450 2450 2450 2450 2450 2450 2450 2450 2450 2467 2467 2467 2467 2467 2467 2467 2467 2467 2450 2432 2432 2432 2432 2432 2432 2432 2432 2432 2432 2415 2415 2415 2415 2415 2415 2415 2415 2415 2415 2432 2432 2415 2415 2432 2432 2432 2432 2432 2432 2432 2432 2432 2432 2432 2432 2415 2415 2415 2415 2415 2415 0 0 0 0 0 0 0 0 0
0 0 0 0 0 0 0 0 0 0 0 0 0 0 0 0 0 0 0 0 0 0 0 0 0 0 0 0 0 0 0 0 0 2317 2317 2333 2333 2333 2333 2317 2317 2333 2317 2317 2317 2333 2317 2317 2317 2317 2333 2333 2333 2333 2333 2333 2333 2333 2333 2333 2333 2333 2333 2333 2333 2317 2317 2317 2317 2333 2317 2317 2317 2317 2317 2317 2317 2317 2317 2333 2333 2317 2317 2317 2317 2317 2317 2317 1503 1503 1503 1509 1509 1509 1509 1509 1509 1516 1516 1516 1509 1509 1433 1433 1433 1433 1433 1433 1433 1433 1433 1433 1439 1445 1452 1458 1464 1470 1477 1483 1489 1536 1543 1550 1550 1550 1550 1550 1543 1543 1543 1543 1543 1543 1543 1543 1550 1550 1550 1550 1550 1550 1550 1550 1550 1550 1557 1557 1557 1557 1557 1557 1557 1557 1557 1550 1550 1550 1550 1550 1550 1550 1550 1550 1550 1550 1550 1557 1557 1557 1557 1557 1557 1557 1557 1557 1557 1557 1557 1557 1557 1557 1557 1557 1557 1557 1557 1557 1557 1557 1564 1564 1564 1564 1564 1564 1564 1564 1564 1572 1572 1572 1572 1572 1572 1572 1579 1427 1427 1427 1421 1421 1427 1427 1427 1427 1427 1427 1427 1427 1427 1433 1433 1433 1439 1572 1572 1572 1572 1572 1572 1572 1579 1579 1579 1586 1586 1594 1601 1609 1616 1624 1647 1647 1647 1663 1671 1853 1843 1843 1843 1853 1853 1853 1853 1853 1853 1853 1853 1853 1853 1853 2398 2398 2398 2398 2398 2398 0 0 0 1333 1328 1328 1328 1328 1328 1328 1328 1328 1328 1322 1322 1322 1328 1328 1328 1328 1328 1333 1564 1564 1564 1564 1564 1564 1564 1564 1572 1572 1572 1572 1572 1572 1564 1564 1572 1328 1322 1322 1572 1579 1579 1322 1317 1317 1317 1317 1317 1317 1322 1322 1317 1317 1317 1317 1317 1317 1312 1312 1317 1317 1312 1312 1312 1317 1312 1312 1312 1307 1307 1307 1307 1307 1307 1307 1307 1307 1312 1312 1307 1307 1307 1307 1307 1307 1307 1307 1302 1302 1302 1307 1307 1307 1307 1307 1307 1307 1307 1307 1307 1307 1307 1307 1307 1307 1307 1307 1307 1307 1307 1307 1312 1312 1312 1312 1312 1312 1312 1307 1307 1307 1302 1302 1302 1297 1297 1292 1292 1292 1292 1292 1292 1297 1297 1302 1302 1302 1307 1307 2170 2170 2170 2170 2198 2170 2170 2170 2184 2184 2467 2467 2467 2467 2485 1863 1853 1853 1853 1853 1853 1863 1863 1863 1863 1863 1863 1853 1833 1833 2184 2184 2184 2184 2184 2184 2184 2184 2184 2184 2184 2184 2184 2467 2450 2450 2450 2467 2450 2450 2450 2450 2450 2450 2450 2450 2450 2450 2450 2450 2450 2450 2450 2467 2467 0 0 1415 1415 1415 1415 1415 1415 1415 1415 1415 1415 1415 1415 1415 1415 1421 1421 1421 1421 1421 1427 1427 1427 1427 1427 1427 1427 1427 1427 1427 1427 1427 1421 1421 1421 1421 2432 2432 2415 2415 2415 2432 2432 2432 2432 2432 2432 2432 2432 2432 2432 2432 2432 2432 2432 2450 2450 2450 2450 2450 2450 2450 2450 2450 2450 2450 2450 2450 2450 2450 2432 2432 2432 2432 2432 2432 2432 2450 2450 2450 2450 2450 2450 2450 2450 2450 2450 2450 2450 2467 2467 2450 2450 2450 2450 2450 2450 2450 2450 2450 2450 2450 2450 2450 2467 2467 2467 2467 2467 2467 2467 2450 2450 2432 2432 2432 2432 2432 2432 2432 2432 2415 2415 2415 2415 2415 2415 2415 2415 2415 2398 2398 2415 2415 2415 2415 2415 2432 2432 2415 2415 2415 2415 2415 2415 2415 2415 2415 2415 2415 2415 2415 2415 2415 2415 0 0 0 0 0 0 0 0 0
0 0 0 0 0 0 0 0 0 0 0 0 0 0 0 0 0 0 0 0 0 0 0 0 0 0 0 0 0 0 0 0 0 2317 2317 2317 2333 2317 2317 2317 2317 2317 2317 2317 2317 2317 2317 2317 2301 2301 2317 2333 2333 2317 2317 2333 2333 2333 2333 2333 2333 2333 2333 2333 2333 2301 2301 2317 2317 2317 2301 2301 2317 2317 2317 2317 2317 2317 2317 2317 2317 2317 2317 2317 2317 2317 2317 2317 1503 1503 1503 1509 1509 1509 1509 1516 1516 1516 1516 1516 1516 1516 1516 1433 1433 1433 1433 1433 1433 1433 1433 1433 1439 1445 1452 1458 1470 1470 1477 1483 1489 1529 1536 1543 1543 1543 1543 1543 1543 1536 1536 1536 1536 1536 1543 1543 1543 1543 1543 1543 1543 1543 1543 1543 1543 1543 1550 1550 1550 1550 1550 1550 1550 1550 1550 1543 1543 1543 1543 1543 1543 1550 1550 1550 1550 1550 1550 1550 1550 1550 1550 1550 1550 1550 1550 1550 1550 1550 1550 1550 1550 1550 1550 1550 1550 1557 1557 1557 1557 1557 1557 1557 1557 1557 1557 1557 1557 1557 1557 1557 1557 1557 1557 1557 1557 1557 1557 1427 1427 1427 1427 1427 1427 1427 1427 1427 1427 1427 1427 1427 1427 1433 1433 1433 1439 1564 1564 1564 1564 1564 1564 1564 1564 1572 1572 1579 1586 1594 1601 1609 1624 1632 1647 1647 1647 1647 1647 1853 1843 1843 1843 1843 1853 1853 1853 1853 1853 1853 1853 1853 1853 1853 2398 2398 2398 2398 2398 0 0 0 0 1333 1328 1328 1328 1328 1328 1328 1328 1328 1328 1328 1328 1328 1328 1328 1328 1328 1557 1557 1557 1557 1557 1557 1564 1564 1564 1564 1564 1564 1564 1572 1572 1564 1564 1564 1564 1564 1572 1572 1572 1572 1572 1572 1557 1550 1317 1317 1322 1322 1322 1322 1317 1317 1317 1317 1312 1312 1312 1312 1317 1317 1312 1312 1312 1317 1317 1312 1312 1312 1312 1307 1307 1307 1312 1307 1307 1312 1312 1312 1312 1312 1312 1312 1307 1307 1307 1307 1302 1302 1302 1307 1307 1307 1307 1307 1307 1307 1307 1307 1307 1307 1307 1307 1307 1307 1312 1312 1312 1312 1312 1312 1317 1317 1317 1312 1312 1312 1312 1312 1307 1307 1302 1302 1302 1302 1297 1297 1297 1297 1292 1292 1292 1297 1302 1302 1302 1307 1307 1307 2170 2170 2170 2170 2184 2156 2156 2170 2170 2156 2156 2450 2450 2450 2450 1853 1853 1853 1853 1863 1863 1863 1863 1863 1863 1863 1863 1853 1833 1833 2184 2184 2184 2184 2184 2184 2184 2184 2184 2184 2184 2184 2198 2450 2450 2450 2450 2450 2450 2450 2450 2450 2450 2450 2432 2432 2432 2432 2450 2450 2450 2450 2450 2450 2450 2432 0 1421 1421 1421 1421 1415 1415 1415 1415 1415 1415 1415 1421 1415 1415 1421 1421 1421 1421 1421 1427 1427 1427 1427 1427 1427 1427 1433 1433 1433 1427 1427 1427 1427 1427 2415 2415 2415 2415 2415 2415 2415 2415 2415 2432 2432 2432 2432 2432 2432 2432 2432 2432 2432 2432 2432 2432 2432 2432 2432 2432 2432 2432 2432 2450 2432 2432 2432 2432 2432 2432 2432 2432 2432 2432 2432 2432 2432 2432 2432 2432 2432 2432 2432 2432 2450 2450 2450 2450 2450 2450 2450 2450 2450 2450 2450 2450 2450 2450 2450 2432 2432 2450 2450 2450 2450 2450 2450 2450 2450 2450 2450 2450 2415 2415 2415 2415 2415 2415 2415 2415 2415 2415 2415 2415 2415 2415 2398 2398 2398 2398 2398 2398 2415 2415 2415 2415 2432 2432 2415 2415 2415 2415 2415 2415 2415 2415 2415 2415 2415 2415 2415 2415 2415 2415 0 0 0 0 0 0 0 0 0
0 0 0 0 0 0 0 0 0 0 0 0 0 0 0 0 0 0 0 0 0 0 0 0 0 0 0 0 0 0 0 0 0 2301 2301 2301 2317 2317 2301 2301 2301 2317 2317 2317 2317 2317 2286 2286 2286 2286 2317 2317 2317 2317 2317 2317 2317 2317 2317 2317 2317 2317 2317 2317 2317 2301 2301 2301 2301 2301 2286 2286 2301 2301 2301 2301 2301 2317 2317 2317 2317 2317 2317 2317 2317 2317 2317 2317 1509 1509 1509 1509 1509 1516 1516 1516 1516 1516 1523 1516 1516 1516 1516 1433 1433 1433 1433 1433 1433 1433 1439 1439 1439 1445 1452 1458 1464 1470 1477 1483 1489 1516 1536 1536 1543 1536 1536 1536 1536 1536 1536 1536 1536 1536 1536 1536 1536 1536 1536 1536 1536 1536 1536 1536 1536 1536 1543 1543 1550 1550 1543 1543 1550 1550 1550 1543 1543 1543 1543 1543 1543 1543 1543 1543 1543 1543 1550 1550 1550 1550 1550 1550 1550 1550 1550 1550 1550 1550 1550 1550 1550 1550 1550 1550 1550 1550 1550 1550 1557 1557 1557 1557 1557 1550 1550 1550 1550 1550 1550 1550 1550 1550 1550 1550 1550 1550 1557 1427 1427 1427 1427 1427 1427 1427 1427 1427 1427 1427 1427 1427 1427 1433 1433 1433 1543 1543 1550 1550 1557 1557 1557 1557 1557 1564 1572 1579 1586 1594 1601 1609 1624 1632 1647 1639 1639 1639 1853 1843 1843 1843 1843 1843 1843 1853 1853 1853 1853 1853 1853 1853 1853 1853 1853 2381 2381 2398 2398 2398 0 0 0 1333 1333 1328 1328 1333 1328 1328 1328 1328 1328 1328 1328 1328 1333 1333 1333 1333 1557 1557 1557 1557 1557 1557 1557 1557 1557 1557 1557 1557 1557 1557 1557 1557 1557 1564 1564 1564 1564 1564 1564 1564 1564 1557 1557 1550 1543 1543 1550 1550 1550 1550 1557 1328 1328 1557 1312 1312 1312 1312 1317 1317 1312 1312 1317 1322 1322 1322 1322 1322 1322 1312 1312 1312 1312 1307 1307 1307 1312 1312 1312 1312 1312 1312 1307 1307 1307 1307 1307 1302 1302 1307 1307 1307 1307 1307 1307 1307 1307 1307 1302 1302 1307 1307 1307 1307 1312 1312 1317 1317 1317 1317 1312 1312 1312 1312 1312 1317 1312 1312 1307 1307 1307 1302 1302 1302 1302 1297 1297 1297 1297 1297 1297 1297 1302 1302 1302 1307 1307 1307 2170 2170 2170 2170 2170 2156 2156 2156 2156 2156 2156 2450 2432 2432 2432 1853 1853 1853 1853 1863 1863 1863 1863 1863 1863 1863 1863 1853 1823 1823 2184 2184 2184 2184 2184 2184 2184 2184 2184 2184 2184 2184 2198 2450 2450 2450 2450 2450 2450 2450 2432 2432 2432 2432 2432 2415 2415 2432 2432 2432 2432 2432 2450 2432 2432 0 0 0 1421 1421 1421 1415 1415 1415 1415 1415 1421 1421 1421 1421 1421 1421 1421 1427 1427 1427 1427 1427 1427 1427 1427 1427 1433 1433 1433 1433 1427 1427 1427 1427 1427 2415 2415 2415 2398 2398 2398 2398 2398 2398 2415 2415 2432 2432 2432 2432 2415 2415 2415 2415 2415 2432 2432 2432 2432 2432 2432 2432 2432 2432 2432 2432 2432 2432 2432 2432 2432 2432 2432 2432 2432 2432 2432 2432 2432 2432 2432 2432 2432 2432 2432 2432 2432 2432 2432 2432 2432 2432 2432 2432 2432 2432 2432 2432 2432 2432 2432 2432 2432 2432 2450 2450 2450 2450 2450 2450 2450 2432 2432 2415 2415 2415 2398 2398 2398 2415 2415 2415 2415 2415 2415 2415 2415 2398 2398 2398 2398 2398 2398 2398 2398 2398 2415 2415 2415 2415 2415 2415 2415 2398 2398 2398 2398 2398 2398 2398 2398 2415 2415 2415 2415 0 0 0 0 0 0 0 0 0
0 0 0 0 0 0 0 0 0 0 0 0 0 0 0 0 0 0 0 0 0 0 0 0 0 0 0 0 0 0 0 0 0 2286 2286 2301 2301 2301 2301 2301 2301 2301 2301 2301 2301 2301 2271 2271 2286 2286 2286 2317 2301 2301 2301 2317 2317 2317 2301 2301 2301 2301 2301 2301 2301 2286 2286 2286 2286 2286 2286 2286 2286 2286 2286 2286 2301 2317 2317 2317 2301 2301 2317 2301 2301 2317 2317 2317 1509 1509 1509 1509 1509 1516 1516 1516 1516 1523 1523 1523 1523 1523 1516 1433 1433 1433 1433 1433 1433 1433 1439 1439 1439 1445 1452 1458 1464 1470 1470 1483 1489 1516 1529 1536 1536 1536 1536 1536 1529 1529 1529 1529 1529 1529 1529 1529 1536 1536 1529 1529 1529 1529 1529 1536 1536 1536 1536 1536 1543 1543 1536 1536 1543 1543 1543 1536 1536 1536 1536 1536 1536 1536 1536 1536 1536 1536 1543 1543 1543 1543 1550 1543 1543 1543 1543 1543 1543 1543 1543 1543 1543 1543 1550 1550 1550 1550 1550 1550 1550 1550 1550 1550 1550 1543 1543 1543 1543 1550 1550 1550 1550 1550 1550 1550 1543 1543 1543 1550 1427 1427 1427 1427 1427 1427 1427 1427 1427 1427 1427 1427 1427 1433 1433 1433 1543 1543 1543 1550 1550 1550 1550 1557 1557 1557 1564 1579 1586 1594 1601 1616 1624 1632 1647 1639 1639 1639 1853 1843 1843 1843 1843 1843 1843 1843 1853 1853 1853 1853 1853 1853 1853 1853 1853 2381 2381 2381 2381 0 0 0 0 1333 1333 1333 1333 1333 1333 1333 1333 1333 1328 1328 1328 1333 1333 1338 1338 1343 1550 1550 1550 1557 1557 1557 1557 1557 1557 1557 1557 1550 1550 1557 1550 1550 1550 1557 1557 1557 1564 1564 1564 1557 1550 1550 1550 1550 1550 1550 1550 1550 1550 1550 1550 1557 1557 1557 1550 1312 1312 1550 1550 1543 1543 1543 1543 1543 1543 1543 1543 1550 1550 1550 1557 1557 1557 1557 1307 1307 1312 1312 1312 1312 1312 1312 1307 1307 1307 1307 1307 1307 1307 1307 1307 1307 1307 1307 1307 1307 1307 1307 1302 1302 1557 1307 1307 1312 1317 1322 1322 1317 1317 1317 1312 1312 1312 1312 1312 1317 1312 1312 1307 1307 1302 1302 1302 1302 1302 1302 1302 1297 1297 1297 1302 1302 1302 1302 1302 1302 1307 1307 1307 2170 2170 2170 2156 2143 2143 2143 2156 2143 2143 2143 2415 2415 2415 1853 1853 1853 1853 1863 1863 1863 1863 1863 1863 1863 1863 1853 1823 1823 2184 2184 2184 2184 2184 2184 2184 2184 2198 2184 2184 2198 2198 2432 2432 2432 2432 2432 2432 2432 2432 2415 2415 2415 2415 2415 2415 2415 2432 2432 2432 2432 2432 2432 2432 0 0 0 1421 1421 1421 1415 1415 1415 1421 1421 1421 1421 1421 1421 1421 1421 1427 1427 1427 1427 1427 1433 1433 1433 1433 1433 1433 1433 1433 1433 1427 1427 1427 1427 2381 2381 2381 2398 2398 2398 2398 2398 2398 2398 2415 2415 2415 2415 2415 2432 2415 2415 2415 2415 2415 2415 2415 2415 2415 2415 2415 2415 2415 2415 2432 2432 2432 2432 2432 2432 2432 2432 2432 2432 2415 2415 2415 2415 2415 2415 2415 2432 2432 2432 2432 2432 2432 2432 2432 2432 2432 2432 2432 2432 2432 2432 2432 2432 2432 2415 2415 2432 2432 2432 2432 2432 2432 2432 2432 2432 2432 2415 2398 2381 2381 2381 2381 2381 2381 2398 2398 2398 2398 2415 2415 2415 2415 2398 2398 2398 2381 2381 2381 2398 2398 2398 2415 2415 2415 2415 2415 2415 2415 2398 2381 2381 2381 2381 2381 2398 2398 2398 2398 2398 2398 0 0 0 0 0 0 0 0 0
0 0 0 0 0 0 0 0 0 0 0 0 0 0 0 0 0 0 0 0 0 0 0 0 0 0 0 0 0 0 0 0 0 2271 2271 2286 2286 2286 2286 2286 2286 2301 2286 2286 2286 2286 2271 2271 2286 2286 2286 2286 2286 2301 2301 2301 2301 2301 2286 2286 2301 2301 2301 2301 2301 2286 2286 2286 2286 2286 2271 2271 2286 2286 2286 2286 2286 2286 2286 2286 2301 2301 2301 2301 2301 2301 2301 2301 1509 1509 1509 1509 1509 1509 1516 1516 1516 1516 1523 1523 1523 1523 1516 1439 1439 1439 1439 1439 1439 1439 1439 1439 1445 1452 1452 1458 1464 1470 1470 1483 1489 1509 1523 1529 1529 1529 1529 1529 1529 1529 1529 1529 1529 1529 1529 1529 1529 1529 1529 1529 1529 1529 1529 1529 1536 1529 1529 1536 1536 1536 1536 1536 1536 1536 1536 1529 1529 1529 1529 1529 1529 1529 1529 1529 1529 1529 1536 1536 1536 1536 1536 1536 1536 1536 1536 1536 1536 1536 1543 1543 1536 1536 1543 1543 1543 1543 1543 1543 1543 1543 1543 1536 1536 1536 1536 1536 1536 1536 1536 1543 1536 1536 1543 1536 1536 1536 1536 1543 1427 1427 1427 1427 1427 1427 1427 1427 1427 1427 1427 1427 1433 1439 1433 1433 1536 1536 1543 1543 1550 1550 1550 1550 1550 1557 1557 1564 1586 1594 1601 1616 1624 1632 1647 1639 1639 2365 2365 2381 1853 1843 1843 1843 1843 1843 1853 1853 1853 1853 1853 1853 1853 1853 1853 2381 2381 2381 2381 2381 0 0 0 1333 1333 1333 1333 1333 1333 1333 1333 1333 1333 1333 1333 1333 1338 1343 1343 1349 1354 1543 1550 1550 1550 1550 1543 1543 1543 1550 1550 1550 1550 1550 1543 1536 1536 1536 1536 1536 1550 1550 1550 1550 1550 1550 1550 1550 1550 1550 1550 1550 1550 1550 1550 1550 1550 1550 1550 1550 1550 1550 1550 1543 1543 1543 1543 1543 1543 1543 1543 1550 1550 1550 1543 1543 1543 1543 1543 1550 1550 1550 1312 1312 1317 1550 1550 1307 1307 1550 1550 1550 1307 1307 1550 1543 1543 1543 1550 1550 1550 1550 1550 1550 1550 1550 1550 1550 1557 1557 1557 1557 1322 1322 1317 1317 1317 1312 1312 1317 1317 1312 1307 1307 1302 1302 1302 1302 1302 1302 1302 1302 1302 1302 1302 1302 1302 1302 1302 1302 1307 1307 0 2156 2156 2156 2156 2143 2143 2143 2143 2143 2143 2143 2398 2398 2398 1853 1853 1853 1853 1863 1863 1863 1863 1863 1863 1863 1853 1843 1823 1823 2184 2184 2184 2198 2198 2198 2198 2198 2198 2198 2198 2198 2198 2415 2415 2432 2432 2432 2432 2415 2415 2415 2415 2415 2415 2415 2415 2415 2415 2415 2415 2415 2432 2432 2450 0 0 0 1427 1427 1421 1421 1421 1421 1421 1421 1421 1421 1427 1427 1427 1427 1427 1427 1427 1427 1427 1433 1433 1433 1433 1433 1433 1433 1433 1433 1427 1427 1427 1427 2381 2381 2381 2398 2398 2398 2398 2398 2398 2398 2415 2415 2415 2415 2415 2415 2398 2398 2398 2398 2415 2415 2398 2398 2398 2398 2398 2398 2398 2415 2415 2415 2415 2415 2415 2415 2415 2415 2415 2415 2415 2415 2415 2415 2415 2415 2415 2415 2415 2432 2432 2432 2415 2415 2415 2415 2398 2398 2398 2398 2398 2398 2398 2415 2415 2415 2415 2415 2415 2415 2415 2432 2432 2432 2432 2432 2415 2398 2398 2381 2381 2381 2365 2365 2365 2365 2365 2365 2381 2381 2398 2398 2398 2398 2381 2381 2381 2381 2381 2381 2381 2381 2398 2398 2398 2398 2398 2415 2415 2398 2381 2381 2381 2381 2381 2381 2381 2381 2398 2398 2398 0 0 0 0 0 0 0 0 0
0 0 0 0 0 0 0 0 0 0 0 0 0 0 0 0 0 0 0 0 0 0 0 0 0 0 0 0 0 0 0 0 0 2271 2271 2271 2286 2286 2286 2286 2286 2286 2286 2286 2271 2271 2271 2271 2286 2286 2286 2286 2286 2286 2286 2301 2301 2286 2286 2286 2286 2301 2286 2286 2286 2286 2271 2271 2271 2271 2271 2271 2271 2271 2271 2271 2286 2286 2286 2271 2271 2271 2271 2271 2271 2301 2301 2301 1516 1509 1509 1509 1509 1509 1516 1516 1516 1516 1523 1523 1523 1523 1523 1433 1433 1433 1445 1445 1439 1439 1445 1445 1445 1452 1452 1458 1464 1470 1470 1477 1489 1503 1516 1516 1523 1523 1523 1523 1523 1523 1523 1523 1523 1529 1529 1529 1529 1529 1529 1529 1523 1523 1523 1529 1529 1529 1529 1529 1529 1529 1529 1529 1536 1536 1536 1529 1529 1529 1529 1529 1529 1529 1529 1529 1523 1523 1529 1529 1529 1529 1529 1529 1529 1529 1529 1529 1529 1536 1536 1536 1536 1536 1536 1536 1536 1529 1529 1536 1536 1536 1529 1529 1529 1529 1529 1529 1536 1536 1536 1536 1536 1536 1536 1536 1529 1529 1529 1536 1427 1427 1427 1427 1427 1433 1433 1433 1433 1433 1433 1433 1433 1439 1439 1433 1433 1536 1536 1543 1543 1543 1550 1550 1550 1557 1557 1557 1564 1594 1609 1624 1632 1639 1647 1647 2365 2365 2365 2365 2381 2381 1853 1853 1853 1853 1853 1853 1853 1853 1853 1853 1853 1853 1853 2381 2381 2365 2365 2365 0 0 0 0 1333 1333 1333 1333 1333 1333 1333 1333 1333 1333 1333 1338 1338 1343 1349 1349 1354 1536 1543 1543 1543 1543 1536 1536 1543 1543 1543 1543 1543 1543 1536 1536 1536 1529 1529 1529 1536 1536 1543 1543 1543 1543 1543 1543 1543 1543 1543 1543 1543 1543 1543 1550 1550 1550 1550 1550 1550 1550 1550 1536 1536 1543 1543 1543 1543 1543 1543 1543 1543 1543 1543 1543 1543 1543 1543 1543 1543 1543 1543 1543 1543 1543 1543 1543 1543 1550 1543 1543 1543 1543 1543 1543 1543 1543 1543 1543 1550 1550 1550 1550 1550 1550 1550 1550 1550 1557 1550 1550 1550 1550 1543 1543 1543 1543 1543 1543 1543 1543 1543 1543 1307 1307 1307 1307 1302 1302 1302 1302 1302 1302 1302 1302 1302 1302 1302 1302 1307 1307 1302 2156 2156 2156 2156 2143 2129 2129 2143 2143 2129 2129 2398 2398 2398 1853 1853 1863 1863 1863 1863 1863 1863 1863 1863 1863 1853 1843 1823 1823 2184 2184 2198 2198 2198 2198 2198 2198 2198 2198 2198 2198 2212 2415 2415 2415 2415 2415 2415 2415 2415 2398 2398 2398 2398 2398 2398 2398 2398 2398 2398 2415 2415 2415 2415 0 0 0 1427 1427 1421 1421 1421 1421 1421 1421 1427 1427 1427 1427 1427 1427 1427 1427 1427 1427 1427 1433 1433 1433 1433 1433 1433 1433 1433 1433 1427 1427 1427 1427 2398 2398 2398 2398 2398 2398 2398 2398 2398 2398 2398 2398 2398 2398 2398 2398 2398 2398 2398 2398 2398 2398 2398 2398 2398 2398 2398 2398 2398 2398 2398 2398 2398 2398 2398 2398 2398 2398 2398 2398 2398 2398 2398 2398 2398 2398 2398 2415 2415 2415 2415 2415 2415 2415 2415 2398 2398 2398 2398 2398 2398 2398 2398 2415 2415 2415 2415 2415 2415 2415 2415 2415 2415 2415 2415 2415 2398 2398 2381 2381 2381 2365 2365 2365 2365 2365 2365 2365 2365 2381 2381 2381 2381 2381 2381 2365 2349 2349 2365 2365 2365 2365 2365 2365 2365 2365 2365 2365 2381 2365 2365 2365 2365 2365 2365 2365 2365 2365 2381 2381 2381 0 0 0 0 0 0 0 0 0
0 0 0 0 0 0 0 0 0 0 0 0 0 0 0 0 0 0 0 0 0 0 0 0 0 0 0 0 0 0 0 0 0 2271 2271 2271 2271 2271 2271 2271 2271 2271 2286 2286 2271 2271 2271 2271 2286 2286 2286 2286 2286 2286 2286 2286 2286 2286 2286 2286 2286 2286 2286 2286 2286 2271 2271 2271 2271 2271 2271 2271 2271 2271 2271 2271 2271 2271 2271 2271 2271 2271 2271 2271 2271 2286 2286 2286 1516 1509 1509 1509 1509 1516 1516 1516 1516 1516 1523 1523 1523 1523 1523 1433 1433 1433 1452 1452 1445 1445 1445 1445 1445 1452 1452 1458 1464 1470 1470 1477 1489 1503 1509 1509 1509 1516 1516 1516 1516 1516 1516 1523 1523 1523 1523 1523 1523 1523 1523 1523 1516 1516 1523 1523 1523 1523 1523 1529 1529 1529 1529 1529 1529 1529 1529 1529 1529 1529 1523 1523 1523 1523 1523 1523 1523 1523 1523 1523 1523 1523 1529 1529 1529 1529 1529 1529 1529 1529 1529 1529 1529 1529 1529 1529 1529 1529 1529 1529 1529 1529 1529 1523 1523 1523 1523 1529 1529 1529 1529 1529 1529 1529 1529 1529 1529 1529 1529 1529 1529 1427 1427 1433 1433 1433 1433 1433 1433 1433 1433 1433 1433 1439 1439 1433 1433 1529 1536 1536 1543 1543 1543 1550 1550 1550 1557 1557 1564 1601 1624 1632 1639 1639 1639 1647 2365 2349 2349 2365 2365 2381 2381 1853 1853 1853 1853 1853 1853 1853 1853 1853 1853 1853 2381 2381 2381 2365 2365 2365 2365 0 0 0 1333 1333 1333 1333 1333 1333 1333 1333 1333 1333 1338 1338 1343 1343 1349 1349 1354 1529 1536 1536 1536 1529 1529 1529 1529 1536 1536 1536 1536 1536 1529 1529 1529 1529 1529 1529 1529 1536 1536 1536 1536 1536 1536 1536 1536 1536 1543 1536 1536 1543 1543 1543 1543 1543 1543 1543 1543 1543 1543 1536 1536 1536 1536 1536 1536 1536 1536 1536 1536 1536 1536 1536 1536 1543 1543 1543 1543 1543 1543 1536 1536 1536 1536 1536 1536 1536 1543 1543 1543 1543 1543 1543 1543 1543 1543 1543 1543 1543 1543 1543 1543 1543 1543 1550 1550 1550 1550 1550 1550 1550 1543 1543 1543 1543 1543 1543 1543 1543 1543 1543 1543 1307 1307 1307 1302 1302 1302 1302 1302 1302 1302 1302 1302 1302 1302 1302 1302 1302 1302 2156 2156 2156 2143 2129 2129 2129 2129 2129 2129 2129 2129 2398 2398 1863 1863 1863 1863 1863 1863 1863 1863 1863 1853 1853 1853 1843 1823 1823 2198 2198 2198 2198 2198 2198 2198 2198 2198 2198 2198 2198 2212 2398 2398 2398 2398 2398 2398 2398 2398 2398 2398 2398 2398 2398 2398 2398 2398 2398 2398 2398 2398 2398 2415 2415 0 1421 1421 1421 1421 1421 1421 1421 1427 1427 1427 1427 1427 1427 1427 1427 1427 1427 1427 1427 1427 1433 1433 1433 1433 1433 1433 1433 1433 1433 1427 1427 1427 1427 2398 2398 2398 2398 2381 2381 2381 2381 2381 2381 2398 2398 2398 2398 2398 2398 2381 2381 2381 2381 2381 2381 2381 2381 2381 2381 2381 2381 2381 2381 2381 2381 2381 2381 2381 2398 2398 2398 2398 2398 2398 2398 2398 2398 2398 2398 2398 2398 2415 2415 2415 2398 2398 2398 2398 2398 2398 2398 2398 2381 2381 2381 2381 2398 2398 2398 2398 2398 2398 2398 2398 2398 2398 2381 2381 2398 2381 2381 2381 2365 2365 2365 2365 2365 2365 2365 2365 2365 2365 2365 2365 2365 2365 2365 2365 2365 2349 2349 2349 2365 2365 2365 2365 2365 2365 2365 2365 2365 2349 2349 2349 2349 2349 2349 2349 2349 2349 2349 2349 2365 2365 0 0 0 0 0 0 0 0 0
0 0 0 0 0 0 0 0 0 0 0 0 0 0 0 0 0 0 0 0 0 0 0 0 0 0 0 0 0 0 0 0 0 2271 2271 2271 2271 2271 2271 2271 2271 2271 2271 2271 2271 2271 2271 2271 2271 2271 2271 2286 2286 2286 2286 2286 2286 2286 2286 2286 2286 2286 2286 2286 2286 2271 2271 2271 2271 2256 2256 2256 2271 2271 2271 2271 2256 2256 2256 2256 2256 2256 2271 2286 2286 2286 2286 2286 1523 1523 1516 1516 1516 1516 1516 1516 1516 1516 1523 1523 1523 1523 1523 1458 1433 1433 1452 1452 1452 1452 1452 1452 1452 1452 1452 1458 1464 1470 1477 1483 1489 1496 1503 1503 1509 1509 1516 1509 1509 1509 1516 1516 1516 1516 1509 1509 1516 1523 1523 1523 1516 1516 1516 1523 1516 1516 1516 1523 1523 1523 1523 1523 1529 1529 1529 1529 1523 1523 1516 1516 1516 1516 1516 1516 1516 1516 1516 1516 1516 1523 1523 1523 1523 1523 1523 1523 1523 1523 1523 1523 1523 1523 1523 1523 1523 1523 1523 1523 1523 1523 1523 1523 1523 1523 1523 1523 1523 1529 1529 1529 1529 1529 1529 1529 1529 1523 1523 1529 1523 1427 1427 1433 1433 1433 1433 1433 1433 1433 1433 1433 1433 1439 1439 1445 1452 1523 1529 1536 1543 1543 1543 1550 1550 1550 1550 1557 1557 1609 1624 1632 1639 1639 1639 2349 2349 2349 2349 2349 2365 2365 2381 1853 1853 1853 1853 1853 1853 1853 1853 1853 1853 1873 1873 2365 2365 2365 2365 2365 2365 0 0 0 1333 1333 1333 1338 1338 1338 1338 1333 1333 1338 1338 1338 1343 1343 1349 1349 1354 1529 1529 1529 1529 1529 1529 1529 1529 1529 1529 1529 1529 1529 1529 1529 1529 1529 1523 1523 1529 1529 1529 1529 1529 1529 1529 1529 1529 1529 1529 1529 1529 1529 1529 1536 1543 1543 1543 1543 1543 1543 1543 1536 1536 1536 1536 1536 1536 1536 1536 1536 1536 1529 1529 1536 1536 1536 1536 1536 1536 1536 1536 1536 1529 1529 1529 1529 1529 1529 1529 1529 1536 1536 1536 1536 1536 1536 1536 1536 1536 1536 1536 1536 1536 1536 1536 1536 1536 1536 1536 1536 1536 1536 1543 1536 1536 1543 1543 1543 1543 1543 1543 1543 1543 1543 1307 1307 1307 1302 1302 1302 1302 1302 1302 1307 1307 1307 1302 1302 1292 1292 1292 0 2156 2143 2143 2129 2116 2116 2116 2116 2116 2129 2129 2129 1863 1863 1863 1863 1863 1863 1863 1863 1863 1863 1853 1853 1853 1843 1823 1823 2198 2198 2198 2198 2198 2198 2198 2198 2198 2198 2198 2212 2226 2398 2398 2398 2398 2398 2398 2398 2398 2398 2398 2398 2398 2398 2398 2398 2398 2398 2398 2398 2398 2398 2398 2398 0 1421 1421 1421 1421 1421 1421 1427 1427 1427 1427 1427 1427 1427 1427 1427 1427 1427 1427 1427 1433 1433 1433 1433 1433 1433 1433 1433 1433 1433 1427 1427 1427 1427 1427 2381 2381 2381 2381 2381 2381 2381 2381 2381 2381 2381 2381 2381 2381 2381 2381 2381 2381 2381 2381 2381 2381 2381 2381 2381 2381 2381 2381 2381 2381 2381 2381 2381 2381 2381 2381 2381 2381 2381 2381 2381 2381 2381 2381 2381 2381 2398 2398 2398 2398 2398 2381 2381 2398 2381 2381 2381 2381 2381 2381 2381 2381 2398 2398 2398 2398 2398 2398 2381 2381 2381 2381 2381 2381 2381 2381 2381 2381 2365 2365 2365 2365 2365 2365 2365 2349 2349 2365 2365 2349 2349 2349 2365 2365 2349 2349 2349 2349 2349 2349 2349 2349 2349 2349 2349 2349 2349 2349 2349 2349 2349 2349 2349 2349 2349 2349 2349 2349 2349 2349 0 0 0 0 0 0 0 0 0
0 0 0 0 0 0 0 0 0 0 0 0 0 0 0 0 0 0 0 0 0 0 0 0 0 0 0 0 0 0 0 0 0 2256 2256 2256 2256 2256 2256 2271 2271 2271 2271 2271 2271 2271 2256 2256 2271 2271 2271 2271 2286 2286 2286 2286 2286 2286 2271 2271 2271 2286 2286 2286 2286 2271 2271 2271 2271 2256 2256 2256 2256 2256 2256 2256 2256 2256 2256 2256 2256 2256 2256 2256 2256 2256 2286 2286 1523 1523 1516 1516 1523 1523 1523 1523 1523 1523 1523 1523 1523 1523 1523 1458 1452 1452 1452 1452 1452 1452 1452 1452 1452 1452 1458 1458 1464 1470 1477 1483 1489 1496 1496 1503 1503 1503 1509 1509 1509 1509 1509 1509 1509 1509 1509 1509 1509 1516 1516 1516 1516 1516 1516 1516 1516 1509 1509 1516 1516 1516 1516 1523 1523 1523 1523 1523 1516 1516 1509 1509 1509 1509 1509 1509 1509 1509 1509 1509 1509 1516 1516 1516 1516 1516 1516 1516 1516 1523 1523 1523 1523 1516 1516 1523 1516 1516 1523 1516 1516 1516 1516 1516 1516 1516 1516 1523 1523 1523 1523 1523 1523 1523 1523 1523 1523 1523 1523 1523 1516 1427 1427 1433 1433 1439 1439 1433 1433 1433 1433 1433 1439 1445 1445 1452 1470 1503 1516 1529 1529 1536 1536 1543 1543 1550 1550 1557 1557 1616 1632 1639 1639 1639 1639 2349 2349 2333 2333 2349 2349 2349 2365 2365 1853 1853 1853 1853 1853 1853 1863 1863 1873 1873 1873 2349 2349 2349 2349 2365 2365 0 0 1333 1333 1333 1338 1338 1338 1338 1338 1338 1338 1338 1343 1343 1343 1349 1349 1349 1354 1354 1523 1523 1523 1523 1523 1523 1523 1523 1523 1523 1523 1523 1523 1523 1523 1523 1523 1523 1523 1523 1523 1523 1523 1523 1523 1523 1523 1523 1523 1523 1523 1523 1529 1523 1523 1536 1536 1536 1536 1536 1536 1529 1529 1529 1529 1529 1529 1529 1529 1529 1529 1529 1529 1529 1529 1529 1529 1529 1529 1529 1529 1529 1529 1523 1523 1523 1523 1523 1523 1529 1529 1529 1536 1536 1536 1536 1536 1536 1536 1536 1536 1529 1529 1536 1536 1536 1536 1529 1529 1536 1536 1536 1536 1536 1536 1536 1536 1536 1536 1536 1536 1536 1543 1307 1307 1307 1307 1307 1307 1307 1307 1307 1307 1307 1307 1307 1302 1302 1292 1292 1292 0 2129 2129 2129 2116 2116 2103 2103 2103 2103 2116 2116 2129 1863 1863 1863 1873 1863 1863 1863 1863 1863 1863 1863 1853 1853 1843 1833 1833 2198 2198 2198 2198 2198 2198 2198 2198 2198 2198 2198 2212 2241 2381 2381 2381 2381 2398 2398 2398 2398 2398 2398 2398 2398 2398 2398 2398 2398 2398 2398 2398 2398 2398 2398 2398 0 1421 1421 1421 1421 1421 1421 1427 1427 1427 1427 1427 1427 1427 1427 1427 1427 1427 1427 1427 1433 1433 1433 1433 1433 1433 1433 1433 1433 1433 1427 1427 1427 1433 1433 2365 2365 2365 2365 2365 2381 2381 2381 2381 2381 2381 2381 2381 2381 2381 2381 2381 2381 2381 2381 2381 2381 2381 2381 2365 2365 2365 2365 2381 2365 2365 2365 2381 2381 2381 2381 2381 2381 2381 2381 2381 2381 2381 2381 2381 2381 2381 2381 2381 2381 2381 2381 2381 2381 2381 2381 2381 2381 2381 2381 2381 2381 2381 2381 2381 2381 2381 2381 2381 2381 2381 2381 2381 2381 2381 2381 2381 2381 2365 2365 2365 2365 2349 2349 2349 2349 2349 2349 2349 2349 2349 2349 2349 2349 2349 2333 2333 2349 2349 2349 2349 2349 2349 2349 2349 2349 2349 2349 2349 2349 2349 2349 2349 2349 2333 2333 2333 2349 2349 2349 0 0 0 0 0 0 0 0 0
0 0 0 0 0 0 0 0 0 0 0 0 0 0 0 0 0 0 0 0 0 0 0 0 0 0 0 0 0 0 0 0 0 2256 2256 2256 2256 2256 2256 2256 2256 2271 2271 2256 2256 2256 2256 2256 2271 2271 2271 2271 2271 2271 2271 2271 2271 2271 2271 2271 2271 2271 2271 2271 2271 2271 2271 2271 2256 2256 2256 2256 2256 2256 2256 2256 2256 2256 2256 2256 2256 2256 2256 2256 2256 2256 2256 2256 1523 1523 1516 1516 1523 1523 1523 1523 1523 1523 1523 1523 1529 1529 1529 1458 1452 1452 1458 1458 1452 1452 1452 1452 1452 1458 1458 1458 1464 1470 1477 1477 1483 1489 1489 1489 1496 1503 1503 1503 1503 1503 1509 1509 1503 1503 1503 1503 1509 1509 1509 1509 1509 1509 1509 1509 1509 1509 1509 1509 1509 1509 1509 1509 1509 1509 1516 1509 1509 1509 1509 1509 1509 1509 1509 1503 1503 1503 1503 1503 1509 1509 1509 1509 1509 1516 1516 1516 1516 1516 1516 1516 1516 1516 1516 1516 1516 1516 1516 1516 1516 1516 1516 1516 1516 1516 1516 1523 1523 1523 1523 1523 1523 1523 1523 1523 1523 1523 1523 1523 1509 1445 1439 1439 1439 1439 1439 1433 1433 1433 1433 1439 1439 1445 1445 1458 1470 1496 1509 1523 1529 1529 1536 1536 1543 1550 1550 1557 1564 1616 1624 1632 1639 1639 2333 2333 2333 2333 2333 2333 2349 2349 2365 1863 1853 1853 1853 1853 1853 1863 1863 1863 1873 1873 2349 2333 2333 2349 2349 2349 2349 0 0 0 1333 1333 1338 1338 1343 1343 1343 1338 1338 1343 1343 1343 1349 1349 1349 1349 1349 1354 1523 1523 1523 1523 1523 1523 1523 1523 1523 1523 1523 1523 1523 1523 1523 1523 1523 1523 1523 1523 1523 1523 1523 1523 1523 1523 1523 1523 1523 1523 1523 1523 1523 1523 1523 1523 1523 1529 1529 1529 1529 1523 1523 1523 1523 1516 1516 1516 1523 1523 1523 1523 1523 1523 1523 1523 1529 1523 1523 1523 1523 1523 1523 1523 1523 1523 1523 1523 1523 1523 1529 1529 1529 1529 1529 1536 1529 1529 1529 1529 1529 1529 1529 1529 1529 1529 1529 1529 1529 1529 1529 1529 1529 1529 1536 1536 1529 1529 1529 1529 1529 1529 1543 1307 1307 1307 1307 1307 1307 1307 1307 1307 1307 1307 1307 1307 1302 1302 1297 1297 1297 0 2103 2103 2103 2103 2103 2103 2090 2090 2103 2103 2103 2129 1863 1863 1863 1873 1863 1863 1863 1863 1863 1863 1863 1853 1843 1843 1833 1833 2198 2198 2198 2198 2198 2198 2198 2198 2198 2198 2212 2226 2333 2365 2381 2381 2381 2381 2381 2381 2381 2381 2381 2381 2381 2381 2381 2381 2381 2381 2381 2381 2381 2398 2398 2398 2381 1421 1421 1421 1421 1421 1427 1427 1427 1427 1427 1427 1427 1427 1427 1427 1427 1427 1427 1433 1433 1433 1433 1433 1433 1433 1433 1433 1433 1433 1427 1427 1427 1433 1433 2349 2349 2349 2365 2365 2365 2365 2365 2365 2365 2365 2365 2365 2365 2365 2365 2365 2365 2365 2365 2365 2365 2365 2365 2365 2365 2365 2365 2365 2365 2365 2365 2365 2381 2365 2365 2365 2381 2381 2381 2381 2381 2381 2381 2381 2381 2381 2381 2381 2381 2381 2365 2365 2365 2365 2365 2365 2365 2365 2365 2365 2365 2381 2381 2381 2381 2381 2381 2381 2381 2365 2365 2365 2365 2381 2381 2381 2365 2365 2349 2349 2349 2349 2349 2349 2349 2349 2349 2349 2349 2349 2349 2349 2349 2349 2333 2333 2349 2349 2349 2349 2333 2333 2333 2333 2333 2333 2333 2333 2333 2333 2333 2333 2333 2333 2333 2333 2333 2333 2333 0 0 0 0 0 0 0 0 0
0 0 0 0 0 0 0 0 0 0 0 0 0 0 0 0 0 0 0 0 0 0 0 0 0 0 0 0 0 0 0 0 0 2241 2241 2241 2241 2256 2256 2256 2256 2256 2256 2241 2241 2241 2241 2241 2241 2256 2256 2256 2271 2271 2271 2271 2271 2271 2271 2271 2271 2271 2271 2271 2271 2256 2256 2256 2256 2241 2241 2241 2241 2241 2256 2256 2256 2256 2256 2256 2256 2256 2256 2256 2256 2256 2256 2256 1523 1523 1516 1516 1523 1523 1523 1523 1523 1523 1523 1529 1529 1529 1529 1458 1458 1458 1458 1458 1458 1458 1458 1458 1458 1458 1458 1464 1464 1470 1477 1477 1483 1489 1489 1489 1496 1496 1503 1503 1503 1503 1503 1503 1503 1503 1503 1503 1503 1503 1503 1509 1503 1503 1503 1509 1509 1503 1503 1509 1509 1509 1509 1509 1509 1509 1509 1509 1503 1503 1503 1503 1503 1503 1503 1503 1503 1503 1503 1503 1503 1503 1509 1509 1509 1509 1509 1509 1509 1509 1509 1509 1509 1509 1509 1509 1509 1509 1509 1509 1509 1509 1509 1509 1509 1509 1509 1516 1516 1516 1516 1516 1516 1516 1516 1516 1516 1516 1516 1516 1503 1445 1445 1439 1439 1439 1439 1439 1439 1439 1439 1439 1445 1445 1452 1464 1477 1496 1503 1523 1523 1529 1529 1536 1536 1550 1550 1557 1609 1616 1624 1632 1639 2333 2317 2317 2333 2333 2333 2333 2349 2349 2349 1863 1863 1863 1853 1853 1863 1863 1873 1873 1873 1883 2333 2333 2333 2349 2349 2349 2349 0 0 0 1333 1333 1338 1338 1343 1343 1343 1343 1343 1343 1343 1343 1349 1349 1349 1349 1349 1354 1516 1516 1516 1516 1516 1516 1516 1516 1523 1523 1523 1516 1516 1516 1516 1516 1516 1523 1523 1523 1523 1523 1523 1523 1523 1523 1516 1516 1523 1516 1516 1516 1516 1516 1523 1523 1523 1523 1529 1529 1529 1516 1516 1516 1516 1516 1516 1516 1516 1516 1516 1516 1516 1523 1523 1523 1523 1523 1523 1523 1516 1516 1516 1516 1516 1516 1516 1516 1516 1516 1523 1523 1523 1529 1529 1529 1529 1529 1529 1529 1529 1523 1523 1523 1523 1523 1523 1523 1523 1523 1529 1529 1529 1529 1529 1529 1529 1529 1529 1523 1523 1529 1312 1307 1307 1307 1307 1307 1307 1307 1307 1307 1307 1307 1307 1307 1307 1302 1297 1297 1297 1297 2103 2103 2103 2090 2090 2090 2090 2090 2090 2090 2103 2103 1883 1873 1873 1873 1873 1863 1863 1863 1863 1863 1863 1853 1843 1843 1833 1833 2198 2198 2198 2198 2198 2198 2198 2198 2198 2198 2226 2271 2365 2365 2365 2365 2365 2381 2381 2381 2381 2381 2381 2381 2381 2365 2365 2381 2381 2381 2381 2381 2381 2381 2381 2381 2381 1421 1421 1421 1427 1427 1427 1427 1427 1427 1427 1427 1427 1427 1427 1427 1427 1427 1433 1433 1433 1433 1433 1433 1433 1433 1433 1433 1433 1433 1433 1433 1433 1433 1433 2333 2333 2333 2349 2349 2365 2349 2349 2365 2365 2365 2365 2349 2349 2365 2365 2365 2365 2365 2365 2365 2365 2365 2349 2349 2349 2365 2365 2365 2365 2365 2365 2365 2365 2365 2365 2365 2365 2365 2365 2365 2365 2365 2365 2365 2365 2365 2365 2365 2365 2365 2365 2365 2365 2365 2365 2365 2365 2365 2365 2365 2365 2365 2365 2365 2365 2381 2365 2365 2365 2365 2365 2365 2365 2365 2365 2365 2365 2349 2349 2349 2349 2349 2349 2349 2333 2333 2349 2349 2333 2333 2333 2349 2349 2333 2333 2333 2333 2333 2333 2333 2333 2333 2333 2333 2317 2317 2317 2317 2317 2317 2317 2333 2333 2333 2333 2333 2333 2333 2333 0 0 0 0 0 0 0 0 0
0 0 0 0 0 0 0 0 0 0 0 0 0 0 0 0 0 0 0 0 0 0 0 0 0 0 0 0 0 0 0 0 0 2226 2226 2226 2241 2241 2241 2241 2256 2256 2256 2241 2241 2241 2241 2241 2241 2241 2256 2256 2256 2256 2256 2271 2271 2271 2271 2256 2256 2256 2256 2256 2256 2256 2256 2256 2226 2226 2241 2241 2241 2241 2241 2241 2241 2241 2241 2241 2241 2241 2241 2241 2256 2256 2256 2256 2256 1523 1523 1523 1523 1523 1523 1523 1523 1523 1523 1529 1529 1529 1529 1464 1458 1458 1458 1458 1458 1458 1458 1458 1458 1458 1458 1464 1464 1470 1477 1477 1483 1483 1483 1489 1489 1489 1496 1496 1496 1503 1503 1503 1496 1496 1496 1496 1496 1503 1503 1503 1503 1503 1503 1503 1503 1503 1503 1503 1509 1503 1503 1503 1503 1503 1503 1503 1496 1496 1496 1503 1503 1503 1503 1496 1496 1496 1496 1496 1503 1503 1503 1503 1503 1503 1503 1503 1503 1509 1503 1503 1503 1503 1503 1509 1509 1509 1509 1509 1509 1509 1509 1509 1503 1503 1509 1509 1509 1516 1509 1509 1516 1509 1509 1509 1509 1509 1516 1509 1496 1452 1445 1445 1445 1445 1439 1439 1439 1439 1439 1445 1445 1452 1458 1464 1477 1496 1503 1516 1523 1523 1529 1529 1536 1550 1550 1557 1616 1616 1616 2333 2317 2317 2317 2317 2317 2317 2317 2317 2333 2349 1853 1853 1853 1853 1863 1863 1863 1873 1873 1873 1873 1883 1883 2317 2317 2333 2349 2349 2349 0 0 0 1333 1333 1338 1338 1343 1343 1343 1343 1343 1349 1349 1349 1349 1349 1349 1349 1349 1354 1509 1516 1516 1516 1516 1516 1516 1516 1516 1516 1516 1516 1516 1516 1516 1516 1516 1516 1516 1516 1516 1516 1516 1516 1516 1516 1516 1516 1516 1516 1516 1516 1516 1516 1516 1516 1516 1523 1523 1523 1523 1516 1516 1516 1516 1516 1516 1516 1509 1509 1516 1516 1516 1516 1516 1516 1516 1516 1516 1516 1516 1516 1516 1516 1516 1516 1516 1516 1516 1516 1516 1516 1516 1523 1523 1529 1529 1523 1523 1523 1523 1516 1516 1523 1523 1516 1516 1516 1516 1523 1523 1523 1523 1523 1523 1523 1523 1523 1523 1523 1523 1523 1307 1307 1307 1307 1307 1307 1307 1307 1307 1312 1312 1312 1312 1307 1307 1302 1297 1297 1297 1297 0 2103 2103 2090 2090 2090 2090 2090 2090 2090 2090 2090 2103 1873 1873 1873 1873 1863 1863 1863 1863 1863 1863 1853 1843 1843 1833 1833 2198 2198 2198 2198 2198 2198 2198 2198 2198 2198 2226 2317 2333 2333 2349 2349 2349 2365 2365 2365 2365 2365 2365 2365 2365 2365 2365 2365 2365 2365 2365 2365 2365 2365 2365 2365 2365 2365 1427 1427 1427 1427 1427 1427 1427 1427 1427 1427 1427 1427 1427 1427 1427 1433 1433 1433 1433 1433 1433 1433 1433 1433 1433 1433 1433 1433 1433 1433 1433 1439 1439 2333 2333 2333 2333 2333 2349 2333 2333 2349 2349 2349 2349 2349 2349 2349 2349 2349 2349 2349 2349 2349 2349 2349 2333 2333 2333 2349 2349 2365 2365 2365 2365 2365 2365 2365 2365 2365 2365 2365 2365 2365 2349 2349 2349 2349 2349 2365 2365 2365 2365 2365 2349 2349 2365 2365 2349 2349 2365 2365 2365 2365 2365 2365 2365 2365 2365 2365 2365 2365 2365 2365 2365 2365 2365 2365 2365 2365 2365 2349 2349 2349 2349 2349 2349 2349 2333 2333 2333 2333 2333 2333 2333 2333 2333 2333 2317 2317 2333 2333 2333 2333 2333 2333 2317 2317 2317 2317 2317 2317 2317 2317 2317 2317 2333 2333 2317 2317 2333 2333 2333 0 0 0 0 0 0 0 0 0
0 0 0 0 0 0 0 0 0 0 0 0 0 0 0 0 0 0 0 0 0 0 0 0 0 0 0 0 0 0 0 0 0 2226 2226 2226 2226 2226 2226 2241 2241 2241 2241 2226 2226 2226 2226 2226 2226 2241 2241 2241 2241 2256 2256 2256 2256 2256 2256 2256 2256 2256 2241 2241 2256 2226 2226 2226 2226 2226 2226 2226 2226 2226 2212 2212 2241 2241 2241 2241 2241 2241 2241 2241 2241 2241 2241 2241 2241 1523 1523 1523 1523 1523 1523 1523 1523 1523 1529 1529 1529 1529 1529 1464 1464 1458 1458 1458 1458 1458 1458 1458 1458 1458 1458 1464 1470 1470 1477 1477 1483 1483 1483 1483 1489 1489 1489 1496 1496 1496 1496 1496 1496 1496 1489 1489 1496 1496 1503 1503 1496 1496 1496 1496 1496 1503 1503 1503 1503 1503 1503 1503 1503 1503 1503 1496 1496 1496 1496 1496 1496 1496 1496 1496 1496 1496 1496 1496 1496 1496 1496 1496 1496 1496 1496 1503 1503 1503 1503 1503 1503 1503 1503 1503 1503 1503 1503 1503 1503 1503 1503 1503 1503 1503 1503 1509 1509 1509 1509 1509 1509 1509 1509 1509 1509 1509 1509 1503 1489 1458 1452 1452 1445 1445 1445 1439 1439 1439 1445 1445 1452 1452 1458 1470 1477 1489 1496 1509 1516 1523 1529 1529 1536 1550 1550 1616 1616 1616 2333 2333 2317 2317 2317 2317 2317 2301 2301 2317 2317 2317 1853 1853 1853 1853 1863 1863 1863 1873 1873 1873 1873 1883 1883 2317 2317 2317 2317 2333 2333 0 0 0 1333 1333 1338 1343 1343 1343 1349 1349 1349 1349 1349 1349 1349 1349 1349 1349 1349 1354 1503 1509 1509 1509 1509 1509 1509 1509 1516 1516 1516 1509 1509 1509 1509 1516 1516 1516 1516 1516 1516 1516 1516 1516 1516 1516 1509 1509 1516 1516 1516 1516 1516 1516 1516 1516 1516 1516 1516 1516 1523 1509 1509 1509 1509 1509 1509 1509 1509 1509 1509 1509 1509 1516 1509 1509 1509 1516 1516 1509 1509 1509 1509 1516 1509 1509 1509 1509 1509 1516 1516 1516 1516 1516 1516 1523 1516 1516 1516 1516 1516 1516 1516 1516 1516 1516 1516 1516 1516 1516 1516 1516 1516 1516 1516 1516 1516 1516 1516 1516 1516 1516 1307 1307 1307 1307 1307 1307 1307 1307 1312 1312 1312 1317 1317 1307 1307 1302 1297 1297 1297 1297 0 2381 2078 2078 2078 2078 2078 2078 2078 2078 2090 2090 2090 1873 1873 1873 1873 1873 1873 1873 1873 1873 1863 1863 1853 1853 1853 2198 2198 2198 2198 2198 2198 2198 2198 2198 2198 2198 2226 2301 2317 2317 2333 2333 2333 2349 2349 2349 2349 2349 2349 2333 2333 2333 2333 2349 2349 2333 2333 2333 2333 2333 2333 2349 2349 0 1427 1427 1427 1427 1427 1427 1427 1427 1427 1427 1427 1427 1433 1433 1433 1433 1433 1433 1433 1433 1433 1433 1433 1433 1433 1433 1433 1433 1433 1433 1439 1439 2301 2301 2317 2317 2317 2317 2333 2333 2333 2333 2349 2349 2333 2333 2333 2333 2349 2349 2333 2333 2349 2349 2333 2333 2333 2333 2333 2333 2349 2349 2349 2365 2365 2365 2365 2365 2365 2365 2365 2365 2365 2349 2349 2349 2349 2349 2349 2349 2349 2349 2349 2349 2333 2333 2333 2349 2349 2349 2349 2349 2349 2349 2349 2349 2349 2349 2349 2349 2349 2349 2349 2349 2349 2349 2349 2349 2349 2349 2349 2333 2333 2333 2349 2349 2349 2333 2333 2333 2333 2333 2333 2317 2317 2317 2317 2317 2317 2317 2317 2317 2317 2317 2317 2317 2317 2301 2301 2301 2317 2317 2317 2317 2317 2317 2333 2317 2317 2317 2317 2317 2317 0 0 0 0 0 0 0 0 0
0 0 0 0 0 0 0 0 0 0 0 0 0 0 0 0 0 0 0 0 0 0 0 0 0 0 0 0 0 0 0 0 0 2226 2226 2212 2212 2226 2226 2226 2226 2241 2226 2226 2226 2226 2226 2226 2226 2241 2241 2241 2241 2256 2241 2241 2226 2226 2241 2241 2241 2241 2241 2241 2256 2226 2226 2226 2226 2212 2212 2212 2212 2212 2212 2212 2226 2226 2226 2226 2226 2226 2226 2226 2241 2241 2241 2241 2241 1523 1523 1523 1523 1523 1523 1523 1529 1529 1529 1529 1529 1529 1529 1477 1464 1458 1458 1458 1458 1458 1458 1458 1458 1458 1458 1464 1470 1470 1477 1477 1483 1483 1483 1483 1489 1489 1489 1489 1489 1489 1489 1489 1489 1489 1489 1489 1489 1489 1496 1496 1496 1489 1489 1496 1496 1496 1496 1496 1496 1496 1496 1496 1496 1496 1496 1496 1489 1489 1496 1496 1496 1496 1496 1496 1496 1496 1496 1496 1496 1489 1489 1496 1496 1496 1496 1496 1496 1496 1496 1496 1496 1496 1496 1503 1503 1503 1503 1503 1503 1503 1503 1503 1503 1503 1503 1503 1503 1503 1503 1503 1509 1503 1503 1503 1503 1509 1503 1496 1489 1452 1452 1452 1445 1445 1445 1445 1445 1445 1445 1445 1452 1458 1458 1470 1477 1489 1496 1509 1516 1523 1523 1529 1536 1550 1550 1601 1609 1609 1609 2333 2301 2301 2301 2301 2301 2301 2301 2301 2301 2301 1853 1853 1853 1853 1863 1863 1863 1873 1873 1873 1873 1883 1883 2301 2301 2301 2301 2301 2301 0 0 0 1333 1333 1343 1343 1349 1349 1349 1349 1349 1349 1349 1349 1349 1349 1349 1349 1354 1354 1503 1503 1503 1503 1503 1509 1503 1503 1509 1503 1503 1503 1503 1503 1503 1509 1509 1509 1509 1509 1509 1509 1509 1509 1509 1509 1509 1509 1509 1516 1509 1509 1509 1509 1516 1516 1516 1516 1516 1516 1516 1509 1509 1509 1509 1503 1503 1509 1509 1503 1503 1509 1509 1509 1503 1503 1503 1509 1509 1509 1509 1509 1509 1509 1509 1509 1509 1509 1509 1509 1509 1509 1509 1509 1516 1516 1509 1509 1509 1516 1516 1509 1509 1509 1509 1509 1509 1509 1509 1516 1516 1516 1516 1516 1516 1516 1516 1516 1516 1516 1516 1307 1307 1307 1307 1312 1312 1312 1312 1312 1312 1312 1312 1312 1317 1307 1307 1307 1307 1307 1307 0 2349 2381 2381 2078 2078 2078 2065 2065 2065 2065 2065 2078 2078 1873 1873 1873 1873 1873 1873 1873 1873 1873 1863 1863 1863 1873 2198 2198 2198 2198 2198 2198 2198 2198 2198 2198 2198 2198 2226 2301 2317 2317 2333 2333 2333 2333 2333 2333 2333 2333 2333 2333 2333 2333 2333 2333 2333 2333 2333 2333 2333 2333 2333 2333 2333 0 1427 1427 1427 1427 1427 1427 1427 1427 1427 1427 1427 1433 1433 1433 1433 1433 1433 1433 1433 1433 1433 1433 1433 1433 1433 1439 1439 1439 1439 1439 1445 1445 2286 2286 2317 2317 2317 2317 2317 2317 2317 2333 2333 2333 2333 2333 2333 2333 2333 2333 2333 2333 2333 2333 2317 2317 2317 2317 2317 2333 2333 2349 2349 2349 2349 2365 2365 2365 2349 2349 2349 2349 2349 2349 2333 2333 2333 2333 2349 2349 2349 2349 2333 2333 2333 2333 2333 2333 2333 2333 2333 2333 2349 2333 2333 2333 2333 2333 2333 2349 2349 2349 2349 2349 2333 2333 2333 2333 2333 2333 2349 2333 2333 2333 2333 2333 2333 2333 2317 2317 2317 2317 2317 2317 2301 2301 2317 2317 2317 2317 2317 2317 2317 2317 2317 2317 2317 2301 2301 2301 2301 2301 2301 2301 2317 2317 2317 2317 2301 2301 2317 2317 2317 0 0 0 0 0 0 0 0 0
0 0 0 0 0 0 0 0 0 0 0 0 0 0 0 0 0 0 0 0 0 0 0 0 0 0 0 0 0 0 0 0 0 2212 2212 2212 2212 2212 2212 2226 2226 2226 2212 2212 2212 2212 2226 2212 2212 2226 2226 2226 2241 2241 2241 2226 2226 2226 2226 2226 2226 2226 2226 2226 2226 2226 2226 2212 2212 2212 2212 2212 2212 2212 2212 2212 2212 2212 2212 2212 2212 2212 2226 2226 2226 2226 2226 2226 2226 2226 1523 1523 1523 1523 1523 1523 1529 1529 1529 1529 1529 1529 1529 1509 1477 1464 1464 1458 1458 1458 1458 1458 1458 1458 1458 1464 1470 1470 1477 1477 1477 1477 1483 1483 1483 1483 1483 1483 1489 1483 1483 1483 1483 1483 1483 1483 1483 1483 1489 1489 1489 1489 1489 1489 1489 1489 1489 1496 1496 1489 1489 1489 1489 1489 1489 1489 1489 1489 1489 1489 1489 1489 1489 1489 1489 1489 1489 1489 1489 1489 1489 1489 1489 1489 1489 1489 1489 1496 1496 1489 1489 1496 1496 1496 1496 1496 1496 1496 1496 1496 1496 1496 1496 1496 1503 1503 1503 1503 1503 1503 1503 1503 1503 1503 1503 1503 1503 1496 1489 1452 1452 1452 1452 1452 1445 1445 1445 1445 1445 1452 1452 1458 1464 1470 1483 1489 1496 1509 1516 1523 1523 1529 1536 1550 1557 1601 1601 1601 1601 2317 2301 2301 2301 2301 2301 2301 2301 2301 2301 2301 1853 1853 1853 1853 1863 1863 1863 1873 1873 1873 1883 1894 1894 2286 2286 2301 2301 2301 2301 0 0 0 1349 1343 1343 1349 1349 1349 1349 1349 1349 1349 1349 1349 1354 1349 1349 1349 1354 1496 1496 1496 1503 1503 1503 1503 1496 1496 1496 1496 1496 1503 1503 1503 1503 1503 1503 1503 1509 1509 1509 1509 1503 1503 1503 1503 1503 1503 1503 1503 1503 1503 1509 1509 1509 1516 1516 1516 1516 1516 1509 1503 1503 1503 1503 1503 1503 1503 1503 1503 1503 1503 1503 1503 1503 1496 1496 1503 1503 1503 1503 1503 1509 1509 1509 1509 1509 1509 1509 1509 1509 1509 1509 1509 1509 1509 1509 1509 1509 1509 1509 1509 1509 1509 1509 1509 1509 1509 1509 1509 1509 1509 1509 1509 1509 1516 1509 1509 1509 1509 1509 1307 1307 1307 1307 1312 1312 1312 1312 1312 1312 1312 1312 1312 1317 1307 1307 1307 1307 1307 0 0 2349 2349 2349 2349 2065 2065 2053 2053 2053 2053 2065 2065 1863 1863 1873 1873 1873 1873 1873 1873 1873 1873 1873 1873 1873 2212 2198 2198 2198 2198 2198 2198 2198 2198 2198 2198 2212 2212 2226 2301 2317 2317 2317 2333 2333 2333 2333 2333 2333 2333 2333 2317 2317 2333 2333 2333 2333 2333 2333 2333 2333 2333 2317 2317 2317 1427 1427 1427 1427 1427 1427 1427 1427 1433 1433 1433 1433 1433 1433 1433 1433 1433 1433 1433 1433 1433 1433 1433 1433 1433 1433 1439 1439 1445 1452 1452 1445 2286 2286 2286 2317 2317 2317 2317 2317 2317 2317 2317 2317 2317 2317 2317 2317 2317 2317 2317 2317 2317 2317 2317 2317 2317 2317 2317 2317 2333 2333 2349 2349 2349 2349 2349 2349 2349 2349 2349 2349 2349 2349 2333 2333 2333 2333 2333 2333 2333 2333 2333 2317 2317 2317 2317 2317 2317 2333 2333 2333 2333 2333 2333 2333 2333 2333 2317 2317 2333 2333 2333 2333 2333 2333 2333 2333 2333 2333 2333 2333 2317 2301 2301 2317 2317 2317 2317 2317 2317 2301 2301 2301 2301 2301 2301 2301 2301 2301 2301 2301 2301 2301 2301 2301 2301 2301 2301 2301 2301 2301 2301 2301 2301 2301 2301 2301 2301 2301 2301 2301 2301 2301 0 0 0 0 0 0 0 0 0
0 0 0 0 0 0 0 0 0 0 0 0 0 0 0 0 0 0 0 0 0 0 0 0 0 0 0 0 0 0 0 0 0 2212 2212 2212 2212 2212 2212 2212 2212 2212 2212 2212 2212 2212 2212 2212 2212 2212 2226 2226 2226 2226 2226 2226 2226 2226 2226 2226 2226 2212 2212 2212 2212 2212 2212 2212 2212 2212 2212 2198 2198 2198 2198 2198 2198 2198 2198 2198 2212 2212 2212 2212 2212 2212 2212 2226 2226 2226 2226 1529 1523 1523 1523 1523 1529 1529 1529 1529 1529 1529 1529 1523 1483 1464 1464 1458 1458 1458 1458 1458 1458 1458 1464 1464 1470 1470 1470 1470 1477 1477 1477 1483 1483 1483 1483 1483 1483 1483 1483 1483 1483 1483 1483 1483 1483 1483 1483 1483 1483 1483 1483 1483 1483 1483 1483 1489 1483 1483 1483 1483 1483 1483 1483 1483 1483 1483 1483 1483 1483 1483 1483 1483 1489 1483 1483 1489 1483 1483 1483 1483 1483 1483 1483 1483 1483 1489 1489 1483 1483 1489 1489 1489 1489 1489 1496 1496 1496 1496 1496 1496 1496 1496 1496 1496 1496 1496 1496 1503 1503 1496 1496 1496 1496 1503 1496 1489 1477 1452 1452 1452 1452 1452 1452 1452 1452 1452 1452 1452 1458 1458 1464 1470 1477 1489 1496 1509 1516 1523 1523 1529 1536 1550 1564 1601 1601 1601 1601 2301 2286 2286 2286 2286 2286 2301 2286 2286 2286 2286 1853 1853 1853 1853 1863 1863 1863 1873 1873 1883 1883 1894 1894 2286 2286 2286 2286 2286 2286 0 0 0 1349 1349 1349 1349 1349 1349 1354 1354 1354 1354 1349 1349 1354 1349 1349 1349 1354 1496 1496 1496 1496 1496 1496 1496 1496 1496 1496 1496 1496 1496 1496 1496 1496 1496 1496 1503 1503 1503 1503 1503 1503 1496 1496 1496 1496 1496 1496 1496 1496 1496 1503 1503 1503 1509 1509 1516 1496 1496 1503 1496 1496 1496 1496 1496 1496 1496 1496 1496 1496 1496 1496 1496 1496 1496 1496 1496 1503 1503 1503 1503 1503 1503 1503 1503 1503 1503 1503 1496 1496 1503 1503 1503 1503 1509 1509 1503 1503 1503 1503 1503 1503 1503 1503 1503 1503 1503 1503 1503 1509 1509 1509 1509 1509 1509 1509 1509 1509 1503 1503 1503 1302 1302 1307 1312 1312 1312 1312 1312 1312 1317 1317 1317 1317 1307 1307 1312 0 0 2301 2286 2333 2333 2333 2333 2053 2053 2053 2053 2053 2053 2053 2053 1863 1863 1873 1873 1873 1873 1873 1873 1873 1873 1873 1873 1873 2212 2198 2198 2198 2198 2198 2198 2198 2198 2198 2198 2212 2212 2241 2286 2317 2317 2317 2333 2333 2333 2317 2317 2333 2317 2317 2317 2317 2317 2317 2317 2317 2317 2317 2317 2317 2317 2301 2301 2301 1427 1427 1427 1427 1427 1427 1433 1433 1433 1433 1433 1433 1433 1433 1433 1433 1433 1433 1433 1433 1433 1433 1433 1433 1439 1439 1439 1445 1445 1445 1445 1445 2317 2286 2286 2301 2301 2317 2317 2317 2317 2317 2317 2317 2317 2317 2317 2317 2317 2317 2317 2317 2317 2317 2317 2301 2301 2317 2317 2317 2317 2317 2333 2333 2333 2333 2333 2333 2333 2333 2333 2333 2333 2333 2333 2333 2333 2333 2333 2333 2333 2333 2317 2317 2317 2317 2317 2317 2317 2317 2317 2333 2333 2333 2317 2317 2317 2317 2317 2317 2317 2317 2317 2333 2317 2317 2317 2317 2317 2317 2317 2317 2301 2301 2301 2301 2301 2301 2301 2301 2301 2301 2286 2286 2301 2286 2286 2286 2301 2301 2301 2301 2301 2301 2301 2301 2301 2301 2301 2301 2301 2301 2301 2286 2286 2301 2301 2301 2301 2301 2301 2301 2301 2301 0 0 0 0 0 0 0 0 0
0 0 0 0 0 0 0 0 0 0 0 0 0 0 0 0 0 0 0 0 0 0 0 0 0 0 0 0 0 0 0 0 0 2198 2198 2198 2198 2198 2198 2198 2198 2198 2198 2198 2198 2198 2212 2212 2212 2212 2226 2226 2226 2226 2226 2226 2226 2226 2226 2212 2212 2212 2212 2212 2212 2212 2198 2198 2198 2198 2198 2198 2198 2184 2184 2184 2184 2184 2198 2198 2198 2198 2212 2212 2212 2212 2212 2212 2212 2212 2226 2226 1523 1523 1523 1523 1529 1529 1529 1529 1529 1529 1529 1523 1483 1470 1464 1464 1458 1458 1458 1458 1464 1464 1464 1464 1470 1470 1470 1470 1477 1477 1477 1483 1483 1483 1483 1483 1483 1477 1477 1477 1477 1477 1477 1477 1477 1477 1477 1477 1477 1477 1483 1477 1477 1477 1477 1477 1477 1477 1477 1483 1483 1483 1483 1483 1477 1477 1477 1477 1477 1477 1477 1477 1477 1477 1477 1477 1477 1477 1477 1477 1477 1477 1477 1477 1477 1483 1483 1483 1483 1483 1489 1483 1483 1483 1489 1489 1489 1489 1489 1489 1496 1496 1496 1496 1496 1496 1496 1496 1496 1496 1496 1496 1496 1496 1483 1477 1470 1458 1458 1452 1452 1452 1452 1452 1452 1452 1452 1452 1458 1458 1464 1470 1477 1483 1489 1509 1516 1523 1529 1536 1543 1557 1564 1594 1594 1609 1609 2301 2286 2286 2286 2286 2286 2286 2286 2286 2286 2286 1853 1853 1853 1853 1863 1863 1863 1873 1873 1883 1883 1894 1894 2271 2286 2286 2286 2286 2286 0 0 0 1354 1354 1354 1354 1349 1349 1354 1354 1354 1354 1354 1354 1354 1354 1354 1354 1354 1496 1489 1489 1489 1489 1489 1489 1489 1489 1489 1489 1489 1489 1489 1489 1489 1489 1489 1496 1496 1496 1496 1496 1496 1489 1489 1489 1496 1496 1489 1489 1489 1496 1496 1496 1496 1496 1496 1496 1489 1489 1496 1489 1489 1489 1489 1489 1489 1489 1489 1489 1489 1489 1489 1489 1489 1489 1489 1496 1496 1496 1496 1496 1496 1496 1496 1496 1496 1496 1496 1496 1496 1496 1496 1496 1496 1489 1489 1496 1496 1496 1496 1496 1496 1496 1496 1496 1496 1496 1496 1503 1503 1503 1503 1503 1503 1503 1503 1503 1496 1496 1496 1496 1302 1302 1307 1312 1317 1317 1317 1317 1317 1317 1317 1317 1317 1317 1317 1322 0 2301 2301 2286 2286 2301 2317 2317 2040 2040 2040 2040 2040 2040 2040 2053 1873 1873 1873 1873 1873 1873 1873 1873 1873 1873 1873 1873 2212 2212 2212 2198 2198 2212 2212 2198 2198 2198 2198 2198 2212 2212 2241 2286 2301 2301 2317 2317 2317 2317 2317 2317 2317 2301 2301 2301 2301 2317 2317 2317 2317 2317 2317 2317 2317 2317 2301 2301 2301 1427 1427 1427 1427 1427 1427 1433 1433 1433 1433 1433 1433 1433 1433 1433 1433 1433 1433 1433 1433 1439 1439 1439 1439 1439 1439 1439 1445 1445 1439 1439 1439 2301 2301 2301 2301 2301 2301 2301 2301 2301 2301 2301 2301 2317 2301 2301 2317 2301 2301 2301 2301 2301 2301 2301 2301 2301 2301 2301 2317 2317 2317 2317 2317 2317 2317 2317 2317 2317 2317 2317 2317 2317 2317 2333 2317 2317 2317 2317 2333 2317 2317 2317 2317 2317 2317 2317 2317 2317 2317 2317 2317 2317 2317 2317 2317 2317 2317 2317 2317 2317 2317 2317 2317 2317 2317 2317 2317 2317 2317 2317 2317 2301 2301 2301 2301 2301 2301 2301 2286 2286 2286 2286 2286 2286 2286 2286 2286 2286 2286 2286 2286 2286 2286 2286 2286 2286 2286 2286 2286 2286 2301 2286 2286 2286 2301 2301 2301 2301 2301 2301 2301 2301 2301 0 0 0 0 0 0 0 0 0
