0 0 0 0 0 0 0 0 0 0 0 0 0 0 0 0 0 0 0 0 0 0 0 0 0 0 0 0 0 0 0 0 0 2349 2333 2333 2333 2333 2333 2349 2349 2349 2349 2349 2349 2349 2349 2349 2365 2365 2365 2365 2365 2365 2365 2365 2365 2365 2365 2365 2365 2365 2381 2381 2381 2365 2365 2365 2365 2365 2381 2381 2365 2365 2349 2349 2349 2349 2349 2349 2349 2365 2365 2365 2365 2365 2365 2365 2381 2381 2381 2381 2381 2398 2381 2381 2381 2381 2381 2381 2365 2365 2381 2381 2381 2381 2381 2381 2398 2398 2398 2398 2398 2398 2398 2398 2398 2398 2398 2398 2398 2398 2398 2398 2398 2398 2398 2398 2398 2398 2398 2398 2398 2398 2415 2415 2415 2415 2415 2432 2415 2415 2415 2415 2415 2415 2415 2432 2432 2432 2432 2432 2432 2432 2432 2432 2432 2432 2432 2432 2432 2432 2415 2415 2415 2415 2415 2432 2432 2432 2143 2143 2156 2170 2184 2184 2184 2184 2184 2198 2198 2198 2198 2212 2432 2432 2432 2432 2432 2432 2432 2432 2432 2432 2450 2450 1843 1843 1843 1503 1496 1496 1496 1496 1503 1503 1503 1503 1503 1503 1503 1503 1503 1509 1509 1509 1516 1516 1516 1523 1616 1616 1609 1609 1609 1609 1609 1609 1609 1609 1616 1616 1616 1458 1458 1458 1458 1452 1452 1452 1458 1458 1464 1464 1464 1470 1470 1464 1464 1464 1616 1609 1609 1609 1609 1609 1609 1609 1609 1609 1609 1609 1616 1616 1616 1616 1616 1616 1616 1616 1616 1616 1616 1616 1616 1616 1616 1616 1616 1616 1616 1616 1616 1616 1616 1624 1624 1624 1624 1624 1632 1632 1632 1632 1632 1624 1624 1624 1624 1624 1624 1624 1624 1632 1632 1632 1624 1624 1624 1624 1632 1632 1632 1632 1632 1632 1624 1624 1624 1624 1632 1632 1632 1632 1632 1632 1632 1632 1624 1624 1616 1609 1609 1609 1609 1609 1609 1609 1616 1616 1624 1624 1624 1632 2156 2184 2184 2198 2198 2198 2198 2198 2198 2485 2485 2485 2485 2485 2485 2485 2485 2485 2503 2485 2485 2485 2485 2485 2485 2485 2485 2485 1766 1757 1757 1748 1748 1739 1739 1731 1722 1722 1713 1705 1696 1688 1688 1680 1671 1671 1663 1655 1655 1655 1647 1647 1647 1647 1647 1647 1655 1655 1655 1663 1663 1671 1680 1680 1688 1688 1688 1688 1688 1688 1688 1680 1680 1680 1680 1688 1688 1696 1696 1696 1696 1705 1705 1705 1705 1713 1713 1713 1713 1722 1722 1722 1722 1722 1722 1731 1731 1731 1731 1731 1731 1739 1739 1739 1739 1739 1748 1748 1748 1748 1748 1748 1748 1757 1757 1757 1757 1757 1776 1776 1776 1785 1785 1776 1776 1766 1766 1766 1766 1766 1766 1766 1766 1766 1776 1776 1776 2467 2467 2467 2467 2467 2485 2485 2503 2485 2467 2467 2040 2028 2028 2028 2028 2016 1993 1993 1993 1993 1993 1993 1993 1993 1993 1993 1993 2005 2005 1993 1993 1959 1959 2450 2467 2467 2485 2485 2485 2485 2485 2485 2485 2485 2485 2485 2485 2485 2485 2467 2467 2467 2467 2467 2485 2467 2467 2485 2485 2485 2467 2467 2467 2467 2467 2467 2485 2485 2485 2485 2485 2485 2485 2467 2467 2467 2467 2467 2503 2503 2503 2503 2503 2503 2503 2485 2485 2503 2503 2503 2503 2503 2503 2503 2503 2503 2503 2503 2503 2503 2503 2485 2485 2485 2485 2485 2485 2485 2485 2467 2467 2485 2485 2485 2485 2485 2485 2485 2467 2467 2467 2467 2467 2467 2467 2467 2467 2467 2467 2467 2467 2467 2467 2450 2450 2467 2467 2467 2467 2467 2467 2467 2467 2450 2450 2450 2432 2432 0 0 0 0 0 0 0 0 0 0
0 0 0 0 0 0 0 0 0 0 0 0 0 0 0 0 0 0 0 0 0 0 0 0 0 0 0 0 0 0 0 0 0 2333 2333 2333 2333 2333 2333 2333 2333 2333 2333 2349 2349 2349 2349 2349 2349 2349 2349 2349 2349 2349 2349 2349 2349 2349 2349 2365 2365 2365 2365 2381 2365 2365 2365 2365 2365 2365 2365 2365 2349 2349 2349 2349 2349 2349 2349 2349 2349 2365 2365 2365 2349 2349 2365 2365 2365 2365 2381 2381 2381 2381 2381 2381 2381 2381 2381 2381 2365 2365 2365 2381 2381 2381 2381 2381 2381 2381 2398 2398 2398 2398 2398 2398 2398 2398 2398 2398 2398 2398 2381 2381 2381 2381 2381 2381 2398 2398 2398 2398 2398 2398 2398 2398 2398 2398 2398 2415 2398 2398 2398 2398 2398 2415 2415 2415 2415 2415 2415 2415 2415 2415 2415 2415 2415 2415 2415 2415 2415 2415 2415 2398 2398 2398 2398 2398 2398 2398 2143 2143 2143 2170 2184 2184 2184 2184 2184 2198 2198 2198 2198 2212 2415 2415 2415 2415 2415 2415 2432 2415 2415 2415 2450 1833 1833 1833 1833 1843 1496 1496 1496 1496 1503 1503 1503 1503 1503 1503 1503 1509 1509 1509 1509 1509 1516 1516 1516 1523 1523 1601 1609 1609 1609 1601 1601 1609 1609 1609 1609 1616 1616 1458 1458 1464 1458 1458 1458 1458 1458 1464 1464 1464 1470 1470 1470 1464 1464 1609 1609 1609 1609 1609 1609 1609 1609 1609 1609 1609 1609 1609 1609 1609 1609 1609 1609 1609 1609 1609 1616 1609 1609 1616 1616 1616 1616 1609 1609 1609 1609 1609 1609 1609 1609 1616 1616 1616 1616 1624 1624 1624 1624 1624 1624 1624 1616 1616 1624 1624 1624 1624 1624 1624 1624 1632 1624 1624 1624 1624 1624 1624 1624 1624 1624 1624 1624 1624 1624 1624 1632 1632 1632 1632 1632 1632 1632 1624 1624 1624 1616 1609 1609 1609 1609 1609 1616 1616 1616 1624 1624 1624 1624 1632 2170 2184 2184 2198 2198 2198 2198 2212 2485 2485 2485 2467 2467 2485 2485 2485 2485 2485 2485 2485 2485 2485 2485 2485 2485 2485 2485 2485 2485 2485 2485 1757 1757 1748 1731 1731 1722 1722 1713 1705 1696 1696 1688 1680 1671 1671 1663 1655 1655 1655 1647 1647 1647 1647 1647 1647 1655 1655 1663 1663 1663 1671 1680 1680 1688 1688 1688 1688 1688 1688 1688 1680 1680 1680 1688 1688 1688 1696 1696 1696 1705 1705 1705 1705 1713 1713 1713 1713 1713 1722 1722 1722 1722 1722 1722 1731 1731 1731 1731 1731 1731 1739 1739 1739 1739 1739 1748 1748 1748 1748 1748 1748 1748 1757 1757 1757 1757 1766 1776 1785 1785 1785 1785 1776 1776 1776 1776 1776 1776 1766 1766 1776 1776 1776 1776 1776 1776 2450 2450 2467 2467 2467 2485 2485 2485 2485 2467 2467 2028 2028 2028 2028 2028 2016 2005 1993 1993 1993 1993 1993 1993 1993 1993 1993 2005 2005 2005 2005 2005 1959 1959 2450 2450 2450 2467 2467 2485 2485 2485 2485 2467 2467 2467 2467 2467 2467 2467 2467 2467 2467 2467 2467 2467 2467 2467 2467 2467 2467 2450 2450 2450 2467 2467 2467 2467 2467 2467 2467 2467 2467 2467 2467 2450 2450 2450 2450 2450 2450 2450 2467 2467 2467 2467 2467 2467 2467 2467 2485 2485 2467 2467 2467 2467 2485 2485 2485 2485 2485 2503 2485 2485 2467 2467 2467 2467 2467 2467 2467 2467 2467 2467 2467 2467 2467 2467 2467 2467 2467 2450 2450 2450 2450 2450 2450 2450 2450 2450 2450 2450 2450 2450 2432 2432 2450 2450 2450 2450 2450 2450 2450 2450 2450 2450 2432 2432 2432 0 0 0 0 0 0 0 0 0 0
0 0 0 0 0 0 0 0 0 0 0 0 0 0 0 0 0 0 0 0 0 0 0 0 0 0 0 0 0 0 0 0 0 2333 2333 2333 2333 2333 2333 2333 2333 2333 2333 2333 2333 2333 2333 2333 2333 2333 2349 2349 2349 2349 2349 2349 2349 2349 2349 2349 2349 2349 2349 2365 2349 2349 2349 2365 2365 2365 2365 2365 2349 2349 2333 2333 2333 2333 2333 2333 2333 2349 2349 2349 2349 2349 2349 2349 2365 2365 2365 2365 2381 2381 2381 2381 2381 2365 2365 2365 2365 2365 2365 2365 2381 2381 2381 2381 2381 2381 2381 2381 2381 2398 2398 2398 2398 2398 2398 2381 2381 2381 2381 2381 2381 2381 2381 2381 2381 2381 2381 2381 2381 2398 2398 2398 2398 2398 2398 2398 2398 2398 2398 2398 2398 2398 2415 2398 2398 2415 2415 2415 2415 2415 2415 2415 2415 2398 2398 2398 2398 2398 2398 2398 2398 2398 2398 2398 2398 2398 2415 2143 2143 2170 2184 2184 2184 2184 2184 2198 2198 2198 2198 2212 2381 2398 2415 2415 2415 2415 2415 2415 2398 2398 2398 1833 1833 1833 1833 1833 1833 1503 1503 1503 1503 1503 1503 1503 1503 1509 1509 1509 1509 1509 1509 1509 1516 1516 1516 1523 1523 1586 1594 1594 1594 1594 1594 1601 1601 1601 1609 1609 1616 1458 1458 1464 1464 1458 1458 1458 1458 1464 1464 1470 1470 1470 1470 1464 1464 1609 1609 1609 1601 1601 1601 1601 1601 1609 1601 1601 1601 1609 1609 1609 1609 1609 1609 1609 1609 1609 1609 1609 1609 1609 1609 1609 1609 1609 1609 1609 1609 1609 1609 1609 1609 1609 1609 1609 1609 1616 1616 1616 1624 1624 1624 1616 1616 1616 1616 1616 1616 1616 1616 1616 1624 1624 1616 1616 1616 1616 1616 1616 1616 1616 1624 1624 1624 1616 1616 1624 1624 1632 1624 1624 1632 1632 1632 1624 1624 1624 1616 1616 1616 1609 1609 1616 1616 1616 1616 1624 1624 1624 1624 2170 2170 2184 2184 2198 2198 2198 2198 2212 2467 2467 2467 2467 2467 2467 2467 2485 2485 2485 2485 2467 2467 2485 2485 2467 2467 2467 2467 2485 2467 2467 2467 2467 2467 1748 1731 1731 1722 1722 1713 1705 1705 1696 1688 1680 1671 1671 1663 1655 1655 1655 1647 1647 1647 1647 1655 1655 1655 1655 1663 1663 1663 1680 1680 1680 1688 1688 1688 1688 1688 1688 1688 1688 1688 1688 1688 1688 1688 1696 1696 1696 1705 1705 1705 1713 1713 1713 1713 1722 1722 1722 1722 1722 1722 1722 1722 1731 1731 1731 1731 1731 1731 1739 1739 1739 1739 1739 1739 1739 1739 1748 1748 1748 1748 1757 1757 1757 2467 2467 2485 1785 1785 1785 1785 1776 1776 1776 1776 1776 1776 1776 1776 1776 1776 1776 1776 1776 2450 2450 2450 2467 2467 2467 2467 2467 2485 2467 2467 2467 2028 2028 2028 2028 2028 2028 2005 2005 2005 1993 1993 1993 1993 1993 1993 2005 2005 2005 2005 2005 2016 2415 2432 2432 2432 2450 2450 2450 2467 2467 2467 2467 2467 2467 2450 2450 2450 2450 2467 2450 2450 2450 2450 2450 2467 2450 2450 2450 2450 2450 2450 2450 2450 2450 2450 2450 2467 2467 2467 2450 2450 2467 2467 2450 2450 2450 2450 2450 2450 2450 2450 2450 2450 2450 2450 2467 2467 2467 2467 2467 2467 2467 2467 2467 2467 2467 2467 2467 2467 2467 2485 2467 2467 2450 2450 2467 2467 2450 2450 2450 2450 2450 2450 2467 2450 2450 2450 2450 2450 2450 2432 2432 2432 2432 2432 2432 2432 2432 2432 2432 2432 2432 2432 2432 2432 2450 2450 2450 2450 2450 2450 2450 2432 2432 2432 2432 2432 2432 0 0 0 0 0 0 0 0 0 0
0 0 0 0 0 0 0 0 0 0 0 0 0 0 0 0 0 0 0 0 0 0 0 0 0 0 0 0 0 0 0 0 0 2333 2333 2333 2333 2317 2317 2333 2333 2333 2333 2333 2333 2333 2333 2333 2333 2333 2333 2349 2349 2349 2349 2349 2349 2349 2349 2349 2349 2349 2349 2349 2349 2349 2349 2349 2349 2349 2365 2365 2349 2349 2333 2333 2333 2333 2333 2333 2333 2333 2333 2333 2333 2333 2349 2349 2349 2349 2349 2365 2365 2365 2365 2365 2365 2349 2349 2349 2349 2349 2349 2365 2365 2365 2365 2381 2365 2365 2381 2381 2381 2381 2381 2381 2381 2381 2381 2365 2365 2365 2365 2365 2365 2365 2381 2381 2381 2381 2381 2381 2381 2381 2381 2381 2398 2398 2398 2398 2398 2398 2398 2398 2398 2398 2398 2398 2398 2398 2398 2398 2398 2398 2398 2398 2398 2381 2381 2398 2398 2398 2398 2381 2381 2381 2381 2398 2381 2381 2398 2143 2143 2170 2184 2184 2184 2184 2184 2198 2198 2198 2198 2212 2365 2381 2398 2398 2398 2398 2415 2398 2398 2398 2398 1833 1833 1833 1833 1833 1833 1509 1503 1503 1503 1503 1503 1503 1509 1509 1509 1509 1509 1509 1509 1516 1516 1523 1523 1523 1529 1586 1586 1586 1594 1594 1594 1594 1594 1594 1594 1601 1464 1464 1464 1464 1464 1458 1458 1464 1464 1464 1470 1470 1470 1470 1470 1464 1464 1470 1586 1586 1594 1594 1594 1594 1594 1594 1594 1601 1601 1601 1601 1601 1601 1601 1601 1601 1601 1601 1601 1601 1601 1609 1601 1601 1601 1601 1601 1601 1601 1601 1601 1601 1601 1601 1609 1609 1609 1609 1609 1609 1609 1609 1616 1609 1609 1609 1609 1609 1609 1609 1609 1609 1609 1609 1609 1609 1609 1609 1609 1616 1609 1609 1609 1616 1616 1616 1616 1616 1624 1624 1624 1624 1632 1632 1632 1624 1624 1624 1616 1616 1616 1616 1616 1616 1616 1616 1624 1624 1624 1624 1624 2170 2170 2198 2198 2198 2212 2212 2212 2212 2467 2467 2467 2467 2467 2467 2467 2467 2467 2467 2467 2467 2467 2467 2467 2467 2467 2467 2467 2467 2467 2467 2467 2467 2467 2467 1722 1722 1722 1722 1713 1705 1705 1696 1696 1688 1680 1671 1671 1663 1655 1655 1655 1655 1655 1655 1655 1655 1655 1663 1663 1671 1671 1680 1688 1688 1688 1696 1696 1696 1696 1696 1696 1688 1688 1688 1688 1696 1696 1705 1705 1705 1705 1713 1713 1713 1713 1713 1722 1722 1722 1722 1722 1722 1722 1722 1722 1731 1731 1731 1731 1739 1739 1739 1739 1739 1739 1739 1739 1739 1739 1748 1748 1748 2467 2467 2467 2467 2467 2467 2467 1785 1785 1785 1785 1785 1776 1776 1776 1776 1776 1776 1776 1776 1776 1776 1776 1776 2450 2450 2450 2450 2467 2467 2467 2467 2467 2467 2467 2467 2467 2028 2028 2028 2028 2028 2005 2005 2005 1993 1993 1993 1993 1993 2005 2005 2005 2005 2005 2016 2016 2016 2432 2432 2432 2432 2450 2450 2450 2450 2450 2450 2450 2450 2450 2450 2450 2450 2450 2450 2450 2450 2450 2450 2450 2450 2450 2450 2450 2450 2450 2450 2450 2450 2450 2450 2450 2450 2450 2450 2450 2450 2450 2450 2450 2432 2432 2432 2432 2432 2450 2450 2450 2450 2450 2450 2450 2450 2450 2450 2450 2450 2450 2450 2450 2450 2450 2450 2450 2467 2467 2450 2432 2432 2432 2432 2450 2432 2432 2432 2432 2432 2432 2432 2432 2432 2432 2432 2432 2432 2432 2432 2432 2432 2432 2432 2432 2432 2432 2432 2432 2432 2432 2432 2432 2450 2450 2432 2432 2432 2432 2432 2432 2432 2432 2432 2432 2432 0 0 0 0 0 0 0 0 0 0
0 0 0 0 0 0 0 0 0 0 0 0 0 0 0 0 0 0 0 0 0 0 0 0 0 0 0 0 0 0 0 0 0 2333 2333 2317 2317 2317 2317 2333 2333 2333 2333 2333 2333 2333 2333 2333 2333 2333 2333 2333 2333 2333 2333 2333 2333 2333 2333 2333 2333 2333 2333 2333 2349 2349 2349 2349 2349 2349 2349 2349 2333 2333 2333 2333 2333 2333 2333 2317 2317 2333 2333 2333 2333 2333 2333 2333 2333 2333 2349 2349 2349 2349 2349 2349 2349 2333 2333 2333 2349 2349 2349 2349 2349 2349 2349 2365 2365 2365 2365 2365 2365 2381 2381 2381 2381 2381 2381 2365 2365 2365 2365 2365 2365 2365 2365 2365 2381 2381 2381 2381 2381 2381 2381 2381 2381 2381 2381 2398 2381 2381 2381 2398 2398 2398 2398 2398 2398 2398 2398 2398 2398 2398 2398 2398 2398 2381 2381 2381 2381 2381 2381 2381 2381 2381 2381 2381 2381 2381 2381 2143 2143 2156 2184 2184 2184 2184 2184 2198 2198 2198 2198 2212 2365 2381 2381 2398 2398 2398 2398 2398 2381 2381 2381 1833 1833 1833 1833 1833 1833 1833 1503 1503 1503 1503 1509 1509 1509 1509 1516 1516 1516 1516 1516 1516 1516 1523 1523 1523 1529 1586 1586 1586 1586 1586 1586 1586 1586 1594 1594 1601 1464 1464 1464 1470 1464 1464 1464 1464 1464 1470 1470 1470 1470 1470 1470 1464 1464 1470 1586 1586 1586 1586 1586 1586 1586 1586 1586 1586 1586 1594 1594 1594 1594 1594 1594 1594 1594 1594 1594 1594 1594 1594 1594 1594 1594 1594 1601 1601 1594 1594 1601 1601 1601 1601 1601 1601 1601 1601 1601 1601 1609 1609 1601 1601 1601 1601 1601 1601 1601 1601 1601 1601 1609 1609 1609 1609 1609 1609 1609 1609 1609 1609 1609 1609 1609 1609 1609 1616 1616 1624 1624 1624 1624 1624 1624 1624 1624 1624 1616 1616 1616 1616 1616 1616 1616 1616 1624 1624 1624 1624 1624 1632 2184 2198 2198 2212 2212 2212 2212 2467 2467 2467 2467 2467 2467 2467 2467 2467 2467 2467 2467 2467 2467 2467 2467 2467 2467 2467 2467 2467 2467 2467 2467 2467 2467 2467 2467 1722 1722 1722 1713 1705 1705 1696 1696 1688 1680 1680 1671 1663 1655 1655 1655 1655 1655 1655 1655 1655 1663 1663 1663 1671 1671 1688 1688 1688 1688 1696 1696 1696 1696 1696 1696 1688 1688 1688 1696 1696 1696 1705 1705 1705 1713 1713 1713 1713 1713 1713 1722 1722 1722 1722 1731 1731 1731 1731 1731 1731 1731 1731 1731 1739 1739 1739 1748 1748 1748 2432 2450 2450 2450 2450 2450 2467 2467 2467 2467 2467 2467 2467 2467 1785 1785 1785 1785 1785 1776 1776 1776 1776 1776 1776 1776 1776 1776 1776 1776 1776 2450 2450 2450 2450 2450 2450 2467 2467 2467 2467 2467 2450 2450 2028 2028 2028 2028 2028 2005 2005 2005 1993 1993 1993 1993 1993 2005 2005 2005 2005 2005 2016 2016 2016 2432 2432 2432 2432 2450 2450 2450 2450 2450 2450 2450 2432 2432 2432 2450 2450 2450 2450 2450 2450 2450 2450 2450 2450 2450 2450 2450 2450 2450 2432 2432 2432 2432 2432 2432 2432 2432 2450 2450 2450 2432 2432 2432 2432 2432 2432 2432 2432 2432 2432 2432 2432 2450 2450 2450 2450 2450 2450 2450 2450 2450 2450 2450 2450 2450 2450 2450 2450 2450 2432 2432 2432 2432 2432 2432 2432 2432 2432 2432 2432 2432 2432 2432 2432 2432 2432 2432 2432 2432 2432 2432 2432 2432 2432 2415 2415 2415 2415 2415 2432 2432 2432 2432 2432 2432 2432 2432 2432 2415 2415 2415 2415 2415 2415 2432 2432 0 0 0 0 0 0 0 0 0 0
0 0 0 0 0 0 0 0 0 0 0 0 0 0 0 0 0 0 0 0 0 0 0 0 0 0 0 0 0 0 0 0 0 2317 2317 2317 2317 2317 2317 2317 2317 2317 2333 2333 2333 2317 2317 2317 2317 2317 2317 2317 2317 2333 2333 2333 2333 2333 2333 2333 2333 2333 2333 2333 2333 2333 2333 2333 2333 2349 2349 2349 2333 2333 2333 2333 2333 2333 2333 2317 2317 2333 2333 2333 2333 2333 2333 2333 2333 2333 2333 2349 2349 2349 2349 2349 2333 2333 2333 2333 2333 2333 2349 2349 2349 2349 2349 2365 2349 2349 2365 2365 2365 2365 2381 2381 2365 2365 2365 2349 2349 2349 2349 2349 2349 2349 2365 2365 2365 2365 2381 2381 2381 2381 2381 2381 2381 2381 2381 2381 2381 2381 2381 2381 2381 2398 2398 2398 2398 2398 2398 2398 2398 2398 2398 2398 2398 2381 2381 2381 2381 2381 2381 2381 2381 2381 2381 2381 2381 2381 2365 2365 2156 2156 2184 2184 2184 2184 2184 2198 2198 2198 2198 2212 2256 2365 2381 2381 2381 2381 2381 2381 2381 2381 2381 1833 1833 1833 1833 1833 1833 1833 1509 1509 1509 1509 1509 1509 1509 1516 1516 1516 1516 1516 1516 1516 1523 1523 1523 1529 1536 1579 1586 1586 1586 1586 1586 1586 1586 1586 1586 1470 1470 1464 1464 1470 1470 1470 1470 1470 1470 1470 1470 1470 1477 1477 1477 1470 1470 1579 1579 1579 1579 1586 1586 1586 1586 1579 1579 1579 1579 1586 1586 1586 1586 1586 1586 1586 1586 1586 1586 1586 1586 1594 1594 1594 1586 1586 1594 1594 1594 1594 1594 1594 1594 1594 1594 1594 1594 1594 1594 1594 1594 1586 1586 1586 1586 1586 1586 1586 1586 1594 1594 1594 1601 1601 1601 1601 1601 1601 1601 1601 1601 1601 1601 1601 1609 1609 1609 1609 1616 1616 1616 1616 1624 1624 1624 1624 1624 1624 1616 1616 1616 1616 1616 1616 1616 1616 1624 1624 1624 1624 1624 1632 2184 2198 2198 2212 2212 2212 2212 2467 2467 2467 2450 2450 2450 2450 2450 2450 2450 2450 2450 2450 2450 2467 2467 2467 2450 2450 2467 2467 2450 2450 2467 2467 2467 2467 2467 1722 1722 1722 1713 1705 1705 1705 1696 1688 1688 1680 1671 1663 1655 1655 1655 1655 1655 1655 1655 1655 1663 1663 1663 1671 1671 1688 1688 1688 1688 1696 1696 1696 1696 1696 1696 1688 1688 1696 1696 1696 1705 1713 1713 1713 1713 1713 1713 1713 1713 1713 1722 1722 1722 1731 1731 1731 1739 1731 1731 1731 1731 1731 1731 1739 1739 2432 2432 2432 2432 2432 2450 2450 2450 2450 2450 2467 2467 2467 2467 2467 2467 2467 1794 1794 1785 1785 1785 1785 1785 1785 1776 1776 1776 1776 1776 1776 1785 1785 1785 1785 2450 2450 2450 2450 2450 2450 2450 2450 2450 2450 2450 2450 2450 2028 2028 2028 2028 2028 2005 2005 2005 1993 1993 1993 1993 1993 1993 2005 2005 2005 2016 2016 2016 2016 2432 2432 2432 2432 2432 2432 2432 2432 2432 2432 2432 2432 2432 2432 2432 2432 2432 2432 2432 2432 2432 2432 2450 2432 2432 2450 2450 2450 2432 2432 2432 2432 2432 2432 2432 2432 2432 2432 2432 2432 2432 2432 2415 2415 2415 2415 2432 2432 2432 2432 2432 2432 2450 2450 2450 2450 2450 2450 2450 2450 2450 2450 2450 2450 2450 2450 2450 2450 2450 2432 2415 2415 2415 2415 2415 2415 2415 2415 2432 2432 2432 2432 2432 2432 2432 2415 2415 2415 2415 2415 2415 2415 2415 2415 2415 2415 2415 2415 2415 2415 2432 2432 2432 2432 2432 2432 2415 2415 2415 2415 2415 2415 2415 2415 2415 2415 0 0 0 0 0 0 0 0 0 0
0 0 0 0 0 0 0 0 0 0 0 0 0 0 0 0 0 0 0 0 0 0 0 0 0 0 0 0 0 0 0 0 0 2301 2301 2301 2301 2301 2317 2317 2317 2317 2333 2333 2333 2317 2317 2317 2301 2301 2301 2317 2317 2317 2317 2317 2333 2317 2317 2317 2317 2317 2317 2317 2333 2333 2333 2333 2333 2333 2333 2333 2333 2333 2333 2333 2333 2333 2333 2317 2317 2317 2317 2317 2317 2317 2317 2333 2333 2333 2333 2333 2333 2333 2333 2333 2333 2317 2317 2333 2333 2333 2333 2333 2333 2333 2333 2349 2333 2333 2333 2333 2349 2349 2349 2349 2349 2349 2349 2349 2349 2349 2349 2349 2349 2349 2349 2365 2365 2365 2365 2365 2381 2381 2381 2381 2381 2381 2381 2381 2381 2381 2381 2381 2381 2381 2398 2398 2398 2398 2398 2398 2398 2381 2381 2381 2381 2365 2365 2365 2365 2365 2365 2365 2365 2365 2365 2365 2365 2365 2365 2349 2184 2184 2198 2198 2198 2198 2198 2198 2198 2198 2212 2212 2241 2365 2365 2381 2381 2381 2381 2381 2381 2381 2381 1823 1823 1833 1833 1833 1833 1833 1509 1509 1509 1509 1509 1509 1509 1516 1516 1516 1516 1516 1516 1523 1523 1523 1529 1529 1536 1564 1579 1579 1579 1579 1579 1579 1579 1579 1579 1470 1470 1464 1464 1470 1470 1470 1470 1470 1470 1470 1470 1470 1477 1477 1477 1477 1477 1572 1572 1579 1579 1579 1579 1579 1579 1579 1579 1579 1579 1579 1579 1579 1579 1579 1579 1579 1579 1586 1586 1586 1586 1586 1579 1579 1579 1579 1586 1586 1579 1579 1586 1586 1586 1586 1586 1586 1586 1586 1586 1586 1586 1579 1579 1579 1579 1579 1586 1579 1579 1586 1594 1594 1594 1594 1601 1601 1601 1601 1601 1601 1601 1601 1601 1601 1601 1609 1609 1609 1609 1616 1616 1616 1624 1624 1624 1624 1624 1624 1616 1616 1616 1616 1616 1616 1616 1624 1624 1624 1624 1624 1624 1632 2184 2198 2198 2212 2212 2212 2212 2241 2450 2450 2432 2432 2432 2450 2432 2432 2432 2450 2450 2450 2450 2450 2450 2450 2432 2432 2450 2450 2450 2450 2450 2467 2467 2467 2485 2485 1722 1722 1713 1713 1705 1705 1696 1688 1688 1680 1671 1663 1663 1655 1655 1655 1655 1655 1655 1655 1663 1663 1663 1671 1671 1688 1688 1688 1696 1696 1696 1696 1696 1705 1705 1696 1696 1696 1705 1705 1713 1713 1713 1713 1713 1713 1713 1713 1713 1713 1722 1722 1722 1731 1731 1731 1739 1739 1731 1731 1731 1731 1731 1739 2432 2432 2432 2432 2432 2432 2450 2450 2450 2450 2450 2450 2450 2450 2450 2450 2467 2467 1794 1794 1794 1785 1785 1785 1785 1785 1776 1776 1776 1776 1776 1785 1785 1785 1785 1785 2450 2450 2450 2450 2450 2450 2450 2450 2450 2450 2450 2450 2450 2028 2028 2028 2028 2028 2005 2005 2005 1993 1993 1993 1993 1993 1993 2005 2005 2005 2016 2016 2028 2028 2432 2432 2432 2432 2432 2432 2432 2432 2432 2432 2432 2432 2432 2432 2432 2432 2432 2432 2432 2432 2432 2432 2432 2432 2432 2432 2432 2432 2432 2432 2432 2432 2432 2432 2432 2432 2432 2432 2432 2432 2415 2415 2415 2415 2415 2415 2415 2432 2432 2432 2432 2432 2432 2432 2432 2432 2450 2432 2432 2432 2432 2432 2432 2432 2432 2432 2432 2432 2432 2415 2415 2415 2398 2398 2398 2415 2415 2415 2415 2432 2432 2432 2415 2415 2415 2415 2415 2415 2415 2415 2415 2415 2415 2398 2398 2398 2398 2398 2398 2415 2415 2415 2415 2432 2415 2415 2415 2415 2415 2415 2415 2415 2415 2415 2415 2415 0 0 0 0 0 0 0 0 0 0
0 0 0 0 0 0 0 0 0 0 0 0 0 0 0 0 0 0 0 0 0 0 0 0 0 0 0 0 0 0 0 0 0 2301 2301 2301 2301 2301 2301 2317 2317 2317 2317 2317 2317 2301 2301 2301 2301 2301 2301 2301 2301 2317 2317 2317 2317 2317 2317 2317 2317 2317 2317 2317 2317 2333 2333 2333 2333 2333 2333 2333 2333 2333 2317 2317 2333 2333 2333 2317 2317 2317 2317 2317 2317 2317 2317 2333 2333 2333 2333 2333 2333 2333 2333 2333 2317 2317 2317 2317 2317 2333 2333 2333 2333 2333 2333 2333 2333 2333 2333 2333 2333 2333 2333 2333 2333 2333 2333 2333 2333 2333 2333 2333 2349 2349 2349 2349 2349 2349 2365 2365 2365 2365 2381 2381 2381 2365 2365 2365 2365 2365 2365 2365 2365 2381 2381 2381 2381 2381 2381 2381 2381 2381 2381 2381 2381 2365 2365 2365 2365 2365 2365 2365 2365 2365 2365 2365 2365 2365 2365 2317 2317 2198 2198 2198 2198 2198 2198 2198 2198 2198 2212 2212 2241 2349 2365 2365 2381 2381 2381 2381 2381 2381 2381 1823 1823 1833 1833 1833 1833 1833 1516 1516 1509 1509 1516 1516 1516 1516 1516 1516 1516 1516 1523 1523 1523 1523 1529 1529 1543 1557 1579 1579 1579 1579 1572 1572 1572 1579 1579 1572 1470 1470 1470 1470 1470 1470 1470 1470 1470 1477 1477 1477 1477 1477 1483 1483 1572 1572 1572 1572 1572 1579 1579 1579 1579 1579 1579 1579 1579 1579 1579 1579 1579 1579 1579 1579 1579 1579 1579 1579 1579 1579 1579 1579 1579 1579 1579 1579 1579 1579 1579 1579 1579 1579 1579 1579 1579 1579 1579 1579 1579 1579 1579 1579 1579 1579 1579 1579 1579 1586 1586 1586 1594 1594 1601 1601 1601 1601 1601 1601 1601 1601 1601 1601 1601 1609 1609 1609 1609 1616 1616 1624 1624 1624 1632 1624 1624 1624 1616 1616 1616 1616 1616 1616 1624 1624 1624 1632 1632 1632 1632 1632 2198 2198 2198 2212 2212 2212 2226 2241 2415 2415 2415 2415 2415 2415 2415 2415 2415 2432 2415 2415 2432 2432 2432 2432 2432 2432 2432 2432 2432 2432 2450 2467 2467 2467 2485 2485 2485 1722 1713 1713 1705 1705 1696 1696 1688 1680 1671 1663 1663 1655 1655 1655 1655 1655 1663 1663 1663 1663 1663 1671 1680 1688 1688 1688 1696 1696 1696 1696 1705 1705 1705 1696 1696 1705 1705 1705 1713 1713 1713 1713 1713 1713 1713 1713 1713 1713 1722 1722 1731 1731 1731 1731 1739 2415 2415 2415 2415 2415 2415 2432 2432 2432 2432 2432 2432 2432 2450 2450 2450 2450 2450 2450 2450 2450 2450 2432 2432 2432 1794 1794 1794 1794 1785 1785 1785 1785 1776 1776 1776 1776 1785 1785 1785 1785 1785 1757 1757 2432 2432 2432 2432 2432 2450 2450 2432 2432 2432 2450 2450 2028 2028 2040 2040 2028 2016 2005 2005 2005 1993 1993 1993 2005 2005 2005 2016 2016 2016 2028 2028 2028 2415 2432 2432 2432 2432 2415 2415 2415 2415 2415 2415 2415 2415 2432 2432 2432 2432 2432 2432 2432 2415 2415 2432 2415 2415 2415 2432 2432 2415 2415 2415 2415 2415 2415 2415 2415 2415 2432 2432 2415 2415 2415 2398 2398 2398 2398 2415 2415 2415 2432 2432 2432 2432 2432 2432 2432 2432 2432 2432 2432 2432 2432 2432 2432 2432 2432 2432 2432 2432 2415 2398 2398 2398 2398 2398 2398 2398 2398 2415 2415 2415 2415 2415 2415 2415 2415 2398 2398 2398 2398 2398 2398 2398 2398 2398 2398 2398 2398 2398 2415 2415 2415 2415 2415 2415 2415 2398 2398 2415 2415 2415 2398 2398 2398 2398 2398 0 0 0 0 0 0 0 0 0 0
0 0 0 0 0 0 0 0 0 0 0 0 0 0 0 0 0 0 0 0 0 0 0 0 0 0 0 0 0 0 0 0 0 2301 2301 2286 2286 2286 2301 2301 2301 2301 2317 2317 2301 2301 2301 2301 2286 2286 2301 2301 2301 2301 2301 2301 2317 2301 2301 2301 2301 2301 2301 2301 2317 2317 2317 2317 2317 2317 2317 2333 2317 2317 2317 2317 2317 2317 2317 2301 2301 2301 2301 2317 2317 2317 2317 2317 2333 2333 2333 2333 2333 2333 2333 2317 2317 2317 2317 2317 2317 2317 2317 2333 2333 2333 2333 2333 2317 2317 2317 2317 2317 2317 2333 2333 2333 2333 2333 2333 2333 2333 2333 2333 2333 2333 2349 2349 2349 2349 2349 2349 2365 2365 2365 2365 2365 2365 2365 2365 2349 2349 2349 2349 2349 2365 2365 2365 2365 2381 2381 2381 2381 2381 2381 2381 2381 2365 2349 2349 2349 2349 2349 2349 2349 2349 2349 2349 2365 2365 2349 2317 2317 2198 2198 2198 2198 2198 2198 2198 2198 2198 2212 2212 2256 2349 2365 2365 2381 2381 2381 2381 2381 2381 2381 1823 1823 1833 1833 1833 1833 1833 1516 1516 1509 1509 1516 1516 1516 1516 1516 1516 1523 1523 1523 1523 1523 1529 1529 1529 1550 1557 1564 1572 1572 1572 1564 1564 1564 1572 1564 1564 1470 1470 1470 1470 1470 1470 1470 1470 1477 1477 1477 1477 1477 1483 1483 1483 1489 1564 1564 1572 1572 1572 1572 1572 1572 1572 1572 1572 1572 1572 1572 1572 1572 1572 1572 1572 1572 1572 1572 1572 1572 1572 1572 1579 1572 1572 1572 1572 1572 1572 1572 1572 1572 1579 1579 1579 1579 1579 1579 1579 1579 1579 1579 1579 1579 1579 1579 1579 1579 1586 1586 1586 1594 1594 1601 1601 1601 1601 1601 1601 1601 1601 1601 1601 1601 1609 1609 1609 1616 1616 1624 1624 1632 1632 1632 1632 1632 1632 1624 1624 1624 1624 1624 1624 1624 1632 1632 1632 1632 1632 1632 1632 2198 2212 2212 2212 2212 2226 2226 2256 2398 2415 2415 2415 2415 2415 2415 2415 2415 2415 2415 2415 2415 2415 2415 2415 2415 2415 2415 2415 2415 2415 2432 2432 2450 2432 2432 2450 2450 2450 1713 1713 1705 1705 1696 1696 1688 1680 1671 1663 1663 1655 1655 1655 1655 1655 1663 1663 1663 1663 1671 1671 1680 1688 1688 1696 1696 1696 1696 1705 1705 1705 1705 1696 1696 1705 1705 1705 1713 1713 1713 1713 1713 1713 1713 1713 1713 1713 1722 1722 1722 1731 1739 2398 2398 2415 2415 2415 2415 2415 2432 2432 2432 2432 2432 2432 2432 2432 2432 2432 2432 2432 2432 2432 2432 2432 2432 2432 2432 2432 1794 1794 1794 1794 1794 1785 1785 1785 1785 1776 1776 1776 1785 1785 1785 1785 1757 1757 1757 2415 2415 2415 2432 2432 2432 2432 2432 2432 2432 2432 2040 2028 2028 2040 2040 2040 2016 2005 2005 2005 1993 1993 1993 2005 2005 2005 2016 2016 2028 2028 2028 2028 2415 2432 2432 2415 2415 2398 2398 2398 2398 2398 2398 2415 2415 2415 2432 2432 2432 2432 2415 2415 2415 2415 2415 2415 2415 2415 2415 2415 2415 2415 2415 2398 2398 2415 2415 2415 2415 2415 2415 2415 2398 2398 2398 2398 2398 2398 2398 2398 2415 2415 2415 2415 2415 2415 2415 2432 2432 2432 2432 2432 2432 2432 2432 2432 2432 2415 2415 2415 2415 2415 2398 2398 2398 2398 2398 2398 2398 2398 2398 2398 2415 2398 2398 2398 2398 2398 2381 2381 2381 2381 2381 2381 2381 2381 2381 2381 2381 2381 2381 2398 2398 2398 2398 2398 2398 2398 2398 2398 2398 2398 2398 2398 2398 2381 2381 2381 0 0 0 0 0 0 0 0 0 0
0 0 0 0 0 0 0 0 0 0 0 0 0 0 0 0 0 0 0 0 0 0 0 0 0 0 0 0 0 0 0 0 0 2286 2286 2286 2286 2286 2301 2301 2301 2301 2301 2301 2286 2286 2286 2286 2286 2286 2301 2301 2301 2301 2301 2301 2301 2301 2286 2286 2286 2301 2301 2301 2301 2301 2317 2301 2301 2301 2317 2317 2317 2317 2317 2317 2301 2301 2301 2301 2301 2286 2286 2301 2301 2301 2317 2317 2317 2317 2317 2317 2317 2317 2317 2317 2317 2317 2317 2317 2317 2317 2317 2317 2317 2317 2317 2317 2317 2317 2317 2317 2317 2317 2317 2317 2333 2333 2333 2333 2333 2333 2333 2333 2333 2333 2333 2333 2333 2333 2349 2349 2349 2349 2349 2365 2349 2349 2349 2349 2349 2349 2349 2349 2349 2349 2349 2349 2365 2365 2365 2381 2381 2381 2381 2365 2365 2349 2349 2349 2333 2333 2333 2333 2333 2333 2349 2349 2349 2349 2349 2333 2333 2198 2198 2198 2198 2198 2198 2198 2198 2212 2212 2226 2256 2333 2349 2365 2365 2365 2365 2365 2381 2381 2381 1823 1823 1833 1843 1843 1843 1843 1516 1516 1516 1516 1516 1516 1516 1516 1516 1516 1523 1523 1523 1523 1523 1529 1529 1529 1536 1550 1557 1564 1564 1564 1564 1564 1564 1564 1564 1564 1477 1470 1470 1470 1470 1470 1470 1470 1477 1477 1477 1477 1477 1483 1489 1489 1489 1564 1564 1564 1564 1572 1572 1572 1572 1572 1572 1572 1572 1572 1572 1572 1572 1572 1572 1572 1572 1572 1572 1572 1572 1572 1572 1572 1572 1572 1572 1572 1572 1572 1572 1572 1572 1572 1572 1572 1579 1579 1579 1579 1579 1579 1579 1579 1579 1579 1579 1579 1579 1586 1586 1586 1594 1594 1601 1601 1601 1601 1601 1601 1601 1601 1601 1601 1609 1609 1609 1609 1616 1616 1624 1624 1632 1632 1632 1632 1632 1632 1624 1624 1624 1624 1624 1624 1632 1632 1632 1632 1632 1632 1632 1624 1624 2212 2212 2212 2226 2226 2226 2256 2381 2398 2398 2398 2398 2415 2415 2415 2415 2415 2415 2415 2415 2415 2415 2415 2415 2415 2415 2415 2415 2415 2432 2432 2432 2432 2432 2432 2432 2415 1713 1713 1705 1696 1696 1696 1688 1680 1671 1663 1663 1663 1655 1655 1663 1663 1663 1663 1663 1663 1671 1671 1680 1688 1696 1696 1696 1696 1696 1696 1705 1705 1705 1696 1696 1696 1705 1713 1713 1713 1713 1722 1713 1713 1713 1722 1713 1713 1722 1722 1722 1731 2415 2398 2398 2415 2415 2415 2415 2415 2415 2415 2432 2432 2432 2415 2415 2415 2415 2415 2415 2415 2415 2415 2415 2415 2415 2415 2415 2415 1794 1794 1794 1794 1794 1794 1785 1785 1785 1776 1776 1776 1785 1785 1785 1785 1757 1757 1757 2415 2415 2415 2415 2432 2415 2415 2415 2415 2415 2432 2040 2028 2028 2040 2040 2040 2016 2016 2005 2005 2005 2005 2005 2005 2005 2016 2016 2016 2028 2028 2028 2415 2415 2415 2415 2415 2398 2398 2398 2398 2398 2398 2398 2398 2415 2415 2415 2415 2415 2415 2415 2415 2398 2398 2398 2398 2398 2398 2415 2415 2398 2398 2398 2398 2398 2398 2398 2398 2398 2398 2398 2398 2398 2398 2398 2398 2398 2398 2398 2398 2398 2415 2415 2415 2415 2415 2415 2415 2415 2415 2415 2415 2415 2415 2415 2415 2415 2415 2398 2398 2398 2398 2381 2381 2381 2381 2381 2381 2381 2381 2381 2398 2398 2398 2381 2381 2381 2381 2365 2365 2365 2365 2365 2365 2365 2365 2365 2365 2365 2365 2365 2381 2381 2381 2381 2381 2381 2381 2381 2381 2381 2381 2381 2381 2381 2381 2381 2381 0 0 0 0 0 0 0 0 0 0
0 0 0 0 0 0 0 0 0 0 0 0 0 0 0 0 0 0 0 0 0 0 0 0 0 0 0 0 0 0 0 0 0 2286 2286 2286 2286 2286 2301 2301 2301 2301 2286 2286 2286 2286 2286 2286 2286 2286 2286 2286 2286 2286 2286 2286 2301 2286 2286 2286 2286 2286 2301 2301 2301 2301 2301 2301 2301 2301 2301 2301 2301 2286 2286 2301 2286 2286 2286 2286 2286 2286 2286 2301 2301 2301 2301 2317 2317 2317 2317 2317 2317 2317 2317 2317 2317 2317 2317 2317 2317 2317 2317 2317 2317 2317 2317 2317 2301 2301 2317 2317 2317 2317 2317 2317 2317 2317 2317 2317 2333 2333 2333 2333 2333 2333 2333 2333 2333 2333 2333 2349 2349 2349 2349 2349 2349 2349 2349 2349 2333 2333 2333 2333 2333 2333 2349 2349 2349 2365 2365 2365 2365 2365 2365 2365 2365 2349 2333 2333 2333 2333 2333 2333 2333 2333 2333 2333 2333 2333 2333 2301 2212 2198 2198 2198 2198 2198 2198 2198 2198 2212 2212 2226 2256 2317 2349 2365 2365 2365 2365 2365 2365 2365 2365 1833 1833 1843 1843 1853 1853 1853 1516 1516 1516 1516 1516 1516 1516 1516 1516 1516 1523 1523 1523 1523 1523 1529 1529 1529 1536 1543 1550 1557 1557 1557 1557 1557 1557 1557 1557 1557 1483 1477 1477 1477 1477 1477 1477 1477 1477 1477 1483 1483 1483 1489 1489 1496 1550 1550 1557 1557 1564 1564 1564 1564 1564 1564 1564 1564 1564 1564 1564 1564 1572 1572 1564 1564 1564 1564 1564 1557 1557 1564 1564 1564 1564 1564 1564 1564 1564 1564 1564 1564 1564 1572 1572 1572 1572 1572 1572 1572 1572 1579 1579 1579 1579 1579 1579 1579 1579 1586 1586 1594 1594 1594 1601 1601 1601 1601 1601 1601 1601 1609 1609 1609 1609 1609 1609 1609 1616 1616 1624 1632 1632 1632 1632 1632 1632 1632 1624 1624 1624 1624 1624 1624 1632 1632 1632 1632 1632 1639 1632 1624 1624 2212 2212 2212 2226 2226 2226 2286 2381 2398 2398 2398 2398 2398 2398 2398 2398 2415 2398 2398 2415 2415 2415 2415 2415 2398 2398 2415 2415 2415 2415 2415 2415 2432 2432 2432 2415 2415 2415 2415 2415 1696 1696 1688 1688 1680 1680 1671 1663 1663 1663 1663 1663 1663 1663 1663 1663 1671 1671 1680 1680 1688 1688 1696 1696 1696 1696 1696 1696 1705 1696 1688 1688 1696 1696 1705 1713 1713 1722 1722 1722 1722 1722 1722 1722 1713 1713 1722 1722 2415 2415 2415 2415 2415 2415 2415 2415 2415 2415 2415 2415 2415 2415 2398 2398 2415 2415 2415 2415 2398 2398 2415 2415 2398 2398 2398 2398 2398 1794 1794 1794 1794 1794 1794 1785 1785 1785 1776 1776 1776 1785 1785 1785 1785 1785 1785 2381 2398 2398 2398 2415 2415 2415 2415 2415 2415 2415 2432 2040 2040 2040 2040 2040 2040 2016 2016 2005 2005 2005 2005 2005 2005 2005 2016 2016 2028 2028 2028 2040 2398 2398 2398 2398 2398 2398 2381 2381 2381 2381 2381 2398 2398 2398 2398 2415 2415 2415 2415 2398 2398 2398 2398 2398 2398 2398 2398 2398 2398 2398 2398 2398 2381 2381 2381 2381 2381 2381 2381 2381 2381 2381 2381 2381 2381 2381 2381 2381 2398 2398 2415 2415 2415 2415 2415 2415 2415 2415 2398 2398 2398 2398 2398 2398 2398 2398 2398 2398 2398 2398 2381 2381 2381 2381 2381 2381 2381 2381 2381 2381 2381 2381 2381 2381 2381 2365 2365 2365 2365 2365 2365 2365 2365 2365 2365 2365 2365 2365 2365 2365 2365 2365 2365 2365 2365 2365 2365 2365 2365 2365 2365 2381 2365 2365 2365 2381 2365 2365 0 0 0 0 0 0 0 0 0
0 0 0 0 0 0 0 0 0 0 0 0 0 0 0 0 0 0 0 0 0 0 0 0 0 0 0 0 0 0 0 0 0 2271 2271 2286 2286 2286 2286 2286 2286 2286 2286 2286 2286 2271 2271 2286 2286 2286 2286 2286 2286 2286 2286 2286 2286 2286 2286 2286 2286 2286 2286 2286 2301 2301 2301 2301 2301 2301 2301 2301 2301 2286 2286 2286 2286 2286 2286 2286 2286 2286 2286 2286 2301 2301 2301 2317 2317 2317 2301 2301 2301 2301 2301 2301 2301 2301 2301 2301 2317 2317 2301 2301 2301 2301 2301 2301 2301 2301 2301 2301 2317 2317 2317 2317 2317 2317 2317 2317 2333 2333 2333 2333 2333 2333 2333 2333 2333 2333 2333 2333 2333 2333 2333 2333 2333 2333 2333 2333 2333 2333 2333 2333 2333 2333 2333 2349 2349 2349 2349 2365 2365 2365 2365 2349 2349 2333 2333 2317 2317 2317 2317 2317 2317 2317 2333 2333 2333 2317 2317 2301 2212 2212 2198 2198 2198 2198 2198 2198 2212 2212 2226 2226 2256 2317 2317 2349 2349 2349 2365 2365 2365 2365 2365 1833 1833 1843 1853 1853 1863 1863 1516 1516 1516 1516 1516 1516 1516 1516 1516 1516 1523 1523 1523 1523 1523 1529 1529 1529 1536 1536 1543 1550 1557 1557 1557 1557 1557 1557 1557 1557 1557 1477 1477 1477 1477 1477 1477 1477 1477 1483 1483 1489 1489 1496 1496 1496 1543 1543 1550 1550 1557 1557 1557 1557 1557 1557 1557 1557 1557 1557 1564 1564 1564 1564 1557 1557 1557 1557 1557 1550 1550 1557 1557 1557 1557 1557 1557 1557 1564 1557 1557 1564 1564 1564 1564 1572 1572 1572 1572 1572 1572 1579 1579 1579 1579 1579 1579 1579 1579 1586 1586 1594 1594 1601 1601 1601 1601 1601 1601 1609 1609 1609 1609 1609 1609 1616 1616 1616 1616 1624 1632 1632 1632 1632 1632 1632 1632 1632 1624 1624 1624 1624 1624 1632 1632 1632 1632 1639 1639 1639 1632 1624 1624 2212 2212 2212 2226 2226 2241 2301 2365 2381 2381 2398 2398 2398 2398 2398 2398 2398 2398 2398 2398 2398 2398 2398 2398 2398 2398 2398 2398 2415 2415 2415 2415 2415 2415 2415 2415 2415 2415 2415 2415 1688 1688 1688 1688 1680 1671 1671 1663 1663 1663 1663 1663 1663 1663 1663 1671 1671 1680 1680 1680 1688 1688 1688 1696 1696 1696 1696 1696 1696 1696 1688 1688 1696 1696 1705 1713 1713 1722 1731 1731 2129 2129 1722 1722 1713 1713 2398 2398 2398 2398 2398 2398 2398 2398 2398 2398 2398 2398 2398 2398 2398 2398 2398 2398 2398 2398 2398 2398 2398 2398 2398 2398 2398 2398 2398 2398 2398 1804 1804 1804 1804 1794 1794 1785 1785 1785 1785 1785 1785 1785 1785 1785 1785 1785 1785 2381 2381 2381 2398 2398 2415 2398 2398 2398 2398 2398 2398 2040 2040 2040 2040 2040 2040 2028 2016 2016 2005 2005 2005 2005 2005 2016 2016 2016 2028 2028 2040 2040 2398 2398 2398 2398 2398 2381 2381 2381 2381 2381 2381 2381 2381 2381 2398 2398 2398 2398 2398 2381 2381 2381 2381 2381 2381 2381 2398 2398 2398 2398 2398 2398 2381 2381 2381 2381 2381 2381 2381 2381 2381 2381 2381 2381 2381 2381 2381 2381 2381 2398 2398 2398 2398 2415 2398 2398 2415 2398 2398 2398 2398 2398 2398 2398 2398 2398 2398 2398 2381 2381 2365 2365 2365 2365 2365 2365 2365 2365 2365 2365 2365 2365 2365 2365 2365 2365 2365 2365 2365 2365 2365 2365 2365 2365 2365 2365 2365 2365 2365 2365 2365 2349 2349 2365 2365 2365 2365 2365 2365 2365 2365 2365 2365 2365 2365 2365 2365 2365 0 0 0 0 0 0 0 0 0
0 0 0 0 0 0 0 0 0 0 0 0 0 0 0 0 0 0 0 0 0 0 0 0 0 0 0 0 0 0 0 0 0 2271 2271 2271 2271 2271 2286 2286 2286 2286 2271 2271 2271 2271 2271 2271 2271 2286 2286 2286 2286 2286 2286 2286 2286 2286 2286 2286 2286 2286 2286 2286 2286 2286 2286 2286 2286 2286 2286 2286 2286 2271 2271 2271 2271 2271 2271 2271 2271 2271 2271 2271 2271 2286 2286 2301 2301 2301 2286 2286 2286 2286 2286 2286 2286 2301 2301 2301 2301 2301 2301 2301 2301 2286 2286 2286 2286 2286 2301 2301 2301 2317 2317 2317 2317 2317 2317 2317 2317 2317 2333 2333 2333 2333 2333 2333 2333 2333 2333 2333 2333 2333 2333 2333 2333 2333 2333 2333 2333 2333 2333 2333 2333 2333 2333 2333 2333 2333 2349 2349 2349 2349 2349 2349 2349 2333 2333 2317 2317 2317 2317 2317 2317 2317 2317 2317 2317 2317 2317 2286 2212 2212 2198 2198 2198 2198 2198 2198 2212 2212 2226 2226 2256 2301 2317 2333 2333 2333 2349 2349 2365 2365 2365 1843 1843 1843 1853 1853 1863 1863 1863 1516 1516 1516 1516 1516 1516 1516 1516 1523 1523 1523 1523 1529 1529 1529 1529 1529 1536 1536 1543 1550 1557 1550 1550 1550 1550 1550 1550 1550 1543 1483 1477 1477 1477 1477 1477 1477 1483 1483 1489 1489 1496 1503 1503 1503 1536 1543 1550 1550 1550 1557 1557 1557 1557 1557 1557 1557 1557 1557 1557 1557 1557 1557 1557 1557 1550 1550 1550 1550 1550 1550 1550 1557 1557 1557 1557 1557 1557 1557 1557 1557 1564 1564 1564 1564 1572 1572 1572 1572 1579 1579 1579 1579 1579 1579 1579 1579 1579 1586 1594 1594 1601 1601 1601 1601 1601 1601 1609 1609 1609 1609 1609 1609 1609 1616 1616 1616 1624 1624 1632 1632 1632 1639 1639 1639 1632 1632 1624 1624 1624 1624 1624 1632 1632 1632 1632 1639 1639 1639 1647 1647 2212 2212 2212 2226 2226 2226 2241 2301 2349 2365 2381 2381 2398 2398 2398 2398 2398 2398 2398 2398 2398 2398 2398 2398 2398 2398 2398 2398 2398 2398 2398 2398 2398 2415 2415 2415 2415 2415 2415 2415 2415 2415 1688 1688 1688 1680 1671 1671 1671 1663 1663 1663 1663 1663 1671 1671 1671 1680 1680 1680 1688 1688 1688 1688 1688 1688 1696 1696 1696 1696 1696 1688 1688 2170 1705 1705 2143 2143 2143 2129 2129 2129 2129 2129 2398 2398 2398 2398 2398 2398 2398 2398 2398 2398 2398 2398 2398 2398 2398 2398 2398 2398 2398 2398 2398 2398 2398 2398 2398 2398 2398 2398 2398 2381 2381 2381 2381 2381 1804 1804 1804 1804 1794 1794 1785 1785 1785 1785 1785 1785 1785 1785 1785 1785 1785 1785 2381 2381 2381 2381 2398 2398 2398 2398 2398 2398 2398 2053 2040 2040 2040 2040 2040 2040 2028 2016 2016 2005 2005 2005 2005 2005 2016 2016 2016 2028 2028 2028 2381 2381 2381 2381 2381 2381 2381 2381 2381 2381 2381 2381 2381 2381 2381 2381 2381 2398 2398 2381 2381 2381 2381 2381 2381 2381 2381 2381 2398 2398 2398 2381 2381 2381 2381 2381 2365 2365 2365 2365 2365 2365 2365 2365 2365 2381 2381 2381 2381 2381 2381 2398 2398 2398 2381 2381 2381 2398 2398 2381 2381 2381 2381 2381 2381 2381 2381 2381 2381 2381 2381 2365 2365 2349 2349 2365 2365 2365 2365 2365 2365 2365 2365 2365 2365 2365 2365 2365 2365 2365 2365 2365 2365 2365 2365 2365 2365 2365 2365 2349 2349 2349 2349 2349 2365 2365 2365 2365 2349 2349 2365 2365 2365 2365 2365 2365 2365 2365 2365 0 0 0 0 0 0 0 0 0
0 0 0 0 0 0 0 0 0 0 0 0 0 0 0 0 0 0 0 0 0 0 0 0 0 0 0 0 0 0 0 0 0 2256 2256 2256 2256 2256 2256 2256 2256 2256 2256 2256 2256 2256 2256 2271 2271 2271 2271 2271 2271 2271 2271 2271 2271 2271 2271 2271 2271 2271 2271 2271 2286 2286 2286 2286 2286 2286 2286 2286 2271 2271 2271 2271 2271 2271 2271 2271 2271 2271 2271 2271 2271 2271 2286 2286 2286 2286 2286 2286 2271 2271 2286 2286 2286 2286 2286 2286 2286 2286 2286 2271 2271 2271 2271 2271 2286 2286 2286 2301 2301 2301 2317 2317 2317 2317 2317 2317 2317 2317 2317 2317 2317 2317 2333 2333 2317 2317 2317 2317 2317 2317 2317 2317 2317 2317 2317 2317 2317 2317 2317 2317 2333 2333 2333 2333 2333 2333 2333 2333 2333 2333 2333 2333 2333 2317 2317 2317 2317 2317 2317 2317 2317 2317 2317 2317 2317 2301 2301 2271 2212 2212 2198 2198 2198 2198 2198 2198 2212 2226 2226 2226 2256 2301 2317 2333 2333 2333 2349 2349 2349 2365 2365 1833 1833 1853 1853 1863 1863 1873 1523 1516 1516 1516 1516 1516 1516 1516 1516 1523 1523 1523 1523 1529 1529 1529 1529 1529 1536 1536 1543 1550 1550 1550 1550 1550 1550 1543 1543 1543 1509 1483 1483 1483 1477 1477 1477 1483 1483 1489 1489 1496 1496 1503 1503 1503 1529 1536 1543 1550 1550 1550 1550 1550 1550 1550 1550 1550 1550 1550 1550 1550 1550 1550 1550 1550 1550 1550 1550 1550 1550 1550 1550 1557 1557 1557 1557 1557 1557 1557 1557 1557 1557 1557 1557 1564 1572 1572 1572 1572 1579 1579 1579 1579 1579 1579 1579 1586 1586 1586 1594 1594 1601 1601 1601 1601 1601 1601 1609 1609 1609 1609 1609 1609 1616 1624 1624 1624 1632 1632 1632 1639 1639 1639 1639 1639 1632 1632 1624 1624 1624 1624 1632 1632 1632 1632 1639 1639 1639 1639 1647 1647 2212 2212 2212 2226 2226 2226 2241 2317 2349 2365 2381 2381 2381 2381 2398 2398 2398 2398 2398 2398 2381 2381 2398 2398 2398 2398 2398 2398 2398 2398 2398 2398 2398 2398 2398 2415 2398 2398 2398 2398 2398 2398 1688 1688 1688 1680 1680 1671 1671 1663 1663 1663 1663 1671 1671 1671 1680 1680 1688 1688 1688 1688 1688 1688 1688 1688 1696 1696 2226 2212 2212 2212 2212 2170 2156 2143 2143 2129 2129 2116 2116 2116 2116 2103 2103 2103 2398 2398 2398 2398 2398 2398 2398 2398 2398 2398 2398 2398 2398 2398 2398 2398 2381 2381 2381 2381 2381 2398 2381 2381 2381 2398 2398 2381 2381 2381 2381 2381 2381 1804 1804 1804 1794 1794 1785 1785 1785 1785 1785 1785 1785 1785 1785 1785 1794 2271 2381 2381 2381 2381 2381 2398 2398 2398 2398 2398 2398 2053 2053 2040 2040 2040 2040 2040 2028 2028 2016 2016 2005 2005 2005 2005 2016 2016 2016 2028 2028 2028 2365 2365 2365 2365 2381 2381 2381 2381 2381 2381 2381 2381 2381 2381 2381 2381 2381 2381 2381 2381 2381 2381 2381 2381 2381 2381 2381 2381 2381 2381 2381 2381 2381 2381 2365 2365 2365 2365 2365 2365 2365 2365 2365 2365 2365 2381 2381 2381 2381 2381 2381 2381 2381 2381 2381 2381 2381 2381 2381 2381 2381 2381 2381 2381 2381 2381 2381 2365 2365 2365 2365 2349 2349 2349 2349 2349 2349 2349 2349 2349 2349 2349 2349 2349 2349 2349 2349 2349 2349 2349 2349 2349 2349 2349 2349 2349 2349 2349 2349 2349 2349 2349 2349 2349 2349 2349 2349 2349 2349 2349 2365 2349 2349 2349 2349 2365 2365 2365 2365 0 0 0 0 0 0 0 0 0
0 0 0 0 0 0 0 0 0 0 0 0 0 0 0 0 0 0 0 0 0 0 0 0 0 0 0 0 0 0 0 0 0 2256 2256 2256 2256 2256 2256 2256 2256 2256 2256 2256 2256 2256 2256 2256 2256 2256 2256 2256 2271 2271 2271 2271 2271 2271 2271 2271 2271 2271 2271 2271 2271 2286 2271 2271 2271 2271 2271 2271 2256 2256 2271 2271 2256 2256 2256 2256 2256 2256 2256 2256 2256 2256 2271 2271 2271 2271 2271 2271 2271 2271 2271 2271 2271 2286 2286 2286 2286 2286 2271 2271 2271 2271 2271 2271 2271 2271 2286 2286 2301 2301 2301 2317 2317 2301 2301 2301 2317 2317 2317 2317 2317 2317 2317 2317 2317 2317 2301 2301 2317 2317 2317 2317 2317 2317 2317 2317 2317 2317 2317 2317 2317 2317 2317 2317 2317 2333 2333 2333 2333 2333 2333 2333 2333 2317 2317 2317 2317 2317 2317 2301 2301 2301 2301 2317 2317 2301 2301 2271 2212 2212 2198 2198 2198 2198 2198 2198 2212 2226 2226 2226 2256 2301 2301 2317 2317 2317 2333 2333 2349 2349 2349 1833 1833 1853 1863 1863 1863 1873 1523 1516 1516 1516 1516 1523 1523 1523 1523 1523 1523 1523 1523 1529 1529 1529 1529 1529 1536 1536 1543 1550 1550 1550 1550 1550 1543 1543 1543 1516 1509 1496 1483 1483 1483 1477 1477 1483 1483 1489 1496 1496 1496 1503 1509 1509 1523 1536 1543 1543 1543 1550 1550 1550 1550 1543 1543 1543 1543 1550 1550 1550 1550 1550 1550 1550 1550 1550 1550 1550 1550 1550 1550 1550 1557 1557 1557 1557 1557 1557 1557 1557 1557 1557 1557 1564 1572 1572 1572 1572 1579 1579 1579 1579 1579 1586 1586 1586 1586 1594 1594 1601 1601 1601 1601 1601 1601 1609 1609 1609 1616 1624 1624 1624 1624 1624 1624 1624 1632 1632 1632 1639 1639 1639 1639 1639 1632 1632 1624 1624 1624 1624 1632 1632 1632 1632 1639 1639 1639 1647 1647 1647 2212 2212 2212 2226 2226 2226 2256 2317 2333 2349 2365 2365 2381 2381 2381 2381 2381 2381 2381 2381 2381 2381 2381 2381 2398 2398 2381 2381 2381 2381 2381 2381 2398 2398 2398 2398 2398 2398 2398 2398 2398 2398 1688 1688 1688 1680 1680 1671 1671 1663 1663 1663 1663 1671 1671 1671 1680 1680 1688 1688 1688 1688 1688 1696 1688 1688 1696 1696 2226 2212 2212 2212 2212 2170 2156 2143 2129 2129 2116 2116 2116 2103 2103 2103 2103 2103 2398 2398 2398 2398 2398 2398 2381 2381 2381 2398 2398 2381 2381 2381 2381 2381 2381 2381 2381 2381 2381 2381 2381 2381 2381 2381 2381 2381 2381 2381 2381 2381 2381 1804 1804 1804 1794 1785 1785 1785 1785 1785 1785 1785 1785 1794 1794 1794 1794 2381 2381 2381 2381 2381 2381 2381 2381 2381 2381 2381 2381 2053 2053 2053 2053 2040 2040 2040 2028 2028 2016 2016 2016 2016 2016 2016 2016 2028 2028 2016 2016 2365 2365 2365 2365 2365 2365 2381 2381 2381 2365 2365 2381 2381 2381 2365 2365 2381 2381 2381 2381 2381 2381 2381 2381 2381 2381 2381 2381 2381 2381 2381 2381 2365 2365 2365 2365 2365 2365 2365 2365 2365 2365 2365 2365 2365 2365 2365 2365 2365 2381 2381 2381 2381 2381 2381 2365 2365 2365 2381 2381 2365 2365 2381 2381 2381 2381 2381 2381 2365 2365 2365 2365 2349 2349 2349 2349 2349 2349 2349 2349 2349 2349 2349 2349 2349 2349 2349 2349 2349 2349 2349 2349 2349 2349 2349 2349 2349 2349 2349 2349 2349 2349 2349 2349 2349 2349 2349 2349 2349 2349 2349 2349 2349 2349 2349 2349 2349 2365 2349 2349 0 0 0 0 0 0 0 0 0
0 0 0 0 0 0 0 0 0 0 0 0 0 0 0 0 0 0 0 0 0 0 0 0 0 0 0 0 0 0 0 0 0 2241 2241 2241 2241 2241 2241 2241 2241 2241 2241 2241 2241 2241 2241 2241 2241 2256 2256 2256 2256 2256 2271 2271 2271 2271 2271 2271 2271 2271 2271 2271 2271 2271 2271 2271 2271 2271 2271 2271 2256 2256 2256 2256 2256 2256 2256 2256 2256 2256 2256 2256 2256 2256 2256 2256 2256 2256 2256 2271 2271 2271 2271 2271 2271 2271 2271 2271 2271 2271 2271 2271 2271 2271 2271 2271 2271 2271 2271 2271 2286 2286 2286 2286 2286 2286 2286 2301 2301 2301 2301 2301 2286 2286 2286 2286 2286 2286 2301 2301 2301 2301 2301 2301 2301 2301 2317 2317 2317 2317 2317 2317 2317 2317 2317 2317 2317 2317 2333 2333 2333 2333 2333 2333 2333 2301 2301 2301 2301 2301 2301 2301 2301 2301 2301 2301 2301 2301 2301 2271 2226 2212 2198 2198 2198 2198 2198 2198 2212 2226 2226 2241 2256 2301 2301 2317 2317 2317 2317 2333 2333 2317 2317 1843 1843 1853 1863 1863 1863 1873 1873 1516 1516 1516 1516 1523 1523 1523 1523 1523 1523 1523 1523 1529 1529 1529 1529 1529 1536 1543 1543 1550 1557 1550 1550 1543 1543 1536 1536 1516 1509 1503 1489 1489 1483 1483 1483 1489 1489 1489 1496 1496 1496 1503 1509 1509 1523 1529 1536 1543 1543 1543 1543 1543 1543 1543 1543 1543 1543 1543 1543 1543 1543 1543 1550 1550 1550 1550 1550 1550 1550 1550 1550 1550 1557 1557 1557 1557 1557 1557 1557 1557 1564 1564 1564 1564 1572 1572 1572 1579 1579 1579 1579 1586 1586 1594 1594 1594 1594 1601 1601 1601 1601 1601 1609 1609 1609 1609 1616 1616 1616 1624 1624 1624 1632 1632 1632 1632 1632 1632 1639 1639 1639 1639 1639 1639 1639 1632 1624 1624 1624 1632 1632 1632 1639 1639 1639 1647 1647 1655 1647 1647 2212 2212 2212 2226 2226 2226 2256 2301 2333 2349 2349 2365 2381 2381 2381 2381 2381 2365 2365 2365 2381 2381 2381 2381 2381 2381 2381 2381 2381 2381 2381 2381 2381 2381 2398 2398 2381 2381 2381 2381 2398 2398 1696 1688 1688 1680 1680 1680 1671 1671 1663 1663 1671 1671 1680 1680 1680 1688 1688 1688 1688 1688 1688 2256 1696 1696 1696 2226 2226 2212 2212 2212 2198 2170 2156 2143 2129 2129 2116 2116 2116 2103 2103 2103 2103 2090 2090 2381 2381 2381 2381 2381 2381 2381 2381 2381 2381 2381 2381 2381 2381 2381 2381 2381 2381 2381 2381 2381 2381 2381 2381 2381 2381 2381 2381 2381 2398 2398 1823 1804 1794 1794 1794 1785 1785 1785 1785 1785 1785 1785 1785 1794 1794 1794 1804 2365 2381 2381 2381 2381 2381 2381 2381 2381 2381 2381 2381 2053 2053 2053 2053 2040 2040 2040 2028 2028 2016 2016 2016 2016 2016 2016 2016 2028 2028 2016 2016 2349 2349 2349 2365 2365 2365 2365 2365 2365 2365 2365 2365 2365 2365 2365 2365 2365 2365 2365 2365 2365 2365 2365 2365 2365 2365 2365 2365 2365 2365 2365 2365 2365 2365 2365 2365 2365 2349 2349 2349 2365 2349 2349 2349 2365 2365 2365 2365 2365 2381 2381 2381 2381 2365 2365 2365 2365 2365 2365 2365 2365 2365 2365 2365 2365 2365 2365 2365 2365 2365 2365 2365 2349 2349 2333 2333 2349 2349 2333 2333 2333 2333 2333 2349 2349 2349 2349 2349 2349 2349 2333 2333 2349 2349 2349 2349 2349 2349 2349 2349 2333 2333 2333 2333 2333 2333 2333 2333 2333 2333 2333 2333 2333 2333 2333 2333 2349 2349 2349 2349 0 0 0 0 0 0 0 0 0
0 0 0 0 0 0 0 0 0 0 0 0 0 0 0 0 0 0 0 0 0 0 0 0 0 0 0 0 0 0 0 0 0 2241 2241 2241 2241 2241 2241 2241 2241 2226 2226 2241 2241 2241 2226 2226 2226 2241 2241 2241 2241 2256 2256 2256 2256 2256 2256 2256 2256 2256 2256 2256 2271 2271 2271 2271 2271 2271 2271 2271 2256 2256 2256 2256 2256 2256 2256 2256 2256 2256 2256 2256 2256 2256 2256 2256 2256 2256 2256 2256 2256 2256 2256 2256 2256 2256 2271 2271 2271 2271 2256 2256 2256 2256 2256 2256 2256 2256 2256 2271 2271 2256 2256 2271 2271 2271 2271 2271 2286 2286 2286 2271 2271 2271 2286 2271 2271 2271 2286 2286 2286 2271 2271 2286 2286 2286 2286 2301 2301 2286 2286 2301 2286 2286 2286 2286 2301 2301 2317 2317 2317 2317 2301 2301 2301 2286 2286 2286 2286 2286 2301 2301 2301 2301 2301 2301 2301 2301 2286 2256 2241 2212 2212 2212 2212 2212 2212 2212 2212 2226 2226 2241 2256 2271 2301 2301 2317 2317 2317 2317 2317 2317 2317 2317 1853 1853 1863 1863 1863 1863 1863 1516 1516 1516 1516 1523 1523 1523 1523 1523 1523 1529 1529 1529 1529 1529 1529 1529 1536 1543 1543 1550 1616 1550 1550 1543 1536 1536 1529 1523 1516 1503 1496 1489 1489 1483 1483 1489 1489 1496 1496 1496 1496 1503 1509 1509 1523 1529 1536 1536 1536 1543 1543 1536 1536 1543 1543 1543 1543 1543 1543 1543 1543 1543 1543 1543 1543 1543 1550 1550 1550 1550 1550 1557 1557 1557 1557 1557 1557 1557 1564 1564 1564 1572 1572 1572 1579 1579 1579 1579 1579 1586 1586 1586 1586 1594 1594 1594 1594 1601 1601 1601 1601 1601 1609 1609 1609 1609 1616 1616 1616 1624 1624 1624 1632 1632 1632 1632 1632 1632 1639 1639 1639 1647 1647 1639 1639 1639 1624 1624 1632 1632 1632 1632 1639 1639 1647 1647 1647 1655 1655 2198 2212 2212 2212 2226 2226 2226 2256 2301 2317 2333 2349 2365 2365 2365 2365 2365 2365 2365 2365 2365 2365 2365 2365 2381 2381 2365 2365 2365 2365 2365 2365 2365 2365 2381 2381 2381 2381 2381 2381 2381 2381 1713 1696 1688 1688 1688 1680 1680 1671 1671 1663 1663 1671 1671 1680 1680 1688 1688 1688 1688 1688 1688 2271 2256 2241 2226 2226 2226 2226 2212 2212 2212 2198 2170 2156 2143 2129 2129 2116 2116 2103 2103 2103 2103 2090 2090 2090 2090 2381 2381 2381 2381 2381 2381 2381 2381 2381 2381 2381 2381 2381 2381 2381 2381 2381 2381 2381 2381 2381 2381 2381 2381 2381 2381 2381 2398 2415 2432 1823 1794 1794 1794 1794 1785 1785 1785 1785 1785 1785 1785 1794 1794 1794 1794 1804 2349 2349 2365 2365 2365 2365 2365 2365 2365 2365 2365 2365 2053 2053 2053 2053 2053 2040 2040 2028 2028 2016 2016 2016 2016 2016 2028 2028 2028 2028 2016 2016 2349 2349 2349 2349 2349 2365 2365 2365 2365 2365 2365 2365 2365 2365 2349 2349 2365 2365 2365 2365 2365 2365 2365 2365 2365 2365 2365 2365 2365 2365 2365 2349 2349 2349 2349 2349 2349 2349 2349 2349 2349 2349 2349 2349 2365 2365 2365 2365 2365 2365 2365 2365 2365 2365 2365 2365 2365 2365 2365 2365 2365 2365 2365 2365 2365 2365 2365 2365 2365 2365 2365 2365 2349 2349 2333 2333 2349 2349 2333 2333 2333 2333 2333 2333 2333 2333 2349 2349 2349 2333 2333 2333 2333 2333 2333 2333 2333 2333 2333 2333 2333 2317 2317 2317 2333 2333 2333 2333 2333 2333 2333 2333 2333 2333 2333 2333 2349 2349 2349 2349 0 0 0 0 0 0 0 0 0
0 0 0 0 0 0 0 0 0 0 0 0 0 0 0 0 0 0 0 0 0 0 0 0 0 0 0 0 0 0 0 0 0 2226 2226 2226 2226 2226 2226 2241 2241 2226 2226 2226 2226 2226 2226 2226 2226 2241 2241 2241 2241 2241 2241 2241 2241 2241 2241 2241 2241 2241 2241 2241 2241 2256 2256 2256 2256 2271 2271 2271 2241 2241 2256 2256 2256 2256 2256 2241 2241 2241 2241 2241 2241 2241 2256 2256 2256 2256 2256 2256 2256 2256 2256 2256 2256 2256 2256 2256 2256 2256 2256 2256 2256 2256 2256 2256 2256 2256 2256 2256 2256 2256 2256 2256 2271 2271 2271 2271 2271 2271 2271 2271 2271 2271 2271 2271 2271 2271 2271 2271 2271 2271 2271 2271 2271 2286 2286 2286 2286 2286 2286 2286 2286 2286 2286 2286 2286 2286 2301 2301 2301 2317 2301 2301 2301 2286 2286 2286 2286 2286 2286 2286 2286 2286 2286 2286 2286 2286 2271 2256 2241 2226 2226 2212 2212 2212 2212 2212 2226 2226 2226 2241 2256 2271 2301 2301 2301 2301 2317 2317 2317 2317 2317 1843 1843 1853 1863 1863 1863 1863 1863 1516 1516 1516 1516 1523 1523 1523 1523 1523 1529 1529 1529 1529 1529 1529 1529 1536 1536 1543 1550 1557 1609 1616 1616 1536 1536 1529 1529 1523 1516 1509 1496 1489 1489 1489 1489 1489 1496 1496 1496 1503 1503 1503 1509 1516 1523 1523 1529 1529 1529 1536 1536 1536 1536 1536 1536 1536 1536 1543 1543 1543 1543 1543 1543 1543 1543 1543 1550 1550 1550 1550 1550 1557 1557 1557 1557 1557 1557 1557 1564 1564 1572 1572 1572 1579 1579 1579 1579 1586 1586 1586 1586 1594 1594 1601 1601 1601 1601 1601 1601 1601 1601 1609 1609 1609 1609 1616 1616 1624 1624 1632 1632 1632 1632 1632 1632 1632 1632 1632 1639 1639 1639 1647 1647 1647 1639 1639 1632 1632 1632 1632 1632 1632 1639 1647 1647 1647 1655 1655 1655 2212 2212 2212 2212 2226 2226 2241 2271 2286 2317 2333 2333 2349 2349 2365 2349 2349 2349 2349 2349 2349 2349 2365 2365 2365 2365 2365 2365 2365 2365 2365 2365 2365 2365 2365 2381 2365 2365 2365 2365 2365 2365 1713 1696 1688 1688 1680 1680 1680 1671 1671 1671 1671 1671 1671 1680 1680 1688 1688 1688 1688 1688 2333 2271 2256 2241 2226 2226 2226 2226 2212 2212 2212 2212 2170 2156 2143 2129 2116 2103 2103 2103 2103 2103 2090 2090 2090 2090 2090 2365 2365 2365 2365 2365 2365 2365 2365 2365 2381 2365 2365 2365 2365 2365 2365 2365 2365 2365 2381 2365 2365 2365 2365 2365 2365 2365 2381 2398 2415 2415 1794 1794 1794 1794 1785 1785 1785 1785 1785 1785 1785 1794 1794 1794 1794 1804 2333 2349 2349 2349 2349 2349 2349 2349 2349 2349 2349 2349 2053 2053 2053 2053 2053 2040 2040 2028 2028 2016 2016 2016 2016 2028 2028 2028 2028 2016 2016 2016 2349 2349 2349 2349 2349 2349 2349 2365 2365 2349 2349 2349 2349 2349 2349 2349 2349 2349 2349 2349 2349 2349 2349 2365 2365 2365 2349 2349 2349 2349 2349 2333 2333 2333 2349 2349 2349 2349 2349 2349 2349 2349 2333 2333 2349 2349 2349 2349 2349 2365 2365 2349 2349 2349 2349 2349 2349 2349 2349 2349 2349 2349 2365 2365 2365 2365 2365 2365 2349 2349 2349 2349 2333 2333 2333 2333 2333 2333 2333 2317 2317 2333 2333 2333 2333 2333 2333 2333 2333 2317 2317 2333 2317 2317 2317 2333 2333 2333 2317 2317 2317 2317 2317 2317 2317 2317 2317 2317 2317 2333 2333 2317 2317 2317 2317 2317 2333 2333 2333 2333 0 0 0 0 0 0 0 0 0
0 0 0 0 0 0 0 0 0 0 0 0 0 0 0 0 0 0 0 0 0 0 0 0 0 0 0 0 0 0 0 0 0 2226 2226 2226 2226 2226 2226 2226 2226 2226 2226 2226 2226 2226 2226 2226 2226 2226 2226 2226 2241 2241 2226 2226 2226 2226 2226 2226 2226 2226 2226 2241 2241 2241 2241 2241 2241 2256 2256 2256 2226 2226 2241 2241 2241 2241 2241 2241 2241 2241 2241 2226 2226 2241 2241 2241 2241 2256 2256 2241 2241 2241 2241 2241 2256 2256 2256 2256 2256 2256 2256 2256 2256 2256 2256 2256 2256 2256 2256 2256 2256 2256 2256 2256 2256 2271 2271 2271 2271 2271 2271 2256 2256 2271 2271 2271 2271 2271 2271 2271 2271 2271 2271 2271 2271 2271 2286 2286 2286 2271 2271 2271 2271 2271 2271 2271 2286 2286 2286 2301 2301 2301 2286 2286 2286 2271 2271 2271 2271 2271 2271 2271 2271 2271 2271 2271 2271 2271 2271 2256 2241 2241 2226 2212 2212 2212 2212 2212 2226 2226 2226 2241 2256 2271 2301 2301 2301 2301 2301 2301 2301 2301 2301 1843 1843 1853 1863 1863 1863 1863 1863 1516 1516 1523 1523 1523 1523 1523 1523 1529 1529 1529 1529 1529 1536 1536 1536 1536 1543 1550 1557 1564 1609 1609 1609 1529 1529 1529 1529 1523 1523 1516 1496 1489 1489 1489 1489 1489 1496 1496 1496 1503 1503 1503 1509 1516 1516 1523 1523 1523 1523 1529 1529 1529 1529 1536 1536 1536 1536 1536 1543 1543 1543 1543 1543 1543 1543 1543 1550 1550 1550 1550 1550 1557 1557 1557 1557 1564 1564 1564 1572 1572 1572 1579 1579 1579 1579 1579 1579 1586 1586 1586 1594 1594 1594 1601 1601 1601 1601 1601 1601 1609 1609 1609 1609 1609 1609 1616 1616 1624 1624 1632 1632 1632 1632 1632 1632 1632 1639 1639 1639 1639 1647 1647 1647 1647 1639 1639 1632 1632 1632 1632 1632 1639 1639 1647 1647 1655 1655 1655 1655 2212 2212 2212 2212 2226 2226 2241 2271 2286 2317 2333 2333 2349 2349 2349 2349 2349 2349 2349 2349 2349 2349 2349 2349 2349 2349 2365 2349 2349 2349 2349 2349 2349 2349 2365 2365 2365 2365 2365 2349 2349 2349 2349 1696 1688 1688 1680 1680 1680 1671 1671 1671 1671 1671 1680 1680 1680 1688 1688 1688 1688 1688 2333 2286 2256 2241 2226 2226 2226 2212 2212 2212 2212 2212 2198 2198 2143 2143 2103 2103 2103 2103 2103 2103 2090 2090 2090 2090 2090 2090 2349 2349 2349 2349 2349 2349 2365 2365 2365 2365 2365 2365 2365 2365 2349 2349 2365 2365 2365 2349 2349 2349 2365 2365 2365 2365 2381 2398 2415 2415 1804 1794 1794 1794 1785 1785 1785 1785 1785 1785 1785 1794 1794 1794 1804 1813 2333 2333 2333 2333 2349 2349 2349 2349 2349 2349 2349 2349 2053 2053 2053 2053 2053 2040 2040 2028 2028 2028 2016 2016 2016 2028 2028 2028 2028 2016 2016 2016 2333 2333 2333 2333 2333 2349 2349 2349 2349 2349 2349 2349 2333 2333 2333 2333 2349 2349 2349 2349 2333 2333 2349 2349 2349 2349 2349 2333 2333 2333 2333 2333 2333 2333 2333 2333 2349 2349 2349 2349 2349 2349 2333 2333 2333 2349 2349 2349 2349 2349 2349 2349 2333 2333 2333 2333 2333 2349 2349 2349 2333 2333 2349 2349 2333 2333 2349 2349 2349 2349 2333 2333 2317 2317 2317 2317 2317 2317 2317 2317 2317 2317 2317 2317 2317 2317 2317 2317 2317 2301 2301 2317 2317 2317 2317 2317 2317 2317 2317 2317 2317 2301 2301 2317 2317 2317 2317 2301 2301 2317 2317 2301 2301 2301 2301 2301 2317 2317 2301 2301 0 0 0 0 0 0 0 0 0
0 0 0 0 0 0 0 0 0 0 0 0 0 0 0 0 0 0 0 0 0 0 0 0 0 0 0 0 0 0 0 0 0 2212 2212 2212 2226 2226 2226 2226 2226 2226 2226 2226 2226 2226 2226 2226 2226 2226 2226 2226 2226 2226 2226 2226 2226 2226 2226 2226 2226 2226 2226 2226 2226 2226 2241 2241 2241 2241 2241 2241 2226 2226 2226 2226 2241 2226 2226 2226 2226 2241 2241 2226 2226 2226 2241 2241 2241 2241 2241 2241 2241 2241 2241 2241 2241 2241 2241 2241 2256 2241 2241 2241 2241 2241 2256 2256 2256 2256 2256 2256 2256 2256 2256 2256 2256 2256 2256 2256 2256 2256 2256 2256 2256 2256 2256 2256 2271 2271 2271 2271 2271 2271 2271 2271 2271 2271 2271 2271 2271 2271 2271 2271 2271 2271 2271 2271 2271 2271 2286 2286 2301 2301 2286 2286 2286 2271 2256 2256 2256 2256 2271 2256 2256 2256 2256 2271 2271 2271 2271 2256 2256 2241 2241 2226 2226 2226 2226 2226 2226 2226 2241 2241 2256 2271 2286 2286 2301 2301 2301 2301 2301 2301 2301 2301 1853 1853 1863 1863 1863 1863 1863 1523 1523 1523 1523 1523 1523 1523 1523 1529 1529 1529 1529 1536 1536 1536 1536 1543 1543 1550 1557 1557 1601 1601 1601 1529 1529 1529 1529 1523 1523 1516 1503 1496 1489 1489 1489 1489 1496 1496 1496 1503 1503 1503 1509 1516 1516 1523 1523 1523 1523 1523 1523 1529 1529 1529 1529 1536 1536 1536 1536 1543 1543 1543 1543 1543 1543 1550 1550 1550 1550 1557 1557 1564 1564 1564 1564 1564 1564 1572 1572 1572 1572 1579 1579 1579 1579 1579 1586 1586 1586 1594 1594 1594 1601 1601 1601 1601 1601 1609 1609 1609 1609 1609 1609 1609 1616 1616 1624 1624 1632 1632 1632 1632 1639 1639 1639 1639 1639 1639 1639 1639 1647 1655 1655 1647 1639 1639 1632 1632 1632 1632 1632 1639 1647 1647 1647 1655 1655 1655 1655 2212 2212 2212 2212 2226 2226 2241 2271 2286 2301 2317 2333 2333 2333 2349 2349 2349 2349 2333 2333 2349 2349 2349 2349 2349 2349 2349 2349 2349 2349 2349 2349 2349 2349 2349 2349 2349 2349 2349 2349 2349 2349 2349 1696 1688 1688 1680 1680 1680 1671 1671 1671 1671 1671 1680 1680 1680 1680 1688 1688 1688 1688 2333 2317 2271 2241 2226 2226 2226 2212 2212 2212 2212 2226 2226 2271 2301 2317 2103 2090 2090 2090 2090 2090 2090 2090 2090 2090 2090 2090 2333 2333 2349 2333 2333 2349 2349 2349 2349 2365 2365 2365 2365 2349 2349 2349 2349 2349 2349 2349 2349 2349 2349 2349 2349 2349 2381 2398 2415 1804 1804 1794 1794 1794 1785 1785 1785 1785 1785 1785 1785 1794 1794 1794 1804 1813 2317 2333 2333 2333 2333 2333 2333 2333 2333 2333 2333 2349 2053 2053 2053 2053 2053 2040 2040 2028 2028 2028 2028 2028 2028 2028 2028 2028 2028 2028 2016 2016 2317 2317 2333 2333 2333 2333 2333 2333 2333 2333 2333 2333 2333 2333 2317 2317 2333 2333 2333 2333 2333 2333 2333 2333 2333 2333 2333 2333 2333 2333 2333 2317 2317 2317 2333 2333 2333 2333 2333 2349 2349 2333 2333 2333 2333 2333 2333 2333 2333 2333 2349 2333 2333 2333 2333 2333 2333 2333 2333 2333 2333 2333 2333 2333 2333 2333 2333 2333 2333 2333 2317 2317 2317 2317 2317 2317 2317 2301 2301 2301 2301 2301 2301 2301 2301 2317 2301 2301 2301 2301 2301 2301 2301 2301 2317 2317 2317 2317 2317 2317 2317 2301 2301 2301 2301 2301 2301 2301 2301 2301 2301 2301 2301 2301 2301 2301 2301 2301 2301 2301 0 0 0 0 0 0 0 0 0
0 0 0 0 0 0 0 0 0 0 0 0 0 0 0 0 0 0 0 0 0 0 0 0 0 0 0 0 0 0 0 0 0 2212 2212 2212 2212 2212 2212 2212 2212 2212 2212 2212 2212 2226 2226 2226 2226 2226 2226 2226 2226 2226 2226 2226 2226 2226 2226 2226 2226 2226 2226 2226 2226 2226 2226 2226 2241 2241 2241 2241 2212 2212 2212 2226 2226 2226 2226 2226 2226 2226 2226 2226 2226 2226 2226 2226 2226 2241 2241 2241 2226 2226 2226 2241 2241 2241 2241 2241 2241 2241 2241 2241 2241 2241 2256 2241 2241 2256 2256 2256 2256 2241 2241 2256 2256 2256 2256 2256 2256 2256 2256 2256 2256 2256 2256 2256 2256 2256 2256 2256 2256 2256 2256 2256 2271 2271 2271 2271 2271 2271 2271 2271 2271 2271 2271 2271 2271 2271 2271 2271 2286 2286 2286 2286 2271 2256 2256 2256 2256 2256 2256 2256 2256 2256 2256 2256 2271 2271 2271 2256 2256 2241 2241 2226 2226 2226 2226 2226 2226 2241 2241 2241 2256 2256 2271 2271 2286 2286 2301 2301 2301 2301 2301 1863 1853 1853 1863 1863 1873 1873 1873 1529 1529 1529 1529 1529 1529 1529 1529 1529 1529 1529 1529 1536 1536 1536 1543 1543 1543 1550 1557 1557 1594 1601 1601 1536 1536 1529 1529 1523 1523 1516 1503 1496 1496 1489 1489 1496 1496 1496 1496 1503 1503 1509 1516 1516 1516 1523 1523 1523 1523 1523 1523 1529 1529 1529 1529 1536 1536 1536 1536 1543 1543 1543 1543 1543 1543 1550 1550 1550 1557 1557 1557 1564 1572 1572 1572 1572 1572 1572 1572 1572 1579 1579 1579 1579 1579 1579 1586 1586 1594 1594 1594 1601 1601 1601 1601 1601 1609 1609 1609 1609 1609 1609 1609 1616 1616 1616 1624 1624 1632 1632 1632 1632 1639 1639 1639 1639 1639 1639 1647 1647 1663 1663 1655 1647 1647 1647 1639 1632 1632 1639 1639 1647 1647 1647 1655 1655 1655 1655 1663 2198 2212 2212 2226 2226 2241 2256 2271 2286 2301 2317 2317 2333 2333 2333 2333 2333 2333 2333 2333 2333 2333 2333 2333 2349 2349 2349 2349 2349 2349 2349 2349 2333 2333 2333 2333 2349 2349 2333 2333 2333 2333 2333 1688 1688 1688 1688 1688 1680 1671 1671 1671 1671 1671 1680 1680 1680 1680 1680 1688 1688 1688 2317 2317 2271 2241 2241 2226 2226 2212 2212 2226 2226 2226 2241 2271 2301 2317 2317 2090 2090 2090 2090 2090 2090 2090 2090 2078 2078 2078 2078 2333 2349 2333 2333 2349 2349 2349 2349 2349 2349 2349 2349 2349 2349 2349 2349 2349 2333 2333 2333 2333 2333 2333 2349 2349 2381 2381 2381 1804 1804 1794 1794 1794 1785 1785 1794 1785 1785 1785 1785 1794 1794 1794 1794 1813 2317 2317 2317 2317 2333 2333 2333 2333 2333 2333 2333 2349 2053 2053 2053 2053 2053 2053 2040 2028 2028 2028 2028 2028 2028 2028 2028 2028 2028 2028 2028 2317 2317 2317 2317 2317 2317 2317 2333 2333 2333 2333 2333 2333 2317 2317 2317 2317 2317 2317 2317 2333 2333 2333 2333 2333 2333 2333 2317 2317 2317 2317 2317 2317 2317 2317 2317 2317 2333 2333 2333 2333 2333 2317 2317 2317 2317 2317 2317 2317 2333 2333 2333 2317 2317 2317 2317 2317 2317 2333 2333 2333 2317 2317 2317 2317 2317 2317 2317 2317 2317 2317 2317 2317 2301 2301 2301 2301 2301 2301 2301 2301 2301 2301 2301 2301 2301 2301 2301 2301 2301 2286 2286 2286 2301 2301 2301 2301 2301 2301 2301 2301 2301 2301 2301 2301 2301 2301 2301 2301 2301 2301 2301 2301 2286 2286 2286 2286 2286 2286 2286 2286 0 0 0 0 0 0 0 0 0
0 0 0 0 0 0 0 0 0 0 0 0 0 0 0 0 0 0 0 0 0 0 0 0 0 0 0 0 0 0 0 0 0 2212 2198 2198 2212 2212 2212 2212 2212 2212 2212 2212 2212 2212 2212 2212 2226 2226 2226 2226 2226 2226 2226 2226 2226 2226 2226 2226 2226 2226 2226 2226 2226 2226 2226 2226 2226 2226 2226 2226 2212 2212 2212 2212 2212 2212 2212 2212 2226 2226 2226 2226 2226 2226 2226 2226 2226 2226 2226 2226 2226 2226 2226 2226 2226 2226 2226 2226 2226 2226 2226 2226 2241 2241 2241 2241 2241 2241 2241 2241 2241 2241 2241 2241 2241 2241 2241 2241 2241 2256 2241 2241 2256 2256 2256 2256 2256 2256 2256 2256 2256 2256 2256 2256 2256 2256 2256 2256 2256 2256 2256 2256 2271 2256 2256 2271 2271 2271 2271 2271 2271 2271 2271 2271 2271 2256 2256 2256 2256 2256 2256 2256 2256 2256 2256 2256 2271 2271 2271 2256 2256 2241 2241 2226 2226 2226 2226 2226 2226 2226 2241 2241 2256 2256 2256 2271 2271 2271 2286 2286 2286 2286 2301 1863 1863 1863 1863 1863 1873 1873 1883 1536 1529 1529 1529 1529 1529 1529 1529 1529 1529 1529 1536 1536 1536 1536 1543 1543 1543 1550 1550 1557 1594 1601 1601 1586 1557 1536 1536 1529 1523 1516 1509 1503 1496 1496 1496 1496 1496 1496 1503 1503 1503 1516 1516 1516 1523 1523 1523 1523 1529 1529 1529 1529 1529 1536 1536 1536 1536 1536 1536 1543 1543 1543 1543 1543 1550 1550 1550 1550 1557 1564 1564 1572 1572 1572 1572 1572 1572 1572 1579 1579 1579 1579 1579 1579 1586 1586 1586 1586 1594 1594 1594 1594 1594 1601 1601 1601 1609 1609 1609 1609 1609 1616 1616 1616 1616 1624 1624 1624 1624 1624 1632 1632 1632 1632 1639 1639 1639 1639 1647 1647 1663 1663 1655 1655 1655 1655 1639 1639 1639 1639 1639 1647 1647 1647 1655 1655 1655 1663 2198 2198 2212 2212 2226 2226 2241 2256 2271 2286 2286 2301 2317 2317 2333 2333 2333 2333 2333 2333 2333 2333 2333 2333 2333 2349 2349 2349 2333 2333 2333 2333 2333 2333 2333 2333 2333 2333 2333 2333 2333 2333 2333 2333 1688 1688 1688 1680 1680 1680 1680 1680 1671 1671 1680 1680 1680 1680 1680 1680 1688 1688 1688 2317 2317 2271 2241 2226 2226 2226 2212 2212 2226 2226 2241 2256 2286 2301 2317 2317 2090 2090 2090 2090 2090 2078 2078 2078 2078 2078 2078 2078 2349 2349 2349 2349 2349 2349 2349 2333 2333 2333 2333 2333 2333 2333 2333 2333 2333 2333 2333 2333 2333 2333 2333 2333 2333 2365 2381 1804 1804 1804 1804 1794 1794 1794 1794 1794 1794 1785 1785 1785 1794 1794 1794 1794 2317 2317 2317 2317 2317 2317 2317 2317 2333 2333 2333 2333 2349 2053 2053 2065 2053 2053 2053 2040 2028 2028 2028 2028 2028 2028 2028 2028 2040 2028 2028 2028 2301 2301 2301 2301 2317 2317 2317 2317 2317 2317 2317 2317 2317 2317 2317 2317 2317 2317 2317 2317 2317 2317 2317 2317 2317 2317 2317 2317 2317 2317 2317 2317 2317 2317 2317 2317 2317 2317 2317 2317 2317 2317 2317 2317 2317 2317 2317 2317 2317 2317 2317 2317 2317 2317 2317 2317 2317 2317 2317 2317 2317 2317 2317 2317 2317 2317 2317 2317 2317 2317 2317 2301 2301 2301 2301 2301 2301 2301 2301 2301 2301 2301 2301 2301 2301 2301 2301 2301 2286 2286 2286 2286 2286 2286 2286 2286 2286 2286 2286 2301 2301 2301 2301 2301 2286 2286 2286 2286 2286 2271 2271 2286 2286 2286 2286 2286 2286 2286 2286 2286 2286 0 0 0 0 0 0 0 0 0
0 0 0 0 0 0 0 0 0 0 0 0 0 0 0 0 0 0 0 0 0 0 0 0 0 0 0 0 0 0 0 0 0 2212 2198 2198 2198 2198 2198 2198 2198 2198 2198 2212 2212 2212 2212 2212 2226 2226 2226 2212 2212 2212 2212 2212 2212 2212 2212 2212 2212 2212 2212 2212 2212 2212 2212 2212 2212 2226 2226 2226 2198 2198 2198 2212 2212 2212 2212 2212 2212 2212 2212 2212 2212 2226 2226 2226 2226 2226 2226 2226 2226 2226 2226 2226 2212 2212 2226 2226 2226 2226 2226 2226 2226 2226 2241 2241 2241 2241 2241 2241 2241 2241 2241 2241 2241 2241 2226 2226 2226 2241 2241 2241 2241 2241 2256 2256 2256 2256 2256 2256 2256 2256 2256 2256 2256 2256 2256 2256 2256 2256 2256 2256 2256 2256 2256 2256 2256 2271 2271 2271 2271 2271 2271 2271 2271 2256 2256 2256 2256 2256 2256 2256 2256 2256 2256 2256 2256 2256 2256 2256 2241 2241 2226 2226 2226 2226 2226 2226 2226 2226 2241 2241 2256 2256 2256 2256 2271 2271 2271 2271 2271 2286 2286 1863 1863 1863 1863 1873 1873 1873 1883 1883 1529 1529 1529 1529 1529 1529 1529 1529 1536 1536 1536 1536 1543 1543 1543 1543 1543 1550 1550 1557 1601 1601 1601 1586 1572 1557 1550 1536 1529 1509 1509 1503 1503 1503 1496 1496 1496 1503 1503 1503 1509 1516 1516 1516 1523 1523 1523 1523 1529 1529 1529 1529 1529 1536 1536 1536 1543 1543 1543 1543 1543 1543 1543 1550 1550 1550 1550 1550 1557 1564 1572 1572 1572 1572 1572 1579 1579 1579 1579 1579 1579 1579 1579 1586 1586 1586 1586 1586 1594 1594 1594 1594 1594 1601 1601 1601 1609 1609 1609 1609 1616 1616 1616 1616 1624 1624 1616 1609 1609 1609 1609 1632 1632 1632 1639 1639 1639 1647 1663 1663 1663 1663 1663 1655 1655 1655 1647 1639 1639 1639 1639 1647 1647 1655 1655 1655 1655 1663 2198 2198 2212 2212 2226 2241 2256 2256 2271 2286 2286 2301 2301 2317 2317 2317 2317 2317 2317 2317 2333 2333 2333 2333 2333 2333 2333 2333 2333 2333 2333 2333 2333 2333 2333 2333 2333 2333 2333 2333 2317 2317 2333 2333 1688 1688 1688 1680 1680 1680 1680 1680 1680 1680 1680 1680 1688 1688 1680 1680 1688 1688 2317 2317 2301 2271 2241 2226 2226 2226 2212 2212 2226 2226 2241 2256 2286 2301 2317 2317 2317 2090 2090 2090 2090 2078 2078 2078 2078 2078 2065 2065 2065 2349 2349 2349 2349 2333 2333 2333 2333 2333 2333 2333 2333 2333 2333 2333 2333 2333 2333 2317 2317 2333 2333 2333 2333 2349 2349 1804 1804 1804 1804 1794 1794 1794 1794 1794 1794 1794 1794 1794 1794 1794 1794 1794 2301 2301 2317 2317 2317 2317 2317 2317 2317 2333 2333 2333 2349 2065 2065 2065 2065 2053 2053 2040 2028 2028 2028 2028 2028 2028 2028 2028 2040 2040 2040 2040 2301 2301 2301 2301 2301 2301 2301 2301 2301 2317 2317 2317 2317 2317 2317 2301 2301 2317 2317 2317 2317 2317 2317 2317 2317 2317 2317 2317 2317 2317 2317 2317 2317 2317 2317 2317 2317 2317 2317 2317 2317 2317 2317 2317 2317 2317 2317 2317 2317 2317 2317 2317 2301 2301 2301 2301 2317 2317 2317 2317 2317 2317 2317 2317 2317 2317 2317 2317 2317 2317 2301 2301 2301 2286 2286 2286 2286 2286 2286 2286 2286 2286 2286 2286 2286 2286 2286 2286 2286 2286 2286 2286 2286 2286 2286 2286 2286 2286 2286 2286 2286 2286 2286 2286 2286 2286 2286 2271 2271 2271 2271 2286 2286 2271 2271 2271 2271 2271 2271 2271 2271 0 0 0 0 0 0 0 0 0
0 0 0 0 0 0 0 0 0 0 0 0 0 0 0 0 0 0 0 0 0 0 0 0 0 0 0 0 0 0 0 0 0 2198 2184 2184 2184 2184 2198 2198 2184 2184 2198 2198 2198 2198 2198 2198 2212 2212 2212 2212 2212 2212 2212 2212 2212 2212 2212 2212 2212 2212 2212 2212 2212 2212 2212 2212 2212 2226 2226 2226 2198 2198 2198 2198 2198 2198 2198 2198 2198 2212 2212 2212 2212 2212 2226 2226 2226 2226 2212 2212 2212 2212 2212 2212 2212 2212 2212 2212 2212 2226 2226 2226 2226 2226 2241 2241 2241 2241 2241 2241 2241 2241 2241 2241 2241 2226 2226 2226 2226 2226 2226 2226 2241 2241 2241 2241 2241 2241 2241 2241 2241 2241 2241 2241 2241 2241 2241 2241 2241 2241 2241 2241 2256 2256 2256 2256 2256 2256 2256 2256 2271 2271 2271 2271 2271 2256 2256 2241 2241 2241 2241 2241 2241 2256 2256 2256 2256 2256 2256 2241 2241 2241 2226 2226 2226 2226 2226 2226 2226 2226 2241 2241 2256 2256 2256 2256 2256 2256 2256 2256 2271 2271 2286 1863 1863 1863 1863 1873 1873 1873 1883 1883 1536 1529 1529 1529 1529 1529 1529 1529 1536 1536 1536 1536 1543 1543 1543 1543 1543 1550 1550 1550 1557 1601 1601 1586 1579 1572 1572 1572 1529 1503 1503 1503 1503 1503 1496 1496 1496 1503 1503 1503 1509 1516 1516 1516 1523 1523 1523 1523 1529 1529 1529 1536 1536 1536 1536 1536 1543 1543 1543 1543 1543 1550 1550 1550 1550 1550 1557 1557 1557 1564 1572 1572 1572 1572 1572 1579 1579 1579 1579 1579 1579 1586 1586 1586 1586 1586 1594 1594 1594 1594 1601 1601 1601 1601 1609 1609 1609 1609 1609 1616 1624 1624 1624 1624 1624 1624 1616 1609 1609 1609 1609 1632 2286 2286 2286 2286 2286 2286 2286 1671 1671 1671 1663 1663 1655 1655 1647 1647 1639 1639 1647 1647 1655 1655 1655 1655 1655 1663 2184 2198 2212 2226 2226 2241 2256 2256 2271 2286 2286 2286 2301 2301 2301 2301 2301 2317 2301 2301 2317 2317 2317 2317 2317 2333 2333 2333 2333 2333 2333 2333 2317 2317 2317 2317 2317 2333 2333 2333 2317 2317 2333 2333 1688 1688 1688 1688 1688 1680 1680 1680 1680 1680 1680 1688 1688 1688 1680 1680 1671 1671 2317 2317 2301 2271 2241 2241 2226 2226 2212 2212 2226 2226 2241 2271 2286 2301 2301 2317 2317 2317 2090 2090 2078 2078 2078 2078 2078 2065 2065 2065 2053 2053 2053 2349 2333 2333 2333 2317 2317 2317 2317 2317 2317 2317 2317 2317 2317 2317 2317 2317 2317 2317 2317 2317 2333 2333 2333 1804 1804 1804 1804 1804 1794 1794 1794 1794 1794 1794 1794 1794 1794 1794 1794 1794 2301 2301 2301 2301 2301 2317 2317 2317 2317 2317 2333 2333 2065 2065 2065 2065 2065 2053 2053 2053 2028 2028 2028 2028 2028 2028 2040 2040 2040 2040 2040 2040 2301 2301 2301 2301 2301 2301 2301 2301 2301 2301 2301 2301 2301 2301 2301 2301 2301 2301 2301 2301 2317 2301 2301 2301 2301 2301 2317 2301 2301 2301 2301 2301 2301 2301 2301 2301 2301 2317 2317 2317 2317 2317 2317 2317 2317 2317 2317 2317 2317 2301 2301 2301 2301 2301 2301 2301 2301 2301 2301 2317 2317 2317 2317 2317 2317 2301 2301 2301 2301 2301 2301 2301 2301 2286 2286 2286 2286 2286 2286 2286 2286 2286 2286 2286 2286 2286 2286 2286 2286 2286 2286 2286 2286 2286 2271 2271 2286 2286 2286 2286 2286 2286 2286 2286 2286 2271 2271 2271 2271 2256 2256 2271 2271 2271 2271 2271 2271 2271 2271 2271 2271 0 0 0 0 0 0 0 0 0
0 0 0 0 0 0 0 0 0 0 0 0 0 0 0 0 0 0 0 0 0 0 0 0 0 0 0 0 0 0 0 0 0 2184 2184 2170 2170 2184 2184 2184 2184 2184 2170 2170 2184 2184 2184 2184 2198 2198 2198 2212 2212 2212 2212 2198 2198 2212 2212 2212 2212 2212 2212 2212 2212 2212 2212 2212 2212 2212 2212 2212 2198 2198 2198 2198 2198 2198 2198 2198 2198 2198 2212 2212 2212 2212 2212 2212 2212 2212 2212 2212 2212 2212 2212 2212 2212 2198 2198 2212 2212 2212 2212 2212 2212 2226 2226 2226 2226 2226 2226 2241 2241 2241 2241 2226 2226 2226 2226 2226 2226 2226 2226 2226 2226 2241 2241 2241 2241 2241 2241 2241 2241 2241 2241 2241 2241 2241 2226 2226 2226 2226 2241 2241 2241 2241 2241 2241 2241 2256 2256 2256 2256 2256 2256 2256 2256 2241 2241 2241 2241 2241 2241 2241 2241 2241 2241 2241 2256 2256 2241 2241 2241 2241 2226 2226 2226 2226 2226 2226 2226 2241 2241 2241 2241 2241 2241 2241 2256 2256 2256 2256 2256 2271 2286 1863 1863 1863 1873 1873 1883 1883 1883 1883 1536 1536 1529 1529 1529 1529 1529 1536 1536 1536 1536 1536 1543 1543 1543 1543 1550 1550 1550 1550 1557 1557 1586 1586 1579 1579 1579 1579 1579 1503 1503 1503 1503 1503 1496 1496 1503 1503 1503 1509 1516 1523 1516 1516 1523 1523 1523 1529 1529 1529 1536 1536 1543 1543 1543 1543 1543 1543 1543 1543 1543 1550 1550 1550 1550 1557 1557 1557 1564 1572 1572 1572 1572 1579 1579 1579 1579 1579 1579 1579 1579 1586 1586 1594 1594 1594 1594 1594 1594 1594 1601 1601 1601 1601 1609 1609 1609 1616 1616 1624 1624 1632 1624 1624 1632 1632 2226 2241 2241 2271 2271 2286 2286 2286 2286 2286 2286 2286 2286 2286 1671 1663 1663 1663 1663 1663 1655 1655 1647 1647 1655 1655 1655 1655 1655 1655 1655 1663 2184 2198 2212 2226 2226 2241 2256 2256 2271 2286 2286 2286 2286 2286 2301 2301 2301 2301 2301 2301 2301 2301 2301 2301 2301 2317 2317 2317 2317 2317 2317 2301 2301 2301 2301 2286 2286 2301 2301 2301 2286 2286 2286 2286 1688 1688 1688 1688 1688 1680 1680 1680 1680 1680 1680 1688 1688 1688 1688 1680 1663 1663 2301 2301 2286 2256 2256 2241 2226 2226 2212 2212 2226 2226 2241 2256 2271 2286 2301 2301 2317 2317 2317 2090 2078 2065 2065 2078 2065 2065 2065 2053 2053 2040 2028 2028 2028 2333 2333 2317 2317 2317 2317 2317 2317 2317 2317 2317 2317 2317 2317 2317 2317 2317 2317 2317 2317 2317 2317 1804 1804 1813 1813 1804 1804 1794 1794 1794 1794 1794 1794 1794 1794 1794 1804 2286 2286 2301 2301 2301 2301 2301 2301 2301 2317 2317 2333 2333 2065 2065 2078 2078 2065 2065 2053 2053 2040 2040 2028 2028 2028 2040 2040 2040 2040 2040 2040 2040 2286 2286 2286 2286 2286 2301 2301 2301 2301 2301 2301 2301 2301 2301 2301 2301 2301 2301 2301 2301 2301 2301 2301 2301 2301 2301 2301 2301 2301 2301 2301 2301 2301 2301 2301 2301 2301 2301 2301 2301 2301 2301 2301 2301 2301 2301 2301 2301 2301 2301 2301 2301 2301 2301 2301 2301 2301 2301 2301 2301 2301 2301 2301 2301 2301 2301 2301 2301 2301 2301 2286 2286 2286 2271 2271 2271 2271 2271 2271 2271 2271 2271 2271 2271 2271 2271 2271 2271 2271 2271 2286 2286 2271 2271 2256 2256 2256 2256 2256 2271 2271 2271 2286 2271 2271 2271 2271 2256 2256 2256 2256 2256 2256 2271 2271 2271 2271 2271 2271 2271 2271 0 0 0 0 0 0 0 0 0
0 0 0 0 0 0 0 0 0 0 0 0 0 0 0 0 0 0 0 0 0 0 0 0 0 0 0 0 0 0 0 0 0 2184 2170 2170 2170 2170 2170 2170 2170 2170 2170 2170 2170 2170 2170 2170 2184 2184 2184 2198 2198 2198 2198 2198 2198 2198 2198 2198 2198 2198 2198 2198 2198 2198 2212 2212 2212 2212 2212 2212 2198 2198 2198 2198 2198 2198 2198 2198 2198 2198 2198 2198 2198 2198 2198 2198 2198 2212 2198 2198 2198 2198 2198 2198 2198 2198 2198 2198 2212 2212 2212 2212 2212 2212 2212 2212 2226 2226 2226 2226 2226 2226 2226 2212 2212 2212 2212 2212 2212 2212 2212 2226 2226 2226 2226 2226 2226 2226 2226 2226 2226 2226 2226 2226 2226 2226 2226 2226 2226 2226 2241 2241 2241 2241 2241 2241 2241 2241 2241 2241 2256 2256 2256 2256 2256 2241 2241 2241 2241 2241 2241 2241 2241 2241 2241 2241 2241 2241 2241 2241 2226 2226 2226 2212 2212 2226 2226 2226 2226 2226 2241 2241 2241 2241 2241 2241 2256 2256 2256 2256 2256 2256 2271 1863 1863 1863 1873 1873 1883 1883 1883 1883 1536 1536 1529 1529 1529 1529 1529 1536 1536 1536 1536 1543 1543 1543 1550 1550 1550 1550 1550 1550 1550 1550 1586 1586 1579 1579 1579 1579 1579 1503 1503 1503 1503 1503 1503 1503 1503 1503 1509 1509 1516 1523 1523 1523 1523 1523 1529 1529 1536 1536 1536 1536 1543 1543 1543 1543 1543 1543 1543 1550 1550 1550 1550 1557 1557 1557 1564 1564 1572 1572 1572 1572 1579 1579 1579 1579 1579 1579 1579 1579 1579 1586 1586 1594 1594 1594 1594 1594 1594 1594 1601 1601 1601 1609 1609 1609 1616 1616 1624 1624 1624 1632 2198 2198 2198 2198 2212 2226 2241 2256 2271 2271 2271 2271 2271 2286 2286 2286 2286 2286 1671 1663 1663 1663 1663 1663 1655 1655 1647 1647 1655 1655 1655 1655 1655 1663 1663 2184 2184 2198 2212 2226 2241 2241 2256 2256 2271 2271 2286 2286 2286 2286 2286 2286 2301 2301 2286 2286 2301 2286 2286 2301 2301 2301 2301 2301 2301 2317 2301 2301 2286 2286 2286 2286 2286 2286 2286 2301 2286 2286 2286 2286 1696 1688 1688 1688 1688 1680 1680 1680 1680 1680 1680 1680 1688 1688 1688 1680 1663 1663 2286 2271 2271 2256 2241 2241 2226 2226 2212 2212 2226 2226 2241 2256 2271 2286 2286 2301 2301 2301 2301 2301 2078 2065 2065 2078 2065 2065 2065 2053 2053 2040 2028 2028 2016 2016 2317 2301 2301 2301 2301 2301 2301 2301 2301 2301 2301 2301 2301 2301 2301 2301 2301 2301 2317 2317 1804 1804 1804 1813 1813 1813 1804 1794 1794 1794 1794 1794 1794 1794 1794 1804 1804 2286 2286 2286 2286 2286 2286 2286 2301 2301 2317 2317 2317 2317 2065 2065 2078 2078 2065 2065 2053 2053 2040 2040 2040 2040 2040 2040 2040 2040 2040 2040 2040 2040 2271 2271 2286 2286 2286 2286 2286 2286 2286 2286 2286 2286 2286 2286 2286 2286 2286 2286 2286 2286 2286 2286 2286 2286 2286 2286 2301 2301 2301 2301 2301 2301 2301 2301 2301 2301 2301 2301 2301 2301 2301 2301 2301 2301 2301 2301 2301 2301 2301 2301 2286 2286 2286 2286 2286 2286 2286 2301 2301 2301 2301 2301 2301 2301 2301 2301 2301 2286 2286 2286 2286 2286 2286 2271 2271 2271 2271 2271 2271 2271 2271 2271 2271 2271 2271 2271 2271 2271 2271 2271 2271 2271 2271 2256 2256 2256 2256 2256 2256 2256 2271 2271 2271 2271 2271 2256 2256 2241 2241 2241 2241 2256 2256 2256 2256 2256 2256 2256 2256 2256 2271 0 0 0 0 0 0 0 0 0
0 0 0 0 0 0 0 0 0 0 0 0 0 0 0 0 0 0 0 0 0 0 0 0 0 0 0 0 0 0 0 0 0 2184 2170 2170 2170 2170 2170 2170 2170 2170 2170 2170 2170 2170 2170 2170 2184 2184 2184 2184 2184 2184 2184 2184 2184 2184 2184 2184 2184 2184 2184 2184 2198 2198 2198 2198 2198 2198 2212 2212 2198 2198 2198 2198 2184 2184 2184 2184 2184 2198 2184 2184 2184 2198 2198 2198 2198 2198 2198 2198 2198 2198 2198 2198 2198 2198 2198 2198 2198 2198 2212 2212 2212 2212 2212 2212 2212 2212 2212 2226 2226 2212 2212 2212 2212 2212 2212 2212 2212 2212 2212 2212 2212 2212 2212 2212 2212 2212 2212 2212 2226 2212 2212 2212 2212 2226 2226 2226 2226 2226 2226 2226 2226 2226 2226 2226 2226 2241 2241 2241 2241 2241 2256 2256 2256 2226 2226 2226 2226 2226 2241 2241 2241 2241 2241 2241 2241 2226 2226 2226 2226 2226 2226 2212 2212 2212 2226 2226 2226 2226 2241 2241 2241 2241 2241 2241 2256 2256 2241 2241 2241 2241 2256 1873 1873 1873 1873 1873 1883 1883 1883 1883 1536 1536 1529 1529 1529 1529 1529 1536 1536 1536 1536 1543 1543 1543 1550 1550 1550 1550 1550 1550 1550 0 1579 1579 1579 1572 1572 1579 1579 1503 1503 1503 1503 1503 1503 1503 1503 1503 1509 1509 1523 1523 1523 1523 1523 1529 1529 1536 1536 1543 1543 1543 1543 1543 1543 1543 1550 1550 1550 1550 1550 1550 1550 1557 1557 1557 1564 1564 1572 1572 1572 1572 1579 1579 1579 1579 1579 1579 1579 1579 1586 1586 1586 1594 1594 1594 1594 1594 1586 1586 1586 1586 1594 1601 1609 1609 1624 1624 2005 2005 2005 2198 2198 2198 2198 2198 2212 2226 2241 2256 2256 2271 2271 2271 2271 2271 2271 2271 2271 2271 1671 1671 1663 1663 1663 1663 1655 1655 1655 1655 1655 1655 1655 1655 1655 1663 1663 1663 2198 2198 2226 2241 2241 2256 2256 2256 2271 2271 2286 2286 2286 2286 2286 2286 2286 2286 2286 2286 2286 2286 2286 2286 2286 2286 2286 2286 2301 2286 2286 2286 2286 2286 2286 2286 2286 2286 2286 2286 2286 2286 2286 2286 1696 1696 1696 1688 1688 1680 1680 1680 1680 1680 1680 1680 1688 1688 1688 1680 1680 2286 2286 2271 2271 2256 2241 2241 2226 2226 2212 2212 2226 2226 2241 2256 2256 2271 2271 2286 2286 2286 2286 2286 2286 2065 2065 2065 2065 2065 2065 2053 2053 2040 2040 2028 2016 2016 2016 2301 2301 2301 2301 2301 2301 2301 2301 2301 2286 2286 2286 2286 2286 2301 2301 2301 2301 2301 1804 1804 1804 1813 1813 1813 1804 1804 1804 1794 1794 1794 1794 1794 1804 1804 1804 2286 2286 2286 2286 2271 2271 2286 2286 2286 2301 2301 2301 2078 2078 2078 2078 2078 2065 2065 2065 2053 2040 2040 2040 2040 2040 2040 2040 2040 2040 2053 2271 2271 2271 2271 2271 2271 2271 2271 2271 2271 2271 2286 2286 2286 2286 2286 2286 2286 2286 2286 2286 2271 2271 2271 2271 2271 2271 2271 2286 2286 2286 2286 2286 2286 2286 2286 2301 2301 2301 2301 2301 2301 2301 2301 2301 2301 2301 2301 2301 2301 2301 2286 2286 2286 2286 2286 2286 2286 2286 2286 2286 2286 2286 2286 2286 2286 2286 2286 2286 2286 2286 2271 2271 2271 2271 2256 2256 2256 2256 2271 2271 2271 2271 2271 2271 2271 2256 2256 2256 2256 2256 2256 2271 2271 2256 2241 2241 2241 2241 2241 2241 2256 2256 2271 2271 2256 2256 2241 2241 2241 2241 2241 2241 2241 2241 2241 2241 2241 2256 2241 2241 2256 2256 0 0 0 0 0 0 0 0 0
0 0 0 0 0 0 0 0 0 0 0 0 0 0 0 0 0 0 0 0 0 0 0 0 0 0 0 0 0 0 0 0 0 2170 2170 2170 2170 2170 2170 2170 2170 2170 2170 2170 2170 2170 2170 2170 2170 2170 2170 2184 2170 2170 2170 2170 2184 2184 2184 2184 2184 2184 2184 2184 2184 2184 2198 2198 2198 2198 2198 2212 2198 2184 2184 2184 2184 2184 2184 2170 2170 2184 2170 2170 2170 2170 2184 2184 2184 2198 2184 2184 2198 2198 2198 2198 2184 2184 2184 2198 2198 2198 2198 2198 2198 2198 2212 2212 2212 2212 2212 2212 2226 2212 2212 2212 2212 2212 2198 2198 2212 2212 2212 2212 2212 2212 2212 2212 2212 2212 2212 2212 2212 2212 2212 2212 2212 2212 2212 2212 2212 2212 2226 2226 2226 2226 2226 2226 2226 2226 2226 2241 2241 2241 2241 2241 2241 2226 2226 2226 2226 2226 2226 2226 2226 2226 2226 2226 2226 2212 2212 2212 2226 2226 2226 2212 2212 2212 2226 2226 2226 2226 2226 2241 2241 2241 2241 2241 2241 2241 2241 2241 2241 2241 2241 1873 1873 1873 1873 1873 1883 1883 1883 1883 1536 1536 1536 1529 1529 1536 1536 1536 1536 1536 1543 1543 1543 1543 1550 1550 1550 1550 1550 1550 1550 0 0 1579 1579 1564 1564 1572 1579 1601 1509 1503 1503 1503 1503 1503 1503 1509 1509 1509 1523 1523 1523 1523 1529 1529 1536 1536 1543 1543 1543 1543 1543 1550 1550 1550 1550 1550 1550 1550 1550 1557 1557 1557 1564 1564 1564 1572 1572 1572 1572 1572 1579 1579 1579 1579 1579 1579 1579 1579 1586 1586 1594 1594 1594 1594 1594 1594 1586 1572 1572 1579 1594 1601 1609 1609 2005 2005 2005 1993 1993 1993 2184 2170 2170 2184 2212 2226 2241 2241 2256 2256 2256 2256 2256 2271 2271 2271 2271 2271 1671 1671 1663 1663 1663 1663 1655 1655 1655 1655 1655 1655 1655 1655 1655 1663 1663 1663 2226 2226 2226 2241 2256 2256 2256 2256 2271 2271 2271 2286 2271 2271 2271 2271 2271 2286 2286 2286 2286 2286 2286 2286 2286 2286 2286 2286 2286 2286 2286 2286 2286 2286 2286 2286 2286 2286 2286 2286 2286 2271 2271 2271 1696 1696 1696 1688 1688 1688 1688 1688 1688 1688 1688 1688 1688 1688 1688 1688 1688 2286 2271 2271 2271 2256 2256 2241 2226 2226 2212 2212 2226 2226 2241 2256 2256 2271 2271 2271 2271 2271 2286 2286 2286 2286 2065 2065 2065 2065 2053 2053 2053 2040 2040 2028 2028 2016 2016 2016 1993 1993 2301 2301 2286 2286 2286 2286 2286 2286 2286 2286 2286 2286 2301 2301 2301 2301 2301 1804 1804 1813 1813 1813 1804 1804 1804 1794 1794 1794 1794 1804 1804 1804 1804 2271 2271 2271 2271 2271 2271 2271 2271 2286 2286 2286 2286 2078 2078 2078 2078 2078 2065 2053 2053 2053 2040 2040 2040 2040 2040 2040 2040 2040 2040 2053 2256 2256 2256 2256 2256 2271 2271 2271 2271 2271 2271 2271 2271 2271 2271 2271 2286 2286 2271 2271 2271 2271 2271 2271 2271 2271 2271 2271 2271 2271 2271 2271 2271 2271 2286 2286 2286 2301 2301 2301 2301 2301 2301 2301 2286 2286 2286 2286 2286 2286 2286 2286 2271 2271 2271 2271 2271 2271 2271 2271 2271 2271 2271 2271 2271 2271 2271 2286 2271 2271 2271 2256 2256 2256 2256 2256 2256 2256 2256 2256 2256 2256 2256 2256 2256 2256 2256 2256 2256 2256 2256 2256 2256 2256 2256 2241 2241 2241 2241 2241 2241 2241 2241 2256 2256 2256 2256 2241 2241 2241 2241 2241 2241 2241 2241 2241 2241 2241 2241 2241 2241 2241 2256 0 0 0 0 0 0 0 0 0
0 0 0 0 0 0 0 0 0 0 0 0 0 0 0 0 0 0 0 0 0 0 0 0 0 0 0 0 0 0 0 0 0 2170 2170 2170 2170 2170 2170 2170 2170 2170 2170 2170 2170 2170 2170 2170 2170 2170 2170 2170 2170 2170 2170 2170 2170 2170 2170 2170 2170 2184 2184 2184 2184 2184 2184 2184 2184 2184 2184 2198 2184 2170 2170 2184 2184 2184 2170 2170 2170 2170 2170 2170 2170 2170 2170 2184 2184 2184 2184 2184 2184 2184 2184 2184 2184 2184 2184 2184 2184 2184 2184 2198 2198 2198 2198 2198 2198 2212 2212 2212 2212 2212 2198 2198 2198 2198 2198 2198 2198 2198 2212 2212 2212 2212 2212 2212 2212 2212 2212 2212 2212 2212 2212 2212 2212 2212 2212 2212 2212 2212 2212 2212 2212 2212 2212 2212 2212 2226 2226 2226 2226 2226 2226 2241 2226 2212 2212 2212 2212 2212 2226 2226 2226 2226 2226 2226 2226 2212 2212 2212 2212 2212 2212 2212 2212 2212 2226 2226 2226 2226 2226 2241 2241 2241 2241 2241 2241 2241 2226 2226 2241 2241 2241 2241 1883 1883 1883 1883 1883 1883 1883 1883 1536 1536 1536 1536 1536 1536 1536 1543 1543 1543 1543 1543 1550 1550 1550 1550 1557 1557 1557 1557 1557 0 0 1572 1564 1564 1564 1572 1579 1509 1509 1509 1503 1503 1503 1503 1509 1509 1509 1509 1523 1523 1523 1523 1529 1529 1536 1536 1543 1543 1543 1550 1550 1550 1550 1550 1550 1550 1550 1550 1550 1557 1557 1557 1564 1564 1564 1572 1572 1572 1572 1572 1579 1579 1579 1579 1579 1579 1579 1579 1586 1594 1594 1601 1601 1601 1601 1601 1579 1572 1572 1579 2028 2016 2016 2016 2005 2005 2005 1993 1993 1993 2184 2170 2170 2184 2212 2226 2241 2241 2241 2256 2256 2256 2256 2256 2256 2256 2271 2271 1671 1671 1663 1663 1663 1663 1655 1655 1655 1655 1655 1655 1655 1655 1663 1663 1663 1663 2016 2016 2256 2256 2256 2256 2256 2256 2256 2271 2271 2271 2271 2271 2271 2271 2271 2271 2271 2286 2286 2271 2271 2271 2271 2271 2271 2271 2271 2271 2271 2286 2271 2271 2271 2271 2271 2286 2286 2286 2286 2271 2271 2271 1705 1705 1705 1696 1688 1688 1688 1688 1688 1688 1688 1688 1688 1688 1688 1688 1688 2271 2271 2271 2256 2256 2256 2241 2241 2226 2226 2226 2226 2226 2241 2256 2256 2271 2271 2271 2271 2271 2286 2286 2286 2271 2271 2065 2065 2065 2053 2053 2053 2040 2040 2028 2028 2016 2016 2005 1993 1993 2286 2286 2286 2286 2271 2271 2271 2271 2271 2271 2271 2271 2286 2286 2286 2271 2271 1804 1804 1804 1813 1813 1804 1804 1804 1794 1794 1794 1794 1804 1804 1804 1804 2271 2271 2271 2271 2271 2271 2271 2271 2271 2286 2286 2271 2078 2078 2078 2078 2078 2065 2053 2053 2053 2040 2040 2040 2040 2040 2040 2040 2040 2053 2256 2256 2256 2256 2256 2256 2256 2271 2256 2256 2271 2271 2271 2271 2271 2271 2271 2271 2271 2256 2256 2271 2256 2256 2256 2256 2256 2256 2256 2271 2271 2256 2256 2256 2256 2271 2271 2271 2271 2286 2301 2286 2286 2286 2286 2286 2286 2286 2286 2286 2286 2286 2271 2271 2271 2271 2271 2271 2271 2271 2271 2271 2271 2271 2271 2271 2271 2271 2271 2271 2271 2271 2256 2256 2256 2256 2241 2241 2241 2241 2256 2256 2256 2256 2256 2256 2256 2241 2241 2241 2241 2256 2256 2256 2256 2241 2241 2241 2241 2241 2241 2241 2241 2241 2241 2241 2241 2241 2241 2241 2241 2241 2241 2241 2241 2241 2241 2241 2241 2241 2241 2241 2241 2256 0 0 0 0 0 0 0 0 0
0 0 0 0 0 0 0 0 0 0 0 0 0 0 0 0 0 0 0 0 0 0 0 0 0 0 0 0 0 0 0 0 0 2170 2170 2170 2170 2170 2170 2170 2156 2156 2156 2156 2156 2170 2170 2170 2170 2170 2170 2170 2170 2170 2170 2170 2170 2170 2170 2170 2170 2170 2170 2170 2170 2170 2184 2184 2170 2170 2170 2170 2156 2156 2156 2156 2170 2170 2170 2170 2170 2170 2170 2170 2156 2156 2170 2170 2170 2170 2170 2170 2156 2156 2170 2170 2170 2170 2170 2170 2184 2184 2184 2184 2184 2184 2198 2198 2198 2198 2198 2198 2198 2198 2198 2198 2198 2198 2198 2198 2198 2198 2198 2198 2198 2198 2198 2198 2198 2198 2198 2198 2198 2212 2212 2212 2212 2212 2212 2212 2212 2212 2212 2212 2212 2212 2212 2212 2212 2212 2212 2212 2212 2226 2226 2226 2226 2198 2198 2198 2198 2198 2212 2212 2212 2212 2212 2212 2212 2212 2212 2212 2212 2212 2212 2212 2212 2212 2212 2226 2226 2226 2226 2241 2226 2226 2226 2226 2226 2226 2226 2226 2226 2226 2241 2241 1883 1883 1883 1883 1883 1894 1894 1894 1536 1536 1536 1536 1536 1536 1536 1543 1543 1543 1543 1550 1550 1550 1550 1557 1557 1557 1557 1557 1557 2241 2241 1572 1572 1564 1564 1557 1550 1509 1509 1509 1509 1503 1503 1509 1509 1509 1516 1516 1523 1523 1523 1523 1529 1536 1536 1543 1543 1543 1550 1550 1550 1550 1550 1550 1550 1550 1550 1550 1557 1557 1557 1557 1564 1564 1564 1572 1572 1572 1572 1572 1579 1579 1579 1579 1579 1579 1579 1579 1586 1594 1594 1601 1601 2241 2241 1579 1579 1579 1572 1572 2028 2028 2016 2016 2016 2016 2005 1993 1981 1981 2184 2184 2184 2184 2212 2226 2226 2241 2241 2241 2241 2241 2241 2256 2256 2256 2256 2256 1671 1671 1671 1671 1671 1671 1655 1655 1655 1655 1655 1655 1655 1655 1663 1663 1663 1663 2005 1993 1993 1993 2256 2256 2241 2241 2256 2256 2256 2256 2256 2256 2271 2271 2271 2271 2271 2271 2271 2271 2271 2271 2271 2271 2271 2271 2271 2271 2271 2271 2271 2271 2271 2271 2271 2271 2271 2271 2271 2271 2271 2271 1705 1705 1705 1696 1696 1696 1688 1688 1688 1688 1688 1688 1688 1696 1688 1688 1688 2271 2271 2271 2256 2256 2256 2241 2241 2241 2226 2226 2226 2241 2241 2256 2256 2256 2271 2271 2271 2271 2271 2271 2271 2271 2271 2271 2271 2078 2065 2053 2040 2040 2040 2028 2028 2016 2016 2005 2005 2005 2286 2286 2271 2271 2271 2271 2271 2271 2271 2271 2271 2271 2271 2271 2271 2271 2271 1804 1804 1804 1813 1813 1804 1804 1804 1804 1794 1794 1804 1804 1813 1813 1813 2256 2256 2256 2256 2256 2256 2256 2271 2271 2271 2271 2256 2065 2065 2078 2078 2078 2065 2053 2053 2053 2040 2040 2040 2040 2040 2040 2040 2053 2053 2256 2256 2256 2256 2256 2256 2256 2256 2256 2256 2256 2256 2256 2256 2256 2256 2256 2256 2256 2256 2256 2256 2256 2256 2256 2256 2256 2256 2256 2256 2256 2256 2256 2256 2256 2256 2256 2256 2271 2271 2271 2286 2286 2286 2286 2286 2286 2271 2271 2271 2271 2271 2256 2256 2256 2256 2256 2271 2271 2271 2271 2271 2256 2256 2256 2256 2256 2256 2256 2256 2256 2256 2256 2256 2256 2256 2241 2241 2241 2241 2241 2241 2241 2241 2241 2241 2241 2241 2241 2241 2241 2241 2241 2241 2241 2241 2241 2241 2241 2241 2241 2241 2241 2241 2241 2241 2241 2241 2241 2241 2241 2241 2226 2226 2241 2241 2241 2241 2241 2241 2241 2241 2241 2241 0 0 0 0 0 0 0 0 0
0 0 0 0 0 0 0 0 0 0 0 0 0 0 0 0 0 0 0 0 0 0 0 0 0 0 0 0 0 0 0 0 0 2156 2156 2156 2156 2156 2156 2156 2156 2156 2156 2156 2156 2156 2156 2170 2170 2170 2170 2156 2156 2156 2156 2156 2170 2170 2170 2170 2170 2170 2170 2170 2170 2170 2170 2170 2156 2156 2170 2156 2143 2143 2156 2156 2156 2156 2156 2156 2156 2156 2156 2156 2156 2156 2156 2156 2156 2170 2156 2156 2156 2156 2170 2170 2170 2170 2170 2170 2170 2170 2170 2184 2184 2184 2184 2184 2184 2184 2184 2184 2184 2184 2184 2184 2198 2198 2198 2198 2198 2198 2198 2198 2184 2184 2184 2184 2184 2198 2198 2198 2198 2198 2198 2198 2198 2198 2198 2198 2198 2198 2212 2212 2212 2212 2212 2212 2212 2212 2212 2212 2212 2212 2212 2212 2212 2198 2198 2198 2198 2198 2198 2198 2198 2198 2212 2212 2212 2212 2212 2212 2212 2212 2212 2212 2212 2212 2212 2212 2212 2212 2226 2226 2226 2212 2212 2212 2212 2212 2212 2212 2226 2226 2241 2241 2241 1883 1883 1883 1883 1894 1894 1894 1536 1536 1536 1536 1536 1536 1536 1543 1543 1543 1543 1550 1550 1550 1550 1557 1557 1557 1557 1557 2241 2241 2241 1557 1557 1550 1550 1550 1536 1523 1523 1509 1509 1509 1509 1509 1516 1516 1516 1516 1523 1529 1523 1523 1529 1536 1536 1543 1543 1543 1550 1550 1550 1550 1550 1550 1550 1550 1550 1557 1557 1557 1557 1564 1564 1564 1572 1572 1572 1572 1579 1579 1579 1579 1579 1579 1579 1579 1579 1579 1586 1594 2226 2226 2226 2241 2241 2241 2053 2053 1572 1572 2040 2028 2016 2016 2016 2005 1993 1981 1981 1981 1981 2198 2198 2198 2226 2226 2226 2241 2241 2241 2241 2241 2241 2241 2241 2241 2241 2241 1680 1671 1671 1671 1671 1671 1655 1655 1655 1655 1655 1655 1655 1655 1663 1663 1663 2005 1993 1993 1993 1993 1993 1947 1936 1926 1926 2256 2256 2241 2241 2256 2256 2256 2256 2256 2256 2271 2271 2271 2271 2256 2256 2256 2256 2271 2271 2256 2256 2271 2271 2271 2271 2271 2271 2271 2271 2271 2271 2271 2271 2271 1713 1705 1705 1696 1696 1696 1688 1688 1688 1688 1688 1688 1688 1696 1696 1688 1688 2256 2256 2256 2256 2256 2256 2256 2241 2241 2241 2241 2241 2241 2241 2256 2256 2256 2256 2256 2271 2271 2271 2271 2271 2256 2256 2271 2256 2256 2065 2053 2040 2028 2028 2016 2016 2016 2016 2005 1993 1993 1981 1981 2271 2271 2271 2271 2271 2271 2271 2256 2256 2271 2271 2271 2271 2271 2271 1813 1813 1813 1813 1813 1804 1804 1804 1804 1804 1804 1804 1804 1813 1823 1823 2256 2256 2256 2256 2256 2256 2256 2256 2271 2256 2256 2256 2053 2053 2078 2078 2065 2065 2053 2053 2053 2040 2040 2040 2040 2040 2040 2040 2053 2065 2241 2241 2241 2256 2256 2256 2256 2256 2256 2256 2256 2256 2256 2256 2256 2256 2256 2256 2256 2256 2256 2256 2256 2256 2256 2256 2256 2256 2256 2256 2256 2256 2256 2256 2256 2256 2256 2256 2256 2256 2271 2271 2271 2271 2271 2271 2271 2271 2256 2256 2256 2256 2256 2256 2256 2256 2256 2256 2271 2256 2256 2256 2256 2256 2256 2256 2256 2256 2256 2256 2256 2256 2256 2256 2256 2256 2241 2241 2241 2241 2241 2241 2241 2241 2241 2241 2241 2241 2241 2226 2226 2226 2226 2226 2226 2226 2226 2226 2226 2241 2226 2226 2241 2241 2241 2241 2226 2226 2241 2241 2226 2226 2226 2226 2226 2226 2226 2226 2226 2226 2226 2226 2226 2226 0 0 0 0 0 0 0 0 0
