0 0 0 0 0 0 0 0 0 0 0 0 0 0 0 0 0 0 0 0 0 0 0 0 0 0 0 0 0 0 0 0 0 2349 2349 2349 2349 2349 2349 2349 2349 2349 2333 2333 2349 2349 2349 2349 2349 2349 2349 2349 2349 2349 2333 2333 2349 2349 2349 2349 2349 2349 2365 2365 2365 2365 2365 2365 2365 2349 2349 2349 2365 2365 2349 2349 2349 2349 2349 2349 2349 2349 2349 2349 2365 2381 2381 2381 2381 2381 2381 2365 2365 2381 2381 2365 2365 2365 2381 2381 2381 2381 2381 2381 2381 2381 2381 2381 2381 2381 2381 2381 2381 2381 2381 2381 2381 2381 2381 2398 2398 2398 2398 2398 2398 2398 2398 2398 2398 2398 2398 2398 2398 2415 2415 2415 2415 2415 2415 2415 2398 2398 2398 2398 2398 2398 2398 2398 2415 2415 2415 2415 2432 2432 2432 2415 2415 2415 2398 2398 2398 2398 2398 2398 2398 2398 2398 2398 2415 2415 2415 2415 2415 2415 2415 2415 2398 2398 2398 2398 2415 2415 2432 2432 2432 2432 2432 2432 2432 2432 2432 2432 2432 2432 2415 2415 2398 2398 2398 2398 1785 1785 1785 1776 1776 1776 1776 1776 1776 1776 1776 1776 1776 1785 1785 1785 1794 1794 1804 1813 1804 1804 2450 2450 2450 2450 2450 2450 2450 2450 2450 2450 2450 2450 2450 2450 2450 2450 2450 2450 2450 2432 2432 2432 2432 2450 2450 2432 2432 2450 2450 2432 2432 2432 2432 2432 2450 2503 2503 2503 2541 2541 2143 2143 1671 1663 1663 1663 1663 1671 1671 1663 1663 1671 1663 1647 1647 1639 1639 1632 1632 1624 1624 1624 1616 1616 1616 1616 1624 1624 1632 1632 1639 1639 1647 1655 1663 1663 1671 2432 2432 2432 2432 2450 2450 2450 2450 2467 2467 2467 2467 2467 2467 2450 2450 2450 2450 2450 2432 1464 1464 1464 1464 1464 1464 1464 1464 1464 1464 1464 1458 1458 1458 1464 1464 1470 1470 1477 1483 1496 1509 1516 1529 1529 1529 1529 1529 1529 1523 1523 1523 1523 1523 1523 1523 1529 1529 1529 1529 1529 1529 1529 1529 1523 1523 1529 1529 1529 1529 1536 1529 1529 1529 1529 1529 1529 1529 1529 1529 1529 1536 1536 1536 1536 1536 1536 1536 1529 1529 1529 1529 1529 1529 1529 1529 1529 1529 1536 1536 1529 1529 1529 1529 1529 1529 1536 1536 1536 1536 1536 1536 1529 1529 1529 1529 1529 1523 1523 1523 1523 1523 1523 1523 1523 1523 1529 1288 1288 1283 1283 1283 1283 1278 1278 1278 1278 1278 1278 1278 1283 1283 1283 1288 1292 1297 1297 1516 1516 1516 1516 1516 1516 1523 1523 1523 1523 1523 1523 1523 1523 1523 1523 1523 1523 1523 1516 1516 1516 1523 1523 1523 1523 1523 1529 1523 1523 1529 1529 1536 1543 1550 1557 1564 1609 1616 1616 1616 1624 1624 1632 1632 1632 2522 2522 2522 2522 2522 2503 2467 2467 2467 2467 2467 2467 2450 2450 2467 2467 2467 2467 2485 2485 2485 2485 2485 2485 2485 2503 2503 1671 1671 1671 1671 1671 1671 1671 1671 1671 1671 1671 1671 1671 1671 1671 1680 1680 1680 1259 1259 1259 1273 1273 1273 1273 1273 1273 1273 1273 1273 1273 1273 1273 1268 1268 1268 1268 1268 1264 1264 1264 1264 1264 1264 1259 1259 1259 1259 1259 1259 1259 1255 1255 1255 1255 1255 1255 1259 1259 1259 1268 0 0 0 2503 2467 2467 2467 2467 2467 2467 2450 2450 2450 2450 2450 2450 2450 2450 2450 2450 2450 2450 2450 2450 2450 2450 2450 2450 2432 2432 2432 2432 2432 2432 2432 2432 2432 2432 2432 2432 2432 2432 2432 2432 2432 2432 2432 2432 2432 2432 0 0 0 0 0 0 0 0 0 0
0 0 0 0 0 0 0 0 0 0 0 0 0 0 0 0 0 0 0 0 0 0 0 0 0 0 0 0 0 0 0 0 0 2333 2333 2333 2349 2349 2349 2349 2349 2349 2333 2333 2333 2333 2349 2349 2349 2349 2349 2349 2349 2349 2333 2333 2349 2349 2349 2349 2349 2349 2349 2349 2349 2349 2349 2365 2349 2349 2349 2349 2349 2349 2349 2349 2349 2349 2349 2349 2349 2349 2349 2349 2365 2365 2365 2381 2381 2381 2365 2349 2349 2365 2365 2349 2349 2349 2365 2365 2365 2365 2365 2365 2365 2365 2365 2365 2365 2365 2365 2381 2381 2365 2365 2381 2381 2381 2381 2381 2381 2398 2398 2381 2381 2381 2398 2398 2398 2398 2398 2398 2398 2398 2398 2398 2398 2398 2398 2398 2398 2398 2398 2398 2398 2398 2398 2398 2415 2415 2415 2415 2432 2415 2415 2415 2398 2398 2398 2398 2381 2381 2381 2381 2398 2398 2398 2398 2398 2398 2398 2398 2398 2398 2398 2398 2398 2398 2398 2398 2415 2415 2432 2432 2415 2415 2432 2432 2432 2432 2432 2415 2415 2432 2415 2415 2415 2398 2398 2398 2398 1785 1785 1776 1776 1776 1776 1776 1776 1776 1776 1776 1776 1785 1785 1785 1794 1794 1804 1813 1804 1804 2432 2432 2450 2432 2432 2450 2450 2450 2450 2432 2432 2432 2432 2432 2432 2432 2432 2432 2450 2432 2432 2432 2432 2432 2432 2432 2432 2432 2432 2432 2432 2432 2432 2432 2432 2503 2503 2503 2541 2143 2143 2143 2143 2156 2156 2143 2143 2143 2143 1671 1671 1671 1663 1647 1639 1639 1639 1632 1632 1624 1624 1624 1624 1624 1624 1624 1624 1624 1632 1632 1639 1639 1647 1647 1663 1663 1671 2432 2432 2432 2432 2432 2432 2450 2450 2450 2450 2450 2450 2450 2450 2450 2450 2450 2432 2432 2432 1464 1464 1464 1464 1464 1464 1464 1464 1464 1464 1464 1458 1458 1458 1464 1464 1470 1470 1477 1483 1496 1503 1509 1523 1523 1523 1523 1523 1523 1523 1523 1516 1516 1516 1523 1523 1523 1523 1523 1523 1523 1523 1523 1523 1516 1516 1523 1523 1523 1529 1529 1529 1523 1523 1523 1523 1523 1523 1523 1523 1529 1529 1529 1529 1529 1529 1529 1529 1523 1523 1523 1523 1523 1523 1523 1529 1529 1529 1529 1529 1529 1529 1523 1523 1523 1523 1523 1529 1529 1529 1529 1529 1523 1523 1523 1523 1523 1516 1516 1516 1516 1523 1516 1516 1516 1523 1523 1523 1288 1283 1283 1283 1283 1283 1278 1278 1278 1278 1278 1278 1283 1283 1288 1292 1292 1297 1297 1509 1509 1509 1509 1509 1509 1509 1509 1509 1509 1509 1509 1516 1516 1516 1516 1516 1516 1516 1516 1516 1516 1516 1516 1516 1516 1523 1523 1516 1516 1523 1523 1529 1536 1543 1557 1609 1609 1616 1624 1624 1624 1624 1632 1639 1639 2503 2503 2503 2503 2503 2503 2467 2467 2467 2467 2467 2450 2450 2450 2450 2450 2450 2450 2467 2467 2467 2467 2467 2467 2467 2467 2467 1671 1671 1671 1671 1671 1680 1680 1680 1671 1671 1671 1671 1671 1671 1671 1680 1680 1680 1680 1259 1259 1273 1273 1273 1273 1273 1273 1273 1273 1273 1273 1273 1273 1268 1268 1268 1268 1268 1268 1264 1264 1264 1264 1264 1259 1259 1259 1259 1259 1259 1259 1255 1255 1255 1255 1255 1255 1255 1259 1259 0 0 0 0 2503 2485 2485 2467 2467 2450 2450 2450 2450 2432 2432 2432 2450 2450 2432 2432 2432 2432 2432 2432 2432 2432 2432 2450 2432 2432 2432 2432 2432 2415 2415 2415 2415 2432 2432 2432 2432 2432 2432 2432 2432 2432 2415 2415 2415 2415 2415 0 0 0 0 0 0 0 0 0 0
0 0 0 0 0 0 0 0 0 0 0 0 0 0 0 0 0 0 0 0 0 0 0 0 0 0 0 0 0 0 0 0 0 2333 2333 2333 2333 2333 2333 2333 2333 2333 2333 2333 2333 2333 2349 2349 2349 2349 2349 2349 2349 2349 2349 2349 2349 2349 2333 2333 2333 2333 2349 2349 2349 2349 2349 2349 2349 2333 2333 2333 2333 2333 2333 2333 2333 2333 2333 2333 2333 2333 2333 2333 2349 2349 2349 2365 2365 2365 2365 2349 2349 2349 2349 2349 2349 2349 2365 2365 2365 2365 2365 2365 2349 2349 2365 2349 2349 2365 2365 2365 2365 2365 2365 2381 2381 2381 2381 2381 2381 2381 2381 2381 2381 2381 2398 2398 2398 2398 2398 2398 2398 2398 2398 2398 2398 2398 2398 2398 2381 2381 2398 2398 2398 2398 2398 2398 2398 2398 2398 2415 2415 2415 2415 2398 2398 2398 2381 2381 2381 2381 2381 2381 2381 2381 2381 2381 2381 2398 2381 2381 2398 2398 2398 2398 2398 2398 2398 2398 2398 2415 2415 2415 2415 2415 2415 2415 2415 2415 2415 2415 2415 2415 2415 2415 2415 2415 2415 2415 0 1794 1794 1785 1776 1776 1776 1776 1776 1776 1776 1776 1776 1785 1785 1794 1794 1794 1813 1813 2450 2432 2432 2432 2432 2432 2432 2432 2432 2432 2432 2432 2432 2432 2432 2415 2415 2432 2432 2432 2432 2415 2415 2415 2415 2432 2432 2432 2432 2432 2432 2432 2432 2432 2415 2415 2432 2432 2522 2522 2560 2129 2129 2143 2143 2156 2156 2156 2156 2156 2143 2143 2143 1663 1663 1639 1639 1639 1632 1632 1632 1624 1624 1624 1624 1624 1624 1624 1624 1632 1632 1639 1639 1639 1647 1647 1663 1663 2432 2432 2432 2432 2432 2432 2432 2432 2432 2432 2450 2450 2450 2450 2450 2450 2432 2432 2432 2432 2432 1464 1464 1464 1464 1464 1464 1464 1464 1464 1464 1464 1458 1458 1458 1464 1464 1470 1470 1477 1483 1489 1496 1509 1516 1516 1516 1516 1516 1516 1516 1516 1516 1516 1516 1516 1516 1516 1516 1516 1516 1516 1516 1516 1516 1516 1516 1516 1516 1516 1516 1516 1516 1516 1516 1516 1523 1516 1516 1523 1523 1523 1523 1529 1523 1523 1523 1523 1523 1516 1516 1516 1516 1516 1516 1523 1523 1523 1523 1523 1523 1523 1516 1516 1516 1516 1516 1516 1516 1523 1523 1523 1523 1523 1516 1516 1523 1523 1516 1516 1516 1516 1516 1516 1516 1516 1516 1516 1516 1288 1288 1288 1288 1283 1283 1283 1283 1283 1283 1283 1283 1283 1283 1288 1292 1292 1297 1297 1503 1503 1503 1509 1509 1509 1509 1509 1509 1509 1509 1509 1509 1509 1509 1509 1509 1509 1509 1509 1509 1509 1509 1509 1509 1509 1509 1509 1509 1516 1516 1523 1529 1536 1543 1557 1616 1616 1624 1624 1624 1624 1632 1639 1647 1647 2503 2503 2503 2503 2485 2485 2450 2450 2450 2450 2450 2450 2450 2450 2450 2450 2450 2450 2450 2450 2450 2450 2450 2450 2450 2467 2467 1680 1680 1671 1671 1680 1680 1680 1680 1671 1671 1671 1671 1671 1671 1671 1671 1671 1680 1680 1273 1273 1273 1273 1273 1273 1273 1273 1273 1273 1273 1273 1273 1273 1273 1273 1273 1268 1268 1268 1268 1268 1264 1264 1264 1264 1264 1259 1259 1259 1259 1259 1259 1255 1255 1255 1255 1255 1255 1255 1255 0 0 0 0 2485 2485 2485 2467 2450 2450 2432 2432 2432 2432 2432 2432 2432 2432 2432 2432 2432 2432 2432 2432 2432 2432 2432 2432 2432 2432 2432 2432 2415 2415 2415 2415 2415 2415 2415 2415 2415 2415 2415 2415 2415 2415 2415 2415 2415 2415 2415 0 0 0 0 0 0 0 0 0 0
0 0 0 0 0 0 0 0 0 0 0 0 0 0 0 0 0 0 0 0 0 0 0 0 0 0 0 0 0 0 0 0 0 2317 2317 2301 2301 2301 2317 2317 2317 2317 2317 2317 2333 2333 2333 2333 2333 2333 2333 2333 2333 2333 2333 2333 2333 2317 2317 2317 2317 2317 2333 2333 2333 2349 2349 2349 2333 2317 2317 2317 2317 2317 2317 2333 2333 2333 2333 2333 2333 2333 2333 2333 2333 2333 2333 2349 2349 2349 2333 2333 2333 2333 2349 2349 2349 2349 2349 2349 2349 2349 2349 2333 2333 2349 2349 2349 2349 2349 2349 2365 2365 2365 2365 2381 2381 2365 2365 2365 2381 2381 2381 2381 2381 2381 2381 2381 2381 2381 2381 2381 2381 2381 2381 2381 2381 2381 2381 2381 2381 2381 2381 2381 2381 2381 2398 2398 2398 2398 2398 2398 2398 2398 2398 2381 2381 2381 2381 2381 2381 2381 2381 2381 2381 2381 2381 2381 2381 2381 2381 2381 2381 2381 2381 2381 2381 2381 2381 2381 2398 2398 2398 2398 2398 2398 2398 2415 2398 2398 2398 2415 2415 2415 2415 2415 2415 2415 2415 2415 0 1794 1794 1785 1776 1776 1776 1776 1776 1776 1776 1776 1776 1785 1785 1794 1794 1804 1813 1823 2450 2432 2415 2415 2415 2432 2432 2432 2432 2432 2432 2415 2415 2415 2415 2415 2415 2415 2432 2432 2432 2415 2415 2415 2415 2415 2432 2432 2432 2432 2415 2415 2432 2432 2415 2415 2415 2541 2541 2541 2129 2129 2129 2129 2143 2143 2156 2156 2170 2156 2143 2143 2415 2415 2415 1639 1639 1639 1632 1632 1632 1624 1624 1624 1624 1624 1624 1624 1632 1632 1632 1639 1639 1639 1647 1647 1663 1663 2432 2432 2432 2432 2432 2432 2432 2432 2432 2432 2432 2432 2432 2432 2432 2450 2432 2432 2432 2432 2432 1464 1464 1464 1464 1464 1464 1464 1464 1464 1464 1464 1458 1458 1464 1464 1464 1470 1470 1477 1483 1489 1489 1503 1503 1509 1509 1509 1509 1509 1509 1509 1516 1516 1516 1516 1516 1516 1509 1509 1509 1509 1509 1509 1509 1509 1509 1509 1509 1509 1509 1509 1509 1509 1516 1516 1516 1516 1516 1516 1516 1516 1523 1523 1516 1516 1516 1516 1516 1509 1509 1509 1516 1516 1516 1516 1516 1516 1516 1516 1516 1516 1516 1509 1509 1509 1509 1516 1516 1516 1516 1516 1516 1516 1516 1516 1516 1516 1509 1509 1509 1509 1509 1509 1509 1509 1509 1516 1516 1288 1288 1288 1288 1288 1283 1283 1283 1283 1283 1283 1283 1283 1288 1288 1292 1297 1297 1302 1503 1503 1503 1503 1503 1503 1503 1503 1503 1503 1503 1503 1509 1509 1509 1509 1503 1503 1503 1503 1503 1503 1503 1503 1503 1509 1509 1509 1509 1516 1516 1523 1529 1536 1601 1609 1616 1624 1624 1624 1624 1632 1632 1639 1639 2450 2450 2467 2450 2450 2467 2467 2450 2450 2450 2450 2450 2450 2432 2432 2450 2450 2432 2432 2432 2450 2450 2432 2432 2432 2432 2450 2450 1680 1680 1680 1680 1680 1680 1680 1680 1680 1680 1671 1671 1671 1671 1680 1671 1671 1671 1273 1273 1273 1273 1273 1273 1273 1273 1273 1273 1273 1273 1273 1273 1273 1273 1273 1273 1268 1268 1268 1268 1268 1264 1264 1264 1264 1264 1259 1259 1259 1259 1259 1259 1259 1255 1255 1255 1255 1255 1255 1255 0 0 0 2432 0 2450 2450 2432 2432 2432 2432 2432 2432 2432 2432 2432 2432 2432 2432 2432 2432 2432 2432 2415 2415 2432 2432 2432 2432 2432 2415 2415 2415 2415 2415 2415 2415 2415 2398 2398 2415 2398 2398 2398 2398 2398 2398 2398 2415 2415 2415 0 0 0 0 0 0 0 0 0 0
0 0 0 0 0 0 0 0 0 0 0 0 0 0 0 0 0 0 0 0 0 0 0 0 0 0 0 0 0 0 0 0 0 2301 2301 2301 2301 2301 2301 2301 2301 2317 2317 2317 2317 2333 2333 2333 2333 2333 2333 2333 2333 2333 2333 2333 2333 2317 2317 2317 2317 2317 2317 2333 2333 2333 2333 2333 2333 2317 2317 2317 2317 2317 2317 2317 2317 2317 2317 2317 2317 2317 2317 2317 2317 2317 2317 2317 2317 2317 2317 2317 2317 2317 2333 2333 2333 2333 2349 2349 2349 2349 2333 2333 2333 2333 2333 2333 2333 2349 2349 2349 2349 2365 2365 2365 2365 2365 2365 2365 2365 2349 2349 2365 2365 2365 2381 2381 2381 2381 2381 2381 2365 2365 2365 2365 2365 2365 2381 2381 2381 2381 2381 2381 2381 2381 2381 2381 2381 2381 2398 2398 2398 2398 2398 2381 2381 2381 2381 2381 2381 2381 2381 2381 2381 2381 2381 2381 2381 2381 2381 2381 2381 2381 2381 2381 2381 2381 2381 2381 2381 2381 2381 2381 2381 2381 2381 2381 2381 2381 2398 2398 2398 2398 2398 2398 2398 2398 2398 2398 0 1794 1794 1785 1776 1776 1776 1776 1776 1776 1776 1776 1776 1785 1785 1794 1794 1813 1813 1823 2450 2432 2398 2398 2398 2415 2415 2432 2432 2415 2415 2415 2415 2398 2398 2398 2398 2415 2415 2415 2415 2398 2398 2398 2398 2415 2415 2415 2415 2415 2415 2415 2415 2432 2432 0 2432 2432 2129 0 2129 2129 2129 2129 2143 2143 2170 2170 2170 2156 2156 2156 2156 2398 2398 2398 1639 1639 1632 1632 1632 1624 1624 1624 1624 1624 1624 1624 1632 1632 1632 1639 1639 1639 1639 1647 1647 1663 2415 2415 2415 2415 2415 2432 2432 2432 2432 2432 2432 2432 2432 2432 2432 2432 2432 2432 2432 2432 2432 1464 1464 1464 1464 1470 1470 1470 1470 1470 1464 1464 1458 1458 1464 1464 1464 1470 1470 1477 1483 1489 1489 1496 1496 1503 1503 1503 1503 1503 1509 1509 1509 1509 1509 1509 1509 1509 1509 1509 1509 1509 1509 1509 1509 1509 1509 1509 1509 1503 1503 1503 1509 1509 1509 1509 1509 1516 1516 1516 1516 1516 1516 1516 1509 1509 1509 1509 1509 1509 1509 1509 1509 1509 1509 1509 1516 1516 1516 1516 1509 1509 1509 1509 1509 1509 1509 1509 1509 1516 1516 1516 1516 1516 1516 1516 1516 1516 1503 1503 1503 1503 1503 1503 1503 1509 1509 1509 1509 1288 1288 1288 1288 1288 1288 1283 1283 1283 1283 1283 1283 1283 1288 1292 1292 1297 1302 1302 1496 1496 1496 1496 1503 1496 1496 1496 1503 1503 1503 1503 1503 1503 1503 1503 1503 1496 1496 1496 1496 1496 1496 1496 1503 1503 1509 1509 1509 1509 1516 1523 1536 1594 1609 1609 1616 1624 1624 1632 1632 1632 1632 1647 2450 2450 2450 2450 2450 2450 2450 2450 2432 2432 2432 2432 2432 2432 2432 2432 2432 2432 2432 2432 2432 2432 2432 2432 2432 2432 2432 2450 2450 1680 1680 1680 1680 1680 1680 1680 1680 1680 1680 1680 1680 1680 1680 1680 1680 1680 1273 1273 1273 1278 1278 1278 1278 1273 1273 1273 1273 1273 1273 1273 1273 1273 1273 1273 1273 1268 1268 1268 1268 1268 1264 1264 1264 1264 1264 1264 1259 1259 1259 1259 1259 1259 1255 1255 1255 1255 1255 1255 1255 0 0 0 2432 2432 2432 2432 2432 2432 2432 2432 2415 2415 2415 2415 2415 2415 2415 2415 2415 2415 2415 2415 2415 2415 2415 2415 2415 2415 2415 2415 2415 2415 2415 2415 2398 2398 2398 2381 2381 2398 2398 2381 2381 2381 2381 2398 2398 2398 2415 2415 0 0 0 0 0 0 0 0 0 0
0 0 0 0 0 0 0 0 0 0 0 0 0 0 0 0 0 0 0 0 0 0 0 0 0 0 0 0 0 0 0 0 0 2286 2286 2286 2286 2286 2286 2301 2301 2301 2301 2301 2317 2317 2301 2301 2317 2317 2317 2317 2317 2317 2317 2317 2317 2317 2317 2317 2317 2317 2317 2333 2333 2333 2333 2333 2333 2317 2317 2301 2301 2301 2301 2301 2317 2301 2301 2301 2301 2301 2301 2301 2301 2317 2317 2317 2317 2317 2317 2317 2317 2317 2317 2317 2333 2333 2333 2333 2333 2333 2317 2317 2317 2317 2317 2317 2333 2333 2333 2333 2333 2333 2333 2349 2349 2349 2349 2349 2349 2349 2333 2333 2349 2349 2349 2349 2349 2365 2365 2365 2365 2365 2365 2365 2365 2365 2365 2365 2365 2365 2365 2365 2381 2381 2381 2381 2381 2381 2381 2381 2381 2381 2381 2365 2365 2365 2365 2365 2365 2365 2365 2365 2365 2365 2365 2365 2365 2381 2381 2381 2381 2381 2381 2381 2381 2381 2381 2381 2381 2381 2381 2365 2365 2365 2381 2381 2365 2365 2381 2381 2381 2381 2381 2381 2381 2381 2381 2381 0 1785 1785 1785 1776 1776 1776 1776 1776 1776 1776 1776 1776 1785 1785 1794 1794 1813 1823 1833 2450 2432 2381 2381 2398 2398 2398 2415 2415 2398 2398 2398 2398 2398 2398 2398 2398 2398 2398 2415 2398 2398 2398 2398 2398 2398 2415 2415 2415 2415 2415 2415 2415 2415 2415 2078 0 0 0 2116 2116 2116 2129 2129 2143 2156 2170 2170 2170 2170 2170 2156 2156 2398 2398 2398 2398 1639 1624 1624 1632 1624 1624 1624 1624 1624 1624 1624 1632 1632 1632 1639 1639 1639 1639 1647 1647 2415 2398 2398 2415 2415 2415 2415 2415 2415 2415 2415 2415 2415 2415 2415 2415 2415 2415 2432 2432 2432 2432 2432 1464 1464 1464 1470 1470 1470 1470 1470 1464 1464 1464 1464 1464 1464 1470 1477 1477 1483 1483 1489 1489 1489 1496 1496 1496 1496 1496 1496 1503 1503 1503 1503 1509 1509 1509 1509 1503 1503 1503 1503 1503 1503 1503 1503 1503 1503 1503 1496 1496 1496 1496 1503 1503 1503 1503 1509 1509 1509 1509 1509 1509 1509 1503 1503 1503 1503 1503 1503 1503 1503 1503 1509 1509 1509 1509 1509 1509 1509 1503 1503 1503 1503 1503 1503 1503 1503 1509 1509 1509 1509 1509 1509 1509 1509 1509 1509 1503 1503 1496 1496 1496 1496 1503 1503 1509 1509 1297 1292 1292 1292 1292 1292 1288 1288 1283 1283 1283 1283 1283 1288 1288 1292 1297 1297 1302 1302 1496 1496 1496 1496 1496 1496 1496 1496 1496 1496 1496 1496 1496 1496 1496 1496 1496 1489 1489 1489 1489 1489 1496 1496 1496 1503 1503 1509 1509 1509 1516 1536 1586 1601 1609 1616 1616 1624 1632 1639 1639 1639 1647 1647 2450 2450 2450 2450 2432 2432 2432 2432 2415 2415 2415 2432 2432 2432 2415 2415 2415 2432 2432 2415 2415 2415 2415 2432 2432 2432 2432 2432 2450 2450 1688 1680 1680 1680 1680 1680 1680 1680 1680 1680 1680 1680 1680 1680 1680 1680 1278 1273 1273 1278 1278 1278 1278 1273 1273 1273 1273 1273 1273 1273 1273 1273 1273 1273 1273 1268 1268 1268 1268 1268 1268 1268 1268 1264 1264 1264 1264 1259 1259 1259 1259 1259 1259 1259 1255 1255 1255 1255 1255 0 0 0 2432 2432 2415 2415 2415 2415 2415 2415 2415 2415 2415 2415 2415 2415 2415 2415 2415 2415 2398 2398 2398 2398 2415 2415 2415 2415 2415 2415 2398 2398 2398 2398 2398 2398 2398 2381 2381 2398 2398 2381 2381 2381 2381 2381 2398 2398 2398 2398 0 0 0 0 0 0 0 0 0 0
0 0 0 0 0 0 0 0 0 0 0 0 0 0 0 0 0 0 0 0 0 0 0 0 0 0 0 0 0 0 0 0 0 2286 2286 2286 2286 2286 2286 2286 2286 2301 2301 2301 2301 2286 2286 2286 2301 2301 2301 2301 2301 2317 2317 2317 2301 2301 2301 2301 2301 2301 2317 2317 2333 2333 2333 2333 2333 2317 2317 2301 2301 2301 2301 2301 2301 2301 2301 2301 2301 2301 2301 2301 2301 2301 2317 2317 2317 2317 2317 2317 2317 2317 2317 2317 2317 2317 2317 2333 2317 2317 2317 2317 2317 2317 2317 2317 2317 2317 2317 2317 2317 2317 2317 2317 2317 2333 2333 2333 2333 2333 2333 2333 2333 2333 2333 2333 2333 2349 2333 2333 2333 2333 2333 2333 2333 2333 2333 2333 2333 2333 2349 2349 2349 2349 2333 2333 2349 2349 2349 2349 2349 2349 2349 2333 2333 2333 2333 2333 2333 2349 2365 2365 2365 2365 2365 2365 2365 2365 2365 2365 2381 2365 2365 2381 2381 2381 2365 2365 2365 2365 2365 2365 2365 2365 2365 2365 2365 2365 2381 2381 2381 2381 2381 2381 2381 2381 2381 2381 0 0 1785 1785 1776 1776 1776 1776 1776 1776 1776 1776 1785 1785 1785 1794 1794 1813 1823 1823 1823 2365 2365 2365 2381 2381 2381 2398 2398 2398 2381 2381 2381 2381 2381 2381 2381 2398 2398 2398 2398 2381 2381 2381 2365 2365 2381 2381 2415 2415 2415 2078 2078 2078 2078 0 0 0 0 2116 2116 2116 2129 2143 2143 2156 2170 2170 2170 2184 2184 2184 2415 2398 2398 2398 2398 1624 1624 1624 1624 1624 1624 1624 1624 1624 1624 1624 1632 1632 1632 1639 1639 1639 1639 1647 1647 2398 2398 2398 2415 2415 2415 2415 2415 2415 2415 2415 2415 2415 2398 2398 2415 2415 2415 2415 2415 2415 2415 0 1464 1464 1464 1470 1470 1470 1470 1470 1470 1470 1464 1464 1464 1464 1470 1477 1477 1483 1483 1489 1489 1489 1489 1489 1483 1483 1489 1489 1489 1496 1496 1496 1503 1503 1503 1496 1496 1496 1496 1496 1496 1496 1496 1496 1496 1489 1489 1489 1489 1496 1496 1496 1496 1496 1496 1503 1503 1503 1496 1496 1496 1496 1496 1496 1496 1496 1496 1496 1496 1503 1503 1503 1503 1503 1503 1503 1503 1503 1496 1496 1496 1496 1496 1496 1496 1503 1503 1503 1503 1503 1503 1503 1503 1503 1503 1503 1496 1496 1489 1489 1489 1496 1496 1496 1503 1503 1297 1292 1292 1292 1292 1292 1292 1288 1288 1283 1283 1283 1283 1288 1288 1292 1297 1297 1302 1302 1483 1483 1489 1489 1489 1489 1489 1489 1489 1489 1489 1489 1489 1489 1489 1489 1489 1489 1489 1489 1489 1489 1489 1489 1489 1503 1503 1509 1509 1509 1523 1572 1579 1594 1601 1616 1616 1624 1632 1639 1647 1647 1647 1655 2432 2432 2432 2432 2432 2432 2432 2432 2415 2415 2415 2415 2415 2415 2415 2415 2415 2415 2415 2415 2415 2415 2415 2432 2432 2432 2432 2432 2450 2450 1688 1680 1680 1680 1680 1680 1680 1680 1680 1680 1680 1680 1680 1680 1680 1680 1278 1278 1278 1278 1278 1278 1278 1273 1273 1273 1273 1273 1273 1273 1273 1273 1273 1273 1273 1273 1268 1268 1273 1273 1268 1268 1268 1264 1264 1264 1264 1264 1259 1259 1259 1259 1259 1259 1259 1259 1259 1259 1259 0 0 0 2432 2432 2415 2415 2415 2415 2415 2415 2415 2415 2415 2415 2415 2415 2415 2415 2415 2415 2398 2398 2398 2398 2398 2398 2398 2398 2398 2398 2381 2381 2381 2381 2381 2381 2398 2381 2381 2398 2398 2381 2381 2381 2381 2381 2381 2381 2398 2398 0 0 0 0 0 0 0 0 0 0
0 0 0 0 0 0 0 0 0 0 0 0 0 0 0 0 0 0 0 0 0 0 0 0 0 0 0 0 0 0 0 0 0 2286 2286 2286 2286 2286 2286 2286 2286 2286 2286 2286 2286 2286 2286 2286 2286 2286 2286 2286 2286 2301 2301 2301 2286 2286 2286 2286 2286 2286 2301 2301 2317 2333 2317 2317 2317 2301 2301 2286 2286 2286 2286 2286 2301 2286 2286 2286 2286 2286 2286 2286 2286 2301 2301 2301 2301 2317 2317 2317 2301 2301 2317 2317 2317 2317 2317 2317 2317 2317 2301 2301 2317 2317 2317 2317 2317 2317 2317 2317 2317 2317 2317 2317 2317 2317 2317 2333 2333 2317 2317 2333 2333 2333 2333 2333 2333 2333 2333 2333 2333 2333 2317 2317 2317 2317 2333 2333 2333 2333 2333 2333 2333 2333 2333 2333 2333 2333 2333 2333 2333 2333 2333 2317 2317 2317 2317 2317 2333 2333 2333 2333 2333 2349 2349 2349 2349 2349 2349 2349 2365 2365 2365 2365 2365 2365 2365 2365 2365 2365 2365 2365 2365 2365 2365 2365 2365 2365 2365 2365 2365 2365 2381 2381 2381 2381 2381 2381 2365 0 1785 1785 1776 1776 1776 1776 1776 1776 1776 1776 1785 1785 1785 1794 1794 1823 1823 1823 2349 2349 2349 2349 2365 2381 2381 2381 2381 2381 2381 2381 2381 2381 2381 2381 2381 2381 2381 2381 2381 2365 2365 2365 2349 2349 2365 2381 2381 2398 2398 2078 2078 2078 2078 2078 2065 0 0 2116 2116 2116 2129 2143 2143 2156 2170 2170 2170 2184 2184 2184 2415 2398 2398 2398 2415 2415 1624 1624 1624 1624 1624 1624 1624 1624 1632 1632 1632 1632 1639 1639 1639 1647 1647 1647 1647 2381 2381 2398 2398 2398 2398 2398 2415 2415 2398 2398 2398 2398 2398 2398 2398 2398 2398 2415 2415 2415 2415 0 1464 1464 1464 1470 1470 1470 1470 1470 1470 1470 1464 1464 1464 1470 1470 1477 1477 1483 1483 1483 1483 1483 1483 1483 1483 1483 1483 1483 1489 1489 1489 1496 1496 1496 1489 1489 1489 1489 1489 1489 1489 1489 1489 1489 1489 1489 1489 1489 1489 1489 1489 1489 1496 1489 1489 1489 1496 1496 1489 1489 1489 1489 1489 1489 1489 1489 1489 1489 1489 1496 1496 1496 1496 1496 1496 1496 1496 1496 1489 1489 1489 1496 1496 1496 1496 1496 1496 1496 1496 1496 1496 1496 1496 1496 1496 1496 1489 1489 1489 1489 1489 1489 1489 1489 1489 1489 1297 1292 1292 1297 1297 1292 1292 1288 1288 1288 1288 1288 1288 1288 1292 1297 1297 1302 1302 1302 1483 1483 1483 1483 1483 1483 1483 1483 1483 1483 1483 1483 1483 1483 1483 1483 1483 1483 1483 1483 1483 1483 1483 1489 1489 1489 1509 1509 1516 1523 1564 1572 1579 1594 1601 1616 1624 1632 1639 1639 1647 1647 1655 1655 2398 2415 2415 2415 2415 2415 2415 2415 2398 2398 2398 2415 2415 2415 2398 2398 2415 2398 2398 2415 2415 2415 2415 2415 2415 2415 2432 2432 2432 2432 2432 1680 1680 1680 1680 1680 1680 1680 1680 1680 1680 1680 1680 1680 1680 1273 1273 1278 1278 1278 1278 1278 1278 1278 1273 1273 1273 1273 1273 1273 1273 1273 1273 1273 1273 1273 1268 1268 1273 1273 1268 1268 1268 1268 1268 1264 1264 1264 1264 1264 1259 1259 1259 1259 1259 1259 1259 0 0 0 0 0 2415 2415 2381 2381 2398 2398 2398 2398 2398 2398 2398 2415 2398 2398 2398 2398 2398 2381 2381 2381 2381 2381 2381 2381 2381 2381 2381 2381 2381 2381 2381 2381 2381 2381 2381 2381 2381 2381 2381 2381 2365 2365 2365 2365 2365 2381 2381 2381 0 0 0 0 0 0 0 0 0 0
0 0 0 0 0 0 0 0 0 0 0 0 0 0 0 0 0 0 0 0 0 0 0 0 0 0 0 0 0 0 0 0 0 2271 2271 2286 2286 2286 2286 2286 2286 2286 2286 2286 2286 2286 2271 2271 2286 2286 2286 2286 2286 2286 2301 2286 2286 2286 2286 2286 2286 2286 2286 2301 2317 2317 2317 2317 2317 2301 2301 2286 2271 2271 2271 2271 2286 2271 2271 2271 2271 2271 2271 2271 2271 2286 2286 2286 2286 2301 2301 2301 2301 2301 2301 2301 2301 2301 2301 2317 2301 2301 2301 2301 2301 2317 2317 2301 2301 2301 2301 2301 2301 2301 2301 2317 2317 2317 2317 2317 2317 2317 2317 2317 2317 2317 2317 2333 2333 2333 2333 2317 2317 2317 2317 2317 2317 2317 2317 2333 2333 2333 2333 2333 2333 2333 2317 2317 2333 2333 2333 2333 2333 2333 2333 2317 2317 2317 2317 2317 2317 2333 2317 2317 2333 2333 2317 2317 2333 2333 2349 2349 2349 2349 2365 2365 2365 2365 2349 2349 2349 2349 2349 2349 2349 2365 2365 2365 2349 2349 2365 2365 2365 2365 2365 2365 2365 2365 2365 2365 2365 0 1785 1785 1776 1776 1776 1776 1776 1776 1776 1776 1785 1785 1785 1794 1794 1794 1794 2301 2349 2349 2349 2349 2365 2365 2365 2365 2365 2365 2365 2365 2365 2381 2381 2381 2381 2381 2381 2381 2381 2365 2365 2349 2349 2349 2365 2365 2381 2398 2065 2065 2065 2078 2065 2065 2065 2078 2129 0 2116 2116 2129 2143 2156 2156 2170 2170 2184 2184 2184 2184 2398 2381 2381 2381 2415 2415 1632 1632 1632 1632 1632 1632 1632 1632 1632 1632 1632 1632 1639 1639 1639 1647 1647 1655 2365 2365 2381 2381 2381 2381 2381 2398 2398 2398 2398 2381 2381 2381 2381 2398 2381 2381 2398 2398 2398 2398 2398 2398 1470 1470 1470 1470 1477 1477 1477 1470 1470 1470 1464 1464 1464 1470 1477 1477 1477 1477 1477 1477 1477 1477 1483 1477 1477 1477 1483 1483 1483 1483 1489 1489 1489 1489 1489 1489 1489 1489 1489 1489 1489 1489 1489 1489 1489 1489 1489 1489 1489 1489 1489 1489 1489 1489 1489 1489 1489 1489 1489 1489 1489 1489 1483 1483 1483 1483 1483 1483 1483 1489 1489 1489 1489 1489 1489 1489 1489 1489 1489 1489 1489 1489 1489 1489 1489 1489 1489 1496 1489 1489 1489 1489 1489 1489 1489 1489 1477 1477 1483 1483 1483 1483 1483 1483 1483 1489 1297 1297 1297 1297 1297 1297 1292 1292 1288 1288 1288 1288 1288 1292 1292 1297 1302 1302 1302 1307 1483 1483 1483 1483 1483 1483 1483 1483 1483 1483 1483 1477 1477 1477 1477 1477 1477 1477 1477 1477 1483 1483 1483 1483 1483 1489 1509 1516 1529 1557 1564 1579 1586 1601 1609 1624 1632 1639 1647 1647 1647 1655 1655 1655 2381 2398 2398 2398 2415 2415 2415 2415 2398 2398 2398 2398 2398 2398 2398 2398 2398 2398 2398 2398 2398 2398 2415 2415 2415 2415 2415 2415 2432 2432 2432 1688 1680 1680 1680 1680 1680 1680 1680 1680 1680 1680 1680 1680 1680 1273 1273 1278 1278 1278 1283 1283 1278 1278 1278 1278 1278 1278 1273 1273 1273 1273 1273 1273 1273 1273 1273 1273 1273 1273 1273 1268 1268 1268 1268 1268 1264 1264 1264 1264 1264 1264 1259 1259 1259 1259 0 0 0 2365 0 0 2398 2398 2381 2381 2381 2381 2398 2398 2398 2398 2398 2398 2398 2398 2398 2398 2381 2381 2365 2365 2365 2381 2365 2365 2365 2381 2381 2381 2381 2365 2365 2365 2381 2381 2381 2381 2381 2381 2365 2365 2365 2349 2349 2365 2365 2365 2365 2365 2365 0 0 0 0 0 0 0 0 0
0 0 0 0 0 0 0 0 0 0 0 0 0 0 0 0 0 0 0 0 0 0 0 0 0 0 0 0 0 0 0 0 0 2271 2271 2271 2271 2271 2271 2271 2271 2286 2286 2286 2286 2271 2271 2271 2271 2271 2271 2271 2271 2286 2286 2286 2286 2286 2286 2286 2286 2286 2286 2286 2301 2317 2317 2286 2286 2271 2271 2271 2271 2271 2271 2271 2271 2271 2271 2271 2271 2271 2271 2271 2271 2286 2286 2286 2286 2286 2301 2301 2301 2301 2301 2301 2301 2301 2301 2301 2301 2301 2301 2301 2301 2301 2301 2301 2301 2301 2301 2301 2301 2301 2301 2301 2317 2317 2317 2317 2317 2317 2317 2317 2317 2317 2317 2317 2317 2317 2317 2317 2317 2317 2317 2317 2317 2317 2317 2317 2317 2317 2317 2317 2317 2317 2317 2317 2317 2317 2317 2317 2317 2317 2333 2317 2317 2317 2317 2317 2317 2317 2317 2317 2317 2317 2317 2317 2317 2333 2333 2333 2333 2349 2349 2349 2349 2349 2349 2349 2349 2349 2349 2349 2349 2349 2349 2349 2349 2349 2349 2349 2349 2349 2349 2349 2349 2349 2349 2349 2349 0 1785 1785 1776 1776 1776 1776 1776 1776 1776 1776 1785 1785 1785 1794 1794 1794 1794 2301 2301 2317 2333 2349 2349 2365 2365 2365 2365 2365 2365 2365 2365 2365 2365 2365 2365 2381 2381 2381 2365 2349 2349 2349 2349 2349 2365 2365 2028 2028 2053 2053 2065 2065 2065 2065 2078 2078 2129 2129 2116 2116 2143 2156 2156 2170 2170 2170 2184 2184 2184 2184 2365 2365 2365 2365 2365 1632 1632 1632 1632 1632 1632 1632 1632 1632 1632 1632 1632 1632 1639 1639 1639 1647 1647 1663 2365 2365 2365 2365 2365 2365 2381 2381 2381 2381 2381 2381 2381 2381 2381 2381 2381 2381 2398 2398 2398 2398 2398 2398 1470 1470 1470 1477 1477 1477 1477 1470 1470 1470 1470 1470 1470 1470 1477 1477 1477 1477 1477 1477 1477 1477 1477 1470 1470 1477 1477 1477 1483 1483 1483 1483 1483 1483 1483 1483 1483 1483 1483 1483 1483 1483 1483 1483 1483 1483 1483 1483 1483 1483 1483 1483 1483 1483 1483 1483 1483 1483 1483 1483 1483 1483 1483 1483 1483 1483 1483 1483 1483 1483 1483 1483 1483 1483 1483 1483 1483 1483 1483 1483 1483 1489 1489 1489 1489 1489 1489 1489 1483 1483 1483 1483 1483 1483 1483 1483 1470 1470 1477 1477 1477 1477 1477 1477 1477 1483 1297 1297 1297 1297 1297 1297 1297 1292 1292 1288 1288 1288 1288 1292 1297 1302 1302 1307 1307 1307 1477 1477 1477 1477 1477 1477 1477 1477 1477 1477 1477 1477 1477 1477 1477 1477 1477 1477 1477 1477 1477 1477 1477 1483 1483 1483 1509 1529 1550 1564 1564 1579 1586 1601 1616 1632 1639 1647 1647 1647 1647 1655 1655 1655 2381 2398 2398 2398 2398 2398 2398 2398 2381 2381 2381 2381 2381 2381 2381 2381 2381 2398 2398 2398 2398 2398 2398 2398 2398 2398 2398 2398 2415 2432 1688 1688 1688 1688 1680 1680 1680 1680 1680 1680 1680 1680 1680 1680 1680 1273 1273 1278 1278 1283 1283 1283 1283 1278 1278 1278 1278 1278 1278 1278 1278 1278 1273 1273 1273 1273 1273 1273 1273 1273 1273 1273 1273 1268 1268 1268 1264 1264 1264 1264 1264 1264 1259 1259 1259 1259 0 0 0 2365 2365 2365 2381 2381 2365 2365 2365 2365 2365 2365 2365 2365 2365 2365 2365 2365 2381 2381 2365 2365 2365 2365 2365 2365 2365 2365 2365 2365 2381 2365 2365 2365 2365 2365 2365 2381 2381 2365 2365 2365 2365 2365 2365 2349 2349 2365 2365 2365 2365 2365 2365 0 0 0 0 0 0 0 0 0
0 0 0 0 0 0 0 0 0 0 0 0 0 0 0 0 0 0 0 0 0 0 0 0 0 0 0 0 0 0 0 0 0 2271 2271 2271 2271 2271 2271 2271 2271 2271 2271 2271 2271 2271 2271 2271 2271 2271 2271 2271 2271 2286 2286 2286 2286 2286 2286 2286 2286 2286 2286 2286 2286 2301 2301 2286 2286 2271 2271 2271 2256 2256 2256 2256 2256 2256 2256 2256 2256 2271 2271 2271 2271 2271 2286 2271 2271 2286 2286 2286 2286 2286 2286 2286 2286 2286 2286 2286 2286 2286 2286 2286 2286 2301 2301 2286 2286 2286 2286 2286 2286 2286 2286 2301 2301 2301 2301 2301 2317 2317 2317 2301 2301 2317 2317 2317 2317 2317 2317 2317 2317 2301 2301 2301 2301 2301 2301 2301 2301 2301 2317 2317 2317 2317 2317 2317 2317 2317 2317 2317 2317 2317 2317 2317 2317 2317 2317 2317 2317 2317 2317 2317 2317 2317 2317 2317 2317 2317 2317 2317 2333 2333 2333 2333 2333 2333 2333 2333 2333 2333 2333 2333 2333 2333 2333 2333 2333 2333 2333 2349 2333 2333 2349 2333 2333 2333 2333 2333 2333 0 1785 1785 1785 1785 1785 1785 1785 1776 1776 1785 1785 1785 1785 1794 1794 1794 1794 2301 2301 2317 2333 2333 2349 2349 2365 2365 2365 2365 2365 2365 2365 2365 2365 2365 2365 2365 2365 2365 2365 2349 2349 2349 2349 2349 2365 2365 2028 2028 2053 2053 2065 2065 2065 2065 2078 2090 2116 2116 2129 2143 2156 2156 2156 2170 2170 2170 2170 2184 2184 2184 2349 2349 2365 2365 2365 2365 1632 1632 1632 1632 1632 1632 1632 1632 1632 1632 1632 1632 1639 1639 1639 1647 1647 1663 2349 2349 2349 2349 2365 2365 2365 2365 2365 2365 2381 2365 2365 2365 2365 2365 2365 2365 2381 2381 2381 2381 2381 2381 2381 1483 1483 1483 1483 1483 1477 1477 1477 1477 1470 1470 1470 1470 1477 1477 1477 1477 1470 1470 1470 1470 1470 1470 1470 1470 1470 1470 1477 1477 1477 1477 1477 1477 1477 1477 1477 1477 1477 1477 1477 1477 1477 1477 1483 1483 1483 1483 1483 1483 1483 1477 1477 1477 1477 1477 1483 1483 1483 1483 1477 1477 1477 1477 1477 1477 1477 1477 1477 1477 1477 1477 1477 1477 1483 1483 1483 1483 1483 1483 1483 1483 1483 1483 1477 1477 1477 1477 1477 1470 1470 1470 1470 1477 1477 1477 1470 1470 1470 1470 1470 1470 1477 1470 1470 1477 1297 1297 1297 1297 1297 1297 1297 1297 1292 1292 1292 1292 1292 1292 1297 1302 1302 1307 1307 1307 1477 1477 1477 1477 1477 1477 1477 1477 1470 1470 1470 1470 1470 1470 1470 1470 1470 1470 1477 1477 1477 1477 1477 1483 1483 1483 1516 1543 1550 1564 1564 1572 1586 1616 1624 1639 1639 1647 1647 1647 1647 1655 1655 1655 1655 2365 2381 2381 2398 2398 2398 2398 2381 2381 2381 2381 2381 2381 2381 2381 2381 2381 2381 2381 2381 2381 2381 2381 2381 2381 2381 2381 2415 2415 1688 1688 1688 1688 1688 1688 1688 1688 1680 1680 1680 1680 1680 1680 1680 1273 1273 1278 1278 1283 1283 1283 1283 1283 1278 1278 1278 1278 1278 1278 1278 1278 1278 1273 1273 1273 1273 1273 1273 1273 1273 1273 1273 1273 1273 1268 1264 1264 1264 1264 1268 1268 1264 1264 1268 1278 0 0 2333 2349 2349 2349 2365 2365 2349 2349 2365 2365 2365 2365 2365 2365 2365 2365 2365 2365 2365 2365 2349 2349 2349 2349 2349 2349 2365 2365 2365 2349 2349 2365 2365 2365 2365 2365 2365 2381 2381 2365 2365 2365 2365 2365 2349 2349 2349 2349 2349 2349 2349 2349 2349 0 0 0 0 0 0 0 0 0
0 0 0 0 0 0 0 0 0 0 0 0 0 0 0 0 0 0 0 0 0 0 0 0 0 0 0 0 0 0 0 0 0 2271 2271 2256 2256 2256 2256 2256 2256 2256 2271 2271 2271 2256 2256 2256 2256 2256 2256 2271 2271 2271 2271 2271 2271 2271 2271 2271 2271 2286 2271 2271 2286 2286 2286 2286 2286 2271 2256 2256 2256 2256 2256 2256 2256 2256 2256 2256 2256 2271 2271 2271 2271 2271 2271 2271 2271 2271 2271 2271 2271 2271 2271 2271 2271 2271 2271 2271 2271 2271 2271 2286 2286 2301 2301 2286 2271 2271 2286 2271 2271 2271 2271 2271 2286 2286 2286 2286 2301 2301 2301 2301 2301 2301 2301 2301 2301 2301 2301 2301 2301 2301 2286 2286 2286 2286 2286 2286 2286 2286 2301 2301 2301 2301 2301 2301 2317 2317 2317 2317 2317 2317 2317 2301 2301 2301 2301 2301 2301 2301 2301 2301 2301 2301 2301 2317 2317 2317 2317 2317 2317 2317 2333 2333 2317 2317 2333 2333 2333 2333 2333 2333 2333 2333 2333 2333 2333 2333 2333 2333 2333 2333 2333 2333 2333 2333 2333 2333 2333 2333 1785 1785 1785 1785 1785 1785 1785 1776 1776 1785 1785 1785 1785 1794 1794 1804 1804 2301 2317 2317 2317 2333 2333 2349 2349 2349 2365 2365 2365 2365 2365 2365 2365 2365 2365 2365 2365 2365 2365 2349 2349 2349 2349 2016 2016 2016 2028 2028 2040 2053 2065 2065 2065 2078 2078 2090 2116 2116 2143 2156 2156 2170 2170 2170 2170 2170 2170 2184 2184 2184 2333 2349 2349 2365 2365 2365 1632 1632 1632 1632 1632 1632 1632 1632 1632 1632 1632 1632 1639 1639 1639 1647 1647 1663 2349 2349 2349 2349 2349 2349 2349 2365 2349 2349 2365 2365 2365 2365 2365 2365 2365 2365 2365 2365 2365 2365 2365 2365 1496 1489 1489 1483 1483 1483 1483 1477 1477 1483 1477 1470 1470 1470 1477 1477 1477 1477 1470 1470 1470 1470 1470 1464 1464 1464 1464 1464 1464 1470 1470 1470 1470 1470 1470 1470 1470 1470 1470 1470 1470 1470 1470 1470 1477 1477 1477 1477 1477 1470 1470 1470 1470 1470 1470 1470 1477 1477 1477 1477 1477 1477 1477 1477 1470 1470 1470 1470 1470 1470 1470 1470 1470 1470 1477 1477 1477 1477 1477 1470 1470 1470 1470 1470 1470 1470 1470 1470 1470 1470 1470 1470 1470 1470 1470 1470 1464 1464 1470 1470 1470 1470 1470 1464 1464 1477 1297 1297 1297 1297 1297 1297 1297 1297 1292 1292 1292 1292 1292 1297 1297 1302 1302 1307 1307 1307 1307 1470 1470 1470 1470 1470 1470 1464 1464 1464 1464 1464 1464 1464 1464 1464 1464 1470 1470 1470 1470 1477 1477 1483 1483 1489 1543 1550 1557 1564 1564 1572 1586 1624 1639 1639 1639 1647 1647 1647 1647 1655 1655 1655 1655 2365 2381 2381 2381 2381 2381 2398 2365 2365 2365 2365 2365 2365 2365 2365 2365 2365 2365 2365 2365 2365 2365 2365 2365 2365 2365 2365 2381 2381 1688 1688 1688 1688 1688 1688 1688 1688 1680 1680 1680 1680 1680 1680 1680 1273 1273 1278 1283 1283 1283 1283 1283 1283 1283 1278 1278 1278 1278 1278 1278 1278 1278 1278 1273 1273 1273 1273 1273 1273 1273 1273 1273 1273 1273 1268 1268 1268 1268 1268 1268 1268 1268 1268 1268 1278 1278 0 2333 2333 2333 2349 2365 2365 2349 2349 2349 2349 2349 2349 2349 2349 2349 2349 2349 2349 2349 2349 2349 2349 2349 2349 2349 2349 2349 2349 2349 2349 2349 2349 2349 2349 2349 2349 2349 2365 2365 2365 2365 2349 2333 2333 2333 2349 2349 2349 2349 2349 2349 2349 2349 0 0 0 0 0 0 0 0 0
0 0 0 0 0 0 0 0 0 0 0 0 0 0 0 0 0 0 0 0 0 0 0 0 0 0 0 0 0 0 0 0 0 2271 2271 2256 2256 2256 2256 2256 2256 2256 2256 2256 2256 2256 2256 2256 2256 2256 2256 2256 2271 2271 2271 2271 2271 2271 2271 2271 2271 2271 2271 2271 2271 2271 2271 2271 2271 2256 2256 2256 2256 2256 2256 2256 2256 2256 2256 2256 2256 2256 2256 2256 2271 2271 2271 2271 2271 2271 2271 2271 2271 2271 2271 2271 2271 2271 2271 2271 2271 2271 2271 2271 2271 2286 2286 2271 2271 2271 2271 2271 2271 2271 2271 2271 2286 2286 2271 2271 2286 2271 2271 2286 2286 2286 2301 2301 2286 2286 2301 2286 2286 2286 2286 2286 2286 2286 2286 2286 2286 2286 2286 2301 2301 2301 2301 2301 2301 2301 2301 2301 2301 2317 2317 2301 2301 2301 2301 2301 2301 2301 2301 2301 2301 2301 2301 2301 2301 2301 2317 2317 2317 2317 2317 2317 2317 2317 2317 2317 2317 2317 2317 2317 2317 2317 2317 2317 2317 2317 2317 2317 2317 2317 2317 2317 2317 2317 2317 2333 2333 2333 1776 1776 1785 1785 1785 1785 1785 1776 1776 1785 1785 1785 1785 1794 1794 1804 1804 2301 2301 2301 2317 2317 2333 2333 2349 2349 2349 2349 2365 2349 2349 2349 2349 2349 2349 2349 2349 2349 2349 2333 2317 2317 2016 2016 2016 2016 2028 2028 2040 2053 2053 2065 2065 2078 2078 2078 2170 2170 2170 2170 2170 2170 2170 2170 2170 2170 2170 2184 2184 2198 2317 2333 2333 2349 2365 2365 1639 1632 1632 1632 1632 1632 1632 1632 1632 1632 1632 1632 1639 1639 1647 1647 1663 1663 2349 2349 2349 2349 2349 2349 2349 2349 2349 2349 2349 2349 2365 2365 2349 2349 2365 2365 2349 2349 2349 2349 2349 2349 1496 1496 1489 1489 1489 1483 1483 1483 1483 1483 1477 1477 1477 1477 1477 1470 1470 1470 1470 1470 1470 1464 1464 1464 1464 1464 1464 1464 1464 1464 1464 1464 1464 1464 1464 1464 1464 1464 1470 1470 1470 1470 1470 1470 1470 1470 1470 1470 1470 1464 1464 1464 1464 1464 1464 1470 1470 1470 1470 1470 1470 1470 1470 1470 1470 1470 1464 1464 1464 1464 1464 1464 1464 1464 1470 1470 1470 1470 1470 1470 1470 1464 1464 1464 1464 1464 1464 1464 1464 1464 1464 1464 1464 1464 1464 1470 1458 1458 1464 1464 1464 1464 1464 1464 1464 1470 1297 1297 1297 1297 1297 1297 1297 1297 1292 1292 1292 1292 1297 1297 1297 1302 1302 1307 1307 1307 1307 1464 1464 1464 1464 1464 1464 1464 1464 1458 1458 1458 1458 1458 1458 1458 1458 1464 1464 1464 1470 1470 1477 1483 1489 1536 1543 1550 1557 1557 1564 1639 1639 1639 1639 1639 1647 1647 1647 1647 1647 1655 1655 1663 2349 2365 2365 2381 2381 2381 2381 2381 2365 2365 2365 2365 2365 2365 2365 2365 2365 2365 2365 2365 2349 2349 2349 2349 2349 2349 2349 2349 2365 2365 1688 1688 1688 1688 1688 1688 1688 1688 1688 1680 1680 1680 1680 1680 1680 1273 1273 1278 1283 1288 1288 1288 1288 1288 1283 1283 1283 1283 1278 1278 1278 1278 1278 1278 1273 1273 1273 1273 1273 1273 1273 1273 1273 1273 1273 1273 1268 1268 1268 1268 1268 1268 1268 1268 1268 1268 0 0 0 2333 2333 2349 2365 2365 2349 2349 2333 2333 2349 2349 2333 2333 2349 2349 2349 2349 2333 2333 2333 2333 2333 2333 2333 2349 2349 2349 2333 2333 2333 2333 2349 2349 2349 2349 2349 2365 2349 2349 2349 2333 2333 2317 2317 2317 2317 2317 2317 2333 2333 2333 2333 0 0 0 0 0 0 0 0 0
0 0 0 0 0 0 0 0 0 0 0 0 0 0 0 0 0 0 0 0 0 0 0 0 0 0 0 0 0 0 0 0 0 2256 2256 2256 2256 2256 2256 2256 2256 2256 2256 2241 2241 2241 2241 2241 2241 2256 2256 2256 2256 2271 2271 2271 2271 2271 2271 2256 2256 2256 2256 2256 2256 2256 2256 2271 2271 2256 2241 2241 2226 2226 2241 2241 2241 2241 2241 2241 2241 2256 2256 2256 2256 2256 2256 2256 2256 2256 2271 2256 2256 2256 2256 2256 2256 2256 2256 2256 2271 2271 2271 2271 2271 2286 2286 2271 2271 2271 2271 2271 2271 2271 2271 2271 2286 2286 2271 2271 2271 2271 2271 2271 2271 2286 2286 2286 2286 2286 2286 2286 2286 2286 2286 2286 2271 2271 2271 2271 2271 2271 2286 2286 2286 2286 2301 2301 2301 2301 2301 2301 2301 2317 2317 2301 2301 2301 2301 2301 2301 2301 2301 2301 2301 2286 2286 2301 2301 2301 2301 2301 2301 2301 2301 2301 2301 2301 2317 2317 2317 2317 2317 2317 2317 2301 2301 2317 2301 2301 2317 2317 2317 2317 2317 2317 2317 2317 2317 2317 2317 2317 1776 1776 1785 1785 1785 1785 1785 1785 1785 1785 1785 1785 1794 1794 1794 1804 1804 2301 2301 2301 2317 2317 2333 2333 2333 2333 2349 2349 2349 2349 2349 2349 2349 2333 2333 2333 2349 2349 2349 2333 2317 2016 2016 2016 2016 2016 2028 2028 2040 2053 2053 2065 2065 2078 2078 2184 2184 2184 2184 2184 2170 2170 2170 2170 2170 2170 2184 2184 2184 2286 2301 2317 2317 2333 2349 2349 1639 1632 1632 1632 1632 1632 1632 1632 1632 1632 1639 1639 1639 1639 1647 1663 1663 1671 2333 2333 2333 2333 2333 2349 2349 2349 2349 2349 2349 2349 2349 2349 2349 2349 2349 2349 2349 2349 2333 2333 2349 2349 1489 1489 1489 1489 1489 1489 1489 1483 1483 1489 1477 1477 1477 1477 1477 1470 1470 1470 1470 1470 1470 1464 1464 1464 1458 1458 1458 1458 1458 1458 1458 1458 1458 1458 1458 1458 1458 1458 1458 1458 1458 1458 1458 1458 1464 1464 1464 1464 1464 1464 1464 1464 1464 1464 1464 1464 1464 1464 1464 1470 1470 1464 1464 1464 1464 1464 1464 1464 1464 1464 1464 1458 1458 1464 1464 1464 1464 1464 1464 1464 1464 1464 1464 1464 1464 1464 1464 1464 1464 1464 1464 1464 1464 1464 1464 1464 1458 1458 1458 1458 1458 1458 1458 1458 1458 1464 1297 1297 1297 1302 1302 1297 1297 1297 1297 1297 1297 1297 1297 1297 1302 1302 1307 1307 1307 1307 1307 1458 1458 1458 1458 1458 1458 1458 1458 1458 1458 1452 1452 1452 1452 1452 1452 1458 1458 1464 1464 1470 1477 1483 1523 1543 1550 1550 1550 1557 1564 1647 1647 1647 1647 1647 1647 1647 1647 1647 1647 1655 1663 1663 2349 2349 2365 2365 2365 2365 2381 2381 2365 2365 2365 2365 2365 2365 2349 2349 2349 2349 2349 2349 2349 2349 2349 2349 2349 2333 2333 2333 2365 1696 1696 1696 1696 1696 1696 1696 1688 1688 1688 1680 1680 1680 1680 1680 1688 1273 1273 1278 1283 1288 1288 1288 1288 1288 1288 1283 1283 1283 1278 1278 1278 1278 1278 1278 1273 1273 1273 1273 1273 1273 1273 1273 1273 1273 1273 1273 1273 1273 1268 1268 1268 1268 1268 1268 1268 1268 1268 1278 2349 2349 2349 2349 2349 2349 2333 2333 2317 2317 2333 2333 2317 2317 2333 2333 2333 2333 2317 2317 2333 2333 2333 2333 2333 2333 2333 2333 2317 2317 2317 2317 2333 2333 2333 2333 2349 2349 2333 2317 2317 2333 2317 2317 2317 2317 2317 2317 2317 2317 2317 2333 2333 0 0 0 0 0 0 0 0 0
0 0 0 0 0 0 0 0 0 0 0 0 0 0 0 0 0 0 0 0 0 0 0 0 0 0 0 0 0 0 0 0 0 2256 2241 2241 2241 2241 2241 2241 2241 2241 2241 2241 2226 2226 2226 2241 2241 2241 2241 2241 2256 2256 2256 2256 2256 2256 2256 2256 2256 2256 2256 2256 2256 2256 2256 2256 2256 2241 2241 2241 2226 2226 2241 2241 2241 2241 2241 2241 2241 2241 2241 2241 2256 2256 2256 2256 2241 2241 2256 2256 2256 2256 2256 2256 2256 2241 2241 2256 2256 2256 2256 2271 2271 2271 2271 2271 2271 2271 2271 2271 2271 2271 2271 2271 2271 2271 2271 2271 2271 2271 2271 2271 2271 2286 2286 2286 2286 2286 2286 2286 2286 2286 2271 2271 2271 2271 2271 2271 2271 2271 2271 2271 2271 2286 2286 2286 2286 2286 2286 2301 2301 2301 2301 2301 2301 2301 2286 2286 2286 2286 2286 2286 2286 2286 2286 2286 2286 2286 2286 2301 2301 2301 2301 2301 2301 2301 2301 2301 2301 2301 2301 2301 2301 2301 2301 2301 2301 2301 2301 2301 2301 2301 2301 2301 2301 2301 2301 2301 2301 2301 1776 1776 1776 1785 1785 1785 1785 1785 1785 1785 1785 1785 1794 1794 1804 1804 1804 2317 2317 2317 2317 2317 2317 2317 2317 2317 2333 2333 2333 2333 2333 2333 2333 2317 2317 2333 2349 2349 2349 2040 2028 2016 2016 2016 2016 2028 2028 2028 2053 2053 2065 2065 2065 2065 2078 2184 2184 2184 2184 2184 2184 2170 2170 2170 2170 2170 2184 2184 2184 2286 2301 2317 2317 2317 2349 2349 1632 1632 1632 1632 1632 1632 1632 1632 1632 1632 1639 1639 1639 1639 1647 1655 1663 1671 2333 2333 2333 2333 2333 2349 2349 2333 2333 2333 2349 2349 2349 2349 2349 2349 2349 2349 2333 2317 2317 2317 2333 2333 1489 1489 1489 1489 1489 1489 1489 1489 1489 1489 1483 1483 1477 1477 1477 1477 1470 1470 1470 1470 1470 1464 1464 1464 1458 1458 1458 1458 1458 1458 1458 1458 1458 1458 1452 1452 1452 1452 1452 1452 1452 1452 1452 1452 1452 1452 1452 1452 1452 1452 1452 1452 1452 1452 1452 1452 1452 1452 1458 1458 1458 1458 1458 1458 1458 1458 1458 1458 1458 1458 1458 1458 1458 1458 1458 1458 1458 1458 1458 1458 1458 1458 1458 1458 1458 1458 1458 1458 1458 1464 1464 1464 1464 1464 1464 1464 1458 1458 1458 1458 1458 1458 1458 1452 1452 1458 1458 1302 1302 1302 1302 1302 1297 1297 1297 1297 1297 1297 1297 1297 1302 1302 1307 1307 1307 1307 1452 1452 1452 1452 1452 1452 1452 1452 1452 1452 1452 1452 1452 1452 1452 1452 1452 1452 1458 1458 1464 1464 1483 1503 1523 1543 1550 1543 1543 1557 1647 1647 1647 1647 1647 1647 1647 1655 1655 1655 1655 1655 1655 1655 1663 2349 2349 2365 2365 2365 2365 2365 2349 2349 2349 2349 2349 2349 2333 2333 2333 2333 2333 2333 2333 2349 2349 2333 2333 2333 2333 2333 2333 1696 1696 1696 1696 1696 1696 1688 1688 1688 1688 1680 1680 1680 1680 1688 1688 1688 1278 1278 1288 1288 1292 1292 1292 1288 1288 1283 1283 1283 1283 1278 1278 1278 1278 1278 1278 1278 1278 1278 1278 1278 1278 1278 1273 1273 1273 1273 1273 1273 1268 1268 1268 1268 1268 1268 1273 1278 1278 1278 2349 2349 2349 2349 2349 2349 2317 2317 2317 2317 2317 2317 2317 2317 2317 2317 2317 2317 2317 2317 2317 2317 2333 2333 2333 2317 2317 2301 2301 2301 2301 2301 2301 2317 2317 2317 2333 2333 2317 2317 2317 2317 2317 2317 2317 2317 2317 2317 2317 2317 2317 2317 2317 0 0 0 0 0 0 0 0 0
0 0 0 0 0 0 0 0 0 0 0 0 0 0 0 0 0 0 0 0 0 0 0 0 0 0 0 0 0 0 0 0 0 2226 2226 2226 2226 2226 2226 2226 2226 2226 2226 2226 2226 2212 2212 2226 2226 2226 2226 2241 2256 2256 2256 2256 2256 2256 2256 2241 2241 2241 2241 2241 2241 2241 2241 2241 2241 2241 2241 2226 2226 2226 2226 2226 2226 2241 2226 2226 2226 2226 2226 2226 2226 2226 2226 2226 2226 2226 2241 2241 2241 2241 2241 2241 2241 2226 2226 2241 2241 2241 2256 2271 2256 2256 2256 2271 2256 2256 2256 2256 2256 2256 2256 2256 2271 2271 2271 2271 2271 2271 2271 2271 2271 2271 2271 2271 2271 2271 2271 2271 2286 2271 2271 2271 2271 2271 2271 2256 2256 2256 2271 2271 2271 2271 2271 2271 2271 2286 2286 2286 2301 2301 2301 2286 2286 2286 2286 2271 2271 2271 2271 2286 2286 2286 2286 2286 2286 2286 2286 2286 2286 2286 2286 2286 2286 2286 2301 2286 2286 2286 2301 2301 2301 2286 2286 2301 2301 2301 2301 2301 2301 2301 2301 2301 2301 2301 2301 2286 2286 2286 1776 1776 1776 1785 1785 1785 1785 1785 1785 1785 1785 1785 1794 1794 1804 1813 1823 2317 1915 1915 2317 2317 2317 2317 2317 2317 2317 2317 2317 2317 2317 2333 2317 2317 2317 2317 2333 2333 2040 2040 2028 2028 2028 2028 2028 2028 2028 2028 2053 2053 2065 2065 2065 2065 2286 2184 2184 2198 2198 2184 2184 2184 2170 2170 2170 2184 2184 2184 2184 2256 2286 2301 2317 2317 2349 2349 1632 1632 1632 1632 1632 1632 1632 1632 1632 1632 1639 1639 1639 1639 1647 1655 1663 1663 2333 2317 2317 2333 2333 2333 2333 2333 2333 2333 2333 2333 2333 2349 2349 2333 2333 2333 2333 2317 2317 2317 2317 2317 2317 1489 1489 1489 1489 1489 1489 1489 1489 1489 1483 1483 1483 1477 1477 1477 1477 1470 1470 1470 1470 1464 1464 1464 1458 1458 1458 1458 1458 1458 1458 1458 1458 1458 1452 1452 1452 1445 1445 1445 1445 1452 1452 1452 1452 1452 1445 1445 1445 1445 1445 1445 1445 1445 1445 1445 1445 1445 1445 1445 1452 1452 1452 1452 1452 1452 1452 1452 1452 1452 1452 1452 1452 1452 1452 1452 1452 1445 1445 1445 1445 1445 1445 1445 1445 1445 1445 1452 1452 1452 1452 1458 1458 1458 1458 1458 1452 1452 1452 1452 1452 1452 1452 1452 1452 1452 1452 1302 1302 1302 1302 1302 1302 1297 1297 1297 1297 1297 1297 1302 1302 1307 1307 1312 1312 1312 1439 1445 1445 1445 1445 1445 1445 1445 1445 1445 1445 1445 1445 1445 1445 1445 1452 1452 1452 1458 1464 1464 1483 1516 1536 1543 1543 1543 1543 1647 1647 1647 1647 1647 1647 1647 1647 1655 1655 1655 1655 1655 1655 1655 1663 2333 2349 2349 2349 2349 2349 2365 2349 2333 2333 2333 2333 2333 2333 2333 2333 2333 2333 2333 2333 2333 2333 2333 2333 2317 2317 2317 2317 1696 1696 1696 1696 1696 1696 1688 1688 1688 1688 1688 1680 1680 1688 1688 1688 1292 1283 1283 1288 1292 1292 1292 1292 1288 1288 1288 1288 1283 1283 1283 1278 1278 1278 1278 1278 1278 1278 1278 1278 1278 1278 1278 1273 1273 1273 1273 1273 1273 1268 1268 1268 1268 1273 1273 1278 1273 1273 1273 2333 2333 2333 2333 2333 2333 2317 2317 2301 2301 2317 2317 2317 2317 2317 2317 2317 2317 2317 2317 2317 2317 2317 2317 2317 2317 2301 2301 2301 2301 2301 2301 2301 2301 2301 2301 2317 2317 2301 2301 2301 2301 2301 2301 2301 2301 2301 2301 2301 2301 2301 2301 2301 0 0 0 0 0 0 0 0 0
0 0 0 0 0 0 0 0 0 0 0 0 0 0 0 0 0 0 0 0 0 0 0 0 0 0 0 0 0 0 0 0 0 2226 2226 2226 2226 2226 2226 2226 2226 2226 2212 2212 2212 2212 2212 2226 2226 2226 2226 2226 2241 2241 2241 2241 2241 2241 2241 2226 2226 2226 2226 2226 2226 2226 2241 2226 2226 2226 2226 2226 2226 2226 2226 2226 2226 2226 2226 2226 2226 2226 2212 2212 2212 2212 2226 2212 2212 2226 2226 2226 2226 2226 2226 2226 2226 2226 2226 2226 2241 2241 2256 2256 2256 2256 2256 2271 2256 2241 2241 2256 2256 2256 2256 2256 2256 2256 2256 2256 2256 2256 2256 2256 2256 2271 2271 2256 2256 2256 2271 2271 2271 2271 2271 2271 2271 2271 2271 2256 2256 2256 2271 2271 2271 2271 2271 2271 2271 2271 2271 2271 2271 2286 2286 2271 2271 2271 2271 2271 2271 2271 2271 2271 2271 2271 2271 2271 2286 2286 2286 2286 2286 2286 2286 2286 2286 2286 2286 2286 2286 2286 2286 2286 2286 2286 2286 2286 2301 2301 2286 2286 2286 2301 2301 2301 2301 2301 2301 2286 2286 2286 1785 1785 1785 1785 1785 1785 1785 1785 1785 1785 1785 1785 1794 1804 1813 1813 1823 1904 1904 1915 2301 2301 2301 2301 2301 2301 2317 2317 2317 2317 2317 2317 2317 2317 2317 2317 2333 2333 2040 2040 2016 2016 2028 2016 2016 2016 2028 2028 2053 2053 2065 2065 2078 2317 2286 2226 2226 2212 2198 2198 2170 2170 2170 2170 2170 2170 2184 2184 2198 2241 2271 2286 2301 2317 2317 2317 1639 1632 1632 1632 1632 1632 1632 1632 1632 1632 1639 1639 1639 1647 1647 1655 1663 1663 2317 2317 2317 2333 2317 2317 2317 2317 2317 2317 2317 2317 2317 2333 2333 2333 2333 2333 2317 2317 2317 2317 2317 2317 2317 2317 1489 1489 1489 1489 1489 1489 1489 1489 1483 1483 1483 1477 1477 1477 1477 1477 1477 1470 1470 1470 1464 1464 1458 1458 1458 1458 1458 1458 1458 1452 1452 1452 1452 1452 1445 1445 1445 1445 1445 1445 1445 1445 1445 1445 1445 1445 1445 1439 1439 1439 1439 1445 1445 1445 1439 1439 1445 1445 1445 1445 1445 1445 1452 1452 1452 1452 1452 1452 1452 1452 1452 1445 1445 1445 1445 1445 1445 1439 1439 1439 1439 1439 1439 1439 1439 1445 1445 1445 1445 1452 1445 1445 1445 1445 1439 1439 1439 1445 1445 1439 1439 1439 1433 1433 1312 1302 1302 1302 1302 1302 1302 1297 1297 1297 1297 1297 1302 1302 1307 1307 1307 1312 1312 1317 1439 1439 1439 1439 1439 1439 1439 1439 1439 1439 1439 1439 1439 1439 1445 1445 1445 1452 1452 1458 1464 1464 1503 1523 1536 1543 1543 1543 1655 1647 1647 1647 1647 1647 1647 1647 1647 1655 1655 1655 1655 1655 1655 1655 1663 2333 2349 2349 2349 2349 2349 2349 2333 2333 2317 2317 2317 2333 2317 2317 2317 2317 2333 2333 2333 2333 2317 2317 2317 2317 2317 2317 2317 1696 1696 1696 1696 1696 1696 1688 1688 1688 1688 1688 1680 1680 1688 1696 1696 1288 1288 1288 1292 1292 1292 1292 1292 1292 1292 1288 1288 1288 1288 1283 1283 1278 1278 1278 1278 1278 1278 1278 1278 1278 1278 1278 1273 1273 1273 1273 1273 1273 1268 1268 1268 1268 1268 1268 1273 1273 1273 1273 2317 2317 2317 2317 2317 2317 2301 2301 2301 2301 2301 2317 2301 2301 2301 2317 2317 2301 2301 2301 2317 2317 2301 2301 2301 2301 2301 2301 2301 2301 2301 2301 2301 2301 2301 2301 2301 2301 2301 2301 2301 2301 2301 2301 2301 2301 2301 2301 2301 2301 2301 2301 2301 0 0 0 0 0 0 0 0 0
0 0 0 0 0 0 0 0 0 0 0 0 0 0 0 0 0 0 0 0 0 0 0 0 0 0 0 0 0 0 0 0 0 2226 2226 2226 2226 2226 2226 2226 2226 2226 2212 2212 2212 2212 2212 2212 2226 2226 2226 2226 2226 2226 2226 2226 2226 2226 2226 2226 2226 2226 2226 2226 2226 2226 2226 2226 2226 2212 2212 2212 2212 2212 2212 2212 2212 2212 2212 2212 2212 2212 2212 2212 2212 2212 2212 2212 2212 2226 2226 2226 2226 2226 2226 2226 2212 2212 2212 2226 2226 2226 2241 2256 2256 2256 2256 2256 2256 2241 2241 2241 2241 2241 2241 2241 2241 2256 2256 2256 2256 2256 2256 2256 2256 2256 2256 2256 2256 2256 2256 2271 2271 2271 2256 2256 2256 2271 2256 2256 2256 2256 2256 2256 2256 2256 2256 2256 2256 2256 2271 2271 2271 2271 2271 2271 2271 2271 2271 2256 2256 2256 2271 2271 2271 2256 2256 2271 2271 2271 2271 2271 2271 2271 2271 2271 2271 2271 2271 2271 2271 2271 2271 2271 2271 2271 2271 2286 2286 2286 2286 2286 2286 2286 2301 2301 2301 2301 2301 2286 2286 2286 1785 1785 1785 1785 1785 1785 1785 1785 1785 1785 1785 1785 1794 1804 1813 1813 1823 1904 1904 1915 2301 2301 2301 2301 2301 2301 2301 2301 2301 2301 2301 2317 2317 2317 2317 2317 2317 2317 2016 2016 2016 2016 2016 2016 2016 2016 2016 2028 2040 2053 2053 2065 2301 2301 2286 2256 2241 2226 2212 2198 2170 2170 2170 2170 2170 2170 2184 2184 2198 2241 2271 2286 2301 2301 2301 2301 1639 1632 1632 1632 1632 1632 1632 1632 1632 1632 1639 1639 1639 1647 1655 1663 1663 1663 2301 2301 2317 2317 2317 2317 2317 2317 2317 2317 2317 2301 2301 2301 2317 2301 2301 2301 2301 2301 2301 2317 2317 2317 2317 0 1489 1489 1489 1489 1489 1489 1489 1489 1483 1483 1483 1483 1483 1483 1483 1477 1477 1477 1477 1470 1464 1464 1464 1458 1458 1458 1458 1458 1452 1452 1452 1452 1445 1445 1445 1439 1439 1439 1439 1439 1439 1439 1439 1439 1439 1439 1439 1439 1439 1439 1439 1439 1439 1439 1439 1439 1439 1439 1439 1439 1439 1439 1445 1445 1445 1445 1439 1439 1439 1439 1439 1439 1439 1439 1439 1439 1439 1439 1439 1439 1439 1439 1439 1439 1439 1439 1439 1439 1439 1439 1439 1439 1439 1439 1433 1433 1433 1439 1439 1433 1433 1433 1427 1427 1312 1307 1307 1307 1302 1302 1302 1302 1302 1302 1302 1302 1302 1302 1307 1307 1307 1312 1433 1433 1433 1433 1433 1433 1433 1433 1433 1433 1433 1433 1433 1433 1433 1439 1439 1439 1445 1452 1452 1458 1470 1496 1509 1523 1536 1543 1543 1655 1655 1655 1655 1655 1655 1647 1647 1647 1655 1655 1655 1655 1655 1655 1655 2317 2333 2333 2333 2333 2333 2333 2333 2333 2317 2317 2317 2317 2317 2317 2317 2317 2317 2317 2317 2317 2317 2317 2317 2317 2317 2301 2301 2317 2317 1696 1696 1696 1696 1696 1696 1688 1688 1688 1688 1688 1688 1688 1688 1688 1288 1288 1288 1288 1292 1292 1292 1292 1292 1292 1292 1288 1288 1288 1283 1283 1283 1283 1278 1278 1278 1278 1278 1278 1278 1278 1278 1273 1273 1273 1273 1273 1273 1273 1273 1268 1268 1268 1268 1268 1268 1273 1278 1278 2333 2317 2317 2317 2317 2317 2301 2301 2301 2301 2301 2301 2301 2301 2301 2301 2301 2301 2301 2301 2317 2301 2301 2301 2301 2301 2286 2286 2286 2286 2286 2286 2286 2301 2301 2301 2286 2286 2301 2286 2286 2286 2301 2301 2301 2301 2286 2286 2286 2286 2286 2286 2286 0 0 0 0 0 0 0 0 0
0 0 0 0 0 0 0 0 0 0 0 0 0 0 0 0 0 0 0 0 0 0 0 0 0 0 0 0 0 0 0 0 0 2226 2226 2226 2226 2226 2226 2226 2212 2212 2212 2212 2212 2212 2212 2212 2212 2212 2226 2226 2226 2226 2226 2226 2226 2226 2226 2212 2212 2212 2212 2212 2212 2212 2226 2212 2212 2212 2212 2212 2212 2212 2212 2212 2212 2212 2212 2212 2212 2212 2212 2212 2212 2212 2212 2212 2212 2212 2212 2212 2212 2212 2212 2212 2212 2212 2212 2212 2212 2212 2226 2241 2241 2241 2241 2241 2241 2241 2226 2226 2226 2226 2226 2226 2241 2241 2241 2241 2241 2241 2241 2241 2256 2256 2256 2256 2256 2256 2256 2256 2256 2256 2256 2256 2256 2256 2256 2241 2241 2241 2241 2241 2241 2241 2256 2256 2256 2256 2256 2271 2271 2271 2271 2256 2256 2256 2256 2256 2256 2256 2256 2256 2256 2256 2256 2256 2271 2256 2256 2256 2256 2256 2256 2256 2256 2256 2256 2256 2256 2256 2256 2256 2256 2256 2256 2271 2271 2271 2271 2271 2271 2271 2286 2286 2286 2286 2286 2301 2301 2301 1785 1785 1785 1785 1785 1785 1785 1785 1785 1785 1785 1785 1794 1794 1813 1813 1936 1926 1926 1926 2317 2301 2301 2301 2286 2286 2286 2286 2286 2286 2301 2301 2301 2301 2301 2301 1993 1993 1993 2005 2005 2005 2016 2016 2016 2016 2016 2016 2040 2053 2053 2301 2301 2301 2286 2271 2256 2241 2212 2184 2170 2170 2170 2170 2170 2184 2184 2184 2198 2241 2271 2286 2286 2301 2301 2301 1639 1632 1632 1632 1632 1632 1632 1632 1632 1632 1639 1639 1639 1647 1655 1663 1663 1663 2301 2301 2301 2301 2301 2301 2301 2301 2301 2301 2301 2301 2301 2301 2301 2301 2301 2301 2301 2301 2301 2317 2317 2317 2317 0 1496 1496 1496 1489 1489 1489 1489 1489 1483 1483 1483 1483 1483 1483 1483 1483 1483 1477 1477 1470 1470 1464 1464 1458 1458 1458 1458 1458 1452 1452 1452 1452 1445 1445 1445 1439 1439 1439 1439 1439 1439 1439 1439 1439 1433 1433 1433 1433 1433 1433 1433 1439 1439 1439 1439 1439 1439 1439 1433 1433 1433 1433 1433 1439 1439 1439 1439 1439 1439 1433 1433 1433 1433 1433 1433 1433 1433 1433 1433 1433 1433 1433 1433 1433 1433 1433 1439 1433 1433 1433 1439 1439 1439 1439 1433 1433 1433 1433 1433 1427 1427 1427 1421 1421 1317 1312 1312 1312 1307 1307 1307 1302 1302 1302 1302 1302 1302 1302 1307 1312 1312 1312 1427 1427 1427 1427 1433 1427 1427 1427 1427 1427 1427 1427 1427 1433 1433 1433 1433 1439 1439 1452 1452 1458 1503 1509 1509 1516 1523 1523 1655 1655 1655 1655 1655 1647 1647 1655 1655 1655 1655 1655 1655 1655 1655 1655 2317 2317 2317 2317 2333 2333 2333 2333 2333 2333 2301 2301 2301 2301 2301 2317 2317 2317 2317 2317 2317 2317 2317 2317 2317 2317 2301 2301 2301 2301 1688 1688 1696 1696 1696 1696 1696 1688 1688 1688 1688 1688 1696 1696 1696 1696 1292 1292 1292 1292 1292 1292 1292 1292 1292 1292 1292 1288 1288 1288 1283 1283 1283 1283 1283 1278 1278 1278 1278 1278 1278 1278 1278 1273 1273 1273 1273 1273 1273 1273 1273 1268 1268 1268 1268 1268 1268 1268 1268 2333 2333 2317 2317 2317 2317 2317 2301 2301 2301 2301 2301 2301 2301 2301 2301 2301 2301 2301 2301 2301 2301 2301 2301 2301 2301 2286 2286 2286 2286 2286 2286 2286 2286 2286 2286 2286 2286 2286 2286 2286 2286 2286 2286 2286 2286 2286 2286 2286 2286 2286 2286 2286 2286 0 0 0 0 0 0 0 0 0
0 0 0 0 0 0 0 0 0 0 0 0 0 0 0 0 0 0 0 0 0 0 0 0 0 0 0 0 0 0 0 0 0 2212 2212 2212 2212 2212 2226 2212 2212 2212 2198 2198 2198 2198 2198 2198 2198 2212 2212 2226 2226 2226 2226 2226 2226 2226 2226 2212 2212 2212 2212 2212 2212 2212 2212 2212 2212 2198 2198 2198 2198 2198 2212 2212 2212 2212 2212 2212 2212 2212 2198 2198 2198 2198 2198 2198 2198 2198 2198 2198 2198 2198 2212 2212 2212 2212 2212 2212 2212 2212 2212 2226 2226 2226 2226 2226 2226 2226 2212 2212 2212 2212 2212 2212 2226 2226 2226 2226 2241 2241 2241 2241 2241 2241 2241 2241 2241 2241 2241 2241 2241 2256 2241 2241 2256 2256 2241 2241 2241 2241 2241 2241 2241 2241 2241 2241 2256 2256 2256 2256 2256 2256 2256 2256 2256 2256 2256 2256 2256 2256 2256 2256 2256 2256 2256 2256 2256 2256 2256 2256 2256 2256 2256 2256 2256 2256 2256 2256 2256 2256 2256 2256 2256 2256 2256 2256 2256 2256 2256 2256 2271 2271 2271 2271 2271 2271 2271 2286 2286 2286 1794 1794 1794 1785 1785 1785 1785 1785 1785 1785 1785 1785 1794 1794 1813 1813 1926 1915 1915 1915 2301 2301 2301 2286 2286 2286 2286 2286 2286 2286 2286 2301 2301 2301 2301 1981 1981 1993 1993 2005 2005 2005 2005 2005 2005 2005 2016 2016 2016 2317 2301 2286 2286 2286 2286 2271 2271 2241 2198 2184 2170 2170 2170 2170 2170 2184 2184 2198 2198 2241 2256 2271 2286 2301 2301 1639 1639 1639 1639 1632 1632 1632 1632 1632 1632 1632 1639 1639 1639 1647 1655 1663 1663 1663 2286 2286 2301 2301 2301 2301 2301 2301 2301 2301 2301 2286 2286 2286 2286 2286 2286 2286 2301 2286 2286 2317 2301 2301 2301 0 1489 1489 1489 1489 1489 1489 1489 1489 1483 1483 1483 1483 1483 1483 1483 1483 1483 1483 1477 1477 1470 1470 1464 1464 1464 1458 1458 1458 1458 1452 1452 1452 1445 1445 1445 1439 1439 1439 1439 1439 1439 1439 1439 1433 1433 1433 1433 1433 1433 1433 1433 1433 1433 1433 1433 1433 1433 1433 1427 1427 1427 1433 1433 1433 1433 1433 1433 1433 1433 1433 1433 1433 1433 1433 1433 1433 1433 1433 1433 1433 1433 1433 1433 1433 1433 1433 1433 1433 1433 1433 1433 1433 1433 1433 1427 1427 1427 1427 1427 1421 1421 1421 1415 1415 1317 1312 1312 1312 1307 1307 1307 1302 1302 1302 1302 1302 1307 1307 1312 1312 1317 1317 1421 1421 1421 1421 1427 1427 1427 1427 1427 1427 1427 1427 1427 1427 1433 1433 1433 1433 1439 1452 1458 1496 1503 1509 1509 1516 1523 1523 1655 1655 1655 1655 1655 1647 1647 1655 1655 1655 1655 1655 1655 1655 1655 1655 2317 2317 2317 2317 2317 2317 2317 2317 2317 2317 2301 2301 2301 2301 2301 2301 2301 2301 2301 2301 2317 2317 2317 2317 2317 2301 2301 2301 2301 2301 1688 1688 1696 1696 1696 1696 1696 1696 1696 1688 1688 1688 1696 1696 1705 1297 1292 1292 1292 1292 1292 1292 1292 1292 1292 1292 1292 1288 1288 1288 1283 1283 1283 1283 1283 1283 1283 1283 1278 1278 1278 1278 1278 1278 1273 1273 1273 1273 1273 1273 1273 1273 1273 1273 1273 1273 1273 1273 0 0 2349 2317 2317 2317 2317 2317 2301 2301 2286 2286 2301 2301 2301 2301 2301 2301 2301 2301 2301 2301 2301 2301 2286 2286 2286 2286 2286 2286 2286 2286 2286 2286 2286 2286 2286 2271 2271 2271 2286 2286 2286 2286 2286 2286 2286 2286 2286 2286 2286 2271 2271 2271 2271 0 0 0 0 0 0 0 0 0
0 0 0 0 0 0 0 0 0 0 0 0 0 0 0 0 0 0 0 0 0 0 0 0 0 0 0 0 0 0 0 0 0 2198 2198 2212 2212 2212 2212 2198 2198 2198 2184 2184 2184 2184 2184 2184 2184 2184 2198 2212 2212 2198 2198 2212 2212 2212 2212 2198 2198 2198 2198 2212 2212 2212 2198 2198 2212 2198 2198 2198 2198 2198 2198 2198 2212 2212 2212 2212 2212 2198 2198 2198 2198 2198 2198 2198 2198 2198 2198 2198 2198 2198 2198 2198 2212 2212 2212 2212 2212 2212 2212 2212 2212 2212 2226 2226 2212 2212 2212 2212 2212 2212 2212 2212 2212 2226 2226 2226 2226 2226 2226 2226 2226 2226 2226 2226 2226 2226 2226 2226 2226 2241 2241 2241 2241 2241 2226 2226 2226 2226 2226 2226 2226 2226 2241 2241 2241 2241 2241 2241 2256 2256 2256 2241 2241 2241 2241 2241 2241 2241 2241 2241 2241 2241 2241 2241 2241 2241 2241 2241 2241 2241 2241 2241 2241 2241 2241 2256 2256 2241 2241 2256 2241 2241 2256 2256 2256 2256 2256 2256 2256 2256 2271 2271 2271 2271 2271 2271 2271 2271 1853 1813 1804 1794 1785 1785 1785 1785 1785 1785 1785 1794 1794 1804 1813 1915 1915 1915 1915 1915 2286 2286 2286 2271 2271 2271 2271 2271 2271 2271 2286 2301 2301 2301 1981 1981 1981 1981 1993 1993 1993 1993 2005 2005 2005 2005 2005 2005 2286 2286 2286 2286 2271 2271 2271 2271 2256 2241 2198 2184 2170 2170 2170 2170 2170 2184 2184 2198 2226 2226 2256 2271 2286 2286 2286 1639 1639 1639 1639 1639 1639 1632 1632 1632 1632 1639 1639 1639 1639 1647 1655 1663 1663 1663 1663 2286 2286 2286 2301 2301 2301 2301 2301 2286 2286 2286 2286 2286 2286 2286 2286 2286 2286 2286 2286 2301 2301 2301 0 1496 1489 1489 1489 1489 1489 1489 1489 1489 1483 1483 1483 1483 1483 1483 1483 1483 1483 1483 1477 1477 1477 1470 1470 1464 1464 1464 1464 1458 1458 1458 1452 1452 1445 1445 1445 1439 1439 1439 1439 1439 1439 1439 1439 1433 1433 1433 1433 1433 1433 1433 1433 1433 1433 1427 1427 1427 1421 1421 1421 1421 1421 1421 1421 1427 1427 1427 1427 1427 1427 1427 1427 1427 1427 1427 1427 1427 1427 1427 1433 1433 1433 1433 1433 1427 1427 1427 1427 1427 1427 1427 1427 1427 1427 1427 1427 1427 1427 1427 1421 1421 1415 1415 1415 1415 1317 1317 1317 1312 1307 1307 1307 1302 1302 1302 1302 1302 1307 1307 1312 1312 1317 1317 1421 1421 1415 1415 1421 1421 1421 1421 1421 1421 1421 1421 1421 1427 1427 1433 1433 1433 1439 1470 1496 1503 1509 1509 1509 1516 1523 1523 1655 1655 1655 1655 1655 1647 1647 1655 1655 1655 1655 1655 1655 1655 1655 1655 2301 2301 2301 2301 2301 2301 2301 2301 2301 2301 2286 2286 2286 2301 2301 2301 2301 2301 2301 2301 2301 2301 2301 2301 2301 2301 2301 2301 2301 2301 1688 1688 1696 1696 1696 1696 1688 1688 1688 1688 1688 1688 1696 1705 1705 1297 1297 1297 1292 1292 1292 1292 1292 1292 1292 1292 1292 1288 1288 1288 1283 1283 1283 1283 1283 1283 1283 1283 1283 1278 1278 1278 1278 1278 1278 1273 1273 1273 1273 1273 1273 1273 1273 1273 1273 1273 1278 1278 0 2317 2317 2317 2317 2317 2317 2301 2286 2286 2286 2286 2286 2286 2286 2286 2301 2301 2301 2286 2286 2286 2286 2286 2286 2286 2286 2271 2271 2271 2271 2286 2286 2286 2271 2271 2256 2256 2256 2256 2271 2271 2271 2271 2286 2286 2271 2271 2271 2271 2271 2271 2271 2256 2256 0 0 0 0 0 0 0 0 0
0 0 0 0 0 0 0 0 0 0 0 0 0 0 0 0 0 0 0 0 0 0 0 0 0 0 0 0 0 0 0 0 0 2198 2198 2198 2198 2212 2198 2198 2198 2184 2170 2170 2184 2184 2184 2184 2184 2184 2170 2170 2198 2198 2198 2212 2198 2198 2198 2170 2170 2170 2184 2184 2184 2198 2198 2198 2212 2184 2184 2184 2184 2198 2198 2198 2184 2184 2184 2184 2198 2184 2184 2184 2184 2184 2184 2184 2184 2170 2170 2184 2184 2184 2184 2184 2198 2198 2198 2198 2198 2198 2198 2198 2212 2212 2212 2212 2198 2198 2198 2198 2198 2198 2198 2198 2212 2212 2212 2212 2212 2226 2226 2226 2226 2226 2226 2226 2226 2226 2226 2226 2226 2226 2226 2226 2226 2226 2226 2226 2226 2226 2226 2226 2226 2226 2226 2226 2226 2241 2241 2241 2241 2241 2241 2226 2226 2241 2241 2241 2241 2241 2241 2241 2241 2241 2241 2241 2241 2241 2241 2241 2241 2241 2241 2241 2241 2241 2241 2241 2241 2241 2241 2241 2241 2241 2256 2256 2256 2256 2256 2256 2256 2256 2256 2256 2256 2256 2256 2271 2271 2271 1843 1823 1804 1794 1794 1794 1785 1785 1785 1785 1785 1794 1794 1813 1823 1904 1904 1915 1915 1926 2286 2271 2271 2271 2271 2271 2256 2256 2271 2271 2271 2271 2301 1981 1981 1981 1981 1981 1993 1993 1993 1993 1993 1993 1993 1993 2005 2005 2286 2286 2271 2271 2271 2271 2271 2271 2256 2241 2212 2198 2184 2184 2170 2170 2184 2184 2184 2198 2212 2226 2256 2271 2286 2286 2286 1632 1632 1639 1639 1639 1639 1639 1639 1632 1632 1639 1639 1639 1647 1647 1655 1663 1663 1663 1663 1696 2286 2286 2286 2286 2286 2286 2286 2286 2286 2286 2286 2286 2286 2286 2271 2271 2286 2286 2286 2301 2301 2301 0 1496 1496 1496 1489 1489 1489 1489 1489 1489 1483 1483 1483 1483 1483 1483 1483 1483 1483 1483 1483 1477 1477 1470 1470 1464 1464 1464 1464 1458 1458 1458 1458 1458 1452 1452 1452 1445 1445 1445 1439 1439 1439 1439 1439 1433 1433 1433 1433 1433 1433 1433 1433 1427 1427 1421 1421 1421 1421 1421 1415 1415 1415 1415 1415 1415 1421 1421 1421 1421 1421 1421 1421 1421 1421 1421 1421 1421 1421 1427 1427 1427 1427 1427 1427 1427 1421 1421 1421 1421 1421 1421 1427 1427 1427 1427 1421 1421 1421 1415 1415 1415 1415 1410 1410 1410 1317 1317 1317 1312 1312 1307 1307 1307 1307 1302 1302 1302 1307 1307 1312 1312 1317 1317 1410 1410 1410 1410 1415 1415 1415 1415 1415 1415 1415 1415 1415 1421 1427 1427 1433 1433 1439 1483 1503 1509 1509 1516 1516 1523 1523 1663 1663 1663 1663 1655 1655 1655 1655 1655 1655 1655 1655 1655 1655 1655 1655 1655 2301 2301 2301 2301 2301 2301 2301 2286 2286 2286 2286 2286 2286 2286 2286 2286 2286 2286 2286 2286 2286 2286 2286 2286 2286 2286 2286 2286 2286 1680 1680 1680 1696 1696 1696 1696 1688 1688 1688 1688 1688 1688 1696 1705 1705 1297 1297 1297 1292 1292 1292 1292 1292 1292 1292 1292 1292 1288 1288 1288 1288 1283 1283 1283 1283 1283 1283 1283 1283 1283 1278 1278 1278 1278 1278 1273 1273 1273 1273 1273 1273 1273 1273 1273 1278 1283 1283 1283 0 2317 2317 2286 2286 2301 2301 2301 2286 2286 2286 2286 2286 2286 2286 2286 2286 2286 2301 2286 2286 2286 2286 2256 2256 2256 2256 2256 2256 2271 2271 2271 2271 2271 2271 2256 2256 2256 2256 2256 2256 2256 2256 2256 2256 2256 2271 2256 2256 2256 2256 2256 2256 2241 2241 0 0 0 0 0 0 0 0 0
0 0 0 0 0 0 0 0 0 0 0 0 0 0 0 0 0 0 0 0 0 0 0 0 0 0 0 0 0 0 0 0 0 2184 2184 2170 2170 2170 2184 2184 2184 2184 2170 2170 2170 2184 2184 2170 2170 2170 2170 2170 2170 2184 2198 2198 2198 2198 2184 2170 2170 2170 2170 2170 2170 2184 2184 2198 2198 2170 2170 2184 2184 2170 2170 2170 2170 2170 2170 2170 2184 2184 2184 2184 2184 2184 2184 2170 2170 2170 2170 2170 2170 2170 2170 2170 2184 2184 2184 2184 2184 2184 2184 2198 2198 2198 2198 2198 2198 2198 2198 2198 2184 2184 2184 2198 2198 2198 2198 2198 2198 2212 2212 2212 2212 2212 2212 2212 2212 2212 2212 2212 2212 2212 2212 2212 2212 2212 2212 2212 2212 2212 2212 2212 2212 2212 2226 2226 2226 2226 2226 2226 2226 2226 2226 2212 2212 2226 2226 2226 2226 2226 2241 2241 2226 2226 2226 2226 2241 2241 2241 2241 2241 2241 2241 2241 2241 2241 2241 2241 2241 2241 2241 2241 2241 2241 2241 2241 2256 2256 2256 2256 2256 2256 2256 2256 2256 2256 2256 2256 2256 2256 1843 1823 1804 1794 1794 1794 1794 1794 1794 1785 1785 1794 1794 1813 1823 1904 1904 1915 1915 1926 2256 2256 2256 2256 2256 2256 2256 2256 2256 2256 2271 2271 1970 1970 1981 1981 1981 1981 1993 1993 1981 1981 1993 1981 1981 1981 2005 2256 2241 2241 2241 2271 2271 2271 2271 2271 2256 2241 2212 2198 2184 2184 2184 2184 2184 2184 2184 2198 2212 2226 2256 2256 2271 2271 1632 1632 1632 1639 1639 1639 1639 1639 1639 1639 1639 1639 1639 1647 1647 1655 1655 1663 1671 1671 1680 1688 2271 2271 2286 2286 2286 2286 2286 2286 2286 2271 2271 2271 2271 2286 2271 2271 2286 2286 2286 2286 2286 2286 0 1496 1496 1496 1489 1489 1489 1489 1489 1489 1483 1483 1483 1483 1483 1483 1483 1483 1483 1483 1483 1483 1477 1470 1470 1470 1464 1464 1464 1464 1464 1458 1458 1458 1458 1452 1452 1452 1452 1445 1445 1439 1439 1439 1439 1433 1433 1433 1433 1433 1433 1433 1427 1427 1421 1421 1421 1415 1415 1415 1415 1415 1415 1415 1415 1415 1415 1415 1415 1415 1415 1415 1415 1415 1415 1421 1421 1421 1421 1421 1421 1421 1421 1415 1415 1415 1415 1415 1415 1415 1415 1421 1421 1421 1421 1421 1415 1415 1415 1410 1410 1410 1410 1410 1410 1410 1410 1317 1317 1317 1312 1312 1312 1307 1307 1307 1307 1307 1307 1312 1312 1312 1317 1317 1410 1410 1410 1410 1410 1410 1410 1410 1410 1410 1410 1410 1415 1415 1421 1427 1433 1439 1483 1496 1503 1509 1509 1516 1516 1523 1680 1663 1663 1663 1663 1655 1655 1655 1655 1655 1655 1655 1655 1655 1655 1655 1655 1655 2301 2301 2286 2286 2286 2286 2286 2271 2271 2271 2271 2271 2271 2271 2271 2286 2286 2286 2286 2271 2271 2271 2271 2271 2286 2271 2271 2286 2286 1688 1680 1680 1696 1696 1696 1696 1696 1696 1696 1696 1688 1688 1696 1696 1696 1297 1297 1297 1297 1292 1292 1292 1292 1292 1292 1292 1292 1288 1288 1288 1288 1283 1283 1283 1283 1288 1288 1283 1283 1283 1283 1278 1278 1278 1278 1278 1278 1273 1273 1273 1273 1273 1273 1278 1278 1283 1283 0 0 2301 2301 2286 2271 2271 2286 2286 2271 2271 2271 2271 2271 2271 2271 2286 2286 2286 2286 2271 2271 2271 2256 2241 2241 2241 2241 2241 2256 2256 2256 2256 2256 2256 2256 2241 2241 2241 2241 2241 2241 2241 2241 2256 2256 2256 2256 2256 2256 2256 2256 2241 2241 2241 2241 0 0 0 0 0 0 0 0 0
0 0 0 0 0 0 0 0 0 0 0 0 0 0 0 0 0 0 0 0 0 0 0 0 0 0 0 0 0 0 0 0 0 2156 2156 2156 2156 2156 2170 2170 2170 2170 2170 2170 2170 2170 2170 2170 2170 2156 2156 2170 2170 2170 2184 2184 2184 2184 2170 2170 2170 2170 2170 2170 2170 2170 2170 2184 2184 2170 2170 2170 2170 2170 2170 2170 2170 2170 2170 2170 2184 2184 2184 2170 2170 2170 2156 2156 2156 2156 2156 2156 2156 2156 2156 2156 2170 2170 2170 2156 2156 2170 2184 2184 2184 2184 2198 2198 2198 2198 2184 2184 2184 2184 2184 2184 2198 2184 2184 2198 2198 2198 2198 2198 2198 2212 2212 2212 2212 2212 2212 2212 2212 2212 2212 2212 2212 2212 2198 2198 2198 2212 2212 2212 2212 2212 2212 2212 2212 2212 2212 2212 2212 2212 2212 2212 2198 2198 2198 2212 2212 2212 2212 2212 2212 2212 2212 2198 2198 2198 2226 2226 2226 2226 2226 2226 2226 2226 2226 2226 2226 2226 2226 2226 2226 2241 2241 2241 2241 2241 2241 2241 2241 2241 2241 2241 2241 2241 2241 2256 2256 2256 1853 1823 1804 1794 1794 1794 1794 1794 1794 1794 1794 1794 1794 1813 1823 1915 1915 1926 1926 1926 2256 2256 2256 2256 2256 2256 2256 2256 2256 2256 2256 1970 1970 1970 1981 1981 1981 1981 1981 1993 1981 1981 1981 1981 1970 1970 2256 2256 2241 2241 2241 2256 2256 2256 2256 2256 2241 2226 2212 2198 2198 2184 2184 2184 2184 2184 2198 2198 2226 2226 2241 2256 2256 2256 1632 1632 1632 1639 1639 1639 1639 1639 1639 1639 1639 1639 1639 1647 1655 1655 1663 1663 1663 1671 1680 1688 2256 2271 2271 2271 2271 2256 2256 2256 2256 2256 2256 2256 2256 2271 2271 2271 2286 2271 2271 2286 2271 2271 0 1496 1496 1496 1489 1489 1489 1489 1489 1489 1483 1483 1483 1483 1483 1483 1483 1483 1483 1483 1483 1483 1477 1477 1470 1470 1470 1470 1470 1464 1464 1464 1458 1458 1458 1458 1458 1458 1452 1452 1445 1445 1439 1439 1439 1433 1433 1433 1433 1433 1433 1433 1427 1427 1421 1421 1415 1415 1415 1415 1415 1415 1415 1415 1415 1415 1410 1410 1415 1415 1415 1415 1415 1415 1415 1415 1415 1415 1415 1415 1415 1415 1415 1415 1415 1415 1415 1415 1415 1410 1410 1415 1415 1415 1415 1415 1410 1410 1410 1404 1404 1404 1404 1404 1404 1404 1410 1322 1317 1317 1317 1317 1317 1312 1312 1307 1307 1307 1312 1312 1312 1317 1317 1317 1404 1404 1404 1404 1404 1410 1410 1410 1404 1404 1410 1410 1410 1415 1421 1427 1433 1477 1489 1496 1503 1509 1509 1516 1516 1523 1680 1671 1671 1663 1663 1663 1663 1663 1663 1663 1663 1663 1663 1663 1663 1663 1655 1655 2286 2286 2286 2271 2271 2271 2271 2271 2271 2271 2256 2256 2271 2271 2271 2271 2271 2271 2271 2271 2271 2271 2271 2271 2256 2256 2256 2256 1688 1688 1688 1696 1696 1696 1696 1696 1696 1696 1696 1696 1696 1696 1696 1696 1696 1297 1297 1297 1297 1297 1292 1292 1292 1292 1292 1292 1292 1292 1292 1288 1288 1288 1283 1283 1288 1288 1288 1288 1288 1283 1283 1283 1278 1278 1278 1278 1278 1278 1278 1273 1273 1273 1273 1278 1283 1283 1283 0 0 2271 2271 2271 2271 2271 2271 2286 2271 2271 2271 2271 2256 2256 2256 2271 2271 2271 2271 2271 2271 2256 2241 2241 2241 2241 2241 2241 2241 2241 2241 2241 2241 2256 2256 2241 2241 2241 2241 2241 2241 2241 2241 2241 2241 2241 2241 2241 2241 2241 2241 2241 2241 2241 2241 0 0 0 0 0 0 0 0 0
0 0 0 0 0 0 0 0 0 0 0 0 0 0 0 0 0 0 0 0 0 0 0 0 0 0 0 0 0 0 0 0 0 2156 2156 2156 2156 2156 2156 2156 2170 2170 2156 2156 2170 2170 2156 2156 2156 2156 2156 2156 2170 2170 2184 2184 2170 2170 2170 2170 2170 2170 2170 2170 2170 2170 2170 2170 2170 2156 2156 2170 2170 2170 2170 2170 2170 2170 2170 2170 2170 2170 2170 2156 2156 2156 2156 2156 2156 2156 2156 2156 2156 2156 2156 2156 2170 2156 2156 2156 2156 2170 2170 2170 2170 2184 2184 2184 2184 2198 2184 2184 2184 2184 2184 2184 2184 2184 2184 2184 2184 2198 2198 2198 2198 2198 2198 2198 2198 2212 2198 2198 2198 2198 2198 2198 2198 2198 2198 2198 2198 2198 2212 2212 2212 2212 2212 2212 2212 2212 2212 2212 2212 2212 2212 2212 2198 2198 2198 2198 2198 2198 2212 2212 2212 2212 2198 2198 2198 2198 2212 2212 2212 2226 2212 2212 2212 2212 2212 2212 2212 2212 2212 2212 2212 2212 2212 2226 2226 2226 2241 2241 2241 2241 2241 2241 2241 2226 2226 2226 2226 2212 2212 1823 1794 1794 1794 1794 1794 1794 1794 1794 1794 1794 1794 1813 1823 1915 1915 1926 1926 1936 2256 2241 2241 2241 2241 2256 2256 2256 2256 2256 2256 1970 1970 1970 1981 1981 1981 1981 1981 1981 1970 1970 1970 1959 1947 1947 2241 2256 2241 2241 2241 2241 2256 2256 2256 2256 2241 2226 2212 2198 2198 2184 2184 2184 2184 2184 2198 2198 2212 2226 2241 2241 2256 2256 1632 1632 1632 1639 1639 1639 1639 1639 1639 1639 1639 1639 1647 1647 1655 1663 1663 1663 1663 1671 1671 2256 2256 2256 2256 2256 2256 2256 2256 2241 2241 2256 2256 2256 2256 2271 2271 2271 2271 2271 2271 2271 2256 2256 2256 2256 1496 1496 1489 1489 1489 1489 1489 1489 1483 1483 1483 1483 1483 1483 1489 1489 1483 1483 1483 1483 1483 1477 1477 1477 1470 1470 1470 1464 1464 1464 1464 1458 1458 1458 1458 1458 1458 1458 1452 1445 1445 1439 1439 1439 1433 1433 1433 1433 1433 1433 1427 1427 1421 1421 1415 1415 1415 1415 1415 1415 1410 1410 1410 1410 1410 1410 1410 1410 1410 1410 1410 1410 1410 1415 1410 1410 1410 1410 1410 1410 1410 1410 1410 1410 1410 1410 1410 1410 1410 1410 1410 1410 1410 1410 1410 1404 1404 1404 1404 1404 1404 1404 1404 1404 1410 1322 1322 1322 1317 1317 1317 1312 1312 1312 1312 1312 1312 1312 1317 1317 1317 1322 1398 1398 1404 1404 1404 1404 1404 1404 1404 1404 1410 1410 1410 1415 1421 1433 1477 1483 1489 1496 1503 1509 1509 1516 1516 1516 1671 1671 1671 1663 1663 1663 1663 1663 1663 1663 1663 1663 1663 1663 1663 1663 1663 1663 2271 2271 2271 2271 2271 2271 2271 2271 2271 2271 2256 2256 2256 2256 2256 2256 2271 2271 2256 2256 2256 2256 2256 2256 2256 2241 2241 2241 1688 1688 1688 1696 1705 1705 1705 1705 1705 1705 1705 1705 1696 1696 1705 1705 1705 1302 1302 1302 1302 1297 1297 1297 1292 1292 1292 1292 1292 1292 1292 1292 1288 1288 1288 1288 1288 1288 1288 1288 1288 1288 1283 1283 1283 1283 1278 1278 1278 1278 1278 1278 1278 1278 1278 1278 1283 1283 1283 1302 1302 2256 2256 2256 2271 2271 2271 2271 2256 2256 2256 2256 2241 2241 2256 2241 2241 2241 2241 2256 2256 2241 2241 2241 2241 2241 2241 2241 2241 2241 2241 2241 2241 2241 2241 2241 2241 2241 2241 2241 2226 2226 2226 2226 2241 2241 2241 2241 2241 2241 2241 2241 2241 2226 2226 0 0 0 0 0 0 0 0 0
0 0 0 0 0 0 0 0 0 0 0 0 0 0 0 0 0 0 0 0 0 0 0 0 0 0 0 0 0 0 0 0 0 2143 2143 2143 2143 2143 2143 2156 2156 2156 2156 2156 2156 2156 2156 2156 2143 2143 2156 2156 2156 2156 2170 2170 2170 2170 2156 2156 2170 2170 2170 2156 2156 2156 2156 2170 2156 2143 2143 2156 2156 2170 2170 2156 2156 2170 2156 2156 2156 2156 2156 2156 2156 2156 2156 2143 2143 2156 2156 2156 2156 2156 2156 2156 2156 2156 2156 2156 2156 2156 2156 2156 2170 2170 2170 2184 2184 2184 2184 2184 2170 2170 2170 2170 2184 2184 2184 2184 2184 2184 2184 2184 2184 2184 2184 2198 2198 2198 2198 2198 2198 2198 2198 2198 2198 2198 2198 2198 2198 2198 2198 2198 2198 2198 2198 2198 2198 2198 2198 2198 2198 2198 2198 2198 2184 2184 2198 2198 2198 2198 2198 2212 2198 2198 2198 2198 2198 2198 2212 2212 2212 2212 2212 2212 2212 2212 2212 2212 2198 2198 2212 2198 2198 2212 2212 2212 2212 2226 2226 2226 2226 2226 2226 2226 2226 2226 2226 2226 2226 2212 2212 1823 1785 1785 1794 1794 1794 1794 1794 1794 1794 1804 1813 1813 1823 1863 1894 1926 1936 1936 2241 2226 2226 2226 2226 2241 2241 2256 1947 1947 1959 1959 1970 1970 1981 1981 1981 1981 1981 1981 1970 1959 1959 1959 1947 1947 2226 2241 2241 2241 2241 2241 2241 2241 2241 2241 2226 2226 2212 2198 2198 2184 2184 2184 2184 2198 2198 2198 2198 2226 2226 2241 2241 2241 1632 1632 1632 1639 1639 1639 1639 1639 1639 1639 1639 1639 1647 1647 1655 1663 1663 1663 1663 1671 1671 2241 2241 2241 2256 2256 2241 2241 2241 2241 2241 2241 2241 2256 2256 2271 2271 2271 2271 2256 2256 2256 2256 2256 2256 0 1496 1496 1489 1489 1489 1489 1489 1489 1483 1483 1483 1483 1489 1489 1489 1489 1489 1483 1483 1483 1483 1477 1477 1477 1470 1470 1470 1470 1470 1464 1464 1464 1458 1458 1458 1458 1458 1452 1452 1445 1445 1439 1439 1439 1439 1439 1439 1433 1433 1433 1433 1433 1427 1421 1421 1415 1415 1415 1415 1415 1410 1410 1410 1410 1410 1410 1410 1410 1410 1410 1410 1410 1410 1410 1410 1410 1410 1410 1404 1404 1404 1404 1404 1404 1404 1404 1404 1404 1404 1404 1404 1404 1404 1410 1404 1398 1398 1398 1398 1398 1398 1398 1398 1404 1404 1322 1322 1322 1317 1317 1317 1317 1312 1312 1312 1312 1317 1317 1317 1322 1322 1322 1392 1398 1398 1398 1398 1398 1398 1404 1404 1404 1404 1404 1410 1415 1470 1477 1483 1483 1489 1496 1503 1509 1509 1516 1516 1516 1680 1680 1680 1671 1671 1671 1671 1671 1671 1663 1663 1663 1663 1663 1663 1663 1663 1663 2256 2256 2256 2256 2256 2256 2271 2271 2271 2271 2256 2256 2256 2256 2256 2256 2256 2256 2256 2256 2256 2256 2256 2256 2241 2241 2241 2241 2241 1688 1688 1696 1705 1705 1705 1705 1705 1705 1705 1696 1696 1696 1696 1705 1705 1297 1297 1302 1302 1297 1297 1297 1297 1297 1297 1297 1292 1292 1292 1292 1292 1292 1288 1288 1292 1292 1292 1288 1288 1288 1288 1283 1283 1283 1283 1278 1278 1278 1278 1278 1278 1278 1278 1278 1283 1283 1297 1302 1302 2241 2241 2241 2256 2256 2271 2271 2256 2256 2241 2241 2241 2241 2241 2241 2241 2241 2241 2241 2241 2241 2241 2241 2241 2226 2226 2226 2226 2226 2226 2226 2226 2241 2241 2241 2226 2226 2226 2226 2226 2226 2226 2226 2226 2226 2241 2241 2241 2241 2241 2241 2241 2226 2226 0 0 0 0 0 0 0 0 0
0 0 0 0 0 0 0 0 0 0 0 0 0 0 0 0 0 0 0 0 0 0 0 0 0 0 0 0 0 0 0 0 0 2129 2129 2129 2129 2129 2129 2143 2156 2156 2143 2143 2156 2156 2156 2143 2143 2143 2143 2143 2156 2156 2156 2156 2156 2156 2156 2156 2156 2156 2156 2156 2156 2156 2156 2156 2156 2143 2143 2156 2156 2156 2156 2156 2156 2156 2156 2156 2156 2156 2143 2143 2143 2143 2143 2143 2143 2143 2143 2143 2143 2143 2143 2156 2156 2156 2156 2156 2156 2156 2156 2156 2156 2170 2170 2184 2184 2184 2184 2184 2170 2170 2170 2170 2184 2170 2170 2170 2170 2184 2184 2170 2170 2184 2184 2198 2198 2198 2198 2198 2198 2198 2198 2184 2184 2184 2184 2184 2198 2198 2198 2198 2198 2198 2198 2198 2198 2198 2198 2198 2198 2198 2198 2198 2184 2184 2198 2198 2198 2198 2198 2198 2198 2198 2198 2184 2184 2198 2198 2198 2198 2198 2198 2198 2212 2198 2198 2198 2198 2198 2198 2198 2198 2198 2198 2212 2212 2212 2212 2212 2212 2212 2212 2212 2212 2212 2212 2198 2198 2198 2198 2198 1785 1785 1785 1794 1785 1785 1794 1794 1794 1804 1813 1823 1833 1853 1883 1926 1936 1936 2226 2226 2226 2226 2226 2241 2241 1936 1936 1947 1947 1947 1959 1970 1970 1981 1981 1981 1981 1981 1970 1959 1959 2212 2212 2212 2212 2226 2226 2226 2226 2226 2226 2226 2226 2212 2212 2198 2198 2198 2198 2198 2184 2184 2184 2184 2184 2184 2198 2198 2212 2226 2226 2226 1655 1639 1639 1639 1639 1639 1639 1639 1639 1639 1639 1639 1647 1655 1655 1663 1663 1671 1671 1671 1671 2241 2241 2241 2241 2241 2241 2241 2241 2241 2241 2241 2241 2241 2241 2256 2256 2256 2256 2256 2256 2256 2256 2256 2256 0 1496 1496 1496 1496 1496 1496 1496 1489 1483 1483 1489 1489 1489 1489 1489 1489 1489 1483 1483 1483 1483 1477 1477 1477 1470 1470 1470 1470 1470 1470 1464 1464 1464 1458 1458 1458 1458 1452 1452 1452 1445 1445 1439 1439 1439 1439 1439 1439 1433 1433 1433 1433 1427 1427 1421 1421 1415 1415 1415 1415 1410 1410 1410 1410 1404 1404 1410 1410 1404 1404 1404 1410 1410 1404 1404 1404 1404 1404 1398 1398 1398 1398 1398 1398 1398 1398 1398 1398 1398 1398 1398 1398 1398 1404 1398 1392 1392 1392 1392 1392 1392 1392 1398 1398 1404 1322 1322 1322 1317 1317 1317 1317 1317 1312 1312 1312 1317 1317 1317 1322 1322 1322 1387 1387 1392 1392 1392 1392 1392 1398 1404 1404 1404 1404 1410 1470 1470 1477 1483 1483 1489 1489 1496 1509 1516 1516 1516 1688 1680 1680 1671 1671 1671 1671 1671 1671 1671 1663 1663 1671 1663 1663 1671 1671 1671 1671 2241 2241 2241 2256 2256 2256 2256 2256 2256 2256 2241 2241 2241 2241 2241 2241 2256 2256 2241 2241 2241 2241 2241 2241 2241 2241 2241 2241 2241 1705 1705 1705 1705 1705 1705 1705 1705 1705 1705 1696 1696 1696 1696 1705 1705 1297 1297 1302 1302 1297 1297 1297 1297 1297 1297 1297 1292 1292 1292 1292 1292 1292 1288 1288 1292 1292 1292 1292 1292 1292 1288 1288 1288 1288 1283 1283 1283 1278 1278 1278 1278 1278 1278 1283 1283 1283 1288 1302 2198 2226 2241 2241 2241 2256 2256 2256 2241 2241 2226 2226 2226 2226 2226 2226 2226 2226 2226 2226 2226 2226 2226 2226 2241 2226 2226 2226 2226 2226 2226 2226 2226 2226 2226 2226 2226 2226 2226 2226 2226 2226 2226 2226 2226 2226 2226 2226 2226 2226 2241 2226 2226 2226 2226 0 0 0 0 0 0 0 0 0
0 0 0 0 0 0 0 0 0 0 0 0 0 0 0 0 0 0 0 0 0 0 0 0 0 0 0 0 0 0 0 0 0 2129 2129 2129 2129 2129 2129 2129 2143 2143 2129 2129 2143 2143 2143 2143 2143 2143 2143 2143 2143 2156 2143 2143 2143 2143 2143 2143 2156 2156 2156 2156 2156 2156 2156 2156 2156 2143 2143 2156 2143 2143 2156 2156 2156 2156 2156 2156 2156 2143 2143 2143 2143 2143 2143 2143 2143 2143 2143 2143 2143 2143 2143 2156 2156 2156 2156 2156 2156 2156 2156 2156 2156 2170 2170 2170 2170 2184 2184 2184 2170 2170 2156 2156 2170 2170 2170 2170 2170 2170 2170 2170 2170 2170 2170 2198 2198 2198 2198 2184 2184 2184 2184 2170 2170 2184 2184 2184 2184 2184 2184 2184 2184 2184 2184 2184 2198 2198 2184 2184 2184 2198 2184 2184 2184 2184 2184 2184 2184 2184 2198 2198 2198 2198 2198 2184 2184 2198 2198 2198 2198 2198 2198 2198 2198 2198 2198 2198 2198 2198 2198 2198 2198 2198 2198 2198 2198 2198 2198 2198 2198 2198 2198 2198 2198 2198 2198 2198 2198 2184 2184 2184 1785 1785 1785 1785 1785 1785 1794 1794 1794 1804 1813 1823 1833 1853 1883 1926 1936 1936 1936 1936 2226 2226 2226 2241 1936 1936 1936 1947 1947 1947 1959 1970 1970 1981 1981 1981 1981 1981 2198 2198 2198 2198 2198 2198 2212 2212 2212 2226 2226 2226 2226 2212 2212 2212 2198 2198 2198 2198 2198 2184 2184 2184 2184 2184 2184 2184 2184 2198 2198 2184 2184 2184 1655 1639 1639 1639 1639 1639 1639 1639 1639 1639 1639 1639 1647 1655 1655 1663 1663 1663 1663 1663 1663 2226 2226 2226 2226 2226 2226 2226 2226 2241 2241 2241 2241 2241 2241 2241 2241 2241 2241 2241 2241 2256 2256 2256 2256 1509 1496 1496 1496 1496 1496 1496 1496 1489 1483 1483 1489 1489 1489 1489 1489 1489 1489 1489 1483 1483 1483 1477 1477 1477 1477 1477 1477 1470 1470 1470 1464 1464 1464 1458 1458 1458 1458 1458 1458 1452 1452 1445 1445 1439 1439 1439 1439 1439 1439 1433 1433 1433 1433 1427 1427 1421 1421 1415 1415 1415 1410 1410 1410 1410 1404 1404 1404 1404 1404 1404 1404 1404 1404 1404 1404 1404 1404 1398 1392 1392 1392 1392 1398 1398 1398 1392 1392 1392 1392 1392 1392 1392 1392 1398 1392 1387 1387 1387 1387 1387 1387 1387 1392 1398 1404 1322 1322 1322 1322 1317 1317 1317 1317 1317 1317 1317 1317 1317 1322 1322 1328 1365 1381 1381 1387 1387 1387 1392 1392 1398 1398 1404 1404 1404 1410 1458 1470 1477 1483 1483 1489 1489 1496 1509 2198 2198 2198 1688 1688 1688 1671 1671 1671 1671 1671 1671 1671 1671 1671 1671 1671 1671 1671 1671 1680 1688 2241 2241 2241 2256 2256 2256 2256 2256 2256 2241 2241 2241 2241 2241 2241 2241 2241 2241 2241 2226 2226 2241 2226 2226 2226 2226 2241 2241 2241 1713 1713 1713 1705 1705 1705 1705 1705 1705 1705 1705 1705 1705 1705 1705 1705 1297 1297 1302 1302 1297 1297 1297 1297 1297 1297 1297 1292 1292 1292 1292 1292 1292 1292 1292 1292 1292 1292 1292 1292 1292 1292 1288 1288 1288 1283 1283 1283 1278 1278 1278 1278 1278 1283 1283 1283 1283 1288 2184 2198 2226 2241 2241 2241 2241 2241 2241 2226 2226 2226 2226 2226 2226 2226 2212 2212 2212 2212 2212 2212 2212 2212 2226 2226 2226 2212 2212 2212 2212 2212 2226 2226 2226 2226 2226 2226 2226 2226 2226 2226 2212 2212 2212 2212 2212 2226 2226 2226 2226 2226 2226 2226 2212 2212 0 0 0 0 0 0 0 0 0
0 0 0 0 0 0 0 0 0 0 0 0 0 0 0 0 0 0 0 0 0 0 0 0 0 0 0 0 0 0 0 0 0 2129 2116 2116 2116 2116 2116 2116 2129 2129 2129 2129 2129 2129 2129 2143 2143 2143 2143 2143 2143 2143 2143 2129 2129 2129 2129 2129 2143 2143 2143 2143 2143 2143 2143 2143 2143 2143 2143 2143 2143 2143 2143 2156 2156 2156 2143 2143 2143 2143 2143 2143 2143 2143 2143 2143 2143 2143 2143 2143 2143 2143 2143 2143 2156 2156 2156 2156 2156 2156 2156 2156 2156 2156 2156 2170 2170 2170 2170 2170 2156 2156 2156 2156 2156 2156 2156 2156 2156 2170 2156 2156 2156 2156 2156 2184 2184 2184 2184 2170 2170 2170 2170 2170 2170 2170 2170 2184 2170 2170 2170 2184 2170 2170 2170 2184 2184 2184 2170 2170 2184 2184 2184 2184 2184 2184 2184 2184 2184 2184 2198 2198 2184 2184 2184 2184 2184 2184 2184 2184 2184 2184 2184 2184 2184 2184 2184 2184 2184 2184 2184 2198 2198 2198 2198 2198 2198 2184 2184 2184 2184 2184 2198 2198 2184 2184 2184 2184 2184 2184 2170 2170 1785 1785 1785 1785 1785 1785 1785 1794 1794 1804 1813 1823 1833 1853 1894 1926 1936 1936 1936 1936 1936 2226 2226 1915 1915 1936 1936 1936 1947 1947 1959 1959 1970 1970 1970 1981 2212 2198 2184 2184 2184 2198 2198 2198 2198 2198 2198 2212 2212 2212 2212 2212 2212 2212 2198 2198 2198 2198 2198 2184 2184 2184 2184 2184 2184 2184 2184 2184 2198 2184 2184 2184 2184 1647 1647 1647 1647 1639 1639 1639 1639 1639 1639 1639 1647 1655 1655 1663 1663 1663 1663 1663 1663 2226 2226 2226 2226 2226 2226 2226 2226 2226 2226 2226 2226 2226 2226 2226 2226 2226 2226 2226 2226 2226 2226 2226 2226 1509 1509 1496 1496 1496 1496 1496 1496 1496 1483 1483 1489 1489 1489 1489 1489 1489 1489 1489 1489 1483 1483 1477 1477 1477 1477 1477 1477 1470 1470 1470 1464 1464 1464 1464 1464 1458 1458 1458 1458 1458 1452 1445 1445 1445 1439 1439 1439 1439 1439 1439 1433 1433 1433 1433 1427 1421 1421 1421 1415 1415 1415 1410 1410 1410 1404 1404 1404 1404 1404 1404 1404 1404 1404 1404 1398 1398 1398 1392 1392 1392 1392 1392 1392 1392 1392 1392 1392 1392 1392 1392 1392 1387 1387 1392 1387 1387 1387 1387 1387 1387 1387 1387 1387 1328 1328 1322 1322 1322 1322 1317 1317 1317 1317 1317 1317 1317 1322 1322 1322 1328 1328 1365 1376 1381 1387 1387 1387 1387 1387 1392 1392 1404 1404 1410 1452 1458 1464 1483 1483 1483 1489 2184 2184 2198 2198 2198 2212 2212 1688 1671 1671 1671 1671 1671 1671 1671 1671 1671 1663 1663 1671 1671 1671 1671 1671 1671 2226 2226 2226 2241 2241 2241 2241 2241 2241 2226 2226 2226 2226 2226 2226 2226 2226 2212 2212 2212 2212 2226 2212 2212 2226 2226 2241 2241 2241 1713 1713 1713 1705 1705 1705 1705 1705 1705 1705 1705 1705 1705 1705 1705 1705 1297 1297 1302 1302 1297 1297 1297 1297 1297 1297 1297 1292 1292 1292 1292 1292 1292 1292 1292 1292 1292 1292 1292 1292 1292 1292 1288 1288 1288 1288 1283 1283 1283 1278 1278 1278 1283 1283 1278 1278 1278 2184 2184 2198 2212 2212 2226 2226 2241 2241 2241 2226 2226 2212 2212 2212 2212 2212 2198 2198 2212 2212 2212 2212 2212 2212 2212 2212 2212 2212 2212 2212 2212 2198 2198 2212 2212 2212 2212 2212 2212 2198 2198 2198 2198 2198 2212 2212 2198 2198 2212 2212 2226 2226 2226 2226 2212 2212 0 0 0 0 0 0 0 0 0
0 0 0 0 0 0 0 0 0 0 0 0 0 0 0 0 0 0 0 0 0 0 0 0 0 0 0 0 0 0 0 0 0 0 2116 2116 2116 2116 2116 2116 2129 2129 2116 2116 2129 2129 2129 2129 2129 2129 2129 2129 2129 2143 2129 2129 2129 2129 2129 2129 2143 2143 2143 2143 2143 2143 2143 2143 2143 2129 2129 2129 2143 2143 2143 2143 2156 2143 2143 2143 2129 2129 2143 2143 2143 2143 2143 2143 2143 2143 2143 2143 2156 2143 2143 2143 2143 2143 2143 2143 2143 2143 2143 2143 2143 2156 2156 2156 2156 2156 2156 2156 2156 2156 2156 2156 2156 2156 2156 2156 2156 2156 2156 2156 2156 2156 2156 2156 2156 2156 2156 2170 2156 2156 2156 2156 2156 2156 2170 2170 2170 2170 2170 2170 2156 2156 2156 2170 2170 2170 2170 2170 2170 2184 2184 2170 2170 2184 2184 2184 2184 2184 2184 2184 2184 2170 2170 2170 2170 2170 2170 2170 2170 2170 2184 2184 2184 2184 2184 2184 2184 2184 2184 2184 2184 2184 2184 2184 2184 2184 2184 2184 2184 2184 2184 2184 2184 2184 2184 2184 2184 2184 1776 1776 1785 1785 1785 1785 1785 1785 1785 1794 1794 1804 1813 1823 1833 1853 1894 1915 1926 1936 1926 1926 1926 1904 1904 1915 1915 1926 1936 1936 1947 1947 1959 1959 1970 1970 1970 2198 2198 2184 2184 2184 2184 2184 2184 2184 2198 2198 2198 2198 2198 2198 2198 2198 2198 2198 2198 2184 2184 2184 2184 2184 2184 2184 2184 2184 2184 2184 2184 2184 2184 2184 2184 2184 2184 1647 1647 1647 1647 1647 1639 1639 1639 1639 1639 1647 1647 1655 1655 1663 1663 1663 1663 1671 2226 2212 2212 2212 2212 2212 2212 2212 2212 2226 2226 2212 2212 2212 2212 2226 2212 2212 2226 2212 2212 2226 2226 2226 2226 1509 1509 1496 1496 1496 1496 1496 1496 1496 1489 1489 1489 1489 1489 1489 1489 1489 1489 1489 1489 1489 1489 1477 1477 1477 1477 1470 1470 1470 1470 1464 1464 1464 1464 1464 1464 1464 1458 1458 1458 1458 1458 1452 1452 1445 1445 1439 1439 1439 1439 1439 1439 1439 1433 1433 1433 1427 1427 1421 1421 1415 1415 1415 1410 1410 1410 1404 1404 1404 1404 1404 1404 1404 1398 1398 1398 1398 1392 1392 1392 1392 1392 1392 1392 1392 1392 1387 1387 1387 1387 1387 1387 1387 1387 1387 1387 1381 1381 1381 1381 1381 1381 1381 1376 1328 1328 1322 1322 1322 1322 1322 1322 1317 1317 1317 1317 1322 1322 1322 1322 1328 1338 1359 1370 1376 1381 1387 1387 1387 1387 1392 1392 1404 1404 1445 1452 1458 1464 1483 1483 1483 2198 2184 2184 2198 2198 2198 2212 2212 1688 1671 1671 1671 1671 1671 1671 1671 1671 1671 1663 1663 1671 1671 1671 1671 1671 1671 2212 2212 2212 2226 2226 2226 2226 2226 2226 2226 2212 2212 2212 2212 2212 2212 2212 2212 2212 2212 2212 2212 2212 2212 2212 2226 2226 2241 2241 1713 1713 1713 1705 1705 1705 1705 1705 1705 1705 1705 1705 1705 1705 1705 1307 1297 1297 1302 1302 1302 1297 1297 1297 1297 1297 1297 1297 1292 1292 1292 1292 1292 1292 1292 1292 1292 1292 1292 1292 1292 1292 1288 1288 1288 1288 1283 1283 1283 1283 1278 1278 1283 1278 1278 1278 1278 2170 2184 2198 2212 2212 2212 2226 2226 2226 2226 2212 2212 2212 2198 2198 2198 2198 2198 2198 2198 2198 2198 2198 2198 2198 2198 2198 2198 2198 2198 2198 2184 2184 2184 2198 2198 2198 2198 2198 2198 2198 2198 2198 2184 2184 2184 2184 2184 2184 2184 2184 2184 2184 2198 2198 2184 2184 0 0 0 0 0 0 0 0 0
0 0 0 0 0 0 0 0 0 0 0 0 0 0 0 0 0 0 0 0 0 0 0 0 0 0 0 0 0 0 0 0 0 0 2116 2116 2116 2116 2116 2116 2129 2116 2116 2116 2116 2116 2116 2116 2116 2116 2129 2116 2116 2129 2129 2129 2129 2129 2129 2129 2129 2143 2143 2143 2143 2143 2143 2129 2129 2129 2129 2129 2129 2143 2143 2143 2143 2143 2143 2129 2129 2129 2129 2129 2129 2129 2129 2143 2143 2143 2143 2143 2129 2129 2143 2143 2143 2143 2143 2143 2143 2143 2143 2143 2143 2143 2143 2143 2143 2156 2156 2156 2143 2143 2143 2156 2156 2143 2143 2143 2156 2156 2156 2156 2156 2156 2143 2143 2143 2143 2156 2156 2156 2156 2156 2156 2156 2156 2156 2156 2156 2156 2156 2170 2156 2156 2156 2170 2170 2170 2156 2156 2170 2170 2170 2156 2156 2170 2170 2170 2170 2184 2184 2170 2170 2170 2156 2156 2156 2156 2156 2156 2156 2156 2156 2156 2156 2156 2156 2156 2170 2170 2170 2184 2184 2184 2184 2170 2170 2170 2170 2170 2170 2170 2184 2184 2184 2184 2184 2184 2184 2184 1776 1776 1785 1785 1785 1785 1785 1785 1794 1794 1794 1804 1813 1823 1833 1853 1894 1915 1926 1926 1926 1926 1926 1904 1904 1915 1915 1926 1936 1936 1947 1947 1959 1959 1970 1981 1981 2184 2184 2170 2170 2170 2184 2184 2184 2184 2184 2184 2198 2198 2198 2198 2198 2198 2198 2198 2184 2184 2184 2184 2184 2184 2184 2184 2184 2184 2184 2184 2184 2184 2184 2184 2184 2184 2184 1647 1647 1647 1647 1647 1639 1639 1639 1639 1639 1647 1647 1647 1655 1663 1663 1663 1663 1671 2212 2198 2198 2198 2198 2198 2212 2198 2198 2212 2198 2198 2198 2198 2198 2198 2198 2198 2212 2198 2198 2198 2198 2212 2212 1509 1509 1496 1496 1503 1503 1503 1496 1496 1489 1489 1489 1489 1489 1489 1496 1496 1496 1489 1489 1489 1483 1477 1477 1477 1477 1470 1470 1470 1470 1464 1464 1464 1464 1464 1464 1464 1464 1458 1458 1458 1458 1452 1452 1452 1445 1445 1445 1439 1439 1439 1439 1439 1439 1433 1433 1433 1433 1427 1421 1421 1415 1415 1410 1410 1410 1410 1404 1404 1404 1404 1404 1404 1398 1398 1398 1392 1392 1392 1392 1392 1392 1392 1392 1387 1387 1387 1387 1387 1387 1387 1387 1387 1387 1387 1387 1381 1376 1376 1381 1376 1376 1376 1359 1338 1328 1322 1322 1322 1322 1322 1322 1322 1322 1317 1317 1322 1322 1322 1328 1328 1338 1359 1365 1376 1381 1381 1381 1387 1387 1392 1392 1410 1439 1445 1452 1458 1464 1477 1477 2212 2198 2184 2184 2198 2212 2212 2212 2212 2212 1680 1680 1680 1680 1680 1680 1671 1671 1671 1671 1671 1671 1671 1671 1671 1671 1680 2212 2212 2212 2212 2226 2226 2226 2226 2212 2212 2212 2198 2198 2198 2212 2212 2198 2198 2198 2198 2212 2212 2212 2212 2212 2226 2226 2241 2241 1713 1713 1713 1713 1713 1705 1705 1705 1713 1713 1713 1705 1705 1705 1705 1302 1302 1302 1302 1302 1302 1302 1297 1297 1297 1297 1297 1297 1297 1297 1297 1292 1292 1292 1292 1292 1292 1292 1292 1292 1292 1292 1288 1288 1288 1288 1283 1283 1283 1283 1278 1278 1283 1278 1278 1278 1278 2170 2184 2198 2198 2198 2198 2212 2212 2212 2212 2212 2198 2198 2198 2198 2198 2198 2198 2184 2184 2198 2198 2184 2184 2184 2184 2184 2184 2184 2184 2184 2184 2184 2184 2184 2184 2184 2184 2184 2184 2184 2184 2184 2184 2184 2184 2184 2184 2184 2184 2184 2184 2184 2184 2184 2184 2184 0 0 0 0 0 0 0 0 0
