0 0 0 0 0 0 0 0 0 0 0 0 0 0 0 0 0 0 0 0 0 0 0 0 0 0 0 0 0 0 5933 5933 5933 5933 5933 5933 5933 5933 5933 5933 5933 5933 5933 5933 5933 6038 6038 6038 6038 6038 6038 6038 6146 6146 6146 6259 6259 6146 6146 6146 6146 6146 6038 6038 6038 6038 6038 6038 5933 5933 6038 6038 6146 6146 6146 6038 6038 5210 5210 5210 5210 5291 5374 5374 5460 5548 5734 5832 5832 6038 6146 6146 6259 6259 6146 6146 6146 6146 6259 6259 6259 6259 6259 6375 6375 6375 6375 6375 6375 6375 6375 6375 6259 6259 6259 6259 6375 6375 6259 6259 6146 6038 6038 5832 5734 5548 5548 5548 5734 6038 6259 6375 6375 6375 6375 6375 6497 6497 6622 6753 0 0 0 0 3120 3120 3092 3064 3037 3010 3010 3037 3037 3037 3037 3037 3010 3010 3010 3010 3010 3010 3037 3037 3037 3037 3037 3037 3037 3037 3037 3037 3037 3037 3037 3037 3064 3064 3064 3064 3064 3064 3092 3092 3092 3092 3092 3092 3092 3092 3092 3092 3120 3120 3149 3149 3149 3149 3149 3149 3149 3149 3149 3149 3149 3149 3178 3178 3178 3178 3178 3178 3178 3178 3178 3178 3178 3178 3208 3208 3208 3208 3208 3208 3238 3238 3238 3238 3238 3238 3238 3238 3269 3269 3269 3269 3269 3269 3269 3269 3269 3238 3238 3238 3238 3238 3269 3269 3269 3269 3269 3269 3269 3269 3269 3300 3269 3269 3269 3269 7660 2226 2212 2212 2184 2184 2198 7660 7660 7835 7835 8019 8019 8019 8019 8212 8212 7492 2241 2241 2241 2241 2241 7492 7492 7178 7030 7030 7030 7178 7178 7332 7178 7178 2226 2226 2226 2226 2241 2241 2241 2241 5460 5374 5374 5291 5291 5291 5291 5291 5291 5291 5291 5291 5291 5291 5291 5291 5291 5291 5291 5291 5291 5291 5210 5210 5132 5132 5132 5132 5132 5132 5132 5132 5132 5132 5132 5132 5056 5056 5132 5132 5132 5132 5132 5132 5132 5056 5056 5132 5132 5132 5132 5132 5132 5210 6889 6889 6889 6889 7030 7030 7178 7178 2333 2333 2333 2349 7178 7178 7178 7178 7178 7178 7178 7178 7178 7178 7332 7332 7178 7178 7178 7178 7178 7030 7030 7030 0 0 2415 0 0 0 3994 2432 2432 3948 3948 3948 3948 3948 3948 3948 3948 3948 3994 3948 3948 3948 3903 3903 3903 3859 3859 3859 3859 3859 3774 3774 3732 2467 2467 3692 3692 3732 3653 3653 3653 3653 3653 3692 3614 3614 3614 3614 3614 3614 3614 3614 3614 3614 3653 3653 3614 3614 3614 3653 3653 3614 3614 3614 3614 3614 3614 0 0 0 0 0 3653 3653 3692 3692 3692 3692 3692 3692 3692 0 0 0 0 0 0 0 0 0 0 0 0 0 0 0 3816 3816 3816 3816 3816 3859 3859 3816 3816 3859 3816 3816 3859 3903 0 0 0 0 0 0 0 0 0 0 0 0 0 4041 4041 4041 3994 3948 3948 3859 3859 0 0 0 0 0 0 0 0 0 0 0 3208 3208 3208 3208 3208 3208 3208 3208 3208 3208 3208 3208 3208 3208 3208 3208 3238 3238 3238 3238 3238 3269 3269 3269 3269 3269 3269 3269 3269 3269 3269 3269 3269 3269 3269 3269 3269 3269 3269 3269 3269 3269 3269 3269 3269 3269 3269 3269 3269 3269 3269 3300 3269 3269 3269 3269 3238 3238 3208 3208 4041 4041 4041 4041 4041 3994 3994 3994 3994 3948 3948 3948 3948 3948 3948 3994 3994 3994 981 981 981 0 0 0 0 0 0 0 0 0 0 0 0 0 0 0 0 0 0 0 0 0 0 0 0 0 0 0 0 0
0 0 0 0 0 0 0 0 0 0 0 0 0 0 0 0 0 0 0 0 0 0 0 0 0 0 0 0 0 0 5933 5933 5933 5933 5933 5933 5933 5933 5933 5832 5832 5933 5933 5933 5933 5933 6038 6038 6038 6038 6038 6146 6259 6259 6259 6259 6259 6146 6146 6146 6146 6038 5933 5933 5933 5933 5933 5933 5933 5832 5832 6038 6038 6146 6038 6038 6038 5210 5210 5210 5210 5291 5374 5374 5460 5548 5640 5734 5832 6038 6038 6146 6146 6146 6146 6146 6038 6038 6146 6259 6259 6259 6259 6375 6375 6375 6375 6375 6375 6375 6259 6259 6259 6259 6259 6259 6259 6375 6259 6259 6146 6038 5933 5832 5734 5548 5548 5548 5734 5832 6038 6259 6259 6375 6375 6375 6497 6497 0 0 0 0 0 0 3120 3120 3092 3064 3037 3037 3037 3037 3037 3037 3037 3037 3010 3010 3010 3010 3010 3010 3037 3037 3037 3037 3037 3037 3037 3037 3037 3037 3037 3037 3037 3037 3064 3064 3064 3064 3064 3064 3092 3092 3092 3092 3092 3092 3092 3092 3092 3120 3120 3120 3149 3149 3149 3149 3149 3149 3149 3149 3149 3149 3149 3149 3149 3178 3178 3178 3178 3178 3178 3178 3178 3178 3178 3178 3208 3208 3208 3208 3208 3208 3238 3238 3238 3238 3238 3238 3238 3269 3269 3269 3269 3269 3269 3269 3269 3269 3269 3238 3238 3238 3238 3238 3269 3269 3269 3269 3269 3269 3269 3269 3300 3300 3300 3300 3300 2156 2184 2184 2170 2170 2184 2184 2184 2184 7660 7835 8212 8212 8212 8413 8413 2198 2212 2212 2212 2226 2226 2226 2226 7492 7492 7178 7030 7030 7030 7178 7178 7178 2241 2226 2226 2226 2226 2226 2241 2241 2241 2241 2241 5374 5374 5291 5291 5291 5291 5291 5291 5291 5291 5291 5291 5291 5291 5291 5291 5291 5291 5291 5291 5291 5210 5210 5132 5132 5132 5132 5132 5132 5132 5132 5132 5132 5132 5132 5132 5132 5132 5132 5132 5132 5132 5132 5132 5056 5056 5132 5132 5132 5132 5132 5132 5210 6753 6753 6889 7030 7030 2349 2333 2333 2333 2333 2333 2333 7178 7178 7178 7178 7178 7178 7178 7178 2398 2398 2398 2398 7332 7332 7332 7178 7178 2432 2432 2432 2432 2432 2415 2415 2415 2415 2415 2415 2415 2432 2432 2450 3948 3948 3948 3948 3948 3994 3994 3994 3994 3994 3903 3903 3903 3903 3859 3859 3859 3859 3816 2467 2467 2467 2467 2467 2467 2467 3653 3653 3653 3653 3653 3692 3614 3614 3614 3614 3614 3614 3614 3614 3614 3614 3614 3614 3614 3614 3614 3614 3614 3614 3614 3614 3614 3614 3614 3614 3614 3614 3614 3539 3539 3614 3614 3614 3614 3614 3614 3653 3653 0 0 0 0 0 0 0 0 0 0 0 0 0 0 3732 3732 3732 3732 3774 3774 3774 3774 3774 3774 3774 3774 3732 3732 3732 3732 0 0 0 0 0 0 0 0 0 0 0 0 0 0 0 3994 3948 3859 3774 3774 0 0 0 0 0 0 0 0 0 0 0 0 3208 3208 3208 3208 3208 3178 3178 3178 3208 3208 3208 3208 3208 3208 3208 3238 3238 3238 3238 3238 3269 3238 3238 3269 3269 3269 3269 3269 3269 3269 3269 3269 3269 3269 3269 3269 3269 3269 3269 3300 3300 3300 3300 3300 3269 3269 3269 3269 3269 3269 3300 3269 3269 3269 3269 3238 3238 3120 3120 4041 4041 4041 4041 4041 3994 3994 3994 3994 3994 3948 3948 3994 3948 3948 3994 3994 3994 3994 3994 4041 0 0 0 0 0 0 0 0 0 0 0 0 0 0 0 0 0 0 0 0 0 0 0 0 0 0 0 0 0
0 0 0 0 0 0 0 0 0 0 0 0 0 0 0 0 0 0 0 0 0 0 0 0 0 0 0 0 0 0 5832 5832 5933 5933 5933 5933 5933 5933 5933 5832 5832 5832 5933 5933 5933 5933 5933 6038 6038 6038 6038 6146 6259 6259 6259 6259 6146 6146 6146 6038 6038 6038 5933 5933 5832 5832 5933 5933 5933 5832 5832 6038 6038 6146 6038 6038 6038 5210 5210 5210 5210 5291 5374 5374 5460 5548 5640 5734 5832 6038 6038 6146 6146 6146 6038 6038 6038 6038 6146 6146 6259 6259 6259 6375 6375 6497 6497 6375 6375 6375 6259 6259 6259 6259 6259 6259 6259 6259 6259 6146 6038 5933 5933 5832 5832 5640 5640 5640 5734 5734 5832 6038 6146 6259 6259 6259 6259 6497 0 0 0 0 0 0 3120 3120 3092 3064 3037 3037 3037 3037 3037 3037 3037 3037 3010 3010 3037 3010 3010 3010 3037 3037 3037 3037 3037 3037 3037 3037 3037 3037 3037 3037 3037 3037 3064 3064 3064 3064 3092 3092 3092 3092 3092 3092 3092 3092 3092 3092 3120 3120 3149 3149 3149 3149 3149 3149 3149 3149 3149 3149 3149 3149 3149 3149 3149 3178 3178 3178 3178 3178 3178 3178 3178 3178 3178 3178 3208 3208 3208 3208 3208 3238 3238 3238 3238 3238 3238 3238 3238 3238 3269 3269 3269 2129 2129 3269 3269 3269 3269 3238 3238 3238 3238 3238 3238 3269 3269 3269 3269 3269 3269 3300 3300 3269 3269 3269 2156 2156 2156 2156 2170 2170 2184 2184 2184 2184 2184 2184 2184 2184 2170 2170 2170 2198 2198 2198 2212 2226 2226 2226 2226 2226 2226 7492 7030 7030 7178 7178 2226 2226 2226 2226 2226 2241 2226 2226 2241 2241 2241 2241 2241 5374 5374 5291 5291 5291 5291 5291 5291 5291 5291 5291 5291 5291 5291 5291 5291 5291 5291 5291 5291 5291 5210 5210 5210 5132 5132 5132 5132 5132 5132 5132 5132 5132 5132 5132 5132 5132 5132 5132 5132 5132 5132 5132 5132 5056 5056 5056 5056 5056 5056 5132 5132 5132 6753 6753 6889 6889 2349 2349 2349 2333 2333 2333 2333 2333 2381 7178 7178 7178 7178 2398 2398 2398 2398 2398 2398 2398 2415 7492 7332 7332 2432 2432 2432 2432 2432 2432 2415 2415 2415 2415 2415 2415 2415 2415 2432 2450 2450 2450 2450 2450 2467 2467 2467 3994 3994 3994 3903 3903 3948 3903 3903 2503 2485 2485 2467 2467 2467 2467 2467 2467 2467 2467 3653 3653 3653 3653 3692 3692 3653 3614 3614 3614 3614 3614 3614 3614 3614 3614 3614 3614 3614 3614 3614 3614 3614 3614 3614 3614 3614 3614 3614 3614 3614 3614 3576 3539 3539 3576 3576 3576 3576 3614 3614 3614 3653 3614 3614 3614 3614 0 0 0 0 0 0 0 0 0 3692 3692 3692 3692 3692 3732 3732 3774 3774 3774 3774 3774 3774 3732 3732 3732 3732 3732 3732 3816 0 0 0 0 0 0 0 0 0 0 0 3816 3816 3816 3816 3774 3774 0 0 0 0 0 0 0 0 0 0 0 0 0 3208 3208 3208 3208 3178 3178 3178 3208 3208 3208 3208 3208 3208 3208 3238 3238 3238 3238 3238 3269 3238 3238 3269 3269 3269 3269 3269 3269 3269 3269 3269 3269 3269 3269 3269 3269 3269 3269 3300 3300 3300 3300 3300 3269 3269 3269 3269 3269 3269 3300 3269 3269 3269 3269 3238 3208 3120 3120 4089 4041 4041 4041 4041 4041 4041 3994 3994 3994 3994 3994 3994 3994 3994 3994 3994 3994 3994 3994 4041 0 0 0 0 0 0 0 0 0 0 0 0 935 935 930 930 928 925 925 0 0 0 0 0 0 0 0 0 0
0 0 0 0 0 0 0 0 0 0 0 0 0 0 0 0 0 0 0 0 0 0 0 0 0 0 0 0 0 0 5832 5832 5832 5933 5933 5933 5933 5933 5933 5832 5832 5832 5832 5933 5933 5933 5933 5933 5933 5933 6038 6259 6259 6259 6259 6259 6146 6038 6038 5933 5933 5933 5933 5933 5832 5832 5832 5933 5933 5933 6038 6038 6146 6259 6259 6259 5210 5210 5210 5210 5210 5291 5374 5460 5460 5548 5548 5640 5734 5832 6146 6146 6146 6146 6038 6038 5933 5933 5933 5933 5933 5933 6375 6375 6375 6497 6497 6497 6375 6375 6146 6146 6146 6146 6259 6259 6259 6259 6259 6146 6038 5933 5933 5832 5832 5734 5734 5734 5734 5734 5832 5933 6038 6146 6146 6259 6259 0 0 0 0 0 0 0 3120 3064 3064 3064 3064 3037 3037 3037 3037 3037 3037 3037 3010 3010 3037 3037 3037 3037 3037 3037 3037 3037 3037 3037 3037 3037 3037 3037 3037 3037 3037 3037 3064 3064 3064 3064 3092 3092 3092 3092 3092 3092 3092 3120 3120 3120 3120 3149 3149 3149 3149 3149 3149 3149 3149 3149 3149 3149 3149 3149 3149 3149 3149 3149 3149 3178 3178 3178 3178 3178 3178 3178 3208 3208 3208 3208 3208 3208 3208 3208 3238 3238 3238 3238 3238 3238 3238 3238 2143 2129 2129 2129 2129 2143 2143 2143 3269 3238 3238 3238 3238 3238 3238 3269 3269 3269 3269 3269 3269 3300 2170 2170 2170 2170 2156 2156 2156 2156 2170 2170 2184 2184 2184 2184 2184 2184 2184 2184 2170 2170 2184 2198 2198 2198 2212 2226 2226 2226 2226 2212 2212 7492 7492 2212 2212 2226 2241 2226 2226 2241 2241 2241 2241 2241 2241 2241 2241 2241 2241 2256 2256 5291 5291 5291 5291 5291 5291 5291 5291 5210 5210 5291 5291 5291 5291 5291 5291 5291 5210 5210 5210 5210 5210 5210 5210 5210 5210 5132 5132 5132 5132 5132 5132 5132 5132 5132 5132 5132 5132 5132 5132 5132 5056 5056 5056 5056 5056 5056 5056 5056 5132 5132 6889 2381 2381 2365 2365 2349 2349 2349 2349 2349 2365 2365 2381 2381 2381 2381 2381 2398 2398 2398 2398 2398 2398 2398 2415 2415 2415 2432 2415 2415 2432 2432 2432 2432 2415 2415 2415 2415 2415 2415 2415 2415 2432 2450 2450 2450 2450 2450 2467 2467 2467 2467 2467 4041 3948 3948 3948 3948 3948 2485 2467 2467 2467 2467 2467 2467 2467 2467 2467 2467 3653 3653 3653 3692 3692 3692 3653 3614 3614 3614 3614 3614 3614 3614 3614 3614 3614 3614 3614 3614 3614 3614 3614 3614 3614 3614 3614 3614 3614 3614 3614 3614 3576 3576 3576 3576 3576 3576 3576 3614 3614 3614 3614 3614 3614 3614 3614 3653 3614 3614 0 0 0 0 3614 3614 3614 3653 3653 3653 3653 3653 3653 3732 3732 3732 3732 3732 3732 3692 3692 3692 3692 3692 3692 3816 0 0 0 0 0 0 0 0 0 0 0 0 0 3816 3816 3774 3774 0 0 0 0 0 0 0 0 0 0 0 0 3208 3208 3208 3208 3208 3208 3208 3208 3238 3238 3238 3238 3238 3238 3238 3238 3238 3238 3269 3269 3269 3269 3269 3269 3269 3269 3269 3269 3269 3269 3269 3269 3269 3269 3269 3269 3269 3269 3300 3300 3300 3300 3300 3300 3269 3269 3269 3269 3269 3269 3300 3269 3269 3269 3269 3238 3064 3064 3064 4089 4089 4041 4041 4041 4041 4041 4041 3994 3994 3994 3994 3994 3994 3994 3994 3994 3994 3994 4041 4041 4041 4089 0 0 0 0 0 0 0 0 0 0 935 935 930 930 928 925 925 933 938 0 0 0 0 0 0 0 0
0 0 0 0 0 0 0 0 0 0 0 0 0 0 0 0 0 0 0 0 0 0 0 0 0 0 0 0 0 0 5832 5832 5832 5933 5933 5933 0 5832 5832 5832 5734 5734 5832 5832 5832 5832 5832 5933 5933 5933 0 0 0 0 0 6259 6146 6038 6038 5933 5933 5933 5832 5832 5832 5832 5832 5832 5832 5832 5832 5933 6038 6146 6259 6259 5210 5210 5210 5291 5291 5291 5374 5460 5460 5548 5548 5640 5734 5832 6038 6146 6146 6038 5933 5832 5832 5832 5832 5933 5933 5933 6375 6375 6375 6497 6497 6497 6375 6375 6146 6146 6146 6146 0 0 6375 6375 6375 6146 6038 5933 5933 5832 5832 5734 5734 5734 5734 5832 5832 5832 6038 6038 6146 6259 6259 6259 0 0 0 0 0 0 2984 2984 3010 3037 3037 3037 3037 3037 3037 3037 3037 3037 3010 3010 3037 3037 3037 3037 3037 3037 3037 3037 3037 3037 3037 3037 3037 3037 3037 3037 3037 3064 3064 3064 3064 3064 3092 3092 3092 3092 3120 3120 3120 3120 3120 3120 3120 3149 3149 3149 3149 3149 3149 3149 3149 3149 3149 3120 3120 3149 3149 3149 3149 3149 3149 3178 3178 3178 3178 3178 3208 3208 3208 3208 3208 3208 3208 3208 3208 3208 3238 3238 3238 3238 3238 3238 3238 2143 2129 2129 2129 2129 2143 2143 2143 2143 2143 2143 2156 3238 3238 3238 3238 3269 3269 3269 3269 3269 2170 2170 2170 2170 2170 2170 2170 2170 2170 2170 2170 2170 2184 2184 2184 2184 2184 2184 2184 2184 2184 2184 2184 2198 2198 2198 2212 2226 2226 2226 2226 2212 2212 2212 2226 2212 2212 2226 2241 2241 2241 2241 2241 2241 2241 2241 2241 2241 2241 2241 2256 2256 2256 2256 2256 5291 5210 5210 5210 5210 5210 5210 5210 5210 5210 5210 5210 5210 5210 5210 5210 5210 5210 5210 5210 5210 5210 5210 5210 5132 5132 5132 5132 5132 5132 5132 5132 5132 5132 5132 5132 5132 5132 5132 5056 5056 5056 5056 5056 5056 5056 5056 5132 5132 2381 2381 2381 2365 2365 2365 2365 2349 2349 2349 2365 2365 2381 2381 2381 2381 2381 2398 2398 2398 2398 2398 2398 2398 2415 2415 2415 2432 2415 2415 2432 2432 2432 2432 2432 2432 2432 2432 2432 2432 2432 2432 2432 2450 2450 2450 2450 2450 2467 2467 2467 2467 2467 2467 2485 2485 2485 3994 3994 2467 2467 2467 2467 2467 2467 2467 2467 2467 2467 2467 2467 3653 3692 3692 3692 3692 3692 3692 3614 3576 3576 3614 3614 3614 3614 3614 3614 3614 3614 3614 3614 3614 3614 3614 3614 3614 3614 3614 3614 3614 3614 3614 3576 3576 3539 3539 3539 3539 3539 3576 3576 3614 3576 3576 3576 3576 3614 3576 3576 3576 3576 3576 3576 3576 3614 3614 3614 3653 3653 3653 3653 3614 3614 3653 3653 3692 3692 3692 3732 3692 3653 3653 3653 3653 3653 3653 0 0 0 0 0 0 0 0 0 0 0 3692 3692 3774 3774 3774 3774 3774 3774 0 0 0 0 3732 3732 0 0 0 3692 0 3208 3208 3208 3208 3208 3208 3208 3238 3238 3238 3238 3238 3238 3238 3238 3238 3269 3269 3269 3269 3269 3269 3269 3269 3269 3269 3269 3269 3269 3269 3269 3269 3269 3269 3269 3269 3269 3300 3300 3300 3300 3300 3300 3269 3269 3269 3269 3300 3300 3300 3269 3269 3269 3269 3238 3064 3037 3037 4139 4089 4041 4041 4041 4041 4041 4041 4041 3994 3994 3994 3994 3994 3994 3994 3994 3994 3994 4041 4041 4041 4041 4041 4041 4041 0 4041 4041 4041 0 0 0 935 935 935 935 933 925 925 933 938 0 0 0 0 0 0 0 0
0 0 0 0 0 0 0 0 0 0 0 0 0 0 0 0 0 0 0 0 0 0 0 0 0 0 0 0 0 0 0 0 0 0 0 0 0 0 5832 5832 5734 5734 5832 5832 5832 5832 5832 5933 5933 0 0 0 0 0 0 0 0 6038 6038 5933 5933 5832 5832 5832 5832 5734 5734 5734 5734 5832 5832 5832 5832 6038 6146 5460 5460 5210 5210 5291 5291 5374 5374 5460 5460 5548 5548 5640 5734 5832 6038 6146 6146 6038 5832 5832 5832 5832 5832 5933 5933 0 0 0 0 0 0 6497 6497 6497 0 0 0 0 0 0 2812 2812 2883 2933 2933 2933 2908 2908 5832 5832 5832 5832 5832 5734 5734 5832 6038 6038 6146 6146 2933 0 0 0 0 0 0 2908 2908 2958 2984 3010 3010 3010 3010 3037 3037 3037 3037 3037 3010 3010 3037 3037 3037 3037 3037 3037 3037 3037 3037 3037 3037 3037 3037 3037 3037 3037 3037 3037 3064 3064 3064 3064 3092 3092 3092 3092 3092 3092 3092 3092 3092 3092 3149 3149 3120 3120 3120 3120 3120 3120 3120 3120 3120 3120 3120 3149 3149 3149 3149 3149 3149 3178 3178 3178 3178 3208 3208 3208 3208 3208 3208 3208 3208 3208 3208 3208 3208 3208 3238 3269 3269 3269 2129 2129 2129 2129 2129 2129 2143 2143 2143 2143 2143 2143 2156 2170 3238 3238 3238 3238 3269 3269 2156 2156 2156 2170 2170 2170 2170 2170 2170 2170 2170 2170 2184 2184 2184 2184 2198 2198 2198 2198 2198 2184 2184 2184 2198 2212 2212 2212 2212 2226 2226 2226 2226 2226 2212 2212 2226 2226 2226 2241 2241 2241 2241 2241 2241 2241 2241 2241 2241 2241 2241 2241 2256 2256 2256 2241 2241 2241 5210 5210 5210 5210 5210 5132 5132 5210 5210 5210 5210 5210 5210 5210 5210 5210 5210 5210 5210 5210 5210 5210 5210 5132 5132 5132 5132 5132 5132 5132 5132 5132 5132 5132 5132 5132 5132 5132 5056 5056 5056 5056 5056 5056 5056 5056 5056 5056 2381 2381 2381 2365 2365 2365 2365 2349 2349 2365 2365 2365 2381 2381 2398 2398 2398 2398 2398 2398 2398 2398 2398 2398 2415 2415 2415 2415 2415 2415 2432 2432 2432 2432 2432 2432 2432 2432 2432 2432 2432 2432 2450 2450 2450 2450 2450 2450 2467 2467 2467 2467 2467 2467 2485 2485 2485 2485 2485 2467 2467 2467 2467 2467 2467 2467 2467 2450 2450 2467 2467 3692 3692 3732 3732 3732 3732 3692 3653 3576 3576 3614 3614 3614 3614 3614 3614 3614 3614 3614 3614 3614 3614 3614 3614 3614 3614 3614 3614 3614 3614 3614 3576 3576 3539 3539 3539 3539 3539 3576 3576 3576 3576 3576 3576 3576 3576 3576 3576 3576 3576 3576 3576 3576 3614 3614 3614 3614 3653 3653 3614 3614 3614 3614 3614 3614 3614 3653 3653 3653 3614 3614 3576 3576 3576 3576 3576 3576 3576 3576 0 0 0 0 3576 3576 3576 0 3692 3692 3692 3692 3732 3732 3732 0 0 3653 3614 3614 3653 3692 3692 3692 3692 3653 3208 3208 3208 3208 3208 3238 3238 3238 3238 3238 3238 3238 3238 3238 3238 3238 3269 3269 3269 3269 3269 3269 3269 3269 3269 3269 3269 3269 3269 3269 3269 3269 3269 3269 3269 3269 3269 3269 3269 3300 3300 3300 3300 3269 3269 3269 3269 3300 3300 3300 3269 3269 3269 3269 3238 3238 3037 3037 4139 4089 4089 4089 4089 4041 4041 4041 4041 3994 3994 3994 3994 3994 3994 3994 3994 3994 4041 4041 4041 4041 4041 4041 4041 4041 4041 4041 3994 3994 3994 0 0 3994 3948 3948 933 933 925 925 0 0 0 0 0 0 0 0 0 0
0 0 0 0 0 0 0 0 0 0 0 0 0 0 0 0 0 0 0 0 0 0 0 0 0 0 0 0 0 0 0 0 0 0 0 0 0 5832 5832 5832 5832 5832 5832 5832 5832 5832 5832 0 0 0 0 0 0 0 0 0 0 6038 6038 5933 5933 5832 5832 5832 5832 5734 5734 5734 5734 5832 5832 5832 5832 6038 6146 5460 5291 5291 5291 5374 5374 5374 5374 5460 5460 5548 5548 5640 5734 5832 6038 6146 6146 6146 5734 5734 5734 5734 5734 5734 5832 5832 5832 0 0 0 0 0 0 0 0 0 0 0 0 0 2812 2812 2883 2883 2883 2883 2883 2883 5832 5832 5832 5832 5832 5734 5734 5734 2933 2933 2933 2933 2933 2908 2908 2908 2908 2908 2908 2908 2908 2933 2958 2984 2984 3010 3010 3010 3010 3010 3010 3010 2984 2984 3010 3037 3037 3037 3037 3037 3064 3064 3064 3064 3037 3037 3037 3037 3037 3037 3037 3037 3064 3064 3064 3064 3092 3064 3064 3064 3064 3064 3064 3064 3064 3092 3120 3120 3092 3092 3092 3092 3092 3092 3092 3092 3120 3120 3120 3120 3120 3120 3120 3149 3149 3149 3178 3178 3178 3208 3208 3208 3208 3208 3208 3208 3208 3208 3208 3208 3208 3208 3238 3269 3269 2129 2129 2129 2129 2129 2129 2129 2143 2143 2143 2143 2143 2143 2156 2156 2156 2170 2156 2156 2170 2170 2156 2156 2156 2170 2170 2170 2170 2170 2170 2170 2184 2184 2184 2184 2184 2184 2184 2198 2198 2198 2198 2198 2198 2198 2198 2212 2212 2212 2212 2226 2226 2226 2226 2226 2226 2226 2226 2226 2226 2241 2241 2241 2241 2241 2241 2241 2241 2241 2241 2241 2241 2241 2256 2256 2256 2241 2241 2241 5210 5210 5210 5210 5210 5132 5132 5210 5210 5210 5210 5210 5210 5210 5210 5210 5210 5210 5210 5210 5210 5210 5210 5132 5132 5132 5132 5132 5132 5132 5132 5132 5132 5132 5132 5132 5132 5132 5132 5132 5132 5132 5132 5132 5056 5056 5056 5056 2381 2381 2381 2365 2365 2365 2365 2365 2365 2365 2365 2381 2381 2398 2398 2398 2398 2398 2398 2398 2398 2398 2398 2398 2415 2415 2415 2415 2415 2415 2432 2432 2432 2432 2432 2432 2432 2450 2450 2450 2450 2450 2450 2450 2450 2450 2450 2450 2467 2467 2467 2467 2467 2467 2485 2485 2467 2467 2467 2467 2467 2467 2450 2450 2450 2467 2450 2450 2450 2450 2450 2450 3732 3732 3732 3732 3732 3692 3653 3653 3614 3614 3614 3614 3614 3614 3614 3614 3614 3614 3614 3614 3614 3614 3614 3614 3614 3614 3614 3614 3614 3614 3576 3576 3576 3576 3576 3576 3576 3576 3576 3576 3576 3576 3576 3576 3576 3576 3576 3576 3576 3576 3576 3576 3614 3614 3614 3614 3614 3614 3576 3576 3576 3576 3576 3576 3576 3614 3614 3576 3576 3576 3576 3576 3576 3539 3539 3539 3539 3539 3576 3576 3576 3576 3576 3576 3576 3576 3576 3614 3614 3614 3692 3653 3653 3692 3576 3576 3576 3576 3614 3614 3614 3614 3653 3653 3238 3238 3238 3238 3238 3238 3238 3269 3269 3269 3269 3269 3269 3269 3269 3269 3269 3269 3269 3269 3269 3269 3269 3269 3269 3269 3269 3269 3269 3269 3269 3269 3238 3238 3238 3238 3238 3269 3269 3300 3300 3300 3300 3300 3300 3300 3300 3300 3300 3300 3269 3269 3269 3269 3269 3269 4139 4139 4139 4139 4139 4089 4089 4089 4089 4041 4041 3994 3994 3994 3994 3994 3994 4041 4041 4041 4041 4041 4041 4041 4041 4041 4041 3994 3994 3994 3948 3948 3948 3994 3994 3994 3948 3948 3948 3948 0 0 0 0 0 0 0 0 0 0 0 0
0 0 0 0 0 0 0 0 0 0 0 0 0 0 0 0 0 0 0 0 0 0 0 0 0 0 0 0 0 0 0 0 0 0 0 0 0 5832 5832 5832 5832 5933 5832 5832 5832 5832 0 0 0 0 0 0 0 0 0 0 0 0 0 0 0 0 5832 5832 5832 5832 5832 5832 5832 5832 5832 5832 5832 6146 6259 6259 5291 5291 5291 5374 5374 5374 5374 5460 5460 5548 5640 5640 5734 5832 6038 6038 6038 5734 5734 5734 5734 5734 5734 5734 5832 5832 0 0 0 0 0 0 0 0 0 0 0 0 0 0 2812 2812 2812 2859 2859 2883 2883 2883 2883 5832 5832 5832 5832 5734 2883 2883 2883 2908 2908 2908 2933 2908 2908 2908 2908 2908 2908 2908 2908 2933 2958 2984 2984 2984 2984 3010 3010 2984 2984 2984 2984 2984 3010 3010 3010 3010 3037 3037 3064 3064 3064 3064 3064 3064 3037 3037 3037 3037 3037 3037 3037 3037 3037 3037 3064 3037 3037 3037 3037 3064 3064 3064 3064 3064 3092 3092 3064 3064 3064 3064 3064 3064 3064 3064 3092 3092 3120 3120 3092 3092 3120 3120 3120 3149 3149 3178 3178 3178 3178 3178 3178 3178 3178 3178 3178 3178 3178 3178 3208 3208 3238 3238 2129 2129 2129 2129 2129 2129 2129 2129 2143 2143 2143 2143 2143 2143 2156 2156 2156 2156 2156 2156 2170 2170 2170 2170 2170 2170 2170 2170 2170 2170 2184 2184 2184 2184 2184 2184 2184 2184 2184 2198 2198 2198 2198 2198 2198 2198 2198 2198 2212 2212 2212 2226 2226 2226 2226 2226 2226 2226 2226 2226 2226 2241 2241 2241 2241 2241 2241 2241 2241 2241 2241 2241 2241 2241 2256 2256 2256 2256 2256 2301 2301 5210 5210 5210 5210 5210 5210 5210 5210 5210 5210 5210 5210 5210 5210 5210 5132 5132 5132 5132 5132 5132 5210 5132 5132 5132 5132 5132 5132 5132 5132 5132 5132 5132 5132 5132 5132 5132 5132 5132 5132 5132 5132 5132 5132 5132 5132 5132 2398 2398 2381 2365 2365 2365 2365 2365 2365 2365 2365 2381 2381 2381 2398 2398 2398 2398 2398 2398 2398 2398 2398 2415 2415 2415 2415 2415 2415 2415 2432 2432 2432 2432 2432 2432 2432 2432 2432 2432 2450 2450 2450 2450 2467 2467 2467 2467 2467 2467 2467 2467 2467 2467 2485 2485 2467 2467 2467 2467 2467 2467 2450 2450 2450 2467 2450 2450 2450 2450 2450 0 0 3774 3774 3774 3732 3732 3692 3692 3653 3653 3653 3653 3653 3614 3614 3614 3614 3614 3614 3614 3614 3614 3614 3614 3614 3614 3614 3614 3614 3614 3576 3576 3576 3576 3576 3576 3576 3576 3576 3576 3576 3576 3576 3576 3576 3576 3576 3576 3576 3576 3576 3576 3576 3576 3576 3576 3576 3576 3576 3539 3539 3539 3539 3576 3576 3576 3614 3576 3576 3576 3576 3576 3576 3539 3539 3539 3539 3539 3576 3576 3576 3576 3539 3539 3539 3539 3539 3539 3576 3576 3576 3576 3576 3576 3539 3539 3576 3576 3576 3576 3576 3614 3614 3576 3269 3269 3238 3238 3238 3238 3269 3269 3269 3269 3269 3269 3269 3269 3269 3269 3269 3269 3269 3269 3269 3238 3238 3269 3269 3269 3269 3269 3269 3269 3269 3269 3238 3238 3238 3238 3238 3269 3269 3269 3300 3300 3300 3300 3300 3300 3300 3300 3300 3300 3300 3300 3300 3269 3269 3269 4139 4139 4139 4139 4139 4089 4089 4089 4089 4041 4041 3994 3994 4041 4041 4041 4041 4041 4041 4041 4089 4089 4089 4089 4089 4041 4041 3994 3994 3994 3948 3948 3948 3948 3948 3994 3948 3948 3948 3948 0 0 0 0 0 0 0 0 0 0 0 0
0 0 0 0 0 0 0 0 0 0 0 0 0 0 0 0 0 0 0 0 0 0 0 0 0 0 0 0 0 0 0 0 0 0 0 0 0 5832 5832 5832 5933 0 0 0 5832 5832 0 0 0 0 0 0 0 0 0 0 0 0 0 0 0 0 0 5933 5832 5832 5832 5832 5832 5734 5734 5734 5734 5832 6259 6259 5210 5210 5291 5374 5374 5374 5460 5460 5548 5548 5640 5734 5734 5832 5832 5832 5832 5832 5734 5734 5734 5734 5734 5734 5832 5832 0 0 0 0 0 0 0 0 0 0 0 0 0 2812 2812 2812 2812 2835 2859 2883 2883 2883 2883 2883 2883 2859 2859 2859 2859 2883 2883 2908 2883 2883 2908 2908 2908 2908 2908 2908 2908 2908 2908 2933 2958 2958 2984 2984 2984 2984 2984 2984 2984 2984 2958 2958 2984 2984 3010 3010 3037 3037 3064 3064 3064 3064 3064 3064 3064 3037 3037 3037 3037 3037 3037 3037 3010 3010 3037 3010 3010 3010 3037 3037 3037 3037 3037 3064 3064 3064 3064 3064 3064 3064 3064 3064 3064 3064 3092 3092 3092 3092 3092 3092 3092 3092 3120 3092 3092 3149 3149 3149 3120 3120 3178 3149 3149 3149 3149 3149 3178 3178 3208 3208 3238 3238 2129 2129 2129 2129 2129 2129 2129 2129 2143 2143 2143 2143 2143 2156 2156 2156 2143 2143 2156 2156 2170 2170 2170 2170 2170 2170 2170 2170 2170 2170 2184 2184 2184 2184 2184 2184 2184 2184 2198 2198 2198 2198 2198 2198 2198 2198 2198 2198 2212 2212 2212 2226 2226 2226 2226 2226 2226 2226 2226 2226 2226 2241 2241 2241 2241 2241 2241 2241 2241 2241 2256 2241 2241 2256 2256 2256 2256 2256 2256 2271 2271 5210 5210 5210 5210 5210 5210 5210 5210 5210 5210 5210 5210 5210 5210 5210 5132 5132 5132 5132 5132 5132 5132 5132 5132 5132 5132 5132 5132 5132 5132 5132 5132 5132 5132 5132 5132 5132 5132 5132 5132 5132 5132 5132 5132 5132 5132 2398 2398 2398 2381 2365 2365 2365 2365 2365 2365 2365 2365 2381 2381 2381 2398 2398 2398 2398 2398 2398 2398 2398 2398 2415 2415 2415 2415 2415 2415 2415 2432 2432 2432 2432 2432 2432 2432 2432 2432 2432 2450 2450 2450 2467 2467 2467 2467 2467 2467 2467 2467 2467 2467 2467 2485 2485 2450 2450 2467 2467 2467 2467 2467 2467 2467 2485 2485 2485 2485 2485 0 0 0 0 0 0 3732 3732 3732 3692 3692 3653 3653 3653 3653 3614 3614 3614 3614 3614 3614 3614 3614 3614 3614 3614 3614 3614 3614 3614 3614 3614 3576 3576 3576 3576 3576 3576 3576 3576 3576 3576 3576 3576 3576 3576 3576 3576 3576 3576 3576 3576 3576 3576 3576 3576 3576 3576 3576 3576 3539 3503 3503 3539 3539 3539 3539 3576 3614 3539 3539 3539 3539 3539 3539 3503 3503 3503 3539 3539 3539 3539 3539 3576 3539 3539 3539 3539 3539 3539 3539 3539 3539 3539 3539 3539 3539 3539 3539 3539 3576 3576 3576 3576 3576 3503 3269 3269 3269 3238 3238 3269 3269 3269 3269 3269 3269 3269 3269 3269 3269 3269 3269 3269 3269 3269 3269 3238 3238 5933 5933 3269 3269 3269 3269 3269 3269 3238 3208 3208 3208 3208 3238 3269 3269 3269 3300 3300 3300 3300 3300 3300 3300 3300 3300 3300 3300 3333 3300 3300 3300 3300 4139 4139 4139 4190 4295 4405 4405 4190 4190 4089 4041 4041 4041 4041 4041 4041 4041 4041 4089 4089 4089 4089 4139 4190 4089 4041 4041 3994 3994 3948 3948 3948 3948 3948 3948 3994 3948 3948 3948 3948 0 0 0 0 0 0 0 0 0 0 0 0
0 0 0 0 0 0 0 0 0 0 0 0 0 0 0 0 0 0 0 0 0 0 0 0 0 0 0 0 0 0 0 0 0 0 0 0 0 0 5832 5832 0 0 0 0 0 0 0 0 0 0 0 0 0 0 0 0 0 0 0 0 0 0 0 0 5832 5832 5832 5640 5640 5548 5548 5548 5548 5548 5548 5374 5210 5210 5210 5291 5374 5374 5460 5548 5548 5548 5640 5640 5734 5734 5832 5832 5832 5832 5734 5734 5734 5734 5734 5734 5832 5832 5832 0 0 0 0 0 0 0 0 0 0 0 2812 2812 2812 2812 2812 2835 2859 2859 2859 2859 2859 2859 2883 2859 2859 2859 2859 2883 2883 2908 2883 2883 2908 2908 2908 2908 2908 2908 2908 2908 2908 2933 2933 2958 2958 2984 2984 2984 2984 2984 2984 2984 2958 2958 2984 2984 3010 3010 3037 3037 3064 3064 3064 3064 3064 3064 3064 3037 3037 3037 3037 3037 0 0 3010 3010 3037 3010 3010 3010 3010 3010 3037 3037 3037 3037 3037 3064 3064 3064 3064 3064 3064 3064 3064 3064 3064 3092 3092 3092 3064 3064 3064 3092 3064 3064 3064 3064 3092 3120 3120 3120 3149 3120 3120 3149 3149 3149 3178 3178 3208 3208 3208 0 2129 2129 2129 2129 2129 2129 2129 2129 2143 2143 2143 2143 2143 2143 2156 2156 2143 2143 2156 2156 2156 2170 2170 2170 2170 2170 2170 2170 2170 2170 2184 2184 2184 2184 2184 2184 2184 2184 2198 2198 2198 2198 2198 2212 2212 2212 2212 2212 2212 2212 2226 2226 2226 2226 2226 2226 2226 2226 2226 2226 2226 2241 2241 2241 2241 2241 2241 2241 2241 2241 2256 2241 2241 2256 2256 2256 2256 2256 2256 2271 2271 5210 5132 5132 5210 5210 5210 5210 5210 5210 5210 5210 5210 5210 5210 5210 5132 5132 5132 5132 5132 5132 5132 5132 5132 5132 5132 5132 5132 5132 5132 5132 5132 5132 5132 5132 5132 5132 5132 5132 5132 5132 5132 5132 5132 5132 5132 5132 2398 2381 2381 2365 2365 2365 2365 2365 2365 2365 2365 2398 2398 2398 2398 2398 2398 2398 2398 2398 2398 2398 2415 2415 2415 2415 2415 2415 2415 2415 2432 2432 2432 2432 2432 2432 2432 2432 2432 2432 2450 2450 2450 2467 2467 2467 2485 2467 2467 2467 2467 2467 2467 2467 2485 2485 2450 2450 2467 2467 2467 2467 2467 2467 2467 2485 2485 2485 2485 2485 0 0 0 0 0 0 3732 3732 3732 3692 3692 3692 3692 3692 3653 3614 3614 3614 3614 3614 3614 3614 3614 3614 3614 3614 3614 3614 3614 3614 3614 3614 3576 3576 3576 3576 3576 3576 3576 3576 3576 3576 3576 3576 3576 3576 3576 3576 3576 3576 3576 3576 3576 3576 3576 3576 3576 3576 3576 3539 3539 3503 3503 3539 3539 3539 3539 3539 3576 3539 3539 3539 3539 3539 3539 3503 3503 3503 3503 3539 3539 3539 3539 3539 3539 3539 3539 3539 3539 3539 3539 3539 3539 3539 3539 3539 3539 3539 3539 3539 3576 3576 3576 3576 3539 3503 3300 3269 3269 3269 3269 3269 3269 3300 3269 3269 3269 3269 3269 3269 3269 3269 3269 3269 3269 3269 5933 5933 5933 5933 5933 5933 5933 5832 5832 3269 3269 3238 3208 3208 3208 3208 3208 3269 3269 3269 3300 3300 3333 3300 3300 3300 3333 3333 3333 3300 3300 3300 3300 3300 3300 3300 3300 4645 4645 4645 4582 4582 4405 4349 4190 4089 4041 4041 4041 4041 4041 4041 4041 4089 4089 4190 4139 4139 4190 4241 4190 4089 4089 3994 3994 3948 3948 3948 3948 3948 3948 3994 3948 3948 3948 3948 0 0 0 0 0 0 0 0 0 0 0 0
0 0 0 0 0 0 0 0 0 0 0 0 0 0 0 0 0 0 0 0 0 0 0 0 0 0 0 0 0 0 0 0 0 0 0 0 0 0 0 0 0 0 0 0 0 0 0 0 0 0 0 0 0 0 0 0 0 0 0 0 0 0 0 0 0 0 0 5640 5640 5548 5548 5548 5548 5548 5548 5374 5374 5210 5210 5291 5374 5374 5460 5548 5548 5548 5640 5640 5734 5734 5734 5832 5832 5832 5734 5734 5734 5734 5734 5734 5734 5734 5832 5832 5832 5832 0 0 0 0 0 2767 2767 2767 2767 2789 2789 2812 2812 2812 2812 2859 2859 2859 2859 2859 2883 2883 2883 2883 2883 2883 2883 2908 2883 2883 2908 2908 2908 2908 2908 2908 2933 2933 2933 2933 2933 2958 2958 2958 2958 2958 2958 2958 2958 2958 2933 2933 2958 2958 3010 3010 3010 3064 3064 3064 3064 3064 3064 3064 3037 3037 3037 3010 3010 3010 3010 3010 2835 2835 3010 3010 3010 2958 2958 2984 3010 3010 3010 3037 3037 3037 3064 3064 3064 3064 3064 3064 3064 3064 3064 3092 3064 3064 3064 3064 3064 3092 3064 3064 3064 3064 3064 3064 3120 3120 3149 3120 3120 3149 3149 3149 0 0 0 0 0 0 2129 2129 2129 2129 2129 2129 2129 2143 2143 2143 2143 2143 2143 2143 2156 2156 2143 2143 2156 2156 2156 2170 2170 2170 2170 2170 2170 2170 2170 2184 2184 2184 2184 2184 2184 2198 2198 2198 2198 2212 2212 2198 2198 2212 2212 2212 2212 2212 2212 2212 2226 2226 2226 2226 2226 2226 2226 2226 2226 2226 2226 2226 2226 2226 2241 2241 2241 2241 2241 2241 2241 2241 2241 2256 2256 2256 2256 2256 2271 2271 2271 5132 5132 5132 5132 5210 5210 5210 5210 5210 5210 5291 5210 5210 5210 5210 5132 5132 5132 5132 5132 5132 5132 5132 5132 5132 5132 5132 5132 5132 5132 5132 5132 5132 5132 5132 5132 5132 5132 5132 5132 5132 5132 5132 5132 5132 5132 5132 2381 2381 2381 2365 2365 2381 2365 2365 2365 2365 2381 2398 2398 2398 2398 2398 2398 2398 2398 2415 2415 2415 2415 2415 2415 2415 2415 2432 2415 2415 2432 2432 2432 2432 2432 2432 2432 2450 2450 2450 2450 2450 2450 2467 2467 2467 2485 2485 2467 2467 2467 2467 2467 2467 2485 2485 2467 2467 2467 2467 2467 2467 2467 2467 2467 2467 2485 2485 2485 2485 0 0 0 0 0 0 3732 3732 3732 3732 3692 3692 3692 3653 3614 3614 3614 3614 3614 3614 3614 3614 3614 3614 3614 3614 3614 3614 3614 3614 3614 3614 3614 3614 3576 3576 3614 3614 3576 3576 3576 3576 3576 3576 3576 3576 3576 3576 3576 3576 3576 3576 3576 3576 3576 3576 3576 3576 3576 3539 3539 3503 3503 3539 3539 3539 3539 3539 3576 3503 3503 3503 3539 3503 3503 3503 3503 3503 3503 3503 3539 3539 3539 3539 3539 3539 3539 3539 3539 3539 3539 3539 3539 3539 3539 3539 3539 3539 3539 3539 3576 3539 3539 3539 3539 3503 3300 3269 3269 3269 3269 3269 3269 3300 3269 3269 3269 3269 3269 3269 3269 3269 3269 3300 3300 6038 6038 6038 6038 6038 5933 5933 5933 5832 5832 5734 5734 5734 5832 3208 3208 3208 3208 3269 3269 3300 3300 3333 3333 3300 3300 3300 3333 3333 3333 3300 3300 3300 3269 3269 3269 3269 0 4645 4645 4645 4645 4582 4522 4349 4349 4089 4041 4041 4041 4041 4041 4041 4041 4089 4089 4190 4241 4241 4295 4295 4295 4139 4089 4041 3994 3948 3948 3948 959 956 956 956 3994 956 954 954 0 0 0 0 0 0 0 0 0 0 0 0
0 0 0 0 0 0 0 0 0 0 0 0 0 0 0 0 0 0 0 0 0 0 0 0 0 0 0 0 0 0 0 0 0 0 0 0 0 0 0 0 0 0 0 0 0 0 0 0 0 0 0 0 0 0 0 0 0 0 0 0 0 0 0 0 0 0 0 5640 5640 5548 5548 5548 5548 5548 5548 5374 5374 5210 5210 5291 5374 5374 5460 5548 5548 5548 5640 5640 5734 5734 5734 5734 5832 0 5734 5734 5640 5640 5734 5734 5734 5734 5832 5832 5832 5832 0 0 0 0 2767 2767 2767 2767 2767 2767 2767 2789 2789 2789 2789 2859 2859 2859 2859 2859 2883 2883 2883 2883 2883 2883 2908 2908 2883 2883 2908 2908 2908 2908 2908 2908 2933 2933 2933 2933 2933 2958 2958 2958 2958 2933 2933 2933 2933 2933 2908 2908 2933 2933 2933 2933 2933 3064 3064 3064 3064 3064 3064 3064 3037 3037 3037 3010 3010 3010 0 0 0 0 2835 2835 2933 2933 2933 2958 2984 3010 3010 3037 3037 3037 3037 3037 3037 3064 3037 3037 3064 3064 3064 3092 3064 3064 3064 3064 3064 3092 3064 3064 3037 3037 3037 3064 3120 3120 3120 3120 3120 3149 3149 0 0 0 0 0 0 0 2129 2129 2129 2129 2129 2129 2129 2143 2143 2143 2143 2143 2143 2156 2156 2156 2156 2156 2156 2156 2156 2170 2170 2170 2170 2170 2184 2184 2184 2184 2184 2184 2184 2184 2184 2198 2198 2198 2198 2212 2212 2212 2212 2212 2212 2212 2212 2212 2212 2212 2226 2226 2226 2226 2226 2226 2226 2226 2226 2226 2226 2226 2226 2226 2241 2241 2241 2241 2241 2241 2241 2241 2241 2256 2256 2256 2256 2256 2256 2271 2271 5132 5132 5132 5132 5210 5210 5210 5210 5210 5210 5291 5291 5210 5210 5210 5132 5132 5132 5132 5132 5132 5132 5132 5132 5132 5132 5132 5132 5132 5132 5132 5132 5132 5132 5132 5132 5132 5132 5132 5132 5132 5132 5210 5132 5132 5210 5210 2381 2381 2381 2381 2381 2381 2381 2381 2381 2381 2398 2398 2398 2398 2398 2398 2398 2398 2398 2398 2415 2415 2415 2415 2415 2432 2432 2432 2415 2415 2432 2432 2432 2432 2432 2432 2450 2450 2450 2450 2450 2467 2467 2467 2467 2467 2485 2485 2467 2467 2467 2467 2467 2485 2485 2485 2467 2467 2467 2467 2467 2467 2467 2467 2467 2467 2467 2485 2485 2485 0 0 0 0 0 0 0 0 3732 3732 3732 3732 3732 3653 3614 3614 3614 3614 3614 3614 3614 3614 3614 3614 3614 3614 3614 3614 3614 3614 3614 3614 3614 3614 3614 3614 3614 3614 3576 3576 3576 3576 3576 3576 3576 3576 3576 3576 3576 3576 3576 3576 3576 3576 3576 3576 3576 3576 3576 3539 3539 3539 3539 3539 3539 3539 3539 3539 3539 3503 3503 3503 3503 3503 3503 3503 3503 3503 3503 3503 3539 3539 3539 3539 3539 3539 3539 3539 3539 3539 3539 3539 3539 3539 3539 3539 3539 3539 3539 3539 3539 3539 3539 3539 3503 3399 3300 3300 3269 3269 3269 3269 3269 3300 3269 3269 3269 3269 3269 3300 3300 3300 3300 3300 3300 6038 6038 6038 6038 6038 5933 5933 5933 5933 5832 5832 5832 5832 5832 5933 3208 3208 3238 3269 3269 3300 3333 3333 3333 3333 3333 3333 3365 3365 3333 3300 3300 3300 3269 3269 3269 0 0 4842 4842 4774 4708 4582 4582 4349 4349 4089 4041 4041 4041 4041 4041 4041 4041 4089 4089 4241 4349 4349 4349 4349 4349 4349 4349 4041 3994 3994 3994 3994 959 956 956 956 956 956 954 954 959 0 0 0 0 0 0 0 0 0 0 0
0 0 0 0 0 0 0 0 0 0 0 0 0 0 0 0 0 0 0 0 0 0 0 0 0 0 0 0 0 0 0 0 0 0 0 0 0 0 0 0 0 0 0 0 0 0 0 0 0 0 0 0 0 0 0 0 0 0 0 0 0 0 0 0 0 0 0 5640 5640 5640 5548 5548 5548 5548 5548 5374 5374 5210 5210 5291 5291 5374 5374 5460 5548 5548 5640 5640 5734 5734 5734 5734 5832 0 0 5640 5640 5640 5734 5640 5640 5734 5832 5933 5933 5933 0 2835 2767 2767 2767 2767 2744 2744 2744 2744 2744 2744 2767 2767 2767 2789 2835 2859 2859 2859 2859 2883 2883 2883 2883 2883 2883 2883 2883 2883 2908 2933 2933 2933 2933 2933 2933 2933 2933 2933 2933 2958 2958 2958 2933 2933 2933 2908 2908 2908 2883 2883 2883 2933 2933 0 0 0 2859 3064 3064 3064 3064 3064 3064 2908 2933 2908 2859 2835 0 0 0 2835 2835 2835 2835 2908 2908 2908 2908 3010 3010 3037 3037 3037 3037 3037 3037 3037 3037 3037 3037 3037 3064 3064 3064 3064 3037 3037 3064 3037 3010 2984 2958 2958 2984 2984 2958 2933 2933 2933 2933 2908 2908 0 0 0 0 0 0 0 2129 2129 2129 2129 2129 2129 2129 2143 2143 2143 2143 2143 2156 2156 2156 2170 2156 2156 2156 2156 2156 2170 2170 2170 2170 2170 2184 2184 2184 2184 2184 2184 2184 2184 2184 2198 2198 2198 2198 2212 2212 2212 2212 2212 2212 2212 2212 2212 2212 2212 2226 2226 2226 2226 2226 2226 2226 2226 2241 2241 2241 2241 2241 2241 2241 2241 2241 2241 2241 2256 2241 2241 2241 2256 2256 2256 2256 2256 2256 2271 2271 5132 5132 5132 5132 5210 5210 5210 5210 5210 5210 5291 5291 5210 5210 5210 5132 5132 5132 5132 5132 5132 5132 5132 5132 5132 5132 5132 5132 5132 5132 5132 5132 5132 5132 5132 5132 5132 5132 5132 5132 5210 5210 5210 5210 5210 5210 5291 5291 2381 2381 2381 2381 2381 2381 2381 2381 2398 2398 2398 2398 2398 2398 2398 2398 2398 2398 2398 2415 2415 2415 2415 2415 2432 2415 2415 2415 2415 2432 2432 2432 2432 2432 2432 2450 2450 2450 2450 2450 2467 2467 2467 2467 2467 2485 2485 2467 2467 2467 2467 2467 2485 2485 2485 2467 2467 2467 2467 2467 2467 2467 2467 2467 2467 2467 2485 2485 2485 2503 0 0 0 0 0 0 0 3732 3732 3732 3732 3732 3732 4645 4582 4582 3614 3614 3614 3614 3614 3614 3614 3614 3614 3614 3614 3576 3576 3576 3576 3576 3614 3614 3614 3614 3614 3576 3576 3576 3576 3576 3576 3576 3576 3576 3576 3576 3576 3576 3576 3576 3576 3576 3576 3576 3576 3576 3539 3539 3539 3539 3539 3539 3539 3539 3539 3539 3503 3503 3503 3503 3503 3503 3503 3503 3503 3503 3539 3539 3539 3539 3539 3539 3539 3539 3539 3539 3539 3539 3539 3539 3539 3539 3539 3539 3539 3539 3539 3539 3539 3539 3539 3503 3399 3300 3300 3269 3269 3269 3269 3269 3300 3300 3300 3300 3300 3300 3300 3300 3300 3300 3300 3300 6038 6038 6038 6038 6038 6038 6038 5933 5933 5933 5933 5933 5933 5933 5933 5933 3238 3238 3269 3269 3300 3333 3333 3365 3333 3333 3365 3365 3365 3365 3333 3333 3333 3333 3333 4295 4295 0 4774 4774 4774 4708 4582 4582 4295 4295 4089 4089 4041 4041 4041 4041 4041 4041 4089 4089 4349 4405 4522 4522 4774 4774 4842 4983 5056 3948 3948 3994 3994 959 959 956 956 956 956 956 956 959 0 0 0 0 0 0 0 0 0 0 0
0 0 0 0 0 0 0 0 0 0 0 0 0 0 0 0 0 0 0 0 0 0 0 0 0 0 0 0 0 0 0 0 0 0 0 0 0 0 0 0 0 0 0 0 0 0 0 0 0 0 0 0 0 0 0 0 0 0 0 0 0 0 0 0 0 0 0 0 5640 5640 0 5548 5548 5548 0 5374 5374 5210 5210 5210 5291 5291 5374 5460 5460 5548 5548 5640 5734 5734 5734 5832 5832 0 0 0 0 5734 5640 5640 5640 5734 5832 5933 5933 5933 2835 2835 2744 2744 2744 2744 2723 2723 2723 2723 2723 2723 2723 2723 2723 2767 2789 2789 2812 2859 2859 2859 2859 2883 2883 2883 2883 2883 2883 2883 2883 2908 2908 2933 2933 2933 2933 2933 2933 2933 2933 2958 2958 2958 2933 2908 2908 2908 2883 2883 2859 2859 2859 2859 2859 2835 2835 2835 2859 2835 2835 2835 2933 2933 2908 2908 2933 0 0 0 2835 2859 2859 2835 2835 2835 2835 2859 2883 2883 2883 2883 3037 3037 3037 3037 3010 3010 3037 3037 2984 2984 3010 3010 3037 3010 3010 3010 2958 2958 2958 2984 2958 2908 2908 2933 2933 2958 2933 2933 2933 2933 2908 2908 2908 0 0 0 0 0 0 0 2116 2116 2129 2129 2129 2129 2143 2143 2143 2143 2143 2143 2156 2156 2156 2170 2156 2156 2156 2156 2156 2170 2170 2170 2170 2170 2184 2184 2184 2184 2184 2184 2184 2184 2198 2198 2198 2212 2212 2212 2212 2212 2212 2212 2212 2212 2212 2212 2212 2212 2226 2226 2226 2226 2226 2226 2226 2226 2241 2241 2241 2241 2241 2241 2241 2241 2241 2241 2241 2241 2256 2256 2256 2256 2256 2256 2256 2256 2271 2271 2271 2271 5210 5210 5210 5210 5210 5210 5291 5291 5291 5291 5291 5210 5210 5210 5132 5132 5132 5132 5132 5132 5132 5132 5132 5132 5132 5132 5132 5132 5132 5132 5132 5132 5132 5132 5132 5132 5132 5132 5132 5210 5210 5210 5210 5210 5210 5291 5291 2381 2381 2381 2381 2381 2381 2381 2381 2398 2398 2398 2398 2398 2398 2398 2398 2398 2398 2398 2415 2415 2415 2415 2432 2432 2415 2415 2432 2432 2432 2432 2432 2432 2432 2450 2450 2450 2450 2450 2450 2467 2467 2467 2467 2467 2485 2485 2467 2467 2485 2467 2467 2485 2485 2485 2467 2467 2467 2467 2467 2467 2467 2467 2467 2467 2467 2467 2485 2485 2503 0 0 0 0 0 0 0 0 0 4708 4708 4708 4708 4645 4645 4645 3614 3614 3614 3614 3614 3614 3614 3614 3614 3614 3614 3576 3576 3576 3576 3576 3614 3614 3614 3614 3614 3576 3576 3576 3576 3576 3576 3576 3576 3576 3576 3614 3576 3576 3614 3614 3576 3576 3576 3576 3576 3576 3539 3539 3539 3539 3539 3539 3539 3539 3539 3539 3503 3503 3503 3503 3503 3503 3503 3503 3539 3539 3539 3539 3539 3539 3539 3539 3539 3539 3539 3539 3539 3539 3539 3539 3539 3539 3539 3539 3576 3576 3576 3576 3576 3539 3539 3468 3399 3300 3300 3269 3269 3269 3269 3269 3300 3300 3300 3300 3300 3300 3300 3300 3300 3300 3269 3269 6146 6146 6038 6038 6038 6038 6038 6038 6038 5933 5933 5933 5933 5933 6038 3300 3269 3269 3269 3269 3300 3333 3333 3333 3333 3333 3365 3365 3365 3365 3333 3333 3333 3333 4295 4295 4295 4295 0 4774 4774 4774 4582 4582 4295 4089 4089 4089 4041 4041 4041 4041 4041 4041 4041 4463 4463 4522 4522 4842 4774 4774 4842 4983 5056 3948 3948 3948 3994 3994 4041 959 959 962 4089 4089 4089 0 0 0 0 0 0 0 0 0 0 0 0
0 0 0 0 0 0 0 0 0 0 0 0 0 0 0 0 0 0 0 0 0 0 0 0 0 0 0 0 0 0 0 0 0 0 0 0 0 0 0 0 0 0 0 0 0 0 0 0 0 0 0 0 0 0 0 0 0 0 0 0 0 0 0 0 0 0 0 0 0 0 0 0 0 0 0 0 5210 5210 5210 5210 5291 5291 5291 5374 5374 5460 5548 5640 5734 5734 5734 5832 5832 0 0 0 0 5734 5640 5640 5640 5640 5832 5933 5933 5933 2723 2723 2723 2723 2723 2723 2723 2723 2723 2701 2701 2701 2701 2701 2701 2723 2744 2744 2767 2835 2835 2835 2835 2859 2859 2859 2859 2859 2859 2859 2883 2883 2908 2908 2908 2908 2933 2933 2933 2933 2933 2933 2958 2933 2789 2789 2859 2859 2859 2859 2835 2835 2835 2835 2835 2835 2835 2835 2859 2835 2835 2835 2933 2933 2908 2908 2933 2908 2859 2835 2835 2859 2859 2859 2835 2835 2835 2859 2859 2859 2859 2859 2859 3037 3037 3037 2908 2908 2984 2933 2883 2883 2908 2908 2933 2859 2859 2859 2859 2883 2883 2883 2883 2883 2883 2883 2908 2933 2908 2908 2933 2908 2908 2908 0 0 0 0 0 0 0 0 2116 2116 2129 2129 2129 2129 2143 2143 2143 2143 2143 2156 2156 2156 2170 2170 2156 2156 2156 2156 2156 2170 2170 2170 2170 2170 2184 2184 2184 2184 2184 2184 2184 2184 2184 2198 2198 2198 2198 2212 2212 2212 2212 2212 2212 2212 2212 2212 2212 2212 2226 2226 2226 2226 2226 2226 2226 2241 2241 2241 2241 2241 2241 2241 2241 2241 2241 2241 2241 2241 2241 2241 2256 2256 2256 2256 2256 2256 2271 2271 2271 0 5210 5210 5210 5291 5291 5291 5291 5291 5291 5291 5291 5291 5291 5210 5210 5210 5210 5132 5132 5132 5132 5132 5132 5132 5132 5132 5132 5132 5132 5132 5132 5132 5132 5132 5132 5132 5132 5210 5210 5210 5210 5210 5210 5210 5291 5291 5291 2365 2365 2365 2381 2381 2381 2398 2398 2398 2398 2398 2398 2398 2398 2398 2398 2398 2398 2398 2415 2415 2415 2432 2432 2432 2415 2415 2432 2432 2432 2432 2432 2432 2432 2450 2450 2450 2450 2450 2450 2467 2467 2467 2467 2467 2485 2485 2467 2467 2485 2485 2485 2485 2485 2485 2467 2467 2467 2467 2467 2467 2467 2467 2467 2467 2467 2467 2485 2485 0 0 0 0 0 0 0 0 0 0 4645 4645 4582 4582 4645 4645 4645 4708 3614 3614 3614 3614 3614 3653 3692 5132 5132 5132 3576 3576 3576 3576 3614 3614 3614 3614 3614 3614 3614 3614 3614 3614 3614 3614 3614 3576 3576 3576 3614 3614 3614 3614 3614 3614 3576 3576 3576 3576 3576 3576 3576 3539 3539 3539 3539 3539 3539 3539 3539 3503 3503 3503 3503 3503 3503 3503 3503 3539 3539 3539 3539 3539 3539 3539 3539 3539 3539 3576 3539 3539 3576 3576 3576 3576 3576 3576 3576 3576 3576 3576 3576 3576 3539 3503 3399 3333 3300 3300 3269 3269 3269 3269 3269 3300 3300 3300 3300 3300 3300 3300 3300 3300 3300 3269 3269 6146 6146 6146 6038 6038 6038 6038 6038 6038 6038 6038 6038 6038 6038 3365 3300 3300 3300 3300 3300 3300 3333 3333 3333 3333 3333 3365 3365 3365 3365 3333 3333 3333 4295 4295 4295 4295 4295 4190 4190 4190 4582 4582 4582 4582 4089 4041 4041 4041 4041 4041 4041 4041 4041 4041 4911 4842 4774 4774 4842 4842 4842 4911 4983 4983 5056 3948 3948 3994 3994 4041 4089 4190 4241 4295 4241 4241 0 0 0 0 0 0 0 0 0 0 0 0
0 0 0 0 0 0 0 0 0 0 0 0 0 0 0 0 0 0 0 0 0 0 0 0 0 0 0 0 0 0 0 0 0 0 0 0 0 0 0 0 0 0 0 0 0 0 0 0 0 0 0 0 0 0 0 0 0 0 0 0 0 0 0 0 0 0 0 0 0 0 0 0 0 0 0 0 5210 5210 5210 5291 5291 5291 5291 5291 5374 5460 5548 5640 5734 5832 5832 5832 5832 0 0 0 0 0 5640 5640 5640 5640 5832 5933 5933 0 2723 2723 2723 2723 2723 2701 2701 2701 2701 2701 2701 2701 2701 2701 2701 2701 2723 2723 2744 2835 2835 2835 2835 2835 2859 2859 2835 2835 2835 2835 2835 2859 2883 2883 2908 2908 2908 2933 2933 2859 2789 2789 2789 2789 2789 2789 2812 2812 2812 2812 2812 2789 2789 2789 2789 2789 2812 2812 2835 2835 2835 2859 2883 2908 2908 2908 2908 2908 2859 2835 2835 2859 2859 2859 2835 2835 2835 2859 2859 2859 2859 2859 2859 2835 2859 2859 2859 2859 2859 2859 2859 2859 2859 2859 2883 2859 2859 2859 2859 2859 2859 2859 2859 2859 2859 2883 2908 2908 2908 2908 2908 2908 2908 2908 2908 2908 2933 2933 2933 0 0 0 2129 2129 2129 2129 2129 2129 2143 2143 2143 2143 2143 2156 2156 2156 2170 2170 2156 2156 2156 2170 2170 2170 2170 2170 2170 2170 2184 2184 2184 2184 2184 2184 2184 2184 2184 2198 2198 2198 2198 2212 2212 2212 2198 2198 2198 2212 2212 2212 2226 2226 2226 2226 2226 2226 2226 2226 2226 2226 2241 2241 2241 2241 2241 2241 2241 2241 2241 2241 2241 2241 2241 2241 2256 2256 2256 2256 2256 2256 2256 2256 2256 0 5210 5210 5210 5210 5291 5291 5291 5291 5291 5291 5374 5291 5291 5291 5210 5210 5210 5132 5132 5132 5132 5132 5132 5132 5132 5132 5132 5132 5132 5132 5132 5132 5132 5132 5132 5132 5132 5210 5210 5210 5210 5210 5291 5291 5291 5291 2365 2365 2365 2365 2365 2381 2381 2398 2398 2398 2398 2398 2398 2398 2398 2398 2398 2398 2398 2398 2415 2415 2415 2432 2432 2432 2415 2415 2432 2432 2432 2432 2450 2450 2450 2450 2450 2450 2450 2450 2450 2467 2467 2467 2467 2467 2485 2485 2467 2467 2485 2485 2485 2485 2485 2503 2485 2485 2485 2467 2467 2467 2467 2467 2467 2467 2467 2467 2467 2485 0 0 0 0 0 0 0 0 0 0 4645 4582 4582 4582 4645 4645 4645 4645 4774 5374 5374 5374 5291 5291 5291 5210 5132 5132 5132 3576 3576 3614 3614 3614 3614 3614 3614 3614 3614 3614 3614 3614 3614 3614 3614 3614 3614 3614 3614 3614 3614 3614 3614 3614 3576 3576 3576 3576 3576 3576 3576 3576 3576 3539 3539 3539 3539 3539 3503 3468 3468 3503 3503 3503 3503 3503 3503 3539 3539 3539 3539 3539 3539 3539 3539 3539 3576 3576 3576 3576 3576 3576 3576 3576 3576 3576 3576 3576 3576 3576 3576 3576 3539 3503 3399 3333 3300 3300 3269 3269 3269 3269 3269 3269 3300 3300 3300 3300 3300 3300 3300 3300 3300 3300 3269 3269 6146 6146 6038 6038 6038 6038 6038 6038 6038 6038 6038 6038 3333 3333 3333 3333 3300 3300 3300 3333 3333 3333 3333 3365 3365 3365 3365 3365 3365 3300 3300 3333 4295 4295 4241 4241 4241 4190 4190 4190 4190 4041 4041 4041 4041 4041 4041 4041 4041 4041 4041 4041 3994 3994 4911 4911 4842 4842 4842 4842 4842 4911 4983 4983 5056 5056 3994 3994 3994 4089 4295 4295 4349 4349 4349 4349 0 0 0 0 0 0 0 0 0 0 0 0
0 0 0 0 0 0 0 0 0 0 0 0 0 0 0 0 0 0 0 0 0 0 0 0 0 0 0 0 0 0 0 0 0 0 0 0 0 0 0 0 0 0 0 0 0 0 0 0 0 0 0 0 0 0 0 0 0 0 0 0 0 0 0 0 0 0 0 0 0 0 0 0 0 0 0 0 5210 5210 5210 5291 5291 5210 5210 5291 5374 5460 5548 5640 5734 5832 5832 0 0 0 0 0 0 0 0 0 0 0 0 0 0 0 2789 2723 2701 2701 2701 2701 2701 2701 2701 2680 2680 2680 2680 2701 2701 2701 2701 2701 2723 2723 2723 2701 2701 2723 2723 2723 2723 2744 2744 2744 2767 2767 2789 2859 2883 2883 2883 2933 2933 2767 2767 2767 2767 2767 2767 2767 2789 2789 2789 2789 2789 2767 2767 2767 2767 2789 2789 2789 2789 2812 2835 2859 2859 2883 2883 2883 2883 2859 2859 2859 2859 2859 2859 2859 2859 2835 2835 2859 2859 2835 2835 2835 2835 2835 2835 2812 2812 2812 2835 2835 2835 2859 2859 2859 2859 2859 2859 2859 2859 2859 2859 2859 2859 2859 2859 2883 2908 2908 2908 2908 2883 2883 2908 2908 2908 2908 2933 2933 2933 2958 2958 0 2129 2129 2129 2129 2129 2143 2143 2143 2143 2143 2143 2143 2143 2156 2170 2170 2156 2156 2156 2170 2170 2170 2156 2156 2170 2170 2184 2184 2184 2184 2184 2184 2184 2184 2184 2184 2184 2184 2184 2212 2212 2212 2198 2198 2198 2212 2212 2212 2226 2226 2226 2226 2226 2226 2226 2226 2226 2226 2241 2241 2241 2241 2241 2241 2241 2241 2241 2241 2241 2241 2241 2241 2256 2256 2256 2256 2256 2271 2241 2241 2241 0 5210 5210 5210 5210 5291 5291 5291 5291 5291 5291 5291 5291 5291 5291 5210 5210 5210 5132 5132 5132 5132 5132 5132 5132 5132 5132 5132 5132 5132 5132 5132 5132 5132 5132 5132 5132 5132 5210 5210 5210 5210 5210 5291 5291 5291 5291 2365 2365 2365 2365 2365 2381 2381 2398 2398 2398 2398 2398 2398 2398 2398 2398 2398 2398 2398 2398 2415 2415 2415 2432 2432 2432 2415 2415 2415 2432 2432 2432 2432 2432 2432 2450 2450 2450 2450 2450 2467 2467 2467 2467 2485 2485 2485 2485 2467 2467 2485 2485 2485 2503 2503 2503 2503 2503 2503 2485 2485 2485 2467 2467 2467 2467 2467 2467 2467 2485 0 0 0 0 0 0 0 0 0 4582 4582 4582 4582 4582 4645 4645 4645 4645 4911 5291 5374 5374 5374 5374 5291 5291 5210 5210 5210 5210 3614 3614 3614 3614 3614 3614 3614 3653 3614 3614 3653 3653 3653 3653 3614 3614 3614 3614 3614 3614 3614 3614 3614 3614 3614 3614 3576 3576 3576 3576 3576 3576 3539 3539 3539 3539 3503 3503 3503 3468 3468 3503 3503 3503 3503 3503 3539 3539 3539 3539 3539 3539 3539 3539 3539 3576 3576 3576 3576 3576 3576 3576 3576 3576 3576 3576 3576 3576 3576 3576 3576 3576 3539 3468 3399 3333 3300 3300 3269 3269 3269 3269 3269 3269 3300 3300 3300 3300 3300 3300 3300 3300 3300 3300 3269 3269 3269 6146 6038 6038 6038 6038 6038 6038 6038 6038 6038 3365 3333 3333 3365 3333 3333 3300 3300 3333 3365 3365 3365 3365 3365 3365 3365 3365 3365 3300 3300 4295 4295 4295 4241 4241 4241 4190 4190 4190 4190 4190 4041 4041 4041 4041 4041 4041 4041 4041 4041 4041 3994 3994 5056 4911 4911 4911 4911 4911 4911 4911 4983 4983 4983 4983 3994 3994 4041 4190 4349 4349 4349 4405 4405 4405 0 0 0 0 0 0 0 0 0 0 0 0
0 0 0 0 0 0 0 0 0 0 0 0 0 0 0 0 0 0 0 0 0 0 0 0 0 0 0 0 0 0 0 0 0 0 0 0 0 0 0 0 0 0 0 0 0 0 0 0 0 0 0 0 0 0 0 0 0 0 0 0 0 0 0 0 0 0 0 0 0 0 0 0 0 0 0 0 5210 5210 5210 5291 5210 5210 5210 5210 5291 5291 0 0 0 0 0 0 0 0 0 0 0 0 0 0 0 0 0 0 0 0 2789 2723 2701 2701 2701 2701 2701 2701 2680 2680 2680 2680 2680 2680 2680 2680 2680 2701 2701 2680 2680 2680 2701 2701 2701 2701 2701 2723 2723 2723 2723 2723 2723 2723 2723 2723 2789 2789 2723 2723 2723 2744 2767 2767 2767 2767 2767 2789 2789 2789 2744 2744 2767 2767 2767 2767 2789 2789 2789 2812 2835 2859 2859 2883 2883 2883 2883 2859 2859 2859 2859 2859 2859 2859 2859 2859 2859 2859 2859 2835 2835 2835 2835 2835 2835 2812 2812 2812 2835 2835 2835 2835 2859 2859 2859 2859 2859 2859 2859 2859 2859 2859 2859 2859 2859 2883 2883 2908 2908 2908 2883 2883 2908 2908 2908 2908 2933 2933 2933 2958 2958 0 2129 2129 2129 2129 2129 2143 2129 2129 2143 2143 2143 2143 2143 2156 2170 2170 2156 2156 2156 2156 2170 2170 2156 2156 2156 2170 2184 2184 2184 2184 2184 2184 2184 2184 2184 2184 2184 2184 2184 2212 2212 2212 2212 2212 2212 2212 2212 2212 2226 2226 2226 2226 2226 2226 2226 2212 2212 2241 2241 2241 2241 2241 2241 2241 2241 2241 2241 2241 2241 2241 2241 2241 2256 2256 2256 2256 2256 2271 2241 2241 0 0 0 5210 5210 5210 5291 5291 5291 5291 5291 5291 5291 5291 5291 5291 5132 5132 5210 5132 5132 5132 5132 5132 5132 5132 5132 5132 5132 5132 5132 5132 5132 5132 5132 5132 5132 5132 5210 5210 5210 5210 5210 5210 5291 5291 5291 5291 2365 2365 2365 2365 2381 2381 2381 2398 2398 2398 2398 2398 2381 2381 2381 2381 2398 2398 2398 2398 2415 2415 2415 2432 2432 2432 2415 2415 2415 2415 2415 2432 2432 2415 2415 2432 2432 2432 2432 2450 2467 2467 2467 2467 2485 2485 2485 2467 2467 2467 2467 2485 2503 2503 2522 2522 2503 2503 2503 2485 2485 2485 2467 2467 2485 2485 2485 2485 2485 2503 2522 0 0 0 0 0 0 0 4582 4582 4582 4582 4582 4582 4645 4645 4708 4708 4842 5291 5291 5374 5374 5374 5374 5374 5374 5374 5374 5374 5374 5374 5374 5374 5374 5374 5374 5374 3948 3948 3816 3774 3774 3774 3692 3653 3653 3653 3653 3653 3653 3653 3653 3653 3614 3614 3614 3614 3614 3576 3576 3576 3539 3539 5460 5548 3503 3503 3503 3468 3468 3503 3503 3503 3503 3503 3539 3539 3503 3503 3539 3539 3576 3576 3576 3576 3576 3576 3576 3576 3576 3576 3576 3576 3576 3576 3576 3576 3576 3539 3539 3539 3468 3399 3365 3333 3300 3300 3300 3300 3300 3300 3300 3300 3300 3333 3333 3333 3333 3333 3300 3300 3300 3300 3269 3269 3269 3300 6038 6038 6038 6038 5933 5933 6146 6146 3399 3333 3333 3333 3365 3333 3333 3333 3333 3365 3399 3399 3399 3399 3399 3365 3365 3365 3365 3365 4645 4645 4349 4295 4241 4241 4241 4190 4190 4190 4190 4139 4139 4089 4089 4089 4089 4089 4089 4041 4041 4041 4041 4041 4983 4983 4983 4911 4911 4983 4983 4983 4983 4983 4983 4983 0 0 0 0 4405 4405 4405 4463 4463 4463 0 0 0 0 0 0 0 0 0 0 0 0
0 0 0 0 0 0 0 0 0 0 0 0 0 0 0 0 0 0 0 0 0 0 0 0 0 0 0 0 0 0 0 0 0 0 0 0 0 0 0 0 0 0 0 0 0 0 0 0 0 0 0 0 0 0 0 0 0 0 0 0 0 0 0 0 0 0 0 0 0 0 0 0 0 0 0 5210 5210 5210 5210 5210 5210 5210 5210 5210 5210 5210 5210 0 0 0 0 0 0 0 0 0 0 0 0 0 0 0 0 0 0 0 0 2701 2701 2701 2680 2680 2680 2701 2680 2680 2680 2680 2680 2680 2680 2680 2680 2680 2680 2680 2680 2680 2680 2680 2680 2680 2680 2701 2701 2701 2701 2701 2701 2701 2701 2701 2723 2723 2723 2723 2723 2744 2744 2744 2744 2744 2767 2767 2767 2767 2744 2744 2767 2767 2767 2767 2789 2789 2812 2812 2835 2859 2859 2908 2883 2883 2883 2859 2859 2859 2859 2859 2859 2859 2859 2859 2859 2859 2859 2859 2859 2859 2835 2835 2835 2835 2812 2812 2835 2835 2835 2835 2859 2859 2859 2859 2859 2859 2859 2859 2859 2883 2883 2883 2883 2883 2883 2908 2908 2908 2908 2908 2908 2908 2933 2933 2933 2933 2933 2958 2958 2958 2129 2129 2129 2129 2129 2129 2129 2129 2143 2143 2143 2143 2143 2143 2143 2156 2156 2143 2143 2156 2156 2170 2156 2156 2156 2170 2184 2184 2184 2184 2184 2184 2184 2184 3010 3010 3010 2198 2198 2212 2198 2198 2212 2212 2212 2212 2212 2241 2241 2226 2226 2241 2241 2226 2226 2212 2212 2198 2198 2212 2212 2212 2256 2256 2256 2256 2256 2256 2256 2256 2256 2256 2256 2256 2256 2256 2271 2271 2241 2241 0 0 0 5210 5210 5210 5291 5291 5291 5291 5291 5291 5291 5291 5291 5291 5132 5132 5210 5132 5132 5132 5132 5132 5132 5132 5132 5132 5132 5132 5132 5132 5132 5132 5132 5132 5132 5210 5210 5210 5210 5210 5210 5210 5210 5210 5291 5291 2365 2365 2365 2365 2381 2381 2381 2398 2398 2398 2398 2398 2381 2381 2381 2381 2398 0 2432 2415 2415 2415 2415 2432 2415 2415 2415 2415 2415 2415 2415 2432 2432 2415 2415 2432 2415 2415 2398 2398 2415 2467 2467 2467 2485 2485 0 2467 2467 2467 2467 2503 2503 2522 2522 2541 2541 2503 2503 2485 2485 2485 2485 2485 2485 2485 2503 2485 2485 2503 2503 0 0 0 0 0 0 0 4582 4582 4582 4582 4582 4582 4645 4645 4645 4645 4774 5291 5291 5374 5374 5374 5374 5374 5374 5374 5374 5374 5374 5374 5374 5374 5374 5374 5374 4089 3948 3948 3994 3903 3903 3948 3903 3859 3859 3903 3903 3859 3816 3816 3774 3653 3653 3614 3614 3614 3614 3614 3614 3614 3614 5548 5548 5640 5640 5640 5548 5460 5460 5460 5548 5548 3539 3539 3539 3539 3503 3503 3539 3539 3576 3576 3576 3576 3576 3576 3576 3576 3576 3539 3539 3576 3576 3576 3576 3576 3576 3539 3539 3503 3365 1317 1312 1312 1307 1307 3300 3300 3300 3300 3300 3300 3300 3333 3333 3333 3333 3333 3333 3333 3300 3300 3300 3300 3300 3300 6038 6038 6038 6038 5933 5933 6146 3399 3365 3333 3333 3333 3365 3333 3333 3333 3333 3365 3399 3399 3399 3399 3399 3365 3365 3333 3333 3365 4774 4522 4349 4295 4241 4241 4241 4241 4190 4190 4190 4089 4089 4089 4089 4089 4089 4089 4089 4041 4041 4041 4041 4041 4983 4983 4911 4911 4911 4911 4911 4911 4983 4983 4983 4983 0 0 0 0 0 0 0 0 0 0 0 0 0 0 0 0 0 0 0 0 0 0
0 0 0 0 0 0 0 0 0 0 0 0 0 0 0 0 0 0 0 0 0 0 0 0 0 0 0 0 0 0 0 0 0 0 0 0 0 0 0 0 0 0 0 0 0 0 0 0 0 0 0 0 0 0 0 0 0 0 0 0 0 0 0 0 0 0 0 0 0 0 0 0 0 0 5291 5210 5210 5210 5291 5210 5210 5210 5210 5210 5210 5210 0 0 0 0 0 0 0 0 0 0 0 0 0 0 0 0 0 0 0 0 0 2701 2701 2701 2680 2680 2680 2701 2680 2680 2680 2680 2680 2680 2680 2680 2680 2680 2680 2680 2680 2680 2680 2680 2680 2680 2680 2701 2701 2701 2701 2701 2701 2701 2701 2701 2723 2723 2723 2723 2723 2744 2744 2744 2744 2744 2767 2767 2767 2767 2744 2744 2744 2744 2767 2767 2789 2789 2812 2812 2835 2859 2883 2908 2883 2883 2883 2859 2859 2859 2859 2859 2859 2859 2859 2859 2859 2859 2859 2859 2859 2859 2859 2835 2835 2835 2835 2835 2835 2835 2835 2859 2859 2859 2859 2859 2859 2859 2859 2859 2859 2883 2883 2883 2883 2883 2883 2908 2908 2908 2908 2908 2933 2933 2933 2933 2933 2933 2958 2958 2958 2958 2129 2129 2129 2129 2129 2129 2129 2129 2143 2143 2143 2143 2143 2143 2143 2156 2156 2143 2143 2156 2156 2933 2933 2933 2933 2933 2184 2184 2184 2184 2184 2184 3010 3010 3010 3010 3010 3010 2212 2212 2198 2198 2212 2212 2212 2212 2212 2241 2241 2256 2256 3064 3064 3064 0 0 2184 2184 2198 2198 2212 2212 2226 2226 2241 2241 2241 2241 2256 2256 2256 2256 2256 2256 2256 2256 2271 2271 2241 2241 0 0 0 5210 5210 5210 5291 5291 5374 5374 5374 5291 5291 5291 5291 5291 5132 5132 5210 5210 5132 5132 5132 5132 5210 5210 5132 5132 5132 5132 5132 5132 5210 5210 5210 5132 5132 5210 5210 5132 5132 5210 5210 5210 5210 5210 5210 5210 2365 2365 2365 2365 2381 2381 2381 2398 2398 2398 2381 2381 2381 2381 2381 2381 2398 0 0 0 0 0 0 0 2415 2415 0 0 0 2432 2432 2432 0 0 0 0 2415 2415 2398 2398 2415 0 0 0 0 0 0 0 0 0 0 0 0 0 2503 2503 2503 2503 2503 2503 2485 2485 2485 2485 2485 2485 2503 2503 2503 2503 2503 0 0 0 0 0 0 0 0 0 4582 4582 4645 4645 4645 4645 4645 4645 4774 5291 5374 5374 5374 5374 5374 5374 5374 5374 5374 5374 5374 5374 5374 5374 5374 5374 5460 4041 4041 4041 4041 4041 4041 4041 4041 3903 3903 3903 3903 3903 3948 3948 3948 3948 3948 5548 5460 3653 3653 3653 5460 5460 5460 5460 5548 5548 5640 5640 5548 5460 5460 5548 5548 5548 5460 5460 3539 3539 3468 3468 3503 3539 3539 3576 3576 3576 3576 3576 3539 3539 3576 3539 3539 3576 3576 3576 3576 3576 3576 3300 3300 1317 1317 1317 1312 1312 1307 1307 3300 3300 3300 3300 3300 3300 3300 3333 3333 3333 3333 3333 3333 3333 3333 3333 3300 3300 3300 3300 3365 6038 6038 6038 5933 5933 3433 3399 3365 3333 3333 3333 3365 3333 3333 3333 3333 3365 3399 3399 3399 3399 3399 3365 3365 3333 3333 4774 4774 4522 4405 4295 4295 4241 4241 4241 4190 4190 4190 4089 4089 4089 4089 4089 4089 4089 4089 4089 4089 4089 4089 4190 4190 4911 4842 4842 4842 4911 4911 4911 4911 4983 4983 4983 4983 0 0 0 0 0 0 0 0 0 0 0 0 0 0 0 0 0 0 0 0 0
0 0 0 0 0 0 0 0 0 0 0 0 0 0 0 0 0 0 0 0 0 0 0 0 0 0 0 0 0 0 0 0 0 0 0 0 0 0 0 0 0 0 0 0 0 0 0 0 0 0 0 0 0 0 0 0 0 0 0 0 0 0 0 0 0 0 0 0 0 0 0 0 0 0 5210 5210 5210 5210 5210 5291 5291 5210 5210 5210 5210 5210 5291 0 0 0 0 0 0 0 0 0 0 0 0 0 0 0 0 0 0 0 0 2767 2701 2701 2701 2701 2701 2701 2680 2680 2680 2680 2680 2701 2680 2680 2680 2701 2701 2680 2680 2680 2680 2680 2680 2680 2680 2701 2701 2701 2701 2701 2701 2701 2701 2701 2723 2723 2723 2723 2723 2723 2744 2744 2744 2744 2767 2767 2767 2767 2744 2744 2744 2744 2767 2767 2789 2789 2789 2812 2835 2859 2883 2908 2908 2883 2883 2859 2859 2859 2859 2859 2859 2859 2859 2859 2859 2859 2859 2859 2859 2859 2859 2835 2835 2835 2835 2835 2835 2835 2835 2859 2859 2859 2859 2859 2859 2859 2859 2859 2859 2883 2883 2883 2883 2883 2883 2908 2908 2908 2908 2908 2933 2933 2933 2933 2933 2958 2958 2958 3010 3010 2129 2129 2129 2129 2129 2143 2143 2143 2143 2143 2143 2143 2143 2143 2958 2958 2958 2958 2958 2958 2958 2933 2933 2933 2933 2933 2933 2933 2958 2958 2984 3010 3010 3010 3010 3010 3010 3010 3010 3010 3010 3010 2212 2212 2212 2212 3037 3037 3037 3064 3064 3064 3064 3092 0 2184 2184 2184 2198 2198 2212 2212 2226 2226 2241 2241 2241 2241 2256 2256 2256 2256 2256 2256 2256 2271 2271 2271 2256 2256 2256 0 0 5291 5291 5291 5291 5291 5374 5374 5374 5291 5291 5291 5291 5291 5210 5210 5210 5210 5210 5210 5210 5210 5210 5210 5132 5132 5210 5132 5132 5210 5210 5210 5210 5132 5132 5210 5210 5132 5132 5210 5210 5210 5210 5210 5210 5210 2365 2365 2365 2381 2381 2381 2381 2381 2381 2398 2381 2381 2381 2381 2381 2381 0 0 0 0 0 0 0 0 0 0 0 0 0 0 0 0 0 0 0 0 0 0 0 0 0 0 0 0 0 0 0 0 0 0 0 0 0 0 2503 2503 2503 2503 2503 2485 2485 2485 2485 2485 2503 2503 2503 2503 2503 2503 2503 0 0 0 0 0 0 0 0 0 0 4708 4645 4645 4645 4645 4708 4708 4842 5291 5374 5374 5374 5374 5374 5374 5374 5374 5374 5374 5374 5374 5374 5374 5460 5460 5460 4041 4041 4041 4089 4089 4089 4041 4041 3948 3948 3948 3948 3948 3994 4041 4041 4041 4041 4041 5460 5460 5460 5460 5460 5460 5460 5460 5548 5548 5548 5548 5548 5460 5460 5548 5548 5460 5460 5460 5548 5548 3468 3468 3468 3468 3539 3576 3576 3576 3576 3576 3539 3539 3576 3539 3539 3576 3576 3576 3576 3576 0 1312 1312 1312 1317 1317 1317 1312 1307 1307 3300 3300 3300 3300 3300 3300 3300 3333 3333 3333 3333 3365 3365 3333 3333 3333 3300 3300 3300 3333 3365 3365 3365 3399 3433 3433 3399 3399 3399 3333 3333 3333 3365 3365 3365 3365 3365 3399 3399 3399 3399 3399 3399 3399 3333 3300 3300 3300 4522 4522 4405 4349 4349 4295 4295 4295 4241 4190 4190 4139 4139 4139 4139 4139 4139 4139 4139 4139 4089 4089 4139 4190 4241 4911 4708 4708 4774 4842 4911 4911 4911 4983 4983 0 0 0 0 0 0 0 0 0 0 0 0 0 0 0 0 0 0 0 0 0 0 0
0 0 0 0 0 0 0 0 0 0 0 0 0 0 0 0 0 0 0 0 0 0 0 0 0 0 0 0 0 0 0 0 0 0 0 0 0 0 0 0 0 0 0 0 0 0 0 0 0 0 0 0 0 0 0 0 0 0 0 0 0 0 0 0 0 0 0 0 0 0 0 0 0 0 5210 5210 5210 5210 5210 5291 5291 5210 5210 5210 5210 5210 5291 5291 0 0 0 0 0 0 0 0 0 0 0 0 0 0 0 0 0 0 0 2701 2701 2701 2701 2701 2701 2701 2701 2701 2701 2701 2701 2701 2701 2701 2701 2701 2701 2701 2701 2680 2680 2680 2680 2680 2701 2701 2701 2701 2701 2701 2701 2701 2701 2701 2723 2723 2723 2723 2723 2723 2744 2744 2767 2767 2767 2767 2767 2767 2744 2744 2744 2767 2767 2767 2789 2789 2789 2812 2835 2908 2958 2958 2933 2883 2859 2859 2859 2859 2859 2859 2859 2859 2859 2859 2859 2859 2859 2859 2859 2859 2859 2859 2835 2835 2835 2835 2835 2835 2835 2859 2859 2859 2859 2859 2859 2859 2859 2859 2859 2883 2883 2883 2883 2883 2883 2908 2908 2933 2908 2908 2933 2933 2958 2958 2958 2958 2958 2958 3010 3010 2129 2129 2129 2129 2129 2143 2143 2143 2143 2143 2143 2143 2143 2143 2933 2933 2958 2958 2958 2958 2933 2933 2933 2933 2933 2958 2933 2933 2958 2958 2984 2984 2984 3010 3010 3010 3010 3010 3010 3010 3010 3010 3010 3037 3037 3037 3037 3037 3064 3092 3064 3064 3092 0 0 0 0 0 0 0 0 0 0 2241 2241 2241 2241 2241 2256 2256 2256 2256 2271 2271 2271 2271 2271 2271 2271 2271 2271 0 0 5210 5210 5210 5291 5291 5374 5374 5374 5291 5291 5291 5210 5210 5132 5132 5132 5210 5210 5210 5210 5210 5210 5210 5210 5210 5210 5210 5210 5210 5210 5210 5210 5210 5210 5210 5210 5210 5210 5210 5210 5210 5210 5210 5291 5291 2381 2381 2381 2381 2381 2381 2381 2381 2381 2398 2398 2398 2398 2398 2398 2415 0 0 0 0 0 0 0 0 0 0 0 0 0 0 0 0 0 0 0 0 0 0 0 0 0 0 0 0 0 0 0 0 0 0 0 0 0 0 2503 2503 2503 2503 2503 2485 2485 2485 2485 2485 2503 2503 2503 2503 2485 2485 2485 0 0 0 0 0 0 0 0 0 0 4708 4645 4645 4645 4708 4774 4774 4911 5291 5374 5374 5374 5374 5374 5374 5374 5374 5374 5374 5374 5374 5374 5374 5460 4295 4295 4089 4089 4089 4089 4089 4089 4089 4089 4041 4041 4041 4041 4041 4041 4041 4041 4041 4041 4041 5460 5460 5460 5460 5460 5460 5460 5460 5548 5548 5548 5548 5548 5548 5548 5548 5548 5460 5460 5460 5548 5548 3468 3468 3468 3468 0 0 0 0 0 0 0 0 0 0 0 0 0 0 0 0 0 1312 1312 1312 1317 1317 1317 1317 1312 1312 3300 3300 3300 3300 3300 3300 3333 3333 3333 3333 3365 3365 3365 3365 3365 3365 3333 3333 3333 3333 3365 3365 3365 3399 3399 3399 3399 3399 3365 3365 3365 3365 3365 3365 3365 3399 3399 3433 3433 3433 3433 3433 3399 3399 3300 3300 3300 3300 4522 4463 4405 4405 4349 4295 4295 4295 4241 4190 4190 4139 4139 4139 4139 4139 4139 4139 4139 4139 4139 4139 4139 4190 4241 4241 4708 4708 4774 4842 4911 4911 4911 4911 4190 0 0 0 0 0 0 0 0 0 0 0 0 0 0 0 0 0 0 0 0 0 0 0
0 0 0 0 0 0 0 0 0 0 0 0 0 0 0 0 0 0 0 0 0 0 0 0 0 0 0 0 0 0 0 0 0 0 0 0 0 0 0 0 0 0 0 0 0 0 0 0 0 0 0 0 0 0 0 0 0 0 0 0 0 0 0 0 0 0 0 0 0 0 0 0 0 0 5132 5132 5132 5132 5210 5210 5210 5210 5210 5210 5210 5210 5210 5210 5210 0 0 0 0 0 0 0 0 0 0 3238 3238 3238 3238 3238 0 0 0 2744 2744 2701 2701 2701 2701 2701 2701 2701 2701 2701 2701 2701 2701 2701 2701 2701 2701 2701 2701 2680 2680 2680 2680 2680 2701 2701 2701 2701 2701 2701 2701 2701 2723 2723 2723 2723 2723 2723 2723 2723 2744 2744 2767 2767 2767 2767 2767 2767 2744 2744 2767 2767 2767 2767 2789 2789 2812 2835 2859 2933 3010 3010 2958 2883 2859 2859 2859 2859 2859 2859 2859 2859 2859 2859 2859 2859 2859 2859 2859 2859 2859 2859 2859 2835 2835 2835 2835 2835 2859 2859 2859 2859 2859 2859 2859 2859 2883 2883 2883 2883 2883 2883 2883 2908 2908 2908 2908 2933 2933 2933 2933 2958 2958 2958 2958 2958 2958 2984 3010 3010 2129 2129 2129 2129 2129 2143 2143 2143 2143 2143 2143 2143 2143 2958 2933 2933 2958 2958 2958 2958 2933 2933 2933 2933 2933 2958 2933 2933 2958 2958 2984 2984 2984 2984 2984 3010 3010 3010 3010 3010 3010 3010 3010 3037 3037 3037 3037 3037 3064 3092 3064 3064 3092 0 0 0 0 0 0 0 0 0 0 0 2241 2241 2256 2256 2271 2271 2271 2271 2271 2271 2271 2271 2271 2271 2271 2286 2286 0 0 5210 5210 5210 5291 5291 5374 5374 5291 5291 5291 5291 5210 5210 5132 5132 5132 5132 5132 5132 5132 5132 5210 5210 5132 5132 5210 5210 5210 5210 5210 5210 5210 5210 5210 5210 5210 5210 5210 5210 5210 5210 5210 5210 5291 5291 5291 2398 2398 2381 2381 2381 2381 2381 2398 2398 2398 2398 2398 2398 2398 0 0 0 0 0 0 0 0 0 0 0 0 0 0 0 0 0 0 0 0 0 0 0 0 0 0 0 0 0 0 0 0 0 0 0 0 0 0 0 0 0 0 2485 2485 2485 2485 2485 2485 2485 2503 2503 2522 2522 2485 2485 2485 2503 0 0 0 0 0 0 0 0 0 0 4645 4645 4645 4708 4774 4774 4842 5291 5374 5374 5374 5374 5374 5374 5374 5374 5374 5374 5374 5374 5374 5374 5460 4295 4295 4089 4089 4089 4089 4089 4089 4089 4089 4089 4089 4041 4041 4089 4089 4089 4089 4089 4041 4041 5460 5460 5460 5460 5460 5460 5460 5460 5548 5548 5548 4295 4295 5548 5548 5548 5548 5548 5460 5460 5548 5548 4190 4190 4089 4089 4089 0 0 0 0 0 0 0 0 0 0 0 0 4295 4295 4295 4295 1312 1312 1312 1317 1317 1317 1317 1312 1312 3300 3300 3300 3300 3300 3333 3333 3333 3365 3365 3365 3365 3365 3365 3365 3365 3333 3333 3333 3333 3365 3365 3365 3399 3399 3399 3399 3399 3365 3333 3333 3365 3365 3399 3399 3399 3399 3433 3433 3433 3433 3433 3399 3399 3300 3300 3300 4522 4463 4463 4405 4405 4349 4295 4295 4295 4241 4190 4190 4139 4139 4139 4139 4139 4139 4139 4139 4139 4139 4139 4190 4190 4241 4295 4295 4295 4405 4842 4911 4911 4139 4139 4190 4190 4190 4241 0 0 0 0 0 0 0 0 0 0 0 0 0 0 0 0 0 0 0 0
0 0 0 0 0 0 0 0 0 0 0 0 0 0 0 0 0 0 0 0 0 0 0 0 0 0 0 0 0 0 0 0 0 0 0 0 0 0 0 0 0 0 0 0 0 0 0 0 0 0 0 0 0 0 0 0 0 0 0 0 0 0 0 0 0 0 0 0 0 0 0 0 0 0 5132 5132 5132 5132 5210 5210 5210 5210 5210 5210 5132 5132 5210 5210 5210 0 0 0 0 0 0 0 0 0 3208 3208 3238 3238 3238 3238 3238 3238 3238 2723 2723 2723 2701 2701 2701 2701 2701 2701 2701 2701 2701 2701 2701 2701 2701 2701 2701 2701 2701 2701 2701 2701 2701 2701 2701 2701 2701 2701 2701 2701 2701 2723 2723 2723 2723 2723 2723 2723 2723 2723 2744 2744 2767 2767 2767 2767 2767 2767 2744 2744 2767 2767 2767 2767 2789 2789 2812 2835 2859 2933 2958 2984 3010 2984 2883 2859 2859 2859 2859 2859 2859 2859 2859 2859 2859 2859 2859 2859 2859 2859 2859 2859 2859 2835 2835 2835 2835 2835 2859 2859 2859 2859 2859 2859 2859 2859 2883 2883 2883 2883 2883 2908 2908 2908 2908 2908 2908 2933 2933 2933 2933 2933 2958 2958 2958 2958 2984 2984 3010 3010 2143 2143 2143 2143 2143 2143 2143 2143 2143 2143 2143 2143 2143 2984 2933 2933 2958 2958 2958 2958 2958 2958 2933 2933 2958 2958 2958 2958 2958 2958 2984 2984 2984 2984 2984 3010 3010 3010 3010 3010 3010 3010 3010 3010 3037 3037 3037 3037 3064 3092 3092 3092 3120 0 0 0 0 0 0 0 0 0 0 0 0 0 0 2271 2271 2271 2271 2271 2271 2271 2271 2271 2271 2286 2286 2286 2286 2301 0 0 5210 5210 5291 5291 5374 5374 5291 5291 5291 5291 5210 5210 5132 5132 5132 5132 5132 5132 5132 5132 5210 5210 5132 5132 5210 5210 5210 5210 5210 5210 5210 5210 5210 5210 5210 5210 5210 5210 5210 5210 5210 5210 5291 5291 2450 2415 2415 2381 2381 2381 2381 2381 2398 2398 2398 2398 2398 2398 2398 0 0 0 0 0 0 0 0 0 0 0 0 0 0 0 0 0 0 0 0 0 0 0 0 0 0 0 0 0 0 0 0 0 0 0 0 0 0 0 0 0 0 2485 2485 2485 2485 2485 2485 2485 2503 2503 2522 2522 2503 2503 2503 2503 0 0 0 0 0 0 0 0 0 0 4708 4645 4645 4708 4708 4708 4774 5291 5291 5374 5374 5374 5291 5291 5374 5374 5374 5374 5374 5374 5374 5374 5460 4295 4139 4139 4089 4089 4089 4089 4089 4089 4089 4089 4089 4089 4089 4089 4089 4089 4089 4089 4089 4089 5460 5460 5460 5460 5460 5460 5460 5548 5548 5548 4241 4241 4241 4190 4190 4190 4190 4041 4041 4089 4190 4190 4190 4190 4089 0 0 0 0 0 0 0 0 0 0 0 0 0 4295 4295 4295 4295 4295 4349 1312 1312 1312 1317 1317 1317 1317 1317 3300 3333 3333 3333 3333 3333 3365 3365 3365 3365 3399 3399 3399 3399 3365 3365 3333 3333 3333 3333 3365 3365 3399 3399 3399 3399 3399 3365 3365 3333 3333 3365 3399 3399 3399 3399 3433 3433 3433 3433 3433 3433 3433 3399 3399 3399 4522 4463 4405 4405 4405 4405 4349 4295 4295 4349 4241 4190 4190 4139 4139 4139 4139 4139 4139 4139 4139 4139 4139 4139 4139 4139 4190 4241 4190 4190 4190 4139 4139 4190 4139 4139 4139 4139 4139 4190 0 0 0 0 0 0 0 0 0 0 0 0 0 0 0 0 0 0 0 0
0 0 0 0 0 0 0 0 0 0 0 0 0 0 0 0 0 0 0 0 0 0 0 0 0 0 0 0 0 0 0 0 0 0 0 0 0 0 0 0 0 0 0 0 0 0 0 0 0 0 0 0 0 0 0 0 0 0 0 0 0 0 0 0 0 0 0 0 0 0 0 0 0 0 0 0 0 0 0 5210 5210 5210 5210 5210 5132 5132 5132 5132 5132 5210 0 0 0 0 0 0 0 0 3208 3208 3238 3238 3238 3238 3238 3238 3238 3269 2723 2723 2723 2723 2723 2701 2701 2701 2701 2701 2701 2701 2701 2701 2701 2701 2701 2701 2701 2701 2701 2701 2701 2701 2701 2701 2701 2701 2701 2701 2701 2723 2723 2723 2723 2723 2723 2723 2723 2744 2744 2744 2767 2767 2767 2767 2767 2789 2767 2767 2767 2767 2767 2767 2789 2789 2812 2835 2859 2933 2958 2984 3010 2984 2883 2859 2859 2859 2859 2859 2859 2859 2859 2859 2859 2859 2859 2859 2859 2859 2859 2859 2859 2859 2859 2859 2859 2859 2859 2859 2859 2859 2859 2859 2859 2859 2883 2883 2883 2883 2908 2908 2908 2908 2908 2908 2908 2933 2933 2933 2933 2933 2958 2958 2958 2984 2984 3010 3064 3064 2129 2129 2129 2129 2143 2143 2143 2143 2143 2143 2143 2143 3010 2984 2933 2933 2958 2958 2958 2958 2958 2958 2958 2958 2958 2958 2958 2958 2958 2958 2984 2984 2984 2984 2984 3010 3010 3010 3010 3010 3010 3010 3010 3010 3037 3037 3037 3037 3064 3092 3064 3064 3092 3092 0 0 0 0 0 0 0 0 0 0 0 0 0 2271 2271 2271 2271 2271 2271 2271 2271 2271 2271 2286 2286 2286 2301 2301 0 5291 5291 5291 5291 5291 5374 5374 5291 5291 5291 5291 5210 5210 5132 5132 5132 5132 5132 5132 5132 5132 5210 5210 5132 5132 5210 5210 5210 5210 5132 5132 5210 5210 5210 5210 5210 5210 5210 5210 5210 5210 5291 5291 5291 5291 2450 2450 2415 2381 2381 2381 2381 2381 2398 2398 2398 2398 2398 2398 2398 0 0 0 0 0 0 0 0 0 0 0 0 0 0 0 0 0 0 0 0 0 0 0 0 0 0 0 0 0 0 0 0 0 0 0 0 0 0 0 0 0 0 0 2485 2485 2485 2485 2485 2485 2503 2503 2522 2522 2503 2503 2522 2522 0 0 0 0 0 0 0 0 0 0 0 4708 4645 4645 4708 4708 4774 5291 5291 5374 5374 5374 5291 5291 5291 5374 5374 5374 5374 5374 5374 5374 5460 5460 4139 4139 4089 4089 4089 4089 4089 4089 4089 4089 4089 4089 4089 4089 4089 4089 4089 4089 4089 4842 5460 5460 5460 5460 5460 5460 5460 5548 5548 4295 4241 4241 4241 4190 4190 4190 4190 4041 4041 4089 4139 4190 4190 4190 4089 4089 4089 4089 0 0 0 0 4190 4190 4241 4241 4241 4241 4241 4241 4241 4241 4295 4349 1312 1312 1312 1317 3300 3300 3300 3300 3300 3300 3333 3333 3333 3333 3333 3333 3365 3365 3399 3399 3399 3399 3365 3365 3333 3333 3333 3365 3365 3399 3399 3399 3399 3399 3399 3365 3365 3333 3333 3365 3399 3399 3399 3399 3433 3433 3433 3399 3399 3433 3399 3399 3399 3399 4405 4405 4405 4241 4241 4349 4349 4349 4349 4349 4295 4241 4190 4139 4139 4139 4139 4139 4139 4139 4139 4139 4139 4139 4139 4139 4190 4241 4190 4190 4190 4139 4139 4190 4139 4139 4139 4139 4139 4190 4190 4190 4241 0 0 0 0 0 0 0 0 0 0 0 0 0 0 0 0 0
0 0 0 0 0 0 0 0 0 0 0 0 0 0 0 0 0 0 0 0 0 0 0 0 0 0 0 0 0 0 0 0 0 0 0 0 0 0 0 0 0 0 0 0 0 0 0 0 0 0 0 0 0 0 0 0 0 0 0 0 0 0 0 0 0 0 0 0 0 0 0 0 0 0 0 0 0 0 0 5210 5210 5210 5210 5132 5132 5132 5132 5056 5056 5132 5210 0 0 0 0 0 0 0 3208 3208 3208 3208 3238 3238 3238 3238 3238 3269 3333 2723 2723 2723 2723 2723 2701 2701 2723 2701 2701 2701 2701 2701 2723 2701 2701 2701 2701 2701 2701 2701 2701 2701 2701 2701 2701 2701 2701 2701 2701 2723 2723 2723 2723 2723 2723 2723 2723 2744 2744 2744 2767 2767 2767 2767 2789 2789 2767 2767 2767 2767 2767 2767 2789 2812 2812 2835 2859 2908 2958 3010 3010 3037 2883 2859 2859 2859 2859 2859 2859 2859 2859 2859 2859 2859 2859 2859 2859 2859 2859 2859 2859 2859 2859 2859 2859 2859 2859 2859 2859 2859 2859 2859 2859 2859 2883 2883 2883 2908 2908 2908 2908 2908 2908 2908 2908 2933 2933 2933 2933 2933 2958 2958 2958 2984 3010 3037 3064 3064 2129 2129 2129 2129 2129 2143 2143 2143 2143 2143 2143 2143 3010 3010 2958 2958 2958 2958 2958 2958 2958 2958 2958 2958 2958 2958 2958 2958 2958 2958 2984 2984 2984 2984 3010 3010 3010 3010 3010 3010 3010 3010 3010 3037 3037 3037 3037 3037 3064 3092 3064 3064 3092 3092 3120 0 0 0 0 0 0 0 0 0 0 0 0 0 2271 2271 2271 2271 2271 2271 2271 2286 2286 2286 2286 2286 2301 2301 5374 5291 5291 5291 5291 5291 5374 5374 5291 5291 5291 5291 5210 5210 5132 5132 5132 5132 5132 5132 5132 5210 5210 5210 5210 5210 5210 5210 5210 5210 5132 5132 5210 5210 5210 5210 5210 5210 5210 5210 5291 5291 5291 5291 5291 5832 2450 2450 2432 2415 2381 2381 2381 2381 2398 2398 2398 2398 2398 2415 2415 0 0 0 0 0 0 0 0 0 0 0 0 0 0 0 0 0 0 0 0 0 0 0 0 0 0 0 0 0 0 0 0 0 0 0 0 0 0 0 0 0 0 0 2485 2485 2485 2503 2485 2485 2503 2503 2503 2503 2503 2503 2522 2522 0 0 0 0 0 0 0 0 0 0 0 0 4645 4645 0 0 0 0 0 4405 4582 4582 5291 5291 5291 5374 5374 5374 5374 5374 5374 5374 4139 4139 4139 4139 4089 4089 4089 4089 4089 4089 4089 4089 4089 4089 4089 4089 4089 4089 4089 4089 4089 4842 5460 5460 5460 5460 5460 5460 5460 5548 5548 4295 4295 4295 4241 4241 4241 4241 4190 4139 4139 4139 4139 4190 4190 4190 4089 4089 4089 0 0 0 0 0 0 4190 4190 4190 4190 4190 4241 4241 4241 4241 4295 3300 3300 3269 3269 3269 3300 3300 3300 3300 3300 3300 3333 3333 3333 3333 3333 3333 3365 3365 3399 3399 3399 3399 3365 3365 3333 3333 3333 3365 3365 3399 3399 3399 3399 3399 3399 3365 3365 3365 3365 3365 3399 3399 3399 3433 3433 3433 3433 3399 3399 3433 3399 3399 3399 3399 4405 4405 4405 4241 4241 4241 4241 4349 4349 4349 4295 4241 4241 4139 4139 4139 4190 4190 4190 4139 4139 4190 4190 4190 4190 4190 4190 4241 4190 4190 4190 4139 4139 4190 4139 4139 4139 4190 4190 4190 4190 4190 4241 4241 4241 0 0 0 0 0 0 0 0 0 0 0 0 0 0 0
0 0 0 0 0 0 0 0 0 0 0 0 0 0 0 0 0 0 0 0 0 0 0 0 0 0 0 0 0 0 4911 4842 4842 4842 4911 4983 0 0 0 0 0 0 0 0 0 0 0 0 0 0 0 0 0 0 0 0 0 0 0 0 0 0 0 0 0 0 0 0 0 0 0 0 0 0 0 0 0 0 0 5210 5210 5210 5132 5132 5132 5132 5132 5056 5056 5056 5132 5132 5210 0 0 0 0 0 3208 3208 3208 3208 3238 3238 3238 3238 3238 3269 3269 2723 2723 2723 2723 2723 2723 2723 2723 2701 2701 2701 2723 2723 2723 2701 2701 2701 2701 2701 2701 2701 2701 2701 2701 2701 2701 2701 2701 2723 2723 2723 2723 2723 2744 2744 2744 2744 2744 2744 2744 2767 2767 2767 2767 2789 2789 2789 2767 2767 2767 2767 2767 2767 2789 2789 2812 2835 2859 2908 3037 3037 3037 3037 2933 2883 2859 2859 2859 2859 2859 2859 2859 2859 2859 2859 2859 2859 2859 2859 2859 2859 2859 2859 2859 2859 2859 2859 2859 2859 2859 2859 2859 2859 2859 2859 2859 2883 2883 2908 2908 2908 2908 2908 2908 2908 2908 2933 2933 2933 2933 2933 2958 2958 2958 2984 3010 3037 3037 3064 2129 2129 2129 2129 2129 2143 2156 2156 2156 2143 2143 2143 2143 3037 2958 2958 2958 2958 2958 2984 2984 2958 2958 2958 2958 2958 2958 2958 2958 2984 2984 2984 2984 2984 2984 2984 3010 3010 3010 3010 3010 3010 3010 3037 3037 3037 3037 3037 3064 3092 3092 3092 3092 3092 3120 0 0 0 0 0 0 0 0 0 0 0 0 0 2271 2271 2271 2271 2271 2271 2271 2286 2286 2286 2286 2286 2286 5374 5374 5374 5374 5291 5291 5291 5291 5291 5291 5291 5291 5291 5210 5210 5132 5132 5210 5210 5132 5132 5210 5210 5210 5210 5210 5210 5210 5210 5210 5210 5132 5132 5132 5132 5132 5210 5210 5210 5210 5210 5291 5291 5374 5460 5832 5832 2467 2467 2415 2415 2381 2381 2381 2381 2381 2398 2398 2398 2398 2398 2415 0 0 0 0 0 0 0 0 0 0 0 0 0 0 0 0 0 0 0 0 0 0 0 0 0 0 0 0 0 0 0 0 0 0 0 0 0 0 0 0 0 0 2522 2522 2503 2503 2503 2485 2485 2503 2503 2503 2503 2503 2503 2522 0 0 0 0 0 0 0 0 0 0 0 0 0 0 0 0 0 0 0 4405 4405 4582 4582 4582 4645 4645 4349 4349 5374 5374 5374 5374 4190 4139 4139 4139 4139 4089 4089 4089 4089 4089 4089 4089 4089 4089 4089 4089 4089 4089 4089 4089 4089 4089 4708 5460 5460 5460 5460 5460 5460 5460 5548 5548 4295 4295 4295 4241 4241 4241 4241 4241 4190 4190 4190 4190 4190 4190 4190 4139 4089 4089 4089 4089 4089 4089 4089 4089 4139 4190 4190 4190 4190 4241 4241 4241 4241 4295 3300 3300 3300 3300 3300 3300 3300 3300 3300 3300 3333 3333 3333 3333 3333 3333 3333 3365 3365 3399 3399 3399 3399 3399 3399 3365 3365 3365 3365 3365 3399 3399 3399 3399 3399 3399 3433 3433 3433 3399 0 0 3399 3399 3433 3433 3399 3399 3399 3399 3399 3433 3399 3399 4463 4405 4405 4241 4241 4241 4241 4241 4295 4295 4295 4241 4241 4241 4190 4190 4190 4190 4190 4190 4139 4139 4190 4190 4190 4190 4190 4190 4190 4190 4190 4190 4139 4139 4139 4139 4139 4139 4190 4190 4190 4190 4190 4241 4241 4241 4349 4349 0 0 0 0 0 0 0 0 0 0 0 0 0
0 0 0 0 0 0 0 0 0 0 0 0 0 0 0 0 0 0 0 0 0 0 0 0 0 0 0 0 0 0 4911 4842 4842 4842 4911 4911 4911 4983 0 0 0 0 0 0 0 0 0 0 0 0 0 0 0 0 0 0 0 0 0 0 0 0 0 0 0 0 0 0 0 0 0 0 0 0 0 0 0 0 0 0 5132 5132 5132 5132 5132 5132 5132 5056 5056 5056 5132 5132 5132 0 0 0 0 0 3208 3208 3238 3238 3238 3238 3238 3238 3269 3269 2723 2723 2723 2723 2723 2723 2723 2723 2723 2701 2701 2701 2723 2723 2723 2723 2701 2701 2701 2701 2701 2701 2701 2701 2701 2701 2701 2701 2701 2723 2723 2723 2723 2744 2744 2744 2744 2744 2744 2744 2744 2767 2767 2767 2767 2789 2789 2789 2767 2767 2789 2767 2767 2789 2789 2789 2812 2835 2859 2883 2958 3010 3010 3010 2933 2883 2859 2859 2859 2859 2859 2859 2859 2859 2859 2859 2859 2859 2859 2859 2859 2859 2859 2859 2859 2859 2859 2859 2859 2859 2859 2859 2859 2859 2859 2859 2859 2883 2883 2908 2908 2908 2908 2908 2908 2908 2908 2933 2933 2933 2933 2933 2958 2958 2984 3010 3037 3064 3064 3064 2129 2129 2129 2129 2129 2143 2143 2156 2156 2143 2143 2143 2143 2143 3010 2933 2933 2984 2984 2984 2984 2984 2984 2984 2984 2984 2984 2984 2984 2984 2984 2984 2984 2984 2984 2984 3010 3010 3010 3010 3010 3010 3010 3037 3037 3037 3037 3037 3064 3092 3092 3092 3120 3120 3120 0 0 0 0 0 0 0 0 0 0 0 0 0 0 2271 2256 2256 2271 2271 2271 2271 2271 2286 2286 2286 2301 2301 5374 5374 5374 5291 5291 5291 5291 5291 5291 5291 5291 5291 5210 5210 5210 5210 5210 5210 5210 5210 5210 5210 5210 5210 5210 5210 5210 5210 5210 5210 5132 5132 5132 5132 5132 5210 5210 5210 5210 5210 5291 5291 5460 5548 5640 5832 5832 2415 2415 2381 2381 2381 2381 2381 2381 2398 2398 2398 2398 2398 2415 0 0 0 0 0 0 0 0 0 0 0 0 0 0 0 0 0 0 0 0 0 0 0 0 0 0 0 0 0 0 0 0 0 0 0 0 0 0 0 0 0 0 2522 2522 2503 2503 2503 2485 2485 2485 2503 2503 2503 2503 2503 2522 2541 0 0 0 0 0 0 0 0 0 0 0 0 0 0 0 0 0 0 4405 4405 4463 4463 4463 4522 4349 4349 4349 4349 4295 4295 4295 4190 4139 4139 4139 4139 4089 4089 4089 4089 4089 4089 4089 4089 4089 4089 4089 4089 4089 4089 4089 4089 4295 4522 5548 5460 5460 5548 5548 5548 5548 5548 5734 4295 4295 4295 4241 4241 4241 4241 4241 4241 4241 4190 4190 4190 4190 4139 4139 4089 4089 4089 4089 4089 4089 4089 4089 4139 4139 4190 4139 4139 4139 4139 4190 4241 4295 3300 3300 3300 3300 3300 3300 3300 3333 3300 3300 3333 3333 3333 3333 3365 3365 3365 3365 3365 3399 3399 3399 3399 3399 3365 3365 3365 3365 3365 3365 3399 3399 3399 3399 3399 3433 0 3433 0 0 3399 3399 3399 3399 3399 3399 3399 3399 3399 3399 3399 3399 3399 3399 4463 4349 4349 4190 4190 4190 4190 4190 4241 4241 4241 4241 4241 4241 4190 4190 4190 4190 4190 4190 4139 4139 4190 4190 4190 4190 4190 4190 4190 4190 4190 4190 4139 4139 4139 4139 4139 4139 4190 4190 4190 4190 4241 4241 4295 4295 4349 4349 4405 0 0 0 0 0 0 0 0 0 0 0 0
0 0 0 0 0 0 0 0 0 0 0 0 0 0 0 0 0 0 0 0 0 0 0 0 0 0 0 0 0 0 0 4842 4842 4842 4911 4911 4911 4911 4911 4911 0 0 0 0 0 0 0 0 0 0 0 0 0 0 0 0 0 0 0 0 0 0 0 0 0 0 0 0 0 0 0 0 0 0 0 0 0 0 0 0 0 5056 5056 4983 4983 5056 5056 5056 5056 5056 5132 5132 5132 5132 5132 0 0 0 3208 3208 3208 3238 3238 3238 3238 3238 3238 3238 2723 2723 2723 2744 2723 2723 2723 2723 2723 2701 2701 2701 2723 2723 2723 2723 2723 2723 2701 2701 2701 2701 2701 2701 2701 2701 2701 2701 2701 2723 2723 2723 2744 2744 2723 2723 2744 2744 2744 2744 2744 2767 2767 2767 2767 2789 2789 2789 2767 2767 2767 2789 2789 2789 2789 2812 2812 2835 2859 2859 2883 2958 2984 2984 2933 2883 2859 2859 2859 2859 2859 2859 2859 2859 2859 2859 2859 2859 2859 2859 2859 2859 2859 2859 2859 2859 2859 2859 2859 2859 2859 2859 2859 2859 2859 2859 2883 2883 2908 2908 2908 2908 2933 2933 2933 2933 2933 2933 2933 2933 2933 2933 2958 2984 3010 3037 3037 3064 3064 3064 2129 2129 2129 2143 2143 2143 2143 2156 2156 2143 2143 2143 2143 2984 2984 2933 2933 2984 2984 2984 2984 2984 3010 2984 2984 2984 2984 2984 2984 2984 2984 2984 2984 2984 2984 2984 3010 3010 3010 3010 3010 3010 3037 3037 3037 3037 3037 3037 3064 3092 3120 3120 3120 3120 0 0 0 0 0 0 0 0 0 0 0 0 0 0 0 0 2256 2256 2271 2271 2271 2271 2271 2286 2286 2286 2301 2301 5374 5374 5374 5291 5291 5291 5291 5291 5291 5291 5291 5291 5210 5210 5210 5210 5210 5210 5210 5210 5210 5210 5210 5210 5210 5132 5132 5210 5210 5210 5132 5132 5132 5210 5210 5210 5210 5210 5210 5210 5291 5291 5374 5374 5640 5832 5832 5832 2381 2381 2381 2381 2381 2381 2381 2398 2398 2398 2398 2398 0 0 0 0 0 0 0 0 0 0 0 0 0 0 0 0 0 0 0 0 0 0 0 0 0 0 0 0 0 0 0 0 0 0 0 0 0 0 0 0 0 0 0 0 2522 2503 2503 2503 2485 2485 2485 2503 2503 2503 2503 2503 2522 2541 0 0 0 0 0 0 0 0 0 0 0 0 0 0 0 0 0 0 4349 4349 4349 4349 4405 4295 4295 4295 4241 4241 4241 4241 4241 4190 4190 4139 4139 4139 4089 4089 4089 4089 4089 4089 4089 4089 4089 4089 4089 4089 4089 4089 4089 4089 4295 4522 5548 5548 5548 5640 5548 5548 5640 5734 5832 4241 4241 4295 4241 4241 4241 4241 4241 4190 4190 4190 4190 4190 4139 4139 4139 4089 4089 4089 4089 4089 4089 4089 4089 4089 4139 4139 4089 4089 4139 4139 4139 4139 3269 3269 3300 3300 3333 3300 3300 3333 3333 3333 3333 3333 3333 3333 3365 3365 3365 3365 3365 3365 3365 3365 3365 3399 3399 3365 3365 3365 3365 3365 3365 3399 3399 3399 3399 3433 3433 0 0 0 0 3399 3399 3399 3399 3399 3399 3399 3399 3399 3399 3399 3399 3399 3399 4405 4349 4349 4190 4190 4190 4190 4190 4241 4241 4241 4241 4241 4190 4190 4190 4190 4190 4139 4139 4139 4139 4190 4190 4190 4190 4190 4190 4190 4190 4190 4190 4190 4190 4190 4139 4139 4190 4190 4190 4190 4241 4241 4241 4295 4295 4295 4405 4405 0 0 0 0 0 0 0 0 0 0 0 0
0 0 0 0 0 0 0 0 0 0 0 0 0 0 0 0 0 0 0 0 0 0 0 0 0 0 0 0 0 0 0 4774 4774 4774 4842 4842 4911 4911 4911 4911 4983 0 0 0 0 0 0 0 0 0 0 0 0 0 0 0 0 0 0 0 0 0 0 0 0 0 0 0 0 0 0 0 0 0 0 0 0 0 0 0 4842 4842 4842 4911 4983 4983 5056 5056 5056 5056 5056 5132 5132 5056 5056 0 0 0 0 3208 3208 3208 3208 3208 3208 3208 3208 3208 2723 2723 2723 2723 2723 2723 2723 2723 2723 2701 2701 2701 2723 2723 2723 2723 2723 2723 2701 2701 2701 2701 2701 2701 2701 2701 2701 2701 2723 2723 2723 2723 2744 2744 2723 2723 2744 2744 2744 2744 2744 2767 2767 2767 2767 2789 2789 2789 2767 2767 2767 2789 2789 2789 2789 2812 2812 2835 2859 2859 2883 2933 2958 2958 2933 2883 2859 2859 2859 2859 2859 2859 2859 2859 2859 2859 2859 2859 2859 2859 2859 2859 2859 2859 2859 2859 2859 2859 2859 2859 2859 2859 2859 2859 2859 2859 2883 2908 2908 2908 2933 2933 2933 2933 2908 2908 2908 2933 2933 2933 2933 2958 2958 2958 3010 3037 3037 3037 3037 3064 3064 2129 2129 2129 2129 2143 2143 2156 2156 2143 2143 2143 2143 2958 2958 2958 2958 2958 2984 2984 2984 2984 3010 3010 2984 2984 2984 2984 2984 2984 2984 2984 2984 2984 2984 2984 3010 3010 3010 3010 3010 3037 3037 3037 3037 3037 3037 3037 3064 3092 3120 3120 3120 3120 0 0 0 0 0 0 0 0 0 0 0 0 0 0 0 0 2256 2256 2256 2271 2271 2271 2286 2286 2286 2286 2301 2301 5460 5374 5374 5291 5291 5291 5291 5291 5291 5291 5291 5291 5291 5291 5210 5210 5210 5210 5210 5210 5210 5210 5210 5210 5210 5132 5132 5210 5210 5210 5132 5132 5132 5210 5210 5210 5210 5210 5210 5210 5291 5291 5374 5374 5640 5734 5734 2381 2381 2381 2381 2381 2381 2381 2381 2398 2398 2398 2381 2381 0 0 0 0 0 0 0 0 0 0 0 0 0 0 0 0 0 0 0 0 0 0 0 0 0 0 0 0 0 2503 2503 2503 0 0 0 0 0 0 0 0 0 0 2560 2560 2541 2522 2503 2503 2485 2485 2485 2503 2503 2503 2503 2503 2522 2541 0 0 0 0 0 0 0 0 0 0 0 0 0 0 0 0 0 0 4349 4349 4349 4349 4349 4295 4295 4295 4241 4241 4241 4241 4241 4241 4190 4139 4139 4139 4089 4089 4089 4089 4089 4089 4089 4089 4089 4089 4089 4089 4089 4041 4041 4041 4522 4522 5640 5640 5640 5640 5640 5640 5640 5734 4241 4241 4241 4295 4241 4241 4241 4241 4241 4190 4190 4190 4190 4190 4139 4139 4139 4089 4089 4089 4089 4089 4089 4089 4089 4089 4089 4089 4089 4089 4089 4089 4139 4139 3269 3269 3300 3300 3333 3300 3300 3333 3333 3333 3333 3333 3333 3365 3365 3365 3365 3365 3365 3365 3365 3365 3365 3365 3365 3365 3365 3365 3365 3365 3365 3399 3399 3399 3399 3433 3433 3433 0 0 0 0 3399 3399 3399 3399 3399 3399 3399 3399 3399 3399 3399 3399 3399 4405 4349 4349 4241 4241 4241 4190 4190 4241 4241 4241 4241 4241 4190 4190 4190 4190 4190 4139 4139 4139 4139 4190 4190 4190 4190 4190 4190 4190 4190 4190 4190 4190 4190 4190 4139 4139 4190 4190 4190 4190 4241 4241 4241 4241 4241 4295 4295 4405 0 0 0 0 0 0 0 0 0 0 0 0
0 0 0 0 0 0 0 0 0 0 0 0 0 0 0 0 0 0 0 0 0 0 0 0 0 0 0 0 0 0 4708 4708 4708 4774 4842 4842 4911 4911 4911 4911 4911 4911 4911 0 0 0 0 0 0 0 0 0 0 0 0 0 0 0 0 0 0 0 0 0 0 0 0 0 0 0 0 0 0 0 0 0 0 4774 4774 4774 4842 4842 4842 4842 4911 4983 5056 5056 5056 5056 5056 5132 5132 5056 5056 5056 0 0 0 3178 3178 3208 3178 3178 3178 3178 3178 3178 3178 2723 2723 2723 2723 2723 2723 2723 2723 2723 2723 2723 2723 2723 2723 2723 2723 2723 2701 2701 2701 2701 2701 2701 2701 2701 2701 2701 2723 2723 2723 2723 2723 2744 2723 2723 2744 2744 2744 2744 2744 2767 2767 2789 2789 2789 2789 2789 2767 2767 2767 2789 2789 2789 2789 2812 2812 2835 2859 2859 2883 2908 2958 2933 2908 2883 2859 2859 2859 2859 2859 2859 2859 2859 2859 2859 2859 2859 2859 2859 2859 2859 2859 2859 2859 2859 2859 2859 2859 2859 2859 2859 2859 2859 2859 2883 2883 2908 2908 2933 2933 2933 2933 2933 2908 2908 2908 2933 2933 2933 2958 2958 2958 2958 3010 3010 3037 3037 3037 3064 3064 2129 2129 2129 2129 2143 2143 2156 2156 2156 2156 2156 2156 2156 2958 2958 2958 2958 2984 2984 2984 2984 3010 3010 2984 2984 2984 2984 2984 2984 2984 2984 2984 2984 3010 3010 3010 3010 3010 3010 3010 3037 3037 3037 3037 3037 3037 3064 3064 3064 3092 3120 3120 3149 0 0 0 0 0 0 0 0 0 0 0 0 0 0 0 0 2256 2256 2256 2271 2271 2271 2286 2286 2286 2286 2301 2301 5460 5374 5374 5291 5291 5291 5291 5291 5374 5374 5291 5291 5291 5291 5210 5210 5210 5210 5210 5210 5210 5210 5210 5210 5210 5210 5210 5210 5210 5210 5210 5210 5210 5210 5210 5210 5210 5210 5210 5210 5291 5291 5374 5460 5640 5734 5734 2381 2381 2381 2381 2381 2381 2381 2381 2398 2398 2398 2381 2381 0 0 0 0 0 0 0 0 0 0 0 0 2415 2415 2415 0 0 0 0 0 0 0 0 0 0 2485 2485 2485 2485 2485 2503 2503 2503 2503 0 0 0 0 0 0 0 0 2560 2560 2541 2522 2503 2503 2485 2485 2485 2503 2503 2503 2503 2503 2522 2541 0 0 0 0 0 0 0 0 0 0 0 0 0 0 0 0 0 0 4349 4349 4349 4349 4349 4349 4295 4295 4295 4295 4295 4295 4295 4241 4241 4190 4139 4139 4089 4089 4089 4089 4089 4089 4089 4089 4089 4089 4089 4089 4089 4041 4041 4041 4522 4522 5640 5640 5640 5640 5640 5640 5640 5832 4241 4241 4241 4295 4241 4241 4241 4241 4190 4190 4190 4139 4139 4139 4139 4139 4089 4089 4089 4089 4089 4089 4089 4089 4089 4089 4089 4089 4089 4089 4089 4089 4139 4139 3269 3269 3300 3300 3333 3333 3333 3333 3333 3333 3333 3365 3365 3365 3365 3365 3365 3365 3365 3365 3333 3333 3333 3399 3365 3365 3365 3365 3365 3365 3365 3399 3399 3399 3433 3433 3433 0 3333 3333 3333 0 3399 3399 3399 3399 3399 3399 3399 3399 3399 3399 3399 3399 4463 4405 4349 4349 4241 4241 4241 4241 4241 4241 4241 4190 4190 4190 4190 4190 4190 4190 4190 4139 4139 4139 4139 4190 4190 4190 4190 4190 4190 4190 4190 4190 4190 4190 4190 4190 4190 4190 4190 4190 4190 4190 4190 4190 4241 4241 4241 4241 4295 4295 0 0 0 0 0 0 0 0 0 0 0 0
0 0 0 0 0 0 0 0 0 0 0 0 0 0 0 0 0 0 0 0 0 0 0 0 0 0 0 0 0 0 4708 4708 4708 4774 4842 4842 4842 4842 4842 4911 4911 4911 4911 0 0 0 0 0 0 0 0 0 0 0 0 0 0 0 0 0 0 0 0 0 0 0 0 0 0 0 0 0 0 0 0 0 4774 4774 4774 4774 4774 4774 4774 4774 4842 4842 4911 4911 4911 4983 5056 5056 5056 5056 5056 5056 0 0 0 3178 3178 3149 3120 3120 3120 3120 3120 3120 3120 3120 2723 2723 2723 2723 2723 2723 2723 2723 2723 2723 2723 2723 2723 2723 2723 2723 2701 2701 2701 2701 2701 2701 2701 2701 2701 2701 2723 2723 2723 2723 2723 2744 2744 2744 2744 2744 2767 2767 2767 2767 2767 2789 2789 2789 2789 2789 2767 2767 2789 2789 2789 2812 2812 2812 2812 2835 2859 2859 2908 2908 2933 2933 2908 2883 2859 2859 2883 2859 2859 2859 2859 2859 2859 2859 2859 2859 2859 2859 2859 2859 2859 2859 2859 2859 2859 2859 2859 2859 2859 2859 2859 2859 2859 2883 2883 2908 2908 2933 2933 2908 2908 2908 2933 2933 2933 2933 2933 2933 2958 2958 2958 2984 3010 3010 3037 3037 3037 3037 3064 2129 2129 2129 2129 2143 2143 2143 2143 2143 2156 2156 2156 2156 2958 2958 2958 2958 2984 2984 3010 3010 3010 3010 3010 2984 2984 3010 2984 2984 2984 2984 2984 2984 3010 3010 3010 3010 3010 3010 3010 3037 3037 3037 3037 3037 3037 3064 3064 3064 3092 3120 3120 0 0 0 0 0 0 0 0 0 0 0 0 0 0 0 0 0 2256 2256 2271 2271 2271 2271 2271 2271 2286 2286 2286 2286 5460 5460 5374 5374 5291 5291 5291 5374 5374 5374 5374 5374 5291 5291 5210 5210 5210 5210 5210 5210 5210 5210 5210 5210 5210 5210 5210 5210 5210 5210 5210 5210 5210 5210 5210 5210 5210 5210 5210 5210 5291 5291 5460 5548 5640 5640 5640 2381 2381 2381 2398 2381 2381 2398 2398 2398 2398 2415 2415 2415 0 0 0 0 0 2485 2485 2467 2467 2415 2415 2415 2415 2415 2415 2450 2450 2467 2467 2467 2467 2467 2467 2467 2485 2485 2485 2485 2485 2485 2485 2485 2485 2503 2503 0 0 0 0 0 0 0 2680 2560 2541 2522 2503 2503 2485 2485 2485 2503 2503 2503 2503 2503 2522 2541 0 0 0 0 0 0 0 0 0 0 0 0 0 0 0 0 0 0 0 4349 4349 4349 4295 4295 4295 4295 4241 4241 4241 4241 4295 4295 4241 4241 4190 4139 4089 4089 4089 4089 4089 4089 4089 4089 4089 4089 4089 4089 4089 4041 4041 4041 5734 5734 5640 5640 5640 5734 5734 5734 5734 4241 4241 4241 4241 4295 4241 4241 4241 4241 4190 4190 4190 4139 4139 4139 4139 4139 4089 4089 4089 4089 4089 4089 4041 4041 4041 4089 4089 4089 4089 4089 4089 4089 4089 4089 3300 3300 3300 3333 3333 3333 3333 3333 3333 3365 3365 3365 3365 3365 3399 3365 3365 3365 3365 3365 3333 3333 3399 3399 3399 3365 3365 3365 3365 3365 3365 3399 3399 3399 3433 3433 3433 0 3333 3333 3333 3333 3333 3365 3399 3399 3399 3399 3399 3399 3399 3399 3399 4463 4463 4405 4349 4349 4295 4295 4241 4241 4241 4241 4241 4190 4190 4190 4190 4190 4139 4139 4139 4139 4139 4139 4139 4190 4190 4190 4190 4190 4190 4190 4190 4190 4190 4190 4190 4190 4190 4190 4190 4190 4190 4190 4190 4190 4241 4241 4241 4241 4295 4295 0 0 0 0 0 0 0 0 0 0 0 0
