0 0 0 0 0 0 0 0 0 0 0 0 0 0 0 0 0 0 0 0 0 0 0 0 0 0 0 0 0 0 0 0 0 0 0 1739 1739 1739 1739 1739 1739 1739 1739 1739 1739 1739 1748 1748 1757 1757 1757 1757 1757 1757 1757 1757 1757 1757 1757 1757 1757 1757 1757 1757 1757 1757 1757 1757 1757 1757 1757 1748 1748 1748 1748 1748 1739 1739 1748 1748 1748 1748 1748 1757 1748 1748 1757 1757 1757 1757 1757 1748 1748 1748 1748 1748 1748 1748 1757 1757 1757 1757 1757 1757 1757 1757 1757 1757 1757 1757 1757 1757 1757 1757 1757 1757 1757 1757 1757 1757 1757 1757 1757 1757 1757 1757 1757 1757 1757 1757 1757 1757 1757 1766 1766 1766 1766 1766 1766 1766 1766 1766 1766 1766 1766 1776 1776 1776 1776 1776 1776 1776 1776 1776 1766 1766 1766 1766 1766 1766 1766 1766 1776 1776 1776 1776 1776 1776 1776 1776 1776 1776 1776 1776 1776 1776 1776 1776 1776 1776 1776 1776 1776 1776 1776 1776 1785 1785 1785 1785 1785 1785 1785 1785 1785 1776 1766 1766 1739 1722 1713 1713 1713 1713 1713 1713 1722 1731 1739 1739 1748 1766 1776 1785 1785 1794 1794 1794 1804 1804 1804 1804 1813 1813 1804 1804 1813 1804 1804 1813 1813 1813 1813 1813 1813 1813 1813 1813 1601 1594 1586 1586 1586 1586 1579 1579 1579 1579 1594 1601 1601 1601 1609 1616 1624 1624 1804 1804 1813 1813 1804 1804 1813 1813 1813 1804 1804 1813 1804 1804 1804 1804 1813 1813 1813 1813 1813 1813 1813 1813 1813 1813 1813 1813 1813 1813 1813 1813 1813 1823 1823 1823 1823 1823 1813 1813 1813 1813 1813 1813 1813 1813 1813 1813 1813 1813 1813 1813 1823 1813 1813 1813 1813 1813 1813 1813 1813 1813 1813 1813 1813 1813 1813 1813 1813 1823 1823 1823 1813 1813 1452 1452 1452 1452 1445 1445 1445 1445 1445 1445 1445 1445 1452 1452 1458 1458 1458 1464 1464 1458 1458 1804 1594 1594 1594 1594 1594 1601 1601 1601 1601 1601 1609 1616 1616 1624 1624 1624 1624 1632 1823 1823 1823 1823 1823 1823 1823 1823 1823 1823 1823 1833 1833 1833 1833 1833 1833 1833 1833 1833 1833 1833 1823 1823 1823 1823 1823 1833 1833 1833 1833 1833 1833 1833 1833 1833 1833 1833 1843 1843 1833 1833 1833 1833 1823 1823 1823 1823 1823 1823 1823 1823 1823 1823 1823 1823 1823 1823 1823 1823 1823 1823 1813 1813 1823 1458 1458 1458 1458 1458 1458 1458 1458 1458 1458 1452 1452 1452 1452 1452 1452 1452 1452 1445 1445 1452 1452 1452 1458 1458 1458 1833 1833 1833 1833 1833 1833 1833 1833 1833 1833 1833 1833 1833 1833 1833 1843 1843 1843 1843 1843 1833 1833 1843 1833 1833 1833 1833 1843 1843 1843 1843 1843 1843 1843 1843 1843 1843 1843 1843 1833 1833 1833 1833 1833 1843 1843 1833 1833 1833 1843 1843 1843 1843 1843 1843 1843 1843 1833 1833 1833 1833 1833 1833 1843 1843 1843 1843 1843 1843 1843 1843 1843 1843 1843 1843 1843 1843 1843 1843 1843 1843 1843 1843 1853 1853 1853 1843 1843 1843 1853 1843 1843 1843 1843 1843 1843 1843 1843 1843 1843 1843 1843 1843 1843 1843 1853 1843 1843 1853 1853 1853 1843 1843 1843 1843 1843 1843 1843 1843 1843 1843 1843 1843 1843 1853 1843 1843 1843 1843 1843 1843 1833 1833 1833 1833 1833 1833 1833 1843 1843 1843 1843 1843 1843 1843 1833 1833 1833 1833 1833 1833 1833 1833 1833 1833 1843 1843 1843 1843 1843 1843 1843 1843 1843 1843 1843 1843 1843 1843 1843 1843 1843 0 0 0 0 0 0 0
0 0 0 0 0 0 0 0 0 0 0 0 0 0 0 0 0 0 0 0 0 0 0 0 0 0 0 0 0 0 0 0 0 0 0 1739 1739 1739 1739 1739 1739 1739 1739 1739 1739 1739 1739 1748 1748 1748 1739 1739 1739 1748 1748 1748 1748 1748 1748 1748 1757 1757 1757 1757 1757 1748 1748 1748 1757 1748 1748 1739 1739 1748 1748 1748 1739 1739 1739 1739 1748 1748 1748 1748 1748 1748 1748 1757 1757 1757 1748 1748 1748 1748 1748 1748 1748 1748 1748 1748 1748 1748 1748 1757 1757 1757 1757 1757 1757 1757 1757 1757 1757 1757 1757 1757 1757 1757 1757 1757 1757 1757 1757 1757 1757 1757 1757 1757 1757 1757 1757 1757 1757 1757 1766 1766 1757 1757 1757 1757 1757 1757 1757 1757 1766 1766 1776 1766 1766 1766 1766 1766 1766 1766 1766 1766 1766 1757 1757 1757 1766 1766 1766 1766 1766 1766 1776 1776 1776 1776 1776 1776 1776 1776 1776 1776 1776 1776 1776 1776 1776 1776 1776 1776 1776 1776 1776 1776 1776 1776 1776 1776 1776 1785 1776 1766 1757 1757 1739 1722 1722 1713 1713 1713 1713 1713 1722 1731 1739 1739 1748 1766 1776 1785 1785 1785 1794 1794 1794 1794 1804 1804 1804 1804 1804 1804 1804 1804 1804 1813 1813 1813 1813 1804 1804 1804 1813 1813 1594 1594 1586 1586 1586 1586 1579 1579 1579 1586 1594 1601 1601 1601 1609 1616 1616 1624 1804 1794 1794 1804 1804 1804 1804 1804 1804 1804 1804 1804 1804 1804 1804 1804 1804 1804 1804 1813 1813 1813 1813 1804 1804 1804 1804 1813 1813 1813 1813 1813 1813 1823 1813 1813 1813 1813 1813 1813 1813 1804 1804 1804 1804 1804 1813 1813 1813 1813 1813 1813 1813 1813 1813 1813 1813 1813 1813 1813 1813 1813 1813 1813 1804 1804 1813 1813 1813 1813 1813 1823 1813 1813 1813 1452 1452 1445 1445 1445 1445 1445 1445 1445 1445 1452 1452 1452 1458 1458 1458 1464 1464 1794 1794 1586 1586 1586 1594 1594 1594 1594 1601 1601 1601 1601 1609 1616 1616 1624 1624 1624 1624 1813 1813 1813 1813 1823 1813 1813 1813 1813 1813 1813 1813 1823 1823 1823 1823 1823 1823 1823 1823 1823 1823 1823 1823 1823 1823 1823 1823 1823 1833 1833 1833 1833 1833 1833 1833 1833 1833 1833 1843 1833 1823 1823 1823 1823 1813 1813 1813 1823 1823 1823 1823 1823 1823 1823 1823 1813 1813 1813 1813 1823 1823 1823 1813 1813 1813 1458 1458 1458 1464 1458 1458 1458 1458 1458 1458 1458 1458 1458 1458 1458 1458 1458 1458 1464 1452 1452 1452 1452 1458 1458 1458 1823 1823 1823 1833 1833 1833 1833 1833 1833 1833 1823 1823 1833 1833 1833 1833 1833 1833 1833 1833 1833 1833 1833 1833 1833 1833 1833 1833 1833 1833 1833 1833 1833 1833 1833 1833 1833 1833 1833 1833 1833 1833 1833 1833 1833 1833 1833 1833 1833 1833 1833 1833 1833 1833 1833 1833 1833 1823 1823 1823 1823 1823 1823 1833 1833 1833 1843 1833 1833 1833 1833 1833 1843 1843 1833 1833 1843 1843 1843 1833 1833 1843 1843 1843 1843 1843 1843 1843 1843 1843 1843 1843 1843 1843 1843 1843 1843 1843 1843 1843 1843 1843 1843 1843 1843 1843 1843 1843 1843 1843 1843 1843 1843 1843 1843 1843 1833 1833 1843 1843 1843 1843 1843 1843 1843 1843 1843 1833 1833 1833 1833 1833 1833 1833 1833 1833 1833 1833 1833 1833 1833 1833 1833 1833 1833 1833 1833 1833 1833 1833 1833 1833 1833 1833 1833 1833 1833 1833 1833 1833 1833 1833 1833 1833 1833 1833 1843 1843 1843 1843 1843 1843 0 0 0 0 0 0 0
0 0 0 0 0 0 0 0 0 0 0 0 0 0 0 0 0 0 0 0 0 0 0 0 0 0 0 0 0 0 0 0 0 0 0 1731 1731 1731 1731 1731 1731 1731 1731 1731 1731 1731 1739 1739 1739 1739 1731 1731 1739 1739 1739 1748 1748 1739 1739 1748 1748 1748 1748 1748 1748 1748 1748 1748 1748 1748 1748 1739 1739 1739 1748 1748 1739 1739 1739 1739 1748 1748 1748 1748 1748 1748 1748 1748 1748 1748 1748 1748 1748 1748 1748 1748 1748 1748 1748 1748 1748 1748 1748 1748 1748 1748 1748 1757 1757 1757 1757 1757 1757 1757 1757 1757 1757 1757 1757 1757 1757 1748 1748 1748 1748 1748 1757 1757 1757 1757 1757 1757 1757 1757 1757 1757 1757 1757 1757 1757 1757 1757 1757 1757 1757 1766 1766 1766 1766 1766 1766 1766 1766 1766 1766 1766 1766 1757 1757 1757 1757 1757 1766 1757 1757 1757 1766 1766 1766 1776 1776 1776 1776 1776 1776 1776 1776 1776 1776 1776 1776 1766 1766 1766 1776 1776 1776 1776 1776 1776 1776 1776 1776 1776 1776 1766 1757 1757 1739 1722 1722 1713 1713 1713 1713 1713 1722 1731 1739 1748 1757 1766 1776 1785 1785 1785 1785 1785 1794 1794 1794 1794 1794 1794 1794 1794 1794 1804 1804 1804 1804 1804 1804 1794 1794 1804 1804 1804 1594 1594 1586 1586 1586 1586 1579 1579 1579 1579 1594 1601 1601 1601 1609 1616 1616 1785 1785 1785 1785 1794 1794 1794 1794 1804 1804 1804 1804 1804 1804 1804 1804 1804 1804 1804 1804 1804 1804 1804 1804 1804 1804 1804 1804 1813 1813 1813 1813 1813 1813 1813 1813 1813 1804 1804 1804 1804 1804 1804 1804 1804 1804 1804 1804 1804 1804 1804 1804 1804 1813 1813 1813 1813 1813 1804 1804 1804 1804 1804 1804 1813 1804 1804 1813 1813 1813 1813 1813 1813 1813 1813 1813 1452 1452 1445 1445 1445 1445 1445 1445 1445 1445 1452 1452 1452 1458 1458 1458 1464 1464 1579 1579 1586 1586 1586 1594 1594 1594 1594 1594 1594 1601 1601 1609 1609 1616 1624 1624 1624 1624 1813 1804 1804 1813 1813 1813 1813 1813 1813 1813 1813 1813 1813 1813 1813 1823 1823 1823 1823 1823 1823 1813 1813 1813 1813 1813 1813 1823 1823 1823 1823 1823 1823 1823 1833 1823 1823 1823 1823 1833 1833 1813 1813 1813 1813 1813 1813 1813 1813 1813 1813 1813 1813 1813 1813 1813 1813 1813 1813 1813 1813 1823 1823 1813 1813 1813 1458 1458 1464 1464 1458 1458 1464 1458 1458 1458 1458 1458 1458 1458 1458 1458 1458 1458 1464 1458 1458 1458 1458 1470 1470 1470 1823 1823 1823 1823 1823 1823 1823 1823 1823 1823 1823 1823 1823 1823 1823 1823 1823 1823 1823 1823 1823 1823 1823 1823 1823 1823 1823 1823 1823 1823 1823 1823 1833 1833 1833 1823 1823 1823 1823 1823 1823 1823 1823 1823 1823 1823 1823 1823 1823 1823 1823 1823 1823 1823 1823 1823 1823 1823 1823 1823 1823 1823 1823 1823 1823 1833 1833 1833 1833 1833 1833 1833 1833 1833 1833 1833 1833 1833 1833 1833 1833 1833 1833 1833 1833 1833 1843 1843 1843 1843 1843 1843 1843 1833 1833 1833 1833 1833 1833 1833 1833 1833 1833 1833 1833 1843 1833 1833 1833 1833 1843 1833 1833 1833 1833 1833 1833 1833 1833 1833 1833 1833 1833 1833 1843 1833 1833 1823 1823 1823 1823 1823 1823 1823 1823 1823 1833 1833 1833 1823 1823 1823 1823 1823 1823 1823 1823 1823 1823 1823 1823 1823 1823 1823 1833 1833 1833 1823 1823 1823 1823 1823 1823 1823 1823 1833 1833 1843 1843 1843 1843 1843 0 0 0 0 0 0 0
0 0 0 0 0 0 0 0 0 0 0 0 0 0 0 0 0 0 0 0 0 0 0 0 0 0 0 0 0 0 0 0 0 0 0 1722 1722 1722 1722 1722 1722 1722 1731 1731 1731 1731 1731 1731 1731 1731 1731 1731 1731 1731 1731 1731 1731 1731 1731 1731 1731 1731 1731 1731 1739 1739 1739 1739 1739 1739 1739 1731 1731 1731 1731 1731 1731 1731 1739 1739 1739 1748 1748 1748 1748 1748 1748 1748 1748 1748 1739 1739 1739 1739 1739 1739 1739 1739 1739 1739 1739 1739 1739 1739 1748 1748 1748 1748 1748 1748 1748 1748 1748 1748 1748 1748 1748 1748 1748 1748 1748 1748 1748 1748 1748 1748 1748 1748 1748 1748 1748 1748 1757 1757 1757 1757 1757 1757 1757 1757 1757 1757 1757 1757 1757 1757 1766 1757 1757 1757 1766 1766 1757 1757 1757 1757 1757 1757 1757 1757 1757 1757 1757 1748 1748 1748 1757 1757 1757 1766 1766 1766 1766 1766 1766 1766 1766 1766 1766 1776 1766 1766 1766 1766 1776 1776 1776 1776 1776 1776 1776 1776 1776 1776 1776 1766 1757 1757 1739 1722 1722 1722 1722 1722 1722 1722 1722 1731 1739 1748 1757 1766 1776 1785 1785 1785 1785 1785 1785 1785 1794 1785 1785 1785 1785 1785 1785 1794 1794 1794 1794 1794 1794 1794 1785 1785 1794 1794 1594 1594 1586 1586 1586 1586 1579 1579 1579 1579 1594 1601 1601 1601 1609 1616 1616 1776 1776 1785 1785 1785 1785 1794 1794 1794 1794 1794 1794 1794 1804 1804 1804 1804 1804 1804 1804 1804 1804 1804 1804 1804 1804 1804 1804 1804 1804 1804 1804 1804 1804 1804 1804 1813 1804 1804 1804 1804 1804 1804 1804 1804 1804 1804 1804 1804 1804 1804 1804 1804 1804 1804 1804 1804 1804 1804 1804 1804 1804 1804 1804 1804 1804 1804 1804 1804 1804 1813 1813 1813 1804 1804 1804 1458 1452 1445 1445 1445 1445 1445 1445 1445 1445 1452 1452 1452 1458 1458 1458 1458 1572 1572 1572 1579 1579 1579 1586 1586 1586 1594 1594 1594 1601 1601 1601 1609 1616 1616 1616 1804 1804 1804 1804 1804 1804 1804 1804 1804 1804 1804 1813 1813 1813 1813 1813 1813 1813 1813 1813 1823 1823 1813 1813 1813 1813 1813 1813 1813 1813 1813 1823 1813 1813 1823 1823 1823 1823 1823 1823 1823 1813 1813 1813 1813 1813 1813 1813 1813 1804 1804 1804 1813 1804 1804 1804 1813 1813 1804 1804 1804 1804 1813 1813 1813 1813 1813 1813 1464 1464 1464 1464 1464 1464 1464 1464 1458 1458 1458 1458 1458 1458 1458 1458 1458 1458 1464 1458 1458 1458 1458 1470 1470 1470 1823 1823 1823 1823 1823 1823 1823 1823 1823 1823 1813 1813 1823 1813 1813 1813 1813 1823 1823 1823 1823 1823 1823 1823 1823 1823 1823 1823 1823 1823 1823 1823 1823 1823 1823 1823 1823 1823 1823 1813 1813 1813 1813 1813 1813 1823 1813 1813 1823 1823 1823 1823 1823 1823 1823 1823 1823 1813 1813 1813 1823 1813 1813 1823 1823 1823 1823 1823 1823 1823 1833 1833 1823 1823 1823 1823 1823 1823 1823 1823 1823 1823 1823 1833 1833 1833 1833 1833 1833 1833 1823 1823 1833 1823 1823 1823 1823 1823 1823 1823 1823 1823 1823 1823 1823 1833 1823 1823 1833 1833 1833 1833 1833 1833 1833 1833 1823 1823 1833 1823 1823 1823 1823 1823 1833 1823 1823 1813 1813 1813 1813 1813 1813 1813 1813 1813 1823 1823 1823 1823 1823 1823 1823 1823 1823 1813 1813 1823 1823 1823 1823 1823 1823 1823 1823 1823 1823 1823 1823 1823 1823 1823 1823 1823 1823 1823 1833 1833 1833 1833 1833 1833 0 0 0 0 0 0 0
0 0 0 0 0 0 0 0 0 0 0 0 0 0 0 0 0 0 0 0 0 0 0 0 0 0 0 0 0 0 0 0 0 0 0 1722 1713 1713 1713 1713 1722 1722 1722 1722 1722 1722 1731 1731 1731 1722 1722 1731 1731 1731 1731 1731 1731 1731 1731 1731 1731 1731 1731 1731 1731 1739 1739 1739 1739 1739 1739 1731 1731 1731 1731 1731 1731 1731 1731 1731 1739 1731 1731 1739 1739 1739 1739 1739 1739 1739 1731 1731 1731 1731 1731 1731 1731 1731 1731 1731 1731 1731 1731 1731 1739 1739 1739 1739 1739 1739 1739 1739 1739 1739 1739 1739 1739 1739 1739 1731 1731 1731 1731 1739 1739 1739 1748 1748 1748 1748 1739 1739 1748 1748 1748 1748 1748 1748 1748 1748 1748 1748 1748 1748 1748 1748 1748 1748 1748 1757 1757 1757 1757 1757 1757 1757 1757 1748 1748 1748 1748 1748 1748 1748 1748 1748 1748 1757 1757 1766 1766 1766 1766 1757 1757 1757 1757 1757 1757 1766 1766 1766 1766 1766 1766 1766 1776 1776 1776 1776 1776 1776 1776 1776 1766 1757 1757 1757 1739 1722 1722 1722 1722 1722 1722 1722 1722 1731 1739 1748 1748 1766 1776 1785 1785 1785 1785 1785 1785 1785 1785 1785 1785 1785 1785 1785 1785 1785 1785 1785 1785 1785 1785 1785 1785 1785 1785 1785 1594 1594 1586 1586 1586 1586 1579 1579 1579 1586 1594 1601 1601 1601 1609 1609 1766 1776 1776 1776 1776 1785 1785 1785 1785 1785 1785 1785 1785 1794 1794 1794 1794 1794 1794 1794 1794 1794 1794 1794 1794 1794 1794 1804 1804 1804 1804 1804 1804 1804 1804 1804 1804 1804 1794 1794 1804 1794 1794 1794 1794 1794 1794 1804 1804 1804 1804 1804 1804 1804 1804 1804 1804 1804 1804 1804 1804 1804 1794 1794 1794 1804 1804 1804 1804 1804 1804 1804 1804 1804 1804 1804 1458 1458 1452 1452 1452 1452 1445 1445 1445 1445 1445 1452 1452 1452 1452 1458 1458 1579 1572 1572 1572 1579 1579 1579 1586 1586 1586 1586 1594 1594 1594 1594 1601 1601 1609 1609 1616 1804 1804 1804 1804 1804 1804 1804 1804 1804 1804 1804 1804 1804 1804 1804 1804 1813 1813 1813 1813 1813 1813 1813 1804 1804 1813 1813 1813 1813 1813 1813 1813 1813 1813 1813 1813 1823 1813 1813 1813 1813 1804 1804 1804 1804 1804 1804 1804 1804 1804 1804 1804 1804 1804 1804 1804 1804 1804 1804 1804 1804 1804 1804 1804 1804 1813 1813 1470 1470 1470 1470 1470 1464 1464 1464 1464 1458 1458 1458 1458 1458 1458 1458 1458 1458 1458 1464 1464 1464 1470 1489 1813 1813 1813 1813 1813 1823 1823 1823 1823 1823 1813 1813 1813 1813 1813 1813 1813 1813 1813 1813 1813 1813 1813 1813 1823 1823 1823 1823 1823 1823 1823 1823 1823 1823 1823 1823 1823 1823 1823 1823 1823 1823 1813 1813 1813 1813 1813 1813 1813 1813 1813 1813 1813 1813 1813 1813 1813 1813 1813 1813 1813 1813 1813 1813 1813 1813 1813 1823 1823 1823 1823 1823 1823 1823 1823 1823 1823 1823 1823 1813 1813 1813 1813 1813 1813 1823 1823 1823 1823 1823 1823 1823 1823 1823 1823 1823 1823 1823 1823 1823 1823 1823 1823 1823 1813 1813 1823 1823 1823 1823 1823 1823 1823 1823 1823 1823 1823 1823 1823 1823 1823 1823 1823 1823 1823 1823 1823 1823 1813 1804 1804 1804 1804 1804 1804 1804 1804 1813 1813 1813 1813 1813 1823 1813 1813 1823 1823 1813 1813 1813 1813 1813 1813 1813 1813 1813 1813 1813 1813 1813 1813 1813 1813 1813 1823 1823 1813 1813 1813 1823 1823 1823 1823 1823 1823 0 0 0 0 0 0 0
0 0 0 0 0 0 0 0 0 0 0 0 0 0 0 0 0 0 0 0 0 0 0 0 0 0 0 0 0 0 0 0 0 0 0 1722 1713 1713 1713 1713 1722 1722 1722 1722 1722 1722 1722 1722 1722 1722 1722 1722 1731 1731 1731 1731 1722 1722 1722 1722 1722 1722 1722 1722 1731 1731 1731 1731 1731 1731 1731 1722 1722 1722 1722 1722 1722 1731 1731 1731 1731 1731 1731 1731 1731 1731 1731 1739 1731 1731 1731 1731 1731 1731 1731 1731 1731 1731 1731 1731 1731 1731 1731 1731 1731 1731 1731 1731 1731 1731 1731 1731 1731 1731 1731 1739 1731 1731 1731 1731 1731 1731 1731 1731 1731 1731 1739 1739 1739 1739 1739 1739 1739 1739 1739 1739 1748 1748 1748 1748 1748 1748 1748 1748 1748 1748 1748 1748 1748 1748 1748 1748 1748 1748 1748 1748 1748 1739 1739 1739 1739 1739 1739 1739 1739 1739 1748 1748 1748 1748 1757 1757 1757 1757 1757 1748 1748 1748 1748 1748 1748 1766 1766 1766 1766 1766 1766 1757 1757 1766 1757 1757 1766 1766 1757 1757 1748 1748 1748 1731 1731 1722 1722 1722 1722 1722 1731 1731 1739 1739 1748 1766 1776 1776 1776 1776 1776 1785 1785 1785 1785 1776 1776 1785 1785 1785 1785 1785 1785 1785 1785 1785 1785 1785 1785 1785 1785 1586 1586 1594 1594 1594 1594 1594 1586 1586 1586 1594 1601 1601 1601 1601 1609 1609 1766 1766 1776 1776 1776 1776 1776 1776 1776 1776 1785 1776 1776 1785 1785 1785 1794 1785 1785 1794 1794 1785 1785 1785 1785 1794 1794 1794 1794 1794 1794 1794 1794 1794 1794 1794 1794 1794 1794 1794 1794 1794 1794 1794 1794 1794 1794 1804 1804 1804 1804 1804 1804 1804 1804 1804 1804 1804 1794 1794 1794 1794 1794 1794 1794 1804 1794 1794 1804 1794 1794 1804 1794 1794 1813 1813 1458 1458 1452 1452 1452 1452 1445 1445 1445 1445 1445 1452 1452 1452 1452 1452 1452 1579 1564 1564 1572 1572 1572 1572 1579 1579 1579 1586 1586 1586 1594 1594 1594 1601 1609 1609 1794 1794 1794 1804 1804 1804 1804 1804 1794 1794 1794 1804 1804 1804 1804 1804 1804 1804 1804 1804 1804 1804 1804 1804 1804 1804 1804 1804 1804 1804 1813 1804 1804 1804 1804 1804 1813 1813 1813 1813 1813 1813 1804 1804 1804 1804 1804 1804 1794 1794 1804 1804 1804 1804 1794 1794 1794 1794 1794 1804 1804 1804 1804 1804 1804 1804 1804 1804 1470 1470 1470 1470 1470 1470 1464 1464 1464 1458 1458 1458 1458 1458 1458 1458 1458 1458 1458 1464 1470 1470 1483 1483 1489 1804 1804 1813 1813 1813 1813 1813 1813 1813 1813 1813 1813 1804 1804 1804 1804 1804 1804 1804 1813 1804 1804 1813 1813 1813 1813 1813 1813 1823 1813 1813 1813 1813 1813 1813 1813 1813 1823 1823 1813 1813 1813 1813 1813 1804 1804 1804 1804 1804 1804 1804 1804 1804 1804 1804 1804 1804 1804 1804 1804 1804 1804 1804 1804 1804 1813 1813 1813 1813 1813 1813 1813 1813 1813 1813 1813 1813 1813 1813 1813 1813 1813 1813 1813 1813 1813 1823 1823 1823 1823 1823 1823 1813 1813 1813 1813 1813 1813 1813 1813 1813 1813 1813 1813 1813 1813 1813 1813 1813 1813 1823 1823 1823 1823 1823 1823 1823 1823 1823 1823 1823 1823 1823 1823 1813 1813 1813 1804 1804 1804 1804 1804 1804 1804 1804 1804 1804 1813 1813 1813 1813 1813 1813 1813 1813 1813 1813 1804 1804 1804 1804 1804 1804 1804 1804 1804 1804 1813 1813 1813 1813 1813 1813 1823 1823 1813 1813 1813 1813 1823 1813 1813 1813 1813 0 0 0 0 0 0 0
0 0 0 0 0 0 0 0 0 0 0 0 0 0 0 0 0 0 0 0 0 0 0 0 0 0 0 0 0 0 0 0 0 0 0 1713 1705 1705 1705 1713 1713 1713 1722 1722 1722 1722 1722 1722 1722 1722 1722 1722 1722 1731 1731 1731 1722 1722 1722 1722 1722 1722 1722 1722 1722 1722 1731 1722 1722 1731 1731 1722 1722 1722 1722 1722 1722 1722 1722 1722 1731 1731 1722 1722 1722 1731 1731 1731 1731 1731 1722 1722 1722 1722 1722 1722 1722 1722 1731 1722 1722 1722 1722 1722 1722 1722 1722 1722 1722 1722 1722 1731 1731 1731 1731 1739 1731 1731 1731 1722 1722 1722 1722 1722 1731 1731 1731 1731 1731 1731 1731 1731 1739 1739 1739 1739 1739 1739 1739 1739 1739 1739 1739 1739 1739 1739 1739 1739 1739 1748 1748 1748 1748 1748 1748 1748 1748 1739 1739 1739 1739 1739 1739 1739 1739 1739 1739 1748 1748 1748 1748 1748 1748 1748 1748 1748 1748 1748 1748 1748 1748 1757 1757 1757 1757 1757 1757 1757 1757 1757 1757 1757 1757 1757 1757 1757 1748 1748 1739 1731 1731 1722 1722 1722 1731 1731 1731 1739 1739 1739 1748 1748 1757 1766 1766 1766 1766 1766 1766 1766 1766 1766 1766 1776 1776 1776 1776 1776 1776 1776 1776 1776 1776 1776 1776 1776 1776 1586 1586 1594 1594 1594 1594 1594 1586 1586 1586 1594 1601 1601 1601 1601 1609 1609 1766 1766 1766 1776 1776 1776 1776 1776 1776 1776 1776 1776 1776 1776 1776 1785 1785 1785 1785 1785 1785 1785 1785 1785 1785 1785 1785 1794 1794 1785 1785 1794 1794 1794 1785 1785 1785 1785 1785 1785 1785 1785 1785 1785 1785 1785 1785 1785 1794 1794 1794 1794 1794 1794 1794 1794 1794 1794 1794 1794 1794 1794 1794 1794 1794 1794 1794 1794 1794 1794 1794 1794 1794 1794 1804 1804 1458 1458 1458 1452 1452 1452 1445 1445 1445 1445 1445 1452 1452 1452 1452 1452 1452 1572 1564 1564 1564 1572 1572 1572 1572 1572 1579 1586 1586 1586 1594 1594 1594 1601 1794 1794 1794 1794 1794 1794 1794 1794 1794 1794 1794 1794 1794 1794 1804 1804 1804 1804 1804 1804 1804 1804 1804 1804 1804 1804 1804 1804 1804 1804 1804 1804 1804 1804 1794 1794 1794 1804 1804 1804 1794 1794 1804 1804 1794 1794 1804 1804 1804 1804 1794 1794 1794 1794 1794 1794 1794 1794 1794 1794 1794 1794 1794 1794 1794 1794 1794 1794 1804 1483 1477 1477 1477 1477 1470 1470 1470 1470 1464 1464 1458 1458 1458 1458 1458 1458 1458 1458 1458 1464 1470 1470 1477 1483 1489 1794 1794 1804 1804 1804 1813 1813 1813 1813 1804 1804 1804 1794 1794 1804 1804 1794 1794 1804 1804 1804 1804 1804 1804 1804 1804 1804 1804 1813 1813 1813 1813 1813 1813 1813 1813 1813 1823 1813 1813 1804 1804 1804 1804 1794 1794 1804 1794 1794 1794 1794 1794 1794 1794 1794 1804 1804 1804 1804 1804 1804 1804 1804 1804 1804 1804 1804 1804 1804 1804 1804 1813 1804 1804 1804 1804 1813 1804 1804 1804 1804 1804 1813 1813 1813 1813 1813 1813 1813 1813 1813 1813 1813 1813 1813 1813 1813 1813 1813 1813 1813 1813 1813 1813 1813 1813 1813 1813 1813 1813 1813 1813 1813 1813 1813 1813 1813 1813 1813 1813 1823 1813 1813 1813 1813 1813 1813 1804 1804 1804 1804 1804 1804 1804 1804 1804 1804 1813 1813 1813 1813 1813 1804 1804 1804 1804 1804 1804 1804 1804 1804 1804 1804 1804 1804 1804 1804 1804 1804 1813 1813 1813 1813 1813 1813 1813 1813 1813 1813 1813 1813 1813 1813 1813 0 0 0 0 0 0 0
0 0 0 0 0 0 0 0 0 0 0 0 0 0 0 0 0 0 0 0 0 0 0 0 0 0 0 0 0 0 0 0 0 0 0 1705 1705 1705 1705 1705 1713 1713 1713 1713 1713 1713 1713 1713 1713 1713 1713 1713 1722 1722 1722 1722 1722 1722 1722 1722 1722 1722 1722 1722 1722 1722 1722 1722 1722 1722 1722 1713 1713 1713 1713 1713 1722 1722 1722 1722 1722 1722 1722 1722 1722 1731 1722 1722 1722 1722 1722 1722 1722 1722 1722 1722 1722 1722 1722 1722 1722 1722 1722 1722 1722 1722 1722 1722 1722 1722 1722 1722 1722 1731 1731 1731 1731 1731 1731 1722 1722 1722 1722 1722 1722 1722 1722 1722 1731 1731 1731 1731 1731 1731 1731 1731 1731 1731 1731 1731 1731 1731 1731 1731 1731 1731 1731 1731 1731 1739 1748 1739 1739 1748 1748 1739 1739 1739 1739 1739 1739 1739 1739 1739 1739 1739 1739 1739 1739 1739 1739 1739 1739 1739 1748 1739 1739 1739 1739 1748 1748 1748 1748 1748 1748 1757 1748 1748 1748 1757 1757 1757 1757 1757 1757 1748 1748 1739 1739 1731 1731 1731 1731 1731 1731 1731 1731 1739 1739 1739 1739 1748 1748 1766 1766 1748 1748 1757 1757 1757 1757 1757 1757 1766 1766 1766 1766 1776 1776 1776 1776 1776 1776 1776 1776 1776 1776 1586 1586 1594 1594 1594 1594 1594 1586 1586 1586 1594 1594 1601 1601 1601 1609 1609 1757 1766 1766 1766 1776 1776 1776 1776 1776 1776 1776 1776 1776 1776 1776 1776 1776 1776 1776 1776 1776 1776 1776 1776 1776 1776 1785 1785 1785 1776 1776 1785 1785 1785 1785 1785 1785 1785 1785 1785 1785 1785 1785 1785 1785 1785 1785 1785 1785 1785 1794 1794 1794 1794 1794 1794 1794 1794 1785 1785 1785 1785 1785 1785 1785 1785 1776 1776 1776 1776 1785 1794 1785 1785 1804 1464 1458 1458 1458 1452 1452 1452 1445 1445 1445 1445 1445 1452 1452 1452 1452 1579 1572 1572 1564 1564 1564 1564 1564 1572 1572 1572 1579 1579 1579 1579 1586 1586 1594 1794 1794 1794 1794 1794 1794 1794 1794 1794 1794 1794 1794 1794 1794 1794 1794 1794 1794 1794 1794 1794 1794 1804 1804 1804 1804 1804 1804 1804 1794 1794 1794 1794 1804 1794 1794 1794 1794 1794 1804 1794 1794 1794 1794 1804 1794 1794 1804 1804 1804 1804 1794 1794 1794 1794 1794 1794 1794 1794 1794 1794 1794 1794 1785 1785 1794 1794 1785 1785 1785 1483 1477 1477 1477 1477 1470 1470 1470 1470 1470 1464 1464 1464 1458 1458 1458 1458 1458 1458 1458 1464 1470 1477 1477 1483 1489 1794 1794 1794 1804 1804 1804 1804 1804 1804 1794 1794 1794 1794 1794 1794 1794 1794 1794 1794 1794 1794 1794 1794 1804 1804 1794 1794 1804 1804 1804 1804 1804 1804 1804 1804 1804 1804 1813 1813 1794 1794 1794 1794 1794 1794 1794 1794 1794 1794 1794 1794 1785 1785 1785 1785 1794 1794 1794 1794 1794 1794 1804 1794 1794 1794 1804 1804 1804 1794 1794 1804 1804 1794 1794 1794 1794 1804 1794 1794 1794 1794 1804 1804 1804 1804 1804 1794 1794 1804 1804 1804 1813 1813 1813 1813 1813 1813 1813 1813 1804 1804 1804 1804 1804 1804 1804 1813 1813 1813 1813 1813 1813 1813 1804 1804 1813 1813 1813 1813 1813 1813 1813 1813 1813 1813 1813 1813 1794 1794 1794 1794 1804 1804 1804 1804 1804 1804 1804 1804 1804 1804 1794 1794 1794 1794 1794 1794 1804 1804 1804 1804 1804 1804 1804 1804 1804 1804 1804 1804 1813 1813 1813 1813 1813 1813 1813 1804 1804 1804 1804 1804 1804 1804 1804 0 0 0 0 0 0 0
0 0 0 0 0 0 0 0 0 0 0 0 0 0 0 0 0 0 0 0 0 0 0 0 0 0 0 0 0 0 0 0 0 0 0 1705 1705 1705 1705 1705 1713 1713 1713 1713 1713 1713 1713 1713 1713 1713 1713 1713 1713 1713 1713 1722 1713 1713 1713 1713 1713 1713 1713 1713 1722 1722 1713 1713 1713 1713 1722 1705 1705 1713 1713 1713 1713 1713 1713 1722 1722 1722 1722 1722 1722 1722 1713 1713 1722 1713 1713 1713 1713 1713 1713 1713 1713 1722 1722 1722 1722 1713 1713 1713 1713 1713 1722 1722 1722 1722 1722 1722 1722 1722 1722 1722 1722 1722 1722 1722 1722 1722 1722 1722 1722 1722 1722 1722 1722 1722 1722 1722 1731 1731 1722 1722 1722 1722 1722 1731 1722 1722 1731 1731 1731 1731 1731 1722 1722 1731 1731 1731 1731 1739 1739 1731 1731 1731 1731 1731 1731 1731 1739 1739 1739 1731 1731 1731 1731 1731 1739 1739 1739 1739 1739 1739 1739 1739 1739 1739 1739 1739 1739 1748 1748 1748 1748 1748 1748 1748 1748 1748 1748 1748 1748 1748 1739 1739 1731 1731 1731 1731 1731 1731 1731 1731 1739 1739 1739 1739 1739 1748 1748 1748 1748 1748 1748 1757 1757 1748 1748 1757 1757 1757 1757 1757 1766 1766 1766 1766 1776 1776 1776 1776 1776 1766 1766 1594 1594 1594 1594 1586 1586 1594 1586 1586 1586 1594 1594 1601 1601 1609 1609 1609 1757 1757 1766 1766 1766 1776 1776 1776 1776 1776 1766 1766 1766 1766 1766 1766 1766 1766 1766 1766 1766 1766 1766 1766 1766 1766 1776 1766 1766 1776 1776 1776 1776 1776 1776 1776 1776 1776 1776 1776 1776 1776 1776 1776 1776 1776 1776 1776 1785 1785 1785 1785 1785 1785 1785 1785 1785 1785 1785 1785 1785 1776 1776 1776 1776 1776 1776 1776 1776 1776 1776 1776 1785 1785 1794 1464 1458 1458 1458 1452 1452 1452 1452 1445 1445 1445 1452 1452 1452 1452 1452 1458 1572 1572 1557 1557 1564 1564 1564 1564 1572 1572 1572 1579 1579 1579 1579 1579 1601 1785 1785 1785 1785 1785 1785 1785 1785 1785 1785 1794 1785 1785 1794 1794 1794 1794 1794 1794 1794 1794 1794 1794 1794 1794 1794 1794 1794 1794 1794 1794 1794 1794 1794 1794 1785 1785 1785 1794 1794 1785 1785 1785 1785 1794 1785 1785 1794 1794 1794 1794 1785 1785 1794 1794 1794 1794 1794 1794 1794 1785 1785 1785 1785 1785 1785 1785 1785 1785 1785 1489 1483 1483 1477 1477 1477 1470 1470 1470 1470 1464 1464 1464 1458 1458 1458 1458 1458 1458 1458 1464 1470 1483 1483 1483 1785 1785 1794 1794 1794 1804 1794 1794 1794 1794 1794 1794 1794 1794 1794 1794 1794 1794 1794 1794 1794 1794 1794 1794 1794 1794 1794 1794 1794 1794 1794 1794 1794 1804 1804 1794 1794 1794 1794 1794 1794 1794 1785 1785 1785 1785 1785 1794 1785 1785 1785 1785 1785 1785 1785 1785 1785 1794 1794 1794 1794 1794 1804 1794 1794 1794 1804 1804 1794 1794 1794 1794 1794 1794 1794 1794 1794 1794 1794 1794 1794 1794 1794 1794 1794 1794 1794 1794 1794 1794 1794 1794 1794 1794 1794 1804 1804 1804 1804 1804 1794 1794 1804 1804 1804 1804 1804 1804 1804 1804 1804 1813 1804 1804 1804 1804 1804 1804 1804 1804 1804 1813 1813 1804 1804 1804 1804 1804 1785 1785 1785 1785 1794 1794 1794 1804 1804 1804 1804 1804 1804 1794 1794 1794 1794 1794 1794 1794 1794 1794 1804 1804 1804 1804 1804 1804 1804 1804 1804 1804 1804 1804 1804 1804 1804 1804 1804 1804 1794 1794 1804 1804 1804 1804 1804 0 0 0 0 0 0 0
0 0 0 0 0 0 0 0 0 0 0 0 0 0 0 0 0 0 0 0 0 0 0 0 0 0 0 0 0 0 0 0 0 0 0 1705 1705 1705 1705 1705 1705 1705 1705 1713 1713 1713 1713 1705 1705 1713 1713 1713 1713 1705 1705 1713 1705 1705 1705 1705 1705 1713 1713 1713 1713 1713 1713 1713 1713 1713 1713 1705 1705 1705 1705 1713 1713 1713 1713 1713 1713 1722 1713 1713 1713 1722 1713 1713 1713 1713 1713 1713 1713 1713 1713 1713 1713 1713 1713 1713 1713 1713 1713 1713 1713 1713 1713 1713 1713 1713 1713 1722 1722 1722 1722 1722 1722 1722 1722 1713 1713 1713 1713 1713 1713 1713 1713 1713 1722 1722 1722 1722 1722 1722 1722 1722 1722 1722 1722 1722 1722 1722 1722 1722 1731 1722 1722 1722 1722 1731 1731 1722 1722 1731 1731 1731 1731 1722 1722 1722 1731 1731 1731 1731 1731 1731 1731 1731 1722 1722 1731 1731 1731 1731 1731 1739 1739 1739 1739 1739 1739 1739 1739 1739 1739 1739 1739 1739 1739 1748 1748 1748 1748 1748 1748 1739 1739 1739 1731 1731 1731 1731 1731 1731 1731 1739 1739 1739 1739 1739 1739 1739 1748 1748 1748 1748 1748 1748 1748 1748 1748 1748 1748 1757 1757 1757 1766 1766 1766 1766 1766 1766 1766 1766 1766 1766 1757 1757 1594 1594 1594 1586 1586 1594 1586 1586 1586 1594 1594 1601 1601 1601 1616 1757 1757 1757 1766 1766 1766 1766 1766 1766 1766 1766 1766 1766 1766 1766 1766 1766 1766 1766 1766 1766 1766 1766 1766 1766 1766 1766 1766 1766 1766 1766 1766 1766 1766 1776 1776 1776 1776 1776 1776 1776 1776 1776 1776 1776 1776 1776 1776 1776 1776 1776 1776 1776 1776 1776 1776 1776 1776 1776 1776 1776 1776 1776 1776 1776 1776 1776 1776 1776 1776 1776 1776 1776 1776 1776 1785 1785 1458 1458 1458 1452 1452 1452 1452 1452 1452 1452 1452 1452 1452 1452 1452 1458 1572 1564 1557 1557 1557 1564 1564 1564 1572 1572 1572 1579 1572 1572 1579 1579 1766 1776 1785 1785 1785 1785 1785 1785 1785 1785 1785 1785 1785 1785 1785 1785 1794 1785 1785 1785 1785 1785 1794 1794 1794 1794 1794 1794 1794 1794 1794 1785 1785 1794 1794 1794 1785 1785 1785 1794 1794 1785 1785 1785 1785 1785 1785 1785 1794 1794 1794 1794 1785 1785 1785 1785 1785 1785 1785 1785 1785 1785 1785 1785 1785 1785 1785 1785 1785 1785 1785 1785 1483 1483 1477 1477 1477 1470 1470 1470 1470 1464 1464 1464 1458 1458 1458 1458 1458 1458 1464 1464 1470 1483 1776 1785 1785 1785 1794 1794 1794 1794 1794 1794 1794 1794 1785 1785 1785 1785 1785 1785 1785 1785 1785 1785 1785 1785 1785 1794 1794 1794 1794 1794 1794 1794 1794 1794 1794 1794 1794 1794 1794 1794 1794 1794 1794 1794 1785 1785 1785 1785 1785 1785 1785 1785 1785 1785 1785 1785 1785 1785 1785 1785 1785 1785 1785 1794 1794 1785 1785 1794 1794 1794 1794 1794 1794 1794 1794 1785 1785 1785 1785 1785 1785 1785 1785 1785 1785 1785 1785 1785 1785 1785 1785 1785 1794 1794 1794 1794 1794 1804 1794 1794 1794 1794 1794 1794 1794 1785 1785 1785 1785 1794 1785 1785 1794 1794 1804 1804 1804 1804 1804 1804 1794 1794 1794 1804 1804 1794 1794 1804 1804 1804 1785 1785 1785 1785 1794 1794 1794 1794 1794 1794 1794 1794 1794 1785 1785 1785 1785 1785 1794 1794 1794 1794 1804 1794 1794 1794 1794 1804 1804 1804 1804 1804 1804 1804 1804 1804 1804 1804 1804 1794 1794 1794 1794 1794 1794 1804 1804 0 0 0 0 0 0 0
0 0 0 0 0 0 0 0 0 0 0 0 0 0 0 0 0 0 0 0 0 0 0 0 0 0 0 0 0 0 0 0 0 0 0 1705 1696 1696 1696 1696 1705 1705 1705 1705 1705 1705 1705 1705 1705 1705 1705 1705 1705 1705 1705 1705 1705 1705 1705 1705 1705 1705 1705 1713 1713 1713 1705 1705 1705 1705 1705 1696 1696 1705 1705 1713 1713 1713 1713 1713 1713 1705 1705 1705 1705 1713 1696 1696 1696 1696 1705 1705 1705 1705 1705 1713 1705 1705 1705 1705 1705 1713 1705 1705 1713 1713 1713 1713 1713 1713 1713 1713 1713 1713 1722 1722 1722 1722 1722 1713 1713 1713 1713 1713 1713 1713 1713 1713 1713 1713 1722 1722 1722 1722 1713 1713 1713 1713 1713 1713 1713 1713 1722 1722 1722 1722 1722 1722 1722 1722 1722 1722 1722 1722 1722 1722 1722 1722 1722 1722 1722 1722 1731 1722 1722 1722 1722 1722 1722 1722 1722 1731 1731 1731 1731 1722 1722 1731 1731 1739 1739 1731 1731 1731 1731 1731 1731 1731 1739 1739 1739 1739 1739 1739 1739 1739 1739 1739 1739 1739 1731 1731 1731 1731 1739 1739 1739 1739 1739 1739 1739 1739 1748 1748 1748 1748 1748 1748 1748 1748 1748 1748 1748 1748 1757 1757 1757 1757 1757 1766 1766 1757 1757 1757 1757 1757 1757 1757 1594 1594 1594 1594 1594 1594 1586 1586 1594 1594 1601 1601 1601 1601 1748 1748 1757 1757 1757 1757 1757 1757 1766 1766 1766 1766 1766 1766 1766 1766 1766 1766 1766 1766 1766 1766 1766 1766 1766 1766 1766 1766 1766 1766 1766 1766 1766 1766 1766 1766 1766 1766 1766 1766 1766 1766 1766 1766 1766 1766 1766 1766 1766 1766 1766 1766 1766 1766 1766 1766 1766 1766 1766 1766 1766 1776 1766 1766 1766 1766 1766 1766 1766 1766 1766 1766 1766 1766 1766 1766 1776 1776 1458 1458 1458 1458 1458 1458 1452 1452 1452 1452 1452 1452 1452 1452 1452 1572 1550 1550 1550 1550 1557 1557 1557 1564 1564 1572 1572 1572 1572 1572 1572 1766 1766 1776 1776 1776 1776 1785 1785 1776 1776 1776 1776 1776 1785 1785 1785 1785 1785 1776 1776 1776 1776 1776 1785 1785 1785 1794 1794 1794 1794 1794 1785 1785 1785 1785 1785 1785 1785 1785 1785 1785 1785 1785 1785 1785 1785 1785 1776 1776 1785 1785 1785 1785 1785 1785 1785 1785 1785 1785 1785 1785 1785 1776 1776 1776 1776 1776 1776 1776 1776 1776 1785 1785 1483 1483 1477 1477 1477 1477 1477 1470 1470 1470 1464 1464 1464 1458 1458 1458 1458 1458 1464 1464 1470 1483 1776 1776 1776 1785 1785 1785 1794 1785 1785 1785 1785 1785 1785 1785 1785 1785 1785 1785 1785 1785 1785 1785 1785 1785 1785 1785 1794 1785 1785 1785 1794 1785 1785 1785 1785 1785 1794 1794 1794 1794 1785 1785 1785 1785 1785 1785 1785 1785 1785 1785 1785 1776 1776 1785 1776 1776 1776 1776 1785 1785 1785 1785 1785 1785 1785 1785 1785 1785 1785 1785 1785 1785 1785 1785 1785 1785 1785 1785 1785 1785 1785 1785 1785 1785 1785 1785 1785 1785 1785 1785 1785 1785 1785 1785 1794 1785 1785 1794 1785 1785 1785 1785 1785 1785 1785 1785 1785 1785 1785 1785 1785 1785 1785 1785 1785 1785 1785 1785 1785 1785 1785 1785 1785 1794 1794 1794 1794 1794 1794 1794 1776 1776 1785 1785 1785 1785 1785 1794 1794 1794 1794 1794 1794 1785 1785 1785 1785 1785 1785 1785 1785 1794 1794 1794 1794 1794 1794 1804 1804 1804 1794 1794 1804 1804 1794 1794 1794 1794 1794 1794 1785 1785 1785 1794 1794 1794 1804 0 0 0 0 0 0 0
0 0 0 0 0 0 0 0 0 0 0 0 0 0 0 0 0 0 0 0 0 0 0 0 0 0 0 0 0 0 0 0 0 0 0 1705 1696 1696 1696 1696 1696 1696 1696 1696 1696 1696 1705 1705 1705 1705 1705 1705 1705 1705 1705 1696 1696 1696 1696 1696 1696 1705 1705 1705 1705 1705 1705 1696 1696 1705 1705 1696 1696 1705 1705 1713 1713 1713 1713 1705 1705 1705 1705 1705 1705 1705 1688 1688 1696 1696 1696 1696 1705 1705 1705 1705 1705 1705 1705 1705 1705 1705 1705 1705 1713 1713 1713 1713 1713 1713 1713 1713 1713 1713 1713 1713 1713 1713 1713 1713 1713 1713 1713 1713 1705 1705 1705 1705 1713 1713 1713 1713 1713 1713 1713 1713 1713 1713 1713 1713 1713 1713 1713 1713 1722 1713 1713 1713 1713 1713 1713 1713 1713 1722 1722 1722 1722 1713 1713 1713 1713 1713 1713 1713 1713 1713 1713 1713 1713 1713 1713 1722 1722 1722 1722 1722 1722 1722 1731 1731 1722 1722 1722 1722 1722 1722 1731 1731 1731 1731 1739 1739 1739 1739 1739 1739 1739 1739 1739 1739 1731 1731 1731 1739 1739 1739 1739 1739 1739 1739 1739 1739 1739 1748 1748 1748 1748 1748 1748 1748 1748 1739 1739 1748 1748 1748 1748 1757 1757 1757 1757 1757 1748 1748 1748 1748 1748 1748 1594 1594 1601 1601 1594 1594 1594 1594 1594 1594 1601 1601 1601 1601 1748 1748 1748 1757 1757 1757 1757 1757 1757 1766 1766 1766 1766 1766 1766 1766 1766 1757 1757 1757 1757 1757 1757 1757 1757 1757 1757 1757 1757 1757 1757 1757 1766 1766 1766 1766 1766 1766 1766 1766 1766 1766 1766 1766 1757 1757 1766 1757 1757 1757 1757 1757 1757 1757 1766 1766 1766 1766 1766 1766 1766 1766 1766 1766 1766 1766 1766 1766 1766 1766 1766 1766 1766 1766 1766 1766 1776 1776 1458 1458 1458 1458 1458 1458 1452 1452 1452 1452 1452 1452 1452 1452 1452 1536 1536 1536 1543 1543 1550 1550 1557 1557 1564 1564 1572 1572 1564 1564 1564 1757 1766 1766 1766 1766 1766 1776 1776 1776 1776 1776 1776 1776 1776 1776 1776 1776 1785 1776 1776 1776 1776 1776 1776 1776 1776 1776 1776 1776 1776 1785 1776 1776 1776 1776 1776 1776 1776 1776 1776 1776 1776 1776 1776 1776 1776 1776 1776 1776 1776 1776 1776 1776 1776 1776 1776 1776 1776 1776 1776 1776 1776 1776 1776 1776 1776 1766 1766 1766 1776 1776 1776 1776 1776 1483 1477 1477 1477 1477 1477 1477 1477 1470 1470 1464 1464 1464 1464 1464 1464 1464 1470 1470 1470 1483 1776 1776 1776 1776 1785 1785 1785 1785 1785 1785 1785 1776 1776 1776 1776 1776 1785 1785 1785 1776 1776 1776 1776 1776 1776 1785 1785 1785 1785 1785 1785 1785 1785 1785 1785 1785 1785 1785 1785 1785 1785 1785 1785 1785 1776 1776 1785 1785 1785 1776 1776 1776 1776 1776 1776 1776 1776 1776 1776 1776 1776 1776 1776 1785 1785 1785 1785 1785 1785 1776 1776 1776 1776 1776 1776 1776 1776 1776 1785 1785 1785 1785 1785 1785 1785 1785 1785 1785 1785 1785 1785 1785 1785 1785 1785 1785 1785 1785 1785 1785 1785 1785 1785 1785 1785 1785 1785 1785 1785 1785 1785 1785 1785 1785 1785 1785 1785 1785 1785 1785 1785 1785 1785 1785 1785 1785 1785 1785 1785 1785 1776 1776 1776 1776 1785 1785 1785 1785 1785 1785 1785 1785 1785 1776 1776 1776 1776 1776 1776 1785 1785 1785 1785 1794 1785 1785 1794 1794 1794 1794 1794 1794 1794 1794 1794 1794 1794 1794 1785 1785 1785 1785 1785 1785 1785 1794 1794 0 0 0 0 0 0 0
0 0 0 0 0 0 0 0 0 0 0 0 0 0 0 0 0 0 0 0 0 0 0 0 0 0 0 0 0 0 0 0 0 0 0 1696 1696 1696 1696 1696 1696 1696 1696 1696 1696 1696 1696 1696 1696 1696 1696 1696 1696 1696 1696 1696 1696 1696 1696 1696 1696 1696 1696 1705 1705 1696 1696 1696 1696 1696 1696 1688 1688 1688 1705 1705 1705 1713 1705 1705 1705 1705 1705 1705 1696 1696 1688 1688 1688 1688 1696 1696 1696 1696 1696 1705 1705 1705 1696 1696 1696 1696 1696 1696 1705 1705 1713 1713 1713 1713 1713 1713 1705 1705 1713 1713 1713 1713 1713 1713 1713 1713 1713 1713 1705 1705 1705 1705 1705 1705 1713 1713 1713 1713 1713 1713 1713 1713 1705 1705 1713 1713 1713 1713 1713 1713 1713 1713 1713 1713 1713 1713 1713 1713 1713 1713 1713 1705 1705 1705 1713 1713 1713 1713 1713 1713 1713 1713 1713 1713 1713 1713 1713 1722 1722 1713 1713 1713 1722 1722 1713 1713 1713 1722 1722 1722 1722 1722 1722 1731 1731 1731 1731 1731 1731 1739 1731 1731 1731 1731 1731 1731 1731 1731 1739 1739 1739 1739 1739 1739 1739 1739 1739 1748 1739 1739 1739 1739 1739 1748 1748 1739 1739 1748 1748 1748 1748 1748 1748 1748 1748 1748 1748 1748 1739 1739 1748 1748 1601 1601 1601 1601 1594 1594 1594 1594 1594 1601 1601 1601 1601 1601 1739 1739 1739 1748 1748 1748 1748 1748 1748 1748 1748 1748 1748 1757 1757 1757 1757 1757 1757 1757 1757 1757 1748 1748 1748 1748 1748 1748 1748 1757 1757 1757 1757 1757 1757 1757 1757 1757 1757 1757 1757 1757 1757 1757 1757 1748 1748 1748 1748 1748 1748 1748 1748 1757 1757 1766 1766 1766 1766 1766 1766 1766 1766 1766 1766 1757 1757 1766 1757 1757 1757 1757 1757 1757 1766 1766 1766 1766 1458 1458 1458 1458 1458 1458 1458 1452 1452 1452 1458 1458 1458 1452 1452 1529 1529 1536 1536 1543 1543 1550 1557 1557 1564 1564 1572 1572 1564 1564 1564 1757 1757 1757 1766 1766 1766 1766 1766 1766 1766 1766 1766 1766 1766 1766 1766 1766 1766 1766 1776 1766 1766 1766 1766 1766 1766 1776 1776 1776 1776 1776 1776 1776 1776 1776 1776 1776 1766 1766 1766 1776 1766 1766 1776 1776 1776 1776 1766 1766 1766 1766 1766 1776 1766 1766 1766 1766 1766 1766 1766 1766 1766 1766 1766 1766 1766 1766 1766 1766 1766 1776 1776 1776 1483 1483 1477 1477 1477 1477 1477 1477 1477 1477 1470 1470 1464 1464 1464 1464 1464 1464 1470 1470 1470 1766 1766 1766 1766 1766 1776 1785 1785 1776 1776 1776 1776 1766 1766 1766 1766 1766 1776 1776 1776 1776 1776 1776 1776 1776 1776 1776 1776 1776 1776 1776 1785 1785 1776 1776 1776 1776 1785 1785 1785 1785 1785 1785 1785 1785 1766 1766 1776 1776 1776 1776 1776 1776 1776 1776 1776 1776 1776 1776 1776 1776 1776 1776 1776 1776 1776 1776 1776 1776 1776 1776 1776 1776 1776 1776 1776 1776 1776 1776 1785 1785 1785 1785 1776 1776 1776 1776 1776 1776 1776 1776 1776 1776 1776 1776 1785 1776 1776 1776 1776 1776 1785 1776 1776 1785 1785 1785 1785 1785 1785 1785 1785 1776 1776 1776 1776 1776 1785 1776 1776 1785 1785 1785 1785 1785 1785 1776 1776 1776 1776 1776 1766 1766 1766 1766 1776 1776 1776 1776 1766 1766 1766 1766 1776 1776 1766 1766 1766 1776 1776 1776 1776 1776 1785 1785 1785 1785 1794 1785 1785 1785 1785 1785 1785 1785 1785 1785 1785 1785 1785 1785 1785 1785 1785 1785 1785 1785 1794 0 0 0 0 0 0 0
0 0 0 0 0 0 0 0 0 0 0 0 0 0 0 0 0 0 0 0 0 0 0 0 0 0 0 0 0 0 0 0 0 0 0 1688 1688 1688 1688 1688 1688 1696 1696 1696 1696 1696 1696 1696 1696 1696 1696 1696 1696 1696 1696 1696 1696 1696 1696 1696 1696 1696 1696 1696 1696 1696 1696 1696 1696 1696 1696 1688 1688 1688 1688 1705 1696 1696 1696 1696 1705 1696 1696 1696 1688 1688 1688 1688 1688 1688 1696 1696 1696 1696 1696 1705 1705 1696 1696 1696 1696 1696 1696 1696 1696 1696 1705 1705 1705 1705 1705 1705 1705 1705 1705 1696 1696 1705 1705 1705 1705 1705 1705 1705 1696 1696 1696 1696 1705 1705 1713 1713 1713 1713 1705 1705 1705 1705 1705 1705 1705 1705 1713 1713 1713 1713 1713 1713 1713 1713 1713 1713 1713 1713 1713 1713 1713 1705 1705 1705 1705 1713 1713 1705 1705 1713 1713 1713 1713 1713 1713 1713 1713 1713 1713 1713 1713 1713 1713 1713 1713 1713 1713 1713 1713 1713 1722 1722 1722 1731 1731 1731 1731 1731 1731 1731 1731 1731 1722 1722 1722 1722 1722 1722 1739 1739 1739 1739 1739 1739 1739 1739 1739 1739 1739 1739 1739 1739 1739 1739 1739 1739 1739 1748 1748 1748 1748 1748 1748 1748 1748 1748 1748 1739 1739 1739 1748 1748 1601 1601 1609 1601 1601 1594 1594 1594 1594 1601 1601 1601 1601 1601 1739 1739 1739 1739 1739 1739 1739 1748 1739 1739 1739 1739 1739 1739 1748 1748 1748 1748 1748 1748 1748 1748 1748 1748 1748 1748 1748 1748 1748 1748 1748 1748 1748 1748 1748 1757 1757 1757 1757 1748 1748 1748 1748 1748 1748 1739 1739 1748 1748 1748 1748 1748 1748 1748 1748 1757 1757 1757 1757 1757 1757 1757 1757 1757 1757 1757 1757 1757 1757 1757 1748 1748 1748 1748 1757 1757 1739 1739 1452 1452 1458 1458 1458 1458 1458 1458 1458 1458 1458 1458 1458 1464 1470 1516 1529 1536 1536 1536 1543 1550 1557 1557 1564 1564 1572 1572 1572 1748 1748 1748 1748 1757 1757 1757 1757 1757 1757 1757 1757 1757 1766 1757 1757 1757 1766 1766 1766 1766 1766 1766 1766 1766 1766 1766 1766 1766 1766 1757 1757 1757 1757 1757 1766 1766 1766 1766 1766 1766 1766 1766 1766 1766 1766 1766 1766 1766 1766 1766 1766 1766 1766 1766 1757 1757 1757 1757 1757 1757 1757 1757 1766 1766 1766 1766 1766 1766 1766 1766 1766 1776 1776 1489 1483 1483 1477 1477 1477 1477 1477 1477 1470 1470 1470 1470 1470 1464 1464 1464 1470 1470 1470 1470 1477 1766 1766 1766 1766 1766 1776 1776 1776 1776 1776 1776 1776 1766 1766 1766 1766 1766 1766 1776 1776 1776 1776 1766 1766 1766 1766 1776 1776 1776 1776 1776 1776 1776 1776 1776 1776 1776 1776 1776 1776 1776 1776 1776 1776 1776 1766 1766 1776 1776 1776 1776 1776 1766 1766 1766 1766 1766 1766 1766 1766 1766 1766 1766 1776 1776 1776 1776 1776 1776 1766 1766 1766 1766 1766 1766 1766 1766 1766 1766 1766 1776 1776 1776 1776 1776 1776 1776 1776 1776 1776 1776 1776 1776 1776 1776 1776 1766 1766 1776 1776 1776 1776 1776 1776 1776 1776 1776 1776 1785 1785 1785 1776 1776 1776 1776 1776 1776 1776 1776 1776 1776 1776 1776 1776 1776 1776 1776 1776 1776 1776 1776 1766 1766 1766 1766 1766 1766 1766 1766 1766 1766 1766 1766 1766 1766 1766 1766 1766 1766 1766 1766 1766 1766 1776 1776 1776 1776 1785 1776 1776 1776 1776 1776 1776 1776 1776 1776 1785 1785 1785 1785 1785 1776 1776 1776 1785 1785 1785 0 0 0 0 0 0 0
0 0 0 0 0 0 0 0 0 0 0 0 0 0 0 0 0 0 0 0 0 0 0 0 0 0 0 0 0 0 0 0 0 0 0 1680 1671 1671 1680 1680 1680 1688 1688 1688 1696 1696 1688 1688 1688 1688 1688 1688 1688 1688 1688 1688 1688 1688 1688 1688 1688 1688 1696 1696 1696 1696 1696 1696 1696 1696 1696 1688 1688 1688 1688 1688 1688 1688 1688 1688 1696 1688 1688 1688 1688 1688 1680 1680 1688 1688 1688 1688 1688 1688 1688 1696 1696 1696 1696 1696 1696 1696 1688 1688 1688 1696 1696 1705 1696 1696 1696 1696 1696 1696 1696 1688 1688 1696 1705 1705 1705 1696 1696 1705 1696 1688 1688 1696 1696 1705 1705 1705 1713 1705 1696 1696 1696 1696 1696 1696 1705 1705 1705 1705 1705 1713 1713 1705 1705 1705 1705 1705 1713 1713 1713 1713 1713 1705 1705 1705 1705 1705 1705 1705 1705 1705 1713 1713 1713 1713 1713 1713 1713 1713 1705 1705 1713 1713 1713 1713 1713 1713 1713 1713 1713 1713 1713 1713 1722 1722 1722 1722 1722 1722 1722 1722 1722 1722 1722 1713 1713 1713 1713 1722 1722 1722 1722 1722 1731 1731 1739 1739 1739 1739 1739 1739 1739 1739 1739 1739 1739 1739 1739 1739 1739 1739 1748 1748 1748 1739 1739 1739 1739 1739 1739 1739 1748 1748 1609 1609 1609 1609 1601 1601 1594 1594 1594 1601 1601 1601 1601 1601 1731 1739 1739 1739 1739 1739 1739 1748 1739 1739 1739 1739 1739 1739 1748 1739 1739 1739 1739 1739 1739 1739 1739 1739 1739 1739 1748 1748 1748 1739 1739 1748 1748 1748 1748 1757 1757 1748 1748 1748 1748 1748 1748 1748 1748 1739 1739 1739 1739 1748 1748 1748 1748 1748 1748 1748 1748 1748 1748 1748 1748 1757 1757 1748 1748 1748 1748 1748 1748 1748 1748 1748 1748 1748 1748 1748 1739 1739 1452 1452 1458 1458 1458 1458 1458 1458 1458 1458 1458 1458 1458 1464 1470 1516 1529 1529 1536 1536 1543 1550 1557 1557 1564 1564 1572 1572 1572 1748 1748 1748 1748 1739 1739 1748 1748 1748 1748 1757 1757 1757 1757 1757 1757 1757 1757 1757 1757 1757 1757 1757 1757 1766 1766 1766 1766 1757 1757 1757 1757 1757 1757 1757 1757 1757 1757 1766 1757 1757 1766 1766 1766 1757 1757 1766 1766 1766 1766 1766 1766 1766 1766 1766 1757 1757 1757 1757 1757 1757 1757 1757 1757 1757 1757 1757 1757 1766 1766 1766 1766 1776 1776 1489 1483 1483 1477 1477 1477 1477 1477 1477 1470 1470 1470 1470 1470 1470 1470 1470 1470 1477 1477 1477 1477 1757 1757 1757 1757 1757 1766 1766 1766 1766 1766 1766 1766 1757 1757 1766 1766 1766 1766 1766 1766 1766 1766 1766 1766 1766 1766 1766 1766 1766 1766 1766 1766 1766 1766 1766 1766 1766 1766 1776 1776 1776 1766 1766 1766 1776 1757 1757 1766 1766 1766 1766 1766 1757 1757 1757 1757 1757 1766 1757 1757 1766 1766 1766 1766 1766 1766 1766 1766 1766 1766 1766 1766 1757 1757 1766 1766 1766 1766 1766 1766 1776 1776 1766 1766 1766 1766 1766 1776 1776 1776 1776 1776 1776 1776 1776 1776 1766 1766 1766 1766 1766 1766 1766 1766 1776 1776 1776 1776 1776 1776 1776 1776 1766 1766 1766 1766 1766 1776 1776 1776 1776 1776 1776 1776 1776 1776 1766 1766 1766 1766 1776 1766 1766 1766 1766 1766 1766 1766 1757 1757 1757 1757 1757 1757 1757 1766 1757 1757 1757 1757 1757 1757 1757 1748 1748 1757 1757 1757 1757 1757 1766 1766 1766 1776 1766 1766 1776 1776 1776 1776 1776 1776 1776 1776 1776 1776 1785 1785 0 0 0 0 0 0 0
0 0 0 0 0 0 0 0 0 0 0 0 0 0 0 0 0 0 0 0 0 0 0 0 0 0 0 0 0 0 0 0 0 0 0 1671 1671 1671 1671 1680 1680 1688 1688 1688 1688 1696 1688 1688 1688 1688 1688 1688 1688 1688 1688 1688 1688 1688 1688 1688 1688 1688 1688 1688 1688 1688 1688 1688 1688 1688 1696 1688 1688 1688 1688 1688 1688 1688 1688 1688 1688 1688 1688 1688 1688 1688 1680 1680 1688 1688 1688 1688 1688 1688 1688 1696 1696 1688 1688 1688 1688 1688 1688 1688 1688 1688 1696 1696 1696 1696 1696 1696 1696 1688 1688 1688 1688 1688 1696 1696 1696 1696 1696 1696 1688 1688 1688 1688 1696 1696 1696 1696 1705 1705 1696 1696 1696 1696 1696 1696 1705 1705 1705 1705 1705 1705 1705 1705 1705 1705 1705 1705 1705 1705 1705 1705 1705 1696 1696 1696 1696 1696 1705 1705 1705 1705 1705 1705 1705 1705 1705 1705 1705 1705 1705 1705 1705 1713 1713 1713 1713 1713 1713 1713 1713 1713 1713 1713 1713 1713 1713 1713 1713 1713 1713 1722 1722 1722 1722 1713 1713 1713 1713 1713 1713 1713 1713 1722 1722 1722 1731 1731 1731 1731 1731 1731 1739 1739 1739 1739 1739 1739 1739 1739 1739 1739 1739 1739 1739 1739 1739 1739 1739 1739 1739 1739 1748 1748 1609 1609 1609 1609 1609 1601 1601 1601 1601 1601 1609 1601 1601 1601 1731 1731 1731 1731 1739 1739 1739 1739 1739 1739 1739 1739 1731 1731 1739 1739 1739 1739 1739 1739 1739 1739 1739 1739 1739 1739 1739 1739 1739 1739 1739 1739 1739 1739 1748 1748 1748 1748 1748 1748 1748 1739 1739 1739 1739 1739 1739 1739 1739 1739 1739 1739 1739 1739 1739 1748 1748 1748 1748 1748 1748 1748 1748 1739 1739 1739 1739 1748 1748 1739 1739 1739 1739 1748 1739 1739 1731 1731 1452 1452 1458 1458 1458 1458 1458 1458 1458 1458 1458 1458 1458 1464 1470 1516 1529 1529 1536 1536 1543 1543 1557 1564 1564 1572 1572 1572 1572 1739 1739 1739 1739 1739 1739 1739 1739 1739 1739 1739 1739 1748 1748 1739 1739 1748 1748 1748 1757 1757 1757 1757 1757 1757 1757 1757 1757 1757 1757 1757 1757 1757 1757 1757 1757 1757 1757 1757 1757 1757 1757 1757 1757 1757 1757 1757 1757 1757 1757 1757 1766 1757 1757 1766 1748 1748 1757 1748 1748 1748 1757 1757 1757 1757 1757 1757 1757 1757 1757 1757 1757 1766 1766 1489 1489 1483 1477 1477 1477 1477 1477 1477 1477 1477 1470 1470 1470 1470 1470 1470 1470 1477 1477 1477 1477 1757 1757 1757 1757 1757 1757 1757 1766 1766 1766 1766 1766 1757 1757 1757 1757 1757 1757 1757 1757 1757 1757 1757 1757 1757 1757 1766 1757 1757 1757 1757 1766 1766 1766 1766 1766 1757 1757 1766 1766 1766 1766 1766 1766 1766 1748 1748 1748 1748 1748 1748 1757 1757 1757 1757 1757 1757 1757 1757 1757 1766 1766 1766 1766 1766 1766 1766 1757 1757 1757 1757 1766 1757 1757 1776 1776 1776 1776 1776 1776 1776 1776 1766 1766 1766 1766 1766 1766 1766 1776 1776 1766 1766 1766 1766 1766 1766 1757 1757 1766 1766 1766 1766 1766 1766 1776 1776 1776 1776 1776 1776 1776 1766 1766 1766 1766 1766 1766 1766 1766 1766 1766 1766 1766 1766 1766 1766 1766 1766 1766 1766 1757 1757 1757 1757 1757 1757 1757 1757 1757 1757 1757 1757 1757 1757 1757 1757 1757 1757 1757 1757 1748 1748 1748 1748 1748 1748 1748 1748 1748 1757 1757 1766 1766 1766 1766 1776 1776 1776 1776 1776 1776 1776 1776 1776 1776 1776 1776 0 0 0 0 0 0 0
0 0 0 0 0 0 0 0 0 0 0 0 0 0 0 0 0 0 0 0 0 0 0 0 0 0 0 0 0 0 0 0 0 0 0 1663 1663 1663 1671 1671 1671 1680 1680 1688 1688 1688 1688 1688 1688 1688 1688 1688 1688 1688 1688 1688 1688 1688 1688 1688 1688 1688 1688 1688 1688 1688 1688 1688 1688 1688 1688 1680 1680 1680 1680 1680 1680 1680 1680 1680 1688 1680 1680 1680 1680 1680 1680 1680 1680 1680 1680 1680 1688 1688 1688 1688 1688 1688 1688 1688 1688 1688 1688 1688 1688 1688 1688 1688 1688 1688 1688 1696 1688 1688 1688 1688 1688 1688 1688 1688 1688 1688 1688 1688 1688 1688 1688 1688 1688 1688 1696 1696 1696 1696 1696 1696 1696 1696 1696 1696 1696 1696 1696 1705 1705 1705 1705 1705 1705 1705 1696 1696 1705 1705 1705 1705 1705 1696 1696 1696 1696 1696 1696 1696 1696 1705 1705 1705 1705 1705 1705 1696 1696 1696 1696 1696 1705 1705 1705 1705 1705 1705 1705 1713 1713 1713 1713 1713 1713 1713 1713 1713 1713 1713 1713 1713 1713 1713 1713 1713 1713 1713 1713 1713 1713 1713 1713 1713 1722 1722 1722 1722 1722 1722 1722 1722 1731 1731 1731 1731 1739 1739 1739 1739 1739 1739 1739 1731 1731 1713 1713 1722 1722 1731 1731 1739 1748 1748 1609 1609 1609 1609 1609 1609 1601 1601 1601 1601 1609 1609 1601 1601 1731 1731 1731 1731 1731 1731 1731 1739 1731 1731 1739 1739 1731 1731 1739 1731 1731 1731 1731 1731 1731 1731 1731 1731 1731 1731 1731 1731 1731 1739 1739 1739 1739 1739 1739 1739 1739 1739 1739 1739 1739 1739 1739 1739 1739 1739 1739 1731 1731 1739 1739 1739 1739 1739 1739 1739 1739 1739 1739 1739 1739 1739 1739 1739 1739 1739 1739 1739 1739 1739 1739 1739 1739 1739 1739 1739 1731 1731 1458 1458 1458 1458 1458 1458 1458 1458 1458 1458 1458 1458 1458 1464 1516 1516 1523 1529 1529 1529 1543 1543 1557 1564 1564 1572 1572 1731 1739 1739 1739 1739 1731 1731 1731 1739 1739 1739 1739 1739 1739 1739 1739 1739 1739 1739 1739 1739 1748 1748 1748 1748 1748 1748 1748 1748 1757 1757 1748 1748 1748 1757 1757 1757 1757 1757 1757 1757 1757 1757 1757 1757 1757 1757 1757 1757 1757 1757 1757 1757 1757 1757 1757 1757 1748 1748 1748 1748 1748 1748 1748 1748 1748 1748 1748 1748 1748 1748 1748 1748 1748 1766 1496 1496 1483 1477 1477 1477 1477 1477 1477 1477 1477 1477 1477 1477 1470 1470 1470 1470 1470 1477 1477 1477 1477 1748 1748 1748 1748 1757 1757 1757 1757 1757 1766 1766 1766 1757 1757 1757 1757 1757 1757 1757 1757 1757 1757 1757 1757 1757 1757 1757 1757 1757 1757 1757 1757 1757 1757 1757 1757 1757 1757 1757 1757 1757 1757 1757 1757 1766 1748 1748 1748 1748 1748 1748 1748 1748 1748 1748 1748 1748 1757 1757 1748 1748 1748 1748 1757 1757 1757 1757 1757 1757 1757 1757 1757 1757 1757 1757 1757 1757 1776 1748 1748 1757 1757 1757 1757 1757 1757 1757 1766 1766 1766 1766 1757 1757 1757 1757 1757 1757 1748 1748 1757 1757 1757 1757 1766 1766 1766 1766 1766 1766 1766 1766 1757 1757 1757 1757 1757 1757 1757 1757 1757 1757 1757 1757 1757 1757 1757 1757 1757 1757 1757 1757 1757 1757 1748 1748 1748 1748 1748 1748 1748 1748 1757 1757 1748 1748 1757 1757 1748 1748 1748 1748 1748 1748 1748 1748 1748 1748 1748 1748 1748 1757 1757 1757 1757 1757 1757 1766 1766 1766 1766 1766 1766 1766 1766 1766 1766 1776 1776 0 0 0 0 0 0 0
0 0 0 0 0 0 0 0 0 0 0 0 0 0 0 0 0 0 0 0 0 0 0 0 0 0 0 0 0 0 0 0 0 0 0 1663 1663 1663 1663 1671 1671 1671 1671 1680 1680 1680 1680 1680 1671 1671 1680 1680 1680 1680 1680 1680 1688 1688 1688 1688 1680 1680 1680 1680 1680 1680 1688 1688 1688 1688 1688 1680 1680 1680 1680 1680 1680 1680 1680 1680 1680 1680 1680 1680 1680 1680 1680 1680 1680 1680 1680 1680 1680 1680 1680 1680 1680 1680 1680 1680 1680 1680 1688 1680 1680 1688 1688 1688 1688 1688 1688 1688 1688 1688 1688 1688 1688 1688 1688 1688 1680 1680 1680 1680 1680 1680 1680 1688 1688 1688 1688 1688 1696 1696 1688 1688 1688 1688 1688 1688 1688 1688 1688 1696 1696 1696 1696 1696 1696 1696 1696 1696 1696 1696 1696 1696 1696 1696 1696 1696 1696 1696 1696 1696 1696 1696 1696 1696 1696 1696 1696 1696 1696 1696 1696 1696 1696 1705 1705 1705 1705 1705 1705 1705 1705 1705 1705 1705 1705 1705 1705 1713 1713 1705 1705 1713 1713 1713 1713 1713 1713 1713 1713 1713 1713 1713 1713 1713 1713 1713 1713 1713 1713 1713 1713 1713 1722 1722 1731 1731 1731 1731 1731 1731 1731 1731 1731 1731 1713 1713 1713 1713 1713 1722 1722 1731 1739 1748 1609 1609 1609 1609 1609 1609 1601 1601 1601 1601 1609 1609 1609 1609 1713 1722 1722 1731 1731 1731 1731 1731 1731 1731 1731 1739 1731 1731 1731 1731 1731 1731 1731 1731 1731 1731 1731 1731 1731 1731 1731 1731 1731 1731 1731 1739 1739 1739 1739 1739 1739 1739 1739 1739 1739 1731 1731 1731 1731 1731 1731 1731 1731 1731 1731 1739 1739 1739 1739 1739 1739 1739 1739 1739 1739 1739 1739 1739 1739 1739 1739 1739 1739 1739 1739 1739 1739 1739 1731 1731 1731 1731 1458 1458 1458 1458 1464 1458 1458 1458 1458 1458 1458 1458 1458 1464 1503 1509 1523 1529 1529 1529 1543 1543 1557 1564 1731 1731 1731 1731 1731 1731 1731 1731 1731 1731 1731 1739 1731 1731 1731 1731 1731 1731 1731 1731 1731 1739 1739 1739 1739 1739 1739 1748 1748 1748 1748 1748 1748 1748 1748 1748 1748 1748 1757 1757 1748 1748 1748 1748 1748 1748 1748 1748 1748 1748 1748 1748 1748 1748 1748 1757 1757 1757 1757 1757 1748 1748 1739 1739 1739 1748 1748 1748 1748 1748 1748 1748 1748 1748 1748 1748 1748 1748 1496 1496 1483 1477 1477 1477 1477 1477 1477 1477 1477 1477 1477 1477 1477 1477 1477 1470 1470 1477 1477 1477 1748 1748 1748 1748 1748 1748 1748 1757 1757 1757 1757 1757 1757 1757 1757 1757 1757 1757 1757 1757 1757 1757 1757 1757 1757 1757 1757 1757 1757 1757 1757 1757 1757 1757 1757 1757 1748 1748 1748 1748 1748 1748 1748 1748 1757 1757 1748 1748 1739 1739 1739 1739 1748 1748 1748 1748 1748 1748 1748 1748 1748 1748 1748 1748 1748 1748 1748 1757 1748 1748 1748 1748 1748 1748 1748 1748 1748 1748 1748 1748 1748 1748 1748 1748 1748 1748 1748 1748 1757 1757 1757 1757 1757 1757 1748 1748 1748 1748 1748 1748 1748 1748 1757 1757 1757 1757 1766 1757 1757 1757 1757 1766 1757 1748 1748 1748 1757 1757 1757 1757 1757 1748 1748 1748 1748 1748 1748 1748 1748 1748 1757 1757 1748 1748 1739 1739 1739 1739 1739 1739 1739 1739 1748 1748 1748 1748 1748 1748 1748 1748 1748 1748 1739 1739 1739 1739 1748 1748 1748 1748 1748 1748 1748 1748 1748 1748 1748 1757 1757 1757 1757 1757 1757 1757 1757 1757 1766 1766 1766 0 0 0 0 0 0 0
0 0 0 0 0 0 0 0 0 0 0 0 0 0 0 0 0 0 0 0 0 0 0 0 0 0 0 0 0 0 0 0 0 0 0 1655 1655 1663 1663 1671 1671 1671 1671 1671 1671 1671 1671 1671 1671 1671 1680 1671 1671 1671 1671 1671 1671 1671 1671 1680 1680 1680 1680 1680 1680 1680 1680 1680 1680 1680 1688 1680 1680 1680 1680 1680 1680 1680 1680 1680 1680 1671 1671 1680 1680 1680 1680 1680 1680 1680 1680 1680 1680 1680 1680 1680 1680 1680 1680 1680 1680 1680 1680 1680 1680 1680 1680 1680 1680 1680 1688 1688 1688 1680 1680 1680 1680 1680 1680 1680 1680 1680 1680 1680 1680 1680 1680 1680 1680 1688 1688 1688 1688 1688 1688 1688 1688 1688 1688 1688 1688 1688 1688 1696 1688 1688 1696 1696 1696 1696 1696 1696 1696 1696 1696 1696 1696 1688 1688 1688 1688 1696 1696 1688 1688 1688 1688 1688 1696 1696 1688 1688 1688 1696 1688 1688 1696 1705 1696 1696 1696 1696 1696 1705 1705 1705 1705 1705 1705 1705 1705 1705 1705 1705 1705 1705 1705 1705 1705 1705 1705 1705 1705 1713 1713 1713 1713 1705 1705 1713 1705 1705 1705 1705 1705 1713 1713 1713 1713 1713 1713 1713 1722 1722 1722 1731 1731 1713 1713 1713 1713 1713 1713 1713 1722 1731 1739 1748 1601 1601 1609 1609 1609 1609 1601 1601 1609 1609 1609 1609 1616 1616 1713 1713 1713 1722 1722 1731 1731 1731 1731 1731 1731 1731 1731 1731 1731 1731 1731 1731 1731 1731 1731 1731 1722 1722 1722 1731 1731 1731 1731 1731 1731 1731 1731 1739 1739 1739 1739 1739 1739 1739 1739 1731 1731 1731 1731 1731 1731 1731 1731 1731 1731 1731 1731 1731 1731 1739 1739 1731 1731 1739 1739 1739 1739 1739 1739 1739 1739 1739 1739 1739 1739 1739 1739 1739 1731 1731 1731 1731 1458 1458 1458 1464 1464 1464 1464 1458 1458 1458 1458 1464 1464 1470 1503 1509 1516 1529 1529 1529 1536 1543 1557 1564 1731 1731 1731 1731 1731 1731 1731 1731 1731 1731 1731 1731 1731 1731 1731 1731 1731 1731 1731 1731 1731 1731 1731 1731 1731 1731 1731 1739 1739 1739 1739 1739 1748 1739 1739 1739 1739 1739 1748 1748 1739 1739 1739 1739 1739 1739 1739 1739 1739 1739 1748 1748 1748 1748 1748 1748 1748 1748 1739 1739 1739 1739 1739 1739 1739 1739 1748 1748 1748 1739 1739 1739 1739 1739 1739 1739 1748 1748 1503 1503 1483 1483 1483 1477 1477 1477 1477 1477 1477 1477 1477 1477 1477 1477 1477 1477 1477 1477 1477 1477 1739 1739 1739 1739 1748 1748 1748 1748 1748 1748 1748 1748 1748 1748 1748 1757 1757 1757 1757 1757 1757 1757 1757 1757 1757 1757 1757 1757 1748 1748 1748 1748 1748 1748 1748 1748 1748 1748 1748 1748 1748 1748 1748 1748 1748 1748 1739 1739 1739 1739 1739 1739 1739 1739 1739 1739 1748 1748 1748 1748 1748 1748 1748 1748 1748 1748 1748 1748 1748 1748 1748 1748 1748 1748 1748 1748 1748 1748 1748 1748 1748 1748 1748 1748 1748 1748 1748 1748 1748 1748 1748 1748 1748 1748 1748 1748 1748 1748 1748 1748 1748 1748 1748 1748 1757 1757 1757 1748 1748 1757 1757 1748 1748 1748 1748 1748 1748 1748 1748 1748 1748 1748 1748 1748 1748 1748 1748 1748 1748 1748 1748 1748 1748 1739 1739 1739 1739 1739 1739 1739 1739 1739 1748 1748 1739 1739 1739 1739 1739 1739 1739 1739 1739 1739 1739 1739 1739 1748 1748 1748 1748 1748 1748 1748 1748 1748 1748 1757 1757 1757 1757 1757 1757 1748 1748 1757 1757 1766 1766 0 0 0 0 0 0 0
0 0 0 0 0 0 0 0 0 0 0 0 0 0 0 0 0 0 0 0 0 0 0 0 0 0 0 0 0 0 0 0 0 0 0 1655 1655 1663 1663 1663 1663 1663 1663 1663 1671 1671 1671 1671 1671 1671 1671 1671 1671 1663 1663 1671 1671 1671 1671 1671 1671 1671 1680 1680 1680 1680 1680 1680 1680 1680 1680 1671 1671 1671 1671 1671 1671 1680 1680 1680 1680 1671 1671 1671 1671 1671 1671 1671 1671 1671 1671 1671 1671 1671 1671 1671 1671 1671 1671 1680 1680 1680 1680 1680 1680 1680 1680 1680 1680 1680 1680 1680 1680 1680 1680 1680 1680 1680 1680 1680 1680 1680 1680 1680 1680 1680 1680 1680 1680 1680 1688 1688 1688 1688 1688 1688 1688 1688 1688 1688 1680 1680 1688 1688 1688 1688 1688 1688 1688 1696 1688 1688 1688 1688 1688 1688 1688 1688 1688 1688 1688 1688 1688 1688 1688 1688 1688 1688 1688 1688 1688 1688 1688 1688 1688 1688 1688 1688 1688 1688 1688 1688 1696 1696 1696 1696 1696 1705 1705 1705 1705 1705 1705 1705 1705 1705 1705 1705 1705 1705 1705 1705 1705 1705 1713 1713 1705 1705 1705 1705 1705 1705 1705 1705 1705 1705 1705 1705 1705 1713 1713 1713 1713 1713 1722 1722 1713 1713 1713 1705 1705 1713 1713 1713 1713 1722 1739 1748 1601 1601 1609 1609 1609 1609 1601 1601 1609 1609 1609 1609 1609 1616 1696 1696 1713 1713 1722 1722 1722 1722 1722 1722 1722 1722 1722 1722 1731 1731 1731 1731 1722 1722 1722 1722 1722 1722 1722 1722 1722 1731 1731 1722 1722 1731 1731 1731 1731 1731 1731 1731 1731 1731 1731 1731 1731 1731 1731 1731 1731 1722 1722 1731 1731 1731 1731 1731 1731 1731 1731 1731 1731 1731 1731 1731 1731 1731 1731 1731 1731 1731 1731 1731 1731 1731 1731 1731 1731 1731 1731 1470 1464 1464 1464 1464 1464 1464 1464 1464 1458 1458 1464 1464 1464 1470 1496 1509 1516 1529 1529 1529 1536 1543 1557 1564 1731 1731 1731 1731 1731 1731 1731 1731 1722 1722 1731 1731 1731 1731 1731 1731 1731 1731 1731 1731 1731 1731 1731 1731 1731 1731 1731 1731 1731 1731 1731 1739 1739 1731 1731 1731 1739 1739 1739 1739 1739 1739 1739 1739 1739 1739 1739 1739 1739 1739 1739 1739 1739 1739 1739 1748 1748 1739 1739 1739 1731 1731 1731 1731 1731 1739 1739 1739 1739 1731 1731 1731 1731 1731 1731 1722 1722 1722 1503 1489 1483 1483 1483 1483 1483 1477 1477 1477 1477 1477 1477 1477 1477 1477 1477 1477 1477 1477 1483 1739 1739 1739 1739 1739 1739 1739 1739 1748 1739 1739 1748 1748 1748 1748 1748 1748 1748 1748 1748 1748 1748 1748 1748 1748 1748 1748 1748 1748 1748 1748 1748 1748 1748 1748 1748 1748 1748 1748 1748 1748 1748 1748 1748 1748 1748 1748 1739 1739 1739 1739 1739 1739 1739 1739 1739 1739 1748 1748 1748 1748 1748 1748 1748 1739 1739 1748 1748 1748 1739 1739 1739 1739 1739 1739 1739 1748 1748 1748 1748 1739 1739 1748 1748 1748 1739 1739 1739 1748 1748 1748 1748 1748 1748 1748 1748 1748 1748 1748 1748 1748 1748 1748 1748 1748 1748 1748 1748 1748 1748 1748 1748 1739 1739 1739 1739 1748 1748 1748 1748 1748 1748 1748 1748 1748 1739 1739 1739 1748 1748 1748 1748 1748 1739 1739 1739 1739 1739 1739 1739 1739 1739 1739 1748 1739 1739 1739 1739 1739 1739 1739 1739 1739 1739 1739 1739 1739 1739 1739 1739 1739 1739 1739 1739 1739 1739 1739 1739 1748 1748 1748 1748 1748 1748 1748 1748 1748 1757 1757 1766 0 0 0 0 0 0 0
0 0 0 0 0 0 0 0 0 0 0 0 0 0 0 0 0 0 0 0 0 0 0 0 0 0 0 0 0 0 0 0 0 0 0 1655 1655 1655 1663 1663 1663 1663 1663 1663 1663 1663 1663 1663 1671 1671 1671 1671 1671 1663 1663 1663 1663 1663 1663 1671 1671 1671 1680 1680 1680 1680 1671 1671 1671 1671 1680 1663 1663 1663 1663 1671 1671 1671 1671 1671 1663 1663 1663 1663 1663 1663 1663 1663 1663 1671 1663 1663 1663 1663 1671 1671 1671 1671 1671 1671 1671 1671 1671 1671 1671 1671 1671 1671 1671 1671 1680 1680 1680 1680 1680 1680 1680 1680 1680 1680 1680 1680 1680 1680 1680 1680 1680 1680 1680 1680 1680 1680 1688 1688 1688 1680 1680 1680 1680 1680 1680 1680 1680 1688 1688 1688 1688 1688 1688 1688 1688 1688 1688 1688 1688 1688 1688 1680 1680 1680 1680 1680 1680 1680 1680 1680 1680 1680 1680 1680 1680 1680 1688 1688 1680 1680 1680 1680 1680 1688 1688 1688 1688 1688 1688 1696 1680 1680 1680 1680 1680 1705 1705 1705 1705 1705 1705 1705 1705 1705 1705 1705 1705 1705 1705 1705 1705 1705 1705 1705 1705 1705 1705 1696 1696 1696 1696 1696 1696 1705 1705 1713 1713 1713 1713 1713 1713 1713 1713 1705 1705 1713 1713 1713 1713 1713 1722 1739 1601 1601 1609 1609 1616 1609 1601 1601 1601 1601 1609 1609 1609 1616 1688 1688 1705 1713 1713 1713 1713 1713 1713 1713 1713 1713 1713 1713 1722 1722 1722 1722 1705 1705 1722 1705 1705 1713 1713 1713 1713 1722 1722 1722 1722 1731 1731 1722 1722 1731 1731 1731 1731 1731 1731 1731 1731 1722 1722 1731 1722 1722 1722 1722 1722 1722 1722 1722 1722 1722 1731 1731 1731 1731 1731 1731 1731 1731 1731 1731 1731 1731 1731 1731 1731 1731 1731 1731 1731 1731 1731 1470 1464 1464 1464 1464 1464 1464 1464 1464 1458 1458 1464 1464 1464 1470 1496 1509 1523 1529 1529 1529 1543 1543 1722 1722 1722 1731 1731 1731 1731 1731 1722 1722 1722 1722 1722 1731 1722 1722 1722 1722 1731 1731 1722 1722 1731 1731 1731 1731 1731 1731 1731 1731 1731 1731 1731 1731 1731 1731 1731 1731 1731 1731 1739 1739 1739 1739 1731 1731 1731 1731 1731 1731 1731 1731 1739 1739 1739 1739 1739 1739 1739 1731 1731 1731 1722 1722 1722 1722 1731 1731 1731 1731 1731 1731 1731 1731 1722 1722 1722 1722 1722 1722 1503 1483 1483 1483 1483 1483 1483 1483 1483 1483 1477 1477 1477 1477 1477 1477 1477 1477 1477 1477 1483 1731 1731 1731 1731 1731 1739 1731 1731 1739 1739 1739 1739 1739 1739 1739 1739 1739 1739 1739 1739 1739 1739 1739 1739 1739 1739 1739 1739 1748 1739 1739 1739 1739 1739 1739 1739 1739 1739 1739 1739 1748 1739 1739 1739 1739 1739 1739 1739 1739 1739 1739 1739 1739 1739 1739 1739 1739 1748 1748 1739 1739 1739 1739 1739 1739 1739 1739 1739 1739 1739 1739 1739 1739 1739 1739 1739 1739 1739 1739 1739 1739 1739 1739 1739 1739 1739 1739 1739 1739 1739 1739 1739 1748 1748 1748 1748 1748 1739 1739 1748 1748 1748 1748 1748 1748 1748 1748 1748 1748 1748 1748 1748 1739 1739 1739 1739 1739 1739 1739 1739 1739 1739 1739 1739 1739 1739 1739 1739 1739 1739 1739 1739 1739 1739 1731 1731 1739 1739 1739 1739 1739 1739 1739 1739 1731 1731 1731 1731 1731 1731 1731 1739 1739 1739 1739 1739 1739 1739 1739 1739 1739 1739 1739 1739 1739 1739 1739 1739 1739 1739 1739 1739 1739 1739 1739 1739 1748 1748 1757 1757 0 0 0 0 0 0 0
0 0 0 0 0 0 0 0 0 0 0 0 0 0 0 0 0 0 0 0 0 0 0 0 0 0 0 0 0 0 0 0 0 0 0 1647 1647 1655 1655 1655 1655 1655 1655 1655 1663 1663 1663 1663 1663 1663 1671 1663 1663 1663 1663 1663 1663 1663 1663 1663 1671 1671 1671 1671 1671 1671 1671 1671 1671 1671 1671 1663 1663 1663 1663 1663 1663 1663 1663 1663 1655 1655 1663 1655 1655 1655 1663 1663 1663 1663 1663 1663 1663 1663 1663 1671 1671 1671 1671 1663 1663 1663 1663 1663 1663 1663 1663 1671 1671 1671 1671 1671 1671 1671 1671 1671 1680 1680 1680 1680 1680 1680 1680 1680 1680 1680 1680 1671 1671 1680 1680 1680 1680 1680 1680 1680 1680 1680 1680 1680 1671 1671 1680 1680 1680 1680 1680 1688 1688 1688 1688 1688 1688 1688 1688 1680 1680 1680 1680 1671 1671 1680 1680 1680 1680 1680 1680 1680 1680 1680 1680 1680 1680 1688 1680 1680 1680 1680 1680 1680 1680 1688 1688 1688 1688 1680 1680 1680 1680 1680 1680 1696 1696 1696 1696 1705 1705 1696 1696 1696 1696 1696 1696 1696 1696 1696 1696 1705 1705 1705 1705 1696 1696 1696 1696 1696 1696 1696 1696 1696 1696 1705 1705 1705 1713 1713 1705 1705 1705 1705 1705 1705 1705 1713 1713 1713 1713 1594 1594 1601 1609 1609 1609 1609 1601 1601 1601 1601 1609 1609 1609 1616 1671 1688 1705 1705 1705 1705 1713 1713 1705 1705 1705 1705 1705 1705 1705 1705 1705 1705 1705 1705 1705 1705 1705 1705 1705 1713 1713 1713 1713 1713 1713 1722 1722 1722 1722 1722 1722 1713 1713 1722 1722 1722 1713 1713 1722 1713 1713 1713 1713 1713 1713 1713 1713 1722 1722 1722 1722 1722 1722 1722 1731 1731 1722 1722 1722 1722 1722 1722 1722 1722 1722 1722 1722 1731 1722 1722 1470 1470 1464 1464 1464 1464 1464 1464 1464 1464 1464 1464 1464 1464 1464 1470 1503 1509 1523 1529 1529 1536 1543 1543 1722 1722 1722 1722 1722 1722 1722 1722 1722 1722 1722 1722 1722 1722 1722 1722 1722 1722 1722 1722 1722 1722 1722 1722 1722 1731 1731 1722 1722 1722 1722 1722 1722 1722 1722 1722 1722 1731 1731 1731 1731 1731 1731 1731 1731 1731 1731 1731 1731 1731 1731 1731 1731 1739 1739 1739 1739 1731 1731 1731 1731 1731 1722 1722 1722 1722 1722 1722 1722 1722 1722 1722 1722 1722 1722 1722 1722 1713 1713 1713 1713 1483 1483 1483 1483 1483 1483 1483 1483 1483 1483 1477 1477 1477 1477 1477 1477 1477 1477 1483 1489 1722 1722 1722 1722 1722 1731 1731 1731 1731 1731 1731 1739 1731 1731 1731 1731 1731 1731 1731 1731 1731 1731 1731 1739 1739 1739 1739 1739 1739 1731 1731 1739 1731 1731 1739 1739 1739 1739 1739 1739 1739 1739 1739 1739 1731 1731 1731 1722 1722 1731 1731 1731 1731 1731 1731 1739 1739 1739 1739 1739 1739 1739 1739 1739 1739 1739 1731 1731 1731 1731 1731 1731 1731 1731 1739 1739 1739 1739 1739 1731 1731 1731 1739 1739 1739 1739 1739 1739 1739 1739 1739 1739 1739 1739 1748 1739 1739 1739 1739 1739 1739 1739 1739 1748 1748 1748 1748 1748 1748 1748 1739 1739 1739 1739 1739 1739 1739 1739 1739 1739 1739 1739 1739 1731 1731 1731 1731 1731 1739 1739 1739 1739 1739 1739 1731 1731 1739 1739 1731 1731 1731 1731 1731 1731 1731 1731 1722 1722 1722 1731 1731 1731 1731 1731 1731 1731 1731 1731 1731 1731 1731 1731 1731 1731 1731 1731 1739 1739 1739 1739 1739 1739 1739 1739 1739 1739 1748 1748 1748 1757 0 0 0 0 0 0 0
0 0 0 0 0 0 0 0 0 0 0 0 0 0 0 0 0 0 0 0 0 0 0 0 0 0 0 0 0 0 0 0 0 0 0 1639 1639 1639 1647 1647 1647 1647 1647 1647 1647 1655 1655 1655 1655 1663 1663 1663 1663 1663 1655 1655 1655 1655 1655 1655 1655 1655 1655 1655 1655 1655 1655 1655 1663 1663 1655 1655 1655 1655 1655 1655 1655 1655 1655 1655 1655 1655 1655 1655 1655 1655 1655 1655 1655 1655 1655 1655 1655 1655 1655 1655 1655 1655 1655 1663 1663 1663 1663 1663 1663 1663 1663 1663 1663 1663 1663 1663 1663 1663 1663 1663 1663 1663 1663 1663 1663 1663 1671 1671 1671 1671 1671 1671 1671 1671 1671 1671 1671 1671 1671 1671 1671 1671 1671 1671 1663 1663 1663 1663 1671 1671 1671 1671 1671 1671 1680 1680 1680 1680 1680 1671 1671 1671 1671 1663 1663 1671 1671 1671 1671 1671 1671 1671 1680 1680 1680 1680 1680 1680 1680 1680 1680 1680 1680 1680 1680 1680 1680 1680 1680 1680 1680 1680 1680 1680 1680 1696 1696 1696 1696 1696 1696 1688 1688 1688 1688 1696 1688 1688 1688 1696 1696 1696 1696 1696 1696 1696 1696 1696 1688 1688 1688 1688 1688 1688 1696 1705 1705 1705 1705 1713 1705 1705 1705 1705 1705 1705 1705 1705 1713 1705 1705 1594 1594 1601 1609 1609 1609 1609 1601 1601 1601 1601 1601 1609 1609 1616 1655 1688 1696 1705 1705 1705 1705 1705 1705 1705 1705 1705 1705 1705 1705 1705 1705 1705 1705 1705 1705 1705 1705 1705 1705 1705 1713 1713 1713 1713 1713 1722 1722 1705 1705 1713 1713 1705 1705 1713 1713 1713 1713 1713 1713 1713 1705 1705 1705 1705 1705 1705 1713 1713 1713 1713 1722 1722 1722 1722 1722 1722 1722 1713 1713 1713 1713 1722 1713 1713 1722 1722 1722 1722 1722 1722 1470 1470 1464 1464 1464 1464 1464 1464 1464 1464 1464 1464 1464 1464 1470 1470 1503 1509 1523 1529 1529 1529 1529 1713 1713 1722 1722 1722 1722 1722 1722 1722 1722 1722 1722 1722 1722 1722 1722 1722 1722 1722 1722 1722 1722 1722 1722 1722 1722 1722 1722 1722 1722 1722 1722 1722 1722 1722 1722 1722 1722 1722 1731 1731 1731 1731 1731 1731 1731 1731 1731 1731 1731 1731 1731 1731 1731 1731 1731 1731 1731 1731 1731 1722 1722 1722 1713 1713 1713 1713 1722 1722 1722 1722 1722 1722 1722 1713 1713 1722 1722 1713 1713 1713 1713 1483 1483 1483 1483 1483 1483 1483 1483 1483 1483 1477 1477 1477 1477 1477 1477 1477 1477 1483 1489 1722 1722 1722 1722 1722 1722 1722 1722 1722 1722 1722 1731 1731 1731 1722 1722 1722 1722 1722 1731 1731 1722 1722 1731 1731 1731 1731 1731 1731 1731 1731 1731 1731 1731 1739 1739 1731 1731 1739 1731 1731 1731 1731 1731 1731 1722 1722 1722 1722 1722 1722 1722 1722 1722 1722 1713 1713 1713 1713 1713 1713 1713 1713 1731 1731 1731 1731 1731 1731 1731 1731 1731 1731 1731 1739 1731 1731 1739 1739 1731 1731 1731 1731 1731 1731 1731 1731 1731 1731 1739 1739 1739 1739 1739 1739 1739 1739 1739 1739 1739 1731 1731 1739 1739 1739 1739 1739 1739 1739 1739 1739 1739 1731 1731 1731 1731 1731 1731 1731 1731 1731 1739 1739 1731 1731 1731 1731 1731 1731 1731 1739 1739 1739 1739 1731 1731 1731 1731 1731 1731 1731 1731 1731 1722 1722 1722 1722 1722 1722 1722 1722 1722 1731 1731 1731 1731 1731 1731 1722 1722 1722 1722 1731 1731 1731 1731 1731 1731 1731 1731 1731 1739 1739 1739 1739 1739 1739 1748 1748 1748 0 0 0 0 0 0 0
0 0 0 0 0 0 0 0 0 0 0 0 0 0 0 0 0 0 0 0 0 0 0 0 0 0 0 0 0 0 0 0 0 0 0 1632 1632 1639 1639 1639 1639 1647 1647 1647 1647 1647 1647 1655 1655 1655 1655 1655 1655 1655 1655 1655 1655 1655 1655 1655 1655 1655 1655 1655 1655 1655 1647 1647 1655 1655 1655 1655 1655 1655 1655 1655 1655 1655 1655 1655 1655 1655 1655 1655 1647 1647 1655 1655 1655 1655 1647 1647 1655 1655 1655 1655 1655 1655 1655 1655 1655 1663 1663 1663 1663 1663 1663 1663 1663 1663 1663 1655 1655 1663 1655 1655 1655 1655 1663 1663 1663 1663 1663 1663 1671 1671 1671 1663 1663 1663 1663 1663 1663 1663 1671 1671 1671 1671 1671 1671 1663 1663 1663 1663 1663 1671 1671 1671 1671 1671 1671 1680 1680 1671 1671 1671 1671 1663 1663 1663 1663 1663 1663 1671 1671 1671 1663 1663 1663 1663 1671 1663 1663 1663 1671 1671 1671 1671 1671 1671 1671 1680 1671 1671 1671 1680 1680 1671 1671 1680 1680 1671 1671 1671 1680 1680 1680 1680 1688 1688 1688 1688 1680 1680 1688 1688 1688 1688 1688 1688 1688 1680 1680 1680 1680 1680 1680 1680 1680 1688 1688 1696 1696 1696 1705 1705 1705 1705 1705 1705 1705 1705 1696 1696 1705 1705 1705 1601 1601 1609 1609 1609 1609 1609 1609 1601 1601 1601 1601 1609 1609 1616 1655 1671 1696 1696 1696 1696 1705 1705 1705 1705 1705 1705 1705 1705 1705 1696 1696 1696 1705 1705 1705 1705 1705 1705 1705 1705 1713 1713 1705 1705 1705 1705 1705 1705 1705 1705 1705 1705 1705 1705 1713 1705 1705 1705 1713 1705 1705 1705 1705 1705 1705 1705 1705 1713 1713 1713 1713 1713 1713 1713 1713 1713 1713 1713 1705 1705 1705 1705 1705 1705 1713 1713 1713 1713 1713 1705 1470 1470 1464 1464 1464 1464 1464 1464 1464 1464 1464 1464 1464 1464 1483 1483 1503 1509 1523 1529 1529 1529 1529 1713 1713 1713 1713 1713 1713 1722 1722 1713 1713 1713 1713 1713 1713 1713 1713 1713 1713 1713 1713 1713 1713 1705 1705 1713 1713 1722 1722 1722 1722 1713 1713 1713 1722 1713 1713 1713 1713 1722 1722 1722 1722 1722 1722 1722 1722 1722 1722 1722 1722 1722 1722 1722 1722 1722 1722 1722 1722 1722 1722 1722 1722 1722 1713 1713 1713 1713 1713 1713 1713 1713 1722 1722 1722 1713 1713 1713 1713 1713 1705 1705 1705 1483 1483 1483 1483 1483 1483 1483 1483 1483 1483 1477 1477 1477 1477 1477 1477 1477 1483 1483 1483 1713 1713 1713 1722 1722 1722 1722 1722 1722 1722 1722 1722 1722 1722 1722 1722 1722 1722 1722 1722 1722 1713 1713 1722 1722 1722 1722 1722 1722 1731 1731 1731 1731 1731 1731 1731 1731 1731 1731 1722 1722 1722 1722 1722 1722 1722 1722 1713 1713 1713 1722 1722 1713 1713 1722 1713 1713 1713 1713 1713 1713 1713 1713 1722 1722 1722 1722 1722 1722 1713 1713 1713 1713 1722 1731 1731 1731 1731 1731 1722 1722 1722 1731 1722 1722 1722 1722 1731 1731 1731 1731 1731 1731 1739 1739 1739 1739 1731 1731 1731 1731 1731 1731 1731 1739 1739 1731 1731 1739 1739 1731 1731 1722 1722 1722 1722 1722 1722 1731 1731 1731 1731 1739 1731 1731 1731 1731 1731 1731 1731 1731 1731 1739 1739 1731 1731 1731 1731 1731 1722 1722 1722 1722 1713 1713 1713 1713 1713 1713 1713 1722 1722 1722 1722 1722 1722 1722 1722 1722 1722 1722 1722 1731 1731 1731 1731 1731 1731 1731 1731 1731 1739 1739 1739 1739 1739 1739 1739 1739 1739 0 0 0 0 0 0 0
0 0 0 0 0 0 0 0 0 0 0 0 0 0 0 0 0 0 0 0 0 0 0 0 0 0 0 0 0 0 0 0 0 0 0 1632 1632 1632 1632 1632 1632 1639 1639 1639 1639 1639 1639 1647 1647 1655 1655 1655 1655 1655 1655 1655 1655 1647 1647 1647 1655 1655 1655 1655 1655 1655 1647 1647 1647 1647 1647 1647 1647 1647 1647 1655 1655 1655 1655 1655 1655 1655 1655 1647 1647 1647 1647 1647 1647 1647 1647 1647 1647 1647 1647 1647 1647 1647 1655 1655 1655 1655 1655 1655 1655 1647 1647 1655 1655 1655 1655 1655 1655 1655 1655 1655 1655 1655 1655 1655 1655 1655 1663 1663 1671 1663 1663 1663 1663 1663 1655 1655 1655 1655 1663 1663 1663 1663 1663 1663 1663 1663 1663 1663 1663 1663 1663 1663 1663 1663 1663 1671 1671 1671 1671 1671 1671 1663 1663 1663 1663 1663 1663 1663 1663 1663 1663 1663 1663 1663 1663 1655 1655 1663 1663 1663 1663 1671 1671 1671 1671 1671 1671 1671 1671 1671 1671 1671 1671 1671 1671 1671 1671 1671 1671 1680 1680 1680 1680 1680 1680 1680 1680 1680 1680 1680 1680 1680 1680 1680 1680 1680 1680 1680 1680 1680 1680 1680 1680 1680 1680 1688 1688 1688 1688 1688 1688 1696 1688 1688 1688 1688 1688 1688 1696 1688 1680 1609 1609 1609 1609 1609 1609 1609 1609 1601 1601 1601 1609 1609 1616 1632 1663 1671 1696 1696 1696 1696 1696 1696 1705 1696 1696 1705 1705 1705 1696 1696 1696 1696 1696 1696 1705 1705 1705 1705 1705 1705 1705 1705 1705 1705 1705 1705 1705 1705 1705 1705 1705 1696 1696 1705 1705 1705 1705 1705 1705 1705 1705 1705 1705 1696 1696 1696 1705 1705 1705 1705 1705 1705 1713 1713 1713 1713 1705 1705 1705 1705 1705 1705 1705 1705 1705 1713 1713 1713 1713 1705 1705 1470 1464 1464 1464 1464 1464 1464 1464 1464 1464 1464 1464 1464 1483 1489 1503 1509 1516 1523 1529 1529 1705 1705 1713 1713 1713 1705 1705 1713 1713 1713 1713 1713 1713 1713 1713 1713 1713 1713 1713 1705 1705 1705 1705 1705 1705 1713 1713 1713 1713 1713 1713 1705 1705 1713 1713 1713 1705 1705 1705 1722 1722 1713 1713 1713 1713 1722 1713 1713 1722 1722 1722 1722 1722 1722 1722 1722 1722 1722 1722 1722 1722 1722 1722 1722 1713 1713 1713 1713 1713 1713 1713 1713 1713 1713 1713 1713 1713 1713 1713 1705 1705 1705 1705 1483 1483 1489 1489 1489 1489 1489 1489 1483 1483 1477 1477 1477 1477 1477 1477 1477 1483 1483 1483 1713 1713 1713 1713 1713 1713 1722 1713 1713 1722 1722 1713 1713 1722 1722 1722 1722 1722 1713 1713 1713 1713 1713 1713 1713 1713 1713 1722 1722 1722 1722 1722 1731 1722 1722 1722 1722 1722 1722 1722 1722 1722 1722 1722 1722 1722 1722 1713 1713 1713 1713 1713 1713 1713 1713 1713 1713 1713 1713 1713 1713 1713 1713 1713 1713 1713 1713 1713 1713 1713 1713 1713 1713 1713 1713 1713 1713 1713 1722 1713 1713 1713 1722 1722 1722 1722 1722 1722 1722 1722 1722 1722 1731 1731 1739 1739 1739 1731 1731 1731 1722 1722 1722 1731 1731 1731 1731 1731 1731 1731 1731 1722 1722 1713 1713 1722 1722 1722 1722 1722 1722 1731 1731 1731 1731 1731 1731 1731 1731 1731 1731 1731 1731 1731 1722 1722 1731 1722 1722 1713 1713 1713 1713 1705 1705 1705 1705 1713 1705 1705 1713 1713 1713 1713 1722 1713 1713 1713 1713 1713 1713 1722 1722 1722 1731 1731 1731 1731 1731 1731 1731 1739 1739 1739 1739 1739 1739 1739 1739 1739 0 0 0 0 0 0 0
0 0 0 0 0 0 0 0 0 0 0 0 0 0 0 0 0 0 0 0 0 0 0 0 0 0 0 0 0 0 0 0 0 0 0 1624 1624 1632 1632 1632 1632 1632 1632 1632 1639 1639 1639 1639 1639 1639 1639 1647 1647 1647 1647 1647 1647 1647 1639 1639 1647 1647 1647 1647 1647 1647 1647 1647 1647 1647 1647 1647 1647 1647 1647 1655 1655 1655 1655 1647 1647 1647 1647 1647 1647 1647 1647 1647 1639 1639 1639 1639 1647 1647 1647 1647 1647 1647 1647 1655 1647 1647 1655 1655 1655 1647 1647 1655 1647 1647 1655 1655 1655 1655 1655 1655 1655 1655 1655 1655 1655 1655 1655 1655 1655 1655 1655 1655 1655 1655 1655 1655 1655 1655 1655 1655 1655 1663 1663 1663 1663 1655 1655 1655 1655 1655 1655 1655 1655 1655 1663 1663 1663 1671 1663 1663 1663 1655 1655 1655 1655 1655 1655 1655 1655 1655 1655 1655 1655 1655 1655 1655 1655 1655 1655 1655 1655 1663 1663 1671 1671 1671 1671 1671 1671 1671 1671 1671 1671 1671 1671 1671 1671 1671 1671 1671 1671 1680 1680 1680 1680 1671 1671 1671 1671 1680 1680 1680 1680 1680 1680 1680 1680 1680 1680 1671 1671 1680 1680 1680 1680 1680 1680 1680 1680 1680 1680 1680 1680 1680 1680 1680 1680 1680 1680 1680 1671 1671 1609 1609 1609 1609 1609 1609 1609 1609 1609 1609 1609 1609 1616 1624 1663 1671 1688 1688 1688 1688 1688 1688 1688 1696 1696 1696 1696 1696 1696 1696 1688 1688 1688 1696 1696 1696 1696 1696 1696 1696 1705 1705 1705 1696 1696 1705 1696 1696 1696 1696 1696 1696 1696 1705 1696 1696 1696 1705 1705 1705 1705 1705 1705 1696 1696 1696 1696 1696 1696 1705 1705 1705 1705 1705 1705 1705 1705 1705 1705 1705 1705 1705 1705 1705 1705 1705 1705 1705 1705 1705 1705 1470 1464 1464 1464 1464 1464 1464 1464 1464 1464 1464 1464 1470 1483 1496 1503 1509 1509 1523 1529 1696 1696 1696 1696 1705 1705 1696 1696 1696 1705 1705 1705 1705 1705 1705 1705 1705 1713 1705 1705 1705 1705 1705 1705 1705 1705 1705 1705 1705 1713 1713 1705 1705 1705 1705 1705 1705 1705 1705 1705 1713 1713 1713 1713 1713 1713 1713 1713 1713 1713 1713 1713 1713 1713 1713 1713 1713 1722 1722 1722 1722 1713 1713 1722 1722 1713 1705 1705 1705 1705 1713 1713 1713 1713 1713 1713 1713 1713 1713 1713 1705 1705 1705 1688 1489 1489 1489 1489 1489 1489 1489 1489 1483 1483 1477 1477 1477 1477 1477 1477 1477 1477 1477 1483 1713 1713 1713 1713 1713 1713 1713 1713 1713 1713 1722 1713 1713 1722 1722 1713 1713 1713 1713 1713 1713 1713 1713 1713 1713 1713 1713 1713 1713 1722 1722 1722 1722 1722 1722 1722 1722 1722 1722 1713 1713 1722 1722 1722 1713 1713 1713 1705 1705 1713 1713 1713 1713 1713 1713 1713 1705 1705 1705 1705 1713 1713 1713 1713 1713 1713 1713 1713 1713 1705 1705 1705 1705 1713 1713 1713 1713 1713 1713 1713 1713 1713 1713 1713 1713 1713 1713 1713 1713 1713 1713 1713 1722 1722 1731 1731 1731 1722 1722 1722 1713 1713 1722 1722 1731 1731 1722 1722 1731 1731 1722 1722 1713 1713 1713 1713 1713 1713 1713 1713 1713 1722 1722 1722 1722 1722 1722 1722 1722 1722 1722 1722 1731 1731 1722 1722 1722 1722 1713 1713 1713 1713 1713 1705 1705 1705 1705 1705 1705 1705 1705 1705 1705 1705 1705 1705 1705 1705 1713 1713 1713 1713 1722 1722 1722 1722 1722 1731 1731 1731 1731 1739 1739 1739 1739 1739 1739 1739 1739 1739 0 0 0 0 0 0 0
0 0 0 0 0 0 0 0 0 0 0 0 0 0 0 0 0 0 0 0 0 0 0 0 0 0 0 0 0 0 0 0 0 0 0 1624 1624 1624 1624 1632 1632 1632 1632 1632 1632 1632 1632 1632 1632 1632 1632 1639 1639 1639 1639 1639 1639 1639 1639 1639 1639 1639 1639 1639 1639 1639 1647 1639 1639 1639 1639 1639 1639 1639 1647 1647 1647 1655 1655 1647 1647 1647 1647 1647 1639 1639 1639 1647 1639 1639 1639 1639 1647 1647 1647 1647 1647 1647 1647 1647 1647 1647 1647 1647 1647 1647 1647 1647 1647 1647 1647 1647 1647 1647 1647 1647 1655 1647 1647 1647 1647 1647 1647 1647 1647 1647 1647 1647 1647 1647 1647 1647 1647 1647 1655 1655 1655 1655 1655 1655 1655 1655 1655 1655 1655 1655 1655 1655 1655 1655 1655 1655 1655 1663 1655 1655 1663 1655 1655 1655 1655 1655 1655 1655 1655 1655 1655 1655 1655 1655 1655 1655 1655 1655 1655 1655 1655 1655 1655 1663 1663 1671 1671 1663 1663 1663 1671 1663 1663 1663 1671 1663 1663 1671 1671 1671 1671 1671 1671 1671 1671 1671 1671 1671 1671 1671 1671 1671 1671 1671 1671 1671 1671 1671 1671 1671 1671 1671 1671 1671 1680 1680 1680 1680 1680 1680 1680 1680 1680 1680 1680 1680 1680 1680 1680 1680 1671 1671 1616 1609 1609 1609 1609 1609 1601 1601 1601 1609 1609 1616 1616 1624 1663 1671 1680 1680 1680 1680 1688 1688 1688 1688 1688 1696 1696 1688 1688 1688 1688 1688 1688 1688 1696 1696 1696 1696 1696 1696 1696 1696 1688 1688 1688 1696 1696 1696 1696 1696 1696 1696 1696 1696 1696 1696 1696 1696 1696 1696 1696 1696 1696 1696 1688 1688 1696 1696 1696 1696 1696 1696 1696 1705 1705 1705 1705 1705 1705 1696 1696 1696 1696 1696 1696 1705 1705 1705 1705 1705 1705 1470 1464 1464 1464 1464 1464 1458 1458 1458 1458 1464 1464 1470 1483 1496 1503 1503 1509 1523 1688 1696 1696 1696 1696 1696 1696 1696 1696 1696 1696 1696 1696 1696 1705 1705 1705 1705 1705 1705 1705 1705 1696 1696 1696 1696 1696 1705 1705 1705 1705 1705 1705 1696 1696 1696 1696 1696 1705 1705 1705 1705 1705 1705 1705 1705 1705 1705 1713 1705 1705 1705 1705 1705 1713 1705 1705 1705 1722 1713 1713 1713 1713 1713 1713 1713 1705 1705 1705 1705 1705 1705 1705 1713 1713 1713 1713 1713 1705 1705 1705 1705 1705 1705 1688 1688 1489 1489 1489 1489 1489 1489 1489 1483 1483 1477 1477 1477 1477 1477 1477 1477 1477 1477 1705 1713 1713 1705 1705 1713 1713 1713 1713 1713 1713 1713 1713 1713 1713 1713 1713 1713 1713 1713 1713 1713 1713 1713 1713 1713 1713 1713 1713 1713 1713 1713 1713 1713 1713 1713 1713 1713 1722 1722 1713 1713 1713 1713 1713 1713 1713 1713 1705 1705 1705 1705 1705 1705 1705 1705 1705 1705 1705 1705 1705 1705 1705 1705 1705 1705 1705 1705 1705 1705 1705 1705 1705 1705 1705 1705 1705 1705 1713 1713 1713 1713 1713 1713 1713 1713 1713 1705 1705 1713 1713 1713 1713 1713 1713 1722 1713 1713 1713 1713 1713 1713 1713 1713 1722 1722 1722 1722 1722 1722 1722 1713 1713 1713 1713 1713 1713 1705 1705 1713 1713 1713 1713 1713 1713 1713 1722 1722 1722 1722 1722 1722 1722 1722 1722 1713 1713 1713 1713 1705 1705 1705 1705 1705 1705 1696 1696 1705 1705 1705 1705 1705 1705 1705 1705 1705 1705 1705 1705 1705 1705 1705 1713 1713 1713 1713 1722 1722 1722 1722 1731 1731 1731 1731 1731 1731 1731 1731 1731 1731 1731 0 0 0 0 0 0 0
0 0 0 0 0 0 0 0 0 0 0 0 0 0 0 0 0 0 0 0 0 0 0 0 0 0 0 0 0 0 0 0 0 0 0 1624 1624 1624 1624 1632 1632 1632 1632 1632 1632 1632 1632 1632 1632 1632 1632 1632 1632 1632 1639 1639 1639 1639 1639 1639 1639 1639 1632 1632 1639 1639 1639 1639 1639 1639 1639 1639 1639 1639 1647 1647 1647 1655 1655 1647 1647 1647 1639 1639 1639 1632 1632 1639 1632 1632 1632 1632 1639 1639 1639 1639 1639 1647 1647 1647 1647 1647 1647 1647 1647 1647 1647 1647 1647 1647 1647 1647 1647 1647 1647 1647 1647 1647 1647 1647 1647 1647 1647 1647 1647 1647 1647 1647 1647 1647 1647 1647 1647 1647 1647 1647 1647 1647 1647 1647 1647 1647 1647 1647 1655 1655 1655 1655 1655 1655 1655 1655 1655 1655 1655 1655 1655 1647 1647 1647 1647 1647 1647 1647 1647 1647 1647 1647 1647 1647 1647 1647 1647 1647 1647 1647 1655 1655 1655 1655 1663 1663 1663 1663 1663 1663 1663 1655 1655 1655 1655 1663 1663 1663 1663 1671 1671 1671 1671 1671 1671 1671 1671 1671 1671 1671 1671 1671 1671 1671 1671 1671 1671 1671 1671 1671 1671 1671 1671 1671 1671 1671 1671 1671 1671 1671 1671 1671 1671 1671 1680 1671 1671 1680 1680 1680 1663 1663 1616 1616 1609 1609 1609 1609 1601 1601 1601 1609 1609 1616 1632 1647 1663 1663 1671 1671 1671 1671 1671 1671 1680 1680 1680 1688 1688 1688 1680 1680 1680 1688 1688 1688 1688 1688 1688 1688 1688 1688 1688 1688 1688 1688 1688 1688 1688 1688 1688 1696 1696 1688 1688 1696 1696 1696 1696 1688 1688 1696 1688 1688 1696 1696 1688 1688 1688 1688 1688 1688 1688 1688 1696 1696 1696 1696 1696 1696 1696 1696 1696 1696 1696 1696 1696 1696 1696 1696 1696 1696 1696 1705 1464 1464 1464 1464 1464 1458 1458 1458 1458 1464 1464 1470 1483 1489 1496 1496 1509 1688 1688 1688 1688 1688 1688 1696 1696 1688 1688 1688 1696 1688 1688 1696 1696 1696 1696 1696 1696 1696 1696 1696 1696 1696 1696 1696 1696 1696 1696 1696 1696 1705 1705 1696 1696 1696 1696 1696 1696 1696 1696 1696 1696 1696 1696 1705 1705 1705 1696 1696 1696 1696 1696 1696 1705 1705 1705 1705 1705 1705 1705 1705 1705 1705 1705 1705 1705 1696 1696 1696 1705 1705 1705 1705 1705 1705 1705 1705 1696 1696 1696 1696 1696 1696 1688 1688 1489 1489 1489 1489 1489 1489 1489 1483 1483 1483 1483 1483 1477 1477 1477 1477 1477 1483 1705 1705 1705 1705 1705 1705 1705 1713 1713 1713 1705 1705 1705 1705 1705 1705 1705 1705 1713 1713 1713 1705 1705 1705 1705 1705 1705 1713 1713 1713 1713 1713 1713 1713 1713 1713 1713 1713 1713 1713 1713 1713 1713 1713 1713 1713 1713 1713 1705 1705 1705 1705 1705 1705 1705 1705 1705 1696 1696 1696 1696 1705 1705 1705 1705 1705 1705 1705 1705 1705 1705 1705 1705 1705 1705 1705 1705 1705 1705 1705 1705 1705 1705 1705 1705 1705 1705 1705 1705 1705 1705 1705 1705 1713 1713 1713 1713 1705 1705 1705 1705 1705 1705 1705 1713 1713 1713 1713 1713 1713 1713 1713 1713 1713 1705 1705 1705 1705 1705 1705 1705 1705 1713 1713 1713 1713 1713 1713 1713 1713 1713 1713 1713 1713 1713 1705 1705 1705 1705 1705 1705 1705 1705 1705 1696 1696 1696 1696 1696 1696 1696 1705 1705 1705 1705 1705 1705 1705 1705 1705 1705 1705 1705 1705 1705 1713 1713 1713 1722 1722 1722 1722 1731 1731 1731 1731 1731 1731 1722 1722 1722 0 0 0 0 0 0 0
0 0 0 0 0 0 0 0 0 0 0 0 0 0 0 0 0 0 0 0 0 0 0 0 0 0 0 0 0 0 0 0 0 0 0 1624 1624 1624 1624 1624 1624 1624 1624 1624 1624 1624 1632 1632 1632 1632 1632 1632 1632 1632 1632 1632 1632 1632 1632 1632 1632 1632 1632 1632 1632 1639 1632 1632 1632 1639 1639 1632 1632 1639 1639 1647 1647 1647 1647 1647 1647 1647 1632 1632 1632 1632 1632 1632 1632 1632 1632 1632 1632 1632 1639 1639 1639 1639 1639 1647 1647 1647 1647 1647 1647 1639 1639 1639 1639 1639 1647 1639 1639 1639 1639 1639 1647 1647 1647 1647 1647 1647 1647 1647 1639 1639 1639 1639 1639 1639 1639 1639 1647 1647 1647 1647 1647 1647 1647 1647 1647 1647 1647 1647 1647 1647 1655 1655 1647 1647 1647 1647 1647 1647 1647 1647 1655 1647 1647 1647 1647 1647 1647 1647 1647 1647 1647 1647 1647 1647 1647 1647 1647 1647 1647 1647 1647 1647 1647 1655 1655 1655 1655 1655 1655 1655 1655 1655 1647 1647 1655 1655 1655 1663 1663 1663 1663 1663 1663 1671 1663 1663 1671 1671 1671 1671 1671 1671 1671 1671 1671 1671 1671 1671 1671 1671 1671 1663 1663 1671 1671 1671 1671 1671 1671 1671 1671 1671 1671 1671 1671 1671 1671 1680 1680 1671 1663 1663 1616 1616 1609 1609 1616 1609 1601 1601 1601 1609 1609 1616 1632 1647 1663 1663 1671 1671 1671 1671 1671 1671 1671 1671 1680 1680 1680 1680 1680 1680 1680 1680 1680 1680 1680 1680 1680 1680 1680 1680 1680 1680 1680 1680 1680 1680 1688 1680 1680 1688 1688 1688 1688 1688 1688 1688 1688 1680 1680 1680 1688 1688 1688 1688 1688 1688 1688 1680 1680 1688 1688 1688 1688 1688 1688 1696 1696 1688 1688 1688 1688 1688 1696 1696 1696 1696 1696 1696 1696 1696 1696 1688 1464 1464 1464 1464 1464 1464 1458 1458 1464 1464 1464 1470 1483 1489 1489 1496 1509 1688 1688 1688 1688 1688 1688 1688 1688 1688 1688 1688 1688 1688 1688 1688 1688 1688 1688 1688 1696 1696 1696 1696 1696 1696 1696 1696 1696 1696 1696 1696 1696 1696 1696 1696 1696 1696 1696 1696 1696 1696 1696 1696 1696 1696 1696 1696 1705 1696 1696 1696 1696 1696 1696 1696 1696 1696 1696 1696 1696 1696 1696 1696 1696 1696 1705 1705 1696 1688 1688 1696 1696 1705 1705 1705 1705 1705 1696 1696 1696 1696 1696 1696 1696 1696 1688 1688 1496 1496 1496 1496 1496 1489 1489 1483 1483 1483 1483 1483 1477 1477 1477 1477 1477 1477 1688 1696 1696 1705 1705 1705 1705 1705 1705 1696 1696 1696 1696 1696 1696 1696 1696 1705 1705 1705 1705 1705 1705 1705 1705 1705 1705 1705 1705 1705 1705 1705 1713 1713 1713 1713 1713 1713 1713 1713 1705 1705 1705 1705 1705 1705 1705 1705 1705 1696 1696 1696 1696 1696 1696 1696 1696 1696 1696 1696 1696 1696 1705 1705 1705 1705 1705 1705 1705 1705 1696 1696 1705 1705 1705 1696 1696 1705 1705 1705 1705 1705 1705 1705 1705 1705 1705 1705 1705 1705 1705 1705 1705 1705 1705 1705 1705 1705 1705 1705 1705 1705 1705 1705 1705 1705 1705 1705 1705 1713 1705 1705 1705 1705 1705 1705 1705 1705 1696 1696 1696 1705 1705 1705 1705 1705 1705 1705 1713 1713 1713 1713 1713 1713 1713 1696 1696 1696 1696 1696 1696 1696 1696 1696 1696 1696 1696 1696 1696 1696 1696 1696 1696 1705 1705 1705 1705 1705 1696 1696 1705 1705 1705 1705 1705 1705 1705 1705 1713 1713 1722 1722 1731 1731 1722 1722 1722 1722 1722 1713 1713 0 0 0 0 0 0 0
0 0 0 0 0 0 0 0 0 0 0 0 0 0 0 0 0 0 0 0 0 0 0 0 0 0 0 0 0 0 0 0 0 0 0 1616 1616 1616 1616 1624 1624 1624 1624 1624 1624 1624 1624 1624 1624 1624 1632 1632 1632 1632 1632 1632 1632 1632 1632 1632 1632 1632 1632 1632 1632 1632 1632 1632 1632 1632 1632 1632 1632 1632 1632 1639 1639 1647 1647 1647 1647 1632 1632 1632 1632 1624 1624 1632 1632 1632 1632 1632 1632 1632 1632 1632 1639 1632 1632 1639 1639 1639 1639 1639 1639 1639 1639 1639 1632 1632 1639 1639 1639 1639 1639 1639 1639 1639 1639 1639 1639 1639 1639 1639 1639 1639 1632 1632 1639 1639 1639 1639 1647 1647 1647 1647 1647 1639 1639 1647 1639 1639 1639 1639 1647 1647 1647 1647 1647 1647 1647 1647 1647 1647 1647 1647 1647 1639 1639 1647 1647 1647 1647 1647 1647 1647 1647 1647 1647 1647 1647 1647 1647 1647 1647 1647 1647 1647 1647 1647 1647 1647 1647 1647 1647 1647 1647 1647 1647 1647 1647 1655 1655 1655 1655 1655 1655 1663 1663 1663 1663 1663 1663 1663 1663 1663 1663 1663 1663 1663 1671 1671 1671 1671 1671 1663 1663 1663 1663 1663 1671 1671 1671 1671 1671 1671 1671 1671 1671 1671 1671 1671 1671 1671 1671 1655 1655 1639 1616 1616 1609 1609 1616 1609 1601 1601 1609 1609 1616 1616 1632 1639 1655 1663 1671 1671 1671 1671 1671 1671 1671 1671 1671 1671 1671 1671 1671 1671 1671 1671 1671 1671 1680 1680 1680 1680 1680 1680 1680 1671 1671 1671 1671 1680 1680 1680 1680 1688 1688 1688 1680 1680 1680 1680 1680 1680 1680 1680 1680 1680 1680 1680 1688 1688 1680 1680 1680 1688 1688 1688 1688 1688 1688 1688 1688 1688 1688 1688 1688 1680 1680 1680 1688 1696 1688 1688 1696 1696 1696 1688 1464 1464 1464 1464 1464 1464 1458 1458 1464 1464 1470 1477 1483 1489 1489 1496 1680 1680 1671 1671 1680 1680 1688 1680 1680 1680 1680 1680 1680 1680 1680 1680 1680 1680 1680 1680 1688 1688 1688 1688 1688 1688 1688 1696 1696 1696 1696 1696 1696 1696 1696 1688 1688 1688 1688 1688 1688 1688 1688 1688 1696 1696 1696 1696 1705 1696 1696 1696 1696 1696 1696 1696 1696 1696 1696 1696 1696 1696 1696 1696 1696 1696 1696 1696 1696 1688 1688 1688 1696 1696 1696 1696 1705 1688 1688 1688 1688 1688 1688 1688 1696 1696 1688 1688 1496 1496 1496 1496 1496 1489 1489 1489 1483 1483 1483 1483 1477 1477 1477 1477 1477 1477 1680 1688 1688 1688 1696 1696 1705 1705 1705 1696 1696 1696 1696 1696 1696 1696 1696 1696 1696 1705 1705 1705 1705 1705 1696 1696 1696 1696 1696 1696 1696 1696 1696 1705 1705 1705 1705 1705 1713 1713 1705 1705 1705 1705 1705 1705 1705 1705 1696 1688 1688 1688 1688 1688 1688 1696 1696 1696 1696 1696 1696 1696 1696 1696 1705 1705 1705 1705 1705 1696 1696 1696 1696 1696 1696 1696 1696 1696 1705 1705 1705 1705 1705 1705 1705 1705 1705 1705 1705 1705 1705 1705 1705 1705 1705 1705 1705 1705 1705 1705 1705 1696 1696 1696 1705 1705 1705 1705 1705 1705 1705 1705 1696 1696 1696 1696 1696 1696 1696 1696 1696 1688 1688 1688 1688 1688 1696 1696 1705 1705 1705 1705 1705 1705 1705 1696 1696 1696 1696 1696 1696 1696 1696 1696 1696 1696 1696 1696 1696 1696 1696 1696 1696 1705 1705 1705 1705 1705 1696 1696 1696 1696 1696 1696 1705 1705 1705 1705 1713 1713 1713 1722 1722 1722 1713 1713 1713 1713 1713 1713 1713 0 0 0 0 0 0 0
0 0 0 0 0 0 0 0 0 0 0 0 0 0 0 0 0 0 0 0 0 0 0 0 0 0 0 0 0 0 0 0 0 0 0 1609 1609 1609 1616 1624 1624 1624 1624 1624 1624 1624 1624 1624 1624 1624 1624 1624 1624 1624 1632 1632 1624 1624 1632 1632 1632 1632 1632 1632 1632 1632 1632 1632 1632 1632 1632 1624 1624 1624 1624 1624 1624 1624 1624 1639 1624 1624 1624 1624 1624 1624 1624 1624 1624 1624 1632 1632 1632 1632 1632 1632 1632 1632 1632 1639 1639 1632 1632 1632 1632 1632 1632 1632 1632 1632 1632 1632 1624 1624 1632 1632 1632 1632 1632 1632 1639 1632 1632 1632 1632 1632 1632 1632 1632 1632 1639 1639 1639 1639 1639 1632 1632 1632 1632 1632 1632 1639 1632 1632 1639 1639 1647 1647 1647 1647 1647 1647 1647 1647 1639 1639 1639 1639 1639 1639 1639 1639 1639 1639 1639 1639 1639 1639 1647 1639 1639 1639 1639 1647 1647 1647 1647 1647 1647 1647 1647 1647 1647 1639 1639 1639 1639 1647 1647 1647 1647 1647 1647 1647 1647 1655 1647 1647 1655 1655 1655 1655 1655 1655 1655 1655 1655 1655 1647 1647 1647 1647 1647 1647 1655 1663 1663 1663 1663 1663 1655 1655 1671 1663 1663 1663 1663 1663 1663 1663 1663 1671 1671 1671 1671 1655 1647 1639 1624 1616 1616 1616 1616 1616 1601 1601 1609 1609 1616 1624 1632 1639 1655 1663 1663 1671 1663 1663 1671 1671 1671 1671 1671 1671 1671 1671 1671 1671 1671 1671 1671 1671 1671 1671 1671 1671 1671 1671 1671 1671 1671 1671 1671 1671 1671 1671 1671 1680 1680 1680 1671 1671 1671 1680 1671 1671 1671 1671 1671 1680 1680 1680 1680 1688 1680 1680 1680 1680 1680 1680 1680 1688 1688 1688 1688 1688 1680 1680 1680 1671 1671 1680 1680 1688 1688 1688 1688 1696 1696 1688 1470 1470 1470 1470 1464 1464 1464 1464 1464 1470 1470 1483 1483 1489 1496 1671 1671 1671 1671 1671 1671 1671 1680 1680 1680 1671 1671 1671 1680 1680 1680 1680 1680 1680 1680 1680 1680 1680 1680 1688 1688 1688 1688 1688 1688 1696 1696 1688 1688 1688 1688 1688 1688 1688 1688 1688 1688 1688 1688 1688 1688 1688 1688 1696 1696 1696 1696 1696 1688 1688 1688 1688 1696 1696 1696 1696 1696 1696 1696 1688 1688 1688 1696 1696 1688 1688 1688 1688 1688 1688 1688 1688 1688 1688 1688 1688 1688 1688 1688 1688 1688 1688 1696 1696 1496 1496 1496 1496 1496 1489 1489 1483 1483 1483 1483 1483 1483 1483 1477 1477 1477 1477 1680 1680 1680 1688 1688 1688 1696 1696 1696 1696 1696 1696 1696 1696 1696 1688 1688 1688 1696 1696 1696 1696 1696 1696 1696 1696 1696 1688 1688 1688 1688 1688 1688 1688 1688 1688 1688 1688 1696 1696 1696 1696 1696 1688 1688 1696 1696 1696 1696 1688 1688 1688 1680 1680 1680 1688 1688 1688 1688 1688 1688 1688 1696 1696 1696 1696 1696 1696 1696 1688 1688 1688 1688 1688 1696 1696 1696 1696 1696 1696 1696 1696 1696 1696 1696 1696 1696 1696 1696 1696 1696 1705 1705 1705 1705 1696 1696 1696 1696 1696 1696 1696 1696 1696 1696 1696 1696 1696 1696 1696 1696 1696 1696 1688 1688 1696 1696 1696 1688 1688 1688 1688 1688 1680 1680 1688 1688 1688 1696 1696 1696 1696 1696 1696 1696 1688 1688 1688 1696 1696 1696 1696 1696 1696 1688 1688 1696 1696 1696 1696 1696 1696 1696 1696 1696 1696 1696 1696 1696 1696 1696 1696 1696 1696 1696 1705 1705 1705 1705 1705 1713 1713 1713 1713 1713 1713 1713 1713 1713 1705 1705 0 0 0 0 0 0 0
