0 0 0 0 0 0 0 0 0 0 0 0 0 0 0 0 0 0 0 0 0 0 0 0 0 0 0 0 0 0 0 0 0 2198 2198 2198 2198 2198 2198 2184 2184 2184 2184 2184 2170 2170 2170 2170 2184 2184 2184 2184 2198 2198 2198 2198 2212 2212 2198 2198 2198 2212 2198 2198 2198 2198 2198 2212 2198 2198 2198 2198 2184 2184 2184 2184 2184 2170 2170 2170 2170 2170 2184 2184 2184 2184 2184 2184 2184 2198 2198 2198 2184 2184 2184 2184 2170 2170 2170 2184 2184 2184 2198 2198 2198 2198 2198 2198 2212 2212 2212 2212 2212 1663 1663 1663 1663 1663 1671 1671 1671 1655 1594 1594 1586 1586 1586 1586 1594 1594 1594 1594 1594 1594 1594 1601 1609 1609 1609 1616 1616 1616 2212 2212 2212 2212 2212 2212 2226 2226 2226 2226 2226 2226 2226 2226 2226 2226 2212 2212 2212 2212 2212 2212 2226 2226 2226 2241 2241 1936 1936 1936 1959 1959 1970 1981 1993 1993 2005 2016 2028 2028 2040 2226 2226 2226 2226 2226 2226 2226 2212 2212 2198 2198 2040 2040 2053 2065 2065 2065 2065 2065 2078 2078 2212 2212 2212 2226 2226 2226 2226 2226 2226 2226 2241 2241 1543 1543 1543 1543 1543 1550 1550 1550 1550 1550 1550 1550 1557 1557 1557 1557 1557 1557 2226 2226 2241 2241 2241 2241 2241 2226 2226 2226 2226 2226 2226 2226 2226 2226 2226 2226 2226 2226 2226 2226 2226 2226 2226 2226 2226 2212 2212 2212 2212 2212 1936 1936 1936 1936 1936 1433 1433 1433 1439 1439 1439 1439 1439 1439 1439 1439 1439 1439 1439 1445 1445 1445 1445 1445 1445 1445 1445 1445 1445 1445 1445 1445 1439 1439 1439 1439 1439 1439 1439 1439 1439 1433 1433 1433 1427 1427 1427 1427 1427 1427 1427 1427 1427 1427 1421 1421 1421 1421 1421 1421 1421 1421 1421 1421 1421 1415 1415 1415 1415 1410 1410 1410 1410 1410 1410 1410 1410 1410 1410 1410 1410 1410 1404 1404 1404 1404 1404 1404 1404 1404 1404 1404 1404 1404 1398 1398 1398 1398 1398 1398 1398 1392 1392 1392 1392 1392 1392 1392 1392 1392 1392 1392 1392 1392 1392 1392 1387 1387 1381 1376 1370 1370 1370 1370 1370 1370 1370 1370 1376 1370 1370 1381 1392 1804 1804 1804 1804 1794 1785 1785 1785 1785 1785 1785 1785 1794 1794 1794 2212 2212 2212 2212 2212 2212 2212 2226 2226 2212 2212 2226 2226 2226 2226 2226 2226 2226 2226 2226 2226 2241 1873 1873 1873 1873 1873 1873 1873 1873 1873 1873 1873 1873 2198 2198 2198 2212 2212 2212 2212 2212 2198 2198 2198 2198 2198 2198 2184 2184 2184 2184 2198 2198 2198 2198 2198 2212 2212 2212 2212 2212 2212 2212 2212 1439 1439 1439 1445 1445 1445 1452 1452 1445 1445 1445 1445 1445 1439 1439 1439 1439 1439 1445 1445 1445 1452 1452 2170 2170 2170 2184 2184 2184 2184 2184 2184 2198 2184 2184 2184 2184 2184 2184 2184 2184 2184 2184 2184 2184 2184 2184 2184 2184 2184 2184 2184 2184 2184 2184 2184 2184 2184 2184 2184 2184 2184 2184 2184 2184 2184 2184 2184 2184 2184 2184 2184 2184 2184 2170 2170 2184 2184 2184 2184 2184 2184 2184 2184 2184 2170 2170 2184 2184 2170 2170 2170 2184 2184 2184 2184 2184 2184 2184 2184 2184 2170 2170 2170 2170 2170 2143 2143 2156 2156 2156 2156 2156 2156 2156 2156 2156 2156 2156 2156 2156 2156 2156 2156 2143 2143 2143 2143 2143 2143 2143 2143 2143 2129 2129 2116 2116 2116 2116 2116 2116 2116 2129 2129 2129 2129 2129 2129 2129 2129 2129 2129 0 0 0 0 0 0 0 0 0
0 0 0 0 0 0 0 0 0 0 0 0 0 0 0 0 0 0 0 0 0 0 0 0 0 0 0 0 0 0 0 0 0 2184 2184 2184 2184 2184 2184 2184 2170 2170 2170 2170 2170 2170 2170 2170 2170 2170 2170 2184 2184 2184 2184 2184 2198 2198 2184 2184 2184 2198 2184 2184 2184 2184 2198 2198 2198 2184 2184 2184 2184 2184 2170 2170 2170 2170 2156 2156 2156 2156 2170 2170 2170 2170 2170 2184 2184 2184 2184 2184 2184 2184 2184 2184 2170 2170 2170 2170 2184 2184 2184 2184 2184 2198 2198 2198 2198 2198 2212 2212 2212 1663 1663 1663 1663 1663 1671 1671 1671 1655 1594 1594 1586 1586 1586 1586 1594 1586 1586 1594 1594 1594 1594 1601 1609 1616 1616 1616 1624 1624 2212 2212 2212 2198 2198 2212 2212 2212 2212 2212 2226 2226 2226 2212 2212 2212 2198 2198 2198 2212 2212 2212 2212 2226 2226 2241 1926 1926 1936 1936 1959 1959 1970 1981 1993 1993 2005 2016 2028 2040 2040 2226 2226 2226 2212 2212 2226 2226 2212 2212 2198 2198 2040 2040 2040 2065 2065 2065 2065 2065 2078 2078 2198 2198 2198 2198 2212 2212 2212 2212 2212 2226 2241 2241 1543 1543 1543 1543 1550 1550 1550 1550 1550 1550 1550 1550 1557 1557 1557 1557 1557 1557 2212 2212 2226 2241 2241 2241 2241 2226 2226 2226 2226 2226 2226 2226 2226 2226 2226 2226 2226 2226 2226 2226 2226 2226 2226 2226 2226 2212 2198 2198 2198 1926 1926 1936 1936 1936 1936 1433 1433 1433 1439 1439 1439 1439 1439 1439 1439 1439 1439 1439 1439 1445 1445 1445 1445 1445 1445 1445 1445 1445 1445 1445 1445 1445 1445 1439 1439 1439 1439 1439 1439 1439 1439 1433 1433 1433 1433 1427 1427 1427 1433 1427 1427 1427 1427 1427 1427 1427 1427 1427 1421 1421 1421 1421 1421 1427 1421 1415 1415 1415 1415 1415 1410 1410 1410 1415 1410 1410 1410 1410 1410 1410 1410 1410 1410 1410 1404 1404 1404 1404 1404 1404 1404 1404 1404 1404 1404 1398 1398 1398 1398 1398 1398 1392 1392 1392 1392 1392 1392 1392 1392 1392 1392 1392 1392 1392 1392 1392 1387 1387 1387 1381 1376 1370 1370 1370 1370 1370 1370 1370 1370 1370 1370 1381 1381 1813 1804 1804 1794 1794 1785 1785 1785 1785 1785 1785 1794 1794 1794 1794 2198 2198 2198 2198 2198 2212 2212 2212 2212 2212 2212 2212 2212 2212 2212 2212 2226 2226 2226 2226 2226 2241 1873 1873 1873 1873 1873 1883 1873 1873 1873 1873 1873 1873 2198 2198 2198 2198 2198 2198 2198 2198 2198 2198 2184 2184 2184 2184 2184 2184 2184 2184 2198 2198 2198 2198 2198 2198 2212 2212 2212 2212 2212 2212 2212 1452 1452 1452 1452 1452 1452 1452 1452 1452 1445 1445 1445 1445 1445 1439 1439 1439 1445 1445 1445 1445 1458 1458 2156 2156 2170 2170 2170 2184 2184 2184 2184 2184 2184 2184 2184 2184 2184 2184 2184 2184 2184 2184 2184 2184 2184 2184 2184 2184 2170 2170 2170 2170 2170 2170 2170 2170 2184 2184 2184 2184 2184 2184 2184 2184 2184 2184 2184 2184 2184 2184 2184 2170 2170 2170 2170 2170 2170 2170 2170 2170 2170 2170 2170 2170 2170 2170 2170 2170 2170 2170 2170 2170 2184 2184 2184 2170 2170 2170 2170 2156 2156 2156 2156 2156 2156 2143 2143 2143 2143 2143 2143 2143 2143 2143 2143 2143 2143 2143 2143 2143 2143 2143 2143 2143 2129 2129 2129 2129 2129 2143 2143 2143 2129 2129 2116 2116 2116 2116 2116 2116 2116 2129 2129 2129 2129 2129 2129 2129 2129 2129 2129 0 0 0 0 0 0 0 0 0
0 0 0 0 0 0 0 0 0 0 0 0 0 0 0 0 0 0 0 0 0 0 0 0 0 0 0 0 0 0 0 0 0 2184 2170 2170 2170 2184 2184 2170 2170 2170 2170 2170 2170 2170 2170 2170 2170 2170 2170 2170 2184 2170 2170 2184 2184 2184 2184 2184 2184 2184 2184 2184 2184 2184 2184 2184 2184 2170 2170 2184 2170 2170 2170 2170 2170 2170 2156 2156 2156 2156 2156 2170 2170 2170 2170 2170 2170 2170 2184 2184 2184 2170 2170 2170 2170 2156 2156 2170 2170 2170 2170 2170 2184 2184 2198 2198 2198 2198 2198 2212 2212 1655 1655 1655 1663 1663 1671 1671 1671 1663 1601 1594 1586 1586 1586 1586 1594 1586 1586 1594 1594 1594 1594 1601 1609 1609 1616 1616 1624 1624 2198 2198 2198 2198 2198 2198 2212 2212 2212 2212 2212 2212 2212 2212 2198 2198 2198 2198 2198 2198 2198 2198 2212 2212 1915 1915 1915 1926 1926 1936 1947 1959 1981 1981 1993 1993 2005 2016 2028 2040 2040 2241 2212 2212 2212 2212 2212 2212 2212 2198 2198 2198 2040 2040 2040 2065 2065 2065 2065 2065 2065 2078 2198 2198 2198 2198 2212 2212 2212 2212 2212 2226 2241 2241 1550 1543 1543 1543 1550 1550 1550 1550 1550 1550 1550 1557 1557 1557 1557 1557 1557 1557 2212 2212 2226 2226 2226 2226 2226 2226 2212 2212 2212 2212 2212 2212 2212 2212 2212 2212 2212 2226 2226 2226 2226 2212 2212 2212 2212 2226 2198 2198 1926 1926 1926 1926 1926 1936 1936 1433 1433 1433 1439 1439 1439 1439 1439 1439 1439 1439 1439 1439 1445 1445 1445 1452 1452 1452 1452 1452 1452 1452 1452 1452 1445 1445 1445 1439 1439 1439 1439 1439 1439 1439 1439 1439 1439 1433 1433 1427 1427 1427 1433 1427 1427 1427 1427 1427 1427 1427 1427 1427 1427 1427 1427 1427 1427 1427 1427 1421 1421 1421 1415 1415 1415 1415 1415 1415 1415 1415 1415 1415 1410 1410 1410 1410 1410 1410 1410 1410 1410 1410 1410 1404 1404 1404 1404 1404 1404 1404 1398 1398 1404 1398 1398 1398 1392 1392 1392 1392 1392 1392 1392 1392 1392 1392 1392 1392 1392 1392 1387 1387 1387 1381 1376 1376 1376 1370 1370 1370 1370 1376 1370 1370 1370 1370 1804 1804 1804 1804 1794 1794 1794 1794 1794 1794 1794 1794 1794 1794 1794 1804 2198 2198 2198 2198 2198 2198 2198 2198 2198 2198 2198 2212 2212 2212 2212 2212 2212 2212 2198 2198 2198 1915 1883 1873 1873 1873 1873 1883 1883 1873 1873 1883 1883 2184 2184 2184 2198 2198 2198 2198 2198 2198 2198 2198 2184 2184 2184 2184 2184 2184 2184 2184 2184 2184 2198 2198 2198 2198 2198 2198 2198 2198 2198 2212 2212 1452 1452 1452 1452 1452 1452 1452 1452 1452 1452 1445 1445 1445 1445 1445 1445 1445 1445 1445 1452 1452 1458 1458 2156 2156 2170 2170 2170 2170 2170 2170 2184 2170 2170 2170 2170 2170 2170 2170 2170 2170 2170 2170 2170 2170 2170 2170 2170 2170 2170 2156 2156 2156 2156 2156 2170 2170 2184 2184 2184 2184 2184 2184 2184 2184 2184 2184 2184 2184 2184 2184 2170 2170 2170 2156 2156 2156 2156 2156 2156 2156 2170 2170 2170 2170 2156 2156 2170 2156 2156 2156 2156 2156 2170 2170 2170 2170 2156 2156 2156 2156 2156 2156 2156 2156 2156 2143 2143 2143 2143 2143 2143 2143 2143 2143 2143 2143 2143 2143 2143 2143 2143 2143 2129 2129 2129 2129 2129 2129 2129 2129 2143 2129 2129 2129 2116 2116 2116 2116 2116 2116 2116 2116 2116 2129 2129 2129 2129 2129 2129 2116 2116 0 0 0 0 0 0 0 0 0
0 0 0 0 0 0 0 0 0 0 0 0 0 0 0 0 0 0 0 0 0 0 0 0 0 0 0 0 0 0 0 0 0 2184 2170 2170 2170 2170 2170 2170 2170 2170 2170 2170 2170 2170 2170 2170 2170 2170 2170 2170 2170 2170 2170 2170 2184 2184 2170 2170 2170 2170 2170 2170 2170 2170 2170 2170 2170 2156 2156 2170 2170 2156 2156 2156 2156 2156 2156 2156 2156 2156 2156 2156 2156 2156 2170 2170 2170 2170 2170 2170 2156 2156 2170 2156 2156 2156 2156 2156 2156 2156 2170 2170 2170 2170 2184 2184 2198 2198 2198 2198 2198 1655 1655 1655 1663 1663 1671 1671 1671 1663 1663 1594 1594 1594 1586 1586 1594 1594 1594 1594 1594 1594 1594 1601 1609 1609 1616 1616 1624 1624 2198 2198 2184 2184 2184 2198 2198 2198 2198 2212 2212 2212 2212 2212 2198 2198 2198 2184 2184 2198 2198 2198 1904 1904 1915 1915 1915 1926 1926 1926 1947 1959 1981 1981 1993 2005 2005 2016 2028 2040 2040 2040 2184 2184 2198 2198 2198 2198 2198 2198 2198 2198 2198 2040 2040 2065 2065 2065 2065 2065 2065 2078 2090 2184 2184 2198 2198 2198 2212 2212 2212 2212 2212 1550 1550 1550 1550 1550 1550 1550 1550 1550 1550 1550 1550 1550 1550 1550 1550 1550 1550 1550 2212 2212 2226 2226 2226 2226 2226 2212 2212 2198 2198 2198 2198 2198 2198 2198 2198 2198 2212 2212 2212 2212 2212 2212 2212 2212 2212 2226 2198 2198 1926 1926 1926 1926 1926 1926 1936 1936 1433 1433 1439 1439 1439 1439 1439 1439 1439 1439 1439 1439 1445 1445 1445 1452 1452 1452 1452 1452 1452 1452 1445 1445 1445 1445 1445 1445 1439 1439 1439 1439 1439 1439 1439 1439 1439 1439 1439 1433 1433 1433 1433 1433 1433 1433 1433 1433 1433 1427 1427 1427 1427 1427 1427 1427 1427 1427 1427 1427 1421 1421 1421 1421 1421 1415 1415 1415 1415 1415 1415 1415 1415 1410 1410 1410 1410 1410 1410 1410 1410 1410 1410 1410 1404 1404 1410 1404 1404 1404 1404 1404 1404 1404 1398 1398 1398 1398 1392 1392 1392 1392 1392 1392 1392 1392 1392 1392 1392 1392 1392 1387 1387 1387 1381 1381 1376 1376 1376 1376 1376 1376 1381 1381 1381 0 1804 1804 1804 1804 1794 1794 1794 1794 1794 1794 1794 1794 1794 1794 1794 1794 2198 2198 2198 2198 2198 2198 2198 2198 2198 2198 2198 2212 2212 2212 2198 2198 2198 2198 2198 2198 2198 1904 1883 1873 1873 1883 1883 1883 1883 1883 1883 1883 1894 2184 2184 2184 2184 2184 2184 2184 2184 2184 2184 2184 2184 2184 2184 2184 2184 2184 2184 2184 2184 2184 2184 2184 2184 2184 2184 2184 2184 2184 2184 2198 2198 1458 1458 1458 1458 1452 1452 1452 1452 1452 1452 1445 1445 1445 1445 1445 1445 1445 1445 1445 1452 1458 1458 2156 2156 2156 2170 2170 2170 2170 2170 2170 2170 2170 2170 2170 2170 2170 2170 2170 2170 2170 2170 2170 2170 2170 2170 2156 2156 2156 2156 2156 2156 2156 2156 2156 2156 2156 2170 2156 2156 2170 2170 2170 2170 2170 2170 2184 2184 2184 2170 2170 2170 2156 2156 2156 2156 2156 2156 2156 2156 2156 2156 2156 2156 2156 2156 2156 2156 2156 2143 2143 2143 2143 2156 2156 2156 2156 2156 2156 2156 2156 2156 2156 2156 2156 2156 2129 2129 2129 2129 2129 2129 2129 2129 2129 2129 2129 2129 2129 2129 2129 2129 2129 2129 2129 2129 2129 2129 2129 2129 2129 2129 2129 2116 2116 2116 2116 2116 2116 2116 2116 2116 2116 2116 2116 2116 2116 2116 2129 2129 2116 2116 0 0 0 0 0 0 0 0 0
0 0 0 0 0 0 0 0 0 0 0 0 0 0 0 0 0 0 0 0 0 0 0 0 0 0 0 0 0 0 0 0 0 2170 2170 2170 2170 2170 2170 2170 2170 2156 2156 2156 2156 2156 2156 2170 2170 2170 2170 2170 2170 2170 2170 2170 2170 2170 2170 2170 2170 2170 2170 2170 2170 2170 2170 2170 2170 2156 2156 2156 2156 2156 2156 2156 2156 2156 2143 2143 2156 2156 2156 2156 2156 2156 2156 2156 2156 2156 2156 2156 2156 2156 2156 2156 2156 2156 2156 2156 2156 2156 2156 2156 2156 2156 2170 2170 2170 2184 2184 2184 2184 1655 1655 1655 1663 1663 1671 1671 1671 1671 1663 1601 1594 1594 1594 1594 1594 1594 1594 1594 1594 1594 1594 1601 1609 1616 1616 1616 1624 1624 2198 2184 2170 2170 2170 2184 2198 2198 2198 2198 2198 2198 2198 2198 2184 2184 2184 2184 2184 2184 2184 1904 1904 1904 1904 1915 1915 1915 1926 1926 1947 1959 1981 1993 1993 2005 2005 2016 2028 2040 2040 2040 2170 2170 2184 2184 2198 2198 2198 2184 2184 2170 2065 2040 2040 2065 2065 2065 2065 2065 2078 2078 2078 2184 2184 2198 2198 2198 2198 2198 2198 2212 2212 1557 1550 1550 1550 1550 1550 1550 1550 1550 1550 1550 1550 1550 1550 1550 1550 1550 1550 1550 2212 2212 2212 2212 2212 2198 2198 2198 2198 2198 2184 2184 2184 2184 2184 2184 2184 2184 2198 2198 2184 2184 2184 2212 2198 2198 2198 2198 2198 2198 1926 1926 1926 1926 1926 1926 1936 1936 1439 1439 1439 1439 1439 1439 1439 1439 1439 1439 1439 1439 1445 1445 1445 1452 1452 1452 1452 1452 1452 1452 1445 1445 1445 1445 1445 1445 1445 1445 1445 1445 1445 1445 1439 1439 1439 1439 1439 1439 1433 1433 1439 1433 1433 1433 1433 1433 1433 1433 1433 1427 1427 1427 1427 1427 1433 1433 1433 1427 1421 1421 1421 1421 1421 1421 1421 1421 1415 1415 1415 1415 1415 1415 1415 1410 1410 1415 1415 1415 1410 1410 1410 1410 1410 1410 1410 1410 1404 1404 1404 1404 1410 1410 1404 1404 1398 1398 1398 1398 1398 1392 1392 1392 1392 1392 1392 1392 1392 1392 1392 1392 1387 1387 1387 1381 1381 1376 1376 1376 1376 1381 1381 1381 1381 0 1804 1804 1804 1794 1794 1794 1794 1794 1794 1794 1794 1794 1794 1794 1794 1794 2198 2184 2184 2184 2184 2198 2198 2198 2198 2198 2198 2198 2198 2198 2198 2198 2198 2198 2198 2198 2198 1904 1883 1873 1873 1883 1883 1883 1883 1883 1883 1883 2184 2170 2170 2170 2170 2170 2170 2170 2170 2170 2170 2170 2170 2170 2170 2170 2170 2170 2170 2170 2170 2184 2184 2184 2170 2170 2170 2156 2156 2156 2156 2156 2156 1458 1458 1458 1452 1452 1452 1452 1452 1452 1452 1452 1445 1445 1445 1445 1445 1445 1445 1452 1452 1458 1458 2156 2156 2156 2156 2156 2156 2156 2156 2156 2156 2156 2156 2156 2156 2156 2156 2156 2156 2156 2156 2156 2156 2156 2156 2156 2156 2156 2156 2143 2143 2156 2143 2143 2156 2156 2156 2156 2156 2156 2156 2156 2156 2156 2156 2170 2170 2170 2156 2156 2156 2156 2143 2143 2143 2143 2143 2143 2143 2143 2156 2143 2143 2156 2143 2143 2143 2143 2143 2143 2143 2143 2143 2143 2143 2143 2143 2143 2156 2143 2143 2143 2143 2143 2143 2129 2129 2129 2129 2129 2129 2129 2129 2129 2129 2129 2129 2129 2116 2116 2129 2129 2116 2116 2116 2116 2129 2129 2129 2129 2129 2116 2116 2116 2116 2116 2116 2116 2116 2116 2116 2116 2116 2116 2116 2116 2116 2116 2116 2116 2116 0 0 0 0 0 0 0 0 0
0 0 0 0 0 0 0 0 0 0 0 0 0 0 0 0 0 0 0 0 0 0 0 0 0 0 0 0 0 0 0 0 0 2156 2156 2156 2156 2156 2156 2156 2156 2156 2156 2156 2156 2156 2156 2156 2156 2156 2156 2156 2156 2156 2156 2156 2156 2156 2156 2156 2156 2156 2156 2156 2156 2156 2156 2156 2156 2143 2143 2143 2143 2143 2143 2143 2156 2156 2143 2143 2156 2143 2143 2156 2156 2156 2156 2156 2156 2156 2156 2156 2156 2156 2156 2156 2156 2156 2156 2156 2156 2156 2156 2156 2143 2143 2156 2156 2156 2156 2156 2156 2170 2184 1663 1663 1663 1671 1671 1671 1671 1671 1663 1601 1594 1594 1594 1594 1594 1594 1594 1594 1594 1594 1601 1609 1609 1616 1616 1616 1624 1624 2170 2170 2170 2170 2170 2184 2184 2184 2184 2184 2198 2198 2198 2198 2184 2184 2184 2184 2184 2184 1894 1894 1894 1904 1904 1904 1904 1915 1926 1936 1959 1970 1981 1993 1993 2005 2005 2016 2028 2040 2040 2040 2078 2129 2170 2170 2184 2184 2184 2184 2170 2170 2065 2053 2053 2065 2065 2065 2065 2065 2078 2078 2078 2116 2156 2184 2184 2198 2198 2198 2198 2198 1557 1557 1557 1550 1550 1550 1550 1550 1550 1550 1550 1550 1557 1557 1557 1550 1550 1550 1550 1550 2212 2198 2198 2198 2198 2198 2198 2184 2184 2184 2184 2184 2184 2184 2184 2184 2184 2184 2184 2184 2184 2184 2184 2198 2198 2198 2184 2184 2198 1915 1915 1926 1926 1915 1915 1926 1926 1926 1439 1439 1439 1445 1445 1445 1445 1445 1445 1445 1445 1445 1445 1445 1452 1452 1452 1452 1452 1452 1452 1452 1452 1452 1445 1445 1445 1445 1445 1445 1445 1445 1445 1445 1445 1445 1445 1439 1439 1439 1439 1439 1439 1439 1439 1439 1439 1439 1439 1433 1433 1433 1433 1433 1433 1433 1433 1433 1433 1427 1421 1421 1421 1421 1421 1421 1421 1421 1421 1421 1415 1415 1415 1415 1415 1415 1415 1415 1415 1415 1415 1415 1415 1410 1410 1410 1410 1410 1410 1410 1410 1410 1410 1410 1404 1404 1398 1398 1398 1398 1398 1392 1392 1398 1398 1392 1392 1398 1398 1398 1392 1392 1387 1387 1387 1381 1381 1376 1376 1381 1381 1381 1381 1381 1381 0 1804 1804 1804 1794 1794 1794 1794 1794 1794 1794 1794 1794 1794 1794 1794 1794 2184 2184 2184 2184 2184 2184 2184 2184 2184 2184 2184 2184 2184 2184 2198 2198 2184 2184 2170 2170 2170 1904 1883 1873 1873 1883 1883 1883 1883 1883 1883 1883 2170 2156 2156 2156 2156 2170 2170 2170 2170 2170 2170 2170 2170 2156 2156 2170 2170 2170 2170 2170 2170 2170 2170 2170 2170 2156 2156 2156 2143 2143 2143 2143 2143 1458 1458 1458 1452 1452 1452 1452 1452 1452 1452 1452 1452 1452 1445 1445 1445 1445 1445 1452 1452 1458 1458 2156 2156 2156 2156 2143 2143 2156 2156 2156 2143 2143 2143 2156 2156 2156 2156 2156 2143 2143 2143 2143 2143 2143 2143 2143 2143 2143 2143 2143 2143 2143 2143 2143 2143 2143 2156 2143 2143 2156 2156 2156 2143 2143 2156 2156 2156 2156 2143 2143 2143 2143 2143 2143 2143 2143 2143 2143 2143 2143 2143 2143 2143 2143 2143 2143 2143 2143 2143 2143 2129 2129 2143 2143 2143 2143 2143 2143 2143 2143 2143 2143 2143 2143 2143 2129 2116 2116 2129 2129 2129 2129 2129 2129 2129 2116 2116 2116 2103 2103 2116 2116 2116 2116 2116 2116 2116 2116 2116 2116 2129 2116 2116 2116 2116 2116 2116 2116 2116 2116 2116 2116 2116 2116 2103 2103 2103 2103 2103 2103 2103 0 0 0 0 0 0 0 0 0
0 0 0 0 0 0 0 0 0 0 0 0 0 0 0 0 0 0 0 0 0 0 0 0 0 0 0 0 0 0 0 0 0 2156 2156 2156 2156 2156 2156 2156 2156 2156 2143 2143 2143 2143 2143 2143 2143 2143 2156 2156 2156 2156 2156 2156 2156 2156 2156 2156 2156 2156 2156 2156 2156 2156 2156 2156 2156 2143 2143 2143 2143 2143 2143 2143 2143 2143 2143 2143 2143 2143 2143 2143 2143 2143 2143 2143 2143 2143 2143 2143 2143 2143 2143 2143 2143 2143 2143 2143 2143 2143 2143 2143 2143 2143 2156 2156 2143 2143 2143 2143 2156 2156 2156 1671 1671 1671 1671 1680 1671 1671 1671 1601 1594 1594 1594 1594 1594 1594 1594 1594 1594 1594 1601 1609 1616 1616 1616 1624 1624 2170 2170 2170 2156 2156 2170 2170 2184 2184 2184 2184 2184 2198 2198 2184 2184 2184 2184 2170 2170 1883 1883 1894 1894 1894 1904 1904 1904 1904 1915 1936 1947 1970 1981 1993 1993 2005 2016 2016 2028 2028 2040 2040 2065 2103 2170 2170 2184 2184 2184 2184 2170 2143 2065 2053 2053 2065 2065 2065 2065 2065 2078 2078 2090 2116 2143 2170 2184 2184 2198 2198 2198 2198 1557 1557 1557 1550 1550 1550 1550 1550 1550 1550 1550 1550 1557 1557 1557 1557 1557 1557 1557 1557 2184 2184 2184 2198 2198 2198 2198 2184 2184 2184 2184 2184 2184 2184 2184 2184 2184 2184 2184 2184 2184 2184 2184 2184 2184 2198 2184 2184 2184 1904 1904 1915 1915 1915 1915 1926 1926 1926 1439 1439 1439 1445 1445 1445 1445 1445 1445 1445 1445 1445 1445 1445 1452 1452 1452 1452 1452 1458 1458 1458 1458 1452 1452 1445 1445 1445 1445 1445 1445 1445 1445 1445 1445 1445 1445 1445 1439 1439 1439 1439 1439 1439 1439 1439 1439 1439 1439 1439 1439 1439 1433 1433 1439 1439 1439 1439 1433 1427 1427 1427 1427 1427 1427 1421 1421 1421 1421 1421 1415 1415 1415 1415 1415 1415 1415 1415 1415 1415 1415 1415 1415 1415 1410 1410 1410 1410 1410 1410 1410 1410 1410 1410 1410 1410 1410 1410 1404 1404 1404 1398 1398 1398 1398 1398 1398 1398 1398 1398 1392 1392 1387 1387 1387 1387 1381 1381 1381 1381 1381 1381 1381 1381 0 0 0 1804 1804 1794 1794 1794 1794 1794 1794 1794 1794 1804 1794 1794 1804 2170 2170 2170 2170 2184 2184 2184 2184 2184 2184 2184 2184 2184 2184 2184 2184 2184 2170 2170 2170 2170 2170 1904 1894 1883 1883 1883 1883 1883 1883 1883 1883 1883 2156 2156 2156 2156 2156 2156 2156 2156 2156 2156 2156 2156 2156 2156 2156 2156 2156 2156 2156 2156 2156 2156 2156 2156 2156 2156 2156 2143 2143 2143 2143 2143 2143 1458 1458 1458 1458 1452 1452 1452 1452 1452 1452 1452 1452 1452 1452 1445 1445 1445 1452 1452 1452 1458 1458 2156 2156 2143 2143 2143 2143 2143 2143 2143 2143 2143 2143 2143 2143 2143 2143 2143 2129 2129 2143 2143 2143 2143 2143 2143 2143 2143 2143 2143 2143 2143 2143 2143 2143 2143 2143 2143 2143 2143 2156 2143 2143 2143 2143 2143 2143 2143 2129 2129 2129 2129 2143 2143 2143 2143 2143 2143 2143 2143 2143 2143 2143 2143 2143 2143 2143 2143 2143 2129 2129 2129 2129 2129 2143 2143 2143 2143 2143 2143 2143 2143 2143 2143 2129 2116 2116 2116 2116 2116 2116 2116 2116 2116 2116 2116 2116 2103 2090 2090 2090 2090 2090 2103 2103 2116 2116 2116 2116 2116 2116 2103 2103 2103 2103 2103 2103 2103 2103 2103 2103 2103 2103 2103 2103 2103 2103 2103 2090 2090 2090 0 0 0 0 0 0 0 0 0
0 0 0 0 0 0 0 0 0 0 0 0 0 0 0 0 0 0 0 0 0 0 0 0 0 0 0 0 0 0 0 0 0 2143 2143 2143 2143 2143 2143 2143 2156 2143 2143 2143 2143 2143 2143 2129 2129 2143 2156 2156 2156 2156 2156 2143 2143 2143 2143 2143 2143 2143 2156 2156 2156 2156 2156 2156 2156 2143 2129 2129 2129 2129 2129 2129 2129 2129 2129 2129 2143 2143 2143 2143 2143 2143 2143 2143 2143 2143 2143 2129 2129 2143 2143 2129 2129 2143 2129 2129 2143 2129 2129 2143 2143 2143 2143 2143 2143 2143 2143 2143 2156 2156 2156 1671 1671 1671 1671 1680 1680 1671 1671 1601 1594 1594 1594 1594 1594 1594 1594 1594 1594 1594 1601 1609 1609 1616 1616 1624 1624 2170 2156 2156 2156 2156 2156 2170 2170 2170 2170 2170 2170 2184 2184 2170 2170 2170 2170 2170 2170 1883 1883 1894 1894 1894 1894 1904 1904 1904 1915 1936 1947 1970 1981 1993 1993 2005 2016 2016 2028 2028 2040 2040 2065 2103 2143 2156 2156 2170 2170 2170 2156 2129 2090 2065 2065 2065 2065 2078 2078 2078 2078 2090 2090 2103 2129 2156 2170 2184 2184 2198 2198 2198 1557 1557 1557 1550 1550 1550 1550 1557 1557 1557 1557 1557 1557 1557 1557 1557 1557 1564 1564 1564 2170 2170 2170 2184 2184 2184 2184 2184 2184 2170 2170 2170 2170 2170 2170 2170 2170 2170 2170 2184 2184 2184 2184 2170 2170 2170 2170 1894 1894 1894 1904 1915 1915 1915 1915 1915 1926 1926 1439 1439 1439 1445 1445 1445 1445 1445 1445 1445 1445 1445 1445 1445 1452 1452 1452 1452 1452 1458 1458 1458 1458 1452 1452 1452 1445 1445 1445 1445 1445 1445 1445 1445 1445 1445 1445 1445 1445 1439 1439 1439 1439 1439 1439 1439 1439 1439 1439 1439 1439 1439 1439 1439 1439 1439 1439 1439 1433 1427 1427 1427 1427 1427 1427 1421 1421 1427 1421 1421 1421 1415 1415 1415 1415 1415 1415 1415 1415 1421 1415 1415 1415 1415 1415 1415 1415 1415 1410 1410 1410 1410 1410 1410 1410 1410 1410 1410 1410 1410 1410 1404 1404 1404 1404 1404 1404 1404 1404 1404 1398 1392 1387 1387 1387 1387 1381 1381 1381 1381 1387 1387 1381 1381 0 0 0 1804 1794 1794 1794 1794 1794 1794 1804 1804 1804 1804 1804 1804 1804 2170 2170 2170 2170 2170 2184 2170 2170 2170 2170 2170 2170 2170 2170 2170 2170 2170 2156 2156 2156 2156 1915 1904 1894 1883 1883 1883 1883 1883 1883 1883 1883 2156 2156 2156 2143 2143 2156 2156 2156 2156 2156 2156 2156 2156 2156 2156 2156 2156 2156 2156 2156 2156 2156 2156 2156 2156 2156 2156 2156 2143 2143 2143 2143 2143 2143 1458 1458 1458 1458 1458 1458 1458 1452 1452 1452 1452 1452 1452 1452 1452 1452 1452 1452 1452 1458 1452 1452 1452 2156 2143 2143 2129 2129 2129 2129 2129 2129 2129 2129 2129 2129 2129 2129 2129 2129 2129 2129 2129 2129 2129 2129 2129 2129 2129 2129 2129 2129 2129 2129 2129 2129 2143 2143 2143 2143 2143 2143 2143 2143 2143 2143 2143 2143 2129 2129 2129 2129 2129 2129 2129 2143 2143 2143 2129 2129 2129 2129 2129 2129 2143 2143 2143 2143 2129 2129 2129 2129 2129 2129 2129 2129 2129 2143 2143 2143 2129 2129 2129 2129 2129 2129 2116 2103 2103 2116 2116 2116 2116 2116 2116 2116 2103 2103 2090 2078 2078 2090 2090 2090 2090 2103 2103 2103 2103 2103 2103 2103 2090 2090 2090 2103 2103 2103 2103 2103 2103 2103 2103 2103 2103 2103 2090 2090 2090 2090 2078 2078 2078 0 0 0 0 0 0 0 0
0 0 0 0 0 0 0 0 0 0 0 0 0 0 0 0 0 0 0 0 0 0 0 0 0 0 0 0 0 0 0 0 0 2129 2129 2129 2129 2129 2143 2143 2143 2143 2129 2129 2129 2129 2129 2116 2116 2129 2143 2143 2143 2143 2143 2143 2143 2143 2129 2129 2129 2129 2143 2143 2143 2143 2143 2143 2143 2129 2129 2129 2129 2129 2129 2129 2129 2129 2129 2129 2129 2129 2129 2129 2129 2129 2129 2129 2129 2129 2129 2116 2116 2129 2129 2129 2129 2129 2129 2129 2129 2129 2129 2129 2129 2129 2143 2143 2143 2143 2143 2143 2143 2156 2170 1671 1671 1680 1680 1680 1680 1680 1671 1624 1601 1594 1594 1594 1594 1594 1594 1594 1594 1594 1601 1609 1609 1616 1616 1624 1624 2170 2156 2156 2156 2156 2156 2156 2156 2156 2156 2156 2156 2156 2156 2156 2143 2143 2156 1863 1863 1873 1873 1883 1883 1894 1894 1894 1904 1904 1915 1915 1947 1970 1981 1993 2005 2005 2016 2028 2028 2028 2040 2040 2078 2116 2143 2143 2156 2156 2156 2170 2156 2129 2090 2078 2065 2065 2065 2078 2078 2078 2078 2090 2090 2103 2116 2143 2170 2184 2184 2184 2184 2184 1557 1557 1557 1550 1550 1550 1550 1557 1557 1557 1557 1557 1557 1557 1564 1564 1564 1572 1579 1579 2156 2156 2156 2170 2170 2170 2184 2170 2170 2170 2170 2170 2170 2170 2170 2170 2170 2170 2170 2170 2170 2170 2184 2170 2170 2170 1894 1894 1894 1894 1904 1904 1915 1915 1915 1915 1926 1926 1439 1439 1445 1445 1445 1445 1445 1445 1445 1445 1445 1445 1445 1445 1452 1452 1452 1452 1452 1458 1458 1458 1452 1452 1452 1452 1445 1445 1445 1445 1445 1445 1445 1445 1445 1445 1445 1445 1445 1439 1439 1445 1445 1439 1439 1439 1439 1439 1439 1439 1439 1439 1439 1439 1439 1439 1439 1439 1433 1427 1427 1427 1427 1427 1427 1427 1427 1427 1421 1421 1421 1421 1421 1421 1421 1421 1421 1421 1421 1421 1415 1415 1415 1415 1415 1415 1415 1415 1415 1415 1415 1410 1410 1415 1410 1410 1410 1410 1410 1410 1410 1410 1410 1410 1410 1404 1404 1404 1404 1404 1398 1392 1392 1387 1387 1387 1387 1387 1387 1387 1387 1387 1381 1381 1381 0 1794 1794 1794 1794 1794 1794 1794 1804 1804 1804 1804 1804 1804 1804 1804 2170 2170 2156 2156 2156 2170 2156 2156 2156 2156 2156 2156 2156 2156 2156 2156 2156 2156 2156 2156 2156 1915 1904 1894 1894 1894 1894 1894 1883 1883 1883 1883 2156 2156 2143 2143 2143 2143 2143 2143 2143 2143 2143 2143 2143 2143 2143 2143 2143 2143 2143 2143 2143 2143 2143 2143 2143 2143 2143 2143 2143 2143 2143 2143 2143 2143 1458 1458 1458 1458 1458 1458 1458 1458 1458 1452 1452 1452 1452 1452 1452 1452 1452 1452 1452 1452 1452 1452 1452 2143 2143 2129 2129 2129 2129 2129 2129 2129 2116 2116 2116 2116 2116 2116 2116 2116 2116 2116 2116 2116 2116 2116 2116 2116 2116 2116 2116 2129 2129 2129 2129 2129 2129 2129 2129 2129 2129 2129 2129 2129 2129 2129 2116 2103 2103 2103 2103 2103 2116 2129 2129 2129 2129 2129 2129 2129 2129 2129 2129 2129 2129 2129 2129 2129 2129 2129 2129 2129 2129 2129 2129 2129 2129 2129 2129 2129 2129 2129 2129 2129 2129 2129 2103 2103 2103 2103 2103 2103 2103 2103 2103 2103 2090 2090 2090 2078 2078 2078 2078 2078 2078 2090 2090 2090 2090 2090 2090 2090 2090 2090 2090 2090 2090 2090 2090 2090 2090 2103 2103 2090 2090 2090 2090 2090 2078 2078 2078 2078 2078 0 0 0 0 0 0 0 0
0 0 0 0 0 0 0 0 0 0 0 0 0 0 0 0 0 0 0 0 0 0 0 0 0 0 0 0 0 0 0 0 0 2129 2116 2116 2116 2116 2116 2116 2129 2129 2129 2129 2129 2129 2129 2116 2116 2129 2129 2129 2129 2129 2129 2129 2129 2129 2116 2116 2129 2129 2129 2129 2129 2116 2116 2129 2129 2116 2103 2103 2116 2116 2116 2116 2116 2116 2116 2129 2129 2129 2129 2129 2129 2129 2116 2116 2116 2116 2116 2116 2116 2116 2116 2116 2116 2116 2116 2116 2116 2116 2116 2116 2116 2116 2116 2129 2129 2143 2129 2129 2143 2143 2156 2156 1680 1680 1680 1680 1680 1680 1680 1680 1616 1601 1601 1594 1594 1594 1594 1594 1594 1594 1601 1609 1616 1616 1616 1624 1624 2170 2143 2143 2143 2143 2143 2156 2156 2143 2143 2156 2156 2156 2156 2156 2143 2143 2143 1863 1863 1863 1873 1873 1883 1894 1894 1894 1904 1904 1915 1915 1947 1970 1993 2005 2005 2016 2016 2028 2028 2028 2040 2040 2090 2116 2129 2129 2143 2143 2143 2156 2143 2129 2090 2078 2078 2065 2065 2078 2078 2078 2078 2090 2090 2103 2116 2129 2143 2156 2156 2156 2156 2156 2156 1557 1550 1550 1550 1550 1550 1557 1557 1557 1557 1557 1557 1564 1564 1572 1572 1579 1586 1586 2143 2143 2156 2156 2170 2170 2170 2170 2170 2170 2170 2170 2170 2170 2170 2170 2170 2170 2170 2170 2170 2170 2184 2170 2170 2170 1883 1883 1883 1894 1894 1894 1904 1904 1904 1915 1915 1915 1439 1439 1445 1445 1445 1445 1445 1445 1445 1445 1445 1445 1445 1445 1452 1452 1452 1452 1452 1458 1452 1452 1452 1452 1452 1452 1445 1445 1452 1452 1445 1445 1445 1445 1445 1445 1445 1445 1445 1445 1445 1445 1445 1439 1439 1439 1439 1439 1439 1439 1439 1439 1439 1439 1439 1439 1439 1439 1439 1427 1427 1427 1427 1427 1427 1427 1427 1427 1427 1427 1421 1421 1421 1421 1421 1421 1421 1421 1421 1421 1421 1421 1421 1421 1415 1415 1415 1415 1415 1415 1415 1415 1415 1415 1415 1415 1415 1415 1415 1415 1415 1410 1410 1410 1410 1410 1410 1410 1410 1404 1404 1398 1392 1387 1387 1387 1387 1387 1387 1387 1387 1387 1381 1381 1381 0 1794 1794 1794 1794 1794 1794 1794 1804 1804 1804 1804 1804 1804 1804 1804 2156 2156 2143 2143 2143 2156 2156 2156 2156 2156 2156 2143 2143 2143 2143 2143 2143 2143 2156 2156 2156 2156 1904 1904 1894 1894 1894 1894 1883 1883 1883 1883 2156 2143 2143 2143 2143 2143 2143 2143 2143 2143 2143 2143 2143 2143 2143 2143 2143 2143 2129 2129 2129 2129 2143 2129 2129 2143 2143 2143 2143 2143 2143 2143 2143 2143 1458 1458 1458 1458 1458 1458 1458 1458 1458 1452 1452 1452 1452 1452 1452 1452 1452 1452 1452 1452 1452 1452 2143 2143 2129 2129 2129 2129 2129 2116 2116 2116 2116 2103 2103 2116 2103 2103 2103 2103 2116 2116 2103 2103 2116 2116 2103 2103 2116 2116 2116 2116 2116 2116 2116 2116 2116 2129 2129 2129 2129 2129 2129 2116 2116 2116 2103 2103 2103 2103 2103 2103 2103 2103 2116 2116 2116 2116 2116 2116 2129 2116 2116 2116 2116 2116 2116 2129 2129 2129 2129 2129 2129 2129 2129 2116 2116 2116 2116 2129 2116 2116 2116 2116 2103 2103 2090 2090 2090 2090 2090 2090 2090 2090 2090 2090 2090 2078 2078 2078 2078 2078 2078 2078 2078 2078 2078 2078 2078 2078 2090 2090 2078 2078 2078 2078 2090 2078 2078 2078 2090 2090 2090 2090 2090 2090 2078 2078 2078 2078 2078 2078 2078 0 0 0 0 0 0 0 0
0 0 0 0 0 0 0 0 0 0 0 0 0 0 0 0 0 0 0 0 0 0 0 0 0 0 0 0 0 0 0 0 0 0 2103 2103 2116 2116 2116 2116 2116 2116 2116 2116 2116 2116 2116 2116 2116 2129 2129 2116 2116 2129 2129 2116 2116 2116 2116 2116 2116 2116 2116 2116 2116 2116 2116 2116 2116 2116 2103 2103 2103 2103 2103 2116 2116 2116 2116 2116 2116 2116 2103 2103 2103 2103 2103 2103 2103 2103 2103 2116 2116 2116 2116 2116 2116 2103 2103 2103 2116 2116 2116 2116 2116 2116 2116 2116 2116 2129 2129 2129 2143 2143 2156 1680 1680 1680 1680 1680 1680 1680 1680 1671 1624 1601 1601 1594 1594 1594 1594 1594 1594 1594 1601 1609 1616 1616 1616 1616 1624 1624 2143 2143 2143 2143 2143 2143 2143 2143 2143 2143 2143 2143 2143 2143 2129 2129 1863 1863 1863 1863 1873 1873 1883 1883 1894 1894 1904 1904 1904 1915 1981 1981 1993 2016 2016 2028 2028 2028 2028 2040 2040 2053 2078 2103 2116 2129 2129 2143 2143 2143 2129 2129 2090 2078 2078 2065 2065 2078 2078 2078 2078 2090 2090 2103 2116 2129 2143 2156 2156 2156 2156 2156 2156 1550 1550 1550 1550 1550 1550 1557 1557 1557 1557 1557 1557 1564 1564 1572 1572 1579 1586 1586 2143 2143 2143 2143 2143 2143 2156 2143 2143 2143 2143 2156 2156 2143 2143 2156 2156 2156 2170 2170 2170 2170 2170 2170 2170 1883 1883 1883 1883 1883 1894 1894 1904 1904 1904 1915 1915 1915 1445 1445 1445 1445 1445 1445 1445 1445 1445 1445 1445 1445 1452 1452 1452 1458 1458 1452 1452 1458 1452 1452 1452 1452 1452 1445 1445 1445 1445 1445 1452 1452 1445 1445 1445 1445 1445 1445 1445 1445 1445 1445 1445 1439 1439 1439 1439 1439 1439 1439 1439 1439 1439 1439 1439 1439 1439 1439 1439 1427 1427 1427 1427 1427 1427 1427 1427 1427 1427 1421 1421 1421 1421 1421 1421 1421 1421 1421 1421 1421 1421 1421 1421 1421 1415 1415 1415 1415 1415 1415 1415 1415 1415 1415 1415 1415 1415 1415 1415 1415 1415 1415 1415 1410 1410 1410 1410 1410 1410 1410 1404 1398 1392 1387 1387 1387 1387 1387 1387 1387 1387 1387 1387 1387 1387 0 1794 1794 1794 1794 1794 1794 1804 1804 1804 1804 1804 1804 1813 1813 1813 2143 2143 2143 2143 2143 2143 2143 2143 2143 2143 2143 2143 2143 2143 2143 2143 2143 2143 2143 2143 2156 2156 1904 1894 1894 1894 1894 1894 1883 1883 1883 1883 2143 2143 2143 2143 2143 2143 2143 2143 2143 2143 2143 2143 2143 2129 2129 2129 2129 2129 2129 2129 2129 2129 2129 2129 2129 2129 2129 2129 2116 2116 2116 2129 2129 1464 1464 1458 1458 1458 1458 1458 1458 1458 1458 1458 1452 1452 1452 1452 1452 1452 1452 1452 1458 1458 1458 1458 2129 2129 2129 2116 2116 2116 2116 2116 2116 2103 2103 2103 2090 2090 2090 2090 2090 2103 2103 2103 2103 2103 2103 2103 2103 2103 2103 2103 2103 2103 2103 2103 2103 2103 2103 2116 2116 2116 2116 2129 2116 2116 2103 2103 2103 2103 2103 2103 2103 2103 2103 2103 2103 2116 2116 2116 2116 2116 2116 2116 2116 2103 2103 2103 2103 2116 2116 2116 2116 2116 2116 2116 2103 2103 2103 2103 2103 2103 2103 2103 2103 2103 2103 2103 2078 2078 2078 2078 2078 2078 2078 2078 2078 2078 2078 2078 2078 2078 2078 2078 2078 2078 2078 2078 2078 2078 2078 2078 2078 2078 2078 2078 2078 2078 2078 2078 2078 2078 2078 2078 2078 2078 2078 2078 2078 2078 2078 2078 2065 2065 2065 0 0 0 0 0 0 0 0
0 0 0 0 0 0 0 0 0 0 0 0 0 0 0 0 0 0 0 0 0 0 0 0 0 0 0 0 0 0 0 0 0 0 2103 2103 2103 2103 2103 2103 2116 2116 2116 2116 2116 2116 2116 2116 2116 2116 2116 2116 2116 2116 2116 2116 2116 2116 2116 2116 2116 2116 2116 2116 2116 2116 2116 2116 2116 2116 2103 2103 2103 2103 2103 2103 2116 2103 2103 2103 2103 2103 2103 2103 2103 2103 2103 2103 2103 2103 2103 2103 2103 2103 2103 2103 2103 2103 2103 2103 2103 2103 2103 2103 2103 2103 2116 2116 2116 2116 2116 2116 2129 2129 2129 1680 1680 1680 1680 1680 1680 1680 1680 1671 1671 1609 1601 1594 1594 1594 1594 1594 1594 1594 1601 1609 1616 1616 1616 1616 1624 1624 2129 2129 2129 2129 2129 2129 2143 2143 2143 2129 2129 2143 2143 2143 2129 2129 1863 1853 1853 1863 1863 1873 1873 1883 1894 1894 1904 1904 1904 1915 1915 2028 2016 2016 2028 2028 2028 2028 2028 2040 2040 2053 2078 2090 2116 2129 2129 2129 2143 2143 2129 2129 2103 2078 2078 2065 2065 2078 2078 2078 2078 2090 2090 2103 2116 2129 2143 2143 2143 2143 2143 2143 2143 2143 1550 1550 1550 1550 1550 1557 1557 1557 1557 1557 1564 1572 1572 1572 1579 1579 1579 1579 2143 2143 2143 2143 2143 2143 2143 2129 2129 2143 2143 2143 2143 2143 2143 2143 2143 2143 2143 2156 2156 2156 2143 2143 1863 1863 1873 1883 1883 1883 1883 1894 1894 1915 1915 1926 1926 1926 1445 1445 1445 1445 1445 1445 1445 1445 1445 1445 1452 1452 1452 1452 1458 1458 1458 1458 1458 1458 1458 1445 1445 1445 1445 1445 1445 1445 1445 1445 1445 1445 1445 1445 1445 1445 1445 1445 1445 1439 1439 1445 1445 1439 1439 1439 1439 1439 1439 1439 1439 1439 1439 1439 1439 1439 1439 1439 1439 1427 1427 1427 1427 1427 1427 1427 1427 1427 1427 1421 1421 1421 1421 1421 1421 1421 1421 1421 1421 1421 1421 1421 1421 1421 1421 1415 1415 1415 1415 1415 1415 1415 1415 1415 1415 1415 1415 1415 1415 1415 1415 1415 1415 1410 1410 1410 1410 1410 1410 1410 1404 1398 1392 1392 1387 1387 1387 1387 1387 1387 1387 1387 1387 1387 1387 1776 1794 1794 1794 1794 1804 1804 1804 1804 1804 1804 1813 1813 1813 1813 1813 2129 2116 2116 2129 2129 2129 2129 2129 2143 2129 2129 2129 2129 2129 2129 2129 2129 2129 2143 2143 2143 2156 1904 1894 1894 1894 1894 1894 1883 1883 1883 1883 2129 2129 2129 2129 2129 2129 2129 2129 2129 2129 2129 2129 2129 2129 2116 2116 2116 2116 2116 2116 2116 2129 2129 2116 2116 2116 2116 2116 2116 2116 2116 2129 2129 1464 1464 1458 1458 1458 1458 1458 1458 1458 1458 1458 1458 1458 1458 1458 1452 1452 1458 1458 1458 1458 1458 2103 2103 2103 2103 2103 2103 2103 2103 2103 2103 2090 2090 2090 2090 2090 2090 2090 2090 2090 2103 2103 2103 2103 2103 2103 2090 2090 2090 2103 2103 2103 2090 2090 2103 2103 2103 2103 2103 2103 2116 2116 2116 2103 2103 2090 2090 2090 2090 2090 2090 2090 2090 2090 2103 2103 2103 2103 2116 2116 2116 2103 2103 2103 2090 2090 2090 2090 2090 2103 2103 2103 2103 2103 2090 2090 2090 2090 2090 2090 2090 2103 2103 2103 2090 2090 2078 2065 2065 2065 2065 2065 2065 2065 2065 2078 2078 2078 2078 2078 2078 2078 2065 2065 2065 2065 2065 2065 2065 2065 2065 2078 2065 2065 2065 2078 2078 2078 2078 2078 2078 2078 2078 2078 2078 2078 2078 2078 2065 2065 2065 2065 2065 0 0 0 0 0 0 0 0
0 0 0 0 0 0 0 0 0 0 0 0 0 0 0 0 0 0 0 0 0 0 0 0 0 0 0 0 0 0 0 0 0 0 2090 2090 2090 2090 2103 2103 2103 2103 2103 2103 2116 2116 2116 2116 2116 2116 2116 2116 2116 2116 2116 2103 2103 2103 2103 2103 2103 2103 2103 2103 2103 2103 2103 2103 2103 2103 2103 2103 2103 2103 2103 2103 2103 2103 2103 2103 2103 2103 2103 2103 2103 2103 2103 2103 2103 2103 2103 2103 2103 2103 2103 2103 2103 2090 2090 2090 2090 2090 2103 2103 2103 2103 2103 2103 2116 2116 2116 2116 2103 2103 2103 1680 1680 1680 1680 1680 1680 1680 1688 1680 1680 1609 1601 1601 1594 1594 1594 1594 1594 1594 1601 1609 1616 1616 1624 1624 1624 2129 2129 2116 2116 2129 2129 2129 2129 2129 2129 2129 2129 2129 2129 2129 2116 2116 2116 1853 1853 1863 1863 1873 1873 1873 1883 1894 1894 1904 1904 1915 2065 2028 2028 2028 2028 2028 2028 2028 2028 2040 2040 2053 2078 2090 2116 2116 2129 2129 2129 2129 2129 2129 2103 2078 2078 2078 2078 2078 2078 2078 2090 2090 2090 2090 2103 2116 2116 2129 2143 2143 2143 2129 2129 2143 2143 1550 1550 1557 1557 1557 1557 1557 1557 1557 1564 1572 1572 1572 1572 1579 1579 1579 1579 2129 2129 2129 2129 2143 2143 2129 2129 2129 2129 2129 2129 2129 2129 2129 2143 2143 2143 2143 2129 2129 2129 2129 1863 1853 1853 1873 1883 1883 1883 1894 1894 1915 1915 1926 1936 1959 1959 1452 1452 1445 1445 1452 1445 1445 1452 1452 1452 1452 1452 1458 1458 1458 1458 1458 1458 1458 1458 1445 1445 1445 1445 1445 1445 1445 1445 1445 1445 1445 1445 1445 1445 1445 1445 1445 1439 1439 1439 1445 1445 1439 1439 1439 1439 1439 1439 1439 1439 1439 1439 1439 1439 1439 1439 1439 1439 1433 1427 1427 1427 1427 1427 1427 1427 1427 1427 1421 1421 1421 1421 1427 1427 1427 1427 1427 1427 1421 1421 1421 1421 1421 1421 1421 1415 1415 1415 1415 1415 1415 1415 1415 1415 1415 1415 1415 1415 1415 1415 1415 1415 1415 1415 1410 1410 1410 1410 1410 1404 1398 1392 1392 1387 1387 1387 1392 1387 1387 1392 1392 1392 1392 1392 1776 1776 1785 1785 1794 1804 1804 1804 1804 1804 1804 1813 1813 1813 1813 1813 2129 2116 2116 2116 2116 2116 2116 2116 2116 2129 2129 2116 2116 2116 2129 2129 2129 2129 2143 2143 2143 2156 1904 1904 1904 1894 1894 1894 1894 1883 1883 1894 2129 2129 2129 2129 2129 2129 2116 2116 2129 2116 2116 2116 2116 2116 2116 2116 2116 2116 2116 2116 2116 2116 2116 2116 2116 2103 2103 2103 2103 2103 2116 2156 2156 1464 1464 1464 1464 1464 1464 1458 1458 1458 1458 1458 1458 1458 1458 1458 1458 1458 1458 1458 1458 1464 1464 2103 2103 2090 2090 2090 2090 2090 2090 2090 2090 2090 2090 2090 2090 2090 2090 2090 2090 2090 2090 2090 2090 2090 2103 2090 2090 2090 2090 2090 2090 2090 2090 2090 2090 2090 2090 2090 2090 2103 2103 2103 2103 2090 2090 2090 2090 2090 2090 2090 2090 2090 2090 2090 2090 2090 2090 2103 2103 2103 2103 2090 2090 2090 2090 2090 2090 2090 2090 2090 2090 2090 2090 2090 2090 2090 2090 2090 2090 2090 2090 2090 2090 2090 2090 2090 2078 2065 2065 2065 2065 2065 2065 2065 2065 2065 2065 2065 2065 2065 2065 2065 2065 2065 2065 2065 2065 2065 2065 2065 2065 2065 2065 2065 2065 2065 2065 2065 2065 2065 2065 2078 2078 2078 2078 2078 2078 2065 2065 2065 2065 2065 2065 0 0 0 0 0 0 0 0
0 0 0 0 0 0 0 0 0 0 0 0 0 0 0 0 0 0 0 0 0 0 0 0 0 0 0 0 0 0 0 0 0 0 2078 2078 2090 2090 2090 2090 2090 2090 2103 2103 2103 2103 2103 2103 2103 2103 2103 2116 2103 2103 2103 2103 2103 2103 2103 2103 2103 2103 2103 2103 2103 2103 2103 2103 2103 2103 2090 2090 2103 2103 2103 2103 2103 2103 2103 2090 2090 2090 2090 2090 2103 2103 2103 2103 2103 2103 2103 2103 2103 2103 2103 2090 2090 2090 2090 2090 2090 2090 2090 2090 2103 2103 2103 2103 2103 2116 2103 2103 2103 2103 2103 1680 1680 1680 1680 1680 1680 1680 1688 1680 1680 1680 1601 1601 1594 1594 1594 1594 1594 1601 1609 1609 1616 1616 1624 1624 1624 2129 2103 2103 2103 2103 2103 2116 2116 2116 2116 2116 2116 2129 2129 2129 2103 2103 2116 1853 1853 1853 1853 1863 1863 1873 1883 1883 1894 1904 1904 2090 2065 2053 2040 2040 2028 2028 2040 2040 2040 2040 2040 2053 2078 2090 2103 2116 2116 2116 2129 2129 2129 2103 2090 2078 2078 2078 2078 2078 2078 2078 2090 2090 2090 2090 2103 2103 2116 2129 2129 2129 2129 2129 2129 2129 2129 1557 1557 1557 1557 1557 1557 1557 1557 1557 1564 1572 1572 1572 1572 1579 1579 1579 1579 2129 2129 2129 2129 2129 2143 2129 2129 2129 2129 2129 2129 2129 2129 2129 2129 2129 2129 2129 2129 2129 2129 1843 1843 1853 1853 1873 1873 1883 1883 1894 1894 1915 1926 1936 1947 1959 1959 1458 1458 1452 1452 1452 1452 1452 1452 1452 1452 1452 1452 1458 1458 1464 1464 1458 1458 1458 1458 1452 1445 1445 1445 1445 1445 1445 1445 1445 1863 1445 1445 1883 1445 1445 1433 1433 1439 1439 1439 1439 1445 1439 1439 1439 1439 1439 1439 1439 1439 1439 1439 1439 1439 1439 1439 1439 1439 1427 1427 1427 1427 1427 1427 1427 1433 1427 1421 1421 1421 1421 1427 1427 1427 1427 1427 1427 1427 1421 1421 1421 1421 1421 1421 1421 1415 1415 1415 1415 1415 1415 1415 1415 1415 1415 1415 1415 1415 1415 1415 1415 1415 1415 1415 1415 1415 1410 1410 1410 1404 1398 1392 1392 1387 1387 1392 1392 1392 1392 1392 1392 1392 1392 1392 1776 1776 1785 1785 1785 1804 1804 1804 1804 1804 1804 1804 1804 1813 1813 1813 2116 2103 2103 2103 2116 2116 2103 2103 2116 2116 2116 2116 2116 2116 2129 2116 2116 2116 2129 2129 2143 1904 1904 1904 1904 1904 1904 1904 1894 1894 1894 1894 1904 2116 2116 2116 2116 2129 2116 2116 2116 2116 2116 2116 2116 2116 2116 2103 2103 2103 2103 2103 2103 2103 2103 2103 2103 2103 2103 2103 2103 2103 2103 2143 2143 1464 1464 1464 1464 1464 1464 1464 1458 1458 1458 1458 1458 1458 1458 1458 1458 1458 1458 1458 1458 1464 1464 2078 2078 2078 2078 2078 2078 2090 2090 2090 2090 2090 2090 2090 2090 2090 2078 2078 2090 2090 2090 2090 2090 2090 2090 2090 2090 2090 2090 2090 2090 2090 2090 2090 2090 2090 2090 2090 2090 2090 2090 2090 2090 2090 2090 2090 2090 2090 2090 2090 2090 2090 2090 2090 2090 2090 2090 2090 2090 2090 2090 2090 2090 2090 2090 2090 2090 2090 2090 2090 2090 2090 2090 2090 2090 2090 2090 2090 2090 2090 2090 2090 2090 2090 2078 2078 2065 2065 2065 2065 2065 2053 2053 2065 2065 2065 2065 2065 2065 2065 2065 2065 2065 2065 2065 2065 2065 2065 2065 2053 2053 2053 2053 2053 2053 2053 2053 2053 2053 2053 2065 2065 2065 2065 2065 2065 2065 2065 2065 2065 2053 2053 2053 0 0 0 0 0 0 0 0
0 0 0 0 0 0 0 0 0 0 0 0 0 0 0 0 0 0 0 0 0 0 0 0 0 0 0 0 0 0 0 0 0 0 2078 2078 2078 2078 2078 2078 2078 2090 2090 2090 2090 2103 2103 2103 2103 2103 2103 2103 2103 2103 2103 2103 2103 2103 2103 2103 2103 2103 2103 2103 2103 2103 2103 2103 2103 2103 2090 2090 2090 2090 2090 2090 2090 2090 2090 2090 2090 2090 2090 2090 2090 2090 2090 2090 2090 2090 2103 2103 2103 2103 2090 2090 2090 2090 2090 2090 2090 2090 2090 2090 2090 2090 2103 2103 2103 2103 2103 2103 2090 2090 2090 1688 1680 1680 1680 1680 1680 1680 1688 1680 1680 1680 1601 1601 1601 1601 1601 1601 1601 1601 1609 1609 1616 1616 1624 1624 1624 1624 2090 2090 2103 2103 2103 2103 2116 2116 2116 2116 2116 2116 2116 2116 2090 2090 1843 1843 1853 1853 1853 1863 1863 1873 1873 1883 1894 1904 2103 2090 2065 2053 2053 2040 2040 2040 2040 2040 2040 2040 2040 2053 2065 2078 2090 2103 2103 2103 2116 2116 2116 2103 2090 2078 2078 2078 2078 2078 2078 2078 2090 2090 2090 2090 2103 2103 2116 2116 2129 2129 2116 2116 2129 2129 2129 1557 1557 1557 1557 1557 1557 1557 1557 1557 1564 1564 1564 1564 1572 1572 1579 1579 2156 2129 2129 2129 2129 2129 2129 2129 2116 2116 2116 2116 2129 2129 2129 2129 2129 2129 2129 2129 2129 2129 2129 1843 1843 1853 1853 1873 1873 1883 1883 1894 1894 1915 1915 1959 1970 1970 1981 1981 1458 1452 1452 1452 1452 1452 1452 1452 1452 1452 1458 1458 1458 1464 1464 1464 1458 1458 1464 1458 1458 1458 1843 1843 1445 1445 1853 1853 1853 1873 1883 1883 1883 1883 1433 1433 1433 1433 1433 1439 1445 1445 1445 1445 1445 1445 1439 1439 1445 1439 1439 1439 1439 1439 1439 1439 1439 1427 1427 1427 1427 1427 1427 1421 1421 1427 1415 1415 1415 1415 1415 1421 1427 1427 1427 1427 1427 1421 1421 1421 1421 1421 1421 1415 1415 1415 1421 1415 1415 1415 1415 1415 1415 1415 1415 1415 1415 1415 1415 1415 1415 1415 1415 1415 1415 1410 1410 1410 1398 1398 1392 1392 1392 1392 1392 1392 1392 1392 1392 1392 1392 1392 1392 1392 1785 1785 1785 1785 1785 1804 1804 1804 1804 1804 1804 1804 1804 1804 1804 2103 2103 2103 2103 2103 2103 2103 2103 2103 2103 2103 2103 2103 2103 2116 2116 2116 2116 2116 2129 2129 1904 1904 1904 1904 1904 1904 1904 1904 1894 1894 1904 1904 2103 2103 2103 2103 2116 2116 2103 2103 2103 2103 2103 2103 2103 2103 2103 2103 2103 2103 2103 2103 2103 2103 2103 2103 2103 2103 2103 2103 2103 2103 2103 2103 1464 1464 1464 1464 1464 1464 1464 1464 1458 1458 1458 1458 1458 1458 1458 1458 1458 1458 1458 1458 1458 1458 2078 2078 2078 2078 2078 2078 2078 2078 2078 2078 2078 2078 2078 2078 2078 2078 2078 2078 2078 2090 2078 2078 2078 2090 2090 2078 2078 2078 2090 2090 2078 2078 2078 2078 2078 2078 2090 2090 2090 2078 2078 2090 2078 2078 2078 2078 2090 2090 2078 2078 2090 2090 2090 2090 2090 2090 2090 2090 2090 2090 2090 2090 2090 2078 2078 2078 2078 2078 2078 2078 2078 2078 2078 2078 2078 2078 2078 2078 2078 2078 2078 2078 2078 2078 2078 2065 2053 2053 2053 2053 2053 2053 2053 2065 2065 2053 2053 2065 2053 2053 2053 2053 2053 2053 2053 2053 2053 2053 2053 2053 2053 2040 2040 2040 2040 2040 2040 2040 2040 2040 2040 2040 2040 2040 2040 2040 2040 2040 2040 2040 2028 2028 0 0 0 0 0 0 0 0
0 0 0 0 0 0 0 0 0 0 0 0 0 0 0 0 0 0 0 0 0 0 0 0 0 0 0 0 0 0 0 0 0 0 2078 2078 2078 2078 2078 2078 2078 2078 2078 2078 2078 2090 2090 2103 2090 2090 2090 2103 2103 2103 2103 2103 2103 2103 2103 2103 2103 2103 2103 2103 2090 2090 2090 2090 2090 2090 2078 2078 2078 2090 2090 2090 2090 2090 2090 2090 2090 2090 2090 2090 2090 2090 2090 2090 2090 2090 2090 2103 2103 2103 2090 2090 2090 2090 2090 2090 2090 2090 2090 2090 2090 2090 2090 2090 2090 2090 2103 2090 2090 2090 2090 2090 1688 1688 1680 1680 1680 1688 1688 1680 1680 1680 1601 1601 1601 1601 1601 1601 1601 1609 1609 1616 1616 1616 1624 1624 1624 2078 2078 2090 2090 2090 2103 2103 2103 2103 2103 2103 2103 2116 2116 2103 2090 2090 1843 1843 1853 1853 1853 1863 1863 1873 1873 1873 1894 2090 2090 2078 2078 2053 2053 2040 2040 2040 2040 2040 2040 2040 2040 2053 2065 2065 2078 2090 2090 2090 2103 2103 2103 2090 2090 2078 2078 2078 2078 2078 2078 2078 2090 2090 2090 2090 2103 2103 2103 2116 2116 2116 2103 2103 2103 2103 2103 1557 1557 1550 1550 1557 1557 1557 1557 1557 1564 1564 1564 1564 1564 1572 1572 2156 2156 2129 2129 2129 2129 2129 2129 2129 2116 2116 2116 2116 2116 2116 2116 2116 2116 2129 2129 2129 2129 2129 1833 1833 1843 1843 1843 1853 1873 1873 1873 1894 1894 1904 1915 1959 1970 1981 1981 1981 1458 1458 1458 1458 1452 1452 1452 1452 1458 1458 1458 1464 1464 1464 1464 1464 1458 1458 1458 1458 1843 1843 1843 1843 1843 1843 1853 1853 1853 1863 1873 1883 1883 1894 1894 1433 1433 1433 1433 1439 1445 1445 1445 1445 1445 1445 1439 1439 1445 1445 1445 1439 1439 1439 1439 1439 1433 1427 1427 1427 1427 1427 1427 1421 1421 1433 1415 1415 1415 1415 1415 1421 1427 1427 1427 1427 1427 1421 1421 1421 1421 1421 1421 1415 1415 1415 1421 1415 1415 1415 1415 1415 1415 1415 1415 1415 1415 1415 1415 1415 1415 1415 1415 1415 1415 1410 1410 1410 1398 1398 1392 1392 1392 1392 1392 1392 1392 1392 1392 1392 1392 1392 1392 1392 1785 1785 1785 1785 1785 1804 1804 1804 1804 1804 1804 1804 1804 1804 1804 2103 2103 2103 2103 2103 2103 2103 2103 2103 2103 2103 2103 2103 2103 2103 2103 2103 2103 2103 2103 2116 1904 1904 1904 1904 1904 1904 1904 1904 1904 1904 1904 1904 2103 2103 2103 2103 2103 2103 2103 2103 2103 2103 2103 2103 2103 2103 2103 2103 2103 2103 2103 2103 2103 2103 2103 2103 2103 2103 2103 2103 2103 2103 2103 2103 1464 1464 1464 1464 1464 1464 1464 1464 1464 1464 1458 1458 1458 1458 1458 1458 1458 1458 1458 1458 1458 1458 2078 2078 2078 2078 2078 2078 2078 2078 2078 2078 2078 2078 2078 2078 2078 2078 2078 2078 2078 2078 2078 2078 2078 2078 2078 2078 2078 2078 2078 2078 2078 2078 2078 2078 2078 2078 2078 2078 2078 2078 2078 2078 2078 2078 2078 2078 2078 2078 2078 2078 2078 2078 2078 2078 2078 2078 2090 2090 2090 2090 2090 2078 2078 2078 2078 2078 2078 2078 2078 2078 2078 2078 2065 2065 2078 2078 2078 2078 2078 2078 2078 2078 2078 2065 2065 2053 2053 2053 2053 2053 2053 2053 2053 2053 2053 2053 2053 2053 2040 2040 2040 2040 2040 2040 2040 2040 2040 2040 2040 2040 2040 2028 2028 2028 2040 2028 2028 2028 2028 2040 2040 2040 2040 2040 2040 2040 2040 2040 2028 2028 2028 2028 0 0 0 0 0 0 0 0
0 0 0 0 0 0 0 0 0 0 0 0 0 0 0 0 0 0 0 0 0 0 0 0 0 0 0 0 0 0 0 0 0 0 2078 2078 2065 2065 2065 2065 2065 2065 2065 2065 2078 2078 2090 2090 2090 2090 2090 2090 2090 2090 2090 2090 2090 2090 2090 2090 2090 2090 2090 2090 2090 2090 2090 2090 2090 2090 2078 2078 2078 2078 2090 2090 2078 2078 2078 2078 2078 2078 2078 2078 2090 2090 2090 2090 2090 2090 2090 2090 2090 2078 2078 2078 2078 2078 2078 2078 2090 2078 2078 2090 2090 2090 2090 2090 2090 2090 2090 2090 2090 2090 2090 2090 1688 1688 1688 1688 1688 1688 1688 1680 1680 1680 1601 1601 1601 1601 1601 1601 1601 1609 1616 1616 1616 1624 1624 1624 1632 2078 2078 2090 2090 2090 2103 2103 2103 2103 2103 2103 2103 2103 2103 2103 2090 2090 1843 1843 1843 1853 1853 1863 1863 1863 1863 1873 2090 2090 2090 2078 2078 2065 2053 2040 2040 2040 2040 2040 2040 2040 2040 2053 2065 2065 2078 2078 2090 2090 2090 2103 2103 2090 2090 2078 2078 2078 2078 2078 2078 2078 2090 2090 2090 2090 2090 2090 2103 2103 2103 2103 2103 2103 2103 2103 2103 1550 1550 1550 1550 1557 1557 1557 1557 1557 1564 1564 1564 1564 1564 1572 1572 1579 2129 2129 2129 2129 2129 2129 2129 2129 2116 2116 2116 2116 2116 2116 2116 2116 2116 2129 2129 2129 2129 1833 1833 1833 1843 1843 1843 1853 1873 1873 1873 1883 1894 1904 1926 1959 1970 1981 1981 1981 1458 1458 1458 1458 1458 1452 1452 1452 1458 1458 1458 1464 1464 1470 1470 1470 1470 1470 1470 0 1823 1833 1833 1833 1833 1843 1843 1853 1853 1863 1873 1883 1894 1894 2103 2103 2103 2103 1439 1439 2116 2103 2103 2103 2103 2103 2103 2090 2090 2090 2090 2078 1439 1439 1439 1439 1433 1427 1427 1427 1427 1427 1427 1427 1427 1981 1981 1415 1415 1415 1415 1421 1427 1427 1427 1433 1433 1427 1427 1427 1421 1421 1415 1415 1415 1415 1421 1421 1415 1415 1415 1415 1415 1415 1415 1415 1415 1415 1415 1415 1415 1410 1410 1415 1415 1415 1410 1410 1398 1398 1392 1392 1392 1392 1392 1392 1392 1392 1392 1392 1392 1392 1392 1398 1398 1785 1785 1794 1804 1804 1804 1804 1813 1813 1804 1804 1804 1804 1813 2103 2103 2090 2090 2103 2103 2103 2103 2103 2103 2103 2103 2103 2103 2103 2103 2103 2103 2103 2103 2103 1904 1904 1904 1904 1904 1904 1904 1904 1904 1904 1904 1904 2090 2090 2103 2103 2103 2103 2103 2103 2090 2090 2090 2090 2090 2090 2090 2103 2103 2103 2103 2103 2090 2090 2090 2090 2090 2090 2090 2090 2103 2103 2103 2103 1464 1464 1464 1464 1464 1464 1464 1464 1464 1464 1464 1458 1458 1458 1458 1458 1458 1458 1458 1458 1458 2040 2040 2053 2065 2065 2065 2065 2078 2078 2078 2078 2078 2078 2078 2078 2078 2078 2078 2078 2078 2078 2078 2078 2078 2078 2078 2078 2078 2078 2078 2078 2078 2078 2078 2065 2065 2065 2078 2065 2065 2065 2065 2078 2065 2065 2078 2078 2078 2078 2078 2078 2078 2078 2078 2065 2065 2065 2078 2078 2078 2078 2078 2078 2078 2078 2078 2078 2078 2078 2065 2065 2065 2065 2065 2065 2065 2065 2078 2078 2078 2065 2065 2065 2065 2065 2065 2053 2040 2040 2053 2053 2040 2040 2040 2040 2040 2040 2040 2040 2040 2040 2040 2040 2040 2040 2028 2028 2028 2028 2028 2028 2028 2028 2028 2028 2028 2028 2028 2028 2028 2028 2028 2028 2028 2028 2028 2028 2028 2028 2028 2028 2028 2028 0 0 0 0 0 0 0 0
0 0 0 0 0 0 0 0 0 0 0 0 0 0 0 0 0 0 0 0 0 0 0 0 0 0 0 0 0 0 0 0 0 0 2065 2065 2065 2065 2065 2065 2065 2053 2053 2065 2065 2078 2078 2078 2078 2078 2078 2078 2078 2065 2065 2065 2065 2065 2078 2078 2078 2090 2090 2090 2090 2090 2090 2090 2090 2090 2078 2065 2065 2078 2078 2078 2065 2065 2065 2065 2078 2078 2078 2078 2078 2078 2078 2078 2078 2078 2078 2090 2078 2078 2078 2065 2065 2065 2065 2065 2078 2078 2078 2090 2090 2090 2078 2078 2078 2090 2090 2090 2090 2090 2090 2090 1688 1688 1688 1696 1688 1688 1688 1680 1680 1680 1594 1594 1601 1601 1601 1609 1609 1609 1616 1616 1616 1624 1624 1624 1624 2078 2090 2090 2090 2090 2090 2090 2090 2090 2090 2090 2103 2103 2103 2103 2090 2090 1833 1833 1843 1843 1853 1853 1863 1863 1863 1863 2090 2090 2090 2078 2078 2065 2053 2053 2040 2040 2040 2040 2040 2040 2040 2053 2053 2065 2078 2078 2090 2090 2090 2103 2103 2090 2090 2090 2078 2078 2078 2078 2078 2090 2090 2090 2090 2090 2090 2090 2103 2103 2103 2103 2090 2090 2090 2090 2090 1550 1550 1550 1550 1557 1557 1557 1557 1557 1564 1564 1564 1564 1564 1572 1579 1579 2116 2116 2116 2116 2116 2116 2116 2116 2103 2103 2103 2103 2116 2116 2116 2116 2116 2116 2116 2129 2129 1833 1833 1833 1843 1843 1843 1853 1873 1873 1873 1883 1894 1915 1926 1959 1981 1993 1993 1993 1458 1458 1458 1458 1458 1458 1458 1458 1458 1464 1464 1464 1464 1470 1477 1477 1483 1483 1483 0 1823 1823 1823 1833 1833 1843 1843 1853 1853 1863 1873 1883 1894 1894 2078 2103 2103 2103 2103 2116 2103 2103 2103 2103 2103 2103 2103 2090 2090 2090 2090 2078 2078 2078 2078 2090 2078 2078 2065 2040 2005 1981 1981 1981 1981 1981 1981 1981 1993 2005 2005 2028 1427 1427 1427 1433 1433 1427 1421 1421 1415 1415 1415 1415 1415 1415 1421 1427 1427 1427 1427 1433 1433 1415 1415 1415 1415 1415 1415 1415 1415 1410 1410 1415 1415 1415 1410 1410 1404 1398 1392 1392 1392 1392 1392 1392 1392 1392 1392 1392 1392 1392 1392 1392 1392 1794 1794 1804 1804 1804 1804 1804 1804 1804 1804 1804 1804 1804 1813 2103 2090 2090 2090 2090 2090 2090 2090 2090 2103 2103 2103 2103 2103 2103 2090 2090 2090 2090 2090 2090 1904 1904 1904 1904 1904 1904 1904 1904 1904 1904 1904 1915 2090 2090 2090 2090 2103 2103 2090 2090 2090 2090 2090 2090 2090 2090 2090 2090 2090 2090 2090 2090 2090 2090 2090 2090 2090 2090 2090 2090 2090 2103 2103 2103 1464 1464 1464 1464 1464 1464 1464 1464 1464 1464 1464 1464 1458 1458 1458 1458 1458 1458 1458 1464 1464 2040 2040 2040 2053 2053 2053 2065 2065 2065 2065 2065 2065 2065 2065 2078 2078 2065 2065 2065 2078 2065 2053 2053 2053 2065 2065 2065 2065 2065 2078 2078 2078 2065 2065 2053 2053 2065 2065 2065 2065 2053 2053 2065 2065 2065 2065 2065 2065 2065 2065 2065 2065 2065 2065 2053 2053 2053 2065 2065 2078 2078 2078 2078 2078 2078 2078 2065 2065 2065 2053 2053 2053 2053 2053 2053 2053 2065 2065 2065 2065 2053 2053 2053 2053 2053 2053 2040 2040 2040 2040 2040 2028 2028 2028 2028 2028 2028 2028 2028 2028 2028 2028 2028 2028 2028 2016 2016 2028 2028 2028 2028 2016 2016 2016 2016 2028 2016 2016 2028 2028 2028 2028 2028 2028 2028 2028 2028 2028 2028 2028 2028 2028 2028 0 0 0 0 0 0 0 0
0 0 0 0 0 0 0 0 0 0 0 0 0 0 0 0 0 0 0 0 0 0 0 0 0 0 0 0 0 0 0 0 0 0 2065 2065 2065 2065 2065 2065 2065 2053 2053 2065 2065 2065 2065 2078 2078 2078 2078 2065 2065 2065 2065 2065 2065 2065 2065 2065 2078 2078 2065 2065 2078 2065 2065 2078 2078 2078 2065 2053 2053 2065 2065 2065 2053 2053 2065 2065 2065 2065 2065 2065 2065 2078 2078 2078 2078 2078 2065 2065 2065 2065 2065 2053 2053 2053 2065 2065 2065 2065 2065 2090 2090 2078 2065 2065 2065 2065 2065 2065 2065 2078 2078 2078 2078 1696 1696 1696 1696 1696 1696 1688 1688 1696 1594 1594 1601 1601 1601 1609 1609 1609 1616 1616 1616 1624 1624 1624 1624 2090 2090 2090 2090 2090 2090 2090 2090 2090 2090 2090 2090 2090 2103 2103 2090 1823 1823 1833 1833 1843 1853 1853 1853 1863 1863 1863 2078 2078 2078 2078 2078 2065 2053 2040 2040 2040 2040 2040 2040 2040 2040 2053 2053 2065 2078 2078 2090 2090 2090 2090 2090 2090 2090 2090 2078 2078 2078 2078 2078 2090 2090 2090 2090 2090 2090 2090 2090 2090 2090 2090 2090 2090 2090 2090 2090 1557 1557 1550 1550 1557 1557 1557 1564 1564 1564 1564 1572 1572 1572 1572 1579 1579 2103 2103 2103 2103 2103 2103 2103 2103 2090 2090 2090 2103 2103 2103 2116 2116 2116 2116 2116 1833 1833 1833 1833 1833 1843 1843 1843 1853 1863 1863 1863 1883 1894 1926 1970 1970 1981 1993 1993 1993 1464 1464 1458 1458 1458 1458 1458 1458 1458 1464 1464 1464 1470 1470 1477 1483 1483 1483 0 1804 1813 1813 1813 1823 1833 1843 1843 1853 1853 1863 1873 1883 1883 1883 2078 2090 2090 2090 2103 2103 2103 2103 2103 2103 2103 2090 2090 2090 2090 2090 2090 2090 2090 2078 2078 2090 2078 2078 2065 2028 2005 1993 1993 1981 1981 1981 1981 1993 1993 2005 2005 2028 2040 2053 2053 2053 2053 2053 1421 1421 1415 1410 1410 1415 1415 1415 1421 1421 1427 1427 1427 1433 1433 1427 1421 1421 1415 1415 1415 1415 1415 1410 1410 1410 1410 1415 1410 1410 1404 1398 1392 1392 1392 1392 1392 1392 1392 1392 1392 1392 1392 1392 1392 1392 1392 1785 1785 1794 1804 1804 1804 1804 1804 1804 1804 1804 1804 1804 1813 1823 2090 2090 2090 2090 2090 2090 2090 2090 2090 2090 2090 2090 2090 2090 2090 2090 2090 2078 2078 2090 1904 1904 1904 1904 1904 1904 1904 1904 1904 1904 1904 2090 2090 2090 2090 2090 2090 2090 2090 2078 2078 2078 2078 2078 2078 2090 2090 2090 2090 2078 2078 2078 2078 2078 2078 2078 2078 2078 2090 2090 2090 2090 2103 2103 1464 1464 1464 1464 1464 1464 1464 1464 1464 1464 1464 1464 1464 1464 1458 1458 1458 1458 1458 1464 1464 2028 2028 2040 2040 2040 2053 2053 2065 2065 2065 2065 2065 2065 2065 2065 2065 2053 2053 2065 2065 2053 2053 2053 2053 2053 2065 2065 2065 2065 2065 2065 2065 2053 2053 2053 2053 2053 2053 2065 2053 2053 2053 2065 2065 2053 2053 2053 2065 2053 2053 2053 2053 2053 2053 2040 2040 2040 2053 2053 2065 2065 2065 2065 2065 2065 2065 2065 2053 2053 2053 2053 2040 2040 2053 2053 2053 2053 2065 2053 2053 2053 2053 2053 2053 2053 2053 2040 2028 2028 2028 2028 2028 2028 2028 2028 2028 2028 2028 2028 2028 2028 2028 2028 2028 2028 2016 2016 2028 2028 2016 2016 2016 2016 2016 2016 2016 2016 2016 2016 2016 2028 2028 2028 2028 2016 2016 2016 2016 2016 2016 2016 2016 2016 0 0 0 0 0 0 0 0
0 0 0 0 0 0 0 0 0 0 0 0 0 0 0 0 0 0 0 0 0 0 0 0 0 0 0 0 0 0 0 0 0 0 2065 2065 2065 2065 2065 2053 2053 2053 2053 2053 2065 2065 2065 2065 2065 2065 2065 2065 2065 2065 2053 2053 2053 2065 2065 2065 2065 2065 2065 2065 2078 2065 2065 2078 2065 2065 2053 2053 2053 2053 2053 2053 2053 2053 2053 2053 2053 2065 2065 2065 2065 2065 2065 2065 2065 2078 2065 2065 2065 2065 2065 2053 2053 2053 2053 2053 2053 2053 2053 2065 2078 2078 2065 2053 2053 2053 2053 2053 2053 2065 2078 2078 2078 2078 1713 1713 1696 1696 1696 1688 1688 1688 1601 1601 1601 1609 1609 1609 1609 1609 1616 1616 1616 1624 1624 1632 1632 1639 2090 2090 2078 2078 2090 2090 2090 2090 2090 2090 2090 2090 2090 2090 2090 1823 1823 1823 1833 1833 1843 1843 1853 1853 1863 1863 2078 2078 2078 2078 2065 2065 2053 2040 2040 2040 2040 2040 2040 2040 2040 2053 2053 2065 2078 2078 2078 2078 2078 2090 2090 2090 2090 2090 2078 2078 2078 2078 2078 2078 2090 2090 2090 2090 2090 2090 2090 2090 2090 2090 2090 2090 2090 2090 2090 1557 1557 1557 1557 1557 1557 1564 1564 1564 1572 1572 1572 1572 1572 1579 1579 1579 2103 2103 2090 2090 2090 2090 2103 2103 2090 2090 2090 2090 2090 2103 2116 2116 2116 2116 2116 1833 1823 1823 1833 1833 1833 1833 1843 1853 1853 1863 1863 1883 1904 1936 1981 1981 1981 1993 1993 1993 1458 1458 1458 1458 1458 1458 1458 1458 1458 1464 1464 1464 1470 1477 1483 1483 1489 1489 0 1804 1804 1804 1813 1813 1823 1833 1843 1853 1853 1863 1873 1883 1883 1873 1873 2078 2078 2078 2078 2078 2078 2078 2078 2078 2078 2090 2090 2090 2090 2078 2078 2078 2078 2065 2065 2078 2078 2065 2053 2028 2005 1993 1993 1993 1993 1981 1981 1981 1981 2005 2005 2040 2053 2053 2053 2053 2053 2053 2065 2065 1415 1410 1410 1415 1415 1415 1421 1421 1427 1433 1433 1439 1439 1433 1427 1427 1421 1415 1415 1415 1410 1410 1410 1410 1410 1415 1410 1410 1404 1404 1398 1392 1392 1392 1392 1392 1392 1392 1392 1392 1392 1392 1392 1392 1392 1785 1785 1794 1804 1804 1804 1804 1804 1813 1804 1804 1804 1804 1813 1823 2090 2090 2090 2090 2078 2078 2078 2078 2078 2078 2078 2078 2078 2078 2078 2078 2078 2078 2078 2090 1915 1915 1915 1904 1904 1904 1904 1904 1904 1904 1904 2078 2078 2078 2078 2078 2090 2078 2065 2065 2065 2065 2078 2078 2078 2078 2078 2078 2078 2065 2065 2078 2065 2065 2065 2065 2065 2078 2078 2078 2090 2090 2103 2103 1458 1458 1464 1464 1464 1464 1464 1464 1464 1464 1464 1464 1464 1464 1458 1458 1458 1458 1458 1464 1464 2028 2028 2040 2040 2040 2040 2053 2053 2053 2053 2053 2053 2053 2053 2053 2053 2040 2040 2053 2053 2053 2040 2040 2040 2040 2053 2053 2053 2053 2053 2053 2053 2053 2053 2040 2040 2053 2053 2053 2053 2053 2053 2053 2053 2053 2053 2053 2053 2053 2053 2053 2040 2040 2040 2040 2040 2040 2040 2040 2040 2053 2053 2053 2053 2053 2053 2053 2053 2053 2040 2040 2040 2040 2040 2040 2040 2040 2053 2053 2053 2053 2053 2053 2053 2053 2040 2028 2028 2028 2028 2028 2028 2028 2028 2028 2028 2028 2028 2028 2028 2016 2016 2016 2016 2016 2016 2016 2016 2016 2016 2016 2005 2005 2016 2016 2016 2016 2016 2016 2016 2016 2016 2016 2016 2016 2016 2016 2016 2016 2016 2016 2016 2016 0 0 0 0 0 0 0 0
0 0 0 0 0 0 0 0 0 0 0 0 0 0 0 0 0 0 0 0 0 0 0 0 0 0 0 0 0 0 0 0 0 0 2053 2053 2065 2065 2065 2053 2053 2053 2053 2053 2065 2065 2065 2065 2065 2065 2065 2065 2053 2053 2053 2053 2053 2065 2065 2065 2065 2065 2065 2065 2065 2065 2065 2065 2065 2065 2053 2053 2053 2053 2053 2053 2053 2053 2053 2053 2053 2053 2053 2053 2053 2053 2053 2053 2053 2065 2053 2053 2053 2053 2053 2053 2053 2053 2053 2053 2053 2053 2053 2065 2065 2065 2053 2053 2053 2053 2053 2053 2053 2053 2065 2053 2053 2053 1705 1705 1696 1696 1696 1688 1688 1688 1594 1594 1594 1609 1609 1609 1609 1616 1616 1616 1616 1624 1624 1632 1632 1632 2078 2078 2078 2078 2078 2078 2078 2078 2078 2078 2090 2090 2090 1833 1833 1823 1823 1823 1833 1833 1843 1843 1853 1853 1853 2090 2078 2078 2078 2078 2065 2065 2053 2040 2040 2040 2040 2040 2040 2040 2040 2053 2065 2065 2078 2078 2078 2078 2078 2090 2090 2090 2090 2090 2090 2078 2078 2078 2078 2078 2090 2090 2090 2090 2090 2090 2090 2090 2090 2078 2078 2078 2078 2090 2090 1557 1557 1557 1557 1557 1557 1564 1564 1564 1564 1572 1572 1572 1579 1579 1579 1579 2103 2090 2090 2090 2090 2090 2090 2090 2078 2078 2090 2090 2090 2103 2116 2116 2116 2116 2116 1823 1823 1823 1823 1833 1833 1833 1843 1843 1853 1853 1853 2040 1993 1981 1981 1993 1993 1993 1993 1993 1458 1458 1458 1458 1458 1458 1458 1458 1458 1464 1464 1470 1477 1477 1483 1483 1489 1489 0 1794 1794 1794 1804 1813 1813 1823 1833 1843 1853 1863 1883 1883 1883 1873 1873 2078 2078 2078 2078 2078 2078 2078 2078 2078 2078 2078 2078 2078 2078 2078 2078 2078 2078 2065 2065 2065 2065 2065 2053 2028 2016 2005 2005 1993 1993 1981 1981 1981 1981 2005 2016 2040 2053 2065 2065 2065 2065 2065 2065 2065 2065 2065 2065 2065 2065 2065 2065 2065 2065 2065 2065 2065 2065 2065 2065 2065 2053 1415 1410 1410 1410 1410 1410 1410 1410 1410 1410 1410 1404 1404 1398 1392 1392 1392 1392 1392 1392 1392 1392 1392 1392 1392 1398 1398 1398 1794 1794 1794 1794 1804 1804 1804 1804 1804 1813 1804 1804 1804 1813 1823 2078 2078 2078 2078 2078 2065 2065 2065 2065 2065 2078 2065 2065 2078 2078 2078 2065 2065 2078 2078 1915 1915 1915 1915 1904 1904 1904 1904 1904 1904 1904 2065 2065 2065 2065 2065 2078 2065 2053 2053 2053 2053 2053 2053 2053 2065 2065 2065 2065 2053 2053 2053 2053 2053 2053 2053 2053 2053 2053 2065 2065 2078 2078 1458 1458 1458 1464 1464 1464 1464 1464 1464 1464 1470 1470 1464 1464 1464 1464 1458 1458 1458 1458 1464 2040 2028 2028 2028 2028 2028 2040 2040 2040 2040 2040 2040 2040 2040 2040 2040 2040 2040 2040 2040 2040 2040 2040 2040 2040 2040 2040 2053 2053 2053 2053 2053 2053 2040 2040 2040 2040 2040 2040 2053 2053 2053 2053 2053 2053 2053 2053 2053 2053 2040 2040 2040 2040 2040 2040 2040 2040 2040 2040 2040 2040 2040 2040 2040 2040 2040 2053 2053 2040 2040 2040 2040 2040 2040 2040 2040 2040 2040 2053 2053 2053 2040 2040 2040 2040 2040 2040 2028 2028 2028 2028 2028 2028 2028 2028 2028 2016 2016 2016 2016 2016 2016 2016 2016 2016 2016 2016 2016 2016 2016 2016 2016 2005 2005 2005 2005 2005 2005 2005 2016 2016 2016 2016 2016 2016 2016 2005 2005 2016 2016 2016 2016 2005 2005 0 0 0 0 0 0 0 0
0 0 0 0 0 0 0 0 0 0 0 0 0 0 0 0 0 0 0 0 0 0 0 0 0 0 0 0 0 0 0 0 0 0 2053 2053 2053 2053 2053 2053 2053 2053 2053 2053 2065 2065 2065 2065 2065 2065 2065 2065 2053 2053 2053 2053 2053 2053 2065 2065 2053 2053 2053 2053 2065 2053 2053 2053 2053 2053 2040 2040 2040 2040 2040 2053 2040 2040 2040 2040 2040 2040 2040 2040 2040 2053 2053 2053 2053 2053 2053 2053 2053 2053 2053 2053 2053 2040 2040 2040 2053 2053 2053 2053 2053 2053 2053 2053 2053 2053 2053 2053 2053 2053 2065 2053 2053 2053 1705 1705 1696 1696 1696 1688 1688 1688 1586 1586 1594 1601 1601 1609 1609 1616 1616 1616 1616 1624 1624 1632 1632 1632 2078 2065 2065 2065 2078 2065 2065 2065 2078 2078 2078 2078 1823 1823 1823 1813 1813 1823 1823 1833 1833 1833 1843 1853 1853 2078 2078 2078 2078 2078 2065 2065 2053 2040 2040 2040 2040 2040 2040 2040 2053 2053 2065 2065 2078 2078 2078 2078 2078 2078 2078 2078 2078 2078 2078 2078 2078 2078 2078 2078 2078 2078 2090 2090 2078 2078 2090 2090 2078 2078 2078 2078 2078 2090 2090 2090 1557 1557 1557 1557 1564 1564 1564 1564 1564 1572 1572 1572 1579 1579 1586 1586 2103 2090 2078 2078 2090 2090 2090 2090 2078 2078 2078 2078 2090 2103 2103 2103 2116 2116 1813 1813 1813 1813 1823 1833 1833 1833 1843 1843 1843 1843 1853 2053 2028 2005 2005 2005 2005 2005 2005 1458 1458 1458 1464 1464 1458 1458 1458 1464 1464 1464 1470 1470 1477 1483 1483 1483 1489 1489 1785 1794 1794 1794 1794 1804 1813 1823 1823 1843 1863 1873 1883 1883 1894 1894 2078 2078 2078 2078 2078 2078 2078 2078 2078 2078 2078 2078 2078 2078 2078 2078 2078 2078 2078 2065 2065 2065 2065 2053 2040 2028 2016 2005 2005 1993 1993 1981 1981 1993 1993 2005 2016 2040 2053 2065 2065 2065 2065 2065 2065 2065 2065 2065 2065 2065 2065 2065 2065 2065 2065 2065 2065 2065 2065 2065 2065 2065 2053 2053 1410 1410 2028 1410 1410 1410 1410 1410 1410 1410 1404 1404 1398 1398 1398 1398 1392 1392 1392 1392 1392 1392 1392 1392 1398 1398 1398 1766 1766 1785 1794 1804 1804 1804 1804 1804 1804 1804 1804 1804 1823 1823 2078 2078 2078 2078 2065 2065 2065 2053 2053 2065 2065 2065 2065 2065 2065 2065 2065 2053 2053 1926 1915 1915 1915 1915 1915 1915 1915 1904 1904 1904 2053 2053 2053 2053 2065 2065 2065 2053 2053 2053 2053 2053 2053 2053 2053 2053 2053 2053 2053 2053 2053 2053 2053 2053 2040 2040 2053 2053 2053 2053 2053 2065 2065 1458 1458 1458 1464 1464 1464 1464 1464 1464 1464 1470 1470 1470 1464 1464 1464 1458 1458 1458 1458 1464 2028 1483 1483 2028 2028 2028 2028 2028 2040 2040 2040 2040 2040 2040 2040 2040 2040 2040 2040 2040 2040 2040 2040 2040 2040 2040 2040 2040 2040 2040 2040 2040 2040 2040 2040 2040 2040 2040 2040 2040 2040 2040 2040 2040 2040 2040 2040 2040 2040 2040 2040 2040 2040 2040 2040 2040 2040 2040 2028 2028 2028 2028 2028 2028 2028 2040 2040 2040 2040 2040 2040 2040 2040 2040 2040 2040 2040 2040 2040 2040 2040 2040 2040 2040 2040 2040 2040 2016 2016 2016 2016 2016 2016 2016 2016 2016 2005 2005 2005 2005 2005 2005 2005 2005 2016 2016 2016 2016 2016 2016 2005 2005 1993 1993 2005 2005 2005 2005 2005 2005 2005 2005 2005 2005 2005 2005 2005 2005 2005 2005 2005 2005 1993 1993 0 0 0 0 0 0 0 0
0 0 0 0 0 0 0 0 0 0 0 0 0 0 0 0 0 0 0 0 0 0 0 0 0 0 0 0 0 0 0 0 0 0 2053 2053 2053 2053 2053 2053 2053 2040 2040 2053 2053 2053 2053 2053 2053 2053 2053 2053 2040 2040 2040 2040 2040 2053 2053 2053 2053 2053 2053 2053 2053 2053 2053 2053 2053 2053 2040 2040 2040 2040 2040 2040 2040 2028 2028 2028 2028 2040 2040 2040 2040 2040 2040 2040 2040 2040 2040 2040 2040 2053 2053 2040 2040 2040 2040 2040 2040 2040 2040 2053 2053 2053 2053 2040 2040 2040 2040 2040 2040 2040 2040 2040 2040 2040 1713 1705 1705 1696 1696 1696 1696 1696 1586 1586 1594 1601 1601 1609 1609 1616 1616 1616 1624 1624 1624 1632 1632 1632 1639 2065 2065 2065 2065 2065 2065 2065 2065 2065 2078 1813 1813 1813 1813 1813 1813 1813 1823 1833 1833 1833 1843 1853 1853 2078 2078 2065 2065 2065 2065 2065 2053 2040 2040 2040 2040 2040 2040 2040 2040 2053 2053 2065 2065 2065 2078 2065 2065 2078 2078 2078 2078 2078 2078 2078 2078 2078 2078 2078 2078 2078 2078 2078 2078 2078 2090 2090 2078 2078 2078 2078 2078 2078 2078 2078 1557 1557 1557 1564 1564 1564 1564 1564 1564 1572 1572 1572 1579 1579 1586 1586 2090 2090 2078 2078 2078 2078 2078 2090 2065 2065 2078 2078 2078 2078 2103 2103 2103 2116 1804 1804 1813 1813 1813 1823 1823 1833 1833 1843 1843 1843 2065 2040 2028 2016 2016 2005 2005 2005 2005 1464 1464 1464 1464 1464 1464 1464 1464 1464 1464 1464 1470 1470 1477 1483 1483 1483 1489 1489 1785 1785 1785 1794 1794 1794 1813 1813 1823 1843 1863 1873 1883 1883 1894 1894 2078 2065 2065 2078 2078 2078 2078 2078 2078 2078 2078 2065 2065 2065 2078 2078 2078 2078 2078 2065 2065 2065 2065 2053 2040 2028 2016 2005 2005 1993 1993 1981 1981 1993 1993 2005 2016 2040 2053 2065 2065 2065 2065 2065 2053 2053 2065 2065 2065 2065 2065 2065 2065 2065 2065 2065 2065 2065 2065 2065 2065 2065 2053 2053 2053 2053 2028 2028 1410 1410 2040 2040 1410 1410 1404 1392 1392 1398 1398 1398 1398 1398 1398 1398 1392 1392 1392 1398 1398 1415 1415 1766 1766 1776 1785 1794 1794 1804 1804 1804 1804 1804 1804 1804 2078 2065 2065 2065 2065 2065 2053 2053 2053 2053 2053 2053 2053 2053 2053 2053 2053 2053 2065 2053 2053 1926 1915 1915 1915 1915 1915 1915 1915 1904 1904 1904 2040 2053 2053 2053 2053 2053 2053 2053 2040 2040 2040 2040 2040 2040 2040 2040 2040 2040 2040 2053 2040 2040 2040 2040 2040 2040 2040 2040 2040 2040 2040 2040 2040 1458 1458 1458 1464 1464 1464 1464 1464 1464 1464 1470 1470 1470 1464 1464 1464 1464 1464 1464 1464 1464 1470 1477 1483 1483 2016 2016 2016 2028 2028 2028 2040 2040 2040 2040 2040 2040 2040 2040 2040 2040 2040 2040 2028 2028 2028 2028 2040 2040 2040 2040 2040 2040 2040 2028 2028 2028 2028 2040 2040 2040 2040 2040 2040 2040 2040 2040 2040 2040 2040 2040 2040 2040 2040 2040 2040 2028 2028 2028 2028 2028 2028 2028 2028 2028 2028 2028 2040 2040 2040 2040 2040 2040 2028 2028 2028 2028 2028 2028 2028 2028 2040 2040 2028 2028 2028 2028 2028 2016 2016 2016 2016 2016 2016 2016 2016 2005 2005 2005 2005 1993 1993 1993 1993 2005 2005 2005 2005 2005 2005 2005 2005 1993 1993 1993 1993 1993 1993 1993 2005 2005 1993 1993 1993 1993 1993 1993 1993 1993 1993 1993 1993 1993 1981 1981 0 0 0 0 0 0 0 0
0 0 0 0 0 0 0 0 0 0 0 0 0 0 0 0 0 0 0 0 0 0 0 0 0 0 0 0 0 0 0 0 0 0 2040 2040 2040 2040 2040 2053 2053 2040 2040 2040 2053 2053 2053 2040 2040 2053 2053 2053 2040 2040 2040 2040 2040 2053 2053 2053 2040 2040 2040 2040 2040 2040 2028 2028 2040 2040 2028 2028 2028 2028 2028 2028 2028 2016 2016 2016 2016 2028 2028 2028 2016 2016 2028 2028 2028 2028 2028 2028 2028 2028 2028 2028 2028 2028 2028 2028 2028 2040 2040 2040 2040 2040 2040 2040 2040 2028 2028 2040 2040 2040 2040 2040 2040 2040 1705 1705 1705 1705 1696 1696 1688 1688 1601 1594 1594 1601 1601 1609 1609 1616 1616 1616 1624 1624 1624 1632 1632 1632 1639 2053 2053 2053 2053 2053 2053 2053 2053 2053 1813 1804 1804 1813 1813 1813 1813 1813 1823 1823 1833 1833 1843 2090 2078 2065 2065 2065 2065 2065 2065 2053 2040 2040 2040 2040 2040 2040 2040 2040 2040 2053 2053 2053 2065 2065 2065 2053 2053 2065 2065 2065 2065 2065 2078 2078 2078 2078 2078 2078 2078 2078 2078 2078 2078 2078 2078 2078 2078 2078 2078 2078 2078 2078 2078 2078 1564 1564 1564 1564 1564 1572 1564 1564 1572 1572 1572 1579 1579 1579 1586 1586 2078 2078 2065 2065 2078 2078 2078 2078 2065 2065 2065 2065 2078 2078 2090 2103 1794 1794 1794 1804 1804 1813 1813 1823 1823 1833 1833 1833 1833 2065 2053 2040 2028 2016 2005 2005 2005 2005 1464 1464 1464 1464 1464 1464 1464 1464 1464 1464 1464 1464 1470 1470 1477 1483 1483 1483 1489 1489 1785 1785 1785 1794 1794 1794 1804 1813 1823 1833 1853 1873 1883 1883 1894 1894 2065 2065 2065 2065 2065 2065 2065 2065 2065 2065 2065 2065 2065 2065 2065 2065 2065 2065 2065 2053 2053 2053 2053 2053 2040 2028 2028 2005 2005 2005 1993 1993 1993 1993 2005 2005 2016 2028 2053 2053 2065 2053 2053 2053 2053 2053 2053 2053 2053 2053 2065 2065 2065 2065 2065 2065 2053 2053 2053 2065 2065 2065 2053 2053 2053 2053 2040 2040 2040 2040 2040 2040 2040 1398 1398 1392 1392 1398 1398 1404 1398 1398 1398 1398 1398 1398 1398 1404 1410 1410 1766 1766 1766 1776 1785 1794 1794 1804 1804 1804 1804 1804 1804 1804 1823 2053 2053 2053 2053 2053 2053 2053 2053 2053 2053 2053 2053 2053 2053 2053 2053 2053 2053 2053 2053 1926 1915 1915 1915 1915 1915 1915 1915 1915 1915 1915 2040 2040 2053 2053 2053 2053 2053 2040 2040 2040 2040 2040 2040 2040 2040 2040 2040 2040 2040 2040 2040 2040 2040 2040 2040 2040 2040 2040 2040 2040 2040 2040 2040 1464 1464 1464 1470 1470 1470 1470 1470 1470 1470 1470 1470 1470 1470 1470 1470 1464 1464 1464 1464 1464 1470 1470 1483 1483 2016 2016 2016 2016 2016 2028 2028 2028 2028 2028 2028 2028 2028 2028 2028 2028 2016 2016 2016 2016 2016 2028 2028 2028 2028 2028 2028 2028 2028 2028 2028 2028 2028 2028 2028 2028 2028 2028 2028 2028 2028 2028 2028 2028 2028 2028 2028 2028 2028 2028 2028 2028 2028 2028 2028 2028 2028 2028 2028 2028 2028 2028 2028 2028 2028 2028 2028 2028 2028 2028 2028 2028 2016 2016 2028 2028 2028 2028 2028 2016 2016 2016 2016 2005 2005 2005 2005 2005 2005 2005 2005 1993 1993 1993 1993 1993 1993 1993 1993 1993 2005 2005 2005 1993 1993 1993 1993 1993 1993 1993 1993 1993 1993 1993 1993 1993 1993 1981 1981 1981 1981 1981 1981 1981 1993 1993 1981 1981 1970 1970 0 0 0 0 0 0 0 0
0 0 0 0 0 0 0 0 0 0 0 0 0 0 0 0 0 0 0 0 0 0 0 0 0 0 0 0 0 0 0 0 0 0 2028 2028 2028 2028 2028 2040 2040 2028 2028 2040 2040 2040 2040 2040 2040 2040 2040 2040 2040 2040 2028 2028 2028 2028 2028 2040 2028 2028 2028 2028 2040 2040 2028 2028 2028 2040 2028 2016 2016 2016 2016 2016 2016 2016 2016 2016 2016 2016 2016 2016 2016 2016 2016 2016 2016 2016 2028 2016 2016 2016 2016 2016 2016 2016 2016 2028 2028 2028 2028 2040 2040 2040 2040 2040 2028 2028 2028 2040 2040 2040 2040 2040 2040 2040 1705 1696 1696 1696 1696 1696 1688 1680 1601 1594 1594 1601 1601 1609 1609 1616 1616 1616 1624 1624 1624 1632 1632 1632 1639 2053 2053 2053 2053 2053 2053 2053 2053 1804 1804 1804 1794 1794 1804 1804 1804 1813 1813 1823 1823 1833 1843 2040 2040 2053 2053 2053 2053 2053 2053 2053 2040 2040 2028 2028 2040 2040 2040 2040 2040 2040 2053 2053 2053 2065 2053 2053 2053 2053 2053 2053 2053 2065 2065 2065 2065 2078 2078 2078 2078 2078 2078 2078 2078 2078 2078 2078 2065 2065 2065 2078 2078 2078 2078 1572 1564 1564 1564 1564 1572 1572 1572 1572 1572 1572 1579 1579 1579 1586 1586 1586 2078 2078 2065 2065 2065 2065 2065 2065 2053 2053 2065 2065 2065 2065 2078 2103 1794 1794 1794 1794 1804 1804 1813 1823 1823 1823 1833 1833 1833 2053 2040 2028 2028 2016 2005 1993 1993 1993 1470 1470 1464 1464 1464 1464 1464 1464 1464 1464 1464 1464 1470 1470 1477 1483 1483 1483 1489 1489 1785 1785 1785 1785 1785 1794 1804 1813 1813 1833 1853 1873 1883 1894 1894 1894 2065 2065 2065 2065 2065 2065 2065 2065 2065 2065 2053 2053 2053 2053 2065 2065 2065 2065 2065 2053 2040 2040 2040 2028 2028 2016 2016 2016 2005 2005 2005 1993 1993 1993 2005 2005 2016 2016 2040 2053 2053 2053 2053 2053 2053 2053 2053 2053 2053 2053 2065 2065 2065 2053 2053 2053 2053 2053 2053 2053 2053 2053 2053 2053 2053 2053 2053 2053 2040 2040 2040 2040 2040 1392 1392 1392 1392 1398 1398 1404 1404 1398 1398 1398 1404 1404 1404 1410 1415 1415 1415 1766 1766 1766 1776 1785 1794 1794 1804 1804 1804 1804 1804 1804 1813 2040 2040 2040 2040 2040 2040 2040 2040 2040 2040 2040 2040 2040 2040 2053 2053 2053 2053 2053 2040 2040 1915 1915 1915 1915 1915 1915 1915 1915 1915 1915 1915 2040 2040 2040 2040 2040 2040 2040 2040 2040 2040 2028 2028 2028 2028 2028 2028 2028 2028 2040 2040 2040 2028 2028 2028 2028 2028 2028 2028 2028 2028 2028 2028 1470 1464 1464 1470 1470 1470 1470 1470 1470 1470 1470 1470 1470 1470 1470 1470 1464 1464 1464 1464 1470 1470 1470 2016 2005 2005 2005 2005 2005 2005 2005 2005 2016 2016 2016 2016 2016 2016 2016 2016 2016 2016 2016 2016 2016 2016 2016 2016 2016 2016 2016 2016 2016 2005 2005 2005 2005 2005 2016 2016 2028 2028 2028 2028 2028 2028 2028 2028 2028 2028 2028 2028 2028 2028 2028 2028 2028 2028 2028 2028 2028 2016 2016 2016 2016 2016 2028 2028 2028 2028 2028 2028 2028 2016 2016 2016 2016 2016 2016 2005 2005 2016 2016 2016 2016 2016 2016 2016 2005 2005 2005 1993 1993 1993 1993 1993 1993 1993 1981 1981 1981 1981 1981 1993 1993 1993 1993 1993 1993 1993 1981 1981 1981 1981 1981 1981 1981 1981 1981 1981 1981 1981 1981 1981 1981 1981 1981 1981 1981 1981 1981 1981 1981 1970 1970 0 0 0 0 0 0 0 0
0 0 0 0 0 0 0 0 0 0 0 0 0 0 0 0 0 0 0 0 0 0 0 0 0 0 0 0 0 0 0 0 0 0 2028 2028 2028 2028 2028 2040 2028 2028 2028 2028 2028 2028 2028 2028 2028 2028 2028 2028 2028 2028 2016 2016 2016 2016 2016 2028 2016 2016 2028 2028 2028 2028 2028 2016 2016 2028 2016 2016 2016 2016 2016 2016 2005 2005 2005 2005 2005 2005 2005 2005 2005 2005 2016 2005 2005 2016 2016 2016 2016 2005 2005 2005 2005 2005 2005 2016 2028 2028 2028 2028 2040 2040 2040 2040 2028 2028 2040 2040 2040 2028 2028 2028 2040 2040 2040 1688 1688 1696 1696 1696 1688 1680 1680 1594 1594 1601 1609 1609 1609 1616 1616 1616 1624 1624 1624 1632 1632 1632 1639 1639 2040 2040 2040 2040 2040 2053 2053 1794 1794 1794 1794 1794 1794 1804 1804 1804 1813 1813 1823 1833 2028 2028 2040 2040 2040 2040 2040 2040 2040 2040 2040 2040 2028 2028 2028 2028 2028 2028 2028 2028 2028 2028 2040 2040 2040 2040 2040 2040 2040 2040 2040 2040 2040 2053 2053 2053 2053 2053 2065 2065 2065 2065 2065 2065 2065 2065 2065 2053 2053 2065 2078 2078 2078 1572 1572 1572 1572 1572 1572 1572 1572 1572 1572 1572 1579 1579 1586 1586 1586 1594 2065 2065 2053 2053 2053 2053 2053 2053 2053 2053 2053 2053 2065 2065 1785 1785 1785 1785 1785 1794 1794 1804 1813 1813 1823 1823 1823 1823 1823 2040 2040 2028 2028 2016 2005 1993 1993 1993 1464 1464 1464 1464 1464 1464 1464 1464 1464 1464 1464 1464 1470 1470 1477 1483 1483 1483 1489 1489 1794 1794 1785 1785 1785 1794 1804 1813 1813 1833 1853 1883 1883 1894 1894 1904 1915 2053 2053 2065 2065 2065 2065 2053 2053 2053 2040 2040 2040 2053 2053 2053 2065 2065 2065 2053 2040 2040 2040 2028 2028 2016 2016 2016 2016 2005 2005 2005 2005 2005 2005 2005 2016 2016 2040 2053 2053 2053 2053 2053 2053 2053 2053 2040 2040 2040 2053 2053 2053 2053 2053 2053 2053 2053 2053 2053 2053 2053 2053 2053 2053 2053 2053 2053 2040 2040 2040 2040 2040 1392 1392 1392 1392 1398 1398 1398 1398 1398 1398 1398 1404 1404 1410 1415 1421 1421 1757 1766 1766 1766 1766 1776 1785 1794 1794 1804 1804 1813 1813 1813 1813 2040 2040 2040 2040 2040 2040 2040 2040 2040 2040 2040 2040 2040 2040 2040 2040 2040 2040 2053 2040 2028 1926 1915 1915 1915 1915 1915 1915 1915 1915 1915 1915 2028 2028 2040 2040 2040 2028 2028 2028 2028 2028 2016 2016 2016 2016 2028 2028 2028 2028 2028 2028 2028 2028 2028 2016 2016 2028 2028 2028 2028 2028 2028 2028 1470 1470 1470 1470 1470 1470 1470 1470 1470 1470 1477 1470 1470 1470 1470 1470 1464 1464 1464 1464 1470 1470 2016 2005 2005 1993 1993 1993 1993 1993 2005 2005 2005 2005 2005 2005 2016 2005 2005 2005 2005 2005 2005 2016 2016 2016 2016 2016 2005 2005 2016 2005 2005 2005 2005 2005 2005 2005 2005 2005 2016 2016 2016 2016 2016 2016 2016 2016 2016 2016 2016 2016 2016 2016 2028 2028 2028 2028 2028 2016 2016 2005 2005 2005 2005 2005 2016 2016 2016 2028 2028 2016 2016 2016 2016 2016 2005 2005 2005 2005 2005 2005 2005 2005 2005 2005 2005 2005 1993 1993 1993 1981 1981 1981 1981 1981 1981 1981 1981 1981 1981 1981 1981 1981 1981 1981 1981 1981 1981 1981 1981 1981 1981 1981 1981 1981 1981 1981 1981 1981 1981 1981 1970 1970 1981 1981 1981 1981 1981 1981 1981 1981 1970 1970 1970 0 0 0 0 0 0 0 0
0 0 0 0 0 0 0 0 0 0 0 0 0 0 0 0 0 0 0 0 0 0 0 0 0 0 0 0 0 0 0 0 0 0 2016 2016 2016 2016 2016 2016 2016 2016 2016 2016 2028 2016 2016 2016 2016 2016 2028 2016 2016 2028 2016 2016 2016 2016 2016 2016 2016 2016 2016 2016 2016 2016 2016 2016 2016 2016 2005 2005 2005 2005 2005 2005 2005 2005 2005 2005 2005 2005 2005 2005 2005 2005 2005 2005 2005 2005 2005 2005 2005 2005 2005 2005 2005 2005 2005 2016 2016 2028 2028 2028 2028 2028 2028 2016 2016 2016 2028 2028 2028 2028 2028 2028 2028 2040 1688 1688 1688 1696 1696 1696 1696 1705 1705 1601 1601 1601 1609 1609 1616 1616 1616 1616 1624 1624 1624 1624 1624 1632 1632 1639 2028 2028 2028 2028 2040 2040 1785 1785 1785 1794 1794 1794 1794 1794 1794 1794 1804 1804 1823 2040 2028 2028 2028 2028 2028 2028 2040 2040 2040 2040 2040 2028 2028 2028 2028 2028 2028 2016 2016 2016 2028 2028 2028 2028 2028 2028 2028 2040 2040 2028 2028 2040 2040 2040 2040 2040 2053 2053 2053 2053 2053 2053 2053 2053 2053 2053 2040 2040 2040 2040 2053 2065 2065 1572 1572 1572 1572 1572 1572 1572 1572 1572 1572 1579 1579 1579 1586 1586 1586 1594 2040 2040 2053 2053 2053 2053 2053 2053 2040 2040 2040 2053 2065 1776 1776 1776 1785 1785 1785 1785 1794 1804 1813 1813 1813 1823 1813 1813 1823 2040 2040 2028 2028 2016 2016 2016 2016 2016 1464 1464 1464 1464 1464 1464 1464 1464 1464 1464 1464 1470 1470 1470 1477 1483 1483 1489 1489 1489 1794 1794 1785 1785 1785 1785 1804 1804 1804 1833 1853 1883 1883 1894 1904 1904 1915 2016 2016 2053 2065 2065 2053 2053 2053 2040 2040 2040 2040 2040 2040 2053 2053 2065 2053 2040 2040 2040 2040 2028 2016 2016 2016 2016 2016 2005 2005 2005 2005 2005 2005 2016 2016 2016 2040 2040 2053 2053 2053 2040 2040 2040 2040 2040 2040 2040 2040 2053 2053 2053 2053 2053 2053 2053 2053 2053 2053 2053 2053 2053 2040 2040 2040 2040 2040 2040 2040 2040 2040 2040 1392 1392 1392 1398 1398 1398 1398 1398 1398 1398 1404 1404 1410 1415 1421 1421 1757 1757 1757 1757 1766 1766 1785 1785 1794 1804 1804 1813 1813 1823 2040 2028 2028 2028 2028 2028 2040 2040 2040 2040 2040 2040 2040 2040 2040 2040 2040 2040 2028 2028 2005 1993 1915 1915 1915 1915 1915 1915 1915 1915 1915 1926 2016 2028 2028 2028 2028 2028 2028 2016 2016 2016 2016 2016 2016 2016 2016 2016 2016 2028 2028 2028 2016 2016 2016 2016 2005 2005 2016 2016 2016 2016 2016 2016 2016 1477 1477 1477 1477 1477 1470 1470 1477 1477 1477 1477 1477 1477 1470 1470 1470 1470 1470 1470 1470 1470 1470 1993 1993 1993 1993 1993 1993 1993 1993 1993 1993 1993 2005 1993 1993 2005 1993 1993 1993 2005 2005 2005 2005 2005 2005 2005 2005 2005 2005 2005 2005 1993 1993 1993 1993 2005 2005 2005 2005 2005 2005 2005 2005 2005 2005 2005 2005 2005 2005 2005 2005 2005 2005 2005 2005 2005 2005 2005 2005 1993 1993 1993 1993 1993 2005 2005 2005 2005 2016 2016 2005 2005 2005 2005 2005 2005 2005 1993 1993 1993 1993 1993 1993 1993 1993 1993 1993 1981 1981 1981 1981 1981 1981 1981 1981 1981 1981 1981 1981 1981 1981 1981 1981 1981 1981 1981 1981 1970 1970 1970 1970 1970 1970 1970 1970 1970 1970 1970 1970 1970 1970 1970 1970 1970 1970 1970 1970 1970 1970 1970 1970 1970 1970 1970 0 0 0 0 0 0 0 0
0 0 0 0 0 0 0 0 0 0 0 0 0 0 0 0 0 0 0 0 0 0 0 0 0 0 0 0 0 0 0 0 0 0 2016 2016 2005 2005 2005 2005 2005 2005 2005 2016 2016 2016 2016 2016 2016 2016 2016 2016 2016 2016 2016 2016 2016 2016 2016 2016 2005 2005 2005 2016 2005 2005 2016 2016 2016 2016 2005 2005 2005 2005 2005 2005 2005 1993 1993 2005 2005 2005 2005 2005 2005 2005 2005 2005 2005 2005 2005 2005 2005 2005 2005 2005 2005 2005 2005 2016 2016 2016 2016 2016 2016 2016 2016 2016 2016 2016 2016 2016 2028 2016 2016 2016 2005 2005 1688 1688 1688 1696 1696 1705 1705 1713 1713 1601 1601 1601 1609 1616 1616 1616 1616 1616 1624 1624 1624 1624 1624 1632 1632 1639 2016 2016 2016 2016 2040 1766 1766 1776 1785 1794 1785 1785 1794 1794 1794 1794 1794 1794 1993 1993 2005 2016 2016 2016 2028 2028 2028 2028 2028 2028 2028 2028 2028 2028 2028 2028 2028 2016 2016 2016 2016 2016 2016 2028 2016 2016 2028 2028 2028 2028 2028 2028 2040 2040 2040 2040 2040 2040 2040 2040 2053 2053 2040 2040 2040 2040 2040 2040 2040 2040 2040 2040 2040 1572 1572 1572 1572 1572 1572 1572 1572 1572 1572 1579 1579 1579 1586 1586 1586 1594 2040 2040 2040 2040 2040 2040 2040 2040 2028 2028 2028 2028 1776 1776 1776 1776 1776 1776 1785 1785 1785 1794 1804 1804 1813 1813 1813 1813 2028 2028 2028 2016 2016 2016 2005 1993 1993 1993 1464 1464 1464 1464 1464 1464 1464 1464 1464 1464 1464 1470 1470 1470 1477 1483 1483 1489 1489 1489 1785 1785 1785 1776 1776 1785 1794 1804 1804 1853 1853 1883 1894 1894 1904 1915 1926 1959 2016 2028 2053 2053 2053 2040 2040 2040 2040 2040 2040 2040 2040 2040 2040 2053 2053 2040 2028 2028 2028 2028 2016 2016 2016 2016 2016 2005 2005 2005 2005 2005 2005 2016 2016 2016 2028 2040 2040 2040 2040 2040 2040 2040 2040 2040 2040 2028 2028 2040 2040 2040 2040 2040 2040 2040 2040 2040 2040 2040 2028 2028 2028 2028 2028 2028 2028 2028 2028 2028 2028 0 1398 1398 1398 1398 1398 1404 1398 1398 1398 1398 1404 1404 1410 1415 1421 1421 1757 1757 1757 1757 1766 1766 1776 1785 1794 1794 1804 1813 1813 1823 2028 2028 2028 2028 2028 2028 2028 2028 2028 2040 2040 2040 2040 2040 2028 2028 2028 2028 2016 2016 1993 1993 1915 1915 1926 1915 1915 1915 1915 1915 1926 1947 2005 2016 2028 2028 2028 2016 2016 2016 2016 2016 2016 2005 2005 2005 2005 2016 2016 2016 2016 2016 2016 2016 2005 2005 2005 2005 2005 2005 2005 2005 2005 2005 2005 1477 1477 1477 1477 1477 1477 1477 1477 1477 1477 1477 1477 1477 1477 1470 1470 1470 1470 1470 1470 1477 1993 1993 1981 1981 1993 1993 1993 1993 1993 1993 1993 1993 1993 1993 1993 1993 1993 1993 1993 1993 1993 1993 1993 1993 1993 1993 1993 1993 1993 1993 1993 1993 1993 1993 1993 1993 1993 1993 1993 1993 1993 1993 1993 1993 1993 1993 1993 1993 1993 1993 1993 1993 1993 1993 1993 1993 1993 1993 1993 1993 1993 1993 1993 1993 1993 1993 1993 1993 1993 1993 1993 1993 1993 1993 1993 1993 1993 1993 1993 1993 1993 1993 1993 1993 1993 1993 1981 1970 1970 1970 1970 1970 1970 1981 1981 1970 1970 1970 1970 1970 1970 1970 1970 1970 1970 1970 1970 1970 1970 1970 1970 1970 1970 1970 1970 1959 1959 1959 1959 1959 1959 1970 1970 1970 1970 1970 1970 1970 1959 1959 1959 1959 1959 1959 0 0 0 0 0 0 0 0
0 0 0 0 0 0 0 0 0 0 0 0 0 0 0 0 0 0 0 0 0 0 0 0 0 0 0 0 0 0 0 0 0 0 2005 2005 2005 2005 2005 2005 2005 2005 2005 2005 2005 2005 2005 2005 2005 2005 2016 2005 2005 2005 2005 2005 2005 2005 2005 2005 2005 2005 2005 2005 2005 2005 2005 2005 2005 2005 1993 1993 1993 2005 2005 1993 1993 1993 1993 1993 1993 2005 2005 1993 1993 2005 2005 1993 1993 1993 1993 1993 1993 2005 2005 2005 2005 2005 2005 2005 2016 2016 2005 2005 2005 2005 2005 2005 2005 2005 2016 2005 2005 2005 2005 2005 2005 2005 2005 1688 1688 1696 1696 1705 1705 1713 1722 1601 1601 1609 1609 1616 1616 1616 1616 1624 1624 1624 1624 1624 1632 1632 1639 1639 2005 2005 2005 2005 2016 1757 1757 1776 1785 1785 1785 1785 1794 1794 1794 1794 1794 1794 1993 1993 2005 2005 2016 2016 2016 2016 2028 2016 2016 2028 2028 2016 2016 2016 2016 2016 2028 2016 2016 2016 2016 2016 2016 2016 2016 2016 2028 2028 2028 2028 2028 2028 2028 2040 2040 2040 2040 2040 2040 2040 2040 2040 2040 2040 2040 2040 2040 2040 2040 2040 2040 2040 2040 1572 1564 1564 1572 1572 1572 1579 1579 1579 1579 1579 1579 1586 1586 1586 1586 1586 2028 2028 2028 2028 2040 2040 2040 2040 2028 2028 2028 2028 1776 1776 1776 1776 1776 1776 1785 1785 1785 1794 1804 1804 1813 1813 1813 2028 2028 2016 2016 2016 2016 2016 2005 1993 1993 1993 1993 1470 1464 1464 1464 1464 1464 1464 1464 1464 1464 1470 1470 1470 1477 1483 1483 1489 1489 1785 1776 1776 1776 1776 1776 1776 1785 1794 1804 1873 1873 1883 1894 1904 1915 1926 1936 1959 2016 2028 2028 2028 2040 2040 2040 2040 2028 2028 2028 2028 2028 2040 2040 2040 2040 2028 2028 2028 2028 2028 2016 2016 2016 2016 2016 2005 2005 2005 2005 2005 2005 2005 2005 2016 2028 2028 2040 2040 2028 2028 2028 2028 2028 2028 2028 2028 2028 2040 2040 2040 2028 2028 2040 2040 2040 2028 2028 2016 2016 2028 2028 2028 2028 2016 2016 2016 2016 2028 2028 0 1404 1398 1398 1404 1404 1404 1404 1404 1404 1404 1404 1404 1410 1415 1427 1427 1757 1757 1757 1757 1757 1766 1776 1785 1794 1794 1804 1813 1823 1833 2028 2016 2016 2016 2016 2016 2016 2016 2016 2028 2028 2028 2028 2028 2016 2016 2016 2016 2016 2005 1993 1993 1926 1926 1926 1915 1915 1915 1915 1926 1926 1947 1981 2005 2016 2016 2016 2016 2005 2005 2005 2005 2005 2005 2005 2005 2005 2005 2005 2005 2005 2016 2005 2005 2005 2005 2005 2005 2005 2005 2005 2005 2005 2005 2005 1489 1483 1483 1483 1477 1477 1477 1477 1477 1477 1477 1477 1477 1477 1477 1470 1470 1470 1470 1470 1439 1439 1981 1981 1981 1981 1981 1981 1981 1981 1993 1993 1993 1993 1993 1993 1993 1993 1993 1993 1993 1993 1993 1993 1993 1993 1993 1993 1993 1993 1993 1993 1993 1993 1993 1993 1993 1993 1993 1993 1993 1993 1993 1981 1981 1981 1981 1993 1993 1993 1993 1993 1993 1993 1993 1993 1993 1993 1993 1993 1993 1993 1993 1993 1993 1993 1981 1981 1981 1981 1981 1981 1981 1981 1993 1993 1993 1993 1993 1993 1993 1993 1981 1981 1981 1981 1981 1981 1970 1970 1970 1970 1970 1970 1970 1970 1970 1970 1970 1970 1970 1970 1970 1970 1970 1970 1970 1959 1959 1959 1959 1959 1959 1959 1959 1959 1947 1947 1959 1959 1959 1959 1959 1959 1959 1970 1970 1970 1959 1959 1959 1959 1959 1959 1959 0 0 0 0 0 0 0 0
0 0 0 0 0 0 0 0 0 0 0 0 0 0 0 0 0 0 0 0 0 0 0 0 0 0 0 0 0 0 0 0 0 0 2005 2005 1993 1993 1993 1993 2005 2005 2005 2005 2005 2005 2005 2005 2005 2005 2005 2005 2005 2005 1993 1993 2005 2005 2005 2005 2005 2005 2005 2005 1993 1993 2005 2005 2005 2005 1993 1993 1993 1993 1993 1993 1993 1993 1993 1981 1981 1993 1993 1993 1993 1993 1993 1993 1993 1993 1993 1993 1993 1993 1993 2005 2005 2005 2005 2005 2005 2005 2005 2005 2005 2005 2005 2005 2005 2005 2005 2005 2005 2005 2005 2005 1993 1993 2005 2005 1696 1696 1705 1713 1713 1713 1722 1601 1601 1609 1609 1616 1616 1616 1616 1624 1624 1624 1624 1624 1632 1632 1639 1647 2005 2005 2005 2005 1748 1748 1757 1766 1776 1785 1785 1785 1794 1794 1794 1794 1794 1981 1993 1993 1993 2005 2005 2005 2005 2005 2016 2016 2016 2016 2016 2005 2005 2005 2005 2016 2016 2005 2005 2005 2005 2005 2005 2016 2016 2016 2016 2028 2028 2028 2028 2028 2028 2028 2028 2028 2028 2028 2028 2028 2028 2028 2028 2028 2028 2028 2028 2040 2040 2040 2040 2040 2040 1557 1557 1564 1572 1579 1579 1579 1579 1579 1579 1579 1579 1586 1586 1586 1586 1586 2028 2028 2028 2028 2040 2040 2040 2040 2028 2028 2028 1776 1776 1776 1776 1776 1776 1776 1776 1776 1785 1785 1804 1804 1813 1813 1813 2016 2016 2016 2016 2016 2016 2005 2005 1993 1993 1993 1993 1464 1464 1464 1464 1464 1464 1464 1464 1464 1464 1470 1470 1470 1477 1483 1483 1489 1496 1776 1776 1776 1776 1776 1776 1776 1776 1776 1804 1873 1873 1883 1894 1904 1915 1926 1936 1993 2005 2016 2016 2016 2016 2016 2028 2028 2016 2016 2016 2028 2028 2028 2028 2028 2028 2028 2028 2028 2028 2016 2016 2016 2016 2016 2016 2005 2005 2005 2005 2005 2005 2005 2005 2016 2016 2028 2028 2028 2028 2016 2016 2016 2016 2016 2016 2016 2016 2016 2028 2028 2016 2016 2028 2028 2028 2016 2016 2016 2016 2016 2016 2016 2016 2016 2016 2016 2016 2016 2016 1404 1404 1404 1404 1404 1404 1404 1404 1404 1404 1404 1404 1410 1410 1415 1427 1427 1748 1757 1757 1757 1757 1757 1766 1776 1794 1804 1804 1813 1823 1833 2016 2005 2005 2016 2005 2005 2016 2016 2016 2016 2016 2016 2016 2016 2016 2005 2005 2016 2005 2005 1993 1993 1926 1926 1915 1915 1915 1915 1915 1926 1926 1947 1959 1981 2005 2005 2005 2005 2005 2005 2005 2005 2005 2005 2005 2005 2005 2005 2005 2005 2005 2005 2005 2005 2005 2005 1993 1993 2005 2005 1993 1993 1993 1993 2005 1489 1483 1483 1483 1477 1477 1477 1477 1477 1477 1477 1477 1477 1477 1477 1470 1470 1470 1470 1470 1439 1439 1981 1981 1981 1981 1981 1981 1981 1981 1981 1981 1981 1981 1981 1981 1981 1981 1981 1981 1981 1981 1981 1981 1981 1981 1981 1981 1981 1981 1981 1981 1981 1981 1981 1981 1981 1981 1981 1981 1981 1981 1981 1981 1981 1981 1981 1981 1981 1981 1981 1981 1981 1981 1981 1981 1981 1981 1981 1981 1981 1981 1981 1981 1981 1981 1981 1981 1981 1981 1981 1981 1981 1981 1981 1993 1993 1981 1981 1981 1981 1981 1981 1981 1981 1981 1970 1970 1959 1959 1970 1970 1970 1970 1970 1970 1970 1959 1959 1970 1970 1959 1959 1959 1959 1970 1959 1959 1959 1959 1959 1959 1959 1959 1959 1959 1947 1947 1959 1947 1947 1959 1959 1959 1959 1959 1959 1959 1947 1947 1947 1947 1947 1947 1959 0 0 0 0 0 0 0 0
0 0 0 0 0 0 0 0 0 0 0 0 0 0 0 0 0 0 0 0 0 0 0 0 0 0 0 0 0 0 0 0 0 0 1993 1993 1993 1993 1993 1993 1993 2005 2005 2005 2005 2005 2005 2005 2005 2005 1993 1993 1993 1993 1993 1993 2005 1993 1993 1993 1981 1981 1993 1993 1993 1993 1993 1993 1993 1993 1981 1981 1981 1981 1981 1981 1981 1993 1993 1981 1981 1993 1993 1993 1993 1993 1993 1981 1981 1993 1993 1993 1993 1993 1993 2005 2005 2005 2005 2005 2005 2005 2005 2005 2005 2005 2005 2005 1993 1993 2005 1993 1993 1993 1993 1993 1993 1993 1993 1993 1688 1688 1705 1713 1713 1713 1713 1713 1609 1609 1609 1616 1616 1616 1616 1616 1624 1624 1624 1632 1632 1632 1639 1647 1647 2005 2005 1731 1731 1739 1748 1766 1776 1776 1785 1785 1794 1794 1794 1794 1981 1993 1993 1993 1993 1993 2005 2005 2005 2005 2005 2005 2005 2005 2005 2005 2005 2005 2005 2005 2005 2005 2005 2005 2005 2005 2005 2005 2005 2005 2016 2016 2016 2016 2016 2016 2028 2028 2028 2028 2028 2028 2028 2016 2016 2016 2016 2028 2016 2016 2028 2028 2028 2028 2028 2028 1557 1557 1557 1564 1572 1579 1579 1579 1579 1579 1579 1579 1579 1586 1586 1586 1594 1601 2028 2028 2028 2028 2028 2028 2028 2040 2028 2028 2028 1766 1766 1766 1766 1766 1776 1776 1776 1776 1785 1785 1804 1804 1813 1813 2016 2016 2016 2016 2016 2005 2005 2005 2005 2016 1993 1993 1993 1464 1464 1464 1470 1470 1470 1470 1470 1470 1470 1470 1477 1477 1483 1489 1489 1496 1496 1776 1766 1766 1776 1776 1776 1776 1776 1776 1776 1883 1883 1894 1894 1904 1926 1936 1947 1981 2005 2005 2016 2016 2016 2016 2016 2016 2016 2016 2016 2005 2005 2005 2005 2016 2016 2016 2016 2016 2005 2005 2005 2005 2005 2005 2005 2005 2005 2005 2005 2005 2005 2005 2005 2005 2016 2016 2016 2016 2016 2016 2016 2016 2016 2016 2016 2016 2016 2016 2028 2028 2016 2016 2028 2016 2016 2016 2016 2016 2016 2016 2016 2016 2016 2016 2005 2005 2005 2005 0 1410 1410 1404 1404 1404 1404 1404 1404 1404 1404 1404 1410 1410 1410 1410 1421 1421 1748 1748 1748 1757 1757 1757 1766 1776 1794 1804 1813 1823 1833 1833 2016 2005 2005 2005 2005 2005 2005 2005 2005 2016 2005 2005 2016 2005 2005 2005 2005 2005 2005 1993 1981 1981 1926 1926 1915 1915 1915 1915 1915 1926 1926 1947 1959 1981 1993 2005 2005 2005 2005 1993 1993 2005 2005 2005 2005 2005 2005 2005 2005 2005 2005 2005 2005 2005 2005 2005 1993 1993 1993 1993 1993 1993 1993 1993 2005 2005 1483 1483 1483 1483 1477 1477 1477 1477 1477 1477 1477 1477 1477 1477 1477 1470 1470 1470 1445 1439 1439 1970 1970 1981 1981 1981 1981 1981 1981 1981 1981 1981 1981 1981 1981 1981 1981 1981 1981 1981 1981 1981 1981 1981 1981 1981 1981 1981 1981 1981 1981 1981 1981 1981 1981 1981 1981 1981 1981 1981 1981 1981 1981 1981 1981 1981 1981 1981 1981 1981 1981 1981 1981 1981 1981 1981 1981 1981 1981 1981 1981 1981 1981 1981 1981 1981 1970 1970 1970 1970 1970 1970 1970 1981 1981 1981 1981 1981 1981 1981 1981 1970 1970 1970 1970 1959 1959 1947 1947 1959 1959 1959 1959 1959 1959 1959 1959 1959 1959 1959 1959 1959 1959 1959 1959 1947 1947 1947 1947 1947 1947 1947 1947 1947 1947 1947 1947 1947 1947 1947 1947 1947 1947 1947 1947 1947 1947 1947 1947 1947 1947 1947 1947 1947 0 0 0 0 0 0 0 0
