0 0 0 0 0 0 0 0 0 0 0 0 0 0 0 0 0 0 0 0 0 0 0 0 0 0 0 0 0 0 0 0 0 2522 2522 2541 2541 2541 2541 2560 2560 2579 2579 2579 2579 2598 2598 2618 2618 2618 2618 2618 2618 2618 2618 2639 2639 2639 2639 2639 2639 2659 2659 2659 2659 2680 2680 2680 2701 2680 2680 2680 2701 2701 2701 2701 2701 2701 2701 2701 2723 2723 2744 2744 2744 2744 2767 2767 2767 2767 2767 2767 2767 2767 3208 3208 3208 3208 3208 0 0 0 0 0 0 2933 2933 2933 2908 2908 2908 2933 2933 2933 2933 2958 2958 2958 2958 2958 2984 2984 2984 2984 2984 2984 2984 3010 3010 3010 3010 3037 3037 3064 3064 3064 3064 3064 3064 3064 3092 3092 3092 3092 3092 3120 3120 3149 3149 3178 3178 3178 3178 3178 3178 3178 3178 3178 3208 3238 3238 3269 3269 3269 3300 3300 3333 3333 3365 3365 3365 3365 3365 3365 3399 3399 3399 3399 3399 3399 3399 3399 3399 3433 3433 3433 3433 3433 3468 3468 3468 3503 3539 3539 3539 3539 3539 3539 3539 3539 3539 3539 3576 3576 3576 3576 3614 3653 3653 3653 3692 3692 3692 3692 3692 3732 3732 3732 3774 3816 3816 3816 3859 0 0 0 0 0 0 0 5374 5374 5374 5374 5374 5374 5374 5374 5374 5374 5374 5548 5640 5640 5640 5640 5640 5640 5640 5734 5734 5734 5734 5734 5734 5734 5734 5734 5832 5832 5832 5832 5933 5933 5933 5933 5933 5933 5933 5933 5933 5933 5832 5832 5933 5933 0 0 0 0 0 6146 6146 6146 6146 6146 6146 6146 6146 6146 6038 6038 6146 6259 6259 6259 6259 6375 6375 6375 6375 6375 4983 4983 4983 4983 4983 4983 4983 5056 5056 5056 5056 5132 5291 6038 6259 6259 6259 6259 6259 6146 6146 6146 6146 6038 5933 5210 5210 5210 5210 5210 5210 5210 5210 5210 5210 5210 5210 5210 5210 5210 5210 5291 5291 5374 5291 5291 5291 5291 5374 5374 5374 5460 5460 5548 5548 5548 2256 2256 2256 2256 2271 2271 2271 5832 5832 5832 5832 5832 5832 5832 5933 5933 5933 5933 5933 5933 5933 6146 6146 6259 6259 6259 6259 6259 6375 6375 6375 7492 7492 7332 7332 7332 7332 7332 7332 7332 7332 7332 7332 7332 7332 7332 7332 7178 7178 7030 6889 6889 6889 6889 6889 6889 7030 7030 7030 3269 3269 3269 3300 3300 3300 3269 3269 3269 3238 3238 3238 3238 3238 3208 3208 3208 3208 3208 3208 3208 3208 3208 3178 3178 3178 3178 3178 3178 3178 3178 3178 3178 3178 3178 3149 3149 3149 3149 3149 3149 3149 3149 3120 3120 3120 3120 3120 3120 3092 3092 3092 3092 3092 3092 3092 3092 3092 3092 3092 3092 3092 3092 3092 3092 3064 3064 3064 3064 3064 3064 3064 3037 3037 3037 3037 3037 3037 3037 3037 3010 3010 3010 3010 3010 2984 2984 2984 2984 2984 2984 2984 2984 2984 2984 2984 2958 2958 2958 2958 2958 2958 2958 2958 2958 2958 2958 2958 2958 2984 2984 2984 3010 3010 3010 3010 3037 3064 3092 3149 3178 3178 3208 3238 3269 3300 3300 3365 3365 3399 4139 4089 4089 4089 4041 4041 4041 4041 4041 4041 4041 4041 4041 4041 4041 4041 4041 4041 3994 3994 3994 3994 3948 3948 3948 3948 3948 3994 3994 4041 4041 4041 4041 4089 5548 5548 5548 5548 5548 5548 5548 5548 5548 5548 5548 5548 5548 5548 5460 5460 5460 5460 5460 5460 5460 5374 5374 5374 5374 5374 5374 5374 5374 5374 5460 5460 5460 5460 5460 5548 5548 5734 5832 5933 5832 5832 5832 5734 5734 5734 0 0 0 0 0 0 0 0 0 0 0 0 0
0 0 0 0 0 0 0 0 0 0 0 0 0 0 0 0 0 0 0 0 0 0 0 0 0 0 0 0 0 0 0 0 0 2541 2541 2541 2541 2541 2541 2560 2560 2560 2560 2560 2579 2598 2598 2598 2618 2618 2618 2618 2618 2618 2618 2639 2639 2639 2639 2639 2639 2659 2659 2659 2659 2680 2680 2701 2701 2701 2701 2701 2701 2701 2701 2701 2701 2701 2723 2723 2723 2744 2744 2744 2744 2767 2767 2767 2767 2767 2767 2767 2789 2789 3208 3208 3208 3208 3208 0 0 0 0 0 0 2908 2908 2933 2908 2908 2908 2933 2933 2933 2933 2933 2958 2958 2958 2958 2958 2984 2984 2984 2984 2984 2984 3010 3010 3010 3010 3037 3064 3064 3064 3064 3064 3064 3064 3064 3092 3092 3092 3092 3092 3120 3120 3149 3149 3178 3178 3178 3178 3208 3178 3178 3178 3178 3208 3238 3269 3269 3269 3269 3300 3300 3333 3333 3365 3365 3365 3365 3399 3399 3399 3399 3399 3399 3399 3399 3433 3433 3433 3433 3433 3433 3433 3468 3468 3468 3468 3503 3539 3539 3539 3539 3539 3539 3539 3539 3539 3576 3576 3576 3576 3614 3614 3653 3653 3653 3692 3692 3692 3692 3692 3732 3732 3774 3774 3816 3816 3816 3816 0 0 0 0 0 0 0 5374 5374 5374 5374 5374 5374 5374 5460 5374 5374 5460 5548 5640 5640 5640 5640 5640 5640 5640 5734 5734 5734 5734 5734 5734 5734 5734 5734 5832 5832 5832 5832 5933 5933 5933 5933 5933 5933 5933 5933 5933 5832 5734 5734 5832 0 0 0 0 0 0 0 5832 5832 5832 6038 6038 6038 6038 5933 5933 5933 5933 6038 6038 6038 6146 6259 6259 6259 6259 6375 4983 4983 4983 4983 4983 4983 4983 5056 5056 5056 5056 5210 5291 6038 6146 6146 6146 6146 6146 6146 6146 6038 6038 6038 5933 5210 5210 5210 5210 5210 5210 5210 5210 5210 5210 5210 5210 5210 5210 5210 5210 5291 5291 5374 5291 5291 5291 5291 5374 5460 5460 5460 5460 5548 5548 2212 2212 2256 2256 2256 2271 2271 2271 5832 5832 5832 5832 5832 5832 5832 5832 5933 5933 5933 5933 5933 5933 6038 6038 6146 6146 6259 6259 6259 6375 6375 6375 7332 7332 7332 7332 7332 7332 7332 7332 7332 7332 7332 7332 7332 7332 7332 7332 7332 7332 7178 7030 7030 6889 6889 6889 6889 6889 6889 7030 3300 3300 3300 3300 3300 3300 3300 3269 3269 3269 3269 3238 3238 3238 3208 3208 3208 3208 3208 3208 3208 3208 3208 3208 3208 3178 3178 3178 3178 3178 3178 3178 3178 3178 3178 3149 3149 3149 3149 3149 3149 3149 3149 3149 3149 3120 3120 3120 3120 3120 3120 3092 3092 3092 3092 3092 3092 3092 3092 3092 3092 3092 3092 3092 3092 3092 3092 3064 3064 3064 3064 3064 3064 3037 3037 3037 3037 3037 3037 3037 3010 3010 3010 3010 3010 2984 2984 2984 2984 2984 2984 2984 2984 2984 2984 2984 2958 2958 2958 2958 2958 2958 2958 2958 2958 2958 2958 2958 2958 2984 3010 3010 3010 3010 3037 3037 3037 3064 3092 3149 3178 3178 3208 3238 3269 3300 3300 3365 3399 3399 4139 4089 4089 4089 4041 4041 4041 4089 4089 4041 4041 4041 4041 4041 4041 4041 4041 4041 3994 3994 3994 3994 3948 3948 3948 3948 3948 3994 3994 4041 4041 4041 4041 4089 5548 5548 5640 5640 5548 5548 5548 5548 5548 5548 5548 5548 5548 5548 5460 5460 5460 5460 5460 5460 5460 5374 5374 5374 5374 5374 5374 5374 5374 5374 5460 5460 5460 5460 5460 5548 5548 5734 5832 5933 5832 5832 5734 5734 5640 5640 0 0 0 0 0 0 0 0 0 0 0 0 0
0 0 0 0 0 0 0 0 0 0 0 0 0 0 0 0 0 0 0 0 0 0 0 0 0 0 0 0 0 0 0 0 0 2541 2541 2541 2541 2541 2541 2560 2560 2560 2560 2560 2579 2598 2598 2598 2618 2618 2618 2618 2618 2618 2639 2639 2639 2639 2639 2639 2659 2659 2659 2659 2659 2659 2680 2680 2701 2701 2701 2701 2701 2701 2701 2701 2701 2701 2723 2723 2723 2744 2744 2744 2744 2767 2767 2767 2767 2767 2789 2789 2789 2789 0 0 0 0 0 0 0 0 0 0 0 2908 2908 2933 2933 2933 2933 2933 2933 2933 2933 2933 2958 2958 2958 2958 2958 2984 2984 2984 2984 2984 2984 3010 3010 3010 3037 3037 3064 3064 3064 3064 3064 3064 3064 3064 3092 3092 3092 3092 3092 3120 3149 3149 3178 3178 3178 3178 3178 3208 3178 3178 3178 3208 3208 3238 3269 3269 3269 3269 3300 3300 3333 3333 3365 3365 3365 3365 3399 3399 3399 3399 3399 3399 3399 3399 3433 3433 3433 3433 3433 3433 3433 3468 3468 3468 3503 3503 3539 3539 3539 3539 3539 3539 3539 3539 3576 3576 3576 3576 3614 3614 3614 3653 3653 3692 3692 3692 3692 3692 3692 3732 3732 3774 3774 3816 3816 3816 3816 0 0 0 0 0 0 0 5374 5374 5374 5374 5374 5374 5374 5460 5460 5460 5460 5548 5640 5640 5640 5640 5640 5734 5734 5734 5734 5734 5734 5734 5734 5734 5734 5734 5832 5832 5832 5832 5832 5933 5933 5933 5933 5933 5933 5933 5933 5832 5734 5734 5734 0 0 0 5548 5548 5640 5640 5640 5734 5734 5832 5832 5832 5832 5832 5832 5832 5832 5832 5832 5832 5933 6038 6038 6259 6259 6259 4983 4983 4983 4983 4983 4983 5056 5056 5056 5056 5132 5210 5374 5640 6146 6146 6146 6146 6146 6146 6146 6038 6038 6038 5832 5291 5210 5210 5210 5210 5210 5210 5210 5210 5210 5210 5210 5210 5210 5210 5291 5291 5291 5374 5291 5291 5374 5374 5374 5460 5460 5460 5460 2271 2212 2212 2212 2256 2256 2256 2271 2271 2271 2271 2256 2256 5832 5832 5832 5832 5832 5933 5933 5933 5933 5933 5933 6038 6038 6146 6146 6259 6259 6259 6259 6259 0 2226 2226 7332 7332 7332 7332 7178 7178 2226 2226 2241 7332 7332 7332 7332 7332 7332 7332 7178 7030 7030 6889 6889 6753 6753 6889 6889 3300 3300 3300 3300 3300 3300 3300 3300 3269 3269 3269 3269 3238 3238 3238 3208 3208 3208 3208 3208 3208 3208 3208 3208 3208 3208 3208 3178 3178 3178 3178 3178 3178 3178 3178 3178 3178 3149 3149 3149 3149 3149 3149 3149 3149 3149 3120 3120 3120 3120 3120 3120 3092 3092 3092 3092 3092 3092 3092 3092 3092 3092 3092 3092 3092 3092 3092 3092 3064 3064 3064 3064 3064 3037 3037 3064 3064 3037 3037 3037 3037 3010 2984 2984 3010 3010 3010 2984 2984 2984 2984 2984 2984 2984 2984 2984 2984 2958 2958 2958 2958 2958 2958 2958 2958 2958 2958 2958 2958 2958 2984 3010 3010 3010 3037 3037 3037 3064 3064 3149 3149 3178 3208 3238 3238 3269 3300 3333 3365 3399 3433 3433 4089 4089 4089 4089 4089 4089 4089 4089 4089 4041 4041 4041 4041 4041 4041 4041 4041 4041 3994 3994 3994 3994 3994 3948 3948 3994 3994 3994 4041 4041 4041 4041 4089 5640 5640 5640 5548 5548 5548 5548 5548 5548 5548 5548 5548 5548 5548 5460 5460 5460 5460 5460 5460 5460 5374 5374 5374 5460 5460 5460 5460 5460 5460 5460 5460 5460 5548 5548 5548 5640 5640 5734 5832 5734 5734 5734 5734 5640 5640 0 0 0 0 0 0 0 0 0 0 0 0 0
0 0 0 0 0 0 0 0 0 0 0 0 0 0 0 0 0 0 0 0 0 0 0 0 0 0 0 0 0 0 0 0 0 2541 2541 2541 2560 2560 2560 2560 2560 2579 2579 2579 2579 2598 2598 2598 2618 2618 2618 2618 2618 2618 2639 2639 2639 2639 2639 2639 2659 2659 2659 2659 2659 2659 2680 2680 2701 2701 2701 2701 2701 2701 2701 2701 2701 2701 2723 2723 2723 2744 2744 2744 2744 2767 2767 2767 2767 2767 2789 2789 2789 2789 2789 0 0 0 0 0 0 0 0 0 0 2908 2908 2908 2933 2933 2933 2933 2933 2933 2958 2958 2958 2958 2958 2958 2958 2984 2984 2984 2984 2984 2984 3010 3010 3010 3037 3037 3064 3064 3064 3064 3064 3064 3064 3064 3092 3092 3092 3092 3120 3120 3149 3178 3178 3178 3178 3178 3208 3208 3178 3178 3178 3208 3208 3238 3269 3269 3269 3269 3300 3300 3333 3333 3365 3365 3365 3365 3399 3399 3399 3399 3399 3399 3399 3399 3433 3433 3433 3433 3433 3433 3433 3468 3468 3503 3503 3503 3539 3539 3539 3539 3539 3539 3539 3539 3576 3576 3576 3576 3576 3614 3614 3653 3653 3653 3692 3692 3692 3692 3692 3732 3732 3732 3774 3816 3732 3732 3774 0 0 0 0 0 0 0 5374 5374 5374 5374 5374 5374 5374 5460 5460 5460 5460 5548 5640 5640 5640 5640 5640 5640 5640 5640 5640 5640 5640 5640 5640 5640 5640 5734 5832 5832 5832 5832 5832 5832 5832 5832 5832 5832 5832 5832 5832 5734 5640 5640 5640 5640 5548 5548 5548 5548 5640 5640 5640 5640 5640 5734 5734 5734 5832 5734 5734 5734 5832 5734 5734 5832 5832 5832 5832 5933 6146 6259 4983 4983 4983 4983 4983 4983 5056 5056 5056 5132 5132 5291 5374 5548 5933 6038 6038 6038 6146 6146 6146 6038 5933 5933 5832 5291 5210 5210 5210 5210 5210 5210 5210 5210 5210 5210 5210 5210 5210 5210 5291 5291 5291 5374 5374 5374 5374 5374 5374 5460 5460 5460 5460 2271 2271 2256 2256 2256 2256 2256 2271 2271 2271 2256 2256 2256 2256 2256 5832 5832 2241 2241 2256 5933 5933 5933 5933 6038 6038 6146 2226 2226 2226 2226 6259 6259 2226 2226 2226 2212 2198 2198 2212 2226 2226 2226 2226 2226 7332 7332 7332 7332 7332 7178 7178 7178 7030 7030 6889 6889 6753 6753 6889 6889 3300 3300 3300 3300 3300 3300 3300 3300 3300 3269 3269 3269 3238 3238 3238 3208 3208 3208 3208 3208 3208 3208 3208 3208 3208 3208 3208 3208 3178 3178 3178 3178 3178 3178 3178 3178 3178 3178 3178 3178 3149 3149 3149 3149 3149 3149 3120 3120 3120 3120 3120 3120 3092 3092 3092 3092 3092 3092 3092 3092 3092 3092 3092 3092 3092 3092 3092 3092 3064 3064 3064 3064 3064 3037 3037 3064 3064 3064 3037 3037 3037 3010 2984 2984 3010 3010 3010 2984 2984 2984 2984 2984 2984 2984 2984 2984 2984 2958 2958 2958 2958 2958 2958 2958 2958 2958 2958 2958 2958 2984 2984 3010 3010 3010 3037 3037 3037 3064 3092 3149 3178 3178 3208 3238 3238 3300 3333 3333 3399 3399 3433 3433 3433 4089 4089 4089 4089 4089 4089 4089 4089 4041 4041 4041 4041 4041 4041 4041 4041 4041 3994 3994 3994 3994 3994 3948 3948 3994 3994 4041 4041 4041 4041 4089 4089 5640 5640 5548 5548 5548 5548 5548 5548 5548 5548 5548 5548 5548 5548 5460 5460 5460 5460 5460 5460 5460 5374 5374 5460 5460 5460 5460 5460 5460 5460 5548 5548 5548 5548 5548 5548 5640 5640 5640 5734 5734 5734 5734 5734 5734 5734 0 0 0 0 0 0 0 0 0 0 0 0 0
0 0 0 0 0 0 0 0 0 0 0 0 0 0 0 0 0 0 0 0 0 0 0 0 0 0 0 0 0 0 0 0 0 2541 2541 2560 2560 2560 2560 2560 2560 2579 2579 2579 2598 2598 2598 2618 2618 2618 2618 2618 2618 2639 2639 2639 2639 2639 2639 2659 2659 2659 2659 2680 2680 2680 2701 2701 2701 2701 2701 2701 2701 2701 2701 2701 2701 2701 2723 2723 2723 2744 2744 2744 2744 2767 2767 2767 2767 2767 2789 2789 2789 2789 2789 0 0 0 0 0 0 0 0 0 0 2908 2908 2908 2933 2933 2933 2933 2933 2958 2958 2958 2958 2958 2958 2958 2958 2984 2984 2984 2984 2984 2984 3010 3010 3010 3037 3037 3064 3064 3064 3064 3064 3064 3092 3092 3092 3092 3092 3120 3120 3120 3149 3178 3178 3178 3178 3178 3208 3208 3178 3178 3178 3208 3208 3238 3269 3269 3269 3300 3300 3300 3333 3333 3365 3365 3365 3399 3399 3399 3399 3399 3399 3399 3399 3399 3433 3433 3433 3433 3433 3433 3433 3468 3468 3503 3503 3503 3539 3539 3539 3539 3539 3539 3539 3576 3576 3576 3576 3576 3576 3614 3614 3653 3653 3653 3692 3692 3692 3692 3692 3732 3732 3732 3774 3816 3732 3732 3774 0 0 0 0 0 0 0 5374 5374 5374 5374 5374 5374 5374 5460 5460 5460 5460 5548 5548 5640 5640 5640 5640 5640 5640 5640 5640 5640 5640 5640 5640 5640 5640 5734 5734 5734 5734 5734 5734 5734 5734 5734 5734 5734 5734 5734 5734 5640 5640 5640 5548 5548 5548 5548 5548 5548 5548 5548 5548 5640 5640 5640 5640 5640 5640 5734 5734 5734 5734 5734 5734 5734 5734 5734 5734 5734 5734 5734 4983 4983 5056 4983 4983 4983 5056 5056 5056 5056 5132 5210 5291 5460 5640 5832 6038 6038 6146 6038 6038 5933 5933 5734 5640 5291 5291 5210 5210 5210 5210 5210 5210 5210 5210 5210 5210 5210 5210 5210 5291 5291 5291 5374 5374 5374 5374 5374 5374 5460 5460 5460 2286 2286 2271 2256 2256 2256 2256 2256 2271 2271 2271 2256 2256 2256 2256 2256 5933 2241 2241 2241 2256 2241 2241 2256 2256 2256 2241 2241 2226 2226 2226 2212 2212 2212 2226 2226 2212 2212 2198 2198 2212 2226 2212 2212 2226 2226 2226 2212 2212 7332 7332 7178 2212 2212 2226 2226 2226 7030 6889 6889 6889 6889 3300 3300 3300 3300 3300 3300 3300 3300 3300 3300 3300 3269 2103 2103 2103 3208 3208 3208 3208 3238 3208 3208 3208 3208 3208 3208 3208 3178 3178 3178 3178 3178 3178 3178 3178 3178 3178 3149 3149 3149 3149 3149 3149 3149 3149 3149 3149 3120 3120 3120 3120 3120 3092 3092 3092 3092 3092 3092 3092 3092 3092 3092 3092 3092 3092 3092 3092 3092 3064 3064 3064 3064 3064 3064 3064 3064 3064 3064 3064 3064 3037 3010 3010 3010 3010 3010 3010 2984 2984 2984 2984 2984 2984 2984 2984 2984 2984 2958 2958 2958 2958 2958 2958 2958 2958 2958 2958 2958 2958 2984 2984 3010 3010 3010 3037 3037 3064 3064 3092 3149 3178 3178 3208 3238 3269 3300 3333 3365 3399 3399 3433 3433 3433 4089 4089 4089 4089 4089 4089 4089 4089 4041 4041 4041 4041 4041 4041 4041 4041 4041 4041 4041 3994 3994 3994 3948 3948 3994 3994 4041 4041 4041 4041 4089 5640 5640 5640 5548 5548 5548 5548 5640 5548 5548 5548 5548 5548 5548 5548 5460 5460 5548 5548 5460 5460 5460 5460 5460 5460 5460 5460 5460 5460 5460 5460 5548 5548 5548 5548 5548 5548 5548 5640 5640 5640 5640 5640 5640 5640 5640 5640 0 0 0 0 0 0 0 0 0 0 0 0 0
0 0 0 0 0 0 0 0 0 0 0 0 0 0 0 0 0 0 0 0 0 0 0 0 0 0 0 0 0 0 0 0 0 2541 2541 2560 2560 2560 2560 2560 2560 2579 2579 2579 2598 2598 2598 2598 2618 2618 2618 2618 2618 2639 2639 2639 2639 2639 2659 2659 2659 2680 2680 2680 2680 2680 2701 2701 2701 2701 2701 2701 2701 2701 2701 2701 2701 2723 2723 2744 2744 2744 2744 2744 2767 2767 2767 2767 2767 2767 2789 2789 2789 2789 2789 0 0 0 0 0 0 0 0 0 0 2908 2908 2908 2933 2933 2933 2933 2933 2958 2958 2958 2958 2958 2958 2958 2984 2984 2984 2984 2984 2984 2984 3010 3010 3037 3037 3064 3064 3064 3064 3064 3064 3064 3092 3092 3092 3092 3092 3120 3120 3120 3149 3178 3178 3178 3178 3208 3208 3208 3178 3178 3208 3208 3238 3238 3269 3269 3269 3300 3300 3333 3333 3365 3365 3365 3399 3399 3399 3399 3399 3399 3399 3399 3399 3399 3433 3433 3433 3433 3433 3433 3433 3468 3468 3503 3503 3539 3539 3539 3539 3539 3539 3576 3576 3576 3576 3576 3614 3614 3614 3614 3614 3653 3653 3653 3692 3692 3692 3692 3732 3732 3732 3774 3816 3816 3774 3774 0 0 0 0 0 0 0 0 5374 5374 5374 5374 5374 5374 5374 5460 5460 5460 5460 5548 5548 5640 5640 5640 5640 5640 5640 5640 5640 5640 5640 5640 5640 5640 5640 5640 5640 5734 5640 5640 5640 5640 5640 5640 5640 5640 5640 5640 5734 5640 5640 5548 5548 5548 5548 5548 5548 5548 5548 5548 5548 5640 5640 5640 5640 5640 5640 5640 5640 5640 5640 5640 5640 5640 5640 5640 5640 5640 5548 5548 5056 5056 5056 4983 4983 4983 5056 5056 5056 5056 5132 5210 5291 5291 5374 5640 5832 5933 6038 6038 5933 5832 5832 5734 5548 5291 5291 5210 5210 5210 5210 5210 5210 5210 5210 5210 5210 5210 5210 5210 5291 5291 5291 5374 5374 5460 5460 5460 5460 5460 5640 5640 2286 2286 2271 2271 2271 2256 2256 2256 2271 2271 2271 2256 2256 2256 2256 2256 2256 2241 2241 2241 2241 2241 2241 2241 2241 2241 2241 2226 2226 2226 2212 2212 2212 2212 2226 2226 2212 2212 2212 2212 2212 2226 2212 2212 2212 2226 2226 2212 2212 2212 2212 2184 2184 2212 2212 2212 2212 2212 7030 6889 6889 6889 3269 3269 3269 3300 3300 3300 3300 3300 3300 3300 3300 2103 2103 2103 2103 2103 3178 3208 3208 3238 3208 3208 3208 3208 3208 3208 3208 3178 3178 3178 3178 3178 3178 3178 3178 3178 3178 3149 3149 3149 3149 3149 3149 3149 3149 3149 3149 3120 3120 3120 3120 3120 3092 3092 3092 3092 3092 3092 3092 3092 3092 3092 3092 3092 3092 3092 3092 3092 3064 3064 3064 3064 3064 3064 3064 3064 3064 3064 3037 3037 3037 3010 3010 3010 3010 3010 3010 2984 2984 2984 2984 2984 2984 2984 2984 2984 2984 2958 2958 2958 2958 2958 2958 2958 2958 2958 2958 2958 2958 2984 2984 3010 3010 3037 3037 3064 3064 3092 3149 3178 3178 3208 3238 3269 3269 3300 3300 3365 3399 3399 3433 3433 3433 4041 4089 4089 4089 4089 4089 4089 4089 4041 4041 4041 4041 4041 4041 4041 4041 4041 4041 4041 3994 3994 3994 3948 3948 3994 3994 4041 4041 4041 4089 4089 5640 5640 5640 5640 5548 5548 5548 5640 5548 5548 5548 5548 5548 5548 5548 5460 5460 5548 5548 5460 5460 5460 5460 5460 5460 5460 5460 5460 5460 5460 5460 5548 5548 5548 5548 5548 5548 5548 5548 5548 5548 5548 5640 5640 5640 5640 5640 0 0 0 0 0 0 0 0 0 0 0 0 0
0 0 0 0 0 0 0 0 0 0 0 0 0 0 0 0 0 0 0 0 0 0 0 0 0 0 0 0 0 0 0 0 0 2541 2541 2560 2560 2560 2560 2560 2560 2560 2579 2598 2598 2598 2598 2598 2618 2618 2618 2618 2618 2639 2639 2639 2639 2639 2639 2659 2680 2680 2680 2680 2680 2701 2701 2701 2701 2701 2701 2701 2701 2701 2701 2701 2701 2723 2723 2744 2744 2744 2767 2767 2767 2767 2767 2789 2789 2789 2789 2789 2789 2812 2812 0 0 0 0 0 0 0 0 0 2933 2933 2933 2933 2933 2933 2933 2933 2958 2958 2958 2958 2958 2958 2958 2958 2984 2984 2984 2984 2984 2984 2984 3010 3010 3037 3037 3064 3064 3064 3064 3064 3064 3064 3092 3092 3092 3092 3092 3120 3120 3149 3178 3178 3178 3178 3208 3208 3208 3208 3178 3178 3208 3208 3238 3238 3269 3269 3269 3300 3300 3333 3333 3365 3365 3365 3399 3399 3399 3399 3399 3399 3399 3399 3399 3399 3433 3433 3433 3433 3433 3433 3433 3468 3468 3503 3539 3539 3539 3539 3539 3539 3576 3576 3576 3576 3576 3576 3614 3614 3614 3614 3653 3653 3653 3653 3692 3692 3692 3732 3732 3732 3774 3774 3774 3816 3774 3774 3816 0 0 0 0 0 0 0 5374 5374 5374 5374 5374 5460 5460 5460 5460 5460 5460 5548 5548 5640 5640 5640 5640 5640 5640 5640 5640 5640 5640 5640 5640 5640 5640 5640 5640 5640 5640 5640 5640 5640 5640 5640 5640 5640 5640 5640 5640 5640 5548 5548 5548 5548 5548 5548 5548 5548 5548 5548 5548 5548 5548 5640 5640 5640 5640 5640 5640 5640 5640 5640 5640 5640 5640 5640 5548 5548 5548 5460 5374 5210 5056 5056 4983 4983 5056 5056 5056 5056 5132 5210 5291 5291 5374 5460 5460 5548 5640 5640 5548 5460 5460 5460 5374 5291 5210 5210 5210 5210 5210 5210 5210 5210 5210 5210 5210 5210 5210 5210 5291 5291 5291 5374 5374 5374 5460 5460 5460 5460 5640 5640 5640 2271 2271 2271 2256 2256 2256 2256 2271 2271 2271 2271 2271 2271 2271 2256 2241 2241 2241 2241 2241 2241 2241 2241 2241 2241 2241 2226 2226 2226 2212 2212 2212 2212 2226 2226 2226 2212 2212 2212 2212 2212 2212 2212 2212 2226 2212 2212 2212 2212 2212 2184 2184 2198 2198 2212 2212 2198 2198 2198 6889 3269 3269 3269 3269 3300 3300 3269 3269 3300 3333 3333 2103 2103 2103 2103 2103 2103 2103 2116 3208 3208 3208 3208 3208 3208 3208 3208 3208 3178 3178 3178 3178 3178 3178 3178 3178 3178 3178 3178 3178 3178 3149 3149 3178 3149 3149 3149 3149 3149 3120 3120 3120 3120 3092 3092 3092 3092 3092 3092 3092 3092 3092 3092 3092 3092 3092 3092 3092 3092 3064 3064 3064 3064 3064 3064 3064 3064 3064 3037 3037 3037 3037 3010 3010 3010 3010 3010 3010 3010 3010 3010 3010 2984 2984 2984 2984 2984 2984 2958 2958 2958 2958 2958 2958 2958 2958 2958 2958 2958 2958 2984 3010 3010 3037 3037 3064 3064 3092 3120 3149 3178 3208 3208 3238 3269 3269 3300 3300 3365 3399 3399 3433 3433 3433 4041 4041 4041 4041 4041 4089 4089 4089 4041 4041 4041 4041 4041 4041 4041 4041 4041 4041 4041 4041 4041 3994 3994 3994 3994 4041 4041 4041 4089 4089 4089 5640 5640 5640 5640 5640 5640 5640 5640 5548 5548 5548 5548 5548 5548 5548 5460 5460 5548 5548 5548 5548 5548 5460 5460 5460 5460 5460 5460 5460 5460 5460 5548 5548 5548 5548 5548 5548 5548 5548 5548 5548 5548 5640 5640 5640 5640 5640 0 0 0 0 0 0 0 0 0 0 0 0 0
0 0 0 0 0 0 0 0 0 0 0 0 0 0 0 0 0 0 0 0 0 0 0 0 0 0 0 0 0 0 0 0 0 2541 2541 2560 2560 2560 2560 2560 2560 2560 2579 2598 2598 2598 2598 2618 2618 2618 2618 2639 2639 2639 2639 2639 2639 2639 2639 2659 2680 2680 2680 2680 2701 2701 2701 2701 2701 2701 2701 2701 2701 2701 2701 2723 2723 2723 2723 2744 2744 2744 2767 2767 2767 2767 2789 2789 2789 2789 2789 2789 2789 2812 2812 0 0 0 0 0 0 0 0 2908 2908 2908 2933 2933 2933 2958 2958 2958 2958 2958 2958 2958 2958 2958 2958 2958 2984 2984 2984 2984 2984 2984 2984 3010 3010 3037 3037 3064 3064 3064 3064 3064 3092 3092 3092 3092 3092 3092 3120 3120 3120 3149 3178 3178 3178 3178 3208 3208 3208 3208 3208 3208 3208 3208 3238 3269 3269 3269 3300 3300 3300 3333 3365 3365 3365 3399 3399 3399 3399 3399 3399 3433 3433 3399 3399 3433 3433 3433 3433 3433 3433 3433 3433 3433 3468 3503 3539 3539 3539 3539 3539 3539 3576 3576 3576 3576 3576 3576 3614 3614 3614 3614 3653 3653 3653 3653 3692 3692 3692 3732 3732 3732 3774 3774 3774 3816 3774 3774 3774 0 0 0 0 0 0 0 5374 5374 5374 5374 5460 5460 5460 5548 5460 5460 5548 5548 5548 5640 5640 5640 5640 5640 5640 5640 5640 5640 5640 5640 5640 5640 5640 5640 5640 5640 5640 5640 5640 5640 5640 5640 5640 5640 5640 5640 5640 5548 5548 5548 5548 5548 5548 5548 5548 5548 5548 5548 5548 5548 5548 5548 5548 5548 5640 5640 5548 5548 5548 5548 5548 5548 5548 5548 5548 5548 5548 5460 5374 5291 5210 5132 5056 4983 4983 5056 5056 5132 5132 5210 5291 5291 5374 5460 5460 5548 5548 5548 5548 5460 5374 5374 5374 5291 5210 5210 5210 5210 5210 5210 5210 5210 5210 5210 5210 5210 5210 5291 5291 5291 5291 5374 5374 5374 5460 5460 5460 5460 5640 5640 0 2271 2271 2271 2256 2256 2256 2256 2271 2271 2271 2271 2271 2271 2271 2256 2241 2241 2241 2241 2241 2241 2241 2241 2256 2241 2241 2226 2226 2226 2226 2212 2212 2212 2212 2212 2212 2226 2212 2212 2212 2212 2212 2212 2212 2212 2212 2212 2212 2212 2212 2198 2198 2198 2198 2212 2212 2198 2198 2170 2156 2156 2143 2129 2129 2129 2129 2143 3269 2129 2129 2129 2103 2103 2103 2103 2103 2103 2103 2116 2116 2129 2129 3208 3208 3208 3208 3208 3208 3208 3178 3178 3178 3178 3178 3178 3178 3178 3178 3178 3178 3178 3149 3149 3178 3149 3149 3149 3149 3120 3120 3120 3120 3120 3092 3092 3092 3092 3092 3092 3092 3092 3092 3092 3092 3092 3092 3092 3092 3092 3064 3064 3064 3064 3064 3064 3064 3064 3064 3037 3037 3037 3037 3010 3010 3010 3010 3010 3010 3010 3010 3010 3010 2984 2984 2984 2984 2984 2984 2958 2958 2958 2958 2958 2958 2958 2958 2958 2958 2958 2958 2984 3010 3010 3037 3037 3064 3092 3120 3149 3178 3178 3208 3208 3238 3269 3300 3300 3333 3365 3433 3433 3433 3468 3994 4041 4041 4041 4041 4041 4089 4089 4041 4041 4041 4041 4041 4041 4041 4041 4041 4041 4041 4041 4041 4041 3994 3994 3994 3994 4041 4041 4041 4089 4089 4089 5640 5640 5640 5640 5640 5640 5640 5640 5548 5548 5548 5548 5548 5548 5548 5548 5548 5548 5548 5548 5548 5548 5460 5460 5460 5460 5460 5460 5460 5460 5460 5548 5548 5548 5548 5548 5548 5640 5640 5640 5548 5548 5640 5640 5640 5640 5640 0 0 0 0 0 0 0 0 0 0 0 0 0
0 0 0 0 0 0 0 0 0 0 0 0 0 0 0 0 0 0 0 0 0 0 0 0 0 0 0 0 0 0 0 0 0 2541 2541 2560 2560 2560 2560 2560 2560 2579 2598 2598 2598 2598 2618 2618 2618 2618 2618 2639 2639 2639 2639 2639 2639 2639 2639 2659 2680 2680 2680 2701 2701 2701 2701 2701 2701 2701 2701 2701 2701 2701 2723 2723 2723 2723 2723 2744 2767 2767 2767 2767 2767 2789 2789 2789 2789 2789 2789 2789 2812 2812 2835 2859 2883 2883 0 0 0 0 2883 2883 2908 2908 2933 2933 2933 2958 2958 2958 2958 2958 2958 2958 2958 2958 2958 2984 2984 2984 2984 2984 2984 2984 2984 2984 3010 3037 3037 3037 3064 3064 3064 3092 3092 3092 3092 3092 3092 3120 3120 3120 3120 3149 3178 3178 3208 3208 3208 3208 3208 3238 3208 3208 3238 3238 3238 3238 3269 3269 3269 3300 3300 3300 3333 3333 3365 3365 3399 3399 3399 3399 3399 3433 3433 3399 3399 3433 3433 3433 3433 3433 3433 3433 3433 3433 3468 3539 3539 3539 3539 3576 3576 3576 3576 3576 3576 3576 3576 3576 3614 3614 3614 3614 3653 3653 3653 3653 3692 3692 3692 3732 3732 3732 3774 3774 3816 3816 3774 3774 3774 3816 0 0 0 0 0 0 5374 5374 5374 5374 5460 5460 5460 5548 5460 5460 5460 5548 5548 5640 5640 5640 5640 5734 5640 5640 5640 5640 5640 5640 5640 5640 5640 5640 5640 5640 5640 5640 5640 5640 5640 5640 5548 5548 5640 5640 5548 5548 5548 5548 5548 5548 5460 5460 5548 5548 5548 5548 5548 5548 5548 5548 5548 5548 5548 5548 5548 5548 5548 5548 5548 5548 5460 5460 5460 5460 5460 5460 5374 5291 5210 5132 5056 4983 4983 5056 5056 5056 5132 5210 5291 5291 5374 5374 5460 5460 5460 5460 5460 5374 5374 5374 5374 5291 5210 5210 5210 5210 5210 5210 5210 5210 5210 5210 5210 5210 5291 5291 5291 5291 5374 5374 5374 5460 5460 5460 5460 5460 5640 5640 0 2271 2271 2271 2256 2256 2256 2256 2256 2271 2271 2271 2271 2271 2271 2256 2241 2241 2241 2241 2241 2241 2241 2241 2256 2241 2241 2241 2226 2226 2226 2212 2212 2212 2212 2212 2212 2226 2226 2226 2212 2212 2212 2212 2212 2212 2212 2212 2212 2212 2198 2198 2198 2198 2198 2198 2198 2184 2170 2156 2156 2156 2143 2129 2129 2129 2129 2129 2129 2129 2129 2129 2116 2116 2116 2116 2116 2116 2116 2116 2116 2129 2129 2143 3178 3178 3208 3208 3208 3208 3178 3178 3178 3178 3178 3178 3178 3178 3178 3178 3178 3178 3178 3178 3178 3149 3149 3149 3149 3120 3120 3120 3120 3120 3120 3092 3092 3092 3092 3092 3092 3092 3092 3092 3092 3092 3092 3092 3092 3092 3064 3064 3064 3064 3064 3064 3064 3064 3064 3064 3037 3037 3037 3010 3010 3010 3010 3010 3010 3010 3010 3010 2984 2984 2984 2984 2984 2984 2984 2958 2958 2984 2984 2958 2958 2958 2958 2958 2958 2958 2984 2984 3010 3010 3037 3037 3064 3092 3149 3149 3178 3178 3178 3208 3238 3269 3300 3333 3333 3365 3433 3433 3433 3433 3994 4041 4041 4041 4041 4041 4041 4041 4041 4041 4089 4089 4041 4041 4041 4041 4041 4041 4041 4041 4041 4041 3994 3994 3994 4041 4041 4041 4041 4089 4139 4190 5548 5548 5640 5640 5640 5548 5548 5640 5548 5548 5548 5548 5548 5548 5548 5548 5548 5548 5460 5460 5460 5460 5460 5460 5460 5460 5460 5460 5460 5460 5460 5548 5548 5548 5640 5640 5640 5640 5640 5640 5640 5640 5640 5640 5640 5640 5640 0 0 0 0 0 0 0 0 0 0 0 0 0
0 0 0 0 0 0 0 0 0 0 0 0 0 0 0 0 0 0 0 0 0 0 0 0 0 0 0 0 0 0 0 0 0 2541 2541 2560 2560 2560 2560 2560 2579 2579 2598 2598 2618 2618 2618 2618 2618 2618 2618 2639 2639 2639 2639 2639 2639 2639 2639 2659 2680 2680 2680 2701 2701 2701 2701 2701 2701 2701 2701 2701 2701 2723 2723 2723 2723 2723 2723 2744 2767 2767 2767 2767 2767 2789 2789 2789 2789 2789 2789 2789 2812 2812 2835 2859 2859 2859 2859 2883 0 2883 2883 2883 2908 2933 2933 2933 2958 2958 2958 2958 2958 2958 2958 2958 2958 2984 2984 2984 2984 2984 2984 2984 2984 2984 2984 2984 3010 3037 3037 3037 3064 3064 3064 3092 3092 3092 3092 3092 3092 3120 3120 3120 3120 3178 3178 3178 3208 3208 3208 3208 3208 3238 3208 3208 3238 3238 3238 3238 3269 3269 3269 3300 3300 3300 3333 3333 3365 3365 3399 3399 3399 3399 3399 3433 3433 3433 3433 3433 3433 3433 3433 3433 3433 3433 3433 3433 3468 3539 3539 3539 3576 3576 3576 3576 3576 3576 3576 3576 3576 3576 3614 3614 3614 3614 3653 3653 3653 3653 3692 3692 3692 3732 3732 3732 3774 3774 3816 3816 3816 3816 3816 3816 0 0 0 0 0 0 5374 5374 5374 5460 5460 5460 5460 5548 5460 5460 5460 5548 5548 5640 5640 5640 5640 5734 5640 5640 5640 5640 5640 5640 5640 5640 5640 5640 5640 5640 5640 5640 5640 5640 5640 5548 5548 5548 5548 5548 5548 5548 5548 5548 5548 5548 5460 5460 5548 5548 5548 5548 5548 5548 5548 5548 5548 5548 5548 5548 5548 5460 5460 5460 5460 5460 5460 5460 5460 5460 5460 5460 5374 5291 5210 5132 5056 4983 4983 5056 5056 5056 5132 5210 5210 5291 5291 5374 5460 5460 5460 5460 5460 5374 5291 5291 5291 5291 5210 5210 5210 5210 5210 5210 5210 5210 5210 5210 5210 5210 5291 5291 5291 5291 5374 5374 5460 5460 5460 5460 5460 5548 5640 5640 0 2271 2271 2271 2256 2256 2256 2256 2256 2271 2271 2271 2271 2271 2256 2256 2256 2256 2256 2256 2241 2241 2241 2256 2256 2256 2256 2256 2256 2256 2226 2226 2226 2226 2226 2226 2226 2226 2226 2226 2212 2212 2212 2212 2212 2212 2212 2212 2212 2212 2198 2198 2198 2198 2198 2198 2198 2184 2170 2156 2156 2156 2156 2143 2143 2129 2129 2129 2129 2129 2129 2129 2116 2116 2116 2116 2116 2116 2116 2116 2129 2129 2129 2143 3178 3178 3208 3208 3208 3208 3178 3178 3178 3178 3178 3178 3178 3178 3178 3178 3178 3178 3178 3178 3178 3149 3149 3149 3149 3149 3120 3120 3120 3120 3120 3092 3092 3092 3092 3092 3092 3092 3092 3092 3092 3092 3092 3092 3092 3092 3064 3064 3064 3064 3064 3064 3064 3064 3064 3037 3037 3037 3037 3010 3010 3010 3010 3010 3010 3010 3010 3010 2984 2984 2984 2984 2984 2984 2984 2984 2984 2984 2984 2958 2958 2958 2958 2958 2958 2958 2984 2984 3010 3010 3037 3064 3092 3120 3149 3149 3178 3178 3178 3208 3238 3269 3300 3333 3365 3365 3433 3433 3433 3433 3994 4041 4041 4041 4041 4041 4041 4041 4041 4041 4041 4041 4041 4041 4041 4041 4041 4041 4041 4041 4041 4041 4041 4041 4041 4041 4041 4041 4041 4089 4190 5734 5548 5548 5548 5548 5548 5548 5548 5548 5548 5548 5548 5548 5548 5548 5548 5548 5548 5460 5460 5460 5460 5460 5374 5374 5460 5460 5460 5460 5460 5460 5460 5548 5548 5640 5640 5734 5734 5734 5734 5734 5640 5640 5640 5734 5734 5734 5734 0 0 0 0 0 0 0 0 0 0 0 0 0
0 0 0 0 0 0 0 0 0 0 0 0 0 0 0 0 0 0 0 0 0 0 0 0 0 0 0 0 0 0 0 0 0 2541 2541 2560 2560 2560 2560 2560 2579 2579 2598 2598 2598 2598 2598 2598 2618 2618 2618 2618 2639 2639 2639 2639 2639 2639 2659 2659 2680 2680 2701 2701 2701 2701 2701 2723 2723 2701 2701 2701 2701 2723 2723 2723 2723 2744 2744 2744 2767 2767 2767 2767 2789 2789 2789 2789 2789 2789 2789 2789 2812 2812 2835 2859 2859 2859 2859 2883 2883 2883 2883 2883 2908 2933 2933 2933 2958 2958 2958 2958 2958 2958 2958 2984 2984 2984 2984 2984 2984 2984 2984 2984 2984 2984 3010 3010 3010 3037 3037 3064 3064 3064 3092 3092 3092 3092 3092 3092 3120 3120 3120 3120 3120 3178 3178 3178 3208 3208 3208 3208 3208 3238 3208 3208 3238 3238 3238 3269 3269 3269 3300 3300 3300 3300 3333 3333 3365 3365 3399 3399 3399 3399 3433 3433 3433 3399 3399 3433 3433 3433 3433 3433 3433 3468 3433 3433 3503 3539 3539 3539 3539 3576 3576 3576 3576 3576 3576 3576 3576 3576 3614 3614 3614 3614 3653 3653 3692 3692 3692 3692 3692 3732 3732 3732 3774 3774 3816 3816 3859 3816 3816 0 0 0 0 0 0 0 5374 5374 5374 5460 5460 5460 5460 5548 5460 5460 5548 5548 5548 5640 5640 5640 5640 5734 5640 5640 5640 5640 5640 5640 5640 5640 5640 5640 5640 5640 5640 5640 5640 5640 5640 5548 5548 5548 5548 5548 5548 5548 5548 5548 5548 5548 5548 5548 5548 5548 5548 5548 5548 5548 5548 5548 5548 5548 5548 5548 5548 5460 5460 5460 5460 5460 5374 5374 5374 5374 5460 5460 5291 5291 5210 5132 5132 5056 5056 5056 5056 5132 5210 5210 5210 5291 5291 5374 5374 5374 5374 5374 5374 5291 5291 5291 5291 5210 5210 5210 5210 5210 5210 5210 5210 5210 5210 5210 5210 5210 5291 5291 5291 5291 5374 5374 5460 5460 5460 5548 5548 5548 5640 0 0 0 2271 2271 2256 2256 2271 2271 2271 2271 2271 2271 2271 2256 2256 2256 2256 2256 2256 2256 2241 2241 2241 2256 2256 2256 2256 2256 2256 2256 2256 2226 2226 2226 2226 2226 2226 2226 2226 2226 2212 2212 2212 2212 2212 2212 2212 2212 2212 2212 2198 2198 2198 2198 2198 2198 2198 2184 2170 2156 2156 2156 2156 2156 2143 2143 2143 2129 2129 2143 2129 2129 2129 2129 2129 2129 2129 2129 2129 2129 2129 2143 2143 2143 3178 3178 3208 3208 3208 3208 3208 3208 3208 3208 3208 3208 3208 3208 3178 3178 3178 3178 3178 3178 3178 3149 3149 3149 3149 3149 3149 3120 3120 3120 3120 3120 3120 3120 3120 3120 3120 3092 3092 3092 3092 3092 3092 3092 3092 3092 3064 3064 3064 3064 3064 3064 3064 3064 3064 3037 3037 3037 3037 3010 3010 3010 3010 3037 3010 3010 3010 3010 2984 2984 2984 2984 2984 2984 2984 2984 2984 2984 2984 2958 2958 2958 2958 2958 2958 2958 2984 3010 3037 3037 3064 3092 3120 3120 3149 3149 3178 3178 3178 3208 3238 3269 3300 3365 3365 3399 3399 3399 3433 3433 4041 4041 4041 4041 4041 4041 4041 4041 4041 4041 4041 4041 4041 4041 4041 4041 4041 4041 4041 4041 4041 4041 4041 4041 4041 4089 4089 4041 4041 4089 5734 5640 5460 5460 5548 5548 5548 5548 5548 5548 5548 5548 5548 5548 5460 5460 5548 5548 5460 5460 5374 5374 5460 5374 5374 5374 5374 5460 5460 5460 5460 5460 5460 5548 5640 5640 5734 5734 5734 5734 5832 5832 5734 5734 5734 5832 5832 5734 5734 0 0 0 0 0 0 0 0 0 0 0 0 0
0 0 0 0 0 0 0 0 0 0 0 0 0 0 0 0 0 0 0 0 0 0 0 0 0 0 0 0 0 0 0 0 0 2560 2560 2560 2560 2560 2560 2560 2579 2579 2598 2598 2598 2598 2598 2598 2618 2618 2618 2618 2639 2639 2639 2639 2639 2639 2659 2659 2680 2701 2701 2701 2701 2701 2701 2723 2723 2701 2701 2701 2723 2723 2744 2744 2744 2744 2744 2744 2767 2767 2767 2767 2789 2789 2789 2789 2789 2812 2812 2812 2835 2835 2859 2859 2859 2859 2883 2883 2883 2883 2883 2908 2933 2933 2933 2933 2958 2958 2958 2958 2958 2958 2958 2958 2958 2958 2958 2958 2984 2984 2984 2984 2984 2984 3010 3010 3010 3037 3064 3064 3064 3064 3092 3092 3092 3120 3120 3120 3120 3120 3120 3120 3149 3178 3178 3208 3208 3208 3208 3208 3208 3238 3208 3208 3238 3238 3238 3269 3269 3269 3300 3300 3300 3300 3333 3333 3365 3399 3399 3399 3399 3399 3433 3433 3433 3399 3399 3433 3433 3433 3433 3433 3433 3468 3468 3468 3503 3539 3539 3539 3539 3576 3576 3576 3576 3576 3576 3576 3576 3614 3614 3614 3614 3614 3653 3653 3692 3692 3692 3692 3692 3732 3732 3774 3774 3816 3816 3859 3859 3859 3859 3859 3859 0 0 0 0 0 5374 5374 5374 5374 5374 5460 5548 5548 5548 5548 5548 5548 5548 5640 5640 5640 5640 5734 5640 5640 5640 5640 5640 5640 5640 5640 5640 5640 5640 5640 5640 5640 5640 5640 5640 5548 5548 5548 5548 5548 5548 5548 5548 5548 5548 5548 5548 5548 5548 5548 5548 5548 5548 5548 5548 5548 5548 5548 5548 5548 5460 5460 5460 5460 5460 5374 5374 5374 5374 5374 5460 5374 5291 5291 5210 5132 5132 5056 5056 5132 5132 5132 5210 5210 5210 5291 5291 5291 5374 5374 5374 5374 5374 5291 5291 5291 5291 5210 5210 5210 5210 5210 5210 5210 5210 5210 5210 5210 5210 5210 5210 5291 5291 5291 5374 5460 5460 5460 5548 5548 5548 5548 5640 5640 0 2271 2271 2271 2271 2271 2271 2271 2271 2271 2271 2271 2271 2256 2256 2256 2256 2256 2256 2256 2241 2241 2241 2256 2256 2256 2256 2256 2256 2256 2256 2226 2226 2226 2226 2226 2226 2226 2226 2226 2212 2212 2212 2212 2212 2212 2198 2198 2212 2198 2198 2198 2198 2198 2198 2198 2198 2184 2184 2170 2156 2156 2156 2156 2156 2143 2143 2143 2143 2143 2143 2143 2129 2129 2129 2129 2129 2129 2129 2129 2143 2143 2143 2143 3208 3208 3208 3208 3208 3208 3208 3208 3208 3208 3208 3208 3208 3208 3178 3178 3178 3178 3178 3178 3178 3178 3178 3178 3149 3149 3149 3149 3149 3149 3149 3120 3120 3120 3120 3120 3120 3092 3092 3092 3092 3092 3092 3092 3092 3092 3092 3092 3092 3092 3092 3064 3064 3064 3064 3064 3064 3064 3064 3037 3037 3037 3037 3010 3010 2984 1981 1981 1981 2958 1993 1993 2984 2984 2984 2984 2984 2984 2984 2958 2958 2958 2958 2958 2958 2958 2984 3010 3010 3037 3037 3064 3120 3120 3149 3178 3178 3178 3208 3238 3300 3300 3365 3365 3399 3399 3399 3399 4041 4041 4041 4041 4089 4041 4041 4041 4041 4041 4041 4041 4041 4041 4041 4041 4041 4041 4041 4041 4041 4041 4041 4041 4041 4041 4089 4089 4089 4089 4089 4089 4089 5640 5460 5460 5460 5548 5548 5548 5548 5548 5548 5548 5548 5548 5460 5460 5460 5460 5460 5374 5374 5374 5374 5374 5374 5374 5374 5374 5460 5460 5460 5548 5548 5640 5640 5734 5832 5832 5933 5933 5933 5933 5933 5933 5933 5933 5933 5933 5933 0 0 0 0 0 0 0 0 0 0 0 0 0
0 0 0 0 0 0 0 0 0 0 0 0 0 0 0 0 0 0 0 0 0 0 0 0 0 0 0 0 0 0 0 0 0 2560 2560 2560 2560 2560 2560 2560 2579 2579 2598 2598 2598 2598 2598 2598 2618 2618 2618 2618 2639 2639 2639 2639 2639 2659 2659 2659 2680 2701 2701 2701 2701 2701 2701 2723 2723 2701 2701 2701 2723 2723 2744 2744 2744 2744 2744 2744 2744 2767 2767 2767 2789 2789 2789 2789 2789 2812 2835 2835 2835 2859 2859 2859 2859 2859 2883 2883 2883 2883 2908 2933 2958 2958 2958 2958 2958 2958 2958 2958 2958 2958 2958 2958 2958 2958 2958 2958 2984 2984 2984 2984 3010 3010 3010 3010 3037 3037 3064 3064 3064 3064 3092 3092 3092 3120 3120 3120 3120 3120 3120 3120 3149 3178 3178 3208 3208 3208 3208 3208 3208 3238 3238 3238 3238 3238 3269 3269 3269 3269 3300 3300 3300 3333 3333 3333 3365 3365 3399 3399 3399 3399 3433 3433 3433 3433 3433 3433 3433 3433 3433 3433 3433 3468 3468 3468 3503 3539 3539 3539 3539 3539 3539 3539 3576 3576 3576 3576 3576 3614 3614 3653 3653 3653 3692 3692 3692 3692 3692 3692 3692 3732 3732 3774 3816 3816 3859 3859 3859 3859 3859 3859 3859 3859 0 0 0 0 5374 5374 5460 5374 5374 5460 5548 5548 5548 5548 5548 5548 5548 5640 5640 5640 5640 5640 5640 5640 5640 5640 5640 5640 5640 5640 5640 5640 5640 5640 5640 5640 5640 5640 5640 5548 5548 5548 5548 5548 5548 5548 5548 5548 5548 5548 5548 5548 5548 5548 5548 5548 5548 5548 5548 5548 5548 5548 5548 5460 5460 5460 5460 5460 5460 5374 5374 5374 5374 5374 5374 5374 5291 5210 5210 5210 5132 5132 5132 5132 5132 5132 5132 5210 5210 5291 5291 5291 5374 5374 5374 5374 5291 5291 5210 5210 5210 5210 5210 5210 5210 5210 5210 5210 5210 5210 5210 5210 5210 5210 5210 5291 5291 5374 5374 5460 5460 5460 5460 5460 5460 5548 5640 5640 0 2271 2271 2271 2256 2256 2271 2271 2271 2271 2271 2271 2271 2271 2256 2256 2256 2256 2256 2256 2256 2256 2256 2256 2256 2256 2256 2256 2256 2241 2241 2226 2226 2226 2226 2226 2226 2226 2226 2226 2226 2212 2212 2212 2212 2212 2198 2198 2212 2198 2198 2198 2198 2198 2198 2198 2198 2184 2184 2170 2156 2156 2156 2156 2156 2156 2156 2143 2143 2143 2143 2143 2143 2143 2129 2129 2129 2129 2129 2129 2143 2143 2143 2156 3208 3208 3208 3208 3208 3208 3208 3208 3208 3208 3208 3208 3208 3208 3208 3208 3178 3178 3178 3178 3178 3178 3178 3178 3178 3149 3149 3149 3149 3149 3149 3149 3149 3120 3120 3120 3120 3120 3092 3092 3092 3092 3092 3092 3092 3092 3092 3092 3092 3092 3092 3092 3092 3064 3064 3064 3064 3064 3064 3037 3037 3037 3037 3010 3010 1970 1970 1981 1981 1993 1981 1981 1981 1981 1981 2984 2984 2984 2958 2958 2958 2958 2958 2958 2958 2958 2984 3010 3010 3037 3037 3064 3120 3120 3149 3178 3178 3178 3208 3238 3300 3333 3365 3365 3399 3399 3399 3399 4041 4041 4041 4041 4089 4041 4041 4041 4041 4041 4041 4041 4041 4041 4041 4041 4041 4041 4041 4041 4041 4041 3994 3994 4041 4041 4041 4089 4089 4089 4089 4139 4139 5548 5374 5374 5374 5460 5460 5374 5374 5374 5374 5374 5374 5548 5374 5374 5374 5460 5374 5374 5374 5374 5374 5374 5374 5374 5374 5374 5460 5460 5548 5548 5548 5640 5734 5734 5832 5933 5933 5933 5933 5933 5933 5933 5933 5933 5933 5933 5933 0 0 0 0 0 0 0 0 0 0 0 0 0
0 0 0 0 0 0 0 0 0 0 0 0 0 0 0 0 0 0 0 0 0 0 0 0 0 0 0 0 0 0 0 0 0 2560 2560 2560 2560 2579 2560 2560 2579 2579 2598 2598 2598 2598 2618 2618 2618 2618 2618 2639 2639 2639 2639 2659 2659 2659 2659 2659 2680 2701 2701 2701 2701 2701 2723 2723 2723 2701 2701 2701 2723 2723 2723 2744 2744 2744 2744 2744 2744 2767 2767 2767 2767 2789 2789 2789 2789 2812 2835 2835 2859 2859 2859 2859 2859 2859 2883 2883 2883 2883 2908 2933 2958 2958 2958 2958 2958 2958 2958 2958 2958 2958 2958 2958 2958 2958 2958 2958 2984 2984 2984 3010 3010 3037 3010 3010 3037 3037 3064 3064 3064 3064 3092 3092 3120 3120 3120 3120 3120 3120 3120 3120 3149 3178 3178 3208 3208 3208 3208 3208 3238 3238 3238 3238 3238 3238 3269 3269 3269 3269 3300 3300 3300 3333 3333 3333 3365 3365 3399 3399 3399 3399 3433 3433 3433 3433 3433 3433 3433 3433 3433 3468 3468 3468 3503 3503 3503 3539 3539 3539 3539 3539 3539 3539 3576 3576 3576 3576 3576 3614 3614 3653 3653 3653 3692 3692 3692 3692 3692 3692 3732 3732 3774 3774 3774 3774 3816 3859 3859 3859 3859 3859 3859 3859 0 0 0 0 0 5460 5460 5460 5460 5460 5548 5548 5548 5548 5548 5548 5548 5640 5640 5640 5640 5640 5640 5640 5640 5640 5640 5640 5640 5640 5640 5640 5640 5640 5640 5640 5640 5640 5640 5640 5548 5548 5548 5548 5548 5548 5548 5548 5548 5548 5548 5548 5548 5548 5548 5548 5548 5548 5548 5548 5548 5548 5460 5460 5460 5374 5374 5460 5374 5374 5291 5291 5291 5374 5374 5291 5291 5210 5210 5210 5132 5132 5132 5132 5132 5132 5132 5132 5210 5291 5291 5291 5374 5374 5374 5374 5291 5291 5210 5210 5210 5210 5210 5210 5210 5210 5210 5210 5210 5210 5210 5210 5210 5210 5291 5291 5291 5374 5374 5460 5460 5460 5460 5460 5460 5460 5548 5548 0 2271 2271 2271 2256 2256 2271 2271 2271 2271 2271 2271 2271 2271 2256 2256 2256 2256 2271 2256 2256 2256 2256 2256 2256 2256 2256 2256 2241 2241 2241 2226 2226 2226 2226 2226 2226 2226 2226 2226 2226 2212 2212 2212 2212 2212 2198 2198 2212 2198 2198 2198 2198 2198 2184 2184 2184 2184 2184 2170 2170 2156 2156 2156 2156 2156 2156 2143 2143 2143 2143 2143 2143 2143 2143 2129 2129 2129 2129 2143 2143 2156 2156 2156 3208 3208 3208 3208 3208 3208 3208 3208 3208 3208 3178 3178 3178 3178 3178 3178 3178 3178 3178 3178 3178 3178 3178 3178 3178 3178 3178 3178 3178 3178 3178 3149 3149 3120 3120 3120 3120 3120 3092 3092 3092 3092 3092 3092 3092 3092 3092 3092 3092 3092 3092 3092 3092 3092 3064 3064 3064 3064 3064 3037 3037 3037 3037 3037 3037 1970 1970 1981 1981 1981 1981 1981 1981 1981 1981 1981 2958 2984 2958 2958 2958 2958 2958 2958 2984 2984 3010 3037 3037 3037 3037 3064 3092 3120 3149 3178 3178 3178 3208 3269 3300 3333 3365 3399 3365 3365 3399 3399 4089 4089 4041 4041 4089 4041 4041 4041 4041 4041 4041 4041 4041 4041 4041 4041 4041 4041 4041 4041 4041 4041 3994 3994 4041 4041 4041 4089 4089 4089 4089 4190 4190 5374 5374 5291 5291 5460 5374 5374 5374 5374 5374 5374 5291 5291 5291 5291 5374 5374 5374 5374 5374 5374 5374 5374 5374 5374 5374 5374 5374 5460 5548 5640 5640 5640 5734 5832 5933 5933 5933 5933 5933 6038 6038 6038 6038 5933 5933 5933 5933 0 0 0 0 0 0 0 0 0 0 0 0 0
0 0 0 0 0 0 0 0 0 0 0 0 0 0 0 0 0 0 0 0 0 0 0 0 0 0 0 0 0 0 0 0 0 2560 2560 2560 2560 2579 2579 2579 2579 2579 2598 2598 2598 2598 2598 2598 2618 2618 2618 2618 2639 2639 2639 2659 2659 2659 2659 2680 2680 2701 2701 2701 2701 2701 2723 2723 2723 2701 2701 2701 2701 2723 2723 2723 2723 2744 2744 2744 2744 2767 2767 2767 2767 2767 2789 2789 2789 2812 2812 2835 2835 2859 2859 2859 2859 2859 2883 2883 2908 2908 2933 2933 2958 2958 2958 2958 2958 2958 2958 2958 2958 2958 2958 2958 2958 2958 2984 2984 2984 2984 3010 3010 3010 3037 3037 3037 3037 3064 3064 3064 3064 3092 3092 3092 3120 3120 3120 3120 3149 3149 3149 3149 3149 3178 3178 3208 3208 3208 3208 3208 3238 3238 3208 3208 3238 3238 3238 3269 3269 3269 3300 3300 3300 3333 3333 3333 3365 3399 3399 3399 3399 3433 3433 3433 3433 3433 3433 3433 3433 3433 3433 3468 3468 3468 3503 3503 3503 3539 3539 3539 3539 3539 3539 3539 3576 3576 3576 3576 3576 3614 3653 3653 3653 3653 3692 3692 3692 3692 3692 3732 3732 3732 3774 3774 3774 3774 3816 3859 3859 3859 3859 3859 3859 3859 0 0 0 0 0 0 5460 5460 5460 5548 5548 5548 5460 5460 5548 5548 5548 5640 5640 5640 5640 5640 5640 5640 5640 5640 5640 5640 5640 5640 5640 5640 5640 5640 5640 5640 5640 5640 5640 5640 5548 5548 5548 5548 5548 5548 5548 5548 5548 5548 5548 5548 5548 5548 5548 5548 5548 5548 5548 5548 5548 5548 5460 5460 5460 5374 5374 5460 5374 5374 5291 5291 5291 5291 5291 5291 5291 5210 5210 5210 5132 5132 5132 5132 5132 5132 5132 5132 5210 5291 5291 5291 5374 5291 5291 5374 5291 5291 5210 5210 5210 5210 5210 5210 5210 5210 5210 5210 5210 5210 5210 5210 5210 5210 5210 5291 5291 5374 5374 5460 5460 5460 5460 5460 5460 5460 5548 5548 2271 2271 2271 2271 2256 2256 2271 2271 2271 2271 2271 2271 2256 2256 2256 2256 2256 2271 2271 2271 2271 2256 2256 2256 2256 2256 2241 2241 2241 2241 2241 2226 2226 2226 2226 2226 2212 2212 2212 2226 2212 2212 2212 2212 2212 2212 2198 2198 2212 2198 2198 2198 2198 2198 2184 2184 2184 2184 2184 2170 2170 2156 2156 2156 2156 2156 2156 2156 2143 2143 2143 2143 2143 2143 2143 2129 2129 2143 2143 2143 2143 2156 2156 2156 3238 3208 3208 3238 3208 3208 3208 3208 3208 3208 3178 3178 3178 3178 3178 3178 3178 3178 3178 3178 3178 3178 3178 3178 3178 3178 3178 3178 3178 3178 3178 3149 3149 3149 3120 3120 3120 3120 3092 3092 3092 3092 3092 3092 3092 3092 3092 3092 3092 3092 3092 3092 3092 3092 3064 3064 3064 3064 3064 3037 3037 3037 3037 3037 1970 1970 1970 1981 1981 1981 1981 1981 1981 1981 1981 1981 1981 1981 1981 1981 2958 2958 2958 2958 2958 2984 3010 3037 3037 3037 3037 3064 3092 3120 3149 1936 1936 1936 1936 1947 1947 1947 1947 3399 3365 3365 3365 4089 4089 4089 4041 4041 4041 4041 4041 4041 4041 4041 4041 4089 4041 4041 4041 4041 4041 4041 4041 4041 4041 4041 4041 4041 4041 4041 4089 4139 4139 4139 4139 4139 5374 5374 5291 5291 5291 5291 5374 5291 5291 5291 5291 5291 5291 5291 5291 5291 5291 5291 5291 5291 5291 5291 5291 5291 5291 5291 5291 5291 5291 5460 5548 5640 5640 5734 5734 5832 5933 5933 5933 5933 5933 6038 6038 6038 6038 6038 6038 5933 5933 0 0 0 0 0 0 0 0 0 0 0 0 0
0 0 0 0 0 0 0 0 0 0 0 0 0 0 0 0 0 0 0 0 0 0 0 0 0 0 0 0 0 0 0 0 0 2560 2560 2560 2579 2579 2579 2579 2598 2598 2598 2598 2598 2598 2598 2598 2618 2618 2618 2618 2639 2639 2639 2659 2659 2659 2659 2680 2701 2701 2701 2701 2701 2701 2723 2723 2723 2701 2701 2701 2701 2723 2723 2723 2723 2744 2744 2744 2744 2744 2767 2767 2767 2767 2789 2789 2789 2812 2812 2835 2835 2859 2859 2859 2859 2859 2883 2883 2883 2883 2933 2933 2958 2958 2958 2958 2958 2958 2958 2958 2958 2958 2958 2958 2958 2984 2984 2984 2984 2984 3010 3010 3010 3037 3037 3037 3037 3064 3064 3064 3064 3092 3092 3092 3120 3120 3120 3149 3149 3149 3178 3178 3178 3178 3178 3178 3208 3208 3208 3208 3238 3238 3208 3208 3238 3238 3238 3269 3269 3269 3300 3300 3300 3333 3333 3333 3365 3399 3399 3399 3399 3433 3433 3433 3433 3433 3433 3433 3433 3433 3433 3433 3468 3468 3468 3503 3503 3539 3539 3539 3539 3539 3539 3539 3576 3576 3576 3576 3576 3614 3653 3653 3653 3653 3692 3692 3692 3692 3692 3732 3732 3732 3774 3774 3816 3816 3859 3859 3903 3859 3859 3859 3859 3859 0 0 0 0 0 0 5460 5460 5460 5460 5460 5460 5460 5460 5460 5548 5548 5640 5640 5640 5640 5640 5640 5640 5640 5640 5640 5640 5640 5640 5640 5640 5640 5640 5640 5640 5640 5548 5548 5640 5640 5548 5548 5548 5548 5548 5548 5548 5548 5548 5548 5548 5548 5548 5548 5548 5548 5548 5548 5548 5548 5548 5460 5460 5460 5460 5460 5460 5460 5374 5374 5374 5374 5291 5291 5291 5291 5210 5210 5210 5210 5132 5132 5132 5132 5132 5210 5210 5210 5291 5291 5291 5374 5291 5291 5374 5291 5210 5210 5210 5210 5210 5210 5210 5210 5210 5210 5210 5210 5210 5210 5210 5210 5210 5210 5291 5291 5374 5374 5460 5460 5460 5460 5460 5374 5374 5548 5548 2271 2271 2271 2271 2271 2271 2271 2271 2271 2271 2271 2271 2256 2256 2256 2256 2271 2271 2271 2256 2256 2256 2256 2256 2256 2256 2241 2241 2241 2241 2241 2226 2226 2226 2226 2226 2212 2212 2212 2226 2212 2212 2212 2212 2212 2212 2198 2198 2212 2198 2198 2198 2198 2198 2184 2184 2198 2184 2184 2156 2156 2156 2156 2156 2156 2156 2156 2156 2143 2143 2143 2143 2143 2143 2143 2143 2143 2143 2143 2143 2156 2156 2170 2170 3238 3238 3238 3238 3208 3208 3208 3208 3208 3208 3178 3178 3178 3178 3178 3208 3178 3178 3178 3178 3178 3178 3178 3178 3178 3178 3178 3178 3178 3178 3178 3178 3178 3149 3120 3120 3120 3120 3092 3092 3092 3092 3092 3092 3092 3092 3092 3092 3092 3092 3092 3092 3092 3092 3064 3064 3064 3064 3064 3037 3037 3037 3037 1970 1970 1970 1970 1981 1981 1981 1981 1981 1981 1981 1981 1981 1981 1970 1970 1970 2958 2958 2958 2958 2958 2984 3010 3037 1936 1936 1936 1936 1936 1947 1926 1926 1936 1936 1936 1936 1936 1936 1936 1936 1936 1936 1947 1947 1947 1947 4041 4041 4041 4041 4041 4041 4041 4041 4041 4089 4041 4041 4041 4041 4041 4041 4041 4041 4041 4041 4041 4041 4089 4089 4139 4139 4190 4190 4190 4190 5210 5291 5291 5291 5291 5291 5291 5291 5291 5291 5291 5291 5291 5291 5210 5210 5291 5291 5291 5291 5291 5291 5291 5291 5291 5291 5291 5291 5291 5374 5460 5640 5640 5734 5734 5832 5933 5933 5933 5933 5933 6038 6038 6038 6038 6038 6038 5933 5933 0 0 0 0 0 0 0 0 0 0 0 0 0
0 0 0 0 0 0 0 0 0 0 0 0 0 0 0 0 0 0 0 0 0 0 0 0 0 0 0 0 0 0 0 0 0 2560 2560 2560 2579 2579 2579 2579 2598 2598 2598 2598 2598 2598 2618 2618 2618 2618 2618 2618 2639 2639 2659 2659 2659 2659 2659 2680 2701 2701 2701 2701 2701 2701 2723 2723 2723 2701 2701 2701 2723 2723 2723 2723 2744 2744 2744 2744 2744 2744 2767 2767 2767 2767 2789 2789 2789 2812 2812 2835 2835 2859 2859 2859 2859 2859 2883 2883 2883 2883 2933 2933 2958 2958 2958 2958 2958 2958 2958 2958 2958 2958 2958 2958 2984 2984 2984 2984 3010 3010 3010 3037 3037 3037 3064 3064 3064 3064 3064 3064 3064 3092 3092 3092 3120 3120 3149 3149 3178 3178 3178 3178 3178 3178 3178 3178 3208 3208 3208 3238 3238 3238 3238 3238 3238 3238 3269 3269 3269 3300 3300 3300 3333 3333 3333 3365 3399 3399 3399 3399 3399 3399 3433 3433 3399 3399 3433 3433 3433 3433 3433 3433 3468 3468 3468 3503 3503 3539 3539 3539 3539 3539 3539 3539 3576 3576 3576 3576 3576 3614 3653 3653 3653 3653 3692 3692 3692 3692 3692 3732 3732 3732 3774 3774 3816 3816 3859 3859 3903 3859 3859 3859 3859 3859 0 0 0 0 0 0 5460 5460 5460 5460 5460 5460 5460 5460 5460 5548 5548 5640 5640 5640 5640 5640 5640 5640 5640 5640 5640 5640 5640 5640 5640 5640 5640 5640 5640 5640 5640 5548 5548 5640 5640 5640 5640 5640 5548 5548 5548 5548 5548 5548 5548 5548 5548 5548 5548 5548 5548 5548 5548 5548 5548 5548 5460 5460 5460 5460 5460 5460 5374 5374 5374 5374 5374 5374 5374 5291 5291 5210 5210 5210 5210 5132 5132 5132 5132 5210 5210 5210 5210 5291 5291 5291 5374 5291 5291 5291 5291 5210 5210 5210 5210 5210 5210 5210 5210 5210 5210 5210 5210 5210 5210 5210 5210 5291 5291 5291 5291 5374 5374 5460 5460 5460 5460 5460 5374 5374 5374 2271 2271 2271 2271 2271 2271 2271 2271 2271 2271 2271 2271 2271 2256 2256 2256 2256 2271 2271 2271 2256 2256 2256 2256 2256 2256 2256 2241 2241 2241 2241 2241 2226 2226 2226 2212 2212 2212 2212 2212 2212 2212 2212 2212 2212 2212 2212 2212 2212 2212 2198 2198 2198 2198 2198 2198 2198 2198 2184 2184 2156 2156 2156 2156 2156 2156 2156 2156 2156 2143 2143 2143 2143 2143 2129 2129 2129 2129 2143 2143 2143 2156 2156 2170 2170 3238 3238 3238 3238 3208 3208 3208 3208 3208 3208 3178 3178 3178 3178 3178 3178 3178 3178 3178 3178 3178 3178 3178 3178 3178 3178 3178 3178 3178 3178 3178 3178 3178 3149 3149 3120 3120 3120 3092 3092 3092 3092 3092 3092 3092 3092 3092 3092 3092 3092 3092 3092 3092 3092 3092 3092 3092 3064 3064 3037 3037 3037 1959 1959 1970 1970 1970 1970 1981 1981 1981 1981 1981 1981 1981 1981 1981 1970 1970 1970 1959 1959 1959 1959 1947 1947 1947 1947 1936 1936 1936 1936 1936 1936 1926 1926 1936 1936 1936 1936 1936 1936 1936 1936 1936 1947 1947 1926 1926 1926 1926 1926 1926 1936 4041 4041 4041 4041 4041 4041 4041 3994 3948 3948 3994 4041 4041 4041 4041 4041 4041 4041 4089 4089 4089 4139 4139 4241 4241 5291 5210 5210 5210 5291 5291 5291 5291 5291 5291 5291 5291 5291 5210 5210 5210 5210 5210 5210 5210 5210 5210 5210 5210 5291 5291 5291 5291 5291 5291 5374 5460 5640 5640 5832 5832 5933 5933 5933 5933 5933 5933 6038 6038 6038 6038 5933 5933 5832 5832 0 0 0 0 0 0 0 0 0 0 0 0 0
0 0 0 0 0 0 0 0 0 0 0 0 0 0 0 0 0 0 0 0 0 0 0 0 0 0 0 0 0 0 0 0 0 2560 2560 2579 2579 2579 2579 2579 2598 2598 2598 2618 2618 2618 2618 2618 2618 2618 2618 2618 2639 2639 2659 2659 2659 2659 2659 2680 2680 2701 2701 2701 2701 2701 2723 2723 2723 2723 2723 2723 2723 2723 2723 2723 2744 2744 2744 2744 2744 2767 2767 2767 2767 2767 2789 2789 2789 2812 2812 2835 2835 2859 2859 2859 2859 2859 2883 2908 2908 2908 2933 2933 2958 2958 2958 2958 2958 2958 2958 2958 2958 2958 2958 2958 2984 2984 2984 2984 3010 3010 3037 3037 3037 3037 3064 3064 3064 3064 3064 3064 3064 3092 3092 3092 3120 3120 3149 3149 3178 3178 3178 3178 3178 3178 3208 3208 3208 3208 3238 3238 3238 3238 3238 3238 3238 3238 3269 3269 3269 3300 3300 3300 3333 3333 3365 3365 3399 3399 3399 3399 3399 3399 3433 3433 3399 3399 3433 3433 3433 3433 3433 3433 3468 3503 3503 3503 3539 3539 3539 3539 3539 3539 3539 3539 3576 3576 3576 3576 3576 3614 3692 3653 3653 3653 3692 3692 3692 3692 3732 3732 3732 3732 3774 3774 3816 3816 3859 3859 3903 3859 3859 3859 3859 3859 0 0 0 0 0 0 5460 5460 5460 5460 5460 5460 5460 5460 5460 5548 5548 5548 5640 5640 5640 5640 5640 5640 5640 5640 5640 5640 5640 5640 5640 5640 5640 5640 5640 5640 5640 5640 5640 5640 5640 5640 5640 5640 5640 5548 5548 5548 5548 5548 5548 5548 5548 5548 5548 5548 5548 5548 5548 5548 5548 5548 5548 5548 5460 5460 5460 5460 5374 5374 5374 5374 5374 5374 5374 5291 5291 5210 5210 5210 5132 5132 5132 5132 5132 5210 5210 5210 5210 5291 5291 5291 5374 5291 5291 5291 5291 5210 5210 5210 5210 5210 5210 5210 5210 5210 5210 5210 5210 5210 5210 5291 5291 5291 5291 5291 5291 5374 5374 5460 5460 5460 5460 5460 5460 5548 5548 2271 2271 2271 2271 2271 2271 2271 2271 2271 2271 2271 2271 2271 2256 2256 2256 2271 2271 2271 2271 2256 2256 2256 2256 2256 2241 2241 2226 2226 2241 2241 2226 2226 2226 2212 2212 2212 2212 2212 2212 2212 2212 2212 2212 2212 2212 2212 2212 2212 2212 2198 2198 2198 2198 2198 2198 2198 2198 2184 2184 2156 2156 2156 2156 2156 2156 2156 2156 2156 2143 2143 2143 2143 2143 2129 2129 2129 2129 2143 2143 2143 2156 2156 2170 2170 3208 3238 3238 3238 3208 3208 3208 3208 3208 3178 3178 3178 3178 3178 3178 3178 3178 3178 3178 3178 3178 3178 3178 3178 3178 3178 3178 3178 3178 3178 3178 3178 3178 3149 3149 3120 3120 3120 3120 3092 3092 3092 3092 3092 3092 3092 3092 3092 3092 3092 3092 3092 3092 3092 3092 3092 3092 3092 3064 3037 3037 3037 1959 1959 1970 1970 1970 1970 1981 1981 1981 1981 1981 1981 1981 1981 1981 1970 1970 1970 1959 1959 1959 1959 1947 1947 1947 1947 1947 1947 1947 1947 1947 1936 1936 1936 1936 1936 1936 1936 1936 1936 1936 1936 1936 1936 1915 1915 1915 1926 1915 1915 1926 1926 1926 1936 1936 3948 3994 3994 4041 3994 3948 3948 1915 1904 1904 1915 4089 4089 4089 4089 4089 4089 4089 4139 4139 4139 4139 5291 5291 5210 5210 5210 5210 5210 5291 5291 5291 5291 5291 5291 5210 5210 5210 5210 5210 5210 5210 5210 5210 5210 5210 5291 5291 5291 5291 5291 5291 5374 5460 5640 5640 5832 5832 5933 6038 6038 6038 6038 6038 6038 6038 6038 5933 5933 5832 5734 5734 0 0 0 0 0 0 0 0 0 0 0 0 0
0 0 0 0 0 0 0 0 0 0 0 0 0 0 0 0 0 0 0 0 0 0 0 0 0 0 0 0 0 0 0 0 0 2560 2560 2579 2579 2579 2579 2579 2598 2598 2598 2598 2618 2618 2618 2618 2618 2639 2639 2639 2639 2639 2659 2659 2659 2659 2659 2680 2680 2701 2701 2701 2701 2701 2723 2723 2723 2723 2723 2723 2744 2744 2744 2744 2744 2744 2744 2744 2767 2767 2767 2767 2767 2767 2789 2789 2789 2812 2812 2835 2835 2859 2859 2859 2859 2859 2883 2908 2933 2933 2933 2958 2958 2958 2958 2958 2958 2958 2958 2958 2958 2958 2958 2958 2984 2984 2984 3010 3010 3037 3037 3037 3037 3064 3064 3064 3064 3064 3064 3064 3064 3092 3092 3092 3120 3120 3149 3149 3178 3178 3178 3178 3178 3178 3208 3208 3208 3208 3238 3238 3238 3238 3238 3238 3238 3238 3269 3269 3269 3300 3300 3300 3333 3333 3333 3365 3399 3399 3399 3399 3433 3433 3433 3433 3433 3433 3433 3433 3433 3433 3433 3433 3468 3503 3503 3539 3539 3539 3539 3539 3539 3539 3539 3539 3576 3576 3576 3576 3614 3614 3653 3653 3653 3653 3692 3692 3692 3692 3732 3732 3732 3732 3774 3774 3816 3816 3859 3859 3903 3903 3903 3859 3859 3859 0 0 0 0 0 5548 5460 5460 5460 5548 5548 5548 5460 5460 5460 5548 5548 5548 5640 5640 5640 5640 5640 5640 5640 5640 5640 5640 5640 5548 5548 5640 5640 5640 5640 5640 5640 5640 5640 5640 5640 5640 5640 5640 5640 5548 5548 5548 5548 5548 5548 5548 5548 5548 5548 5548 5548 5548 5640 5548 5548 5548 5548 5548 5460 5460 5460 5548 5374 5374 5374 5374 5374 5374 5374 5291 5291 5291 5210 5210 5132 5132 5132 5132 5132 5210 5210 5210 5291 5291 5291 5374 5374 5374 5374 5374 5291 5210 5210 5210 5210 5210 5210 5210 5210 5210 5210 5210 5210 5210 5210 5291 5291 5291 5374 5374 5374 5374 5460 5460 5460 5548 5548 5548 5548 5548 2271 2271 2271 2271 2271 2271 2271 2271 2271 2271 2271 2271 2271 2271 2271 2271 2271 2271 2271 2271 2271 2256 2256 2256 2256 2256 2241 2226 2226 2226 2241 2241 2226 2226 2226 2212 2212 2212 2198 2198 2212 2212 2212 2212 2212 2212 2212 2212 2198 2198 2198 2198 2184 2184 2198 2198 2198 2198 2198 2184 2184 2156 2156 2156 2156 2156 2156 2156 2156 2156 2143 2143 2143 2129 2129 2129 2129 2129 2129 2129 2143 2143 2156 2156 2170 2170 3208 3238 3238 3238 3238 3238 3238 3208 3208 3178 3178 3178 3178 3178 3178 3178 3178 3178 3178 3178 3178 3178 3178 3178 3178 3178 3178 3178 3178 3178 3178 3178 3178 3149 3149 3149 3120 3120 3120 3092 3092 3092 3092 3092 3092 3092 3092 3092 3092 3092 3092 3092 3092 3092 3092 3092 3092 3092 3064 3037 3037 3037 1959 1959 1959 1970 1970 1970 1981 1981 1981 1981 1981 1981 1981 1981 1981 1970 1970 1959 1959 1959 1959 1959 1947 1947 1947 1947 1947 1947 1947 1947 1947 1936 1936 1936 1936 1936 1936 1936 1936 1936 1936 1936 1936 1936 1915 1915 1915 1926 1915 1915 1926 1926 1926 1926 1904 1904 1904 1894 1894 1894 1894 1894 1894 1904 1904 1904 1904 1904 4089 4089 4089 4089 4139 4139 4139 1843 1843 5291 5291 5210 5210 5210 5210 5210 5291 5210 5210 5291 5210 5210 1804 1804 5132 1804 1804 5210 5210 5210 5210 5210 5210 5291 5291 5291 5291 5291 5291 5374 5548 5734 5734 5832 5933 5933 6038 6038 6038 6038 6038 6038 6038 5933 5933 5832 5548 5374 5374 0 0 0 0 0 0 0 0 0 0 0 0 0
0 0 0 0 0 0 0 0 0 0 0 0 0 0 0 0 0 0 0 0 0 0 0 0 0 0 0 0 0 0 0 0 0 2560 2560 2579 2579 2579 2579 2579 2598 2598 2598 2598 2618 2618 2618 2618 2618 2639 2639 2639 2639 2659 2659 2659 2639 2639 2659 2680 2680 2701 2701 2701 2701 2701 2723 2723 2723 2723 2723 2723 2744 2744 2744 2744 2744 2744 2744 2744 2767 2767 2767 2767 2767 2789 2789 2789 2789 2812 2812 2835 2835 2859 2859 2859 2859 2859 2883 2908 2933 2933 2933 2958 2958 2958 2958 2958 2958 2958 2958 2958 2958 2984 2984 2984 2984 2984 3010 3010 3010 3037 3037 3037 3037 3064 3064 3064 3064 3064 3064 3064 3064 3092 3092 3092 3120 3120 3149 3149 3178 3178 3178 3178 3178 3208 3208 3208 3208 3208 3238 3238 3238 3238 3208 3208 3238 3238 3269 3269 3300 3300 3300 3300 3333 3333 3333 3365 3399 3399 3399 3399 3433 3433 3433 3433 3433 3433 3433 3433 3433 3433 3468 3468 3468 3503 3503 3539 3539 3539 3539 3539 3539 3539 3576 3576 3576 3576 3576 3576 3614 3614 3653 3653 3653 3692 3692 3692 3692 3732 3732 3732 3732 3732 3774 3774 3816 3816 3859 3903 3903 3903 3903 3903 3903 0 0 0 0 0 0 5548 5548 5548 5548 5548 5548 5548 5460 5460 5460 5548 5548 5548 5640 5640 5640 5640 5640 5734 5640 5640 5640 5640 5640 5548 5548 5640 5640 5640 5640 5640 5640 5640 5640 5640 5734 5734 5734 5734 5734 5548 5548 5548 5548 5548 5548 5548 5548 5548 5548 5548 5548 5548 5640 5548 5548 5548 5548 5548 5460 5460 5460 5460 5374 5374 5374 5374 5374 5374 5374 5291 5291 5291 5210 5210 5132 5132 5132 5210 5210 5210 5210 5210 5291 5374 5374 5374 5374 5374 5374 5374 5291 5210 5210 5210 5210 5210 5210 5210 5210 5210 5210 5210 5210 5210 5210 5291 5291 5291 5374 5374 5374 5460 5460 5460 5460 5548 5548 5548 5548 5548 2256 2256 2256 2271 2271 2271 2271 2271 2271 2271 2271 2271 2271 2271 2271 2271 2286 2271 2271 2286 2286 2256 2256 2256 2256 2241 2226 2226 2226 2226 2241 2241 2241 2226 2226 2212 2212 2212 2198 2198 2212 2212 2212 2212 2226 2212 2212 2212 2198 2198 2198 2198 2184 2184 2184 2198 2184 2184 2184 2184 2184 2170 2156 2156 2156 2156 2156 2156 2156 2156 2143 2143 2129 2129 2129 2129 2129 2129 2129 2129 2143 2143 2156 2170 2184 2184 3208 3208 3238 3238 3238 3238 3208 3208 3208 3178 3178 3178 3178 3178 3178 3178 3178 3178 3178 3178 3178 3178 3178 3178 3178 3178 3178 3178 3178 3178 3178 3178 3178 3149 3149 3120 3120 3120 3120 3120 3092 3092 3092 3092 3092 3092 3092 3092 3092 3092 3092 3092 3092 3092 3092 3092 3092 3092 3092 3037 3037 3037 1959 1959 1959 1970 1970 1970 1981 1981 1981 1981 1981 1981 1981 1981 1981 1970 1970 1959 1959 1959 1959 1959 1947 1947 1947 1947 1947 1947 1947 1947 1947 1936 1936 1936 1936 1936 1936 1936 1936 1936 1936 1936 1936 1936 1926 1926 1926 1926 1926 1926 1926 1915 1915 1915 1904 1894 1894 1894 1894 1894 1894 1894 1894 1894 1894 1904 1894 1894 1894 1894 4089 1853 1853 1843 1843 1843 1843 5374 5291 5291 5291 5210 5210 5210 5291 5210 5210 5291 5210 1804 1804 1804 1804 1804 1804 1804 5210 5210 5210 5210 5210 5291 5291 5374 5291 5291 5291 5374 5548 5640 5734 5832 5933 5933 6038 6038 6038 6038 6038 6038 5933 5933 5832 5548 5460 5374 5374 0 0 0 0 0 0 0 0 0 0 0 0 0
0 0 0 0 0 0 0 0 0 0 0 0 0 0 0 0 0 0 0 0 0 0 0 0 0 0 0 0 0 0 0 0 0 2560 2560 2560 2579 2579 2579 2579 2598 2598 2598 2598 2618 2618 2618 2618 2618 2639 2639 2639 2639 2659 2659 2659 2639 2639 2659 2680 2680 2701 2701 2701 2701 2701 2723 2723 2723 2723 2723 2723 2744 2744 2744 2744 2744 2744 2744 2767 2767 2767 2767 2767 2789 2789 2789 2789 2789 2812 2835 2835 2835 2859 2859 2859 2859 2859 2883 2883 2908 2933 2933 2933 2958 2958 2958 2958 2958 2958 2958 2958 2958 2984 2984 2984 2984 3010 3010 3010 3010 3037 3037 3037 3037 3064 3064 3064 3064 3064 3064 3064 3092 3092 3092 3092 3120 3120 3149 3149 3178 3178 3178 3178 3178 3208 3208 3208 3208 3208 3238 3238 3238 3238 3208 3208 3238 3269 3269 3300 3300 3300 3300 3300 3333 3333 3365 3365 3399 3399 3399 3399 3433 3433 3433 3433 3433 3433 3433 3433 3433 3433 3468 3468 3468 3503 3503 3539 3539 3539 3539 3539 3539 3539 3576 3576 3576 3576 3576 3614 3614 3614 3653 3653 3653 3692 3692 3692 3692 3732 3732 3732 3732 3732 3774 3774 3816 3816 3859 3859 3903 3903 3903 3948 3948 0 0 0 0 0 0 0 0 5548 5548 5548 5548 5548 5460 5460 5460 5548 5548 5548 5640 5640 5640 5734 5734 5734 5734 5734 5734 0 0 0 0 0 0 5640 5640 5640 5640 5640 5640 5640 5734 5832 5832 5832 5832 5640 5548 5548 5548 5548 5548 5548 5548 5548 5548 5640 5640 5640 5640 5548 5548 5548 5460 5460 5548 5460 5460 5460 5374 5374 5374 5374 5374 5374 5374 5291 5291 5291 5210 5210 5132 5132 5132 5132 5132 5210 5210 5291 5291 5291 5374 5374 5374 5374 5374 5374 5291 5210 5210 5210 5210 5210 5210 5210 5210 5210 5210 5210 5291 5291 5291 5291 5291 5291 5374 5374 5374 5460 5460 5460 5460 5548 5548 5548 5548 5548 2256 2256 2256 2271 2271 2271 2271 2271 2271 2271 2271 2271 2271 2271 2271 2271 2271 2271 3208 3208 3208 3178 3178 2256 2256 2241 2212 2212 2212 2212 2212 2212 3120 3238 2212 2212 2212 2212 2198 2198 2212 2212 2212 2212 2226 2212 2212 2212 2198 2198 2198 2198 2198 2184 2184 2198 2184 2184 2184 2184 2170 2156 2156 2156 2156 2156 2156 2156 2156 2143 2143 2129 2129 2129 2129 2129 2129 2129 2143 2143 2143 2156 2156 2170 2184 2184 3178 3208 3208 3208 3208 3208 3208 3208 3208 3178 3178 3178 3178 3178 3178 3178 3178 3178 3178 3178 3178 3178 3178 3149 3149 3178 3178 3178 3178 3178 3178 3178 3178 3149 3149 3120 3120 3120 3120 3120 3092 3092 3092 3092 3092 3092 3092 3092 3092 3092 3092 3092 3092 3092 3092 3092 3092 3092 3092 3064 3064 3064 1959 1959 1959 1970 1970 1981 1981 1981 1981 1981 1981 1981 1981 1981 1981 1970 1970 1959 1959 1959 1959 1959 1947 1947 1947 1947 1947 1947 1947 1947 1947 1947 1947 1947 1936 1936 1936 1936 1936 1936 1936 1936 1936 1936 1926 1926 1926 1926 1926 1926 1926 1915 1915 1915 1904 1894 1894 1894 1894 1894 1894 1894 1894 1894 1894 1894 1894 1894 1894 1883 1873 1853 1853 1843 1843 1843 1843 5374 5374 5291 5291 5291 5210 5210 5291 5291 1804 1804 1804 1804 1804 1804 1804 1804 1804 1804 5210 5210 5210 5210 5210 5291 5291 5374 5291 5291 5291 5374 5548 5640 5832 5933 5933 5933 6038 6038 6038 6038 6038 5933 5933 5832 5640 5548 5460 5374 5374 0 0 0 0 0 0 0 0 0 0 0 0 0
0 0 0 0 0 0 0 0 0 0 0 0 0 0 0 0 0 0 0 0 0 0 0 0 0 0 0 0 0 0 0 0 0 2560 2560 2560 2560 2560 2579 2579 2598 2598 2598 2598 2618 2618 2618 2618 2618 2639 2639 2639 2639 2659 2659 2659 2659 2659 2659 2680 2680 2701 2701 2701 2701 2701 2723 2723 2723 2723 2723 2723 2744 2744 2744 2744 2744 2744 2744 2767 2767 2767 2767 2767 2789 2789 2789 2789 2812 2812 2835 2835 2835 2859 2859 2859 2859 2859 2883 2883 2908 2933 2933 2933 2958 2958 2958 2958 2958 2958 2958 2958 2984 2984 2984 2984 2984 3010 3010 3010 3037 3037 3037 3037 3037 3064 3064 3064 3064 3064 3064 3064 3092 3092 3092 3120 3120 3149 3149 3178 3178 3178 3178 3178 3178 3208 3208 3208 3208 3208 3238 3238 3238 3269 3238 3238 3269 3269 3269 3300 3300 3300 3300 3300 3333 3333 3365 3365 3399 3399 3399 3399 3433 3433 3433 3433 3433 3433 3433 3433 3433 3433 3468 3468 3468 3503 3539 3539 3539 3539 3539 3539 3539 3576 3576 3576 3576 3576 3576 3614 3614 3614 3653 3653 3653 3692 3692 3692 3692 3732 3732 3732 3732 3732 3774 3774 3816 3816 3859 3859 3859 3903 3903 3948 0 0 0 0 0 0 0 0 5548 5548 5548 5548 5548 5548 5460 5460 5460 5548 5548 5548 5640 5640 5832 5933 5933 5933 5933 0 0 0 0 0 0 0 0 0 0 0 0 0 0 5832 5832 5933 5933 5933 5933 5933 5640 5640 5548 5460 5460 5548 5548 5548 5640 5640 5640 5640 5640 5548 5548 5460 5460 5460 5460 5460 5460 5460 5374 5374 5374 5374 5460 5460 5460 5291 5291 5291 5210 5132 5132 5132 5132 5132 5132 5132 5210 5291 5291 5291 5374 5374 5374 5374 5374 5374 5291 5210 5210 5210 5210 5210 5210 5210 5210 5210 5210 5210 5291 5291 5291 5291 5291 5291 5374 5374 5374 5460 5460 5460 5460 5548 5548 5548 5548 0 2256 2256 2256 2271 2271 2271 2271 2271 2271 2271 2271 2271 2271 2271 2271 2271 2271 3208 3208 3208 3208 3178 3178 3208 3178 3178 2212 2198 2198 2212 2212 3120 3120 3238 3238 3238 3300 3269 3269 3269 3269 3269 3300 3300 3333 2226 2212 2212 2198 2198 2212 2198 2198 2198 2198 2198 2184 2184 2184 2184 2170 2156 2156 2156 2156 2156 2156 2156 2156 2143 2143 2129 2129 2129 2129 2129 2129 2143 2143 2143 2143 2156 2156 2156 3178 3149 3149 3178 3208 3208 3208 3208 3208 3208 3178 3178 3178 3178 3178 3178 3178 3178 3178 3178 3178 3178 3178 3178 3149 3149 3149 3149 3178 3178 3178 3178 3178 3178 3178 3178 3149 3120 3120 3149 3120 3120 3120 3092 3092 3092 3092 3092 3092 3092 3092 3092 3092 3092 3092 3092 3092 3092 3092 3092 3092 3064 3064 1970 1970 1970 1970 1981 1981 1981 1981 1981 1981 1981 1981 1981 1981 1981 1981 1970 1970 1959 1959 1959 1959 1959 1947 1947 1947 1947 1947 1947 1947 1947 1947 1947 1947 1947 1936 1936 1936 1936 1936 1936 1936 1936 1936 1936 1926 1926 1926 1926 1926 1926 1926 1915 1915 1915 1904 1894 1894 1894 1894 1894 1894 1894 1894 1894 1894 1894 1894 1894 1894 1883 1873 1863 1863 1853 1853 1853 1853 1853 1863 5291 5291 5291 5291 5291 1823 1804 1804 1804 1804 1804 1804 1804 1804 1813 1804 1804 1813 1813 5210 5210 5210 5291 5291 5460 5374 5374 5374 5374 5548 5734 5832 5933 5933 5933 6038 6038 6038 6038 6038 5933 5933 5734 5640 5548 5460 5374 5374 0 0 0 0 0 0 0 0 0 0 0 0 0
0 0 0 0 0 0 0 0 0 0 0 0 0 0 0 0 0 0 0 0 0 0 0 0 0 0 0 0 0 0 0 0 0 2560 2560 2560 2560 2560 2579 2579 2598 2598 2598 2598 2618 2618 2618 2618 2618 2639 2639 2639 2659 2659 2659 2659 2659 2659 2680 2680 2680 2701 2701 2701 2701 2701 2723 2723 2723 2723 2723 2723 2744 2744 2744 2744 2744 2744 2767 2767 2767 2767 2767 2767 2789 2789 2789 2789 2812 2835 2835 2859 2859 2859 2859 2859 2859 2859 2883 2883 2908 2933 2933 2933 2958 2958 2958 2958 2958 2958 2958 2984 2984 2984 2984 2984 3010 3010 3010 3010 3037 3037 3037 3037 3037 3064 3064 3064 3064 3064 3064 3064 3092 3092 3092 3120 3120 3120 3149 3178 3178 3178 3178 3178 3178 3208 3208 3208 3208 3208 3238 3238 3238 3269 3238 3238 3269 3269 3269 3300 3300 3300 3300 3333 3333 3333 3365 3365 3399 3399 3399 3399 3433 3433 3433 3433 3433 3433 3433 3433 3433 3468 3468 3468 3468 3503 3539 3539 3539 3539 3539 3539 3539 3576 3576 3576 3576 3576 3576 3614 3614 3614 3653 3653 3653 3692 3692 3692 3732 3732 3732 3732 3732 3732 3774 3774 3816 3816 3816 3859 3859 3859 3859 3903 0 0 0 0 0 0 0 5548 5548 5548 5460 5460 5548 5548 5460 5460 5460 5548 5548 5640 5640 5734 5832 5832 5832 5933 0 0 0 0 0 0 0 0 0 0 0 0 0 0 0 6038 6038 6038 6038 6038 6146 6146 6146 6146 6146 5460 5460 5548 5548 5548 5640 5640 5640 5640 5548 5548 5460 5460 5460 5460 5460 5460 5460 5460 5374 5374 5374 5374 5460 5460 5374 5291 5291 5291 5210 5132 5056 5056 5056 5132 5132 5132 5210 5291 5291 5291 5374 5374 5374 5374 5374 5374 5374 5210 5210 5210 5210 5210 5210 5210 5210 5210 5210 5210 5291 5291 5291 5291 5291 5291 5374 5374 5460 5460 5460 5460 5548 5548 5548 5548 5548 0 2271 2271 2271 2271 2271 2271 2271 2271 2271 2271 2271 2271 2271 2271 2271 2317 2317 3208 3208 3178 3178 3149 3149 3178 3149 3149 3149 2198 2198 2212 2212 3120 3120 3120 3238 3238 3269 3238 3238 3238 3238 3269 3300 3300 3300 3269 3269 2212 2212 3178 3149 3149 3120 2198 2198 2198 2184 2170 2170 2170 2170 2156 2156 2156 2156 2156 2156 2156 2156 2143 2143 2129 2129 2129 2129 2129 2129 2143 2143 2143 2143 2156 2156 2156 2184 3149 3149 3178 3178 3178 3178 3178 3178 3178 3178 3149 3149 3178 3178 3178 3178 3178 3178 3178 3178 3149 3149 3149 3149 3120 3120 3149 3149 3178 3178 3178 3178 3178 3178 3178 3149 3120 3120 3149 3149 3120 3120 3120 3120 3120 3120 3120 3092 3092 3092 3092 3092 3092 3092 3092 3092 3092 3092 3092 3092 3092 3092 1970 1970 1970 1981 1981 1981 1981 1981 1981 1981 1981 1981 1981 1981 1981 1981 1981 1970 1959 1959 1959 1959 1959 1947 1947 1947 1947 1947 1947 1947 1947 1947 1947 1947 1947 1936 1936 1936 1936 1936 1936 1936 1936 1936 1936 1926 1926 1926 1926 1926 1926 1926 1915 1915 1915 1904 1904 1904 1904 1894 1894 1894 1894 1894 1894 1894 1894 1894 1894 1894 1883 1883 1873 1863 1863 1863 1853 1853 1863 1863 1863 1853 1843 1843 1833 1823 1804 1804 1804 1804 1804 1813 1813 1813 1813 1813 1813 1813 1813 1813 1813 1813 1804 5460 5460 5460 5460 5548 5548 5640 5832 5933 5933 5933 6038 6038 6038 6038 6038 6038 5933 5933 5640 5548 5548 5374 5291 5291 0 0 0 0 0 0 0 0 0 0 0 0 0
0 0 0 0 0 0 0 0 0 0 0 0 0 0 0 0 0 0 0 0 0 0 0 0 0 0 0 0 0 0 0 0 0 2560 2560 2560 2560 2560 2579 2579 2598 2598 2598 2598 2618 2618 2618 2618 2618 2639 2639 2639 2639 2659 2659 2659 2659 2659 2659 2680 2680 2701 2701 2701 2701 2701 2723 2723 2723 2701 2701 2723 2744 2744 2744 2767 2767 2767 2767 2767 2767 2767 2767 2767 2789 2789 2789 2812 2812 2812 2835 2859 2859 2859 2859 2883 2859 2859 2883 2908 2933 2933 2933 2958 2958 2958 2958 2958 2958 2958 2958 2984 2984 2984 2984 2984 2984 3010 3010 3010 3037 3037 3064 3064 3064 3064 3064 3064 3064 3064 3064 3064 3092 3092 3092 3092 3120 3120 3149 3178 3178 3178 3178 3178 3178 3208 3208 3208 3208 3208 3238 3238 3238 3269 3238 3238 3269 3269 3269 3300 3300 3300 3333 3333 3333 3333 3333 3365 3365 3365 3399 3399 3399 3433 3399 3399 3433 3433 3433 3433 3433 3468 3468 3468 3468 3503 3503 3503 3539 3539 3539 3539 3539 3539 3539 3576 3576 3576 3576 3614 3614 3614 3653 3653 3653 3692 3692 3692 3732 3732 3732 3732 3732 3732 3774 3774 3774 3774 3816 3859 3859 3859 3859 3903 0 0 0 0 0 0 0 5548 5548 5548 5460 5460 5548 5548 5460 5460 5460 5548 5640 5640 5640 5734 5832 5832 5832 5933 0 0 0 0 0 0 0 0 0 0 0 0 0 0 0 6038 6038 6038 6038 6038 6259 6146 6146 6038 6038 5548 5548 5548 5548 5548 5548 5640 5640 5640 5548 5548 5460 5460 5460 5460 5460 5460 5460 5460 5460 0 0 0 0 5548 5374 5291 5291 5291 5210 5132 5056 5056 5056 5132 5132 5132 5210 5291 5291 5374 5374 5460 5460 5374 5374 5374 5374 5291 5210 5210 5210 5210 5210 5210 5210 5210 5210 5210 5210 5291 5291 5291 5374 5374 5460 5460 5460 5460 5548 5548 5548 5548 5548 5640 5640 5832 2271 2271 2271 2271 2271 2271 2271 2271 2271 2286 2286 2286 2286 2286 2286 2317 2317 3178 3178 3149 3149 3120 3120 3120 3120 3120 3120 3120 3092 3092 3092 3120 3120 3120 3120 3120 3149 3120 3120 3149 3149 3208 3208 3208 3178 3178 3208 3238 3178 3178 3149 3149 3120 3092 3092 3120 2184 2170 2170 2156 2156 2143 2143 2156 2156 2156 2156 2156 2156 2143 2129 2129 2129 2129 2129 2129 2129 2143 2143 2143 2143 2156 2156 2170 2184 3120 3120 3149 3149 3149 3178 3149 3149 3149 3178 3149 3149 3149 3178 3178 3178 3178 3178 3178 3149 3149 3120 3120 3120 3120 3120 3120 3149 3149 3178 3178 3178 3178 3178 3178 3149 3149 3149 3149 3149 3120 3120 3120 3120 3120 3120 3120 3120 3092 3092 3092 3092 3092 3092 3092 3092 3092 3092 3092 3092 3092 1993 1970 1970 1970 1981 1981 1981 1981 1981 1981 1981 1981 1981 1981 1981 1981 1970 1970 1970 1959 1959 1959 1959 1959 1947 1947 1947 1947 1947 1947 1947 1947 1947 1947 1947 1936 1936 1936 1936 1936 1936 1936 1926 1926 1926 1926 1926 1926 1926 1926 1926 1926 1926 1915 1915 1915 1904 1904 1904 1904 1904 1894 1894 1894 1894 1894 1894 1894 1894 1894 1894 1883 1883 1873 1863 1863 1863 1863 1863 1863 1863 1863 1853 1853 1843 1833 1823 1804 1804 1804 1813 1813 1813 1813 1813 1813 1813 1813 1813 1813 1813 1804 1804 1804 0 5548 5548 5548 5640 5640 5734 5832 5933 5933 5933 6038 6038 6038 6038 6038 6038 5933 5933 5640 5548 5460 5374 5291 5291 0 0 0 0 0 0 0 0 0 0 0 0 0
0 0 0 0 0 0 0 0 0 0 0 0 0 0 0 0 0 0 0 0 0 0 0 0 0 0 0 0 0 0 0 0 0 2560 2560 2560 2560 2579 2579 2579 2598 2598 2598 2598 2598 2598 2618 2618 2618 2639 2639 2639 2639 2659 2659 2659 2659 2659 2659 2680 2680 2701 2701 2701 2701 2701 2723 2723 2723 2701 2701 2723 2723 2744 2744 2767 2767 2767 2767 2767 2767 2767 2767 2789 2789 2789 2789 2812 2812 2812 2835 2859 2859 2859 2859 2883 2883 2883 2883 2908 2933 2933 2933 2958 2958 2958 2958 2958 2958 2984 2984 2984 2984 2984 2984 2984 2984 3010 3010 3010 3037 3037 3064 3064 3064 3064 3064 3064 3064 3064 3064 3064 3092 3092 3092 3092 3120 3120 3149 3178 3178 3178 3178 3208 3208 3208 3208 3208 3208 3208 3238 3238 3238 3269 3238 3238 3269 3269 3269 3300 3300 3300 3333 3333 3333 3333 3333 3365 3365 3365 3399 3399 3399 3433 3399 3399 3433 3433 3433 3433 3433 3468 3468 3468 3468 3468 3468 3503 3539 3539 3539 3539 3539 3539 3539 3576 3576 3576 3614 3614 3653 3653 3653 3653 3653 3692 3692 3692 3732 3732 3732 3732 3732 3732 3774 3774 3774 3774 3816 3859 3859 3859 3859 0 0 0 0 0 0 0 0 5640 5548 5548 5460 5460 5548 5548 5460 5460 5460 5548 5640 5640 5734 5734 5832 5832 5832 5933 0 0 0 0 0 0 0 0 0 0 0 0 0 0 0 6375 6038 6038 6146 6146 6259 6259 6146 6038 6038 5548 5548 5548 5548 5548 5548 5640 5640 5640 5548 5548 5460 5460 5460 5460 5548 5548 5548 5548 5548 0 0 0 0 0 0 5291 5291 5210 5210 5132 5056 5056 5056 5132 5132 5132 5210 5291 5291 5374 5374 5460 5548 5460 5460 5548 5548 5374 5210 5210 5210 5210 5210 5210 5210 5210 5210 5210 5210 5291 5291 5291 5291 5291 5460 5460 5460 0 5734 5734 5734 5640 5640 5734 5832 5832 2271 2271 2271 2271 2271 2286 2286 2271 2271 2286 2286 2286 2286 2286 2286 2286 3149 3149 3149 3149 3149 3120 3120 3120 3120 3092 3092 3092 3092 3064 3064 3064 3064 3092 3092 3092 3092 3120 3120 3120 3120 3120 3120 3120 3120 3120 3120 3120 3120 3120 3120 3120 3120 3092 3092 3120 3120 3120 2170 2156 2156 2143 2143 3064 2156 2156 2156 2156 2143 2116 2116 2129 2129 2129 2129 2129 2129 2143 2143 2143 2156 2156 2156 3092 3092 3092 3092 3120 3120 3120 3120 3120 3120 3120 3149 3120 3120 3149 3149 3149 3178 3178 3178 3149 3092 3092 3092 3092 3092 3092 3092 3092 3120 3149 3178 3178 3178 3178 3178 3178 3149 3149 3149 3149 3149 3149 3149 3149 3149 3120 3120 3120 3120 3092 3092 3092 3064 3064 3064 3064 3064 3092 3092 3092 3092 3092 1993 1970 1970 1981 1981 1981 1981 1981 1981 1981 1981 1981 1981 1981 1981 1981 1970 1970 1959 1959 1959 1959 1959 1959 1959 1947 1947 1947 1947 1947 1947 1947 1947 1947 1947 1936 1936 1936 1936 1936 1936 1936 1926 1926 1926 1926 1926 1926 1926 1926 1926 1926 1926 1915 1915 1915 1904 1904 1904 1904 1904 1904 1894 1894 1894 1894 1894 1894 1894 1894 1894 1883 1883 1883 1873 1873 1863 1863 1863 1853 1853 1853 1853 1853 1843 1843 1843 1823 1813 1813 1813 1813 1813 1813 1813 1813 1813 1813 1813 1813 1813 1804 1804 1804 0 5832 0 0 5734 5734 5734 5832 5933 5933 5933 6038 6038 6038 6038 6038 5933 5933 5832 5640 5548 5460 5374 5374 5374 0 0 0 0 0 0 0 0 0 0 0 0 0
0 0 0 0 0 0 0 0 0 0 0 0 0 0 0 0 0 0 0 0 0 0 0 0 0 0 0 0 0 0 0 0 0 2560 2560 2560 2560 2579 2579 2579 2598 2598 2598 2598 2598 2598 2618 2618 2618 2639 2639 2639 2639 2659 2659 2659 2659 2680 2680 2680 2701 2701 2701 2701 2701 2701 2723 2723 2723 2701 2701 2723 2723 2744 2744 2767 2767 2767 2767 2767 2767 2767 2767 2789 2789 2789 2789 2812 2812 2835 2835 2859 2859 2859 2859 2883 2883 2883 2883 2908 2908 2908 2933 2958 2958 2958 2958 2958 2958 2984 2984 2984 2984 2984 2984 2984 2984 2984 3010 3010 3037 3037 3037 3064 3064 3064 3064 3064 3064 3064 3064 3064 3092 3092 3092 3092 3120 3120 3149 3178 3178 3178 3178 3208 3208 3208 3208 3208 3238 3238 3238 3238 3269 3269 3238 3238 3269 3269 3269 3300 3333 3333 3333 3333 3333 3365 3365 3365 3399 3399 3399 3399 3433 3433 3433 3433 3433 3433 3433 3433 3433 3468 3468 3468 3468 3468 3468 3503 3539 3503 3503 3539 3539 3539 3539 3576 3576 3576 3576 3614 3653 3653 3653 3653 3653 3692 3692 3732 3732 3732 3732 3732 3732 3732 3774 3774 3816 3816 3816 3859 3859 3859 3859 3948 0 0 0 0 0 0 0 5640 5548 5548 5460 5460 5548 5548 5548 5548 5548 5548 5640 5640 5734 5734 5734 5832 5933 5933 0 0 0 0 0 0 0 0 0 0 0 0 0 0 6375 6375 6038 6038 6146 6146 6259 6259 6146 6146 6146 5548 5548 5548 5548 5548 5640 5640 5640 5640 5548 5548 5460 5460 5460 5460 5548 5548 5548 5548 5640 0 0 0 0 0 0 0 5291 5210 5132 5132 5056 5056 5056 5056 5132 5132 5210 5291 5291 5374 5460 5548 5548 5548 5548 6038 6038 6038 5210 5210 5210 5210 5210 5210 5210 5210 5210 5210 5210 5291 5291 5291 5291 5291 0 0 0 0 5933 5832 5832 5640 5640 5734 5832 5832 2271 2271 2271 2286 2286 2286 2286 2286 2286 2286 2286 2286 2286 2301 2301 2301 3149 3149 3149 3149 3120 3120 3120 3120 3120 3092 3092 3092 3092 3064 3064 3064 3064 3092 3092 3092 3092 3120 3120 3120 3120 3120 3120 3092 3092 3092 3120 3120 3120 3120 3120 3092 3092 3092 3092 3120 3120 3120 3120 3092 3064 3064 3092 3064 3064 3064 3064 2143 2143 2116 2116 2129 2129 2129 2129 2129 2143 2143 2143 2156 2156 2156 2156 3037 3037 3064 3092 3092 3092 3092 3120 3120 3092 3092 3120 3092 3092 3092 3120 3149 3178 3178 3178 3149 3092 3037 3037 3010 3010 3037 3064 3064 3092 3120 3120 3149 3149 3149 3149 3149 3120 3120 3120 3120 3120 3120 3120 3120 3120 3120 3092 3092 3064 3064 3064 3064 3064 3064 3064 3064 3064 3064 3064 3064 3092 3092 1993 1970 1970 1981 1981 1981 1981 1981 1981 1981 1981 1981 1981 1981 1970 1970 1970 1970 1959 1959 1959 1959 1959 1959 1959 1947 1947 1947 1947 1947 1947 1947 1947 1947 1947 1947 1936 1936 1936 1936 1936 1936 1926 1926 1926 1926 1926 1926 1926 1926 1926 1926 1915 1915 1915 1904 1904 1904 1904 1904 1904 1904 1894 1894 1894 1894 1894 1894 1883 1883 1883 1883 1873 1873 1863 1863 1863 1863 1863 1853 1853 1853 1853 1853 1843 1843 1843 1843 1823 1823 1813 1813 1813 1813 1813 1813 1813 1813 1823 1813 1813 1813 1813 1813 0 0 0 5832 5832 5832 5832 5832 5933 5933 6038 6038 6038 6038 5933 5933 5933 5933 5832 5640 5548 5460 5374 5374 5374 0 0 0 0 0 0 0 0 0 0 0 0 0
0 0 0 0 0 0 0 0 0 0 0 0 0 0 0 0 0 0 0 0 0 0 0 0 0 0 0 0 0 0 0 0 0 2560 2560 2560 2560 2579 2579 2579 2598 2598 2598 2598 2598 2598 2618 2618 2639 2639 2639 2639 2639 2659 2659 2659 2659 2680 2680 2701 2701 2701 2701 2701 2701 2701 2723 2723 2723 2701 2701 2701 2744 2744 2767 2767 2767 2767 2767 2767 2767 2767 2789 2789 2789 2789 2789 2812 2812 2812 2835 2859 2859 2859 2859 2883 2883 2883 2883 2908 2908 2908 2933 2958 2958 2958 2958 2958 2984 2984 2984 2984 2984 2984 2984 2984 2984 2984 3010 3010 3010 3037 3037 3064 3064 3064 3064 3064 3064 3064 3064 3064 3092 3092 3092 3092 3120 3120 3149 3178 3178 3178 3178 3208 3208 3208 3208 3208 3238 3238 3238 3238 3269 3300 3269 3269 3269 3269 3300 3300 3300 3333 3333 3333 3333 3365 3365 3399 3399 3399 3399 3399 3433 3433 3433 3433 3433 3433 3433 3433 3468 3468 3468 3503 3503 3468 3468 3503 3539 3503 3503 3539 3539 3539 3539 3576 3576 3576 3576 3614 3614 3653 3653 3653 3653 3692 3692 3732 3732 3732 3732 3774 3774 3774 3774 3774 3816 3816 3816 3859 3859 3859 3859 3903 3903 0 0 0 0 0 0 5640 5548 5548 5460 5460 5548 5548 5548 5548 5548 5548 5640 5640 5734 5734 5734 5832 0 0 0 0 0 0 0 0 0 0 0 0 0 0 0 0 6375 6375 6038 6038 6038 6038 6259 6259 6146 6146 6146 5548 5548 5548 5548 5548 5548 5640 5640 5640 5548 5548 5460 5460 5460 5548 5548 5548 5640 5640 0 0 0 0 0 0 0 0 0 5132 5132 5132 5056 5056 5056 5056 5132 5132 5210 5291 5374 5374 5548 5734 6259 6259 6375 6259 6146 6146 6146 6146 5291 5291 5210 5210 5210 5210 5210 5210 5210 5291 5291 5291 5291 5291 0 0 0 0 0 5933 5933 5640 5640 5734 5832 5832 2271 2271 2271 2286 2286 2286 2286 2286 2286 2286 2286 2286 2286 2286 2317 2317 3149 3149 3149 3149 3120 3120 3120 3120 3120 3092 3092 3092 3092 3092 3092 3092 3092 3092 3092 3092 3092 3092 3120 3120 3092 3092 3092 3092 3092 3092 3120 3092 3092 3120 3120 3092 3092 3092 3092 3092 3120 3120 3120 3092 3092 3092 3092 3092 3064 3064 3064 3064 2116 2116 2116 2129 2129 2129 2129 2143 2143 2143 2143 2156 2156 2156 2156 3037 2908 2908 3037 3064 3037 3037 3037 3037 3037 3064 3064 3064 3064 3064 3064 3149 3149 2958 2908 2933 2933 2883 2883 2908 2984 3010 3037 3037 3064 3092 3092 3149 3149 3149 3149 3149 3120 3120 3120 3120 3120 3120 3120 3120 3092 3092 3092 3092 3064 3064 3064 3064 3064 3037 3037 3037 3037 3037 3037 3064 3092 1981 1981 1981 1981 1981 1981 1981 1981 1981 1981 1981 1981 1981 1981 1981 1970 1970 1970 1970 1959 1959 1959 1959 1959 1959 1959 1947 1947 1947 1947 1947 1947 1947 1947 1947 1947 1947 1936 1936 1936 1936 1936 1936 1926 1926 1926 1926 1926 1926 1926 1926 1926 1915 1915 1904 1904 1904 1894 1894 1894 1894 1894 1894 1894 1894 1894 1894 1894 1894 1883 1883 1883 1883 1873 1873 1863 1863 1863 1863 1853 1853 1853 1853 1853 1853 1843 1843 1843 1843 1823 1823 1823 1823 1823 1813 1813 1813 1813 1813 1823 1823 1813 1813 1813 0 0 0 0 5832 5832 5832 5832 5832 5933 6038 6038 6038 6038 6038 5933 5933 5933 5832 5832 5640 5548 5460 5374 5374 5374 0 0 0 0 0 0 0 0 0 0 0 0 0
0 0 0 0 0 0 0 0 0 0 0 0 0 0 0 0 0 0 0 0 0 0 0 0 0 0 0 0 0 0 0 0 0 2560 2560 2579 2579 2579 2579 2579 2598 2598 2598 2598 2598 2598 2618 2618 2639 2639 2639 2639 2639 2659 2659 2659 2659 2680 2680 2701 2701 2701 2701 2701 2701 2723 2723 2723 2723 2701 2701 2701 2744 2744 2767 2767 2767 2767 2767 2767 2767 2789 2789 2789 2789 2789 2789 2812 2812 2812 2835 2859 2859 2883 2883 2883 2883 2883 2908 2908 2908 2908 2908 2958 2958 2958 2958 2958 2984 2984 2984 2984 2984 2984 2984 2984 2984 3010 3010 3010 3010 3037 3037 3037 3037 3064 3064 3064 3064 3064 3092 3092 3092 3092 3092 3120 3120 3120 3149 3178 3178 3178 3178 3208 3208 3208 3208 3238 3238 3238 3238 3269 3300 3300 3269 3269 3269 3269 3300 3300 3300 3333 3333 3333 3333 3365 3365 3399 3399 3365 3365 3399 3399 3399 3433 3433 3433 3433 3433 3433 3433 3468 3468 3503 3503 3503 3503 3503 3539 3539 3539 3539 3539 3539 3539 3576 1483 1483 1483 1483 1483 3614 3614 3614 3614 3692 3692 3732 3732 3732 3732 3774 3774 3774 3774 3774 3816 3816 3816 3859 3859 3903 3903 3903 3903 0 0 0 0 0 0 5640 5548 5548 5460 5460 5548 5548 5548 5548 5548 5640 5640 5640 5734 5734 5734 5832 0 0 0 0 0 0 0 0 0 0 0 0 0 0 0 0 6375 6375 6038 6038 6038 6038 6259 6259 6259 6146 6146 5548 5548 5548 5548 5548 5548 5640 5640 5548 5548 5548 5548 5548 5548 5548 5548 5548 5640 5640 0 0 0 0 0 0 0 0 0 5132 5132 5132 5056 5056 5056 5132 5132 5210 5210 5291 5374 5548 5734 6146 6259 6375 6375 6259 6259 6146 6146 6146 6146 5933 5210 5210 5210 5210 5291 5210 5210 5291 5291 5374 5374 0 0 0 0 0 0 0 0 0 5832 5832 5832 2286 2286 2271 2271 2286 2286 2286 2286 2286 2286 2286 2286 2286 2286 2286 2317 3120 3120 3149 3149 3149 3120 3120 3120 3120 3120 3120 3120 3120 3092 3092 3092 3092 3092 3092 3092 3092 3092 3092 3120 3120 3092 3092 3092 3092 3092 3092 3120 3092 3092 3120 3120 3092 3092 3092 3092 3092 3120 3120 3120 3092 3092 3092 3092 3092 3064 3064 3064 3010 2116 2116 2116 2129 2129 2129 2129 2143 2143 2143 2143 2156 2156 2156 2156 2908 2908 2908 2958 2958 2984 2958 2958 2984 2984 2984 3010 2984 2984 3010 2984 2958 2958 2958 2908 2908 2908 2883 2883 2883 2908 2958 2984 3010 3037 3064 3064 3092 3092 3092 3092 3092 3092 3092 3092 3064 3064 3037 3037 3064 3064 3064 3064 3064 3064 3064 3064 3064 3037 3037 3010 3010 3037 3010 3010 3010 1981 1981 1981 1981 1981 1981 1981 1981 1981 1981 1981 1981 1981 1981 1981 1981 1970 1970 1970 1970 1970 1970 1959 1959 1959 1959 1959 1959 1959 1959 1947 1947 1947 1947 1947 1947 1947 1947 1936 1936 1936 1936 1936 1936 1926 1926 1926 1926 1926 1926 1926 1926 1926 1915 1915 1904 1904 1904 1894 1894 1894 1894 1894 1894 1894 1894 1894 1894 1894 1883 1883 1883 1883 1873 1873 1873 1863 1863 1863 1863 1853 1853 1853 1853 1853 1853 1843 1843 1843 1843 1823 1823 1823 1823 1823 1813 1813 1813 1813 1813 1813 1813 1813 1813 0 0 0 0 0 5933 5832 5832 5832 5832 5933 6038 6038 6038 6038 6038 5933 5933 5933 5832 5832 5640 5548 5548 5460 5460 5460 0 0 0 0 0 0 0 0 0 0 0 0 0
0 0 0 0 0 0 0 0 0 0 0 0 0 0 0 0 0 0 0 0 0 0 0 0 0 0 0 0 0 0 0 0 0 2560 2560 2579 2579 2579 2598 2598 2598 2598 2598 2598 2598 2618 2618 2618 2639 2639 2639 2639 2639 2659 2659 2659 2659 2680 2680 2701 2701 2701 2701 2701 2723 2723 2723 2723 2723 2723 2723 2723 2744 2767 2767 2767 2767 2767 2767 2767 2767 2767 2789 2789 2789 2789 2789 2812 2812 2835 2859 2859 2859 2883 2883 2883 2883 2908 2908 2933 2908 2908 2908 2958 2958 2958 2958 2958 2984 2984 2984 2984 2984 2984 2984 2984 2984 2984 2984 3010 3010 3037 3037 3037 3037 3064 3064 3064 3064 3064 3092 3092 3092 3092 3092 3120 3120 3120 3149 3178 3178 3208 3208 3208 3208 3208 3208 3238 3238 3238 3238 3269 3300 3300 3269 3269 3269 3269 3300 3333 3333 3333 3333 3333 3333 3365 3365 3365 3365 3365 3365 3399 3399 3399 3433 3433 3433 3433 3433 3433 3433 3468 3468 3503 3503 3503 3503 3503 3539 3539 3539 3539 1483 1483 1483 1483 1477 1477 1483 1483 1483 1483 1483 1483 1483 3692 3692 3692 3732 3732 3774 3774 3774 3774 3774 3774 3816 3816 3859 3859 3903 3903 3903 3903 3903 0 0 0 0 0 0 5548 5548 5548 5548 5548 5548 5548 5548 5548 5548 5640 5640 5640 5734 5734 5734 5832 0 0 0 0 0 0 0 0 0 0 0 0 0 0 0 0 6375 6259 6038 6038 6146 6146 6259 6259 6259 6146 6146 5548 5548 5548 5548 5548 5548 5640 5548 5548 5548 5548 5460 5460 5460 5548 5548 5640 5640 5640 0 0 0 0 0 0 0 0 0 5132 5132 5132 5056 5056 5132 5132 5132 5210 5210 5374 5460 5734 6038 6146 6259 6375 6375 6375 6375 6259 6259 6375 6259 6259 5210 5210 5210 5210 5210 5210 5210 5291 5374 5460 0 0 0 0 0 0 0 0 0 0 0 0 0 2286 2286 2286 2286 2286 2286 2286 2286 2286 2286 2286 2286 2286 2286 2301 2301 3120 3120 3149 3149 3149 3149 3120 3120 3149 3149 3120 3120 3120 3120 3092 3092 3092 3092 3092 3092 3092 3092 3120 3120 3120 3092 3092 3092 3092 3092 3092 3120 3092 3092 3120 3120 3120 3120 3092 3092 3120 3120 3120 3120 3092 3092 3092 3092 3092 3064 3064 3010 3010 3010 2129 2129 2129 2129 2143 2143 2143 2143 2143 2143 2156 2156 2156 2156 2908 2908 2908 2933 2933 2933 2958 2958 2958 2958 2958 2958 2958 2958 2933 2933 2933 2883 2883 2883 2883 2883 2883 2883 2883 2908 2958 2984 2984 3010 3037 3037 3064 3064 3092 3092 3092 3092 3092 3092 3064 3064 3037 3037 3037 3037 3037 3064 3064 3064 3064 3037 3037 3037 3010 2984 2984 2984 3010 3010 3010 1981 1981 1981 1981 1981 1981 1981 1981 1981 1981 1981 1981 1981 1981 1981 1981 1970 1970 1970 1970 1970 1970 1959 1959 1959 1959 1959 1959 1959 1959 1947 1947 1947 1947 1947 1947 1947 1947 1936 1936 1936 1936 1936 1936 1936 1936 1936 1936 1926 1926 1926 1926 1926 1926 1915 1915 1915 1904 1904 1904 1894 1894 1904 1894 1894 1894 1894 1894 1894 1883 1883 1883 1883 1873 1873 1863 1863 1863 1863 1863 1863 1853 1853 1853 1853 1853 1843 1843 1843 1843 1823 1823 1823 1823 1813 1813 1813 1813 1813 1813 1813 1813 1813 1813 0 0 0 0 0 5933 5933 5933 5933 5933 5933 6038 6038 6038 6038 6038 6038 6038 6038 5933 5832 5640 5460 5460 5460 5460 5460 0 0 0 0 0 0 0 0 0 0 0 0 0
0 0 0 0 0 0 0 0 0 0 0 0 0 0 0 0 0 0 0 0 0 0 0 0 0 0 0 0 0 0 0 0 0 2560 2560 2579 2579 2598 2598 2598 2598 2618 2618 2618 2618 2618 2618 2639 2639 2639 2639 2639 2639 2659 2659 2659 2659 2680 2701 2701 2701 2701 2701 2723 2723 2723 2723 2723 2723 2723 2723 2723 2744 2744 2744 2744 2767 2767 2767 2767 2767 2767 2789 2789 2789 2789 2789 2812 2812 2835 2859 2859 2859 2859 2883 2883 2883 2908 2933 2958 2908 2908 2908 2933 2958 2958 2958 2958 2984 2984 2984 2984 2984 2984 2984 2984 2984 2984 2984 3010 3010 3037 3037 3064 3064 3064 3064 3064 3092 3092 3092 3092 3092 3092 3092 3120 3120 3149 3149 3178 3178 3208 3208 3208 3208 3208 3238 3238 3238 3269 3269 3269 3300 3300 3269 3269 3269 3269 3300 3333 3333 3365 3365 3333 3333 3365 3365 3732 3732 3399 3399 3399 3399 3399 3433 3433 3433 3433 3433 3433 3433 3468 3468 3503 3539 3539 3539 3539 3539 1483 1483 1483 1483 1483 1483 1483 1477 1477 1483 1483 1483 1483 1483 1483 1483 3653 3692 3692 3732 3732 3774 3774 3774 3774 3774 3774 3816 3816 3859 3859 3903 3903 3903 3903 3948 0 0 0 0 0 0 5548 5548 5548 5548 5548 5548 5548 5548 5548 5548 5640 5640 5734 5734 5734 5832 5832 0 0 0 0 0 0 0 0 0 0 0 0 0 0 0 0 6375 6259 6146 6146 6146 6146 6259 6259 6259 6146 6146 5640 5548 5548 5548 5548 5548 5640 5548 5548 5548 5548 5460 5460 5460 5548 5548 5640 5640 5734 0 0 0 0 0 0 0 0 0 5132 5056 5056 5056 5132 5132 5132 5210 5210 5291 5374 5374 5734 6038 6146 6375 6375 6497 6375 6375 6375 6375 6375 6375 6375 5210 5132 5132 5132 5210 5210 5210 5291 5460 5460 0 0 0 0 0 0 0 0 0 0 0 0 0 2286 2286 2286 2286 2286 2286 2286 2286 2286 2286 2286 2286 2286 2286 2301 2301 3120 3120 3149 3149 3149 3149 3120 3120 3149 3149 3120 3120 3120 3092 3092 3092 3092 3092 3092 3092 3092 3092 3120 3120 3120 3092 3092 3092 3092 3092 3092 3120 3092 3092 3120 3120 3120 3120 3120 3120 3120 3120 3120 3120 3092 3092 3092 3092 3064 3064 3064 2984 2984 2984 2143 2143 2143 2143 2143 2143 2143 2143 2143 2143 2156 2156 2156 2908 2908 2908 2908 2908 2908 2933 2933 2933 2958 2958 2958 2933 2908 2908 2908 2908 2908 2883 2883 2883 2883 2883 2883 2883 2908 2933 2958 2958 2958 3010 3010 3010 3037 3037 3037 3037 2835 2835 2835 2812 3010 3010 3010 3010 3010 3010 3010 3037 3037 3064 3064 3037 3037 3010 2984 2984 2984 2984 3010 3010 3010 1981 1981 1981 1981 1981 1981 1981 1981 1981 1981 1981 1981 1981 1981 1981 1981 1970 1970 1970 1970 1970 1970 1970 1970 1970 1970 1970 1959 1959 1959 1947 1947 1947 1947 1947 1947 1947 1947 1936 1936 1936 1936 1936 1936 1936 1936 1926 1926 1926 1926 1926 1926 1926 1926 1915 1915 1915 1904 1904 1904 1894 1894 1904 1904 1894 1894 1894 1894 1894 1883 1883 1883 1883 1873 1873 1863 1863 1863 1863 1863 1863 1863 1863 1853 1853 1853 1843 1843 1843 1843 1823 1823 1813 1813 1813 1813 1813 1813 1813 1813 1813 1813 1813 0 0 0 0 0 0 5933 5933 5933 5933 5933 6038 6038 6038 6038 6038 6038 6038 6038 6038 5933 5832 5460 5291 5291 5374 5374 5374 0 0 0 0 0 0 0 0 0 0 0 0 0
0 0 0 0 0 0 0 0 0 0 0 0 0 0 0 0 0 0 0 0 0 0 0 0 0 0 0 0 0 0 0 0 0 2579 2579 2598 2598 2598 2598 2598 2598 2618 2618 2618 2618 2618 2618 2639 2639 2639 2639 2639 2659 2659 2680 2680 2680 2680 2701 2701 2701 2701 2701 2723 2723 2723 2723 2723 2723 2723 2723 2723 2744 2744 2744 2744 2767 2767 2767 2767 2767 2767 2789 2789 2789 2789 2812 2812 2835 2835 2859 2859 2859 2859 2883 2883 2883 2883 2908 2958 2908 2908 2908 2933 2958 2958 2958 2958 2984 2984 2984 2984 3010 3010 3010 3010 3010 3010 3010 3010 3010 3037 3037 3064 3064 3064 3064 3092 3092 3092 3092 3092 3092 3092 3092 3120 3120 3149 3149 3178 3178 3208 3208 3208 3208 3208 3238 3238 3238 3269 3269 3269 3300 3300 3269 3269 3269 3269 3300 3333 3333 3333 3333 3333 3365 3653 3653 3732 3732 3732 3399 3399 3399 3399 3433 3433 3433 3433 3433 3433 3433 3468 3468 3503 3539 3539 3539 3539 0 1483 1483 1483 1483 1483 1483 1483 1483 1483 1483 1483 1483 1483 1483 1483 1483 1489 3732 3732 3774 3774 3774 3774 3774 3774 3774 3774 3816 3816 3859 3903 3903 3903 3903 3903 3948 0 0 0 0 0 0 5548 5548 5548 5548 5548 5548 5548 5548 5548 5548 5640 5640 5734 5734 5832 5832 5832 0 0 0 0 0 0 0 0 0 0 0 0 0 0 0 0 6259 6259 6146 6146 6146 6146 6259 6259 6375 6259 6259 5640 5548 5548 5548 5548 5640 5640 5640 5548 5548 5548 5460 5460 5548 5548 5548 5640 5640 0 0 0 0 0 0 0 0 0 0 5056 5056 5056 5056 5132 5132 5132 5210 5210 5291 5374 5374 5734 6146 6259 6375 6375 6497 6375 6375 6375 6375 6375 6375 6375 6259 5132 5132 5132 5210 5210 5291 5291 5460 0 0 0 0 0 0 0 0 0 0 0 0 0 0 2286 2286 2286 2286 2286 2271 2271 2286 2286 2286 2286 2286 2286 2286 2301 2301 3178 3178 3178 3149 3149 3149 3149 3149 3120 3120 3120 3120 3120 3092 3092 3092 3092 3092 3092 3092 3092 3120 3120 3120 3120 3120 3120 3120 3092 3092 3092 3120 3092 3092 3120 3120 3120 3120 3120 3120 3120 3120 3120 3120 3092 3092 3092 3064 3064 3064 3037 2984 2984 2984 2143 2143 2143 2129 2129 2129 2143 2143 2143 2143 2143 2156 2156 2908 2908 2883 2883 2908 2908 2908 2933 2933 2933 2933 2933 2933 2908 2908 2908 2908 2908 2883 2883 2883 2908 2908 2908 2908 2908 2933 2958 2958 2958 2984 2984 2984 2984 2984 2984 2859 2835 2835 2835 2812 2812 3010 3010 2984 2984 2984 2984 2984 2984 2984 2984 2984 2984 2984 2984 2984 2984 2984 2984 2984 2984 1993 1993 1993 1981 1981 1981 1981 1981 1981 1981 1981 1981 1981 1981 1981 1981 1970 1970 1970 1970 1970 1970 1970 1970 1970 1970 1970 1959 1959 1959 1947 1947 1947 1947 1947 1947 1947 1947 1936 1936 1936 1936 1936 1936 1936 1936 1926 1926 1926 1926 1926 1926 1926 1915 1915 1915 1915 1904 1904 1904 1894 1894 1894 1894 1894 1894 1894 1894 1894 1894 1883 1883 1883 1873 1873 1863 1863 1863 1863 1863 1863 1853 1853 1853 1853 1853 1843 1843 1843 1843 1823 1823 1813 1813 1813 1813 1813 1813 1813 1813 1813 1813 1813 0 0 0 0 0 6146 6038 6038 6038 6038 6038 6038 6038 6038 6038 6038 6038 6038 6038 6038 5933 5548 5291 5210 5210 5291 5291 5291 0 0 0 0 0 0 0 0 0 0 0 0 0
