0 0 0 0 0 0 0 0 0 0 0 0 0 0 0 0 0 0 0 0 0 0 0 0 0 0 0 0 0 0 0 0 0 2256 2256 2241 2241 2226 2226 2226 2226 2226 2226 2226 2226 2241 2241 2241 2241 2241 2241 2226 2226 2241 2241 2241 2241 2241 2241 2241 2241 2241 2241 2241 2241 2241 2226 2226 2226 2226 2226 2226 2226 2226 2241 2241 2241 2241 2241 2241 2241 2241 2241 2241 2241 2241 2256 2256 2256 2256 2256 2256 2256 2256 2256 2256 2256 2256 2256 2256 2256 2256 2256 2256 2256 2256 2256 2256 2256 2256 2256 2256 2256 2256 2256 2256 2256 1503 1503 1503 1503 1503 1503 1503 1503 1503 1503 1509 1509 1509 1509 1509 1516 1516 1523 1529 1381 1381 1387 1398 1398 1415 1445 1445 1452 1452 1452 1458 1458 1458 1458 1464 1464 1464 1477 1489 1496 1503 1509 1509 1516 1516 1516 1516 1516 1516 1516 1516 1516 1516 1516 1516 1516 1516 1516 1516 1516 1516 1516 1516 1523 1523 1523 1523 1523 1523 1523 1523 1523 1523 1523 1523 1523 1523 1523 1523 1523 1523 1523 1523 1523 1523 1529 1529 1529 1529 1529 1529 1529 1529 1529 1529 1529 1529 1529 1529 1529 1529 1529 1529 1536 1536 1536 1529 1529 1529 1529 1529 1529 1529 1529 1529 1536 1536 1536 1536 1543 1543 1543 1543 1543 1543 1550 1543 1543 1543 1543 1543 1543 1543 1543 1536 1536 1529 1529 1529 1529 1529 1529 1536 1536 1536 1543 1543 1550 1557 2053 2053 2053 2053 2053 2053 2053 2053 2065 2365 2349 2349 2349 2349 2349 2349 2349 2349 2349 2349 2349 1926 1926 1926 1926 1926 1936 1936 1936 1936 1926 1926 1926 2349 1601 1601 1601 2349 2349 2365 2365 2365 2365 2349 1579 1579 1572 1572 1572 1564 1564 1523 1516 1509 1509 1503 1503 1509 1509 1509 1516 1523 1523 1529 1536 1536 1536 1536 1543 1543 1543 1543 1543 1543 1543 1543 1543 1543 1550 1550 1550 1550 1550 1550 1550 1557 1557 1557 1557 1557 1557 1557 1557 1557 1564 1564 1564 1564 1564 1564 1564 1564 1564 1564 1564 1564 1564 1564 1564 1564 1564 1564 1572 1572 1572 1572 1572 1572 1572 1572 1572 1572 1572 1572 1572 1579 1579 1579 1579 1586 1586 1586 1586 1586 1579 1579 1586 1586 1586 1586 1594 1594 1594 1594 1594 1594 1594 1586 1586 1586 1586 1572 1572 1572 1572 1572 1572 1572 1572 1572 1579 1572 1572 1579 1579 2381 2381 2381 2381 2381 2381 2381 2381 2398 2381 2381 2398 2398 2398 2398 2398 2398 2398 2381 2381 2381 2381 2381 2381 2381 2381 2381 2381 2381 2398 2398 2398 2398 2398 2398 2398 2398 1794 1794 1785 1785 1785 1776 1776 1766 1766 1766 1766 1766 1766 1766 1766 1766 1766 1766 1766 1776 1785 1785 2381 2398 2398 2398 2398 2398 2398 2398 2398 2398 2398 2381 2365 2365 2365 2365 2365 2365 2365 2365 2365 2381 2381 2381 2381 2381 2381 2381 2381 2381 2381 2381 2381 2381 2381 2381 2381 2381 2381 2381 2381 2381 2381 2381 2398 2398 2398 2398 2398 2398 2398 2381 2381 2381 2381 2381 2398 2381 2381 2381 2381 2398 2381 2381 2381 2381 2381 2381 2381 2381 2398 2398 2398 2415 2415 2415 2415 2398 2398 2398 2398 2398 2381 2381 2398 2398 2398 2381 2381 2398 2398 2415 2415 2415 2415 2415 2432 2432 2432 2415 2415 2398 2398 2381 2381 2381 2381 2398 2398 2398 2398 2398 2398 2381 2381 2381 2365 2365 2365 2365 2365 2365 2365 2365 2381 2381 2381 2365 2365 2365 2365 2365 2365 2365 2365 2365 2365 2365 2365 2349 2349 0 0 0 0 0 0 0 0 0
0 0 0 0 0 0 0 0 0 0 0 0 0 0 0 0 0 0 0 0 0 0 0 0 0 0 0 0 0 0 0 0 0 2226 2226 2226 2226 2226 2226 2226 2226 2226 2226 2226 2226 2226 2226 2226 2226 2226 2226 2226 2226 2226 2226 2226 2226 2226 2241 2241 2241 2241 2241 2241 2241 2241 2226 2226 2226 2226 2226 2226 2226 2226 2226 2226 2226 2226 2226 2226 2226 2226 2226 2226 2241 2241 2241 2256 2256 2256 2256 2256 2256 2256 2256 2256 2256 2256 2256 2256 2256 2256 2256 2256 2256 2256 2256 2256 2256 2256 2256 2256 2256 2256 2256 2256 2256 1509 1509 1509 1509 1509 1503 1503 1503 1503 1509 1509 1509 1509 1509 1509 1516 1516 1523 1529 1381 1381 1387 1398 1404 1445 1445 1452 1452 1458 1458 1458 1458 1458 1458 1464 1464 1464 1477 1483 1496 1496 1503 1503 1509 1509 1509 1509 1509 1509 1509 1509 1509 1509 1509 1509 1509 1509 1509 1509 1509 1509 1509 1509 1509 1516 1516 1516 1516 1516 1516 1516 1516 1523 1523 1523 1523 1523 1516 1516 1516 1523 1523 1523 1523 1523 1523 1523 1523 1523 1529 1529 1529 1529 1529 1529 1523 1523 1523 1529 1529 1529 1529 1529 1529 1536 1536 1529 1529 1529 1529 1529 1529 1529 1529 1529 1536 1536 1536 1536 1536 1536 1543 1543 1543 1543 1550 1543 1543 1543 1543 1543 1543 1543 1543 1536 1536 1536 1529 1529 1536 1536 1536 1536 1543 1543 1543 1543 1550 1557 2053 2053 2053 2053 2065 2053 2053 2065 2065 2349 2349 2349 2349 2349 2349 2349 2349 2333 2333 2333 2349 1936 1936 1926 1926 1936 1936 1936 1936 1936 1936 1926 1926 1915 1601 1601 2349 2349 2349 2349 2349 2349 2349 2349 1579 1579 1579 1579 1572 1572 1572 1523 1516 1509 1509 1509 1509 1509 1516 1516 1516 1523 1523 1529 1536 1536 1536 1536 1543 1543 1543 1543 1543 1543 1543 1543 1543 1543 1543 1543 1543 1543 1543 1550 1550 1550 1550 1550 1550 1550 1557 1557 1557 1557 1557 1564 1564 1564 1564 1564 1564 1564 1564 1564 1564 1564 1564 1564 1564 1564 1564 1564 1564 1564 1564 1572 1572 1572 1572 1572 1572 1572 1572 1572 1572 1579 1579 1579 1579 1586 1586 1586 1586 1586 1586 1586 1586 1586 1586 1586 1594 1594 1594 1594 1594 1594 1594 1594 1594 1594 1586 1579 1579 1579 1579 1579 1579 1579 1579 1579 1579 1579 1579 1579 2365 2365 2381 2381 2381 2381 2381 2381 2381 2381 2381 2381 2381 2398 2381 2381 2381 2381 2381 2381 2381 2381 2381 2381 2381 2381 2381 2381 2381 2381 2381 2381 2381 2381 2381 2381 2381 2381 1794 1785 1785 1785 1785 1776 1776 1766 1766 1766 1766 1766 1766 1766 1766 1766 1766 1766 1766 1776 1785 1785 2381 2381 2381 2381 2381 2381 2381 2398 2398 2398 2381 2381 2365 2365 2365 2365 2365 2365 2365 2365 2365 2365 2365 2365 2381 2381 2381 2381 2381 2381 2381 2381 2381 2381 2381 2365 2365 2381 2365 2365 2381 2381 2381 2381 2381 2381 2381 2381 2381 2381 2381 2381 2381 2381 2381 2381 2381 2381 2381 2381 2381 2381 2381 2381 2381 2381 2381 2381 2381 2381 2398 2398 2398 2398 2398 2398 2398 2381 2381 2381 2381 2381 2381 2381 2381 2381 2381 2381 2381 2398 2398 2398 2398 2398 2415 2415 2415 2415 2415 2398 2398 2381 2381 2381 2381 2381 2381 2381 2381 2381 2381 2381 2381 2381 2365 2365 2365 2365 2365 2365 2365 2365 2365 2365 2365 2365 2365 2365 2365 2365 2365 2365 2365 2365 2365 2365 2349 2349 2349 2349 2349 0 0 0 0 0 0 0 0 0
0 0 0 0 0 0 0 0 0 0 0 0 0 0 0 0 0 0 0 0 0 0 0 0 0 0 0 0 0 0 0 0 0 2212 2212 2212 2212 2212 2212 2212 2226 2226 2226 2212 2212 2226 2226 2226 2226 2226 2226 2226 2226 2226 2226 2226 2226 2226 2226 2226 2226 2226 2226 2226 2226 2226 2212 2212 2198 2198 2212 2212 2212 2212 2212 2212 2212 2212 2226 2226 2226 2226 2226 2226 2226 2226 2241 2241 2241 2241 2241 2241 2241 2241 2241 2241 2241 2256 2256 2256 2256 2256 2256 2241 2241 2241 2241 2241 2256 2256 2256 2256 2256 2256 2256 2256 2256 1509 1509 1509 1509 1509 1503 1503 1509 1509 1509 1509 1509 1509 1509 1509 1516 1523 1523 1529 1536 1543 1550 1421 1421 1452 1452 1452 1458 1458 1458 1458 1458 1458 1464 1464 1464 1464 1470 1483 1496 1496 1503 1503 1503 1503 1503 1503 1503 1503 1503 1509 1509 1503 1503 1503 1503 1503 1503 1503 1503 1503 1509 1503 1503 1509 1509 1509 1509 1516 1516 1516 1516 1516 1516 1516 1516 1516 1516 1516 1516 1516 1516 1516 1516 1516 1523 1523 1523 1523 1523 1523 1523 1523 1523 1523 1523 1523 1523 1523 1523 1523 1529 1529 1529 1529 1529 1529 1529 1529 1529 1529 1529 1529 1529 1529 1536 1536 1536 1536 1536 1536 1543 1543 1543 1543 1550 1543 1543 1543 1543 1543 1543 1543 1543 1543 1536 1536 1536 1536 1536 1536 1536 1543 1543 1543 1550 1550 1550 2040 2040 2040 2053 2053 2065 2065 2065 2065 2065 2349 2349 2333 2333 2333 2333 2333 2333 2333 2333 2333 1936 1936 1936 1926 1926 1936 1936 1936 1936 1936 1936 1936 1926 1915 1915 2333 2333 2333 2349 2349 2349 2349 2349 2349 1594 1594 1586 1586 1586 1586 1586 1523 1516 1516 1509 1509 1516 1516 1516 1516 1516 1523 1523 1529 1536 1536 1536 1536 1536 1536 1536 1536 1536 1536 1543 1543 1543 1543 1543 1543 1543 1543 1543 1543 1550 1550 1550 1550 1550 1550 1550 1557 1557 1557 1557 1557 1557 1564 1564 1564 1564 1564 1564 1564 1564 1564 1564 1564 1564 1564 1564 1564 1564 1564 1564 1572 1572 1572 1572 1572 1572 1572 1572 1572 1572 1579 1579 1579 1579 1586 1586 1586 1586 1586 1586 1586 1586 1586 1594 1594 1594 1594 1594 1601 1601 1594 1594 1594 1594 1594 1594 1579 1579 1579 1579 1579 1579 1579 1579 1579 1579 1579 1579 1579 2365 2365 2365 2365 2365 2365 2365 2365 2381 2381 2381 2381 2381 2381 2381 2381 2381 2381 2381 2381 2365 2365 2365 2365 2381 2365 2365 2365 2365 2381 2381 2381 2381 2381 2381 2381 2381 2381 1794 1785 1785 1785 1785 1776 1776 1766 1766 1766 1766 1766 1766 1766 1766 1766 1766 1766 1766 1776 1776 1785 2381 2381 2381 2381 2381 2381 2381 2381 2381 2381 2381 2381 2365 2365 2365 2365 2365 2365 2365 2365 2365 2365 2365 2365 2365 2365 2381 2365 2365 2381 2381 2381 2365 2365 2365 2365 2365 2365 2365 2365 2365 2365 2365 2365 2365 2381 2365 2365 2365 2365 2381 2381 2381 2381 2381 2381 2381 2381 2381 2381 2381 2381 2381 2381 2381 2381 2381 2381 2381 2381 2381 2398 2398 2381 2381 2398 2381 2381 2381 2381 2381 2381 2381 2381 2381 2381 2381 2381 2381 2381 2381 2398 2398 2398 2398 2415 2415 2415 2415 2398 2398 2365 2365 2365 2365 2365 2365 2365 2381 2381 2381 2381 2365 2365 2365 2349 2349 2349 2349 2349 2349 2365 2365 2365 2365 2365 2365 2349 2349 2349 2349 2349 2349 2349 2349 2349 2349 2349 2349 2349 2349 0 0 0 0 0 0 0 0 0
0 0 0 0 0 0 0 0 0 0 0 0 0 0 0 0 0 0 0 0 0 0 0 0 0 0 0 0 0 0 0 0 0 2212 2212 2212 2212 2212 2212 2212 2212 2212 2212 2212 2212 2212 2226 2226 2226 2226 2212 2212 2226 2212 2212 2212 2212 2212 2226 2226 2226 2226 2226 2226 2226 2226 2198 2198 2198 2198 2198 2212 2212 2212 2212 2212 2212 2212 2212 2212 2212 2212 2212 2212 2212 2226 2226 2226 2226 2226 2226 2226 2226 2226 2241 2226 2226 2241 2241 2241 2241 2226 2226 2241 2241 2241 2241 2241 2241 2241 2241 2241 2241 2256 2198 2184 2184 2184 1509 1509 1509 1509 1509 1509 1509 1509 1509 1509 1509 1509 1509 1509 1516 1523 1523 1529 1536 1543 1550 1410 1410 1452 1452 1458 1458 1458 1464 1458 1458 1458 1464 1464 1464 1464 1470 1483 1489 1496 1496 1503 1503 1503 1503 1503 1503 1503 1503 1503 1503 1503 1503 1503 1503 1503 1503 1503 1503 1503 1503 1503 1503 1503 1503 1503 1509 1509 1509 1509 1516 1516 1516 1516 1516 1516 1509 1509 1509 1516 1516 1516 1516 1516 1516 1516 1516 1516 1523 1523 1523 1523 1523 1523 1523 1523 1523 1523 1523 1523 1529 1529 1529 1529 1529 1529 1529 1529 1529 1529 1529 1529 1529 1529 1536 1536 1536 1536 1536 1536 1543 1543 1543 1543 1550 1543 1543 1543 1543 1543 1543 1543 1543 1543 1543 1543 1543 1543 1543 1543 1543 1543 1543 1543 1550 1550 1550 1609 1609 1609 2053 2053 2065 2065 2065 2065 2065 2333 2333 2333 2333 2333 2333 2333 2333 2317 2317 2317 1936 1936 1936 1936 1936 1936 1936 1936 1936 1936 1936 1936 1936 1926 1926 2333 2333 2333 2333 2349 2333 2333 2333 2333 1601 1601 1594 1594 1594 1594 1594 1523 1516 1516 1516 1516 1516 1516 1516 1516 1523 1523 1529 1529 1536 1536 1536 1536 1536 1536 1536 1536 1536 1536 1543 1543 1543 1543 1543 1543 1543 1543 1543 1543 1543 1550 1550 1550 1550 1550 1550 1557 1557 1557 1557 1557 1557 1564 1564 1564 1564 1564 1564 1564 1564 1564 1564 1564 1564 1564 1564 1564 1564 1564 1564 1572 1572 1572 1572 1572 1579 1579 1579 1579 1579 1579 1579 1579 1586 1586 1586 1586 1586 1586 1594 1594 1594 1594 1594 1594 1601 1601 1601 1601 1601 1601 1594 1594 1594 1594 1594 1579 1579 1579 1579 1579 1579 1579 1579 1579 1579 1579 1579 1579 2365 2365 2365 2365 2349 2349 2365 2365 2365 2381 2381 2381 2381 2381 2381 2381 2381 2381 2381 2365 2365 2365 2365 2365 2365 2365 2365 2365 2365 2365 2365 2365 2365 2381 2381 2381 2381 2381 1794 1785 1785 1785 1785 1785 1776 1776 1766 1766 1766 1766 1776 1776 1776 1776 1776 1766 1766 1776 1776 2381 2381 2381 2381 2381 2365 2365 2365 2381 2381 2365 2365 2365 2349 2349 2349 2333 2333 2333 2349 2349 2349 2349 2349 2349 2365 2365 2365 2365 2365 2365 2365 2365 2365 2365 2365 2365 2365 2365 2365 2365 2365 2365 2365 2365 2365 2365 2365 2365 2365 2365 2365 2365 2365 2365 2365 2365 2381 2381 2381 2381 2381 2381 2365 2365 2365 2365 2365 2381 2381 2381 2381 2381 2381 2381 2381 2381 2381 2381 2381 2381 2381 2381 2381 2381 2381 2381 2381 2365 2365 2381 2381 2381 2381 2381 2398 2398 2398 2398 2398 2381 2381 2365 2365 2365 2365 2365 2365 2365 2381 2381 2381 2365 2365 2365 2349 2349 2349 2349 2349 2349 2349 2349 2349 2365 2365 2365 2349 2349 2349 2349 2349 2349 2349 2349 2349 2349 2349 2349 2349 2349 2349 0 0 0 0 0 0 0 0 0
0 0 0 0 0 0 0 0 0 0 0 0 0 0 0 0 0 0 0 0 0 0 0 0 0 0 0 0 0 0 0 0 0 2212 2198 2198 2198 2198 2198 2198 2212 2212 2212 2212 2212 2212 2212 2212 2212 2212 2212 2212 2212 2212 2212 2212 2212 2212 2212 2212 2212 2212 2212 2212 2212 2212 2198 2198 2198 2198 2198 2198 2198 2212 2212 2212 2212 2212 2212 2212 2212 2212 2212 2212 2212 2212 2212 2212 2226 2226 2226 2226 2226 2226 2226 2226 2226 2241 2226 2226 2226 2226 2226 2241 2241 2241 2241 2241 2241 2241 2241 2241 2241 2241 2198 2184 2184 2184 1503 1503 1509 1509 1509 1509 1509 1509 1509 1509 1509 1509 1509 1516 1516 1523 1523 1529 1529 1536 1404 1404 1404 1404 1452 1458 1458 1458 1464 1458 1458 1458 1464 1464 1470 1470 1477 1477 1483 1489 1496 1496 1496 1496 1496 1496 1496 1496 1496 1496 1496 1496 1496 1496 1496 1496 1496 1496 1496 1496 1503 1503 1503 1503 1503 1503 1503 1503 1503 1509 1509 1509 1509 1509 1509 1509 1509 1509 1509 1509 1509 1516 1516 1516 1516 1516 1516 1516 1523 1523 1523 1523 1523 1523 1523 1523 1523 1523 1523 1523 1529 1529 1529 1529 1529 1536 1529 1529 1529 1529 1529 1529 1529 1536 1536 1536 1536 1536 1543 1543 1543 1543 1543 1550 1550 1543 1543 1543 1543 1543 1543 1543 1543 1543 1543 1543 1543 1543 1543 1543 1543 1543 1550 1550 1550 1550 1557 1579 1594 1601 1609 2053 2065 2065 2065 2065 2065 2333 2317 2317 2317 2317 2317 2317 2317 2301 2301 2301 1936 1936 1936 1936 1936 1936 1936 1936 1936 1936 1936 1936 1936 1936 2317 2317 2317 2333 2333 2333 2333 2333 2333 2333 1609 1609 1601 1601 1601 1594 1594 1523 1516 1516 1516 1516 1516 1516 1516 1516 1523 1523 1529 1529 1536 1536 1536 1536 1536 1536 1536 1536 1536 1536 1536 1536 1543 1543 1543 1543 1543 1543 1543 1543 1543 1550 1550 1550 1550 1550 1557 1557 1557 1557 1557 1557 1557 1564 1564 1564 1564 1564 1564 1564 1564 1564 1564 1564 1564 1564 1564 1564 1564 1564 1572 1572 1572 1572 1572 1572 1579 1579 1579 1579 1579 1579 1579 1586 1586 1586 1586 1586 1594 1594 1594 1594 1594 1594 1601 1601 1601 1601 1601 1601 1601 1601 1594 1594 1594 1594 1594 1579 1579 1579 1579 1579 1579 1586 1586 1586 1586 1586 1586 1586 2365 2349 2349 2349 2349 2349 2349 2349 2365 2365 2365 2365 2365 2381 2365 2365 2365 2365 2365 2365 2349 2349 2349 2349 2349 2349 2349 2349 2349 2349 2349 2349 2349 2365 2365 2365 2365 2365 2365 1794 1794 1794 1785 1785 1776 1776 1776 1776 1766 1766 1776 1776 1776 1776 1776 1776 1776 1785 2381 2381 2381 2365 2365 2365 2365 2349 2349 2365 2365 2365 2349 2349 2349 2349 2333 2333 2333 2333 2333 2333 2349 2349 2349 2349 2349 2349 2349 2349 2349 2349 2365 2365 2365 2365 2365 2365 2349 2349 2349 2349 2349 2349 2349 2349 2349 2349 2349 2349 2349 2349 2349 2349 2349 2349 2365 2365 2365 2365 2365 2365 2365 2365 2365 2365 2365 2365 2365 2365 2381 2381 2381 2381 2381 2381 2381 2381 2381 2381 2381 2381 2365 2365 2365 2365 2365 2365 2365 2365 2365 2381 2381 2381 2381 2381 2381 2381 2381 2381 2381 2365 2365 2365 2365 2365 2365 2365 2365 2365 2365 2365 2365 2365 2349 2349 2349 2349 2349 2349 2349 2349 2349 2349 2349 2349 2349 2349 2349 2349 2349 2349 2349 2349 2349 2349 2349 2349 2349 2349 2349 2333 2333 0 0 0 0 0 0 0 0 0
0 0 0 0 0 0 0 0 0 0 0 0 0 0 0 0 0 0 0 0 0 0 0 0 0 0 0 0 0 0 0 0 0 0 2198 2198 2198 2184 2184 2184 2198 2198 2198 2212 2212 2212 2212 2212 2212 2212 2212 2212 2212 2212 2212 2212 2212 2212 2212 2212 2212 2212 2212 2212 2212 2212 2198 2198 2198 2198 2198 2198 2198 2198 2198 2198 2198 2198 2198 2198 2212 2212 2212 2212 2212 2212 2212 2212 2212 2212 2212 2212 2226 2226 2226 2226 2226 2226 2226 2226 2226 2212 2212 2226 2226 2226 2226 2226 2226 2226 2226 2226 2226 2226 2198 2184 2184 2184 1503 1503 1509 1509 1509 1509 1509 1509 1509 1509 1509 1509 1509 1516 1516 1523 1523 1529 1529 1536 1404 1404 1404 1404 1452 1458 1458 1458 1464 1464 1464 1464 1464 1464 1470 1470 1477 1477 1483 1483 1489 1489 1489 1489 1489 1489 1489 1489 1489 1489 1496 1496 1496 1496 1496 1496 1496 1496 1496 1496 1496 1496 1496 1496 1496 1503 1503 1503 1503 1503 1503 1509 1509 1509 1509 1509 1509 1509 1509 1509 1509 1516 1516 1516 1516 1516 1516 1523 1523 1523 1523 1523 1523 1523 1523 1523 1523 1523 1523 1529 1529 1529 1529 1529 1529 1536 1536 1536 1536 1536 1536 1536 1536 1536 1536 1543 1543 1543 1543 1550 1550 1550 1550 1550 1550 1543 1543 1550 1550 1550 1550 1550 1550 1543 1543 1543 1543 1543 1543 1543 1543 1543 1550 1550 1550 1550 1557 1579 1594 1601 1609 2053 2065 2065 2065 2065 2065 2333 2317 2317 2317 2317 2301 2301 2317 2301 2301 2301 1936 1936 1936 1936 1936 1936 1936 1936 1936 1947 1947 1936 1936 2301 2301 2317 2317 2317 2333 2333 2333 2333 2333 2333 1609 1609 1609 1601 1601 1601 1601 1523 1523 1516 1516 1516 1516 1516 1516 1523 1523 1523 1529 1529 1536 1536 1536 1536 1536 1536 1536 1536 1536 1536 1536 1536 1543 1543 1543 1543 1543 1543 1543 1543 1550 1550 1550 1550 1550 1557 1557 1557 1557 1557 1557 1557 1564 1564 1564 1564 1564 1564 1564 1564 1564 1564 1564 1572 1564 1564 1564 1572 1572 1572 1572 1572 1572 1572 1579 1579 1579 1579 1579 1586 1586 1586 1586 1586 1586 1594 1594 1594 1594 1594 1594 1594 1594 1594 1601 1601 1601 1601 1601 1601 1601 1601 1601 1594 1594 1594 1594 1586 1579 1579 1579 1579 1586 1586 1586 1586 1586 1586 1586 1586 2381 2349 2333 2333 2349 2349 2349 2349 2349 2349 2365 2349 2349 2365 2365 2349 2349 2349 2349 2349 2349 2333 2333 2333 2333 2333 2349 2349 2349 2349 2349 2349 2349 2349 2349 2349 2349 2349 2349 1794 1794 1794 1794 1785 1785 1776 1776 1776 1776 1776 1776 1776 1776 1776 1785 1785 1785 1785 1794 2381 2365 2349 2349 2349 2349 2349 2349 2349 2349 2349 2349 2349 2333 2333 2333 2317 2317 2317 2333 2333 2333 2333 2333 2349 2349 2349 2349 2349 2349 2349 2349 2349 2349 2365 2349 2349 2349 2349 2333 2333 2333 2333 2333 2333 2333 2349 2349 2349 2349 2349 2349 2349 2333 2333 2349 2349 2349 2349 2349 2349 2365 2365 2349 2349 2349 2349 2349 2349 2349 2349 2365 2381 2381 2381 2381 2381 2365 2365 2365 2365 2365 2365 2365 2365 2365 2365 2365 2365 2365 2365 2365 2365 2365 2365 2381 2381 2365 2365 2365 2349 2349 2349 2349 2349 2349 2365 2365 2365 2365 2349 2349 2349 2349 2349 2349 2349 2349 2349 2349 2349 2349 2349 2349 2349 2349 2349 2349 2349 2349 2349 2349 2349 2349 2349 2349 2333 2333 2333 2333 2333 2333 0 0 0 0 0 0 0 0 0
0 0 0 0 0 0 0 0 0 0 0 0 0 0 0 0 0 0 0 0 0 0 0 0 0 0 0 0 0 0 0 0 0 0 2184 2184 2184 2184 2184 2184 2198 2198 2198 2198 2198 2198 2198 2198 2198 2198 2198 2198 2198 2198 2198 2198 2212 2212 2212 2212 2212 2212 2212 2212 2212 2212 2198 2198 2198 2198 2198 2198 2198 2198 2198 2198 2198 2198 2198 2198 2198 2198 2198 2198 2212 2212 2212 2212 2212 2212 2212 2212 2212 2226 2212 2212 2212 2212 2212 2212 2212 2212 2212 2212 2212 2226 2226 2226 2226 2226 2226 2226 2226 2212 2212 2212 2212 1503 1503 1503 1509 1509 1509 1509 1509 1509 1509 1516 1516 1516 1516 1523 1523 1523 1523 1529 1529 1529 1536 1536 1445 1445 1452 1458 1458 1464 1464 1464 1464 1464 1464 1464 1470 1470 1477 1477 1483 1483 1483 1483 1483 1483 1489 1489 1489 1489 1489 1489 1489 1489 1489 1489 1496 1496 1496 1496 1496 1496 1496 1496 1496 1496 1496 1503 1503 1503 1503 1503 1503 1503 1503 1503 1503 1509 1509 1509 1509 1509 1509 1516 1516 1516 1516 1516 1523 1523 1523 1523 1523 1529 1529 1523 1523 1523 1523 1523 1529 1529 1529 1529 1529 1536 1536 1536 1536 1543 1543 1543 1536 1536 1536 1543 1543 1543 1543 1543 1550 1550 1550 1550 1550 1550 1557 1550 1550 1550 1550 1550 1550 1550 1550 1550 1543 1543 1543 1543 1543 1543 1543 1543 1550 1550 1550 1550 1557 2040 1601 1601 2053 2053 2065 2065 2065 2065 2065 2317 2317 2317 2301 2301 2301 2301 2301 2301 2301 2301 1936 1936 1936 1936 1936 1936 1936 1936 1947 1947 1947 1936 1936 2301 2301 2301 2317 2317 2317 2317 2317 2317 2333 2333 1609 1609 1601 1601 1601 1601 1601 1523 1523 1516 1516 1516 1516 1516 1523 1523 1523 1523 1529 1529 1536 1536 1536 1536 1536 1536 1536 1536 1536 1536 1543 1543 1543 1543 1543 1543 1543 1543 1543 1543 1550 1550 1550 1550 1550 1557 1557 1557 1557 1557 1557 1557 1564 1564 1564 1564 1564 1564 1572 1564 1564 1572 1572 1572 1572 1572 1572 1572 1572 1572 1572 1572 1579 1579 1579 1586 1586 1586 1586 1586 1586 1586 1586 1594 1594 1594 1594 1594 1594 1594 1594 1594 1594 1594 1601 1601 1601 1601 1601 1601 1601 1601 1601 1601 1594 1594 1594 1586 1579 1579 1586 1586 1586 1586 1586 1586 1586 1586 1586 1594 2349 2333 2333 2333 2333 2333 2333 2349 2349 2349 2365 2349 2349 2349 2349 2349 2333 2333 2333 2333 2333 2333 2333 2333 2333 2333 2333 2333 2333 2333 2333 2333 2333 2333 2333 2349 2333 2333 2333 1804 1804 1794 1794 1785 1785 1785 1776 1776 1776 1776 1776 1776 1785 1785 1785 1785 1785 1785 1794 2365 2349 2349 2349 2349 2349 2333 2333 2349 2349 2333 2333 2333 2333 2333 2317 2317 2317 2317 2317 2317 2333 2333 2333 2333 2333 2333 2333 2333 2333 2349 2349 2349 2349 2349 2333 2333 2333 2333 2333 2333 2333 2333 2333 2333 2333 2349 2333 2333 2349 2333 2333 2333 2333 2333 2333 2333 2333 2333 2333 2349 2349 2349 2349 2349 2349 2349 2333 2333 2349 2349 2349 2349 2349 2349 2349 2365 2349 2349 2365 2365 2365 2365 2365 2365 2365 2365 2365 2365 2365 2365 2365 2365 2365 2365 2365 2365 2365 2365 2349 2349 2333 2333 2349 2349 2349 2349 2349 2349 2349 2349 2349 2349 2333 2333 2333 2333 2333 2333 2349 2333 2333 2333 2333 2333 2333 2333 2333 2333 2333 2333 2333 2333 2349 2349 2333 2333 2333 2333 2333 2317 2317 0 0 0 0 0 0 0 0 0
0 0 0 0 0 0 0 0 0 0 0 0 0 0 0 0 0 0 0 0 0 0 0 0 0 0 0 0 0 0 0 0 0 0 2184 2184 2170 2170 2170 2170 2184 2184 2184 2184 2184 2198 2198 2184 2184 2198 2198 2198 2198 2198 2198 2198 2198 2212 2212 2212 2212 2198 2198 2198 2198 2198 2184 2184 2184 2184 2198 2198 2198 2198 2198 2198 2198 2198 2198 2198 2198 2198 2198 2198 2212 2212 2212 2212 2212 2212 2212 2212 2212 2212 2212 2212 2212 2212 2212 2212 2212 2212 2212 2212 2212 2226 2226 2226 2226 2226 2226 2226 2212 2212 2212 2212 2212 2212 1503 1503 1509 1509 1509 1509 1509 1509 1509 1516 1516 1523 1523 1523 1523 1523 1523 1529 1529 1529 1529 1529 1452 1452 1458 1458 1464 1464 1470 1470 1470 1470 1470 1470 1477 1477 1477 1477 1483 1483 1483 1483 1483 1483 1489 1489 1489 1489 1489 1489 1489 1489 1489 1489 1489 1489 1496 1496 1496 1496 1496 1496 1496 1496 1496 1503 1503 1503 1503 1503 1503 1503 1503 1503 1503 1509 1509 1509 1509 1516 1516 1516 1516 1516 1516 1516 1523 1523 1523 1523 1529 1529 1529 1529 1523 1523 1523 1523 1529 1529 1529 1529 1536 1536 1543 1543 1543 1543 1543 1543 1543 1543 1543 1543 1543 1550 1550 1550 1550 1550 1550 1550 1550 1557 1557 1550 1550 1550 1550 1550 1550 1550 1550 1550 1550 1550 1550 1543 1543 1543 1543 1550 1550 1550 1550 1550 1557 2040 2053 2053 2053 2053 2065 2065 2065 2065 2065 2301 2301 2301 2301 2301 2301 2301 2301 2301 2301 2301 1936 1936 1936 1936 1936 1936 1936 1936 1947 1947 1947 1947 1947 2301 2301 2301 2301 2317 2317 2301 2301 2301 2301 2317 2317 1609 1601 1601 1601 1601 1601 1529 1523 1516 1516 1516 1516 1516 1523 1523 1529 1529 1529 1536 1536 1536 1536 1536 1536 1536 1536 1536 1536 1536 1543 1543 1543 1543 1543 1543 1550 1550 1550 1550 1550 1557 1557 1557 1557 1557 1557 1557 1557 1564 1564 1564 1564 1564 1564 1564 1564 1572 1572 1572 1572 1572 1572 1572 1572 1572 1572 1572 1572 1572 1579 1579 1579 1586 1586 1586 1586 1586 1586 1586 1594 1594 1594 1594 1594 1594 1594 1594 1594 1594 1594 1594 1594 1594 1601 1601 1601 1601 1601 1601 1601 1601 1601 1601 1601 1601 1594 1586 1586 1586 1586 1586 1586 1586 1586 1586 1586 1586 1586 1594 2333 2333 2317 2317 2333 2333 2333 2333 2333 2333 2349 2333 2333 2333 2333 2333 2333 2333 2333 2333 2333 2333 2333 2333 2333 2333 2333 2333 2333 2333 2333 2333 2333 2333 2333 2333 2333 2333 1813 1804 1804 1794 1794 1785 1785 1785 1776 1776 1785 1785 1785 1785 1785 1785 1785 1785 1785 1785 1794 2349 2349 2333 2333 2349 2333 2333 2333 2349 2333 2333 2333 2333 2317 2317 2317 2317 2317 2317 2317 2317 2317 2317 2317 2317 2317 2317 2333 2333 2333 2333 2333 2333 2333 2333 2333 2317 2317 2317 2317 2317 2317 2317 2333 2333 2333 2333 2333 2333 2333 2333 2333 2333 2317 2317 2333 2317 2317 2333 2333 2333 2333 2333 2333 2333 2333 2333 2333 2333 2333 2333 2333 2333 2349 2349 2349 2349 2349 2349 2349 2349 2349 2349 2349 2349 2349 2349 2349 2349 2349 2349 2349 2349 2349 2349 2333 2333 2349 2333 2333 2317 2317 2317 2333 2333 2333 2349 2349 2349 2333 2333 2333 2333 2317 2317 2317 2317 2317 2317 2333 2317 2317 2317 2317 2333 2333 2333 2333 2333 2333 2333 2333 2333 2333 2333 2333 2333 2317 2317 2317 2301 2301 0 0 0 0 0 0 0 0 0
0 0 0 0 0 0 0 0 0 0 0 0 0 0 0 0 0 0 0 0 0 0 0 0 0 0 0 0 0 0 0 0 0 0 2170 2170 2170 2170 2170 2170 2184 2184 2184 2184 2184 2184 2184 2184 2184 2184 2198 2198 2198 2198 2198 2198 2198 2198 2198 2198 2198 2184 2184 2184 2184 2184 2184 2184 2184 2184 2184 2198 2198 2184 2184 2184 2184 2184 2184 2184 2198 2184 2184 2198 2198 2198 2198 2198 2198 2198 2198 2198 2198 2198 2198 2198 2198 2198 2198 2198 2212 2212 2212 2212 2212 2212 2212 2212 2212 2212 2212 2212 2212 2212 2212 2212 2212 2212 1509 1509 1509 1509 1509 1509 1509 1509 1516 1523 1523 1523 1523 1523 1523 1529 1529 1529 1529 1529 1529 1529 1458 1458 1458 1458 1464 1464 1470 1470 1470 1470 1477 1477 1477 1477 1477 1483 1483 1483 1483 1483 1483 1483 1489 1489 1489 1489 1489 1489 1489 1489 1489 1489 1489 1489 1496 1496 1496 1496 1496 1496 1503 1503 1503 1503 1503 1503 1503 1503 1503 1503 1503 1503 1509 1509 1509 1509 1509 1516 1516 1516 1516 1516 1516 1516 1523 1523 1523 1529 1529 1529 1529 1529 1529 1529 1529 1529 1529 1536 1536 1536 1536 1536 1543 1543 1543 1543 1550 1550 1550 1550 1550 1550 1550 1550 1550 1550 1550 1550 1550 1550 1550 1557 1557 1550 1550 1550 1550 1550 1550 1550 1550 1550 1550 1550 1550 1543 1543 1550 1550 1550 1550 1550 1550 1557 1557 2053 2053 2053 2053 2065 2065 2065 2065 2065 2301 2301 2301 2301 2301 2301 2286 2286 2286 2286 2286 2286 1936 1936 1936 1936 1936 1936 1936 1936 1947 1947 1947 1947 1947 2286 2301 2301 2301 2301 2301 2301 2301 2301 2301 2301 2301 2301 1601 1601 1601 1601 1594 1594 1523 1523 1516 1516 1516 1523 1523 1523 1529 1529 1529 1536 1536 1536 1536 1536 1536 1536 1536 1536 1543 1543 1543 1543 1543 1543 1550 1550 1550 1557 1557 1557 1557 1557 1557 1557 1557 1564 1564 1564 1564 1564 1564 1564 1564 1564 1564 1564 1572 1572 1572 1572 1572 1572 1572 1572 1572 1572 1572 1572 1572 1579 1579 1579 1579 1586 1586 1594 1594 1594 1594 1594 1594 1594 1594 1594 1594 1594 1594 1594 1594 1601 1601 1601 1601 1601 1601 1601 1601 1601 1601 1601 1601 1609 1601 1601 1601 1601 1594 1586 1586 1586 1586 1586 1586 1586 1586 1586 1586 1586 1586 2333 2333 2317 2317 2317 2333 2333 2333 2333 2333 2333 2333 2333 2333 2333 2333 2333 2333 2333 2333 2333 2333 2333 2317 2317 2317 2333 2333 2333 2333 2333 2333 2333 2333 2333 2333 2333 2333 1823 1813 1804 1804 1794 1794 1785 1785 1785 1785 1785 1785 1785 1785 1785 1785 1785 1785 1785 1785 1785 1794 2349 2333 2333 2333 2333 2333 2333 2333 2333 2333 2333 2333 2333 2317 2317 2317 2317 2317 2317 2317 2317 2317 2317 2317 2317 2317 2317 2317 2333 2333 2333 2333 2333 2333 2333 2317 2317 2317 2317 2317 2317 2317 2317 2317 2317 2317 2333 2317 2317 2333 2317 2317 2317 2317 2317 2317 2317 2317 2317 2317 2317 2333 2333 2333 2333 2333 2333 2317 2317 2317 2317 2317 2317 2333 2333 2333 2333 2333 2333 2333 2333 2333 2333 2333 2333 2333 2333 2333 2333 2333 2333 2333 2333 2333 2333 2333 2333 2333 2333 2317 2301 2301 2317 2317 2317 2317 2317 2317 2317 2317 2317 2317 2317 2317 2317 2317 2317 2317 2317 2317 2301 2301 2317 2301 2301 2317 2317 2317 2317 2317 2317 2317 2317 2317 2317 2317 2317 2317 2317 2317 2301 2301 0 0 0 0 0 0 0 0 0
0 0 0 0 0 0 0 0 0 0 0 0 0 0 0 0 0 0 0 0 0 0 0 0 0 0 0 0 0 0 0 0 0 0 2170 2170 2170 2170 2170 2170 2170 2170 2170 2170 2170 2170 2170 2170 2170 2170 2170 2170 2184 2184 2184 2184 2184 2184 2184 2184 2184 2184 2184 2184 2170 2170 2170 2170 2170 2170 2170 2184 2184 2184 2184 2184 2184 2184 2184 2184 2184 2184 2184 2184 2184 2184 2184 2198 2198 2198 2198 2198 2198 2198 2198 2198 2198 2198 2198 2198 2198 2198 2198 2198 2198 2198 2198 2198 2212 2212 2212 2212 2212 2212 2212 2212 2212 2212 1509 1509 1509 1509 1509 1509 1509 1516 1516 1523 1523 1523 1523 1523 1523 1529 1529 1529 1529 1529 1529 1445 1445 1445 1458 1458 1464 1470 1470 1470 1470 1477 1477 1477 1477 1477 1477 1483 1483 1483 1483 1483 1483 1483 1489 1489 1489 1489 1489 1489 1496 1496 1489 1489 1496 1496 1496 1496 1496 1496 1496 1503 1503 1503 1503 1503 1503 1503 1503 1503 1503 1503 1509 1509 1509 1509 1509 1516 1516 1516 1516 1523 1523 1523 1523 1523 1529 1529 1529 1536 1536 1536 1543 1536 1536 1536 1536 1536 1536 1536 1536 1536 1536 1543 1543 1550 1550 1550 1550 1550 1550 1550 1550 1550 1550 1550 1550 1550 1550 1550 1557 1557 1557 1557 1557 1550 1550 1550 1550 1557 1557 1550 1550 1550 1550 1550 1550 1550 1550 1550 1550 1550 1550 1550 1550 1557 1557 2065 2065 2065 2065 2065 2065 2078 2078 2078 2078 2271 2271 2286 2286 2286 2286 2286 2286 2286 2286 2286 1936 1936 1936 1936 1936 1947 1947 1947 1936 1936 1936 1936 1959 2286 2286 2301 2301 2301 2301 2301 2301 2301 2301 2301 2301 2301 1594 1594 1594 1601 1594 1594 1529 1523 1523 1523 1523 1523 1523 1523 1529 1536 1536 1536 1536 1536 1536 1536 1536 1536 1536 1536 1543 1543 1550 1550 1550 1550 1557 1557 1557 1557 1557 1557 1557 1557 1557 1557 1564 1564 1564 1564 1564 1564 1564 1564 1564 1564 1564 1572 1572 1572 1572 1572 1572 1572 1572 1572 1572 1579 1579 1579 1579 1579 1579 1586 1586 1594 1594 1594 1594 1594 1594 1594 1594 1601 1601 1601 1601 1601 1601 1601 1601 1601 1601 1601 1601 1601 1601 1601 1601 1601 1609 1609 1609 1609 1609 1609 1601 1601 1601 1586 1586 1586 1586 1586 1586 1586 1594 1586 1586 1586 1586 2333 2333 2317 2317 2317 2333 2333 2333 2333 2333 2333 2333 2333 2333 2333 2333 2333 2333 2333 2333 2317 2317 2317 2317 2317 2317 2317 2317 2317 2317 2333 2333 2333 2333 2333 2333 2333 2333 1823 1813 1804 1804 1794 1794 1785 1785 1785 1785 1785 1785 1785 1785 1785 1785 1785 1785 1785 1785 1794 1785 1757 1757 2317 2317 2333 2333 2317 2317 2333 2317 2317 2317 2317 2317 2317 2301 2301 2301 2301 2301 2301 2301 2317 2317 2317 2317 2317 2317 2317 2317 2317 2317 2317 2317 2317 2317 2317 2317 2317 2317 2317 2317 2317 2317 2317 2317 2317 2317 2317 2317 2317 2317 2317 2317 2317 2317 2301 2301 2301 2317 2317 2317 2317 2317 2317 2317 2317 2317 2317 2317 2317 2317 2317 2317 2317 2317 2317 2317 2317 2317 2317 2317 2317 2317 2317 2317 2317 2333 2333 2317 2317 2333 2333 2333 2317 2317 2317 2317 2317 2317 2301 2301 2301 2301 2301 2301 2317 2301 2301 2301 2301 2301 2301 2301 2301 2301 2301 2301 2301 2301 2301 2301 2301 2286 2286 2286 2301 2301 2301 2301 2301 2301 2301 2301 2301 2301 2301 2301 2317 2301 2301 2301 0 0 0 0 0 0 0 0 0
0 0 0 0 0 0 0 0 0 0 0 0 0 0 0 0 0 0 0 0 0 0 0 0 0 0 0 0 0 0 0 0 0 2170 2170 2170 2170 2170 2170 2170 2170 2170 2170 2170 2170 2170 2170 2170 2170 2170 2170 2170 2170 2170 2170 2170 2170 2170 2184 2170 2170 2170 2170 2170 2170 2170 2170 2170 2170 2170 2170 2170 2184 2184 2184 2184 2184 2184 2170 2170 2170 2170 2170 2170 2170 2184 2184 2184 2184 2198 2198 2198 2198 2198 2198 2198 2198 2198 2198 2198 2198 2198 2198 2198 2198 2198 2198 2198 2198 2212 2212 2212 2212 2212 2212 2212 2212 2212 1509 1509 1509 1509 1509 1516 1516 1516 1523 1523 1523 1529 1529 1529 1529 1529 1529 1529 1529 1529 1536 1536 1445 1445 1458 1458 1464 1470 1470 1470 1470 1477 1477 1477 1477 1477 1483 1483 1483 1483 1489 1489 1489 1489 1489 1489 1489 1489 1496 1496 1496 1496 1496 1496 1496 1496 1496 1496 1496 1503 1503 1503 1503 1503 1503 1503 1503 1503 1503 1503 1509 1509 1509 1509 1509 1516 1516 1516 1516 1523 1523 1523 1523 1529 1529 1529 1529 1529 1529 1536 1536 1543 1543 1543 1543 1536 1536 1536 1543 1543 1543 1543 1543 1543 1543 1543 1550 1550 1550 1550 1550 1550 1550 1550 1550 1557 1557 1557 1557 1557 1557 1557 1557 1557 1557 1557 1557 1550 1550 1557 1557 1550 1550 1550 1550 1550 1550 1550 1550 1550 1550 1550 1550 1550 1557 1557 1557 2065 2065 2065 2065 2065 2065 2078 2078 2078 2078 2271 2271 2271 2286 2286 2286 2271 2271 2286 2286 2271 1936 1936 1936 1936 1936 1947 1936 1936 1936 1936 1936 1936 2271 2271 2271 2271 2271 2271 2271 2271 2271 2286 2286 2286 2286 2286 2286 1594 1594 1594 1594 1550 1529 1529 1529 1523 1523 1523 1523 1523 1529 1536 1536 1536 1543 1536 1536 1536 1536 1536 1536 1543 1543 1543 1550 1550 1550 1557 1557 1557 1557 1557 1557 1557 1557 1557 1564 1564 1564 1564 1564 1564 1564 1572 1572 1572 1572 1572 1572 1572 1572 1572 1572 1572 1579 1579 1579 1579 1579 1579 1579 1579 1579 1579 1586 1594 1594 1594 1594 1594 1594 1601 1601 1601 1601 1601 1601 1601 1601 1601 1601 1601 1601 1601 1601 1601 1601 1601 1601 1601 1601 1601 1609 1609 1609 1616 1609 1609 1601 1601 1601 1594 1586 1586 1594 1594 1594 1594 1594 1594 1594 1586 1586 2333 2317 2317 2317 2317 2317 2317 2333 2317 2317 2317 2317 2317 2317 2317 2317 2317 2317 2317 2317 2317 2317 2317 2317 2317 2317 2317 2317 2317 2317 2317 2317 2317 2317 2317 2317 2333 1823 1823 1804 1804 1794 1794 1794 1785 1785 1785 1785 1785 1785 1785 1785 1785 1785 1785 1785 1794 1794 1794 1776 1757 1757 2317 2317 2317 2333 2317 2317 2317 2317 2317 2317 2317 2301 2301 2301 2301 2301 2301 2301 2301 2301 2301 2301 2301 2301 2301 2317 2317 2317 2317 2317 2317 2317 2317 2317 2317 2317 2301 2301 2301 2301 2301 2301 2301 2317 2317 2317 2317 2317 2317 2317 2317 2301 2301 2301 2301 2301 2301 2301 2301 2317 2317 2317 2317 2301 2301 2301 2301 2301 2301 2301 2317 2317 2317 2317 2317 2317 2317 2317 2317 2317 2317 2317 2317 2317 2317 2317 2317 2317 2317 2317 2317 2317 2317 2317 2317 2317 2317 2301 2301 2301 2301 2301 2301 2301 2301 2301 2301 2301 2301 2301 2301 2301 2301 2301 2301 2301 2301 2301 2301 2286 2286 2286 2286 2286 2286 2286 2301 2301 2301 2301 2301 2301 2301 2301 2301 2301 2286 2286 2286 2301 0 0 0 0 0 0 0 0 0
0 0 0 0 0 0 0 0 0 0 0 0 0 0 0 0 0 0 0 0 0 0 0 0 0 0 0 0 0 0 0 0 0 2170 2156 2156 2156 2170 2156 2156 2170 2170 2170 2170 2170 2170 2170 2156 2156 2156 2156 2156 2156 2156 2156 2170 2170 2170 2170 2170 2170 2170 2170 2170 2170 2170 2170 2170 2170 2170 2170 2170 2170 2170 2170 2170 2170 2170 2170 2170 2156 2156 2156 2170 2170 2170 2170 2170 2170 2184 2184 2198 2198 2184 2184 2184 2184 2184 2184 2198 2198 2198 2198 2198 2184 2184 2184 2184 2198 2198 2198 2198 2212 2212 2198 2198 2212 2212 2212 1509 1509 1509 1516 1516 1516 1523 1523 1529 1529 1529 1529 1529 1529 1529 1529 1529 1529 1529 1536 1543 1452 1452 1458 1464 1470 1470 1477 1477 1477 1477 1477 1477 1483 1483 1483 1483 1483 1483 1489 1489 1489 1489 1489 1489 1489 1489 1496 1496 1496 1496 1496 1496 1496 1503 1503 1503 1503 1503 1503 1503 1503 1503 1509 1509 1509 1509 1509 1509 1509 1509 1516 1516 1516 1516 1516 1523 1523 1523 1523 1523 1529 1529 1529 1529 1529 1529 1536 1536 1543 1543 1543 1543 1543 1543 1543 1543 1543 1543 1543 1543 1543 1543 1543 1543 1550 1550 1550 1550 1557 1557 1557 1557 1557 1557 1557 1557 1557 1557 1557 1557 1557 1564 1564 1557 1557 1557 1557 1557 1557 1557 1550 1550 1550 1550 1550 1550 1550 1550 1550 1550 1557 1557 1557 1564 1564 2065 2065 2065 2065 2078 2078 2078 2078 2078 2078 2256 2256 2256 2271 2271 2271 2271 2271 2271 2271 2271 2271 1947 1947 1947 1947 1947 1936 1936 1936 1936 1936 1936 2271 2271 2271 2271 2271 2271 2271 2271 2271 2286 2286 2286 2286 2286 2271 2271 1594 1594 1594 1543 1543 1529 1529 1523 1523 1529 1523 1523 1536 1536 1543 1543 1543 1543 1543 1543 1543 1543 1543 1543 1550 1550 1550 1550 1557 1557 1557 1557 1557 1557 1557 1557 1557 1564 1564 1564 1564 1564 1564 1572 1572 1572 1572 1572 1572 1572 1572 1572 1572 1572 1579 1579 1579 1579 1579 1579 1579 1586 1579 1579 1579 1586 1586 1594 1594 1594 1594 1594 1601 1601 1601 1601 1601 1601 1601 1601 1601 1601 1601 1601 1601 1601 1601 1601 1601 1601 1601 1601 1609 1609 1609 1609 1609 1616 1616 1616 1609 1609 1601 1594 1594 1594 1594 1594 1594 1594 1594 1594 1594 1594 1594 2333 2317 2317 2317 2317 2317 2317 2317 2317 2317 2317 2317 2317 2317 2317 2317 2317 2317 2317 2317 2317 2317 2317 2317 2317 2317 2317 2317 2317 2317 2317 2317 2317 2317 2317 2317 2317 1823 1823 1804 1804 1794 1794 1785 1785 1785 1785 1785 1785 1785 1785 1785 1785 1785 1785 1794 1794 1794 1794 1776 1766 1766 2301 2317 2317 2317 2317 2317 2317 2317 2317 2317 2317 2301 2301 2301 2301 2301 2301 2301 2301 2301 2301 2301 2301 2301 2301 2301 2317 2317 2301 2301 2317 2317 2317 2301 2301 2301 2301 2301 2301 2301 2301 2301 2301 2301 2317 2317 2317 2317 2317 2317 2317 2301 2301 2301 2301 2301 2301 2301 2301 2301 2301 2301 2301 2301 2301 2286 2286 2286 2301 2301 2301 2317 2317 2317 2317 2317 2317 2317 2317 2317 2317 2317 2317 2317 2317 2317 2317 2317 2317 2317 2301 2301 2301 2301 2301 2301 2301 2301 2301 2301 2286 2286 2301 2301 2301 2301 2286 2286 2286 2286 2286 2286 2286 2286 2286 2286 2286 2286 2286 2286 2286 2286 2286 2286 2286 2286 2286 2286 2286 2301 2301 2301 2301 2301 2301 2301 2286 2286 2286 2286 0 0 0 0 0 0 0 0 0
0 0 0 0 0 0 0 0 0 0 0 0 0 0 0 0 0 0 0 0 0 0 0 0 0 0 0 0 0 0 0 0 0 2156 2156 2156 2156 2156 2156 2156 2156 2156 2156 2156 2156 2156 2156 2156 2156 2156 2156 2156 2156 2156 2156 2156 2170 2170 2170 2170 2170 2170 2156 2156 2156 2170 2156 2156 2156 2156 2156 2170 2170 2170 2170 2170 2170 2170 2156 2156 2156 2156 2156 2156 2156 2170 2170 2170 2170 2184 2184 2184 2184 2184 2170 2170 2170 2170 2170 2184 2184 2184 2184 2184 2184 2184 2184 2184 2184 2184 2184 2184 2198 2198 2198 2198 2212 2212 2212 1509 1509 1509 1516 1516 1523 1523 1523 1529 1529 1529 1529 1529 1529 1529 1529 1529 1529 1529 1536 1543 1550 1464 1464 1464 1470 1470 1477 1477 1477 1477 1477 1477 1483 1483 1483 1483 1483 1483 1489 1489 1489 1489 1489 1489 1496 1496 1496 1496 1496 1503 1503 1503 1503 1503 1503 1503 1503 1503 1503 1503 1509 1509 1509 1516 1509 1509 1509 1509 1516 1516 1516 1516 1516 1516 1516 1523 1523 1523 1523 1529 1529 1529 1529 1529 1536 1536 1536 1543 1543 1543 1543 1543 1543 1543 1543 1543 1543 1543 1543 1543 1543 1550 1550 1550 1550 1550 1550 1557 1557 1557 1557 1557 1557 1557 1557 1557 1557 1557 1564 1564 1564 1564 1564 1557 1557 1557 1557 1564 1564 1557 1557 1557 1550 1550 1550 1550 1550 1550 1550 1550 1557 1557 1557 1564 1564 2065 2065 2065 2065 2078 2078 2078 2078 2078 2090 2241 2241 2241 2256 2256 2256 2256 2256 2271 2271 2256 2256 1959 1959 1959 1959 1959 1959 1959 1947 1947 1947 1947 1959 2256 2256 2256 2271 2271 2271 2271 2271 2286 2286 2286 2286 2286 2271 2271 2271 2271 1550 1543 1543 1536 1529 1529 1529 1529 1529 1536 1536 1543 1543 1543 1550 1543 1543 1543 1543 1543 1543 1550 1550 1557 1557 1557 1557 1564 1564 1564 1564 1564 1564 1564 1564 1564 1564 1564 1564 1564 1572 1572 1572 1572 1572 1572 1572 1572 1572 1572 1572 1572 1579 1579 1579 1579 1579 1586 1586 1586 1579 1579 1586 1586 1586 1594 1594 1594 1594 1594 1601 1601 1601 1601 1601 1601 1601 1601 1601 1601 1601 1601 1601 1601 1601 1601 1601 1601 1609 1609 1609 1609 1616 1616 1616 1616 1616 1616 1616 1616 1609 1594 1594 1594 1594 1594 1594 1594 1594 1594 1594 1594 1594 2317 2301 2301 2301 2301 2317 2317 2317 2301 2301 2301 2301 2301 2301 2301 2301 2301 2301 2301 2317 2301 2301 2301 2301 2301 2301 2301 2301 2301 2301 2301 2301 2301 2301 2317 2317 2317 1813 1813 1804 1804 1794 1794 1785 1785 1785 1785 1785 1785 1785 1785 1785 1794 1794 1794 1794 1794 1794 1776 1776 1766 1766 2301 2301 2301 2317 2317 2317 2301 2301 2301 2301 2301 2286 2286 2286 2286 2286 2286 2286 2286 2301 2301 2301 2301 2301 2301 2301 2301 2301 2301 2301 2301 2301 2301 2301 2301 2301 2301 2301 2301 2301 2301 2301 2301 2301 2301 2301 2301 2301 2301 2301 2301 2301 2301 2301 2301 2301 2301 2301 2301 2301 2301 2301 2301 2286 2286 2286 2286 2286 2286 2286 2301 2301 2301 2301 2317 2317 2317 2317 2317 2301 2301 2301 2301 2301 2301 2301 2301 2301 2301 2301 2301 2301 2301 2301 2301 2301 2301 2301 2286 2286 2286 2286 2286 2301 2301 2286 2286 2286 2286 2286 2286 2286 2286 2286 2286 2286 2286 2286 2286 2271 2271 2271 2271 2271 2271 2271 2271 2286 2286 2286 2301 2301 2301 2301 2286 2286 2286 2286 2271 2271 0 0 0 0 0 0 0 0 0
0 0 0 0 0 0 0 0 0 0 0 0 0 0 0 0 0 0 0 0 0 0 0 0 0 0 0 0 0 0 0 0 0 2143 2143 2143 2156 2156 2156 2156 2156 2156 2156 2156 2156 2156 2156 2156 2156 2156 2156 2156 2143 2143 2156 2156 2156 2156 2156 2156 2170 2156 2156 2156 2156 2156 2143 2143 2143 2143 2156 2156 2156 2156 2156 2156 2156 2156 2156 2156 2156 2156 2156 2156 2156 2156 2156 2170 2170 2170 2170 2170 2170 2170 2156 2156 2170 2170 2170 2170 2170 2184 2184 2184 2170 2170 2170 2170 2170 2170 2170 2170 2170 2184 2184 2184 2198 2198 2198 1516 1516 1516 1523 1523 1523 1529 1529 1529 1529 1529 1529 1529 1529 1529 1529 1529 1529 1529 1536 1536 1543 1557 1557 1470 1470 1477 1477 1477 1477 1477 1483 1483 1483 1483 1483 1489 1489 1489 1489 1489 1496 1496 1496 1496 1496 1496 1503 1503 1503 1503 1503 1503 1503 1503 1503 1503 1503 1509 1509 1509 1509 1516 1516 1516 1516 1516 1516 1516 1516 1516 1516 1523 1523 1523 1523 1523 1529 1529 1529 1529 1529 1529 1536 1536 1536 1536 1536 1543 1543 1543 1543 1543 1543 1543 1543 1543 1543 1543 1543 1543 1543 1550 1550 1550 1550 1550 1550 1557 1557 1557 1557 1557 1557 1557 1557 1557 1557 1557 1564 1564 1564 1564 1564 1564 1564 1564 1564 1564 1564 1557 1557 1557 1550 1550 1550 1550 1550 1550 1550 1557 1557 1557 1557 1564 1564 2065 2065 2078 2078 2078 2078 2078 2078 2078 2090 2241 2241 2241 2241 2256 2256 2241 2241 2256 2256 2241 2241 1959 1959 1959 1959 1959 1959 1959 1959 1959 1947 1947 1959 2256 2256 2256 2256 2256 2256 2256 2256 2241 2241 2256 2256 2286 2286 2286 2286 1543 1543 1536 1536 1543 1536 1536 1536 1536 1536 1543 1543 1543 1543 1550 1550 1550 1550 1550 1550 1550 1557 1557 1557 1557 1564 1564 1564 1564 1564 1564 1564 1564 1564 1564 1564 1564 1564 1564 1564 1564 1572 1572 1572 1572 1572 1572 1572 1572 1572 1579 1579 1579 1579 1579 1586 1586 1586 1586 1586 1586 1586 1586 1586 1586 1594 1594 1594 1594 1594 1594 1601 1601 1601 1601 1601 1601 1601 1601 1601 1601 1601 1601 1601 1601 1601 1601 1601 1601 1609 1609 1609 1609 1616 1616 1624 1624 1616 1616 1616 1616 1609 1594 1594 1594 1594 1594 1594 1594 1594 1594 1601 1594 1594 2271 2271 2286 2286 2301 2301 2301 2301 2301 2301 2286 2286 2286 2286 2301 2301 2301 2301 2301 2301 2301 2301 2301 2301 2301 2301 2286 2286 2301 2301 2301 2301 2301 2301 2301 2317 1823 1813 1813 1804 1804 1794 1794 1785 1785 1785 1785 1785 1785 1785 1785 1794 1794 1794 1794 1794 1794 1794 1776 1776 1785 2286 2286 2286 2301 2301 2301 2301 2286 2286 2286 2301 2301 2271 2271 2271 2271 2286 2286 2286 2286 2301 2301 2301 2301 2301 2301 2301 2301 2301 2286 2286 2286 2286 2286 2286 2301 2301 2301 2301 2301 2301 2286 2286 2286 2286 2286 2286 2286 2301 2301 2301 2301 2301 2301 2286 2286 2301 2301 2301 2301 2301 2301 2301 2301 2286 2286 2286 2286 2286 2286 2286 2301 2301 2301 2301 2301 2301 2301 2317 2301 2301 2301 2301 2301 2301 2301 2301 2301 2301 2301 2301 2301 2301 2301 2301 2301 2301 2301 2286 2286 2286 2286 2286 2286 2286 2286 2286 2286 2286 2286 2286 2286 2286 2286 2286 2271 2271 2271 2271 2271 2271 2271 2271 2271 2271 2271 2271 2271 2271 2271 2286 2286 2286 2286 2286 2286 2286 2286 2271 2271 2271 0 0 0 0 0 0 0 0 0
0 0 0 0 0 0 0 0 0 0 0 0 0 0 0 0 0 0 0 0 0 0 0 0 0 0 0 0 0 0 0 0 0 2143 2143 2143 2143 2156 2156 2156 2156 2143 2143 2143 2143 2143 2143 2143 2143 2143 2143 2143 2143 2143 2143 2156 2156 2156 2156 2156 2156 2156 2156 2156 2156 2156 2143 2143 2143 2143 2143 2156 2156 2156 2156 2156 2156 2156 2156 2156 2143 2143 2156 2156 2156 2156 2156 2170 2170 2156 2156 2156 2156 2156 2156 2156 2156 2170 2170 2170 2170 2170 2184 2170 2170 2156 2156 2156 2156 2156 2156 2170 2170 2184 2184 2184 2184 2184 2184 1509 1509 1509 1523 1529 1529 1529 1529 1529 1529 1529 1529 1529 1529 1529 1529 1536 1536 1536 1536 1536 1543 1543 1470 1470 1470 1477 1477 1477 1477 1477 1483 1483 1483 1483 1483 1489 1489 1489 1489 1496 1496 1496 1496 1496 1496 1503 1503 1503 1503 1503 1503 1503 1503 1503 1509 1509 1509 1509 1509 1516 1516 1516 1523 1523 1523 1523 1523 1523 1523 1523 1523 1523 1523 1523 1523 1529 1529 1529 1529 1529 1529 1529 1536 1536 1536 1536 1543 1543 1543 1543 1543 1543 1543 1543 1550 1550 1550 1550 1550 1550 1550 1550 1550 1550 1550 1550 1550 1557 1557 1557 1557 1557 1557 1557 1557 1557 1557 1557 1557 1564 1564 1564 1564 1564 1564 1564 1564 1564 1564 1557 1557 1557 1557 1557 1550 1550 1550 1550 1550 1557 1557 1557 1557 1564 1601 1609 2065 2065 2065 2078 2078 2078 2078 2078 2090 2103 2226 2241 2241 2241 2241 2241 2241 2241 2241 2241 2241 1959 1959 1959 1959 1959 1959 1959 1959 1959 1959 1959 1959 2241 2241 2241 2256 2256 2256 2256 2256 2241 2241 2241 2241 2241 2226 2226 2226 1543 1543 1536 1536 1543 1536 1536 1536 1536 1536 1543 1543 1543 1543 1550 1550 1550 1550 1557 1557 1557 1557 1557 1557 1564 1564 1564 1564 1564 1564 1564 1564 1572 1572 1572 1572 1572 1572 1572 1572 1572 1572 1572 1572 1572 1579 1579 1579 1572 1572 1579 1579 1579 1579 1586 1586 1586 1586 1586 1586 1586 1586 1586 1586 1586 1594 1594 1594 1594 1594 1594 1601 1601 1601 1601 1601 1609 1609 1609 1601 1601 1609 1601 1601 1609 1609 1609 1609 1609 1609 1609 1616 1616 1616 1616 1624 1624 1624 1616 1609 1609 1609 1594 1594 1594 1601 1601 1601 1601 1601 1601 1601 1594 1594 2256 2256 2271 2286 2286 2286 2286 2286 2286 2286 2286 2286 2286 2286 2286 2286 2286 2286 2286 2286 2286 2286 2286 2286 2286 2286 2286 2286 2286 2286 2286 2286 2286 2286 2301 2301 1823 1813 1813 1804 1804 1794 1794 1785 1785 1785 1785 1785 1785 1785 1785 1794 1794 1794 1794 1794 1794 1804 1776 1776 2271 2271 2286 2286 2286 2301 2286 2286 2286 2286 2286 2286 2286 2271 2271 2271 2271 2271 2271 2271 2286 2286 2286 2301 2301 2286 2286 2286 2286 2286 2286 2286 2286 2286 2286 2286 2286 2286 2286 2286 2286 2286 2286 2286 2286 2286 2286 2286 2286 2286 2286 2301 2301 2286 2286 2286 2286 2286 2286 2286 2286 2286 2286 2286 2286 2271 2271 2271 2271 2271 2286 2286 2286 2301 2301 2301 2301 2301 2301 2301 2301 2301 2301 2301 2301 2301 2301 2301 2301 2301 2301 2301 2301 2301 2301 2301 2301 2286 2286 2286 2271 2271 2271 2271 2271 2286 2286 2286 2286 2286 2286 2271 2271 2271 2271 2271 2271 2271 2271 2256 2256 2256 2256 2256 2256 2256 2256 2256 2256 2256 2271 2271 2286 2286 2286 2286 2271 2271 2271 2271 2256 2256 0 0 0 0 0 0 0 0 0
0 0 0 0 0 0 0 0 0 0 0 0 0 0 0 0 0 0 0 0 0 0 0 0 0 0 0 0 0 0 0 0 0 2129 2129 2143 2143 2143 2143 2143 2143 2143 2129 2129 2143 2143 2129 2129 2129 2143 2143 2143 2143 2143 2143 2143 2143 2143 2156 2156 2156 2156 2156 2156 2156 2156 2143 2143 2143 2143 2143 2143 2156 2156 2156 2143 2143 2143 2143 2143 2143 2143 2143 2156 2156 2156 2156 2156 2156 2156 2156 2156 2156 2156 2156 2156 2156 2156 2156 2156 2156 2170 2170 2170 2156 2156 2156 2156 2156 2156 2156 2156 2156 2170 2170 2170 2184 2184 2184 1509 1509 1509 1523 1529 1529 1529 1529 1529 1529 1529 1529 1529 1536 1536 1536 1536 1536 1543 1536 1536 1543 1543 1477 1477 1477 1483 1483 1483 1483 1483 1483 1483 1483 1489 1489 1496 1496 1496 1496 1496 1496 1496 1496 1503 1503 1503 1503 1503 1503 1503 1503 1503 1503 1503 1509 1509 1509 1516 1516 1516 1516 1523 1523 1523 1523 1523 1523 1523 1523 1523 1523 1523 1523 1523 1529 1529 1529 1529 1536 1536 1536 1536 1536 1536 1536 1536 1543 1543 1543 1543 1543 1543 1550 1550 1550 1550 1550 1550 1550 1550 1550 1550 1550 1550 1550 1550 1550 1557 1557 1557 1557 1557 1557 1557 1557 1557 1557 1557 1557 1557 1564 1564 1564 1564 1564 1564 1564 1564 1564 1557 1557 1557 1557 1557 1550 1550 1550 1550 1557 1557 1557 1557 1557 1564 1601 1609 2065 2065 2065 2065 2078 2078 2078 2078 2090 2103 2212 2226 2226 2241 2241 2241 2241 2241 2241 2226 2226 1947 1947 1947 1959 1959 1959 1959 1959 1959 1959 1959 2241 2241 2241 2241 2241 2241 2241 2241 2241 2241 2241 2241 2226 2226 2226 2226 2226 1543 1543 1536 1536 1543 1536 1536 1536 1536 1536 1543 1543 1543 1550 1550 1557 1557 1557 1557 1557 1557 1564 1564 1564 1564 1564 1564 1564 1564 1564 1564 1572 1572 1572 1572 1572 1572 1572 1572 1572 1572 1572 1572 1572 1572 1579 1579 1579 1572 1572 1579 1579 1579 1579 1586 1586 1594 1594 1594 1594 1594 1594 1594 1594 1594 1594 1594 1594 1594 1594 1594 1601 1601 1601 1601 1601 1609 1609 1609 1609 1609 1609 1601 1601 1609 1609 1609 1609 1609 1616 1616 1616 1616 1616 1616 1624 1624 1624 1616 1609 1609 1609 1594 1594 1594 1601 1601 1601 1601 1601 1601 1601 1594 1594 2256 2256 2271 2271 2271 2271 2271 2271 2286 2286 2271 2271 2271 2271 2271 2271 2271 2271 2271 2271 2271 2271 2271 2271 2271 2271 2271 2271 2271 2271 2286 2271 2271 2286 2286 2286 1823 1813 1804 1804 1804 1804 1794 1794 1794 1785 1785 1785 1785 1794 1794 1794 1794 1794 1794 1804 1804 1804 1804 2256 2271 2271 2271 2271 2286 2286 2286 2286 2271 2271 2271 2271 2271 2256 2256 2256 2256 2271 2271 2271 2271 2271 2286 2286 2286 2286 2286 2286 2271 2271 2271 2271 2271 2271 2271 2271 2271 2271 2286 2286 2286 2286 2271 2271 2271 2271 2271 2271 2271 2286 2286 2286 2286 2286 2286 2286 2271 2271 2271 2271 2271 2271 2271 2271 2271 2256 2256 2256 2271 2271 2271 2271 2271 2286 2301 2301 2301 2301 2301 2301 2301 2301 2301 2301 2301 2301 2286 2286 2286 2301 2301 2301 2301 2301 2301 2301 2301 2286 2286 2286 2271 2271 2271 2271 2271 2271 2286 2286 2271 2271 2271 2271 2271 2271 2271 2271 2271 2256 2256 2256 2256 2256 2256 2241 2241 2256 2256 2256 2256 2256 2256 2271 2271 2271 2271 2271 2256 2256 2256 2256 2256 2256 0 0 0 0 0 0 0 0 0
0 0 0 0 0 0 0 0 0 0 0 0 0 0 0 0 0 0 0 0 0 0 0 0 0 0 0 0 0 0 0 0 0 2129 2116 2116 2129 2129 2129 2143 2143 2129 2129 2129 2129 2129 2129 2129 2129 2129 2143 2143 2143 2143 2143 2143 2143 2143 2156 2156 2156 2156 2143 2143 2143 2156 2143 2143 2143 2143 2143 2143 2143 2143 2143 2143 2143 2143 2143 2143 2143 2143 2143 2143 2143 2143 2156 2156 2143 2143 2143 2143 2143 2143 2143 2143 2156 2156 2156 2156 2156 2156 2156 2143 2143 2156 2156 2143 2143 2156 2156 2156 2156 2170 2170 2170 2170 2170 2170 1516 1516 1516 1523 1523 1529 1529 1529 1529 1529 1529 1529 1536 1536 1536 1536 1536 1536 1543 1543 1543 1543 1543 1483 1483 1483 1483 1483 1483 1483 1483 1483 1483 1489 1489 1489 1496 1496 1496 1496 1496 1496 1496 1503 1503 1503 1503 1503 1503 1503 1503 1509 1509 1509 1509 1509 1509 1516 1516 1516 1523 1523 1523 1523 1523 1523 1523 1523 1523 1523 1523 1523 1523 1523 1529 1529 1529 1536 1536 1536 1536 1536 1536 1536 1536 1536 1543 1543 1543 1543 1543 1543 1550 1550 1550 1550 1550 1550 1550 1550 1550 1550 1550 1550 1550 1550 1550 1550 1550 1557 1557 1557 1557 1557 1557 1557 1557 1557 1557 1557 1557 1557 1564 1564 1564 1564 1564 1564 1564 1564 1564 1557 1557 1557 1557 1550 1550 1550 1550 1557 1557 1557 1557 1557 1564 1564 2065 2065 2065 2065 2065 2078 2078 2078 2090 2090 2103 2198 2212 2212 2226 2226 2226 2226 2226 2226 2212 2212 1947 1947 1947 1959 1959 1959 1959 1970 1959 1959 1959 1959 2241 2241 2241 2241 2241 2241 2241 2241 2226 2226 2226 2226 2212 2212 2212 1543 1543 1543 1536 1536 1536 1543 1536 1536 1543 1543 1543 1543 1550 1550 1550 1557 1557 1557 1557 1557 1557 1564 1564 1564 1564 1564 1564 1564 1564 1564 1572 1572 1572 1572 1572 1572 1572 1572 1572 1572 1572 1572 1572 1572 1572 1572 1579 1579 1572 1572 1572 1579 1579 1579 1586 1586 1594 1594 1594 1594 1594 1594 1594 1594 1594 1594 1594 1594 1594 1594 1594 1601 1601 1601 1601 1601 1609 1609 1609 1609 1609 1609 1609 1609 1616 1616 1624 2226 2226 2226 2226 2226 1616 1616 1616 1624 1624 1624 1616 1609 1609 1609 1594 1594 1594 1601 1601 1601 1601 1601 1601 1601 1601 1601 2256 2256 2256 2271 2271 2271 2271 2271 2271 2271 2271 2271 2271 2271 2271 2271 2271 2271 2271 2271 2271 2271 2271 2271 2271 2271 2271 2271 2271 2271 2271 2271 2271 2271 2271 2271 1823 1813 1804 1804 1804 1804 1794 1794 1794 1794 1794 1794 1794 1794 1794 1794 1794 1804 1804 1804 1804 1813 1813 2256 2271 2271 2271 2271 2271 2271 2271 2271 2271 2271 2271 2271 2271 2256 2256 2256 2256 2256 2256 2256 2256 2256 2271 2271 2271 2271 2271 2271 2256 2256 2256 2256 2256 2256 2256 2271 2271 2271 2271 2271 2271 2271 2256 2256 2256 2256 2271 2271 2271 2271 2271 2286 2286 2286 2286 2286 2271 2271 2271 2271 2271 2271 2256 2256 2256 2256 2256 2256 2256 2256 2271 2271 2271 2271 2286 2286 2301 2301 2301 2301 2301 2286 2286 2286 2286 2286 2286 2286 2286 2286 2286 2286 2286 2286 2286 2271 2271 2271 2271 2271 2256 2256 2256 2256 2256 2271 2271 2271 2271 2271 2271 2256 2256 2256 2256 2256 2256 2256 2256 2256 2256 2241 2241 2241 2241 2241 2241 2241 2241 2256 2256 2256 2256 2256 2256 2256 2256 2256 2256 2256 2256 2256 0 0 0 0 0 0 0 0 0
0 0 0 0 0 0 0 0 0 0 0 0 0 0 0 0 0 0 0 0 0 0 0 0 0 0 0 0 0 0 0 0 0 0 2116 2116 2116 2129 2129 2129 2129 2129 2129 2129 2129 2129 2129 2129 2129 2129 2129 2129 2129 2129 2143 2143 2143 2143 2156 2156 2156 2143 2143 2143 2143 2143 2129 2129 2129 2129 2129 2129 2129 2129 2129 2129 2129 2129 2129 2129 2129 2129 2129 2143 2143 2143 2143 2143 2143 2143 2143 2143 2143 2143 2143 2143 2143 2156 2156 2156 2156 2156 2156 2143 2143 2143 2143 2143 2143 2156 2156 2156 2156 2170 2170 2170 2170 2170 2170 1516 1516 1516 1523 1523 1529 1529 1529 1529 1529 1536 1536 1536 1536 1536 1536 1536 1536 1543 1543 1543 1550 1550 1483 1483 1483 1483 1483 1483 1483 1483 1483 1489 1489 1496 1496 1496 1496 1496 1496 1496 1503 1503 1503 1503 1503 1509 1509 1509 1509 1509 1509 1509 1509 1509 1509 1516 1516 1516 1523 1523 1523 1523 1523 1523 1523 1523 1523 1523 1523 1523 1523 1523 1529 1529 1529 1529 1536 1536 1536 1536 1536 1536 1536 1536 1536 1543 1543 1543 1543 1543 1543 1550 1550 1550 1550 1550 1550 1550 1550 1550 1550 1550 1550 1550 1550 1550 1550 1550 1557 1557 1557 1557 1557 1557 1550 1550 1550 1550 1550 1550 1557 1564 1572 1572 1572 1572 1572 1572 1564 1564 1557 1557 1557 1557 1557 1557 1557 1557 1557 1557 1557 1564 1564 1564 1572 2065 2065 2065 2078 2078 2078 2078 2090 2090 2090 2116 2198 2212 2212 2226 2226 2226 2226 2226 2226 2212 2212 1947 1947 1947 1947 1959 1959 1959 1970 1970 1959 1959 1959 2241 2226 2226 2226 2226 2226 2226 2226 2226 2226 2226 2212 2184 2184 2184 1543 1543 1536 1536 1536 1536 1543 1543 1543 1543 1543 1543 1543 1550 1550 1550 1557 1557 1557 1557 1557 1557 1564 1564 1564 1564 1564 1564 1564 1564 1564 1572 1572 1572 1572 1572 1572 1572 1572 1572 1572 1572 1572 1564 1564 1572 1572 1572 1572 1572 1572 1572 1579 1579 1579 1586 1586 1594 1594 1594 1594 1594 1594 1594 1594 1594 1594 1594 1594 1594 1594 1594 1594 1594 1594 1601 1601 1609 1609 1993 1609 1609 1616 1616 2241 2226 2226 2226 2226 2226 2226 2226 2226 2226 2226 1632 1632 1632 1632 1624 1616 1616 1616 1601 1601 1601 1601 1609 1609 1609 1601 1601 1609 1609 1609 2256 2256 2256 2256 2256 2271 2271 2271 2271 2271 2271 2271 2271 2256 2256 2256 2256 2256 2256 2256 2256 2256 2256 2256 2256 2271 2271 2271 2271 2271 2271 2271 2271 2271 2271 2271 1823 1823 1813 1804 1804 1804 1804 1794 1794 1794 1794 1794 1794 1794 1794 1794 1794 1804 1804 1804 1804 1813 2256 2256 2271 2271 2271 2271 2271 2271 2271 2271 2271 2271 2271 2271 2271 2256 2256 2256 2256 2256 2256 2256 2256 2256 2256 2256 2256 2256 2256 2256 2256 2256 2256 2256 2256 2256 2256 2256 2256 2256 2256 2256 2256 2256 2256 2256 2256 2256 2256 2256 2256 2271 2271 2271 2271 2271 2271 2271 2271 2271 2256 2256 2256 2256 2256 2256 2256 2256 2256 2256 2256 2256 2256 2256 2271 2271 2271 2286 2286 2286 2286 2286 2286 2286 2286 2271 2271 2286 2271 2271 2271 2271 2271 2271 2271 2271 2271 2271 2271 2271 2271 2256 2241 2241 2241 2256 2256 2256 2256 2256 2256 2256 2256 2256 2256 2256 2256 2256 2241 2241 2241 2241 2241 2241 2241 2241 2241 2241 2241 2241 2241 2241 2256 2256 2241 2241 2256 2241 2241 2241 2241 2241 2241 2241 0 0 0 0 0 0 0 0 0
0 0 0 0 0 0 0 0 0 0 0 0 0 0 0 0 0 0 0 0 0 0 0 0 0 0 0 0 0 0 0 0 0 0 2103 2103 2116 2116 2116 2116 2116 2116 2116 2116 2116 2116 2116 2116 2116 2116 2116 2116 2116 2129 2129 2129 2129 2129 2129 2129 2129 2129 2129 2129 2143 2143 2129 2116 2116 2129 2129 2116 2116 2116 2129 2116 2116 2116 2116 2116 2116 2116 2116 2129 2129 2143 2143 2143 2129 2129 2143 2143 2143 2143 2143 2143 2143 2143 2143 2143 2143 2143 2143 2143 2143 2143 2143 2143 2143 2143 2156 2156 2156 2156 2170 2170 2170 2170 2170 1523 1523 1523 1523 1529 1529 1529 1529 1529 1529 1536 1536 1536 1536 1536 1536 1536 1536 1543 1543 1543 1550 1550 1477 1477 1477 1483 1483 1483 1483 1483 1489 1489 1489 1496 1496 1496 1496 1496 1496 1496 1503 1503 1503 1503 1503 1509 1509 1509 1509 1509 1509 1516 1516 1516 1516 1516 1523 1523 1523 1523 1523 1523 1523 1523 1523 1523 1523 1523 1529 1529 1529 1529 1529 1536 1536 1536 1536 1536 1536 1536 1536 1536 1543 1543 1543 1543 1543 1543 1543 1550 1550 1550 1550 1550 1550 1550 1550 1550 1550 1550 1550 1550 1550 1550 1550 1550 1550 1550 1550 1550 1550 1550 1550 1550 1543 1536 1536 1536 1543 1543 1543 1564 1572 1572 1572 1579 1572 1572 1564 1564 1564 1564 1564 1557 1557 1557 1557 1557 1557 1557 1557 1564 1564 1564 1564 1564 2065 2078 2078 2078 2078 2078 2090 2090 2090 2170 2198 2212 2212 2226 2226 2226 2226 2226 2226 2212 2212 1947 1947 1947 1947 1947 1959 1959 1970 1970 1970 1959 1959 2226 2226 2226 2226 2226 2226 2226 2226 2226 2226 2226 2198 2184 2184 2184 2184 1536 1536 1536 1536 1536 1543 1543 1543 1543 1543 1543 1550 1550 1550 1557 1564 1557 1557 1564 1557 1557 1564 1564 1564 1564 1564 1564 1564 1564 1564 1572 1572 1572 1564 1564 1564 1564 1564 1564 1564 1572 1564 1564 1564 1564 1572 1572 1572 1564 1564 1572 1579 1579 1579 1586 1594 1594 1594 1601 1601 2226 2226 2226 2226 1594 1594 1594 1594 1594 1594 1594 1594 1594 1594 1993 1993 1993 1993 1993 2271 2271 2241 2241 2226 2226 2226 2226 2226 2226 2226 2226 2226 2226 2226 2226 1632 1632 1632 1632 1624 1616 1616 1601 1601 1601 1601 1609 1609 1609 1601 1601 1601 1601 1601 2241 2241 2256 2256 2256 2256 2256 2256 2256 2256 2256 2256 2256 2256 2256 2256 2256 2256 2256 2256 2256 2256 2256 2256 2256 2256 2256 2271 2271 2271 2271 2271 2271 2271 2271 2271 1833 1823 1823 1813 1813 1813 1804 1794 1794 1794 1794 1794 1794 1794 1794 1794 1794 1804 1804 1804 1804 1804 2256 2256 2256 2256 2256 2256 2256 2256 2256 2256 2256 2256 2271 2271 2271 2241 2241 2241 2241 2256 2256 2241 2241 2256 2256 2256 2256 2256 2256 2256 2256 2256 2256 2256 2256 2256 2256 2256 2256 2256 2256 2256 2256 2256 2256 2256 2256 2256 2256 2256 2256 2256 2256 2256 2271 2271 2256 2256 2256 2256 2256 2256 2256 2256 2256 2256 2256 2256 2256 2256 2256 2256 2256 2256 2256 2256 2271 2271 2271 2271 2271 2286 2286 2271 2271 2271 2271 2271 2271 2271 2271 2271 2271 2271 2271 2271 2271 2256 2256 2256 2256 2256 2241 2241 2241 2241 2241 2241 2241 2241 2256 2256 2256 2241 2241 2241 2241 2241 2241 2241 2241 2241 2241 2241 2241 2241 2241 2241 2241 2241 2241 2241 2241 2241 2241 2241 2241 2241 2241 2241 2241 2241 2241 2241 0 0 0 0 0 0 0 0 0
0 0 0 0 0 0 0 0 0 0 0 0 0 0 0 0 0 0 0 0 0 0 0 0 0 0 0 0 0 0 0 0 0 0 2103 2103 2103 2103 2103 2103 2103 2103 2103 2103 2116 2116 2103 2103 2103 2116 2116 2116 2116 2116 2116 2129 2116 2116 2116 2116 2116 2116 2116 2129 2129 2129 2116 2116 2116 2116 2116 2116 2116 2116 2103 2103 2103 2103 2103 2103 2103 2103 2103 2116 2116 2116 2116 2116 2116 2116 2116 2129 2129 2129 2129 2129 2143 2143 2143 2143 2143 2143 2143 2129 2129 2129 2143 2143 2143 2143 2143 2156 2156 2156 2156 2156 2156 2156 2156 1523 1523 1523 1529 1529 1529 1529 1529 1529 1529 1536 1536 1536 1536 1536 1536 1536 1543 1543 1543 1550 1550 1550 1477 1477 1477 1483 1483 1483 1483 1483 1489 1489 1489 1496 1496 1503 1496 1496 1496 1496 1503 1503 1503 1503 1503 1509 1509 1509 1509 1509 1516 1516 1516 1516 1516 1523 1523 1523 1523 1523 1523 1523 1523 1523 1529 1529 1529 1529 1529 1529 1529 1529 1529 1536 1536 1536 1543 1543 1543 1543 1543 1543 1543 1543 1543 1543 1543 1550 1550 1550 1550 1550 1550 1550 1550 1550 1550 1550 1550 1550 1550 1550 1550 1550 1550 1550 1550 1550 1550 1550 1550 1550 1550 1550 1543 1536 1536 1529 1529 1529 1543 2184 2184 2184 2184 2184 2184 1572 1564 1564 1564 1564 1564 1564 1557 1557 1557 1557 1557 1557 1557 1564 1564 1564 1564 1564 1572 2078 2078 2078 2078 2078 2090 2090 2090 2170 2198 2212 2212 2212 2212 2212 2212 2212 2212 2212 2212 1947 1947 1947 1947 1947 1959 1959 1970 1970 1970 1959 1959 2226 2226 2226 2226 2226 2226 2226 2226 2226 2226 2212 2198 2184 2184 2184 0 1536 1536 1536 1536 1536 1543 1543 1543 1543 1543 1543 1550 1550 1550 1557 1564 1557 1557 1564 1557 1557 1564 1564 1564 1564 1564 1564 1564 1564 1564 1572 1572 2212 1564 1564 1564 1564 1557 1557 1564 1564 1564 1557 1557 1564 1572 1572 1572 1564 1564 1572 1572 1579 1586 1586 1594 1594 1601 2212 2212 2212 2226 2226 2212 2212 1594 1594 1594 1594 1594 1594 2053 2040 2016 1993 1993 1993 1993 1993 2271 2271 2241 2226 2226 2226 2226 2226 2226 2226 2226 2226 2226 2212 2212 2212 1639 1632 1632 1632 1624 1624 1616 1609 1601 1601 1601 1609 1609 1609 1601 1601 1601 1601 1601 2241 2241 2256 2256 2256 2256 2256 2256 2256 2256 2256 2256 2256 2256 2256 2256 2241 2241 2241 2241 2256 2256 2256 2256 2256 2256 2256 2256 2256 2256 2256 2256 2256 2256 2271 2271 1833 1833 1823 1823 1813 1813 1804 1804 1804 1804 1804 1804 1804 1804 1804 1804 1804 1804 1804 1804 1804 1804 2256 2256 2256 2256 2256 2256 2256 2256 2256 2256 2256 2256 2256 2256 2256 2241 2241 2241 2241 2241 2241 2241 2241 2241 2241 2241 2241 2256 2256 2256 2256 2256 2256 2256 2241 2241 2241 2241 2256 2256 2256 2256 2256 2256 2256 2241 2241 2241 2256 2256 2256 2256 2256 2256 2256 2256 2256 2256 2256 2256 2256 2256 2256 2256 2256 2256 2256 2256 2256 2256 2256 2256 2256 2256 2256 2256 2256 2256 2256 2256 2271 2271 2271 2271 2271 2271 2271 2271 2256 2256 2256 2256 2256 2271 2271 2256 2256 2256 2256 2256 2256 2241 2226 2226 2241 2241 2241 2241 2241 2241 2241 2241 2241 2241 2241 2241 2241 2241 2241 2241 2241 2241 2241 2241 2226 2226 2226 2226 2241 2241 2241 2241 2241 2241 2226 2226 2226 2241 2226 2226 2241 2241 2241 2241 0 0 0 0 0 0 0 0 0
0 0 0 0 0 0 0 0 0 0 0 0 0 0 0 0 0 0 0 0 0 0 0 0 0 0 0 0 0 0 0 0 0 0 2103 2103 2103 2103 2103 2103 2103 2103 2103 2103 2103 2103 2103 2103 2103 2103 2103 2103 2116 2116 2116 2116 2116 2116 2116 2116 2116 2116 2116 2116 2129 2129 2116 2116 2116 2116 2103 2103 2103 2103 2103 2103 2103 2103 2103 2103 2103 2103 2103 2103 2103 2103 2116 2116 2116 2116 2116 2116 2116 2129 2129 2129 2129 2129 2129 2129 2116 2116 2116 2116 2116 2116 2116 2116 2116 2129 2143 2143 2143 2143 2143 2143 2143 2143 2143 1523 1523 1523 1529 1529 1529 1529 1529 1529 1529 1536 1536 1536 1536 1536 1536 1536 1543 1543 1543 1550 1557 1557 1477 1477 1477 1483 1483 1483 1483 1483 1489 1489 1489 1496 1503 1503 1496 1496 1496 1503 1503 1503 1503 1503 1509 1509 1509 1516 1509 1509 1516 1516 1516 1516 1516 1523 1523 1523 1523 1529 1529 1529 1523 1523 1529 1529 1529 1529 1529 1529 1529 1529 1536 1536 1536 1543 1543 1543 1543 1543 1543 1543 1543 1543 1543 1543 1543 1550 1550 1550 1550 1557 1557 1550 1550 1550 1557 1557 1557 1550 1550 1550 1550 1550 2184 2184 2184 2184 2184 2184 2184 2184 2184 2198 2184 2184 2198 1529 1529 1529 2184 2184 2184 2184 2184 2184 2184 2198 2198 1572 1572 1572 1572 1564 1564 1564 1564 1564 1564 1564 1564 1564 1564 1564 1564 1564 1572 1572 2078 2078 2078 2078 2090 2090 2090 2170 2198 2198 2212 2212 2212 2212 2212 2212 2212 2212 2212 1947 1947 1947 1947 1959 1959 1959 1970 1970 1970 1970 1970 2226 2212 2212 2226 2226 2212 2212 2212 2212 2212 2212 2198 2184 2184 2184 0 1543 1543 1543 1543 1543 1543 1543 1543 1543 1543 1543 1550 1550 1550 1557 1564 1564 1557 1557 1557 1557 1564 1564 1564 1564 1564 1564 1564 1564 2198 2198 2198 2212 2212 2212 2212 1564 1557 1557 1564 1564 1564 1557 1557 2212 2212 2212 2212 2212 2226 1572 1572 1579 1586 1586 2226 2226 2212 2212 2212 2212 2226 2226 2212 2212 2226 2256 2065 2065 2065 2053 2040 2028 2005 1993 1993 1993 1993 1993 1993 2256 2226 2226 2226 2226 2226 2226 2226 2226 2226 2226 2226 2212 2212 2212 1639 1632 1632 1632 1624 1624 1616 1609 1601 1601 1609 1609 1609 1609 1609 1609 1601 1601 1601 2241 2241 2241 2241 2241 2241 2241 2256 2256 2256 2256 2256 2256 2256 2256 2241 2241 2241 2241 2241 2241 2256 2241 2241 2241 2256 2256 2256 2256 2256 2256 2256 2256 2256 2256 2271 2271 1823 1823 1823 1813 1813 1804 1804 1804 1804 1804 1804 1804 1804 1804 1804 1804 1804 1813 1804 1794 1794 2256 2256 2241 2241 2241 2241 2256 2241 2241 2241 2241 2241 2241 2241 2241 2226 2226 2226 2226 2226 2241 2241 2241 2241 2241 2241 2241 2241 2241 2241 2241 2241 2241 2241 2241 2241 2241 2241 2241 2241 2241 2241 2241 2241 2241 2241 2241 2241 2241 2241 2241 2241 2241 2241 2256 2256 2241 2241 2241 2241 2241 2241 2241 2241 2241 2241 2241 2241 2241 2256 2256 2256 2256 2256 2256 2256 2256 2256 2256 2256 2256 2256 2256 2256 2256 2256 2256 2256 2256 2256 2256 2256 2256 2256 2256 2256 2256 2241 2241 2241 2241 2241 2226 2226 2226 2226 2241 2241 2241 2241 2241 2241 2241 2226 2226 2226 2241 2241 2226 2226 2226 2226 2226 2226 2226 2226 2226 2226 2226 2226 2226 2226 2226 2226 2226 2226 2226 2226 2226 2226 2226 2226 2226 2226 0 0 0 0 0 0 0 0 0
0 0 0 0 0 0 0 0 0 0 0 0 0 0 0 0 0 0 0 0 0 0 0 0 0 0 0 0 0 0 0 0 0 0 2103 2103 2103 2103 2103 2090 2090 2090 2090 2090 2090 2090 2090 2090 2090 2103 2103 2103 2103 2103 2116 2116 2103 2103 2116 2116 2116 2116 2116 2116 2116 2116 2103 2103 2103 2103 2103 2103 2103 2103 2103 2103 2103 2103 2103 2103 2103 2103 2103 2103 2103 2103 2103 2103 2103 2103 2103 2116 2116 2116 2116 2116 2116 2116 2116 2116 2103 2103 2116 2103 2103 2116 2116 2116 2116 2116 2116 2116 2116 2116 2116 2116 2116 2129 2129 1523 1523 1523 1529 1529 1529 1529 1536 1536 1536 1536 1536 1536 1536 1536 1536 1536 1543 1550 1550 1557 1557 1557 1458 1458 1470 1483 1483 1483 1483 1483 1489 1489 1489 1496 1503 1503 1496 1496 1496 1503 1503 1503 1503 1509 1509 1509 1516 1516 1509 1509 1516 1516 1516 1516 1516 1523 1523 1523 1523 1529 1529 1529 1523 1523 1529 1529 1529 1529 1529 1529 1529 1529 1529 1536 1536 1543 1543 1543 1543 1543 1543 1543 1543 1543 1543 1543 1543 1550 1550 1550 1550 1557 1557 2184 2184 2184 2184 2184 2184 2184 2184 2184 2184 2184 2184 2184 2184 2184 2184 2184 2184 2184 2184 2184 2184 2184 2198 2198 2198 2198 2184 2184 2184 2184 2184 2184 2184 2184 2184 2184 1579 1572 1572 1564 1564 1564 1564 1564 1564 1564 1564 1564 1564 1564 1564 1564 1564 1564 1564 2078 2078 2090 2090 2103 2103 2170 2184 2198 2198 2198 2212 2212 2212 2198 2198 2198 2212 1959 1947 1947 1947 1959 1959 1959 1959 1959 1959 1970 2212 2212 2212 2212 2212 2212 2212 2212 2212 2212 2212 2198 2184 2170 2170 2170 1557 1543 1543 1543 1543 1543 1543 1543 1543 1543 1550 1550 1550 1550 1550 1557 1564 1564 1557 1557 1557 1557 1557 1564 1564 1564 1564 2198 2212 2198 2198 2198 2198 2198 2198 2212 2212 2212 2212 2212 2226 2226 2226 2226 2226 2212 2212 2212 2212 2212 2226 2226 2241 2226 2226 2226 2226 2226 2226 2212 2212 2212 2226 2226 2226 2226 2241 2256 2065 2065 2065 2053 2040 2028 2005 1993 1993 1993 1993 1993 1993 2256 2226 2226 2226 2226 2226 2226 2226 2241 2241 2241 2226 2226 2226 2226 1639 1632 1632 1632 1624 1624 1624 1609 1609 1609 1609 1609 1609 1609 1609 1609 1609 1609 2226 2226 2226 2226 2226 2226 2241 2241 2241 2241 2241 2241 2241 2241 2241 2241 2241 2241 2241 2241 2241 2241 2241 2241 2241 2241 2241 2241 2241 2241 2241 2241 2256 2241 2241 2241 2241 2241 1823 1823 1823 1823 1813 1804 1804 1804 1804 1804 1804 1804 1804 1804 1804 1804 1804 1813 1804 1794 1794 2241 2241 2241 2241 2241 2241 2241 2241 2241 2241 2241 2241 2241 2241 2241 2226 2226 2226 2226 2226 2226 2226 2226 2226 2226 2241 2241 2241 2241 2241 2241 2241 2241 2241 2241 2226 2226 2226 2226 2226 2241 2241 2241 2241 2241 2241 2241 2226 2226 2241 2241 2241 2241 2241 2241 2241 2226 2226 2241 2241 2241 2241 2241 2241 2241 2241 2241 2241 2241 2241 2241 2241 2241 2241 2256 2241 2241 2241 2241 2241 2241 2241 2256 2256 2256 2256 2256 2256 2241 2241 2241 2256 2241 2241 2241 2241 2256 2241 2241 2241 2241 2241 2226 2226 2226 2226 2226 2226 2226 2226 2241 2241 2226 2226 2226 2226 2226 2226 2226 2226 2226 2226 2226 2226 2226 2226 2226 2226 2226 2226 2226 2226 2226 2226 2226 2226 2226 2226 2226 2226 2226 2226 2226 2226 0 0 0 0 0 0 0 0 0
0 0 0 0 0 0 0 0 0 0 0 0 0 0 0 0 0 0 0 0 0 0 0 0 0 0 0 0 0 0 0 0 0 0 2090 2090 2090 2090 2090 2090 2078 2078 2090 2090 2090 2090 2090 2090 2090 2103 2103 2103 2103 2103 2103 2103 2103 2103 2103 2103 2103 2103 2103 2103 2103 2103 2090 2090 2103 2103 2103 2103 2103 2103 2103 2090 2090 2103 2103 2103 2103 2103 2103 2103 2103 2103 2103 2103 2103 2103 2103 2103 2103 2103 2103 2116 2116 2103 2103 2103 2103 2103 2103 2103 2103 2103 2103 2103 2103 2116 2116 2116 2116 2116 2116 2116 2116 2116 2116 2116 1523 1523 1529 1529 1529 1529 1536 1536 1536 1536 1536 1536 1536 1536 1543 1543 1543 1550 1557 1557 1564 1564 1458 1458 1470 1483 1483 1483 1483 1489 1489 1496 1496 1496 1503 1503 1496 1496 1496 1503 1503 1503 1503 1509 1509 1516 1516 1516 1509 1509 1516 1516 1516 1516 1516 1516 1523 1523 1529 1529 1529 1529 1523 1523 1529 1529 1529 1529 1529 1529 1529 1529 1529 1536 1536 1543 1543 1543 1550 1550 1543 1543 1543 1543 1543 1543 1550 1550 1550 1550 2184 2184 2184 2184 2184 2184 2184 2184 2184 2184 2184 2184 2184 2184 2184 2184 2184 2184 2184 2184 2184 2184 2184 2184 2184 2184 2184 2198 2198 2198 2170 2170 2170 2170 2170 2170 2170 2184 2184 2184 1579 1572 1572 1572 1572 1572 1572 1572 1572 1572 1572 1564 1564 1564 1564 1564 1564 1564 1564 2078 2090 2090 2103 2116 2116 2170 2184 2184 2198 2198 2198 2198 2198 2198 2198 2198 2198 1947 1947 1947 1947 1947 1947 1947 1947 1947 1947 1959 2198 2198 2198 2198 2198 2198 2198 2198 2198 2198 2198 2184 2184 2170 2170 2170 1557 1557 1543 1543 1543 1543 1543 1543 1550 1550 1550 1550 1550 1550 1550 1557 1564 1564 1564 1564 2212 1557 1557 1564 2212 2212 2212 2212 2212 2198 2198 2198 2198 2198 2198 2198 2198 2198 2212 2212 2212 2212 2212 2226 2226 2226 2212 2212 2212 2226 2226 2226 2226 2226 2226 2226 2226 2226 2226 2212 2212 2226 2226 2226 2226 2226 2241 2256 2065 2065 2065 2053 2040 2028 2005 1993 1981 1981 1981 1981 1981 2256 2226 2226 2226 2226 2226 2226 2226 2241 2241 2241 2241 2241 2241 2241 1639 1632 1632 1632 1632 1624 1624 1609 1609 1609 1609 1609 1609 1609 1609 1616 1616 2226 2226 2226 2226 2226 2226 2226 2226 2226 2226 2226 2226 2226 2241 2241 2241 2241 2241 2226 2226 2226 2226 2226 2226 2226 2226 2226 2226 2226 2226 2226 2226 2241 2241 2241 2241 2241 2241 2241 1823 1823 1823 1823 1813 1804 1804 1804 1804 1804 1804 1804 1804 1804 1804 1804 1804 1813 1804 1794 1794 2241 2241 2241 2226 2226 2241 2241 2226 2226 2226 2226 2226 2226 2226 2226 2212 2212 2212 2212 2212 2226 2226 2226 2226 2226 2226 2241 2241 2241 2241 2241 2226 2226 2226 2226 2226 2226 2226 2212 2212 2226 2226 2226 2226 2226 2226 2226 2226 2226 2226 2226 2226 2226 2226 2226 2226 2226 2226 2226 2226 2241 2241 2241 2241 2241 2241 2241 2241 2241 2241 2241 2241 2241 2241 2241 2241 2226 2226 2226 2241 2241 2241 2241 2241 2241 2241 2241 2241 2241 2241 2241 2241 2241 2241 2241 2241 2241 2241 2241 2241 2241 2241 2226 2226 2226 2226 2226 2226 2226 2226 2226 2226 2212 2212 2212 2226 2212 2212 2212 2212 2212 2212 2212 2212 2212 2212 2226 2226 2226 2226 2226 2226 2226 2226 2212 2212 2212 2212 2212 2212 2212 2212 2212 2212 0 0 0 0 0 0 0 0 0
0 0 0 0 0 0 0 0 0 0 0 0 0 0 0 0 0 0 0 0 0 0 0 0 0 0 0 0 0 0 0 0 0 0 2090 2090 2078 2078 2090 2090 2078 2078 2078 2078 2078 2078 2078 2090 2090 2090 2090 2090 2103 2103 2103 2103 2103 2103 2103 2103 2103 2103 2103 2103 2103 2103 2090 2090 2090 2090 2090 2090 2090 2090 2090 2090 2090 2090 2090 2090 2103 2090 2090 2090 2103 2103 2103 2103 2103 2103 2103 2103 2103 2103 2103 2103 2103 2103 2103 2103 2103 2103 2103 2103 2103 2103 2103 2103 2103 2103 2103 2103 2103 2103 2103 2116 2116 2116 2116 2116 1529 1529 1529 1529 1536 1536 1536 1536 1536 1536 1536 1536 1536 1536 1543 1543 1543 1550 1557 1564 1594 1594 1464 1464 1470 1483 1483 1483 1483 1489 1489 1496 1496 1496 1503 1503 1496 1496 1496 1503 1503 1503 1503 1509 1509 1516 1516 1516 1509 1509 1516 1516 1516 1516 1516 1516 1523 1523 1529 1529 1529 1529 1529 1529 1529 1529 1529 1529 1529 2143 2143 2143 2156 2156 2143 1543 1543 1550 1550 1550 1550 2156 2156 2156 2156 2156 2156 2170 2170 2170 2170 2170 2184 2184 2184 2184 2184 2184 2184 2184 2184 2184 2184 2184 2184 2184 2184 2184 2184 2184 2184 2184 2184 2184 2184 2184 2184 2198 2184 2184 2170 2170 2170 2170 2170 2170 2170 2184 2184 2184 1579 1572 1572 1572 1572 1572 1572 1572 1572 1572 1572 1572 1564 1564 1564 1564 2078 2078 2078 2090 2090 2090 2103 2116 2156 2170 2184 2184 2184 2184 2184 2184 2198 2184 2184 2184 1959 1947 1947 1947 1947 1947 1947 1947 1947 1947 1947 1947 2184 2184 2184 2184 2184 2184 2184 2184 2184 2184 2184 2184 2184 2170 2170 2170 1557 1557 1550 1550 1550 1550 1550 1550 1550 1550 1550 1550 1557 1550 1550 1557 1564 1572 2212 2212 2212 2212 2212 2212 2212 2212 2212 2212 2198 2198 2198 2198 2198 2198 2198 2198 2198 2198 2212 2212 2212 2212 2212 2212 2212 2212 2212 2212 2212 2226 2226 2226 2226 2226 2226 2226 2226 2226 2212 2212 2212 2226 2226 2226 2226 2226 2241 2256 2065 2065 2065 2053 2040 2016 1993 1981 1981 1981 1970 1970 1970 1981 2226 2226 2226 2226 2226 2226 2226 2226 2226 2241 2226 2226 2226 2226 1639 1632 1632 1632 1632 1624 1624 1609 1609 1609 1609 1616 1616 1616 1616 1616 1616 2212 2212 2212 2212 2226 2212 2212 2212 2212 2226 2226 2226 2226 2226 2226 2226 2226 2226 2226 2226 2226 2226 2226 2226 2212 2212 2212 2226 2226 2212 2212 2226 2226 2241 2226 2226 2226 2241 2241 1823 1823 1823 1823 1813 1804 1804 1804 1804 1804 1804 1804 1804 1813 1804 1804 1804 1813 1813 1804 1804 2226 2226 2226 2226 2226 2226 2226 2226 2226 2226 2226 2226 2226 2226 2226 2212 2212 2212 2212 2212 2226 2212 2212 2226 2226 2226 2226 2226 2226 2226 2226 2226 2226 2226 2212 2212 2212 2212 2212 2212 2212 2212 2212 2212 2212 2212 2212 2212 2212 2212 2212 2212 2226 2226 2212 2212 2212 2212 2226 2226 2226 2226 2241 2241 2226 2226 2226 2226 2226 2226 2226 2226 2226 2226 2241 2226 2226 2226 2226 2226 2241 2241 2241 2226 2226 2226 2226 2226 2226 2226 2226 2226 2226 2226 2241 2241 2241 2241 2241 2241 2241 2226 2212 2212 2212 2226 2226 2226 2226 2226 2226 2212 2198 2198 2198 2198 2212 2212 2212 2212 2212 2212 2212 2212 2212 2212 2212 2212 2212 2212 2212 2226 2212 2212 2212 2212 2198 2198 2198 2198 2198 2198 2198 2198 0 0 0 0 0 0 0 0 0
0 0 0 0 0 0 0 0 0 0 0 0 0 0 0 0 0 0 0 0 0 0 0 0 0 0 0 0 0 0 0 0 0 0 2078 2078 2078 2078 2078 2078 2078 2065 2065 2078 2078 2078 2078 2078 2078 2078 2090 2090 2103 2103 2103 2103 2103 2103 2090 2090 2103 2103 2090 2090 2090 2103 2090 2090 2090 2090 2090 2090 2078 2078 2078 2090 2090 2090 2090 2090 2090 2090 2090 2090 2090 2090 2090 2090 2090 2103 2103 2103 2090 2090 2103 2103 2103 2103 2103 2103 2103 2103 2103 2103 2103 2103 2103 2103 2103 2103 2103 2103 2103 2103 2103 2103 2116 2116 2116 2116 1523 1523 1523 1536 1536 1536 1536 1536 1536 1536 1536 1536 1536 1543 1543 1550 1550 1557 1564 1564 1564 1564 1477 1477 1477 1483 1489 1489 1489 1489 1496 1496 1496 1503 1503 1503 1496 1496 1496 1496 1496 1503 1503 1503 1509 1509 1516 1523 1523 1981 1523 1523 1523 1523 1993 1529 1529 1529 1536 1536 1536 1536 1543 2143 2143 2143 2143 2143 2143 2143 2143 2143 2156 2156 2143 2143 2156 2156 2156 2156 2156 2156 2156 2156 2156 2156 2156 2156 2156 2156 2170 2170 2170 2170 2170 2170 2170 2170 2170 2170 2170 2170 2170 2170 2170 2184 2184 2184 2184 2184 2184 2184 2184 2184 2184 2184 2184 2184 2184 2184 2156 2156 2156 2156 2156 2156 2156 2170 2170 2170 1579 1572 1572 1572 1572 1572 1572 1572 1572 1572 1572 1572 1564 1564 1564 1564 2090 2090 2090 2090 2090 2103 2116 2129 2156 2170 2184 2184 2184 2184 2184 2184 2184 2184 2184 2184 1959 1959 1947 1947 1947 1947 1947 1947 1936 1936 1936 1936 1936 2184 2184 2184 2184 2184 2184 2184 2184 2184 2184 2184 2170 2170 2170 2170 1572 1572 1550 1550 1550 1550 1550 1550 1550 1550 1550 1550 1557 1550 1550 1550 1550 2212 2212 2212 2198 2198 2212 2212 2198 2198 2198 2198 2198 2198 2198 2198 2198 2198 2198 2198 2198 2198 2198 2212 2212 2212 2212 2212 2212 2212 2212 2212 2212 2212 2212 2212 2226 2226 2226 2212 2212 2212 2212 2212 2212 2212 2226 2226 2226 2226 2241 2065 2065 2065 2065 2053 2053 2016 1993 1981 1981 1970 1970 1970 1970 1970 1970 2226 2226 2226 2226 2226 2226 2226 2226 2226 2226 2226 2226 1639 1639 1632 1632 1632 1632 1624 1624 1616 1616 1616 1616 1616 1616 1616 1616 1624 1624 2198 2198 2198 2212 2212 2212 2212 2212 2212 2212 2212 2212 2212 2212 2226 2226 2226 2226 2212 2212 2226 2212 2212 2212 2212 2212 2212 2212 2212 2212 2212 2226 2226 2226 2226 2226 2226 2241 2241 1823 1823 1823 1823 1813 1804 1804 1804 1804 1804 1804 1804 1804 1813 1804 1804 1804 1813 1813 1813 1813 2212 2212 2212 2212 2212 2212 2212 2226 2226 2226 2212 2212 2212 2212 2212 2198 2198 2198 2198 2212 2212 2212 2212 2212 2212 2212 2212 2212 2212 2212 2212 2212 2212 2212 2212 2198 2198 2212 2198 2198 2198 2198 2198 2198 2198 2198 2212 2212 2212 2212 2212 2212 2212 2212 2212 2212 2212 2212 2212 2212 2226 2226 2226 2226 2226 2226 2212 2212 2226 2212 2212 2226 2226 2226 2226 2226 2226 2226 2226 2226 2226 2226 2226 2212 2212 2212 2212 2226 2226 2226 2226 2226 2226 2226 2226 2226 2226 2226 2226 2226 2226 2212 2198 2198 2198 2198 2198 2198 2198 2212 2212 2198 2198 2184 2184 2198 2198 2198 2198 2212 2212 2212 2198 2198 2198 2198 2212 2212 2212 2212 2212 2212 2212 2212 2212 2198 2198 2184 2184 2198 2184 2184 2184 2198 0 0 0 0 0 0 0 0 0
0 0 0 0 0 0 0 0 0 0 0 0 0 0 0 0 0 0 0 0 0 0 0 0 0 0 0 0 0 0 0 0 0 0 2078 2065 2065 2065 2065 2065 2065 2065 2065 2065 2065 2065 2065 2078 2078 2078 2078 2078 2090 2090 2090 2090 2090 2090 2090 2090 2090 2090 2090 2090 2090 2090 2078 2078 2078 2078 2078 2078 2078 2078 2078 2078 2078 2090 2090 2090 2090 2090 2090 2090 2090 2090 2090 2090 2090 2090 2090 2090 2090 2090 2090 2090 2090 2103 2103 2103 2090 2090 2090 2090 2090 2103 2090 2090 2090 2103 2103 2103 2103 2103 2103 2103 2103 2103 2116 2116 1523 1523 1523 1536 1536 1536 1536 1536 1543 1543 1543 1543 1543 1543 1550 1550 1550 1557 1564 1564 1564 0 1496 1496 1496 1496 1496 1496 1496 1496 1496 1496 1503 1503 1503 1503 1496 1496 1496 1496 1496 1503 1503 1503 1509 1509 1516 2016 1981 1981 1981 1981 1981 1981 1993 1993 1993 1993 1993 2143 2143 1543 1543 2143 2143 2143 2143 2143 2143 2143 2143 2143 2156 2156 2143 2143 2143 2156 2143 2143 2143 2143 2143 2143 2143 2143 2143 2143 2143 2156 2156 2156 2156 2170 2170 2170 2170 2156 2156 2156 2156 2156 2156 2170 2170 2170 2170 2184 2184 2184 2184 2184 2184 2184 2184 2184 2184 2184 2184 2184 2156 2156 2156 2156 2156 2156 2156 2170 2170 2170 1579 1579 1572 1572 1572 1572 1572 1572 1572 1572 1572 1572 1572 1572 1564 1564 1572 2078 2090 2090 2103 2103 2116 2129 2156 2170 2170 2184 2184 2184 2184 2184 2184 2184 2184 2184 1970 1970 1947 1947 1947 1936 1936 1936 1936 1926 1926 1926 1926 2184 2184 2184 2184 2184 2184 2184 2184 2184 2184 2184 2170 2170 2170 2170 2170 1572 1550 1550 1550 1550 1550 1550 1550 1550 1550 1557 1557 1557 1557 1557 0 2212 2212 2212 2198 2198 2198 2198 2198 2198 2198 2198 2184 2184 2184 2198 2198 2198 2198 2198 2198 2198 2198 2198 2198 2198 2198 2198 2198 2198 2198 2198 2212 2212 2212 2212 2212 2212 2212 2212 2212 2212 2212 2212 2212 2212 2212 2212 2212 2212 2065 2065 2065 2065 2065 2053 2053 2016 1993 1981 1970 1970 1970 1959 1959 1959 1959 2226 2226 2226 2226 2226 2226 2226 2226 2226 2226 2226 2226 1639 1639 1632 1632 1632 1632 1624 1624 1616 1616 1616 1616 1616 1616 1616 1624 1624 1639 2184 2184 2198 2198 2212 2212 2212 2212 2212 2212 2212 2212 2212 2212 2212 2212 2212 2212 2212 2212 2212 2212 2212 2212 2212 2212 2212 2212 2212 2212 2212 2212 2212 2212 2212 2212 2212 2226 2226 1833 1823 1823 1823 1813 1813 1804 1804 1804 1804 1804 1804 1813 1813 1813 1813 1813 1813 1823 1823 2212 2212 2212 2212 2212 2212 2212 2212 2212 2212 2212 2212 2212 2212 2212 2212 2198 2198 2198 2198 2198 2198 2198 2198 2198 2198 2212 2212 2198 2198 2212 2198 2198 2198 2198 2198 2198 2198 2198 2198 2198 2198 2198 2198 2198 2198 2198 2198 2198 2198 2198 2198 2198 2198 2212 2212 2212 2212 2212 2212 2212 2212 2212 2212 2212 2212 2212 2212 2212 2212 2212 2212 2212 2212 2212 2226 2212 2212 2212 2212 2212 2212 2212 2212 2212 2212 2212 2212 2212 2212 2212 2212 2212 2212 2212 2212 2212 2212 2212 2212 2212 2212 2212 2198 2198 2198 2198 2198 2198 2198 2198 2198 2184 2184 2184 2184 2184 2184 2184 2184 2184 2184 2184 2184 2198 2198 2198 2198 2212 2212 2212 2212 2212 2212 2198 2198 2198 2184 2184 2184 2184 2184 2184 2184 2184 0 0 0 0 0 0 0 0 0
0 0 0 0 0 0 0 0 0 0 0 0 0 0 0 0 0 0 0 0 0 0 0 0 0 0 0 0 0 0 0 0 0 0 2065 2065 2065 2065 2065 2065 2065 2065 2065 2065 2065 2065 2065 2065 2065 2065 2078 2078 2078 2078 2078 2090 2090 2090 2090 2090 2090 2090 2090 2090 2078 2078 2065 2065 2065 2078 2065 2065 2065 2065 2065 2065 2065 2078 2078 2078 2090 2090 2090 2090 2090 2090 2090 2090 2090 2090 2090 2090 2078 2078 2090 2090 2090 2090 2090 2090 2090 2090 2090 2090 2090 2090 2090 2090 2090 2090 2090 2090 2090 2090 2103 2103 2103 2103 2103 2103 1523 1523 1523 1536 1536 1536 1536 1536 1543 1543 1543 1543 1543 1543 1550 1550 1550 1557 1564 1564 1564 1557 1503 1503 1503 1503 1503 1496 1496 1496 1503 1503 1503 1503 1503 1503 1496 1496 1496 1496 1496 1496 1503 1503 2116 2103 2103 2016 2005 1993 1981 1981 1981 1981 1981 1981 1981 1981 2143 2143 2143 2143 2143 2143 2143 2143 2129 2129 2143 2143 2143 2143 2143 2143 2143 2143 2143 2143 2143 2143 2143 2143 2143 2143 2143 2143 2143 2143 2143 2143 2156 2156 2156 2156 2156 2156 2156 2156 2156 2156 2156 2156 2156 2156 2156 2170 2170 2170 2170 2170 2170 2170 2170 2170 2170 2170 2170 2170 2170 2170 2156 2156 2156 2156 2143 2143 2156 2156 2156 2156 2156 1579 1572 1572 1572 1572 1572 1572 1572 1572 1572 1572 1572 1572 1564 1564 1572 2078 2090 2090 2103 2103 2116 2129 2156 2170 2170 2170 2170 2170 2184 2184 2170 2170 2170 2170 1970 1970 1959 1947 1947 1936 1936 1936 1936 1926 1926 1926 1926 2170 2170 2170 2170 2170 2170 2184 2184 2170 2170 2170 2170 2170 2170 2170 2170 2170 1564 1557 1550 1550 1550 1550 1550 1550 1557 1557 1564 1557 1557 1557 0 2212 2212 2198 2184 2184 2184 2184 2198 2198 2184 2184 2170 2170 2184 2184 2184 2184 2184 2184 2184 2184 2184 2184 2184 2184 2184 2184 2184 2198 2198 2198 2198 2198 2198 2212 2212 2212 2212 2212 2212 2212 2212 2198 2198 2212 2212 2212 2212 2212 2065 2065 2065 2065 2065 2053 2053 2040 2005 1981 1970 1959 1959 1959 1959 1959 1959 2212 2212 2212 2212 2212 2212 2226 2226 2226 2226 2226 2226 1639 1639 1632 1632 1632 1632 1624 1624 1616 1616 1616 1616 1616 1616 1616 1624 1624 1639 2184 2184 2198 2198 2212 2212 2212 2212 2212 2212 2212 2212 2212 2212 2212 2212 2212 2212 2212 2212 2212 2212 2198 2198 2198 2198 2198 2212 2198 2198 2198 2198 2198 2212 2212 2212 2212 2226 1843 1833 1823 1823 1823 1823 1813 1813 1813 1813 1813 1813 1813 1813 1813 1813 1813 1813 1823 1823 1833 2198 2198 2198 2198 2212 2212 2212 2212 2212 2212 2212 2212 2212 2212 2212 2212 2198 2198 2198 2198 2198 2198 2198 2198 2198 2198 2198 2198 2198 2198 2198 2198 2198 2198 2198 2198 2198 2198 2198 2198 2198 2198 2198 2198 2198 2198 2198 2198 2198 2198 2198 2198 2198 2198 2198 2198 2198 2198 2198 2198 2198 2198 2198 2198 2198 2198 2198 2212 2212 2212 2212 2212 2212 2212 2212 2212 2212 2212 2212 2212 2212 2212 2212 2212 2212 2212 2212 2212 2212 2212 2198 2198 2198 2198 2198 2198 2198 2198 2198 2198 2198 2198 2212 2184 2184 2184 2184 2198 2198 2198 2184 2184 2184 2184 2170 2170 2184 2184 2184 2184 2184 2184 2184 2184 2184 2184 2198 2198 2198 2198 2198 2198 2184 2184 2184 2184 2184 2184 2184 2184 2184 2184 2184 2184 2184 0 0 0 0 0 0 0 0 0
0 0 0 0 0 0 0 0 0 0 0 0 0 0 0 0 0 0 0 0 0 0 0 0 0 0 0 0 0 0 0 0 0 0 2065 2065 2065 2065 2065 2065 2065 2065 2065 2065 2065 2065 2065 2065 2065 2065 2065 2065 2078 2078 2078 2078 2078 2078 2078 2078 2078 2078 2078 2078 2065 2065 2053 2053 2065 2065 2065 2065 2065 2065 2065 2065 2065 2065 2065 2065 2078 2078 2078 2078 2090 2090 2090 2090 2090 2090 2090 2090 2078 2078 2090 2090 2090 2090 2090 2090 2090 2090 2090 2090 2090 2090 2090 2090 2090 2090 2090 2090 2090 2090 2090 2090 2103 2103 2090 2090 2090 1523 1523 1536 1536 1536 1536 1543 1543 1543 1543 1543 1543 1543 1550 1550 1550 1557 1564 1557 1557 1557 1503 1503 1503 1503 1503 1503 1503 1503 1503 1503 1503 1503 1503 1503 1496 1496 1496 1496 1496 1496 2090 2090 2103 2103 2103 2053 2028 1993 1981 1981 1981 1981 1981 1981 1981 1981 1993 2129 2129 2129 2129 2129 2129 2129 2129 2129 2129 2129 2129 2129 2143 2143 2143 2143 2143 2143 2143 2143 2143 2143 2143 2143 2143 2143 2143 2143 2143 2143 2143 2143 2143 2143 2143 2143 2143 2143 2143 2143 2143 2143 2143 2143 2143 2170 2170 2170 2170 2170 2170 2170 2170 2170 2170 2156 2156 2170 2170 2156 2143 2143 2143 2143 2143 2143 2143 2143 2143 2156 1572 1572 1572 1572 1572 1572 1572 1572 1572 1572 1579 1579 1579 1579 1579 1579 2078 2078 2090 2103 2103 2116 2116 2129 2156 2170 2170 2170 2170 2170 2170 2170 2170 2170 2170 2170 2170 2184 1959 1947 1936 1936 1936 1926 1926 1915 1915 1915 1915 1926 2170 2170 2170 2170 2170 2170 2170 2170 2170 2170 2170 2170 2170 2170 2170 2170 1543 1543 1543 1550 1550 1550 1550 1550 1557 1557 1564 1557 1557 1557 1550 2170 2170 2170 2170 2170 2184 2184 2184 2184 2170 2170 2170 2170 2170 2170 2170 2184 2184 2184 2184 2184 2184 2170 2170 2184 2184 2184 2184 2184 2184 2198 2198 2198 2198 2212 2212 2212 2198 2198 2212 2198 2198 2198 2198 2198 2198 2198 2198 2212 2078 2065 2065 2065 2065 2053 2053 2040 2016 1981 1970 1959 1959 1947 1947 1947 1947 1947 2212 2212 2212 2212 2212 2212 2212 2226 2226 2226 1639 1639 1639 1632 1632 1632 1632 1624 1624 1616 1616 1616 1616 1616 1616 1624 1624 1624 1639 1639 2184 2184 2198 2198 2198 2198 2198 2198 2198 2198 2198 2198 2198 2198 2198 2198 2198 2198 2198 2198 2198 2198 2198 2198 2198 2198 2198 2198 2198 2198 2198 2198 2198 2198 2198 2212 2212 1843 1833 1833 1823 1823 1823 1813 1813 1813 1813 1813 1813 1813 1813 1813 1813 1813 1823 1823 1823 1833 2198 2198 2198 2198 2198 2212 2198 2198 2198 2198 2198 2212 2198 2198 2198 2198 2184 2184 2184 2184 2184 2184 2184 2184 2184 2198 2198 2184 2184 2184 2184 2184 2184 2184 2184 2184 2198 2198 2198 2184 2184 2184 2198 2198 2198 2198 2198 2198 2198 2198 2198 2198 2198 2198 2198 2198 2198 2198 2198 2198 2198 2198 2198 2198 2198 2198 2198 2198 2198 2198 2198 2198 2212 2198 2198 2198 2198 2198 2198 2198 2198 2198 2198 2198 2198 2198 2198 2198 2198 2198 2198 2198 2198 2198 2198 2198 2198 2198 2198 2198 2198 2198 2198 2184 2184 2184 2184 2184 2184 2184 2184 2184 2184 2184 2170 2170 2170 2184 2184 2184 2184 2184 2184 2184 2184 2184 2184 2184 2184 2184 2184 2184 2170 2170 2170 2170 2170 2170 2170 2170 2170 2170 2170 2170 2170 0 0 0 0 0 0 0 0 0
0 0 0 0 0 0 0 0 0 0 0 0 0 0 0 0 0 0 0 0 0 0 0 0 0 0 0 0 0 0 0 0 0 0 2065 2065 2053 2053 2065 2053 2053 2053 2053 2053 2053 2053 2053 2065 2065 2065 2065 2065 2065 2078 2078 2078 2078 2078 2078 2078 2065 2065 2065 2065 2065 2065 2053 2053 2053 2053 2065 2053 2053 2053 2065 2053 2053 2053 2053 2065 2065 2078 2078 2078 2078 2078 2078 2078 2090 2090 2078 2078 2078 2078 2078 2078 2078 2078 2078 2078 2078 2078 2078 2078 2090 2090 2090 2090 2090 2090 2090 2090 2090 2090 2090 2090 2103 2103 2090 2090 2090 1529 1529 1536 1536 1536 1543 1543 1543 1550 1550 1543 1543 1550 1550 1550 1550 1557 1557 1557 1557 1557 1509 1509 1509 1509 1503 1503 1503 1503 1503 1503 1503 1503 1503 1503 1496 1496 1496 1496 2065 2078 2078 2090 2103 2103 2116 2090 2078 1993 1981 1981 1981 1981 1981 1981 1981 1993 1993 1993 2116 2129 2129 2129 2129 2129 2129 2129 2129 2129 2129 2129 2129 2129 2129 2129 2129 2143 2143 2143 2143 2143 2143 2143 2143 2143 2143 2143 2143 2143 2143 2143 2143 2129 2129 2129 2129 2143 2143 2143 2143 2143 2143 2143 2143 2143 2156 2156 2156 2156 2156 2156 2156 2156 2156 2156 2156 2156 2156 2156 2143 2143 2143 2143 2143 2143 2129 2129 2129 2129 1572 1572 1572 1572 1572 1572 1572 1572 1572 1572 1579 1579 1579 1579 1579 1579 2078 2078 2103 2103 2116 2116 2129 2129 2156 2156 2170 2170 2170 2170 2170 2170 2170 2170 2170 2170 2170 2184 1959 1947 1936 1936 1936 1926 1915 1904 1904 1904 1915 1915 2156 2170 2170 2170 2170 2170 2170 2170 2170 2170 2170 2170 2170 2170 2170 2170 1543 1543 1543 1550 1550 1550 1550 1557 1557 1557 1564 1557 1550 1550 1550 2156 2156 2170 2170 2170 2170 2170 2170 2170 2170 2170 2170 2170 2170 2170 2170 2170 2170 2170 2170 2170 2170 2170 2170 2170 2170 2170 2170 2170 2170 2170 2184 2184 2184 2198 2198 2198 2198 2198 2198 2198 2198 2198 2198 2198 2198 2170 2170 2156 2078 2078 2065 2065 2065 2053 2053 2053 2016 1970 1947 1936 1936 1947 1947 1936 1936 1936 1936 2212 2212 2212 2212 2212 2212 2212 2212 2212 1632 1632 1639 1632 1632 1632 1632 1624 1624 1616 1616 1616 1616 1616 1616 1624 1624 1632 1639 2156 2156 2170 2184 2198 2198 2198 2198 2198 2198 2198 2198 2198 2198 2198 2198 2198 2198 2198 2198 2198 2198 2198 2198 2198 2198 2198 2198 2198 2198 2198 2198 2198 2198 2198 2198 2212 1863 1843 1833 1833 1823 1823 1823 1813 1813 1823 1823 1823 1823 1823 1823 1823 1823 1823 1823 1823 1823 1833 2198 2198 2198 2198 2198 2198 2198 2198 2198 2198 2198 2198 2198 2198 2198 2198 2184 2184 2184 2184 2184 2184 2184 2184 2184 2184 2184 2184 2184 2184 2184 2184 2184 2184 2184 2184 2184 2184 2184 2184 2184 2184 2184 2184 2184 2184 2184 2184 2198 2198 2198 2198 2198 2198 2198 2198 2198 2198 2198 2198 2198 2198 2198 2198 2198 2198 2198 2198 2198 2198 2198 2198 2198 2198 2198 2198 2184 2184 2184 2184 2198 2198 2198 2198 2198 2198 2198 2198 2198 2198 2198 2198 2198 2198 2184 2184 2184 2198 2198 2184 2184 2184 2184 2170 2170 2170 2170 2184 2184 2184 2184 2184 2170 2170 2170 2170 2170 2170 2170 2170 2170 2170 2170 2184 2184 2184 2184 2184 2170 2170 2170 2170 2170 2170 2170 2170 2170 2170 2170 2170 2170 2170 2170 2170 2170 0 0 0 0 0 0 0 0 0
0 0 0 0 0 0 0 0 0 0 0 0 0 0 0 0 0 0 0 0 0 0 0 0 0 0 0 0 0 0 0 0 0 0 2053 2053 2053 2053 2053 2053 2053 2053 2053 2053 2053 2053 2053 2053 2053 2053 2065 2065 2065 2065 2065 2065 2065 2065 2065 2065 2065 2065 2065 2065 2065 2065 2053 2053 2053 2053 2053 2053 2053 2053 2053 2053 2053 2053 2053 2053 2053 2065 2065 2065 2065 2065 2078 2078 2078 2078 2065 2065 2065 2065 2065 2065 2065 2065 2065 2065 2078 2065 2065 2065 2078 2078 2078 2078 2078 2078 2078 2090 2090 2090 2090 2090 2090 2090 2090 2090 2090 1529 1529 1536 1536 1543 1543 1543 1550 1550 1550 1550 1550 1550 1550 1550 1557 1557 1557 1557 1557 1509 1509 1509 1509 1503 1503 1503 1503 1503 1503 1503 1503 1503 1503 1503 1496 1496 1496 1496 2065 2065 2078 2090 2103 2103 2116 2116 2116 2129 1981 1981 1981 1981 1981 1981 1981 1993 1993 1993 2103 2116 2116 2129 2116 2116 2116 2116 2116 2116 2116 2116 2116 2129 2129 2129 2129 2129 2129 2129 2129 2129 2129 2129 2129 2129 2129 2129 2129 2129 2129 2129 2129 2129 2129 2129 2129 2129 2129 2129 2129 2129 2129 2129 2129 2143 2143 2143 2143 2143 2143 2156 2156 2156 2156 2156 2156 2156 2143 2143 2129 2129 2129 2129 2129 2129 2129 2129 2129 2129 1572 1572 1572 1572 1572 1572 1572 1572 1579 1579 1579 1579 1579 1579 1579 1586 2078 2078 2103 2103 2116 2116 2129 2129 2156 2156 2156 2156 2156 2156 2156 2156 2156 2156 2156 2170 2170 2184 1970 1947 1936 1936 1936 1915 1915 1904 1904 1904 1904 1904 2156 2156 2156 2156 2170 2170 2170 2170 2170 2170 2170 2170 2170 2170 2170 2170 1543 1543 1543 1550 1550 1550 1550 1557 1557 1557 1564 1557 1550 1550 2116 2116 2156 2170 2170 2170 2170 2170 2170 2170 2170 2170 2170 2170 2170 2170 2170 2156 2156 2170 2170 2170 2170 2170 2170 2170 2170 2170 2170 2170 2170 2170 2170 2170 2170 2170 2170 2170 2170 2170 2184 2170 2170 2170 2170 2170 2170 2156 2156 2143 2103 2078 2078 2078 2065 2065 2065 2065 2065 1970 1936 1926 1926 1936 1936 1926 1926 1926 1926 2198 2198 2198 2198 2212 2212 2212 2212 2212 1632 1632 1639 1632 1632 1632 1632 1624 1624 1616 1616 1616 1616 1616 1624 1624 1624 1632 1639 2143 2143 2156 2184 2198 2198 2198 2198 2198 2198 2184 2184 2184 2184 2184 2184 2184 2184 2184 2184 2184 2184 2184 2184 2184 2184 2184 2184 2198 2198 2184 2184 2184 2184 2198 2198 2198 1853 1843 1843 1833 1833 1823 1823 1823 1823 1823 1823 1823 1823 1823 1823 1823 1823 1823 1823 1823 1833 1833 2198 2184 2184 2184 2198 2198 2198 2184 2184 2184 2184 2198 2184 2184 2184 2184 2170 2170 2170 2170 2170 2184 2184 2184 2184 2184 2184 2184 2184 2184 2184 2184 2184 2184 2184 2184 2184 2184 2184 2184 2184 2184 2184 2184 2184 2184 2184 2184 2184 2184 2184 2184 2184 2184 2184 2184 2184 2184 2184 2184 2184 2184 2184 2184 2184 2184 2184 2184 2184 2198 2198 2198 2198 2198 2198 2184 2184 2184 2184 2184 2184 2184 2184 2184 2184 2198 2198 2198 2184 2184 2184 2184 2184 2184 2184 2184 2184 2184 2184 2184 2184 2184 2184 2170 2170 2170 2170 2184 2170 2170 2170 2170 2170 2170 2170 2170 2170 2170 2170 2170 2170 2170 2170 2170 2170 2170 2170 2170 2156 2156 2156 2156 2156 2156 2156 2170 2170 2170 2170 2170 2170 2170 2170 2170 2170 0 0 0 0 0 0 0 0 0
0 0 0 0 0 0 0 0 0 0 0 0 0 0 0 0 0 0 0 0 0 0 0 0 0 0 0 0 0 0 0 0 0 0 2053 2053 2053 2053 2053 2053 2040 2040 2040 2040 2040 2040 2040 2053 2053 2053 2053 2053 2053 2053 2065 2065 2065 2065 2065 2065 2065 2065 2065 2065 2065 2065 2053 2040 2040 2053 2053 2053 2053 2053 2053 2053 2053 2053 2053 2053 2053 2053 2053 2053 2053 2065 2065 2065 2065 2065 2053 2053 2053 2053 2053 2053 2053 2053 2065 2065 2065 2065 2065 2065 2065 2078 2078 2078 2078 2078 2078 2090 2090 2090 2090 2090 2090 2090 2078 2078 2078 1536 1536 1536 1536 1543 1543 1543 1550 1550 1550 1550 1550 1550 1550 1550 1557 1557 1557 1557 1557 1557 1509 1509 1509 1503 1503 1503 1503 1503 1503 1503 1503 1503 1503 1509 1496 1496 1496 1503 2065 2065 2078 2090 2103 2103 2116 2116 2116 2116 1981 1981 1981 1981 1981 1981 1993 1993 1993 2005 2090 2103 2116 2116 2116 2116 2116 2116 2116 2116 2116 2116 2116 2116 2116 2116 2116 2129 2129 2129 2129 2129 2129 2129 2129 2129 2129 2129 2129 2129 2129 2129 2129 2129 2129 2129 2129 2129 2129 2129 2129 2129 2129 2129 2129 2129 2129 2143 2143 2143 2143 2143 2143 2143 2143 2143 2143 2143 2143 2143 2129 2129 2129 2129 2129 2129 2129 2129 2129 2129 1572 1572 1572 1572 1572 1572 1572 1572 1579 1579 1579 1579 1579 1586 1586 1594 2078 2078 2103 2116 2116 2116 2129 2129 2143 2143 2143 2143 2143 2143 2143 2143 2143 2143 2143 2156 2156 2170 1970 1959 1947 1936 1936 1915 1904 1894 1894 1904 1904 1883 1883 2156 2156 2156 2156 2156 2156 2156 2156 2170 2170 2170 2170 2156 2156 2156 1543 1543 1543 1543 1550 1557 1557 1557 1557 1564 1564 1564 1564 2116 2116 2116 2156 2156 2156 2156 2156 2156 2156 2156 2156 2156 2156 2156 2156 2156 2156 2156 2156 2156 2156 2156 2156 2156 2156 2156 2156 2156 2170 2170 2170 2170 2170 2170 2170 2170 2170 2170 2170 2170 2170 2170 2170 2170 2170 2170 2170 2156 2156 2143 2116 2090 2078 2078 2065 2065 2078 2078 2078 1970 1926 1915 1915 1926 1926 1915 1915 1915 1915 1915 2184 2184 2184 2184 2184 2170 2170 2170 1632 1632 1639 1639 1632 1632 1632 1624 1624 1616 1616 1616 1616 1624 1624 1624 1624 1632 1639 2143 2143 2156 2170 2184 2184 2198 2198 2198 2184 2184 2170 2170 2170 2170 2170 2170 2170 2170 2170 2170 2170 2170 2170 2170 2170 2170 2170 2170 2170 2170 2184 2184 2184 2184 2184 2198 1853 1843 1843 1833 1833 1823 1823 1823 1823 1823 1823 1823 1823 1823 1823 1823 1823 1823 1823 1823 1833 1833 2184 2184 2184 2184 2184 2184 2184 2184 2184 2184 2184 2184 2170 2170 2170 2184 2156 2156 2170 2170 2170 2170 2170 2170 2170 2184 2170 2170 2170 2170 2170 2170 2170 2170 2170 2170 2170 2170 2170 2170 2170 2184 2184 2184 2184 2184 2184 2184 2184 2184 2184 2184 2184 2184 2184 2184 2184 2184 2184 2184 2184 2184 2184 2184 2184 2184 2184 2184 2184 2184 2184 2198 2198 2184 2184 2184 2184 2184 2184 2184 2184 2184 2170 2170 2184 2184 2184 2184 2184 2184 2184 2184 2184 2184 2170 2170 2184 2184 2184 2170 2170 2170 2170 2170 2170 2170 2170 2170 2170 2170 2170 2170 2170 2170 2170 2170 2170 2156 2156 2156 2156 2156 2156 2170 2170 2170 2170 2156 2143 2143 2143 2143 2143 2156 2156 2170 2170 2170 2170 2170 2170 2170 2170 2170 2170 0 0 0 0 0 0 0 0 0
