0 0 0 0 0 0 0 0 0 0 0 0 0 0 0 0 0 0 0 0 0 0 0 0 0 0 0 0 0 9084 9084 9084 9331 9870 9870 0 9870 9870 0 0 9870 9870 0 0 0 0 0 0 0 0 0 0 0 0 0 0 0 0 0 0 0 0 0 0 0 9870 9870 9870 9870 9870 9870 9870 9870 9870 9593 9593 9593 9593 9593 9593 9593 9593 9593 9593 9593 9593 9593 9593 9593 9331 9331 9593 9593 9593 9331 9331 9331 9331 9331 9084 9084 9084 9084 9084 9084 9084 9084 9084 9084 9084 9084 9084 9084 9084 9084 8849 8849 8849 8849 8849 8849 8626 8626 8849 8849 8626 8626 8626 8626 8849 8849 8849 8849 8849 8849 8849 8849 8849 8626 8626 8626 8626 8626 8849 8849 8849 9084 9084 9084 9084 9084 9084 9084 9084 9084 9084 8849 8849 8626 8626 8626 8626 8626 8626 8626 8849 8626 8626 8626 8626 8626 8626 8626 8626 8626 8626 8626 8626 8626 8849 8849 8849 8849 8849 8626 8626 6375 6375 6375 6375 6375 6375 6375 6375 6497 6497 6497 6497 6497 6497 6497 6622 8212 8212 8413 8626 8626 8626 8626 8849 8626 8626 8626 8626 8626 8626 8626 8849 8849 8849 8849 8849 8849 8849 8849 8849 8849 8849 8849 8849 8849 8849 9084 8849 8849 8849 8849 8626 8626 8626 8626 8626 8626 8626 8626 8626 8626 8626 8626 8626 8626 8626 8626 8626 8626 8626 8626 8849 8849 8849 8849 8626 8626 8413 8413 8626 8626 8626 8626 8626 8626 8626 8626 8849 8626 8626 8413 8413 8413 8413 8413 8413 8212 8212 8212 8212 8413 8212 8212 8212 8413 8413 8413 8413 8413 8413 8413 8413 8413 8413 8413 8413 8413 8413 8413 8413 8413 8413 8413 8413 8413 8413 8413 8626 8626 8626 8626 8413 8413 8413 8413 8626 8413 8413 8413 8849 0 0 0 0 0 0 0 0 0 0 0 0 0 0 0 0 0 0 0 0 0 0 0 0 0 0 0 0 0 0 0 0 0 0 0 0 0 0 0 0 0 0 0 0 0 0 0 0 0 0 0 0 0 0 0 0 0 0 0 0 0 0 0 0 0 0 0 0 0 0 0 0 0 0 0 0 0 0 0 0 0 0 0 0 0 0 0 0 0 3208 3208 3208 3238 3238 3238 3269 3269 3269 3269 3269 3269 3238 3238 3238 3238 3238 3208 3208 3208 3208 3208 3208 3208 3178 3178 3178 3178 3178 3178 3178 3178 3178 3178 3178 3178 3149 3149 3149 3149 3149 3120 3092 3092 3092 3092 3092 3092 3092 3092 3092 3092 3092 3092 3092 3092 3092 3092 3064 3064 3092 3064 3064 3064 3120 0 1739 1739 1739 1739 1748 1739 1731 1731 1731 1731 1722 1722 1713 1713 1713 1713 1713 1713 1713 1713 1705 1705 1705 1705 1705 1705 1705 1705 1696 1696 1688 1680 1680 1680 1680 1680 1680 1680 1680 1671 1671 1671 1671 1671 1663 1663 1663 1663 1655 1655 1655 1655 1647 1647 1647 1647 1647 1647 1647 1639 1639 1639 1639 1639 1639 1639 1639 1639 1639 1639 1639 1632 1624 1624 1624 1616 1616 1616 1616 1616 1616 1609 1609 1609 1616 1609 1609 1609 0 0 0 0 0 0 6375 6259 6259 6259 6259 6146 6146 6038 6038 6146 6146 6146 6146 6146 6146 6146 6146 6038 6038 6038 6038 6146 6146 6146 6146 6146 6146 6146 6259 6259 6259 6259 6259 6375 6375 6375 6375 6375 6375 6375 6375 6375 6497 6497 6497 6497 6622 6753 6753 6753 6753 6753 0 0 0 0 0 0 0 0 0 0 0 0 0
0 0 0 0 0 0 0 0 0 0 0 0 0 0 0 0 0 0 0 0 0 0 0 0 0 0 0 0 0 9084 9084 9593 0 0 0 0 0 9870 9870 9870 9870 9870 0 0 0 0 0 0 0 0 0 0 0 0 0 0 0 0 0 0 0 0 0 0 0 9870 9870 9870 9870 9870 9870 9870 9870 9870 9870 9593 9593 9593 9593 9593 9593 9593 9593 9593 9593 9593 9593 9593 9593 9593 9593 9593 9593 9593 9331 9331 9593 9593 8849 8849 9084 8849 8849 8849 8849 8849 9084 9084 9084 9084 9084 9084 9084 9084 9084 9084 9084 9084 8849 8849 8849 8849 8849 8849 8849 8849 8849 8849 8849 8849 8849 9084 9084 9084 8849 8849 8849 8849 8849 8626 8626 8626 8849 8849 8849 8849 9084 9084 9084 9084 9084 8849 8849 8849 8849 8849 8849 8849 8626 8626 8626 8626 8626 8626 8849 8626 8626 8626 8626 8626 8626 8626 8626 8626 8626 8626 8626 8626 8849 8849 8849 8849 8849 8849 8626 8626 6146 6146 6259 6375 6375 6375 6497 6497 6497 6497 6497 6497 6497 6497 6497 6622 8212 8212 8413 8626 8626 8626 8626 8849 8626 8626 8626 8626 8626 8626 8626 8849 8849 8849 8849 8849 8849 8849 8849 8849 8849 8849 8849 8849 8849 8849 9084 9084 9084 9084 8849 8626 8626 8626 8626 8626 8626 8626 8626 8626 8626 8626 8626 8626 8626 8626 8626 8626 8626 8626 8626 8849 8849 8849 8626 8626 8626 8413 8413 8626 8626 8626 8626 8626 8626 8626 8626 8849 8626 8626 8413 8413 8413 8413 8413 0 0 0 0 0 8413 8413 8413 8413 8626 0 0 0 0 0 8413 8413 8413 8413 8413 8413 8413 8413 8413 8413 8413 8413 8413 8413 8413 8413 8413 8626 8626 8626 8626 8413 8413 8626 8626 8626 8413 8413 8413 8849 0 0 0 0 0 0 0 0 0 0 0 0 0 0 0 0 0 0 0 0 0 0 0 0 0 0 0 0 0 0 0 0 0 0 0 0 0 0 0 0 0 0 0 0 0 0 0 0 0 0 0 0 0 0 0 0 0 0 0 0 0 0 0 0 0 0 0 0 0 0 0 0 0 0 0 0 0 0 0 0 0 0 0 0 0 0 0 0 0 3208 3208 3208 3238 3238 3238 3269 3269 3269 3269 3269 3269 3238 3238 3238 3238 3238 3238 3238 3208 3208 3208 3208 3208 3178 3178 3178 3178 3178 3178 3178 3178 3178 3178 3178 3178 3178 3149 3149 3149 3149 3120 3092 3092 3092 3092 3092 3092 3092 3092 3092 3092 3092 3092 3092 3092 3092 3092 3064 3064 3092 3064 3064 3120 3120 3092 1739 1739 1739 1739 1748 1739 1739 1739 1731 1731 1722 1722 1722 1713 1713 1713 1713 1713 1713 1713 1705 1705 1705 1705 1705 1705 1705 1705 1696 1696 1688 1680 1680 1680 1680 1680 1680 1680 1680 1680 1671 1671 1671 1671 1671 1663 1663 1663 1655 1647 1647 1647 1647 1647 1647 1647 1647 1647 1647 1639 1639 1639 1639 1639 1639 1639 1639 1639 1639 1639 1639 1632 1624 1624 1624 1616 1616 1616 1616 1616 1616 1609 1609 1609 1616 1609 1609 1609 0 0 0 0 0 0 6375 6259 6259 6259 6259 6146 6146 6038 6038 6038 6038 6038 6038 6038 6038 6038 6038 6038 6038 6038 6038 6146 6038 6038 6146 6146 6259 6259 6259 6259 6259 6259 6259 6375 6375 6375 6375 6375 6375 6375 6375 6375 6497 6497 6497 6497 6497 6622 6622 6622 6622 6753 0 0 0 0 0 0 0 0 0 0 0 0 0
0 0 0 0 0 0 0 0 0 0 0 0 0 0 0 0 0 0 0 0 0 0 0 0 0 0 0 0 0 0 9593 9593 0 0 0 0 0 9870 9870 9870 9870 9870 0 0 0 0 0 0 0 0 0 0 0 0 0 0 0 0 0 0 0 0 0 0 0 9870 9870 9870 9870 9870 9870 9870 9870 9870 9870 9870 9593 9593 9593 9593 9593 9593 9593 9593 9870 9593 9593 9870 9870 9593 9593 9593 9593 9870 9593 9593 9331 9331 8849 8849 9084 8849 8849 8849 8849 8849 9084 9084 9084 9084 9084 9084 9084 9084 9084 9084 9084 9084 9084 8849 8849 8849 8849 8849 8849 9084 9084 8849 8849 9084 9084 9084 9084 9084 8849 8849 8849 8849 8849 8626 8626 8849 8849 8849 9084 9084 9084 9084 9084 9084 9084 8849 8849 8849 8849 8849 8849 8849 8626 8626 8626 8626 8626 8626 8626 8626 8626 8626 8626 8849 8626 8626 8626 8626 8626 8626 8626 8626 8849 8849 8849 8849 8849 8849 8626 8626 6146 6146 6259 6375 6375 6497 6497 6497 6497 6497 6497 6497 6497 6375 6375 6375 6375 8413 8413 8626 8626 8626 8626 8849 8626 8626 8626 8626 8626 8626 8626 8626 8849 8849 8849 8849 8849 8849 8849 8849 8849 8849 8849 8849 8849 8849 8849 9084 8849 8849 8849 8626 8626 8626 8626 8626 8626 8626 8626 8626 8626 8626 8626 8626 8626 8626 8626 8626 8626 8626 8626 8626 8626 8626 8626 8626 8626 8413 8413 8626 8626 8626 8626 8626 8626 8626 8626 8626 8849 8849 8626 8626 0 0 0 0 0 0 0 0 0 0 0 0 0 0 0 0 0 0 8413 8413 8413 8413 8413 8413 8413 8413 8413 8413 8413 8413 8413 8413 8413 8413 8413 8626 8626 8626 8626 8626 8626 8626 8626 8626 8413 8413 8413 8849 0 0 0 0 0 0 0 0 0 0 0 0 0 0 0 0 0 0 0 0 0 0 0 0 0 0 0 0 0 0 0 0 0 0 0 0 0 0 0 0 0 0 0 0 0 0 0 0 0 0 0 0 0 0 0 0 0 0 0 0 0 0 0 0 0 0 0 0 0 0 0 0 0 0 0 0 0 0 0 0 0 0 0 0 0 0 0 0 3208 3208 3208 3208 3238 3238 3269 3269 3269 3269 3269 3269 3269 3238 3238 3238 3238 3238 3238 3238 3208 3208 3208 3208 3208 3178 3178 3178 3178 3178 3178 3178 3178 3178 3178 3178 3178 3178 3178 3149 3149 3149 3092 3092 3092 3092 3092 3092 3092 3092 3092 3092 3120 3120 3092 3092 3092 3092 3092 3092 3092 3092 3092 3092 3092 3092 3092 1739 1739 1739 1739 1748 1748 1748 1739 1731 1731 1722 1722 1722 1713 1713 1713 1713 1713 1722 1722 1713 1713 1713 1705 1705 1705 1705 1705 1696 1696 1688 1688 1671 1671 1671 1680 1680 1680 1680 1680 1671 1671 1671 1671 1671 1663 1663 1663 1655 1647 1647 1647 1647 1647 1647 1647 1647 1647 1647 1647 1647 1647 1647 1639 1639 1639 1639 1639 1639 1639 1639 1632 1632 1632 1639 1624 1624 1616 1616 1616 1616 1609 1609 1609 3903 3903 3948 3994 0 0 0 0 0 6497 6497 6375 6259 6259 6259 6146 6038 6038 6038 6038 6038 6038 6038 6038 6038 6038 6038 6038 6146 6146 6146 6146 6038 6038 6146 6146 6259 6259 6259 6259 6259 6259 6259 6375 6375 6375 6375 6375 6375 6375 6375 6375 6375 6375 6497 6497 6497 6622 6622 6622 6622 6622 0 0 0 0 0 0 0 0 0 0 0 0 0
0 0 0 0 0 0 0 0 0 0 0 0 0 0 0 0 0 0 0 0 0 0 0 0 0 0 0 0 0 0 0 0 0 0 0 0 0 9870 9593 9593 9870 9870 9870 0 0 0 0 0 0 0 0 0 0 0 0 0 0 0 0 0 0 0 0 0 0 9870 9870 9870 9870 9870 9870 9870 9870 9870 9870 9870 9593 9593 9593 9593 9593 9593 9593 9593 9593 9593 9870 9870 9870 9870 9593 9593 9870 9870 9593 9593 9331 9331 9084 9084 9084 8849 8849 8849 8849 8849 9084 9084 9084 9084 9084 9084 9084 9084 9084 9084 9084 9084 9084 8849 8849 8849 8849 9084 9084 9084 9084 8849 8849 9084 9084 9084 9084 9084 8849 8849 8626 8626 8626 8626 8849 8849 8849 9084 9084 9084 9084 9084 9084 9084 8849 8849 8849 8849 8849 8849 8849 8849 8626 8626 8849 8626 8626 8626 8626 8626 8626 8626 8626 8849 8626 8626 8626 8626 8626 8626 8626 8626 8849 8849 8849 8849 8849 8849 8849 8849 6622 6259 6259 6497 6497 6497 6622 6497 6497 6497 6497 6375 6375 6375 6375 6375 6375 8626 8626 8626 8626 8626 8626 8626 8626 8626 8626 8626 8626 8626 8626 8626 8849 8849 8849 8849 8849 8849 8849 8849 8849 8849 8849 8849 8849 8849 8849 9084 8849 8849 8849 8626 8626 8626 8626 8626 8626 8626 8626 8626 8626 8626 8626 8626 8626 8626 8626 8626 8626 8626 8626 8626 8626 8626 8626 8626 8626 8413 8413 8626 8626 8626 8626 8626 8626 8626 8626 8626 8849 8849 8849 9084 0 0 0 0 0 0 0 0 0 0 0 0 0 0 0 0 0 0 8413 8413 8413 8413 8413 8413 8413 8413 8413 8413 8413 8413 8413 8413 8413 8413 8413 8626 8626 8626 8626 8626 8626 8849 8849 8626 8413 8413 8413 8849 0 0 0 0 0 0 0 0 0 0 0 0 0 0 0 0 0 0 0 0 0 0 0 0 0 0 0 0 0 0 0 0 0 0 0 0 0 0 0 0 0 0 0 0 0 0 0 0 0 0 0 0 0 0 0 0 0 0 0 0 0 0 0 0 0 0 0 0 0 0 0 0 0 0 0 0 0 0 0 0 0 0 0 0 0 0 0 0 3208 3208 3208 3208 3238 3238 3269 3269 3238 3238 3238 3238 3238 3238 3238 3238 3238 3238 3238 3238 3208 3208 3208 3208 3208 3178 3178 3178 3178 3178 3178 3178 3178 3178 3178 3178 3178 3149 3149 3149 3149 3149 3092 3092 3092 3092 3092 3092 3092 3092 3092 3092 3120 3120 3092 3092 3092 3092 3092 3092 3092 3092 3092 3092 3064 3064 3064 3064 1739 1739 1739 1748 1748 1748 1739 1731 1731 1722 1722 1713 1713 1722 1713 1713 1722 1722 1722 1713 1713 1713 1713 1713 1713 1705 1705 1705 1696 1688 1688 1671 1671 1671 1680 1680 1671 1671 1671 1671 1671 1671 1671 1671 1663 1663 1663 1663 1647 1647 1647 1647 1647 1647 1647 1647 1655 1655 1647 1647 1647 1647 1647 1647 1639 1639 1639 1647 1647 1647 1639 1632 1632 1639 1624 1624 1616 1616 1616 3948 3948 3948 3948 3903 3903 3903 3903 0 0 0 0 6497 6497 6375 6375 6259 6259 6259 6038 6038 6038 6038 6038 6038 6038 6038 6038 6038 6038 6038 6038 6038 6146 6146 6146 6146 6146 6146 6146 6259 6259 6259 6259 6259 6259 6259 6375 6375 6375 6375 6375 6375 6375 6375 6375 6375 6375 6497 6497 6497 6622 6622 6622 6622 6622 0 0 0 0 0 0 0 0 0 0 0 0 0
0 0 0 0 0 0 0 0 0 0 0 0 0 0 0 0 0 0 0 0 0 0 0 0 0 0 0 0 0 0 0 0 0 0 0 0 0 0 9593 9593 9593 9870 9870 9870 0 0 0 0 0 0 0 0 0 0 0 0 0 0 0 0 0 0 0 0 0 9870 9870 9870 9870 9870 9870 9870 9870 9870 9870 9870 9870 9593 9593 9593 9593 9593 9593 9593 9593 9593 9870 9870 9870 9870 9593 9593 9870 9870 9593 9593 9593 9593 9331 9084 9084 8849 8849 8849 8849 8849 8849 9084 9084 9084 9084 9084 9084 9084 9084 9084 9084 9084 9084 9084 8849 8849 8849 8849 8849 9084 9084 9084 9084 9084 9084 9331 9331 9331 8849 8849 8626 8626 8626 8626 8849 8849 8849 8849 8849 8849 9084 9084 9084 9084 8849 8626 8626 8626 8626 8626 8626 8849 8849 8849 8849 8849 8849 8849 8849 8849 8626 8626 8849 8849 8626 8626 8626 8626 8626 8626 8626 8626 8849 8849 8849 8626 8626 8849 8849 8626 6622 6622 6622 6497 6497 6622 6622 6622 6622 6622 6497 6375 6375 6375 6375 6375 6375 8626 8626 8626 8626 8626 8626 8626 8626 8626 8626 8626 8849 8849 8849 8849 8849 8849 8849 8849 8849 8849 8849 8849 8849 8849 8849 8849 8849 8849 8849 8849 8849 8849 8849 8626 8626 8626 8626 8626 8626 8626 8626 8626 8626 8626 8626 8626 8626 8626 8626 8626 8626 8626 8626 8626 8626 8626 8849 8626 8626 8626 8626 8626 8626 8626 8626 8626 8626 8626 8626 8626 8849 8849 9331 9331 0 0 0 0 0 0 0 0 0 0 0 0 0 0 0 0 0 0 8413 8413 8413 8413 8413 8413 8413 8413 8413 8413 8413 8413 8413 8413 8413 8413 8413 8626 8626 8626 8626 8626 8626 8626 8626 8626 8413 8413 8413 8413 0 0 0 0 0 0 0 0 0 0 0 0 0 0 0 0 0 0 0 0 0 0 0 0 0 0 0 0 0 0 0 0 0 0 0 0 0 0 0 0 0 0 0 0 0 0 0 0 0 0 0 0 0 0 0 0 0 0 0 0 0 0 0 0 0 0 0 0 0 0 0 0 0 0 0 0 0 0 0 0 0 0 0 0 0 0 0 0 3238 3238 3238 3238 3238 3238 3269 3269 3238 3238 3238 3238 3238 3238 3238 3238 3238 3238 3238 3238 3208 3208 3208 3208 3208 3208 3178 3178 3178 3178 3178 3178 3178 3178 3178 3178 3178 3149 3149 3149 3149 3149 3092 3092 3092 3092 3092 3092 3092 3092 3092 3092 3120 3120 3120 3120 3092 3092 3092 3092 3092 3092 3092 3092 3064 3064 3064 3064 1739 1739 1739 1748 1748 1748 1739 1731 1722 1722 1722 1713 1713 1722 1722 1722 1722 1722 1722 1713 1713 1713 1713 1713 1713 1713 1705 1705 1696 1688 1688 1688 1688 1688 1680 1663 1663 1663 1671 1671 1663 1663 1663 1663 1663 1663 3994 4041 1647 1647 1647 1647 1647 1647 1655 1655 1655 1655 1647 1647 1647 1647 1647 1647 3903 3903 3903 3903 3948 3948 3948 3948 3948 3948 1624 1624 1624 1624 3948 3948 3948 3948 3948 3903 3903 3903 3903 0 0 0 0 6497 6375 6259 6259 6259 6259 6259 6038 6038 6038 6038 6038 6038 6038 6038 6038 6038 6038 6038 6038 6038 6146 6146 6146 6146 6146 6146 6146 6259 6259 6259 6259 6259 6259 6259 6259 6259 6375 6375 6375 6375 6375 6375 6375 6375 6375 6497 6497 6497 6622 6622 6622 6622 6622 0 0 0 0 0 0 0 0 0 0 0 0 0
0 0 0 0 0 0 0 0 0 0 0 0 0 0 0 0 0 0 0 0 0 0 0 0 0 0 0 0 0 0 0 0 0 0 0 0 0 0 0 9593 9593 9870 9870 9870 0 0 0 0 0 0 0 0 0 0 0 0 0 0 0 0 0 0 0 0 0 9870 9870 9870 9870 9870 9870 9870 9870 9870 9870 9870 9870 9593 9593 9593 9593 9593 9593 9593 9870 9870 9870 9870 9870 9593 9593 9593 9593 9593 9593 9593 9593 9593 9331 9084 9084 9084 8849 8849 8849 8849 8849 8849 8849 8849 9084 9084 9084 9084 9084 9084 9084 9084 9084 8849 8849 8849 8849 8849 8849 8849 9084 9084 9084 9084 9084 9084 8849 8849 8849 8849 8626 8626 8626 8626 8849 8849 8849 8849 8849 8849 8849 8849 8849 8849 8849 8626 8626 8626 8626 8626 8626 8626 8626 8626 8849 8849 8626 8626 8849 8849 8849 8849 8849 8849 8626 8626 8626 8626 8626 8626 8626 8626 8626 8626 8626 8626 8626 8849 8849 8626 8626 6622 6622 6497 6497 6622 6622 6622 6622 6622 6622 6622 6375 6375 6375 6375 6375 8626 8626 8626 8626 8626 8626 8626 8626 8626 8626 8626 8849 8849 8849 8849 8849 8849 8849 8849 8849 8849 8849 8849 8849 9084 8849 8849 8849 8849 8849 8849 8626 8626 8626 8626 8626 8626 8626 8626 8626 8626 8626 8626 8626 8626 8626 8626 8626 8413 8413 8413 8413 8626 8626 8626 8626 8849 8849 8626 8626 8626 8626 8626 8626 8626 8626 8626 8626 8626 8626 8626 8849 9084 9084 9084 0 0 0 0 0 0 0 0 0 0 0 0 0 0 0 0 0 0 8413 8413 8413 8413 8413 8413 8413 8413 8413 8413 8413 8413 8413 8413 8413 8413 8413 8413 8626 8626 8626 8626 8626 8626 8626 8626 8413 8413 8413 8413 0 0 0 0 0 0 0 0 0 0 0 0 0 0 0 0 0 0 0 0 0 0 0 0 0 0 0 0 0 0 0 0 0 0 0 0 0 0 0 0 0 0 0 0 0 0 0 0 0 0 0 0 0 0 0 0 0 0 0 0 0 0 0 0 0 0 0 0 0 0 0 0 0 0 0 0 0 0 0 0 0 0 0 0 0 0 0 0 3269 3269 3269 3238 3238 3238 3269 3269 3238 3238 3238 3238 3238 3238 3238 3238 3238 3238 3238 3208 3208 3208 3208 3208 3208 3208 3178 3178 3178 3178 3178 3178 3178 3178 3178 3178 3178 3149 3149 3149 3149 3149 3120 3120 3120 3120 3092 3092 3092 3092 3092 3092 3120 3120 3120 3120 3092 3092 3092 3092 3092 3092 3092 3092 3064 3064 3064 3064 1739 1739 1739 1748 1748 1748 1748 1731 1722 1722 1722 1722 2984 2984 3010 2984 2984 1722 1722 1713 1713 1713 1713 1713 1713 1696 1696 1705 1696 1688 1688 1688 1688 1688 1680 1663 1663 1663 1671 1663 1663 1663 1663 1663 4041 3994 3994 4041 4041 3994 3948 3948 3948 3994 3948 3948 3948 3948 3948 3903 3903 3903 3903 3903 3903 3903 3903 3903 3948 3948 3948 3948 3948 3903 3903 3948 3948 3948 3948 3948 3948 3948 3948 3903 3903 3903 3903 3948 3948 0 0 0 6375 6259 6259 6259 6146 6146 6038 6038 6038 6038 6038 5933 5933 5933 5933 6038 6038 6038 6038 6038 6146 6146 6146 6146 6146 6259 6259 6146 6146 6259 6146 6146 6259 6259 6259 6259 6375 6375 6375 6375 6375 6375 6375 6375 6375 6497 6497 6497 6622 6497 6497 6497 6622 0 0 0 0 0 0 0 0 0 0 0 0 0
0 0 0 0 0 0 0 0 0 0 0 0 0 0 0 0 0 0 0 0 0 0 0 0 0 0 0 0 0 0 0 0 0 0 0 0 0 0 0 9870 9870 9870 0 0 0 0 0 0 0 0 0 0 0 0 0 0 0 9870 9870 9870 0 9870 9870 0 0 9870 9870 9593 9593 9870 9870 9870 9870 9870 9870 9870 9870 9593 9593 9593 9593 9593 9593 9593 9870 9870 9870 9870 9870 9593 9593 9593 9593 9593 9593 9593 9331 9331 9331 9331 9084 9084 8849 8849 8849 8849 8849 8849 8849 8849 8849 8849 8849 8849 8849 8849 8849 8849 8849 8849 8849 8849 8849 8849 8849 8849 8849 8849 8849 9084 8849 8849 8849 8849 8626 8626 8413 8413 8626 8626 8849 8849 8626 8626 8849 8849 8849 8849 8849 8849 8849 8626 8626 8626 8626 8626 8626 8626 8626 8626 8626 8626 8626 8626 8626 8849 8849 8849 8849 8849 8849 8626 8626 8626 8626 8626 8626 8626 8626 8626 8626 8626 8626 8626 8849 8626 8626 8626 6622 6497 6497 6497 6497 6622 6622 6622 6622 6622 6375 6375 6375 6375 6375 8626 8626 8626 8626 8626 8626 8849 8626 8626 8626 8626 8849 8849 8849 8626 8626 8849 8626 8626 8849 8849 8849 8849 8849 9084 8849 8849 8849 8849 8849 8849 8626 8626 8626 8413 8413 8626 8626 8626 8626 8626 8626 8626 8626 8626 8626 8626 8626 8413 8413 8413 8413 8626 8626 8626 8626 8849 8849 8849 8626 8626 8626 8849 8626 8626 8849 8626 8626 8849 8626 8626 8849 8849 8849 9084 0 0 0 0 0 0 0 0 0 0 0 0 0 0 0 0 0 0 8413 8413 8413 8413 8413 8413 8413 8413 8413 8413 8413 8413 8413 8413 8413 8413 8413 8413 8626 8626 8626 8626 8626 8626 8626 8626 8413 8413 0 0 0 0 0 0 0 0 0 0 0 0 0 0 0 0 0 0 0 0 0 0 0 0 0 0 0 0 0 0 0 0 0 0 0 0 0 0 0 0 0 0 0 0 0 0 0 0 0 0 0 0 0 0 0 0 0 0 0 0 0 0 0 0 0 0 0 0 0 0 0 0 0 0 0 0 0 0 0 0 0 0 0 0 0 0 0 0 0 3300 3300 3269 3269 3269 3238 3238 3269 3269 3238 3238 3238 3238 3238 3238 3238 3238 3238 3238 3238 3208 3208 3208 3208 3208 3208 3208 3178 3178 3178 3178 3178 3178 3178 3178 3178 3178 3178 3149 3149 3149 3149 3149 3149 3120 3120 3120 3120 3092 3092 3092 3092 3092 3120 3120 3092 3092 3092 3092 3092 3092 3092 3092 3092 3092 3064 3064 3064 3037 3037 1757 1757 1757 1757 1748 1748 1748 1748 3037 3037 3010 3010 3010 3010 2984 2984 2984 3037 3037 1713 1713 1713 1680 1680 1688 1696 1705 1705 4190 4089 4089 4089 4089 4139 4089 4089 4089 4089 1663 1663 4041 4041 4041 4041 3994 3994 4041 3994 3994 3948 3948 3948 3994 3948 3948 3948 3948 3948 3948 3903 3903 3903 3903 3903 3903 3903 3903 3948 3948 3948 3948 3948 3903 3903 3948 3948 3948 3948 3948 3948 3948 3948 3903 3903 3903 3903 3903 3903 0 0 0 6375 6259 6259 6146 6146 6146 6038 6038 6038 6038 6038 5933 5933 5933 5933 6038 6038 6038 6038 6038 6146 6146 6146 6146 6146 6259 6259 6146 6146 6146 6146 6146 6259 6259 6259 6259 6375 6375 6375 6375 6375 6375 6375 6497 6497 6497 6497 6497 6622 6497 6497 6497 6622 0 0 0 0 0 0 0 0 0 0 0 0 0
0 0 0 0 0 0 0 0 0 0 0 0 0 0 0 0 0 0 0 0 0 0 0 0 0 0 0 0 0 0 0 0 0 0 0 0 0 0 0 0 0 0 0 0 0 0 0 0 0 0 0 0 0 0 0 0 0 9870 9870 9870 0 9870 9870 0 0 9593 9593 9593 9593 9870 9870 9870 9870 9870 9870 9870 9870 9870 9870 9870 9870 9593 9593 9593 9870 9593 9593 9593 9593 9593 9593 9593 9593 9331 9331 9331 9331 9331 9084 9084 9084 9084 8849 8849 8849 8849 8849 8849 8849 8849 8849 8849 8849 8849 8849 8849 8849 8849 8849 8849 8849 8849 8849 8849 8849 8849 8849 8849 8849 8849 8626 8626 8626 8626 8626 8626 8413 8413 8626 8626 8849 8849 8626 8626 8626 8626 8626 8626 8626 8626 8626 8413 8413 8413 8413 8413 8413 8413 8413 8413 8626 8626 8626 8626 8626 8849 8849 8849 8849 8849 8849 8849 8626 8626 8626 8626 8849 8626 8626 8849 8849 8626 8626 8626 8849 8626 8626 8626 8626 6497 6497 6497 6497 6497 6497 6497 6497 6622 6497 6375 6375 6375 8849 8849 8849 9084 8626 8626 8626 8849 8849 8626 8626 8626 8849 8626 8626 8626 8626 8626 8626 8626 8626 8849 8849 8849 8849 9084 9084 9084 8849 8849 8849 8849 8626 8626 8626 8413 8413 8626 8626 8626 8212 8212 8626 8626 8626 8626 8626 8626 8626 8626 8626 8413 8413 8626 8626 8626 8626 8849 8849 8849 8849 8849 8849 8849 8849 8849 8849 8626 8626 8626 8626 8626 8849 8849 8849 9084 0 0 0 0 0 0 0 0 0 0 0 0 0 0 0 0 0 8413 8413 8413 8413 8413 8413 8413 8413 8413 8413 8413 8413 8413 8413 8413 8413 8413 8413 8626 8626 8626 8626 8626 8626 8626 8626 8626 8413 8413 0 0 0 0 0 0 0 0 0 0 0 0 0 0 0 0 0 0 0 0 0 0 0 0 0 0 0 0 0 0 0 0 0 0 0 0 0 0 0 0 0 0 0 0 0 0 0 0 0 0 0 0 0 0 0 0 0 0 0 0 0 0 0 0 0 0 0 0 0 0 0 0 0 0 0 0 0 0 0 0 0 0 0 0 0 0 0 3208 3208 3238 3238 3300 3269 3269 3269 3269 3269 3269 3238 3238 3238 3269 3238 3238 3238 3238 3238 3238 3238 3208 3208 3208 3208 3208 3208 3208 3208 3178 3178 3178 3178 3178 3178 3178 3178 3178 3178 3149 3149 3149 3149 3149 3149 3120 3120 3120 3120 3092 3092 3092 3092 3092 3120 3120 3092 3092 3092 3092 3092 3092 3092 3092 3092 3092 3064 3037 3037 3037 3037 3064 3064 1757 1757 1748 1748 3037 3037 3037 3037 3010 3010 3010 3010 2984 2984 2984 2984 3010 3037 3064 3064 1680 1680 1688 1696 4190 4190 4139 4139 4089 1579 1579 1579 4089 4089 4089 4089 4089 4089 4041 4041 4041 4041 4041 4041 3994 3994 3994 3948 3948 3948 3994 3948 3948 3948 3948 3994 3948 3903 3903 3903 3903 3903 3948 3948 3948 3948 3948 3948 3903 3903 3903 3903 3903 3903 3948 3948 3948 3948 3948 3948 3903 3903 3903 3903 3903 3903 3903 0 6375 6375 6259 6259 6146 6146 6146 6038 6038 6038 6038 6038 6038 6038 6038 6038 6038 6038 6038 6038 6146 6146 6259 6259 6259 6259 6259 6259 6146 6146 6038 6038 6038 6038 6038 6146 6259 6259 6259 6259 6259 6375 6375 6375 6375 6497 6497 6497 6497 6497 6497 6497 6497 6497 0 0 0 0 0 0 0 0 0 0 0 0 0
0 0 0 0 0 0 0 0 0 0 0 0 0 0 0 0 0 0 0 0 0 0 0 0 0 0 0 0 0 0 0 0 0 0 0 0 0 0 0 0 0 0 0 0 0 0 0 0 0 0 0 0 0 0 0 0 0 0 0 0 0 0 0 0 9870 9593 9593 9593 9593 9593 9593 9870 9870 9870 9870 9870 9870 9870 9870 9593 9593 9593 9593 9593 9593 9593 9593 9593 9593 9593 9331 9331 9331 9331 9331 9331 9331 9084 9084 9084 9084 9084 8849 8849 8849 8849 8626 8626 8626 8626 8849 8626 8626 8626 8849 8849 9084 9084 9084 9084 8849 8849 8626 8626 8849 8849 8626 8626 8626 8626 8626 8626 8626 8626 8626 8626 8626 8626 8626 8626 8849 8849 8626 8626 8626 8626 8626 8626 8626 8626 8626 8413 8413 8413 8212 8212 8413 8212 8212 8212 8413 8413 8413 8626 8626 8849 8849 8849 8849 8849 8849 8849 8626 8626 8626 8626 8849 8626 8626 8849 8849 8849 8626 8626 8849 8626 8626 8626 8626 8626 9084 6497 6497 6497 6497 6497 6497 6622 6622 6622 9084 9084 8849 8849 8849 8849 8849 8849 8849 8849 8849 8849 8849 8849 8849 8626 8626 8626 8626 8626 8626 8626 8626 8849 8849 9084 9084 9084 9084 9084 9084 8849 8849 8849 8849 8849 8626 8413 8413 8626 8626 8626 8212 8212 8626 8626 8626 8626 8626 8626 8626 8626 8413 8413 8413 8626 8626 8626 8626 8626 8849 8849 8849 8849 8849 8849 8849 8849 8849 8626 8626 8626 8626 8626 8849 8849 8849 9084 0 0 0 0 0 0 0 0 0 0 0 0 0 0 0 0 0 8413 8413 8413 8413 8413 8413 8413 8413 8413 8413 8413 8413 8413 8413 8413 8413 8413 8413 8626 8626 8626 8626 8626 8626 8626 8626 8626 8413 8413 0 0 0 0 0 0 0 0 0 0 0 0 0 0 0 0 0 0 0 0 0 0 0 0 0 0 0 0 0 0 0 0 0 0 0 0 0 0 0 0 0 0 0 0 0 0 0 0 0 0 0 0 0 0 0 0 0 0 0 0 0 0 0 0 0 0 0 0 0 0 0 0 0 0 0 0 0 0 0 0 0 0 0 0 0 0 0 3208 3208 3238 3238 3300 3300 3269 3269 3269 3269 3269 3238 3238 3238 3269 3238 3238 3238 3238 3238 3238 3238 3208 3208 3208 3208 3208 3208 3208 3208 3178 3178 3178 3178 3178 3178 3178 3178 3178 3178 3149 3149 3149 3149 3149 3149 3120 3120 3120 3120 3092 3092 3120 3092 3092 3120 3120 3120 3120 3092 3092 3092 3092 3064 3064 3064 3064 3064 3037 3037 3037 3037 3064 3064 3037 3037 3010 3010 3037 3037 3037 3037 3010 3010 3010 3010 2984 2984 2984 2984 2984 2984 2984 2984 4241 4241 4241 4241 4241 4190 4139 4139 4089 1579 1579 1579 4089 4089 4089 4089 4089 4089 4041 4041 4041 4041 4041 4041 3994 3994 3994 3948 3948 3948 3994 3994 3994 3948 3948 3994 3948 3948 3948 3948 3903 3903 3948 3948 3948 3948 3948 3948 3903 3903 3903 3903 3903 3903 3903 3948 3948 3948 3948 3948 3903 3903 3903 3903 3903 3903 3903 0 6375 6375 6259 6259 6259 6259 6146 6038 6038 6038 6038 6038 6038 6038 6038 6038 6038 6038 6038 6038 6146 6146 6259 6259 6259 6259 6259 6259 6146 6146 6038 6038 6038 6038 6038 6038 6038 6038 6259 6259 6259 6375 6375 6375 6375 6375 6497 6497 6497 6497 6497 6497 6497 6497 0 0 0 0 0 0 0 0 0 0 0 0 0
0 0 0 0 0 0 0 0 0 0 0 0 0 0 0 0 0 0 0 0 0 0 0 0 0 0 0 0 0 0 0 0 0 0 0 0 0 0 0 0 0 0 0 0 0 0 0 0 0 0 0 0 0 0 0 0 0 0 0 0 0 0 0 0 9870 9593 9593 9593 9593 9593 9593 9870 9870 9870 9870 9870 9870 9870 9870 9593 9593 9593 9593 9593 9593 9593 9593 9593 9593 9593 9331 9331 9331 9331 9331 9084 9084 9084 9084 9084 8849 8849 8849 8849 8849 8626 8413 8413 8626 8626 8626 8626 8626 8626 8626 8626 8849 8849 8849 8849 8626 8626 8626 8626 8626 8626 8626 8626 8626 8413 8212 8212 8413 8413 8413 8413 8626 8626 8626 8626 8626 8849 8413 8413 8413 8626 8626 8626 8626 8626 8626 8413 8413 8212 8212 8212 8212 8212 8212 8212 8212 8413 8413 8626 8626 8849 8849 8849 8849 8849 8849 8849 8626 8626 8626 8626 8849 8849 8849 8849 8849 8849 8626 8626 8626 8626 8413 8413 8626 8626 9084 8849 8849 9084 9084 6497 6497 6497 8849 8849 8849 9084 8849 8849 8849 8849 8849 8849 8849 8849 8849 8849 8849 8849 8849 8626 8626 8626 8626 8849 8849 8849 8849 8849 8849 9084 9084 9084 9084 9084 9084 8849 8849 8849 8849 8849 8626 8413 8413 8626 8626 8626 8626 8626 8626 8413 8413 8413 8413 8413 8626 8413 8413 8413 8413 8626 8626 8626 8626 8626 8849 8849 8849 8849 8849 8849 8849 8849 8849 8626 8626 8849 8626 8626 8849 8849 8849 9084 0 0 0 0 0 0 0 0 0 0 0 0 0 0 0 0 0 8413 8413 8413 8626 8626 8413 8413 8413 8413 8413 8413 8413 8413 8413 8413 8413 8413 8413 8626 8626 8413 8413 8626 8413 8413 8626 8626 8413 8413 0 0 0 0 0 0 0 0 0 0 0 0 0 0 0 0 0 0 0 0 0 0 0 0 0 0 0 0 0 0 0 0 0 0 0 0 0 0 0 0 0 0 0 0 0 0 0 0 0 0 0 0 0 0 0 0 0 0 0 0 0 0 0 0 0 0 0 0 0 0 0 0 0 0 0 0 0 0 0 0 0 0 0 0 0 0 0 3208 3208 3208 3269 3300 3300 3269 3269 3269 3269 3269 3269 3238 3238 3269 3238 3238 3238 3238 3238 3238 3238 3208 3208 3208 3178 3178 3208 3208 3208 3208 3178 3178 3178 3178 3178 3178 3178 3178 3178 3149 3149 3149 3149 3149 3149 3120 3120 3120 3120 3092 3092 3120 3092 3092 3120 3120 3120 3120 3092 3092 3092 3092 3064 3064 3064 3064 3064 3064 3064 3064 3064 3064 3064 3064 3037 3037 3037 3037 3037 3010 3010 3010 3010 3010 3010 2984 2984 2984 2984 2984 2984 2984 2984 2984 4241 4241 4241 4241 4190 4139 4139 4089 1572 1572 1579 4089 4089 4089 4089 4089 4089 4041 4041 4041 4041 4041 4041 3994 3994 3994 3948 3948 3948 3994 3994 3994 3994 3994 3994 3994 3948 3948 3948 3948 3948 3948 3948 3948 3948 3948 3948 3903 3903 3903 3903 3903 3903 3903 3903 3903 3903 3903 3903 3903 3903 3903 3903 3903 3903 3903 0 6259 6259 6146 6146 6259 6259 6146 6038 6038 6038 6038 6038 6038 6038 6038 6038 6038 6038 6038 6038 6146 6146 6259 6259 6259 6259 6259 6146 6038 6038 6038 6038 6038 6038 6038 6038 6038 6038 6375 6375 6375 6375 6375 6375 6375 6375 6497 6497 6497 6497 6497 6497 6497 6497 0 0 0 0 0 0 0 0 0 0 0 0 0
0 0 0 0 0 0 0 0 0 0 0 0 0 0 0 0 0 0 0 0 0 0 0 0 0 0 0 0 0 0 0 0 0 0 0 0 0 0 0 0 0 0 0 0 0 0 0 0 0 0 0 0 0 0 0 0 0 0 0 0 0 0 9870 9870 9870 9593 9593 9331 9331 9593 9593 9870 9870 9870 9870 9870 9870 9870 9870 9593 9593 9593 9593 9593 9593 9593 9331 9331 9593 9331 9331 9331 9331 9084 9084 8849 8849 8849 8849 8849 8849 8849 8849 8849 8626 8626 8413 8413 8626 8413 8413 8413 8413 8413 8413 8413 8849 8849 8849 8849 8626 8413 8413 8626 8626 8626 8626 8626 8626 8413 8212 8212 8413 8413 8413 8413 8413 8413 8626 8626 8626 8626 8413 8413 8413 8626 8626 8413 8413 8413 8413 8212 8019 8019 8019 8019 8019 8212 8212 8212 8212 8212 8413 8626 8626 8626 8626 8626 8626 8626 8626 8626 8626 8626 8626 8626 8849 8849 8849 9084 8849 8626 8626 8626 8626 8626 8413 8413 8626 8626 8849 8849 8626 8626 9084 9084 9084 9084 9331 8849 8849 9084 8849 8849 8849 8849 8849 8849 8849 8849 8849 8849 8849 8849 8849 8849 8849 8849 8849 8849 8849 8849 8849 8849 9084 9084 9084 9084 9084 9084 9084 8849 8849 8849 8626 8626 8626 8413 8413 8626 8626 8626 8626 8626 8626 8413 8413 8413 8413 8413 8413 8413 8413 8413 8413 8413 8413 8626 8626 8626 8849 8849 8849 8849 8849 8849 8849 8849 8849 8849 8849 8849 8849 8849 9084 9084 9084 9084 0 0 0 0 0 0 0 0 0 0 0 0 0 0 0 0 0 0 8413 8413 8413 8413 8413 8413 8413 8413 8413 8413 8413 8413 8413 8413 8413 8413 8413 8626 8413 8413 8413 8626 8413 8413 8626 8626 8413 8212 8212 0 0 0 0 0 0 0 0 0 0 0 0 0 0 0 0 0 0 0 0 0 0 0 0 0 0 0 0 0 0 0 0 0 0 0 0 0 0 0 0 0 0 0 0 0 0 0 0 0 0 0 0 0 0 0 0 0 0 0 0 0 0 0 0 0 0 0 0 0 0 0 0 0 0 0 0 0 0 0 0 0 0 0 0 0 0 3208 3208 3208 3269 3300 3269 3269 3269 3269 3269 3269 3269 3238 3238 3238 3238 3238 3238 3238 3238 3238 3238 3208 3208 3208 3178 3178 3208 3208 3208 3208 3208 3208 3208 3178 3178 3178 3178 3178 3178 3178 3178 3149 3149 3149 3149 3120 3120 3120 3120 3120 3120 3120 3120 3092 3092 3092 3092 3092 3092 3092 3092 3092 3092 3092 3064 3064 3064 3064 3064 3064 3064 3064 3064 3064 3064 3010 3010 3037 3037 3010 3010 3010 3010 3010 2984 2958 2958 2958 2958 2958 2984 2984 2984 2984 4241 4241 4241 4190 4190 4139 4139 4089 1572 1572 4089 4089 4089 4089 4089 4089 4089 4041 4041 4041 4041 3994 3994 3994 3994 3948 3948 3948 3948 3994 3994 3994 3994 3994 3994 3994 3994 3948 3948 3948 3948 3948 3948 3948 3948 3948 3948 3948 3948 3903 3903 3903 3903 3948 3903 3903 3903 3903 3903 3903 3903 3903 3903 3948 3948 0 6146 6146 6146 6146 6146 6146 6259 6259 6038 6038 6038 6038 6038 6038 6038 6038 6038 6038 6038 6146 6146 6146 6146 6146 6146 6146 6146 6146 6146 6038 6038 6038 6038 6038 6038 6038 6038 6038 6038 6259 6375 6375 6375 6375 6375 6375 6375 6375 6375 6497 6497 6497 6497 6497 6497 0 0 0 0 0 0 0 0 0 0 0 0 0
0 0 0 0 0 0 0 0 0 0 0 0 0 0 0 0 0 0 0 0 0 0 0 0 0 0 0 0 0 0 0 0 0 0 0 0 0 0 0 0 0 0 0 0 0 0 0 0 0 0 0 0 0 9870 9870 9870 0 9870 9870 9870 0 0 9870 9870 9870 9593 9593 9331 9331 9593 9593 9593 9870 9870 9870 9870 9870 9870 9870 9593 9593 9593 9593 9593 9593 9331 9331 9331 9331 9331 9331 9331 9331 9084 9084 8849 8849 8849 8849 8849 8849 8849 8626 8626 8626 8626 8626 8626 8626 8413 8413 8413 8413 8413 8413 8413 8626 8626 8413 8413 8413 8413 8413 8626 8626 8626 8626 8626 8626 8413 8413 8413 8413 8413 8413 8212 7835 7835 8413 8626 8626 8626 8626 8413 8413 8413 8413 8413 8413 8413 8413 8019 8019 8019 8019 8019 8019 8019 8019 8019 8212 8212 8413 8626 8626 8626 8626 8626 8626 8626 8626 8626 8626 8626 8626 8626 8849 9084 9084 9084 8849 8626 8626 8626 8626 8626 8413 8413 8626 8626 8849 8849 8626 8626 8626 8849 8626 8626 8626 8849 8849 8849 8849 8849 8849 8849 8849 8849 8849 8849 8849 8849 8849 8849 8849 8849 8849 8849 8849 8849 8849 8849 8849 8849 8849 9084 9084 9084 9084 9084 8849 8849 8849 8849 8626 8626 8626 8413 8413 8626 8626 8626 8626 8626 8626 8413 8413 8413 8413 8626 8413 8413 8413 8413 8413 8413 8413 8626 8626 8849 8849 8849 8849 8849 8849 8849 8849 8849 8849 8849 8849 8849 8849 8849 9084 9084 9084 9084 0 0 0 0 0 0 0 0 0 0 0 0 0 0 0 0 0 0 8413 8413 8413 8413 8413 8413 8413 8413 8413 8413 8413 8413 8413 8413 8413 8413 8413 8626 8413 8413 8413 8626 8413 8413 8413 8626 8626 8212 8212 0 0 0 0 0 0 0 0 0 0 0 0 0 0 0 0 0 0 0 0 0 0 0 0 0 0 0 0 0 0 0 0 0 0 0 0 0 0 0 0 0 0 0 0 0 0 0 0 0 0 0 0 0 0 0 0 0 0 0 0 0 0 0 0 0 0 0 0 0 0 0 0 0 0 0 0 0 0 0 0 0 0 0 0 0 0 3238 3238 3238 3300 3269 3269 3269 3269 3269 3269 3269 3269 3238 3238 3238 3238 3238 3238 3238 3238 3238 3238 3208 3208 3208 3208 3208 3208 3208 3208 3208 3208 3208 3208 3178 3178 3178 3178 3178 3178 3178 3178 3178 3178 3149 3149 3149 3120 3120 3120 3120 3120 3120 3120 3092 3092 3092 3092 3092 3092 3092 3092 3092 3092 3092 3092 3092 3064 3064 3064 3064 3064 3064 3064 3064 3064 3010 3010 3037 3010 3010 3010 3010 3010 3010 2984 2958 2958 2958 2958 2958 2984 2984 2984 2984 2984 4089 4089 4089 4139 4139 4139 4089 4089 4089 4089 4089 4089 4089 4089 4089 4089 4041 4041 4041 4041 3994 3994 3994 3994 3948 3948 3948 3948 3994 3994 3994 3994 3994 3994 3994 3994 3948 3948 3948 3948 3948 3948 3948 3948 3948 3948 3948 3903 3903 3903 3903 3903 3903 3903 3903 3903 3903 3903 3903 3903 3903 3903 3948 3948 0 6146 6146 6146 6146 6146 6146 6146 6146 6038 6038 6038 6038 6038 6038 6038 6146 6146 6146 6146 6146 6146 6146 6146 6146 6146 6038 6038 6038 6038 6038 6038 6038 6038 6038 6038 6038 6038 6038 6038 6038 6375 6375 6375 6375 6375 6375 6375 6375 6375 6497 6497 6497 6497 6497 6497 0 0 0 0 0 0 0 0 0 0 0 0 0
0 0 0 0 0 0 0 0 0 0 0 0 0 0 0 0 0 0 0 0 0 0 0 0 0 0 0 0 0 0 0 0 0 0 0 0 0 0 0 0 0 0 0 0 0 0 0 0 0 0 0 0 0 9870 9870 9870 0 9870 9870 9870 0 0 9870 9870 9870 9593 9331 9331 9331 9593 9593 9593 9593 9870 9870 9870 9870 9870 9870 9593 9593 9593 9593 9593 9593 9331 9331 9331 9331 9331 9331 9331 9331 9084 9084 8849 8849 8849 8849 8626 8626 8626 8626 8626 8626 8413 8413 8413 8413 8413 8413 8413 8413 8413 8413 8413 8626 8626 8413 8413 8413 8413 8413 8626 8626 8626 8626 8626 8626 8413 8413 8413 8212 8212 8212 8212 7835 7835 8413 8626 8626 8626 8626 8626 8626 8413 8413 8413 8413 8413 8413 8019 8019 8019 8019 8019 8019 8019 8019 8019 8212 8212 8413 8413 8626 8626 8626 8626 8626 8849 8849 8849 8849 8626 8626 8849 8849 9084 9084 9084 9084 9084 8849 8626 8626 8626 8626 8626 8626 8626 8849 8626 8626 8626 8626 8849 8626 8626 8626 8849 8849 8849 8849 8849 8849 8849 8849 8849 8849 8849 8849 8849 8849 8849 8626 8626 8849 8849 8849 8849 8849 8849 8849 8849 8849 9084 9084 9084 9084 9084 8849 8849 8849 8849 8626 8626 8626 8413 8413 8413 8626 8626 8626 8626 8626 8413 8413 8413 8413 8626 8413 8413 8413 8413 8413 8413 8413 8626 8849 8849 8849 8849 8849 8849 8626 8626 8849 8849 8849 8849 8849 8849 9084 9084 9084 9084 9084 9084 0 0 0 0 0 0 0 0 0 0 0 0 0 0 0 0 0 0 0 8626 8626 8413 8413 8413 8413 8413 8413 8413 8413 8413 8413 8413 8413 8413 8413 8626 8413 8413 8413 8626 8413 8413 8413 8626 8626 8212 8212 0 0 0 0 0 0 0 0 0 0 0 0 0 0 0 0 0 0 0 0 0 0 0 0 0 0 0 0 0 0 0 0 0 0 0 0 0 0 0 0 0 0 0 0 0 0 0 0 0 0 0 0 0 0 0 0 0 0 0 0 0 0 0 0 0 0 0 0 0 0 0 0 0 0 0 0 0 0 0 0 0 0 0 0 0 0 0 3333 3300 3300 3269 3269 3269 3269 3269 3269 3269 3238 3238 3238 3238 3238 3238 3238 3238 3238 3238 3208 3208 3208 3208 3208 3208 3208 3208 3208 3208 3208 3208 3208 3178 3178 3178 3178 3178 3178 3178 3178 3178 3178 3149 3149 3149 3149 3149 3120 3120 3120 3120 3120 3092 3092 3092 3092 3092 3092 3092 3092 3092 3092 3092 3092 3092 3092 3064 3064 3064 3064 3092 3064 3064 3064 3010 3010 3037 3010 3010 3010 3010 3010 3010 2984 2958 2958 2984 2984 2984 3010 2984 2984 2984 0 4089 4089 4089 4139 4139 4139 4089 4089 4089 4139 4089 4089 4089 4089 4089 4089 4041 4041 4041 4041 4041 4041 4041 4041 4041 4041 4041 4041 4041 4041 4041 3994 3994 3994 3994 3994 3948 3948 3948 3948 3948 3948 3948 3948 3948 3948 3948 3903 3903 3903 3903 3903 3903 3903 3903 3903 3903 3903 3903 3903 3903 3903 3948 3948 0 6622 6259 6259 6259 6146 6146 6146 6146 6038 6038 6038 6038 6038 6038 6038 6146 6146 6146 6146 6146 6146 6146 6146 6038 6038 5933 5933 6038 6038 6038 6038 6038 6038 6038 6038 6038 6038 6038 6038 6038 6375 6375 6375 6375 6375 6375 6375 6375 6375 6375 6497 6497 6497 6497 6497 0 0 0 0 0 0 0 0 0 0 0 0 0
0 0 0 0 0 0 0 0 0 0 0 0 0 0 0 0 0 0 0 0 0 0 0 0 0 0 0 0 0 0 0 0 0 0 0 0 0 0 0 0 0 0 0 0 0 0 0 0 0 0 0 0 0 0 0 0 0 0 0 0 0 0 9870 9870 9870 9593 9331 9331 9331 9331 9331 9593 9593 9593 9870 9870 9870 9870 9870 9593 9593 9593 9593 9593 9593 9331 9331 9331 9331 9331 9331 9331 9331 9084 9084 8849 8849 8849 8626 8626 8413 8413 8626 8626 8626 8413 8413 8413 8413 8413 8413 8413 8413 8413 8413 8413 8626 8413 8413 8413 8413 8413 8413 8626 8626 8626 8626 8626 8626 8413 8413 8413 8413 8212 8212 8212 8212 8212 8413 8413 8626 8626 8626 8413 8413 8413 8413 8413 8413 8212 8212 8212 8212 8212 8212 8212 8212 8212 8212 8212 8212 8212 8413 8413 8626 8626 8626 8626 8626 8626 8626 8849 8849 8849 8849 8849 8849 9084 9084 9084 9084 9084 8849 8626 8626 8626 8626 8626 8626 8626 8849 8626 8626 8626 8626 8849 8626 8626 8626 8626 8626 8626 8626 8626 8849 8849 8849 8849 8849 8849 8849 8849 8849 8849 8626 8626 8849 8849 8849 8849 8849 8849 8849 8849 8849 8849 8849 8849 8849 8849 8849 8849 8626 8626 8626 8626 8626 8413 8413 8413 8413 8626 8626 8626 8626 8626 8626 8626 8626 8626 8626 8626 8413 8413 8413 8413 8413 8626 8626 8626 8849 8849 8849 8626 8626 8626 8626 8626 8626 8626 8626 8849 8849 9084 9084 9084 9084 9084 0 0 0 0 0 0 0 0 0 0 0 0 0 0 0 0 0 0 0 0 8413 8413 8413 8413 8413 8413 8413 8413 8413 8413 8413 8413 8413 8413 8413 8626 8413 8413 8626 8626 8413 8413 8626 8626 8626 8212 8019 8019 0 0 0 0 0 0 0 0 0 0 0 0 0 0 0 0 0 0 0 0 0 0 0 0 0 0 0 0 0 0 0 0 0 0 0 0 0 0 0 0 0 0 0 0 0 0 0 0 0 0 0 0 0 0 0 0 0 0 0 0 0 0 0 0 0 0 0 0 0 0 0 0 0 0 0 0 0 0 0 0 0 0 0 0 0 0 3300 3300 3300 3269 3269 3269 3269 3269 3269 3269 3238 3238 3238 3238 3238 3238 3238 3238 3238 3238 3208 3208 3208 3208 3208 3208 3208 3208 3208 3208 3208 3208 3208 3178 3178 3178 3178 3178 3178 3208 3178 3178 3178 3178 3149 3149 3149 3149 3120 3120 3120 3120 3120 3120 3092 3092 3092 3092 3092 3092 3092 3092 3092 3092 3092 3092 3064 3064 3064 3064 3064 3064 3064 3064 3037 3010 3010 3010 3010 3010 3010 3010 3010 3010 2984 2958 2958 2984 3010 3010 3010 2984 2984 2984 0 4139 4139 4139 4139 4139 4139 3037 3037 3037 3037 0 0 0 4139 4089 4041 4041 3994 3994 4041 3994 3994 3994 3994 4041 4041 4089 4089 4089 4041 4041 4041 3994 3994 3994 3948 3948 3948 3948 3948 3948 3948 3948 3948 3948 3948 3903 3903 3903 3903 3903 3903 3903 3903 3903 3903 3903 3903 3903 3903 3903 3903 3948 3948 0 6622 6622 6259 6259 6146 6146 6146 6146 6038 6038 6038 6038 6038 6038 6038 6146 6146 6146 6259 6259 6146 6146 6146 6038 6038 5933 5933 6038 6038 6038 6038 6038 6038 6038 6038 6038 6038 6038 6038 6259 6259 6375 6375 6259 6259 6259 6375 6375 6375 6375 6497 6497 6497 6497 6497 0 0 0 0 0 0 0 0 0 0 0 0 0
0 0 0 0 0 0 0 0 0 0 0 0 0 0 0 0 0 0 0 0 0 0 0 0 0 0 0 0 0 0 0 0 0 0 0 0 0 0 0 0 0 0 0 0 0 0 0 0 0 0 0 0 0 0 0 0 0 0 0 0 0 0 9870 9870 9870 9331 9331 9331 9331 9331 9331 9593 9593 9593 9870 9870 9870 9870 9870 9593 9593 9593 9593 9593 9593 9331 9331 9331 9593 9331 9331 9331 9331 9084 9084 8849 8849 8849 8626 8626 8413 8413 8413 8413 8626 8626 8626 8626 8626 8626 8413 8413 8413 8413 8413 8212 8212 8413 8413 8413 8413 8413 8413 8413 8626 8413 8413 8413 8413 8413 8413 8413 8413 8212 8212 8212 8212 8019 8019 8413 8413 8626 8626 8413 8413 8413 8413 8413 8212 8212 8212 8212 8212 8212 8212 8212 8212 8212 8212 8212 8212 8413 8413 8626 8626 8626 8626 8626 8626 8626 8626 8626 8849 8626 8626 8849 8849 8849 9084 9084 9084 8849 8849 8626 8626 8626 8626 8626 8626 8626 8849 8626 8626 8626 8626 8626 8626 8626 8626 8626 8626 8626 8626 8626 8849 8849 8849 8849 8849 8849 8626 8626 8626 8849 8849 8849 8849 8849 9084 9084 9084 9084 9084 8849 8849 8849 8849 8849 8849 8849 8849 8849 8626 8626 8626 8626 8626 8413 8413 8413 8413 8413 8626 8626 8626 8626 8626 8626 8626 8413 8413 8413 8413 8413 8413 8413 8413 8626 8626 8626 8849 8849 8626 8626 8626 8626 8626 8626 8626 8626 8626 8849 8849 9084 9084 9084 9084 9084 0 0 0 0 0 0 0 0 0 0 0 0 0 0 0 0 0 0 0 0 8413 8413 8413 8413 8413 8413 8413 8413 8413 8413 8413 8413 8413 8413 8413 8626 8413 8413 8413 8413 8626 8626 8626 8626 8626 8212 8019 8019 0 0 0 0 0 0 0 0 0 0 0 0 0 0 0 0 0 0 0 0 0 0 0 0 0 0 0 0 0 0 0 0 0 0 0 0 0 0 0 0 0 0 0 0 0 0 0 0 0 0 0 0 0 0 0 0 0 0 0 0 0 0 0 0 0 0 0 0 0 0 0 0 0 0 0 0 0 0 0 0 0 0 0 0 0 0 3300 3300 3300 3269 3269 3269 3269 3269 3269 3269 3269 3269 3269 3238 3238 3238 3238 3238 3238 3238 3208 3208 3208 3208 3208 3208 3208 3208 3208 3208 3208 3208 3208 3178 3178 3178 3178 3178 3178 3208 3178 3178 3178 3178 3149 3149 3149 3149 3120 3120 3120 3120 3120 3120 3092 3092 3120 3092 3092 3092 3092 3092 3092 3092 3092 3092 3064 3064 3064 3064 3064 3064 3064 3064 3037 3010 3010 3010 3010 3010 3010 3010 3010 3010 3010 2984 2984 2984 3010 3010 3037 3010 3010 3010 3064 3064 4139 4139 4139 4139 3037 3037 3037 3037 3037 0 0 0 0 4089 4041 4041 3994 3994 3994 3948 3948 3994 3994 4041 4041 4139 4139 4190 4089 4089 4041 3994 3994 3994 3948 3948 3948 3948 3948 3948 3948 3948 3948 3948 3948 3903 3903 3903 3903 3903 3903 3903 3903 3903 3903 3903 3903 3903 3903 3903 3903 3948 3948 0 6622 6622 6259 6259 6259 6259 6259 6146 6038 6038 6038 6038 6038 6038 6038 6038 6038 6146 6146 6146 6146 6146 6038 6038 6038 5933 5933 5933 6038 6038 6038 6038 6038 6038 6038 6038 6038 6038 6038 6038 6146 6259 6259 6259 6259 6259 6259 6259 6259 6375 6375 6375 6497 6497 6497 0 0 0 0 0 0 0 0 0 0 0 0 0
0 0 0 0 0 0 0 0 0 0 0 0 0 0 0 0 0 0 0 0 0 0 0 0 0 0 0 0 0 0 0 0 0 0 0 0 0 0 0 0 0 0 0 0 0 0 0 0 0 0 0 0 0 0 0 0 0 0 0 0 0 0 9870 9870 9870 9331 9331 9331 9331 9593 9593 9593 9593 9593 9870 9870 9593 9593 9593 9593 9593 9593 9593 9593 9593 9593 9593 9593 9593 9593 9331 9331 9084 9084 9084 8849 8849 8626 8626 8626 8413 8413 8413 8413 8626 8626 8626 8626 8626 8626 8626 8626 8626 8413 8413 8212 8212 8413 8413 8413 8413 8212 8212 8413 8413 8413 8413 8413 8413 8413 8413 8413 8413 8212 8212 8212 8019 8019 8019 8413 8413 8413 8626 8413 8413 8413 8413 8413 8212 8212 8212 8413 8413 8212 8212 8212 8212 8212 8212 8212 8212 8413 8626 8626 8626 8849 8849 8849 8849 8626 8626 8626 8849 8626 8626 8849 8849 8849 9084 9084 9084 8849 8849 8626 8626 8626 8626 8626 8626 8626 8626 8626 8626 8626 8626 8626 8626 8626 8626 8626 8626 8626 8626 8626 8849 8849 8849 8849 8849 8849 8626 8626 8626 8849 8849 8849 8849 8849 9084 9084 9084 9084 9084 9084 8849 8849 8849 8849 8849 8849 8849 8849 8626 8626 8626 8626 8626 8413 8413 8413 8413 8413 8413 8626 8626 8626 8626 8626 8626 8413 8413 8413 8413 8413 8413 8413 8413 8626 8626 8626 8626 8626 8626 8626 8626 8626 8626 8626 8626 8626 8626 8626 8849 9084 9084 9084 9084 9331 0 0 0 0 0 0 0 0 0 0 0 0 0 0 0 0 0 0 0 0 8413 8413 8413 8413 8413 8413 8413 8413 8413 8413 8413 8413 8413 8413 8413 8413 8413 8413 8413 8413 8626 8626 8626 8626 8626 8212 8019 8019 0 0 0 0 0 0 0 0 0 0 0 0 0 0 0 0 0 0 0 0 0 0 0 0 0 0 0 0 0 0 0 0 0 0 0 0 0 0 0 0 0 0 0 0 0 0 0 0 0 0 0 0 0 0 0 0 0 0 0 0 0 0 0 0 0 0 0 0 0 0 0 0 0 0 0 0 0 0 0 0 0 0 0 0 0 0 3300 3300 3300 3269 3269 3269 3269 3269 3269 3269 3269 3269 3269 3238 3238 3238 3238 3238 3238 3238 3208 3208 3208 3208 3208 3208 3208 3208 3208 3208 3208 3208 3178 3178 3178 3178 3178 3178 3178 3208 3178 3178 3178 3178 3149 3149 3149 3149 3120 3120 3120 3120 3120 3120 3120 3120 3120 3092 3092 3092 3092 3092 3092 3092 3092 3092 3064 3064 3064 3064 3064 3064 3064 3037 3037 3010 3010 3037 3010 3010 3010 3010 3010 3010 3010 2984 2984 2984 3010 3010 3037 3010 3010 3064 3064 3064 2984 2984 3037 3037 3037 3037 3037 3037 0 0 0 0 0 0 0 0 3994 3994 3994 3948 3948 3948 3994 4041 4041 4139 4139 4295 4139 4089 4089 4041 3994 3994 3994 3948 3948 3948 3948 3948 3948 3948 3948 3948 3948 3903 3903 3903 3903 3903 3903 3903 3903 3903 3903 3903 3903 3903 3903 3948 3948 3948 3948 0 6259 6259 6259 6259 6259 6259 6259 6259 6146 6038 6038 6038 6038 6038 6038 6038 6038 6146 6146 6146 6146 6146 6038 6038 5933 5933 5933 5933 5933 5933 6038 6038 6038 6038 6038 6038 6038 6038 6038 6038 6146 6259 6259 6259 6259 6259 6259 6259 6259 6375 6375 6375 6497 6497 6497 0 0 0 0 0 0 0 0 0 0 0 0 0
0 0 0 0 0 0 0 0 0 0 0 0 0 0 0 0 0 0 0 0 0 0 0 0 0 0 0 0 0 0 0 0 0 0 0 0 0 0 0 0 0 0 0 0 0 0 0 0 0 0 0 0 0 0 0 0 0 0 0 0 0 0 9870 9870 9870 9331 9331 9331 9331 9331 9331 9593 9593 9593 9870 9870 9593 9593 9593 9593 9593 9593 9593 9593 9593 9593 9593 9331 9331 9331 9084 9084 9084 9084 8849 8849 8849 8626 8626 8626 8413 8413 8413 8626 8626 8626 8626 8626 8626 8626 8626 8626 8626 8413 8413 8212 8212 8413 8413 8413 8413 8212 8212 8413 8413 8413 8413 8212 8212 8413 8413 8413 8212 8212 8212 8212 8019 8019 8019 8212 8212 8212 8413 8413 8413 8413 8413 8212 8212 8212 8212 8413 8413 8212 8212 8212 8212 8212 8212 8212 8212 8413 8413 8626 8849 8849 8849 8849 8849 8626 8626 8849 8849 8849 8849 8849 8849 8849 9084 9084 8849 8849 8849 8626 8626 8626 8626 8626 8626 8626 8626 8626 8626 8626 8626 8626 8626 8626 8626 8626 8626 8626 8626 8626 8849 8849 8849 8849 8849 8626 8626 8626 8626 8626 8849 8849 8849 8849 9084 9084 9084 9084 9084 9084 9084 8849 8849 9084 8849 8849 8849 8849 8849 8626 8626 8626 8626 8413 8413 8413 8413 8413 8413 8413 8626 8626 8626 8626 8626 8413 8413 8413 8413 8413 8413 8413 8413 8626 8626 8626 8626 8626 8626 8626 8626 8626 8626 8626 8626 8626 8626 8626 8849 8849 8849 8849 8849 0 0 0 0 0 0 0 0 0 0 0 0 0 0 0 0 0 0 0 0 0 8413 8413 8413 8413 8413 8413 8413 8413 8413 8413 8413 8413 8413 8413 8413 8413 8413 8413 8413 8413 8626 8626 8626 8626 8413 8212 8212 8212 0 0 0 0 0 0 0 0 0 0 0 0 0 0 0 0 0 0 0 0 0 0 8212 8212 8019 8019 0 0 0 0 0 0 0 0 0 0 0 0 0 0 0 0 0 0 0 7030 7030 7178 7030 7030 0 0 0 0 0 0 0 0 0 0 0 0 0 0 0 0 0 0 0 0 0 0 0 0 0 0 0 0 0 0 0 0 0 0 0 0 3300 3300 3300 3300 3269 3269 3269 3269 3269 3269 3269 3269 3269 3269 3238 3238 3238 3238 3238 3238 3208 3208 3208 3208 3208 3208 3208 3208 3208 3208 3208 3208 3178 3178 3178 3178 3178 3178 3178 3178 3178 3178 3178 3149 3149 3149 3149 3149 3120 3120 3120 3120 3120 3120 3120 3120 3120 3092 3092 3092 3092 3092 3092 3092 3092 3092 3064 3064 3064 3064 3064 3064 3064 3037 3037 3010 3010 3010 3010 3010 3010 3010 3037 3037 3010 2984 2984 2984 3010 3010 3037 3037 3037 3037 3064 3064 2984 2984 3010 3010 3037 3037 3037 0 0 0 0 0 0 0 0 0 0 0 0 3948 3948 3948 3994 4041 4041 4349 4349 4405 4190 4089 4089 4041 3994 3948 3948 3948 3948 3948 3948 3948 3948 3948 3948 3948 3948 3903 3903 3903 3903 3903 3903 3903 3903 3903 3903 3903 3903 3903 3948 3948 3994 3994 3994 0 6146 6146 6146 6146 6146 6146 6146 6259 6038 6038 6038 6038 6038 6038 6038 6038 6038 6146 6146 6146 6146 6146 6038 6038 5933 5933 5933 5933 5933 5933 6038 6038 6038 6038 6038 6038 6038 6038 6038 6038 6038 6146 6259 6259 6259 6259 6375 6375 6375 6375 6375 6375 6497 6497 6497 0 0 0 0 0 0 0 0 0 0 0 0 0
0 0 0 0 0 0 0 0 0 0 0 0 0 0 0 0 0 0 0 0 0 0 0 0 0 0 0 0 0 0 0 0 0 0 0 0 0 0 0 0 0 0 0 0 0 0 0 0 0 0 0 0 0 0 0 0 0 0 0 0 0 0 9870 9870 9870 9331 9331 9331 9331 9331 9331 9593 9593 9593 9593 9870 9870 9870 9870 9870 9593 9593 9593 9593 9593 9331 9331 9331 9331 9331 9084 9084 9084 9084 8849 8849 8849 8626 8626 8626 8626 8626 8626 8626 8626 8626 8849 8626 8626 8626 8626 8626 8626 8413 8413 8413 8413 8413 8413 8413 8413 8413 8413 8413 8413 8413 8413 8212 8212 8413 8413 8413 8212 8212 8212 8212 8019 8019 8019 8212 8212 8212 8413 8413 8413 8413 8413 8212 8212 8413 8413 8212 8212 8212 8212 8212 8212 8212 8212 8212 8413 8413 8413 8626 8626 8626 8849 8626 8626 8626 8626 8626 8626 8849 8849 8849 8849 8849 9084 9084 8849 8849 8849 8626 8626 8626 8626 8626 8626 8849 8849 8626 8626 8626 8626 8626 8626 8626 8626 8626 8626 8626 8626 8626 8849 8849 8849 8849 8849 8626 8626 8626 8626 8626 8626 8849 8849 8849 9084 9084 9084 9084 9084 9084 8849 8849 8849 9084 8849 8849 8849 9084 8849 8849 8626 8626 8626 8413 8413 8413 8413 8413 8413 8413 8626 8626 8626 8626 8626 8626 8626 8626 8413 8413 8413 8413 8413 8626 8626 8626 8626 8626 8849 8626 8626 8626 8626 8626 8626 8626 8626 8626 8849 8849 8849 8849 8849 0 0 0 0 0 0 0 0 0 0 0 0 0 0 0 0 0 0 0 0 0 8413 8413 8413 8413 8413 8413 8413 8413 8413 8413 8413 8413 8413 8413 8413 8413 8413 8413 8413 8413 8626 8626 8626 8626 8413 8413 8413 0 0 0 0 0 0 0 0 0 0 0 0 0 0 0 0 0 8212 8212 8212 8212 8212 8413 8212 8212 8019 8019 0 0 0 0 0 0 0 0 0 0 0 0 0 0 0 0 0 0 7178 7030 7030 7178 7030 7030 0 0 7492 7492 7332 7332 7492 7492 7660 0 0 0 0 0 0 0 0 0 7332 7332 0 0 0 0 0 0 0 0 0 0 0 0 0 0 0 0 3333 3300 3300 3300 3269 3269 3269 3269 3269 3269 3269 3269 3269 3269 3238 3238 3238 3238 3238 3238 3208 3208 3208 3208 3208 3208 3208 3208 3208 3208 3208 3208 3208 3208 3208 3178 3178 3178 3178 3178 3178 3178 3178 3149 3149 3149 3149 3149 3120 3120 3120 3120 3120 3092 3092 3092 3120 3092 3092 3092 3120 3092 3092 3092 3092 3092 3064 3064 3064 3064 3064 3064 3064 3064 3037 3010 3010 3010 3010 3010 3010 3010 3010 3010 3010 2984 2984 2984 3010 3010 3037 3037 3037 3037 3064 3064 2984 2984 3010 3010 3037 3037 3037 0 0 0 0 0 0 0 0 0 0 0 0 0 0 3994 3994 0 4349 4349 4349 4405 4405 4139 4139 4089 3994 3903 3903 3948 3948 3948 3948 3948 3948 3948 3948 3948 3948 3903 3903 3903 3903 3948 3948 3948 3948 3948 3903 3903 3903 3948 3948 3994 4041 4041 0 6146 6146 6146 6146 6146 6146 6146 6146 6146 6038 6038 5933 5933 5933 6038 5933 5933 5933 6038 6038 6038 6038 6038 6038 6038 5933 5933 5933 5933 5933 5933 6038 6038 6038 6038 6038 6038 6038 6038 6038 6038 6038 6038 6146 6259 6375 6375 6375 6375 6375 6375 6375 6497 6497 6497 6497 0 0 0 0 0 0 0 0 0 0 0 0 0
0 0 0 0 0 0 0 0 0 0 0 0 0 0 0 0 0 0 0 0 0 0 0 0 0 0 0 0 0 0 5132 5132 0 0 0 0 0 0 0 0 0 0 0 0 0 0 0 0 0 0 0 0 0 0 0 0 0 0 0 0 0 0 9870 9870 9870 9593 9331 9331 9593 9593 9593 9593 9593 9593 9593 9870 9870 9870 9593 9593 9593 9593 9331 9331 9331 9331 9331 9084 9084 9084 9084 9084 8849 8849 8849 8849 8626 8626 8626 8626 8626 8626 8849 8626 8626 8626 8849 8626 8626 8626 8626 8626 8626 8626 8626 8626 8626 8626 8626 8626 8413 8413 8413 8413 8413 8413 8413 8212 8212 8413 8413 8413 8413 8212 8019 8019 8019 8019 8019 8212 8212 8413 8413 8413 8413 8413 8413 8413 8413 8413 8413 8212 8212 8212 8212 8212 8212 8212 8212 8212 8413 8413 8413 8626 8626 8626 8849 8626 8626 8626 8626 8626 8626 8626 8626 8849 8849 9084 9084 9084 9084 9084 8626 8626 8626 8626 8626 8626 8626 8849 8626 8626 8626 8626 8626 8626 8626 8626 8626 8626 8626 8626 8626 8626 8849 8849 8849 8849 8849 8626 8626 8626 8626 8626 8626 8849 8849 8849 9084 9084 9084 9084 9084 9084 8849 8849 8849 8849 8849 8849 8849 9084 8849 8849 8626 8626 8626 8413 8413 8413 8413 8413 8413 8413 8626 8626 8626 8626 8626 8626 8626 8626 8413 8413 8413 8413 8413 8626 8626 8626 8626 8626 8849 8626 8626 8849 8849 8626 8626 8626 8626 8849 8849 8849 8849 8849 0 0 0 0 0 0 0 0 0 0 0 0 0 0 0 0 0 0 0 0 0 0 8212 8212 8212 8413 8413 8413 8413 8413 8413 8413 8413 8413 8413 8413 8413 8413 8413 8413 8413 8413 8626 8626 8626 8626 8413 8413 8413 0 0 0 0 0 0 0 0 8019 8019 0 0 0 0 0 0 8212 8212 8212 8212 8212 8212 8413 8413 8212 8212 8019 8019 8019 7660 7660 7660 0 0 0 0 0 0 0 0 0 8212 8019 8019 7492 7178 7178 7178 7332 7030 7030 7332 7332 7492 7492 7332 7332 7492 7492 7660 7492 7492 0 0 0 7332 7332 7332 7332 7332 7332 7492 7492 7492 0 0 0 0 0 0 0 0 0 0 0 0 0 3333 3300 3300 3269 3269 3269 3269 3269 3269 3269 3269 3269 3269 3269 3238 3238 3238 3238 3238 3238 3208 3208 3208 3208 3208 3208 3208 3208 3208 3208 3208 3208 3208 3208 3208 3208 3208 3178 3178 3178 3178 3178 3149 3149 3149 3149 3149 3149 3120 3120 3120 3120 3120 3092 3092 3092 3092 3092 3092 3092 3092 3092 3092 3092 3092 3092 3064 3064 3064 3064 3064 3064 3064 3064 3064 3064 3064 3037 3037 3037 3010 3010 3010 3010 3010 2984 2984 2984 3010 3010 3037 3037 3037 3037 3064 3064 3010 3010 3037 3037 3037 3064 3064 0 0 0 0 0 0 0 0 0 0 0 0 0 0 0 0 0 0 0 4405 4405 4463 4190 4190 4190 3948 3859 3859 3903 3903 3903 3948 3948 3948 3948 3948 3948 3948 3903 3903 3903 3903 3948 3948 3948 3948 3948 3948 3948 3948 3948 3994 4041 4089 4089 0 6146 6146 6146 6146 6146 6146 6146 6146 6146 6038 6038 5933 5933 5933 6038 5933 5933 5933 6038 6038 6038 6038 6038 6038 6038 5933 5933 5933 5933 5933 5933 6038 6038 6038 6038 6038 6038 6038 6038 6038 6038 6038 6038 6146 6259 6375 6375 6375 6375 6375 6375 6497 6497 6497 6497 6497 0 0 0 0 0 0 0 0 0 0 0 0 0
0 0 0 0 0 0 0 0 0 0 0 0 0 0 0 0 0 0 0 0 0 0 0 0 0 0 0 0 0 0 5132 5132 5132 0 0 0 0 0 0 0 0 0 0 0 0 9870 9870 0 0 9870 9870 9870 0 0 0 0 0 0 0 0 9870 9870 9870 9870 9593 9331 9331 9331 9593 9593 9593 9593 9593 9593 9593 9870 9593 9593 9593 9593 9593 9593 9331 9331 9331 9331 9331 9084 9084 8849 8849 8849 8849 8849 8849 8626 8626 8626 8626 8626 8626 8626 8626 8626 8626 8626 8626 8626 8626 8626 8626 8626 8413 8413 8626 8626 8626 8626 8626 8626 8626 8413 8413 8413 8413 8413 8413 8212 8212 8413 8413 8413 8413 8212 8019 8019 8019 8019 8019 8212 8212 8212 8413 8413 8413 8413 8413 8212 8212 8413 8413 8212 8212 8212 8212 8212 8212 8212 8212 8212 8413 8413 8626 8626 8626 8849 8849 8849 8626 8626 8626 8626 8626 8626 8626 8849 8849 9084 9084 9084 9084 9084 8626 8626 8626 8626 8626 8626 8626 8626 8626 8626 8626 8626 8626 8626 8626 8626 8626 8626 8626 8626 8626 8626 8849 8849 8849 8849 8849 8849 8626 8626 8626 8626 8626 8626 8849 8849 8849 8849 9084 9084 9084 8849 8849 8849 8849 8849 8849 8849 8849 9084 8849 8849 8849 8626 8626 8413 8413 8413 8413 8413 8413 8413 8626 8626 8626 8626 8626 8626 8626 8626 8413 8413 8413 8413 8413 8626 8626 8626 8849 8849 8849 8626 8626 8849 8849 8626 8626 8626 8626 8849 8849 8849 8849 8849 0 0 0 0 0 0 0 0 0 0 0 0 0 0 0 0 0 0 0 0 0 0 8212 8212 8212 8413 8413 8413 8413 8413 8413 8413 8413 8413 8413 8413 8413 8413 8413 8413 8413 8413 8413 8413 8413 8626 8413 8212 8212 0 0 0 0 0 0 0 0 8019 8019 8212 0 0 0 8212 8212 8212 8212 8212 8212 8212 8413 8413 8212 8212 8212 8019 8019 8019 7660 7660 7660 7835 7835 7835 8019 8212 0 0 8212 8212 8212 8019 8019 7492 7332 7332 7332 7332 7030 7030 7332 7332 7492 7492 7492 7492 7492 7660 7660 7492 7492 7492 7492 7492 7332 7332 7332 7332 7332 7332 7492 7492 7492 7492 7492 0 0 0 0 7492 7492 7492 0 0 0 0 0 3300 3300 3269 3269 3269 3269 3269 3269 3269 3269 3269 3269 3269 3269 3269 3238 3238 3238 3238 3208 3208 3208 3208 3208 3208 3208 3208 3208 3208 3208 3208 3208 3178 3178 3208 3178 3178 3178 3178 3178 3178 3149 3149 3149 3120 3120 3120 3120 3120 3120 3120 3120 3092 3092 3092 3092 3092 3092 3092 3092 3092 3092 3092 3064 3064 3064 3064 3064 3064 3064 3064 3064 3064 3064 3064 3064 3037 3037 3037 3037 3037 3010 3010 3010 2984 2984 3010 3010 3037 3037 3037 3064 3064 3064 3064 3064 3037 3010 3010 3037 3037 3037 3037 0 0 0 0 0 0 0 0 0 0 0 0 0 0 0 0 0 0 0 0 4522 4522 0 0 3859 3859 3859 3903 3903 3903 3948 3948 3948 3948 3948 3948 3948 3903 3903 3903 3903 3948 3948 3948 3948 3948 3948 3948 3948 3994 3994 4041 4089 4089 0 6146 6146 6146 6146 6146 6146 6146 6146 6146 6038 6038 6038 5933 5933 6038 5933 5933 5933 6038 6038 6038 6038 6038 6038 6038 6038 6038 6038 6038 6038 6038 6038 6146 6146 6146 6146 6038 6038 6038 6038 6038 6038 6038 6259 6375 6375 6375 6375 6375 6375 6375 6497 6497 6497 6497 6497 0 0 0 0 0 0 0 0 0 0 0 0 0
0 0 0 0 0 0 0 0 0 0 0 0 0 0 0 0 0 0 0 0 0 0 0 0 0 0 0 0 0 0 5056 5056 5056 5132 0 0 0 0 0 0 0 0 0 0 9870 9870 9870 9870 9870 9870 9870 9870 0 9870 9870 9870 9870 9870 9870 9870 9870 9870 9870 9593 9593 9331 9331 9593 9593 9593 9593 9593 9593 9593 9593 9870 9593 9593 9593 9593 9593 9593 9331 9331 9331 9331 9331 8849 8849 8849 8849 8849 8626 8626 8849 8626 8626 8626 8626 8626 8626 8626 8626 8626 8626 8626 8626 8626 8626 8626 8626 8626 8413 8413 8413 8626 8413 8413 8626 8626 8626 8413 8413 8413 8413 8413 8413 8212 8212 8413 8413 8413 8413 8413 8019 8019 8019 8019 8019 8212 8212 8212 8413 8413 8413 8413 8413 8212 8212 8413 8413 8212 8212 8212 8212 8212 8212 8212 8212 8212 8413 8413 8626 8626 8626 8849 8626 8626 8626 8626 8626 8626 8626 8626 8626 8849 8849 8849 8849 9084 9084 8849 8849 8626 8626 8626 8626 8626 8626 8626 8626 8626 8626 8626 8626 8626 8626 8626 8626 8626 8626 8626 8626 8849 8849 8849 8849 8849 8849 8626 8626 8626 8626 8626 8626 8626 8626 8626 8849 8849 9084 9084 9084 8849 8849 8849 8849 9084 8849 8849 8849 9084 9084 8849 8849 8626 8626 8413 8413 8413 8413 8413 8413 8413 8626 8626 8626 8626 8626 8626 8626 8626 8413 8413 8413 8413 8413 8626 8626 8626 8849 8849 8849 8626 8626 8849 8849 8849 8849 8849 8849 8849 8849 8849 5374 5374 0 0 0 0 0 0 0 0 0 0 0 0 0 0 0 0 0 0 0 0 0 8413 8212 8212 8212 8413 8413 8413 8413 8413 8413 8413 8413 8413 8413 8413 8413 8413 8413 8413 8413 8413 8413 8413 8413 8413 8413 8212 8212 0 0 0 0 0 8413 8413 8413 8212 8212 8212 0 0 8212 8212 8212 8212 8212 8212 8212 8212 8413 8413 8212 8212 8212 8212 8212 8019 8019 8019 8019 7835 7835 7835 8019 8019 8019 8019 8019 8212 8212 8019 8019 8019 7492 7492 7492 7332 7332 7332 7492 7492 7660 7660 7492 7492 7660 7660 7660 7492 7492 7492 7492 7492 7492 7492 7492 7660 7492 7492 7492 7492 7492 7492 7492 7492 7660 7835 7835 7492 7492 7492 0 0 0 0 0 3300 3300 3300 3300 3269 3269 3269 3269 3269 3269 3269 3269 3269 3269 3238 3238 3238 3238 3208 3208 3208 3208 3208 3208 3208 3208 3208 3208 3208 3208 3208 3208 3178 3178 3208 3178 3178 3178 3178 3178 3149 3149 3149 3149 3120 3120 3120 3120 3120 3120 3120 3120 3092 3092 3092 3092 3092 3092 3092 3092 3092 3092 3092 3064 3064 3064 3064 3064 3064 3064 3064 3064 3064 3064 3064 3037 3037 3037 3037 3037 3037 3037 3037 3037 3010 3010 3010 3010 3037 3037 3037 3064 3064 3064 3064 3064 3037 3010 3010 3010 3037 3037 3037 0 0 0 0 0 0 0 0 0 0 0 0 0 0 0 0 0 0 0 0 0 0 0 0 3859 3859 3903 3903 3948 3948 3948 3994 3948 3948 3948 3948 3948 3948 3948 3948 3948 3948 3948 3948 3948 3948 3994 3994 3994 4041 4041 4089 4139 4139 0 6146 6146 6146 6146 6146 6146 6146 6146 6146 6038 6038 5933 5933 5933 6038 5933 5933 5933 6038 6038 6038 6038 6038 6038 6038 6038 6038 6038 6038 6038 6038 6038 6038 6146 6146 6146 6038 6038 6038 6038 6038 6038 6038 6259 6375 6375 6375 6375 6375 6375 6375 6375 6375 6375 6375 6375 0 0 0 0 0 0 0 0 0 0 0 0 0
0 0 0 0 0 0 0 0 0 0 0 0 0 0 0 0 0 0 0 0 0 0 0 0 0 0 0 0 0 0 4983 4983 4983 5056 5056 5056 0 0 0 0 9870 9870 9870 9870 9870 9593 9593 9870 9870 9870 9870 9870 9870 9870 9870 9870 9870 9870 9870 9870 9870 9870 9870 9593 9593 9331 9331 9593 9593 9593 9870 9870 9870 9870 9870 9870 9870 9593 9593 9593 9593 9593 9084 9084 9084 9084 8849 8626 8626 8849 8849 8626 8626 8626 8626 8413 8413 8413 8626 8626 8626 8849 8849 8849 8626 8626 8626 8626 8626 8626 8626 8626 8626 8413 8413 8626 8413 8413 8626 8626 8626 8413 8212 8212 8212 8212 8212 8019 8019 8212 8413 8413 8413 8413 8212 8019 8019 8019 8019 8212 8212 8212 8413 8413 8212 8212 8212 8212 8212 8413 8413 8212 8212 8212 8212 8212 8212 8212 8212 8212 8413 8626 8626 8626 8626 8849 8626 8626 8626 8626 8626 8626 8626 8626 8626 8626 8849 8849 8849 8849 8849 8849 8626 8626 8626 8626 8626 8626 8626 8626 8626 8626 8626 8626 8626 8626 8626 8626 8626 8626 8626 8626 8626 8849 8849 8849 8849 8849 8626 8626 8626 8626 8626 8626 8626 8626 8626 8626 8849 8849 8849 9084 9084 9084 8849 8849 9084 9084 9084 9084 8849 8849 8849 8849 8849 8626 8626 8413 8413 8413 8413 8413 8413 8413 8626 8626 8626 8626 8626 8626 8626 8626 8413 8413 8413 8626 8626 8626 8626 8849 8849 8849 8849 8849 8849 8849 9084 9084 9084 8849 8849 8849 5460 5460 5374 5374 5460 0 0 0 0 0 0 0 0 0 0 0 0 0 0 0 0 0 0 0 0 8413 8413 8413 8413 8413 8413 8413 8413 8413 8413 8413 8413 8413 8413 8413 8413 8413 8413 8413 8413 8413 8413 8413 8413 8413 8413 8413 8413 0 0 0 0 8413 8413 8413 8413 8413 8212 8212 8849 0 8212 8212 8212 8212 8212 8212 8212 8212 8212 8212 8212 8212 8212 8212 8212 8212 8019 8019 8019 8019 8019 8019 8019 8019 8019 8019 8019 8212 8212 8212 8212 8212 8019 8019 7835 7660 7660 7835 7835 7835 7660 7660 7660 7660 7835 8019 8019 8019 7835 7835 7835 7835 7835 7492 7492 7660 7660 7660 7492 7492 7492 7492 7492 7492 7660 7835 7835 7660 7660 7660 7835 0 7660 0 0 3300 3300 3300 3300 3300 3300 3300 3300 3269 3269 3269 3269 3269 3269 3238 3238 3238 3208 3208 3208 3208 3208 3208 3208 3208 3208 3208 3208 3208 3208 3208 3178 3178 3178 3178 3178 3178 3178 3178 3178 3149 3149 3149 3149 3149 3149 3120 3120 3120 3120 3120 3120 3092 3092 3092 3120 3092 3092 3092 3092 3092 3092 3092 3092 3092 3092 3092 3064 3064 3064 3064 3064 3064 3064 3037 3037 3037 3037 3037 3037 3037 3037 3037 3037 3010 3010 3010 3010 3037 3037 3037 3064 3064 3064 3064 3064 3037 3010 3010 3010 3010 0 0 0 0 0 0 0 0 0 0 0 0 0 0 0 0 0 0 0 0 0 0 0 0 0 0 3948 3903 3903 3948 3948 3948 3994 3994 3994 3994 3948 3948 3948 3948 3948 3948 3948 3948 3948 3948 3948 3948 3948 3994 3994 4041 4041 4139 4190 4190 6146 6146 6146 6146 6146 6146 6146 6146 6146 6146 5933 5933 5933 5933 5933 5933 5933 5933 5933 5933 6038 6038 6038 6038 6038 6038 6038 6038 6038 6038 6038 6038 6038 6038 6038 6146 6146 6146 6146 6038 6038 6038 6146 6146 6259 6375 6375 6375 6375 6375 6375 6375 6375 6375 6375 6375 6375 0 0 0 0 0 0 0 0 0 0 0 0 0
0 0 0 0 0 0 0 0 0 0 0 0 0 0 0 0 0 0 0 0 0 0 0 0 0 0 0 0 0 0 4983 4983 4983 4983 4983 4983 4983 0 0 0 9870 9870 9870 9870 9593 9593 9593 9593 9593 9593 9593 9593 9870 9870 9870 9870 9870 9870 9870 9593 9593 9593 9593 9593 9593 9593 9593 9593 9593 9593 9593 9870 9870 9870 9870 9870 9593 9593 9331 9331 9331 9331 8849 8849 8849 8849 8849 8626 8626 8849 8849 8626 8626 8626 8626 8413 8413 8413 8413 8626 8626 8849 8849 8626 8626 8626 8626 8626 8626 8626 8626 8626 8626 8626 8626 8626 8626 8413 8413 8413 8413 8413 8212 8212 8212 8212 8212 8019 8019 8212 8413 8413 8413 8413 8212 8212 8212 8212 8212 8212 8212 8413 8413 8413 8212 8212 8212 8212 8212 8413 8413 8413 8212 8212 8212 8212 8019 8019 8212 8413 8413 8626 8626 8626 8626 8626 8626 8626 8626 8626 8626 8626 8626 8626 8626 8626 8626 8626 8626 8626 8626 8626 8626 8626 8413 8413 8413 8413 8413 8413 8413 8626 8626 8626 8626 8626 8626 8626 8849 8626 8626 8626 8626 8626 8849 8849 8849 8626 8626 8626 8626 8626 8626 8413 8413 8413 8413 8626 8626 8626 8626 8849 8849 9084 8849 8849 9084 8849 8849 8849 8849 8849 8849 8849 8849 8626 8626 8413 8413 8413 8413 8413 8413 8626 8626 8626 8626 8626 8626 8626 8626 8626 8626 8413 8413 8626 8626 8626 8626 8849 8849 8849 8849 8849 8849 8849 9084 9084 9084 5374 5374 5374 5374 5460 5460 5460 5460 5374 5291 5291 5291 0 0 0 0 0 0 0 0 0 0 0 0 0 0 0 8212 8212 8413 8413 8413 8413 8413 8413 8413 8413 8413 8413 8413 8413 8413 8626 8413 8413 8413 8413 8413 8413 8413 8413 8413 8626 8413 8413 8413 0 8212 8212 8212 8212 8212 8212 8413 8413 8413 8413 8849 8849 8212 8212 8212 8212 8212 8212 8212 8212 8212 8212 8212 8212 8212 8019 8019 8019 8019 8019 8019 8019 8019 8019 8019 8019 8019 8019 8019 8212 8212 8212 8212 8212 8212 8019 8019 8019 8019 8019 8019 8019 7835 7835 7835 7835 7835 8019 8019 8019 7835 7835 8019 8019 7835 7835 7660 7660 7660 7660 7660 7492 7492 7660 7660 7660 7835 7835 7835 7660 7660 7835 7660 7660 7660 7332 3300 3300 3269 3269 3269 3269 3300 3300 3300 3269 3269 3269 3269 3269 3238 3238 3238 3238 3208 3208 3208 3208 3208 3208 3208 3208 3208 3208 3208 3208 3208 3178 3178 3178 3178 3178 3178 3149 3149 3178 3178 3149 3149 3149 3149 3149 3149 3149 3120 3120 3120 3120 3120 3092 3092 3120 3120 3092 3092 3092 3092 3092 3092 3092 3092 3092 3092 3092 3064 3064 3064 3064 3064 3064 3064 3037 3037 3064 3037 3037 3037 3037 3037 3037 3037 3010 3010 3010 3037 3037 3037 3064 3064 3064 3064 3064 3064 3037 3010 3010 3010 3010 0 0 0 0 0 0 0 0 0 0 0 0 0 0 0 0 0 0 0 0 0 0 0 0 0 0 3948 3948 3948 3994 3994 3994 3994 3994 3994 3994 3948 3948 3948 3948 3948 3948 3948 3948 3948 3948 3948 3948 3948 3994 3994 4041 4041 4139 4139 4139 6146 6146 6146 6146 6146 6146 6146 6146 6146 6146 5933 5933 5933 5933 5933 5933 5933 5933 5933 5933 5933 5933 6038 6038 6038 6038 6038 6038 6038 6038 6038 6038 6038 6038 6038 6146 6146 6146 6146 6038 6038 6146 6259 6259 6259 6259 6259 6375 6375 6375 6375 6375 6375 6375 6375 6375 6375 0 0 0 0 0 0 0 0 0 0 0 0 0
0 0 0 0 0 0 0 0 0 0 0 0 0 0 0 0 0 0 0 0 0 0 0 0 0 0 0 0 0 0 4983 4983 4983 4983 4983 4983 5056 5056 5056 0 9870 9870 9870 9870 9593 9593 9593 9593 9593 9593 9593 9593 9870 9870 9870 9870 9870 9870 9870 9593 9593 9593 9593 9593 9593 9593 9593 9593 9593 9593 9593 9870 9870 9870 9870 9870 9593 9331 9084 9084 9084 9084 8849 8849 8849 8849 8849 8849 8849 8849 8849 8626 8626 8626 8626 8413 8413 8413 8413 8413 8849 8849 8626 8626 8626 8626 8626 8413 8413 8413 8626 8626 8626 8626 8626 8626 8626 8413 8413 8413 8413 8413 8212 8212 8212 8212 8212 8212 8212 8212 8212 8212 8413 8413 8212 8212 8212 8212 8212 8212 8413 8413 8413 8413 8212 8212 8212 8212 8212 8413 8413 8413 8212 8212 8212 8212 8019 8019 8019 8019 8212 8413 8413 8626 8626 8626 8626 8626 8413 8413 8413 8413 8413 8413 8413 8626 8626 8626 8626 8626 8626 8626 8626 8413 8413 8413 8413 8413 8413 8413 8413 8413 8626 8626 8626 8626 8626 8626 8849 8626 8626 8626 8626 8626 8849 8626 8626 8626 8413 8413 8413 8413 8413 8413 8413 8413 8413 8413 8626 8626 8626 8849 8849 8849 8849 8849 8849 8849 8849 8849 8626 8626 8626 8626 8626 8626 8626 8413 8413 8413 8413 8626 8626 8626 8626 8626 8626 8626 8626 8626 8626 8626 8626 8413 8413 8626 8626 8849 8849 8849 8849 9084 9084 8849 8849 9084 9084 5291 5291 5291 5374 5374 5374 5460 5460 5460 5460 5374 5291 5291 5291 5291 0 0 0 0 0 0 0 0 0 0 0 0 0 0 8212 8212 8413 8413 8413 8413 8413 8413 8413 8413 8413 8413 8626 8626 8626 8626 8626 8626 8413 8413 8413 8413 8413 8413 8413 8626 8413 8413 8413 8413 8413 8212 8212 8212 8212 8212 8413 8413 8413 8413 8413 8212 8212 8212 8212 8212 8212 8212 8212 8212 8212 8212 8212 8212 8212 8019 8019 8019 8019 8019 8019 8019 8019 8019 8019 8019 8019 8019 8212 8212 8212 8212 8212 8212 8212 8019 8019 8019 8019 8019 8019 8019 8019 8019 8019 8019 8019 8019 8019 8019 7835 7835 8019 8019 7835 7835 7835 7835 7835 7835 7660 7660 7660 7660 7660 7660 7835 7835 7835 7835 7835 7835 7660 7660 7332 7332 7332 3269 3269 3269 3269 3269 3300 3269 3269 3269 3269 3269 3269 3269 3238 3238 3238 3238 3208 3208 3208 3208 3208 3208 3208 3208 3208 3208 3208 3178 3178 3178 3178 3178 3178 3178 3178 3149 3149 3149 3178 3149 3149 3149 3149 3149 3149 3149 3120 3120 3120 3120 3120 3092 3092 3092 3092 3120 3092 3092 3092 3092 3092 3092 3092 3092 3092 3092 3092 3064 3064 3064 3064 3064 3064 3037 3037 3064 3064 3037 3037 3064 3037 3037 3064 3037 3037 3037 3037 3037 3037 3064 3064 3064 3064 3064 3064 3037 3037 3037 3010 3010 0 0 0 0 0 0 0 0 0 0 0 0 0 0 0 0 0 0 0 0 0 0 0 0 0 0 3994 3994 3994 3994 3994 3994 3994 4041 3994 3994 3994 3994 3994 3948 3948 3994 3994 3994 3948 3948 3948 3948 3994 3994 3994 4041 4041 4139 4139 4139 6146 6146 6146 6146 6146 6146 6146 6146 6146 6146 6038 5933 5933 5933 5933 5933 5933 5933 5933 5933 5933 5933 6038 6038 6038 6038 6038 6038 6038 6038 6038 6038 6038 6038 6146 6146 6146 6146 6146 6038 6038 6146 6259 6259 6259 6259 6259 6259 6259 6375 6375 6375 6375 6375 6375 6375 6375 0 0 0 0 0 0 0 0 0 0 0 0 0
0 0 0 0 0 0 0 0 0 0 0 0 0 0 0 0 0 0 0 0 0 0 0 0 0 0 0 0 0 0 4911 4911 4911 4983 4983 4983 4983 4983 4911 4911 4911 9870 9870 9870 9593 9593 9593 9870 9870 9870 9870 0 0 5291 5291 5374 9870 9593 9593 9593 9331 9331 9331 9331 9331 9331 9331 9331 9593 9870 9870 9870 9870 9870 9870 9593 9084 9084 9084 9084 9084 9084 8849 8849 8849 9084 9084 8849 8849 8849 8849 8849 8626 8626 8626 8212 8212 8212 8413 8413 8626 8626 8626 8626 8626 8626 8413 8413 8413 8413 8626 8626 8626 8626 8626 8626 8626 8413 8413 8413 8413 8413 8212 8212 8212 8212 8212 8019 8019 8212 8212 8212 8413 8413 8413 8212 8212 8212 8212 8212 8413 8413 8212 8212 8212 8212 8212 8212 8413 8413 8626 8413 8413 8212 8212 8019 8019 8212 8019 8019 8212 8413 8413 8626 8626 8626 8413 8413 8413 8413 8413 8413 8413 8413 8413 8413 8626 8626 8626 8626 8626 8626 8413 8413 8413 8413 8413 8413 8413 8413 8413 8413 8413 8626 8626 8626 8626 8626 8849 8626 8626 8626 8849 8849 8849 8626 8626 8413 8413 8413 8413 8413 8413 8413 8413 8413 8413 8413 8626 8626 8626 8626 8626 8626 8626 8626 8626 8626 8626 8626 8626 8626 8626 8626 8626 8626 8626 8626 8626 8626 8626 8626 8626 8626 8626 8626 8849 8626 8626 8626 8626 8626 8626 8413 8413 8626 8626 8849 8849 8849 9084 9084 9084 9084 9084 9331 5374 5291 5291 5291 5374 5374 5460 5460 5460 5460 5460 5374 5291 5291 5291 5291 0 0 0 0 0 0 0 0 0 0 0 0 0 0 8212 8212 8413 8413 8413 8413 8413 8413 8413 8413 8413 8413 8626 8626 8626 8626 8626 8626 8413 8413 8413 8413 8413 8413 8626 8626 8413 8413 8413 8413 8413 8212 8212 8212 8212 8212 8413 8413 8413 8626 8626 8626 8212 8212 8212 8212 8212 8212 8212 8212 8212 8212 8212 8212 8212 8212 8212 8212 8019 8019 8019 8019 8019 8019 8019 8019 8019 8019 8212 8212 8212 8212 8212 8212 8212 8019 8019 8019 8019 8019 8019 8019 8019 8019 8019 8019 8019 8019 8019 8019 8019 8019 8019 8019 8019 8019 8019 7835 7835 7835 7660 7660 7660 7660 7660 7835 7835 7835 7835 7835 7835 7835 7835 7835 7332 7332 7332 3269 3269 3269 3269 3269 3300 3269 3269 3269 3269 3269 3269 3238 3238 3238 3238 3238 3208 3208 3208 3208 3208 3208 3208 3208 3208 3208 3208 3178 3178 3178 3178 3178 3178 3178 3178 3149 3149 3120 3120 3120 3120 3149 3149 3178 3149 3149 3149 3149 3149 3149 3149 3092 3092 3092 3092 3120 3092 3092 3092 3092 3092 3092 3064 3064 3064 3092 3092 3064 3064 3064 3064 3064 3064 3037 3037 3037 3064 3037 3037 3037 3037 3037 3064 3037 3037 3037 3037 3037 3037 3064 3064 3064 3064 3064 3064 3037 3037 3037 3037 3037 0 0 0 0 0 0 0 0 0 0 0 0 0 0 0 0 0 0 0 0 0 0 0 0 0 0 0 3994 3994 3994 3994 3994 3994 4041 4041 4041 4041 4041 3994 3994 3994 3994 3994 3994 3948 3948 3948 3948 3948 3994 3994 4041 4041 4089 4139 4139 6146 6146 6146 6146 6146 6146 6146 6146 6146 6146 6038 5933 5933 5933 5933 5933 5933 5933 5933 5933 5933 6038 6038 6038 6038 6038 6038 6038 6038 6038 6038 6038 6038 6038 6038 6146 6146 6146 6146 6038 6038 6146 6259 6259 6259 6259 6259 6259 6259 6375 6375 6375 6375 6375 6375 6259 6259 0 0 0 0 0 0 0 0 0 0 0 0 0
0 0 0 0 0 0 0 0 0 0 0 0 0 0 0 0 0 0 0 0 0 0 0 0 0 0 0 0 0 0 4911 4911 4911 4983 4983 4983 4983 4911 4911 4911 4911 4911 4842 4842 4842 9593 9593 9870 9870 5210 5210 5291 5291 5291 5291 5291 9870 9593 9593 9331 9331 9331 9084 9084 9331 9331 9331 9331 9593 9870 9870 9870 9870 9870 9870 9593 9084 9084 9084 9084 9084 9084 8849 8849 8849 9084 9084 9084 9084 8849 8849 8849 8626 8626 8626 8212 8212 8212 8413 8626 8626 8626 8626 8626 8626 8626 8413 8413 8413 8413 8626 8626 8626 8626 8626 8626 8626 8413 8413 8413 8413 8413 8212 8212 8212 8212 8212 8019 8019 8212 8212 8212 8413 8413 8212 8212 8212 8212 8212 8212 8212 8212 8212 8212 8212 8212 8212 8212 8413 8413 8413 8413 8413 8212 8212 8019 8019 8019 8019 8019 8212 8413 8413 8626 8626 8626 8413 8413 8413 8413 8413 8212 8212 8212 8212 8413 8413 8413 8413 8413 8413 8413 8413 8413 8413 8413 8413 8413 8413 8413 8413 8413 8413 8626 8626 8626 8626 8626 8626 8626 8626 8626 8626 8626 8626 8626 8413 8413 8413 8413 8413 8413 8413 8413 8413 8413 8413 8626 8626 8626 8626 8626 8626 8626 8626 8626 8626 8626 8626 8626 8626 8626 8626 8626 8626 8626 8626 8626 8626 8626 8849 8849 8849 8849 8849 8849 8849 8626 8626 8626 8626 8626 8626 8413 8413 8626 8849 8849 8849 9084 9084 9084 9084 9084 5374 5374 5374 5374 5374 5374 5374 5374 5374 5374 5374 5374 5460 5374 5374 5374 5374 5374 5460 0 0 0 0 0 0 0 0 0 0 0 0 0 8212 8212 8413 8413 8413 8413 8413 8413 8413 8413 8413 8413 8626 8626 8626 8626 8626 8626 8413 8413 8413 8413 8413 8413 8626 8626 8413 8413 8413 8413 8413 8212 8212 8212 8212 8212 8413 8413 8626 8626 8626 8212 8212 8212 8212 8212 8212 8212 8212 8212 8212 8212 8212 8212 8212 8212 8212 8212 8019 8019 8019 8019 8019 8019 8019 8019 8019 8019 8212 8212 8212 8212 8019 8019 8212 8019 8019 8019 8019 8019 8019 8019 8019 8019 8019 8019 8019 8212 8212 8212 8019 8019 8019 8019 8019 8019 8019 7835 7835 8019 7835 7835 7835 7835 7835 7835 7835 7835 7835 8019 7835 7835 7835 7835 7332 7332 7332 3300 3269 3269 3269 3269 3269 3269 3269 3238 3238 3238 3238 3238 3238 3238 3208 3208 3208 3208 3208 3208 3178 3178 3178 3178 3208 3208 3178 3178 3178 3178 3178 3178 3178 3178 3149 3120 3120 3120 3120 3120 3120 3149 3149 3178 3149 3149 3149 3149 3149 3149 3149 3120 3120 3120 3120 3120 3092 3092 3092 3092 3092 3092 3064 3064 3064 3092 3092 3064 3064 3064 3064 3064 3064 3037 3037 3037 3064 3037 3037 3037 3064 3064 3064 3037 3037 3064 3064 3064 3064 3037 3037 3037 3037 3064 3037 3037 3037 3037 3037 3037 0 0 0 0 0 0 0 0 0 0 0 0 0 0 0 0 0 0 0 0 0 0 0 0 0 0 4041 3994 3994 3994 3994 3994 3994 4041 4041 4041 4041 4041 4041 3994 3994 3994 3994 3994 3948 3948 3948 3948 3948 3994 3994 4041 4041 4089 4139 4139 6038 6038 6038 6146 6146 6146 6146 6146 6146 6146 6038 5933 5933 5933 5933 5933 5933 5933 5933 5933 5933 6038 6038 6038 6038 6038 6038 6038 6038 6038 6038 6038 6146 6038 6038 6038 6146 6146 6146 6146 6259 6259 6259 6259 6259 6259 6259 6259 6259 6259 6259 6259 6259 6259 6259 6259 6259 0 0 0 0 0 0 0 0 0 0 0 0 0
0 0 0 0 0 0 0 0 0 0 0 0 0 0 0 0 0 0 0 0 0 0 0 0 0 0 0 0 0 0 4911 4911 4911 4911 4911 4983 4983 4911 4911 4911 4911 4911 4842 4842 4842 9593 9593 9593 5210 5210 5210 5291 5210 5210 5210 5210 5210 9593 9593 9331 9331 9331 9084 9084 9331 9331 9331 9593 9593 9870 9870 0 0 0 9870 9870 9331 8849 8849 8849 8849 8849 8849 8849 8849 9084 9331 9084 9084 9084 9084 8849 8626 8626 8626 8212 8212 8212 8413 8626 8626 8626 8626 8626 8626 8626 8413 8413 8413 8413 8626 8626 8413 8413 8626 8626 8626 8413 8413 8413 8413 8212 8019 8019 8212 8019 8019 8212 8212 8212 8212 8212 8413 8212 8212 8212 8212 8212 8212 8212 8212 8212 8212 8212 8212 8212 8212 8212 8413 8413 8413 8413 8212 8212 8212 8019 8019 8019 8019 8019 8413 8626 8626 8626 8626 8626 8413 8413 8212 8019 8019 8019 8019 8019 8019 8212 8212 8212 8212 8212 8413 8413 8413 8413 8413 8413 8413 8413 8212 8212 8413 8413 8413 8413 8626 8626 8626 8626 8626 8626 8626 8626 8626 8626 8626 8626 8413 8413 8413 8413 8413 8413 8413 8413 8413 8413 8413 8413 8413 8413 8413 8626 8626 8626 8626 8626 8626 8626 8626 8626 8626 8626 8626 8626 8626 8626 8626 8626 8626 8849 8849 8849 8849 8849 8849 8849 8849 8849 8849 8849 8626 8626 8626 8413 8413 8626 8849 8849 9084 9084 9084 9084 9084 5374 5374 5374 5374 5374 5374 5374 5374 5374 5374 5374 5374 5374 5460 5374 5374 5374 5374 5374 5460 0 0 0 0 0 0 0 0 0 0 0 0 0 8413 8413 8413 8413 8413 8413 8413 8413 8626 8413 8413 8413 8626 8626 8626 8626 8626 8626 8626 8626 8413 8413 8413 8413 8626 8626 8413 8413 8413 8413 8212 8212 8212 8212 8212 8212 8413 8413 8413 8626 8626 8212 8212 8212 8212 8212 8212 8212 8212 8212 8212 8212 8212 8212 8212 8212 8212 8212 8212 8019 8019 8019 8019 8019 8019 8019 8019 8019 8212 8019 8019 8019 8019 8019 8019 8019 8019 8019 8019 8019 8019 8019 8019 8019 8019 8019 8019 8212 8212 8212 8019 8019 8019 8019 8019 8019 8019 7835 7835 8019 7835 7835 7835 7835 7835 7835 7835 7835 7835 8019 7835 7835 7835 7835 7835 7835 3300 3300 3300 3300 3300 3300 3269 3269 3269 3238 3238 3238 3238 3238 3238 3208 3208 3208 3208 3208 3208 3208 3178 3178 3178 3178 3208 3208 3178 3178 3178 3178 3178 3178 3178 3178 3149 3120 3120 3120 3120 3120 3149 3149 3149 3178 3178 3178 3149 3149 3149 3149 3149 3149 3120 3120 3120 3120 3120 3092 3092 3092 3092 3092 3092 3064 3064 3092 3092 3064 3064 3064 3064 3064 3064 3064 3037 3037 3064 3064 3037 3037 3064 3064 3064 3037 3037 3037 3037 3064 3064 3037 3037 3037 3037 3064 3037 3037 3037 3037 3037 3064 0 0 0 0 0 0 0 0 0 0 0 0 0 0 0 0 0 2984 2984 0 0 0 0 0 0 0 4041 3994 3994 3994 3994 4041 4041 4041 4041 4041 4041 4041 4041 3994 3994 3994 3994 3994 3948 3948 3948 3948 3948 3994 3994 4041 4089 4139 4139 4139 6259 6038 6038 6146 6146 6146 6146 6146 6146 6146 6038 5933 5933 5933 5933 5933 5933 5933 5933 5933 5933 6038 6038 6038 6038 6038 6038 6038 6038 6038 6038 6038 6038 6038 6038 6038 6038 6038 6146 6146 6146 6146 6146 6146 6146 6146 6259 6259 6259 6259 6259 6259 6259 6259 6259 6259 6375 0 0 0 0 0 0 0 0 0 0 0 0 0
0 0 0 0 0 0 0 0 0 0 0 0 0 0 0 0 0 0 0 0 0 0 0 0 0 0 0 0 0 0 4842 4842 4842 4842 4911 4911 4911 4911 4911 4911 4911 4911 4911 4911 4911 5132 5132 5132 5132 5132 5210 5210 5210 5210 5210 5210 5210 5210 5210 9593 9331 9331 9331 9331 9331 9331 9331 9593 9593 9870 9870 0 9870 9870 9870 9593 9084 8849 8849 8849 8849 8849 8849 8849 8849 9084 9084 9084 9084 9084 9084 8849 8626 8626 8626 8212 8212 8212 8413 8413 8413 8626 8626 8413 8413 8626 8413 8019 8019 8413 8626 8626 8413 8413 8626 8626 8626 8413 8413 8413 8413 8212 8019 8019 8212 8019 8019 8212 8212 8212 8212 8212 8212 8212 8212 8212 8212 8212 8212 8212 8413 8413 8413 8413 8212 8212 8212 8212 8413 8413 8413 8413 8212 8212 8212 8212 8019 8019 8019 8019 8413 8413 8626 8626 8626 8626 8413 8413 8212 8019 8019 8019 8019 8019 8019 8212 8019 8019 8212 8212 8212 8212 8212 8212 8212 8212 8212 8212 8212 8212 8212 8212 8413 8413 8413 8413 8626 8626 8626 8626 8626 8626 8626 8626 8626 8413 8413 8413 8413 8413 8413 8413 8413 8413 8413 8413 8413 8413 8413 8413 8413 8413 8413 8413 8626 8626 8626 8413 8413 8626 8413 8413 8413 8413 8626 8626 8626 8626 8626 8849 8849 8849 8849 9084 8849 8849 8849 8849 8626 8626 8626 8413 8413 8413 8413 8626 8849 9084 9084 9084 9084 9331 9331 5374 5374 5374 5374 5374 5374 5374 5374 5374 5460 5460 5460 5460 5460 5374 5374 5374 5374 5460 5374 5374 0 0 0 0 0 0 0 0 0 0 0 8413 8413 8413 8413 8626 8413 8413 8413 8626 8626 8413 8413 8413 8626 8626 8626 8626 8626 8626 8626 8626 8413 8413 8413 8413 8626 8626 8413 8413 8413 8413 8212 8212 8212 8212 8212 8212 8413 8413 8413 8626 8626 8626 8212 8212 8212 8212 8212 8212 8212 8212 8212 8212 8212 8212 8212 8212 8212 8212 8212 8212 8212 8212 8212 8212 8212 8019 8019 8019 8212 8019 8019 8019 8019 8019 8019 8019 8019 8019 8019 8019 8019 8019 8019 8019 8019 8212 8212 8212 8212 8019 8019 8019 8019 8019 8019 8019 8019 7835 7835 8019 7835 7835 7835 7835 7835 7835 7835 7835 7835 8019 8019 8019 7835 7835 7835 7835 3300 3300 3269 3269 3269 3269 3269 3269 3269 3238 3238 3238 3238 3238 3238 3208 3208 3208 3208 3208 3208 3208 3208 3178 3178 3208 3208 3208 3178 3178 3178 3178 3178 3178 3178 3178 3149 3120 3120 3120 3120 3120 3149 3149 3149 3149 3149 3149 3149 3149 3149 3149 3149 3149 3120 3120 3120 3120 3120 3120 3120 3120 3092 3092 3092 3092 3092 3092 3092 3064 3064 3064 3064 3064 3064 3064 3064 3064 3064 3064 3037 3037 3064 3064 3064 3037 3037 3037 3037 3064 3064 3037 3037 3037 3037 3064 3064 3037 3037 3037 3037 3064 0 3037 3037 3037 3037 0 0 3037 3037 0 0 0 0 0 0 3037 3010 2984 2984 2984 3010 3010 3037 3037 3064 3064 4041 4041 4041 4041 4041 4041 4041 4041 4041 4041 4041 4041 4041 3994 3994 3994 3994 3994 3994 3948 3948 3994 3994 3994 4041 4041 4089 4089 4190 6375 6259 6038 6038 6146 6146 6146 6146 6146 6146 6146 6038 5933 5933 5933 5933 5933 5933 5933 5933 5933 5933 6038 6038 6038 6038 6038 6038 6038 6038 6038 6038 6038 6038 6038 6038 6038 6038 6038 6146 6146 6146 6146 6146 6146 6146 6146 6146 6146 6259 6259 6259 6259 6146 6146 6146 6259 6259 0 0 0 0 0 0 0 0 0 0 0 0 0
0 0 0 0 0 0 0 0 0 0 0 0 0 0 0 0 0 0 0 0 0 0 0 0 0 0 0 0 0 0 4774 4774 4842 4842 4842 4911 4842 4842 4911 4911 4911 4983 4911 4911 4911 4983 5056 5056 5056 5132 5132 5132 5132 5132 5210 5210 5210 5210 5210 9593 9331 9331 9331 9331 9331 9593 9593 9331 9331 9593 9870 9870 9870 9870 9870 9593 9084 8849 8849 8849 8849 8626 8626 8626 8849 8849 9084 8849 8849 9084 9084 8849 8626 8626 8626 8626 8019 8019 8413 8413 8413 8413 8626 8413 8413 8626 8019 8019 8019 8212 8212 8626 8626 8626 8626 8626 8626 8626 8626 8626 8413 8413 8212 8212 8212 8212 8212 8212 8212 8212 8212 8212 8212 8212 8212 8212 8212 8212 8019 8019 8413 8413 8413 8413 8212 8212 8212 8212 8413 8413 8413 8212 8212 8212 8212 8212 8019 8019 8019 8212 8413 8413 8626 8626 8626 8626 8413 8212 8212 8019 8019 8019 8019 8019 8019 8019 8019 8019 8019 8019 8212 8212 8212 8212 8212 8212 8212 8212 8212 8212 8212 8212 8413 8413 8413 8413 8413 8413 8626 8626 8626 8626 8626 8626 8413 8413 8413 8212 8212 8212 8212 8212 8212 8413 8413 8413 8413 8413 8413 8413 8413 8413 8413 8413 8626 8626 8626 8413 8413 8413 8413 8413 8413 8413 8626 8626 8626 8626 8626 8626 8849 8849 8849 9084 8849 8849 8849 8849 8626 8626 8413 8413 8413 8413 8413 8626 8849 9084 9084 9084 9084 9331 9331 5460 5460 5460 5374 5374 5374 5374 5374 5460 5460 5374 5374 5374 5374 5374 5374 5374 5374 5460 5374 5374 0 0 0 0 0 0 0 0 0 0 0 8413 8212 8212 8413 8413 8413 8413 8413 8413 8626 8626 8626 8626 8626 8626 8626 8626 8626 8626 8626 8626 8626 8626 8626 8626 8626 8626 8413 8413 8413 8413 8212 8212 8212 8212 8212 8212 8413 8413 8626 8626 8626 8413 8212 8212 8212 8212 8212 8212 8212 8212 8212 8212 8212 8212 8212 8212 8212 8212 8212 8212 8212 8212 8212 8212 8212 8019 8019 8212 8212 8019 8019 8019 8019 8019 8019 8019 8019 8019 8019 8019 8019 8019 8019 8019 8019 8212 8212 8212 8019 8019 8019 8019 8019 8019 8019 8019 8019 8019 8019 8019 8019 7835 7835 8019 7835 7835 7835 7835 7835 8019 8019 8019 7835 7835 7835 7835 3300 3269 3269 3269 3269 3269 3269 3269 3269 3238 3238 3238 3238 3238 3238 3208 3208 3208 3208 3208 3208 3208 3208 3208 3208 3208 3208 3208 3178 3178 3178 3178 3178 3178 3178 3178 3149 3120 3120 3120 3120 3149 3149 3149 3149 3149 3149 3149 3149 3149 3149 3149 3149 3149 3120 3120 3120 3120 3120 3120 3092 3092 3092 3092 3092 3092 3092 3092 3092 3064 3064 3064 3064 3064 3064 3064 3064 3064 3064 3064 3064 3064 3064 3064 3064 3037 3037 3064 3064 3064 3037 3037 3037 3037 3037 3064 3037 3037 3037 3037 3037 3064 3064 3037 3037 3037 3037 3010 3010 3037 3037 3037 3037 3037 3037 3037 3037 3010 2984 2984 2984 2984 3010 3010 3037 3037 3064 3037 3037 3994 3994 3994 3994 4041 4041 4041 4041 4041 4041 4041 4041 3994 3994 3994 3994 3994 3994 3994 3994 3994 3994 3994 4041 4041 4089 4089 4139 6375 6259 6038 6038 6146 6146 6146 6146 6146 6146 6146 6038 5933 5933 5933 5933 5933 5933 5933 5933 5933 5933 6038 6038 6038 6038 6038 6038 6038 6038 6038 6038 6038 6038 6038 6038 6038 6038 6146 6146 6146 6146 6146 6146 6146 6146 6259 6146 6146 6259 6259 6259 6259 6146 6146 6146 6146 6259 0 0 0 0 0 0 0 0 0 0 0 0 0
0 0 0 0 0 0 0 0 0 0 0 0 0 0 0 0 0 0 0 0 0 0 0 0 0 0 0 0 0 0 4774 4774 4842 4842 4842 4911 4842 4842 4911 4911 4911 4983 4911 4911 4911 4983 5056 5056 5056 5132 5132 5132 5132 5132 5132 5132 5210 5210 5210 5210 9331 9331 9084 9084 9084 9870 9870 9084 9084 9331 9870 9870 9870 9593 9593 9084 8849 8626 8626 8626 8626 8626 8626 8626 8626 8849 8849 8849 8849 8849 9084 8849 8849 8849 8626 8413 8019 8019 8413 8413 8413 8413 8413 8413 8413 8413 8019 8019 8019 8212 8212 8626 8626 8626 8626 8849 8626 8626 8626 8626 8413 8413 8212 8212 8212 8212 8212 8212 8212 8212 8212 8212 8212 8212 8212 8212 8212 8212 8019 8019 8413 8413 8413 8413 8212 8212 8212 8212 8413 8413 8413 8212 8212 8019 8019 8212 8212 8212 8212 8212 8413 8626 8626 8626 8626 8626 8413 8212 8212 8019 8019 7835 7835 7835 7835 8019 7835 7835 8019 8019 8212 8212 8212 8212 8212 8019 8019 8212 8019 8019 8212 8212 8212 8413 8413 8413 8413 8413 8626 8626 8626 8626 8626 8626 8413 8413 8413 8212 8212 8212 8212 8212 8212 8413 8413 8413 8413 8212 8212 8212 8212 8413 8413 8413 5640 5640 5640 5640 5548 5548 5548 5548 5460 5460 5548 5640 5734 5734 5640 5640 5640 5640 5640 5640 5548 5548 5640 8849 8849 8849 8413 8413 8413 8413 6038 9084 9084 9084 9084 9084 9084 9331 9331 5460 5460 5460 5460 5460 5460 5460 5460 5460 5460 5374 5374 5374 5374 5374 5374 5374 5374 5460 5460 5460 0 0 0 0 0 0 0 0 0 0 0 0 8212 8212 8413 8413 8413 8413 8413 8413 8626 8626 8413 8413 8626 8626 8626 8626 8626 8626 8626 8626 8626 8626 8626 8626 8626 8626 8413 8413 8413 8413 8212 8212 8212 8212 8212 8212 8413 8413 8626 8626 8626 8413 8212 8212 8212 8212 8212 8212 8212 8212 8212 8212 8212 8212 8212 8212 8212 8212 8212 8212 8212 8212 8212 8212 8212 8212 8212 8212 8212 8019 8019 8019 8019 8019 8019 8019 8019 8019 8019 8019 8019 8019 8019 8019 8019 8019 8019 8019 8019 8019 8019 8019 8019 8019 8019 8019 8019 8019 8019 8019 8019 8019 8019 8019 7835 7835 7835 7835 7835 7835 7835 7835 7660 7660 7660 3300 3300 3269 3269 3269 3269 3269 3269 3238 3238 3238 3238 3238 3238 3238 3238 3208 3208 3208 3208 3208 3208 3208 3208 3208 3208 3208 3208 3178 3178 3178 3178 3178 3178 3178 3149 3149 3149 3149 3120 3120 3149 3149 3149 3149 3149 3149 3149 3149 3149 3149 3149 3149 3149 3149 3120 3120 3120 3120 3120 3120 3092 3092 3092 3092 3092 3092 3092 3092 3092 3092 3092 3092 3092 3064 3064 3064 3064 3064 3064 3064 3064 3064 3064 3064 3064 3037 3037 3037 3037 3064 3037 3037 3037 3037 3037 3064 3037 3037 3037 3064 3064 3064 3064 3010 3010 3037 3037 3010 3010 3037 3037 3037 3037 3037 3037 3010 3010 3010 2984 2984 2984 2984 3010 3010 3037 3037 3064 3037 3037 3994 3994 3994 3994 4041 4041 4041 4041 4041 4041 4041 4041 3994 3994 3994 3994 3994 3994 3994 3994 3994 3994 3994 4041 4041 4089 4089 4139 4190 6259 6038 6038 6146 6146 6146 6146 6146 6146 6146 6038 5933 5933 5933 5933 5933 5933 5933 5933 5933 5933 5933 5933 6038 5933 5933 5933 6038 6038 6038 6038 6038 6038 6038 6038 6038 6038 6146 6146 6146 6146 6146 6146 6146 6146 6259 6259 6259 6259 6259 6259 6259 6146 6146 6146 6146 6259 0 0 0 0 0 0 0 0 0 0 0 0 0
0 0 0 0 0 0 0 0 0 0 0 0 0 0 0 0 0 0 0 0 0 0 0 0 0 0 0 0 0 0 4774 4774 4842 4842 4842 4842 4911 4911 4911 4911 4911 4983 4983 4983 4983 5056 5056 5056 5056 5132 5132 5132 5132 5132 5132 5132 5210 5210 5210 5210 5460 5548 9084 9084 9084 9084 9084 9084 9084 9331 9870 9870 9870 9593 9593 9084 8849 8626 8626 8626 8626 8626 8626 8626 8626 8849 8849 8849 8849 8849 9084 8849 8849 8849 8626 8413 8413 8413 8413 8413 8413 8413 8413 8413 8413 8413 8212 8212 8212 8212 8212 8626 8626 8626 8849 8849 8849 8626 8626 8626 8413 8413 8413 8413 8413 8212 8212 8212 8212 8212 8212 8212 8212 8212 8212 8212 8019 8019 8019 8019 8413 8413 8413 8413 8413 8413 8413 8413 8413 8413 8413 8212 8019 8019 8019 8019 8019 8212 8212 8212 8413 8626 8626 8626 8626 8626 8413 8212 8212 8019 8019 7835 7835 7835 7835 8019 7835 7835 8019 8019 8019 8019 8019 8019 8019 8019 8019 8019 8019 8019 8212 8212 8212 8413 8413 8413 8413 8413 8626 8626 8626 8626 8626 8626 8626 8413 8413 8413 8212 8212 8212 8212 8212 8413 8413 8212 8212 8212 8212 8212 8212 8413 8413 5734 5640 5640 5640 5640 5548 5548 5548 5640 5460 5460 5548 5640 5734 5734 5640 5640 5640 5640 5640 5640 5548 5548 5640 5832 5832 5933 5933 5933 5933 6038 6038 0 9084 9084 9084 9084 9084 9084 9084 5460 5460 5460 5460 5460 5460 5460 5460 5460 5460 5374 5374 5374 5374 5374 5291 5291 5374 5460 5460 5460 5460 0 0 0 0 0 0 0 0 0 0 0 0 8413 8413 8626 8413 8413 8413 8626 8626 8626 8413 8413 8413 8413 8413 8413 8626 8626 8626 8626 8413 8413 8413 8413 8626 8626 8413 8413 8413 8212 8212 8019 8019 8212 8212 8212 8413 8413 8626 8626 8849 8849 8212 8212 8212 8212 8212 8212 8212 8212 8212 8212 8212 8212 8212 8212 8212 8212 8212 8212 8212 8212 8212 8212 8212 8212 8212 8212 8212 8019 8019 8019 8019 8019 8019 8019 8019 8019 8019 8019 8019 8019 8019 8212 8212 8212 8019 8019 8019 8019 8019 8019 8019 8019 8019 8019 8019 8019 8019 8019 8019 8019 8019 8019 7835 7835 7835 7835 7835 7835 7835 7835 7660 7660 7660 3300 3300 3269 3269 3269 3269 3269 3269 3238 3238 3238 3238 3238 3238 3238 3238 3238 3208 3208 3208 3208 3208 3208 3208 3208 3178 3178 3208 3178 3178 3178 3178 3178 3178 3149 3149 3149 3149 3149 3149 3149 3149 3149 3149 3149 3178 3149 3149 3149 3149 3149 3149 3149 3149 3149 3149 3120 3120 3092 3092 3092 3092 3092 3092 3092 3092 3092 3092 3092 3092 3092 3092 3092 3064 3064 3064 3064 3064 3064 3064 3064 3064 3064 3064 3064 3064 3037 3037 3037 3037 3064 3037 3010 3010 3010 3010 3037 3037 3037 3064 3064 3064 3037 3037 3010 3010 3037 3037 3010 3010 3037 3037 3037 3037 3037 3037 3010 2984 2984 2984 2984 2984 3010 3010 3010 3037 3037 3064 3064 4041 3994 3994 3994 3994 4041 4041 4041 4041 4041 4041 4041 4041 3994 3994 3994 3994 3994 3994 3994 3994 3994 3994 4041 4041 4041 4089 4089 4139 4190 6259 6038 6038 6146 6146 6146 6146 6146 6146 6146 5933 5933 5933 5933 5933 5933 5933 5933 5933 5933 5933 5933 5933 6038 5933 5933 5933 5933 5933 5933 6038 6038 6038 5933 5933 6038 6038 6038 6038 6146 6146 6146 6146 6146 6146 6259 6259 6146 6146 6146 6146 6146 6038 6038 6038 6146 6146 0 0 0 0 0 0 0 0 0 0 0 0 0
0 0 0 0 0 0 0 0 0 0 0 0 0 0 0 0 0 0 0 0 0 0 0 0 0 0 0 0 0 0 4774 4774 4842 4842 4842 4842 4911 4911 4911 4911 4911 4983 4983 4983 4983 4983 5056 5056 5056 5132 5132 5132 5132 5132 5132 5132 5210 5210 5210 5210 5460 5460 5548 9084 9084 9084 9084 9084 9084 9331 9593 9593 9593 9331 9084 8849 8849 8626 8626 8626 8626 8626 8626 8626 8626 8849 8849 8849 8849 8849 9084 8849 8849 8849 8626 8626 8413 8413 8413 8413 8413 8413 8413 8413 8413 8626 8212 8212 8212 8212 8212 8212 8626 8626 8849 8849 8849 8849 8626 8626 8626 8413 8413 8413 8212 8212 8212 8212 8212 8212 8212 8413 8413 8212 8212 8212 8019 8019 8019 8019 8019 8413 8413 8413 8413 8413 8413 8413 8413 8413 8413 8212 8019 8019 8019 8019 8019 8212 8212 8413 8413 8626 8626 8626 8626 8413 8413 8413 8212 8019 7835 7835 7835 7835 7835 8019 7835 7835 7835 8019 8019 8019 8019 8019 8019 8019 8019 8019 8019 8019 8212 8212 8212 8413 8413 8413 8413 8413 8413 8626 8626 8626 8626 8626 8413 8413 8413 8413 8212 8212 8212 8212 8212 8212 8212 8019 8019 8019 8019 8019 8019 8212 8212 5734 5640 5640 5640 5640 5640 5640 5640 5640 5640 5640 5734 5734 5734 5832 5734 5734 5640 5640 5640 5640 5640 5640 5640 5832 5832 5933 5933 5933 5933 5933 5933 5933 9084 0 9084 9084 9084 9084 9084 5460 5460 5460 5460 5460 5460 5460 5460 5460 5374 5374 5374 5374 5374 5291 5291 5291 5374 5460 5460 5460 5460 0 0 0 0 0 0 0 0 0 0 0 0 8413 8413 8626 8626 8626 8626 8626 8626 8413 8413 8413 8413 8413 8413 8413 8413 8413 8413 8413 8413 8413 8413 8413 8626 8413 8413 8413 8413 8212 8019 8019 8019 8019 8212 8413 8413 8413 8626 8626 5210 5210 8212 8212 8212 8212 8212 8212 8212 8212 8212 8212 8212 8212 8413 8413 8413 8212 8212 8212 8212 8212 8212 8212 8212 8212 8212 8212 8212 8019 8019 8019 5734 5734 8019 8019 8019 8019 5640 5640 5640 5832 5933 6038 6038 6146 6259 8019 8019 8019 8019 8019 8019 8019 8019 8019 8019 8019 8019 8019 8019 8019 8019 8019 7835 7835 7835 7835 7835 7835 7835 8019 8019 8019 3300 3300 3269 3269 3269 3269 3269 3238 3238 3238 3238 3238 3238 3238 3238 3238 3238 3208 3208 3208 3208 3208 3208 3208 3208 3208 3178 3178 3208 3178 3178 3178 3178 3178 3178 3149 3149 3149 3178 3178 3149 3149 3149 3149 3149 3149 3149 3149 3149 3178 3178 3149 3149 3149 3149 3149 3149 3120 3120 3092 3092 3092 3092 3092 3092 3092 3092 3092 3092 3092 3092 3064 3064 3064 3064 3064 3064 3064 3064 3064 3064 3064 3064 3064 3064 3064 3064 3037 3037 3064 3064 3064 3064 3010 3010 3010 3010 3037 3037 3037 3064 3064 3064 3037 3037 3037 3037 3037 3037 3010 3010 3037 3037 3037 3037 3037 3037 2984 2984 2984 2958 2958 2984 2984 2984 3010 3037 3037 3037 3064 3064 4041 3994 3994 3994 4041 4041 3994 3994 3994 3994 3994 3994 3994 3994 3994 3994 3994 3994 3994 3994 3994 3994 4041 4041 4041 4041 4041 4139 4241 5933 5832 5832 6038 6038 6038 6038 6038 6038 6038 5933 5933 5832 5832 5832 5832 5933 5933 5933 5933 5933 5933 5933 5933 5933 5933 5933 5933 5933 5933 5933 5933 5933 5933 5933 5933 6038 6038 6038 6146 6146 6146 6146 6146 6146 6259 6146 6146 6146 6038 6038 6146 6038 6038 6038 6146 6146 0 0 0 0 0 0 0 0 0 0 0 0 0
