0 0 0 0 0 0 0 0 0 0 0 0 0 0 0 0 0 0 0 0 0 0 0 0 0 0 0 0 0 0 0 0 3149 3149 3149 3120 3120 3120 3120 3092 3092 3120 3120 3120 3120 3120 3178 3178 3178 3178 3178 3178 3208 3208 3208 3208 3208 3208 3178 3178 3178 3178 3178 3178 3178 3178 3208 3208 3208 3208 3178 3178 3178 3178 3178 3208 3178 3178 3208 3208 3208 3208 3208 3208 3208 3178 3178 3208 3208 3208 3208 3208 3238 3238 3238 3238 3269 3269 3238 3238 3238 3238 3238 3238 3238 3238 3269 3269 3269 3269 3269 3269 3269 3269 3269 3269 3269 3300 3300 3300 3269 1647 1647 1647 1647 1655 1655 1655 1655 1655 1655 1655 1655 1655 1655 1655 1655 1655 1655 1647 1647 1647 1647 1647 1639 1639 1639 1639 1639 1632 1624 1624 1624 1624 1616 1616 1616 1616 1616 1616 1616 1616 1616 1609 1609 1609 1609 1609 1601 1601 1601 1594 1594 3468 3433 3433 3433 3433 3468 3468 3468 3468 3468 3468 3468 3468 3468 3468 3468 3468 3468 3503 3503 3503 0 0 1529 1529 1529 1529 1529 1529 1529 1529 1529 1529 1529 1529 1529 1529 1529 1529 1536 1536 1543 1550 1550 1564 1564 1647 1647 1647 2116 2116 2116 2129 2129 2143 2143 2156 2156 2156 2156 2156 1609 1609 1601 1601 1601 1392 1392 1392 1392 1392 1392 1387 1381 1381 1381 1381 1381 1381 1387 1387 1387 1381 1381 1376 1376 1376 1376 1376 1370 1370 1370 1370 1365 1359 1359 1354 1354 1354 1354 1349 1349 1349 1343 1343 1338 1338 1333 1333 1333 1333 1333 1333 1328 1328 1328 1328 1328 1322 1322 1322 1317 1317 1312 1312 1312 1312 1312 1307 1307 1307 1307 1307 1307 1307 1307 1302 1297 1297 1297 1297 1292 1292 1292 1292 1292 1292 1292 1292 1292 1292 1292 1288 1288 1288 1288 1288 1283 1283 1278 1278 1273 1273 1278 1278 1278 1278 1278 1278 1273 1268 1264 1259 1255 1250 1250 1250 1250 1245 1245 1245 1245 1245 1245 1245 1245 1250 1250 1255 1255 1264 1433 1421 1421 1421 1421 1421 1421 1415 1415 1415 1415 1415 1410 1410 1410 1410 1410 1410 1410 1404 1404 1398 1398 1398 1398 1392 1392 1392 1392 1387 1387 1387 1387 1387 1387 1387 1387 1381 1381 1381 1381 1381 1381 1376 1370 1370 1370 1370 1370 1370 1370 1370 1370 1365 1365 1365 1365 1365 1365 1365 1365 1365 1365 1365 1365 1359 1359 1359 1365 1365 1365 1365 1365 1370 1370 1370 1365 1365 1365 1365 1359 1349 1349 1349 1349 1349 1343 1343 1343 1343 1343 1343 1343 1343 1343 1343 1343 1349 1354 1354 1354 1359 1359 1359 1359 1359 1354 1354 1359 1359 1359 1359 1365 1365 1370 1370 1370 1376 1376 1376 1381 1381 1381 1381 1381 1381 1381 1381 1381 1381 1381 1381 1387 1387 1392 1398 1404 1404 1404 1926 1915 1915 1926 1926 1926 1926 1915 1915 0 0 0 3692 3692 3692 3692 3732 3774 3816 3859 3816 3816 3816 3816 3774 3774 3774 3774 3774 3774 3816 3816 3816 3816 3859 3859 3859 3859 3859 3859 3859 3859 3859 3859 3859 3859 3859 3859 3859 3859 3859 3859 3859 3816 3816 3774 3774 3732 3732 3774 3774 3774 3774 3774 3774 3816 3816 3816 3859 3859 3859 3859 3859 3859 3859 3859 3859 3859 3903 3859 3859 3903 3903 3903 3859 3859 3816 3816 3774 3774 3774 3774 3774 3816 3816 3816 3859 3859 3859 3859 3859 3859 3859 3859 3816 3816 3816 3816 3774 3774 3774 3774 3774 3774 3774 3816 3816 3816 3816 3816 3774 3774 3774 3774 0 0 0 0 0 0 0 0 0 0 0 0 0
0 0 0 0 0 0 0 0 0 0 0 0 0 0 0 0 0 0 0 0 0 0 0 0 0 0 0 0 0 0 0 0 3120 3120 3120 3120 3120 3120 3092 3092 3092 3092 3092 3120 3120 3120 3149 3149 3149 3178 3178 3178 3178 3208 3208 3178 3178 3178 3178 3178 3178 3149 3149 3178 3178 3178 3178 3208 3178 3178 3178 3178 3178 3178 3178 3178 3178 3178 3178 3178 3178 3208 3208 3208 3208 3178 3178 3178 3208 3178 3178 3208 3208 3208 3208 3208 3238 3238 3238 3238 3208 3208 3238 3238 3208 3208 3238 3238 3238 3238 3208 3208 3238 3238 3238 3238 3238 3269 3269 3269 0 1647 1647 1647 1655 1655 1655 1655 1655 1655 1655 1655 1655 1655 1655 1655 1655 1655 1655 1647 1647 1647 1647 1647 1647 1639 1639 1639 1639 1632 1624 1624 1624 1624 1624 1624 1616 1616 1616 1616 1616 1616 1616 1609 1609 1609 1609 1609 1601 1601 1601 1594 1586 1586 3433 3433 3433 3433 3433 3433 3433 3433 3433 3433 3433 3433 3433 3433 3433 3468 3468 3468 3468 3468 0 0 1536 1536 1529 1529 1529 1529 1529 1529 1529 1529 1529 1529 1529 1529 1529 1529 1536 1536 1543 1550 1550 1564 1572 1572 1579 2129 2129 2116 2116 2129 2143 2143 2143 2156 2156 2156 2156 2156 2156 2156 2170 2170 1398 1398 1398 1398 1398 1398 1398 1387 1387 1387 1387 1387 1387 1387 1387 1387 1392 1387 1387 1381 1376 1376 1376 1376 1370 1370 1370 1370 1365 1365 1359 1359 1354 1354 1354 1349 1349 1349 1349 1349 1343 1343 1338 1338 1338 1338 1333 1333 1333 1333 1328 1328 1328 1328 1322 1322 1322 1317 1312 1312 1312 1312 1312 1312 1307 1307 1307 1307 1307 1307 1307 1307 1302 1302 1297 1297 1297 1297 1297 1292 1292 1292 1292 1292 1292 1292 1292 1292 1288 1288 1288 1288 1283 1283 1278 1278 1273 1273 1278 1278 1278 1278 1278 1278 1273 1273 1268 1264 1255 1250 1250 1250 1250 1245 1245 1245 1245 1245 1245 1245 1245 1250 1255 1259 1259 1264 1439 1433 1433 1427 1421 1421 1421 1421 1415 1415 1415 1415 1415 1415 1415 1415 1415 1410 1410 1410 1410 1404 1404 1404 1398 1392 1392 1392 1392 1392 1387 1387 1387 1387 1387 1387 1387 1387 1387 1381 1381 1381 1381 1376 1370 1370 1370 1370 1370 1370 1370 1370 1370 1365 1365 1365 1365 1365 1365 1365 1359 1359 1359 1359 1359 1359 1359 1359 1359 1359 1359 1359 1359 1359 1359 1359 1359 1359 1354 1354 1349 1349 1343 1343 1343 1343 1343 1343 1343 1343 1343 1343 1343 1338 1338 1338 1338 1343 1343 1349 1349 1349 1354 1354 1354 1349 1349 1349 1354 1354 1354 1354 1359 1365 1365 1365 1365 1370 1370 1370 1370 1370 1370 1370 1376 1376 1370 1370 1370 1376 1376 1381 1381 1381 1387 1387 1398 1398 1404 1926 1926 1926 1926 1926 1926 1926 1915 1915 0 0 0 3653 3653 3653 3692 3732 3774 3816 3816 3816 3774 3774 3774 3774 3732 3732 3732 3774 3774 3774 3816 3816 3816 3816 3816 3816 3816 3816 3816 3816 3816 3816 3816 3816 3816 3816 3816 3816 3859 3859 3859 3816 3816 3774 3774 3732 3732 3732 3732 3732 3732 3732 3732 3774 3774 3774 3774 3774 3816 3816 3816 3816 3816 3816 3816 3816 3816 3816 3816 3816 3816 3774 3774 3816 3816 3774 3774 3774 3732 3732 3732 3732 3774 3774 3774 3816 3816 3816 3816 3816 3816 3816 3774 3774 3732 3732 3732 3732 3732 3732 3732 3774 3774 3774 3774 3774 3774 3774 3774 3774 3774 3774 3774 3816 0 0 0 0 0 0 0 0 0 0 0 0
0 0 0 0 0 0 0 0 0 0 0 0 0 0 0 0 0 0 0 0 0 0 0 0 0 0 0 0 0 0 0 0 3092 3092 3092 3092 3092 3092 3092 3092 3092 3092 3092 3120 3120 3120 3149 3120 3120 3149 3149 3178 3178 3178 3178 3178 3178 3178 3149 3149 3178 3149 3149 3178 3178 3178 3178 3208 3178 3178 3178 3178 3178 3178 3178 3178 3178 3178 3178 3178 3178 3178 3178 3178 3178 3178 3178 3178 3178 3178 3178 3208 3208 3208 3208 3208 3208 3208 3208 3238 3208 3208 3238 3238 3208 3208 3208 3208 3208 3208 3208 3208 3208 3208 3208 3238 3238 3238 3269 3269 3269 1647 1647 1647 1655 1655 1655 1655 1655 1655 1655 1655 1655 1655 1655 1655 1655 1655 1655 1655 1647 1647 1647 1647 1647 1639 1639 1639 1639 1632 1624 1624 1624 1624 1624 1624 1624 1624 1616 1616 1616 1616 1616 1609 1609 1609 1609 1609 1609 1601 1601 1594 1586 1586 1594 1601 1601 3433 3433 3433 3433 3433 3433 3433 3433 3433 3433 3433 3433 3468 3468 3468 3468 3468 1586 1564 1536 1536 1536 1536 1529 1529 1529 1529 1529 1529 1529 1529 1529 1529 1529 1529 1536 1536 1550 1550 1550 1564 1572 1579 1579 2129 2129 2129 2129 2143 2143 2143 2156 2156 2156 2156 2156 2156 2156 2170 2170 2198 0 1398 1398 1398 1398 1398 1398 1387 1387 1387 1387 1387 1387 1387 1387 1392 1392 1387 1387 1381 1381 1376 1376 1376 1370 1370 1370 1370 1370 1365 1359 1359 1359 1354 1354 1349 1349 1349 1349 1349 1349 1343 1343 1338 1338 1338 1338 1333 1333 1333 1333 1328 1328 1328 1328 1322 1322 1322 1322 1317 1317 1312 1312 1312 1307 1307 1307 1312 1307 1307 1307 1307 1302 1302 1302 1297 1297 1297 1297 1297 1297 1292 1292 1292 1292 1292 1292 1292 1288 1288 1288 1288 1283 1283 1278 1278 1278 1278 1278 1278 1278 1278 1278 1278 1278 1273 1268 1264 1255 1255 1250 1250 1250 1250 1250 1245 1245 1245 1250 1250 1250 1255 1255 1259 1259 1264 1439 1433 1433 1433 1427 1427 1421 1421 1421 1421 1421 1421 1421 1415 1415 1415 1415 1415 1415 1410 1410 1410 1404 1404 1398 1398 1392 1392 1392 1392 1387 1387 1387 1387 1387 1387 1387 1387 1387 1381 1381 1381 1381 1376 1370 1370 1370 1370 1370 1370 1370 1370 1370 1359 1359 1365 1359 1359 1359 1359 1359 1359 1359 1359 1359 1359 1359 1359 1354 1354 1354 1354 1354 1354 1354 1354 1354 1354 1349 1349 1349 1349 1343 1343 1343 1343 1343 1343 1343 1338 1338 1343 1338 1338 1338 1338 1338 1338 1338 1338 1343 1343 1343 1343 1343 1343 1343 1343 1343 1343 1349 1349 1349 1349 1354 1359 1359 1359 1365 1365 1365 1370 1365 1365 1370 1365 1365 1365 1365 1370 1370 1376 1376 1381 1381 1387 1392 1398 1936 1936 1936 1936 1936 1926 1926 1926 1915 1915 1915 0 3576 3576 3614 3653 3692 3732 3774 3774 3816 3816 3774 3774 3774 3732 3732 3732 3732 3732 3732 3732 3774 3774 3774 3774 3774 3774 3774 3774 3774 3774 3816 3816 3774 3774 3774 3774 3774 3816 3816 3816 3816 3816 3774 3774 3732 3732 3732 3732 3732 3732 3732 3732 3732 3774 3774 3774 3774 3774 3774 3774 3774 3774 3774 3774 3774 3816 3816 3816 3816 3816 3774 3774 3774 3816 3816 3774 3774 3732 3732 3732 3692 3692 3732 3732 3732 3774 3774 3816 3774 3774 3732 3732 3732 3692 3692 3692 3732 3732 3732 3732 3732 3732 3732 3774 3774 3774 3774 3774 3774 3732 3732 3692 3692 3692 0 0 0 0 0 0 0 0 0 0 0 0
0 0 0 0 0 0 0 0 0 0 0 0 0 0 0 0 0 0 0 0 0 0 0 0 0 0 0 0 0 0 0 0 3092 3092 3092 3092 3092 3092 3092 3092 3092 3092 3092 3120 3120 3120 3120 3120 3120 3120 3149 3149 3178 3178 3149 3149 3149 3149 3149 3149 3149 3149 3149 3149 3149 3178 3178 3178 3178 3178 3178 3178 3178 3149 3149 3149 3149 3178 3178 3178 3178 3178 3178 3178 3178 3178 3178 3178 3178 3178 3178 3178 3178 3208 3208 3208 3208 3208 3208 3208 3208 3208 3208 3208 3208 3208 3208 3208 3208 3208 3208 3208 3208 3208 3208 3208 3208 3238 3269 3269 3269 0 1663 1663 1663 1655 1655 1655 1655 1655 1655 1655 1655 1655 1655 1663 1655 1655 1655 1655 1655 1655 1655 1647 1647 1639 1639 1639 1639 1632 1632 1624 1624 1624 1624 1624 1616 1616 1616 1616 1616 1616 1609 1609 1609 1609 1609 1609 1609 1609 1601 1601 1594 1594 1594 1594 1594 1601 1594 1594 1594 1586 1586 1586 1586 1586 1586 1594 1594 1594 1594 1586 1586 1586 1586 1564 1564 1557 1543 1536 1536 1536 1529 1529 1529 1529 1529 1529 1529 1529 1529 1536 1536 1543 1550 1550 1550 1557 1572 1579 2103 2116 2116 2129 2129 2129 2143 2143 2156 2143 2143 2156 2156 2156 2156 2156 2198 2198 0 1398 1398 1398 1398 1398 1398 1392 1392 1392 1392 1392 1387 1387 1392 1392 1392 1392 1392 1387 1381 1381 1376 1370 1370 1370 1370 1370 1370 1365 1359 1359 1359 1354 1354 1354 1354 1349 1349 1349 1349 1349 1343 1343 1338 1338 1338 1338 1333 1333 1333 1333 1333 1328 1328 1328 1328 1322 1322 1322 1317 1317 1317 1312 1312 1312 1312 1312 1307 1307 1307 1307 1307 1302 1302 1302 1302 1297 1297 1297 1297 1292 1292 1292 1292 1292 1292 1292 1292 1292 1288 1288 1283 1283 1278 1278 1278 1278 1278 1278 1278 1278 1278 1278 1278 1273 1273 1264 1264 1255 1255 1250 1250 1250 1250 1250 1250 1250 1250 1250 1250 1255 1255 1259 1264 1439 1439 1439 1433 1433 1433 1427 1427 1427 1427 1427 1421 1421 1421 1421 1421 1415 1415 1415 1415 1415 1415 1410 1410 1410 1404 1398 1398 1392 1392 1392 1387 1387 1387 1387 1387 1387 1387 1387 1387 1387 1381 1381 1381 1376 1370 1370 1370 1370 1370 1370 1370 1370 1370 1359 1359 1365 1359 1359 1359 1359 1359 1359 1359 1359 1359 1354 1354 1354 1354 1354 1354 1354 1349 1349 1349 1349 1349 1349 1343 1343 1343 1343 1343 1343 1343 1343 1338 1338 1338 1338 1338 1338 1338 1338 1338 1333 1333 1333 1333 1338 1338 1338 1338 1338 1338 1338 1338 1338 1338 1338 1338 1343 1343 1343 1343 1354 1354 1354 1359 1359 1359 1359 1359 1359 1359 1359 1359 1359 1359 1365 1365 1370 1376 1376 1376 1381 1392 1392 1936 1936 1936 1936 1936 1936 1936 1926 1926 1926 1936 1936 3576 3576 3614 3653 3692 3692 3732 3732 3774 3774 3774 3774 3732 3732 3732 3732 3732 3732 3732 3732 3732 3732 3774 3774 3774 3732 3732 3732 3732 3732 3732 3732 3732 3732 3732 3732 3732 3774 3774 3816 3816 3816 3774 3774 3732 3732 3732 3732 3732 3732 3732 3732 3732 3774 3774 3774 3774 3774 3774 3774 3732 3732 3732 3732 3774 3774 3774 3774 3774 3774 3732 3732 3732 3774 3774 3732 3732 3692 3692 3692 3692 3692 3692 3692 3692 3732 3774 3774 3774 3774 3732 3732 3732 3692 3692 3692 3692 3692 3692 3692 3692 3692 3692 3732 3732 3732 3732 3732 3732 3692 3692 3692 3692 3692 0 0 0 0 0 0 0 0 0 0 0 0
0 0 0 0 0 0 0 0 0 0 0 0 0 0 0 0 0 0 0 0 0 0 0 0 0 0 0 0 0 0 0 0 3064 3064 3064 3064 3092 3092 3092 3092 3092 3092 3092 3092 3092 3092 3120 3120 3120 3120 3120 3120 3149 3149 3149 3149 3120 3120 3120 3120 3120 3120 3149 3149 3149 3149 3178 3178 3178 3178 3178 3178 3149 3149 3149 3149 3149 3149 3149 3149 3149 3149 3149 3149 3178 3149 3149 3178 3178 3178 3178 3178 3178 3178 3178 3178 3178 3208 3208 3208 3208 3208 3208 3208 3178 3178 3178 3178 3208 3208 3208 3208 3208 3208 3208 3208 3208 3238 3238 3269 3269 0 1663 1663 1663 1663 1663 1663 1663 1663 1663 1663 1663 1663 1663 1663 1663 1663 1663 1655 1655 1655 1655 1655 1655 1647 1647 1639 1639 1639 1632 1624 1624 1624 1624 1624 1616 1616 1616 1616 1616 1616 1609 1609 1609 1609 1609 1609 1601 1601 1601 1594 1594 1594 1594 1594 1594 1594 1594 1594 1594 1586 1586 1586 1586 1586 1586 1594 1586 1586 1586 1586 1586 1586 1579 1579 1564 1564 1550 1543 1543 1543 1536 1536 1529 1529 1529 1529 1529 1529 1529 1536 1536 1543 1550 1550 1550 1550 1572 1572 1572 2116 2116 2129 2129 2129 2129 2143 2143 2143 2143 2143 2143 2143 2143 2143 2198 2198 0 1398 1398 1398 1398 1398 1398 1392 1392 1392 1392 1392 1392 1392 1392 1392 1398 1392 1392 1387 1387 1381 1376 1370 1370 1370 1370 1370 1370 1365 1365 1359 1359 1354 1354 1354 1354 1349 1349 1349 1349 1349 1349 1343 1343 1338 1338 1338 1333 1333 1333 1333 1333 1333 1328 1328 1328 1328 1322 1322 1322 1317 1317 1317 1312 1312 1312 1312 1312 1307 1307 1307 1307 1307 1307 1302 1302 1302 1302 1297 1297 1297 1297 1297 1297 1292 1292 1292 1292 1292 1288 1288 1288 1283 1278 1278 1278 1278 1278 1278 1278 1278 1278 1278 1278 1273 1273 1264 1264 1259 1255 1255 1255 1255 1255 1250 1250 1250 1250 1250 1255 1259 1259 1264 1264 1273 1439 1439 1439 1439 1433 1433 1433 1433 1433 1433 1427 1427 1427 1427 1427 1421 1421 1415 1415 1415 1415 1410 1410 1410 1404 1398 1398 1398 1398 1392 1392 1392 1392 1392 1392 1392 1392 1387 1387 1387 1387 1381 1381 1376 1376 1370 1370 1370 1370 1370 1370 1370 1370 1365 1365 1365 1365 1365 1359 1359 1359 1359 1359 1359 1354 1354 1354 1349 1349 1349 1349 1349 1349 1349 1349 1349 1349 1343 1343 1343 1343 1338 1338 1338 1338 1338 1338 1338 1338 1338 1338 1333 1333 1333 1333 1333 1333 1333 1333 1338 1338 1333 1333 1338 1338 1333 1333 1333 1333 1333 1338 1338 1343 1343 1343 1349 1349 1349 1354 1354 1354 1354 1343 1343 1343 1343 1343 1343 1349 1354 1354 1365 1370 1370 1370 1381 1381 1936 1936 1936 1936 1936 1936 1936 1936 1936 1926 1926 1936 1936 3614 3614 3614 3653 3692 3692 3732 3732 3732 3732 3732 3732 3732 3732 3732 3732 3732 3732 3732 3732 3732 3732 3732 3732 3732 3732 3732 3732 3732 3732 3732 3732 3732 3732 3732 3732 3732 3774 3774 3774 3774 3774 3774 3732 3732 3732 3732 3732 3732 3732 3732 3732 3732 3732 3732 3732 3732 3732 3732 3732 3732 3732 3732 3732 3774 3774 3774 3774 3774 3732 3732 3732 3732 3732 3732 3732 3692 3692 3692 3653 3653 3653 3653 3653 3692 3692 3692 3732 3774 3774 3732 3732 3732 3692 3692 3692 3692 3692 3692 3692 3692 3692 3692 3732 3732 3732 3732 3732 3732 3692 3692 3653 3653 3653 0 0 0 0 0 0 0 0 0 0 0 0
0 0 0 0 0 0 0 0 0 0 0 0 0 0 0 0 0 0 0 0 0 0 0 0 0 0 0 0 0 0 0 0 3064 3064 3064 3064 3092 3092 3092 3092 3092 3092 3092 3092 3092 3092 3092 3092 3092 3092 3120 3120 3120 3120 3120 3120 3120 3120 3120 3120 3120 3120 3149 3149 3149 3149 3149 3178 3149 3149 3149 3120 3120 3120 3120 3120 3120 3120 3120 3120 3120 3120 3120 3120 3120 3149 3149 3149 3149 3149 3149 3178 3178 3178 3178 3178 3178 3178 3178 3208 3178 3178 3178 3178 3178 3178 3178 3178 3178 3178 3178 3178 3208 3208 3208 3208 3208 3208 3238 3238 3238 3300 1671 1671 1671 1671 1671 1671 1671 1671 1663 1663 1663 1663 1671 1663 1663 1663 1663 1655 1655 1655 1655 1655 1655 1655 1647 1647 1647 1647 1639 1639 1639 1632 1632 1624 1624 1624 1616 1616 1616 1616 1616 1609 1609 1609 1609 1609 1601 1601 1594 1594 1594 1594 1594 1594 1594 1594 1594 1594 1594 1586 1586 1586 1586 1586 1586 1586 1586 1586 1586 1586 1586 1579 1579 1579 1572 1572 1572 1550 1543 1543 1536 1536 1536 1529 1529 1529 1529 1529 1536 1536 1543 1543 1550 1550 1550 1550 1572 1572 1572 2103 2116 2129 2129 2129 2129 2143 2143 2129 2129 2129 2129 2129 2129 2143 2143 0 0 0 1398 1398 1398 1398 1398 1392 1392 1392 1392 1392 1392 1392 1392 1392 1398 1398 1398 1392 1392 1387 1376 1370 1370 1370 1370 1370 1370 1370 1365 1365 1359 1359 1354 1354 1354 1354 1349 1349 1349 1349 1349 1349 1343 1343 1338 1338 1333 1333 1333 1333 1333 1333 1333 1328 1328 1328 1328 1322 1322 1322 1322 1317 1312 1312 1312 1312 1312 1312 1312 1312 1307 1307 1307 1307 1307 1302 1302 1302 1297 1297 1297 1297 1297 1292 1292 1292 1292 1292 1292 1292 1288 1288 1283 1283 1283 1283 1283 1283 1283 1278 1278 1278 1278 1273 1273 1268 1264 1259 1259 1259 1255 1255 1255 1255 1255 1255 1255 1255 1255 1259 1259 1264 1264 1273 1278 1439 1439 1439 1439 1433 1433 1433 1433 1433 1433 1433 1433 1427 1427 1427 1421 1421 1421 1415 1415 1415 1410 1410 1410 1404 1404 1398 1398 1398 1392 1392 1392 1392 1392 1392 1392 1392 1392 1387 1387 1387 1387 1381 1376 1376 1376 1370 1370 1370 1370 1370 1370 1365 1365 1365 1365 1365 1365 1365 1359 1359 1359 1359 1354 1354 1349 1349 1349 1349 1349 1349 1349 1349 1349 1349 1343 1343 1343 1343 1338 1338 1338 1338 1338 1338 1338 1338 1338 1338 1338 1333 1333 1333 1333 1328 1328 1328 1328 1333 1333 1328 1328 1328 1328 1328 1328 1328 1328 1328 1333 1333 1333 1333 1338 1338 1343 1343 1343 1343 1343 1343 1333 1333 1333 1338 1338 1338 1338 1343 1349 1359 1365 1365 1370 1370 1936 1936 1936 1936 1936 1936 1936 1936 1936 1936 1936 1936 1947 1947 3614 3614 3614 3653 3692 3692 3732 3732 3732 3732 3732 3732 3732 3732 3692 3692 3692 3692 3692 3732 3732 3732 3732 3732 3732 3732 3732 3692 3692 3732 3732 3732 3732 3732 3732 3732 3732 3774 3774 3774 3774 3774 3732 3732 3732 3732 3732 3732 3732 3732 3732 3732 3732 3732 3732 3732 3732 3732 3732 3732 3732 3732 3732 3732 3732 3732 3732 3732 3732 3732 3692 3692 3692 3692 3692 3692 3692 3692 3653 3653 3653 3653 3653 3653 3653 3692 3692 3692 3732 3732 3732 3692 3692 3692 3692 3692 3692 3692 3692 3692 3692 3692 3692 3692 3692 3692 3692 3692 3692 3692 3653 3653 3653 3653 0 0 0 0 0 0 0 0 0 0 0 0
0 0 0 0 0 0 0 0 0 0 0 0 0 0 0 0 0 0 0 0 0 0 0 0 0 0 0 0 0 0 0 0 3064 3064 3064 3064 3064 3092 3064 3064 3064 3064 3064 3064 3064 3092 3092 3092 3092 3092 3092 3120 3120 3120 3120 3120 3120 3120 3120 3120 3120 3120 3120 3120 3120 3120 3120 3120 3092 3092 3092 3092 3092 3092 3092 3092 3092 3120 3120 3120 3120 3120 3120 3120 3120 3120 3120 3149 3149 3149 3149 3149 3149 3149 3149 3178 3178 3178 3178 3178 3149 3149 3178 3178 3178 3178 3178 3178 3178 3178 3178 3178 3178 3178 3178 3178 3208 3208 3208 3238 3300 3300 1680 1680 1680 1671 1671 1671 1671 1671 1663 1663 1663 1663 1671 1663 1663 1663 1663 1663 1655 1655 1655 1655 1655 1655 1647 1647 1647 1647 1647 1647 1639 1639 1639 1632 1624 1624 1616 1616 1616 1616 1609 1609 1609 1609 1609 1601 1601 1601 1594 1594 1594 1594 1594 1594 1594 1594 1594 1594 1594 1586 1586 1586 1586 1586 1586 1586 1586 1586 1586 1586 1586 1579 1579 1579 1572 1572 1572 1557 1550 1550 1543 1536 1536 1536 1536 1536 1536 1536 1536 1543 1543 1543 1550 1550 1550 1557 1572 1579 1572 1572 1572 2103 2103 2103 2129 2129 2129 2129 2129 2129 2129 2129 2129 2129 2143 0 0 0 1398 1398 1398 1398 1404 1392 1392 1392 1392 1392 1392 1392 1392 1392 1398 1398 1398 1398 1398 1404 1404 1370 1365 1365 1370 1370 1370 1370 1370 1370 1359 1359 1359 1354 1354 1354 1349 1349 1349 1349 1349 1349 1349 1343 1343 1338 1338 1338 1333 1333 1333 1333 1333 1328 1328 1328 1328 1322 1322 1322 1322 1317 1317 1312 1312 1312 1312 1312 1312 1312 1312 1307 1307 1307 1307 1307 1307 1302 1302 1302 1297 1297 1297 1297 1292 1292 1292 1292 1292 1292 1288 1288 1283 1283 1283 1283 1283 1283 1283 1278 1278 1278 1278 1273 1273 1268 1268 1264 1264 1259 1259 1259 1259 1255 1255 1255 1255 1255 1259 1259 1264 1268 1268 1273 1278 1439 1439 1439 1439 1439 1439 1439 1433 1433 1433 1433 1433 1433 1433 1427 1427 1421 1421 1421 1415 1415 1415 1415 1410 1410 1410 1404 1404 1398 1398 1398 1398 1398 1398 1398 1392 1392 1392 1392 1392 1387 1387 1387 1381 1376 1376 1376 1376 1370 1370 1370 1370 1365 1365 1365 1365 1365 1365 1365 1359 1359 1359 1354 1354 1354 1349 1349 1349 1349 1349 1349 1349 1343 1343 1343 1343 1343 1338 1338 1338 1338 1338 1338 1338 1338 1338 1338 1338 1338 1338 1333 1328 1328 1333 1328 1328 1328 1328 1333 1328 1322 1322 1322 1322 1322 1322 1322 1322 1322 1322 1322 1328 1328 1333 1333 1338 1338 1333 1333 1328 1328 1328 1328 1328 1328 1333 1333 1333 1338 1338 1349 1359 1365 1365 1936 1936 1936 1936 1936 1936 1936 1936 1936 1936 1936 1936 1936 1947 1947 3614 3614 3614 3653 3653 3692 3692 3692 3732 3732 3732 3692 3692 3692 3692 3692 3692 3692 3692 3692 3692 3692 3692 3692 3692 3692 3692 3692 3692 3692 3692 3692 3692 3692 3692 3692 3732 3732 3732 3732 3732 3732 3732 3732 3732 3732 3732 3732 3732 3732 3732 3732 3732 3732 3732 3732 3732 3732 3732 3732 3732 3732 3732 3732 3732 3732 3692 3692 3692 3692 3692 3692 3692 3692 3692 3692 3692 3692 3653 3653 3653 3653 3653 3653 3653 3692 3692 3692 3732 3732 3692 3692 3692 3692 3692 3692 3692 3692 3692 3692 3692 3692 3692 3692 3692 3692 3692 3692 3653 3653 3653 3614 3614 3653 0 0 0 0 0 0 0 0 0 0 0 0
0 0 0 0 0 0 0 0 0 0 0 0 0 0 0 0 0 0 0 0 0 0 0 0 0 0 0 0 0 0 0 0 3064 3064 3064 3064 3064 3064 3064 3064 3064 3064 3064 3064 3064 3064 3092 3092 3092 3092 3092 3092 3092 3092 3092 3092 3120 3092 3092 3092 3092 3092 3092 3092 3092 3120 3092 3092 3092 3092 3092 3092 3064 3064 3092 3092 3092 3092 3092 3092 3092 3092 3092 3092 3120 3120 3120 3120 3149 3120 3120 3149 3149 3149 3149 3149 3149 3149 3178 3178 3149 3149 3149 3178 3178 3178 3178 3178 3178 3178 3178 3178 3178 3178 3178 3178 3178 3178 3208 3208 3238 3238 0 1680 1680 1671 1671 1671 1671 1671 1671 1663 1663 1663 1671 1671 1671 1671 1671 1663 1663 1663 1655 1655 1655 1655 1655 1655 1647 1647 1647 1647 1647 1639 1639 1632 1632 1632 1616 1616 1616 1616 1609 1609 1609 1609 1609 1601 1601 1601 1601 1594 1594 1594 1594 1594 1594 1594 1594 1594 1594 1586 1586 1586 1586 1586 1586 1586 1579 1579 1586 1579 1579 1579 1579 1579 1579 1579 1579 1564 1557 1557 1550 1550 1543 1536 1536 1536 1536 1536 1543 1543 1550 1550 1557 1557 1557 1557 1579 1579 1572 1572 1572 2090 2090 2090 2090 2090 2090 2090 2090 2090 2103 2103 2090 2090 2103 2103 0 1398 1398 1398 1398 1398 1404 1398 1398 1398 1398 1398 1392 1392 1398 1398 1398 1404 1404 1410 1415 1415 1415 1365 1365 1365 1370 1370 1370 1376 1376 1370 1365 1359 1359 1359 1354 1354 1354 1354 1354 1349 1349 1349 1349 1349 1343 1338 1338 1338 1338 1333 1333 1333 1333 1333 1333 1328 1328 1328 1322 1322 1322 1322 1322 1317 1317 1317 1312 1312 1312 1312 1312 1307 1307 1307 1307 1307 1307 1302 1302 1302 1297 1297 1297 1297 1292 1292 1292 1292 1292 1292 1288 1288 1283 1283 1283 1283 1283 1283 1283 1283 1278 1278 1278 1273 1273 1268 1268 1264 1264 1264 1259 1259 1259 1255 1255 1255 1255 1259 1259 1264 1264 1268 1273 1278 1278 1439 1439 1439 1439 1439 1439 1439 1433 1433 1433 1433 1433 1433 1433 1427 1427 1427 1421 1421 1421 1415 1415 1415 1415 1410 1410 1410 1410 1404 1404 1404 1404 1398 1398 1398 1398 1398 1398 1392 1392 1392 1392 1387 1387 1381 1381 1376 1376 1376 1376 1376 1370 1365 1365 1365 1365 1365 1365 1365 1359 1359 1359 1354 1354 1354 1349 1349 1349 1349 1349 1349 1349 1343 1343 1343 1343 1343 1338 1338 1338 1338 1338 1338 1338 1338 1338 1338 1338 1338 1338 1333 1328 1328 1328 1328 1328 1328 1328 1328 1322 1322 1322 1322 1322 1322 1322 1317 1317 1317 1322 1322 1322 1322 1328 1328 1328 1328 1328 1322 1322 1322 1322 1322 1322 1322 1328 1328 1328 1328 1328 1333 1359 1359 1359 1926 1926 1926 1936 1936 1936 1936 1936 1936 1936 1936 1936 1947 1959 1959 3576 3576 3576 3614 3653 3653 3653 3692 3692 3692 3692 3692 3692 3692 3692 3692 3692 3692 3692 3692 3692 3692 3692 3692 3692 3692 3692 3653 3653 3692 3692 3692 3692 3692 3692 3692 3732 3732 3732 3732 3732 3732 3692 3692 3692 3692 3732 3732 3732 3732 3732 3692 3692 3732 3732 3732 3732 3732 3732 3732 3692 3692 3692 3692 3692 3692 3692 3692 3692 3692 3653 3653 3692 3692 3692 3692 3692 3692 3692 3653 3653 3653 3653 3653 3653 3653 3653 3653 3692 3692 3692 3692 3653 3653 3653 3653 3692 3692 3692 3692 3692 3692 3692 3692 3692 3653 3653 3653 3614 3614 3614 3614 3614 3614 0 0 0 0 0 0 0 0 0 0 0 0
0 0 0 0 0 0 0 0 0 0 0 0 0 0 0 0 0 0 0 0 0 0 0 0 0 0 0 0 0 0 0 0 3037 3037 3037 3037 3064 3064 3064 3064 3037 3037 3037 3037 3037 3064 3064 3064 3064 3064 3092 3092 3092 3092 3092 3092 3092 3092 3092 3092 3092 3092 3092 3092 3092 3092 3092 3092 3064 3064 3064 3064 3064 3064 3064 3064 3064 3064 3064 3064 3092 3092 3092 3092 3092 3092 3092 3120 3120 3120 3120 3120 3120 3120 3120 3120 3120 3120 3120 3120 3149 3149 3149 3149 3149 3149 3149 3149 3178 3178 3178 3178 3178 3178 3178 3178 3178 3178 3208 3208 3238 3238 3238 1680 1680 1680 1680 1671 1671 1680 1671 1671 1671 1671 1671 1680 1680 1680 1671 1663 1663 1663 1655 1655 1655 1655 1655 1655 1655 1647 1647 1647 1647 1639 1639 1632 1624 1624 1616 1616 1616 1616 1616 1616 1616 1609 1609 1609 1609 1601 1601 1601 1601 1601 1601 1601 1594 1594 1594 1594 1594 1594 1586 1586 1586 1586 1586 1586 1579 1579 1579 1579 1579 1579 1579 1579 1579 1579 1579 1572 1564 1564 1557 1550 1550 1543 1543 1543 1543 1543 1543 1543 1550 1550 1557 1557 1557 1557 1579 1579 1579 1586 2078 2078 2078 2078 2078 2078 2078 2078 2078 2078 2090 2090 2090 2090 2090 2090 0 1398 1398 1398 1398 1398 1404 1398 1398 1398 1398 1398 1392 1392 1398 1398 1404 1410 1410 1415 1415 1421 1433 1433 2090 2090 1370 1370 1370 1376 1376 2078 2078 2078 1359 1359 1354 1354 1354 1354 1354 1349 1349 1349 1349 1349 1343 1343 1338 1338 1338 1338 1338 1338 1333 1333 1333 1333 1328 1328 1328 1322 1322 1322 1322 1322 1322 1317 1317 1312 1312 1312 1312 1312 1312 1307 1307 1307 1307 1307 1307 1307 1302 1302 1297 1297 1297 1297 1292 1292 1292 1292 1292 1292 1288 1288 1288 1283 1283 1283 1283 1283 1283 1278 1278 1273 1273 1268 1268 1264 1264 1264 1264 1259 1259 1259 1259 1259 1259 1259 1264 1264 1268 1268 1273 1278 1278 1439 1439 1439 1439 1439 1439 1439 1439 1433 1433 1433 1433 1433 1433 1433 1433 1427 1427 1421 1421 1421 1421 1421 1415 1415 1415 1410 1410 1410 1410 1410 1404 1404 1404 1404 1404 1404 1404 1398 1398 1398 1398 1392 1392 1387 1387 1381 1381 1376 1376 1376 1376 1370 1370 1370 1370 1370 1370 1365 1359 1359 1359 1359 1354 1354 1354 1349 1349 1349 1349 1349 1349 1343 1343 1343 1343 1343 1343 1343 1338 1338 1338 1338 1338 1338 1338 1338 1338 1338 1338 1328 1328 1328 1328 1328 1328 1328 1328 1328 1322 1322 1322 1322 1317 1317 1317 1317 1317 1317 1317 1317 1317 1322 1322 1322 1322 1322 1322 1322 1317 1317 1317 1317 1317 1322 1322 1322 1322 1328 1328 1328 1328 1322 0 1926 1926 1926 1936 1936 1936 1936 1936 1936 1936 1936 1947 1947 1959 1959 3539 3539 3576 3614 3653 3653 3653 3692 3692 3692 3692 3653 3653 3653 3653 3653 3653 3653 3653 3692 3692 3653 3653 3653 3653 3653 3653 3653 3653 3653 3653 3653 3653 3692 3692 3692 3692 3692 3692 3692 3692 3692 3692 3692 3692 3692 3692 3732 3732 3692 3692 3692 3692 3692 3732 3692 3692 3692 3692 3692 3692 3692 3692 3692 3692 3692 3692 3692 3653 3653 3653 3653 3653 3653 3653 3653 3653 3653 3653 3653 3653 3653 3653 3653 3653 3653 3653 3653 3653 3653 3653 3653 3653 3614 3614 3614 3653 3653 3653 3653 3653 3653 3653 3653 3653 3614 3614 3614 3576 3576 3576 3576 3576 3576 0 0 0 0 0 0 0 0 0 0 0 0
0 0 0 0 0 0 0 0 0 0 0 0 0 0 0 0 0 0 0 0 0 0 0 0 0 0 0 0 0 0 0 0 3037 3037 3037 3037 3037 3037 3037 3037 3037 3037 3010 3010 3037 3037 3037 3037 3037 3064 3064 3064 3064 3092 3064 3064 3092 3092 3092 3092 3092 3064 3064 3064 3092 3064 3064 3064 3037 3037 3037 3037 3037 3037 3037 3064 3064 3064 3064 3064 3064 3092 3092 3092 3092 3092 3092 3092 3092 3092 3092 3092 3092 3092 3120 3120 3120 3120 3120 3120 3120 3120 3120 3120 3120 3120 3120 3120 3149 3149 3149 3149 3149 3178 3178 3178 3178 3178 3178 3208 3208 3238 3238 1680 1680 1680 1680 1671 1671 1680 1671 1671 1671 1671 1671 1680 1680 1680 1671 1671 1671 1663 1663 1663 1655 1655 1655 1655 1655 1655 1647 1647 1647 1647 1639 1632 1624 1624 1616 1616 1616 1616 1616 1616 1616 1609 1609 1609 1609 1609 1609 1609 1601 1601 1601 1601 1601 1601 1601 1594 1594 1594 1586 1586 1586 1586 1586 1586 1579 1579 1579 1579 1579 1579 1579 1579 1579 1579 1579 1579 1572 1564 1557 1557 1550 1550 1550 1550 1543 1543 1550 1550 1550 1550 1557 1557 1557 1572 1579 1579 1586 1586 2065 2065 2065 2065 2065 2065 2065 2065 2065 2078 2078 2078 2078 2078 2078 2078 0 1404 1404 1398 1398 1404 1404 1398 1398 1398 1398 1398 1398 1398 1398 1404 1404 1410 1415 1415 1421 1427 1433 1433 2103 2090 2078 2078 2078 2078 2078 2078 2078 2078 2078 2078 1354 1354 1354 1354 1349 1349 1349 1349 1349 1349 1343 1343 1338 1333 1333 1333 1333 1338 1338 1333 1333 1333 1333 1328 1328 1328 1322 1322 1322 1322 1322 1322 1317 1317 1312 1312 1312 1312 1312 1312 1312 1312 1307 1307 1307 1307 1302 1302 1297 1297 1297 1297 1292 1292 1297 1292 1292 1292 1288 1288 1288 1288 1283 1283 1283 1283 1283 1278 1278 1273 1273 1268 1268 1264 1264 1264 1264 1264 1264 1259 1259 1259 1259 1264 1264 1264 1268 1268 1278 1278 1283 1283 1433 1439 1439 1439 1439 1439 1439 1433 1433 1433 1433 1433 1433 1433 1433 1427 1427 1421 1421 1421 1421 1421 1415 1415 1415 1415 1415 1410 1410 1410 1410 1410 1404 1404 1404 1404 1404 1404 1404 1404 1404 1398 1398 1392 1392 1387 1387 1381 1381 1381 1376 1370 1370 1370 1370 1370 1370 1370 1365 1359 1359 1359 1354 1354 1354 1349 1349 1354 1349 1349 1349 1349 1349 1349 1343 1343 1343 1343 1338 1338 1338 1338 1338 1338 1338 1338 1338 1338 1333 1328 1328 1328 1328 1322 1322 1322 1322 1322 1322 1317 1317 1317 1317 1317 1317 1312 1312 1312 1312 1312 1312 1317 1317 1317 1322 1322 1322 1317 1317 1317 1312 1312 1312 1317 1317 1317 1317 1322 1322 1322 1322 1322 1947 1936 1936 1936 1936 1936 1936 1936 1936 1936 1936 1936 1947 1947 1947 3539 3539 3539 3576 3614 3614 3653 3653 3692 3653 3653 3653 3614 3614 3614 3614 3614 3614 3653 3653 3653 3653 3653 3614 3614 3614 3614 3614 3614 3614 3614 3614 3653 3653 3653 3653 3653 3653 3653 3692 3692 3653 3653 3653 3653 3653 3692 3692 3692 3692 3692 3692 3692 3653 3653 3692 3692 3692 3692 3692 3692 3692 3692 3692 3653 3653 3692 3653 3653 3653 3653 3614 3614 3653 3653 3653 3653 3653 3653 3653 3653 3614 3614 3614 3614 3614 3614 3614 3614 3614 3614 3653 3653 3614 3576 3576 3576 3576 3614 3653 3653 3653 3653 3653 3653 3653 3614 3614 3614 3576 3576 3576 3576 3576 3576 0 0 0 0 0 0 0 0 0 0 0 0
0 0 0 0 0 0 0 0 0 0 0 0 0 0 0 0 0 0 0 0 0 0 0 0 0 0 0 0 0 0 0 0 3010 3010 3037 3037 3037 3037 3037 3037 3037 3037 3010 3010 3010 3037 3010 3010 3010 3037 3037 3037 3037 3037 3064 3064 3064 3064 3064 3064 3064 3064 3064 3064 3064 3064 3064 3037 3010 3010 3010 3010 3037 3037 3037 3037 3064 3064 3064 3064 3064 3064 3064 3064 3064 3064 3092 3092 3092 3092 3092 3092 3092 3092 3092 3092 3092 3092 3092 3092 3120 3120 3120 3120 3120 3092 3092 3120 3120 3149 3149 3149 3149 3149 3149 3149 3149 3149 3178 3178 3208 3208 3208 3208 1680 1680 1680 1671 1671 1680 1671 1671 1671 1671 1680 1680 1680 1680 1671 1671 1671 1663 1663 1663 1655 1655 1655 1655 1655 1655 1655 1647 1647 1647 1639 1639 1632 1632 1624 1624 1624 1616 1616 1616 1616 1609 1609 1609 1609 1609 1609 1609 1609 1609 1609 1601 1601 1601 1601 1594 1594 1594 1586 1586 1586 1586 1586 1586 1579 1579 1579 1579 1579 1579 1579 1579 1579 1579 1579 1579 1572 1564 1557 1557 1550 1550 1550 1550 1550 1550 1550 1550 1550 1550 1557 1557 1564 1579 1579 1586 1586 1586 2065 2065 2065 2065 2065 2053 2053 2053 2065 2065 2065 2065 2065 2065 2065 2065 2053 1404 1404 1398 1398 1404 1404 1398 1398 1398 1398 1398 1398 1398 1404 1410 1410 1415 1415 1421 1421 1427 1427 1427 2103 2078 2078 2065 2065 2065 2065 2065 2078 2078 2078 2078 2078 2078 2078 2078 1349 1349 1349 1349 1349 1349 1343 1343 1338 1333 1333 1333 1333 1338 1338 1333 1333 1333 1333 1328 1328 1328 1322 1322 1322 1322 1322 1322 1322 1317 1317 1312 1312 1312 1312 1312 1312 1312 1307 1307 1307 1307 1307 1302 1302 1302 1297 1297 1292 1292 1292 1292 1292 1292 1288 1288 1288 1288 1283 1283 1283 1283 1283 1283 1278 1273 1273 1268 1268 1268 1264 1264 1264 1264 1264 1259 1259 1259 1259 1264 1264 1264 1273 1273 1278 1278 1283 1283 1433 1439 1439 1439 1439 1439 1439 1433 1433 1433 1433 1433 1433 1433 1433 1433 1427 1427 1421 1421 1421 1415 1415 1415 1415 1415 1415 1415 1410 1410 1410 1410 1410 1410 1410 1410 1404 1404 1404 1404 1404 1398 1398 1398 1398 1392 1392 1387 1387 1387 1381 1376 1376 1376 1376 1376 1376 1370 1365 1359 1359 1359 1354 1354 1354 1349 1349 1354 1354 1349 1349 1349 1349 1349 1343 1343 1343 1343 1338 1338 1338 1338 1338 1338 1338 1338 1338 1338 1333 1328 1328 1328 1328 1322 1322 1322 1322 1322 1322 1317 1317 1317 1317 1317 1312 1312 1312 1312 1312 1312 1312 1312 1317 1317 1317 1312 1312 1312 1307 1307 1307 1307 1312 1312 1312 1312 1317 1317 1317 1317 1317 1317 1947 1947 1936 1936 1936 1936 1936 1936 1936 1936 1936 1936 1947 1947 1947 3503 3503 3539 3576 3614 3614 3614 3653 3653 3614 3614 3614 3576 3576 3576 3614 3614 3614 3614 3614 3653 3653 3653 3614 3614 3614 3614 3614 3614 3614 3614 3614 3614 3653 3653 3614 3614 3653 3653 3653 3653 3653 3653 3653 3614 3614 3653 3653 3653 3653 3653 3653 3653 3653 3653 3653 3653 3653 3653 3653 3692 3692 3653 3653 3653 3653 3692 3653 3653 3614 3614 3614 3614 3614 3614 3614 3614 3614 3614 3614 3614 3614 3614 3614 3614 3614 3576 3576 3576 3576 3576 3614 3576 3576 3539 3539 3539 3576 3614 3614 3614 3653 3653 3653 3653 3653 3576 3576 3576 3576 3576 3576 3576 3576 3576 0 0 0 0 0 0 0 0 0 0 0 0
0 0 0 0 0 0 0 0 0 0 0 0 0 0 0 0 0 0 0 0 0 0 0 0 0 0 0 0 0 0 0 0 3010 3010 3010 3010 3010 3010 3010 3010 3010 3010 3010 3010 3010 3010 3010 3010 3010 3010 3010 3010 3010 3037 3037 3037 3037 3037 3037 3037 3037 3064 3037 3037 3037 3037 3037 3037 3010 2984 2984 3010 3010 3010 3010 3037 3037 3037 3037 3037 3064 3064 3064 3064 3064 3064 3064 3092 3092 3092 3092 3092 3092 3092 3092 3092 3092 3092 3092 3092 3092 3092 3092 3092 3120 3092 3092 3120 3120 3120 3120 3120 3120 3120 3120 3149 3149 3149 3178 3178 3208 3208 3208 3208 1680 1680 1680 1680 1680 1680 1680 1680 1680 1680 1680 1680 1680 1680 1680 1671 1671 1663 1663 1663 1655 1655 1655 1655 1655 1655 1655 1647 1647 1647 1639 1639 1632 1632 1624 1624 1624 1624 1616 1616 1616 1616 1616 1609 1609 1609 1609 1609 1609 1609 1609 1609 1601 1601 1601 1601 1594 1594 1586 1586 1586 1586 1586 1586 1579 1579 1579 1579 1579 1579 1579 1579 1579 1579 1579 1579 1572 1572 1564 1557 1550 1550 1550 1550 1550 1550 1550 1550 1550 1557 1557 1564 1572 1579 1579 1586 1586 1586 1594 2040 2053 2053 2053 2053 2053 2053 2053 2053 2053 2053 2053 2053 2053 2053 2053 1404 1404 1404 1404 1404 1410 1404 1398 1398 1398 1398 1398 1398 1404 1410 1410 1415 1415 1421 1421 1427 1427 1427 2065 2065 2065 2065 2065 2065 2065 2065 2078 2078 2078 2078 2078 2078 2078 2065 2065 2065 2065 2065 2065 2065 2065 2065 1333 1333 1333 1333 1333 1338 1338 1338 1338 1338 1333 1333 1328 1328 1322 1322 1322 1322 1322 1322 1322 1322 1317 1317 1317 1317 1312 1312 1312 1312 1312 1312 1312 1307 1307 1307 1302 1302 1297 1297 1292 1292 1292 1292 1292 1292 1288 1288 1288 1288 1288 1288 1283 1283 1283 1283 1278 1278 1273 1268 1268 1268 1264 1264 1264 1264 1264 1264 1259 1259 1259 1264 1264 1268 1278 1278 1278 1283 1283 1283 1439 1439 1439 1439 1439 1439 1439 1433 1433 1439 1433 1433 1433 1433 1433 1433 1433 1427 1421 1421 1421 1415 1415 1415 1415 1415 1415 1415 1410 1410 1410 1410 1410 1410 1410 1410 1410 1404 1404 1404 1404 1404 1404 1404 1404 1404 1398 1392 1387 1387 1387 1381 1376 1376 1376 1376 1376 1376 1370 1365 1359 1359 1354 1354 1354 1354 1354 1354 1354 1354 1354 1354 1349 1349 1343 1343 1343 1343 1338 1338 1338 1338 1338 1338 1338 1338 1338 1338 1333 1328 1328 1328 1328 1322 1322 1322 1322 1322 1317 1317 1317 1317 1317 1317 1312 1312 1312 1307 1307 1307 1307 1312 1312 1312 1312 1307 1307 1307 1307 1307 1307 1307 1307 1307 1312 1312 1312 1317 1317 1317 1317 1317 1947 1947 1936 1936 1936 1936 1936 1936 1936 1936 1936 1936 1947 1947 1947 3503 3503 3539 3576 3576 3614 3614 3614 3614 3614 3614 3576 3576 3576 3576 3576 3576 3576 3576 3614 3614 3614 3614 3614 3614 3576 3576 3614 3614 3614 3614 3614 3614 3614 3614 3614 3614 3653 3653 3653 3653 3653 3653 3653 3614 3614 3614 3614 3653 3614 3614 3614 3614 3614 3614 3614 3653 3653 3653 3653 3692 3692 3653 3653 3614 3614 3653 3653 3614 3576 3576 3576 3576 3576 3576 3576 3576 3576 3614 3614 3614 3576 3576 3576 3576 3576 3539 3539 3576 3576 3576 3576 3576 3539 3539 3539 3539 3539 3576 3614 3614 3614 3614 3614 3614 3614 3576 3539 3539 3539 3539 3539 3539 3539 3539 0 0 0 0 0 0 0 0 0 0 0 0
0 0 0 0 0 0 0 0 0 0 0 0 0 0 0 0 0 0 0 0 0 0 0 0 0 0 0 0 0 0 0 0 2984 2984 2984 2984 2984 3010 3010 3010 3010 3010 3010 3010 3010 3010 3010 3010 3010 3010 3010 3010 3010 3010 3010 3010 3037 3010 3010 3037 3037 3037 3037 3037 3037 3037 3037 3010 2984 2984 2984 2984 3010 3010 3010 3010 3037 3037 3037 3037 3037 3064 3064 3064 3064 3064 3064 3064 3064 3064 3064 3064 3092 3092 3092 3064 3064 3092 3064 3064 3092 3092 3092 3092 3092 3092 3092 3120 3120 3120 3120 3120 3120 3120 3120 3149 3149 3149 3178 3178 3208 3208 3208 3208 1680 1680 1680 1680 1680 1680 1680 1680 1680 1680 1680 1680 1680 1688 1688 1688 1680 1671 1663 1663 1655 1655 1655 1655 1655 1655 1655 1647 1647 1647 1647 1639 1639 1639 1632 1632 1632 1624 1624 1616 1616 1616 1616 1616 1616 1609 1609 1616 1609 1609 1609 1609 1609 1609 1609 1601 1601 1601 1594 1594 1594 1586 1586 1586 1586 1586 1586 1586 1586 1586 1586 1586 1579 1579 1579 1579 1572 1572 1564 1557 1557 1550 1550 1550 1550 1550 1550 1550 1550 1557 1557 1564 1572 1572 1579 1586 1586 1586 1594 2028 2040 2040 2040 2040 2040 2040 2040 2040 2040 2040 2040 2040 2040 2040 2040 2040 2040 1410 1410 1410 1410 1404 1404 1404 1398 1398 1404 1404 1404 1410 1410 1415 1415 1421 1421 1427 1433 1433 2065 2065 2065 2065 2065 2065 2065 2065 2078 2065 2065 2065 2065 2065 2065 2053 2053 2053 2053 2065 2065 2065 2065 2065 2065 2065 1338 1338 1338 1338 1338 1338 1338 1338 1338 1333 1328 1328 1322 1322 1322 1322 1317 1317 1322 1322 1322 1322 1322 1317 1317 1312 1312 1312 1312 1312 1312 1312 1312 1312 1307 1307 1307 1302 1302 1297 1297 1292 1292 1297 1292 1292 1292 1288 1288 1288 1288 1288 1283 1283 1283 1278 1273 1268 1268 1268 1264 1264 1264 1264 1264 1264 1264 1264 1264 1264 1268 1268 1278 1278 1283 1283 1283 1439 1439 1439 1439 1439 1439 1439 1439 1439 1439 1439 1433 1433 1433 1433 1433 1433 1433 1427 1421 1421 1421 1415 1415 1415 1415 1415 1415 1415 1410 1410 1410 1410 1410 1410 1410 1410 1410 1404 1404 1410 1404 1404 1404 1404 1404 1404 1398 1398 1392 1392 1387 1381 1381 1381 1376 1376 1376 1376 1370 1370 1365 1365 1359 1359 1359 1359 1359 1359 1359 1354 1354 1354 1354 1354 1349 1349 1349 1349 1343 1343 1338 1338 1338 1338 1338 1338 1338 1338 1338 1333 1328 1328 1328 1322 1322 1322 1322 1322 1317 1317 1317 1317 1317 1317 1312 1307 1307 1307 1307 1307 1307 1307 1312 1312 1307 1307 1307 1302 1302 1302 1302 1302 1302 1302 1307 1307 1312 1312 1312 1317 1317 1317 1936 1936 1936 1936 1936 1936 1936 1936 1936 1936 1936 1936 1947 1947 3503 3503 3503 3539 3576 3576 3576 3576 3614 3614 3576 3576 3576 3576 3539 3539 3576 3576 3576 3576 3576 3576 3614 3576 3576 3576 3576 3576 3576 3576 3576 3614 3614 3614 3614 3614 3576 3576 3614 3614 3614 3614 3614 3614 3614 3614 3614 3614 3614 3614 3576 3576 3576 3576 3576 3576 3576 3614 3614 3614 3614 3653 3653 3614 3614 3614 3614 3614 3614 3614 3576 3576 3576 3576 3539 3539 3539 3539 3539 3576 3576 3576 3576 3576 3576 3576 3576 3539 3539 3539 3539 3539 3539 3539 3539 3539 3539 3539 3539 3539 3576 3576 3576 3614 3614 3576 3576 3539 3539 3539 3539 3539 3539 3539 3539 3539 0 0 0 0 0 0 0 0 0 0 0 0
0 0 0 0 0 0 0 0 0 0 0 0 0 0 0 0 0 0 0 0 0 0 0 0 0 0 0 0 0 0 0 0 2984 2984 2984 2984 2984 3010 3010 3010 3010 2984 2984 2984 2984 2984 3010 3010 3010 3010 3010 3010 3010 3010 3010 3010 3010 3010 3010 3010 3010 3010 3037 3037 3037 3010 3010 3010 2984 2984 2984 2984 2984 2984 2984 2984 3010 3010 3010 3010 3037 3037 3037 3037 3037 3037 3037 3037 3064 3064 3064 3064 3064 3064 3064 3064 3064 3064 3064 3064 3064 3064 3064 3064 3092 3092 3092 3092 3092 3092 3092 3092 3092 3120 3120 3120 3120 3149 3149 3178 3178 3178 3149 3149 3149 1680 1680 1680 1680 1680 1680 1680 1680 1680 1680 1688 1688 1688 1696 1696 1688 1688 1680 1663 1655 1655 1655 1655 1655 1655 1655 1647 1647 1647 1647 1647 1639 1639 1632 1632 1632 1632 1624 1624 1624 1616 1616 1616 1616 1616 1616 1616 1616 1609 1609 1609 1609 1609 1609 1601 1601 1601 1594 1594 1594 1586 1586 1586 1586 1586 1586 1586 1586 1586 1586 1586 1586 1579 1579 1579 1579 1572 1564 1557 1557 1550 1550 1550 1550 1550 1550 1550 1557 1557 1564 1564 1572 1572 1579 1579 1586 1586 2005 2016 2028 2028 2040 2040 2040 2040 2040 2040 2040 2040 2040 2040 2040 2040 2040 2040 2040 1410 1410 1410 1410 1410 1404 1404 1398 1398 1404 1404 1404 1410 1410 1415 1415 1421 1421 1427 1433 1433 2065 2065 2053 2053 2053 2053 2053 2065 2065 2065 2065 2065 2065 2065 2065 2053 2053 2053 2053 2053 2065 2065 2065 2065 2053 2053 2053 2040 2040 2040 1343 1338 1338 1338 1338 1333 1328 1328 1322 1322 1322 1322 1317 1317 1322 1322 1322 1322 1322 1322 1317 1317 1312 1312 1312 1312 1312 1312 1312 1312 1307 1307 1307 1307 1307 1302 1302 1302 1302 1302 1297 1292 1292 1292 1292 1288 1288 1288 1288 1283 1283 1283 1278 1273 1273 1268 1268 1268 1268 1264 1264 1264 1264 1264 1264 1264 1268 1268 1278 1278 1283 1283 1439 1445 1445 1445 1445 1445 1445 1439 1439 1439 1439 1439 1439 1439 1433 1433 1433 1433 1433 1427 1427 1421 1421 1415 1415 1415 1415 1415 1415 1415 1415 1415 1415 1410 1410 1410 1410 1410 1410 1410 1410 1410 1410 1404 1404 1404 1404 1404 1398 1398 1392 1392 1392 1381 1381 1381 1381 1381 1381 1381 1376 1376 1365 1365 1365 1359 1359 1359 1359 1359 1359 1359 1359 1359 1359 1354 1354 1354 1354 1354 1343 1343 1343 1343 1338 1338 1338 1338 1338 1338 1338 1333 1328 1328 1328 1322 1322 1322 1322 1322 1317 1317 1317 1317 1317 1317 1312 1307 1307 1312 1307 1307 1307 1307 1307 1307 1307 1307 1307 1302 1302 1302 1302 1302 1302 1302 1302 1302 1307 1307 1312 1312 1317 1317 1936 1936 1947 1947 1947 1936 1936 1936 1936 1936 1936 1936 1947 1947 3503 3503 3503 3539 3576 3576 3576 3576 3576 3576 3576 3576 3539 3539 3539 3539 3539 3576 3576 3576 3576 3576 3576 3576 3576 3576 3576 3576 3576 3576 3576 3576 3576 3576 3576 3576 3576 3576 3576 3576 3614 3614 3614 3614 3614 3614 3614 3576 3576 3576 3576 3539 3539 3539 3576 3576 3576 3576 3576 3614 3614 3614 3614 3576 3576 3576 3576 3614 3614 3614 3539 3539 3539 3539 3539 3539 3539 3539 3539 3539 3539 3539 3539 3539 3539 3539 3539 3539 3539 3539 3539 3539 3539 3539 3503 3503 3503 3503 3503 3539 3539 3539 3576 3576 3576 3539 3539 3539 3503 3503 3539 3539 3539 3539 3539 3539 0 0 0 0 0 0 0 0 0 0 0 0
0 0 0 0 0 0 0 0 0 0 0 0 0 0 0 0 0 0 0 0 0 0 0 0 0 0 0 0 0 0 0 0 2984 2984 2984 2984 2984 2984 2984 2984 2984 2984 2984 2984 2984 2984 2984 2984 2984 2984 2984 2984 3010 3010 2984 2984 2984 2984 2984 3010 3010 3010 3010 3010 3010 3010 3010 3010 2984 2984 2984 2984 2984 2984 2984 2984 3010 3010 3010 3010 3010 3010 3010 3010 3010 3010 3010 3037 3037 3037 3037 3037 3064 3064 3064 3064 3064 3064 3064 3064 3064 3064 3064 3064 3064 3064 3064 3064 3064 3064 3064 3092 3092 3092 3092 3120 3120 3149 3149 3178 3178 3178 3149 3149 3178 3178 1680 1680 1680 1680 1680 1680 1680 1680 1680 1688 1688 1696 1696 1696 1696 1696 1696 1680 1655 1655 1655 1655 1655 1655 1655 1655 1655 1655 1647 1647 1647 1647 1639 1639 1632 1632 1624 1624 1624 1624 1624 1616 1616 1616 1616 1616 1616 1616 1616 1609 1609 1609 1609 1601 1601 1601 1594 1594 1594 1586 1586 1586 1586 1586 1586 1586 1586 1586 1586 1586 1586 1586 1586 1579 1579 1579 1572 1564 1557 1557 1557 1557 1550 1550 1550 1550 1557 1557 1564 1564 1572 1579 1579 1579 1586 1586 1993 1993 2016 2028 2028 2028 2028 2028 2028 2028 2040 2040 2040 2028 2028 2028 2028 2028 2028 1410 1410 1410 1410 1410 1410 1404 1404 1404 1404 1410 1410 1410 1410 1415 1415 1421 1421 1427 1433 1433 1433 2040 2040 2040 2053 2053 2053 2053 2053 2053 2053 2053 2053 2053 2053 2040 2040 2040 2040 2040 2053 2053 2053 2053 2053 2053 2053 2040 2040 2040 2040 2040 2040 2053 2053 2053 1333 1328 1322 1322 1322 1322 1317 1317 1322 1322 1322 1322 1322 1322 1317 1317 1312 1312 1312 1312 1312 1312 1312 1312 1312 1307 1307 1307 1307 1307 1302 1302 1302 1302 1297 1292 1292 1292 1292 1292 1288 1288 1288 1288 1283 1283 1278 1278 1273 1268 1268 1268 1268 1268 1268 1264 1264 1264 1264 1264 1268 1278 1283 1283 1283 1288 1292 1445 1445 1452 1445 1445 1452 1445 1445 1439 1439 1439 1439 1439 1439 1439 1439 1433 1433 1427 1427 1421 1421 1421 1421 1421 1415 1415 1415 1415 1415 1415 1415 1415 1410 1410 1410 1410 1410 1410 1410 1410 1410 1410 1410 1404 1404 1404 1404 1398 1398 1392 1392 1387 1381 1381 1381 1381 1381 1381 1376 1376 1370 1370 1370 1365 1365 1365 1365 1365 1365 1359 1359 1359 1359 1359 1359 1359 1359 1354 1349 1349 1343 1343 1343 1343 1343 1343 1338 1338 1338 1338 1333 1333 1328 1328 1328 1322 1322 1322 1322 1317 1317 1317 1317 1317 1312 1312 1312 1312 1307 1307 1307 1307 1307 1307 1307 1302 1302 1302 1302 1302 1302 1297 1297 1297 1302 1302 1302 1302 1307 1307 1307 1959 1947 1947 1947 1947 1947 1947 1947 1947 1947 1936 1936 1947 1947 1947 3539 3539 3539 3539 3539 3576 3576 3576 3576 3539 3539 3539 3539 3539 3539 3539 3539 3539 3539 3539 3539 3539 3576 3576 3576 3576 3576 3576 3576 3576 3576 3576 3576 3539 3539 3576 3539 3539 3576 3576 3576 3576 3576 3576 3576 3576 3576 3576 3576 3539 3539 3539 3539 3539 3539 3539 3539 3576 3576 3576 3576 3614 3614 3576 3576 3576 3576 3576 3576 3576 3539 3539 3539 3539 3539 3539 3539 3539 3539 3539 3539 3539 3539 3539 3503 3503 3539 3539 3539 3539 3539 3539 3539 3503 3503 3503 3503 3503 3503 3503 3539 3539 3576 3576 3576 3539 3539 3539 3503 3503 3503 3503 3503 3503 3503 3503 0 0 0 0 0 0 0 0 0 0 0 0
0 0 0 0 0 0 0 0 0 0 0 0 0 0 0 0 0 0 0 0 0 0 0 0 0 0 0 0 0 0 0 0 2984 2984 2984 2984 2984 2984 2984 2984 2984 2984 2984 2984 2984 2984 2984 2984 2984 2984 2984 2984 2984 2984 2984 2984 2984 2984 2984 2984 2984 2984 3010 3010 3010 3010 3010 3010 2984 2958 2958 2984 2984 2984 2984 2984 2984 2984 2984 2984 2984 2984 2984 2984 2984 2984 2984 2984 3010 3010 3010 3010 3010 3037 3037 3037 3037 3037 3037 3064 3064 3064 3064 3064 3064 3064 3064 3064 3064 3064 3064 3092 3092 3092 3092 3120 3120 3120 3149 3149 3149 3178 3149 3149 3178 3178 3178 1688 1688 1680 1680 1680 1680 1680 1688 1688 1688 1696 1696 1705 1705 1705 1713 1713 1794 1655 1655 1655 1639 1639 1632 1632 1639 1647 1647 1647 1647 1647 1639 1639 1639 1639 1632 1632 1632 1624 1624 1616 1616 1616 1616 1616 1616 1616 1616 1609 1609 1609 1609 1609 1609 1601 1601 1601 1601 1594 1586 1586 1586 1586 1586 1586 1586 1586 1586 1586 1586 1586 1586 1579 1579 1579 1572 1564 1557 1557 1557 1557 1557 1550 1550 1550 1557 1557 1564 1572 1572 1579 1586 1586 1586 1586 1981 1993 2005 2016 2016 2028 2028 2028 2028 2028 2028 2028 2028 2028 2028 2028 2028 2028 2028 1415 1415 1415 1415 1410 1410 1410 1410 1410 1410 1410 1410 1410 1410 1415 1415 1421 1421 1427 1433 1433 1433 2028 2028 2040 2040 2040 2040 2040 2040 2040 2040 2040 2040 2040 2040 2040 2040 2040 2040 2040 2040 2040 2040 2040 2040 2040 2040 2040 2040 2040 2040 2040 2040 2040 2040 2053 2053 2053 2053 2040 2040 1317 1317 1317 1322 1322 1322 1322 1322 1322 1317 1317 1312 1312 1312 1312 1312 1312 1312 1312 1312 1307 1307 1307 1307 1307 1302 1302 1302 1302 1297 1292 1292 1292 1292 1292 1292 1292 1288 1288 1288 1283 1283 1278 1278 1273 1268 1268 1268 1268 1268 1268 1268 1268 1268 1268 1268 1278 1283 1283 1288 1292 1292 1452 1452 1452 1445 1445 1452 1445 1445 1439 1439 1439 1439 1439 1439 1439 1439 1433 1433 1427 1427 1427 1427 1421 1421 1421 1415 1415 1415 1415 1415 1415 1415 1415 1415 1415 1410 1410 1410 1410 1410 1410 1410 1410 1410 1410 1410 1404 1404 1404 1398 1398 1392 1387 1387 1387 1381 1381 1381 1381 1381 1381 1381 1381 1376 1370 1370 1370 1365 1365 1365 1365 1365 1365 1365 1359 1359 1359 1359 1359 1354 1354 1349 1343 1343 1343 1343 1343 1343 1343 1343 1338 1338 1333 1333 1328 1328 1322 1322 1322 1322 1322 1317 1317 1317 1317 1317 1312 1312 1312 1312 1307 1307 1307 1307 1307 1302 1302 1302 1302 1302 1297 1297 1297 1297 1297 1297 1297 1302 1302 1302 1302 1970 1959 1959 1947 1947 1947 1947 1947 1947 1947 1947 1947 1947 1959 1959 3468 3539 3539 3503 3503 3539 3539 3539 3539 3539 3539 3539 3539 3539 3539 3539 3539 3539 3539 3539 3539 3539 3539 3539 3576 3576 3576 3539 3539 3539 3539 3539 3539 3539 3539 3539 3539 3539 3539 3539 3539 3539 3576 3576 3576 3576 3576 3539 3539 3539 3539 3539 3539 3539 3539 3539 3539 3539 3539 3576 3576 3576 3576 3576 3539 3539 3539 3539 3539 3539 3539 3539 3539 3539 3539 3503 3503 3503 3503 3503 3503 3539 3539 3539 3503 3503 3503 3503 3503 3503 3503 3503 3503 3503 3503 3468 3468 3468 3468 3468 3503 3503 3539 3539 3539 3539 3539 3539 3539 3503 3503 3503 3503 3503 3503 3503 3503 0 0 0 0 0 0 0 0 0 0 0 0
0 0 0 0 0 0 0 0 0 0 0 0 0 0 0 0 0 0 0 0 0 0 0 0 0 0 0 0 0 0 0 0 2958 2958 2958 2958 2958 2958 2958 2958 2958 2958 2958 2958 2958 2958 2984 2984 2958 2958 2958 2984 2984 2984 2958 2958 2958 2958 2984 2984 2958 2958 2984 2984 3010 3010 2984 2984 2958 2958 2958 2958 2958 2958 2984 2984 2984 2984 2984 2984 2984 2984 2984 2984 2984 2984 2984 2984 2984 3010 3010 3010 3010 3010 3010 3010 3010 3010 3010 3037 3037 3064 3064 3064 3064 3064 3064 3064 3064 3064 3064 3064 3064 3092 3092 3092 3092 3120 3120 3149 3149 3178 3149 3149 3178 3178 0 1688 1688 1680 1680 1688 1688 1688 1688 1688 1696 1705 1705 1705 1705 1713 1713 1722 1785 1804 1813 1823 1639 1639 1632 1632 1639 1647 1647 1647 1647 1647 1639 1639 1639 1639 1632 1632 1632 1624 1624 1624 1624 1624 1624 1616 1616 1616 1616 1616 1609 1609 1609 1609 1609 1601 1601 1601 1601 1601 1594 1594 1594 1594 1586 1586 1586 1586 1586 1586 1586 1586 1586 1586 1579 1579 1572 1564 1557 1557 1557 1557 1557 1550 1550 1557 1557 1557 1564 1572 1572 1579 1586 1586 1586 1586 1981 1981 1993 2005 2005 2016 2005 2005 2016 2016 2016 2016 2016 2016 2016 2028 2028 2028 2028 1421 1415 1415 1415 1415 1410 1410 1410 1410 1410 1410 1410 1410 1410 1415 1415 1421 1421 1427 1433 1433 1433 2016 2016 2016 2028 2028 2028 2028 2028 2028 2028 2028 2028 2028 2028 2028 2028 2028 2028 2028 2028 2028 2028 2028 2028 2040 2040 2040 2040 2040 2040 2040 2040 2040 2040 2040 2053 2053 2040 2040 2040 2040 1317 1317 1322 1322 1322 1322 1322 1322 1317 1317 1317 1317 1312 1312 1312 1312 1312 1312 1312 1307 1307 1307 1307 1307 1307 1302 1302 1307 1297 1297 1297 1297 1297 1297 1292 1292 1292 1288 1288 1283 1283 1283 1278 1273 1273 1268 1268 1268 1268 1268 1268 1268 1268 1268 1273 1283 1288 1288 1288 1292 1297 1452 1452 1452 1452 1452 1452 1445 1445 1445 1445 1439 1439 1439 1439 1439 1439 1433 1433 1433 1427 1427 1427 1427 1421 1421 1421 1421 1415 1415 1415 1415 1415 1415 1415 1415 1410 1410 1410 1410 1410 1410 1410 1410 1410 1410 1410 1404 1404 1404 1398 1398 1392 1387 1387 1387 1387 1381 1381 1381 1381 1381 1381 1381 1376 1376 1376 1370 1370 1370 1370 1365 1365 1365 1365 1365 1365 1365 1359 1359 1359 1359 1354 1349 1343 1343 1343 1343 1343 1343 1343 1343 1343 1338 1338 1338 1333 1333 1328 1328 1328 1322 1322 1322 1322 1322 1317 1317 1317 1317 1312 1312 1312 1307 1307 1302 1302 1302 1302 1302 1302 1297 1297 1297 1297 1297 1297 1297 1302 1302 1297 1297 1970 1970 1959 1947 1947 1947 1947 1947 1947 1947 1947 1947 1947 1959 1959 3468 3468 3468 3468 3503 3503 3503 3468 3468 3503 3503 3503 3503 3503 3503 3503 3503 3503 3503 3503 3503 3503 3503 3503 3503 3503 3503 3503 3503 3503 3468 3468 3468 3468 3468 3468 3468 3468 3468 3503 3503 3503 3539 3539 3539 3539 3539 3539 3539 3539 3539 3539 3503 3503 3503 3503 3539 3539 3539 3539 3576 3576 3576 3539 3539 3539 3503 3503 3539 3539 3539 3503 3503 3503 3503 3503 3503 3503 3503 3503 3503 3503 3503 3503 3503 3503 3503 3503 3503 3503 3503 3503 3503 3503 3468 3468 3468 3468 3468 3468 3468 3468 3468 3503 3503 3539 3539 3503 3503 3503 3503 3503 3503 3503 3468 3468 3503 0 0 0 0 0 0 0 0 0 0 0 0
0 0 0 0 0 0 0 0 0 0 0 0 0 0 0 0 0 0 0 0 0 0 0 0 0 0 0 0 0 0 0 0 2958 2958 2958 2958 2958 2958 2958 2958 2958 2933 2933 2933 2958 2958 2958 2958 2958 2908 2908 2908 2958 2958 2933 2933 2933 2958 2958 2958 2933 2933 2933 2958 2958 2984 2984 2984 2958 2958 2958 2958 2958 2958 2958 2958 2984 2984 2984 2984 2984 2984 2984 2984 2984 2984 2984 2984 2984 2984 2984 2984 2984 2984 2984 3010 3010 3010 3010 3037 3037 3064 3064 3064 3064 3064 3064 3064 3064 3064 3064 3064 3064 3092 3092 3092 3092 3092 3092 3092 3092 3120 3149 3149 3149 3149 0 1688 1688 1688 1688 1688 1688 1688 1688 1696 1696 1705 1705 1713 1713 1713 1722 1722 1785 1804 1813 1823 1833 1843 1843 1639 1639 1647 1647 1647 1647 1647 1647 1639 1639 1639 1639 1632 1632 1624 1624 1624 1624 1624 1616 1616 1616 1616 1616 1616 1616 1609 1609 1609 1609 1601 1601 1601 1601 1601 1594 1594 1594 1594 1586 1586 1586 1586 1586 1586 1586 1586 1586 1586 1579 1579 1572 1564 1564 1557 1557 1557 1557 1557 1557 1557 1557 1557 1564 1572 1579 1586 1586 1586 1594 1970 1981 1981 1993 1993 1993 1993 1993 1993 1993 1993 2005 2005 2005 2005 2005 2016 2016 2028 2028 1421 1421 1421 1421 1415 1415 1415 1415 1415 1415 1415 1415 1415 1415 1415 1415 1421 1421 1427 1433 1433 1433 2005 2005 2016 2016 2016 2016 2005 2005 2016 2016 2016 2016 2016 2016 2016 2016 2016 2016 2016 2016 2016 2028 2028 2028 2040 2040 2040 2040 2040 2040 2040 2028 2028 2028 2040 2040 2040 2040 2040 2040 2040 2028 2028 2028 2028 2028 2028 2028 2028 1317 1317 1317 1317 1317 1312 1312 1312 1312 1312 1312 1312 1312 1307 1307 1307 1307 1307 1307 1307 1297 1297 1297 1297 1297 1297 1292 1292 1292 1288 1288 1288 1283 1283 1278 1278 1273 1273 1273 1268 1268 1268 1268 1268 1268 1268 1273 1283 1288 1288 1288 1297 1297 1452 1452 1452 1452 1452 1452 1445 1445 1445 1445 1439 1439 1439 1439 1439 1439 1433 1433 1433 1433 1427 1427 1427 1427 1427 1421 1421 1421 1415 1415 1415 1415 1415 1415 1415 1410 1410 1410 1410 1410 1410 1410 1410 1410 1410 1410 1410 1404 1404 1404 1398 1398 1392 1387 1387 1387 1381 1381 1381 1381 1381 1381 1381 1381 1376 1376 1376 1370 1370 1370 1365 1365 1365 1365 1365 1365 1365 1365 1359 1359 1359 1359 1354 1349 1349 1349 1349 1349 1349 1349 1349 1343 1343 1338 1338 1333 1333 1333 1333 1328 1328 1328 1328 1322 1322 1322 1322 1322 1317 1317 1317 1312 1307 1307 1302 1302 1302 1302 1302 1302 1302 1302 1297 1297 1297 1302 1302 1302 1297 1292 1292 1970 1970 1970 1947 1947 1947 1947 1947 1947 1947 1947 1947 1947 1959 1959 3468 3468 3468 3468 3468 3468 3468 3468 3468 3468 3468 3468 3468 3468 3468 3503 3468 3468 3468 3468 3468 3468 3468 3468 3468 3468 3468 3468 3503 3468 3468 3468 3433 3433 3433 3468 3468 3468 3468 3503 3503 3503 3539 3503 3503 3503 3539 3503 3503 3503 3503 3503 3503 3503 3503 3503 3503 3468 3468 3468 3468 3503 3503 3503 3503 3503 3503 3503 3503 3503 3503 3468 3468 3503 3503 3503 3503 3503 3503 3503 3503 3503 3503 3468 3468 3468 3468 3468 3468 3468 3468 3468 3468 3468 3468 3433 3433 3433 3433 3468 3468 3433 3433 3468 3503 3503 3503 3503 3503 3503 3503 3503 3503 3503 3468 3468 3468 0 0 0 0 0 0 0 0 0 0 0 0
0 0 0 0 0 0 0 0 0 0 0 0 0 0 0 0 0 0 0 0 0 0 0 0 0 0 0 0 0 0 0 0 2908 2908 2908 2908 2908 2933 2933 2933 2933 2908 2908 2933 2933 2933 2933 2958 2933 2908 2908 2908 2933 2933 2908 2908 2908 2933 2933 2933 2933 2933 2933 2958 2958 2958 2958 2958 2933 2933 2933 2958 2958 2958 2958 2958 2958 2984 2984 2984 2984 2984 2984 2984 2984 2984 2984 2958 2958 2984 2984 2984 2984 2984 2984 2984 3010 3010 3010 3010 3037 3037 3037 3037 3064 3064 3064 3064 3064 3064 3064 3064 3064 3092 3092 3092 3092 3092 3092 3092 3092 3092 3120 3120 3120 3120 0 1688 1688 1688 1688 1688 1688 1688 1688 1696 1696 1705 1705 1713 1713 1713 1722 1722 1785 1804 1804 1813 1823 1833 1833 1833 1833 1647 1647 1655 1655 1655 1639 1639 1639 1632 1632 1632 1632 1624 1624 1624 1624 1624 1616 1616 1616 1616 1616 1616 1616 1616 1609 1609 1609 1609 1609 1601 1601 1601 1601 1601 1594 1594 1594 1594 1594 1594 1586 1586 1586 1586 1586 1586 1579 1579 1579 1572 1564 1557 1557 1557 1557 1557 1557 1557 1557 1564 1572 1572 1579 1586 1586 1586 1586 1594 1981 1981 1981 1993 1993 1993 1993 1993 1993 1993 1993 1993 1993 1993 1993 2005 2005 2016 2016 1421 1421 1421 1421 1415 1415 1415 1415 1415 1415 1415 1415 1415 1415 1415 1415 1421 1427 1427 1433 1433 1433 1993 1993 1993 1993 1993 2005 2005 2005 2005 2016 2005 2005 2005 2005 2016 2016 2005 2005 2005 2016 2016 2016 2016 2016 2028 2028 2028 2028 2028 2028 2028 2028 2028 2028 2028 2028 2028 2028 2028 2028 2028 2028 2028 2028 2028 2028 2028 2028 2028 2028 2028 2053 2053 2065 1312 1312 1317 1312 1312 1312 1312 1312 1307 1307 1312 1307 1307 1307 1307 1302 1302 1297 1297 1297 1297 1292 1292 1292 1288 1288 1288 1288 1283 1283 1278 1278 1273 1273 1273 1273 1268 1268 1268 1268 1273 1273 1283 1288 1288 1288 1292 1297 1458 1458 1458 1452 1452 1452 1452 1452 1445 1445 1445 1439 1439 1439 1439 1439 1439 1439 1433 1433 1433 1433 1433 1427 1427 1427 1421 1421 1421 1421 1415 1415 1415 1415 1415 1410 1410 1410 1410 1410 1410 1410 1410 1410 1410 1410 1410 1410 1404 1404 1404 1398 1392 1387 1387 1387 1387 1381 1381 1381 1381 1381 1381 1381 1376 1376 1376 1370 1370 1370 1370 1365 1365 1365 1365 1365 1365 1365 1365 1359 1359 1359 1359 1354 1354 1354 1354 1354 1354 1354 1349 1349 1349 1343 1343 1338 1338 1338 1333 1333 1333 1333 1333 1328 1328 1322 1322 1322 1317 1317 1317 1317 1312 1312 1307 1307 1302 1302 1302 1302 1302 1302 1302 1302 1297 1297 1302 1302 1297 1292 1292 1970 1970 1970 1947 1947 1947 1947 1947 1947 1947 1947 1947 1947 1959 1959 3539 3503 3468 3468 3433 3433 3433 3433 3433 3433 3468 3468 3468 3468 3468 3468 3468 3468 3468 3433 3433 3433 3433 3433 3468 3468 3468 3468 3468 3468 3468 3468 3433 3433 3433 3468 3468 3468 3468 3468 3468 3468 3468 3468 3468 3468 3468 3468 3468 3468 3503 3503 3503 3468 3468 3468 3503 3468 3433 3433 3433 3468 3468 3503 3468 3468 3503 3503 3503 3503 3503 3468 3468 3503 3468 3468 3468 3503 3503 3503 3503 3468 3468 3468 3433 3433 3433 3433 3468 3468 3433 3433 3433 3433 3433 3399 3399 3399 3433 3433 3433 3433 3433 3433 3433 3433 3433 3433 3468 3433 3433 3468 3433 3433 3468 3468 3468 3468 0 0 0 0 0 0 0 0 0 0 0
0 0 0 0 0 0 0 0 0 0 0 0 0 0 0 0 0 0 0 0 0 0 0 0 0 0 0 0 0 0 0 0 2908 2908 2908 2908 2908 2908 2908 2908 2908 2908 2908 2908 2908 2908 2933 2908 2908 2908 2908 2908 2908 2908 2908 2908 2908 2908 2933 2933 2908 2908 2933 2933 2933 2933 2933 2933 2908 2908 2933 2933 2933 2933 2958 2958 2958 2958 2958 2958 2958 2984 2984 2984 2958 2958 2958 2958 2958 2958 2958 2958 2958 2984 2984 2984 2984 3010 3010 3010 3037 3037 3037 3037 3064 3064 3064 3064 3064 3064 3064 3064 3064 3064 3064 3064 3064 3064 3064 3064 3064 3092 3092 3120 3120 3120 0 1688 1688 1688 1688 1688 1688 1688 1688 1696 1696 1705 1705 1713 1713 1722 1722 1722 1731 1804 1804 1813 1823 1833 1833 1833 1833 3092 1655 1655 1655 1647 1639 1639 1632 1632 1632 1632 1624 1624 1616 1616 1624 1624 1616 1616 1616 1616 1616 1616 1616 1616 1616 1609 1609 1609 1609 1609 1609 1609 1601 1601 1601 1601 1594 1594 1594 1594 1594 1594 1586 1586 1586 1586 1586 1586 1579 1572 1572 1564 1557 1557 1557 1557 1557 1557 1564 1564 1572 1579 1579 1586 1586 1586 1586 1594 1981 1981 1981 1981 1981 1981 1981 1981 1981 1981 1981 1993 1993 1993 1993 1993 2005 2016 2016 1421 1421 1421 1421 1415 1415 1415 1415 1415 1415 1415 1415 1415 1415 1415 1421 1421 1427 1433 1439 1439 1439 1981 1981 1993 1993 1993 1993 1993 1993 1993 2005 2005 2005 2005 2005 2005 2005 2005 2005 2005 2005 2005 2016 2016 2016 2016 2016 2016 2016 2016 2016 2016 2016 2016 2016 2016 2016 2016 2016 2016 2016 2028 2016 2016 2016 2016 2016 2028 2028 2028 2028 2028 2040 2040 2053 2053 2156 2156 2170 1312 1312 1312 1312 1307 1307 1312 1307 1307 1307 1307 1302 1302 1302 1302 1302 1297 1297 1297 1297 1288 1288 1288 1283 1283 1283 1283 1278 1278 1278 1273 1273 1273 1273 1273 1273 1273 1273 1283 1288 1288 1288 1292 1292 1458 1458 1458 1452 1452 1452 1452 1452 1452 1445 1445 1445 1439 1439 1439 1439 1439 1439 1433 1433 1433 1433 1433 1427 1427 1427 1421 1421 1421 1421 1421 1415 1415 1415 1415 1415 1415 1415 1410 1410 1415 1415 1410 1410 1410 1410 1410 1410 1404 1404 1404 1398 1392 1387 1387 1387 1387 1387 1387 1381 1381 1381 1381 1381 1381 1381 1376 1376 1376 1376 1370 1370 1365 1365 1365 1365 1365 1365 1365 1365 1359 1359 1359 1359 1359 1359 1359 1354 1354 1354 1354 1354 1349 1343 1343 1343 1338 1338 1338 1338 1338 1333 1333 1328 1328 1328 1328 1322 1322 1322 1317 1317 1312 1312 1307 1307 1307 1302 1302 1302 1302 1302 1302 1302 1297 1297 1302 1302 1297 1292 1292 1981 1970 1970 1947 1947 1947 1947 1947 1947 1947 1947 1947 1947 1947 1947 3539 3433 3433 3433 3433 3433 3433 3433 3433 3433 3433 3433 3433 3433 3433 3433 3433 3433 3433 3433 3433 3433 3433 3433 3433 3468 3468 3468 3468 3468 3468 3468 3433 3433 3433 3433 3433 3433 3433 3433 3433 3468 3468 3468 3433 3433 3433 3433 3433 3433 3433 3468 3468 3468 3468 3468 3468 3433 3433 3433 3433 3433 3468 3468 3433 3433 3468 3468 3468 3468 3468 3433 3433 3468 3468 3468 3468 3468 3468 3468 3468 3468 3468 3433 3433 3433 3433 3433 3468 3433 3433 3433 3433 3399 3399 3399 3399 3399 3399 3399 3399 3399 3399 3433 3433 3433 3433 3433 3433 3433 3433 3433 3433 3433 3433 3433 3468 3468 0 0 0 0 0 0 0 0 0 0 0
0 0 0 0 0 0 0 0 0 0 0 0 0 0 0 0 0 0 0 0 0 0 0 0 0 0 0 0 0 0 0 0 2883 2883 2883 2883 2883 2883 2883 2883 2883 2883 2883 2883 2908 2908 2908 2908 2908 2908 2908 2908 2908 2908 2908 2908 2908 2908 2908 2908 2908 2908 2908 2908 2933 2908 2908 2908 2908 2908 2908 2908 2908 2933 2933 2933 2933 2933 2933 2933 2933 2958 2958 2958 2958 2958 2958 2958 2958 2958 2958 2958 2958 2958 2958 2984 2984 3010 3010 3010 3037 3037 3037 3037 3037 3064 3064 3064 3064 3064 3064 3064 3064 3064 3064 3064 3064 3064 3064 3064 3064 3092 3092 3092 3092 3092 1705 1696 1696 1696 1696 1696 1696 1696 1696 1696 1696 1705 1705 1713 1713 1722 1722 1722 1731 1794 1794 1813 1823 1823 1833 1833 3092 3092 3064 3064 1655 1647 1639 1639 1632 1632 1632 1632 1624 1624 1616 1616 1624 1624 1616 1616 1616 1616 1616 1616 1616 1616 1616 1616 1616 1609 1609 1609 1609 1609 1609 1609 1601 1601 1601 1594 1594 1594 1594 1594 1594 1586 1586 1586 1586 1586 1579 1579 1572 1564 1564 1564 1557 1557 1557 1564 1564 1572 1572 1579 1579 1586 1586 1586 1586 1594 1970 1970 1970 1981 1981 1981 1981 1981 1981 1981 1981 1981 1981 1981 1981 1981 1993 2016 2016 1421 1421 1421 1421 1415 1415 1415 1421 1415 1415 1415 1415 1415 1415 1421 1421 1421 1427 1433 1439 1439 1439 1981 1981 1981 1981 1981 1981 1981 1981 1981 1981 1993 1993 1993 1993 1993 1993 1993 1993 1993 1993 1993 2005 2005 2005 2016 2016 2016 2016 2016 2016 2005 2005 2005 2005 2005 2016 2016 2005 2005 2016 2016 2016 2016 2005 2005 2016 2016 2016 2016 2028 2028 2040 2040 2053 2078 2116 2156 2170 2170 2170 2184 2184 2184 2349 1312 1312 1312 1312 1312 1307 1307 1307 1307 1307 1302 1302 1297 1297 1288 1288 1288 1283 1283 1283 1283 1278 1278 1278 1278 1278 1273 1273 1273 1273 1273 1278 1283 1288 1288 1288 1292 1292 1458 1458 1458 1452 1452 1452 1452 1452 1452 1445 1445 1445 1439 1439 1439 1439 1439 1439 1433 1433 1433 1433 1433 1433 1427 1427 1427 1427 1421 1421 1421 1415 1415 1415 1415 1415 1415 1415 1415 1415 1415 1415 1410 1410 1410 1410 1410 1410 1404 1404 1404 1398 1392 1392 1387 1387 1387 1387 1387 1387 1387 1381 1381 1381 1381 1381 1381 1376 1376 1376 1370 1370 1365 1365 1365 1365 1365 1365 1365 1365 1359 1359 1359 1359 1359 1359 1359 1359 1359 1359 1354 1354 1349 1349 1343 1343 1343 1343 1338 1338 1338 1338 1338 1333 1333 1328 1328 1328 1322 1322 1322 1317 1317 1317 1312 1312 1307 1307 1307 1307 1302 1302 1302 1302 1302 1302 1302 1302 1302 1302 1302 1312 1970 1970 1947 1947 1947 1947 1947 1947 1947 1947 1947 1947 1947 1947 3433 3433 3399 3399 3399 3399 3399 3399 3399 3399 3433 3433 3433 3433 3433 3433 3433 3433 3433 3433 3433 3433 3433 3433 3433 3433 3433 3433 3433 3468 3468 3468 3433 3433 3433 3433 3433 3433 3433 3433 3433 3433 3433 3433 3433 3433 3433 3433 3433 3433 3433 3433 3433 3433 3433 3433 3433 3433 3433 3433 3433 3433 3433 3433 3433 3433 3433 3468 3433 3433 3468 3433 3433 3433 3433 3433 3433 3433 3433 3433 3433 3433 3433 3399 3399 3399 3433 3433 3433 3433 3399 3399 3399 3399 3399 3399 3399 3399 3399 3399 3399 3399 3399 3433 3433 3433 3433 3433 3433 3399 3399 3399 3399 3399 3399 3433 3468 0 0 0 0 0 0 0 0 0 0 0 0
0 0 0 0 0 0 0 0 0 0 0 0 0 0 0 0 0 0 0 0 0 0 0 0 0 0 0 0 0 0 0 0 2883 2883 2883 2883 2883 2883 2883 2883 2859 2859 2859 2883 2883 2883 2908 2908 2908 2908 2908 2908 2908 2908 2908 2908 2908 2908 2908 2908 2908 2908 2908 2908 2908 2908 2908 2908 2883 2883 2883 2908 2908 2908 2908 2908 2933 2933 2933 2933 2933 2933 2958 2958 2958 2958 2958 2958 2958 2958 2958 2958 2958 2958 2958 2984 2984 2984 3010 3010 3010 3037 3037 3037 3037 3037 3037 3064 3064 3064 3037 3037 3037 3037 3037 3037 3037 3064 3064 3064 3064 3064 3064 3092 3092 3092 1705 1705 1696 1696 1696 1696 1696 1696 1696 1696 1705 1705 1713 1713 1713 1722 1722 1722 1731 1794 1794 1813 1823 1823 1823 3064 3064 3064 3064 3064 3064 3064 3064 3064 3064 3064 3064 3064 3149 3149 3149 1632 1632 1624 1616 1616 1616 1616 1616 1616 1616 1616 1616 1616 1616 1616 1616 1616 1609 1609 1609 1609 1609 1609 1609 1601 1601 1601 1601 1594 1594 1594 1586 1586 1586 1586 1579 1572 1572 1564 1564 1564 1564 1557 1557 1564 1564 1572 1572 1579 1579 1586 1586 1586 1586 1594 1959 1959 1959 1970 1970 1970 1970 1970 1970 1970 1970 1970 1981 1981 1970 1970 1981 1981 1981 1427 1427 1427 1421 1421 1421 1421 1421 1421 1415 1415 1415 1415 1421 1421 1421 1421 1433 1433 1439 1439 1439 1981 1981 1981 1970 1970 1970 1981 1981 1981 1981 1981 1981 1981 1981 1981 1981 1981 1981 1981 1981 1981 1993 1993 1993 1993 1993 1981 1981 1981 2005 2005 2005 2005 2005 2005 2005 2005 2005 2005 2005 2005 2005 2005 1993 1993 2005 2005 2005 2016 2016 2028 2040 2040 2053 2078 2116 2156 2170 2170 2170 2184 2184 2184 2349 2333 1317 1317 1317 1322 2349 2349 2349 2365 1307 1307 1307 1302 1297 1292 1288 1288 1283 1283 1283 1283 1283 1283 1278 1278 1278 1278 1273 1273 1273 1273 1278 1283 1288 1288 1288 1292 1292 1458 1458 1458 1452 1452 1452 1452 1452 1452 1445 1445 1445 1445 1445 1439 1439 1439 1439 1433 1433 1433 1433 1433 1433 1433 1433 1427 1427 1421 1421 1421 1421 1415 1415 1415 1415 1415 1415 1415 1415 1415 1415 1410 1410 1410 1410 1410 1410 1404 1404 1404 1404 1392 1392 1392 1387 1387 1387 1387 1387 1387 1381 1381 1381 1381 1381 1381 1376 1376 1376 1370 1370 1365 1365 1365 1365 1365 1365 1365 1365 1365 1365 1359 1359 1359 1359 1359 1359 1359 1359 1354 1354 1354 1349 1343 1343 1343 1343 1338 1338 1338 1338 1338 1338 1333 1333 1328 1328 1322 1322 1322 1322 1317 1317 1317 1317 1312 1312 1312 1307 1307 1307 1302 1302 1302 1302 1302 1307 1307 1307 1307 1312 1970 1970 1947 1947 1947 1947 1947 1947 1947 1947 1947 1947 1947 1947 3433 3399 3399 3399 3399 3399 3399 3399 3399 3399 3399 3433 3433 3433 3433 3433 3399 3399 3399 3399 3399 3433 3399 3399 3399 3433 3433 3433 3433 3433 3433 3433 3433 3433 3433 3433 3433 3433 3433 3433 3433 3433 3433 3433 3433 3433 3433 3433 3433 3433 3433 3433 3433 3433 3433 3433 3433 3433 3433 3433 3433 3433 3433 3433 3433 3433 3433 3433 3433 3433 3468 3433 3433 3433 3399 3399 3399 3399 3399 3399 3399 3399 3399 3399 3399 3399 3399 3399 3399 3399 3399 3399 3399 3399 3399 3399 3399 3399 3365 3365 3365 3365 3365 3399 3399 3399 3399 3399 3399 3399 3399 3399 3399 3399 3399 3399 0 0 0 0 0 0 0 0 0 0 0 0 0
0 0 0 0 0 0 0 0 0 0 0 0 0 0 0 0 0 0 0 0 0 0 0 0 0 0 0 0 0 0 0 0 2883 2883 2883 2883 2883 2883 2883 2859 2859 2859 2859 2859 2859 2883 2883 2908 2908 2883 2883 2908 2908 2908 2908 2883 2883 2908 2883 2883 2883 2883 2908 2908 2908 2908 2908 2908 2883 2883 2883 2883 2883 2908 2908 2908 2908 2933 2908 2908 2908 2908 2908 2933 2933 2933 2958 2958 2958 2958 2958 2958 2958 2958 2958 2984 2984 2984 2984 2984 3010 3010 3010 3010 3010 3010 3037 3037 3037 3037 3037 3037 3037 3037 3037 3037 3037 3064 3064 3064 3064 3064 3064 3064 3064 3064 1705 1705 1696 1696 1696 1696 1696 1696 1705 1705 1705 1705 1713 1713 1713 1722 1722 1722 1731 1794 1804 1813 1823 1823 1823 3064 3064 3064 3064 3064 3064 3064 3064 3064 3064 3064 3064 3092 3149 3149 1904 1904 1904 1904 1904 1904 1904 1624 1624 1624 1624 1624 1616 1616 1616 1616 1616 1616 1616 1616 1616 1616 1616 1616 1616 1609 1609 1601 1601 1594 1594 1586 1586 1586 1579 1579 1572 1572 1572 1564 1564 1564 1564 1564 1564 1564 1564 1572 1572 1579 1579 1586 1586 1586 1586 1594 1936 1947 1947 1947 1947 1959 1959 1959 1959 1959 1959 1959 1959 1959 1959 1959 1970 1970 1970 1970 1427 1427 1427 1421 1421 1421 1421 1421 1421 1421 1421 1421 1421 1421 1421 1427 1433 1439 1439 1439 1439 1970 1970 1970 1970 1970 1970 1970 1970 1970 1970 1981 1981 1981 1981 1981 1981 1981 1981 1981 1981 1981 1981 1981 1981 1993 1993 1981 1981 1981 1993 1993 1993 1993 1993 1993 1993 2005 1993 1993 1993 1993 1993 1993 1981 1981 1993 1993 1993 2005 2016 2016 2028 2040 2040 2078 2116 2156 2170 2170 2184 2184 2184 2349 2349 2333 2333 2333 2349 2349 2349 2349 2365 2365 2381 2381 1307 1307 1307 1288 1288 1283 1283 1283 1283 1283 1283 1283 1283 1278 1278 1278 1278 1273 1273 1278 1278 1283 1288 1288 1288 1292 1292 1458 1458 1458 1452 1452 1452 1452 1452 1452 1452 1452 1445 1445 1445 1445 1439 1439 1439 1439 1433 1433 1433 1433 1433 1433 1433 1427 1427 1427 1427 1421 1421 1421 1415 1415 1415 1415 1415 1415 1415 1415 1415 1415 1410 1410 1410 1410 1410 1410 1404 1404 1404 1392 1392 1392 1387 1387 1387 1387 1387 1387 1387 1387 1381 1381 1381 1381 1381 1376 1376 1370 1370 1370 1365 1365 1365 1365 1365 1365 1365 1365 1365 1359 1359 1359 1359 1359 1359 1359 1359 1354 1354 1354 1349 1349 1343 1343 1343 1343 1343 1343 1338 1338 1338 1338 1333 1333 1328 1328 1322 1322 1322 1317 1317 1317 1317 1317 1312 1312 1312 1312 1312 1307 1307 1302 1302 1302 1307 1307 1307 1307 1312 1970 1970 1947 1947 1947 1947 1947 1947 1947 1947 1936 1936 1936 1936 3399 3365 3365 3365 3365 3365 3365 3365 3365 3399 3399 3399 3399 3399 3399 3399 3399 3399 3399 3399 3399 3399 3399 3399 3399 3399 3399 3399 3433 3433 3433 3433 3433 3433 3399 3399 3399 3399 3399 3399 3399 3399 3399 3399 3433 3433 3433 3399 3399 3399 3399 3399 3399 3399 3399 3399 3399 3399 3399 3399 3399 3399 3399 3399 3399 3399 3399 3433 3433 3433 3433 3399 3399 3399 3399 3399 3399 3399 3399 3399 3399 3399 3399 3399 3399 3399 3399 3399 3399 3399 3399 3399 3399 3399 3365 3365 3365 3365 3365 3365 3365 3365 3365 3365 3365 3365 3365 3365 3365 3365 3365 3399 3399 3399 3399 3399 0 0 0 0 0 0 0 0 0 0 0 0 0
0 0 0 0 0 0 0 0 0 0 0 0 0 0 0 0 0 0 0 0 0 0 0 0 0 0 0 0 0 0 0 0 2883 2883 2883 2883 2883 2883 2859 2859 2859 2859 2859 2859 2859 2859 2883 2883 2883 2883 2883 2883 2908 2883 2883 2883 2883 2883 2883 2883 2883 2883 2883 2883 2883 2883 2883 2908 2883 2883 2883 2883 2883 2883 2883 2883 2908 2908 2908 2908 2908 2908 2908 2908 2908 2908 2933 2933 2933 2958 2958 2958 2958 2958 2958 2958 2984 2984 2984 2984 2984 2984 3010 3010 3010 3010 3010 3010 3010 3010 3010 3010 3010 3037 3037 3037 3037 3037 3037 3037 3037 3064 3064 3064 3064 3064 1705 1705 1705 1705 1705 1705 1696 1696 1705 1705 1705 1713 1713 1713 1713 1722 1722 1722 1731 1794 1804 1813 1823 1823 1823 3064 3064 3064 3037 3037 3064 3064 3037 3037 3037 3037 3064 3064 3064 1904 1904 1904 1904 1915 1904 1904 1904 1904 1894 1894 1894 1624 1616 1616 1616 1616 1616 1616 1616 1616 1894 1894 1904 1904 1616 1616 1609 1609 1609 1594 1594 1586 1586 1579 1579 1579 1572 1572 1572 1564 1564 1564 1564 1564 1572 1572 1572 1572 1572 1579 1579 1586 1586 1586 1594 1594 1936 1936 1936 1947 1947 1947 1947 1947 1947 1947 1947 1947 1947 1947 1947 1947 1947 1947 1947 1959 1959 1427 1427 1421 1421 1421 1421 1421 1421 1421 1421 1421 1421 1421 1421 1427 1433 1439 1445 1445 1445 1445 1970 1970 1959 1959 1959 1970 1970 1959 1959 1970 1970 1970 1970 1970 1981 1981 1981 1970 1970 1970 1981 1981 1981 1981 1981 1981 1981 1981 1981 1993 1993 1993 1993 1993 1993 1993 1993 1993 1993 1993 1993 1981 1981 1981 1993 1993 1993 2005 2016 2016 2028 2040 2040 2129 2156 2156 2170 2170 2184 2184 2198 2349 2349 2333 2333 2333 2349 2349 2349 2349 2365 2365 2381 2381 2381 2381 1288 1288 1288 1283 1283 1283 1283 1283 1283 1283 1278 1278 1283 1278 1278 1278 1278 1278 1278 1288 1288 1288 1288 1292 1292 1458 1458 1458 1452 1452 1445 1445 1445 1445 1452 1452 1452 1445 1445 1445 1439 1439 1439 1439 1439 1433 1433 1433 1433 1433 1433 1427 1427 1427 1427 1427 1421 1421 1421 1415 1415 1415 1415 1415 1415 1415 1415 1415 1410 1410 1410 1410 1410 1410 1410 1404 1404 1392 1392 1392 1387 1387 1387 1387 1387 1387 1387 1387 1381 1381 1381 1381 1381 1376 1376 1370 1370 1365 1365 1365 1365 1365 1365 1365 1365 1365 1365 1365 1359 1359 1359 1359 1359 1359 1359 1359 1354 1354 1349 1349 1343 1343 1343 1343 1343 1343 1338 1338 1338 1338 1338 1333 1328 1328 1328 1322 1322 1322 1322 1317 1317 1317 1317 1317 1317 1312 1312 1312 1312 1307 1307 1307 1307 1307 1307 1307 1970 1970 1970 1947 1947 1947 1947 1947 1947 1947 1947 1936 1936 1936 3399 3399 3365 3333 3333 3365 3365 3365 3365 3365 3365 3365 3399 3365 3365 3365 3399 3399 3365 3365 3399 3399 3399 3399 3399 3399 3399 3399 3399 3399 3399 3399 3399 3399 3399 3399 3399 3399 3399 3399 3399 3399 3399 3399 3399 3399 3399 3399 3399 3399 3399 3399 3365 3365 3365 3365 3399 3399 3399 3399 3399 3399 3399 3399 3399 3399 3399 3399 3399 3433 3433 3433 3399 3399 3399 3399 3399 3399 3399 3399 3399 3399 3399 3399 3365 3365 3365 3365 3365 3365 3365 3365 3365 3365 3365 3365 3365 3365 3365 3333 3333 3300 3300 3300 3300 3300 3300 3333 3333 3365 3365 3365 3365 3365 3365 3399 3399 0 0 0 0 0 0 0 0 0 0 0 0 0
0 0 0 0 0 0 0 0 0 0 0 0 0 0 0 0 0 0 0 0 0 0 0 0 0 0 0 0 0 0 0 0 2859 2859 2883 2883 2883 2883 2859 2859 2859 2835 2835 2835 2835 2835 2859 2859 2859 2883 2883 2883 2883 2883 2883 2883 2883 2883 2883 2859 2859 2883 2883 2883 2883 2883 2883 2883 2859 2859 2859 2883 2883 2883 2883 2883 2883 2883 2883 2883 2883 2883 2883 2908 2908 2908 2908 2933 2933 2933 2958 2958 2958 2958 2958 2958 2958 2984 2984 2984 2984 2984 2984 2984 2984 2984 2984 2984 2984 2984 2984 2984 2984 3010 3010 3010 3037 3037 3037 3037 3037 3037 3037 3037 3037 3037 3037 1705 1705 1705 1705 1705 1705 1705 1705 1705 1713 1713 1713 1713 1713 1722 1722 1722 1731 1785 1794 1813 1823 1823 1833 1833 3064 3064 3037 3037 3037 3037 3037 3037 3037 3037 3037 3064 3064 1904 1904 1904 1904 1904 1904 1904 1894 1894 1894 1894 1894 1904 1894 1894 1616 1616 1904 1904 1894 1894 1894 1894 1904 1904 1904 1904 1904 1904 1926 1926 1926 1586 1586 1579 1579 1579 1572 1572 1572 1564 1564 1572 1564 1564 1572 1572 1572 1579 1579 1579 1586 1586 1586 1586 1594 1594 1936 1936 1936 1936 1936 1936 1936 1936 1936 1936 1936 1947 1936 1936 1936 1936 1936 1936 1936 1936 1947 1427 1427 1421 1421 1421 1421 1421 1421 1421 1421 1421 1421 1421 1421 1427 1433 1439 1445 1445 1439 1439 1970 1947 1947 1947 1947 1947 1947 1947 1947 1947 1947 1947 1959 1959 1959 1959 1959 1959 1959 1959 1959 1970 1970 1970 1970 1981 1981 1981 1981 1981 1993 1993 1993 1993 1993 1993 1993 1981 1981 1981 1993 1981 1981 1981 1981 1981 1993 2005 2016 2016 2028 2040 2116 2129 2143 2156 2170 2184 2184 2184 2349 2349 2349 2333 2333 2349 2349 2349 2349 2365 2381 2381 2381 2381 2381 2381 2381 0 1288 1283 1283 1283 1283 1283 1283 1283 1278 1278 1283 1278 1278 1278 1278 1278 1283 1288 1288 1288 1288 1292 1297 1458 1458 1458 1452 1452 1445 1445 1445 1445 1452 1452 1452 1452 1452 1445 1439 1439 1439 1439 1439 1439 1433 1433 1433 1433 1433 1433 1433 1427 1427 1427 1427 1427 1421 1421 1421 1421 1415 1415 1415 1415 1415 1415 1410 1410 1410 1410 1410 1410 1410 1404 1404 1398 1392 1392 1387 1387 1387 1387 1387 1387 1387 1387 1381 1381 1381 1381 1381 1376 1376 1370 1370 1365 1365 1365 1365 1365 1365 1365 1365 1365 1365 1365 1359 1359 1359 1359 1359 1359 1359 1359 1359 1354 1349 1349 1343 1343 1343 1343 1343 1343 1338 1338 1338 1338 1338 1333 1333 1328 1328 1322 1322 1322 1322 1322 1317 1317 1317 1317 1317 1317 1317 1317 1317 1312 1312 1959 1959 1959 1959 1959 1970 1970 1970 1947 1947 1947 1947 1947 1947 1947 1947 1947 1936 1936 3333 3333 3333 3333 3333 3365 3365 3333 3333 3333 3333 3365 3365 3333 3333 3333 3365 3365 3365 3365 3365 3365 3365 3365 3365 3365 3365 3365 3365 3365 3365 3365 3365 3365 3365 3365 3365 3365 3365 3365 3365 3365 3365 3365 3399 3399 3399 3399 3399 3399 3399 3365 3365 3365 3365 3365 3365 3365 3365 3399 3399 3399 3399 3399 3399 3399 3399 3365 3365 3399 3399 3399 3365 3365 3365 3365 3365 3365 3399 3399 3399 3365 3365 3365 3333 3333 3365 3365 3365 3365 3365 3365 3365 3365 3365 3365 3365 3365 3333 3300 3300 3300 3300 3300 3300 3300 3300 3300 3300 3333 3333 3333 3365 3365 3365 3399 3399 0 0 0 0 0 0 0 0 0 0 0 0 0
0 0 0 0 0 0 0 0 0 0 0 0 0 0 0 0 0 0 0 0 0 0 0 0 0 0 0 0 0 0 0 0 2859 2859 2859 2859 2859 2859 2835 2835 2835 2835 2812 2812 2812 2835 2835 2835 2835 2859 2883 2859 2859 2859 2859 2859 2859 2859 2859 2859 2859 2859 2883 2883 2883 2883 2883 2883 2859 2859 2859 2859 2859 2859 2883 2883 2883 2883 2883 2883 2883 2883 2883 2883 2883 2883 2908 2908 2908 2908 2933 2933 2933 2958 2958 2958 2958 2958 2958 2958 2958 2958 2958 2984 2984 2984 2984 2984 2984 2984 2984 2984 2984 3010 3010 3010 3010 3037 3037 3037 3037 3037 3037 3037 3010 3010 3010 3010 1713 1713 1713 1713 1713 1713 1713 1713 1713 1713 1713 1713 1722 1722 1722 1722 1731 1748 1794 1813 1823 1833 1833 1833 3064 3064 3037 3037 3037 3037 3037 3037 3037 3037 3037 3064 1894 1894 1894 1894 1894 1894 1894 1894 1894 1894 1894 1894 1894 1894 1894 1894 1894 1894 1904 1904 1904 1904 1904 1904 1904 1904 1904 1904 1904 1904 1915 1915 1915 1904 1904 1904 1904 1579 1572 1572 1572 1564 1564 1564 1564 1572 1579 1579 1579 1579 1579 1579 1586 1586 1586 1586 1594 1594 1926 1936 1936 1926 1926 1936 1936 1936 1936 1936 1936 1936 1936 1926 1926 1926 1926 1926 1936 1936 1936 1936 1427 1421 1421 1421 1421 1421 1421 1421 1421 1421 1421 1421 1427 1433 1439 1439 1445 1445 1439 1439 1970 1936 1936 1936 1936 1947 1947 1947 1947 1947 1947 1947 1947 1947 1947 1947 1947 1959 1959 1959 1959 1959 1970 1970 1970 1970 1981 1981 1981 1981 1993 1993 1993 1993 1993 1993 1993 1981 1981 1981 1981 1981 1981 1981 1981 1981 1993 2005 2005 2016 2040 2078 2103 2129 2129 2143 2170 2184 2184 2184 2349 2349 2349 2349 2349 2349 2349 2349 2365 2381 2381 2381 2381 2381 2381 0 0 1278 1278 1278 1278 1278 1283 1283 1283 1283 1283 1283 1283 1283 1278 1278 1278 1283 1283 1288 1288 1292 1292 1297 1302 1458 1458 1458 1452 1452 1445 1445 1445 1445 1452 1452 1452 1452 1452 1445 1445 1439 1439 1439 1439 1439 1439 1439 1433 1433 1433 1433 1433 1433 1433 1433 1427 1427 1421 1421 1421 1421 1421 1415 1415 1415 1415 1415 1415 1410 1410 1410 1410 1410 1410 1404 1404 1398 1392 1392 1387 1387 1387 1387 1387 1387 1387 1387 1381 1381 1381 1381 1381 1376 1376 1376 1370 1370 1370 1365 1365 1365 1365 1365 1365 1365 1365 1365 1359 1359 1359 1359 1359 1359 1359 1359 1359 1354 1354 1349 1349 1343 1343 1343 1343 1343 1338 1338 1338 1338 1338 1333 1333 1328 1328 1328 1322 1322 1322 1322 1322 1317 1317 1317 1317 1317 1317 1322 1322 1322 1959 1959 1959 1959 1970 1970 1981 1970 1970 1959 1959 1947 1947 1947 1947 1947 1947 1947 1936 1936 3300 3300 3300 3300 3300 3333 3333 3333 3333 3333 3333 3333 3333 3333 3333 3333 3365 3365 3365 3365 3365 3365 3365 3365 3365 3365 3365 3365 3333 3333 3333 3333 3333 3333 3333 3333 3333 3333 3333 3333 3365 3365 3365 3365 3365 3399 3399 3399 3365 3365 3365 3333 3333 3333 3333 3333 3333 3333 3333 3365 3365 3399 3399 3399 3399 3365 3365 3365 3365 3399 3399 3399 3365 3365 3365 3365 3365 3365 3365 3365 3365 3365 3365 3333 3333 3333 3333 3333 3333 3333 3365 3365 3365 3365 3365 3333 3333 3333 3300 3300 3269 3269 3269 3269 3269 3269 3269 3269 3300 3300 3300 3333 3333 3333 3365 3365 0 0 0 0 0 0 0 0 0 0 0 0 0 0
0 0 0 0 0 0 0 0 0 0 0 0 0 0 0 0 0 0 0 0 0 0 0 0 0 0 0 0 0 0 0 0 2835 2835 2859 2859 2835 2835 2812 2812 2835 2812 2812 2812 2812 2812 2812 2812 2812 2835 2835 2835 2835 2835 2835 2835 2835 2835 2859 2859 2859 2859 2859 2859 2859 2883 2883 2883 2859 2859 2859 2859 2859 2859 2883 2883 2883 2883 2883 2883 2883 2883 2883 2883 2883 2883 2908 2908 2908 2908 2933 2933 2933 2933 2933 2933 2958 2958 2958 2958 2958 2958 2958 2958 2958 2958 2958 2984 2984 2984 2984 2984 2984 2984 3010 3010 3010 3010 3037 3010 3010 3010 3010 3010 3010 2984 2984 3010 3010 1713 1713 1713 1713 1713 1713 1713 1713 1713 1713 1713 1722 1722 1722 1722 1731 1748 1804 1823 1823 1833 1833 1833 3037 3037 3010 3010 3037 3037 3037 3037 3037 3037 1873 1873 1873 1883 1894 1894 1894 1894 1894 1894 1894 1894 1894 1894 1894 1894 1894 1894 1894 1894 1894 1894 1894 1894 1894 1904 1904 1904 1904 1904 1904 1904 1915 1915 1915 1904 1904 1904 1904 1904 1904 1572 1572 1564 1564 1564 1564 1572 1579 1579 1579 1579 1579 1579 1586 1586 1586 1586 1594 1609 1915 1926 1926 1926 1926 1926 1926 1926 1926 1926 1926 1926 1926 1926 1926 1926 1926 1926 1926 1926 1936 1936 1433 1421 1421 1421 1421 1421 1421 1421 1421 1421 1421 1421 1427 1433 1439 1439 1439 1439 1439 1433 1433 1427 1427 1427 1427 1427 1947 1936 1936 1936 1936 1947 1947 1947 1947 1947 1947 1947 1947 1947 1947 1959 1970 1970 1970 1970 1981 1981 1981 1981 1993 1993 1993 1993 1993 1993 1993 1981 1981 1981 1981 1981 1981 1981 1981 1981 1993 2005 2005 2016 2040 2090 2103 2116 2129 2143 2170 2184 2184 0 2365 2349 2349 2349 2349 2349 2349 2349 2365 2381 2381 2381 2381 2398 2398 0 0 0 1278 1278 1278 1278 1283 1283 1283 1283 1283 1283 1283 1283 1283 1283 1283 1283 1288 1288 1292 1292 1292 1297 1302 1458 1458 1452 1452 1452 1445 1445 1445 1445 1452 1452 1445 1445 1452 1445 1439 1439 1439 1439 1439 1439 1439 1439 1439 1439 1433 1433 1433 1433 1433 1433 1427 1427 1427 1421 1421 1421 1421 1421 1421 1415 1415 1415 1415 1415 1410 1410 1410 1410 1410 1404 1404 1398 1398 1392 1392 1392 1387 1387 1387 1387 1387 1387 1387 1381 1381 1381 1381 1381 1376 1376 1370 1370 1370 1365 1365 1365 1365 1365 1365 1365 1365 1365 1359 1359 1359 1359 1359 1359 1359 1359 1354 1354 1349 1349 1349 1343 1343 1343 1343 1343 1343 1338 1338 1338 1338 1338 1333 1328 1328 1328 1322 1322 1322 1322 1322 1317 1317 1317 1317 1322 1322 1322 1322 1328 1959 1959 1959 1959 1970 1970 1981 1970 1970 1959 1959 1947 1947 1947 1947 1947 1947 1947 1947 1947 3300 3300 3300 3300 3300 3333 3300 3300 3300 3300 3300 3300 3300 3300 3300 3333 3365 3333 3333 3333 3365 3365 3365 3365 3365 3365 3333 3333 3333 3333 3300 3300 3300 3333 3333 3333 3333 3333 3333 3333 3333 3333 3365 3365 3365 3399 3399 3365 3365 3365 3333 3333 3300 3300 3300 3300 3333 3333 3333 3365 3365 3365 3365 3399 3365 3365 3365 3365 3365 3365 3365 3365 3365 3365 3365 3365 3365 3365 3365 3365 3365 3365 3365 3333 3333 3333 3333 3333 3333 3333 3333 3365 3365 3365 3333 3333 3300 3300 3300 3269 3269 3269 3269 3269 3269 3269 3238 3238 3269 3269 3269 3269 3269 3300 3333 3365 0 0 0 0 0 0 0 0 0 0 0 0 0 0
0 0 0 0 0 0 0 0 0 0 0 0 0 0 0 0 0 0 0 0 0 0 0 0 0 0 0 0 0 0 0 0 2835 2835 2859 2835 2835 2812 2812 2812 2812 2812 2812 2812 2812 2812 2812 2812 2812 2812 2812 2812 2835 2812 2812 2812 2835 2835 2835 2835 2835 2835 2859 2859 2859 2859 2859 2883 2859 2859 2859 2859 2859 2859 2859 2859 2883 2883 2883 2883 2883 2883 2883 2883 2883 2883 2883 2908 2908 2908 2908 2908 2908 2933 2933 2933 2958 2958 2933 2933 2933 2933 2933 2933 2933 2958 2958 2958 2958 2984 2984 2984 2984 2984 2984 2984 2984 3010 3010 3010 3010 2984 2984 3010 3010 2984 2984 3010 3010 1713 1713 1713 1713 1713 1713 1713 1713 1713 1713 1713 1722 1722 1722 1722 1731 1748 1804 1823 1823 1833 1833 1833 3037 3037 3010 3010 3037 3037 3037 3037 1863 1863 1863 1873 1873 1873 1883 1894 1894 1894 1894 1894 1894 1894 1894 1894 1894 1894 1894 1894 1894 1894 1894 1894 1894 1894 1894 1894 1904 1904 1904 1904 1904 1904 1904 1904 1904 1894 1894 1894 1904 1904 1904 1572 1572 1572 1572 1572 1572 1579 1579 1579 1579 1579 1579 1586 1586 1586 1594 1594 1594 1609 1915 1915 1915 1915 1915 1915 1926 1915 1915 1915 1915 1915 1915 1915 1915 1915 1915 1915 1915 1915 1926 1926 1445 1427 1421 1421 1421 1421 1421 1421 1421 1421 1421 1427 1427 1433 1439 1439 1439 1439 1439 1433 1433 1427 1427 1427 1427 1427 1427 1936 1936 1936 1936 1936 1936 1936 1936 1936 1936 1947 1947 1947 1947 1947 1959 1970 1970 1970 1981 1981 1981 1993 1993 1993 1993 1993 1993 1993 1993 1993 1993 1981 1981 1981 1981 1981 1981 1981 1993 2005 2005 2028 2078 2103 2103 2116 2129 2143 2143 0 0 0 2365 2365 2365 2349 2349 2349 2365 2365 2365 2381 2398 2398 2398 2398 2415 0 0 0 0 0 1278 1278 1283 1283 1283 1283 1283 1283 1283 1283 1283 1283 1283 1283 1288 1288 1292 1297 1302 1307 1307 1317 2040 1452 1452 1452 1445 1445 1445 1445 1452 1452 1445 1439 1439 1433 1433 1439 1439 1439 1439 1439 1433 1433 1433 1433 1433 1433 1433 1433 1433 1433 1433 1427 1427 1427 1427 1421 1421 1421 1421 1415 1415 1415 1415 1415 1415 1410 1410 1410 1410 1410 1410 1404 1398 1392 1392 1392 1392 1387 1387 1387 1387 1387 1387 1381 1381 1381 1381 1381 1376 1376 1370 1370 1370 1365 1365 1365 1365 1365 1365 1365 1365 1365 1365 1359 1359 1359 1359 1359 1359 1359 1354 1354 1349 1349 1349 1343 1343 1343 1343 1343 1343 1343 1343 1338 1338 1338 1333 1333 1328 1328 1322 1322 1322 1322 1322 1322 1322 1322 1322 1322 1322 1322 1328 1328 1338 1959 1959 1959 1970 1970 1981 1970 1970 1959 1959 1959 1959 1959 1959 1947 1947 1947 1936 1936 3300 3300 3300 3300 3300 3300 3300 3300 3300 3300 3300 3300 3300 3269 3269 3300 3333 3333 3333 3333 3333 3333 3333 3333 3333 3333 3333 3300 3300 3300 3300 3300 3300 3300 3300 3300 3300 3300 3300 3300 3300 3300 3333 3333 3333 3333 3333 3333 3300 3300 3300 3300 3300 3300 3300 3300 3300 3300 3333 3333 3333 3365 3365 3365 3333 3333 3333 3333 3333 3333 3333 3333 3333 3333 3333 3333 3333 3333 3333 3333 3333 3333 3333 3300 3300 3300 3300 3300 3300 3300 3300 3333 3333 3300 3300 3300 3269 3269 3269 3269 3269 3238 3238 3269 3269 3269 3238 3238 3269 3269 3269 3269 3269 3300 3333 0 0 0 0 0 0 0 0 0 0 0 0 0 0 0
0 0 0 0 0 0 0 0 0 0 0 0 0 0 0 0 0 0 0 0 0 0 0 0 0 0 0 0 0 0 0 0 2789 2789 2812 2789 2789 2789 2789 2812 2812 2812 2812 2812 2812 2812 2812 2812 2812 2812 2812 2812 2812 2812 2812 2812 2812 2812 2812 2812 2812 2835 2835 2835 2835 2859 2859 2883 2835 2835 2859 2859 2859 2859 2859 2859 2859 2883 2883 2883 2883 2883 2883 2883 2883 2883 2883 2883 2883 2908 2908 2908 2908 2908 2933 2933 2933 2908 2908 2933 2908 2908 2933 2933 2933 2933 2933 2958 2958 2958 2958 2958 2958 2958 2984 2984 2984 2984 2984 2984 2984 2984 2984 2984 2984 2984 2984 3010 3037 3037 1713 1713 1713 1713 1713 1713 1713 1713 1713 1713 1722 1722 1722 1731 1731 1748 1804 1823 1823 1833 1833 1833 3037 3037 3010 3010 3037 1853 1853 1853 1863 1863 1863 1873 1873 1873 1883 1883 1883 1883 1883 1883 1883 1883 1883 1883 1883 1894 1883 1883 1883 1883 1883 1883 1883 1883 1894 1894 1894 1894 1894 1894 1894 1894 1894 1894 1894 1894 1894 1894 1894 1894 1894 1572 1572 1572 1572 1572 1572 1579 1579 1579 1579 1579 1579 1586 1586 1586 1594 1594 1594 1601 1609 1915 1904 1904 1904 1904 1915 1904 1904 1904 1915 1915 1915 1915 1915 1915 1915 1915 1915 1915 1915 1915 1427 1427 1427 1427 1421 1421 1421 1421 1421 1421 1421 1427 1427 1433 1439 1439 1439 1439 1439 1433 1433 1433 1433 1433 1427 1427 1427 1427 1421 1421 1415 1415 1415 1415 1415 1936 1936 1936 1936 1936 1947 1947 1959 1959 1970 1970 1981 1981 1981 1993 2005 2005 1993 1993 2005 1993 1993 1993 1993 1981 1981 1981 1981 1993 1993 1993 1993 2005 2016 2028 2078 2090 2103 2129 0 0 2129 0 0 0 2365 2365 2365 2349 2349 2365 2365 2365 2381 2398 2398 2398 2398 2398 2415 0 0 0 0 0 1283 1283 1283 1283 1283 1288 1283 1283 1288 1283 1283 1283 1283 1288 1288 1292 1292 1297 1302 1307 1307 1317 2040 1993 1981 1959 1959 1959 1959 1959 1959 1947 1445 1439 1439 1433 1433 1427 1427 1433 1433 1433 1433 1433 1433 1433 1433 1433 1433 1433 1433 1433 1433 1433 1427 1427 1427 1421 1421 1421 1421 1415 1415 1415 1415 1415 1415 1415 1415 1415 1410 1410 1410 1404 1398 1398 1392 1392 1392 1387 1387 1387 1387 1387 1387 1387 1387 1381 1381 1381 1376 1376 1376 1370 1370 1365 1365 1365 1365 1365 1365 1365 1365 1365 1365 1365 1365 1359 1359 1359 1359 1359 1359 1354 1354 1349 1349 1343 1343 1343 1343 1343 1343 1343 1343 1338 1338 1338 1333 1333 1333 1328 1328 1328 1328 1322 1322 1322 1322 1322 1322 1322 1322 1322 1328 1328 1338 1343 1970 1970 1970 1981 1981 1981 1981 1970 1970 1959 1959 1959 1959 1959 1959 1959 1936 1936 3300 3300 3300 3300 3300 3300 3300 3300 3300 3269 3269 3269 3269 3269 3269 3269 3269 3300 3300 3300 3333 3333 3333 3333 3300 3300 3300 3300 3300 3300 3300 3300 3300 3300 3300 3300 3300 3300 3300 3300 3300 3300 3333 3333 3333 3333 3333 3333 3300 3300 3300 3300 3300 3300 3269 3269 3300 3300 3300 3300 3333 3333 3333 3333 3300 3300 3300 3300 3300 3300 3300 3333 3300 3300 3333 3333 3333 3300 3300 3300 3333 3333 3333 3300 3300 3300 3300 3300 3300 3300 3300 3300 3300 3300 3269 3269 3269 3269 3269 3269 3269 3238 3238 3269 3269 3269 3238 3238 3269 3269 3269 3269 3269 3269 0 0 0 0 0 0 0 0 0 0 0 0 0 0 0 0
0 0 0 0 0 0 0 0 0 0 0 0 0 0 0 0 0 0 0 0 0 0 0 0 0 0 0 0 0 0 0 0 2767 2767 2789 2789 2789 2789 2789 2789 2789 2789 2789 2789 2789 2789 2789 2789 2789 2789 2812 2812 2789 2789 2789 2812 2812 2812 2812 2812 2812 2835 2835 2835 2835 2835 2835 2859 2835 2835 2835 2859 2859 2859 2859 2859 2859 2859 2859 2859 2859 2883 2883 2883 2883 2883 2883 2883 2883 2883 2908 2908 2908 2908 2908 2908 2908 2908 2908 2933 2908 2908 2908 2933 2933 2908 2908 2933 2933 2958 2958 2958 2958 2958 2958 2958 2958 2958 2984 2984 2984 2984 2984 2984 2984 2984 2984 2984 3010 3010 1713 1713 1713 1713 1713 1713 1713 1713 1713 1713 1722 1722 1722 1731 1731 1748 1794 1813 1823 1823 1833 1833 1833 3037 3037 3037 1853 1853 1853 1853 1853 1863 1863 1863 1873 1873 1873 1873 1873 1873 1873 1873 1873 1873 1873 1883 1883 1883 1883 1883 1883 1883 1883 1883 1883 1883 1883 1883 1883 1883 1883 1883 1883 1883 1883 1883 1883 1883 1883 1883 1883 1883 1883 1883 1572 1572 1572 1579 1579 1579 1579 1579 1579 1579 1579 1586 1586 1594 1594 1594 1594 1601 1609 1904 1904 1904 1904 1904 1904 1894 1894 1894 1904 1904 1904 1904 1904 1904 1904 1904 1894 1894 1904 1904 1445 1427 1427 1427 1427 1421 1421 1421 1421 1421 1427 1427 1427 1433 1439 1439 1439 1439 1439 1433 1433 1433 1427 1427 1427 1427 1421 1421 1421 1421 1415 1415 1415 1415 1415 1936 1936 1936 1936 1936 1947 1947 1959 1959 1970 1970 1981 1981 1981 1993 2005 2005 2005 2005 2005 2005 1993 1993 1993 1993 1993 1993 1993 1993 1993 2005 2005 2016 2028 2040 2078 2090 2103 0 0 0 0 0 0 0 2365 2365 2365 2365 2365 2365 2381 2381 2381 2398 2398 2398 2398 2398 2415 0 0 0 0 0 1283 1283 1283 1283 1288 1288 1288 1288 1288 1288 1288 1288 1288 1288 1292 1292 1297 1302 1307 1307 1312 1317 1317 1970 1959 1947 1947 1959 1959 1959 1947 1947 1947 1947 1947 1947 1433 1427 1427 1433 1433 1433 1433 1433 1433 1433 1433 1427 1427 1433 1433 1433 1433 1433 1433 1427 1427 1427 1427 1427 1421 1421 1415 1415 1415 1415 1415 1415 1415 1415 1415 1410 1410 1404 1404 1398 1398 1392 1392 1392 1387 1387 1387 1387 1387 1387 1387 1381 1381 1381 1381 1376 1376 1376 1370 1370 1370 1370 1370 1365 1365 1365 1365 1365 1365 1365 1365 1359 1359 1359 1359 1359 1359 1354 1354 1354 1349 1349 1343 1343 1343 1343 1343 1343 1343 1338 1338 1338 1338 1333 1333 1333 1328 1328 1328 1328 1328 1322 1322 1322 1322 1322 1322 1328 1328 1333 1338 1343 1970 1970 1981 1981 1981 1981 1981 1970 1970 1959 1959 1959 1959 1959 1959 1970 3269 3269 3269 3300 3300 3300 3300 3300 3300 3269 3269 3269 3269 3269 3269 3269 3269 3269 3269 3269 3300 3300 3300 3300 3300 3300 3300 3300 3300 3300 3300 3300 3300 3300 3300 3300 3300 3300 3300 3300 3300 3300 3300 3300 3300 3300 3300 3300 3300 3300 3300 3300 3300 3269 3269 3269 3269 3269 3269 3269 3300 3300 3300 3300 3300 3333 3300 3300 3300 3300 3300 3300 3300 3333 3300 3300 3300 3300 3300 3300 3300 3300 3300 3300 3300 3300 3269 3269 3300 3269 3269 3269 3269 3269 3269 3269 3269 3269 3269 3238 3238 3238 3238 3208 3208 3238 3238 3238 3238 3238 3238 3238 3238 3238 3238 3269 0 0 0 0 0 0 0 0 0 0 0 0 0 0 0 0
0 0 0 0 0 0 0 0 0 0 0 0 0 0 0 0 0 0 0 0 0 0 0 0 0 0 0 0 0 0 0 0 2744 2744 2767 2767 2767 2767 2767 2767 2767 2767 2767 2789 2789 2789 2789 2789 2789 2789 2789 2789 2789 2789 2789 2789 2789 2789 2789 2812 2812 2812 2812 2812 2812 2835 2835 2835 2812 2812 2835 2835 2859 2859 2859 2859 2859 2859 2859 2859 2859 2883 2883 2883 2883 2883 2883 2883 2883 2883 2883 2883 2883 2883 2883 2883 2908 2883 2883 2908 2908 2908 2908 2908 2908 2908 2908 2908 2933 2933 2933 2933 2933 2933 2933 2958 2958 2958 2958 2958 2958 2958 2958 2958 2958 2958 2984 2984 3010 3010 1713 1713 1713 1713 1713 1713 1713 1713 1713 1722 1722 1722 1722 1731 1731 1748 1766 1813 1823 1823 1833 1833 1853 1853 1833 1833 1843 1843 1843 1853 1853 1853 1853 1863 1863 1863 1863 1873 1873 1873 1873 1873 1873 1873 1873 1873 1873 1873 1873 1873 1873 1873 1883 1873 1873 1873 1873 1873 1873 1873 1873 1883 1873 1873 1873 1873 1883 1873 1873 1873 1873 1873 1883 1883 1572 1572 1572 1579 1579 1579 1579 1579 1579 1586 1586 1586 1586 1594 1594 1594 1594 1601 1601 1601 1894 1894 1894 1894 1894 1894 1894 1894 1894 1894 1894 1894 1894 1894 1894 1894 1883 1883 1894 1894 1445 1439 1433 1433 1427 1427 1427 1421 1421 1421 1427 1427 1433 1433 1439 1439 1439 1439 1439 1433 1433 1427 1427 1427 1427 1421 1421 1421 1421 1415 1415 1410 1410 1415 1404 1404 1398 1398 1398 1398 1398 1398 1398 1398 1398 1398 1398 1398 1993 1398 1398 1398 2005 2005 2005 2005 1993 1993 1993 1993 1993 1993 1993 2005 2005 2005 2016 2028 2028 2053 2090 2103 2103 0 0 0 0 0 0 0 2381 2381 2381 2381 2381 2381 2381 2381 2381 2398 2398 2398 2398 2398 2415 0 0 0 0 0 1288 1288 1288 1288 1288 1288 1288 1288 1288 1288 1288 1288 1288 1288 1292 1297 1297 1302 1307 1312 1312 1317 1317 1959 1947 1936 1936 1947 1947 1947 1947 1947 1947 1947 1947 1947 1947 1947 1947 1947 1959 1959 1959 1959 1959 1959 1433 1427 1427 1427 1433 1433 1433 1433 1433 1433 1433 1433 1427 1427 1421 1421 1421 1421 1415 1415 1415 1415 1415 1415 1415 1410 1410 1404 1404 1398 1398 1392 1392 1392 1392 1392 1392 1387 1387 1387 1387 1387 1387 1381 1381 1381 1376 1376 1376 1370 1370 1370 1370 1370 1365 1365 1365 1365 1365 1365 1365 1365 1359 1359 1359 1359 1359 1354 1354 1354 1349 1349 1343 1343 1343 1343 1343 1343 1343 1343 1338 1338 1338 1338 1333 1333 1333 1333 1328 1328 1328 1322 1322 1322 1322 1322 1322 1328 1333 1333 1338 1343 1343 1970 1981 1981 1993 1981 1981 1970 1970 1970 1970 1970 1970 1970 1970 1970 3238 3238 3269 3269 3300 3300 3300 3300 3269 3269 3269 3269 3269 3269 3269 3269 3269 3269 3269 3269 3269 3269 3300 3300 3300 3300 3300 3300 3300 3269 3269 3269 3269 3269 3269 3269 3269 3269 3269 3269 3269 3269 3269 3269 3300 3300 3300 3300 3300 3300 3300 3269 3269 3269 3269 3269 3269 3269 3269 3269 3300 3300 3300 3300 3300 3300 3300 3300 3300 3300 3300 3300 3300 3333 3300 3300 3300 3300 3300 3269 3269 3269 3269 3269 3269 3269 3269 3269 3269 3269 3269 3269 3269 3269 3269 3269 3269 3238 3238 3238 3238 3238 3208 3208 3208 3208 3238 3238 3238 3238 3238 3238 3238 3238 3238 3269 0 0 0 0 0 0 0 0 0 0 0 0 0 0 0 0
