0 0 0 0 0 0 0 0 0 0 0 0 0 0 0 0 0 0 0 0 0 0 0 0 0 0 0 0 0 0 0 0 3064 3037 3037 3037 3037 3064 3178 3238 3238 3238 3269 3269 3238 3238 3238 3269 3269 3269 3269 3300 3300 3300 3300 3269 3269 3269 3269 3269 3269 3300 3333 3300 3300 3300 3300 3333 3300 3300 3300 3300 3300 3300 3300 3300 3300 3300 3300 3300 3333 3333 3333 3333 3333 3333 3333 3333 3333 3333 3333 3333 3365 3365 3365 3365 3399 3399 3365 3365 3365 3365 3365 3365 3365 3399 3399 3399 3399 3333 3333 0 3433 0 1616 1616 1616 1616 1616 1616 1616 1616 1616 1616 1624 1624 1624 1632 1632 1639 1639 1647 1647 1713 1722 1748 1748 1748 1757 1757 1757 1757 1757 1757 3468 3468 3468 3539 3539 3539 3539 3539 3539 3503 3503 3503 3503 3468 3468 3503 3503 3503 3503 3503 3539 3539 3539 3576 3539 3539 3539 3576 3576 3614 3614 1647 1647 1647 1639 1639 1639 1639 1639 1647 1647 1647 1647 1647 1647 1639 1639 1639 1639 1639 1503 1503 1503 1503 1496 1496 1496 1496 1496 1496 1496 1503 1503 1509 1516 1516 1523 1601 1609 1609 1609 1609 1601 1601 1601 1586 1586 1586 1586 1586 1586 1586 1586 1579 1579 1579 1579 1579 1579 1579 1579 1579 1359 1359 1359 1359 1359 1359 1359 1359 1354 1354 1349 1349 1349 1349 1349 1349 1349 1349 1343 1343 1338 1338 1338 1333 1333 1328 1328 1328 1328 1328 1322 1322 1322 1317 1317 1317 1312 1312 1312 1312 1312 1307 1307 1307 1307 1302 1302 1302 1302 1302 1297 1297 1292 1292 1292 1292 1292 1292 1292 1288 1288 1288 1288 1288 1288 1288 1288 1288 1288 1288 1458 1458 1445 1445 1445 1445 1445 1452 1452 1452 1445 1445 1445 1445 1445 1439 1439 1439 1439 1439 1439 1439 1439 1439 1439 1433 1427 1427 1427 1427 1427 1427 1427 1421 1421 1421 1421 1214 1214 1214 1214 1214 1214 1214 1214 1214 1214 1210 1210 1210 1214 1214 1219 1227 1227 1232 1232 1410 1410 1415 1415 1415 1421 1421 1421 1421 1415 1415 1415 1415 1415 1415 1421 1421 1427 1427 1433 1433 1433 1433 1433 1433 1433 1433 1433 1433 1433 1433 1433 1433 1433 1439 1439 1439 1439 1445 1445 1445 1445 1439 1439 1439 1439 1445 1439 1439 1439 1439 1445 1445 1452 1452 1458 1458 1458 1458 1458 1458 1458 1458 1458 1458 1458 1458 1464 1464 1464 1470 1470 1477 1477 1470 1470 1477 1477 1470 1464 1464 1464 1458 1458 1458 1458 1464 1470 1477 1477 1477 1477 1464 1458 1427 1427 1427 1427 1433 1433 1433 1433 1433 0 0 0 0 0 0 0 0 0 0 0 0 1445 1445 1452 1458 1464 1470 1470 1470 1477 1483 1483 1483 1489 1496 1503 1503 1503 1503 1503 1503 1503 1496 1496 1503 1509 1509 1516 1523 1523 1529 0 0 0 0 0 0 0 0 0 0 0 0 4139 4139 4139 4139 4139 4139 4139 4139 4139 4139 4139 4139 4190 4241 4241 4190 4190 4190 4190 4241 4190 4190 4139 4139 4190 4139 4139 4190 4190 4190 4241 4241 4241 4190 4190 4190 4139 4089 4089 4139 4190 4241 4241 4241 4241 4241 4190 4190 4241 4241 4241 4241 4241 4241 4241 4241 4241 4241 4241 4241 4295 4241 4190 4190 4190 4190 4241 4139 4139 4139 4139 4139 4190 4139 4139 4190 4241 4241 4241 4241 4190 4190 4190 4190 4241 4241 4241 4295 4295 4295 4295 4295 4241 4190 4190 4139 4089 4089 4089 4089 4089 4041 4041 4041 4041 4041 3994 3994 0 0 0 0 0 0 0 0 0 0 0 0
0 0 0 0 0 0 0 0 0 0 0 0 0 0 0 0 0 0 0 0 0 0 0 0 0 0 0 0 0 0 0 0 3037 3037 3010 3010 3037 3037 3064 3208 3238 3238 3208 3208 3208 3238 3238 3269 3269 3269 3269 3300 3269 3269 3269 3269 3269 3269 3238 3238 3238 3269 3269 3300 3300 3300 3300 3300 3269 3269 3269 3269 3269 3269 3269 3300 3269 3269 3300 3300 3300 3333 3333 3300 3300 3333 3333 3300 3300 3333 3333 3333 3333 3333 3333 3365 3365 3365 3365 3365 3365 3333 3333 3365 3365 3365 3399 3399 3399 3399 3399 3433 3433 0 1616 1616 1616 1616 1624 1616 1616 1616 1616 1616 1624 1624 1624 1632 1632 1632 1639 1647 1639 1639 1722 1748 1748 1748 1757 1757 1757 1757 1757 1757 3576 3576 3539 3539 3503 3503 3503 3539 3539 3503 3503 3503 3503 3503 3503 3503 3503 3503 3539 3539 3539 3539 3539 3539 3576 3576 3576 3576 3576 3576 3576 3576 3576 1639 1639 1639 1639 1639 1639 1647 1647 1647 1647 1647 1647 1647 1639 1639 1639 1639 1509 1503 1503 1503 1496 1496 1496 1496 1496 1503 1503 1503 1509 1509 1516 1523 1523 1529 1609 1609 1609 1609 1609 1609 1601 1586 1586 1586 1586 1586 1586 1586 1586 1586 1586 1579 1579 1579 1579 1572 1572 1579 1354 1354 1359 1359 1359 1359 1359 1359 1359 1354 1354 1349 1349 1349 1349 1349 1349 1349 1349 1343 1343 1343 1338 1333 1333 1328 1328 1328 1328 1328 1322 1322 1322 1317 1317 1317 1312 1312 1312 1312 1312 1307 1307 1307 1302 1302 1302 1302 1302 1302 1302 1297 1297 1292 1292 1292 1292 1292 1292 1288 1288 1288 1288 1288 1288 1288 1288 1288 1288 1283 1283 1283 1283 1283 1283 1283 1283 1452 1452 1452 1452 1452 1445 1445 1445 1445 1439 1439 1439 1439 1439 1439 1439 1439 1439 1433 1427 1427 1427 1427 1427 1427 1421 1421 1421 1427 1427 1214 1214 1214 1214 1214 1214 1214 1214 1214 1214 1214 1214 1214 1214 1219 1223 1227 1227 1232 1410 1410 1410 1410 1410 1415 1415 1415 1415 1415 1410 1410 1410 1410 1410 1410 1415 1415 1421 1421 1427 1427 1433 1433 1427 1427 1427 1427 1427 1421 1421 1421 1421 1427 1427 1433 1433 1433 1433 1439 1439 1439 1433 1433 1433 1433 1433 1427 1427 1433 1433 1433 1439 1439 1433 1433 1439 1439 1439 1445 1445 1445 1445 1439 1439 1439 1439 1439 1439 1445 1445 1445 1452 1452 1452 1452 1452 1452 1452 1452 1452 1452 1452 1445 1445 1445 1452 1452 1452 1452 1452 1427 1421 1421 1421 1421 1421 1427 1427 1433 1433 1433 1433 1433 0 0 0 0 0 0 0 0 0 0 0 0 1445 1445 1452 1452 1458 1464 1464 1464 1470 1477 1477 1483 1483 1489 1496 1496 1496 1489 1489 1489 1489 1483 1483 1489 1496 1496 1503 1516 1523 1915 0 0 0 0 0 0 0 0 0 0 0 0 4089 4089 4139 4139 4139 4139 4139 4139 4139 4139 4139 4139 4139 4190 4190 4139 4139 4139 4139 4190 4190 4190 4139 4139 4190 4139 4139 4139 4190 4190 4190 4190 4190 4190 4190 4139 4089 4089 4089 4139 4139 4190 4190 4190 4190 4190 4190 4190 4190 4190 4190 4190 4241 4241 4295 4295 4241 4241 4241 4241 4241 4190 4139 4139 4139 4190 4190 4139 4139 4139 4139 4139 4139 4089 4089 4139 4190 4190 4190 4190 4190 4190 4190 4190 4241 4241 4241 4295 4295 4349 4349 4241 4241 4190 4139 4089 4089 4089 4041 4041 4041 4041 4041 4041 4041 4041 3994 3994 0 0 0 0 0 0 0 0 0 0 0 0
0 0 0 0 0 0 0 0 0 0 0 0 0 0 0 0 0 0 0 0 0 0 0 0 0 0 0 0 0 0 0 0 3037 3037 3010 3010 3037 3037 3064 3149 3178 3178 3178 3178 3208 3208 3238 3238 3269 3269 3269 3300 3269 3269 3269 3238 3238 3269 3238 3238 3238 3238 3269 3269 3269 3269 3269 3269 3269 3269 3238 3238 3269 3269 3269 3269 3269 3269 3269 3269 3300 3269 3269 3269 3269 3269 3300 3300 3300 3300 3333 3333 3333 3333 3333 3333 3333 3333 3333 3333 3333 3333 3333 3333 3333 3333 3365 3365 3399 3399 3399 3433 0 0 0 1616 1616 1616 1624 1616 1616 1624 1616 1616 1624 1624 1624 1632 1632 1632 1639 1632 1624 1624 1722 1731 1739 1748 1757 1757 1757 1757 1757 1757 3576 3576 3576 3539 3503 3503 3503 3468 3468 3503 3468 3468 3503 3503 3503 3503 3503 3503 3539 3539 3539 3539 3539 3539 3539 3539 3576 3576 3576 3539 3539 3576 3576 3539 3539 3539 1647 1647 1647 1647 1647 1647 1647 1647 1647 1647 1639 1639 1639 1639 1509 1503 1503 1503 1496 1496 1503 1496 1496 1503 1503 1509 1509 1516 1523 1523 1529 1529 1601 1601 1609 1609 1601 1601 1601 1601 1594 1594 1594 1594 1586 1586 1586 1586 1586 1579 1579 1579 1579 1572 1572 1359 1354 1354 1359 1359 1359 1359 1359 1359 1359 1359 1354 1354 1354 1354 1354 1354 1354 1354 1349 1349 1343 1343 1338 1333 1333 1333 1328 1328 1328 1328 1322 1322 1322 1317 1317 1317 1312 1312 1312 1312 1312 1307 1307 1307 1302 1302 1302 1302 1302 1302 1302 1297 1297 1292 1292 1292 1292 1292 1292 1292 1292 1292 1288 1288 1288 1288 1288 1283 1283 1283 1283 1283 1283 1283 1283 1283 1283 1288 1283 1283 1452 1452 1452 1452 1445 1445 1445 1439 1439 1439 1439 1439 1439 1439 1439 1433 1433 1427 1427 1427 1427 1427 1421 1421 1421 1421 1421 1219 1219 1219 1219 1219 1219 1214 1214 1214 1214 1214 1214 1214 1219 1219 1227 1227 1232 1232 1410 1410 1410 1410 1410 1410 1410 1410 1410 1410 1404 1404 1404 1404 1404 1410 1410 1410 1415 1415 1421 1427 1427 1427 1427 1427 1421 1421 1415 1415 1415 1415 1415 1415 1421 1415 1415 1421 1427 1433 1433 1433 1427 1427 1427 1427 1427 1427 1427 1427 1427 1427 1433 1433 1433 1433 1433 1433 1433 1433 1433 1439 1433 1433 1433 1433 1433 1433 1433 1433 1433 1439 1439 1439 1433 1433 1433 1433 1433 1433 1439 1439 1439 1439 1439 1439 1445 1445 1452 1427 1421 1410 1410 1410 1404 1404 1410 1421 1421 1427 1427 1427 1427 1427 0 0 0 0 0 0 0 0 0 0 0 1433 1433 1433 1439 1439 1445 1445 1452 1458 1458 1464 1477 1477 1477 1483 1489 1489 1489 1483 1483 1483 1477 1477 1477 1477 1477 1477 1496 1516 1915 1915 1915 1926 0 0 0 0 0 0 0 0 0 4089 4089 4089 4139 4139 4139 4139 4139 4139 4139 4139 4089 4089 4089 4139 4139 4089 4089 4089 4089 4190 4190 4139 4139 4139 4139 4139 4139 4139 4139 4139 4139 4139 4190 4190 4139 4139 4041 4041 4041 4089 4089 4089 4089 4139 4139 4139 4190 4190 4190 4190 4190 4190 4190 4041 4295 4295 4241 4241 4190 4190 4241 4139 4139 4139 4139 4139 4139 4139 4089 4089 4089 4089 4089 4089 4089 4089 4139 4139 4190 4190 4190 4190 4190 4190 4190 4241 4241 4295 4295 4295 4295 4241 4241 4190 4139 4089 4089 4089 4041 4041 4041 4041 4041 4041 4041 4041 4041 4041 0 0 0 0 0 0 0 0 0 0 0 0
0 0 0 0 0 0 0 0 0 0 0 0 0 0 0 0 0 0 0 0 0 0 0 0 0 0 0 0 0 0 0 0 3037 3037 3037 3037 3037 3037 3064 3149 3178 3178 3178 3178 3178 3208 3208 3238 3238 3238 3238 3238 3238 3238 3238 3238 3238 3238 3238 3238 3238 3238 3238 3238 3238 3238 3269 3269 3238 3238 3238 3238 3238 3238 3238 3238 3238 3238 3269 3269 3269 3269 3269 3269 3269 3269 3269 3300 3300 3300 3300 3300 3300 3300 3300 3333 3333 3333 3333 3333 3333 3333 3300 3300 3300 3333 3333 3333 3365 3365 3399 3433 3433 0 0 1624 1624 1624 1624 1616 1616 1624 1616 1616 1624 1624 1624 1632 1632 1632 1632 1632 1624 1624 1616 1609 1609 1748 1586 1586 1594 1594 1594 1616 1616 1616 1616 3433 3433 3433 3433 3433 3433 3433 3468 3468 3503 3503 3503 3468 3468 3503 3503 3503 3539 3539 3539 3539 3539 3539 3539 3539 3539 3539 3539 3539 3539 3539 3539 3576 3576 3576 3576 3503 3503 1647 1647 1639 1639 1647 1647 1647 1509 1509 1509 1509 1509 1503 1496 1496 1503 1496 1496 1503 1503 1503 1509 1509 1523 1523 1523 1529 1536 1601 1609 1609 1601 1601 1601 1601 1594 1594 1594 1594 1586 1586 1586 1586 1586 1579 1579 1579 1579 1572 1572 1359 1359 1359 1359 1359 1365 1365 1359 1359 1359 1359 1354 1354 1354 1354 1354 1354 1354 1354 1349 1349 1349 1343 1343 1338 1333 1333 1333 1333 1333 1328 1328 1328 1322 1317 1317 1317 1317 1312 1312 1312 1312 1307 1307 1307 1307 1307 1307 1307 1302 1302 1302 1297 1297 1297 1292 1292 1292 1292 1292 1292 1292 1292 1288 1288 1288 1288 1283 1283 1283 1283 1283 1283 1278 1278 1283 1283 1283 1283 1278 1273 1273 1268 1268 1268 1458 1445 1445 1445 1439 1439 1439 1433 1433 1433 1433 1433 1433 1433 1427 1427 1421 1421 1421 1421 1421 1421 1421 1219 1219 1219 1219 1219 1219 1219 1219 1214 1214 1214 1214 1214 1219 1223 1227 1227 1232 1236 1404 1404 1404 1404 1404 1404 1398 1398 1398 1398 1392 1392 1398 1398 1398 1398 1404 1404 1404 1404 1415 1410 1410 1410 1415 1415 1415 1415 1410 1410 1415 1410 1410 1415 1415 1415 1410 1410 1404 1404 1421 1421 1421 1421 1421 1421 1421 1421 1421 1421 1427 1427 1427 1427 1427 1427 1427 1427 1427 1427 1427 1427 1410 1410 1410 1410 1421 1421 1427 1427 1427 1427 1433 1433 1427 1427 1427 1427 1433 1433 1433 1433 1433 1433 1433 1439 1439 1445 1445 1427 1404 1392 1392 1398 1398 1398 1410 1415 1421 1421 1421 1427 1427 1427 0 0 0 0 0 0 0 0 0 0 1433 1433 1427 1427 1433 1433 1433 1439 1445 1452 1452 1458 1464 1464 1470 1477 1483 1483 1464 1464 1477 1477 1470 1464 1464 1464 1464 1477 1496 1915 1926 1904 1904 1926 1926 1883 1883 0 0 0 0 0 0 4089 4089 4089 4139 4139 4089 4089 4089 4089 4089 4041 4041 4041 4041 4041 4041 4041 4041 4041 4089 4139 4089 4089 4089 4089 4089 4089 4089 4089 4089 4139 4139 4089 4089 4139 4089 4089 4041 4041 4041 4041 4041 4041 4041 4041 4089 4089 4089 4139 4139 4139 4089 4089 4089 4041 4041 4041 4041 4041 4089 4089 4139 4139 4139 4139 4139 4139 4139 4041 4041 4041 4041 4041 4089 4089 4089 4089 4089 4089 4089 4139 4190 4190 4139 4139 4190 4190 4190 4190 4295 4190 4190 4190 4089 4089 4089 4041 4041 4041 4041 4041 4041 4041 4041 4041 4041 4041 4041 4041 0 0 0 0 0 0 0 0 0 0 0 0
0 0 0 0 0 0 0 0 0 0 0 0 0 0 0 0 0 0 0 0 0 0 0 0 0 0 0 0 0 0 0 0 3037 3037 3037 3037 3037 3064 3092 3149 3178 3178 3178 3178 3178 3208 3208 3238 3238 3238 3238 3238 3238 3238 3238 3238 3238 3208 3208 3208 3208 3208 3208 3238 3238 3238 3238 3238 3238 3208 3208 3208 3208 3208 3208 3208 3208 3208 3238 3238 3238 3238 3269 3269 3269 3269 3269 3269 3269 3269 3269 3269 3300 3300 3300 3300 3300 3300 3300 3300 3300 3300 3300 3300 3300 3269 3269 3269 3300 3333 3365 3399 3433 3433 0 1624 1624 1616 1616 1624 1624 1624 1616 1616 1624 1624 1624 1632 1632 1632 1632 1632 1624 1624 1616 1609 1609 1616 1586 1586 1594 1594 1609 1616 1616 1616 1616 1616 3433 3433 3433 3433 3433 3433 3433 3433 3468 3468 3468 3468 3468 3503 3503 3503 3539 3539 3539 3539 3539 3539 3539 3539 3539 3539 3539 3539 3539 3539 3539 3539 3539 3539 3539 3503 3503 3503 3503 1639 1639 0 0 0 0 0 1509 1509 1509 1503 1503 1503 1503 1503 1503 1503 1503 1503 1509 1509 1516 1523 1523 1529 1529 1609 1609 1609 1609 1609 1601 1601 1601 1594 1594 1594 1594 1586 1586 1586 1586 1586 1586 1579 1579 1586 1586 1359 1359 1359 1359 1359 1365 1365 1365 1359 1359 1359 1354 1354 1354 1354 1354 1354 1354 1354 1349 1349 1349 1349 1343 1338 1338 1333 1333 1333 1333 1328 1328 1328 1328 1322 1322 1317 1317 1312 1312 1312 1312 1312 1307 1307 1307 1307 1307 1307 1307 1307 1302 1302 1297 1297 1292 1292 1292 1292 1292 1292 1292 1292 1288 1288 1288 1288 1283 1283 1283 1283 1283 1283 1278 1278 1283 1283 1283 1278 1278 1273 1273 1268 1268 1268 1268 1452 1445 1445 1439 1433 1433 1433 1433 1433 1433 1427 1427 1427 1427 1427 1421 1421 1421 1421 1421 1427 1427 1219 1219 1219 1219 1219 1219 1223 1219 1219 1214 1214 1214 1219 1223 1227 1227 1232 1232 1236 1404 1404 1404 1398 1398 1398 1398 1398 1392 1392 1392 1392 1392 1392 1392 1398 1398 1398 1398 1398 1398 1398 1398 1398 1398 1398 1398 1398 1398 1398 1398 1410 1410 1410 1398 1398 1404 1398 1398 1398 1415 1398 1398 1398 1415 1415 1410 1410 1415 1415 1415 1415 1415 1415 1415 1421 1410 1410 1410 1410 1410 1410 1404 1404 1410 1410 1410 1410 1410 1410 1421 1421 1410 1410 1410 1410 1415 1415 1415 1427 1427 1427 1427 1433 1433 1433 1433 1439 1445 1452 1387 1387 1381 1381 1392 1392 1404 1410 1410 1421 1421 1427 1427 1427 0 0 0 0 0 0 0 0 0 0 1433 1433 1427 1427 1433 1433 1433 1439 1445 1445 1452 1458 1464 1464 1439 1433 1433 1433 1433 1452 1452 1452 1452 1452 1458 1458 1458 1458 1904 1904 1894 1894 1894 1894 1863 1863 1863 0 0 0 0 0 0 4089 3994 3994 4089 4089 4089 4089 4089 4089 4089 4041 4041 4041 4041 4041 4041 3994 3994 4041 4041 4089 4089 4089 4089 4089 4089 4089 4089 4089 4089 4089 4089 4089 4041 4041 4041 4089 4041 4041 4041 4041 4041 4041 4041 4041 4089 4089 4089 4089 4089 4089 4089 4089 4089 4041 4041 4041 4041 4041 4089 4089 4089 4089 4089 4089 4041 3994 3994 3994 3994 4041 4041 4041 4041 4041 4041 4041 4041 4041 4089 4139 4139 4089 4089 4089 4089 4089 4089 4089 4089 4190 4190 4190 4041 4041 4041 3994 3994 3994 4041 4041 4041 4041 4041 4041 4041 4041 4041 4041 0 0 0 0 0 0 0 0 0 0 0 0
0 0 0 0 0 0 0 0 0 0 0 0 0 0 0 0 0 0 0 0 0 0 0 0 0 0 0 0 0 0 0 0 3064 3037 3037 3037 3037 3064 3092 3149 3178 3208 3178 3178 3208 3208 3208 3238 3238 3238 3238 3238 3238 3238 3208 3208 3208 3208 3208 3208 3208 3208 3208 3208 3208 3208 3238 3238 3208 3208 3208 3208 3208 3208 3208 3208 3208 3208 3238 3238 3238 3238 3238 3269 3269 3238 3238 3269 3269 3269 3269 3269 3269 3300 3300 3300 3300 3300 3300 3300 3300 3269 3269 3269 3269 3269 3269 3269 3300 3333 3365 3399 3399 3399 0 1624 1624 1616 1616 1624 1624 1624 1616 1616 1624 1624 1624 1624 1624 1624 1624 1632 1624 1624 1624 1616 1616 1616 1609 1609 1609 1609 1609 1616 1616 1616 1616 1616 1616 3433 3433 3433 3433 3468 3433 3433 3468 3433 3433 3433 3468 3503 3503 3503 3539 3539 3539 3539 3539 3539 3539 3503 3503 3503 3503 3539 3539 3539 3539 3539 3539 3539 3539 3503 3503 3503 3503 3503 3503 3503 0 0 0 1516 1516 1503 1503 1503 1503 1503 1503 1503 1503 1503 1503 1503 1509 1509 1516 1523 1523 1529 1529 1536 1601 1601 1601 1601 1594 1594 1601 1594 1594 1594 1594 1586 1586 1594 1594 1594 1586 1586 1586 1586 1586 1359 1359 1359 1365 1365 1365 1365 1365 1365 1365 1365 1359 1359 1359 1359 1359 1359 1359 1359 1354 1349 1349 1349 1343 1338 1338 1338 1333 1333 1333 1333 1328 1328 1328 1322 1322 1322 1317 1317 1317 1312 1312 1312 1312 1312 1307 1307 1307 1307 1307 1307 1302 1302 1297 1297 1292 1292 1292 1292 1292 1292 1292 1292 1288 1288 1288 1283 1283 1283 1283 1283 1283 1283 1278 1278 1283 1283 1278 1278 1278 1273 1273 1268 1268 1268 1268 1268 1268 1273 1273 1278 1278 1283 1283 1273 1273 1273 1427 1427 1427 1427 1421 1421 1427 1427 1427 1427 1427 1219 1219 1223 1223 1223 1223 1223 1219 1219 1219 1219 1223 1223 1223 1227 1227 1227 1232 1232 1398 1398 1398 1398 1398 1392 1392 1392 1392 1392 1392 1392 1392 1392 1392 1392 1392 1392 1392 1392 1392 1392 1392 1392 1392 1387 1387 1392 1392 1392 1392 1398 1398 1398 1392 1392 1398 1392 1392 1392 1392 1392 1392 1392 1392 1398 1404 1404 1410 1410 1410 1404 1404 1404 1404 1404 1398 1398 1404 1404 1404 1404 1404 1404 1404 1404 1404 1404 1410 1410 1410 1410 1404 1404 1410 1410 1410 1410 1410 1415 1415 1415 1421 1421 1427 1427 1427 1410 1392 1381 1376 1376 1376 1376 1376 1376 1392 1398 1398 0 0 1398 1410 0 0 1410 1398 1392 1392 0 0 0 0 0 1427 1427 1427 1427 1433 1433 1433 1439 1445 1433 1433 1458 1464 1433 1433 1427 1427 1427 1427 1433 1439 1439 1439 1445 1458 1458 1458 1458 1904 1904 1894 1894 1894 1894 1863 1863 1863 0 0 0 0 0 3948 3948 3948 3948 3948 3994 3994 4089 4089 4089 4041 4041 4041 4041 4041 3994 3994 3994 3994 3994 4041 4041 4041 4041 4041 4041 4041 4041 4041 4089 4089 4089 4041 4041 4041 4041 4041 4041 4041 4041 4041 4041 4041 4041 4041 4041 4089 4089 4089 4089 4089 4089 4089 4041 4041 4041 4041 4041 4041 4041 4041 4041 4089 4041 4041 4041 3994 3994 3994 3994 3994 4041 4041 4041 4041 4041 4041 4041 4041 4041 4041 4041 4089 4041 4041 4041 4041 4041 4041 4041 4089 4041 4041 3994 3994 3994 4041 3994 3994 3994 4041 4041 4041 4041 3948 3948 4041 4041 4041 4041 0 0 0 0 0 0 0 0 0 0 0 0
0 0 0 0 0 0 0 0 0 0 0 0 0 0 0 0 0 0 0 0 0 0 0 0 0 0 0 0 0 0 0 0 3064 3064 3037 3037 3037 3064 3092 3149 3178 3178 3178 3178 3208 3208 3208 3208 3208 3208 3178 3178 3178 3208 3208 3208 3208 3178 3178 3178 3178 3178 3178 3178 3178 3208 3208 3208 3178 3178 3178 3178 3178 3208 3208 3178 3178 3178 3178 3208 3208 3208 3238 3238 3238 3208 3208 3238 3238 3238 3238 3238 3269 3269 3269 3269 3269 3269 3269 3269 3269 3269 3269 3269 3269 3269 3269 3269 3269 3269 3300 3333 3333 3333 0 3333 1624 1624 1624 1624 1632 1624 1624 1624 1624 1624 1632 1624 1624 1624 1624 1632 1624 1624 1624 1616 1616 1616 1609 1609 1616 1609 1609 1609 1609 1609 1609 1609 1609 1609 1609 1609 3503 3503 1594 1594 1594 1594 1594 1594 1594 3503 3503 3539 3539 3539 3539 3539 3539 3503 3503 3503 3503 3503 3503 3539 3539 3539 3539 3539 3539 3539 3539 3539 3503 3503 3503 3503 3503 3503 0 0 0 0 0 1503 1503 1503 1503 1503 1503 1503 1503 1503 1503 1503 1509 1516 1516 1523 1523 1523 1529 1529 1601 1601 1601 1601 1594 1594 1601 1601 1601 1601 1594 1594 1594 1594 1594 1594 1586 1586 1594 1594 1586 1586 1359 1359 1365 1365 1365 1365 1365 1365 1365 1365 1359 1359 1365 1365 1359 1359 1359 1359 1354 1349 1349 1349 1343 1343 1343 1338 1338 1333 1333 1333 1333 1328 1328 1328 1328 1322 1317 1317 1317 1317 1317 1312 1312 1312 1312 1307 1307 1307 1307 1307 1307 1302 1302 1297 1297 1297 1297 1292 1292 1292 1292 1292 1288 1288 1288 1283 1283 1283 1283 1283 1283 1283 1278 1278 1283 1283 1278 1278 1278 1273 1273 1273 1268 1268 1268 1268 1268 1273 1273 1273 1278 1278 1273 1273 1273 1273 1273 1273 1427 1427 1427 1427 1427 1427 1427 1427 1427 1427 1223 1223 1223 1223 1223 1223 1223 1219 1219 1219 1223 1223 1223 1227 1227 1227 1227 1232 1398 1398 1398 1398 1398 1392 1392 1392 1392 1392 1392 1387 1387 1392 1387 1387 1392 1392 1387 1387 1387 1387 1392 1387 1387 1387 1387 1392 1392 1392 1392 1392 1387 1387 1387 1387 1387 1387 1387 1387 1387 1387 1387 1392 1392 1392 1392 1398 1398 1398 1398 1392 1392 1392 1392 1392 1392 1392 1392 1392 1398 1398 1398 1398 1398 1398 1398 1404 1404 1404 1404 1404 1404 1404 1404 1404 1404 1404 1410 1410 1410 1410 1410 1410 1410 1410 1404 1404 1392 1381 1376 1376 1370 1370 1370 1376 1381 1387 1387 0 0 0 0 0 0 1404 1392 1392 1392 1387 1387 1392 1392 1398 1398 1404 1404 1404 1410 1410 1410 1410 1415 1415 1415 1427 1427 1427 1421 1415 1415 1421 1421 1421 1427 1427 1427 1433 1452 1439 1439 1439 1894 1894 1894 1894 1894 1894 1863 1863 1863 0 0 0 0 3903 3903 3903 3903 3903 3903 3948 3948 3948 4041 3994 3994 3994 3994 3994 3948 3948 3948 3948 3948 3948 3994 4041 4041 3994 3994 3994 4041 3994 3994 3994 3948 3948 3994 3994 4041 4041 4041 4041 4041 4041 4041 4041 4041 4041 4041 4041 4089 4089 4089 4089 4041 4041 4089 4041 4041 4041 3994 3994 3994 3994 3994 3994 4041 3994 3994 3994 3994 3994 3948 3948 3994 3994 3994 3994 4041 4041 4041 4041 4041 4041 4041 3994 3994 3994 3994 3994 3994 3994 3994 3994 4041 3994 3994 3994 3994 3994 3994 3994 3994 3994 4041 4041 4041 3948 3948 3948 3948 3948 3948 3948 0 0 0 0 0 0 0 0 0 0 0 0
0 0 0 0 0 0 0 0 0 0 0 0 0 0 0 0 0 0 0 0 0 0 0 0 0 0 0 0 0 0 0 0 3092 3064 3037 3037 3037 3064 3092 3120 3149 3149 3149 3149 3149 3149 3149 3208 3178 3149 3149 3178 3178 3208 3178 3178 3208 3178 3178 3178 3178 3178 3178 3178 3178 3208 3208 3208 3178 3178 3149 3149 3178 3178 3208 3178 3178 3178 3178 3208 3208 3208 3208 3208 3208 3208 3208 3208 3208 3238 3238 3238 3238 3269 3238 3238 3269 3269 3269 3269 3269 3269 3269 3269 3269 3238 3238 3238 3238 3238 3300 3300 3300 3300 3300 0 1624 1632 1632 1632 1632 1632 1624 1624 1632 1632 1632 1632 1632 1632 1632 1632 1624 1624 1624 1624 1624 1624 1616 1616 1616 1616 1616 1609 1609 1609 1609 1609 1609 1609 1601 1601 1594 1594 1594 1594 1594 1594 1594 1586 1586 1601 1609 3539 3539 3539 3539 3503 3503 3503 3503 3503 3503 3503 3503 3539 3539 3539 3539 3539 3539 3503 3503 3503 3503 3503 3503 3539 3503 3503 0 0 0 0 0 1503 1503 1509 1503 1503 1503 1503 1503 1503 1503 1503 1509 1516 1516 1523 1523 1523 1529 1529 1529 1601 1601 1601 1601 1601 1601 1601 1601 1601 1594 1594 1594 1594 1594 1594 1594 1594 1594 1594 1586 1586 1359 1359 1370 1370 1370 1370 1370 1370 1370 1365 1365 1365 1365 1365 1365 1365 1359 1359 1354 1354 1349 1349 1349 1343 1343 1338 1338 1333 1333 1333 1333 1328 1328 1328 1328 1322 1322 1317 1317 1317 1317 1317 1317 1312 1312 1312 1312 1307 1307 1307 1307 1307 1302 1302 1297 1297 1297 1292 1292 1292 1292 1292 1288 1288 1288 1283 1283 1283 1283 1283 1283 1283 1278 1278 1278 1283 1278 1278 1273 1273 1273 1273 1273 1273 1273 1273 1273 1273 1273 1273 1273 1273 1273 1273 1268 1268 1268 1268 1268 1427 1427 1427 1421 1421 1427 1415 1415 1415 1227 1227 1223 1223 1223 1227 1223 1223 1223 1223 1227 1227 1227 1227 1227 1227 1227 1398 1398 1398 1392 1392 1398 1392 1392 1392 1392 1392 1392 1387 1387 1392 1387 1387 1392 1392 1387 1387 1387 1387 1387 1387 1387 1387 1387 1387 1387 1387 1387 1387 1381 1381 1381 1381 1376 1376 1381 1381 1381 1381 1381 1387 1387 1376 1376 1387 1392 1387 1387 1387 1392 1392 1392 1387 1387 1387 1387 1392 1392 1392 1392 1392 1398 1398 1398 1398 1398 1398 1398 1398 1398 1398 1398 1398 1398 1404 1404 1404 1404 1404 1404 1404 1410 1410 1404 1398 1381 1376 1370 1370 1365 1365 1365 1370 1376 1381 1381 1381 1370 0 0 1387 0 1398 1387 1387 1387 1387 1387 1387 1387 1387 1392 1398 1398 1404 1404 1404 1404 1410 1410 1410 1410 1421 1421 1421 1415 1415 1415 1415 1415 1415 1415 1415 1421 1427 1433 1433 1433 1433 1894 1894 1894 1894 1904 1904 1863 1853 1853 0 0 0 0 3903 3903 3903 3903 3903 3903 3903 3903 3948 3948 3948 3948 3994 3994 3948 3948 3948 3948 3948 3948 3948 3948 3948 3994 3994 3994 3994 3994 3948 3948 3948 3948 3948 3994 3994 3994 4041 4041 4041 4041 4041 4041 4041 4041 4041 3994 3994 4041 4041 4041 4041 4041 4041 4041 4041 4041 3994 3994 3994 3994 3948 3948 3948 3994 3948 3948 3948 3948 3994 3948 3948 3994 3994 3994 3994 3994 3994 3994 3994 3994 3994 3994 3994 3948 3948 3948 3948 3948 3948 3948 3948 3994 3994 3994 3994 3994 3994 3994 3994 4041 4041 4041 4041 3994 3948 3948 3948 3903 3903 3948 3948 0 0 0 0 0 0 0 0 0 0 0 0
0 0 0 0 0 0 0 0 0 0 0 0 0 0 0 0 0 0 0 0 0 0 0 0 0 0 0 0 0 0 0 0 3092 3064 3037 3037 3037 3064 3092 3120 3120 3120 3149 3149 3149 3149 3149 3149 3149 3120 3120 3149 3149 3178 3178 3178 3178 3178 3178 3178 3178 3178 3208 3208 3178 3178 3208 3208 3178 3178 3149 3149 3178 3178 3178 3178 3178 3178 3178 3178 3178 3208 3208 3208 3208 3208 3208 3208 3208 3208 3208 3208 3208 3238 3238 3238 3238 3238 3238 3238 3238 3238 3238 3238 3238 3238 3238 3238 3238 3238 3238 3238 3269 3300 3300 0 1624 1624 1624 1632 1632 1632 1632 1632 1632 1632 1632 1632 1632 1632 1632 1632 1632 1624 1624 1624 1624 1624 1624 1616 1616 1616 1616 1609 1609 1609 1609 1609 1609 1601 1601 1601 1594 1594 1594 1594 1594 1594 1594 1586 1586 1594 1601 3503 3539 3539 3539 3503 3503 3503 3503 3503 3503 3539 3539 3539 3539 3539 3539 3503 3503 3468 3468 3468 3468 3468 3468 3468 3503 3539 0 0 0 0 0 1509 1509 1509 1509 1509 1509 1503 1503 1503 1509 1509 1509 1516 1516 1523 1523 1523 1529 1529 1529 1529 1601 1601 1601 1601 1601 1601 1601 1601 1594 1594 1594 1594 1594 1594 1594 1594 1594 1586 1586 1586 1586 1370 1370 1370 1370 1370 1370 1370 1370 1370 1365 1365 1365 1365 1365 1365 1359 1359 1354 1354 1349 1349 1349 1349 1343 1343 1338 1338 1338 1333 1333 1333 1333 1333 1328 1328 1328 1322 1322 1317 1317 1317 1317 1317 1312 1312 1312 1312 1307 1307 1307 1307 1307 1302 1302 1302 1297 1297 1292 1292 1292 1292 1288 1288 1288 1283 1283 1283 1283 1283 1283 1283 1278 1278 1278 1283 1278 1278 1273 1273 1273 1273 1273 1273 1273 1273 1273 1273 1273 1273 1273 1273 1273 1273 1268 1268 1268 1268 1268 1268 1268 1268 1268 1268 1421 1404 1404 1404 1232 1232 1227 1227 1227 1227 1227 1227 1227 1227 1227 1227 1227 1227 1227 1227 1227 1398 1398 1398 1392 1392 1398 1392 1392 1392 1392 1392 1392 1387 1387 1392 1392 1392 1387 1387 1387 1387 1387 1387 1387 1387 1387 1381 1381 1387 1387 1387 1381 1381 1376 1376 1376 1376 1376 1376 1376 1376 1376 1376 1381 1381 1376 1376 1376 1376 1370 1370 1381 1381 1387 1387 1387 1387 1387 1387 1387 1387 1387 1392 1387 1387 1392 1392 1392 1392 1387 1387 1392 1392 1387 1387 1392 1392 1398 1398 1398 1398 1398 1398 1398 1404 1404 1404 1398 1398 1370 1365 1359 1359 1365 1365 1365 1365 1370 1370 1370 1370 1370 0 0 1387 1387 1387 1387 1387 1387 1387 1387 1387 1387 1387 1387 1392 1392 1398 1398 1398 1398 1398 1398 1404 1404 1421 1421 1421 1415 1415 1415 1415 1410 1410 1415 1415 1421 1427 1427 1427 1421 1421 1894 1894 1894 1904 1904 1894 1894 1853 1853 0 0 0 0 3903 3903 3903 3903 3903 3903 3903 3903 3903 3903 3948 3948 3948 3994 3948 3948 3948 3948 3948 3948 3948 3948 3948 3994 3994 3948 3948 3948 3948 3948 3948 3948 3948 3994 3994 3994 4041 4041 4041 4041 4041 4041 4041 4041 4041 3994 3994 4041 4041 4041 4041 3994 3994 3994 3994 3994 3994 3994 3994 3994 3948 3948 3948 3948 3948 3903 3903 3903 3903 3948 3948 3994 3994 3948 3948 3994 3994 3994 3994 3994 3994 3994 3948 3948 3903 3903 3903 3903 3859 3859 3859 3903 3903 3948 3948 3948 3994 3994 3994 3994 3994 3994 3994 3994 3948 3948 3948 3903 3903 3903 3903 0 0 0 0 0 0 0 0 0 0 0 0
0 0 0 0 0 0 0 0 0 0 0 0 0 0 0 0 0 0 0 0 0 0 0 0 0 0 0 0 0 0 0 0 3092 3092 3092 3064 3064 3092 3092 3092 3092 3120 3120 3120 3120 3120 3120 3120 3120 3120 3120 3120 3120 3149 3149 3149 3149 3149 3149 3149 3149 3149 3149 3149 3149 3178 3178 3149 3149 3149 3120 3120 3178 3178 3178 3178 3178 3178 3178 3178 3178 3178 3178 3178 3178 3178 3178 3178 3178 3178 3208 3208 3208 3208 3208 3208 3208 3208 3238 3238 3238 3238 3238 3238 3238 3208 3208 3238 3238 3238 3238 3238 3269 3269 3269 0 1624 1624 1624 1632 1639 1639 1632 1632 1632 1632 1632 1632 1632 1632 1632 1632 1632 1632 1624 1624 1624 1624 1624 1616 1616 1616 1616 1609 1609 1609 1609 1609 1609 1601 1601 1601 1594 1594 1594 1594 1594 1594 1594 1579 1579 1586 1586 1586 1579 1579 1579 1579 1579 1579 3503 3503 3503 3503 3503 3503 3503 3503 3503 3503 3468 3468 3468 3468 3468 3468 3468 3468 3468 3539 0 0 0 0 0 1509 1509 1516 1509 1509 1509 1503 1503 1503 1509 1509 1516 1516 1516 1523 1523 1523 1529 1529 1529 0 1601 1601 1601 1601 1601 1601 1601 1601 1594 1594 1594 1594 1594 1594 1594 1594 1586 1586 1586 1586 1586 1370 1370 1370 1370 1370 1370 1370 1370 1370 1365 1365 1365 1365 1365 1365 1359 1359 1354 1354 1354 1354 1349 1349 1349 1343 1343 1338 1338 1338 1338 1333 1333 1333 1333 1328 1328 1328 1328 1322 1322 1322 1317 1317 1312 1312 1312 1312 1307 1307 1307 1307 1307 1302 1302 1302 1297 1297 1297 1292 1292 1292 1292 1288 1288 1288 1283 1283 1288 1283 1283 1283 1278 1278 1283 1283 1278 1278 1278 1273 1273 1273 1273 1273 1273 1273 1273 1273 1273 1273 1273 1268 1268 1268 1268 1268 1268 1268 1264 1264 1264 1268 1268 1268 1264 1264 1259 1250 1232 1232 1227 1227 1227 1227 1227 1227 1227 1227 1227 1227 1227 1227 1227 1232 1232 1398 1398 1398 1398 1398 1398 1398 1392 1392 1392 1392 1392 1392 1392 1392 1387 1387 1387 1387 1387 1387 1387 1387 1387 1387 1387 1381 1381 1387 1387 1381 1381 1376 1376 1376 1376 1370 1370 1370 1370 1376 1376 1376 1376 1370 1370 1370 1365 1365 1365 1365 1376 1376 1376 1376 1381 1376 1376 1376 1381 1381 1381 1387 1387 1387 1387 1387 1387 1381 1381 1381 1381 1381 1376 1376 1381 1387 1387 1392 1387 1387 1387 1392 1392 1392 1392 1392 1387 1365 1365 1359 1354 1354 1359 1359 1365 1365 1365 1365 1365 1365 0 0 0 0 1387 1381 1376 1376 1381 1381 1381 1381 1381 1381 1387 1387 1387 1392 1398 1398 1398 1392 1392 1398 1404 1404 1404 1410 1415 1410 1410 1410 1410 1410 1410 1415 1415 1421 1421 1427 1421 1421 1894 1894 1894 1904 1904 1894 1894 1853 1853 0 0 0 3859 3859 3859 3859 3903 3903 3903 3903 3903 3903 3903 3948 3948 3948 3994 3948 3948 3948 3948 3948 3948 3948 3948 3948 3948 3948 3948 3948 3948 3948 3948 3948 3948 3948 3994 3994 3994 4041 4041 4041 4041 4041 3994 3994 3994 3994 3994 3994 3994 3994 3994 3994 3994 3994 3994 3994 3994 3994 3994 3994 3994 3948 3948 3948 3948 3948 3903 3903 3903 3903 3948 3948 3948 3948 3948 3948 3948 3948 3948 3948 3948 3994 3994 3948 3948 3903 3903 3859 3859 3859 3816 3816 3859 3859 3903 3948 3948 3994 3994 3994 3994 3994 3994 3994 3994 3994 3994 3948 3903 3903 3903 3903 0 0 0 0 0 0 0 0 0 0 0 0
0 0 0 0 0 0 0 0 0 0 0 0 0 0 0 0 0 0 0 0 0 0 0 0 0 0 0 0 0 0 0 0 3092 3092 3064 3064 3064 3064 3092 3092 3092 3092 3120 3120 3120 3120 3120 3120 3120 3092 3092 3092 3120 3120 3120 3120 3120 3120 3120 3120 3120 3120 3149 3120 3120 3149 3149 3120 3092 3092 3092 3092 3120 3149 3149 3149 3149 3149 3149 3149 3149 3149 3149 3149 3149 3149 3149 3178 3178 3178 3178 3178 3178 3208 3208 3208 3208 3208 3208 3208 3208 3208 3208 3208 3208 3208 3208 3238 3238 3238 3238 3238 3238 3269 0 3238 0 1624 1624 1632 1639 1639 1639 1639 1639 1639 1639 1639 1639 1639 1632 1632 1632 1632 1624 1624 1624 1624 1624 1616 1616 1616 1616 1609 1609 1609 1609 1609 1609 1601 1601 1601 1594 1594 1594 1594 1594 1594 1594 1579 1579 1579 1579 1579 1579 1579 1579 1579 1579 1579 1579 3503 3503 3468 3433 3433 3433 3433 3468 3468 3468 3433 3433 3433 3433 3433 3468 3468 3468 3539 0 0 0 0 0 1509 1509 1516 1516 1516 1509 1509 1509 1509 1509 1509 1516 1516 1523 1523 1523 1523 1529 1529 1529 2129 2129 2129 2116 2116 1609 1609 1609 1609 1594 1594 1594 1594 1594 1594 1594 1594 1586 1586 1586 1586 1370 1370 1376 1376 1376 1376 1376 1376 1370 1370 1365 1365 1365 1365 1365 1365 1365 1359 1354 1354 1354 1354 1354 1349 1349 1349 1349 1343 1343 1338 1338 1338 1333 1333 1333 1328 1328 1328 1328 1328 1328 1322 1322 1317 1317 1312 1312 1312 1312 1312 1312 1307 1307 1307 1302 1302 1297 1297 1297 1292 1292 1292 1292 1292 1292 1292 1288 1288 1288 1288 1288 1283 1283 1283 1283 1278 1278 1278 1278 1273 1273 1273 1273 1273 1273 1273 1273 1273 1273 1273 1273 1268 1268 1268 1268 1268 1268 1264 1264 1264 1264 1268 1264 1264 1264 1264 1259 1250 1232 1232 1232 1227 1227 1227 1227 1227 1227 1227 1227 1227 1227 1232 1232 1236 1404 1398 1398 1398 1404 1398 1398 1398 1398 1398 1392 1392 1392 1392 1392 1392 1387 1387 1387 1387 1387 1387 1387 1387 1387 1387 1387 1381 1381 1381 1381 1381 1376 1370 1370 1370 1370 1370 1370 1370 1370 1370 1370 1370 1370 1365 1365 1365 1365 1365 1365 1365 1365 1370 1370 1370 1376 1370 1370 1370 1370 1370 1376 1381 1381 1381 1381 1381 1376 1376 1376 1376 1370 1370 1370 1370 1376 1376 1376 1376 1381 1381 1381 1381 1381 1381 1381 1381 1381 1354 1354 1354 1349 1349 1354 1354 1359 1359 1359 1359 1359 1359 1359 1343 1343 1365 1365 1365 1370 1370 1376 1381 1376 1376 1376 1381 1381 1381 1387 1387 1392 1392 1392 1392 1392 1398 1398 1398 1398 1404 1404 1410 1404 1404 1404 1404 1410 1415 1415 1421 1421 1427 1421 1421 1894 1894 1894 1904 1904 1904 1904 0 0 0 0 0 3859 3859 3859 3859 3859 3859 3859 3859 3859 3903 3903 3903 3903 3948 3948 3948 3948 3948 3948 3948 3948 3948 3948 3948 3948 3948 3903 3903 3903 3903 3903 3903 3903 3903 3903 3994 3994 3994 3994 3994 3994 3994 3948 3948 3948 3948 3948 3994 3994 3994 3994 3994 3948 3948 3994 3948 3948 3948 3948 3948 3948 3903 3903 3903 3903 3903 3903 3903 3903 3903 3903 3903 3903 3948 3903 3903 3903 3948 3948 3948 3948 3948 3994 3948 3948 3903 3903 3859 3859 3859 3816 3816 3816 3859 3859 3903 3903 3948 3948 3948 3948 3994 3994 3994 3994 3994 3948 3903 3903 3903 3903 0 0 0 0 0 0 0 0 0 0 0 0 0
0 0 0 0 0 0 0 0 0 0 0 0 0 0 0 0 0 0 0 0 0 0 0 0 0 0 0 0 0 0 0 0 3064 3064 3037 3037 3064 3064 3092 3092 3092 3092 3120 3120 3120 3120 3120 3120 3120 3092 3092 3092 3092 3092 3120 3120 3120 3092 3092 3120 3120 3120 3120 3120 3120 3120 3120 3120 3092 3092 3092 3092 3120 3120 3149 3149 3149 3149 3149 3149 3149 3149 3149 3149 3149 3149 3149 3149 3149 3149 3178 3178 3178 3178 3178 3178 3178 3178 3178 3208 3208 3208 3208 3178 3178 3178 3208 3208 3208 3208 3238 3238 3238 3238 3238 0 0 1639 1639 1639 1639 1639 1639 1639 1647 1647 1639 1639 1639 1639 1639 1632 1632 1632 1632 1632 1632 1624 1624 1624 1616 1616 1616 1616 1609 1609 1609 1609 1609 1601 1601 1601 1594 1594 1594 1594 1594 1594 1594 1579 1579 1579 1579 1579 1579 1579 1579 1579 1579 1579 1579 1579 1579 1579 1579 1579 1579 3433 1564 1564 1557 1557 3433 3433 3433 3433 3433 3468 3468 3539 0 0 0 1523 0 1516 1516 1516 1516 1516 1516 1509 1509 1509 1509 1509 1516 1516 1523 1523 1529 1529 1529 1536 1536 2129 2129 2129 2116 2116 2129 2129 2129 2129 2129 1594 1594 1594 1601 1601 1594 1594 1594 1594 1594 1370 1370 1370 1376 1376 1376 1376 1376 1376 1370 1370 1365 1365 1365 1365 1370 1365 1365 1365 1359 1354 1354 1354 1354 1354 1349 1349 1349 1349 1343 1343 1343 1338 1338 1338 1333 1333 1328 1328 1328 1328 1328 1328 1322 1322 1322 1317 1317 1312 1312 1312 1312 1307 1307 1307 1302 1302 1297 1297 1297 1292 1292 1292 1292 1292 1292 1292 1288 1288 1288 1288 1288 1288 1283 1283 1283 1278 1278 1278 1278 1278 1273 1273 1273 1273 1273 1273 1273 1273 1273 1273 1268 1268 1268 1268 1268 1268 1264 1264 1264 1264 1264 1264 1264 1264 1264 1259 1259 1250 1236 1236 1232 1232 1232 1232 1227 1227 1232 1227 1227 1227 1232 1232 1232 1241 1245 1245 1245 1404 1404 1404 1404 1404 1404 1404 1404 1398 1398 1392 1392 1392 1392 1392 1387 1387 1387 1387 1387 1387 1387 1387 1387 1376 1376 1381 1381 1376 1376 1370 1370 1370 1370 1370 1370 1370 1370 1370 1370 1370 1370 1365 1365 1365 1365 1365 1365 1365 1365 1365 1370 1370 1370 1365 1365 1365 1365 1365 1365 1370 1365 1359 1359 1370 1365 1365 1365 1365 1359 1359 1365 1365 1365 1370 1370 1370 1370 1370 1376 1376 1376 1376 1370 1370 1343 1343 1343 1343 1343 1343 1349 1349 1354 1354 1359 1354 1354 1359 1359 1343 1343 1343 1343 1354 1359 1359 1365 1376 1376 1376 1376 1376 1381 1381 1381 1387 1387 1387 1387 1387 1387 1392 1392 1387 1387 1392 1387 1387 1387 1387 1387 1398 1404 1410 1415 1415 1421 1427 1421 1421 1894 1894 1904 1904 1904 1904 1904 0 0 0 0 0 3859 3859 3859 3859 3859 3859 3859 3859 3859 3859 3859 3903 3903 3903 3903 3903 3903 3903 3903 3903 3903 3903 3903 3903 3903 3903 3903 3903 3859 3859 3859 3859 3859 3903 3903 3948 3994 3994 3994 3994 3994 3948 3903 3903 3948 3948 3948 3994 3994 3994 3948 3948 3948 3948 3948 3903 3903 3903 3903 3903 3903 3903 3903 3903 3903 3903 3859 3859 3859 3859 3859 3859 3903 3903 3859 3859 3859 3903 3859 3859 3903 3903 3948 3948 3948 3903 3903 3859 3859 3859 3816 3816 3816 3859 3859 3859 3859 3903 3903 3903 3903 3948 3903 3903 3994 3994 3948 3903 3903 3903 3903 0 0 0 0 0 0 0 0 0 0 0 0 0
0 0 0 0 0 0 0 0 0 0 0 0 0 0 0 0 0 0 0 0 0 0 0 0 0 0 0 0 0 0 0 0 3064 3064 3037 3037 3064 3064 3064 3064 3064 3092 3092 3120 3120 3120 3120 3092 3092 3064 3064 3064 3092 3092 3092 3092 3092 3092 3092 3120 3120 3120 3120 3120 3120 3120 3120 3120 3092 3092 3092 3092 3092 3120 3120 3120 3120 3120 3120 3120 3120 3120 3120 3120 3120 3120 3120 3120 3120 3120 3149 3149 3149 3178 3178 3178 3178 3178 3178 3208 3208 3178 3178 3178 3178 3178 3178 3178 3208 3208 3208 3208 3208 3238 3238 3238 0 1647 0 1647 1647 1647 1639 1639 1647 1647 1647 1639 1639 1639 1639 1639 1632 1632 1632 1632 1632 1632 1624 1624 1616 1616 1616 1616 1616 1616 1609 1609 1609 1609 1601 1601 1601 1601 1594 1594 1594 1594 1594 1586 1579 1579 1579 1579 1579 1579 1579 1579 1579 1579 1579 1572 1572 1572 1572 1572 1572 1572 1564 1564 1557 1557 3433 3433 3433 3433 3433 3468 3468 3576 0 0 0 1523 1523 1523 1516 1516 1516 1516 1516 1509 1509 1509 1509 1516 1516 1523 1523 1523 1529 1529 1529 1536 1536 2129 2129 2129 2116 2116 2116 2116 2129 2116 2116 2116 2129 2129 2129 2143 2143 2143 2143 2143 1370 1370 1370 1370 1376 1376 1376 1376 1376 1376 1370 1370 1365 1365 1370 1370 1370 1370 1370 1370 1359 1354 1354 1354 1354 1354 1354 1349 1349 1349 1349 1343 1343 1343 1338 1338 1333 1333 1333 1328 1328 1328 1328 1328 1328 1328 1322 1322 1317 1317 1312 1312 1312 1312 1312 1307 1307 1302 1297 1297 1297 1297 1297 1292 1292 1292 1292 1292 1292 1288 1288 1288 1288 1288 1288 1288 1283 1283 1278 1278 1278 1278 1278 1278 1273 1273 1273 1273 1273 1273 1273 1273 1268 1268 1268 1268 1268 1268 1264 1264 1264 1264 1264 1264 1264 1264 1264 1259 1255 1250 1241 1236 1232 1232 1232 1232 1232 1232 1232 1232 1232 1232 1232 1232 1236 1241 1245 1245 1245 1404 1404 1404 1410 1410 1410 1410 1404 1404 1404 1398 1392 1392 1392 1392 1392 1392 1387 1387 1387 1387 1387 1387 1387 1376 1376 1381 1381 1376 1376 1370 1370 1370 1370 1370 1370 1370 1370 1370 1365 1365 1365 1365 1365 1365 1359 1359 1359 1359 1359 1365 1365 1365 1370 1365 1365 1365 1365 1359 1359 1359 1359 1359 1359 1365 1365 1365 1359 1359 1359 1359 1359 1359 1365 1365 1365 1365 1365 1365 1365 1365 1365 1359 1354 1343 1343 1343 1338 1338 1338 1338 1343 1343 1349 1349 1349 1349 1349 1343 1338 1338 1343 1343 1343 1349 1349 1354 1359 1365 1365 1365 1370 1376 1376 1376 1376 1381 1381 1381 1381 1381 1381 1387 1387 1387 1381 1370 1370 1370 1370 1370 1381 1387 1398 1404 1410 1410 1415 1415 1427 1883 1894 1904 1904 1904 1904 1904 1904 0 0 0 0 3859 3859 3859 3859 3859 3859 3859 3859 3859 3859 3859 3859 3903 3903 3903 3903 3903 3903 3903 3859 3859 3903 3903 3903 3903 3903 3903 3903 3903 3859 3859 3859 3859 3859 3903 3903 3948 3948 3948 3948 3903 3903 3903 3903 3903 3903 3903 3903 3948 3948 3948 3948 3903 3903 3903 3903 3903 3903 3903 3903 3903 3859 3859 3859 3859 3859 3859 3859 3859 3859 3859 3859 3859 3859 3859 3859 3859 3859 3859 3859 3859 3859 3859 3903 3948 3903 3859 3859 3859 3859 3859 3859 3816 3816 3859 3859 3859 3859 3859 3859 3859 3903 3903 3903 3903 3859 3859 3903 3903 3903 3903 3903 3903 0 0 0 0 0 0 0 0 0 0 0 0
0 0 0 0 0 0 0 0 0 0 0 0 0 0 0 0 0 0 0 0 0 0 0 0 0 0 0 0 0 0 0 0 3064 3064 3037 3037 3064 3064 3064 3064 3064 3092 3092 3092 3092 3092 3092 3092 3092 3064 3037 3037 3064 3064 3092 3092 3092 3092 3092 3092 3092 3092 3092 3120 3120 3120 3120 3120 3092 3092 3092 3092 3092 3092 3092 3092 3092 3092 3092 3092 3092 3092 3092 3120 3120 3120 3120 3120 3120 3120 3120 3149 3149 3149 3178 3178 3178 3178 3178 3178 3178 3178 3178 3149 3149 3149 3149 3178 3208 3208 3208 3208 3208 3238 3238 3238 0 0 1647 1647 1647 1647 1647 1647 1647 1647 1647 1647 1647 1647 1647 1639 1639 1639 1639 1639 1632 1632 1624 1624 1624 1616 1616 1616 1616 1616 1616 1616 1609 1609 1601 1601 1601 1601 1594 1594 1594 1594 1594 1586 1586 1586 1579 1579 1579 1579 1579 1579 1579 1579 1579 1572 1572 1564 1564 1564 1572 1564 1564 1564 1557 1557 1557 1557 1557 1557 3433 3433 3539 3539 0 1572 1572 1523 1523 1523 1516 1516 1516 1516 1516 1516 1516 1516 1516 1516 1523 1523 1523 1523 1529 1529 1536 1536 1536 2129 2129 2103 2103 2116 2116 2116 2116 2116 2116 2116 2129 2129 2129 2129 2129 2129 2143 2143 2116 1370 1370 1370 1376 1376 1376 1376 1376 1376 1376 1370 1365 1365 1370 1370 1370 1370 1370 1370 1370 1359 1354 1354 1354 1354 1354 1354 1349 1349 1349 1349 1349 1343 1343 1343 1338 1333 1333 1333 1333 1328 1328 1328 1328 1328 1322 1322 1322 1317 1317 1312 1312 1312 1312 1307 1307 1307 1302 1297 1297 1297 1297 1292 1292 1292 1292 1292 1292 1292 1292 1292 1292 1288 1288 1288 1283 1283 1283 1278 1278 1278 1278 1278 1278 1278 1273 1273 1273 1273 1273 1268 1268 1268 1268 1268 1268 1268 1264 1264 1264 1264 1264 1264 1264 1264 1259 1255 1255 1250 1245 1241 1236 1236 1232 1232 1232 1232 1232 1232 1232 1232 1232 1236 1241 1245 1245 1245 1250 1410 1410 1410 1410 1410 1410 1410 1410 1410 1404 1398 1398 1392 1392 1392 1392 1392 1387 1387 1387 1387 1387 1387 1387 1381 1381 1381 1376 1376 1370 1370 1370 1370 1370 1370 1370 1370 1370 1370 1365 1365 1365 1365 1359 1359 1359 1359 1354 1354 1354 1354 1359 1365 1365 1359 1359 1359 1359 1354 1354 1354 1349 1349 1354 1354 1354 1359 1354 1354 1354 1354 1354 1354 1354 1354 1354 1359 1359 1359 1359 1359 1359 1349 1349 1338 1338 1338 1333 1333 1338 1338 1338 1338 1343 1343 1343 1343 1343 1338 1338 1338 1338 1338 1338 1343 1343 1343 1349 1359 1359 1365 1370 1370 1370 1376 1376 1376 1376 1376 1376 1376 1381 1381 1381 1381 1381 1370 1370 1370 1370 1370 1376 1376 1387 1398 1404 1404 1410 1415 1427 1894 1904 1904 1904 1904 1904 1904 1904 0 0 0 0 3859 3859 3859 3859 3859 3859 3859 3859 3859 3859 3859 3859 3859 3859 3859 3859 3859 3859 3859 3859 3859 3903 3903 3903 3903 3903 3903 3903 3859 3859 3859 3859 3859 3859 3859 3859 3903 3903 3948 3903 3903 3903 3903 3859 3859 3903 3903 3903 3903 3903 3903 3903 3903 3903 3903 3903 3903 3903 3903 3903 3859 3859 3859 3859 3859 3859 3859 3816 3816 3816 3816 3859 3859 3859 3859 3859 3859 3859 3859 3859 3859 3859 3859 3859 3859 3859 3859 3859 3859 3859 3859 3859 3816 3816 3816 3859 3859 3859 3859 3859 3859 3859 3859 3859 3859 3859 3859 3859 3903 3903 3903 3903 3903 0 0 0 0 0 0 0 0 0 0 0 0
0 0 0 0 0 0 0 0 0 0 0 0 0 0 0 0 0 0 0 0 0 0 0 0 0 0 0 0 0 0 0 0 3037 3010 3010 3010 3037 3064 3064 3037 3037 3064 3092 3092 3092 3092 3092 3064 3064 3037 3037 3037 3064 3064 3092 3092 3092 3092 3092 3092 3092 3092 3092 3092 3092 3120 3120 3092 3092 3064 3064 3064 3092 3092 3092 3092 3092 3092 3092 3092 3092 3092 3092 3092 3092 3092 3092 3092 3092 3092 3120 3120 3149 3149 3149 3178 3149 3149 3149 3149 3149 3149 3149 3120 3120 3120 3120 3149 3178 3208 3208 3208 3208 3208 3238 3238 0 0 1647 1647 1647 1647 1647 1647 1647 1647 1647 1647 1647 1647 1647 1647 1639 1639 1639 1639 1639 1632 1624 1624 1624 1624 1616 1616 1616 1616 1616 1616 1616 1609 1601 1601 1601 1601 1601 1594 1594 1594 1594 1586 1586 1586 1579 1579 1579 1579 1579 1579 1579 1579 1579 1572 1572 1564 1564 1564 1572 1564 1564 1564 1564 1557 1557 1557 1557 1557 1557 1557 1557 1557 1564 1572 1572 1557 1529 1529 1523 1523 1516 1516 1523 1516 1516 1516 1516 1516 1523 1523 1529 1529 1529 1529 1536 1536 1536 2103 2103 2103 2103 2103 2116 2103 2103 2103 2103 2116 2116 2116 2116 2129 2116 2116 2116 2116 2116 1370 1370 1370 1376 1376 1376 1376 1376 1376 1376 1376 1370 1370 1370 1376 1370 1370 1376 1376 1370 1359 1359 1359 1359 1359 1354 1354 1354 1354 1349 1349 1349 1349 1349 1349 1343 1338 1338 1333 1333 1333 1328 1328 1328 1328 1322 1322 1322 1322 1317 1317 1317 1312 1312 1312 1307 1307 1302 1302 1302 1297 1297 1297 1292 1292 1292 1292 1292 1292 1292 1292 1292 1292 1292 1288 1288 1283 1283 1278 1278 1278 1278 1278 1278 1278 1273 1273 1273 1273 1273 1268 1268 1268 1268 1268 1268 1268 1264 1264 1264 1264 1264 1264 1259 1259 1259 1255 1250 1250 1245 1241 1236 1236 1232 1232 1232 1232 1232 1232 1232 1232 1236 1236 1241 1245 1245 1245 1250 1410 1410 1410 1410 1410 1410 1415 1410 1410 1410 1404 1404 1398 1398 1398 1392 1392 1392 1392 1387 1387 1387 1387 1387 1387 1387 1381 1376 1376 1370 1370 1370 1370 1370 1370 1370 1370 1370 1370 1365 1365 1365 1359 1359 1354 1354 1354 1354 1354 1354 1354 1359 1359 1359 1354 1354 1354 1354 1349 1349 1349 1349 1349 1349 1349 1349 1349 1349 1349 1349 1349 1349 1343 1338 1338 1343 1349 1349 1349 1354 1354 1349 1343 1338 1333 1333 1333 1328 1328 1333 1333 1333 1333 1333 1338 1338 1333 1333 1328 1328 1333 1333 1333 1333 1338 1338 1343 1343 1349 1354 1359 1359 1365 1365 1365 1365 1370 1365 1365 1365 1365 1370 1365 1365 1370 1376 1365 1365 1365 1365 1365 1370 1370 1381 1387 1392 1398 1410 1415 1427 1894 1904 1904 1904 1904 1904 1915 0 0 0 0 0 3859 3859 3859 3816 3816 3816 3816 3816 3816 3816 3816 3859 3859 3859 3859 3816 3816 3816 3816 3859 3859 3859 3903 3903 3903 3903 3903 3903 3859 3859 3859 3859 3859 3859 3859 3859 3903 3903 3903 3903 3859 3859 3859 3859 3859 3859 3859 3859 3859 3859 3859 3859 3859 3859 3859 3859 3859 3859 3859 3859 3859 3859 3859 3859 3859 3859 3859 3816 3816 3816 3816 3816 3859 3859 3859 3859 3859 3859 3859 3816 3816 3816 3816 3816 3816 3816 3816 3816 3859 3859 3859 3859 3816 3816 3816 3816 3816 3816 3816 3859 3859 3859 3816 3816 3816 3816 3816 3816 3859 3859 3859 3859 3859 0 0 0 0 0 0 0 0 0 0 0 0
0 0 0 0 0 0 0 0 0 0 0 0 0 0 0 0 0 0 0 0 0 0 0 0 0 0 0 0 0 0 0 0 3010 3010 3010 3010 3010 3010 3037 3037 3037 3037 3037 3064 3064 3064 3064 3037 3037 3037 3037 3037 3037 3037 3064 3064 3064 3037 3037 3064 3064 3064 3064 3092 3092 3120 3120 3092 3092 3064 3064 3064 3064 3064 3064 3064 3064 3092 3092 3092 3092 3092 3092 3092 3092 3092 3092 3092 3092 3092 3092 3092 3092 3092 3149 3149 3149 3149 3120 3120 3120 3120 3120 3120 3092 3092 3092 3149 3178 3178 3178 3178 3178 3208 3208 0 3238 0 1647 1647 1647 1647 1647 1647 1647 1647 1647 1647 1647 1647 1647 1647 1647 1647 1647 1639 1639 1639 1632 1624 1624 1624 1624 1624 1616 1616 1616 1616 1616 1609 1601 1601 1601 1601 1601 1601 1594 1594 1594 1586 1586 1586 1579 1579 1579 1579 1579 1579 1579 1579 1579 1579 1572 1572 1572 1572 1572 1564 1564 1564 1564 1557 1557 1557 1557 1557 1557 1557 1557 1557 1564 1564 1564 1557 1550 1536 1529 1523 1523 1523 1523 1516 1516 1516 1516 1523 1523 1523 1529 1529 1529 1529 1536 1543 2090 2090 2090 2090 2090 2090 2103 2103 2103 2103 2103 2103 2103 2116 2116 2103 2103 2103 2103 2103 2103 2103 1376 1376 1376 1376 1376 1376 1381 1376 1376 1376 1370 1370 1370 1376 1376 1376 1376 1381 1376 1359 1359 1359 1359 1359 1359 1354 1354 1354 1349 1349 1349 1343 1343 1343 1343 1338 1338 1333 1333 1333 1328 1328 1328 1328 1322 1322 1322 1322 1322 1317 1312 1312 1312 1312 1307 1307 1307 1307 1307 1302 1302 1302 1297 1297 1297 1292 1292 1292 1292 1292 1292 1292 1292 1288 1288 1288 1288 1283 1283 1283 1283 1283 1283 1283 1278 1278 1278 1273 1273 1273 1268 1268 1268 1268 1268 1268 1264 1264 1264 1264 1264 1264 1259 1259 1259 1255 1250 1250 1250 1245 1241 1236 1236 1232 1232 1232 1232 1232 1232 1232 1236 1236 1245 1245 1250 1250 1250 1415 1410 1410 1415 1415 1415 1415 1415 1410 1410 1410 1404 1404 1398 1398 1398 1398 1392 1392 1392 1392 1392 1392 1387 1387 1387 1387 1381 1381 1376 1370 1370 1370 1370 1370 1370 1370 1370 1370 1365 1365 1365 1359 1359 1354 1354 1354 1354 1354 1354 1354 1359 1359 1359 1354 1349 1349 1349 1349 1349 1349 1343 1343 1343 1343 1343 1343 1343 1343 1338 1338 1338 1338 1338 1338 1338 1338 1338 1343 1343 1343 1343 1338 1338 1333 1333 1333 1328 1328 1333 1328 1328 1328 1328 1328 1328 1328 1328 1328 1328 1328 1328 1328 1328 1333 1333 1338 1338 1343 1343 1349 1349 1349 1354 1359 1359 1365 1359 1359 1365 1365 1365 1365 1365 1365 1365 1359 1359 1359 1359 1365 1365 1370 1370 1376 1392 1398 1894 1894 1894 1894 1904 1904 1904 1904 1904 1915 0 0 0 0 0 0 3816 3816 3816 3816 3774 3774 3816 3816 3816 3816 3816 3816 3816 3816 3816 3774 3774 3816 3816 3816 3859 3859 3859 3859 3859 3859 3859 3816 3816 3816 3816 3816 3816 3859 3859 3859 3859 3859 3859 3859 3816 3816 3816 3816 3816 3816 3816 3859 3859 3859 3859 3859 3859 3859 3859 3859 3859 3859 3859 3816 3816 3816 3816 3816 3816 3816 3816 3816 3774 3774 3816 3816 3859 3859 3859 3859 3859 3816 3816 3816 3816 3816 3816 3816 3816 3816 3816 3816 3816 3816 3816 3816 3816 3816 3816 3816 3816 3816 3816 3816 3816 3816 3774 3774 3774 3774 3816 3816 3859 3859 3859 3859 0 0 0 0 0 0 0 0 0 0 0 0
0 0 0 0 0 0 0 0 0 0 0 0 0 0 0 0 0 0 0 0 0 0 0 0 0 0 0 0 0 0 0 0 3010 3010 3010 3010 3010 3010 3010 3010 3010 3010 3037 3037 3037 3037 3037 3010 3010 3010 3010 3010 3010 3010 3010 3010 3010 3010 3010 3010 3037 3037 3037 3064 3092 3092 3092 3092 3092 3064 3064 3064 3064 3064 3064 3064 3064 3064 3064 3064 3064 3064 3064 3064 3092 3092 3064 3064 3064 3064 3092 3092 3092 3092 3092 3092 3120 3120 3120 3092 3092 3092 3092 3092 3092 3092 3092 3092 3120 3092 3092 3120 3178 3208 3208 3238 3238 0 1647 1647 1647 1647 1647 1647 1647 1647 1647 1647 1647 1647 1647 1647 1647 1647 1647 1647 1647 1639 1632 1632 1624 1624 1624 1624 1616 1616 1616 1616 1616 1616 1609 1609 1609 1609 1601 1601 1601 1601 1601 1586 1586 1586 1579 1579 1579 1579 1579 1579 1579 1579 1579 1579 1579 1572 1572 1572 1572 1564 1564 1564 1564 1564 1557 1557 1557 1557 1557 1557 1557 1557 1564 1564 1557 1557 1550 1536 1529 1529 1523 1523 1523 1523 1523 1523 1523 1523 1523 1523 1529 1529 1529 1536 1536 1536 2090 2090 2090 2090 2090 2090 2090 2090 2090 2090 2090 2090 2103 2103 2103 2090 2090 2090 2090 2090 2078 2078 2078 1376 1376 1381 1376 1376 1381 1381 1376 1376 1370 1370 1370 1376 1376 1376 1381 1387 1392 1392 0 0 0 1354 0 1354 1354 1354 1349 1349 1349 1343 1343 1343 1343 1338 1338 1338 1338 1333 1328 1328 1328 1328 1328 1322 1322 1322 1322 1322 1312 1312 1317 1312 1312 1307 1307 1307 1307 1302 1302 1302 1297 1297 1297 1292 1292 1292 1292 1292 1292 1292 1292 1292 1288 1288 1288 1288 1283 1283 1283 1283 1283 1283 1283 1278 1278 1278 1273 1273 1273 1273 1273 1273 1268 1268 1264 1264 1264 1264 1264 1264 1259 1259 1255 1255 1250 1250 1250 1245 1245 1245 1236 1236 1232 1232 1232 1232 1232 1236 1236 1241 1245 1245 1250 1255 1255 1415 1415 1415 1415 1415 1415 1415 1415 1415 1415 1410 1410 1404 1398 1398 1398 1398 1398 1398 1392 1392 1392 1392 1392 1392 1387 1387 1387 1387 1376 1376 1370 1370 1370 1370 1370 1370 1370 1370 1370 1370 1365 1365 1359 1359 1359 1354 1354 1354 1354 1354 1359 1359 1359 1349 1349 1349 1349 1343 1343 1343 1343 1343 1338 1338 1343 1343 1338 1338 1338 1338 1338 1338 1338 1338 1338 1338 1338 1338 1338 1338 1338 1338 1333 1328 1328 1328 1322 1322 1322 1322 1322 1322 1322 1322 1322 1322 1322 1322 1322 1322 1322 1322 1322 1328 1328 1333 1333 1333 1333 1333 1333 1338 1338 1349 1359 1359 1354 1354 1354 1354 1359 1354 1354 1354 1354 1359 1359 1354 1354 1359 1365 1365 1365 1365 1904 1915 1894 1894 1904 1904 1904 1904 1904 1904 1915 0 0 0 0 0 0 3732 3732 3774 3774 3774 3774 3774 3774 3816 3816 3816 3816 3816 3816 3774 3774 3774 3774 3774 3816 3816 3816 3816 3859 3859 3859 3859 3816 3774 3774 3774 3774 3774 3774 3774 3816 3859 3859 3859 3859 3816 3816 3816 3816 3816 3816 3816 3816 3816 3816 3816 3816 3816 3859 3859 3859 3859 3859 3859 3816 3816 3774 3774 3816 3816 3816 3816 3774 3774 3774 3774 3774 3816 3816 3816 3816 3816 3816 3816 3774 3774 3774 3816 3816 3816 3816 3816 3816 3816 3816 3816 3816 3816 3816 3816 3816 3816 3816 3816 3774 3774 3774 3774 3732 3732 3732 3732 3732 3774 3816 3816 3816 3816 0 0 0 0 0 0 0 0 0 0 0 0
0 0 0 0 0 0 0 0 0 0 0 0 0 0 0 0 0 0 0 0 0 0 0 0 0 0 0 0 0 0 0 0 3010 2984 2984 3010 2984 2984 3010 3010 3010 3010 3010 3010 3010 3010 3010 3010 3010 2984 2984 3010 3010 3010 3010 3010 3010 3010 3010 3010 3010 3010 3010 3010 3037 3064 3064 3064 3064 3037 3037 3037 3037 3037 3037 3037 3064 3064 3064 3064 3064 3064 3064 3064 3064 3092 3064 3064 3064 3064 3064 3092 3092 3092 3092 3092 3092 3092 3092 3092 3092 3092 3092 3092 3092 3092 3092 3092 3120 3092 3092 3120 3149 3178 3178 3208 3208 3178 1647 1647 1647 1647 1647 1647 1647 1647 1647 1647 1647 1647 1647 1647 1647 1647 1647 1647 1647 1639 1639 1632 1632 1624 1624 1624 1624 1616 1616 1616 1616 1616 1609 1609 1609 1609 1609 1609 1601 1601 1601 1586 1586 1586 1586 1586 1586 1579 1579 1579 1579 1579 1579 1579 1572 1572 1572 1572 1572 1564 1564 1564 1564 1564 1564 1557 1557 1564 1557 1557 1557 1557 1557 1557 1557 1557 1550 1543 1529 1529 1529 1529 1523 1523 1523 1523 1523 1523 1523 1523 1529 1529 1529 1536 1536 1536 2078 2090 2090 2090 2078 2078 2078 2078 2078 2078 2078 2090 2090 2090 2090 2090 2078 2078 2090 2078 2078 2078 2078 1381 1381 1381 1381 1381 1381 1381 1376 1376 1370 1370 1370 1376 1376 1381 1387 1392 1392 1392 0 0 0 0 0 0 0 2053 1349 1349 1349 1349 1349 1349 1343 1343 1338 1338 1338 1333 1333 1328 1328 1328 1328 1322 1322 1322 1322 1322 1322 1317 1317 1317 1312 1312 1307 1307 1307 1307 1302 1302 1297 1297 1297 1297 1292 1292 1292 1292 1292 1292 1292 1292 1288 1288 1288 1288 1288 1288 1288 1288 1288 1288 1283 1283 1283 1278 1278 1273 1273 1273 1273 1273 1268 1268 1264 1264 1264 1264 1264 1264 1259 1259 1255 1255 1250 1250 1250 1245 1245 1245 1241 1236 1236 1236 1236 1236 1236 1236 1241 1241 1245 1250 1250 1255 1255 1415 1421 1421 1421 1421 1421 1421 1421 1415 1415 1415 1410 1410 1410 1410 1410 1404 1404 1404 1404 1398 1398 1398 1398 1398 1392 1392 1387 1387 1381 1376 1376 1370 1370 1370 1370 1370 1370 1370 1370 1370 1370 1365 1365 1359 1359 1359 1354 1354 1354 1354 1359 1359 1359 1349 1349 1349 1349 1343 1343 1343 1343 1343 1338 1338 1343 1338 1338 1338 1333 1333 1333 1333 1333 1328 1328 1328 1328 1328 1328 1328 1328 1328 1328 1328 1322 1322 1322 1322 1322 1322 1317 1317 1317 1317 1317 1317 1317 1317 1317 1317 1322 1322 1322 1322 1322 1322 1328 1328 1328 1322 1322 1322 1322 1328 1333 1349 1349 1349 1349 1349 1354 1349 1349 1349 1349 1349 1349 1349 1349 1354 1354 1359 1359 1365 1365 1904 1904 1904 1904 1904 1904 1904 1904 1904 1904 0 0 3816 3816 0 3774 3732 3732 3732 3732 3732 3732 3732 3774 3774 3774 3774 3732 3732 3732 3732 3732 3732 3732 3732 3774 3774 3774 3774 3774 3774 3816 3816 3774 3774 3774 3774 3774 3774 3774 3774 3774 3859 3859 3859 3859 3816 3816 3816 3816 3774 3774 3774 3774 3774 3774 3774 3774 3774 3816 3816 3816 3816 3816 3816 3774 3774 3774 3774 3774 3774 3816 3816 3774 3774 3774 3774 3774 3774 3774 3774 3774 3774 3774 3774 3774 3774 3774 3816 3774 3774 3774 3774 3774 3774 3774 3816 3816 3859 3816 3816 3816 3816 3816 3816 3774 3774 3732 3732 3732 3732 3692 3692 3692 3732 3774 3774 3774 3774 0 0 0 0 0 0 0 0 0 0 0 0
0 0 0 0 0 0 0 0 0 0 0 0 0 0 0 0 0 0 0 0 0 0 0 0 0 0 0 0 0 0 0 0 3010 2984 2984 2984 2984 2984 2984 2984 2984 2984 3010 3010 3010 3010 3010 3010 3010 2984 2984 3010 3010 3010 3010 3010 3010 3010 3010 2984 2984 2984 3010 3010 3010 3010 3010 3010 3010 3010 3010 3010 3010 3037 3037 3037 3010 3010 3037 3037 3037 3037 3037 3037 3037 3037 3037 3037 3037 3064 3064 3092 3092 3092 3092 3092 3092 3064 3064 3064 3064 3092 3092 3092 3092 3092 3092 3092 3092 3092 3092 3092 3092 3149 3149 3178 3178 3178 0 1647 1647 1647 1647 1647 1647 1647 1647 1647 1647 1655 1647 1647 1655 1647 1647 1647 1647 1647 1639 1632 1632 1632 1624 1624 1624 1616 1616 1616 1616 1616 1609 1609 1609 1609 1609 1609 1609 1609 1609 1594 1594 1594 1586 1586 1586 1586 1586 1579 1579 1579 1579 1579 1572 1572 1572 1572 1572 1564 1564 1564 1564 1564 1564 1557 1557 1564 1557 1557 1557 1557 1557 1557 1557 1557 1557 1550 1536 1536 1529 1529 1523 1523 1523 1523 1523 1523 1523 1529 1529 1529 1529 1536 1536 1536 2065 2078 2078 2065 2065 2065 2065 2065 2065 2065 2078 2078 2078 2078 2078 2078 2078 2078 2078 2078 2065 2065 2065 1381 1381 1381 1381 1381 1381 1381 1381 1381 1376 1376 1376 1376 1376 1381 1387 1392 1392 1398 0 0 0 0 0 0 0 2053 2053 2053 1349 1349 1349 1349 1343 1343 1343 1343 1343 1333 1333 1333 1328 1322 1322 1322 1322 1322 1322 1322 1322 1322 1317 1317 1312 1312 1307 1307 1307 1307 1307 1302 1302 1297 1297 1297 1292 1292 1292 1292 1292 1292 1292 1292 1292 1292 1288 1288 1288 1288 1288 1288 1288 1288 1283 1283 1283 1278 1278 1273 1273 1273 1273 1273 1268 1268 1264 1264 1264 1264 1264 1264 1259 1259 1255 1255 1255 1250 1250 1250 1245 1245 1241 1241 1236 1236 1236 1236 1236 1236 1241 1241 1245 1245 1250 1250 1255 1415 1421 1421 1427 1421 1421 1421 1421 1421 1415 1415 1415 1410 1410 1410 1410 1410 1410 1410 1404 1404 1404 1404 1398 1398 1398 1392 1392 1387 1387 1381 1381 1376 1376 1376 1376 1376 1376 1376 1376 1376 1370 1370 1370 1365 1365 1359 1359 1359 1359 1359 1359 1359 1359 1349 1349 1349 1349 1343 1343 1343 1343 1343 1338 1338 1338 1338 1338 1338 1333 1333 1328 1328 1328 1328 1328 1328 1328 1322 1322 1328 1322 1322 1322 1322 1322 1322 1317 1317 1317 1317 1317 1317 1317 1317 1317 1317 1317 1317 1317 1317 1317 1317 1317 1317 1317 1317 1317 1317 1312 1312 1312 1312 1312 1317 1317 1322 1322 1328 1333 1333 1333 1333 1328 1328 1328 1328 1328 1328 1328 1328 1333 1343 1354 1365 1365 1904 1904 1904 1904 1904 1915 1915 1904 1904 1904 1904 0 3816 3816 3774 3774 3732 3732 3732 3732 3732 3732 3732 3774 3774 3732 3732 3732 3732 3692 3692 3692 3692 3692 3692 3732 3732 3732 3774 3774 3774 3774 3774 3774 3732 3732 3732 3732 3774 3774 3774 3774 3816 3859 3859 3816 3816 3816 3816 3774 3774 3732 3732 3732 3732 3732 3732 3732 3732 3774 3774 3774 3774 3774 3774 3774 3774 3732 3732 3774 3774 3774 3774 3732 3732 3732 3732 3732 3774 3774 3732 3732 3774 3774 3774 3774 3774 3774 3774 3732 3732 3732 3732 3732 3732 3732 3732 3774 3816 3774 3774 3774 3774 3774 3774 3732 3732 3732 3732 3692 3692 3692 3692 3692 3732 3732 3774 3774 3774 0 0 0 0 0 0 0 0 0 0 0 0
0 0 0 0 0 0 0 0 0 0 0 0 0 0 0 0 0 0 0 0 0 0 0 0 0 0 0 0 0 0 0 0 2984 2984 2984 2984 2984 2984 2984 2984 2984 2984 2984 3010 3010 3010 3010 2984 2984 2984 2984 3010 3010 3010 3010 3010 3010 2984 2984 2984 2984 2984 2984 2984 2984 3010 3010 3010 3010 3010 2984 2984 3010 3010 3010 3010 3010 3010 3010 3037 3037 3037 3037 3037 3037 3037 3010 3010 3037 3037 3064 3064 3064 3064 3064 3064 3064 3064 3064 3064 3064 3064 3064 3064 3064 3064 3092 3092 3092 3092 3092 3092 3092 3149 3149 3178 3178 3178 0 1647 1647 1647 1647 1647 1647 1647 1647 1647 1655 1655 1655 1655 1655 1655 1655 1655 1647 1647 1639 1632 1632 1632 1632 1624 1624 1624 1624 1616 1616 1616 1616 1616 1616 1609 1609 1609 1609 1609 1609 1594 1594 1594 1594 1594 1586 1586 1586 1586 1579 1579 1579 1579 1572 1572 1572 1572 1572 1564 1564 1564 1564 1564 1564 1557 1557 1564 1557 1557 1557 1557 1557 1557 1557 1557 1557 1550 1543 1536 1529 1529 1529 1523 1523 1523 1523 1523 1529 1529 1529 1529 1536 1536 1536 1536 2053 2078 2078 2053 2053 2053 2053 2053 2053 2053 2065 2065 2065 2065 2065 2065 2065 2065 2065 2065 2065 2065 2065 1381 1381 1381 1381 1381 1381 1381 1381 1381 1376 1376 1376 1376 1381 1381 1392 1392 1398 1398 0 0 0 0 0 0 0 2053 2053 2053 2053 2040 2040 2040 2040 1343 1343 1343 1343 1338 1333 1333 1328 1322 1322 1322 1322 1322 1322 1322 1322 1322 1317 1317 1312 1312 1307 1307 1307 1307 1307 1307 1302 1302 1302 1297 1297 1297 1297 1297 1297 1297 1297 1297 1292 1292 1292 1288 1288 1288 1288 1288 1288 1288 1283 1283 1283 1283 1278 1278 1278 1278 1273 1273 1273 1268 1268 1264 1264 1264 1264 1264 1264 1264 1259 1259 1255 1250 1250 1250 1245 1245 1241 1241 1236 1236 1236 1236 1236 1241 1241 1245 1245 1245 1250 1250 1259 1427 1427 1427 1427 1427 1421 1421 1415 1415 1415 1415 1415 1415 1410 1410 1410 1410 1410 1410 1410 1410 1410 1404 1404 1404 1398 1398 1392 1392 1387 1387 1381 1381 1381 1381 1381 1381 1381 1381 1376 1376 1370 1370 1370 1370 1365 1365 1365 1365 1359 1359 1359 1365 1359 1354 1349 1349 1349 1343 1343 1343 1343 1343 1343 1343 1338 1338 1338 1338 1333 1333 1328 1328 1328 1328 1328 1328 1328 1322 1322 1322 1322 1322 1322 1322 1322 1317 1317 1317 1317 1317 1317 1317 1312 1312 1312 1312 1317 1312 1312 1317 1317 1317 1312 1312 1312 1307 1307 1307 1307 1307 1307 1307 1307 1312 1312 1312 1322 1322 1328 1328 1328 1328 1322 1322 1322 1322 1322 1322 1322 1322 1328 1333 1354 1354 1947 1915 1915 1915 1915 1915 1915 1915 1915 1904 1904 1904 0 3774 3774 3774 3732 3692 3692 3732 3732 3732 3732 3732 3732 3732 3692 3692 3692 3653 3653 3653 3653 3653 3653 3653 3692 3692 3692 3692 3692 3692 3732 3732 3732 3732 3692 3692 3692 3732 3732 3732 3732 3732 3774 3774 3774 3774 3732 3732 3732 3732 3732 3732 3732 3732 3732 3732 3732 3732 3732 3732 3732 3774 3774 3774 3774 3732 3732 3732 3774 3774 3774 3774 3732 3732 3732 3732 3732 3774 3774 3732 3732 3732 3732 3732 3732 3732 3732 3774 3732 3732 3732 3732 3692 3692 3732 3732 3732 3774 3732 3732 3732 3732 3732 3732 3732 3732 3732 3692 3692 3692 3692 3692 3692 3692 3692 3732 3732 3732 0 0 0 0 0 0 0 0 0 0 0 0
0 0 0 0 0 0 0 0 0 0 0 0 0 0 0 0 0 0 0 0 0 0 0 0 0 0 0 0 0 0 0 0 2958 2958 2958 2958 2958 2958 2958 2958 2984 2984 2984 2984 2984 2984 2984 2984 2984 2984 2984 2984 3010 3010 3010 2984 2984 2984 2984 2984 2984 2984 2984 2984 2958 2958 2984 2984 2984 2984 2984 2984 2984 3010 3010 3010 3010 3010 3010 3010 3010 3010 3010 3010 3010 2984 2984 2984 3010 3010 3010 3037 3037 3037 3037 3037 3064 3037 3037 3064 3064 3064 3064 3064 3064 3064 3064 3092 3092 3092 3092 3092 3092 3092 3092 3120 3120 3120 0 1647 1647 1647 1647 1647 1647 1655 1655 1655 1655 1655 1655 1655 1655 1663 1663 1655 1655 1655 1647 1632 1632 1639 1639 1632 1624 1624 1624 1624 1616 1616 1616 1616 1616 1616 1616 1616 1616 1609 1609 1601 1601 1601 1601 1601 1594 1594 1594 1586 1586 1586 1579 1579 1579 1572 1572 1572 1572 1572 1572 1572 1564 1564 1564 1564 1564 1564 1557 1557 1557 1557 1557 1557 1557 1557 1557 1557 1550 1543 1536 1529 1529 1529 1523 1523 1523 1523 1529 1529 1529 1529 1536 1536 1536 1536 2016 2028 2028 2040 2040 2040 2040 2053 2053 2053 2053 2053 2053 2053 2053 2053 2053 2053 2053 2053 2053 2053 2053 1387 1387 1387 1387 1387 1387 1387 1387 1387 1376 1376 1376 1381 1381 1387 1392 1392 1398 1398 0 0 0 0 0 0 2053 2053 2053 2053 2053 2040 2040 2040 2040 2040 2040 1343 1343 1338 1338 1333 1333 1333 1317 1317 1322 1322 1322 1322 1322 1322 1322 1317 1317 1312 1312 1312 1312 1307 1307 1307 1307 1302 1302 1302 1297 1297 1297 1297 1297 1297 1297 1297 1292 1292 1292 1292 1288 1288 1288 1288 1288 1288 1288 1283 1283 1283 1283 1278 1278 1283 1273 1273 1273 1273 1268 1268 1268 1264 1264 1264 1264 1264 1259 1259 1255 1255 1255 1250 1245 1245 1245 1241 1241 1241 1236 1236 1236 1241 1241 1245 1245 1245 1250 1250 1259 1427 1427 1427 1427 1427 1427 1421 1415 1415 1415 1415 1415 1415 1415 1410 1410 1415 1415 1415 1410 1410 1410 1410 1410 1410 1404 1398 1398 1392 1392 1387 1387 1387 1387 1387 1387 1387 1387 1381 1381 1381 1376 1376 1376 1370 1370 1365 1365 1365 1365 1365 1365 1365 1359 1354 1349 1349 1349 1349 1343 1343 1343 1343 1343 1343 1343 1338 1338 1338 1338 1333 1333 1333 1333 1333 1328 1328 1328 1322 1322 1322 1322 1322 1322 1322 1317 1317 1317 1317 1317 1317 1317 1317 1312 1312 1312 1312 1312 1307 1307 1312 1312 1312 1312 1312 1307 1307 1307 1307 1302 1302 1302 1307 1307 1307 1312 1312 1317 1317 1322 1328 1322 1322 1317 1317 1317 1317 1317 1317 1322 1322 1322 1322 1322 1947 1947 1936 1915 1915 1915 1915 1915 1915 1915 1904 1894 1894 1894 3732 3732 3732 3692 3692 3692 3692 3692 3692 3692 3692 3692 3692 3692 3653 3653 3653 3614 3614 3614 3614 3653 3653 3653 3653 3653 3692 3692 3692 3692 3692 3692 3692 3692 3692 3692 3692 3692 3692 3692 3732 3732 3774 3774 3732 3732 3732 3732 3692 3692 3692 3692 3732 3732 3732 3692 3692 3692 3692 3692 3732 3732 3732 3732 3732 3732 3732 3732 3732 3732 3732 3692 3692 3692 3692 3692 3732 3732 3692 3692 3692 3692 3692 3692 3692 3692 3732 3732 3732 3732 3732 3692 3692 3692 3692 3692 3692 3692 3692 3692 3692 3692 3732 3692 3692 3692 3692 3692 3692 3653 3653 3692 3692 3692 3692 3692 3692 0 0 0 0 0 0 0 0 0 0 0 0
0 0 0 0 0 0 0 0 0 0 0 0 0 0 0 0 0 0 0 0 0 0 0 0 0 0 0 0 0 0 0 0 2933 2933 2933 2933 2933 2933 2933 2933 2958 2958 2958 2958 2958 2958 2958 2984 2984 2984 2984 2984 2984 3010 2984 2984 2984 2984 2984 2984 2984 2984 2984 2984 2958 2958 2984 2984 2984 2984 2984 2984 2984 2984 2984 2984 2984 2984 2984 2984 2984 2984 2984 2984 3010 2984 2984 2984 3010 3010 3010 3037 3037 3037 3037 3037 3037 3037 3037 3037 3064 3064 3064 3064 3064 3064 3064 3064 3064 3064 3092 3092 3092 3092 3092 3092 3120 3149 0 1647 1647 1647 1647 1647 1655 1655 1655 1655 1655 1655 1655 1655 1655 1663 1663 1655 1655 1655 1647 1632 1632 1639 1639 1632 1632 1624 1624 1624 1624 1616 1616 1616 1616 1616 1616 1616 1616 1616 1616 1601 1601 1601 1601 1601 1594 1594 1594 1586 1586 1586 1579 1579 1579 1572 1572 1572 1572 1572 1572 1572 1572 1572 1564 1564 1564 1564 1564 1564 1564 1564 1557 1557 1557 1557 1557 1557 1550 1543 1543 1536 1529 1529 1529 1529 1523 1523 1529 1529 1529 1529 1536 1536 1536 1543 1550 2028 2028 2028 2028 2028 2028 2040 2040 2040 2040 2040 2040 2040 2040 2040 2040 2040 2040 2040 2040 2040 2040 2040 1387 1387 1387 1387 1387 1387 1387 1387 1381 1381 1381 1381 1387 1387 1392 1392 1398 1398 1398 0 0 0 0 0 2053 2053 2053 2053 2053 2053 2053 2053 2040 2040 2053 2065 1349 1343 1338 1338 1338 1312 1312 1317 1322 1322 1322 1322 1322 1322 1322 1317 1317 1312 1312 1312 1312 1312 1307 1307 1307 1307 1307 1302 1297 1297 1302 1302 1297 1297 1297 1297 1292 1292 1292 1292 1292 1292 1292 1292 1292 1288 1283 1283 1283 1283 1283 1283 1283 1283 1278 1273 1273 1273 1268 1268 1268 1268 1268 1268 1264 1264 1264 1264 1259 1255 1255 1250 1245 1245 1245 1245 1241 1241 1241 1241 1245 1245 1245 1250 1250 1250 1255 1255 1259 1427 1427 1427 1427 1427 1427 1421 1421 1421 1415 1415 1415 1415 1415 1415 1415 1415 1415 1415 1415 1410 1410 1410 1410 1410 1404 1398 1398 1392 1392 1392 1387 1387 1387 1387 1387 1387 1387 1387 1387 1381 1381 1376 1376 1376 1370 1370 1370 1370 1365 1365 1365 1365 1365 1354 1354 1354 1354 1349 1349 1343 1343 1343 1343 1343 1343 1338 1338 1338 1338 1338 1333 1333 1333 1333 1328 1328 1328 1322 1322 1322 1322 1322 1322 1322 1317 1317 1317 1317 1317 1317 1317 1317 1312 1312 1312 1312 1312 1307 1307 1307 1312 1312 1307 1307 1307 1302 1302 1302 1302 1302 1302 1302 1302 1302 1307 1307 1307 1312 1317 1317 1317 1317 1312 1312 1312 1312 1312 1317 1317 1317 1317 1322 1322 1322 1947 1926 1926 1926 1915 1915 1926 1915 1915 1904 1894 1894 1894 3692 3692 3692 3692 3692 3692 3692 3692 3692 3692 3692 3692 3692 3653 3653 3653 3614 3614 3614 3614 3614 3614 3653 3653 3653 3653 3653 3653 3653 3692 3692 3692 3692 3692 3692 3692 3692 3692 3692 3692 3692 3692 3732 3732 3692 3692 3692 3692 3692 3692 3692 3692 3692 3692 3692 3692 3692 3692 3692 3692 3692 3692 3692 3732 3732 3692 3692 3692 3692 3692 3692 3653 3653 3692 3692 3692 3692 3692 3692 3692 3653 3653 3653 3653 3653 3692 3692 3692 3692 3692 3692 3692 3692 3692 3653 3653 3653 3692 3692 3692 3692 3692 3692 3692 3692 3692 3692 3653 3653 3653 3653 3614 3614 3614 3614 3653 3653 0 0 0 0 0 0 0 0 0 0 0 0
0 0 0 0 0 0 0 0 0 0 0 0 0 0 0 0 0 0 0 0 0 0 0 0 0 0 0 0 0 0 0 0 2908 2908 2908 2908 2908 2933 2933 2933 2933 2933 2933 2958 2933 2933 2958 2958 2958 2958 2984 2984 2984 2984 2984 2984 2984 2958 2958 2984 2984 2984 2984 2984 2984 2984 2984 2984 2984 2984 2984 2984 2984 2984 2984 2984 2984 2984 2984 2984 2984 2984 2984 2958 2958 2958 2984 2984 2984 2984 3010 3010 3010 3010 3010 3037 3037 3037 3037 3037 3037 3037 3037 3037 3064 3064 3064 3064 3064 3064 3092 3092 3092 3092 3092 3092 3092 3120 3120 3120 1647 1647 1647 1647 1655 1655 1655 1655 1655 1655 1655 1655 1663 1663 1671 1663 1663 1655 1655 1632 1632 1632 1632 1639 1632 1632 1632 1624 1624 1624 1616 1616 1616 1616 1616 1616 1616 1616 1609 1601 1601 1601 1601 1601 1594 1594 1594 1586 1586 1586 1579 1579 1579 1579 1579 1572 1572 1572 1572 1572 1572 1572 1572 1564 1564 1564 1564 1564 1564 1564 1557 1557 1557 1557 1557 1557 1550 1550 1543 1543 1529 1529 1529 1529 1523 1523 1529 1529 1529 1529 1536 1536 1536 1543 1550 2028 2028 2016 2016 2016 2016 2028 2028 2040 2040 2040 2040 2040 2040 2040 2040 2040 2028 2028 2028 2040 2040 2040 1398 1392 1387 1387 1387 1387 1387 1387 1381 1381 1381 1387 1392 1392 1392 1398 1398 1398 1398 0 0 2028 0 0 2053 2053 2053 2053 2053 2053 2053 2040 2040 2040 2053 2053 2053 2053 2065 2065 1312 1312 1312 1317 1322 1322 1322 1322 1322 1322 1322 1322 1317 1312 1312 1312 1312 1312 1312 1312 1312 1307 1307 1307 1302 1302 1302 1302 1302 1302 1297 1297 1297 1297 1292 1292 1292 1292 1292 1292 1292 1288 1283 1283 1283 1283 1283 1283 1283 1283 1278 1273 1273 1273 1268 1268 1268 1268 1268 1268 1268 1268 1264 1264 1259 1255 1255 1250 1250 1245 1245 1245 1245 1245 1245 1245 1245 1245 1250 1250 1250 1250 1250 1255 1259 1427 1427 1427 1433 1433 1427 1421 1421 1421 1415 1415 1415 1415 1415 1415 1415 1415 1415 1415 1415 1410 1410 1410 1410 1410 1404 1398 1398 1392 1392 1392 1392 1387 1387 1392 1392 1392 1392 1387 1387 1387 1387 1381 1381 1376 1376 1370 1370 1370 1370 1365 1365 1365 1365 1359 1354 1354 1354 1349 1349 1349 1349 1349 1349 1343 1343 1343 1343 1338 1338 1338 1338 1333 1333 1333 1333 1333 1328 1322 1322 1328 1322 1322 1322 1322 1322 1317 1317 1317 1312 1312 1312 1312 1307 1307 1307 1307 1307 1307 1307 1307 1307 1307 1302 1302 1302 1302 1302 1302 1302 1302 1302 1302 1302 1302 1302 1302 1302 1297 1297 1307 1297 1297 1307 1307 1307 1307 1307 1312 1312 1312 1312 1317 1317 1317 1926 1926 1926 1926 1926 1926 1926 1926 1915 1904 1904 1904 3692 3692 3653 3653 3653 3653 3653 3653 3614 3614 3653 3653 3653 3653 3614 3614 3614 3614 3576 3576 3576 3614 3614 3614 3614 3614 3614 3653 3653 3653 3653 3653 3653 3653 3653 3653 3653 3653 3653 3692 3692 3653 3653 3692 3692 3692 3692 3692 3692 3692 3692 3692 3692 3692 3692 3692 3692 3692 3692 3653 3653 3653 3653 3653 3692 3692 3692 3653 3653 3653 3653 3653 3653 3653 3653 3692 3692 3692 3692 3692 3653 3653 3653 3653 3653 3653 3653 3653 3653 3692 3653 3653 3653 3653 3653 3614 3614 3614 3653 3653 3653 3653 3653 3692 3692 3692 3692 3653 3653 3653 3614 3614 3576 3576 3576 3576 3576 3576 0 0 0 0 0 0 0 0 0 0 0 0
0 0 0 0 0 0 0 0 0 0 0 0 0 0 0 0 0 0 0 0 0 0 0 0 0 0 0 0 0 0 0 0 2908 2908 2908 2908 2908 2908 2908 2908 2908 2908 2933 2933 2933 2933 2958 2958 2958 2958 2958 2958 2984 2984 2984 2958 2958 2958 2958 2984 2984 2984 2958 2958 2984 2984 2984 2984 2958 2958 2958 2958 2984 2984 2984 2984 2984 2984 2984 2984 2984 2984 2984 2958 2958 2958 2958 2958 2984 2984 3010 3010 3010 3010 3010 3010 3010 3010 3010 3010 3037 3037 3037 3037 3037 3037 3064 3064 3064 3064 3064 3064 3092 3092 3092 3092 3092 3092 3092 0 1647 1647 1647 1647 1655 1655 1655 1655 1655 1655 1655 1663 1663 1671 1680 1688 1688 1705 1705 1794 1794 1632 1632 1639 1639 1632 1624 1624 1624 1624 1616 1616 1616 1616 1616 1616 1616 1616 1609 1609 1609 1601 1601 1601 1601 1594 1594 1594 1586 1586 1579 1579 1579 1579 1579 1579 1579 1579 1579 1579 1579 1579 1572 1572 1572 1572 1572 1564 1564 1564 1557 1557 1557 1557 1557 1557 1550 1550 1550 1543 1536 1529 1529 1529 1529 1529 1529 1529 1529 1529 1536 1536 1536 1543 1550 1557 1993 1993 2005 2005 2005 2016 2016 2028 2028 2028 2028 2028 2028 2028 2028 2028 2028 2016 2016 2016 2016 1398 1398 1398 1392 1392 1392 1392 1392 1387 1387 1387 1387 1392 1392 1392 1392 1398 1398 1398 1398 0 0 2028 2028 2028 2040 2040 2040 2040 2040 2040 2053 2040 2040 2040 2053 2053 2053 2053 2040 2040 2040 2040 1317 1317 1322 1322 1322 1322 1322 1322 1322 1322 1317 1317 1312 1312 1312 1312 1312 1312 1312 1312 1312 1307 1307 1307 1307 1302 1302 1302 1302 1302 1297 1297 1297 1292 1292 1292 1292 1292 1292 1288 1288 1288 1288 1288 1288 1288 1288 1288 1283 1283 1278 1278 1273 1268 1268 1268 1268 1268 1268 1268 1268 1264 1264 1264 1259 1255 1250 1250 1245 1245 1245 1245 1245 1250 1250 1250 1250 1250 1250 1250 1250 1255 1264 1427 1433 1433 1433 1433 1427 1427 1421 1421 1421 1415 1415 1415 1415 1415 1415 1415 1415 1415 1415 1410 1410 1410 1410 1410 1404 1398 1398 1398 1392 1392 1392 1392 1392 1392 1392 1392 1392 1392 1392 1387 1387 1387 1381 1381 1376 1370 1370 1370 1370 1370 1370 1370 1365 1359 1359 1359 1359 1354 1354 1349 1349 1349 1349 1349 1343 1343 1343 1343 1343 1338 1338 1338 1338 1338 1333 1333 1328 1328 1328 1328 1322 1322 1322 1322 1322 1317 1317 1317 1312 1312 1312 1312 1307 1307 1307 1307 1302 1302 1302 1302 1307 1307 1302 1302 1302 1302 1302 1302 1302 1302 1302 1297 1297 1297 1302 1302 1302 1297 1297 1302 1297 1297 1297 1297 1302 1302 1302 1307 1307 1307 1312 1317 1317 1317 1926 1926 1926 1926 1926 1926 1926 1915 1915 1904 1904 1904 1904 3653 3653 3653 3614 3614 3614 3614 3614 3614 3614 3653 3614 3614 3614 3614 3614 3614 3576 3576 3576 3576 3576 3576 3576 3614 3614 3614 3653 3653 3653 3653 3653 3653 3653 3653 3614 3614 3614 3653 3653 3614 3614 3653 3653 3653 3653 3653 3692 3692 3692 3692 3692 3692 3692 3692 3692 3653 3653 3653 3653 3653 3653 3653 3653 3653 3653 3653 3653 3653 3653 3653 3614 3614 3653 3653 3692 3692 3692 3653 3653 3653 3614 3614 3614 3614 3653 3653 3653 3692 3653 3653 3653 3653 3653 3614 3614 3614 3653 3653 3653 3653 3653 3692 3653 3653 3653 3653 3653 3653 3614 3614 3576 3576 3576 3576 3576 3576 0 0 0 0 0 0 0 0 0 0 0 0
0 0 0 0 0 0 0 0 0 0 0 0 0 0 0 0 0 0 0 0 0 0 0 0 0 0 0 0 0 0 0 0 2908 2908 2883 2883 2908 2908 2908 2908 2908 2908 2933 2933 2933 2933 2933 2933 2933 2933 2933 2958 2958 2958 2958 2933 2933 2933 2933 2958 2958 2958 2958 2958 2984 2984 2984 2984 2958 2958 2958 2958 2958 2958 2958 2984 2984 2984 2984 2984 2984 2958 2958 2958 2958 2958 2958 2958 2984 2984 2984 2984 2984 2984 3010 3010 3010 3010 3010 3010 3037 3037 3037 3037 3037 3037 3037 3064 3064 3064 3064 3064 3064 3064 3064 3064 3064 3064 3064 0 1647 1647 1647 1655 1655 1655 1655 1655 1655 1663 1663 1663 1663 1671 1680 1688 1696 1705 1766 1785 1785 1794 1823 1823 1843 1639 1624 1624 1624 1624 1624 1624 1624 1624 1624 1624 1616 1616 1609 1609 1609 1609 1609 1601 1601 1601 1601 1594 1586 1586 1586 1579 1579 1579 1579 1579 1579 1579 1579 1579 1579 1579 1572 1572 1572 1572 1572 1572 1572 1572 1564 1564 1557 1557 1557 1557 1550 1550 1550 1543 1536 1529 1529 1529 1529 1529 1529 1529 1529 1529 1536 1543 1543 1543 1557 1557 1564 1993 1993 1993 2005 2005 2016 2016 2028 2028 2028 2016 2016 2016 2016 2016 2005 2005 2005 2005 2005 1398 1398 1398 1392 1392 1392 1392 1392 1387 1387 1387 1392 1392 1392 1392 1398 1398 1398 1398 1398 1398 1410 2016 2016 2016 2028 2028 2028 2040 2040 2040 2040 2040 2040 2040 2040 2040 2040 2040 2040 2028 2028 2028 2028 2028 2016 2016 2028 2016 2016 2028 1328 1328 1317 1317 1312 1312 1312 1312 1312 1312 1312 1312 1312 1307 1307 1307 1307 1302 1302 1302 1302 1302 1297 1297 1297 1297 1292 1292 1292 1292 1292 1292 1292 1292 1292 1288 1288 1288 1288 1288 1288 1283 1278 1278 1278 1273 1273 1268 1268 1268 1268 1268 1268 1268 1264 1264 1259 1255 1250 1250 1250 1250 1250 1250 1245 1245 1245 1250 1250 1250 1250 1250 1255 1255 1427 1427 1427 1427 1433 1433 1433 1427 1427 1421 1421 1421 1421 1415 1415 1415 1415 1415 1415 1415 1415 1415 1410 1410 1410 1410 1404 1404 1398 1398 1398 1392 1392 1392 1392 1392 1392 1392 1392 1392 1392 1387 1387 1387 1387 1381 1376 1376 1376 1370 1370 1370 1370 1370 1370 1365 1365 1365 1359 1359 1359 1354 1354 1354 1354 1349 1343 1343 1343 1343 1343 1338 1338 1338 1338 1338 1338 1338 1333 1328 1328 1328 1328 1322 1322 1322 1322 1317 1317 1317 1317 1312 1312 1312 1307 1307 1307 1307 1302 1302 1302 1302 1302 1302 1302 1302 1302 1302 1302 1302 1302 1302 1302 1297 1297 1297 1297 1297 1297 1297 1297 1297 1297 1292 1292 1292 1297 1297 1297 1302 1302 1302 1302 1317 1317 1926 1926 1926 1926 1926 1926 1926 1926 1915 1915 1904 1904 1904 3576 3614 3614 3614 3576 3576 3576 3576 3576 3576 3576 3614 3614 3614 3614 3614 3614 3576 3576 3576 3576 3576 3576 3576 3576 3576 3576 3614 3614 3614 3614 3614 3614 3614 3614 3614 3614 3614 3614 3653 3653 3614 3614 3614 3614 3614 3614 3653 3653 3653 3692 3692 3692 3692 3692 3692 3653 3653 3653 3614 3614 3614 3614 3614 3653 3653 3653 3614 3614 3614 3614 3614 3576 3576 3614 3653 3692 3692 3692 3653 3653 3653 3614 3614 3614 3614 3614 3653 3653 3653 3653 3653 3653 3653 3653 3614 3614 3614 3614 3614 3614 3614 3614 3653 3653 3653 3653 3653 3614 3614 3614 3614 3576 3576 3576 3576 3576 3576 0 0 0 0 0 0 0 0 0 0 0 0
0 0 0 0 0 0 0 0 0 0 0 0 0 0 0 0 0 0 0 0 0 0 0 0 0 0 0 0 0 0 0 0 2883 2883 2883 2883 2883 2908 2883 2883 2908 2908 2908 2908 2908 2908 2908 2933 2933 2933 2933 2933 2933 2933 2958 2933 2933 2908 2908 2933 2933 2933 2933 2933 2958 2958 2984 2984 2958 2958 2958 2958 2958 2958 2958 2958 2958 2958 2958 2958 2958 2958 2958 2958 2958 2958 2958 2958 2984 2984 2984 2984 2984 2984 2984 3010 3010 3010 3037 3037 3037 3037 3037 3037 3037 3037 3037 3037 3037 3064 3064 3064 3064 3064 3064 3064 3064 3064 3064 0 1655 1655 1655 1655 1655 1655 1655 1663 1663 1663 1663 1663 1663 1671 1680 1688 1696 1713 1766 1785 1785 1794 1794 1813 1823 1823 1632 1624 1624 1624 1624 1624 1624 1624 1624 1624 1616 1616 1609 1609 1609 1609 1609 1609 1609 1601 1601 1594 1594 1594 1586 1586 1586 1586 1586 1579 1579 1579 1579 1579 1579 1579 1579 1579 1572 1572 1572 1572 1572 1572 1564 1564 1564 1557 1557 1557 1550 1550 1550 1543 1536 1536 1536 1536 1529 1529 1529 1529 1529 1536 1543 1543 1543 1550 1557 1557 1557 1981 1981 1981 1981 1993 1993 1993 1993 2005 2016 2016 2005 2005 2005 2005 2005 2005 2005 2005 2005 1993 1398 1398 1398 1392 1392 1392 1392 1392 1387 1387 1392 1392 1392 1392 1398 1398 1404 1404 1404 1410 1410 2005 2005 2005 2016 2016 2016 2028 2028 2028 2028 2028 2040 2040 2040 2040 2040 2040 2040 2028 2028 2028 2028 2028 2016 2016 2028 2016 2016 2016 2016 2028 1328 1328 1328 1317 1317 1312 1312 1312 1312 1317 1312 1312 1312 1307 1307 1302 1302 1302 1302 1302 1302 1297 1297 1297 1297 1297 1292 1292 1292 1292 1292 1292 1292 1292 1288 1288 1288 1288 1288 1288 1283 1283 1278 1278 1278 1273 1273 1273 1273 1268 1268 1268 1264 1264 1259 1255 1250 1250 1250 1250 1250 1250 1245 1245 1245 1250 1250 1250 1250 1250 1410 1410 1415 1427 1427 1427 1433 1433 1433 1433 1427 1427 1421 1421 1421 1415 1415 1415 1415 1415 1415 1415 1415 1415 1410 1410 1410 1410 1410 1404 1398 1398 1398 1398 1398 1398 1398 1392 1392 1392 1392 1392 1392 1387 1387 1387 1387 1387 1381 1376 1376 1376 1370 1370 1370 1370 1370 1365 1365 1365 1365 1365 1359 1359 1359 1354 1354 1354 1349 1343 1343 1343 1343 1343 1343 1343 1343 1343 1338 1338 1338 1333 1333 1333 1328 1328 1328 1322 1322 1322 1317 1317 1317 1317 1312 1312 1307 1307 1307 1307 1307 1302 1302 1302 1302 1302 1302 1302 1302 1302 1302 1302 1302 1297 1297 1297 1297 1297 1297 1297 1297 1292 1288 1288 1292 1288 1288 1292 1292 1292 1297 1292 1292 1292 1297 1297 1297 1926 1926 1926 1926 1926 1926 1926 1926 1926 1926 1915 1915 1915 3576 3576 3576 3576 3576 3576 3576 3576 3576 3576 3576 3576 3576 3576 3576 3576 3576 3576 3576 3576 3576 3539 3539 3576 3576 3576 3576 3576 3576 3576 3576 3576 3576 3614 3576 3576 3614 3614 3614 3614 3614 3614 3614 3614 3614 3614 3614 3614 3614 3653 3653 3653 3692 3692 3692 3692 3653 3653 3653 3614 3614 3614 3614 3614 3614 3614 3614 3614 3614 3614 3614 3614 3576 3576 3614 3653 3692 3653 3653 3653 3653 3614 3614 3614 3614 3614 3614 3614 3614 3653 3653 3653 3653 3653 3614 3614 3576 3576 3614 3614 3576 3576 3614 3614 3614 3614 3614 3614 3614 3614 3614 3614 3576 3576 3576 3576 3576 3576 0 0 0 0 0 0 0 0 0 0 0 0
0 0 0 0 0 0 0 0 0 0 0 0 0 0 0 0 0 0 0 0 0 0 0 0 0 0 0 0 0 0 0 0 2883 2883 2883 2883 2883 2883 2883 2883 2883 2908 2908 2908 2908 2908 2908 2908 2908 2933 2933 2933 2933 2933 2958 2933 2933 2908 2908 2908 2908 2933 2933 2933 2958 2958 2958 2958 2958 2958 2958 2958 2958 2958 2958 2958 2958 2958 2958 2958 2958 2958 2958 2958 2958 2958 2958 2958 2958 2958 2984 2984 2984 2984 2984 2984 3010 3010 3010 3037 3037 3037 3037 3037 3037 3037 3037 3037 3037 3064 3064 3064 3064 3037 3037 3064 3037 3037 3037 0 1655 1655 1655 1655 1655 1655 1663 1663 1663 1663 1663 1663 1671 1680 1680 1696 1696 1713 1757 1785 1785 1794 1794 1813 1813 0 0 1624 1624 1624 1624 1624 1624 1624 1624 1624 1616 1616 1609 1609 1609 1609 1601 1601 1601 1601 1601 1594 1594 1594 1594 1586 1586 1586 1586 1586 1586 1586 1579 1579 1579 1579 1579 1579 1579 1579 1579 1579 1579 1579 1572 1572 1572 1564 1564 1564 1557 1550 1550 1550 1543 1543 1536 1536 1529 1529 1529 1529 1536 1536 1543 1543 1550 1550 1557 1557 1557 1981 1981 1981 1981 1981 1981 1981 1981 1993 1993 1993 1993 1993 1981 1981 1981 1981 1981 1981 1993 1993 1404 1398 1398 1392 1392 1392 1392 1392 1392 1392 1392 1392 1398 1398 1398 1404 1404 1410 1410 1410 1981 1981 1993 1993 1993 2005 2005 2005 2016 2016 2028 2028 2028 2028 2028 2028 2028 2028 2028 2028 2028 2028 2028 2028 2028 2028 2028 2028 2028 2016 2016 2028 2028 2028 2028 2028 2028 2028 2028 1317 1317 1322 1328 1312 1312 1312 1307 1302 1302 1302 1302 1302 1302 1302 1297 1297 1297 1297 1292 1292 1292 1292 1292 1292 1292 1292 1288 1288 1288 1288 1288 1288 1283 1283 1278 1278 1278 1278 1278 1273 1273 1273 1268 1268 1268 1264 1264 1255 1255 1250 1250 1250 1250 1250 1250 1250 1250 1250 1250 1255 1255 1264 1264 1264 1415 1427 1433 1433 1433 1433 1433 1433 1427 1427 1421 1421 1421 1421 1421 1421 1421 1421 1415 1415 1415 1415 1415 1410 1410 1410 1410 1404 1404 1404 1404 1398 1398 1398 1398 1392 1392 1392 1392 1392 1392 1392 1387 1387 1387 1387 1381 1376 1376 1376 1376 1370 1370 1370 1370 1365 1365 1365 1365 1365 1365 1365 1359 1359 1359 1354 1349 1349 1349 1349 1349 1349 1343 1343 1343 1343 1343 1343 1343 1338 1338 1338 1333 1328 1328 1328 1322 1322 1317 1317 1317 1317 1312 1312 1312 1312 1312 1307 1307 1302 1302 1302 1302 1302 1302 1302 1302 1302 1302 1302 1302 1297 1297 1297 1297 1297 1297 1297 1292 1292 1288 1288 1292 1288 1288 1288 1292 1292 1292 1288 1288 1288 1297 1297 0 1936 1936 1926 1926 1926 1926 1926 1926 1926 1926 1926 1926 1926 3576 3576 3576 3576 3576 3576 3576 3576 3576 3576 3576 3576 3576 3576 3576 3576 3576 3576 3576 3576 3539 3539 3539 3576 3539 3539 3576 3576 3576 3576 3576 3576 3576 3576 3576 3576 3576 3576 3576 3576 3576 3576 3576 3576 3576 3576 3576 3576 3614 3614 3614 3653 3653 3653 3653 3653 3653 3653 3653 3614 3614 3614 3614 3614 3614 3614 3614 3614 3614 3614 3614 3614 3614 3614 3614 3653 3653 3653 3653 3653 3653 3614 3614 3614 3614 3614 3614 3614 3614 3614 3614 3614 3614 3614 3614 3614 3576 3576 3576 3576 3539 3539 3576 3576 3576 3576 3576 3576 3576 3576 3576 3576 3539 3539 3539 3539 3539 3576 0 0 0 0 0 0 0 0 0 0 0 0
0 0 0 0 0 0 0 0 0 0 0 0 0 0 0 0 0 0 0 0 0 0 0 0 0 0 0 0 0 0 0 0 2883 2883 2883 2883 2883 2883 2883 2883 2883 2883 2883 2883 2908 2908 2908 2908 2908 2908 2908 2908 2908 2908 2933 2933 2908 2908 2908 2908 2908 2908 2908 2908 2933 2933 2958 2958 2933 2933 2933 2933 2933 2958 2958 2958 2958 2958 2958 2933 2933 2958 2958 2958 2958 2958 2958 2958 2958 2958 2984 2984 2984 2984 2984 2984 3010 3010 3010 3010 3010 3037 3037 3037 3037 3037 3037 3037 3037 3037 3037 3037 3037 3037 3037 3037 3010 3010 3010 3010 1655 1655 1655 1655 1663 1663 1663 1663 1663 1663 1663 1671 1671 1680 1680 1688 1696 1713 1731 1776 1785 1785 1794 1794 1804 0 0 0 0 0 0 0 0 1624 1624 1624 1616 1616 1609 1609 1609 1609 1601 1601 1601 1601 1601 1594 1594 1594 1594 1594 1594 1586 1586 1586 1586 1586 1586 1586 1579 1579 1579 1579 1579 1579 1579 1579 1579 1579 1579 1572 1572 1564 1564 1564 1557 1557 1550 1550 1543 1543 1543 1536 1536 1536 1536 1536 1536 1536 1543 1543 1550 1550 1557 1557 1572 1981 1970 1970 1970 1970 1970 1970 1981 1981 1981 1981 1981 1981 1981 1981 1970 1970 1970 1970 1970 1970 1404 1404 1398 1392 1392 1392 1392 1392 1392 1392 1392 1392 1398 1398 1398 1404 1404 1410 1410 1415 1981 1981 1993 1981 1981 1981 1993 1993 1993 1993 1993 2005 2005 2005 2016 2016 2016 2016 2016 2016 2016 2016 2016 2016 2016 2016 2016 2028 2028 2028 2028 2028 2016 2016 2016 2016 2016 2016 2016 2028 2028 2028 2028 2028 2016 2016 2016 1302 1302 1302 1302 1302 1302 1302 1302 1297 1297 1297 1292 1292 1292 1292 1292 1288 1288 1288 1288 1288 1288 1288 1288 1288 1283 1283 1278 1278 1278 1278 1278 1273 1273 1273 1273 1268 1268 1264 1264 1255 1255 1250 1250 1250 1250 1250 1250 1250 1250 1250 1250 1255 1259 1264 1264 1264 1427 1427 1433 1433 1433 1433 1433 1433 1433 1427 1427 1427 1421 1421 1421 1421 1421 1421 1415 1415 1415 1415 1415 1410 1410 1410 1410 1404 1404 1404 1404 1398 1398 1398 1398 1398 1392 1392 1392 1392 1392 1392 1392 1392 1387 1387 1387 1381 1381 1376 1376 1376 1376 1376 1376 1370 1370 1370 1370 1370 1370 1370 1365 1359 1359 1359 1354 1354 1354 1349 1349 1349 1349 1349 1349 1349 1349 1349 1343 1343 1343 1338 1333 1333 1328 1328 1328 1322 1322 1322 1322 1322 1317 1317 1317 1312 1312 1312 1307 1307 1307 1302 1302 1302 1302 1302 1302 1302 1302 1302 1302 1297 1297 1297 1297 1297 1297 1297 1292 1292 1292 1288 1288 1288 1288 1288 1288 1288 1288 1288 1283 1283 1283 1283 0 1936 1936 1926 1926 1926 1936 1936 1936 1936 1936 1936 1936 3539 3539 3576 3576 3576 3576 3576 3576 3576 3576 3576 3576 3576 3576 3576 3539 3539 3539 3539 3539 3539 3539 3539 3539 3539 3539 3539 3539 3539 3539 3539 3539 3539 3539 3576 3539 3539 3576 3576 3576 3576 3576 3576 3576 3539 3539 3539 3576 3576 3576 3576 3614 3614 3614 3614 3614 3653 3614 3614 3614 3614 3614 3614 3614 3614 3576 3576 3614 3576 3576 3576 3576 3614 3576 3576 3576 3614 3653 3653 3614 3614 3614 3576 3576 3576 3576 3576 3576 3576 3576 3576 3576 3576 3576 3576 3576 3576 3539 3539 3539 3539 3539 3539 3539 3539 3539 3539 3539 3539 3539 3539 3539 3539 3539 3539 3539 3539 3539 3539 0 0 0 0 0 0 0 0 0 0 0 0
0 0 0 0 0 0 0 0 0 0 0 0 0 0 0 0 0 0 0 0 0 0 0 0 0 0 0 0 0 0 0 0 2883 2883 2859 2859 2859 2859 2859 2859 2859 2883 2883 2883 2883 2883 2908 2908 2908 2908 2908 2908 2908 2908 2908 2908 2883 2883 2883 2883 2883 2908 2908 2908 2908 2908 2933 2933 2908 2908 2908 2908 2908 2933 2933 2933 2933 2933 2933 2933 2933 2933 2933 2933 2933 2958 2958 2958 2958 2958 2958 2958 2984 2984 2984 2984 2984 2984 2984 3010 3010 3010 3010 3010 3010 3010 3010 3010 3010 3010 3037 3037 3037 3037 3037 3037 3010 3010 3010 3010 0 1655 1655 1663 1663 1663 1663 1663 1663 1671 1671 1671 1671 1680 1680 1688 1696 1713 1731 1757 1776 1785 1794 1794 1804 0 0 0 0 0 0 0 0 0 0 0 1616 1616 1609 1609 1609 1609 1601 1601 1601 1594 1594 1594 1594 1594 1594 1594 1594 1594 1594 1586 1586 1586 1586 1586 1586 1586 1579 1579 1579 1579 1579 1579 1579 1579 1579 1579 1572 1572 1572 1572 1557 1557 1557 1550 1550 1550 1543 1543 1536 1536 1536 1536 1536 1536 1543 1550 1550 1550 1564 1572 1572 1970 1959 1959 1959 1959 1959 1959 1970 1970 1970 1970 1970 1970 1970 1970 1970 1970 1970 1970 1970 1970 1404 1404 1404 1398 1398 1398 1398 1392 1392 1392 1392 1398 1398 1404 1404 1410 1410 1410 1410 1415 1981 1981 1981 1981 1981 1981 1981 1981 1981 1981 1981 1993 2005 2005 2005 2005 2005 2005 2005 2005 2005 2005 2005 2005 2005 2005 2005 2005 2005 2005 2005 2005 2005 2005 2016 2005 2005 2005 2005 2016 2016 2016 2016 2005 2005 2005 2005 2005 1993 1993 2005 1302 1302 1302 1302 1302 1297 1297 1292 1292 1292 1292 1292 1288 1288 1288 1288 1288 1288 1288 1288 1288 1288 1288 1278 1278 1278 1278 1278 1273 1273 1273 1273 1273 1268 1264 1264 1255 1255 1255 1255 1250 1250 1250 1250 1250 1250 1250 1255 1259 1259 1264 1264 1264 1415 1427 1433 1433 1433 1433 1433 1433 1433 1427 1427 1427 1427 1427 1421 1421 1421 1421 1415 1415 1415 1415 1415 1410 1410 1410 1410 1404 1404 1404 1404 1404 1404 1398 1398 1398 1392 1392 1392 1392 1392 1392 1392 1392 1392 1387 1387 1387 1381 1376 1376 1376 1376 1376 1376 1370 1370 1370 1370 1370 1370 1370 1365 1359 1359 1359 1359 1354 1354 1354 1354 1354 1354 1354 1354 1354 1354 1349 1349 1343 1343 1343 1338 1338 1333 1333 1333 1328 1328 1328 1322 1322 1317 1317 1317 1317 1317 1312 1312 1307 1307 1307 1307 1302 1302 1302 1302 1302 1302 1302 1302 1297 1297 1297 1297 1297 1297 1297 1292 1292 1292 1288 1288 1288 1283 1283 1288 1288 1283 1283 1283 1283 1283 0 1936 1936 1936 1936 1926 1926 1936 1936 1936 1936 1936 1936 3503 3503 3539 3539 3539 3539 3539 3539 3539 3539 3539 3539 3576 3576 3539 3539 3539 3539 3539 3503 3503 3503 3503 3503 3503 3539 3539 3539 3539 3539 3539 3539 3539 3539 3539 3539 3539 3539 3576 3576 3539 3539 3539 3539 3539 3539 3539 3539 3539 3576 3576 3576 3576 3576 3614 3614 3614 3614 3614 3614 3614 3576 3576 3576 3576 3576 3576 3576 3576 3576 3576 3576 3576 3576 3576 3576 3576 3576 3614 3614 3614 3576 3576 3576 3539 3539 3539 3539 3539 3539 3539 3539 3539 3539 3539 3539 3539 3539 3539 3503 3503 3503 3503 3539 3539 3539 3539 3539 3539 3539 3539 3539 3539 3539 3539 3539 3539 3539 3539 3539 0 0 0 0 0 0 0 0 0 0 0 0
0 0 0 0 0 0 0 0 0 0 0 0 0 0 0 0 0 0 0 0 0 0 0 0 0 0 0 0 0 0 0 0 2859 2859 2859 2859 2859 2859 2859 2859 2859 2859 2859 2859 2859 2859 2883 2883 2883 2883 2883 2883 2883 2883 2883 2859 2859 2859 2859 2883 2883 2883 2883 2883 2908 2908 2908 2908 2883 2883 2883 2883 2883 2883 2883 2908 2908 2933 2933 2908 2908 2933 2933 2933 2933 2958 2958 2958 2958 2958 2958 2958 2958 2984 2984 2984 2984 2984 2984 3010 3010 3010 3010 3010 3010 3010 3010 2984 2984 3010 3010 3010 3010 3010 3037 3037 3037 3010 3010 3010 0 1671 1671 1671 1671 1671 1671 1671 1671 1671 1671 1680 1680 1680 1688 1688 1696 1705 1731 1748 1776 1785 1794 1804 0 0 0 0 0 0 0 0 0 0 0 0 1616 1616 1609 1609 1609 1609 1601 1601 1594 1594 1594 1594 1594 1594 1594 1594 1594 1594 1594 1594 1586 1586 1586 1586 1586 1586 1579 1579 1579 1579 1579 1579 1579 1579 1579 1579 1579 1572 1572 1572 1564 1564 1557 1550 1550 1550 1543 1543 1543 1543 1536 1536 1543 1543 1543 1550 1550 1557 1564 1572 1572 1959 1959 1959 1947 1947 1947 1959 1959 1959 1959 1959 1959 1959 1959 1959 1959 1959 1959 1959 1959 1970 1970 1404 1404 1398 1398 1398 1398 1398 1398 1398 1398 1398 1398 1404 1404 1415 1415 1415 1415 1421 1421 1993 1981 1970 1970 1970 1970 1970 1970 1981 1981 1981 1981 1981 1993 1993 1993 1993 1993 1993 2005 2005 1993 1993 1993 1993 2005 1993 1993 2005 2005 2005 2005 2005 2005 2005 2005 2005 2005 2005 2005 2016 2016 2005 1993 1993 1993 1993 1993 1993 1993 2005 2016 2016 2028 2028 1297 1297 1292 1292 1297 1292 1292 1292 1292 1292 1288 1288 1288 1288 1288 1288 1288 1288 1283 1278 1278 1278 1278 1278 1278 1273 1273 1273 1268 1268 1264 1259 1259 1255 1255 1250 1250 1250 1250 1250 1250 1250 1255 1259 1259 1264 1264 1264 1415 1421 1433 1433 1433 1433 1433 1433 1433 1427 1427 1427 1427 1427 1427 1427 1421 1421 1421 1421 1415 1415 1415 1410 1410 1410 1410 1410 1410 1410 1410 1404 1404 1404 1404 1398 1398 1398 1392 1392 1392 1392 1392 1392 1392 1392 1387 1387 1387 1381 1381 1381 1376 1376 1376 1376 1370 1370 1370 1370 1370 1370 1365 1365 1359 1359 1359 1354 1354 1354 1359 1359 1359 1359 1354 1354 1354 1354 1349 1349 1349 1343 1338 1338 1338 1338 1338 1333 1333 1333 1328 1328 1322 1322 1322 1322 1322 1317 1317 1312 1312 1312 1312 1307 1307 1307 1307 1302 1302 1302 1302 1302 1297 1297 1297 1297 1297 1297 1292 1292 1292 1288 1288 1283 1283 1283 1288 1288 1283 1283 1283 1283 1283 0 1936 1936 1936 1936 1926 1926 1936 1936 1936 1936 1936 1936 3503 3503 3503 3539 3539 3539 3539 3539 3539 3539 3539 3539 3539 3539 3539 3539 3503 3503 3503 3503 3503 3503 3503 3503 3503 3539 3539 3539 3539 3539 3539 3539 3539 3539 3539 3539 3539 3539 3539 3539 3539 3539 3539 3539 3539 3503 3503 3503 3539 3539 3539 3539 3539 3539 3576 3576 3576 3576 3576 3576 3576 3576 3576 3576 3576 3576 3576 3576 3576 3576 3576 3576 3576 3576 3539 3539 3539 3576 3576 3614 3576 3576 3576 3576 3539 3539 3539 3539 3539 3539 3539 3539 3539 3539 3539 3539 3539 3539 3503 3503 3503 3503 3503 3503 3539 3539 3539 3539 3539 3539 3539 3539 3539 3539 3539 3539 3539 3539 3503 3503 0 0 0 0 0 0 0 0 0 0 0 0
0 0 0 0 0 0 0 0 0 0 0 0 0 0 0 0 0 0 0 0 0 0 0 0 0 0 0 0 0 0 0 0 2859 2835 2835 2835 2835 2835 2835 2835 2835 2859 2859 2859 2859 2859 2859 2883 2883 2883 2883 2883 2883 2859 2859 2835 2835 2859 2859 2859 2859 2883 2883 2883 2883 2883 2908 2908 2883 2883 2883 2883 2883 2883 2883 2908 2908 2883 2883 2908 2908 2908 2933 2933 2933 2958 2958 2958 2958 2958 2958 2958 2958 2958 2958 2984 2984 2984 2984 2984 3010 3010 3010 3010 3010 3010 3010 2984 2984 2984 2984 2984 3010 3010 3010 3037 3037 3037 3037 3037 0 1671 1671 1671 1671 1671 1671 1680 1680 1680 1680 1680 1680 1680 1688 1688 1696 1705 1731 1748 1785 1785 1804 0 0 0 0 0 0 0 0 0 0 0 0 0 0 1616 1609 1609 1609 1609 1594 1594 1594 1594 1594 1594 1594 1594 1594 1594 1594 1594 1594 1594 1594 1594 1586 1586 1586 1586 1586 1586 1586 1579 1579 1579 1579 1579 1579 1579 1579 1572 1572 1572 1564 1564 1557 1557 1550 1550 1550 1543 1543 1543 1543 1543 1543 1543 1550 1550 1557 1557 1572 1579 1579 1594 1947 1947 1947 1947 1947 1947 1947 1947 1947 1947 1947 1947 1947 1947 1947 1947 1947 1947 1959 1959 1959 1404 1404 1398 1398 1398 1398 1398 1398 1398 1398 1398 1398 1404 1404 1410 1415 1415 1415 1421 1421 1981 1981 1970 1970 1970 1970 1970 1970 1970 1970 1970 1981 1981 1981 1981 1981 1981 1981 1981 1993 1993 1981 1981 1993 1993 1993 1993 1993 1993 1993 1993 1993 1993 1993 1993 1993 1993 1993 1993 1993 1993 1993 1993 1993 1993 1993 1993 1993 1993 1993 1993 2016 2016 2028 2040 2040 1297 1297 1297 1297 1297 1292 1292 1292 1292 1288 1288 1288 1288 1288 1288 1288 1288 1278 1278 1278 1278 1278 1278 1278 1278 1278 1273 1273 1268 1264 1259 1259 1259 1255 1255 1250 1250 1250 1250 1250 1255 1255 1259 1264 1264 1268 1268 1278 1421 1433 1433 1439 1433 1433 1433 1433 1427 1427 1427 1427 1427 1427 1427 1427 1427 1421 1421 1421 1415 1415 1415 1415 1410 1410 1410 1410 1410 1410 1404 1404 1404 1404 1404 1398 1398 1398 1398 1398 1392 1392 1392 1392 1392 1392 1387 1387 1387 1387 1387 1381 1381 1381 1376 1370 1370 1370 1370 1370 1376 1365 1365 1359 1359 1359 1354 1354 1359 1359 1359 1359 1359 1359 1359 1354 1354 1349 1349 1349 1349 1343 1338 1338 1338 1338 1338 1333 1333 1333 1333 1333 1322 1322 1322 1322 1322 1322 1317 1317 1317 1312 1312 1307 1307 1307 1307 1302 1302 1302 1302 1297 1297 1297 1297 1297 1297 1292 1292 1292 1288 1288 1283 1283 1283 1288 1288 1288 1283 1283 1283 1283 1936 1936 1936 1936 1936 1936 1936 1936 1936 1936 1936 1947 1947 3503 3503 3503 3503 3503 3503 3503 3503 3503 3539 3539 3539 3539 3539 3539 3503 3503 3503 3503 3468 3468 3468 3468 3503 3503 3503 3503 3503 3503 3503 3503 3503 3503 3539 3539 3539 3539 3539 3539 3539 3539 3503 3503 3539 3539 3503 3503 3503 3503 3503 3503 3503 3503 3539 3539 3576 3576 3576 3576 3576 3576 3576 3576 3576 3576 3576 3576 3576 3576 3576 3576 3576 3576 3576 3539 3539 3539 3539 3539 3539 3539 3539 3539 3539 3539 3539 3539 3539 3503 3503 3503 3503 3539 3539 3539 3503 3503 3503 3503 3468 3468 3503 3468 3468 3539 3539 3539 3539 3539 3539 3539 3539 3503 3503 3503 3503 3503 3503 3503 3503 0 0 0 0 0 0 0 0 0 0 0 0
