0 0 0 0 0 0 0 0 0 0 0 0 0 0 0 0 0 0 0 0 0 0 0 0 0 0 0 0 0 0 0 0 0 0 1894 1894 1894 1894 1883 1883 1883 1883 1883 1883 1894 1894 1904 1894 1894 1894 1904 1904 1904 1904 1904 1915 1915 1915 1915 1915 1915 1915 1915 1915 1915 1915 1915 1915 1915 1915 1904 1904 1904 1904 1894 1894 1894 1894 1894 1904 1904 1904 1904 1915 1915 1915 1915 1915 1915 1915 1915 1915 1915 1926 1915 1915 1915 1915 1915 1915 1915 1915 1915 1926 1926 1926 1926 1926 1936 1936 1936 1936 1936 1936 1936 1936 1936 1936 1936 1936 1936 1936 1936 1947 1947 1947 1947 1947 1873 1873 1863 1853 1853 1853 1853 1853 1853 1853 1853 1853 1863 1873 1936 1947 1947 1959 1959 1959 1959 1959 1959 1959 1959 1959 1970 1970 1959 1959 1959 1959 1959 1959 1959 1959 1959 1959 1959 1959 1959 1959 1959 1959 1947 1947 1959 1959 1959 1959 1959 1970 1970 1970 1970 1970 1970 1970 1970 1970 1970 1970 1970 1981 1981 1981 1981 1981 1981 1981 1981 1970 1970 1731 1731 1731 1731 1731 1739 1739 1739 1739 1739 1748 1748 1757 1757 1766 1776 1785 1794 1993 1981 1981 1993 1993 1993 1993 1993 1993 1993 1993 2005 2005 2005 2005 2005 2005 2005 2016 2016 2016 2016 1594 1594 1594 1594 1594 1594 1594 1594 1594 1594 1594 1601 1601 1601 1601 1601 1632 1993 1993 1981 1981 1993 2005 1739 1739 1748 1748 1748 1766 1766 1776 1776 1776 1785 1785 1794 1804 2016 2016 2016 2016 2016 2016 2016 2016 2016 2016 2016 2016 2005 2005 2005 2005 2005 2016 2016 2016 2016 2028 2028 2016 2016 2016 2016 2028 2028 2028 2028 2028 2028 2028 2028 2028 2028 2028 2016 2016 2028 2028 2016 2016 2016 2016 2016 2028 2028 2028 2016 2016 2016 2016 2028 2028 1458 1458 1458 1458 1452 1452 1452 1452 1452 1452 1458 1458 1464 1464 1464 1470 1477 1477 1477 2040 2040 2040 2040 2040 2040 2053 2053 2053 2053 2053 2053 2053 2053 2053 2053 2053 2053 2053 2053 2053 2053 2053 2053 2065 2065 1794 1794 1794 1794 1794 1804 1804 1813 1813 1823 1823 1833 1843 1853 1853 1853 1853 2065 2065 2065 2065 2065 2065 2078 2078 2078 2078 2078 2078 2065 2065 2065 2065 2078 2065 2065 2065 2078 2078 2078 2078 2078 2078 2078 1904 1904 1904 1904 1904 1904 1915 1915 1915 1915 1915 1915 1458 1458 1458 1464 1464 1464 1464 1464 1464 1464 1458 1458 1458 1458 1458 1452 1452 1452 1452 1452 1452 1458 1458 1458 1458 2065 2065 2065 2065 2065 2065 2065 2078 2078 2078 2078 2090 2090 2090 2090 2090 2090 2090 2090 2090 2090 2090 2090 2078 2078 2090 2090 2090 2090 2090 2090 2090 2090 2090 2090 2090 2090 2090 2090 2078 2078 2078 2090 2078 2078 2078 2078 2078 2090 2090 2090 2090 2078 2078 2090 2090 2078 2078 2078 2078 2078 2078 2078 2090 2090 2090 2090 2090 2090 2090 2090 2090 2090 2090 2090 2090 2090 2090 2090 2090 2090 2090 2090 2090 2090 2103 2103 2103 2090 2090 2090 2090 2090 2090 2090 2090 2090 2090 2090 2090 2090 2090 2090 2090 2090 2090 2103 2103 2103 2103 2103 2103 2103 2103 2103 2090 2090 2090 2090 2090 2090 2090 2090 2090 2103 2078 2078 2078 2078 2090 2090 2090 2090 2090 2090 2090 2090 2090 2090 2090 2090 2090 2090 2090 2090 2090 2078 2078 2078 2078 2090 2090 2090 2090 2090 2090 2078 2078 2078 2078 2078 2078 2090 2090 2090 2090 2090 2090 2090 2090 2090 0 0 0 0 0 0 0 0 0
0 0 0 0 0 0 0 0 0 0 0 0 0 0 0 0 0 0 0 0 0 0 0 0 0 0 0 0 0 0 0 0 0 0 1883 1883 1883 1883 1883 1883 1883 1883 1883 1883 1883 1883 1894 1883 1883 1894 1894 1894 1894 1894 1904 1904 1904 1904 1904 1904 1904 1904 1904 1904 1904 1915 1915 1915 1915 1915 1904 1904 1894 1894 1894 1894 1894 1894 1894 1904 1904 1904 1904 1904 1904 1904 1904 1904 1915 1915 1915 1915 1915 1915 1915 1915 1915 1915 1915 1915 1915 1915 1915 1915 1926 1926 1926 1926 1926 1926 1926 1926 1926 1926 1926 1926 1926 1926 1926 1926 1926 1926 1936 1936 1936 1936 1936 1926 1883 1873 1863 1853 1853 1853 1853 1853 1853 1853 1853 1853 1863 1883 1915 1936 1947 1947 1947 1959 1959 1959 1959 1959 1959 1959 1959 1959 1947 1947 1947 1947 1947 1947 1947 1947 1947 1947 1959 1959 1947 1947 1947 1947 1947 1947 1947 1947 1947 1947 1947 1959 1959 1959 1959 1959 1959 1959 1959 1959 1959 1970 1970 1970 1970 1970 1970 1970 1970 1981 1970 1970 1970 1970 1739 1739 1731 1731 1739 1739 1739 1739 1748 1748 1748 1757 1757 1766 1776 1785 1993 1993 1981 1981 1981 1981 1981 1993 1993 1993 1993 1993 1993 1993 1993 1993 1993 2005 2005 2005 2005 2005 2005 1594 1594 1601 1594 1594 1594 1594 1594 1594 1601 1601 1601 1601 1601 1601 1601 1632 1993 1981 1981 1981 1731 1731 1731 1739 1739 1748 1748 1748 1766 1766 1776 1776 1766 1766 1766 1993 1993 1993 2005 2005 2016 2016 2005 2005 2005 2005 2005 2005 2005 2005 2005 2005 2005 2005 2016 2016 2016 2016 2028 2016 2016 2016 2016 2016 2016 2016 2028 2028 2028 2016 2016 2016 2028 2028 2016 2016 2016 2016 2016 2016 2016 2016 2016 2016 2016 2028 2016 2016 2016 2016 2016 2016 1458 1458 1458 1458 1452 1452 1458 1458 1452 1452 1458 1464 1464 1464 1470 1470 1477 1477 1477 2028 2028 2028 2028 2040 2040 2053 2053 2053 2053 2040 2040 2053 2053 2053 2053 2053 2053 2053 2053 2053 2053 2053 2053 2065 1785 1785 1785 1785 1785 1794 1794 1804 1813 1813 1823 1823 1833 1843 1843 1853 1843 1843 2065 2065 2065 2065 2065 2065 2065 2065 2065 2065 2065 2065 2065 2065 2065 2065 2065 2053 2053 2065 2065 2065 2065 2065 2065 2065 2065 1904 1904 1904 1904 1904 1904 1915 1915 1915 1915 1915 1915 1470 1464 1464 1464 1464 1464 1464 1464 1464 1464 1458 1458 1458 1458 1458 1452 1452 1452 1452 1452 1458 1458 1458 1464 1483 1483 2065 2065 2065 2065 2065 2065 2065 2078 2078 2078 2078 2078 2078 2090 2078 2078 2078 2078 2078 2078 2078 2078 2078 2078 2078 2078 2078 2078 2090 2090 2090 2090 2090 2090 2090 2090 2078 2078 2078 2078 2078 2078 2078 2078 2078 2078 2078 2078 2078 2078 2078 2078 2078 2078 2078 2078 2078 2078 2078 2078 2078 2078 2078 2078 2078 2078 2078 2090 2078 2078 2078 2090 2090 2090 2090 2090 2090 2090 2090 2090 2090 2090 2090 2090 2090 2090 2090 2090 2090 2090 2090 2090 2090 2090 2090 2090 2090 2090 2090 2090 2090 2090 2090 2090 2090 2090 2090 2090 2090 2090 2090 2090 2090 2090 2090 2090 2090 2090 2090 2090 2090 2090 2090 2090 2078 2078 2078 2078 2078 2078 2078 2090 2090 2090 2090 2090 2090 2090 2090 2090 2090 2078 2078 2078 2078 2078 2078 2078 2078 2078 2078 2090 2078 2078 2078 2078 2065 2065 2065 2065 2078 2078 2078 2078 2078 2078 2078 2078 2078 2078 0 0 0 0 0 0 0 0 0
0 0 0 0 0 0 0 0 0 0 0 0 0 0 0 0 0 0 0 0 0 0 0 0 0 0 0 0 0 0 0 0 0 0 1883 1883 1883 1883 1883 1883 1873 1873 1873 1873 1883 1883 1883 1883 1883 1883 1894 1883 1883 1894 1894 1894 1894 1894 1894 1894 1904 1894 1894 1894 1894 1894 1894 1904 1904 1904 1904 1904 1894 1894 1894 1894 1894 1894 1894 1894 1894 1894 1894 1894 1894 1904 1904 1904 1904 1904 1904 1904 1904 1915 1904 1904 1904 1915 1915 1915 1915 1915 1915 1915 1915 1915 1915 1915 1915 1915 1915 1915 1915 1915 1915 1915 1915 1915 1915 1926 1926 1926 1926 1926 1926 1926 1915 1883 1873 1863 1863 1853 1853 1853 1853 1853 1853 1853 1853 1863 1873 1883 1915 1926 1936 1936 1947 1947 1947 1947 1947 1959 1959 1959 1959 1959 1947 1947 1947 1947 1947 1947 1947 1947 1947 1947 1947 1947 1947 1947 1947 1947 1947 1947 1947 1947 1947 1947 1947 1947 1947 1959 1959 1959 1959 1959 1959 1959 1959 1959 1970 1970 1970 1970 1970 1970 1970 1970 1959 1959 1970 1970 1739 1739 1739 1739 1739 1739 1739 1739 1748 1748 1748 1757 1757 1766 1776 1785 1981 1981 1981 1981 1981 1981 1981 1981 1981 1981 1981 1981 1993 1993 1993 1993 1993 1993 2005 2005 1993 1993 1993 1594 1594 1594 1594 1594 1594 1594 1594 1601 1601 1601 1601 1601 1601 1601 1601 1981 1993 1981 1981 1981 1731 1731 1731 1739 1739 1739 1748 1748 1766 1766 1766 1766 1766 1766 1981 1981 1981 1981 1993 1993 2005 2016 1993 1993 2005 2005 2005 2005 2005 2005 2005 2005 2005 2005 2016 2016 2016 2016 2016 2016 2016 2016 2016 2016 2016 2016 2016 2016 2016 2016 2005 2005 2005 2005 2005 2005 2005 2005 2005 2005 2016 2016 2016 2016 2016 2028 2016 2016 2016 2016 2016 2016 1458 1458 1458 1458 1458 1458 1458 1458 1458 1458 1458 1458 1464 1464 1470 1470 1477 1477 1477 2028 2028 2028 2028 2028 2028 2040 2040 2040 2040 2028 2028 2040 2040 2040 2040 2040 2040 2053 2053 2053 2040 2040 2053 2053 1785 1785 1785 1785 1785 1794 1794 1804 1804 1813 1823 1833 1833 1843 1843 1853 1843 1843 2065 2065 2065 2065 2065 2065 2065 2065 2065 2053 2053 2053 2053 2053 2053 2053 2053 2053 2053 2053 2053 2053 2053 2053 2053 2053 2053 1915 1915 1915 1915 1915 1915 1915 1915 1926 1936 1936 1947 1470 1470 1464 1464 1464 1464 1464 1464 1464 1464 1464 1464 1458 1458 1458 1458 1458 1452 1452 1458 1458 1458 1458 1464 1483 1483 1489 1483 1483 2053 2053 2053 2065 2065 2065 2065 2078 2078 2078 2078 2078 2078 2078 2078 2078 2065 2065 2065 2065 2065 2065 2065 2078 2078 2078 2090 2090 2090 2078 2078 2078 2078 2078 2078 2065 2065 2065 2078 2078 2078 2078 2078 2078 2078 2078 2078 2078 2078 2078 2078 2078 2078 2078 2078 2078 2078 2078 2078 2078 2078 2078 2078 2078 2078 2078 2078 2078 2078 2078 2078 2090 2090 2090 2090 2090 2090 2090 2090 2090 2090 2090 2090 2090 2090 2090 2090 2090 2078 2078 2078 2078 2078 2078 2078 2078 2078 2078 2078 2078 2078 2078 2078 2078 2090 2078 2078 2090 2090 2090 2090 2090 2090 2090 2090 2078 2078 2090 2078 2078 2090 2078 2078 2078 2078 2078 2078 2078 2078 2078 2078 2078 2078 2078 2078 2078 2078 2078 2078 2078 2078 2078 2078 2078 2078 2078 2078 2078 2078 2065 2065 2065 2065 2065 2065 2065 2065 2065 2078 2078 2078 2078 2078 2078 2078 2078 2078 0 0 0 0 0 0 0 0 0
0 0 0 0 0 0 0 0 0 0 0 0 0 0 0 0 0 0 0 0 0 0 0 0 0 0 0 0 0 0 0 0 0 0 1883 1883 1883 1883 1883 1883 1873 1873 1873 1873 1873 1873 1873 1873 1883 1883 1883 1883 1883 1883 1894 1894 1894 1894 1894 1894 1894 1894 1894 1894 1894 1894 1894 1894 1904 1904 1894 1883 1883 1883 1883 1883 1883 1883 1883 1883 1883 1883 1883 1883 1883 1894 1894 1894 1904 1904 1904 1904 1904 1904 1904 1904 1904 1904 1904 1904 1904 1904 1904 1915 1915 1915 1915 1915 1915 1915 1915 1915 1915 1915 1915 1915 1915 1915 1915 1915 1915 1915 1915 1915 1915 1915 1904 1883 1873 1863 1863 1853 1853 1853 1853 1853 1853 1853 1853 1863 1873 1883 1904 1915 1926 1926 1936 1947 1947 1947 1947 1947 1947 1947 1959 1959 1947 1947 1947 1947 1947 1947 1947 1936 1936 1936 1947 1947 1936 1936 1936 1936 1936 1936 1947 1947 1947 1947 1947 1947 1947 1947 1947 1947 1947 1947 1959 1959 1959 1959 1959 1959 1959 1959 1959 1970 1970 1959 1947 1947 1959 1748 1748 1739 1739 1739 1739 1739 1739 1748 1748 1748 1757 1757 1757 1766 1776 1785 1981 1981 1981 1981 1981 1981 1981 1981 1981 1981 1981 1981 1981 1981 1981 1981 1981 1981 1993 1993 1993 1993 2005 1594 1594 1594 1594 1594 1594 1594 1594 1601 1601 1601 1601 1601 1601 1601 1609 1981 1981 1981 1713 1713 1722 1731 1731 1739 1739 1739 1739 1748 1748 1757 1757 1757 1757 1776 1981 1981 1981 1981 1981 1981 1981 1981 1981 1993 1993 1993 1993 1993 1993 1993 1993 2005 2005 2005 2005 2005 2016 2016 2016 2005 2005 2005 2005 2005 2005 2005 2016 2016 2005 2005 2005 2005 2005 1993 1993 1993 2005 2005 2005 2005 2005 2005 2016 2016 2016 2016 2005 2005 2016 2016 2016 2016 1470 1464 1458 1458 1458 1458 1458 1458 1458 1458 1458 1458 1464 1464 1470 1470 1477 1477 1477 2016 2016 2016 2016 2016 2016 2028 2028 2028 2028 2028 2028 2028 2028 2028 2028 2040 2040 2040 2040 2040 2040 2040 1794 1785 1785 1785 1785 1785 1785 1785 1794 1794 1804 1813 1823 1833 1843 1843 1853 1863 2053 2053 2053 2053 2053 2053 2053 2065 2053 2053 2053 2053 2053 2053 2053 2053 2053 2053 2053 2040 2040 2040 2040 2053 2040 2040 2040 2040 2040 2040 1915 1915 1915 1915 1915 1915 1926 1926 1936 1947 1947 1470 1470 1470 1470 1470 1464 1464 1464 1464 1464 1464 1464 1458 1458 1458 1458 1458 1458 1458 1458 1458 1458 1458 1464 1483 1483 1483 1483 1483 2053 2053 2053 2053 2053 2053 2053 2053 2065 2065 2065 2065 2065 2065 2065 2065 2065 2065 2053 2053 2053 2065 2065 2065 2065 2065 2078 2078 2078 2078 2078 2078 2078 2065 2065 2053 2053 2065 2065 2065 2065 2065 2065 2065 2065 2065 2065 2065 2065 2065 2065 2065 2065 2065 2065 2065 2065 2065 2065 2065 2065 2065 2065 2065 2065 2078 2078 2078 2078 2078 2078 2078 2078 2078 2078 2078 2090 2078 2078 2090 2090 2090 2090 2090 2078 2078 2090 2078 2078 2078 2078 2078 2078 2078 2078 2078 2078 2078 2078 2078 2078 2078 2078 2078 2078 2078 2078 2078 2078 2090 2090 2090 2090 2078 2078 2078 2078 2078 2078 2078 2078 2065 2065 2078 2078 2078 2078 2078 2078 2078 2078 2078 2078 2078 2078 2078 2078 2078 2078 2078 2065 2065 2078 2078 2078 2078 2078 2078 2065 2065 2065 2065 2065 2065 2065 2065 2065 2065 2078 2078 2078 2078 2078 2078 2078 2065 2065 0 0 0 0 0 0 0 0 0
0 0 0 0 0 0 0 0 0 0 0 0 0 0 0 0 0 0 0 0 0 0 0 0 0 0 0 0 0 0 0 0 0 0 1883 1883 1883 1873 1873 1873 1873 1873 1873 1873 1873 1873 1873 1873 1873 1883 1883 1883 1883 1883 1883 1883 1883 1883 1883 1883 1883 1883 1883 1883 1883 1883 1883 1883 1894 1894 1873 1873 1873 1873 1883 1883 1873 1873 1883 1883 1883 1883 1883 1883 1883 1894 1894 1894 1894 1894 1894 1894 1894 1894 1904 1894 1894 1904 1904 1904 1904 1904 1904 1904 1904 1904 1904 1915 1915 1915 1904 1904 1904 1904 1904 1904 1904 1904 1904 1915 1915 1915 1915 1915 1915 1904 1904 1883 1873 1873 1863 1853 1853 1853 1853 1853 1853 1853 1853 1863 1873 1883 1904 1904 1915 1915 1926 1936 1936 1947 1947 1947 1947 1947 1947 1959 1947 1936 1936 1936 1947 1936 1936 1936 1936 1936 1936 1936 1936 1936 1936 1936 1936 1936 1936 1936 1936 1936 1936 1947 1947 1947 1947 1947 1947 1947 1947 1947 1947 1947 1947 1947 1947 1947 1947 1959 1959 1947 1947 1947 1959 1748 1748 1748 1739 1739 1739 1739 1739 1748 1748 1748 1757 1757 1757 1766 1776 1981 1981 1981 1981 1981 1981 1981 1981 1981 1970 1970 1981 1981 1981 1981 1981 1981 1981 1981 1981 1993 1993 1993 2005 2005 1594 1594 1594 1594 1594 1594 1594 1601 1601 1601 1601 1601 1601 1601 1609 1609 1713 1713 1713 1713 1722 1731 1731 1739 1739 1739 1739 1748 1748 1757 1757 1757 1757 1970 1981 1981 1981 1981 1981 1981 1981 1981 1981 1981 1981 1981 1981 1981 1981 1993 1993 1993 1993 1993 1993 2005 2005 2005 2005 2005 2005 2005 1993 1993 1993 1993 1993 2005 1993 1993 1993 1993 1993 1993 1993 1993 1993 2005 2005 2005 2005 2005 2005 2005 2016 2016 2005 2005 2005 2005 2005 1464 1464 1464 1464 1458 1458 1458 1458 1458 1458 1458 1458 1464 1464 1470 1470 1477 1470 1470 1470 2016 2016 2016 2016 2016 2016 2016 2016 2016 2016 2016 2016 2016 2016 2028 2028 2028 2028 2028 2028 2028 2028 1785 1785 1785 1785 1785 1785 1785 1785 1785 1785 1794 1804 1823 1833 1833 1843 1843 1853 1863 2053 2040 2040 2040 2040 2040 2053 2053 2053 2053 2053 2053 2053 2053 2053 2053 2053 2053 2053 2040 2040 2040 2040 2040 2040 2040 2040 2040 2040 2040 1926 1915 1915 1915 1915 1915 1926 1926 1936 1947 1947 1470 1470 1470 1470 1470 1470 1470 1464 1464 1464 1464 1464 1458 1458 1458 1458 1458 1458 1458 1458 1458 1458 1458 1458 1483 1483 1483 1496 2053 2053 2053 2053 2053 2053 2053 2053 2053 2053 2053 2065 2065 2053 2053 2053 2053 2053 2053 2053 2053 2053 2053 2053 2053 2053 2053 2065 2065 2065 2065 2065 2065 2053 2053 2053 2053 2053 2053 2053 2053 2053 2053 2065 2053 2053 2053 2053 2065 2065 2065 2053 2053 2065 2065 2065 2065 2065 2065 2065 2065 2065 2065 2065 2065 2065 2065 2065 2065 2065 2065 2065 2078 2078 2078 2078 2078 2078 2078 2078 2078 2078 2078 2078 2078 2078 2078 2078 2078 2078 2078 2078 2078 2078 2078 2078 2078 2078 2078 2078 2078 2078 2078 2078 2078 2078 2078 2078 2078 2078 2078 2078 2078 2078 2078 2078 2078 2078 2078 2078 2078 2078 2065 2065 2065 2065 2065 2065 2065 2065 2065 2078 2078 2078 2078 2078 2078 2078 2078 2065 2065 2065 2065 2065 2065 2065 2065 2065 2065 2053 2053 2053 2065 2065 2065 2065 2065 2065 2065 2065 2065 2065 2078 2065 2065 2078 2065 2065 0 0 0 0 0 0 0 0 0
0 0 0 0 0 0 0 0 0 0 0 0 0 0 0 0 0 0 0 0 0 0 0 0 0 0 0 0 0 0 0 0 0 0 1873 1873 1873 1873 1873 1873 1863 1863 1863 1863 1873 1873 1873 1873 1873 1873 1873 1873 1873 1873 1883 1883 1873 1873 1883 1883 1883 1883 1883 1883 1883 1883 1883 1883 1883 1883 1873 1873 1873 1873 1873 1873 1873 1873 1873 1873 1873 1873 1873 1873 1873 1883 1883 1883 1883 1883 1883 1883 1883 1883 1894 1894 1894 1894 1894 1894 1894 1894 1894 1894 1904 1894 1894 1904 1904 1904 1904 1894 1894 1894 1904 1904 1904 1904 1904 1904 1915 1904 1904 1904 1904 1904 1894 1883 1873 1873 1863 1853 1853 1853 1853 1853 1853 1853 1853 1863 1873 1883 1904 1904 1915 1915 1915 1926 1926 1936 1936 1936 1936 1947 1947 1947 1936 1936 1936 1936 1936 1936 1936 1936 1936 1936 1936 1936 1936 1936 1936 1936 1936 1936 1936 1936 1936 1936 1936 1936 1936 1936 1936 1936 1936 1936 1936 1936 1947 1947 1947 1947 1947 1947 1947 1947 1947 1936 1936 1936 1947 1748 1748 1748 1748 1748 1748 1748 1748 1748 1748 1748 1757 1757 1757 1766 1766 1981 1970 1970 1970 1970 1970 1970 1970 1970 1970 1970 1970 1981 1981 1981 1981 1981 1981 1981 1981 1981 1981 1981 1993 1993 1601 1601 1594 1594 1594 1594 1594 1601 1601 1601 1609 1609 1609 1609 1616 1705 1705 1713 1713 1713 1722 1731 1731 1739 1739 1739 1739 1748 1748 1748 1757 1757 1970 1970 1981 1970 1970 1981 1981 1981 1981 1981 1981 1981 1981 1981 1981 1981 1981 1981 1981 1981 1981 1981 1993 1993 1993 1993 1993 1993 1993 1993 1993 1981 1981 1981 1981 1981 1981 1981 1981 1981 1993 1993 1993 1993 1993 1993 1993 1993 1993 1993 2005 2005 2005 2005 1993 1993 1993 1993 1993 1464 1464 1464 1464 1458 1458 1458 1458 1458 1458 1458 1458 1464 1470 1470 1470 1477 1470 1470 1470 2016 2016 2016 2016 2016 2016 2016 2016 2016 2016 2016 2016 2016 2016 2016 2016 2016 2016 2028 2028 2028 2028 1785 1785 1785 1785 1776 1776 1776 1785 1785 1785 1794 1804 1833 1843 1843 1843 1853 1853 1853 2028 2028 2028 2028 2040 2040 2053 2053 2053 2053 2040 2040 2053 2040 2040 2053 2053 2053 2053 2040 2040 2040 2040 2040 2040 2040 2040 2040 2040 2028 1926 1915 1915 1915 1915 1915 1926 1926 1936 1947 1947 1470 1470 1470 1470 1470 1470 1470 1470 1470 1464 1464 1464 1464 1458 1458 1458 1458 1458 1458 1458 1458 1458 1458 1458 2040 2040 2040 2040 2040 2040 2040 2040 2053 2053 2053 2040 2040 2040 2040 2040 2040 2040 2040 2040 2053 2040 2040 2040 2040 2040 2053 2053 2053 2053 2053 2053 2053 2053 2053 2053 2053 2053 2053 2053 2040 2040 2040 2040 2053 2053 2053 2053 2053 2053 2053 2053 2053 2053 2053 2053 2053 2053 2053 2053 2053 2053 2053 2053 2053 2053 2053 2053 2053 2053 2065 2065 2065 2065 2065 2065 2065 2065 2065 2065 2065 2065 2065 2065 2065 2078 2078 2078 2078 2078 2078 2078 2065 2065 2065 2065 2065 2065 2053 2053 2065 2065 2065 2065 2065 2065 2065 2065 2065 2078 2065 2065 2065 2065 2078 2078 2078 2078 2078 2078 2078 2078 2078 2078 2078 2078 2065 2065 2065 2065 2065 2065 2065 2065 2065 2065 2065 2065 2078 2065 2065 2065 2065 2065 2065 2065 2065 2065 2065 2065 2065 2053 2053 2053 2053 2053 2053 2053 2053 2065 2065 2065 2065 2065 2065 2065 2065 2065 2065 2065 2053 2053 0 0 0 0 0 0 0 0 0
0 0 0 0 0 0 0 0 0 0 0 0 0 0 0 0 0 0 0 0 0 0 0 0 0 0 0 0 0 0 0 0 0 0 1873 1873 1873 1873 1873 1863 1863 1863 1863 1863 1863 1873 1873 1873 1873 1873 1873 1873 1873 1873 1873 1873 1873 1873 1873 1873 1873 1873 1873 1873 1873 1873 1873 1873 1873 1873 1863 1863 1863 1863 1863 1863 1873 1873 1873 1873 1873 1873 1873 1873 1873 1873 1873 1873 1873 1873 1883 1883 1883 1883 1894 1894 1894 1894 1894 1883 1883 1894 1894 1894 1894 1883 1883 1894 1894 1894 1894 1883 1883 1894 1904 1904 1904 1904 1904 1904 1904 1904 1904 1904 1904 1904 1894 1883 1873 1873 1873 1863 1863 1853 1853 1863 1863 1863 1863 1863 1883 1894 1904 1904 1915 1915 1915 1915 1915 1926 1926 1926 1926 1936 1936 1936 1926 1926 1926 1926 1926 1926 1926 1926 1926 1926 1926 1926 1926 1926 1936 1936 1936 1936 1936 1936 1936 1936 1936 1936 1936 1936 1936 1936 1936 1936 1936 1936 1947 1947 1947 1947 1947 1947 1947 1947 1936 1936 1936 1936 1936 1748 1748 1748 1748 1748 1748 1748 1748 1748 1748 1757 1757 1757 1757 1766 1766 1970 1959 1959 1970 1959 1959 1959 1959 1959 1970 1970 1970 1970 1970 1970 1970 1970 1970 1970 1970 1970 1981 1981 1993 1601 1601 1601 1594 1594 1594 1601 1601 1601 1601 1601 1609 1609 1609 1609 1616 1705 1705 1713 1713 1722 1722 1731 1731 1731 1739 1739 1739 1748 1748 1748 1757 1970 1970 1970 1970 1970 1970 1970 1981 1981 1981 1981 1981 1981 1970 1970 1970 1970 1970 1981 1981 1981 1981 1981 1981 1981 1981 1981 1981 1981 1981 1981 1981 1981 1981 1981 1981 1981 1981 1981 1981 1981 1981 1981 1981 1981 1981 1993 1993 1993 1993 1993 2005 2005 2005 2005 1993 1981 1981 1981 1981 1464 1464 1464 1464 1464 1458 1458 1458 1458 1458 1458 1458 1464 1470 1470 1477 1477 1477 1477 2016 2016 2016 2016 2005 2005 2005 2005 2005 2005 2005 2005 2005 2005 2005 2005 2005 2016 2016 2016 2016 2016 1776 1776 1776 1776 1776 1776 1776 1776 1776 1785 1785 1794 1813 1833 1843 1853 1853 1853 1853 2016 2016 2028 2028 2028 2028 2028 2040 2040 2040 2040 2040 2040 2040 2040 2040 2040 2040 2053 2053 2040 2040 2040 2040 2040 2040 2040 2028 2028 2028 1981 1926 1926 1915 1915 1915 1915 1926 1926 1936 1947 1947 1470 1470 1470 1470 1470 1470 1470 1470 1470 1464 1464 1464 1464 1458 1458 1458 1458 1458 1458 1458 1458 1458 1458 1458 2040 2040 2040 2040 2040 2040 2040 2040 2040 2040 2040 2040 2040 2040 2040 2040 2040 2040 2040 2040 2040 2040 2040 2040 2040 2040 2040 2040 2040 2040 2040 2040 2040 2040 2040 2040 2040 2040 2040 2040 2040 2028 2028 2040 2040 2040 2040 2040 2053 2040 2040 2040 2040 2040 2040 2040 2040 2040 2040 2040 2040 2053 2053 2053 2053 2053 2040 2040 2053 2053 2053 2053 2053 2053 2053 2053 2065 2065 2053 2053 2065 2053 2053 2053 2053 2065 2065 2065 2065 2065 2065 2065 2065 2053 2053 2065 2053 2053 2053 2053 2065 2053 2053 2065 2065 2065 2065 2065 2065 2065 2065 2065 2053 2053 2065 2078 2078 2078 2078 2078 2078 2078 2078 2078 2078 2078 2053 2053 2053 2053 2053 2065 2065 2065 2065 2065 2065 2065 2065 2065 2065 2065 2065 2053 2053 2053 2053 2053 2053 2053 2053 2053 2053 2053 2053 2053 2053 2053 2053 2053 2053 2053 2053 2053 2053 2053 2065 2065 2065 2053 2053 2040 2040 0 0 0 0 0 0 0 0
0 0 0 0 0 0 0 0 0 0 0 0 0 0 0 0 0 0 0 0 0 0 0 0 0 0 0 0 0 0 0 0 0 0 1863 1863 1863 1863 1863 1863 1863 1863 1863 1863 1863 1863 1863 1863 1863 1863 1863 1863 1873 1873 1873 1873 1873 1873 1873 1873 1873 1873 1873 1873 1873 1873 1873 1873 1873 1873 1863 1863 1863 1863 1863 1863 1863 1863 1863 1863 1863 1863 1863 1863 1863 1863 1863 1863 1863 1863 1873 1873 1873 1873 1873 1873 1883 1883 1883 1883 1883 1883 1883 1883 1883 1873 1873 1883 1883 1883 1883 1883 1883 1883 1894 1894 1904 1904 1904 1904 1904 1904 1904 1894 1894 1894 1894 1883 1873 1873 1873 1863 1863 1863 1863 1863 1863 1863 1863 1873 1883 1894 1904 1904 1904 1915 1915 1915 1915 1915 1926 1926 1926 1926 1936 1936 1926 1926 1926 1926 1926 1915 1915 1926 1915 1915 1915 1915 1915 1926 1926 1926 1926 1926 1936 1926 1926 1926 1926 1926 1936 1926 1926 1936 1936 1936 1936 1936 1936 1936 1936 1936 1936 1936 1936 1936 1936 1926 1926 1936 1936 1739 1739 1748 1748 1748 1748 1748 1748 1748 1748 1748 1757 1757 1757 1766 1766 1959 1959 1959 1959 1959 1959 1959 1959 1959 1959 1959 1959 1959 1959 1959 1959 1959 1959 1959 1959 1970 1970 1981 1981 1601 1601 1601 1601 1601 1601 1601 1601 1601 1601 1601 1609 1609 1609 1609 1624 1705 1705 1705 1713 1713 1722 1722 1731 1731 1739 1739 1739 1739 1739 1748 1959 1959 1959 1970 1970 1970 1970 1970 1981 1981 1981 1981 1981 1970 1970 1970 1970 1970 1970 1970 1970 1970 1981 1981 1981 1981 1981 1981 1981 1981 1981 1981 1981 1981 1981 1981 1981 1981 1981 1981 1981 1981 1981 1981 1981 1981 1981 1993 1993 1993 1993 1993 1993 2005 1993 1993 1993 1981 1981 1981 1981 1464 1464 1464 1464 1464 1458 1458 1464 1458 1458 1458 1458 1464 1470 1470 1477 1477 1477 1477 2016 2005 2005 2005 2005 2005 2005 2005 2005 2005 2005 2005 2005 2005 2005 2005 2005 2005 2005 2016 2016 2016 1766 1766 1766 1766 1766 1776 1776 1776 1776 1794 1794 1804 1833 1853 1853 1853 1853 1853 1853 2016 2016 2016 2016 2016 2028 2028 2028 2028 2028 2028 2028 2028 2040 2028 2028 2040 2040 2040 2040 2028 2028 2028 2028 2028 2040 2028 2028 2028 2028 1936 1926 1915 1915 1915 1915 1926 1926 1936 1936 1947 1947 1470 1470 1470 1470 1470 1470 1470 1470 1470 1464 1464 1464 1464 1458 1458 1458 1458 1458 1458 1458 1458 1458 1458 2028 2028 2028 2028 2028 2028 2028 2040 2040 2040 2040 2040 2040 2040 2040 2040 2028 2028 2028 2040 2040 2028 2028 2028 2040 2040 2040 2040 2040 2040 2040 2040 2040 2040 2040 2040 2040 2040 2040 2040 2040 2028 2028 2028 2028 2040 2028 2028 2028 2028 2040 2040 2040 2040 2040 2040 2040 2040 2040 2040 2040 2040 2040 2040 2040 2040 2040 2040 2040 2040 2040 2040 2053 2053 2053 2053 2053 2053 2053 2053 2053 2053 2053 2053 2053 2053 2065 2065 2065 2053 2053 2053 2053 2053 2053 2053 2053 2053 2053 2053 2053 2053 2053 2053 2053 2065 2065 2053 2053 2053 2065 2053 2053 2053 2053 2065 2065 2065 2065 2065 2065 2065 2065 2065 2065 2065 2065 2053 2053 2053 2040 2040 2053 2053 2053 2053 2053 2053 2053 2053 2040 2040 2053 2040 2040 2040 2040 2040 2040 2040 2040 2040 2040 2040 2040 2040 2040 2040 2040 2053 2040 2040 2040 2040 2040 2053 2053 2053 2053 2053 2053 2040 2040 2040 0 0 0 0 0 0 0 0
0 0 0 0 0 0 0 0 0 0 0 0 0 0 0 0 0 0 0 0 0 0 0 0 0 0 0 0 0 0 0 0 0 0 1863 1853 1853 1853 1863 1853 1853 1853 1853 1863 1863 1853 1853 1853 1863 1863 1853 1853 1863 1863 1863 1863 1863 1863 1873 1873 1873 1873 1873 1873 1873 1873 1873 1863 1863 1863 1863 1863 1863 1863 1853 1853 1863 1863 1863 1863 1863 1863 1863 1863 1863 1863 1863 1863 1863 1863 1863 1863 1863 1863 1863 1873 1873 1873 1873 1873 1873 1873 1873 1873 1873 1873 1873 1873 1873 1873 1873 1873 1883 1883 1883 1883 1883 1894 1894 1894 1894 1894 1894 1894 1883 1883 1894 1883 1873 1873 1873 1863 1863 1863 1863 1863 1863 1863 1863 1873 1873 1883 1894 1904 1904 1904 1904 1915 1915 1915 1915 1915 1915 1915 1926 1926 1926 1915 1915 1915 1915 1915 1915 1915 1915 1915 1915 1915 1915 1915 1926 1926 1926 1926 1926 1926 1926 1926 1926 1926 1926 1926 1926 1926 1926 1926 1926 1936 1936 1936 1936 1936 1936 1936 1936 1936 1936 1926 1926 1926 1926 1739 1739 1748 1748 1748 1748 1748 1748 1748 1748 1748 1757 1757 1757 1766 1766 1947 1947 1947 1947 1947 1947 1947 1947 1947 1959 1959 1959 1959 1959 1959 1959 1947 1947 1959 1959 1959 1970 1970 1970 1601 1601 1609 1601 1601 1601 1601 1601 1601 1601 1601 1609 1609 1609 1616 1624 1696 1696 1705 1705 1713 1713 1722 1731 1731 1739 1739 1739 1739 1739 1739 1959 1959 1959 1959 1959 1959 1959 1970 1970 1970 1970 1981 1970 1970 1959 1959 1959 1970 1970 1970 1970 1970 1970 1970 1970 1970 1970 1970 1970 1970 1970 1970 1970 1970 1970 1981 1981 1981 1981 1981 1981 1981 1981 1981 1981 1981 1981 1981 1981 1981 1993 1993 1993 1993 1993 1993 1993 1970 1970 1981 1464 1464 1464 1464 1464 1464 1464 1464 1464 1464 1464 1464 1464 1464 1470 1477 1477 1477 1477 1477 2016 2005 2005 2005 2005 2005 2005 2005 2005 2005 2005 2005 2005 2005 2005 2005 2005 2005 2005 2005 2016 1766 1766 1766 1766 1766 1766 1776 1776 1776 1776 1776 1843 1843 1843 1853 1853 1853 1853 1853 1853 2005 2005 2016 2016 2016 2016 2016 2028 2028 2028 2028 2028 2028 2028 2028 2028 2028 2028 2040 2040 2028 2028 2028 2028 2028 2028 2028 2016 2005 1981 1926 1926 1915 1915 1915 1915 1926 1926 1936 1936 1947 1947 1477 1477 1477 1477 1477 1477 1477 1477 1470 1470 1464 1464 1464 1458 1458 1458 1458 1458 1458 1458 1458 1458 1458 2028 2028 2028 2016 2016 2016 2016 2028 2028 2028 2028 2028 2028 2028 2028 2028 2028 2028 2028 2028 2028 2028 2028 2028 2028 2028 2028 2028 2040 2040 2040 2040 2040 2028 2028 2028 2028 2028 2028 2028 2040 2028 2028 2028 2028 2028 2028 2028 2028 2028 2028 2028 2028 2028 2028 2028 2028 2028 2028 2028 2028 2028 2028 2028 2028 2028 2028 2028 2028 2028 2028 2040 2040 2040 2040 2040 2040 2040 2040 2040 2040 2040 2053 2053 2053 2053 2053 2053 2053 2040 2040 2040 2040 2040 2040 2040 2040 2040 2040 2040 2040 2040 2053 2053 2053 2053 2053 2053 2053 2053 2053 2053 2053 2053 2053 2053 2053 2053 2065 2065 2053 2053 2053 2053 2053 2053 2053 2028 2028 2040 2028 2028 2040 2040 2040 2040 2040 2040 2040 2040 2040 2040 2040 2040 2040 2040 2040 2040 2028 2028 2028 2028 2028 2028 2028 2028 2040 2040 2040 2040 2040 2040 2040 2040 2040 2040 2053 2053 2040 2040 2040 2040 2028 2028 0 0 0 0 0 0 0 0
0 0 0 0 0 0 0 0 0 0 0 0 0 0 0 0 0 0 0 0 0 0 0 0 0 0 0 0 0 0 0 0 0 0 0 1843 1843 1843 1853 1853 1853 1853 1853 1853 1853 1843 1843 1853 1853 1853 1853 1853 1853 1863 1863 1853 1853 1863 1863 1863 1863 1863 1863 1863 1863 1863 1863 1853 1853 1853 1863 1863 1853 1853 1853 1853 1863 1863 1863 1853 1853 1853 1853 1853 1853 1853 1853 1853 1853 1853 1853 1863 1863 1863 1863 1863 1863 1863 1873 1873 1873 1873 1873 1873 1873 1873 1873 1873 1873 1873 1873 1873 1873 1873 1883 1883 1883 1883 1883 1883 1883 1883 1883 1883 1883 1883 1883 1883 1873 1873 1873 1873 1863 1863 1863 1863 1863 1863 1863 1873 1873 1883 1894 1904 1904 1904 1904 1904 1904 1904 1904 1904 1904 1904 1904 1904 1915 1904 1904 1904 1904 1904 1904 1904 1904 1904 1904 1904 1904 1915 1915 1915 1915 1915 1915 1915 1915 1915 1915 1915 1915 1915 1915 1915 1915 1915 1926 1926 1936 1936 1936 1936 1936 1936 1936 1936 1926 1926 1926 1926 1926 1739 1739 1748 1748 1748 1748 1748 1748 1748 1748 1748 1757 1757 1757 1766 1776 1936 1936 1947 1947 1947 1947 1947 1947 1947 1947 1947 1947 1947 1947 1947 1947 1947 1947 1947 1947 1947 1959 1959 1959 1609 1609 1609 1601 1601 1601 1601 1601 1601 1601 1601 1609 1609 1616 1616 1639 1688 1696 1705 1705 1713 1713 1722 1731 1731 1739 1739 1739 1739 1739 1739 1947 1947 1947 1947 1947 1947 1947 1959 1970 1970 1970 1970 1970 1970 1959 1947 1947 1959 1959 1959 1959 1959 1970 1970 1970 1970 1970 1970 1970 1970 1970 1970 1970 1970 1970 1970 1970 1970 1970 1970 1981 1981 1981 1981 1970 1970 1981 1981 1981 1981 1981 1981 1981 1981 1981 1981 1981 1970 1970 1970 1464 1464 1464 1464 1464 1464 1464 1464 1464 1464 1464 1464 1464 1470 1477 1477 1477 1483 1483 1483 2005 2005 1993 1993 1993 1993 1993 1993 1993 1993 1993 2005 2005 1993 1993 1993 2005 2005 2005 2005 2016 1757 1757 1757 1766 1766 1766 1776 1776 1776 1776 1843 1843 1843 1853 1863 1863 1863 1863 1863 1863 2005 2005 2005 2016 2016 2016 2016 2016 2016 2016 2016 2016 2016 2016 2016 2016 2016 2028 2028 2028 2016 2016 2016 2016 2016 2016 2005 1993 1993 1959 1926 1926 1915 1915 1915 1915 1926 1926 1936 1947 1947 1947 1477 1477 1477 1477 1477 1477 1477 1477 1477 1470 1470 1464 1464 1464 1464 1458 1458 1458 1458 1458 1458 1458 1458 2016 2016 2016 2016 2016 2016 2016 2016 2016 2016 2016 2016 2028 2028 2028 2016 2016 2016 2016 2016 2016 2016 2016 2016 2016 2028 2028 2028 2028 2028 2028 2028 2028 2016 2016 2028 2028 2028 2028 2028 2028 2028 2028 2028 2028 2028 2028 2028 2028 2028 2028 2028 2028 2028 2028 2016 2016 2016 2016 2016 2016 2016 2016 2016 2028 2028 2028 2016 2016 2028 2028 2028 2028 2028 2028 2028 2040 2040 2040 2040 2040 2040 2040 2040 2040 2028 2028 2040 2028 2028 2028 2028 2028 2028 2040 2040 2040 2040 2040 2040 2040 2040 2040 2040 2040 2053 2053 2053 2053 2053 2053 2053 2053 2053 2053 2053 2053 2053 2053 2053 2053 2053 2053 2053 2040 2040 2040 2028 2028 2028 2028 2028 2040 2040 2040 2040 2040 2040 2040 2028 2028 2028 2028 2028 2028 2028 2028 2028 2028 2028 2028 2028 2028 2028 2028 2028 2028 2028 2028 2028 2040 2040 2040 2040 2040 2040 2040 2040 2040 2040 2028 2028 2028 2028 0 0 0 0 0 0 0 0
0 0 0 0 0 0 0 0 0 0 0 0 0 0 0 0 0 0 0 0 0 0 0 0 0 0 0 0 0 0 0 0 0 0 0 1843 1843 1843 1843 1843 1843 1843 1843 1853 1853 1843 1843 1853 1853 1843 1843 1853 1853 1853 1853 1853 1853 1853 1853 1853 1853 1853 1853 1853 1853 1853 1843 1843 1843 1843 1853 1853 1853 1853 1853 1853 1863 1853 1853 1853 1853 1853 1853 1853 1843 1843 1843 1853 1853 1853 1853 1863 1863 1863 1863 1863 1863 1863 1863 1863 1863 1863 1863 1863 1863 1863 1863 1863 1863 1863 1873 1873 1873 1873 1873 1873 1873 1873 1873 1883 1883 1883 1883 1883 1873 1873 1883 1883 1883 1883 1883 1873 1873 1863 1863 1863 1863 1863 1873 1873 1873 1883 1894 1904 1904 1904 1904 1904 1904 1904 1904 1904 1904 1904 1904 1904 1904 1904 1904 1904 1904 1904 1904 1904 1904 1904 1904 1904 1904 1904 1915 1915 1915 1915 1915 1904 1904 1904 1904 1904 1904 1904 1904 1904 1904 1904 1915 1915 1915 1926 1926 1926 1926 1926 1926 1926 1926 1915 1915 1926 1926 1739 1739 1748 1748 1748 1748 1748 1748 1748 1748 1757 1757 1766 1766 1776 1776 1936 1936 1936 1947 1947 1947 1936 1936 1947 1947 1947 1947 1947 1947 1947 1947 1947 1947 1947 1947 1947 1947 1947 1947 1609 1609 1609 1601 1601 1601 1601 1601 1601 1601 1609 1609 1616 1616 1624 1639 1688 1696 1705 1705 1705 1713 1713 1722 1731 1739 1739 1739 1739 1739 1947 1947 1947 1947 1947 1947 1947 1947 1959 1959 1970 1970 1970 1970 1959 1947 1947 1947 1947 1959 1959 1959 1959 1959 1959 1970 1970 1970 1970 1970 1970 1970 1970 1970 1970 1970 1970 1970 1970 1970 1970 1970 1970 1981 1970 1970 1970 1981 1970 1970 1981 1981 1981 1981 1970 1970 1981 1970 1970 1970 1970 1464 1464 1464 1464 1464 1464 1464 1464 1464 1464 1464 1464 1464 1470 1477 1483 1483 1483 1483 1489 1993 1993 1981 1981 1981 1981 1993 1981 1981 1981 1981 1981 1993 1993 1993 1993 2005 2005 2016 2016 1757 1757 1757 1757 1757 1757 1766 1766 1766 1776 1776 1843 1843 1853 1863 1863 1873 1873 1873 1873 1873 1993 1993 2005 2005 2005 2016 2016 2016 2016 2016 2016 2016 2016 2016 2016 2016 2016 2016 2016 2016 2016 2005 2005 2005 2016 2005 1993 1981 1981 1959 1936 1926 1926 1926 1926 1926 1926 1926 1947 1947 1959 1959 1477 1477 1477 1477 1477 1477 1477 1477 1477 1477 1470 1470 1464 1464 1464 1464 1464 1464 1464 1464 1458 1458 1458 2016 2016 2005 2005 2005 2005 2005 2005 2016 2016 2016 2016 2016 2016 2016 2005 2005 2005 2005 2016 2005 2005 2005 2005 2016 2016 2016 2016 2016 2016 2016 2016 2028 2016 2016 2016 2016 2028 2028 2028 2028 2016 2016 2016 2016 2028 2028 2016 2016 2016 2016 2016 2016 2016 2016 2016 2005 2005 2005 2016 2016 2016 2016 2016 2016 2016 2016 2016 2016 2016 2016 2028 2028 2028 2028 2028 2028 2028 2028 2028 2028 2040 2040 2028 2028 2028 2028 2028 2028 2028 2028 2028 2028 2028 2028 2028 2028 2028 2028 2028 2028 2028 2040 2040 2040 2040 2040 2040 2040 2040 2040 2040 2040 2040 2040 2040 2040 2040 2040 2040 2040 2040 2040 2040 2040 2040 2040 2028 2028 2028 2028 2028 2028 2028 2028 2028 2028 2028 2028 2028 2028 2028 2028 2028 2028 2028 2028 2028 2016 2016 2016 2028 2028 2028 2028 2028 2028 2028 2028 2028 2028 2028 2028 2028 2028 2028 2040 2028 2028 2028 2028 2028 2028 2028 0 0 0 0 0 0 0 0
0 0 0 0 0 0 0 0 0 0 0 0 0 0 0 0 0 0 0 0 0 0 0 0 0 0 0 0 0 0 0 0 0 0 0 1833 1833 1833 1843 1843 1843 1843 1843 1843 1843 1843 1843 1843 1843 1843 1843 1843 1843 1843 1843 1843 1843 1853 1853 1853 1853 1853 1853 1843 1843 1843 1843 1843 1843 1843 1843 1843 1843 1853 1853 1853 1853 1853 1853 1853 1843 1843 1843 1843 1843 1843 1843 1843 1853 1853 1853 1853 1853 1853 1853 1863 1863 1863 1863 1863 1863 1863 1863 1863 1863 1863 1863 1863 1863 1863 1863 1863 1873 1873 1873 1873 1873 1873 1873 1873 1873 1873 1873 1873 1873 1873 1873 1883 1883 1873 1873 1873 1873 1863 1863 1863 1863 1873 1873 1873 1883 1883 1894 1894 1894 1894 1894 1894 1894 1894 1894 1894 1894 1904 1904 1904 1904 1894 1894 1894 1904 1904 1894 1894 1904 1904 1904 1904 1904 1904 1904 1904 1904 1904 1904 1904 1904 1904 1904 1904 1904 1904 1904 1904 1904 1904 1904 1904 1915 1915 1926 1926 1926 1926 1926 1915 1915 1904 1904 1926 1926 1748 1748 1748 1748 1748 1748 1748 1748 1748 1757 1757 1757 1766 1766 1776 1776 1926 1926 1936 1936 1936 1936 1936 1936 1936 1936 1936 1936 1936 1936 1936 1936 1936 1936 1936 1936 1936 1936 1936 1936 1609 1609 1609 1601 1601 1601 1601 1601 1601 1601 1609 1609 1616 1624 1632 1688 1688 1696 1705 1705 1705 1705 1713 1722 1731 1731 1739 1739 1739 1739 1947 1947 1947 1947 1947 1947 1947 1947 1947 1959 1959 1970 1959 1959 1947 1947 1947 1947 1947 1947 1947 1947 1959 1959 1959 1959 1959 1959 1959 1959 1959 1959 1959 1959 1959 1959 1970 1970 1970 1970 1970 1970 1970 1970 1970 1970 1970 1970 1970 1970 1970 1970 1981 1970 1970 1970 1970 1959 1959 1959 1959 1464 1464 1464 1464 1464 1464 1464 1464 1464 1464 1464 1464 1464 1470 1477 1483 1483 1483 1489 1489 1981 1981 1981 1981 1981 1981 1981 1981 1981 1981 1981 1981 1981 1981 1993 1993 2005 2005 2016 2016 1748 1748 1757 1757 1757 1757 1757 1766 1766 1776 1776 1853 1853 1863 1873 1873 1873 1873 1873 1883 1883 1894 1959 1970 1993 2005 2005 2005 2005 2005 2005 2016 2016 2016 2005 2005 2005 2005 2005 2016 2016 2005 2005 2005 2005 2005 1993 1981 1981 1970 1947 1936 1926 1926 1926 1926 1926 1926 1936 1947 1947 1959 1959 1477 1477 1477 1477 1477 1477 1477 1477 1477 1477 1477 1470 1470 1470 1464 1464 1464 1464 1470 1470 1458 1458 1458 2005 2005 2005 2005 2005 2005 2005 2005 2005 2005 2005 2005 2005 2005 2005 2005 2005 2005 2005 2005 2005 2005 2005 2005 2005 2016 2016 2016 2016 2016 2016 2016 2016 2005 2005 2005 2016 2016 2016 2016 2016 2005 2005 2005 2016 2016 2016 2016 2016 2016 2016 2005 2005 2005 2005 2005 1993 1993 1993 2005 2005 2005 2005 2005 2005 2016 2016 2005 2005 2016 2016 2016 2016 2016 2028 2028 2028 2028 2028 2028 2028 2028 2028 2028 2028 2028 2028 2028 2028 2028 2028 2028 2028 2028 2028 2028 2028 2028 2028 2028 2028 2028 2040 2040 2040 2040 2040 2040 2040 2040 2040 2040 2040 2040 2028 2028 2028 2028 2028 2028 2028 2028 2028 2040 2040 2040 2028 2016 2016 2016 2016 2016 2016 2016 2016 2028 2028 2028 2028 2028 2028 2028 2028 2016 2016 2016 2016 2016 2016 2016 2016 2016 2016 2016 2016 2016 2016 2028 2016 2016 2028 2028 2028 2028 2028 2028 2028 2028 2028 2028 2028 2016 2016 2016 0 0 0 0 0 0 0 0
0 0 0 0 0 0 0 0 0 0 0 0 0 0 0 0 0 0 0 0 0 0 0 0 0 0 0 0 0 0 0 0 0 0 0 1823 1823 1833 1833 1843 1843 1843 1843 1843 1843 1833 1833 1843 1843 1843 1833 1833 1833 1833 1843 1843 1843 1843 1843 1843 1843 1843 1843 1843 1843 1843 1843 1843 1843 1843 1843 1843 1843 1843 1853 1853 1853 1833 1833 1833 1833 1833 1833 1833 1833 1833 1833 1833 1843 1843 1843 1843 1853 1853 1853 1853 1853 1853 1853 1853 1863 1863 1863 1863 1863 1863 1863 1863 1863 1863 1863 1863 1873 1873 1873 1863 1863 1873 1873 1873 1873 1873 1863 1863 1873 1873 1873 1873 1873 1873 1873 1873 1863 1863 1863 1863 1863 1873 1873 1873 1873 1883 1883 1894 1894 1894 1894 1894 1894 1894 1894 1894 1894 1894 1894 1904 1904 1894 1894 1894 1894 1894 1894 1894 1894 1894 1894 1904 1904 1904 1904 1904 1904 1904 1904 1904 1904 1904 1904 1904 1904 1904 1904 1904 1904 1904 1904 1904 1904 1904 1915 1915 1915 1915 1915 1915 1904 1904 1904 1926 1926 1748 1748 1748 1748 1748 1748 1748 1748 1748 1757 1757 1757 1776 1776 1785 1904 1904 1926 1926 1926 1926 1926 1926 1926 1926 1926 1926 1926 1926 1926 1926 1936 1936 1936 1936 1936 1936 1926 1926 1926 1609 1609 1609 1601 1601 1601 1601 1601 1601 1601 1609 1609 1616 1624 1632 1655 1688 1688 1696 1705 1705 1705 1713 1713 1722 1731 1739 1739 1936 1936 1936 1936 1936 1936 1936 1936 1936 1936 1947 1936 1936 1947 1947 1947 1947 1947 1936 1936 1947 1947 1947 1947 1959 1959 1959 1959 1959 1959 1947 1947 1947 1947 1959 1959 1959 1959 1959 1959 1970 1970 1970 1970 1970 1970 1959 1959 1959 1959 1959 1959 1959 1959 1970 1970 1970 1970 1970 1959 1959 1959 1959 1464 1464 1464 1464 1464 1464 1464 1464 1464 1464 1464 1464 1464 1470 1483 1483 1483 1483 1489 1489 1970 1970 1970 1970 1970 1981 1981 1981 1981 1970 1970 1981 1981 1981 1993 1993 2005 2005 1731 1731 1731 1739 1748 1748 1757 1757 1757 1766 1766 1776 1776 1863 1863 1863 1873 1873 1873 1873 1873 1883 1883 1894 1959 1970 1981 1981 2005 2005 2005 2005 2005 2005 2005 2005 2005 2005 2005 2005 2005 2005 2005 1993 1993 1993 1993 1993 1981 1981 1970 1970 1947 1936 1926 1926 1926 1926 1926 1926 1936 1947 1959 1959 1959 1477 1477 1477 1477 1477 1477 1477 1477 1477 1477 1477 1470 1470 1470 1464 1464 1464 1464 1470 1470 1458 1458 1458 2005 2005 1993 1993 1993 1993 2005 2005 2005 2005 2005 2005 2005 2005 2005 1993 1993 1993 2005 2005 2005 2005 2005 2005 2005 2005 2005 2005 2005 2005 2005 2005 2005 2005 2005 2005 2005 2005 2005 2005 2005 1993 1993 2005 2005 2005 2005 2005 2005 2005 2005 1993 1993 1993 1993 1993 1993 1993 1993 2005 2005 2005 2005 2005 2005 2016 2005 2005 2005 2005 2005 2016 2005 2005 2016 2016 2016 2016 2016 2028 2028 2028 2028 2028 2028 2028 2028 2028 2028 2028 2028 2028 2016 2016 2016 2016 2016 2028 2028 2028 2028 2028 2028 2028 2028 2028 2028 2028 2028 2028 2028 2028 2028 2028 2028 2028 2028 2028 2028 2028 2028 2028 2028 2028 2028 2028 2028 2005 2005 2005 2005 2005 2005 2005 2005 2016 2016 2016 2016 2016 2016 2028 2016 2016 2016 2016 2016 2016 2016 2016 2016 2016 2016 2016 2016 2016 2016 2016 2016 2016 2016 2016 2016 2028 2028 2028 2028 2028 2028 2028 2016 2016 2016 2016 0 0 0 0 0 0 0 0
0 0 0 0 0 0 0 0 0 0 0 0 0 0 0 0 0 0 0 0 0 0 0 0 0 0 0 0 0 0 0 0 0 0 0 1813 1813 1823 1833 1833 1833 1833 1833 1833 1833 1833 1833 1833 1833 1833 1833 1833 1833 1833 1833 1833 1833 1843 1843 1843 1843 1843 1843 1843 1833 1833 1833 1833 1833 1843 1843 1843 1843 1843 1843 1843 1853 1833 1833 1833 1833 1833 1833 1833 1833 1833 1833 1833 1843 1843 1843 1843 1853 1853 1853 1853 1853 1843 1843 1843 1853 1853 1863 1863 1853 1853 1863 1863 1863 1863 1863 1863 1863 1863 1863 1863 1863 1863 1863 1863 1863 1863 1863 1863 1863 1863 1863 1873 1873 1873 1863 1863 1863 1863 1863 1863 1863 1863 1863 1873 1873 1873 1883 1883 1883 1883 1894 1894 1894 1883 1883 1883 1883 1894 1894 1894 1894 1894 1894 1894 1894 1894 1894 1894 1894 1894 1894 1894 1894 1894 1894 1894 1894 1894 1894 1894 1894 1894 1894 1894 1894 1904 1894 1894 1894 1894 1904 1904 1904 1904 1904 1904 1904 1904 1904 1904 1904 1904 1904 1757 1757 1748 1748 1748 1748 1748 1748 1748 1748 1748 1757 1757 1757 1766 1776 1776 1894 1904 1904 1904 1926 1926 1915 1915 1926 1926 1926 1926 1926 1926 1926 1926 1926 1926 1926 1926 1926 1926 1926 1926 1926 1609 1609 1616 1609 1609 1609 1609 1609 1609 1609 1609 1609 1616 1624 1639 1655 1680 1688 1696 1696 1705 1705 1705 1713 1713 1713 1739 1926 1926 1936 1936 1936 1936 1936 1936 1936 1936 1936 1936 1936 1936 1926 1926 1936 1936 1936 1936 1936 1936 1936 1936 1936 1947 1947 1947 1947 1947 1947 1947 1936 1936 1936 1947 1947 1959 1959 1959 1959 1970 1970 1970 1970 1970 1970 1959 1947 1947 1959 1947 1947 1947 1959 1947 1947 1959 1959 1970 1959 1959 1959 1959 1464 1464 1464 1464 1464 1464 1464 1464 1464 1464 1464 1464 1464 1477 1483 1483 1483 1483 1489 1489 1959 1970 1970 1970 1970 1970 1970 1970 1970 1970 1970 1970 1970 1981 1993 1696 1696 1713 1722 1722 1731 1731 1739 1748 1748 1757 1757 1766 1766 1776 1776 1863 1863 1873 1873 1873 1873 1873 1873 1883 1883 1894 1959 1970 1970 1981 1981 1993 1993 1993 1993 2005 2005 2005 1993 1993 1993 1993 1993 1993 1993 1981 1981 1981 1993 1981 1970 1970 1970 1959 1947 1936 1936 1926 1926 1926 1926 1926 1936 1959 1959 1970 1970 1477 1477 1477 1477 1477 1483 1477 1477 1477 1477 1477 1477 1470 1470 1470 1470 1470 1470 1470 1477 1470 1470 1470 2005 1993 1427 1427 1993 1993 1993 1993 2005 1993 1993 1993 1993 1993 1993 1993 1993 1993 1993 2005 2005 2005 2005 2005 2005 2005 2005 2005 2005 2005 2005 2005 2005 2005 2005 2005 2005 2005 2005 2005 2005 1993 1993 1993 1993 1993 1993 1993 1993 1993 1993 1993 1993 1993 1993 1993 1993 1993 1993 1993 2005 1993 1993 1993 1993 2005 2005 1993 1993 1993 2005 2005 2005 2005 2005 2005 2005 2016 2016 2016 2016 2028 2028 2028 2016 2016 2016 2016 2016 2016 2016 2016 2016 2016 2016 2016 2016 2016 2016 2028 2028 2028 2028 2028 2028 2028 2028 2028 2016 2016 2028 2028 2028 2028 2028 2016 2016 2028 2028 2028 2028 2028 2028 2028 2028 2028 2016 2005 2005 2005 2005 2005 2005 2005 2005 2005 2016 2016 2016 2016 2016 2016 2016 2016 2016 2016 2005 2005 2016 2005 2005 2016 2016 2016 2016 2016 2016 2016 2005 2005 2016 2016 2016 2016 2016 2016 2028 2016 2016 2016 2016 2016 2005 2005 0 0 0 0 0 0 0 0
0 0 0 0 0 0 0 0 0 0 0 0 0 0 0 0 0 0 0 0 0 0 0 0 0 0 0 0 0 0 0 0 0 0 0 1813 1813 1813 1823 1823 1823 1823 1833 1833 1833 1833 1833 1833 1833 1833 1833 1833 1823 1823 1833 1833 1833 1833 1833 1833 1843 1843 1833 1833 1833 1833 1833 1833 1833 1833 1833 1833 1833 1833 1833 1833 1843 1833 1833 1833 1833 1833 1833 1833 1833 1833 1833 1833 1833 1833 1833 1843 1843 1843 1843 1843 1843 1843 1843 1843 1843 1853 1853 1853 1853 1853 1853 1853 1853 1853 1853 1853 1863 1863 1863 1863 1863 1863 1863 1863 1863 1863 1863 1863 1863 1863 1863 1863 1863 1863 1863 1863 1863 1863 1863 1863 1863 1863 1863 1873 1873 1873 1873 1873 1883 1883 1883 1883 1883 1883 1883 1883 1883 1883 1883 1894 1894 1883 1883 1883 1883 1883 1883 1883 1883 1883 1894 1894 1894 1894 1894 1894 1894 1883 1883 1894 1894 1894 1894 1894 1894 1894 1894 1894 1894 1894 1894 1894 1894 1894 1894 1894 1894 1894 1894 1894 1894 1894 1894 1757 1757 1748 1748 1748 1748 1748 1748 1748 1748 1748 1757 1757 1757 1766 1776 1776 1894 1904 1904 1904 1904 1904 1915 1915 1915 1915 1915 1915 1915 1915 1915 1915 1915 1926 1926 1926 1926 1926 1926 1915 1915 1609 1609 1616 1609 1609 1609 1609 1609 1609 1609 1609 1616 1616 1624 1639 1647 1671 1671 1696 1696 1696 1705 1705 1705 1705 1713 1926 1926 1926 1926 1926 1926 1926 1926 1926 1926 1926 1926 1926 1926 1926 1926 1926 1926 1926 1926 1926 1926 1936 1936 1936 1936 1936 1936 1936 1936 1936 1936 1936 1936 1936 1936 1936 1936 1936 1936 1936 1936 1936 1936 1936 1936 1936 1936 1936 1936 1936 1947 1936 1936 1936 1936 1936 1936 1936 1936 1947 1947 1947 1959 1959 1464 1464 1464 1464 1464 1470 1464 1464 1464 1464 1464 1464 1464 1477 1483 1483 1483 1483 1489 1489 1959 1959 1959 1959 1970 1959 1959 1970 1970 1970 1970 1970 1970 1981 1696 1696 1696 1713 1713 1722 1722 1731 1731 1739 1748 1748 1757 1766 1766 1766 1863 1863 1863 1873 1873 1873 1873 1873 1873 1883 1894 1936 1947 1959 1970 1970 1981 1981 1981 1993 1993 1993 1993 1993 1993 1993 1993 1993 1993 1993 1993 1970 1970 1970 1970 1970 1959 1959 1959 1959 1947 1936 1936 1926 1926 1926 1936 1936 1936 1959 1959 1970 1970 1483 1483 1483 1483 1483 1483 1483 1483 1483 1477 1477 1477 1477 1470 1470 1470 1470 1470 1470 1477 1470 1458 1458 1421 1415 1415 1421 1427 1981 1993 1993 1993 1993 1993 1993 1993 1993 1993 1993 1993 1993 1993 1993 2005 1993 1993 2005 2005 2005 1993 1993 1993 1993 1993 1993 1993 1993 1993 1993 1993 1993 1993 1993 1993 1981 1981 1981 1993 1993 1993 1993 1981 1981 1981 1981 1981 1981 1993 1993 1993 1993 1993 1993 1993 1993 1993 1993 1993 1993 1993 1993 1993 1993 1993 1993 1993 1993 2005 2005 2005 2005 2016 2016 2016 2016 2016 2016 2005 2005 2005 2016 2016 2016 2016 2016 2005 2005 2005 2005 2005 2005 2016 2016 2016 2016 2016 2016 2016 2016 2016 2016 2016 2016 2016 2016 2016 2016 2016 2016 2016 2016 2016 2016 2016 2016 2016 2028 2016 2016 2016 2005 1993 1993 1993 1993 1993 1993 1993 2005 2005 2005 2005 2005 2005 2005 2005 2005 2005 2005 1993 1993 2005 2005 2005 2005 2005 2005 2005 1993 1993 1993 1993 1993 1993 2005 2005 2016 2016 2016 2016 2016 2016 2016 2005 2005 2005 2005 0 0 0 0 0 0 0 0
0 0 0 0 0 0 0 0 0 0 0 0 0 0 0 0 0 0 0 0 0 0 0 0 0 0 0 0 0 0 0 0 0 0 0 1804 1804 1813 1813 1813 1823 1823 1823 1823 1823 1823 1823 1833 1833 1833 1833 1833 1823 1823 1823 1823 1823 1833 1833 1833 1833 1833 1833 1833 1833 1833 1833 1833 1833 1833 1833 1823 1823 1833 1833 1833 1833 1833 1833 1833 1823 1823 1833 1833 1823 1823 1833 1833 1833 1833 1833 1843 1843 1843 1843 1843 1843 1843 1843 1843 1843 1853 1853 1843 1843 1843 1843 1843 1843 1843 1843 1843 1843 1843 1853 1853 1863 1863 1863 1863 1863 1863 1863 1863 1863 1853 1853 1863 1863 1863 1863 1863 1863 1863 1863 1863 1863 1863 1863 1863 1863 1873 1873 1873 1873 1873 1873 1873 1873 1873 1873 1873 1873 1883 1883 1883 1883 1883 1883 1883 1873 1873 1873 1873 1873 1873 1883 1883 1883 1883 1883 1883 1883 1883 1883 1883 1883 1883 1883 1894 1894 1894 1894 1894 1894 1894 1894 1894 1894 1894 1894 1894 1894 1894 1894 1894 1894 1894 1894 1757 1757 1748 1748 1748 1748 1748 1748 1748 1748 1748 1757 1757 1757 1766 1776 1894 1894 1904 1904 1904 1904 1904 1904 1904 1904 1904 1915 1915 1915 1915 1915 1915 1915 1915 1915 1915 1915 1915 1915 1904 1904 1609 1609 1616 1609 1609 1609 1609 1609 1609 1609 1616 1616 1624 1632 1639 1647 1671 1671 1696 1696 1696 1696 1705 1696 1696 1926 1915 1915 1915 1915 1915 1915 1926 1926 1926 1926 1926 1926 1915 1915 1926 1926 1926 1926 1926 1926 1926 1926 1926 1926 1926 1926 1926 1926 1936 1936 1926 1926 1926 1936 1936 1936 1936 1936 1936 1936 1936 1936 1936 1936 1936 1936 1936 1936 1936 1936 1936 1936 1936 1936 1936 1936 1936 1936 1936 1936 1936 1936 1936 1947 1947 1470 1470 1470 1470 1470 1470 1470 1464 1464 1464 1464 1464 1470 1477 1483 1483 1483 1483 1489 1489 1947 1959 1947 1947 1959 1959 1959 1959 1959 1959 1959 1959 1970 1981 1696 1696 1696 1713 1713 1722 1722 1731 1731 1739 1739 1748 1757 1766 1766 1894 1894 1873 1873 1873 1873 1873 1873 1873 1883 1883 1904 1936 1947 1959 1959 1970 1970 1970 1970 1981 1981 1981 1981 1981 1993 1993 1981 1981 1981 1981 1981 1959 1959 1970 1970 1970 1959 1959 1959 1959 1947 1936 1936 1936 1936 1936 1936 1936 1947 1959 1959 1959 1959 1489 1489 1483 1483 1483 1483 1483 1483 1483 1477 1477 1477 1477 1470 1470 1470 1470 1470 1477 1477 1477 1458 1458 1421 1415 1415 1421 1427 1981 1993 1993 1993 1993 1993 1993 1993 1981 1981 1981 1981 1981 1993 1993 1993 1993 1993 1993 1993 1993 1993 1993 1993 1993 1993 1993 1993 1993 1993 1993 1993 1993 1993 1993 1993 1981 1981 1981 1981 1981 1981 1981 1981 1981 1981 1981 1981 1981 1981 1981 1981 1981 1993 1993 1993 1993 1993 1993 1993 1993 1993 1993 1993 1993 1993 1993 1993 1993 1993 1993 1993 2005 2005 2005 2005 2005 2005 2005 2005 2005 2005 2016 2016 2005 2005 2005 2005 2005 2005 1993 1993 1993 2005 2005 2005 2005 2005 2005 2016 2016 2016 2016 2005 2005 2005 2005 2005 2005 2005 2005 2005 2016 2005 2005 2005 2005 2005 2005 2005 2005 2005 1993 1993 1993 1993 1993 1993 1993 1993 2005 2005 1993 1993 2005 1993 1993 1993 1993 1993 1993 1981 1981 1993 1993 1993 1993 1993 1993 1993 1981 1981 1981 1981 1981 1981 1993 1993 1993 1993 1993 1993 1993 1993 1993 1981 1981 1981 1993 0 0 0 0 0 0 0 0
0 0 0 0 0 0 0 0 0 0 0 0 0 0 0 0 0 0 0 0 0 0 0 0 0 0 0 0 0 0 0 0 0 0 0 1804 1804 1804 1813 1813 1813 1813 1813 1813 1823 1823 1823 1833 1833 1823 1823 1823 1813 1813 1813 1823 1823 1833 1833 1833 1833 1833 1833 1833 1833 1833 1823 1823 1823 1823 1823 1823 1823 1823 1823 1823 1833 1823 1823 1823 1823 1823 1823 1823 1823 1823 1823 1823 1833 1833 1833 1833 1833 1833 1833 1833 1833 1833 1833 1833 1843 1843 1843 1843 1843 1833 1833 1833 1833 1833 1833 1843 1843 1843 1843 1843 1853 1853 1853 1853 1853 1853 1853 1853 1853 1843 1843 1853 1863 1863 1863 1863 1863 1863 1853 1853 1863 1863 1863 1863 1863 1873 1873 1873 1873 1873 1873 1873 1873 1873 1873 1873 1873 1873 1873 1883 1873 1873 1873 1873 1873 1863 1863 1863 1863 1863 1873 1873 1873 1873 1873 1873 1873 1863 1863 1863 1873 1873 1873 1883 1883 1883 1883 1883 1883 1883 1883 1883 1883 1883 1883 1883 1883 1894 1894 1894 1894 1894 1894 1757 1757 1757 1748 1748 1748 1748 1748 1748 1748 1757 1757 1757 1757 1766 1776 1894 1894 1904 1904 1904 1904 1904 1904 1904 1904 1904 1904 1915 1915 1915 1915 1915 1915 1915 1915 1915 1915 1915 1915 1904 1904 1609 1609 1616 1609 1609 1609 1609 1609 1609 1609 1616 1624 1624 1632 1639 1647 1663 1680 1696 1696 1696 1696 1696 1696 1696 1915 1904 1904 1904 1904 1904 1904 1915 1915 1915 1915 1915 1915 1915 1915 1915 1915 1915 1915 1915 1915 1915 1915 1915 1926 1926 1926 1926 1926 1926 1926 1926 1926 1926 1926 1926 1926 1926 1926 1936 1926 1926 1926 1936 1926 1926 1936 1926 1926 1936 1936 1936 1936 1926 1926 1936 1926 1926 1926 1926 1936 1936 1926 1926 1926 1926 1470 1470 1470 1470 1470 1470 1470 1470 1464 1464 1464 1470 1470 1477 1483 1483 1477 1477 1489 1947 1947 1947 1947 1947 1947 1936 1936 1947 1947 1947 1947 1959 1970 1688 1688 1696 1696 1705 1705 1722 1722 1731 1731 1731 1731 1739 1739 1739 1894 1894 1894 1883 1883 1873 1873 1873 1873 1883 1883 1883 1904 1936 1947 1959 1959 1959 1970 1970 1970 1970 1970 1981 1981 1981 1981 1981 1981 1981 1981 1970 1970 1959 1959 1959 1959 1959 1959 1959 1959 1947 1947 1936 1936 1936 1936 1936 1936 1936 1947 1959 1959 1959 1959 1489 1489 1483 1483 1483 1483 1483 1483 1483 1483 1477 1477 1477 1477 1477 1477 1477 1477 1477 1477 1483 1470 1470 1470 1981 1981 1970 1970 1970 1981 1981 1981 1981 1981 1981 1981 1981 1981 1981 1981 1981 1981 1981 1993 1993 1993 1993 1993 1993 1981 1981 1981 1981 1981 1981 1981 1981 1981 1993 1993 1993 1981 1981 1981 1970 1970 1970 1970 1970 1970 1981 1981 1981 1970 1970 1981 1981 1981 1981 1981 1981 1993 1993 1993 1981 1981 1981 1981 1993 1981 1981 1981 1981 1993 1993 1981 1981 1993 1993 1993 1993 1993 1993 1993 1993 1993 1993 1993 1993 1993 2005 2005 2005 2005 2005 2005 2005 1993 1993 1993 1993 1993 2005 2005 2005 2005 2005 2005 2005 2005 2005 2005 2005 1993 1993 2005 2005 2005 2005 2005 2005 2005 2005 2005 2005 2005 2005 2005 2005 2005 1993 1993 1993 1993 1993 1993 1993 1993 1993 1993 1993 1993 1993 1993 1993 1993 1993 1993 1981 1981 1981 1981 1981 1981 1981 1993 1993 1981 1981 1981 1981 1981 1981 1981 1981 1981 1981 1981 1981 1981 1981 1981 1981 1981 1981 1981 1981 0 0 0 0 0 0 0 0
0 0 0 0 0 0 0 0 0 0 0 0 0 0 0 0 0 0 0 0 0 0 0 0 0 0 0 0 0 0 0 0 0 0 0 1794 1794 1804 1804 1804 1804 1804 1804 1813 1813 1823 1823 1823 1823 1823 1823 1823 1813 1813 1813 1823 1823 1823 1833 1833 1833 1833 1833 1833 1823 1823 1823 1823 1823 1823 1823 1823 1823 1823 1823 1823 1823 1823 1823 1823 1823 1823 1823 1823 1823 1823 1823 1823 1823 1823 1823 1833 1833 1833 1833 1833 1833 1833 1833 1833 1833 1833 1833 1833 1833 1833 1833 1833 1833 1833 1833 1833 1833 1833 1843 1843 1843 1843 1843 1843 1843 1843 1843 1843 1843 1833 1833 1843 1853 1853 1853 1853 1853 1853 1853 1853 1853 1863 1863 1863 1863 1873 1873 1873 1873 1873 1873 1873 1873 1873 1873 1873 1873 1873 1873 1873 1863 1863 1863 1863 1863 1863 1863 1863 1863 1863 1863 1863 1863 1863 1863 1863 1863 1863 1863 1863 1863 1863 1863 1873 1873 1873 1883 1873 1873 1873 1873 1873 1873 1883 1873 1873 1883 1883 1883 1883 1883 1883 1883 1757 1757 1757 1757 1757 1757 1757 1757 1757 1757 1757 1766 1766 1766 1776 1785 1883 1894 1904 1894 1894 1894 1894 1894 1894 1894 1904 1904 1904 1904 1915 1915 1915 1915 1915 1915 1915 1904 1904 1904 1904 1904 1609 1609 1616 1609 1609 1609 1609 1609 1609 1609 1616 1624 1624 1632 1639 1639 1663 1671 1680 1680 1696 1696 1696 1696 1696 1904 1904 1904 1904 1904 1894 1894 1904 1904 1904 1904 1904 1904 1904 1904 1904 1904 1904 1915 1915 1904 1904 1915 1915 1915 1915 1915 1915 1915 1915 1915 1915 1926 1926 1926 1926 1926 1926 1926 1926 1926 1926 1926 1926 1926 1926 1926 1926 1926 1926 1926 1926 1926 1926 1926 1926 1926 1926 1926 1926 1926 1926 1915 1915 1926 1464 1464 1470 1470 1470 1470 1470 1470 1470 1470 1470 1470 1477 1477 1483 1483 1483 1477 1477 1477 1926 1926 1936 1936 1936 1936 1936 1936 1936 1936 1947 1947 1959 1696 1688 1688 1696 1696 1696 1705 1713 1713 1722 1722 1731 1731 1739 1739 1936 1926 1894 1894 1883 1883 1873 1873 1873 1873 1883 1883 1894 1915 1936 1947 1947 1959 1959 1959 1959 1970 1970 1970 1970 1970 1970 1970 1970 1970 1970 1970 1970 1970 1959 1959 1959 1959 1959 1959 1959 1959 1947 1947 1947 1947 1936 1936 1947 1947 1947 1947 1959 1959 1959 1959 1489 1489 1483 1483 1483 1483 1483 1483 1483 1483 1477 1477 1477 1477 1477 1470 1470 1477 1477 1483 1483 1470 1470 1470 1959 1970 1959 1959 1970 1970 1970 1970 1970 1970 1981 1981 1970 1970 1970 1970 1970 1970 1970 1981 1981 1981 1981 1981 1981 1981 1981 1970 1970 1970 1981 1981 1981 1981 1981 1981 1981 1981 1970 1970 1970 1970 1970 1959 1959 1970 1970 1970 1970 1959 1959 1970 1981 1981 1981 1981 1981 1981 1981 1981 1981 1981 1981 1981 1981 1981 1981 1981 1981 1981 1981 1981 1981 1981 1981 1981 1981 1981 1981 1981 1981 1981 1981 1981 1993 1993 1993 2005 1993 1993 1993 1993 1993 1993 1993 1993 1993 1993 1993 1993 1993 1993 1993 1993 1993 1993 1993 1993 1993 1993 1993 1993 1993 1993 1993 1993 1993 1993 1993 1993 1993 1993 1993 1993 1993 2005 1981 1981 1981 1981 1981 1981 1981 1981 1981 1981 1981 1981 1981 1981 1981 1981 1981 1981 1981 1970 1970 1981 1981 1981 1981 1981 1981 1981 1981 1981 1981 1981 1981 1981 1981 1981 1981 1981 1981 1981 1981 1981 1970 1970 1970 1970 1981 0 0 0 0 0 0 0 0
0 0 0 0 0 0 0 0 0 0 0 0 0 0 0 0 0 0 0 0 0 0 0 0 0 0 0 0 0 0 0 0 0 0 0 1794 1794 1804 1804 1794 1794 1804 1804 1804 1804 1813 1823 1823 1823 1823 1823 1823 1813 1813 1813 1813 1823 1823 1823 1823 1823 1823 1823 1823 1823 1823 1823 1823 1823 1813 1813 1813 1813 1823 1823 1823 1823 1823 1823 1823 1823 1813 1813 1823 1823 1823 1823 1813 1813 1813 1813 1823 1823 1823 1823 1823 1823 1823 1823 1823 1823 1833 1833 1833 1833 1833 1833 1833 1833 1833 1833 1833 1833 1833 1833 1833 1833 1833 1843 1833 1833 1833 1833 1833 1833 1833 1833 1833 1843 1843 1843 1843 1843 1843 1843 1843 1843 1843 1843 1853 1853 1863 1863 1863 1863 1863 1863 1863 1863 1863 1863 1863 1863 1863 1863 1863 1863 1853 1853 1853 1853 1853 1853 1853 1863 1863 1853 1853 1853 1853 1853 1853 1853 1853 1853 1853 1853 1863 1863 1863 1863 1873 1873 1873 1873 1873 1873 1873 1873 1873 1873 1873 1873 1883 1883 1883 1873 1873 1883 1894 1757 1757 1757 1757 1757 1757 1757 1757 1757 1766 1766 1766 1766 1776 1794 1883 1883 1894 1894 1894 1894 1894 1894 1894 1894 1894 1904 1904 1904 1904 1904 1904 1904 1904 1904 1904 1904 1904 1894 1894 1894 1609 1609 1616 1609 1609 1609 1609 1609 1609 1609 1616 1624 1624 1632 1639 1639 1663 1671 1680 1680 1696 1696 1883 1894 1894 1894 1904 1904 1904 1894 1894 1894 1894 1904 1904 1904 1904 1904 1904 1904 1904 1904 1904 1904 1904 1904 1904 1904 1904 1904 1904 1904 1915 1915 1915 1915 1915 1915 1915 1915 1915 1915 1915 1915 1915 1915 1915 1915 1915 1915 1915 1926 1926 1926 1926 1926 1926 1926 1926 1926 1926 1926 1926 1926 1926 1926 1926 1915 1915 1915 1464 1464 1470 1470 1470 1470 1470 1470 1470 1470 1470 1470 1477 1477 1483 1483 1483 1483 1483 1915 1915 1915 1926 1926 1936 1936 1936 1936 1936 1936 1936 1936 1959 1688 1688 1696 1696 1696 1696 1705 1713 1713 1722 1722 1731 1731 1936 1936 1936 1915 1894 1894 1894 1883 1883 1873 1873 1873 1883 1883 1894 1915 1936 1947 1947 1959 1959 1959 1959 1959 1959 1959 1959 1959 1959 1959 1970 1959 1959 1970 1970 1970 1947 1947 1947 1947 1947 1959 1959 1959 1947 1947 1947 1947 1947 1947 1947 1947 1947 1947 1959 1959 1959 1959 1489 1489 1483 1483 1483 1483 1483 1483 1483 1483 1477 1477 1477 1477 1477 1470 1470 1477 1477 1483 1483 1470 1464 1458 1458 1959 1959 1959 1959 1959 1959 1959 1959 1970 1970 1970 1970 1970 1970 1970 1970 1970 1970 1970 1970 1970 1970 1970 1970 1970 1970 1970 1970 1970 1970 1970 1970 1970 1970 1970 1970 1970 1970 1970 1959 1959 1959 1959 1959 1959 1959 1959 1959 1959 1959 1959 1970 1970 1970 1970 1970 1981 1981 1981 1970 1970 1970 1970 1970 1970 1970 1970 1970 1981 1981 1981 1981 1970 1970 1981 1981 1981 1981 1981 1981 1981 1981 1981 1981 1981 1981 1993 1993 1993 1993 1993 1993 1981 1981 1981 1981 1981 1993 1993 1993 1993 1993 1993 1993 1993 1993 1981 1981 1981 1981 1981 1981 1981 1981 1981 1993 1993 1993 1993 1993 1993 1993 1993 1993 1993 1981 1981 1981 1981 1981 1981 1981 1981 1981 1981 1981 1981 1981 1981 1981 1981 1981 1981 1981 1970 1970 1981 1981 1981 1981 1970 1970 1981 1970 1970 1970 1970 1970 1981 1981 1981 1981 1981 1970 1970 1970 1970 1970 1970 1970 1970 1981 0 0 0 0 0 0 0 0
0 0 0 0 0 0 0 0 0 0 0 0 0 0 0 0 0 0 0 0 0 0 0 0 0 0 0 0 0 0 0 0 0 0 0 1794 1794 1794 1794 1794 1794 1794 1794 1804 1804 1804 1813 1813 1813 1813 1813 1823 1813 1813 1813 1813 1813 1813 1813 1813 1813 1823 1823 1813 1813 1813 1813 1813 1813 1804 1804 1804 1804 1813 1813 1813 1813 1813 1813 1823 1813 1813 1813 1813 1823 1813 1813 1813 1813 1813 1813 1823 1813 1813 1813 1813 1823 1823 1823 1823 1823 1823 1823 1823 1823 1833 1833 1833 1833 1833 1833 1823 1823 1823 1833 1833 1833 1833 1833 1833 1833 1833 1833 1833 1833 1833 1833 1833 1833 1843 1843 1843 1843 1843 1843 1843 1843 1843 1843 1843 1843 1853 1853 1863 1863 1863 1863 1863 1863 1863 1863 1863 1863 1863 1863 1863 1863 1853 1853 1853 1853 1853 1853 1853 1853 1853 1853 1853 1853 1853 1853 1853 1853 1853 1853 1853 1853 1863 1863 1863 1863 1863 1863 1863 1863 1863 1863 1863 1873 1873 1873 1873 1873 1873 1873 1873 1873 1873 1873 1883 1766 1757 1757 1757 1757 1757 1757 1757 1757 1766 1766 1776 1776 1785 1853 1863 1883 1883 1883 1883 1883 1883 1894 1894 1894 1894 1894 1904 1904 1904 1904 1904 1904 1904 1894 1894 1894 1894 1894 1894 1609 1609 1609 1616 1609 1609 1609 1609 1609 1609 1609 1616 1624 1624 1632 1639 1647 1663 1671 1680 1680 1680 1696 1883 1894 1894 1894 1894 1894 1894 1894 1894 1894 1894 1894 1894 1894 1894 1904 1894 1894 1894 1894 1904 1904 1904 1904 1904 1894 1894 1904 1894 1894 1904 1904 1904 1904 1904 1915 1915 1915 1915 1915 1915 1904 1904 1904 1904 1904 1915 1915 1915 1915 1915 1915 1915 1915 1915 1926 1915 1915 1915 1915 1915 1915 1915 1915 1926 1904 1904 1904 1464 1464 1470 1470 1470 1470 1470 1470 1470 1470 1470 1470 1477 1483 1483 1483 1483 1483 1915 1915 1915 1915 1926 1926 1926 1926 1926 1926 1936 1936 1936 1663 1663 1680 1688 1688 1688 1696 1696 1696 1713 1713 1722 1722 1731 1731 1936 1936 1936 1915 1894 1894 1894 1883 1883 1883 1883 1883 1883 1883 1894 1915 1926 1936 1947 1947 1959 1959 1947 1947 1959 1959 1959 1959 1959 1959 1959 1959 1959 1959 1959 1959 1947 1947 1947 1947 1947 1947 1947 1947 1947 1947 1947 1947 1947 1947 1947 1947 1947 1947 1947 1959 1959 1959 1489 1489 1489 1489 1489 1483 1483 1483 1483 1483 1477 1477 1477 1477 1477 1477 1477 1477 1477 1483 1477 1470 1458 1458 1458 1947 1959 1959 1959 1959 1959 1959 1959 1959 1959 1959 1959 1959 1959 1959 1959 1959 1959 1959 1959 1959 1959 1959 1959 1959 1959 1959 1959 1959 1959 1970 1970 1970 1970 1970 1970 1970 1959 1959 1959 1947 1947 1947 1947 1959 1959 1959 1959 1959 1959 1959 1959 1959 1959 1959 1959 1970 1970 1970 1970 1970 1970 1970 1970 1970 1970 1970 1970 1970 1970 1970 1970 1959 1959 1970 1970 1981 1970 1970 1981 1981 1981 1981 1981 1981 1981 1981 1993 1981 1981 1981 1970 1970 1970 1970 1970 1981 1981 1981 1981 1981 1981 1981 1981 1981 1981 1981 1981 1981 1981 1981 1981 1981 1981 1981 1981 1993 1981 1981 1981 1981 1993 1993 1993 1993 1981 1981 1981 1981 1970 1970 1970 1970 1970 1970 1981 1981 1981 1981 1970 1970 1970 1970 1970 1970 1970 1981 1981 1970 1970 1970 1970 1970 1970 1970 1970 1970 1970 1970 1970 1981 1970 1970 1970 1970 1970 1970 1970 1970 1970 1970 1970 0 0 0 0 0 0 0 0
0 0 0 0 0 0 0 0 0 0 0 0 0 0 0 0 0 0 0 0 0 0 0 0 0 0 0 0 0 0 0 0 0 0 0 1794 1794 1794 1794 1794 1794 1794 1794 1794 1794 1804 1804 1804 1804 1804 1813 1813 1804 1804 1804 1804 1813 1813 1813 1813 1813 1813 1813 1813 1804 1804 1804 1804 1804 1804 1804 1794 1794 1804 1813 1813 1813 1813 1813 1813 1813 1813 1813 1813 1813 1813 1813 1813 1804 1804 1804 1813 1813 1813 1813 1813 1813 1813 1813 1813 1823 1823 1823 1823 1823 1823 1823 1823 1823 1823 1823 1823 1823 1823 1823 1823 1823 1833 1823 1823 1833 1833 1833 1833 1823 1823 1823 1833 1833 1833 1833 1833 1833 1833 1843 1843 1843 1843 1843 1843 1843 1843 1853 1853 1853 1863 1863 1863 1863 1863 1863 1863 1853 1853 1863 1863 1863 1853 1843 1843 1853 1853 1853 1853 1853 1853 1853 1853 1853 1853 1853 1853 1853 1853 1853 1853 1853 1853 1853 1863 1863 1863 1863 1863 1863 1863 1863 1863 1863 1863 1863 1863 1863 1863 1863 1863 1863 1863 1863 1873 1766 1757 1757 1757 1757 1766 1766 1766 1766 1766 1776 1776 1776 1785 1853 1853 1873 1873 1883 1883 1883 1883 1883 1883 1894 1894 1894 1904 1904 1904 1904 1904 1904 1894 1894 1894 1894 1894 1883 1883 1609 1609 1609 1616 1609 1609 1609 1609 1609 1609 1616 1624 1624 1632 1632 1639 1647 1663 1671 1680 1671 1671 1873 1873 1883 1883 1883 1894 1894 1894 1894 1894 1894 1894 1894 1894 1894 1894 1894 1894 1894 1894 1894 1894 1894 1894 1894 1894 1894 1894 1894 1894 1894 1894 1894 1894 1894 1904 1904 1904 1904 1904 1904 1904 1904 1904 1904 1904 1904 1904 1904 1915 1915 1915 1915 1915 1915 1915 1915 1915 1915 1915 1915 1915 1915 1915 1915 1915 1904 1904 1904 1464 1464 1470 1470 1470 1470 1470 1470 1470 1470 1470 1470 1477 1483 1483 1483 1483 1904 1915 1915 1915 1915 1915 1926 1926 1926 1926 1926 1926 1926 1926 1663 1663 1671 1680 1688 1688 1696 1696 1696 1696 1705 1722 1722 1731 1926 1926 1926 1926 1904 1894 1894 1894 1883 1883 1883 1883 1883 1883 1883 1894 1904 1926 1926 1936 1936 1947 1947 1947 1947 1947 1947 1947 1947 1947 1959 1959 1959 1959 1959 1959 1959 1947 1947 1947 1947 1947 1947 1947 1947 1947 1947 1947 1947 1947 1947 1947 1947 1947 1947 1947 1959 1959 1959 1489 1489 1489 1489 1489 1483 1483 1483 1483 1483 1477 1477 1477 1477 1477 1477 1477 1477 1477 1483 1470 1458 1458 1458 1464 1947 1947 1947 1959 1959 1959 1959 1959 1959 1959 1959 1959 1959 1959 1959 1959 1959 1959 1959 1959 1959 1959 1959 1959 1959 1959 1959 1959 1959 1959 1959 1959 1959 1959 1959 1970 1959 1959 1959 1947 1947 1947 1947 1947 1947 1947 1947 1959 1947 1947 1947 1947 1947 1947 1947 1947 1959 1959 1959 1959 1959 1959 1959 1959 1959 1959 1959 1959 1959 1959 1959 1959 1959 1959 1970 1970 1970 1970 1970 1970 1970 1970 1970 1970 1970 1981 1981 1981 1981 1981 1970 1970 1970 1970 1970 1970 1970 1970 1981 1981 1981 1981 1981 1981 1981 1981 1981 1981 1981 1981 1981 1981 1981 1981 1981 1981 1981 1981 1981 1981 1981 1993 1993 1993 1993 1981 1970 1970 1970 1970 1970 1970 1970 1970 1970 1970 1970 1970 1970 1970 1970 1970 1970 1970 1970 1970 1970 1970 1970 1970 1970 1970 1970 1959 1959 1959 1970 1970 1970 1970 1981 1970 1970 1970 1970 1970 1970 1970 1970 1970 1970 1970 0 0 0 0 0 0 0 0
0 0 0 0 0 0 0 0 0 0 0 0 0 0 0 0 0 0 0 0 0 0 0 0 0 0 0 0 0 0 0 0 0 0 0 1794 1794 1794 1794 1785 1785 1785 1785 1794 1794 1794 1804 1804 1804 1804 1804 1804 1804 1804 1804 1804 1804 1804 1804 1804 1804 1804 1804 1804 1804 1804 1804 1804 1804 1804 1804 1794 1794 1794 1804 1804 1804 1804 1804 1813 1804 1804 1804 1804 1804 1804 1804 1804 1794 1794 1794 1804 1804 1804 1804 1813 1813 1813 1813 1813 1813 1813 1813 1813 1813 1823 1823 1823 1823 1823 1823 1823 1823 1823 1823 1823 1823 1823 1823 1823 1823 1823 1833 1823 1823 1823 1823 1833 1833 1833 1833 1833 1833 1833 1833 1843 1833 1833 1833 1833 1833 1843 1843 1843 1843 1853 1853 1853 1853 1853 1853 1853 1853 1853 1853 1853 1853 1843 1843 1843 1843 1843 1843 1843 1843 1853 1843 1843 1843 1853 1853 1853 1843 1843 1853 1853 1853 1853 1853 1853 1853 1853 1853 1863 1863 1863 1863 1863 1863 1863 1863 1863 1863 1863 1863 1863 1863 1863 1863 1863 1776 1766 1766 1757 1757 1757 1757 1766 1766 1766 1776 1776 1785 1785 1853 1853 1873 1873 1883 1873 1873 1873 1883 1883 1883 1883 1894 1894 1894 1894 1894 1894 1894 1894 1894 1894 1883 1883 1883 1883 1616 1616 1616 1616 1609 1609 1616 1609 1609 1616 1616 1624 1632 1632 1632 1639 1647 1655 1671 1671 1671 1671 1873 1873 1883 1883 1883 1883 1883 1883 1883 1883 1883 1883 1883 1883 1883 1883 1894 1894 1894 1894 1894 1894 1894 1894 1894 1894 1894 1894 1894 1894 1894 1894 1894 1894 1894 1894 1904 1904 1904 1904 1894 1894 1894 1894 1894 1894 1894 1894 1894 1904 1915 1915 1904 1904 1915 1904 1904 1904 1904 1904 1915 1904 1904 1915 1915 1915 1904 1904 1904 1470 1470 1470 1470 1470 1470 1470 1470 1470 1470 1470 1477 1477 1483 1483 1483 1483 1904 1904 1904 1915 1915 1915 1915 1926 1926 1926 1926 1926 1663 1663 1663 1663 1671 1680 1680 1688 1688 1696 1696 1696 1705 1722 1926 1926 1926 1926 1915 1915 1894 1894 1894 1894 1883 1883 1883 1883 1883 1883 1894 1894 1904 1926 1926 1936 1936 1936 1936 1936 1936 1936 1936 1936 1936 1936 1936 1936 1947 1947 1947 1947 1947 1947 1947 1947 1947 1947 1947 1947 1936 1936 1947 1947 1947 1947 1947 1947 1947 1947 1947 1947 1959 1959 1959 1489 1489 1489 1489 1489 1489 1483 1483 1483 1483 1477 1477 1477 1477 1477 1477 1477 1477 1477 1483 1470 1458 1458 1458 1464 1936 1947 1947 1947 1947 1947 1947 1947 1947 1936 1936 1947 1936 1936 1936 1947 1947 1947 1947 1947 1947 1947 1947 1959 1947 1947 1947 1947 1959 1959 1959 1959 1959 1959 1959 1959 1959 1959 1959 1947 1947 1947 1947 1947 1947 1947 1947 1947 1947 1947 1947 1947 1947 1947 1947 1947 1947 1947 1959 1959 1959 1959 1959 1959 1959 1947 1947 1947 1959 1959 1947 1947 1947 1947 1959 1959 1959 1959 1959 1970 1970 1970 1970 1970 1970 1970 1970 1970 1970 1970 1970 1959 1959 1959 1970 1970 1970 1970 1970 1970 1970 1970 1970 1970 1970 1970 1970 1970 1981 1981 1981 1981 1981 1981 1981 1981 1981 1981 1981 1981 1981 1981 1981 1981 1981 1970 1970 1970 1970 1970 1970 1970 1970 1970 1970 1970 1970 1970 1959 1959 1959 1959 1959 1959 1959 1970 1970 1970 1970 1970 1959 1959 1959 1959 1959 1959 1959 1959 1959 1970 1970 1970 1970 1970 1970 1970 1970 1970 1970 1970 1959 1959 0 0 0 0 0 0 0 0
0 0 0 0 0 0 0 0 0 0 0 0 0 0 0 0 0 0 0 0 0 0 0 0 0 0 0 0 0 0 0 0 0 0 0 1785 1785 1785 1794 1785 1785 1785 1785 1794 1794 1794 1794 1794 1794 1804 1804 1804 1794 1794 1794 1794 1804 1804 1804 1804 1804 1804 1804 1804 1794 1794 1794 1794 1794 1794 1794 1794 1794 1794 1794 1804 1804 1794 1794 1804 1794 1794 1794 1794 1794 1794 1794 1794 1794 1794 1794 1794 1804 1804 1804 1804 1813 1813 1813 1804 1804 1804 1804 1804 1804 1813 1813 1823 1823 1823 1823 1823 1823 1823 1823 1823 1823 1823 1823 1823 1823 1823 1823 1823 1823 1823 1823 1823 1823 1823 1833 1833 1833 1833 1833 1833 1833 1833 1833 1833 1833 1833 1843 1833 1833 1843 1843 1843 1843 1843 1843 1853 1853 1853 1853 1853 1853 1843 1833 1833 1843 1843 1843 1843 1843 1843 1843 1843 1843 1853 1853 1853 1843 1843 1853 1853 1853 1843 1843 1853 1853 1853 1853 1853 1853 1853 1853 1853 1863 1863 1863 1863 1863 1863 1863 1863 1863 1863 1863 1863 1785 1776 1766 1757 1757 1757 1757 1766 1766 1766 1776 1776 1785 1794 1853 1853 1863 1873 1873 1873 1873 1873 1873 1873 1873 1883 1883 1894 1894 1894 1894 1894 1894 1883 1883 1883 1883 1883 1873 1873 1616 1616 1616 1616 1616 1616 1616 1609 1609 1616 1624 1624 1632 1632 1632 1639 1647 1655 1671 1671 1671 1873 1873 1873 1873 1883 1883 1883 1883 1883 1883 1883 1883 1883 1883 1883 1883 1883 1883 1883 1894 1883 1883 1883 1894 1894 1894 1894 1883 1883 1894 1894 1894 1894 1894 1894 1894 1894 1894 1894 1894 1894 1894 1894 1894 1894 1894 1894 1894 1894 1894 1894 1904 1904 1904 1904 1904 1904 1894 1894 1894 1904 1904 1904 1904 1915 1915 1915 1904 1904 1904 1470 1470 1470 1470 1470 1470 1470 1470 1477 1477 1477 1477 1483 1483 1489 1503 1503 1904 1904 1904 1904 1915 1915 1915 1915 1926 1926 1926 1926 1663 1663 1663 1663 1671 1671 1680 1688 1688 1688 1696 1696 1705 1915 1915 1915 1915 1915 1915 1915 1894 1894 1894 1894 1883 1883 1883 1883 1883 1883 1894 1894 1904 1915 1926 1926 1926 1926 1926 1926 1926 1926 1936 1936 1936 1936 1926 1926 1936 1936 1936 1936 1947 1936 1936 1936 1936 1936 1936 1936 1936 1936 1936 1936 1936 1947 1947 1947 1947 1947 1947 1947 1959 1959 1959 1496 1496 1489 1489 1489 1489 1489 1483 1483 1483 1483 1477 1477 1477 1477 1477 1483 1483 1483 1483 1477 1458 1458 1458 1926 1926 1936 1936 1936 1936 1936 1936 1936 1936 1936 1936 1936 1936 1926 1926 1936 1936 1936 1936 1936 1936 1947 1947 1947 1947 1947 1947 1947 1947 1947 1947 1947 1959 1959 1959 1959 1959 1947 1947 1936 1936 1936 1936 1936 1936 1947 1947 1947 1947 1947 1947 1947 1947 1936 1936 1947 1947 1947 1947 1947 1947 1947 1947 1947 1947 1947 1947 1947 1947 1959 1947 1947 1947 1947 1959 1959 1959 1959 1959 1959 1970 1959 1959 1959 1959 1970 1970 1970 1970 1970 1959 1959 1959 1959 1959 1970 1959 1959 1959 1959 1959 1959 1959 1959 1959 1970 1970 1970 1970 1970 1970 1970 1970 1970 1970 1970 1970 1970 1970 1970 1970 1970 1970 1970 1970 1970 1970 1959 1959 1970 1970 1970 1970 1959 1959 1959 1959 1959 1959 1959 1947 1947 1959 1959 1959 1959 1959 1970 1970 1959 1959 1959 1959 1959 1959 1959 1959 1959 1959 1959 1959 1959 1959 1959 1959 1959 1959 1959 1959 1959 1959 1959 0 0 0 0 0 0 0 0
0 0 0 0 0 0 0 0 0 0 0 0 0 0 0 0 0 0 0 0 0 0 0 0 0 0 0 0 0 0 0 0 0 0 0 1776 1776 1785 1785 1776 1776 1776 1776 1785 1785 1785 1785 1785 1785 1794 1794 1785 1785 1785 1785 1794 1794 1794 1794 1794 1794 1794 1794 1794 1785 1785 1785 1794 1794 1794 1794 1785 1785 1794 1794 1794 1794 1794 1794 1794 1794 1794 1794 1794 1794 1794 1794 1785 1785 1785 1785 1794 1794 1794 1794 1794 1804 1804 1804 1804 1804 1804 1804 1804 1804 1804 1813 1813 1813 1813 1813 1813 1813 1813 1813 1823 1823 1823 1813 1813 1813 1813 1813 1813 1813 1813 1823 1823 1823 1823 1823 1823 1823 1823 1833 1833 1833 1833 1833 1833 1833 1833 1833 1833 1833 1833 1833 1833 1833 1833 1833 1843 1843 1843 1843 1843 1843 1833 1833 1833 1833 1843 1833 1833 1843 1843 1843 1843 1843 1843 1843 1843 1843 1843 1843 1843 1843 1843 1843 1843 1843 1843 1843 1843 1843 1853 1853 1853 1853 1853 1853 1853 1853 1853 1853 1863 1863 1853 1853 1853 1794 1776 1776 1776 1776 1776 1776 1776 1776 1776 1776 1785 1794 1794 1853 1853 1863 1863 1873 1863 1863 1863 1863 1863 1873 1863 1863 1883 1883 1883 1883 1883 1883 1883 1883 1873 1873 1873 1873 1873 1616 1616 1624 1624 1616 1616 1616 1616 1616 1616 1624 1624 1632 1632 1632 1639 1647 1647 1663 1663 1671 1863 1863 1863 1873 1873 1873 1883 1883 1883 1873 1873 1873 1873 1873 1873 1873 1873 1883 1883 1883 1883 1883 1883 1883 1883 1883 1883 1883 1883 1883 1883 1883 1883 1883 1894 1894 1894 1894 1894 1894 1894 1883 1883 1883 1883 1894 1894 1894 1894 1894 1894 1904 1904 1894 1894 1894 1894 1894 1894 1894 1894 1904 1904 1904 1915 1915 1915 1915 1915 1470 1470 1470 1470 1470 1470 1470 1477 1477 1477 1477 1477 1477 1483 1483 1496 1509 1516 1516 1904 1904 1904 1904 1904 1915 1915 1926 1926 1663 1663 1663 1663 1663 1663 1663 1671 1680 1688 1688 1688 1696 1696 1705 1915 1915 1915 1915 1915 1915 1915 1904 1894 1894 1894 1883 1883 1883 1883 1883 1894 1894 1904 1904 1915 1915 1926 1926 1926 1926 1926 1926 1926 1926 1926 1926 1926 1926 1926 1926 1936 1936 1936 1936 1936 1936 1926 1926 1926 1926 1926 1926 1926 1926 1926 1926 1936 1936 1936 1936 1936 1936 1947 1959 1959 1509 1496 1496 1496 1496 1496 1496 1489 1489 1483 1483 1483 1483 1477 1477 1483 1483 1483 1483 1483 1483 1483 1915 1915 1926 1926 1926 1936 1936 1936 1936 1926 1926 1926 1926 1926 1926 1926 1926 1926 1926 1926 1926 1936 1936 1936 1936 1936 1936 1936 1936 1936 1936 1936 1936 1936 1936 1936 1936 1947 1947 1947 1947 1947 1947 1936 1936 1936 1936 1936 1936 1936 1936 1936 1936 1936 1936 1936 1936 1936 1936 1936 1947 1947 1947 1947 1947 1947 1947 1947 1936 1936 1936 1936 1947 1947 1947 1947 1947 1947 1947 1947 1947 1947 1959 1959 1959 1959 1959 1959 1959 1959 1970 1970 1970 1970 1959 1959 1959 1959 1959 1959 1959 1959 1959 1947 1947 1947 1947 1947 1959 1959 1959 1959 1970 1959 1959 1959 1959 1959 1959 1959 1959 1959 1970 1970 1959 1959 1970 1970 1959 1959 1959 1947 1947 1959 1959 1959 1959 1959 1959 1959 1947 1947 1947 1947 1947 1947 1947 1947 1947 1947 1959 1959 1959 1959 1947 1947 1947 1947 1947 1947 1947 1947 1947 1947 1959 1947 1947 1947 1947 1947 1947 1947 1947 1947 1947 1947 0 0 0 0 0 0 0 0
0 0 0 0 0 0 0 0 0 0 0 0 0 0 0 0 0 0 0 0 0 0 0 0 0 0 0 0 0 0 0 0 0 0 0 1776 1776 1776 1785 1776 1776 1776 1776 1785 1785 1785 1785 1785 1785 1785 1776 1776 1776 1776 1776 1785 1785 1794 1794 1794 1794 1794 1794 1785 1776 1776 1776 1785 1785 1794 1794 1785 1785 1785 1785 1785 1785 1785 1785 1785 1785 1785 1785 1785 1785 1785 1785 1785 1785 1785 1785 1785 1785 1785 1785 1785 1785 1794 1794 1794 1794 1794 1794 1794 1794 1794 1804 1804 1804 1804 1804 1813 1813 1813 1813 1813 1813 1794 1794 1794 1804 1804 1804 1804 1804 1804 1813 1813 1823 1823 1823 1823 1823 1823 1823 1823 1823 1823 1823 1823 1823 1823 1823 1823 1823 1833 1833 1833 1833 1833 1833 1833 1833 1833 1833 1833 1833 1823 1823 1823 1833 1833 1833 1833 1833 1833 1833 1833 1833 1843 1843 1843 1843 1843 1843 1843 1843 1833 1833 1843 1843 1843 1843 1843 1843 1843 1843 1843 1853 1853 1853 1853 1853 1853 1853 1853 1853 1853 1853 1853 1794 1785 1776 1776 1776 1776 1776 1776 1776 1776 1776 1785 1794 1823 1843 1853 1863 1863 1863 1863 1863 1863 1863 1863 1863 1863 1863 1873 1873 1873 1873 1873 1873 1873 1873 1873 1873 1873 1863 1863 1873 1624 1624 1632 1616 1616 1616 1616 1616 1624 1624 1624 1632 1632 1632 1639 1639 1639 1639 1663 1863 1863 1863 1863 1863 1863 1863 1873 1873 1873 1873 1873 1873 1873 1873 1873 1873 1873 1873 1873 1873 1883 1883 1883 1883 1883 1883 1883 1883 1883 1883 1883 1883 1883 1883 1883 1883 1883 1883 1883 1883 1883 1883 1883 1883 1883 1883 1883 1883 1883 1894 1894 1894 1894 1894 1894 1894 1894 1894 1894 1894 1894 1894 1894 1894 1904 1904 1904 1915 1915 1470 1470 1470 1477 1477 1477 1477 1477 1477 1477 1477 1477 1477 1483 1489 1496 1509 1516 1516 1883 1894 1894 1904 1904 1915 1915 1926 1926 1663 1663 1663 1663 1663 1663 1663 1671 1671 1680 1680 1688 1688 1696 1705 1915 1915 1904 1904 1915 1904 1904 1894 1894 1894 1894 1883 1883 1883 1883 1883 1883 1894 1894 1894 1904 1915 1915 1915 1915 1915 1915 1926 1926 1926 1926 1926 1926 1926 1926 1926 1926 1926 1936 1936 1926 1926 1926 1915 1915 1915 1915 1915 1915 1915 1926 1926 1926 1926 1926 1926 1926 1926 1947 1947 1503 1503 1503 1496 1496 1496 1496 1496 1489 1489 1483 1483 1483 1483 1477 1477 1483 1483 1483 1483 1483 1483 1904 1915 1915 1915 1915 1915 1926 1926 1926 1926 1926 1926 1915 1915 1915 1915 1915 1915 1915 1915 1926 1926 1926 1926 1926 1926 1936 1936 1936 1926 1926 1936 1936 1936 1936 1936 1936 1936 1936 1936 1936 1936 1936 1936 1926 1926 1936 1936 1926 1926 1926 1936 1936 1926 1926 1926 1926 1926 1926 1926 1936 1936 1936 1936 1936 1936 1936 1936 1936 1936 1936 1936 1936 1936 1936 1936 1936 1947 1947 1947 1947 1947 1947 1947 1959 1959 1947 1947 1947 1947 1959 1959 1959 1959 1959 1959 1959 1959 1959 1959 1959 1959 1947 1947 1947 1947 1947 1947 1947 1947 1947 1959 1959 1959 1959 1959 1959 1947 1947 1947 1947 1947 1959 1947 1947 1959 1959 1959 1959 1959 1947 1947 1947 1947 1947 1947 1947 1947 1947 1947 1947 1947 1947 1936 1936 1936 1936 1936 1936 1947 1947 1947 1947 1947 1947 1947 1947 1947 1947 1936 1936 1947 1947 1947 1947 1947 1947 1947 1947 1947 1947 1947 1947 1947 1947 1936 1936 0 0 0 0 0 0 0 0
0 0 0 0 0 0 0 0 0 0 0 0 0 0 0 0 0 0 0 0 0 0 0 0 0 0 0 0 0 0 0 0 0 0 0 1766 1766 1766 1776 1776 1776 1776 1776 1785 1785 1776 1776 1785 1785 1776 1776 1776 1766 1766 1766 1776 1776 1785 1785 1785 1785 1785 1785 1785 1776 1776 1776 1785 1785 1785 1785 1785 1785 1785 1785 1785 1785 1785 1785 1785 1785 1776 1776 1785 1785 1785 1785 1785 1785 1785 1785 1785 1785 1785 1785 1785 1785 1785 1785 1785 1785 1785 1794 1794 1794 1794 1794 1794 1794 1804 1804 1804 1804 1804 1804 1813 1804 1794 1794 1794 1794 1794 1794 1794 1794 1794 1804 1813 1813 1813 1813 1813 1813 1813 1813 1823 1823 1823 1823 1813 1813 1813 1813 1813 1823 1823 1823 1823 1823 1823 1823 1823 1823 1823 1823 1833 1833 1823 1823 1823 1823 1823 1823 1823 1823 1823 1823 1823 1833 1833 1833 1833 1833 1833 1833 1833 1833 1823 1823 1823 1833 1833 1833 1833 1833 1843 1843 1843 1843 1843 1843 1853 1843 1843 1853 1853 1853 1853 1843 1843 1794 1785 1785 1776 1776 1776 1776 1776 1776 1776 1776 1785 1794 1794 1843 1853 1853 1863 1863 1863 1863 1863 1863 1863 1863 1863 1863 1863 1873 1873 1873 1873 1873 1863 1863 1863 1863 1863 1863 1863 1632 1632 1632 1632 1624 1616 1616 1616 1616 1624 1624 1624 1632 1632 1632 1639 1639 1639 1639 1853 1853 1853 1853 1853 1863 1863 1863 1863 1863 1863 1863 1863 1863 1863 1863 1873 1873 1873 1873 1873 1873 1873 1873 1883 1883 1883 1883 1883 1883 1883 1883 1883 1883 1883 1883 1883 1883 1883 1883 1883 1883 1883 1883 1883 1883 1883 1883 1883 1883 1883 1883 1883 1894 1894 1894 1894 1883 1883 1883 1883 1883 1883 1883 1883 1894 1904 1904 1904 1915 1915 1470 1470 1470 1477 1477 1477 1477 1477 1477 1477 1477 1477 1483 1483 1489 1496 1509 1509 1509 1509 1894 1894 1894 1904 1904 1904 1915 1655 1655 1655 1663 1663 1663 1663 1663 1663 1663 1680 1680 1688 1688 1688 1705 1904 1904 1904 1904 1904 1904 1904 1894 1894 1894 1894 1883 1883 1883 1883 1883 1883 1883 1894 1894 1904 1915 1915 1915 1915 1915 1915 1926 1926 1915 1915 1915 1926 1915 1915 1926 1926 1926 1926 1926 1926 1915 1915 1915 1915 1915 1915 1915 1915 1915 1915 1915 1915 1915 1915 1915 1915 1915 1915 1915 1503 1503 1503 1503 1503 1496 1496 1496 1496 1489 1489 1489 1489 1483 1483 1483 1483 1483 1483 1483 1483 1483 1904 1904 1904 1915 1915 1915 1915 1915 1915 1915 1915 1915 1915 1915 1915 1915 1915 1915 1915 1915 1915 1915 1915 1926 1926 1926 1926 1926 1926 1926 1926 1926 1926 1926 1926 1926 1936 1936 1936 1936 1936 1936 1936 1936 1926 1926 1926 1926 1926 1926 1926 1926 1926 1926 1926 1926 1926 1926 1926 1926 1926 1936 1936 1936 1936 1936 1936 1936 1926 1926 1926 1926 1926 1926 1926 1926 1926 1936 1936 1936 1936 1936 1947 1947 1947 1947 1947 1947 1947 1947 1947 1947 1947 1947 1947 1947 1947 1947 1947 1947 1959 1947 1947 1947 1947 1947 1947 1947 1947 1947 1947 1947 1947 1947 1947 1947 1947 1947 1947 1947 1947 1947 1947 1947 1947 1947 1947 1947 1947 1947 1936 1936 1936 1936 1936 1936 1936 1936 1936 1936 1936 1936 1936 1936 1936 1936 1936 1936 1936 1936 1936 1936 1936 1936 1936 1936 1936 1936 1936 1936 1936 1936 1936 1936 1936 1936 1936 1936 1947 1947 1947 1936 1936 1936 1936 1936 1936 0 0 0 0 0 0 0 0
0 0 0 0 0 0 0 0 0 0 0 0 0 0 0 0 0 0 0 0 0 0 0 0 0 0 0 0 0 0 0 0 0 0 0 1766 1766 1766 1766 1766 1766 1766 1776 1776 1776 1776 1776 1776 1776 1766 1766 1766 1766 1766 1766 1766 1766 1776 1776 1776 1776 1776 1785 1776 1776 1776 1776 1776 1776 1785 1785 1766 1766 1766 1776 1776 1776 1776 1776 1776 1776 1776 1776 1776 1776 1776 1776 1776 1776 1776 1776 1776 1776 1776 1776 1776 1776 1785 1785 1785 1785 1785 1785 1794 1794 1794 1794 1794 1794 1794 1794 1794 1794 1794 1794 1794 1794 1794 1794 1794 1794 1794 1794 1794 1794 1794 1794 1804 1804 1804 1804 1804 1804 1804 1804 1813 1813 1813 1813 1804 1804 1804 1804 1804 1804 1813 1813 1823 1823 1823 1823 1823 1823 1823 1823 1833 1823 1813 1813 1813 1813 1813 1813 1813 1823 1813 1813 1823 1823 1823 1823 1823 1823 1823 1823 1823 1823 1823 1823 1823 1823 1823 1823 1823 1823 1833 1833 1833 1833 1833 1833 1843 1833 1833 1833 1843 1843 1843 1823 1813 1794 1785 1776 1776 1776 1776 1776 1776 1776 1776 1776 1785 1794 1794 1843 1853 1853 1863 1863 1863 1863 1863 1863 1863 1863 1863 1863 1863 1863 1863 1863 1863 1863 1863 1863 1863 1863 1863 1863 1863 1632 1632 1632 1632 1624 1616 1616 1616 1616 1624 1624 1632 1632 1632 1632 1639 1639 1639 1853 1853 1853 1853 1853 1853 1853 1853 1853 1863 1863 1863 1863 1863 1863 1863 1863 1863 1863 1863 1873 1873 1873 1873 1873 1873 1873 1873 1873 1873 1873 1873 1883 1883 1883 1883 1883 1883 1873 1873 1873 1873 1873 1873 1883 1883 1883 1883 1883 1883 1883 1883 1883 1883 1883 1883 1883 1883 1883 1883 1883 1883 1883 1883 1883 1883 1894 1894 1904 1904 1904 1904 1477 1477 1477 1477 1477 1477 1483 1477 1477 1477 1477 1477 1483 1483 1496 1496 1503 1509 1509 1509 1883 1883 1883 1894 1894 1904 1655 1655 1655 1655 1655 1655 1663 1663 1663 1663 1663 1671 1671 1671 1671 1688 1883 1894 1894 1894 1894 1904 1894 1894 1894 1894 1883 1883 1883 1883 1883 1883 1883 1883 1883 1894 1894 1894 1904 1904 1915 1915 1915 1915 1915 1915 1915 1915 1915 1915 1915 1915 1915 1915 1915 1926 1926 1926 1915 1904 1904 1904 1904 1915 1915 1915 1915 1915 1915 1915 1915 1915 1915 1915 1904 1904 1915 1915 1503 1503 1503 1503 1496 1496 1496 1496 1489 1489 1489 1489 1483 1483 1483 1483 1483 1483 1483 1477 1477 1904 1904 1904 1904 1904 1904 1915 1915 1915 1915 1915 1915 1915 1915 1904 1904 1915 1915 1915 1915 1915 1915 1915 1915 1915 1915 1915 1915 1915 1915 1915 1926 1926 1926 1926 1926 1926 1926 1926 1926 1926 1926 1926 1926 1926 1915 1915 1915 1915 1915 1915 1915 1915 1915 1915 1915 1915 1915 1915 1915 1915 1926 1926 1926 1926 1926 1926 1926 1926 1915 1915 1926 1926 1926 1926 1926 1926 1936 1936 1936 1936 1936 1936 1947 1936 1936 1936 1936 1936 1936 1936 1936 1936 1936 1947 1947 1947 1947 1947 1947 1947 1947 1947 1947 1936 1936 1947 1936 1936 1936 1947 1947 1947 1947 1947 1947 1947 1947 1947 1947 1936 1936 1936 1947 1947 1947 1947 1947 1947 1947 1936 1936 1936 1936 1936 1936 1936 1936 1936 1936 1936 1936 1936 1936 1936 1936 1936 1936 1936 1936 1936 1936 1936 1936 1936 1936 1936 1926 1926 1926 1926 1926 1926 1926 1926 1936 1936 1936 1936 1936 1936 1936 1936 1936 1936 1936 1936 0 0 0 0 0 0 0 0
0 0 0 0 0 0 0 0 0 0 0 0 0 0 0 0 0 0 0 0 0 0 0 0 0 0 0 0 0 0 0 0 0 0 0 1757 1757 1757 1757 1766 1766 1766 1766 1776 1776 1766 1766 1766 1766 1766 1766 1766 1766 1766 1766 1766 1766 1766 1766 1766 1766 1766 1776 1766 1766 1766 1766 1776 1776 1776 1766 1757 1757 1757 1757 1757 1757 1776 1776 1776 1776 1776 1776 1776 1776 1766 1766 1766 1776 1776 1776 1776 1776 1776 1776 1776 1776 1776 1776 1785 1785 1785 1785 1785 1785 1785 1785 1794 1794 1785 1785 1794 1785 1785 1794 1794 1785 1785 1785 1785 1785 1785 1785 1785 1794 1794 1794 1794 1794 1794 1794 1794 1794 1794 1794 1804 1804 1804 1804 1794 1794 1794 1794 1794 1804 1813 1813 1813 1823 1823 1823 1823 1813 1813 1823 1823 1823 1813 1813 1813 1813 1813 1813 1813 1813 1813 1813 1813 1813 1813 1813 1823 1823 1823 1823 1813 1813 1813 1813 1813 1813 1813 1813 1823 1823 1823 1823 1823 1823 1823 1823 1823 1823 1823 1823 1833 1833 1823 1823 1813 1794 1785 1776 1776 1776 1776 1776 1776 1776 1776 1785 1785 1794 1813 1833 1843 1853 1853 1853 1853 1853 1853 1853 1853 1853 1853 1853 1853 1853 1853 1853 1853 1853 1853 1853 1853 1853 1863 1853 1853 1632 1632 1632 1632 1624 1616 1616 1616 1624 1624 1624 1632 1632 1632 1639 1639 1639 1639 1853 1853 1853 1853 1853 1853 1853 1853 1853 1853 1853 1853 1863 1853 1853 1863 1863 1863 1863 1863 1863 1863 1863 1863 1863 1873 1873 1873 1873 1873 1873 1873 1873 1873 1873 1873 1873 1873 1873 1873 1873 1873 1873 1873 1873 1873 1873 1873 1883 1883 1873 1873 1883 1883 1883 1883 1883 1883 1883 1873 1873 1883 1883 1883 1883 1883 1894 1894 1894 1904 1904 1904 1477 1477 1477 1477 1477 1483 1483 1483 1483 1483 1483 1483 1483 1483 1496 1496 1503 1509 1509 1873 1873 1873 1883 1883 1655 1655 1655 1655 1655 1655 1655 1655 1663 1663 1663 1663 1663 1671 1671 1671 1671 1873 1883 1883 1883 1894 1894 1894 1894 1894 1894 1894 1883 1883 1883 1883 1883 1883 1883 1883 1883 1894 1894 1894 1894 1904 1904 1904 1904 1904 1904 1904 1904 1904 1904 1915 1915 1915 1915 1915 1915 1915 1915 1915 1904 1904 1904 1904 1904 1904 1904 1904 1904 1904 1915 1904 1904 1904 1904 1904 1904 1904 1915 1915 1503 1503 1503 1503 1503 1496 1496 1496 1489 1489 1489 1489 1483 1483 1483 1483 1483 1483 1477 1477 1477 1904 1904 1904 1904 1904 1904 1904 1904 1915 1904 1904 1904 1904 1904 1904 1904 1904 1915 1915 1915 1915 1915 1915 1915 1915 1915 1915 1915 1915 1915 1915 1915 1915 1915 1915 1915 1915 1915 1915 1915 1915 1926 1926 1926 1926 1915 1915 1915 1904 1904 1904 1904 1904 1904 1904 1904 1904 1904 1904 1904 1915 1915 1915 1915 1915 1926 1926 1926 1926 1915 1915 1915 1915 1915 1915 1915 1915 1926 1936 1936 1936 1936 1936 1936 1936 1936 1936 1936 1936 1936 1936 1936 1936 1936 1936 1936 1936 1936 1936 1936 1936 1936 1936 1936 1936 1936 1936 1936 1936 1936 1936 1936 1936 1936 1936 1936 1936 1936 1936 1936 1936 1936 1936 1936 1936 1936 1936 1936 1947 1947 1936 1936 1936 1926 1926 1926 1926 1926 1926 1926 1926 1926 1936 1936 1936 1926 1926 1926 1926 1926 1926 1926 1926 1926 1926 1926 1926 1926 1926 1926 1926 1926 1926 1926 1926 1926 1926 1926 1936 1936 1936 1936 1926 1926 1926 1926 1926 0 0 0 0 0 0 0 0
0 0 0 0 0 0 0 0 0 0 0 0 0 0 0 0 0 0 0 0 0 0 0 0 0 0 0 0 0 0 0 0 0 0 0 1757 1748 1748 1748 1757 1757 1757 1766 1766 1766 1766 1766 1766 1766 1757 1757 1757 1757 1757 1757 1757 1757 1757 1766 1766 1766 1766 1766 1766 1766 1766 1766 1766 1766 1766 1766 1757 1757 1748 1748 1757 1757 1757 1766 1776 1776 1776 1776 1766 1766 1766 1766 1766 1766 1766 1766 1766 1766 1776 1776 1776 1776 1776 1776 1776 1776 1776 1785 1785 1785 1785 1785 1785 1785 1785 1785 1785 1785 1785 1785 1785 1785 1785 1785 1785 1785 1785 1785 1785 1794 1794 1794 1794 1794 1794 1794 1794 1794 1794 1794 1794 1794 1794 1804 1794 1794 1794 1794 1794 1794 1804 1813 1813 1813 1813 1813 1813 1813 1813 1823 1813 1813 1804 1804 1804 1813 1804 1804 1813 1813 1804 1804 1813 1813 1813 1813 1813 1813 1813 1813 1813 1813 1813 1813 1813 1813 1813 1813 1813 1813 1813 1823 1823 1823 1823 1823 1823 1823 1823 1823 1823 1823 1823 1813 1813 1794 1785 1776 1776 1776 1776 1776 1776 1776 1785 1785 1785 1794 1813 1823 1843 1843 1853 1853 1853 1853 1853 1853 1853 1853 1853 1853 1843 1843 1843 1853 1853 1853 1853 1853 1853 1853 1853 1853 1853 1632 1632 1632 1632 1624 1624 1624 1624 1624 1624 1632 1632 1632 1632 1639 1639 1639 1843 1843 1843 1853 1853 1853 1853 1853 1853 1853 1853 1853 1853 1853 1853 1853 1853 1853 1853 1863 1863 1863 1863 1863 1863 1863 1863 1863 1863 1863 1863 1863 1863 1863 1863 1873 1873 1873 1873 1873 1873 1863 1863 1863 1863 1873 1873 1873 1873 1873 1873 1873 1873 1873 1883 1883 1883 1883 1883 1883 1873 1873 1873 1883 1883 1883 1883 1883 1883 1894 1894 1894 1894 1477 1477 1477 1483 1483 1483 1483 1483 1483 1483 1483 1483 1483 1483 1496 1496 1503 1509 1509 1873 1873 1873 1873 1883 1655 1655 1655 1655 1655 1655 1655 1655 1655 1663 1663 1663 1663 1671 1671 1663 1663 1873 1883 1883 1883 1883 1883 1883 1883 1883 1894 1883 1883 1883 1883 1883 1883 1883 1883 1883 1883 1883 1894 1894 1894 1894 1904 1904 1904 1904 1904 1904 1894 1894 1904 1904 1915 1915 1915 1915 1915 1915 1915 1915 1904 1894 1894 1894 1904 1904 1904 1904 1904 1904 1904 1904 1904 1904 1904 1904 1904 1904 1915 1509 1503 1503 1503 1503 1503 1503 1496 1496 1496 1496 1496 1489 1489 1483 1483 1483 1483 1483 1477 1477 1894 1894 1894 1894 1904 1904 1904 1904 1904 1904 1904 1904 1904 1904 1904 1904 1904 1904 1904 1904 1915 1915 1915 1915 1915 1915 1915 1915 1915 1915 1915 1915 1915 1915 1915 1915 1915 1915 1915 1915 1915 1915 1915 1915 1915 1915 1904 1904 1904 1904 1904 1904 1904 1904 1904 1904 1904 1904 1904 1904 1904 1904 1904 1904 1915 1915 1915 1915 1915 1915 1904 1904 1915 1915 1904 1904 1904 1915 1915 1926 1926 1926 1926 1936 1936 1926 1926 1926 1926 1926 1926 1926 1926 1926 1926 1936 1936 1926 1926 1926 1926 1926 1926 1926 1926 1926 1926 1936 1926 1926 1926 1926 1915 1915 1926 1926 1926 1936 1936 1936 1936 1936 1936 1936 1936 1936 1936 1936 1936 1936 1936 1926 1926 1926 1926 1926 1926 1926 1926 1926 1926 1926 1926 1926 1926 1926 1926 1926 1915 1915 1915 1915 1915 1915 1915 1915 1926 1926 1915 1915 1915 1915 1915 1915 1915 1915 1926 1926 1926 1926 1926 1926 1926 1915 1915 1926 1926 1926 0 0 0 0 0 0 0 0
0 0 0 0 0 0 0 0 0 0 0 0 0 0 0 0 0 0 0 0 0 0 0 0 0 0 0 0 0 0 0 0 0 0 0 1748 1748 1748 1748 1748 1748 1757 1757 1757 1757 1757 1766 1757 1757 1757 1757 1757 1757 1757 1757 1757 1757 1757 1757 1757 1757 1757 1757 1757 1757 1766 1766 1766 1766 1766 1766 1748 1748 1748 1748 1757 1757 1757 1757 1766 1766 1766 1766 1766 1766 1766 1757 1757 1757 1757 1766 1766 1766 1766 1766 1766 1766 1766 1766 1776 1776 1776 1776 1776 1776 1776 1776 1785 1785 1785 1776 1776 1785 1785 1785 1785 1785 1785 1785 1785 1785 1785 1785 1785 1785 1785 1794 1794 1794 1794 1794 1794 1794 1794 1794 1794 1794 1794 1794 1794 1794 1794 1794 1794 1794 1794 1794 1804 1813 1813 1813 1813 1813 1813 1813 1813 1804 1804 1804 1804 1804 1804 1804 1804 1804 1804 1804 1804 1804 1804 1804 1804 1804 1813 1813 1804 1804 1813 1813 1813 1813 1813 1813 1813 1813 1813 1813 1813 1813 1823 1823 1823 1823 1823 1823 1823 1823 1823 1813 1813 1794 1785 1776 1776 1776 1776 1776 1776 1776 1785 1785 1785 1794 1813 1823 1833 1833 1843 1843 1843 1843 1843 1843 1843 1843 1843 1843 1843 1843 1843 1843 1843 1843 1843 1843 1843 1843 1853 1853 1853 1639 1632 1632 1632 1624 1624 1624 1624 1624 1624 1632 1632 1632 1632 1639 1639 1639 1843 1843 1843 1843 1843 1843 1843 1843 1843 1843 1843 1843 1843 1843 1843 1843 1853 1853 1853 1853 1853 1853 1853 1853 1853 1853 1853 1853 1853 1853 1853 1853 1853 1853 1853 1853 1853 1853 1863 1863 1863 1863 1863 1863 1863 1863 1863 1873 1873 1873 1873 1873 1873 1873 1873 1873 1873 1873 1873 1873 1873 1873 1873 1873 1873 1873 1883 1883 1883 1883 1883 1883 1883 1483 1483 1483 1483 1483 1483 1483 1483 1483 1483 1483 1483 1483 1483 1496 1496 1503 1509 1509 1509 1863 1863 1873 1873 1647 1647 1647 1647 1655 1655 1655 1655 1655 1655 1663 1663 1663 1663 1663 1663 1663 1873 1873 1873 1883 1883 1883 1883 1883 1883 1883 1883 1883 1883 1883 1883 1883 1883 1883 1883 1883 1883 1883 1883 1883 1894 1894 1894 1894 1894 1894 1894 1894 1894 1894 1904 1904 1904 1904 1915 1915 1915 1904 1904 1894 1894 1894 1894 1894 1894 1894 1894 1894 1904 1904 1904 1894 1894 1894 1894 1894 1894 1894 1509 1503 1503 1503 1503 1503 1503 1503 1496 1496 1496 1496 1489 1489 1483 1483 1483 1483 1483 1483 1483 1894 1894 1894 1894 1904 1904 1904 1904 1904 1904 1904 1904 1904 1894 1894 1904 1904 1904 1904 1904 1904 1904 1904 1915 1904 1904 1904 1904 1904 1904 1904 1915 1915 1915 1915 1915 1915 1915 1915 1915 1915 1915 1915 1915 1915 1915 1904 1904 1904 1894 1894 1894 1904 1904 1904 1904 1904 1904 1904 1904 1904 1904 1904 1904 1904 1904 1904 1904 1904 1904 1904 1904 1904 1904 1904 1904 1904 1904 1904 1915 1915 1915 1915 1915 1915 1915 1904 1904 1915 1915 1915 1915 1915 1915 1915 1926 1926 1926 1915 1915 1915 1915 1915 1915 1915 1926 1926 1926 1915 1915 1915 1915 1915 1915 1915 1915 1915 1926 1926 1926 1926 1926 1926 1926 1936 1936 1936 1936 1936 1936 1936 1926 1926 1926 1926 1926 1926 1926 1926 1915 1915 1915 1915 1926 1926 1926 1926 1915 1915 1915 1904 1904 1915 1915 1915 1915 1915 1915 1904 1904 1904 1904 1904 1915 1915 1915 1915 1926 1926 1926 1926 1926 1915 1915 1915 1926 1926 1926 0 0 0 0 0 0 0 0
0 0 0 0 0 0 0 0 0 0 0 0 0 0 0 0 0 0 0 0 0 0 0 0 0 0 0 0 0 0 0 0 0 0 0 1739 1739 1739 1739 1748 1748 1757 1757 1757 1757 1757 1757 1757 1757 1757 1757 1748 1748 1757 1757 1757 1757 1757 1757 1757 1757 1757 1757 1757 1757 1757 1757 1757 1757 1757 1757 1748 1748 1748 1748 1757 1757 1757 1757 1757 1757 1757 1757 1757 1757 1757 1757 1757 1757 1757 1757 1757 1766 1766 1766 1766 1766 1766 1766 1766 1766 1766 1766 1776 1776 1766 1766 1776 1776 1776 1776 1776 1776 1776 1776 1776 1776 1776 1785 1785 1785 1785 1785 1785 1785 1785 1785 1785 1785 1785 1785 1785 1785 1785 1794 1794 1794 1794 1794 1794 1794 1794 1785 1785 1785 1785 1785 1794 1794 1804 1804 1804 1804 1804 1804 1804 1794 1794 1794 1794 1794 1794 1794 1785 1785 1794 1794 1794 1794 1794 1794 1794 1794 1794 1813 1804 1804 1804 1804 1813 1804 1804 1813 1813 1813 1813 1813 1813 1813 1813 1813 1813 1823 1813 1813 1823 1823 1823 1813 1813 1804 1785 1776 1776 1776 1776 1776 1776 1776 1785 1785 1785 1794 1813 1823 1823 1833 1833 1843 1833 1833 1843 1833 1833 1833 1833 1833 1833 1833 1833 1833 1833 1833 1833 1843 1843 1843 1843 1843 1843 1639 1639 1639 1632 1624 1624 1624 1624 1624 1624 1632 1632 1632 1639 1639 1647 1833 1843 1843 1843 1843 1843 1843 1843 1843 1843 1843 1843 1843 1843 1843 1843 1843 1843 1853 1853 1843 1843 1843 1843 1843 1843 1843 1843 1843 1843 1843 1853 1853 1853 1853 1853 1853 1853 1853 1853 1853 1853 1853 1853 1853 1853 1853 1853 1853 1853 1853 1853 1853 1863 1863 1853 1853 1853 1853 1863 1863 1853 1853 1853 1853 1853 1863 1863 1873 1873 1873 1873 1883 1883 1483 1483 1483 1483 1483 1483 1483 1483 1483 1483 1483 1483 1483 1483 1496 1496 1503 1503 1624 1863 1863 1863 1863 1863 1647 1647 1647 1647 1647 1647 1655 1655 1655 1655 1655 1655 1655 1663 1663 1863 1873 1873 1873 1873 1873 1873 1873 1873 1873 1873 1883 1873 1873 1883 1883 1883 1883 1883 1883 1883 1883 1883 1883 1883 1883 1883 1883 1883 1883 1883 1894 1883 1883 1883 1894 1894 1904 1904 1904 1904 1904 1904 1904 1904 1894 1894 1883 1883 1883 1894 1894 1894 1894 1894 1894 1894 1894 1894 1894 1894 1883 1883 1883 1509 1503 1503 1503 1503 1503 1503 1496 1496 1496 1496 1496 1489 1489 1483 1483 1489 1483 1483 1483 1483 1894 1894 1894 1894 1894 1904 1904 1894 1894 1894 1894 1894 1894 1894 1894 1894 1894 1894 1904 1904 1904 1904 1904 1915 1904 1904 1904 1904 1904 1904 1904 1904 1904 1904 1904 1904 1904 1904 1904 1904 1904 1904 1904 1915 1915 1915 1904 1904 1904 1894 1894 1894 1894 1894 1894 1894 1894 1894 1894 1894 1894 1894 1894 1894 1894 1894 1904 1904 1904 1904 1904 1904 1904 1904 1904 1904 1904 1904 1904 1904 1915 1904 1904 1904 1904 1904 1904 1904 1904 1904 1904 1915 1915 1915 1915 1915 1915 1915 1915 1915 1915 1915 1915 1915 1915 1915 1915 1926 1915 1915 1915 1904 1904 1904 1904 1904 1915 1915 1926 1926 1926 1926 1926 1926 1926 1926 1926 1926 1926 1926 1936 1926 1915 1915 1926 1915 1915 1915 1915 1915 1915 1915 1915 1915 1904 1904 1904 1904 1904 1904 1904 1904 1904 1904 1915 1915 1915 1915 1904 1904 1904 1904 1904 1904 1904 1915 1915 1915 1915 1915 1915 1915 1915 1915 1915 1915 1915 1915 0 0 0 0 0 0 0 0
