0 0 0 0 0 0 0 0 0 0 0 0 0 0 0 0 0 0 0 0 0 0 0 0 0 0 0 0 0 0 0 0 2933 2933 2933 2933 2933 2933 2933 2958 2958 2958 2958 2933 2933 2933 2908 2908 2933 2933 2933 2933 2933 2958 2958 2958 2958 2958 2958 2958 2958 2958 2958 2984 2984 2984 2984 2984 2984 2958 2958 2958 2958 2958 2958 2958 2958 2958 2958 2958 2958 2984 2984 2984 2984 2958 2958 2958 2908 2908 2883 2883 2883 2859 2859 2859 2859 2859 2835 2835 2835 2835 2835 2835 2859 2859 2859 2859 2859 2859 2859 2859 2859 2883 2883 2883 2883 2883 2883 2883 2883 2908 2908 2908 2908 2908 2908 2908 2933 2933 2958 2958 2958 2958 2958 2984 2984 2984 2984 3010 3010 3037 3064 3064 3064 3037 3037 3010 3010 3010 3010 3010 3037 3037 3037 3037 3037 3037 2053 2053 2040 2040 2040 2053 2053 2053 2053 2053 2065 2065 2065 2078 2078 2078 0 0 0 0 0 0 1387 1387 1387 1392 1392 1392 1392 1398 1398 1398 1398 1398 1398 1398 1398 1404 1404 1404 1410 1410 1415 1415 1421 1421 1421 1421 1421 1421 1421 1421 1421 1421 1427 1427 1427 1427 1433 1433 1439 1439 1439 1317 1317 1317 1317 1317 1322 1322 1317 1317 1322 1322 1328 1333 1333 1333 1338 1338 1343 1343 1343 1349 1349 1354 1354 1354 1354 1354 1349 1349 1349 1349 1349 1354 1354 1354 1354 1354 1354 1354 1359 1359 1365 1365 1365 1370 1370 1370 1370 1370 1376 1376 1376 1376 1376 1376 1376 1381 1381 1387 1387 1387 1392 1392 1392 1392 1392 1392 1392 1392 1392 1392 1398 1398 1398 1398 1398 1398 1404 1410 1410 1543 1550 1550 1550 1550 1550 1550 1550 1550 1550 1550 1550 1557 1557 1557 1557 1564 1564 1564 1564 1564 1572 1572 1572 1477 1470 1470 1470 1470 1464 1458 1458 1458 1458 1458 1464 1464 1464 1464 1464 1470 1470 1470 2040 2040 2053 2053 2053 2053 2053 2065 2065 2065 2065 2065 2065 2065 2065 2078 2078 2090 2090 2090 2090 2090 2090 2090 2103 2103 2103 2103 2103 2103 2103 2103 2103 2103 2116 2116 2116 2116 2116 2116 2129 2129 2129 2129 2129 2129 2143 2143 1509 1509 1509 1496 1496 1489 1489 1489 1483 1483 1483 1483 1483 1489 1489 1489 1489 1489 1489 1489 2053 2053 2053 2053 2053 2053 2065 2065 2053 2053 2053 2090 2198 2198 2198 2198 2212 2212 2212 2212 2212 2212 2226 3178 3178 3208 3208 3208 3208 3208 3208 3208 3238 3238 3269 3269 3269 3238 3238 3208 3208 3208 3208 3208 3208 3208 3208 3208 3208 3208 3208 1594 1594 1601 1609 1609 1609 1609 1609 1609 1609 1609 1616 1616 1616 1616 1616 1616 1616 1616 1609 1609 1609 1609 1601 1601 1601 1601 1609 1609 1601 1601 1609 0 0 0 0 0 0 0 1863 1863 1863 1863 1863 1863 1863 1863 1853 1853 1853 1843 1843 1853 1853 1853 1853 1853 1853 1853 1863 1863 1863 1863 1863 1863 1863 3149 3149 3149 3149 3178 3178 3178 3178 3178 3178 3178 3178 3178 3178 3178 3178 3178 3149 3149 3178 3178 3178 3178 3178 3178 3178 3178 3178 3178 3178 3178 3178 3178 3178 3149 3149 3149 3149 3149 3178 3178 3178 3178 3178 3178 3178 3178 3178 3178 3178 3178 3178 3149 3149 3149 3149 3149 3149 3149 3149 3149 3149 3149 3149 3149 3149 3149 3149 3149 3149 3149 3149 3149 3120 3120 3120 3120 3120 3120 3120 3120 3120 3120 3120 3120 3120 3120 3120 3120 3120 3120 3120 3120 3120 3120 3120 3120 3120 3120 3120 0 0 0 0 0 0 0 0 0 0 0
0 0 0 0 0 0 0 0 0 0 0 0 0 0 0 0 0 0 0 0 0 0 0 0 0 0 0 0 0 0 0 0 2933 2933 2933 2933 2933 2933 2933 2933 2933 2933 2933 2933 2908 2908 2908 2908 2908 2908 2908 2908 2933 2933 2933 2933 2933 2958 2933 2933 2958 2958 2958 2958 2958 2958 2984 2984 2984 2933 2933 2958 2958 2958 2958 2958 2958 2958 2958 2958 2958 2958 2958 2958 2958 2958 2958 2933 2908 2908 2883 2883 2883 2859 2859 2859 2859 2859 2835 2835 2859 2859 2859 2859 2859 2859 2859 2859 2859 2859 2883 2883 2883 2883 2883 2883 2883 2883 2883 2883 2883 2908 2908 2908 2908 2908 2933 2933 2933 2933 2958 2958 2958 2958 2958 2984 2984 2984 2984 2984 3010 3037 3037 3037 3037 3037 3010 3010 2984 2984 3010 3010 3037 3010 3010 3037 2984 2984 2053 2053 2040 2040 2040 2053 2053 2053 2053 2053 2065 2065 2078 2078 2078 2078 0 0 0 0 0 0 1392 1392 1392 1392 1398 1398 1398 1398 1398 1398 1398 1398 1398 1398 1404 1404 1404 1404 1410 1410 1415 1415 1421 1421 1421 1421 1421 1421 1421 1421 1421 1421 1427 1427 1427 1433 1433 1433 1439 1439 1439 1328 1322 1322 1322 1322 1322 1322 1322 1322 1322 1328 1328 1333 1333 1333 1338 1338 1343 1343 1343 1349 1354 1354 1354 1354 1354 1354 1349 1349 1349 1354 1354 1354 1354 1354 1354 1354 1359 1359 1359 1359 1365 1365 1365 1370 1370 1370 1370 1376 1376 1376 1376 1376 1376 1376 1376 1381 1387 1387 1387 1387 1392 1392 1387 1387 1392 1392 1392 1392 1392 1392 1398 1398 1398 1398 1398 1398 1543 1543 1543 1543 1543 1543 1550 1550 1550 1550 1550 1550 1550 1550 1550 1557 1557 1557 1557 1564 1564 1564 1564 1564 1564 1564 1572 1483 1470 1470 1470 1470 1464 1458 1458 1458 1458 1458 1464 1464 1464 1464 1470 1470 1477 1477 2040 2040 2053 2053 2053 2053 2053 2065 2065 2065 2065 2065 2065 2065 2078 2078 2078 2090 2090 2090 2090 2090 2090 2090 2103 2103 2103 2103 2103 2103 2116 2116 2116 2116 2116 2116 2116 2116 2129 2129 2129 2129 2129 2129 2129 2129 2129 2129 1509 1509 1509 1503 1496 1496 1489 1489 1489 1489 1489 1489 1489 1489 1489 1489 1489 1489 1489 1489 2040 2053 2040 2040 2053 2053 2053 2053 2053 2053 2053 2065 2065 2212 2198 2198 2212 2212 2212 2212 2226 2226 2226 3178 3178 3178 3178 3208 3208 3208 3208 3208 3208 3238 3238 3238 3238 3238 3238 3208 3208 3208 1609 1601 1594 1594 1594 1594 1594 1594 1594 1594 1594 1601 1601 1609 1609 1609 1609 1609 1609 1609 1616 1616 1609 1609 1616 1616 1616 1616 1609 1609 1609 1609 1601 1601 1601 1609 1609 1609 1601 1601 0 0 0 0 0 0 0 0 1863 1863 1863 1863 1863 1863 1863 1863 1853 1853 1853 1843 1843 1853 1853 1853 1853 1853 1853 1863 1863 1863 1863 1863 1863 1863 3149 3149 3149 3149 3149 3149 3149 3149 3149 3149 3149 3149 3178 3178 3149 3149 3149 3149 3149 3149 3149 3149 3149 3149 3149 3178 3178 3178 3178 3178 3178 3178 3178 3178 3149 3149 3149 3149 3149 3149 3149 3149 3149 3149 3149 3178 3178 3178 3178 3178 3178 3178 3178 3149 3149 3149 3149 3149 3149 3149 3149 3149 3149 3149 3149 3149 3149 3149 3149 3149 3120 3120 3120 3120 3120 3120 3120 3120 3120 3120 3120 3120 3120 3120 3120 3120 3120 3092 3092 3092 3092 3120 3120 3120 3120 3120 3120 3092 3092 3092 3092 0 0 0 0 0 0 0 0 0 0 0
0 0 0 0 0 0 0 0 0 0 0 0 0 0 0 0 0 0 0 0 0 0 0 0 0 0 0 0 0 0 0 0 2933 2933 2933 2933 2933 2933 2933 2933 2933 2933 2933 2933 2908 2908 2908 2908 2908 2908 2908 2908 2908 2933 2933 2908 2908 2933 2933 2933 2933 2933 2958 2958 2958 2958 2958 2958 2958 2933 2933 2933 2933 2958 2933 2933 2933 2933 2933 2933 2933 2933 2933 2958 2958 2933 2933 2933 2908 2883 2883 2883 2859 2859 2859 2859 2859 2859 2835 2835 2859 2859 2859 2859 2859 2859 2859 2859 2859 2859 2883 2883 2883 2883 2883 2883 2883 2883 2883 2883 2883 2908 2908 2908 2908 2908 2933 2933 2933 2933 2958 2958 2958 2958 2958 2984 2984 2984 2984 2984 3010 3037 3010 3010 3037 3037 3010 3010 2984 2984 3010 3010 3010 3010 3010 3010 2984 2984 2984 2040 2040 2040 2040 2053 2053 2053 2053 2065 2065 2065 2078 2078 2078 2078 0 0 0 0 0 0 1404 1398 1398 1398 1398 1398 1398 1398 1398 1398 1398 1398 1404 1404 1404 1404 1404 1410 1410 1410 1415 1415 1421 1421 1421 1421 1421 1427 1427 1427 1427 1427 1427 1427 1427 1433 1433 1433 1439 1439 1445 1328 1328 1328 1328 1328 1328 1328 1328 1328 1328 1328 1333 1333 1333 1333 1338 1338 1343 1343 1349 1354 1354 1354 1354 1354 1359 1359 1354 1354 1354 1354 1354 1354 1354 1354 1354 1359 1359 1359 1359 1359 1365 1365 1365 1370 1370 1370 1370 1370 1370 1370 1370 1376 1376 1376 1376 1381 1381 1387 1387 1387 1387 1387 1387 1387 1387 1387 1392 1392 1392 1529 1529 1529 1529 1529 1529 1536 1536 1543 1543 1543 1543 1543 1543 1543 1550 1550 1550 1550 1550 1550 1550 1550 1550 1557 1557 1557 1557 1557 1557 1557 1564 1564 1489 1489 1477 1470 1470 1470 1464 1458 1458 1458 1458 1458 1464 1464 1464 1470 1470 1477 1477 1477 2040 2040 2053 2053 2053 2053 2053 2065 2065 2065 2065 2065 2065 2065 2078 2078 2078 2090 2090 2103 2103 2103 2103 2103 2103 2103 2103 2103 2116 2116 2116 2116 2116 2116 2116 2116 2116 2116 2116 2116 2116 2116 2116 2116 2116 2129 2129 2129 1509 1509 1509 1503 1503 1496 1489 1489 1489 1489 1489 1489 1489 1489 1489 1489 1489 1496 1489 1489 2040 2053 2040 2040 2040 2053 2053 2053 2053 2053 2053 2053 2053 2212 2198 2198 2212 2212 2212 2212 2226 2226 3178 3178 3178 3178 3178 3178 3208 3208 3208 3208 3208 3238 3238 3238 3238 3238 3238 1601 1601 1594 1594 1594 1594 1594 1594 1594 1594 1586 1586 1594 1594 1594 1601 1609 1609 1609 1609 1609 1616 1616 1616 1616 1609 1609 1616 1616 1616 1616 1616 1616 1616 1609 1609 1609 1609 1616 1616 1616 1616 0 0 0 0 0 0 0 0 1883 1873 1873 1873 1873 1873 1873 1873 1863 1863 1853 1853 1853 1853 1853 1853 1853 1853 1853 1863 1863 1863 1863 1863 1863 1863 1863 3120 3120 3120 3120 3120 3149 3149 3149 3149 3149 3149 3149 3149 3149 3149 3149 3149 3149 3149 3149 3149 3149 3149 3149 3149 3149 3149 3149 3149 3149 3149 3149 3149 3149 3149 3149 3149 3149 3149 3149 3149 3149 3149 3149 3149 3149 3178 3178 3178 3178 3178 3178 3149 3120 3120 3120 3120 3120 3120 3120 3120 3120 3120 3120 3120 3120 3120 3120 3120 3120 3120 3120 3120 3120 3120 3120 3092 3092 3092 3092 3092 3092 3092 3092 3120 3092 3092 3064 3064 3092 3092 3092 3092 3092 3092 3092 3092 3064 3064 3064 3064 0 0 0 0 0 0 0 0 0 0 0
0 0 0 0 0 0 0 0 0 0 0 0 0 0 0 0 0 0 0 0 0 0 0 0 0 0 0 0 0 0 0 0 2908 2908 2908 2908 2908 2908 2908 2908 2908 2908 2908 2908 2908 2908 2908 2908 2908 2908 2908 2908 2908 2908 2908 2908 2908 2933 2933 2933 2933 2933 2933 2933 2933 2933 2933 2933 2933 2933 2933 2908 2908 2933 2908 2908 2908 2933 2908 2908 2908 2933 2933 2933 2933 2933 2933 2933 2908 2883 2883 2883 2859 2859 2859 2859 2859 2859 2859 2859 2859 2859 2859 2859 2859 2859 2859 2859 2859 2859 2883 2883 2883 2883 2883 2883 2883 2883 2883 2883 2883 2908 2908 2908 2908 2908 2933 2933 2933 2958 2958 2958 2958 2958 2958 2984 2984 2984 2984 2984 3010 3010 3010 3010 3010 3010 3010 2984 2984 3010 3010 3010 3010 3010 3010 3010 2984 2984 2984 2040 2040 2040 2040 2053 2053 2053 2053 2065 2065 2078 2078 2078 2078 2078 2090 0 0 0 0 1404 1404 1404 1398 1398 1398 1398 1398 1398 1398 1398 1398 1398 1404 1404 1404 1404 1404 1410 1410 1410 1415 1415 1421 1421 1421 1421 1427 1427 1427 1427 1427 1427 1427 1427 1427 1427 1433 1433 1439 1439 1439 1328 1328 1328 1328 1328 1328 1328 1328 1328 1328 1333 1333 1333 1333 1338 1338 1338 1349 1349 1354 1354 1354 1354 1359 1359 1359 1359 1354 1354 1354 1354 1354 1354 1354 1354 1354 1359 1359 1359 1359 1359 1365 1365 1370 1370 1370 1370 1370 1370 1370 1370 1370 1376 1376 1376 1376 1381 1381 1387 1387 1387 1387 1387 1387 1387 1387 1387 1392 1392 1529 1529 1529 1529 1529 1529 1529 1536 1536 1536 1536 1543 1543 1543 1543 1543 1543 1550 1550 1550 1550 1550 1550 1550 1550 1550 1557 1557 1557 1557 1557 1557 1557 1489 1489 1489 1477 1477 1477 1470 1470 1464 1464 1464 1464 1464 1464 1464 1470 1470 1477 1477 1477 1477 2053 2053 2053 2053 2065 2065 2065 2065 2065 2065 2065 2065 2065 2078 2078 2078 2090 2090 2090 2103 2103 2103 2103 2103 2103 2103 2103 2103 2103 2103 2116 2116 2116 2116 2103 2103 2116 2116 2078 2078 2103 2090 2090 2103 2103 2103 2143 1516 1516 1509 1509 1503 1503 1496 1496 1489 1489 1489 1489 1489 1489 1489 1489 1496 1496 1496 1496 2040 2040 2040 2040 2040 2040 2040 2040 2040 2040 2040 2040 2040 2040 2212 2198 1572 1564 1564 1564 2212 2226 2226 3178 3178 3178 3178 3178 3178 3208 3178 3178 3208 3208 3238 3238 1579 1572 1572 1579 1579 1579 1579 1579 1586 1586 1586 1586 1586 1586 1586 1586 1586 1594 1594 1601 1601 1601 1601 1609 1609 1616 1616 1616 1616 1616 1616 1616 1616 1616 1616 1616 1616 1616 1616 1609 1609 1616 1616 1616 1616 1616 0 0 0 0 0 0 0 0 1883 1873 1873 1873 1873 1873 1873 1873 1863 1863 1853 1853 1853 1853 1853 1853 1853 1853 1853 1863 1863 1863 1863 1863 1863 1873 3064 3092 3092 3092 3120 3120 3149 3149 3149 3149 3149 3149 3149 3149 3149 3149 3149 3149 3149 3149 3149 3149 3149 3149 3149 3149 3149 3149 3149 3149 3149 3149 3149 3149 3149 3149 3149 3149 3149 3149 3149 3149 3149 3149 3149 3149 3149 3149 3149 3149 3149 3149 3149 3149 3120 3120 3120 3120 3120 3120 3120 3120 3120 3120 3120 3120 3092 3092 3092 3092 3120 3120 3120 3120 3120 3120 3092 3092 3092 3092 3092 3092 3092 3092 3092 3092 3092 3092 3064 3064 3092 3092 3092 3092 3092 3092 3064 3064 3037 3037 3037 3037 0 0 0 0 0 0 0 0 0 0 0
0 0 0 0 0 0 0 0 0 0 0 0 0 0 0 0 0 0 0 0 0 0 0 0 0 0 0 0 0 0 0 0 2908 2908 2908 2908 2908 2908 2908 2908 2908 2908 2908 2908 2908 2908 2908 2908 2908 2883 2883 2908 2908 2908 2908 2908 2908 2933 2908 2908 2933 2933 2933 2933 2933 2933 2933 2933 2933 2908 2908 2908 2908 2908 2908 2908 2908 2908 2908 2908 2908 2908 2908 2933 2933 2933 2933 2908 2908 2883 2883 2883 2859 2859 2859 2859 2859 2859 2859 2859 2859 2859 2859 2859 2859 2859 2859 2859 2859 2883 2883 2883 2883 2883 2883 2883 2883 2883 2883 2908 2908 2908 2908 2933 2933 2933 2933 2933 2933 2958 2958 2958 2958 2958 2958 2984 2984 2984 2984 2984 3010 3010 2984 2984 2984 3010 2984 2984 2984 2984 2984 3010 3010 3010 3010 3010 2958 2958 2958 2040 2040 2040 2040 2053 2053 2053 2065 2065 2065 2078 2078 2078 2078 2078 2090 0 0 0 0 1404 1404 1404 1404 1398 1398 1404 1398 1398 1398 1398 1398 1404 1404 1404 1404 1404 1404 1410 1410 1415 1415 1421 1421 1421 1421 1421 1427 1427 1427 1427 1427 1427 1427 1427 1427 1427 1433 1433 1439 1439 1439 1333 1333 1328 1328 1328 1333 1333 1328 1328 1328 1333 1333 1333 1333 1338 1338 1338 1349 1354 1354 1354 1354 1354 1359 1359 1359 1359 1354 1354 1354 1354 1354 1354 1354 1354 1359 1359 1365 1359 1359 1496 1496 1496 1496 1496 1496 1496 1503 1503 1509 1509 1516 1516 1516 1516 1516 1516 1516 1516 1523 1523 1523 1523 1523 1523 1523 1523 1529 1529 1529 1529 1529 1529 1529 1536 1536 1536 1536 1536 1536 1543 1543 1543 1543 1543 1543 1550 1550 1543 1543 1543 1550 1550 1550 1550 2450 2450 2450 2467 2467 2467 2467 1496 1496 1489 1483 1477 1477 1477 1470 1464 1464 1464 1464 1464 1464 1470 1477 1477 1477 1477 1477 1477 2040 2040 2053 2053 2065 2065 2065 2065 2065 2065 2065 2078 2078 2078 2090 2090 2090 2103 2103 2103 2103 2103 2103 2103 2103 2103 2103 2103 2103 2103 2116 2116 2116 2103 2103 2103 2016 2016 2016 2016 2016 2016 2028 2040 2028 2028 2028 1516 1516 1509 1509 1503 1503 1496 1496 1489 1489 1489 1489 1489 1496 1496 1496 1496 1496 1496 1496 2016 2028 2028 2028 2028 2028 2028 2040 2040 2028 2028 2028 2040 2040 2040 2040 1572 1564 1564 1564 1557 1557 1557 1557 1557 1564 1564 1564 1564 1564 1564 1564 1564 1564 1564 1564 1564 1572 1572 1579 1579 1572 1572 1579 1586 1586 1586 1586 1586 1586 1586 1586 1586 1594 1594 1601 1601 1601 1601 1609 1609 1616 1616 1616 1616 1616 1616 1616 1616 1616 1616 1616 1616 1616 1616 1616 1616 1616 1616 1616 1616 0 0 0 0 0 0 0 0 0 1894 1883 1883 1883 1883 1883 1873 1873 1863 1863 1853 1853 1853 1853 1853 1853 1853 1853 1853 1863 1863 1863 1863 1863 1873 1873 3064 3092 3092 3092 3092 3092 3092 3149 3149 3149 3149 3149 3149 3149 3149 3149 3149 3149 3149 3120 3120 3120 3120 3120 3120 3120 3120 3120 3149 3149 3149 3149 3120 3120 3149 3149 3149 3149 3149 3149 3149 3149 3149 3149 3149 3149 3149 3149 3149 3149 3149 3149 3149 3149 3120 3120 3120 3120 3120 3120 3120 3092 3092 3092 3092 3092 3092 3092 3092 3092 3092 3092 3092 3120 3120 3092 3092 3064 3064 3064 3064 3064 3064 3092 3092 3092 3092 3064 3064 3064 3064 3064 3064 3064 3064 3064 3064 3064 3037 3037 3037 3037 0 0 0 0 0 0 0 0 0 0 0
0 0 0 0 0 0 0 0 0 0 0 0 0 0 0 0 0 0 0 0 0 0 0 0 0 0 0 0 0 0 0 0 2908 2908 2908 2908 2908 2908 2908 2908 2883 2883 2908 2908 2908 2908 2908 2908 2908 2883 2883 2908 2908 2908 2908 2908 2908 2908 2908 2908 2908 2908 2908 2908 2908 2908 2908 2908 2908 2908 2908 2883 2883 2908 2908 2908 2908 2908 2908 2908 2908 2908 2908 2908 2908 2908 2908 2908 2883 2883 2883 2883 2859 2859 2859 2859 2859 2859 2859 2859 2859 2859 2859 2859 2859 2859 2883 2883 2883 2883 2883 2883 2883 2883 2883 2883 2883 2883 2883 2908 2908 2908 2908 2933 2933 2933 2933 2958 2958 2958 2958 2958 2958 2958 2958 2984 2984 2984 2984 2984 2984 2984 2984 2984 2984 2984 2984 2984 2984 2984 2984 2984 3010 3010 3010 3010 2958 2958 2958 2958 2053 2040 2040 2053 2053 2065 2065 2065 2078 2078 2078 2078 2078 2078 2090 0 0 0 0 0 1410 1410 1404 1398 1398 1404 1404 1404 1398 1398 1398 1404 1404 1404 1404 1404 1410 1410 1410 1415 1415 1421 1421 1421 1427 1427 1427 1427 1427 1427 1427 1427 1427 1427 1427 1433 1433 1433 1439 1439 1445 1333 1333 1333 1333 1333 1333 1333 1333 1333 1333 1333 1333 1333 1338 1338 1338 1343 1349 1354 1359 1354 1354 1354 1359 1359 1359 1359 1354 1354 1354 1354 1354 1354 1354 1354 1359 1489 1496 1496 1489 1489 1496 1496 1496 1496 1496 1496 1503 1503 1503 1509 1509 1509 1509 1516 1516 1516 1516 1516 1523 1523 1523 1523 1523 1523 1523 1523 1523 1529 1523 1523 1529 1529 1529 1536 1536 1536 1536 1536 1543 1543 1550 1550 1557 1557 1564 1993 1993 1536 1536 1543 2467 2450 2450 2450 2450 2450 2450 2450 2467 2467 2467 2467 1489 1489 1483 1477 1477 1477 1470 1464 1464 1464 1464 1464 1470 1477 1477 1483 1477 1477 1477 1477 2040 2040 2053 2053 2065 2065 2065 2065 2065 2065 2078 2078 2078 2078 2078 2078 2090 2090 2090 2090 2090 2103 2090 2090 2090 2090 2090 2103 2103 2103 2103 2103 2103 2090 2090 2016 2016 2016 2016 2016 2016 2016 2028 2028 2028 2028 2028 1516 1516 1509 1509 1503 1503 1503 1496 1496 1496 1496 1496 1496 1496 1496 1496 1496 1496 1496 1496 2016 2016 2016 2016 2016 2016 2028 2028 2028 2028 2028 2028 2028 2040 2040 2040 1564 1564 1557 1557 1557 1557 1557 1557 1557 1564 1564 1564 1564 1564 1564 1564 1564 1564 1564 1564 1564 1572 1572 1579 1579 1572 1572 1579 1579 1586 1586 1586 1586 1586 1586 1586 1586 1594 1594 1594 1601 1601 1601 1609 1609 1616 1616 1616 1616 1616 1616 1616 1616 1616 1616 1616 1616 1616 1616 1616 1616 1616 1616 1616 1616 0 0 0 0 0 0 0 0 0 1894 1883 1883 1883 1883 1883 1873 1873 1863 1863 1853 1853 1853 1853 1853 1853 1853 1853 1863 1863 1873 1863 1863 1863 1873 1873 3092 3092 3064 3064 3092 3092 3092 3120 3120 3120 3120 3120 3120 3149 3120 3120 3120 3120 3120 3120 3120 3120 3120 3120 3120 3120 3120 3120 3120 3120 3120 3120 3120 3120 3120 3120 3120 3120 3120 3120 3120 3120 3120 3120 3120 3120 3120 3120 3120 3120 3120 3120 3120 3120 3120 3120 3092 3092 3092 3092 3092 3092 3092 3092 3092 3064 3064 3064 3064 3064 3092 3092 3092 3092 3092 3092 3064 3064 3064 3064 3064 3064 3064 3064 3064 3064 3064 3064 3064 3064 3037 3037 3037 3037 3037 3037 3037 3037 3037 3037 3037 3037 0 0 0 0 0 0 0 0 0 0 0
0 0 0 0 0 0 0 0 0 0 0 0 0 0 0 0 0 0 0 0 0 0 0 0 0 0 0 0 0 0 0 0 2908 2883 2883 2883 2883 2883 2883 2883 2883 2883 2883 2883 2883 2883 2883 2883 2883 2883 2883 2883 2883 2883 2883 2883 2908 2908 2908 2908 2908 2908 2908 2908 2908 2908 2908 2908 2908 2908 2908 2883 2883 2883 2883 2883 2883 2883 2883 2883 2883 2883 2883 2883 2883 2883 2883 2883 2883 2883 2883 2883 2859 2859 2859 2859 2859 2859 2859 2859 2859 2859 2859 2859 2883 2883 2883 2883 2883 2883 2883 2883 2883 2883 2883 2883 2883 2883 2908 2908 2908 2908 2933 2933 2933 2958 2958 2958 2958 2958 2958 2958 2958 2958 2958 2984 2984 2984 2984 2984 2984 2984 2984 2984 2984 2984 2984 2984 2984 2984 2984 2984 2984 2984 2984 2984 2958 2958 2958 2958 2040 2040 2053 2053 2053 2065 2065 2065 2078 2078 2078 2078 2090 2090 2090 0 0 0 0 0 1410 1410 1404 1398 1398 1404 1404 1404 1404 1404 1404 1404 1404 1404 1404 1410 1410 1410 1410 1415 1415 1421 1421 1421 1427 1427 1427 1427 1433 1433 1433 1433 1433 1433 1433 1433 1433 1439 1439 1439 1445 1333 1333 1333 1333 1333 1333 1333 1333 1333 1333 1333 1333 1333 1338 1338 1343 1343 1354 1354 1359 1359 1354 1354 1359 1359 1359 1359 1354 1354 1354 1354 1354 1354 1489 1489 1489 1489 1489 1489 1489 1489 1496 1496 1496 1496 1496 1496 1503 1503 1503 1503 1503 1509 1509 1516 1516 1516 1516 1516 1516 1523 1523 1523 1516 1516 1523 1523 1523 1529 1523 1523 1529 1529 1536 1536 1536 1536 1543 1543 1543 1981 1981 1981 1993 1993 1993 1993 1993 1536 1536 2485 2467 2450 2450 2450 2450 2450 2450 2450 2467 2467 2467 0 1489 1489 1483 1477 1477 1477 1477 1464 1464 1470 1470 1470 1477 1483 1483 1483 1483 1483 1470 1470 2040 2040 2053 2053 2065 2065 2065 2065 2065 2065 2065 2078 2078 2065 2065 2065 2078 2090 2090 2078 2078 2090 2028 2016 2016 2016 2016 2016 2016 2005 1993 1993 1993 1993 2005 2005 2005 2005 2005 2005 2005 2016 2016 2016 2016 2028 2028 1516 1516 1509 1509 1509 1503 1503 1503 1496 1496 1496 1496 1496 1496 1496 1496 1503 1496 1496 1503 2016 2016 2016 2016 2016 2016 2016 2028 2028 2016 2016 2016 2028 2028 2040 1557 1557 1557 1557 1557 1557 1557 1557 1557 1557 1564 1564 1564 1564 1564 1564 1564 1564 1564 1564 1564 1564 1564 1572 1572 1572 1572 1572 1579 1579 1579 1586 1586 1586 1586 1586 1586 1586 1594 1594 1594 1601 1601 1601 1609 1609 1609 1616 1616 1616 1616 1616 1616 1616 1616 1616 1616 1616 1616 1616 1616 1616 1616 1624 1624 1624 0 0 0 0 0 0 0 0 0 1894 1894 1894 1894 1894 1883 1883 1873 1873 1863 1853 1853 1853 1853 1853 1853 1853 1853 1863 1873 1873 1863 1863 1863 1873 1873 3064 3064 3064 3064 3064 3064 3064 3092 3092 3120 3092 3092 3092 3092 3092 3092 3092 3092 3092 3092 3092 3092 3092 3092 3092 3092 3092 3092 3092 3092 3092 3092 3092 3092 3092 3092 3092 3092 3120 3120 3092 3092 3092 3092 3120 3092 3092 3092 3092 3092 3092 3092 3092 3092 3092 3092 3064 3064 3064 3064 3064 3064 3064 3064 3064 3037 3037 3064 3064 3064 3064 3064 3064 3064 3064 3064 3064 3064 3064 3064 3064 3064 3064 3064 3064 3064 3064 3037 3037 3037 3037 3037 3037 3037 3037 3037 3037 3037 3037 3037 3010 3010 0 0 0 0 0 0 0 0 0 0 0
0 0 0 0 0 0 0 0 0 0 0 0 0 0 0 0 0 0 0 0 0 0 0 0 0 0 0 0 0 0 0 0 2883 2883 2883 2883 2883 2883 2883 2883 2859 2859 2883 2859 2859 2883 2883 2883 2883 2883 2883 2883 2883 2883 2883 2883 2883 2883 2908 2908 2883 2883 2908 2908 2908 2908 2908 2908 2908 2908 2908 2883 2883 2883 2883 2883 2883 2883 2883 2883 2883 2883 2883 2883 2883 2883 2883 2883 2883 2883 2883 2883 2859 2859 2859 2859 2859 2859 2859 2859 2859 2883 2859 2859 2883 2883 2883 2883 2883 2883 2883 2883 2883 2883 2883 2883 2883 2883 2908 2908 2908 2908 2933 2933 2933 2958 2958 2958 2958 2958 2958 2958 2958 2958 2958 2958 2958 2958 2958 2984 2984 2984 2958 2958 2984 2984 2984 2984 2984 2984 2984 2984 2984 2984 2984 2984 2958 2958 2958 2958 2040 2040 2053 2053 2053 2065 2065 2065 2078 2078 2078 2078 2090 2090 2090 0 0 0 0 0 0 0 1410 1404 1404 1404 1404 1404 1404 1404 1404 1404 1404 1404 1404 1410 1410 1415 1415 1415 1421 1421 1421 1421 1427 1427 1427 1433 1433 1433 1433 1433 1433 1439 1439 1439 1439 1445 1445 1445 1445 1333 1333 1333 1333 1333 1333 1333 1333 1333 1333 1333 1333 1333 1338 1338 1343 1343 1354 1354 1359 1359 1359 1359 1359 1359 1359 1359 1354 1354 1354 1477 1483 1483 1489 1489 1489 1489 1489 1489 1489 1489 1489 1489 1489 1496 1496 1496 1503 1503 1503 1503 1503 1509 1509 1509 1509 1516 1516 1516 1516 1523 1523 1349 1349 1516 1523 1523 1970 1970 1970 1970 1970 1970 1970 1970 1970 1981 1981 1981 1981 1981 1981 1981 1993 1993 1993 1993 1572 1572 1572 2485 2467 2467 2450 2450 2467 2467 2467 2467 2467 2467 2467 0 1489 1489 1489 1483 1483 1483 1477 1470 1470 1470 1470 1477 1477 1483 1483 1483 1483 1483 1470 1470 2053 2053 2053 2053 2053 2053 2053 2065 2053 2053 2053 2053 2053 2028 2028 2040 2053 2053 2028 1981 1981 1981 1981 1981 2005 2005 2005 2005 2005 1993 1981 1981 1981 1993 1993 1993 1993 2005 2005 2005 2005 2005 2005 2016 2016 2016 2028 1516 1516 1509 1509 1509 1509 1503 1503 1503 1496 1496 1496 1496 1503 1503 1503 1503 1496 1496 1503 2005 2005 2005 2005 2005 2005 2005 2005 2005 2016 1557 1557 1557 1557 1557 1557 1557 1557 1557 1557 1557 1557 1557 1557 1557 1564 1564 1564 1564 1564 1564 1564 1564 1564 1564 1564 1564 1564 1572 1572 1572 1572 1572 1572 1579 1579 1579 1579 1586 1586 1586 1586 1586 1594 1594 1594 1601 1601 1601 1609 1609 1609 1616 1616 1616 1616 1616 1616 1624 1624 1624 1624 1624 1624 1624 1624 1624 1624 1624 1624 1624 0 0 0 0 0 0 0 0 0 1894 1894 1894 1894 1894 1883 1883 1873 1873 1863 1853 1853 1853 1853 1853 1853 1853 1853 1863 1873 1873 1863 1863 1863 1873 1873 3064 3064 3037 3037 3064 3064 3064 3064 3064 3092 3092 3064 3064 3092 3092 3092 3092 3092 3092 3092 3092 3092 3092 3092 3092 3092 3092 3092 3092 3092 3092 3092 3092 3092 3092 3092 3092 3092 3092 3092 3092 3092 3092 3092 3092 3092 3092 3092 3092 3064 3064 3064 3064 3092 3064 3064 3064 3064 3064 3037 3037 3037 3037 3037 3037 3037 3037 3037 3037 3037 3037 3037 3064 3064 3064 3064 3064 3064 3064 3064 3064 3064 3064 3064 3064 3037 3037 3037 3037 3037 3037 3037 3037 3037 3037 3037 3037 3037 3010 3010 3010 3010 0 0 0 0 0 0 0 0 0 0 0
0 0 0 0 0 0 0 0 0 0 0 0 0 0 0 0 0 0 0 0 0 0 0 0 0 0 0 0 0 0 0 0 2883 2859 2859 2859 2859 2859 2859 2859 2835 2835 2859 2859 2859 2859 2835 2835 2859 2859 2859 2859 2859 2883 2883 2883 2883 2883 2883 2883 2883 2883 2883 2883 2883 2883 2883 2883 2908 2908 2908 2883 2883 2883 2883 2883 2883 2883 2883 2883 2883 2883 2883 2883 2883 2883 2883 2883 2883 2883 2883 2883 2883 2883 2859 2859 2859 2859 2859 2859 2859 2859 2859 2859 2859 2859 2859 2883 2883 2883 2883 2883 2883 2883 2883 2883 2883 2883 2908 2908 2908 2908 2933 2933 2958 2958 2958 2958 2958 2958 2958 2958 2958 2958 2958 2958 2958 2958 2958 2958 2958 2958 2958 2958 2958 2958 2958 2958 2958 2958 2984 2984 2984 2984 2984 2984 2958 2958 2958 2040 2040 2040 2053 2053 2053 2065 2065 2065 2078 2078 2078 2078 2090 2090 2090 0 0 0 0 0 0 0 0 0 1410 1410 1410 1404 1404 1404 1404 1404 1410 1410 1410 1410 1415 1415 1415 1421 1421 1421 1421 1421 1427 1427 1427 1433 1433 1433 1439 1433 1433 1439 1439 1439 1439 1445 1445 1445 1445 1333 1333 1333 1333 1333 1333 1333 1333 1333 1333 1338 1338 1338 1338 1338 1343 1349 1354 1359 1365 1470 1477 1477 1477 1477 1483 1477 1477 1477 1477 1477 1483 1483 1483 1483 1489 1489 1489 1489 1489 1489 1489 1489 1489 1489 1489 1496 1496 1496 1503 1503 1503 1509 1509 1509 1509 1516 1516 1516 1523 1523 1523 1349 1349 1516 1523 1959 1959 1959 1959 1959 1970 1970 1970 1970 1970 1970 1981 1981 1981 1981 1981 1993 1993 1993 2005 2005 1572 1572 1572 2485 2467 2467 2467 2467 2467 2467 2467 2467 2467 2485 2485 1496 1489 1489 1483 1483 1483 1483 1477 1470 1470 1477 1477 1477 1483 1483 1483 1483 1483 1483 1483 2053 2040 2040 2040 2040 2053 2053 2053 2053 2040 2016 2016 2005 1970 1970 1981 1970 1970 1970 1970 1970 1970 1970 1970 1981 1981 1981 1981 1981 1981 1981 1981 1981 1981 1981 1981 1993 1993 1993 2005 2005 2005 2005 2005 2005 2005 2016 2016 1523 1516 1516 1509 1509 1509 1509 1509 1503 1503 1503 1503 1503 1503 1503 1503 1503 1503 1503 1503 2005 2005 2005 1993 1993 1993 2005 2005 1557 1557 1557 1557 1557 1557 1557 1557 1557 1557 1557 1557 1557 1557 1557 1557 1557 1564 1564 1564 1564 1564 1564 1564 1564 1564 1564 1564 1564 1564 1572 1572 1572 1572 1572 1572 1579 1579 1579 1579 1586 1586 1586 1586 1594 1594 1594 1594 1601 1609 1609 1609 1616 1616 1616 1616 1616 1616 1624 1624 1624 1624 1624 1624 1624 1624 1624 1624 1624 1624 1624 1624 1624 0 0 0 0 3037 3037 3037 3037 0 1904 1894 1894 1894 1894 1894 1883 1883 1873 1863 1853 1853 1853 1853 1853 1853 1863 1863 1863 1873 1873 1873 1873 1873 1883 1883 3037 3037 3037 3037 3064 3064 3064 3064 3064 3064 3064 3064 3064 3064 3064 3064 3064 3092 3092 3092 3092 3092 3092 3064 3064 3064 3092 3092 3092 3092 3092 3092 3092 3092 3092 3092 3092 3092 3092 3092 3064 3064 3064 3064 3064 3064 3064 3064 3064 3064 3064 3064 3064 3064 3064 3037 3037 3037 3037 3037 3037 3037 3037 3037 3037 3037 3037 3037 3037 3037 3037 3037 3037 3037 3037 3037 3037 3037 3064 3037 3037 3037 3037 3064 3064 3037 3037 3037 3037 3037 3010 3010 3010 3010 3010 3010 3010 3010 3010 3010 2984 2984 0 0 0 0 0 0 0 0 0 0 0
0 0 0 0 0 0 0 0 0 0 0 0 0 0 0 0 0 0 0 0 0 0 0 0 0 0 0 0 0 0 0 0 2859 2859 2859 2859 2835 2835 2835 2835 2835 2835 2835 2835 2835 2835 2835 2835 2812 2812 2835 2835 2835 2859 2859 2883 2883 2883 2859 2859 2859 2859 2859 2859 2883 2859 2859 2883 2883 2883 2908 2883 2883 2883 2859 2859 2859 2859 2859 2859 2859 2883 2883 2859 2859 2883 2883 2883 2883 2883 2883 2883 2883 2883 2859 2859 2859 2859 2859 2859 2859 2859 2859 2859 2859 2859 2859 2859 2883 2883 2883 2883 2883 2883 2883 2908 2908 2908 2908 2908 2908 2908 2908 2933 2933 2933 2958 2958 2958 2958 2958 2958 2958 2958 2958 2958 2958 2958 2958 2958 2958 2958 2958 2958 2958 2958 2958 2958 2958 2958 2958 2958 2958 2958 2958 2958 2958 2958 2958 2040 2040 2040 2053 2053 2053 2065 2065 2065 2078 2078 2078 2078 2090 2090 2090 0 0 0 0 0 0 0 0 0 1410 1410 1410 1404 1404 1404 1404 1404 1410 1410 1410 1415 1415 1421 1421 1421 1421 1421 1421 1421 1427 1427 1427 1433 1433 1433 1433 1433 1433 1439 1439 1439 1445 1445 1445 1445 1452 1333 1333 1333 1333 1338 1338 1338 1338 1338 1338 1338 1338 1338 1338 1338 1343 1477 1477 1477 1477 1477 1477 1477 1477 1477 1483 1477 1477 1477 1477 1477 1477 1483 1483 1483 1483 1483 1489 1489 1489 1489 1489 1489 1489 1489 1489 1496 1496 1496 1503 1503 1503 1509 1926 1936 1926 1926 1926 1926 1926 1936 1936 1936 1936 1947 1947 1947 1947 1947 1947 1959 1959 1959 1959 1970 1970 1970 1981 1981 1981 1981 1993 1993 1993 1993 2005 2005 0 2005 2485 2485 2485 2467 2467 2467 2467 2467 2467 2467 2467 2485 2485 1496 1496 1489 1483 1483 1483 1483 1483 1470 1470 1477 1477 1483 1483 1483 1483 1483 1483 1483 1483 1483 2040 2028 2028 2040 2040 2040 2040 1970 1970 1970 1970 1970 1970 1970 1970 1970 1970 1970 1970 1970 1970 1970 1970 1970 1970 1970 1970 1970 1981 1981 1970 1970 1981 1981 1981 1981 1981 1981 1981 1993 1993 1993 1993 1993 2005 2005 2005 1523 1516 1516 1516 1509 1509 1509 1509 1509 1509 1509 1509 1509 1509 1509 1509 1516 1516 1516 1543 1543 2005 2005 1993 1993 1993 1550 1550 1550 1550 1550 1550 1550 1550 1550 1550 1550 1557 1557 1557 1557 1557 1557 1557 1557 1564 1564 1564 1564 1564 1564 1564 1564 1564 1564 1564 1564 1564 1572 1572 1572 1572 1572 1579 1579 1579 1579 1586 1586 1586 1586 1586 1594 1594 1594 1601 1601 1609 1609 1609 1616 1616 1616 1616 1616 1624 1624 1624 1624 1624 1624 1624 1624 1624 1624 1624 1624 1624 1624 1624 1624 0 3010 0 3037 3037 3010 3010 3010 0 1904 1894 1894 1894 1894 1894 1883 1883 1863 1863 1853 1853 1853 1853 1853 1853 1863 1863 1863 1873 1873 1873 1873 1873 1894 1894 3037 3037 3010 3010 3037 3037 3037 3037 3037 3037 3064 3064 3064 3064 3064 3064 3064 3064 3064 3064 3064 3064 3064 3064 3064 3064 3064 3064 3064 3064 3064 3064 3064 3064 3064 3064 3064 3064 3064 3064 3064 3064 3064 3064 3064 3064 3064 3064 3064 3064 3064 3037 3037 3037 3037 3037 3037 3037 3037 3037 3037 3037 3037 3037 3037 3037 3037 3037 3037 3037 3037 3037 3037 3037 3037 3037 3037 3037 3037 3037 3037 3037 3037 3037 3037 3037 3010 3010 3010 3010 3010 3010 2984 2984 3010 3010 3010 3010 3010 3010 2984 2984 0 0 0 0 0 0 0 0 0 0 0
0 0 0 0 0 0 0 0 0 0 0 0 0 0 0 0 0 0 0 0 0 0 0 0 0 0 0 0 0 0 0 0 2835 2835 2835 2835 2835 2835 2812 2812 2812 2812 2812 2812 2812 2812 2812 2812 2812 2812 2812 2835 2835 2859 2859 2859 2883 2859 2859 2859 2859 2859 2859 2859 2859 2859 2859 2859 2859 2883 2883 2859 2859 2859 2859 2859 2859 2835 2835 2835 2859 2859 2859 2859 2859 2859 2859 2859 2859 2859 2883 2883 2883 2883 2859 2859 2859 2859 2859 2859 2859 2859 2859 2859 2859 2859 2859 2859 2883 2883 2883 2883 2883 2883 2883 2908 2908 2908 2908 2908 2908 2908 2908 2933 2933 2933 2933 2933 2933 2933 2933 2933 2933 2933 2933 2958 2933 2933 2958 2958 2958 2958 2958 2958 2958 2958 2958 2958 2958 2958 2958 2958 2958 2958 2958 2958 2933 2933 2933 2040 2040 2053 2053 2065 2065 2065 2065 2078 2078 2078 2078 2078 2090 2090 2090 0 0 0 0 0 0 0 0 0 1410 1410 1410 1410 1404 1404 1404 1404 1410 1410 1410 1415 1415 1421 1421 1421 1421 1421 1421 1427 1427 1427 1427 1433 1433 1433 1433 1433 1433 1439 1439 1445 1445 1445 1445 1452 1338 1333 1333 1333 1338 1338 1338 1338 1338 1338 1338 1338 1338 1338 1338 1338 1343 1477 1477 1477 1477 1477 1477 1477 1477 1477 1483 1477 1477 1477 1477 1477 1477 1483 1483 1483 1483 1483 1489 1489 1489 1489 1489 1489 1489 1489 1489 1489 1489 1496 1503 1915 1926 1926 1926 1936 1926 1926 1926 1926 1926 1936 1936 1936 1936 1936 1936 1936 1947 1947 1947 1947 1947 1959 1959 1959 1970 1970 1981 1981 1981 1993 1993 1993 1993 1993 2005 2005 0 0 2485 2485 2485 2485 2485 2467 2467 2467 2467 2485 2485 2485 2485 1496 1496 1483 1483 1483 1483 1483 1483 1477 1477 1477 1483 1483 1483 1483 1489 1489 1489 1489 1489 1496 2028 2028 1981 1970 1970 1970 1970 1970 1970 1970 1970 1970 1970 1970 1970 1970 1970 1959 1959 1959 1959 1959 1959 1959 1959 1970 1970 1970 1970 1970 1970 1970 1970 1981 1981 1970 1970 1970 1970 1970 1970 1970 1970 1981 1981 1981 1981 1523 1516 1516 1516 1516 1509 1509 1509 1509 1509 1509 1509 1509 1509 1509 1516 1523 1529 1536 1543 1550 1550 1550 1550 1550 1543 1543 1543 1550 1550 1550 1550 1550 1550 1550 1550 1550 1557 1557 1557 1557 1557 1557 1557 1557 1564 1564 1564 1564 1564 1564 1564 1564 1564 1564 1564 1564 1564 1572 1572 1579 1579 1579 1579 1579 1586 1586 1586 1586 1594 1594 1594 1594 1594 1594 1601 1601 1609 1609 1616 1616 1616 1616 1616 1624 1624 1624 1624 1624 1624 1624 1624 1624 1624 1624 1624 1624 1624 1624 1624 1632 1632 3010 3010 3010 3010 2984 2984 3010 3010 1894 1894 1894 1894 1894 1883 1883 1873 1863 1863 1853 1853 1853 1853 1863 1863 1863 1863 1863 1873 1873 1873 1873 1873 1873 3010 3010 3010 3010 3010 3010 3010 3037 3037 3037 3037 3037 3037 3037 3037 3037 3037 3064 3064 3064 3064 3064 3064 3064 3064 3064 3064 3064 3064 3064 3064 3064 3064 3064 3064 3064 3064 3064 3064 3064 3064 3037 3037 3037 3037 3064 3064 3037 3037 3064 3037 3037 3037 3037 3037 3037 3010 3010 3010 3037 3037 3037 3037 3037 3037 3037 3010 3010 3037 3037 3037 3037 3037 3010 3010 3010 3010 3010 3010 3037 3010 3010 3010 3037 3037 3010 3010 3010 3010 2984 2984 2984 2984 2958 2958 2984 2984 2984 2984 2984 2984 2984 2984 0 0 0 0 0 0 0 0 0 0 0
0 0 0 0 0 0 0 0 0 0 0 0 0 0 0 0 0 0 0 0 0 0 0 0 0 0 0 0 0 0 0 0 2835 2812 2812 2812 2812 2812 2812 2812 2812 2812 2812 2812 2812 2812 2812 2812 2812 2812 2812 2812 2812 2812 2835 2835 2859 2859 2835 2835 2835 2835 2835 2835 2835 2835 2835 2835 2835 2859 2859 2859 2859 2859 2859 2835 2835 2835 2835 2835 2835 2835 2835 2835 2835 2859 2859 2859 2859 2859 2859 2859 2859 2859 2859 2859 2859 2859 2859 2859 2859 2859 2859 2859 2859 2859 2859 2859 2859 2883 2883 2883 2883 2883 2883 2908 2908 2908 2908 2908 2908 2908 2908 2908 2908 2908 2933 2933 2933 2933 2933 2933 2933 2933 2933 2933 2908 2908 2933 2933 2933 2933 2933 2933 2933 2933 2933 2933 2933 2933 2958 2958 2958 2958 2958 2933 2908 2883 2883 2053 2053 2053 2053 2065 2065 2065 2065 2078 2078 2078 2078 2078 2090 2090 2090 0 0 0 0 0 0 0 0 0 1410 1410 1410 1404 1404 1404 1404 1404 1410 1410 1410 1410 1415 1421 1421 1421 1421 1421 1421 1427 1427 1427 1427 1433 1433 1439 1439 1439 1439 1439 1445 1445 1445 1445 1452 1452 1338 1338 1338 1338 1338 1338 1338 1338 1338 1338 1338 1338 1338 1338 1343 1343 1343 1470 1470 1477 1477 1477 1477 1477 1477 1477 1483 1477 1477 1477 1477 1477 1477 1477 1477 1477 1477 1477 1483 1483 1483 1483 1483 1483 1489 1489 1489 1489 1489 1904 1915 1915 1926 1926 1926 1936 1926 1926 1926 1926 1936 1936 1936 1936 1936 1936 1936 1936 1936 1936 1936 1936 1936 1947 1947 1959 1959 1970 1981 1981 1981 1993 1993 1993 1993 1993 2005 2005 0 0 0 2485 0 2485 2485 2485 2485 2485 2485 2485 2485 2485 2485 1496 1496 1483 1483 1483 1483 1489 1483 1477 1477 1483 1483 1483 1483 1483 1489 1489 1489 1489 1496 1496 1926 1926 1926 1936 1947 1959 1959 1959 1959 1959 1959 1959 1959 1959 1959 1959 1959 1959 1959 1959 1959 1947 1947 1947 1959 1959 1959 1959 1970 1970 1970 1970 1970 1970 1970 1959 1959 1959 1959 1959 1959 1970 1970 1970 1970 1970 1970 1523 1516 1516 1516 1516 1509 1509 1509 1509 1509 1509 1509 1509 1509 1516 1523 1536 1536 1543 1543 1543 1550 1550 1543 1543 1543 1543 1543 1543 1543 1543 1543 1543 1550 1550 1550 1550 1557 1557 1557 1557 1557 1557 1557 1557 1564 1564 1564 1564 1564 1564 1564 1564 1564 1564 1572 1572 1572 1579 1579 1579 1586 1586 1586 1586 1586 1586 1594 1594 1594 1594 1594 1594 1601 1601 1609 1609 1616 1616 1616 1616 1616 1616 1624 1624 1624 1624 1624 1624 1624 1624 1624 1624 1624 1624 1624 1624 1624 1632 1632 1632 1632 2984 2984 2984 2984 2984 2958 2958 2958 1894 1894 1894 1894 1894 1883 1883 1873 1863 1863 1853 1853 1853 1853 1863 1863 1863 1863 1863 1873 1873 1883 1883 1883 1883 2984 2984 3010 3010 3010 3010 3010 3010 3010 3010 3010 3010 3010 3037 3037 3037 3037 3064 3064 3064 3064 3064 3064 3037 3037 3037 3037 3037 3037 3037 3037 3064 3064 3064 3064 3064 3064 3064 3037 3037 3037 3037 3037 3037 3037 3037 3037 3037 3037 3037 3037 3037 3037 3037 3037 3037 3010 3010 3010 3010 3010 3010 3010 3010 3010 3010 3010 3010 3010 3010 3010 3010 3010 3010 3010 3010 3010 3010 3010 3010 3010 3010 3010 3010 3010 2984 2984 2984 2984 2958 2958 2958 2958 2958 2958 2984 2984 2984 2984 2984 2984 2984 2984 0 0 0 0 0 0 0 0 0 0 0
0 0 0 0 0 0 0 0 0 0 0 0 0 0 0 0 0 0 0 0 0 0 0 0 0 0 0 0 0 0 0 0 2812 2812 2812 2812 2812 2812 2789 2789 2812 2812 2812 2812 2812 2812 2789 2789 2789 2789 2812 2812 2812 2812 2812 2835 2859 2859 2835 2835 2835 2835 2835 2835 2812 2812 2835 2835 2835 2835 2835 2835 2835 2835 2835 2835 2835 2812 2812 2812 2812 2812 2835 2835 2835 2835 2835 2835 2835 2835 2835 2835 2859 2859 2859 2859 2859 2859 2859 2859 2859 2859 2859 2859 2859 2859 2859 2859 2859 2859 2883 2883 2883 2883 2883 2883 2883 2883 2883 2883 2883 2883 2883 2883 2883 2883 2883 2883 2883 2883 2883 2883 2883 2883 2908 2908 2883 2883 2908 2908 2908 2933 2933 2933 2933 2933 2933 2933 2933 2933 2933 2933 2933 2933 2933 2933 2908 2883 2883 2883 2053 2053 2065 2065 2065 2065 2078 2078 2078 2078 2078 2078 2090 2090 2090 2129 2143 0 0 0 0 0 0 0 1415 1410 1410 1404 1404 1404 1404 1404 1404 1410 1410 1410 1415 1421 1421 1421 1421 1421 1421 1427 1427 1427 1427 1433 1433 1439 1439 1439 1439 1445 1445 1445 1452 1452 1452 1452 1338 1338 1338 1338 1338 1338 1338 1338 1338 1343 1343 1343 1343 1343 1343 1343 1343 1470 1470 1470 1470 1470 1477 1477 1477 1477 1477 1477 1477 1483 1477 1477 1477 1477 1477 1477 1470 1470 1477 1477 1477 1483 1483 1483 1489 1904 1904 1904 1904 1904 1915 1915 1926 1926 1926 1926 1926 1926 1926 1926 1926 1926 1926 1926 1926 1926 1926 1926 1926 1936 1936 1936 1936 1936 1936 1947 1947 1959 1970 1981 1981 1993 1993 1993 1993 1993 2005 2005 0 0 0 0 0 2485 2485 2485 2485 2485 2485 2485 2485 2485 1509 1496 1496 1489 1489 1489 1489 1489 1483 1477 1477 1483 1483 1483 1483 1489 1489 1489 1489 1489 1496 1915 1915 1926 1926 1926 1936 1936 1936 1947 1947 1947 1947 1947 1947 1947 1947 1959 1959 1947 1947 1947 1947 1947 1947 1947 1947 1947 1947 1959 1959 1959 1959 1959 1959 1959 1959 1959 1959 1959 1959 1959 1959 1959 1959 1959 1959 1970 1970 1523 1523 1516 1516 1516 1509 1509 1509 1509 1509 1509 1509 1509 1516 1516 1529 1536 1536 1543 1543 1543 1543 1543 1543 1543 1543 1543 1543 1543 1543 1543 1543 1543 1550 1550 1550 1550 1557 1557 1557 1557 1557 1557 1557 1564 1564 1564 1564 1564 1564 1564 1564 1564 1564 1564 1572 1579 1579 1579 1579 1586 1586 1586 1586 1586 1594 1594 1594 1594 1594 1594 1594 1601 1609 1609 1609 1609 1616 1616 1616 1616 1616 1624 1624 1624 1624 1624 1624 1624 1632 1632 1632 1632 1632 1632 1632 1632 1632 1632 1632 1639 1639 2984 2984 2984 2984 2984 2958 2958 2958 1894 1894 1894 1894 1894 1883 1883 1873 1863 1863 1853 1853 1853 1853 1863 1863 1863 1863 1873 1873 1883 1883 1883 1883 1883 2984 2984 3010 3010 3010 3010 3010 2984 2984 2984 2984 2984 2984 3010 3010 3010 3010 3037 3037 3037 3010 3010 3010 3037 3037 3010 3010 3037 3037 3037 3037 3037 3037 3037 3037 3037 3037 3037 3010 3010 3037 3037 3037 3037 3037 3037 3037 3037 3037 3037 3037 3037 3010 3010 3010 3010 2984 2984 3010 3010 3010 3010 3010 3010 3010 3010 3010 3010 3010 3010 3010 3010 3010 3010 2984 2984 2984 2984 2984 2984 2984 2984 2984 2984 2958 2958 2958 2958 2958 2958 2958 2958 2958 2958 2958 2958 2958 2958 2984 2958 2958 2958 2958 0 0 0 0 0 0 0 0 0 0 0
0 0 0 0 0 0 0 0 0 0 0 0 0 0 0 0 0 0 0 0 0 0 0 0 0 0 0 0 0 0 0 0 2812 2789 2789 2789 2789 2789 2789 2789 2789 2789 2812 2812 2812 2789 2789 2789 2789 2789 2789 2812 2812 2812 2812 2812 2835 2812 2812 2812 2812 2835 2835 2812 2812 2812 2812 2812 2812 2835 2835 2835 2835 2812 2812 2812 2812 2812 2812 2789 2789 2812 2812 2812 2812 2812 2812 2812 2812 2812 2812 2835 2835 2835 2859 2859 2859 2859 2859 2859 2859 2859 2859 2859 2859 2859 2859 2859 2859 2859 2883 2883 2883 2883 2883 2883 2883 2883 2883 2883 2883 2883 2883 2883 2859 2859 2859 2859 2883 2883 2883 2883 2883 2883 2883 2883 2883 2883 2883 2883 2908 2908 2908 2908 2908 2908 2908 2908 2908 2908 2908 2908 2908 2908 2908 2908 2883 2859 2859 2859 2065 2065 2065 2065 2065 2065 2078 2078 2078 2078 2078 2090 2090 2090 2103 2116 2143 0 0 0 0 0 0 0 1415 1415 1410 1410 1410 1404 1404 1404 1404 1410 1410 1415 1415 1421 1421 1421 1421 1421 1421 1427 1427 1427 1427 1433 1439 1439 1439 1439 1439 1445 1445 1445 1445 1445 1452 1452 1338 1338 1338 1338 1338 1338 1343 1343 1343 1343 1343 1343 1349 1349 1349 1349 1349 1470 1470 1470 1470 1470 1477 1477 1477 1477 1477 1477 1477 1483 1883 1894 1894 1904 1477 1477 1470 1470 1477 1477 1477 1904 1904 1904 1904 1904 1904 1904 1904 1904 1915 1915 1915 1926 1926 1926 1926 1926 1926 1926 1926 1926 1926 1926 1926 1926 1926 1926 1926 1926 1926 1926 1926 1926 1926 1936 1936 1947 1970 1981 1981 1993 2005 2005 2005 2005 2016 2016 0 0 0 0 0 0 2485 2485 2485 2485 2485 2485 2485 2485 1509 1509 1496 1489 1489 1489 1489 1489 1489 1483 1483 1483 1483 1483 1483 1489 1489 1489 1489 1489 1489 1915 1915 1926 1926 1926 1936 1936 1936 1936 1936 1947 1947 1947 1947 1947 1947 1947 1947 1947 1947 1936 1936 1936 1936 1936 1936 1947 1947 1947 1947 1947 1947 1947 1947 1947 1947 1947 1947 1947 1947 1947 1959 1959 1959 1959 1959 1959 1959 1523 1523 1516 1516 1516 1516 1509 1509 1509 1509 1509 1509 1516 1516 1523 1536 1536 1543 1543 1543 1543 1543 1543 1543 1543 1543 1543 1543 1543 1543 1543 1543 1543 1550 1550 1550 1557 1557 1557 1557 1557 1557 1557 1557 1564 1564 1564 1564 1564 1564 1572 1572 1572 1572 1572 1572 1579 1579 1579 1586 1586 1586 1586 1586 1594 1594 1594 1594 1594 1594 1594 1601 1601 1609 1609 1609 1609 1616 1616 1616 1616 1616 1624 1624 1624 1624 1624 1632 1632 1632 1632 1632 1632 1632 1632 1632 1632 1632 1639 1639 1647 2984 2984 2984 2984 2984 2958 2958 2958 2958 1894 1894 1894 1894 1894 1883 1883 1873 1863 1863 1863 1863 1853 1853 1863 1863 1863 1873 1873 1883 1883 1894 1894 1894 1894 2984 2984 2984 2984 3010 2984 2984 2984 2984 2984 2984 2984 2984 3010 2984 2984 2984 3010 3010 3010 2984 2984 3010 3010 3010 3010 3010 3010 3010 3010 3010 3010 3010 3010 3010 3010 3010 3010 3010 2984 2984 3010 3010 3010 3010 3010 3010 3010 3010 2984 2984 2984 2984 2984 2984 2984 2958 2958 2984 2984 2984 2984 2984 2984 2984 2984 2984 2984 3010 2984 2984 2984 2984 2984 2958 2958 2958 2958 2984 2984 2984 2958 2958 2958 2958 2958 2958 2958 2958 2958 2958 2958 2958 2958 2958 2958 2958 2958 2958 2958 2958 2958 2958 0 0 0 0 0 0 0 0 0 0 0
0 0 0 0 0 0 0 0 0 0 0 0 0 0 0 0 0 0 0 0 0 0 0 0 0 0 0 0 0 0 0 0 2789 2789 2789 2789 2789 2789 2789 2789 2789 2789 2789 2789 2789 2789 2789 2789 2789 2789 2789 2789 2789 2789 2789 2812 2812 2812 2812 2812 2812 2812 2812 2812 2812 2812 2812 2812 2812 2812 2812 2812 2812 2812 2789 2789 2789 2789 2789 2789 2789 2789 2789 2789 2789 2789 2789 2789 2812 2812 2812 2812 2835 2835 2835 2859 2859 2859 2859 2859 2835 2835 2835 2859 2859 2859 2859 2859 2859 2859 2859 2859 2859 2859 2859 2859 2859 2859 2859 2859 2859 2859 2883 2859 2859 2859 2859 2859 2859 2859 2859 2883 2883 2883 2883 2883 2883 2883 2883 2883 2883 2883 2883 2883 2883 2883 2883 2883 2883 2883 2883 2883 2883 2883 2883 2883 2859 2859 2859 2859 2065 2065 2065 2065 2065 2078 2078 2078 2078 2078 2078 2090 2090 2090 2090 2116 2143 0 0 0 0 0 0 1421 1415 1415 1410 1410 1410 1404 1404 1404 1404 1410 1410 1415 1421 1421 1421 1421 1421 1421 1421 1427 1427 1433 1433 1433 1439 1439 1445 1445 1445 1445 1445 1445 1445 1445 1452 1452 1338 1338 1338 1338 1338 1343 1343 1343 1343 1349 1349 1349 1349 1349 1349 1349 1349 1470 1470 1470 1470 1470 1477 1477 1477 1477 1477 1883 1894 1883 1883 1894 1894 1894 1894 1894 1894 1894 1904 1894 1894 1904 1904 1904 1904 1904 1904 1904 1904 1904 1904 1904 1904 1904 1904 1915 1915 1915 1915 1915 1915 1915 1915 1915 1915 1915 1915 1915 1926 1926 1915 1915 1915 1926 1926 1926 1926 1936 1947 1970 1981 1993 2005 2005 2005 2005 2016 2016 0 1496 1496 1496 0 2485 2485 2503 2503 2503 2485 2485 2485 1503 1503 1503 1503 1496 1496 1489 1489 1489 1489 1483 1483 1483 1483 1483 1483 1489 1489 1489 1489 1489 1489 1915 1915 1915 1926 1926 1926 1926 1926 1936 1936 1936 1936 1936 1936 1936 1936 1936 1936 1936 1936 1926 1926 1936 1926 1926 1936 1936 1936 1936 1936 1947 1947 1947 1936 1936 1936 1936 1936 1936 1936 1947 1947 1947 1947 1947 1947 1947 1947 1529 1523 1523 1516 1516 1516 1509 1509 1509 1509 1509 1509 1516 1516 1523 1536 1536 1543 1543 1543 1543 1543 1543 1543 1543 1536 1536 1536 1543 1543 1543 1543 1543 1550 1550 1557 1557 1557 1557 1557 1557 1557 1564 1564 1564 1564 1564 1564 1572 1572 1572 1572 1572 1572 1579 1579 1586 1586 1586 1586 1586 1586 1586 1594 1594 1594 1594 1594 1594 1601 1601 1601 1601 1609 1609 1616 1616 1616 1616 1624 1624 1624 1624 1624 1624 1632 1632 1632 1632 1632 1632 1632 1632 1632 1639 1639 1639 1639 1639 1647 1647 2984 2984 2984 2984 2958 2958 2958 2958 2958 1894 1894 1894 1894 1894 1883 1873 1873 1863 1863 1863 1863 1863 1863 1863 1863 1873 1873 1883 1883 1883 1883 1883 1894 2958 2958 2984 2958 2958 2984 2984 2984 2984 2984 2984 2984 2958 2958 2984 2984 2984 2984 2984 2984 2984 2984 2984 2984 2984 2984 2984 2984 3010 3010 3010 3010 3010 3010 3010 3010 3010 2984 2984 2984 2984 2984 2984 3010 3010 2984 2984 2984 2984 2984 2984 2984 2984 2984 2984 2958 2958 2958 2958 2958 2958 2958 2958 2958 2958 2958 2958 2958 2958 2958 2958 2958 2933 2933 2933 2933 2933 2933 2933 2933 2958 2958 2958 2958 2958 2958 2958 2933 2933 2933 2933 2933 2933 2933 2933 2933 2933 2933 2958 2958 2958 2958 2933 2933 0 0 0 0 0 0 0 0 0 0 0
0 0 0 0 0 0 0 0 0 0 0 0 0 0 0 0 0 0 0 0 0 0 0 0 0 0 0 0 0 0 0 0 2789 2789 2789 2789 2789 2789 2789 2789 2789 2789 2789 2789 2789 2789 2789 2789 2789 2789 2789 2789 2789 2789 2789 2789 2812 2812 2789 2789 2812 2812 2812 2812 2812 2812 2812 2812 2812 2812 2812 2812 2789 2789 2789 2789 2789 2789 2789 2789 2789 2789 2789 2789 2789 2789 2789 2789 2789 2789 2812 2812 2812 2835 2835 2835 2835 2835 2835 2835 2812 2812 2812 2812 2835 2835 2835 2835 2835 2859 2859 2859 2859 2859 2859 2859 2859 2859 2859 2859 2859 2859 2859 2859 2859 2859 2859 2859 2859 2859 2859 2883 2883 2883 2883 2883 2883 2883 2883 2883 2883 2883 2883 2883 2883 2883 2883 2883 2883 2883 2883 2883 2883 2883 2883 2883 2859 2835 2835 2835 2835 2065 2065 2078 2078 2078 2078 2078 2078 2078 2078 2090 2090 2090 2090 2129 0 0 0 0 0 0 0 1421 1415 1415 1410 1410 1410 1410 1410 1410 1410 1410 1415 1415 1421 1421 1421 1421 1421 1421 1427 1427 1427 1433 1433 1439 1439 1445 1445 1445 1445 1445 1445 1445 1445 1445 1452 1452 1343 1338 1338 1343 1343 1343 1343 1349 1349 1349 1349 1349 1349 1349 1349 1349 1354 1470 1470 1470 1470 1470 1477 1477 1477 1477 1883 1883 1883 1894 1894 1894 1894 1894 1894 1894 1894 1894 1894 1894 1894 1894 1894 1894 1894 1894 1894 1894 1894 1894 1894 1894 1894 1894 1894 1904 1904 1904 1904 1904 1904 1904 1915 1915 1915 1904 1904 1915 1904 1904 1904 1904 1904 1915 1915 1915 1915 1926 1936 1959 1981 1993 2005 2005 2005 2005 2016 2016 0 1496 1496 1496 1496 2485 2485 1496 1496 1496 1489 1489 1496 1496 1503 1503 1503 1496 1496 1496 1496 1489 1489 1483 1483 1483 1489 1489 1489 1489 1489 1489 1489 1489 1904 1915 1915 1915 1915 1915 1926 1926 1926 1926 1926 1926 1926 1926 1926 1926 1926 1926 1926 1926 1926 1926 1926 1926 1926 1926 1926 1926 1926 1926 1926 1936 1936 1936 1926 1926 1936 1936 1936 1936 1936 1936 1936 1947 1947 1936 1936 1936 1936 1529 1523 1523 1516 1516 1516 1509 1509 1509 1509 1509 1516 1516 1523 1536 1536 1536 1543 1543 1543 1543 1543 1543 1543 1543 1536 1536 1536 1543 1543 1543 1550 1550 1550 1557 1557 1557 1557 1557 1557 1557 1557 1564 1564 1564 1564 1564 1564 1572 1572 1579 1579 1579 1579 1579 1586 1586 1586 1586 1586 1586 1594 1594 1594 1594 1594 1594 1594 1601 1601 1601 1601 1609 1616 1616 1616 1616 1616 1624 1624 1624 1624 1624 1624 1632 1632 1632 1632 1632 1632 1632 1632 1632 1639 1639 1639 1639 1639 1647 1647 1647 2958 2958 2958 2984 2958 2958 2958 2958 2958 1894 1894 1894 1894 1894 1883 1873 1873 1863 1863 1863 1863 1863 1863 1863 1863 1873 1873 1883 1883 1883 1883 1883 1883 2958 2958 2958 2958 2958 2958 2958 2958 2958 2958 2958 2958 2958 2958 2958 2984 2984 2984 2984 2984 2984 2958 2958 2958 2958 2984 2984 2984 2984 2984 2984 2984 2984 2984 2984 2984 2984 2984 2984 2984 2984 2984 2984 2984 2984 2984 2984 2984 2984 2984 2958 2958 2958 2984 2958 2958 2958 2933 2933 2933 2958 2958 2958 2958 2958 2933 2933 2933 2933 2933 2933 2933 2933 2933 2933 2933 2933 2933 2933 2933 2958 2958 2933 2933 2958 2958 2958 2933 2933 2933 2933 2933 2933 2933 2933 2933 2933 2933 2933 2933 2933 2933 2908 2908 0 0 0 0 0 0 0 0 0 0 0
0 0 0 0 0 0 0 0 0 0 0 0 0 0 0 0 0 0 0 0 0 0 0 0 0 0 0 0 0 0 0 0 2767 2767 2767 2767 2767 2767 2767 2789 2789 2789 2789 2789 2789 2789 2767 2767 2767 2767 2789 2789 2789 2789 2789 2789 2789 2789 2789 2789 2789 2789 2789 2812 2789 2789 2789 2789 2789 2789 2789 2789 2789 2789 2789 2789 2789 2789 2789 2789 2789 2789 2789 2789 2789 2789 2789 2789 2789 2789 2789 2789 2789 2812 2812 2812 2812 2812 2812 2812 2812 2812 2812 2812 2812 2812 2835 2835 2835 2835 2835 2835 2835 2835 2835 2835 2835 2835 2835 2859 2859 2859 2859 2859 2859 2859 2859 2859 2859 2859 2859 2859 2859 2883 2859 2859 2859 2859 2859 2859 2883 2883 2883 2883 2883 2883 2883 2883 2883 2883 2883 2883 2883 2883 2883 2883 2835 2835 2835 2835 2835 2078 2078 2078 2078 2078 2078 2078 2078 2078 2090 2090 2090 2090 2103 2143 0 0 0 0 0 0 0 1427 1421 1421 1421 1415 1415 1415 1410 1410 1415 1415 1415 1415 1421 1421 1421 1427 1427 1427 1427 1427 1433 1439 1439 1439 1445 1445 1445 1445 1445 1445 1445 1445 1445 1445 1452 1452 1343 1343 1343 1343 1343 1343 1349 1349 1349 1349 1349 1354 1354 1354 1354 1354 1354 1354 1470 1470 1470 1470 1470 1477 1883 1883 1883 1883 1883 1883 1883 1883 1883 1883 1883 1883 1883 1894 1894 1894 1894 1894 1894 1894 1894 1894 1894 1894 1894 1894 1894 1894 1894 1894 1894 1894 1894 1894 1904 1904 1904 1904 1904 1904 1904 1904 1904 1904 1904 1904 1904 1904 1904 1904 1904 1904 1904 1915 1926 1959 1981 1993 2005 2005 2005 2005 2016 2016 2016 1489 1489 1496 1489 1489 1489 1489 1496 1489 1489 1489 1496 1496 1503 1503 1509 1503 1496 1496 1496 1496 1489 1483 1483 1489 1489 1489 1489 1489 1489 1489 1489 1489 1915 1915 1915 1915 1915 1915 1915 1915 1926 1926 1926 1926 1926 1926 1926 1915 1915 1926 1926 1915 1915 1915 1915 1926 1915 1915 1926 1926 1926 1926 1926 1926 1926 1926 1926 1926 1926 1926 1926 1926 1926 1936 1936 1936 1936 1926 1926 1926 1926 1536 1529 1523 1516 1516 1516 1509 1509 1509 1509 1516 1516 1516 1523 1536 1536 1536 1543 1543 1543 1543 1543 1543 1543 1543 1536 1536 1543 1543 1543 1543 1550 1550 1550 1557 1557 1557 1557 1557 1557 1564 1564 1564 1564 1564 1564 1564 1572 1572 1572 1579 1579 1579 1579 1579 1586 1586 1586 1594 1594 1594 1594 1594 1594 1594 1594 1594 1601 1601 1601 1609 1609 1616 1616 1616 1616 1616 1616 1624 1624 1624 1624 1632 1632 1639 1639 1639 1639 1639 1639 1639 1639 1639 1639 1647 1647 1647 1647 1647 1647 1647 2958 2958 2958 2958 2958 2958 2933 2933 2933 1894 1894 1894 1894 1894 1883 1873 1873 1863 1863 1863 1863 1863 1863 1863 1873 1883 1883 1883 1883 1894 1894 1894 1894 2958 2958 2958 2958 2958 2958 2958 2958 2958 2958 2958 2958 2958 2958 2958 2958 2958 2958 2958 2958 2958 2958 2958 2958 2958 2958 2958 2958 2958 2958 2958 2984 2958 2958 2958 2958 2958 2958 2958 2958 2958 2958 2958 2958 2958 2984 2958 2958 2958 2958 2958 2958 2958 2958 2958 2958 2958 2933 2933 2933 2933 2933 2933 2933 2933 2933 2933 2933 2933 2933 2933 2933 2933 2933 2933 2908 2908 2933 2933 2933 2933 2933 2933 2933 2933 2933 2933 2933 2933 2933 2933 2933 2933 2933 2933 2933 2933 2933 2933 2908 2908 2908 2908 2908 0 0 0 0 0 0 0 0 0 0 0
0 0 0 0 0 0 0 0 0 0 0 0 0 0 0 0 0 0 0 0 0 0 0 0 0 0 0 0 0 0 0 0 2767 2767 2767 2767 2767 2767 2767 2767 2789 2767 2767 2767 2767 2767 2767 2767 2767 2767 2789 2767 2767 2767 2767 2767 2789 2789 2789 2789 2789 2789 2789 2789 2789 2789 2789 2789 2789 2789 2789 2789 2767 2767 2767 2767 2767 2767 2767 2767 2767 2767 2789 2789 2789 2789 2789 2789 2789 2789 2789 2789 2789 2789 2789 2789 2789 2789 2789 2789 2789 2789 2789 2789 2789 2789 2812 2812 2812 2812 2835 2812 2812 2812 2812 2812 2812 2812 2812 2835 2835 2835 2835 2835 2835 2835 2835 2835 2835 2859 2859 2859 2859 2859 2859 2859 2859 2859 2859 2859 2859 2859 2859 2859 2859 2883 2859 2859 2859 2859 2859 2859 2859 2859 2859 2859 2835 2835 2835 2835 2835 2078 2078 2078 2078 2078 2078 2078 2090 2090 2090 2090 2103 2103 2116 2143 2184 0 0 0 0 0 0 0 0 0 1421 1415 1415 1415 1415 1415 1421 1421 1421 1427 1427 1427 1427 1427 1427 1427 1433 1433 1433 1439 1445 1445 1445 1445 1445 1445 1445 1445 1445 1445 1445 1445 1427 1427 1343 1343 1343 1349 1349 1349 1349 1354 1354 1354 1354 1354 1354 1354 1354 1354 1354 0 1873 1873 1873 1470 1470 1873 1863 1863 1873 1873 1873 1873 1873 1873 1873 1873 1873 1873 1873 1883 1883 1883 1883 1883 1883 1883 1883 1883 1883 1883 1883 1883 1883 1883 1883 1883 1883 1883 1894 1894 1894 1894 1894 1894 1894 1894 1894 1894 1894 1894 1894 1894 1894 1894 1894 1904 1904 1904 1904 1915 1926 1959 1981 1993 2005 2005 2005 2005 2016 1489 1489 1489 1489 1489 1489 1489 1489 1489 1496 1489 1489 1489 1496 1496 1503 1503 1509 1503 1496 1496 1496 1496 1489 1489 1489 1489 1489 1489 1489 1496 1496 1496 1496 1904 1904 1904 1904 1904 1915 1915 1915 1915 1915 1915 1915 1915 1915 1915 1915 1915 1915 1915 1915 1904 1904 1915 1915 1915 1915 1915 1915 1915 1915 1915 1915 1915 1915 1915 1915 1915 1926 1926 1926 1926 1926 1926 1926 1926 1926 1926 1926 1926 1926 1536 1529 1523 1516 1516 1516 1509 1509 1509 1509 1516 1516 1523 1523 1536 1536 1536 1543 1543 1543 1543 1543 1543 1543 1543 1543 1543 1543 1550 1550 1550 1550 1550 1557 1557 1557 1557 1557 1557 1564 1564 1564 1564 1564 1564 1572 1572 1572 1572 1579 1579 1579 1579 1586 1586 1586 1586 1594 1594 1594 1594 1594 1594 1594 1601 1601 1601 1601 1601 1609 1609 1616 1616 1616 1616 1616 1616 1616 1624 1624 1624 1632 1632 1639 1639 1639 1639 1639 1639 1639 1639 1639 1647 1647 1647 1647 1647 1647 1647 1647 2958 2958 2958 2958 2958 2958 2933 2933 2933 2933 1894 1894 1894 1894 1894 1883 1873 1873 1863 1863 1863 1863 1863 1863 1873 1873 1883 1883 1883 1883 1894 1894 1894 1894 2933 2933 2933 2933 2933 2933 2958 2933 2933 2958 2958 2958 2958 2958 2958 2958 2958 2958 2933 2933 2958 2958 2933 2933 2933 2958 2958 2958 2958 2958 2958 2958 2958 2958 2958 2958 2958 2958 2958 2958 2958 2958 2958 2958 2958 2958 2958 2958 2958 2958 2958 2958 2958 2958 2933 2933 2933 2933 2933 2933 2933 2933 2933 2933 2933 2933 2908 2908 2908 2908 2908 2908 2908 2908 2908 2908 2908 2908 2933 2933 2933 2933 2908 2908 2933 2933 2933 2908 2908 2933 2908 2908 2908 2908 2908 2908 2908 2908 2908 2908 2908 2908 2908 2908 0 0 0 0 0 0 0 0 0 0 0
0 0 0 0 0 0 0 0 0 0 0 0 0 0 0 0 0 0 0 0 0 0 0 0 0 0 0 0 0 0 0 0 2767 2767 2767 2767 2767 2744 2744 2767 2767 2767 2744 2744 2767 2767 2767 2767 2767 2767 2767 2767 2744 2744 2767 2767 2767 2767 2767 2767 2767 2767 2767 2767 2767 2767 2767 2767 2789 2789 2789 2767 2767 2767 2767 2767 2767 2767 2767 2767 2767 2767 2767 2767 2767 2767 2767 2789 2789 2789 2789 2789 2789 2789 2789 2789 2789 2789 2789 2789 2789 2789 2789 2789 2789 2789 2789 2789 2789 2789 2812 2789 2789 2789 2812 2812 2789 2789 2812 2812 2835 2835 2835 2835 2835 2812 2812 2812 2835 2835 2835 2835 2859 2859 2835 2835 2835 2835 2835 2859 2859 2859 2859 2859 2859 2859 2859 2859 2859 2859 2859 2859 2859 2859 2859 2859 2835 2835 2835 2835 2835 2078 2078 2078 2078 2078 2090 2090 2090 2090 2090 2103 2103 2103 2129 2143 2156 0 0 0 0 0 0 0 0 0 1421 1421 1421 1421 1415 1415 1421 1421 1427 1427 1427 1427 1427 1427 1433 1433 1433 1433 1439 1445 1445 1445 1452 1452 1452 1452 1452 1445 1445 1439 1439 1427 1427 1427 1433 1343 1343 1349 1349 1349 1354 1354 1354 1354 1354 1354 1359 1359 1354 1354 1354 0 1863 1863 1863 1863 1863 1863 1863 1863 1863 1863 1863 1863 1863 1863 1863 1863 1863 1873 1873 1873 1873 1873 1873 1873 1873 1883 1873 1873 1873 1873 1873 1873 1873 1873 1873 1873 1883 1883 1873 1873 1883 1883 1883 1883 1883 1883 1883 1883 1883 1883 1883 1894 1894 1894 1894 1894 1894 1894 1904 1904 1904 1959 1981 1993 1993 2005 2005 2005 1489 1489 1489 1489 1489 1489 1489 1489 1489 1489 1496 1489 1489 1489 1496 1496 1503 1503 1509 1503 1496 1496 1496 1496 1496 1489 1489 1489 1489 1489 1489 1496 1496 1496 1496 1904 1904 1904 1904 1904 1915 1915 1915 1915 1915 1915 1915 1915 1915 1915 1904 1904 1904 1904 1904 1904 1904 1904 1904 1904 1904 1915 1915 1915 1915 1915 1915 1915 1915 1915 1915 1915 1915 1915 1926 1926 1926 1915 1915 1926 1926 1915 1915 1926 1543 1536 1536 1529 1523 1516 1516 1516 1516 1516 1516 1516 1516 1523 1529 1536 1536 1536 1543 1543 1543 1543 1543 1543 1543 1550 1543 1543 1543 1550 1550 1550 1557 1557 1557 1557 1557 1557 1557 1564 1564 1564 1564 1564 1564 1572 1572 1579 1579 1579 1579 1586 1586 1586 1586 1586 1586 1586 1594 1594 1594 1594 1594 1594 1601 1601 1601 1601 1609 1609 1609 1616 1616 1616 1616 1616 1616 1624 1624 1624 1624 1632 1632 1639 1639 1647 1647 1647 1647 1639 1639 1647 1647 1647 1647 1647 1647 1647 1647 1647 1647 2958 2958 2958 2958 2958 2933 2933 2933 2933 1904 1904 1894 1894 1894 1894 1883 1873 1873 1863 1863 1863 1863 1863 1863 1873 1873 1883 1883 1894 1894 1894 1894 1894 1894 2933 2933 2933 2933 2933 2933 2933 2933 2933 2933 2933 2958 2958 2958 2958 2958 2933 2933 2933 2933 2933 2933 2933 2933 2933 2933 2933 2958 2933 2933 2958 2958 2958 2958 2958 2958 2958 2933 2933 2933 2933 2933 2933 2933 2933 2958 2958 2958 2958 2958 2933 2933 2933 2933 2933 2933 2933 2908 2908 2933 2933 2933 2933 2933 2908 2908 2908 2908 2908 2908 2908 2908 2908 2908 2908 2908 2908 2908 2908 2908 2908 2908 2908 2908 2933 2908 2908 2908 2908 2908 2908 2908 2908 2908 2908 2908 2908 2908 2908 2883 2883 2883 2883 2908 0 0 0 0 0 0 0 0 0 0 0
0 0 0 0 0 0 0 0 0 0 0 0 0 0 0 0 0 0 0 0 0 0 0 0 0 0 0 0 0 0 0 0 2744 2744 2744 2744 2744 2744 2744 2767 2767 2744 2744 2744 2744 2744 2744 2744 2744 2744 2767 2767 2744 2744 2767 2767 2767 2767 2767 2767 2767 2744 2744 2744 2744 2744 2744 2744 2767 2767 2767 2744 2744 2744 2767 2767 2767 2767 2744 2744 2767 2767 2767 2767 2767 2767 2767 2767 2767 2767 2767 2767 2789 2789 2789 2767 2767 2767 2789 2789 2789 2789 2789 2789 2789 2789 2789 2789 2789 2789 2789 2789 2789 2789 2789 2789 2789 2789 2789 2812 2812 2812 2812 2835 2812 2812 2812 2812 2835 2835 2812 2812 2835 2859 2835 2835 2835 2835 2835 2835 2835 2835 2835 2835 2835 2835 2835 2859 2859 2859 2859 2859 2859 2859 2859 2859 2835 2835 2835 2835 2835 2078 2078 2078 2078 2078 2090 2090 2090 2090 2090 2103 2103 2103 2129 2129 2156 0 0 0 0 0 0 0 0 0 1421 1421 1421 1421 1421 1421 1421 1421 1427 1427 1427 1427 1427 1433 1433 1433 1433 1439 1439 1445 1445 1445 1452 1452 1452 1452 1452 1863 1853 1439 1439 1427 1427 1427 1427 1343 1343 1349 1349 1349 1354 1354 1354 1354 1354 1354 1359 1359 1354 1354 1354 0 1853 1853 1853 1863 1863 1863 1863 1853 1853 1853 1853 1863 1863 1863 1863 1863 1863 1863 1863 1863 1873 1873 1873 1873 1873 1873 1873 1873 1873 1873 1873 1873 1873 1873 1873 1873 1873 1873 1873 1873 1883 1883 1883 1883 1883 1883 1883 1883 1883 1883 1883 1883 1883 1894 1894 1894 1894 1477 1470 1470 1477 1477 1477 1477 1470 1470 1477 1483 1483 1489 1489 1483 1483 1489 1489 1489 1489 1489 1496 1496 1489 1489 1496 1496 1503 1503 1509 1509 1503 1503 1496 1496 1496 1489 1489 1489 1489 1496 1496 1496 1496 1496 1904 1904 1904 1894 1894 1894 1904 1904 1904 1904 1904 1904 1904 1904 1904 1904 1894 1894 1894 1894 1894 1894 1894 1894 1894 1904 1904 1904 1904 1904 1904 1904 1904 1904 1904 1915 1915 1915 1915 1915 1915 1915 1915 1915 1915 1915 1904 1894 1894 1894 1543 1543 1536 1536 1523 1523 1523 1516 1516 1516 1516 1523 1523 1529 1536 1536 1543 1543 1543 1543 1543 1543 1543 1543 1543 1550 1550 1550 1550 1557 1557 1557 1557 1557 1557 1557 1557 1557 1564 1564 1564 1564 1564 1572 1572 1572 1579 1579 1586 1586 1586 1586 1586 1586 1586 1586 1586 1594 1594 1594 1594 1594 1594 1601 1601 1601 1601 1601 1609 1609 1609 1616 1616 1616 1624 1624 1624 1624 1624 1624 1632 1639 1639 1647 1647 1647 1647 1647 1647 1647 1647 1647 1647 1647 1647 1647 1647 1647 1647 1647 2958 2958 2958 2958 2958 2958 2933 2933 2933 2933 1904 1904 1894 1894 1894 1894 1883 1873 1873 1863 1863 1863 1863 1863 1863 1873 1873 1883 1883 1894 1894 1894 1894 2933 2933 2933 2933 2908 2908 2908 2908 2908 2933 2933 2933 2933 2933 2933 2933 2933 2933 2933 2933 2933 2933 2933 2933 2933 2933 2933 2933 2933 2933 2933 2933 2933 2933 2933 2933 2933 2933 2933 2933 2933 2933 2933 2933 2933 2933 2933 2958 2933 2933 2933 2933 2933 2933 2933 2933 2933 2933 2933 2908 2908 2908 2908 2908 2908 2908 2908 2908 2908 2908 2908 2908 2908 2908 2908 2908 2908 2908 2908 2908 2908 2908 2908 2908 2908 2908 2908 2908 2908 2883 2883 2883 2883 2883 2883 2908 2883 2883 2883 2883 2883 2883 2883 2883 2883 2883 0 0 0 0 0 0 0 0 0 0 0
0 0 0 0 0 0 0 0 0 0 0 0 0 0 0 0 0 0 0 0 0 0 0 0 0 0 0 0 0 0 0 0 2744 2744 2744 2744 2723 2723 2744 2744 2744 2744 2723 2723 2744 2744 2723 2723 2723 2723 2744 2744 2744 2744 2744 2744 2744 2744 2744 2744 2744 2744 2744 2744 2744 2744 2744 2744 2744 2744 2744 2723 2723 2723 2744 2744 2744 2744 2744 2744 2744 2744 2767 2767 2767 2767 2767 2767 2767 2767 2767 2767 2767 2767 2767 2744 2744 2767 2767 2767 2767 2767 2767 2789 2767 2767 2767 2789 2789 2789 2789 2789 2789 2789 2789 2789 2789 2789 2789 2812 2812 2812 2812 2812 2812 2789 2789 2789 2812 2812 2812 2812 2812 2812 2812 2812 2812 2812 2812 2812 2812 2812 2812 2812 2835 2835 2835 2835 2835 2835 2835 2835 2835 2835 2835 2835 2812 2812 2835 2835 2835 2078 2078 2078 2078 2078 2078 2090 2090 2090 2090 2103 2103 2103 2129 2129 2143 0 0 0 0 0 0 0 0 0 0 1421 1421 1421 1421 1421 1421 1427 1427 1427 1427 1427 1427 1433 1433 1433 1433 1439 1439 1445 1445 1452 1452 1452 1452 1452 1853 1853 1843 1843 1853 1853 1427 1427 1427 1349 1349 1354 1354 1354 1354 1354 1354 1354 1354 1359 1359 1359 1359 1359 1359 0 1853 1853 1853 1853 1853 1853 1853 1853 1853 1853 1853 1853 1853 1853 1853 1853 1853 1863 1863 1863 1863 1863 1863 1863 1863 1863 1863 1863 1863 1863 1863 1863 1863 1863 1863 1863 1873 1873 1873 1873 1873 1883 1883 1883 1883 1883 1883 1883 1883 1883 1883 1883 1883 1470 1470 1470 1470 1470 1470 1470 1470 1470 1470 1477 1470 1470 1477 1477 1483 1483 1483 1483 1483 1489 1489 1489 1489 1489 1489 1496 1496 1496 1496 1496 1503 1503 1509 1509 1509 1509 1503 1503 1496 1489 1489 1496 1496 1496 1496 1496 1503 1503 1509 1883 1883 1883 1883 1883 1883 1883 1883 1883 1883 1883 1883 1894 1894 1894 1883 1883 1894 1883 1883 1883 1883 1883 1883 1894 1894 1894 1894 1894 1904 1904 1904 1904 1904 1904 1915 1915 1915 1915 1915 1915 1915 1904 1904 1904 1894 1894 1894 1894 1543 1543 1536 1536 1529 1523 1523 1516 1516 1516 1516 1523 1529 1536 1536 1543 1543 1543 1543 1543 1550 1550 1550 1550 1550 1557 1550 1550 1550 1557 1557 1557 1557 1557 1557 1557 1564 1564 1564 1564 1564 1564 1564 1572 1572 1579 1579 1579 1586 1586 1586 1586 1586 1586 1586 1586 1594 1594 1594 1594 1594 1601 1601 1601 1601 1609 1601 1601 1609 1609 1609 1609 1616 1616 1624 1624 1624 1632 1632 1639 1655 1655 1655 1655 1655 1655 1647 1647 1647 1647 1647 1647 1647 1647 1647 1647 1647 1647 1647 1647 2958 2958 2933 2933 2933 2933 2933 2933 2933 1904 1904 1904 1904 1904 1894 1894 1883 1873 1873 1863 1863 1863 1863 1863 1873 1883 1883 1894 1894 1894 1894 1894 1904 2933 2908 2908 2908 2908 2908 2883 2883 2908 2908 2908 2908 2908 2933 2933 2933 2933 2933 2933 2933 2933 2933 2933 2933 2933 2908 2908 2933 2933 2933 2933 2933 2933 2933 2933 2933 2933 2933 2933 2908 2908 2933 2933 2933 2933 2933 2933 2933 2933 2933 2933 2933 2933 2933 2933 2933 2933 2908 2908 2908 2908 2908 2908 2908 2908 2908 2908 2908 2908 2908 2908 2908 2908 2908 2908 2908 2908 2908 2883 2883 2883 2883 2883 2883 2883 2883 2883 2883 2883 2859 2859 2859 2859 2883 2883 2883 2859 2859 2859 2859 2859 2859 2859 2859 2859 2859 0 0 0 0 0 0 0 0 0 0 0
0 0 0 0 0 0 0 0 0 0 0 0 0 0 0 0 0 0 0 0 0 0 0 0 0 0 0 0 0 0 0 0 2723 2723 2723 2723 2723 2723 2723 2723 2723 2723 2701 2701 2723 2701 2701 2723 2723 2723 2723 2723 2723 2723 2723 2723 2744 2744 2744 2744 2744 2723 2723 2723 2723 2744 2744 2744 2744 2744 2744 2723 2723 2723 2723 2723 2723 2744 2744 2744 2744 2744 2744 2744 2744 2744 2744 2767 2744 2744 2744 2744 2767 2767 2767 2744 2744 2744 2767 2767 2767 2767 2767 2767 2767 2767 2767 2767 2767 2767 2767 2767 2767 2767 2767 2767 2767 2767 2789 2789 2789 2789 2789 2812 2789 2789 2789 2789 2789 2789 2789 2789 2789 2812 2812 2812 2812 2812 2812 2812 2789 2789 2789 2812 2812 2812 2812 2812 2812 2835 2812 2812 2812 2835 2835 2835 2812 2812 2812 2812 2812 2065 2065 2078 2078 2078 2078 2090 2090 2090 2090 2103 2103 2116 2129 2129 2129 0 0 0 0 0 0 0 0 0 0 1421 1421 1421 1421 1421 1421 1427 1427 1427 1427 1427 1433 1433 1433 1433 1439 1439 1445 1445 1452 1452 1458 1458 1458 1843 1843 1843 1833 1833 1843 1843 1843 1833 1354 1354 1354 1354 1354 1354 1354 1354 1354 1359 1359 1359 1359 1359 1359 1359 1359 1823 1843 1843 1843 1853 1853 1853 1853 1853 1853 1853 1853 1853 1853 1853 1853 1853 1853 1853 1853 1853 1853 1853 1853 1853 1853 1853 1853 1853 1853 1853 1853 1853 1853 1853 1853 1853 1863 1863 1863 1863 1863 1873 1873 1873 1873 1883 1883 1883 1873 1873 1883 1470 1470 1470 1464 1464 1470 1470 1470 1470 1470 1470 1470 1470 1470 1470 1470 1477 1477 1483 1483 1483 1483 1483 1489 1489 1489 1489 1489 1496 1496 1496 1496 1496 1503 1509 1509 1509 1509 1509 1503 1503 1503 1496 1496 1496 1503 1503 1503 1503 1503 1509 1509 1883 1883 1883 1873 1873 1883 1883 1883 1873 1873 1873 1873 1883 1883 1883 1883 1883 1883 1883 1883 1883 1883 1883 1883 1883 1883 1883 1883 1883 1883 1883 1883 1883 1883 1894 1894 1894 1904 1904 1904 1904 1904 1904 1904 1894 1894 1883 1883 1883 1543 1543 1536 1536 1529 1529 1529 1523 1523 1523 1523 1523 1529 1536 1536 1543 1543 1543 1550 1550 1550 1550 1557 1557 1557 1557 1557 1557 1557 1557 1557 1557 1557 1564 1564 1564 1564 1564 1564 1564 1564 1564 1572 1579 1579 1579 1579 1586 1586 1586 1586 1586 1586 1586 1586 1586 1586 1594 1594 1594 1594 1601 1601 1601 1601 1609 1609 1609 1609 1609 1609 1609 1609 1616 1624 1632 1632 1639 1639 1655 1663 1663 1663 1663 1655 1655 1655 1647 1647 1647 1647 1647 1647 1647 1647 1647 1647 1647 1647 1647 2958 2933 2933 2933 2908 2908 2883 2883 2883 1904 1904 1904 1904 1904 1894 1894 1883 1883 1873 1873 1873 1873 1873 1873 1883 1883 1883 1894 1894 1894 1904 1904 1904 2908 2908 2908 2908 2883 2883 2883 2883 2883 2883 2883 2883 2908 2908 2908 2933 2933 2933 2933 2933 2908 2908 2908 2908 2933 2908 2908 2933 2933 2933 2933 2933 2933 2908 2908 2933 2908 2908 2908 2908 2908 2908 2908 2908 2908 2908 2933 2933 2933 2933 2933 2933 2933 2933 2908 2908 2908 2908 2908 2883 2883 2883 2908 2908 2908 2908 2908 2883 2883 2883 2883 2883 2883 2883 2883 2883 2883 2883 2883 2883 2883 2883 2883 2883 2883 2859 2859 2859 2859 2859 2859 2859 2859 2859 2883 2883 2859 2859 2859 2859 2859 2835 2835 2835 2835 2859 0 0 0 0 0 0 0 0 0 0 0
0 0 0 0 0 0 0 0 0 0 0 0 0 0 0 0 0 0 0 0 0 0 0 0 0 0 0 0 0 0 0 0 2723 2723 2723 2723 2723 2723 2723 2723 2723 2723 2701 2701 2701 2701 2701 2701 2701 2701 2723 2723 2723 2723 2723 2723 2723 2723 2744 2723 2723 2723 2723 2723 2723 2723 2723 2723 2723 2744 2744 2723 2723 2723 2723 2723 2723 2723 2723 2723 2744 2744 2744 2744 2744 2744 2744 2744 2744 2744 2744 2744 2744 2744 2744 2744 2744 2744 2767 2767 2767 2767 2767 2767 2767 2767 2767 2767 2767 2767 2767 2767 2767 2767 2767 2767 2767 2767 2767 2789 2789 2789 2789 2789 2789 2789 2789 2789 2789 2789 2789 2789 2789 2789 2789 2789 2789 2812 2812 2789 2789 2789 2789 2789 2812 2789 2789 2812 2812 2835 2812 2812 2812 2812 2812 2812 2789 2789 2812 2812 2812 2065 2065 2078 2078 2078 2078 2090 2090 2090 2090 2103 2103 2116 2116 2129 2129 0 0 0 0 0 0 0 0 0 0 1427 1427 1421 1421 1421 1421 1421 1427 1427 1427 1427 1433 1433 1433 1439 1439 1439 1445 1445 1445 1452 1823 1823 1823 1833 1833 1833 1833 1833 1833 1833 1833 1833 1354 1354 1354 1354 1354 1354 1354 1354 1354 1359 1359 1359 1359 1359 1359 1359 1359 1823 1823 1823 1833 1853 1853 1853 1853 1843 1843 1843 1843 1843 1843 1843 1843 1843 1843 1843 1843 1853 1853 1853 1853 1853 1843 1843 1853 1853 1853 1853 1853 1853 1853 1853 1853 1853 1853 1853 1853 1863 1863 1873 1873 1445 1445 1445 1452 1458 1452 1452 1458 1464 1464 1464 1464 1464 1464 1464 1464 1464 1464 1470 1470 1470 1470 1470 1470 1477 1477 1483 1483 1483 1483 1483 1483 1489 1489 1489 1489 1496 1496 1496 1496 1496 1503 1509 1509 1509 1509 1509 1509 1509 1503 1503 1503 1503 1503 1509 1509 1509 1509 1509 1509 1873 1873 1873 1873 1873 1873 1873 1873 1873 1873 1873 1873 1873 1873 1873 1873 1873 1883 1873 1873 1873 1873 1873 1873 1873 1873 1873 1873 1873 1873 1883 1883 1883 1883 1883 1894 1894 1894 1894 1904 1894 1894 1883 1883 1883 1883 1883 1883 1550 1543 1543 1543 1536 1536 1529 1529 1523 1523 1523 1523 1529 1529 1536 1536 1543 1543 1550 1550 1557 1557 1557 1557 1557 1557 1564 1557 1557 1557 1557 1557 1564 1564 1564 1564 1564 1564 1564 1564 1564 1572 1572 1572 1579 1579 1579 1579 1586 1586 1586 1586 1586 1586 1586 1586 1586 1586 1594 1594 1594 1594 1601 1601 1601 1609 1609 1609 1609 1609 1609 1609 1609 1609 2933 2933 2933 1671 1671 1671 1671 1671 1671 1671 1671 1663 1663 1655 1655 1655 1647 1647 1647 1647 1647 1647 1647 1647 1647 1647 1647 2933 2933 2883 2883 2883 2883 2859 2859 2859 1904 1904 1904 1904 1904 1894 1894 1883 1883 1873 1873 1873 1873 1873 1873 1883 1883 1883 1894 1894 1894 1904 1904 1904 1915 2883 2883 2883 2883 2883 2883 2883 2883 2883 2883 2883 2883 2908 2908 2908 2908 2908 2908 2908 2908 2908 2908 2908 2908 2908 2908 2908 2908 2908 2908 2908 2908 2908 2908 2908 2908 2883 2883 2883 2883 2883 2908 2908 2908 2908 2908 2908 2933 2933 2908 2908 2908 2908 2883 2883 2883 2883 2883 2859 2859 2883 2883 2883 2883 2883 2883 2883 2883 2883 2883 2859 2859 2859 2859 2883 2883 2859 2859 2859 2859 2859 2859 2859 2859 2835 2835 2835 2835 2835 2835 2835 2835 2859 2859 2883 2859 2835 2835 2859 2835 2835 2835 2835 2835 2835 0 0 0 0 0 0 0 0 0 0 0
0 0 0 0 0 0 0 0 0 0 0 0 0 0 0 0 0 0 0 0 0 0 0 0 0 0 0 0 0 0 0 0 2723 2723 2723 2723 2723 2723 2723 2723 2723 2701 2701 2701 2701 2701 2680 2680 2701 2701 2701 2701 2701 2701 2723 2723 2723 2723 2723 2723 2723 2723 2723 2723 2723 2723 2723 2723 2723 2723 2723 2723 2723 2723 2723 2723 2723 2723 2723 2723 2723 2723 2723 2723 2723 2723 2723 2723 2723 2723 2723 2723 2744 2744 2744 2744 2744 2744 2744 2744 2744 2744 2767 2767 2767 2767 2767 2767 2744 2744 2744 2744 2744 2767 2767 2767 2767 2767 2767 2789 2789 2789 2789 2789 2789 2789 2789 2789 2789 2789 2767 2767 2767 2767 2789 2789 2789 2789 2789 2789 2789 2789 2789 2789 2789 2789 2789 2789 2812 2812 2812 2789 2789 2812 2789 2789 2789 2789 2789 2789 2789 2078 2078 2078 2078 2078 2090 2090 2090 2090 2090 2103 2103 2116 2116 2129 2129 0 0 0 0 0 0 0 0 0 0 1427 1427 1421 1421 1421 1421 1421 1427 1427 1427 1427 1433 1433 1433 1439 1439 1439 1445 1445 1445 1452 1823 1823 1823 1823 1823 1823 1823 1823 1823 1823 1823 1823 1359 1359 1359 1359 1359 1359 1359 1359 1359 1359 1359 1359 1359 1359 1359 1365 1365 1365 1813 1813 1823 1833 1833 1843 1843 1833 1833 1843 1843 1843 1843 1843 1843 1843 1843 1843 1843 1843 1843 1843 1843 1843 1843 1843 1853 1853 1853 1853 1853 1853 1853 1853 1853 1853 1853 1853 1853 1863 1863 1445 1445 1445 1445 1445 1445 1452 1452 1452 1458 1458 1458 1464 1464 1464 1464 1464 1464 1464 1464 1464 1470 1470 1470 1470 1470 1470 1477 1483 1483 1483 1483 1483 1483 1489 1489 1489 1496 1496 1496 1496 1496 1503 1509 1509 1516 1516 1516 1509 1509 1509 1509 1503 1503 1503 1509 1509 1509 1509 1509 1509 1489 1489 1489 1863 1863 1863 1863 1863 1863 1863 1863 1863 1863 1873 1873 1873 1873 1873 1873 1873 1873 1873 1873 1873 1873 1873 1873 1873 1873 1873 1873 1873 1873 1873 1883 1883 1883 1883 1883 1894 1894 1894 1883 1883 1883 1883 1883 1883 1883 1550 1543 1543 1543 1536 1536 1536 1529 1529 1529 1529 1529 1529 1536 1543 1543 1550 1550 1557 1557 1557 1564 1564 1564 1564 1564 1564 1557 1557 1557 1564 1564 1564 1564 1564 1564 1564 1564 1564 1572 1572 1572 1579 1579 1579 1579 1579 1579 1586 1586 1586 1586 1586 1586 1586 1586 1586 1586 1594 1594 1594 1594 1594 1594 1601 1609 1609 1609 1609 1609 1609 1609 1609 2933 2933 2933 2933 1680 1680 1680 1680 1680 1680 1671 1671 1663 1663 1655 1655 1655 1647 1647 1647 1647 1655 1655 1655 1655 1647 1647 2958 2908 2908 2883 2883 2883 2883 2859 2859 2859 1894 1894 1894 1904 1904 1894 1894 1883 1883 1873 1873 1873 1873 1873 1873 1883 1883 1894 1894 1894 1894 1904 1904 1904 1915 2883 2883 2883 2883 2859 2859 2859 2859 2883 2883 2883 2883 2883 2883 2883 2883 2883 2883 2883 2883 2883 2883 2883 2883 2883 2883 2883 2883 2883 2883 2883 2908 2883 2883 2883 2883 2883 2883 2883 2883 2883 2883 2883 2883 2883 2883 2883 2908 2908 2908 2908 2908 2908 2883 2883 2883 2883 2883 2859 2859 2859 2859 2883 2883 2883 2883 2883 2859 2859 2859 2859 2859 2835 2835 2859 2859 2859 2859 2835 2835 2835 2835 2835 2835 2835 2835 2835 2835 2835 2835 2835 2835 2835 2835 2835 2835 2835 2835 2835 2835 2812 2812 2812 2835 2835 0 0 0 0 0 0 0 0 0 0 0
0 0 0 0 0 0 0 0 0 0 0 0 0 0 0 0 0 0 0 0 0 0 0 0 0 0 0 0 0 0 0 0 2701 2701 2701 2701 2701 2701 2701 2701 2701 2701 2680 2680 2701 2701 2680 2680 2680 2701 2701 2701 2701 2701 2723 2723 2723 2723 2723 2723 2723 2723 2723 2723 2723 2723 2723 2723 2723 2723 2723 2701 2701 2701 2701 2701 2701 2701 2701 2701 2701 2701 2701 2701 2701 2701 2701 2701 2701 2723 2723 2723 2744 2723 2723 2723 2723 2744 2744 2744 2744 2744 2744 2744 2744 2744 2744 2744 2744 2744 2744 2744 2744 2744 2767 2767 2767 2767 2767 2767 2767 2767 2767 2767 2767 2767 2767 2767 2767 2767 2767 2767 2767 2767 2767 2767 2789 2789 2789 2767 2767 2767 2767 2789 2789 2789 2789 2789 2789 2789 2789 2789 2789 2789 2789 2789 2767 2767 2767 2789 2789 2078 2078 2078 2078 2078 2090 2090 2090 2090 2090 2103 2103 2116 2116 2129 2129 0 0 0 0 0 0 0 0 0 0 1427 1427 1421 1421 1421 1421 1421 1427 1427 1427 1427 1433 1433 1439 1439 1439 1445 1445 1445 1445 1452 1813 1813 1813 1823 1823 1823 1823 1823 1823 1823 1823 1823 1370 1370 1359 1359 1359 1359 1359 1359 1359 1359 1359 1359 1365 1365 1365 1365 1365 1365 1813 1813 1823 1823 1823 1833 1843 1833 1833 1833 1833 1833 1833 1833 1833 1833 1833 1833 1833 1843 1843 1843 1843 1843 1843 1843 1853 1853 1853 1853 1853 1853 1853 1853 1853 1853 1853 1445 1445 1445 1445 1445 1445 1445 1445 1445 1445 1445 1452 1452 1452 1458 1458 1458 1464 1464 1464 1464 1464 1464 1464 1464 1470 1470 1470 1470 1470 1470 1477 1483 1483 1483 1483 1489 1489 1489 1489 1489 1496 1496 1496 1496 1496 1503 1509 1509 1516 1516 1516 1509 1509 1509 1509 1503 1503 1503 1509 1509 1509 1509 1509 1509 1489 1489 1489 1853 1853 1863 1853 1853 1853 1863 1863 1853 1853 1863 1863 1863 1853 1853 1863 1863 1863 1863 1863 1863 1863 1863 1863 1863 1863 1863 1863 1873 1873 1873 1873 1873 1873 1873 1883 1883 1883 1883 1883 1883 1883 1883 1883 1883 1883 1550 1550 1543 1543 1536 1536 1536 1536 1536 1536 1536 1536 1536 1536 1543 1543 1550 1550 1557 1564 1564 1564 1564 1564 1564 1564 1564 1557 1557 1557 1564 1564 1564 1564 1564 1564 1564 1564 1564 1572 1572 1572 1579 1579 1579 1579 1579 1579 1586 1586 1586 1579 1579 1579 1579 1579 1579 1579 1594 1594 1594 1594 1594 1594 1609 1609 1609 1609 1609 1616 2883 2883 2908 2933 2933 2933 2933 1680 1680 1680 1680 1680 1680 1671 1671 1663 1663 1655 1655 1655 1655 1647 1647 1647 1655 1655 1655 1655 1647 1647 2958 2908 2908 2883 2883 2883 2883 2859 2859 2859 1894 1894 1894 1904 1904 1894 1894 1883 1883 1873 1873 1873 1873 1873 1873 1883 1883 1894 1894 1894 1904 1904 1915 1915 1915 2859 2859 2859 2859 2859 2859 2859 2859 2883 2859 2859 2859 2883 2883 2859 2859 2859 2883 2883 2883 2883 2883 2883 2883 2883 2883 2859 2859 2859 2859 2859 2859 2859 2859 2859 2859 2859 2859 2859 2859 2859 2859 2859 2859 2883 2883 2883 2883 2883 2883 2883 2883 2883 2859 2859 2859 2859 2859 2835 2835 2835 2835 2859 2859 2859 2859 2859 2859 2859 2835 2835 2835 2835 2835 2835 2835 2835 2835 2835 2835 2835 2835 2835 2835 2835 2835 2835 2835 2835 2835 2835 2835 2835 2835 2835 2812 2812 2812 2812 2812 2812 2812 2812 2812 2812 0 0 0 0 0 0 0 0 0 0 0
0 0 0 0 0 0 0 0 0 0 0 0 0 0 0 0 0 0 0 0 0 0 0 0 0 0 0 0 0 0 0 0 2680 2680 2680 2701 2701 2701 2701 2701 2701 2680 2680 2680 2680 2680 2680 2680 2680 2680 2701 2701 2701 2701 2701 2701 2701 2701 2701 2701 2701 2701 2701 2701 2701 2701 2701 2701 2701 2723 2723 2701 2701 2701 2701 2701 2701 2701 2701 2701 2701 2701 2701 2701 2701 2701 2701 2701 2701 2701 2701 2723 2723 2723 2723 2723 2723 2723 2723 2723 2723 2723 2723 2744 2744 2744 2744 2744 2744 2723 2723 2744 2744 2744 2744 2744 2744 2767 2767 2767 2767 2767 2767 2767 2767 2767 2767 2767 2767 2767 2767 2767 2767 2767 2767 2767 2767 2767 2767 2767 2767 2767 2767 2767 2767 2789 2789 2789 2789 2789 2789 2789 2789 2789 2789 2789 2767 2767 2767 2767 2767 2078 2078 2078 2078 2078 2090 2090 2090 2090 2090 2103 2103 2116 2116 2129 2116 2116 0 0 0 0 0 0 0 0 0 1427 1427 1421 1421 1421 1421 1421 1427 1427 1427 1427 1433 1433 1439 1439 1439 1445 1445 1445 1445 1813 1813 1813 1813 1813 1823 1823 1823 1823 1823 1823 1823 1823 1370 1370 1365 1359 1359 1359 1359 1359 1359 1359 1359 1359 1365 1365 1370 1370 1370 1370 1804 1804 1813 1823 1823 1823 1833 1823 1823 1833 1833 1833 1833 1833 1833 1833 1833 1833 1833 1843 1843 1843 1843 1843 1843 1843 1843 1843 1853 1853 1853 1853 1439 1439 1439 1439 1439 1439 1439 1445 1445 1445 1445 1445 1445 1445 1445 1445 1452 1452 1452 1452 1452 1458 1458 1458 1458 1464 1464 1464 1464 1464 1470 1470 1470 1470 1470 1477 1477 1483 1483 1483 1483 1489 1489 1489 1489 1489 1496 1496 1496 1496 1503 1503 1509 1509 1516 1516 1516 1516 1516 1516 1516 1509 1509 1509 1509 1509 1509 1509 1509 1509 1509 1516 1853 1853 1853 1853 1853 1853 1853 1853 1853 1853 1853 1853 1853 1853 1853 1853 1853 1853 1853 1863 1863 1863 1863 1863 1863 1853 1853 1863 1863 1863 1863 1863 1863 1863 1863 1873 1873 1873 1873 1873 1873 1873 1883 1883 1883 1883 1883 1557 1550 1543 1543 1536 1536 1536 1536 1536 1536 1536 1536 1536 1543 1543 1550 1550 1557 1564 1564 1564 1564 1564 1564 1564 1564 1564 1564 1564 1564 1564 1564 1572 1572 1572 1572 1572 1572 1572 1853 1586 1586 1586 1586 1586 1586 1586 1586 1586 1586 1586 1579 1579 1579 1579 1579 1579 1579 1863 1873 1873 1873 1873 1873 2883 2859 2859 2859 2859 2859 2883 2883 2883 2883 2883 2883 2883 2883 1680 1680 1680 1680 1680 1680 1671 1663 1655 1655 1655 1655 1655 1655 1647 1647 1655 1655 1655 1655 1655 2958 2958 2908 2883 2883 2859 2859 2859 2835 2835 2835 1894 1894 1894 1904 1904 1894 1894 1883 1883 1873 1873 1873 1873 1883 1883 1894 1894 1894 1894 1894 1904 1904 1904 1915 1915 2859 2859 2859 2859 2859 2859 2859 2859 2859 2859 2859 2859 2859 2859 2859 2859 2859 2859 2859 2859 2859 2859 2859 2859 2859 2859 2859 2859 2859 2859 2859 2859 2859 2859 2859 2859 2859 2859 2859 2859 2859 2859 2859 2859 2859 2859 2859 2859 2859 2859 2859 2859 2859 2859 2859 2859 2859 2859 2835 2835 2835 2835 2835 2835 2835 2835 2835 2835 2835 2835 2835 2835 2812 2812 2812 2812 2812 2812 2812 2812 2812 2835 2835 2835 2835 2835 2835 2835 2835 2812 2812 2812 2812 2812 2812 2812 2789 2789 2812 2812 2812 2812 2812 2812 2812 2812 0 0 0 0 0 0 0 0 0 0
0 0 0 0 0 0 0 0 0 0 0 0 0 0 0 0 0 0 0 0 0 0 0 0 0 0 0 0 0 0 0 0 2680 2680 2680 2680 2680 2680 2680 2680 2680 2680 2659 2659 2680 2659 2659 2659 2659 2659 2680 2680 2680 2680 2701 2701 2701 2701 2701 2701 2701 2701 2701 2701 2701 2701 2701 2701 2701 2701 2701 2680 2680 2680 2680 2680 2680 2680 2680 2680 2680 2680 2680 2680 2680 2680 2680 2680 2680 2701 2701 2701 2701 2701 2701 2701 2701 2723 2701 2701 2723 2723 2723 2723 2723 2723 2744 2723 2723 2723 2723 2723 2744 2723 2723 2744 2744 2744 2744 2744 2744 2744 2744 2744 2767 2767 2767 2767 2767 2767 2744 2744 2744 2744 2767 2767 2767 2767 2767 2767 2767 2767 2767 2767 2767 2767 2767 2767 2789 2767 2767 2767 2767 2767 2767 2767 2767 2767 2767 2767 2767 2078 2078 2078 2078 2078 2090 2090 2090 2090 2090 2090 2103 2103 2103 2116 2103 2103 0 0 0 0 0 0 0 0 0 1433 1427 1427 1427 1427 1427 1427 1427 1427 1433 1433 1433 1433 1439 1439 1439 1445 1445 1445 1445 1813 1813 1813 1813 1813 1813 1813 1813 1813 1813 1813 1813 1813 1365 1365 1365 1365 1365 1359 1359 1359 1359 1359 1359 1365 1365 1370 1370 1376 1376 1376 1804 1804 1813 1813 1823 1823 1823 1823 1823 1833 1833 1833 1833 1833 1833 1823 1823 1823 1823 1833 1833 1833 1421 1421 1843 1843 1427 1427 1433 1439 1439 1433 1433 1433 1433 1433 1433 1439 1439 1439 1445 1445 1445 1445 1445 1445 1445 1452 1452 1452 1452 1452 1452 1458 1458 1458 1458 1464 1464 1464 1464 1464 1470 1470 1470 1470 1470 1477 1477 1483 1483 1483 1489 1489 1489 1489 1496 1496 1496 1496 1496 1503 1503 1509 1509 1516 1516 1516 1516 1516 1516 1516 1516 1509 1509 1509 1509 1509 1516 1509 1509 1509 1509 1516 1843 1843 1843 1853 1843 1843 1843 1843 1843 1843 1843 1843 1843 1843 1843 1843 1843 1843 1843 1853 1853 1853 1853 1853 1853 1843 1843 1853 1853 1853 1863 1863 1863 1863 1863 1863 1863 1873 1873 1873 1873 1873 1873 1873 1873 1873 1564 1557 1550 1543 1543 1543 1536 1536 1536 1536 1536 1536 1536 1536 1543 1543 1550 1550 1557 1564 1564 1564 1564 1564 1564 1564 1564 1572 1564 1564 1564 1572 1572 1572 1572 1572 1572 1863 1863 1863 1853 1853 1853 1863 1853 1853 1853 1853 1863 1863 1863 1863 1863 1863 1863 1863 1863 1863 1863 1863 1863 1863 1863 1863 1863 1873 2859 2859 2859 2859 2859 2859 2859 2883 2883 2883 2883 2883 2883 1680 1680 1680 1680 1680 1680 1671 1663 1655 1655 1655 1655 1655 1655 1655 1655 1655 1655 1655 1655 1655 2933 2883 2859 2859 2859 2859 2859 2859 2835 2835 2859 2859 1894 1894 1904 1904 1894 1894 1883 1883 1873 1873 1883 1883 1883 1883 1894 1894 1894 1894 1894 1894 1904 1904 1915 1926 1926 2835 2835 2835 2835 2835 2835 2859 2859 2859 2859 2859 2859 2859 2859 2859 2859 2859 2859 2859 2859 2859 2859 2859 2859 2859 2859 2859 2859 2859 2859 2859 2835 2835 2835 2859 2859 2859 2859 2859 2859 2859 2859 2859 2859 2859 2859 2859 2859 2859 2859 2859 2859 2835 2835 2835 2835 2835 2835 2835 2835 2835 2835 2835 2835 2835 2835 2835 2835 2835 2835 2812 2812 2812 2812 2812 2812 2812 2812 2812 2812 2812 2812 2812 2812 2812 2812 2812 2812 2812 2812 2812 2812 2812 2789 2789 2767 2767 2767 2767 2789 2789 2789 2812 2812 2812 0 0 0 0 0 0 0 0 0 0
0 0 0 0 0 0 0 0 0 0 0 0 0 0 0 0 0 0 0 0 0 0 0 0 0 0 0 0 0 0 0 0 2659 2659 2659 2680 2680 2680 2680 2680 2680 2680 2659 2659 2659 2659 2659 2659 2659 2659 2680 2659 2659 2659 2680 2680 2680 2680 2680 2680 2701 2701 2701 2701 2701 2701 2680 2680 2680 2680 2680 2659 2659 2680 2680 2680 2680 2680 2680 2680 2680 2680 2680 2680 2680 2680 2680 2680 2680 2680 2680 2680 2701 2701 2701 2701 2701 2701 2701 2701 2701 2701 2701 2701 2701 2701 2723 2701 2701 2701 2701 2701 2701 2723 2723 2723 2723 2723 2723 2723 2744 2744 2744 2744 2744 2744 2767 2767 2767 2744 2744 2744 2744 2744 2744 2744 2744 2744 2744 2744 2744 2744 2744 2767 2767 2767 2767 2767 2767 2767 2767 2767 2767 2767 2767 2767 2744 2744 2744 2744 2744 2078 2078 2090 2090 2090 2090 2090 2090 2090 2090 2090 2103 2103 2103 2116 2103 2103 0 0 0 0 0 0 0 0 0 1439 1433 1427 1427 1427 1427 1427 1427 1427 1433 1433 1433 1433 1439 1439 1445 1445 1445 1445 1445 1452 1804 1804 1804 1804 1813 1813 1813 1813 1813 1813 1813 1813 1365 1365 1365 1365 1365 1365 1359 1359 1359 1365 1365 1365 1370 1376 1376 1376 1376 1376 1804 1804 1427 1427 1433 1823 1823 1823 1823 1833 1833 1833 1833 1833 1833 1823 1823 1415 1415 1833 1415 1415 1415 1421 1421 1421 1421 1421 1427 1427 1427 1427 1427 1433 1433 1433 1433 1439 1439 1439 1439 1445 1445 1445 1445 1445 1445 1452 1452 1452 1452 1452 1452 1458 1458 1458 1458 1464 1464 1464 1464 1464 1470 1470 1470 1470 1477 1477 1483 1483 1489 1489 1489 1489 1489 1496 1496 1496 1496 1496 1496 1503 1503 1509 1516 1516 1516 1516 1516 1516 1516 1516 1516 1509 1509 1509 1509 1516 1516 1516 1516 1516 1516 1516 1843 1843 1843 1843 1843 1843 1843 1843 1843 1843 1843 1843 1843 1843 1843 1843 1843 1843 1843 1843 1843 1843 1843 1843 1843 1843 1843 1843 1843 1843 1853 1853 1853 1853 1853 1853 1853 1853 1853 1853 1853 1853 1863 1863 1863 1863 1564 1557 1557 1543 1543 1543 1536 1536 1536 1536 1536 1536 1536 1543 1543 1543 1550 1557 1557 1564 1564 1564 1564 1564 1564 1564 1564 1572 1564 1564 1564 1586 1586 1843 1843 1853 1853 1853 1863 1863 1853 1853 1863 1863 1863 1863 1863 1863 1863 1863 1863 1863 1863 1863 1863 1863 1863 1863 1863 1863 1863 1863 1863 1863 1863 1863 1863 2859 2859 2859 2883 2859 2859 2883 2883 2883 2883 2883 2883 1680 1680 1680 1680 1680 1680 1671 1663 1663 1655 1655 1655 1655 1655 1655 1655 1655 1663 1663 1663 1663 2859 2859 2859 2835 2835 2859 2859 2859 2859 2859 2859 2859 1915 1904 1904 1904 1894 1894 1883 1883 1873 1873 1883 1883 1883 1883 1894 1894 1894 1894 1894 1894 1904 1915 1915 1926 1926 2812 2812 2812 2812 2812 2812 2835 2835 2835 2835 2835 2859 2859 2835 2835 2859 2859 2859 2859 2859 2859 2859 2859 2859 2859 2859 2835 2835 2835 2835 2835 2835 2835 2835 2859 2859 2859 2859 2859 2859 2859 2859 2859 2859 2859 2859 2859 2859 2859 2859 2859 2835 2835 2835 2835 2835 2835 2812 2812 2812 2812 2835 2835 2835 2835 2835 2835 2835 2835 2812 2812 2812 2812 2812 2789 2789 2789 2789 2789 2812 2812 2812 2812 2812 2812 2812 2812 2812 2812 2812 2812 2789 2789 2789 2767 2767 2767 2767 2767 2767 2789 2789 2789 2789 2789 0 0 0 0 0 0 0 0 0 0
0 0 0 0 0 0 0 0 0 0 0 0 0 0 0 0 0 0 0 0 0 0 0 0 0 0 0 0 0 0 0 0 2639 2639 2639 2659 2659 2659 2659 2659 2659 2659 2659 2659 2659 2659 2639 2639 2659 2659 2659 2659 2659 2659 2659 2659 2659 2659 2659 2659 2680 2680 2701 2680 2680 2680 2680 2659 2659 2659 2659 2659 2659 2659 2659 2659 2659 2659 2659 2659 2680 2680 2680 2680 2680 2680 2680 2680 2680 2680 2680 2680 2680 2680 2680 2680 2680 2701 2680 2680 2701 2701 2701 2701 2701 2701 2701 2701 2701 2701 2701 2701 2701 2701 2701 2723 2701 2701 2723 2723 2723 2723 2723 2723 2723 2723 2723 2723 2723 2701 2701 2701 2701 2701 2723 2723 2723 2723 2744 2744 2744 2744 2744 2744 2744 2767 2767 2767 2767 2767 2767 2767 2767 2767 2767 2767 2744 2744 2744 2744 2744 2078 2078 2090 2090 2090 2090 2090 2090 2090 2090 2090 2103 2103 2103 2116 2116 2116 0 0 0 0 0 0 0 0 0 0 1433 1427 1427 1427 1427 1427 1427 1433 1433 1433 1439 1439 1445 1445 1445 1445 1445 1445 1445 1452 1794 1794 1794 1804 1804 1813 1813 1813 1813 1823 1823 1823 1370 1370 1370 1365 1365 1365 1365 1365 1365 1365 1365 1370 1370 1376 1376 1376 1376 1376 1427 1427 1427 1427 1427 1427 1427 1823 1823 1421 1421 1415 1415 1415 1415 1415 1415 1415 1415 1415 1415 1415 1415 1421 1421 1421 1421 1421 1427 1427 1427 1427 1427 1433 1433 1433 1433 1439 1439 1439 1439 1439 1439 1445 1445 1445 1445 1445 1452 1452 1452 1452 1452 1458 1458 1458 1458 1464 1464 1464 1464 1464 1470 1470 1470 1470 1477 1477 1483 1483 1489 1489 1489 1489 1489 1496 1496 1496 1496 1496 1503 1503 1509 1509 1516 1516 1516 1516 1516 1516 1516 1516 1516 1509 1509 1516 1516 1516 1516 1516 1516 1516 1516 1516 1833 1833 1833 1843 1843 1843 1843 1843 1833 1833 1833 1833 1833 1833 1833 1833 1833 1833 1833 1843 1843 1843 1833 1833 1833 1833 1833 1843 1843 1843 1843 1843 1853 1843 1843 1843 1843 1843 1843 1843 1843 1843 1853 1853 1853 1853 1564 1557 1550 1550 1543 1543 1536 1536 1536 1536 1536 1536 1543 1543 1543 1543 1550 1550 1557 1564 1564 1564 1564 1564 1564 1572 1572 1579 1833 1833 1833 1833 1833 1833 1843 1843 1843 1853 1853 1853 1853 1853 1863 1863 1863 1863 1853 1853 1853 1853 1853 1863 1863 1863 1863 1853 1853 1863 1863 1863 1863 1853 1853 1853 1853 1853 1853 1843 1843 2883 2883 2859 2859 2883 2883 2859 2859 2859 2859 1680 1680 1680 1680 1680 1680 1671 1663 1663 1663 1655 1655 1655 1655 1655 1655 1655 1663 1663 1663 1663 2859 2859 2835 2835 2835 2859 2859 2859 2859 2859 2859 1915 1915 1904 1904 1904 1894 1894 1894 1883 1883 1883 1883 1883 1894 1894 1894 1894 1894 1894 1894 1904 1904 1915 1926 1926 1926 2789 2812 2812 2789 2789 2789 2812 2835 2835 2835 2835 2835 2835 2835 2835 2835 2835 2835 2835 2835 2835 2835 2835 2835 2835 2835 2835 2835 2835 2835 2812 2812 2812 2835 2835 2835 2835 2835 2859 2859 2859 2859 2859 2859 2859 2835 2835 2835 2835 2835 2835 2835 2835 2835 2835 2835 2835 2812 2812 2812 2812 2812 2812 2812 2812 2812 2812 2812 2812 2812 2812 2789 2789 2789 2789 2789 2789 2789 2789 2789 2789 2812 2812 2812 2812 2812 2812 2812 2812 2789 2789 2767 2767 2767 2767 2767 2767 2767 2767 2767 2789 2789 2789 2789 2789 0 0 0 0 0 0 0 0 0 0
0 0 0 0 0 0 0 0 0 0 0 0 0 0 0 0 0 0 0 0 0 0 0 0 0 0 0 0 0 0 0 0 2639 2639 2639 2639 2639 2639 2639 2639 2639 2639 2639 2639 2639 2639 2639 2639 2639 2639 2659 2659 2659 2659 2659 2659 2659 2659 2659 2659 2659 2659 2680 2680 2659 2659 2680 2659 2659 2659 2659 2639 2639 2639 2639 2639 2639 2659 2659 2659 2680 2680 2680 2680 2680 2680 2680 2680 2680 2680 2680 2680 2680 2680 2680 2680 2680 2680 2680 2680 2680 2680 2680 2680 2680 2701 2701 2701 2701 2701 2701 2701 2701 2701 2701 2701 2701 2701 2701 2701 2701 2723 2723 2701 2701 2701 2701 2701 2701 2701 2701 2701 2701 2701 2701 2723 2723 2723 2723 2701 2701 2701 2701 2701 2701 2723 2723 2723 2723 2723 2723 2723 2723 2723 2723 2723 2701 2701 2701 2680 2680 2078 2078 2090 2090 2090 2090 2090 2090 2090 2090 2090 2103 2103 2103 2116 2116 0 0 0 0 0 0 0 0 0 0 0 1433 1427 1427 1427 1427 1427 1433 1433 1433 1439 1439 1439 1445 1445 1445 1445 1445 1445 1445 1445 1785 1785 1785 1794 1804 1804 1804 1804 1813 1823 1823 1823 1370 1370 1370 1365 1365 1365 1365 1365 1365 1365 1370 1370 1376 1376 1376 1376 1381 1381 1421 1421 1421 1427 1427 1427 1427 1427 1427 1421 1415 1415 1415 1415 1415 1415 1415 1415 1415 1415 1415 1415 1415 1421 1421 1421 1421 1427 1427 1427 1427 1427 1427 1433 1433 1433 1433 1439 1439 1439 1439 1439 1439 1445 1445 1445 1445 1445 1452 1452 1452 1452 1452 1458 1458 1458 1458 1464 1464 1464 1464 1470 1470 1470 1470 1477 1477 1483 1483 1489 1489 1489 1496 1496 1496 1496 1496 1496 1496 1496 1503 1509 1509 1516 1516 1516 1523 1516 1516 1516 1516 1516 1516 1516 1516 1516 1516 1516 1516 1516 1516 1516 1516 1823 1823 1833 1833 1833 1833 1833 1833 1833 1833 1833 1833 1833 1833 1833 1833 1833 1833 1833 1833 1833 1833 1833 1833 1833 1833 1833 1833 1833 1833 1843 1843 1843 1843 1843 1843 1843 1843 1833 1833 1833 1833 1833 1843 1843 1843 1843 1564 1557 1550 1550 1543 1543 1543 1536 1536 1543 1543 1543 1543 1543 1543 1543 1543 1543 1564 1564 1564 1572 1843 1843 1843 1843 1833 1833 1833 1833 1833 1833 1833 1833 1843 1843 1843 1843 1853 1853 1853 1853 1853 1853 1853 1853 1853 1843 1843 1853 1853 1853 1853 1853 1853 1853 1853 1853 1853 1853 1853 1853 1853 1853 1853 1853 1843 1843 1843 1843 2883 2859 2859 2883 2859 2859 2859 2859 1688 1680 1680 1680 1680 1680 1680 1671 1663 1663 1663 1655 1655 1655 1655 1663 1663 1663 1663 1663 1663 1663 2859 2812 2812 2812 2812 2835 2859 2883 2859 2859 2859 1915 1915 1904 1904 1904 1894 1894 1894 1883 1883 1883 1883 1883 1894 1894 1894 1894 1904 1904 1904 1904 1904 1915 1936 2789 2789 2789 2789 2789 2789 2789 2789 2789 2812 2812 2812 2812 2812 2812 2812 2812 2812 2812 2812 2812 2835 2835 2835 2835 2812 2812 2812 2812 2812 2812 2812 2812 2812 2812 2835 2835 2835 2835 2835 2835 2835 2835 2835 2835 2835 2835 2812 2812 2812 2812 2812 2789 2789 2812 2812 2812 2835 2835 2812 2812 2812 2812 2812 2812 2812 2812 2812 2812 2812 2812 2812 2789 2789 2789 2789 2767 2767 2767 2767 2767 2767 2789 2789 2789 2789 2789 2812 2812 2789 2789 2767 2767 2767 2767 2744 2744 2744 2744 2767 2767 2767 2767 2767 2767 2767 2789 0 0 0 0 0 0 0 0 0 0
0 0 0 0 0 0 0 0 0 0 0 0 0 0 0 0 0 0 0 0 0 0 0 0 0 0 0 0 0 0 0 0 2618 2618 2639 2639 2639 2639 2639 2639 2639 2639 2639 2639 2639 2639 2639 2639 2639 2639 2659 2659 2659 2659 2659 2659 2659 2659 2659 2659 2659 2659 2659 2659 2659 2659 2659 2659 2659 2639 2639 2639 2618 2618 2639 2639 2639 2639 2639 2659 2659 2680 2680 2680 2680 2680 2659 2659 2659 2659 2659 2659 2659 2659 2659 2659 2659 2659 2659 2659 2659 2680 2680 2680 2680 2701 2701 2701 2701 2701 2680 2680 2680 2680 2680 2680 2680 2680 2680 2701 2701 2701 2701 2701 2701 2701 2701 2701 2701 2701 2701 2701 2701 2701 2701 2701 2701 2701 2701 2701 2701 2701 2701 2701 2701 2701 2701 2701 2723 2723 2723 2723 2701 2701 2723 2723 2680 2680 2680 2680 2680 2090 2090 2090 2090 2090 2090 2090 2090 2090 2103 2103 2103 2103 2116 2116 2116 2143 0 0 0 0 0 0 0 0 0 1433 1427 1427 1427 1427 1427 1433 1433 1433 1439 1439 1445 1445 1445 1445 1445 1445 1445 1445 1445 1445 1785 1785 1785 1785 1785 1794 1794 1794 1804 1813 1823 1823 1370 1370 1370 1370 1370 1370 1370 1370 1370 1370 1370 1376 1376 1376 1381 1381 1387 1398 1410 1415 1415 1415 1421 1421 1421 1421 1421 1421 1415 1415 1415 1415 1415 1415 1415 1415 1415 1415 1415 1415 1421 1421 1421 1421 1421 1421 1427 1427 1427 1433 1433 1433 1433 1439 1439 1439 1439 1439 1439 1439 1439 1445 1445 1445 1445 1452 1452 1452 1452 1452 1452 1458 1458 1458 1464 1464 1464 1464 1470 1470 1470 1477 1477 1477 1483 1483 1483 1489 1489 1489 1496 1496 1496 1496 1496 1496 1503 1503 1509 1516 1516 1516 1523 1523 1523 1523 1523 1516 1516 1516 1523 1516 1516 1516 1516 1516 1523 1516 1516 1516 1516 1813 1823 1823 1823 1823 1823 1823 1823 1823 1823 1823 1823 1823 1823 1823 1823 1823 1823 1823 1833 1833 1833 1833 1833 1833 1833 1833 1833 1833 1833 1833 1833 1843 1843 1843 1843 1833 1833 1833 1833 1833 1833 1833 1843 1843 1843 1843 1572 1564 1557 1550 1543 1543 1543 1536 1536 1543 1543 1543 1543 1543 1543 1543 1543 1543 1833 1833 1833 1843 1843 1843 1843 1843 1833 1833 1833 1833 1833 1833 1833 1833 1833 1833 1833 1843 1843 1853 1843 1843 1853 1843 1843 1833 1833 1833 1833 1833 1833 1843 1843 1843 1843 1843 1843 1843 1843 1843 1843 1843 1843 1843 1843 1843 1833 1833 1833 1843 1843 1833 2859 2859 2859 2859 2859 2859 1688 1688 1688 1680 1680 1680 1680 1671 1663 1663 1663 1663 1663 1663 1663 1663 1663 1663 1663 1663 1663 1663 2812 2789 2789 2789 2812 2812 2835 2859 2883 1936 1926 1915 1915 1915 1904 1904 1894 1894 1894 1894 1883 1883 1883 1894 1894 1894 1894 1894 1904 1904 1894 1894 1904 2767 2767 2789 2789 2789 2789 2789 2789 2789 2789 2789 2789 2789 2812 2812 2812 2812 2812 2812 2812 2789 2789 2812 2812 2812 2812 2812 2812 2812 2789 2789 2789 2789 2789 2789 2789 2789 2812 2812 2812 2812 2812 2812 2812 2812 2812 2812 2812 2812 2789 2789 2812 2812 2789 2789 2789 2812 2812 2812 2812 2812 2789 2789 2789 2789 2789 2789 2789 2789 2789 2789 2789 2789 2767 2767 2767 2767 2767 2744 2744 2767 2767 2767 2767 2789 2789 2789 2789 2789 2789 2789 2789 2767 2744 2744 2744 2744 2744 2744 2744 2744 2744 2744 2744 2744 2744 2744 2744 2767 0 0 0 0 0 0 0 0 0 0
